# .PCD v0.7 - Point Cloud Data file format
VERSION 0.7
FIELDS x y z intensity
SIZE 4 4 4 4
TYPE F F F F
COUNT 1 1 1 1
WIDTH 1023
HEIGHT 1
VIEWPOINT 0 0 0 1 0 0 0
POINTS 1023
DATA ascii
-7.17566633 6.67311859 -2.49513626  1087243874
-2.49513626 0.96036029 -7.48995209  1064688172
-7.59085417 6.19674444 -2.49513626  1086217281
-2.49513626 0.96036029 -7.97447300  1064688172
-8.15393925 5.43451881 -2.49513626  1084861630
-2.49513626 0.96036029 -8.40718651  1064688171
-8.78528404 4.34044647 -2.49513626  1082546152
-2.49513626 0.96036023 -8.98488998  1064688172
-9.04677391 3.76517916 -2.49513626  1080531664
-2.49513626 0.96036023 4.27404451  1064708762
3.94778872 9.23951244 -2.64753628  1091884247
-2.64753628 0.95928973 3.34406328  1064670211
3.03682852 9.57764435 -2.64753628  1092223359
-2.64753628 0.95928973 2.72643399  1064670211
2.57015157 9.71328545 -2.64753628  1092357681
-2.64753628 0.95928973 2.25562525  1064670211
1.93875241 9.85875130 -2.64753628  1092499512
-2.64753628 0.95928973 1.13847589  1064670211
0.97736043 9.99991798 -2.64753628  1092643701
-2.64753628 0.95928973 0.49268028  1064670211
0.33080199 10.04212093 -2.64753628  1092664583
-2.64753628 0.95928973 -0.15516777  1064670211
-0.64077955 10.02711487 -2.64753628  1092632425
-2.64753628 0.95928973 -0.96375221  1064670211
-1.12488866 9.98439884 -2.64753628  1092579455
-2.64753628 0.95928973 -1.44623041  1064670211
-1.60636580 9.91832829 -2.64753628  1092470834
-2.64753628 0.95928973 -2.55692720  1064670211
-2.86889911 9.62928104 -2.64753628  1092177648
-2.64753628 0.95928973 -3.17789078  1064670211
-3.33116293 9.47929192 -2.64753628  1092012578
-2.64753628 0.95928973 -3.78563428  1064670211
-4.08375740 9.18022728 -2.64753628  1091686301
-2.64753628 0.95928973 -4.39832258  1064708762
-4.53295994 8.31372547 -2.49513626  1090770231
-2.49513626 0.96158755 -4.92967415  1064708762
-5.18779230 7.92165756 -2.49513626  1089995307
-2.49513626 0.96158755 -5.80890512  1064708762
-5.92872858 7.38349056 -2.49513626  1088392545
-2.49513626 0.96158755 -6.72262335  1064708762
-6.82927608 6.55947542 -2.49513626  1086546338
-2.49513626 0.96158755 -7.52463102  1064708762
-7.61633444 5.62647104 -2.49513626  1085282310
-2.49513626 0.96158755 -8.12422180  1064708761
-8.27684021 4.59996414 -2.49513626  1083107516
-2.49513626 0.96158755 -8.62041569  1064708762
-8.68247700 3.77893662 -2.49513626  1079423777
-2.49513626 0.96158755 -8.90799046  1064708761
-8.95860958 3.06741762 -2.49513626  1090769689
-2.49513626 0.96273869 3.73421764  1064728075
3.59887791 8.42291355 -2.49513626  1091684607
-2.64753628 0.96050829 2.93752217  1064690655
2.63727617 9.35435009 -2.64753628  1092023244
-2.64753628 0.96050829 2.02887511  1064690655
1.56689429 9.59186840 -2.64753628  1092213419
-2.64753628 0.96050835 1.25680315  1064690656
0.78931487 9.68690205 -2.64753628  1092321547
-2.64753628 0.96050829 -0.15009545  1064690656
-1.39894044 9.61779976 -2.64753628  1092132695
-2.64753628 0.96050835 -2.01593876  1064690655
-2.16897297 9.47389221 -2.64753628  1092026566
-2.64753628 0.96050835 -2.47331333  1064690655
-2.62454319 9.35793114 -2.64753628  1091849097
-2.64753628 0.96050835 -3.22223282  1064690655
-3.66184187 9.00277805 -2.64753628  1090967627
-2.49513626 0.96273869 -3.85728383  1064728075
-3.99073839 8.24447632 -2.49513626  1090706798
-2.49513626 0.96273869 -4.25449228  1064728075
-4.51382923 7.97011566 -2.49513626  1090301569
-2.49513626 0.96273863 -5.26260281  1064728075
-5.38279581 7.41099691 -2.49513626  1088911759
-2.49513626 0.96273863 -6.18326521  1064728075
-6.29141855 6.65698576 -2.49513626  1087487995
-2.49513626 0.96273869 -6.60595560  1064728075
-6.70739746 6.23764467 -2.49513626  1086362756
-2.49513626 0.96273869 -7.00117493  1064728075
-7.36727715 5.44248152 -2.49513626  1084904932
-2.49513626 0.96273869 -7.53893042  1064728075
-7.62182951 5.07987404 -2.49513626  1084135969
-2.49513626 0.96273869 -7.78165770  1064728075
-7.93340015 4.57805252 -2.49513626  1083073193
-2.49513626 0.96273869 -8.07688808  1064728075
-8.21197605 4.05719805 -2.49513626  1081812769
-2.49513626 0.96273863 -8.33852291  1064728075
-8.39855480 3.65536308 -2.49513626  1080114955
-2.49513626 0.96273869 -8.51204872  1064728074
-8.66565704 2.96711540 -2.49513626  1090621579
-2.49513626 0.96382046 3.48442197  1064746223
3.08852553 8.32075119 -2.49716711  1090948076
-2.49513626 0.96382046 2.26004934  1064709869
1.81571114 9.23306847 -2.64753628  1091892741
-2.64753628 0.96165353 0.76421070  1064709869
0.61289144 9.38992405 -2.64753628  1091997430
-2.64753628 0.96165353 -0.29700479  1064709869
-0.90258735 9.36652088 -2.64753628  1091916313
-2.64753628 0.96165353 -1.35444748  1064709869
-1.50442016 9.28886604 -2.64753628  1091843814
-2.64753628 0.96165353 -1.80313957  1064709869
-2.09999084 9.17259121 -2.64753628  1091711830
-2.64753628 0.96165353 -2.39465213  1064709869
-2.54107380 9.06031704 -2.64753628  1091586662
-2.64753628 0.96165353 -2.80489016  1064746223
-3.20840931 8.26751709 -2.49513626  1090744177
-2.49513626 0.96382046 -3.60442638  1064746224
-3.99201584 7.91893911 -2.49513626  1090211892
-2.49513626 0.96382040 -4.24527740  1064746223
-4.37026930 7.71663475 -2.49513626  1089774900
-2.49513626 0.96382046 -4.61681175  1064746224
-4.85855293 7.41891146 -2.49513626  1089134099
-2.49513626 0.96382040 -5.09523153  1064746223
-5.32661772 7.09034061 -2.49513626  1088429296
-2.49513626 0.96382046 -5.55246449  1064746224
-5.66323519 6.82447624 -2.49513626  1087258538
-2.49513626 0.96382040 -6.39585686  1064746224
-6.59060526 5.93377018 -2.49513626  1085961359
-2.49513626 0.96382046 -6.77850819  1064746224
-6.86982393 5.60813761 -2.49513626  1084304471
-2.49513626 0.96382040 -7.37942410  1064746224
-7.53417444 4.67782068 -2.49513626  1083295880
-2.49513626 0.96382046 -7.82001448  1064746223
-7.95080185 3.92816281 -2.49513626  1080745315
-2.49513626 0.96382040 -8.13144779  1064746223
-8.24133205 3.27508664 -2.49513626  1076833451
-2.49513626 0.96382046 3.75470138  1064763310
3.50350642 7.84705114 -2.49513626  1090526676
-2.49513626 0.96483886 2.86016512  1064763310
2.59738827 8.19172573 -2.49513626  1090762875
-2.49513626 0.96483886 2.33190870  1064763310
2.20075226 8.31722736 -2.49798679  1090879156
-2.49553466 0.96483332 1.92968643  1064763172
1.65827703 8.43258667 -2.49526596  1091540749
-2.64753628 0.96273178 1.03321052  1064727959
0.88699347 9.07529259 -2.64753628  1091660326
-2.64753628 0.96273178 0.59391350  1064727959
0.44712570 9.10757065 -2.64753628  1091672447
-2.64753628 0.96273178 -1.16684365  1064727959
-1.31250882 9.02358150 -2.64753628  1091568923
-2.64753628 0.96273178 -1.60278010  1064727959
-2.05264592 8.34490299 -2.49513626  1090766384
-2.49513626 0.96483886 -2.84913230  1064763310
-2.97948503 8.06061077 -2.49513626  1090531122
-2.49513626 0.96483886 -3.23783827  1064763310
-3.36576676 7.90711212 -2.49513626  1090208266
-2.49513626 0.96483886 -3.99163771  1064763310
-4.11382580 7.54501152 -2.49513626  1089423692
-2.49513626 0.96483886 -4.59157753  1064763310
-4.70811176 7.18919373 -2.49513626  1088492454
-2.49513626 0.96483886 -5.48788261  1064763310
-5.59380054 6.52381468 -2.49513626  1086840002
-2.49513626 0.96483886 -6.00264502  1064763310
-6.19781590 5.95296860 -2.49513626  1086014910
-2.49513626 0.96483886 -6.38653851  1064763310
-6.82887697 5.21701097 -2.49513626  1084450361
-2.49513626 0.96483886 -7.07315159  1064763310
-7.15092897 4.76602268 -2.49513626  1083248168
-2.49513626 0.96483886 -7.37302637  1064763310
-7.51153421 4.17463779 -2.49513626  1082241533
-2.49513626 0.96483886 -7.70461273  1064763310
3.76181030 7.43706608 -2.49513626  1089701716
-2.49513626 0.96579927 3.15064287  1064779423
3.02582431 7.76566505 -2.49513626  1090223736
-2.49513626 0.96579927 2.64677787  1064779423
2.13191104 8.05705261 -2.49513626  1090613812
-2.49513626 0.96579927 1.73982084  1064779423
1.47610867 8.20257568 -2.49513626  1090755296
-2.49513626 0.96579927 0.81070906  1064779423
0.54340214 8.32530594 -2.49773622  1090868804
-2.49790907 0.96576190 0.00566923  1064779128
-0.12876490 8.33684063 -2.49618387  1090868446
-2.49604535 0.96578699 -0.79941887  1064779423
-1.06649482 8.26581669 -2.49513626  1090778614
-2.49513626 0.96579927 -1.46493924  1064779423
-1.59703720 8.17989159 -2.49513626  1090649216
-2.49513626 0.96579927 -1.99070811  1064779423
-2.25062323 8.02470398 -2.49513626  1090492553
-2.49513626 0.96579927 -2.63602161  1064779423
-3.01524925 7.76977825 -2.49513626  1089932148
-2.49513626 0.96579927 -3.26420593  1064779423
-3.50976825 7.55927896 -2.49513626  1089474039
-2.49513626 0.96579927 -3.75168276  1064779423
-4.33885717 7.11585999 -2.49513626  1088516215
-2.49513626 0.96579927 -4.56604528  1064779423
-4.67786884 6.89773226 -2.49513626  1087883584
-2.49513626 0.96579927 -5.00593090  1064779423
-5.21818590 6.49859238 -2.49513626  1087192148
-2.49513626 0.96579927 -5.52631664  1064779423
-5.62619448 6.14874887 -2.49513626  1086444768
-2.49513626 0.96579927 -5.82151842  1064779423
-5.91693020 5.86950588 -2.49513626  1085849395
-2.49513626 0.96579927 -6.10310555  1064779423
-6.37041426 5.37391853 -2.49513626  1084794871
-2.49513626 0.96579927 -6.62281990  1064779423
-6.70353365 4.95215225 -2.49513626  1083899209
-2.49513626 0.96579927 -6.85972357  1064779423
-7.00878096 4.50978518 -2.49513626  1082720686
-2.49513626 0.96579927 -7.21865273  1064779423
-7.41163492 3.81166792 -2.49513626  1080837207
-2.49513626 0.96579927 -7.53068209  1064779423
-7.69453287 3.20239210 -2.49513626  1077737456
-2.49513626 0.96579927 -7.84038210  1064779423
-7.88494015 2.69979620 -2.49513626  1089000924
-2.49513626 0.96670640 3.41645169  1064794642
3.29778528 7.38627863 -2.49513626  1089341468
-2.49513626 0.96670640 3.05791163  1064794642
2.69221878 7.62787199 -2.49513626  1090141371
-2.49513626 0.96670640 1.94280708  1064794642
1.81594491 7.88256598 -2.49513626  1090332020
-2.49513626 0.96670640 1.56083786  1064794642
1.30411088 7.98321962 -2.49513626  1090522404
-2.49513626 0.96670640 0.91655761  1064794642
0.39664420 8.07930660 -2.49513626  1090611389
-2.49513626 0.96670640 -0.51587433  1064794642
-0.64596653 8.06320190 -2.49513626  1090542669
-2.49513626 0.96670640 -1.16432226  1064794642
-1.42182207 7.96309662 -2.49513626  1090277932
-2.49513626 0.96670640 -1.93211579  1064794642
-2.05851293 7.82272434 -2.49513626  1090075523
-2.49513626 0.96670640 -2.30967546  1064794642
-2.43437028 7.71403503 -2.49513626  1089834909
-2.49513626 0.96670640 -2.80453205  1064794642
-3.04771519 7.49292660 -2.49513626  1089350529
-2.49513626 0.96670640 -3.28772521  1064794642
-3.40647030 7.33678818 -2.49513626  1088764748
-2.49513626 0.96670640 -3.87226796  1064794642
-3.98627710 7.03861570 -2.49513626  1088366159
-2.49513626 0.96670640 -4.21115541  1064794642
-4.32196331 6.83762789 -2.49513626  1087781661
-2.49513626 0.96670640 -4.64754009  1064794642
-4.85859299 6.46734715 -2.49513626  1086969239
-2.49513626 0.96670640 -5.16563702  1064794642
-5.46059990 5.96777630 -2.49513626  1086070885
-2.49513626 0.96670640 -5.65017605  1064794642
-5.92347574 5.50862360 -2.49513626  1084469556
-2.49513626 0.96670640 -6.50623274  1064794642
-6.73103237 4.48616648 -2.49513626  1082921165
-2.49513626 0.96670640 -7.00618982  1064794642
-7.13290644 3.81499004 -2.49513626  1080869982
-2.49513626 0.96670640 -7.25220633  1064794642
-7.46806383 3.10813808 -2.49513626  1077372958
-2.49513626 0.96670640 -7.60962009  1064794642
-7.65286684 2.62033391 -2.49513626  1075824745
-2.49513626 0.96670640 3.54617763  1064809039
3.43267441 7.06703615 -2.49513626  1088786880
-2.49513626 0.96756452 2.85238218  1064809039
2.61486077 7.40869427 -2.49513626  1089365382
-2.49513626 0.96756452 2.25355816  1064809038
2.13190937 7.56182671 -2.49513626  1089670156
-2.49513626 0.96756446 1.88698113  1064809039
1.64009058 7.68351078 -2.49513626  1089908679
-2.49513626 0.96756452 1.26663899  1064809039
1.01596761 7.79063892 -2.49513626  1090112210
-2.49513626 0.96756452 0.76423866  1064809039
0.51172096 7.83992434 -2.49513626  1090209390
-2.49513626 0.96756452 0.00534680  1064809039
-0.50105119 7.84061241 -2.49513626  1090165701
-2.49513626 0.96756452 -0.75359726  1064809038
-1.13086772 7.77479410 -2.49513626  1090006387
-2.49513626 0.96756446 -1.50549293  1064809039
-1.62963402 7.68573523 -2.49513626  1089741406
-2.49513626 0.96756452 -1.99936616  1064809039
-2.48492360 7.45328283 -2.49513626  1089196335
-2.49513626 0.96756452 -3.07709861  1064809039
-3.42305350 7.07170296 -2.49513626  1087945944
-2.49513626 0.96756446 -4.19777536  1064809039
-4.30431557 6.57260418 -2.49513626  1087378237
-2.49513626 0.96756452 -4.51399755  1064809039
-4.61709404 6.35678339 -2.49513626  1086915111
-2.49513626 0.96756452 -4.81965542  1064809039
-4.91907501 6.12608814 -2.49513626  1086421161
-2.49513626 0.96756452 -5.20954227  1064809039
-5.30369568 5.79629850 -2.49513626  1085716623
-2.49513626 0.96756452 -5.83878899  1064809039
-5.92279482 5.16205072 -2.49513626  1084161306
-2.49513626 0.96756452 -6.16547632  1064809039
-6.31928349 4.66828918 -2.49513626  1082206014
-2.49513626 0.96756446 -6.98679113  1064809039
-7.04382181 3.48006153 -2.49513626  1079471407
-2.49513626 0.96756452 -7.15236759  1064809039
-7.25347710 3.01882887 -2.49513626  1088031691
-2.49513626 0.96837741 3.22512269  1064822677
3.11309958 6.97263050 -2.49513626  1088467851
-2.49513626 0.96837741 2.77229953  1064822677
2.54144764 7.20069504 -2.49513626  1088926752
-2.49513626 0.96837741 2.30795145  1064822677
2.19028759 7.31516218 -2.49513626  1089154898
-2.49513626 0.96837741 1.95328546  1064822677
1.83400321 7.41251326 -2.49513626  1089402927
-2.49513626 0.96837741 0.98744422  1064822677
0.62014824 7.61080599 -2.49513626  1089721737
-2.49513626 0.96837741 0.25140616  1064822677
0.12831877 7.63495159 -2.49513626  1089753833
-2.49513626 0.96837741 -0.24101727  1064822677
-0.60979086 7.61164427 -2.49513626  1089681904
-2.49513626 0.96837741 -0.97713673  1064822677
-1.09911871 7.55651331 -2.49513626  1089506420
-2.49513626 0.96837741 -1.58388221  1064822677
-1.70411861 7.44344997 -2.49513626  1089228519
-2.49513626 0.96837741 -2.53164506  1064822677
-2.76261044 7.11877346 -2.49513626  1088476405
-2.49513626 0.96837741 -3.10360551  1064822677
-3.21569562 6.92591286 -2.49513626  1087923428
-2.49513626 0.96837741 -3.65541101  1064822677
-3.97532105 6.51964521 -2.49513626  1086698695
-2.49513626 0.96837741 -4.68434095  1064822677
-4.87635040 5.87623644 -2.49513626  1085898693
-2.49513626 0.96837741 -5.24495792  1064822677
-5.33375216 5.46443462 -2.49513626  1085019719
-2.49513626 0.96837741 -5.59174585  1064822677
-5.67486334 5.10929441 -2.49513626  1083868776
-2.49513626 0.96837741 -6.06791544  1064822677
-6.14186764 4.53722715 -2.49513626  1082836822
-2.49513626 0.96837741 -6.35407877  1064822677
-6.48732328 4.02785301 -2.49513626  1081806325
-2.49513626 0.96837741 -6.67450142  1064822677
-6.73344517 3.60134411 -2.49513626  1079539861
-2.49513626 0.96837741 -6.89971161  1064822677
-7.09622622 2.82002521 -2.49513626  1076699826
-2.49513626 0.96837741 -7.18346310  1064822677
-7.26323032 2.35678935 -2.49513626  1087750933
-2.49513626 0.96914852 3.13658237  1064835614
2.80741334 6.87530518 -2.49513626  1088253441
-2.49513626 0.96914852 2.35844088  1064835614
2.24459291 7.07906914 -2.49513626  1088731765
-2.49513626 0.96914852 1.89966226  1064835614
1.66718638 7.23684025 -2.49513626  1089023427
-2.49513626 0.96914852 1.19728112  1064835614
0.96033603 7.36404467 -2.49513626  1089242246
-2.49513626 0.96914852 0.60312307  1064835614
0.48370016 7.41063023 -2.49513626  1089297376
-2.49513626 0.96914852 0.24450353  1064835614
-0.35405144 7.41795492 -2.49513626  1089284399
-2.49513626 0.96914852 -0.59305030  1064835614
-0.71233153 7.39215755 -2.49513626  1089115781
-2.49513626 0.96914852 -1.42305648  1064835614
-1.54039991 7.26488304 -2.49513626  1088923329
-2.49513626 0.96914852 -1.77384102  1064835614
-1.88988638 7.18190432 -2.49513626  1088737504
-2.49513626 0.96914852 -2.34885526  1064835614
-2.46214247 7.00637197 -2.49513626  1088350090
-2.49513626 0.96914852 -2.68676805  1064835614
-2.79805040 6.87911892 -2.49513626  1088071899
-2.49513626 0.96914852 -3.01840115  1064835614
-3.23561573 6.68447447 -2.49513626  1087648949
-2.49513626 0.96914852 -3.44946551  1064835614
-3.55505967 6.52019596 -2.49513626  1087293671
-2.49513626 0.96914852 -3.76344752  1064835614
-3.86618614 6.34066010 -2.49513626  1086770814
-2.49513626 0.96914852 -4.26682377  1064835614
-4.55574369 5.86486244 -2.49513626  1085564952
-2.49513626 0.96914852 -4.92428255  1064835614
-5.43823481 5.05736828 -2.49513626  1084162628
-2.49513626 0.96914852 -5.67642403  1064835614
-5.82787085 4.60296583 -2.49513626  1083196624
-2.49513626 0.96914852 -5.97325230  1064835614
-6.11242771 4.21777630 -2.49513626  1082379298
-2.49513626 0.96914852 -6.43225622  1064835614
-6.49126434 3.60760951 -2.49513626  1080043658
-2.49513626 0.96914852 -6.60421419  1064835614
-6.71029329 3.18172407 -2.49513626  1078242781
-2.49513626 0.96914852 -6.85629320  1064835614
-6.90141344 2.74260712 -2.49513626  1076388327
-2.49513626 0.96914852 -6.98625660  1064835614
-7.06383181 2.29208636 -2.49513626  1087266026
-2.49513626 0.96988094 3.15754175  1064847902
2.83951688 6.64567804 -2.49513626  1087773025
-2.49513626 0.96988094 2.62375903  1064847902
2.18429184 6.88888788 -2.49513626  1088329057
-2.49513626 0.96988094 1.84862757  1064847902
1.39448106 7.09107304 -2.49513626  1088658098
-2.49513626 0.96988094 1.16511703  1064847902
0.93453687 7.16620779 -2.49513626  1088800097
-2.49513626 0.96988094 0.70298493  1064847902
0.58692044 7.20301485 -2.49513626  1088865523
-2.49513626 0.96988094 0.35436788  1064847902
0.23793671 7.22296906 -2.49513626  1088895566
-2.49513626 0.96988094 -0.34453794  1064847902
-0.69319457 7.19356537 -2.49513626  1088802421
-2.49513626 0.96988094 -0.92478025  1064847902
-1.04022884 7.15163136 -2.49513626  1088661743
-2.49513626 0.96988094 -1.38482547  1064847902
-1.49901712 7.06971312 -2.49513626  1088515471
-2.49513626 0.96988094 -1.72618592  1064847902
-1.95156384 6.95839787 -2.49513626  1088266753
-2.49513626 0.96988094 -2.17491007  1064847902
-2.28575230 6.85588932 -2.49513626  1088040509
-2.49513626 0.96988094 -2.50561666  1064847902
-2.93731070 6.60303736 -2.49513626  1087488272
-2.49513626 0.96988094 -3.25316310  1064847902
-3.35679460 6.39998627 -2.49513626  1087048320
-2.49513626 0.96988094 -3.66234064  1064847902
-3.76232076 6.17031860 -2.49513626  1086553021
-2.49513626 0.96988094 -3.95931888  1064847902
-4.24702740 5.84727764 -2.49513626  1085559425
-2.49513626 0.96988094 -4.70414448  1064847902
-4.96393013 5.25236130 -2.49513626  1084587553
-2.49513626 0.96988094 -5.13070202  1064847902
-5.29213715 4.92150116 -2.49513626  1083699742
-2.49513626 0.96988094 -5.52392673  1064847902
-5.67130613 4.47930717 -2.49513626  1082942623
-2.49513626 0.96988094 -5.88126564  1064847902
-6.01362371 4.00801992 -2.49513626  1080924752
-2.49513626 0.96988094 -6.25945234  1064847902
-6.37266445 3.40837860 -2.49513626  1078779726
-2.49513626 0.96988094 -6.62646055  1064847902
-6.67210007 2.77686548 -2.49513626  1076547503
-2.49513626 0.96988094 -6.75816441  1064847902
-6.79856873 2.45099235 -2.49513626  1075172304
-2.49513626 0.96988094 -6.87406158  1064847902
2.86878443 6.42541695 -2.49513626  1087657653
-2.49513626 0.97057742 2.12682509  1064859587
1.90944231 6.77273655 -2.49513626  1088067009
-2.49513626 0.97057742 1.57971263  1064859587
1.35779369 6.90451336 -2.49513626  1088265670
-2.49513626 0.97057742 0.90995008  1064859587
0.79732543 6.99143791 -2.49513626  1088428988
-2.49513626 0.97057742 0.57147920  1064859587
0.00479076 7.03675318 -2.49513626  1088497211
-2.49513626 0.97057742 -0.22210214  1064859587
-0.33547354 7.02875423 -2.49513626  1088451841
-2.49513626 0.97057742 -0.90045035  1064859587
-1.12500978 6.94624233 -2.49513626  1088071824
-2.49513626 0.97057742 -2.00921822  1064859587
-2.11768985 6.71053743 -2.49513626  1087499337
-2.49513626 0.97057742 -2.65124679  1064859587
-2.75599837 6.47459650 -2.49513626  1087225081
-2.49513626 0.97057742 -2.96332812  1064859587
-3.16757917 6.28350067 -2.49513626  1086810457
-2.49513626 0.97057742 -3.36853576  1064859587
-3.46771502 6.12298155 -2.49513626  1086341482
-2.49513626 0.97057742 -3.75973129  1064859587
-4.22655249 5.62602758 -2.49513626  1085248522
-2.49513626 0.97057742 -4.49365520  1064859587
-4.58038330 5.34191275 -2.49513626  1084788288
-2.49513626 0.97057742 -4.75024605  1064859587
-4.83333445 5.11417818 -2.49513626  1084302217
-2.49513626 0.97057742 -4.99571896  1064859587
-5.07497263 4.87448454 -2.49513626  1083791425
-2.49513626 0.97057742 -5.22950172  1064859587
-5.30474043 4.62338448 -2.49513626  1083257120
-2.49513626 0.97057742 -5.45105648  1064859587
-5.65985441 4.18114710 -2.49513626  1082115666
-2.49513626 0.97057742 -6.09477329  1064859587
-6.40600634 2.91187716 -2.49513626  1077131691
-2.49513626 0.97057742 -6.53931522  1064859587
-6.61970615 2.38651204 -2.49513626  1074462521
-2.49513626 0.97057742 3.09424090  1064870712
2.99520469 6.16638803 -2.49513626  1086773272
-2.49513626 0.97124052 2.79482102  1064870711
2.69352961 6.30400705 -2.49513626  1087051645
-2.49513626 0.97124046 2.38555098  1064870711
1.96635687 6.56726980 -2.49513626  1087751543
-2.49513626 0.97124046 1.21416020  1064870711
1.10521495 6.76565409 -2.49513626  1087997788
-2.49513626 0.97124046 0.77676970  1064870711
0.66684097 6.82282257 -2.49513626  1088087974
-2.49513626 0.97124046 0.33615005  1064870711
0.22570211 6.85161734 -2.49513626  1088116787
-2.49513626 0.97124046 -0.21637572  1064870712
-0.32682440 6.84753847 -2.49513626  1088052213
-2.49513626 0.97124046 -0.76749611  1064870711
-0.87723470 6.79897451 -2.49513626  1087933578
-2.49513626 0.97124046 -1.31362832  1064870711
-1.42194760 6.70623684 -2.49513626  1087755918
-2.49513626 0.97124046 -1.95741570  1064870712
-2.06309199 6.53752613 -2.49513626  1087305376
-2.49513626 0.97124046 -2.37679744  1064870711
-2.48016453 6.39095974 -2.49513626  1087059028
-2.49513626 0.97124052 -2.68494320  1064870711
-2.88692808 6.21781683 -2.49513626  1086682218
-2.49513626 0.97124046 -3.08590865  1064870711
-3.28168535 6.01881504 -2.49513626  1086251579
-2.49513626 0.97124052 -3.47404909  1064870712
-3.66279721 5.79478312 -2.49513626  1085768926
-2.49513626 0.97124046 -3.84773850  1064870711
-4.02867651 5.54665327 -2.49513626  1084951855
-2.49513626 0.97124046 -4.37779760  1064870712
-4.46229029 5.20418310 -2.49513626  1084503484
-2.49513626 0.97124052 -5.02005291  1064870712
-5.09467697 4.58692455 -2.49513626  1083187779
-2.49513626 0.97124046 -5.23992586  1064870712
-5.37972641 4.24901342 -2.49513626  1082469583
-2.49513626 0.97124046 -5.51393175  1064870711
-5.57889462 3.98391032 -2.49513626  1081299778
-2.49513626 0.97124052 -5.82406855  1064870711
-6.19429350 2.93706107 -2.49513626  1077251630
-2.49513626 0.97124052 -6.28577566  1064870711
-6.37071848 2.53171015 -2.49513626  1075539767
-2.49513626 0.97124046 -6.44903612  1064870711
3.01600909 5.96262693 -2.49513626  1086537577
-2.49513626 0.97187251 2.52601027  1064881314
2.42593837 6.22607899 -2.49513626  1086956111
-2.49513626 0.97187251 2.12203956  1064881315
2.01960492 6.36949348 -2.49513626  1087229237
-2.49513626 0.97187251 1.60486996  1064881315
1.50007498 6.51145267 -2.49513626  1087491663
-2.49513626 0.97187251 0.97079808  1064881315
0.86407584 6.62590456 -2.49513626  1087688555
-2.49513626 0.97187251 0.54266900  1064881315
0.32765013 6.67397070 -2.49513626  1087747415
-2.49513626 0.97187251 0.11228736  1064881315
-0.21090524 6.67867947 -2.49513626  1087739078
-2.49513626 0.97187251 -0.85505646  1064881315
-1.28041613 6.55818462 -2.49513626  1087401600
-2.49513626 0.97187251 -1.70045197  1064881315
-2.11341643 6.33898544 -2.49513626  1086962446
-2.49513626 0.97187251 -2.41745758  1064881315
-2.51758647 6.18958807 -2.49513626  1086451846
-2.49513626 0.97187251 -2.91129231  1064881314
-3.00789046 5.96672773 -2.49513626  1085935294
-2.49513626 0.97187251 -3.57019091  1064881314
-3.75045562 5.53021955 -2.49513626  1085211211
-2.49513626 0.97187251 -3.92681837  1064881315
-4.18365192 5.21021175 -2.49513626  1084525547
-2.49513626 0.97187251 -4.34947205  1064881315
-4.58966970 4.85635567 -2.49513626  1083610693
-2.49513626 0.97187251 -4.89313269  1064881315
-5.10744572 4.30850935 -2.49513626  1082603547
-2.49513626 0.97187251 -5.24371195  1064881315
-5.30981064 4.05649757 -2.49513626  1082006115
-2.49513626 0.97187251 -5.43784237  1064881315
-5.61925077 3.61569643 -2.49513626  1079750726
-2.49513626 0.97187251 -5.78751564  1064881315
-5.84061098 3.24599934 -2.49513626  1078571152
-2.49513626 0.97187251 -5.99073982  1064881315
-6.12685108 2.66663504 -2.49513626  1074858335
-2.49513626 0.97187251 -6.32170820  1064881315
-6.35578489 2.06233811 -2.49513626  1085936137
-2.49513626 0.97247547 2.84704757  1064891431
2.56029272 5.99218082 -2.49513626  1086393280
-2.49513626 0.97247547 2.36575270  1064891431
2.16875458 6.14474058 -2.49513626  1086699937
-2.49513626 0.97247547 1.96950042  1064891431
1.66684234 6.29944086 -2.49513626  1087007353
-2.49513626 0.97247547 1.46285868  1064891431
1.36028516 6.37267065 -2.49513626  1087150537
-2.49513626 0.97247547 1.05054545  1064891431
0.94671363 6.44709682 -2.49513626  1087319349
-2.49513626 0.97247547 0.63385618  1064891431
0.52920568 6.49471092 -2.49513626  1087378345
-2.49513626 0.97247547 0.21453789  1064891431
0.00443610 6.51623392 -2.49513626  1087405733
-2.49513626 0.97247547 -0.20567289  1064891431
-0.31065950 6.50882673 -2.49513626  1087231582
-2.49513626 0.97247547 -1.24864936  1064891431
-1.35161161 6.37451792 -2.49513626  1087062716
-2.49513626 0.97247547 -1.65826499  1064891431
-1.86059153 6.24496031 -2.49513626  1086705834
-2.49513626 0.97247547 -2.35748458  1064891431
-2.45512962 6.03603077 -2.49513626  1085944523
-2.49513626 0.97247547 -3.02670598  1064891431
-3.30220842 5.61753893 -2.49513626  1085174009
-2.49513626 0.97247547 -3.99740124  1064891431
-4.16125250 5.01450968 -2.49513626  1084115933
-2.49513626 0.97247547 -4.39886332  1064891431
-4.47580481 4.73587465 -2.49513626  1083208182
-2.49513626 0.97247547 -4.84266710  1064891431
-5.04783154 4.12076807 -2.49513626  1081945305
-2.49513626 0.97247547 -5.42227793  1064891431
-5.47984409 3.52599335 -2.49513626  1079769811
-2.49513626 0.97247547 -5.59068394  1064891431
-5.69571114 3.16547060 -2.49513626  1078243237
-2.49513626 0.97247547 -5.88789606  1064891431
-6.05559111 2.40647960 -2.49513626  1074622523
-2.49513626 0.97247547 -6.16487312  1064891431
2.86954093 5.67305851 -2.49513626  1085916165
-2.49513626 0.97305131 2.49792719  1064901092
2.30812550 5.92371702 -2.49513626  1086241189
-2.49513626 0.97305131 2.11592484  1064901092
1.92152357 6.06016541 -2.49513626  1086514233
-2.49513626 0.97305131 1.72512436  1064901092
1.62624037 6.14599085 -2.49513626  1086684216
-2.49513626 0.97305131 1.32715118  1064901092
1.12598693 6.25699615 -2.49513626  1086933011
-2.49513626 0.97305137 0.41408050  1064901092
0.20931204 6.35405636 -2.49513626  1087072885
-2.49513626 0.97305131 -0.20066297  1064901092
-0.30309218 6.35027456 -2.49513626  1087047334
-2.49513626 0.97305131 -1.11746895  1064901092
-1.21823406 6.23969173 -2.49513626  1086738223
-2.49513626 0.97305137 -1.71679389  1064901093
-2.01077986 6.03113699 -2.49513626  1086320399
-2.49513626 0.97305131 -2.58395720  1064901093
-2.67728376 5.76628113 -2.49513626  1085548953
-2.49513626 0.97305131 -3.13297820  1064901092
-3.22176695 5.48070002 -2.49513626  1085125246
-2.49513626 0.97305137 -3.39680839  1064901092
-3.48301840 5.31850004 -2.49513626  1084529280
-2.49513626 0.97305131 -3.81856823  1064901092
-3.90002680 5.02072191 -2.49513626  1084137790
-2.49513626 0.97305131 -4.13824320  1064901092
-4.21552277 4.75890923 -2.49513626  1083578137
-2.49513626 0.97305131 -4.44070435  1064901092
-4.51348686 4.47730875 -2.49513626  1082501818
-2.49513626 0.97305131 -4.92487097  1064901092
-5.17375803 3.69460201 -2.49513626  1080497600
-2.49513626 0.97305131 -5.29019356  1064901092
-5.34635925 3.44010210 -2.49513626  1079418639
-2.49513626 0.97305131 -5.50645065  1064901092
-5.55696726 3.08836174 -2.49513626  1077164541
-2.49513626 0.97305131 -5.74446964  1064901092
-5.78763962 2.63079619 -2.49513626  1075994722
-2.49513626 0.97305131 -5.86945677  1064901092
-5.90808010 2.34785867 -2.49513626  1074800021
-2.49513626 0.97305137 -5.98071146  1064901092
-6.01469898 2.05942726 -2.49513626  1073424592
-2.49513626 0.97305131 2.80086565  1064910328
2.71122074 5.58173323 -2.49513626  1085789701
-2.49513626 0.97360182 2.15936923  1064910328
2.06528711 5.85158491 -2.49513626  1086081730
-2.49513626 0.97360182 1.87553823  1064910328
1.77992058 5.94460678 -2.49513626  1086267133
-2.49513626 0.97360182 1.58732164  1064910328
1.39306915 6.04696655 -2.49513626  1086468687
-2.49513626 0.97360188 1.09904039  1064910328
1.00042534 6.12418270 -2.49513626  1086617325
-2.49513626 0.97360182 0.70312119  1064910328
0.60361642 6.17593050 -2.49513626  1086712416
-2.49513626 0.97360182 0.40417066  1064910328
0.30427742 6.19789314 -2.49513626  1086753565
-2.49513626 0.97360182 0.00422469  1064910328
-0.09583138 6.20461798 -2.49513626  1086748919
-2.49513626 0.97360182 -0.29583687  1064910328
-0.49554160 6.18554115 -2.49513626  1086695403
-2.49513626 0.97360182 -0.79406208  1064910328
-0.99208885 6.12553930 -2.49513626  1086514249
-2.49513626 0.97360182 -1.38483810  1064910328
-1.48218691 6.02574396 -2.49513626  1086326963
-2.49513626 0.97360182 -1.67570949  1064910328
-1.86748445 5.91768360 -2.49513626  1086019373
-2.49513626 0.97360182 -2.15144634  1064910328
-2.33800054 5.74806213 -2.49513626  1085632025
-2.49513626 0.97360182 -2.61321211  1064910328
-2.70361900 5.58542061 -2.49513626  1085266391
-2.49513626 0.97360182 -2.97053862  1064910328
-3.05800080 5.39954758 -2.49513626  1084960618
-2.49513626 0.97360182 -3.72718310  1064910328
-3.88521600 4.83854961 -2.49513626  1083483140
-2.49513626 0.97360182 -4.33443117  1064910328
-4.47536325 4.29855728 -2.49513626  1082132884
-2.49513626 0.97360182 -4.80700970  1064910328
-5.21841097 3.35777569 -2.49513626  1079082027
-2.49513626 0.97360182 -5.32396269  1064910328
-5.42398071 3.01445055 -2.49513626  1077628271
-2.49513626 0.97360182 -5.51835728  1064910328
-5.56339884 2.74864626 -2.49513626  1075740050
-2.49513626 0.97360182 -5.83758354  1064910328
-5.90240526 1.91522610 -2.49513626  1085081176
-2.49513626 0.97412860 2.47031879  1064919166
2.10856819 5.68066168 -2.49513626  1085724784
-2.49513626 0.97412860 1.92430663  1064919166
1.73804641 5.80475521 -2.49513626  1086077284
-2.49513626 0.97412860 1.26491332  1064919166
1.07318413 5.96357584 -2.49513626  1086342556
-2.49513626 0.97412860 0.68657953  1064919166
0.39466101 6.04650354 -2.49513626  1086442356
-2.49513626 0.97412860 0.10182334  1064919166
-0.28887868 6.05248260 -2.49513626  1086408665
-2.49513626 0.97412860 -0.67838454  1064919166
-1.06506526 5.96503305 -2.49513626  1086213758
-2.49513626 0.97412860 -1.44731712  1064919166
-1.54200065 5.85988188 -2.49513626  1085730537
-2.49513626 0.97412860 -2.10083032  1064919166
-2.19219828 5.64891768 -2.49513626  1085434062
-2.49513626 0.97412860 -2.46278262  1064919166
-2.55173326 5.49587345 -2.49513626  1085088975
-2.49513626 0.97412860 -3.07068419  1064919166
-3.15451050 5.17349291 -2.49513626  1084372478
-2.49513626 0.97412860 -3.40098381  1064919166
-3.48140001 4.95941925 -2.49513626  1084023405
-2.49513626 0.97412860 -3.63949847  1064919166
-3.79381347 4.72471666 -2.49513626  1083253967
-2.49513626 0.97412860 -4.16199827  1064919166
-4.23245764 4.33615637 -2.49513626  1082544473
-2.49513626 0.97412860 -4.50314093  1064919166
-4.63152552 3.90703607 -2.49513626  1081425166
-2.49513626 0.97412860 -4.75509644  1064919166
-4.81503487 3.67850876 -2.49513626  1080454382
-2.49513626 0.97412860 -4.93113708  1064919166
-5.04211235 3.36051631 -2.49513626  1078759042
-2.49513626 0.97412860 -5.29637337  1064919166
-5.34315014 2.85775208 -2.49513626  1076976576
-2.49513626 0.97412860 -5.43251705  1064919166
-5.47508526 2.59604096 -2.49513626  1075870119
-2.49513626 0.97412860 -5.63102579  1064919166
-5.73264551 1.96285224 -2.49513626  1072652714
-2.49513626 0.97412860 2.67168856  1064927629
2.49999285 5.36530924 -2.49513626  1085076763
-2.49513626 0.97463304 2.23763013  1064927629
2.05977726 5.54921818 -2.49513626  1085447515
-2.49513626 0.97463304 1.87977922  1064927629
1.51411283 5.72223425 -2.49513626  1085791860
-2.49513626 0.97463304 1.32882106  1064927629
0.95428509 5.84173346 -2.49513626  1086096343
-2.49513626 0.97463304 0.29024413  1064927629
0.00402854 5.91916227 -2.49513626  1086149026
-2.49513626 0.97463304 -0.37749198  1064927629
-0.56775939 5.89187241 -2.49513626  1086053157
-2.49513626 0.97463304 -0.85199547  1064927629
-0.94633389 5.84302855 -2.49513626  1085961948
-2.49513626 0.97463304 -1.32096910  1064927629
-1.41382945 5.74783373 -2.49513626  1085746530
-2.49513626 0.97463304 -1.78135526  1064927629
-1.87213910 5.61529970 -2.49513626  1085453127
-2.49513626 0.97463304 -2.66449738  1064927629
-2.74937463 5.24189377 -2.49513626  1084543241
-2.49513626 0.97463304 -2.99963307  1064927629
-3.08152223 5.05378389 -2.49513626  1084234804
-2.49513626 0.97463304 -3.32228875  1064927629
-3.40084410 4.84466314 -2.49513626  1083785502
-2.49513626 0.97463304 -3.63112640  1064927629
-3.70602989 4.61539268 -2.49513626  1083294432
-2.49513626 0.97463304 -3.85291958  1064927629
-3.92486930 4.43079042 -2.49513626  1082763633
-2.49513626 0.97463304 -4.20228958  1064927629
-4.26895523 4.10030794 -2.49513626  1081964896
-2.49513626 0.97463304 -4.64506912  1064927629
-4.70362139 3.59339094 -2.49513626  1080104949
-2.49513626 0.97463304 -4.81703663  1064927629
-4.92544413 3.28276110 -2.49513626  1078787206
-2.49513626 0.97463304 -5.02872992  1064927629
-5.07841921 3.04075003 -2.49513626  1077761934
-2.49513626 0.97463304 -5.17382383  1064927629
-5.34839773 2.53597045 -2.49513626  1075261003
-2.49513626 0.97463304 -5.50072908  1064927629
-5.56835127 2.00747848 -2.49513626  1073049216
-2.49513626 0.97463304 -5.63018370  1064927629
2.52728510 5.20305967 -2.49513626  1084737468
-2.49513626 0.97511649 2.35820746  1064935740
2.27274036 5.31918144 -2.49513626  1085044833
-2.49513626 0.97511649 2.01287413  1064935740
1.92517483 5.45460367 -2.49513626  1085362807
-2.49513626 0.97511649 1.56960487  1064935740
1.20750797 5.65693665 -2.49513626  1085644567
-2.49513626 0.97511649 1.02447915  1064935740
0.84038532 5.72300196 -2.49513626  1085832468
-2.49513626 0.97511649 0.09720284  1064935740
0.00393820 5.78437662 -2.49513626  1085871099
-2.49513626 0.97511649 -0.27576840  1064935740
-0.36889556 5.77260256 -2.49513626  1085833805
-2.49513626 0.97511649 -0.64759731  1064935740
-0.74019229 5.73682165 -2.49513626  1085716504
-2.49513626 0.97511649 -1.38163435  1064935740
-1.47202003 5.59394169 -2.49513626  1085421869
-2.49513626 0.97511649 -1.82950926  1064935740
-2.09270859 5.39255047 -2.49513626  1084825373
-2.49513626 0.97511649 -2.43592548  1064935740
-2.60382342 5.16518402 -2.49513626  1084297276
-2.49513626 0.97511649 -2.93132567  1064935740
-3.01134872 4.93870354 -2.49513626  1083995870
-2.49513626 0.97511649 -3.24663568  1064935740
-3.32340145 4.73434353 -2.49513626  1083440578
-2.49513626 0.97511649 -3.62163687  1064935740
-3.76518273 4.39117432 -2.49513626  1082822274
-2.49513626 0.97511649 -3.90481353  1064935740
-4.10659742 4.07368231 -2.49513626  1081875224
-2.49513626 0.97511649 -4.42133236  1064935740
-4.53929472 3.58522272 -2.49513626  1080081797
-2.49513626 0.97511649 -4.65253210  1064935740
-4.70734692 3.36153507 -2.49513626  1079132344
-2.49513626 0.97511649 -4.91421986  1064935740
-5.05600882 2.80994511 -2.49513626  1076449075
-2.49513626 0.97511649 -5.26588535  1064935740
-5.47247553 1.87377143 -2.49513626  1071940725
-2.49513626 0.97511649 2.55231357  1064943521
2.47062230 5.08640337 -2.49513626  1084646846
-2.49513626 0.97558028 2.05296326  1064943521
1.88201141 5.33230877 -2.49513626  1085045935
-2.49513626 0.97558028 1.62196839  1064943521
1.26944697 5.51035213 -2.49513626  1085413085
-2.49513626 0.97558028 0.91164654  1064943521
0.82154167 5.59468794 -2.49513626  1085561390
-2.49513626 0.97558028 0.36830437  1064943521
0.09502342 5.65388775 -2.49513626  1085600559
-2.49513626 0.97558028 -0.17847957  1064943521
-0.45156655 5.63662815 -2.49513626  1085526008
-2.49513626 0.97558028 -0.81392646  1064943521
-0.90405035 5.58195257 -2.49513626  1085415934
-2.49513626 0.97558028 -1.08356035  1064943521
-1.26194549 5.51207685 -2.49513626  1085210141
-2.49513626 0.97558028 -1.52700329  1064943521
-1.61459219 5.41927767 -2.49513626  1084991786
-2.49513626 0.97558028 -1.87475097  1064943521
-1.96052408 5.30394459 -2.49513626  1084797263
-2.49513626 0.97558028 -2.29830408  1064943521
-2.46369672 5.08976269 -2.49513626  1084243686
-2.49513626 0.97558028 -2.86560392  1064943521
-2.94383287 4.82797527 -2.49513626  1083447856
-2.49513626 0.97558028 -3.32309222  1064943521
-3.39642787 4.52103615 -2.49513626  1082988524
-2.49513626 0.97558028 -3.68076491  1064943521
-3.74949789 4.23281527 -2.49513626  1082360527
-2.49513626 0.97558028 -3.94978833  1064943521
-4.01452398 3.98234701 -2.49513626  1081782720
-2.49513626 0.97558028 -4.14084053  1064943521
-4.32220364 3.64610100 -2.49513626  1080351781
-2.49513626 0.97558028 -4.43751812  1064943521
-4.49345636 3.43283415 -2.49513626  1079136396
-2.49513626 0.97558028 -4.80403805  1064943521
-4.94264889 2.74694538 -2.49513626  1075167734
-2.49513626 0.97558028 -5.18488073  1064943521
-5.22059298 2.17276144 -2.49513626  1074112201
-2.49513626 0.97558028 -5.28793526  1064943521
-5.37861824 1.74526513 -2.49513626  1084090128
-2.49513626 0.97602546 2.41605377  1064950990
2.33553863 5.01236868 -2.49513626  1084405986
-2.49513626 0.97602546 2.09043527  1064950990
2.00761867 5.15247965 -2.49513626  1084613837
-2.49513626 0.97602546 1.84044278  1064950990
1.75612497 5.24353075 -2.49513626  1084851334
-2.49513626 0.97602546 1.41451275  1064950990
1.24140930 5.38864326 -2.49513626  1085083136
-2.49513626 0.97602546 0.89151168  1064950990
0.80339819 5.47111845 -2.49513626  1085241263
-2.49513626 0.97602546 0.53790289  1064950990
0.36016944 5.51804876 -2.49513626  1085336998
-2.49513626 0.97602546 0.00376534  1064950990
-0.26362962 5.52350330 -2.49513626  1085301600
-2.49513626 0.97602546 -0.53041106  1064950990
-0.61909485 5.49502563 -2.49513626  1085217874
-2.49513626 0.97602546 -0.88408178  1064950990
-1.05962610 5.42731667 -2.49513626  1085046166
-2.49513626 0.97602546 -1.32082450  1064950990
-1.40723228 5.34773540 -2.49513626  1084907796
-2.49513626 0.97602546 -1.57893038  1064950990
-1.83334255 5.21703434 -2.49513626  1084619320
-2.49513626 0.97602546 -2.08346415  1064950990
-2.16578388 5.08802128 -2.49513626  1084337558
-2.49513626 0.97602546 -2.32871366  1064950990
-2.40928030 4.97734404 -2.49513626  1083832702
-2.49513626 0.97602546 -2.80230975  1064950990
-2.87881136 4.72133589 -2.49513626  1082545473
-2.49513626 0.97602546 -3.66668320  1064950990
-3.86254811 3.95718312 -2.49513626  1081148043
-2.49513626 0.97602546 -4.10957146  1064950990
-4.16869593 3.63325620 -2.49513626  1080308288
-2.49513626 0.97602546 -4.28367901  1064950990
-4.39420700 3.35701084 -2.49513626  1079134555
-2.49513626 0.97602546 -4.65029049  1064950990
-4.69792938 2.91685367 -2.49513626  1075960717
-2.49513626 0.97602546 -4.95772076  1064950990
-5.03411961 2.28827906 -2.49513626  1074609248
-2.49513626 0.97602546 -5.10528469  1064950990
-5.23161793 1.79130089 -2.49513626  1071281587
-2.49513626 0.97602546 2.36345768  1064958165
2.20534015 4.93945742 -2.49513626  1084555614
-2.49513626 0.97645313 1.55161405  1064958165
1.29921997 5.25107241 -2.49513626  1084796619
-2.49513626 0.97645313 1.04378474  1064958165
0.78590691 5.35201645 -2.49513626  1084990926
-2.49513626 0.97645313 0.61293286  1064958165
0.43931678 5.39154148 -2.49513626  1085080036
-2.49513626 0.97645313 0.09090176  1064958165
0.00368141 5.40941143 -2.49513626  1085073289
-2.49513626 0.97645313 -0.43198019  1064958165
-0.60561949 5.37540293 -2.49513626  1084909566
-2.49513626 0.97645313 -1.03656006  1064958165
-1.20720899 5.27298880 -2.49513626  1084613904
-2.49513626 0.97645313 -1.62794662  1064958165
-1.79343283 5.10346508 -2.49513626  1084317726
-2.49513626 0.97645313 -2.03810906  1064958165
-2.19861388 4.94245434 -2.49513626  1084031206
-2.49513626 0.97645313 -2.35683227  1064958165
-2.51260185 4.79046822 -2.49513626  1083701894
-2.49513626 0.97645313 -2.66575956  1064958165
-2.89024353 4.57255363 -2.49513626  1083130736
-2.49513626 0.97645313 -3.17895055  1064958165
-3.31841922 4.27198553 -2.49513626  1082471769
-2.49513626 0.97645313 -3.65168786  1064958165
-3.71556234 3.93145680 -2.49513626  1081589533
-2.49513626 0.97645313 -4.02011204  1064958165
-4.19042730 3.42082810 -2.49513626  1079415940
-2.49513626 0.97645313 -4.40219927  1064958165
-4.54905605 2.92708135 -2.49513626  1077321057
-2.49513626 0.97645313 -4.68527746  1064958165
-4.88780069 2.31757474 -2.49513626  1074742015
-2.49513626 0.97645313 -4.95998478  1064958165
-4.99414825 2.07851672 -2.49513626  1073040626
-2.49513626 0.97645313 -5.08881140  1064958165
-5.14531994 1.66956389 -2.49513626  1083647561
-2.49513626 0.97686422 2.00103307  1064965062
1.59987116 5.04573011 -2.49513626  1084376208
-2.49513626 0.97686428 1.27133179  1064965063
0.93750304 5.20961332 -2.49513626  1084697455
-2.49513626 0.97686422 0.59977645  1064965062
0.51489681 5.26819324 -2.49513626  1084819101
-2.49513626 0.97686422 -0.16707318  1064965062
-0.25235513 5.28727770 -2.49513626  1084807219
-2.49513626 0.97686422 -0.59261793  1064965062
-0.93041110 5.21088505 -2.49513626  1084636961
-2.49513626 0.97686422 -1.09794748  1064965062
-1.18129468 5.15979910 -2.49513626  1084477205
-2.49513626 0.97686422 -1.67418778  1064965062
-1.99436224 4.90321398 -2.49513626  1083884406
-2.49513626 0.97686422 -2.22912359  1064965062
-2.30624223 4.76447678 -2.49513626  1083654373
-2.49513626 0.97686422 -2.45866704  1064965062
-2.75569582 4.51941872 -2.49513626  1083028467
-2.49513626 0.97686422 -3.11071372  1064965062
-3.38028526 4.07340956 -2.49513626  1082168964
-2.49513626 0.97686422 -3.50987029  1064965062
-3.57330251 3.90518761 -2.49513626  1080988891
-2.49513626 0.97686422 -3.81757593  1064965062
-3.87619996 3.60472918 -2.49513626  1079668706
-2.49513626 0.97686422 -4.20627928  1064965062
-4.25754309 3.14520597 -2.49513626  1077962523
-2.49513626 0.97686422 -4.40464830  1064965062
-4.70727158 2.42086411 -2.49513626  1075187395
-2.49513626 0.97686422 -4.78288031  1064965062
-4.81882429 2.19041610 -2.49513626  1073884012
-2.49513626 0.97686422 -4.91910458  1064965062
-4.94998360 1.87527502 -2.49513626  1071348486
-2.49513626 0.97686422 2.26375031  1064971698
2.11230302 4.73107243 -2.49513626  1083801277
-2.49513626 0.97725976 1.64542246  1064971698
1.56599391 4.93888092 -2.49513626  1084368205
-2.49513626 0.97725976 0.75275242  1064971698
0.58707601 5.14783669 -2.49513626  1084556068
-2.49513626 0.97725976 0.25405845  1064971698
0.17058383 5.17839527 -2.49513626  1084606302
-2.49513626 0.97725976 -0.16353515  1064971698
-0.24701114 5.17531443 -2.49513626  1084585478
-2.49513626 0.97725976 -0.41375548  1064971698
-0.82835060 5.11455965 -2.49513626  1084406242
-2.49513626 0.97725976 -1.07469714  1064971698
-1.15627861 5.05053425 -2.49513626  1084293085
-2.49513626 0.97725976 -1.31852281  1064971698
-1.47939873 4.96550608 -2.49513626  1084103869
-2.49513626 0.97725976 -1.63873506  1064971698
-1.71777213 4.88816214 -2.49513626  1083933629
-2.49513626 0.97725976 -1.87448800  1064971698
-2.10585904 4.73394442 -2.49513626  1083597127
-2.49513626 0.97725976 -2.25740433  1064971698
-2.33230639 4.62657785 -2.49513626  1083364335
-2.49513626 0.97725976 -2.48027110  1064971698
-2.55329800 4.50838804 -2.49513626  1082926615
-2.49513626 0.97725976 -2.83857179  1064971698
-3.04484057 4.19211483 -2.49513626  1082322871
-2.49513626 0.97725976 -3.24398828  1064971698
-3.30870438 3.98714805 -2.49513626  1081620371
-2.49513626 0.97725976 -3.49763441  1064971698
-3.55881214 3.76559925 -2.49513626  1080657787
-2.49513626 0.97725976 -3.79411650  1064971698
-3.85051537 3.46675897 -2.49513626  1079095914
-2.49513626 0.97725976 -4.11720610  1064971698
-4.16738415 3.07860351 -2.49513626  1077982290
-2.49513626 0.97725976 -4.31137419  1064971698
-4.35714674 2.80359650 -2.49513626  1076816169
-2.49513626 0.97725976 -4.44527817  1064971698
-4.48761749 2.58962703 -2.49513626  1075602353
-2.49513626 0.97725976 -4.64519787  1064971698
-4.71678019 2.14403129 -2.49513626  1073015747
-2.49513626 0.97725976 -4.90182829  1064971698
-4.92825174 1.59912932 -2.49513626  1083524907
-2.49513626 0.97764045 1.76529741  1064978085
1.68838441 4.78370428 -2.49513626  1084026553
-2.49513626 0.97764045 0.97885549  1064978085
0.73701966 5.01909065 -2.49513626  1084311985
-2.49513626 0.97764045 0.49346000  1064978085
0.41198805 5.05615759 -2.49513626  1084379000
-2.49513626 0.97764045 -0.07834269  1064978085
-0.24184828 5.06714964 -2.49513626  1084293038
-2.49513626 0.97764045 -0.73018771  1064978085
-0.97207928 4.97891045 -2.49513626  1084112192
-2.49513626 0.97764045 -1.29096580  1064978085
-1.36990190 4.88444996 -2.49513626  1083937600
-2.49513626 0.97764045 -1.60448420  1064978085
-1.68187034 4.78599930 -2.49513626  1083596498
-2.49513626 0.97764045 -1.98684549  1064978085
-2.13631392 4.60115767 -2.49513626  1083241677
-2.49513626 0.97764045 -2.49993348  1064978085
-2.57078147 4.37327766 -2.49513626  1082825124
-2.49513626 0.97764045 -2.77924585  1064978085
-2.84730983 4.19848919 -2.49513626  1082449272
-2.49513626 0.97764045 -3.04699373  1064978085
-3.30207610 3.85107374 -2.49513626  1081280377
-2.49513626 0.97764045 -3.48443294  1064978085
-3.71481919 3.45465040 -2.49513626  1079589961
-2.49513626 0.97764045 -3.82427692  1064978085
-3.87752318 3.27097869 -2.49513626  1078808684
-2.49513626 0.97764045 -3.98097467  1064978085
-4.30978489 2.67586231 -2.49513626  1075987889
-2.49513626 0.97764045 -4.47329473  1064978085
-4.54811144 2.24703383 -2.49513626  1073844509
-2.49513626 0.97764045 -4.71430302  1064978085
-4.74389648 1.79719889 -2.49513626  1071396997
-2.49513626 0.97764045 -4.79937935  1064978085
-4.82525110 1.56570721 -2.49513626  1083186031
-2.49513626 0.97800714 2.02547407  1064984237
1.95206594 4.56866646 -2.49513626  1083450027
-2.49513626 0.97800714 1.72886670  1064984237
1.50162196 4.73586273 -2.49513626  1083723133
-2.49513626 0.97800714 1.27086496  1064984237
0.95865536 4.87485695 -2.49513626  1084073465
-2.49513626 0.97800714 0.48327529  1064984237
-0.07672590 4.96763277 -2.49513626  1084155757
-2.49513626 0.97800714 -0.31684631  1064984237
-0.55622381 4.93699121 -2.49513626  1084075289
-2.49513626 0.97800714 -0.71512002  1064984237
-0.87327385 4.89087439 -2.49513626  1083967869
-2.49513626 0.97800714 -1.18668985  1064984237
-1.26432371 4.80465794 -2.49513626  1083773862
-2.49513626 0.97800714 -1.41858482  1064984237
-1.57137299 4.71317911 -2.49513626  1083514681
-2.49513626 0.97800714 -1.79743528  1064984237
-1.87188339 4.60209799 -2.49513626  1083328572
-2.49513626 0.97800714 -2.01929617  1064984237
-2.16461110 4.47188091 -2.49513626  1083045623
-2.49513626 0.97800714 -2.44834256  1064984237
-2.51772833 4.28302622 -2.49513626  1082637675
-2.49513626 0.97800714 -2.65451813  1064984236
-2.91967916 4.01979399 -2.49513626  1082013813
-2.49513626 0.97800714 -3.11063981  1064984237
-3.23393178 3.77159810 -2.49513626  1080951689
-2.49513626 0.97800714 -3.35386014  1064984237
-3.47029614 3.55532122 -2.49513626  1080028672
-2.49513626 0.97800714 -3.58313203  1064984237
-3.63815475 3.38335562 -2.49513626  1079296156
-2.49513626 0.97800714 -3.79750180  1064984237
-3.84865928 3.14182878 -2.49513626  1077188158
-2.49513626 0.97800714 -4.13415051  1064984237
-4.17804193 2.68835139 -2.49513626  1075476057
-2.49513626 0.97800714 -4.38097811  1064984237
-4.45425177 2.20066142 -2.49513626  1074281027
