# .PCD v0.7 - Point Cloud Data file format
VERSION 0.7
FIELDS x y z intensity
SIZE 4 4 4 4
TYPE F F F F
COUNT 1 1 1 1
WIDTH 1008
HEIGHT 1
VIEWPOINT 0 0 0 1 0 0 0
POINTS 1008
DATA ascii
9.21692181 32.92364502 -2.56214285  1107538510
-2.55103564 0.87236553 8.08600712  1063219990
7.52729940 32.92471695 -2.53102517  1107539250
-2.49965453 0.87476808 4.79189110  1063255722
4.26188707 33.02141190 -2.49513626  1107580846
-2.49513626 0.87497962 3.19872713  1063255723
2.66587424 33.18840408 -2.49513626  1107617895
-2.49513626 0.87497962 1.06363797  1063255722
0.52883214 33.29110336 -2.49513626  1107635812
-2.49513626 0.87497962 -1.61037087  1063255722
-3.74293423 33.08425522 -2.49513626  1107544480
-2.49513507 0.87497967 -6.42738676  1063242984
-6.97715664 32.88656998 -2.51936054  1107526076
-2.54760575 0.87252569 -9.78697586  1063196946
-12.12877560 32.85280609 -2.62439895  1107425740
-2.64587092 0.86794853 -14.33901691  1063136461
-15.36899853 31.81081390 -2.64753628  1106929566
-2.64753628 0.86787117 -17.87227249  1063136461
-19.31989861 29.57829285 -2.64753628  1105520524
-2.64753628 0.86787117 -22.51750183  1063136462
-23.38054085 26.48555756 -2.64753628  1103798342
-2.64753628 0.86787117 -25.03330994  1063136462
-25.82132339 24.11209679 -2.64753628  1102941591
-2.64753628 0.86787117 -25.12903023  1063249736
-25.47920799 21.59093666 -2.50275636  1101622822
-2.50275636 0.87462288 -26.48998070  1063249733
-26.81328583 19.90996552 -2.50275636  1100730406
-2.50275636 0.87462264 -30.25996780  1063136462
-30.54900551 17.74521446 -2.64753628  1099303238
-2.64753628 0.86787117 -31.87453461  1063136462
-32.78728867 13.15780830 -2.64753628  1095373235
-2.64753628 0.86787117 -33.38318634  1063136462
-33.56465530 11.02489853 -2.64753628  1091981638
-2.64753628 0.86787117 -32.36440659  1063255720
-32.48579025 7.29723740 -2.49513626  1087948699
-2.49513626 0.87497967 -32.70348740  1063255722
-32.79967880 5.72350645 -2.49513626  1084638191
-2.49513626 0.87497967 -32.96662903  1063255723
12.42037678 29.25464439 -2.64753628  1105959547
-2.64753628 0.88023299 10.51562977  1063343864
9.54683113 30.31432343 -2.64753628  1106490848
-2.64753628 0.88023299 8.56793404  1063343859
8.07509899 30.73911285 -2.64753628  1106701127
-2.64753628 0.88023299 7.08331728  1063343859
6.58461189 31.09249687 -2.64753628  1106873824
-2.64753628 0.88023299 5.58223248  1063343859
4.57410479 31.45119476 -2.64753628  1107104926
-2.64753628 0.88023299 2.54471374  1063343859
1.01530457 31.76585960 -2.64753628  1107179901
-2.64753628 0.88023299 -1.02694559  1063343859
-1.53718197 31.74487877 -2.64753628  1107104340
-2.64753628 0.88023299 -3.57282257  1063343859
-4.07975912 31.51913834 -2.64753628  1107007646
-2.64753628 0.88023299 -5.59370613  1063343859
-7.09467125 30.98009491 -2.64753628  1106328082
-2.64753628 0.88023299 -10.52685928  1063343859
-11.00729752 29.81509399 -2.64753628  1105957248
-2.64753628 0.88023299 -12.43109512  1063343859
-14.28402519 28.39131737 -2.64753628  1105026133
-2.64753628 0.88023299 -16.07797241  1063343859
-16.95050430 26.88457870 -2.64753628  1104469698
-2.64753628 0.88023299 -17.80553818  1063343859
-18.22619629 26.03662872 -2.64753628  1103855669
-2.64753628 0.88023299 -19.45954704  1063343859
-20.64769554 24.16139603 -2.64753628  1102161865
-2.50340033 0.88636750 -21.28856659  1063447241
-22.28531265 20.14972687 -2.50275636  1100508054
-2.50275636 0.88639504 -23.80125237  1063426845
-25.81785011 18.53480911 -2.64753628  1100017885
-2.64753628 0.88023299 -26.68091965  1063343859
-26.95493889 16.83840752 -2.64753628  1099119015
-2.64753628 0.88023299 -27.48202133  1063343859
-27.73495483 15.52007389 -2.64753628  1096018039
-2.64753628 0.88023299 -29.10005760  1063343859
-29.49558830 11.83682632 -2.64753628  1094043714
-2.64753628 0.88023305 -30.19491386  1063343859
-30.49798012 8.94278812 -2.64753628  1090445935
-2.49513626 0.88672054 -28.99837303  1063452702
-29.22437096 6.56463051 -2.49513626  1086522402
-2.49513626 0.88672054 -29.42020035  1063452702
-29.50673294 5.14889050 -2.49513626  1082546071
-2.49513626 0.88672054 12.13400745  1063515701
10.42588711 26.93112755 -2.64753628  1104960622
-2.64753628 0.89047557 7.78526354  1063515701
7.33744669 27.93111038 -2.64753628  1105279023
-2.64753628 0.89047557 5.07229757  1063515701
4.61487865 28.50768089 -2.64753628  1105502215
-2.64753628 0.89047557 3.69656301  1063515701
3.23592114 28.69692612 -2.64753628  1105589811
-2.64753628 0.89047557 2.31226063  1063515700
1.38617861 28.84551239 -2.64753628  1105659847
-2.64753628 0.89047557 -0.46927917  1063515701
-0.93313110 28.86371994 -2.64753628  1105642128
-2.64753628 0.89047557 -1.86003244  1063515701
-2.78497314 28.74419785 -2.64753628  1105563873
-2.64753628 0.89047557 -3.70706964  1063515701
-4.62533140 28.50598907 -2.64753628  1105330185
-2.64753628 0.89047557 -6.44657660  1063515701
-6.89803123 28.04286385 -2.64753628  1105030245
-2.64753628 0.89047557 -8.68483162  1063515701
-9.12621117 27.39885139 -2.64753628  1104805200
-2.64753628 0.89047557 -10.00178528  1063515701
-10.43575859 26.92730904 -2.64753628  1104453628
-2.64753628 0.89047557 -11.72108936  1063515701
-12.14362240 26.20147705 -2.64753628  1103933433
-2.64753628 0.89047557 -15.79259396  1063515701
-16.17901039 23.92122078 -2.64753628  1102922744
-2.64753628 0.89047557 -16.36605263  1063610771
-16.71499443 21.58414459 -2.50275636  1101547945
-2.50275636 0.89614218 -18.39322281  1063610771
-18.71495438 19.87502289 -2.50275636  1100780290
-2.50275636 0.89614218 -20.88997841  1063558720
-22.03219604 18.66996002 -2.64753628  1100120622
-2.64753628 0.89047557 -22.62067032  1063515701
-23.18578529 17.21639442 -2.64753628  1099348923
-2.64753628 0.89047557 -23.72696686  1063515700
-23.98838234 16.07925415 -2.64753628  1098584437
-2.64753628 0.89047557 -24.73527527  1063515701
-25.64146996 13.28533459 -2.64753628  1095627325
-2.64753628 0.89047557 -26.25182343  1063515701
-26.44178200 11.61108208 -2.64753628  1092499692
-2.64753628 0.89047557 -27.43662262  1063515701
-25.99040985 8.07674408 -2.49513626  1088920023
-2.49513626 0.89644140 -26.34938622  1063615791
-26.45547485 6.39084578 -2.49513626  1086251280
-2.49513626 0.89644140 -26.64715004  1063615791
-26.94778252 3.81470084 -2.49513626  1103106852
-2.64753628 0.89909983 10.72974586  1063660392
9.15433693 24.82403755 -2.64753628  1103609419
-2.64753628 0.89909983 7.54110575  1063660394
7.13269997 25.47860718 -2.64753628  1104041839
-2.64753628 0.89909983 5.48161554  1063660392
5.06502199 25.96883202 -2.64753628  1104175096
-2.64753628 0.89909983 4.22805071  1063660394
3.80788255 26.18271446 -2.64753628  1104303381
-2.64753628 0.89909983 2.54187584  1063660392
2.11844182 26.37322426 -2.64753628  1104362268
-2.64753628 0.89909983 0.42023429  1063660392
-0.85492039 26.44435692 -2.64753628  1104326086
-2.64753628 0.89909983 -2.97432399  1063660392
-3.39634609 26.23927689 -2.64753628  1104245593
-2.64753628 0.89909983 -4.23763371  1063660392
-5.07454443 25.96697617 -2.64753628  1104088711
-2.64753628 0.89909983 -5.90622807  1063660392
-7.55042887 25.35795021 -2.64753628  1103679861
-2.64753628 0.89909983 -9.16343498  1063660392
-9.95616817 24.51345444 -2.64753628  1103196807
-2.64753628 0.89909983 -11.12574196  1063660392
-11.59851551 22.15942383 -2.50275636  1102037757
-2.50275636 0.90434456 -12.65276814  1063748383
-13.33942127 21.15716934 -2.50275636  1101261623
-2.50275636 0.90434456 -14.67068291  1063748383
-15.62966537 19.52633286 -2.50275636  1100623499
-2.50275636 0.90434450 -16.69350624  1063735382
-17.79114151 18.89394379 -2.59688497  1100420285
-2.63589025 0.89952058 -19.04521179  1063660392
-20.18544960 17.10504341 -2.64753628  1099315815
-2.64753628 0.89909983 -20.72460175  1063660392
-21.73815536 15.08268356 -2.64753628  1097577516
-2.64753628 0.89909983 -22.21152306  1063660392
-22.43963814 14.01775932 -2.64753628  1096449161
-2.64753628 0.89909983 -22.87843513  1063660392
-23.29357529 12.54760742 -2.64753628  1094893442
-2.64753628 0.89909983 -24.22542381  1063660392
-24.39318848 10.24721909 -2.64753628  1092463107
-2.64753628 0.89909983 -24.85859299  1063660394
-23.68992805 7.78136539 -2.49513626  1089260226
-2.49513626 0.90462142 -24.03730965  1063753031
-24.32891464 5.46498585 -2.49513626  1082731033
-2.49513626 0.90462142 9.35733414  1063865779
8.67485428 21.38118172 -2.50275636  1101869276
-2.50275636 0.91134185 7.63457918  1063865779
7.28375673 21.89417839 -2.50275636  1102057770
-2.50275636 0.91134179 6.57654905  1063865778
6.22036934 22.21970177 -2.50275636  1102267329
-2.50275636 0.91134185 5.44001675  1063783886
5.05701065 23.87915230 -2.64753628  1103079576
-2.64753628 0.90646064 3.51292992  1063783886
1.95435023 24.33039093 -2.64753628  1103314644
-2.64753628 0.90646064 -0.39664122  1063783885
-1.18055856 24.38018990 -2.64753628  1103274795
-2.64753628 0.90646064 -2.74394131  1063783885
-3.52178621 24.15335655 -2.64753628  1103151053
-2.64753628 0.90646064 -4.29598808  1063783886
-4.68148041 23.95561028 -2.64753628  1102945825
-2.64753628 0.90646064 -5.87076139  1063865779
-6.93912315 22.00583267 -2.50275636  1101996494
-2.50275636 0.91134185 -7.99136353  1063865779
-8.68270206 21.37799454 -2.50275636  1101575222
-2.50275636 0.91134185 -9.70267296  1063865779
-10.03777027 20.77621841 -2.50275636  1101325803
-2.50275636 0.91134185 -10.70011234  1063865779
-13.24931335 18.92699051 -2.50596786  1100437024
-2.53347111 0.91030407 -14.16425514  1063831805
-14.63896847 18.90336227 -2.59332037  1100426030
-2.62532592 0.90720773 -15.55733871  1063783885
-16.44552803 18.03696442 -2.64753628  1099835856
-2.64753628 0.90646064 -17.01653481  1063783886
-17.29550362 17.22361755 -2.64753628  1099253179
-2.64753628 0.90646058 -18.36597824  1063783886
-18.87304306 15.47887707 -2.64753628  1098041159
-2.64753628 0.90646064 -19.82820892  1063783885
-20.05435371 13.91439438 -2.64753628  1096381003
-2.64753628 0.90646064 -20.70149612  1063783886
-20.90660667 12.59767342 -2.64753628  1093904838
-2.64753628 0.90646064 -21.85014153  1063783886
-22.02211189 10.52682877 -2.64753628  1092796169
-2.64753628 0.90646064 -21.73678017  1063870101
-21.85493851 7.17863703 -2.49513626  1088058188
-2.49513626 0.91159946 -22.17544174  1063870101
-22.27086639 5.76017523 -2.49513626  1085069863
-2.49513626 0.91159946 -22.52253532  1063870101
-22.59482765 4.31795120 -2.49513626  1078876674
-2.49513626 0.91159946 8.99687004  1063967092
8.05019188 19.84155273 -2.50275636  1100988195
-2.50275636 0.91738057 7.08482027  1063967092
6.75926208 20.31760788 -2.50275636  1101329698
-2.50275636 0.91738057 5.44041491  1063967092
4.43623018 20.94785309 -2.50275636  1101537702
-2.50275636 0.91738057 3.76090121  1063967092
3.42173934 21.13727760 -2.50275636  1101628453
-2.50275636 0.91738057 2.39930296  1063967092
2.05712438 21.31340027 -2.50275636  1101722279
-2.50275636 0.91738063 1.02779627  1063967092
0.68403500 21.40151787 -2.50275636  1101743913
-2.50275636 0.91738057 -0.00393219  1063967092
-1.72226691 21.34307098 -2.50275636  1101674168
-2.50275636 0.91738057 -2.74864340  1063967092
-3.76863217 21.07819557 -2.50275636  1101536914
-2.50275636 0.91738057 -4.77987671  1063967092
-5.44801760 20.70777512 -2.50275636  1101328586
-2.50275636 0.91738057 -6.43944740  1063967092
-6.76671267 20.31512833 -2.50275636  1101111643
-2.50275636 0.91738057 -7.41591597  1063967092
-9.00400162 19.42732620 -2.50275636  1100627392
-2.50275636 0.91738057 -9.62353516  1063967092
-10.29858208 18.92922974 -2.51876330  1100437904
-2.56350064 0.91546255 -11.50412655  1063922239
-12.34592915 18.90131760 -2.63877153  1100356063
-2.64753628 0.91281569 -12.98981380  1063890507
-13.28628349 18.34523582 -2.64753628  1100024070
-2.64753628 0.91281569 -14.15478897  1063890506
-14.43707371 17.45405579 -2.64753628  1099547201
-2.64753628 0.91281569 -14.99040413  1063890506
-17.04343987 14.91955853 -2.64753628  1097192450
-2.64753628 0.91281569 -18.18579674  1063890506
-18.81532097 12.61177444 -2.64753628  1095036147
-2.64753628 0.91281569 -19.21080971  1063890506
-19.40114212 11.69054031 -2.64753628  1093728909
-2.64753628 0.91281569 -19.94189644  1063890506
-20.11191177 10.42036629 -2.64753628  1090415250
-2.49513626 0.91762149 -19.93665886  1063971134
-20.38562584 6.33501101 -2.49513626  1086338690
-2.49513626 0.91762149 -20.57861710  1063971134
-20.75037766 5.01266718 -2.49513626  1082145156
-2.49513626 0.91762149 8.78067684  1063997711
8.41444302 18.96615219 -2.60017633  1100463964
-2.58241606 0.92028350 6.65345669  1064046851
6.31445789 18.98057747 -2.50674605  1100687698
-2.50275636 0.92264479 4.45108128  1064055411
4.13770151 19.53820229 -2.50275636  1100796217
-2.50275636 0.92264479 2.87431598  1064055411
2.55640888 19.80723572 -2.50275636  1100956256
-2.50275636 0.92264479 1.27901983  1064055411
0.31721312 19.96901512 -2.50275636  1100984406
-2.50275636 0.92264479 -1.92599022  1064055411
-2.24512744 19.84493446 -2.50275636  1100903246
-2.50275636 0.92264479 -2.88156581  1064055411
-3.19871402 19.71370125 -2.50275636  1100761890
-2.50275636 0.92264479 -4.77042818  1064055411
-5.08139467 19.31427956 -2.50275636  1100601175
-2.50275636 0.92264479 -6.00611210  1064055411
-6.31177235 18.94931412 -2.50292253  1100445221
-2.54451919 0.92140609 -7.68795204  1064026799
-8.04289150 18.92473602 -2.57686710  1100438832
-2.59433961 0.91993052 -8.76705456  1064000754
-9.13684845 18.91148376 -2.63201666  1100162498
-2.64753628 0.91835767 -10.97910786  1063983485
-11.55337620 17.68793678 -2.64753628  1099489988
-2.64753628 0.91835767 -12.66551495  1063983485
-12.93555737 16.70373917 -2.64753628  1099054193
-2.64753628 0.91835767 -13.72536755  1063983485
-13.98165131 15.83846855 -2.64753628  1098500567
-2.64753628 0.91835767 -14.48331165  1063983485
-14.72855091 15.14639854 -2.64753628  1097762383
-2.64753628 0.91835755 -15.44124889  1063983485
-15.67092037 14.16918278 -2.64753628  1096721962
-2.64753628 0.91835767 -16.96201134  1063983485
-17.16217613 12.32084846 -2.64753628  1093867328
-2.64753628 0.91835767 -18.09557343  1063983485
-18.91224670 9.41650105 -2.64753628  1091684460
-2.64753628 0.91835767 -18.47829628  1064059206
-18.59505463 7.11764097 -2.49513626  1087408014
-2.49513626 0.92287099 -18.91640472  1064059206
-19.01378822 5.90869856 -2.49513626  1084845723
-2.49513626 0.92287099 -19.35401917  1064059206
-19.55681229 3.73736930 -2.49513626  1077058324
-2.49513626 0.92287099 8.31607819  1064065276
7.73474407 18.21824265 -2.64753628  1100134564
-2.64753628 0.92323279 6.54871893  1064065275
6.24778843 18.78017426 -2.64753628  1100416617
-2.64753628 0.92323285 5.63491821  1064066647
5.30544472 18.95151711 -2.63254762  1100455714
-2.62126303 0.92396492 4.65490294  1064082487
4.33345127 18.95467377 -2.60092592  1100457515
-2.58348417 0.92501861 2.75706911  1064105041
1.82974517 18.95757484 -2.54767776  1100458020
-2.54104590 0.92620361 0.60588193  1064117016
0.30110684 18.95550156 -2.53593826  1100457766
-2.53576732 0.92635119 -0.30807164  1064117488
-0.61276376 18.95407867 -2.53675246  1100455469
-2.53815174 0.92628455 -3.07324004  1064103080
-3.38603425 18.93830109 -2.57349062  1100446985
-2.58092880 0.92508984 -4.33537197  1064088482
-4.65605927 18.92848015 -2.60747838  1100438372
-2.64062452 0.92342538 -5.95217133  1064065276
-6.25468063 18.77790070 -2.64753628  1100253617
-2.64753628 0.92323279 -7.15216732  1064065276
-7.44776487 18.33741379 -2.64753628  1099862493
-2.64753628 0.92323279 -9.17823982  1064065276
-11.08833027 16.39447403 -2.64753628  1098539045
-2.64753628 0.92323291 -12.36822128  1064065276
-12.61488724 15.25107098 -2.64753628  1097907741
-2.64753628 0.92323279 -13.09837627  1064065275
-13.79809761 14.18954086 -2.64753628  1095291371
-2.64753628 0.92323285 -15.69883156  1064065275
-16.07798004 11.54249382 -2.64753628  1093961182
-2.64753628 0.92323273 -16.61545563  1064065275
-16.78609848 10.48606300 -2.64753628  1092554668
-2.64753628 0.92323273 -17.42487907  1064065278
-16.69759178 8.31381512 -2.49513626  1090043070
-2.49513626 0.92748737 -17.07881165  1064136656
-17.19709206 7.22424507 -2.49513626  1087136879
-2.49513626 0.92748737 -17.62556076  1064136656
-17.72138405 5.82089472 -2.49513626  1084748769
-2.49513626 0.92748731 -18.05863190  1064136656
-18.13135147 4.37999153 -2.49513626  1082315223
-2.49513626 0.92748731 -18.26270294  1064136656
-18.32131958 3.50126743 -2.49513626  1076318876
-2.49513626 0.92748737 6.71993780  1064137779
5.59123707 17.75403214 -2.64753628  1099873162
-2.64753628 0.92755431 4.14844513  1064137779
3.85637331 18.20977592 -2.64753628  1100097458
-2.64753628 0.92755431 1.78823900  1064137779
1.49034929 18.55387688 -2.64753628  1100257913
-2.64753628 0.92755431 0.89345205  1064137779
0.29554680 18.61127472 -2.64753628  1100277948
-2.64753628 0.92755431 -1.49715364  1064137779
-2.09245062 18.49564934 -2.64753628  1100175833
-2.64753628 0.92755431 -3.27603507  1064137779
-4.15509558 18.14394188 -2.64753628  1099995463
-2.64753628 0.92755431 -4.73590946  1064137779
-5.31181383 17.83962440 -2.64753628  1099826190
-2.64753628 0.92755431 -6.72630167  1064137779
-7.28045321 17.13075066 -2.64753628  1099373210
-2.64753628 0.92755431 -8.36564350  1064137779
-8.63171864 16.49123764 -2.64753628  1098805744
-2.64753628 0.92755431 -9.92731190  1064137779
-11.39677143 14.71669769 -2.64753628  1097368012
-2.64753628 0.92755431 -12.31841850  1064137779
-12.76040649 13.55136967 -2.64753628  1095678866
-2.64753628 0.92755431 -13.80673790  1064137779
-14.76403046 11.33538437 -2.64753628  1093256706
-2.64753628 0.92755431 -15.46155739  1064137779
-15.94296837 9.60673714 -2.64753628  1091661524
-2.64753628 0.92755431 -15.82693672  1064205291
-15.94645119 7.31019402 -2.49513626  1088533150
-2.49513626 0.93157834 -16.17308617  1064205291
-16.28015518 6.53336096 -2.49513626  1086339264
-2.49513626 0.93157834 -16.66614342  1064205291
-16.75194740 5.20581388 -2.49513626  1084093355
-2.49513626 0.93157834 -16.91055679  1064205291
-16.98332405 4.39259911 -2.49513626  1082380361
-2.49513626 0.93157834 -17.11568451  1064205291
-17.17524529 3.56919456 -2.49513626  1079164156
-2.49513626 0.93157834 -17.28105545  1064205291
-17.32727051 2.73749471 -2.49513626  1098995939
-2.64753628 0.93141103 6.60380459  1064202484
5.81188440 16.57588959 -2.64753628  1099257413
-2.64753628 0.93141103 4.46292877  1064202484
1.96821249 17.45463371 -2.64753628  1099709386
-2.64753628 0.93141103 0.84312856  1064202483
0.27898890 17.56303596 -2.64753628  1099728292
-2.64753628 0.93141097 -0.28543764  1064202483
-0.56757110 17.55608177 -2.64753628  1099717513
-2.64753628 0.93141103 -1.97461998  1064202483
-2.53438163 17.38145638 -2.64753628  1099609403
-2.64753628 0.93141103 -3.36893034  1064202484
-3.64547229 17.18280029 -2.64753628  1099425221
-2.64753628 0.93141097 -5.01263380  1064202484
-5.28246498 16.75212479 -2.64753628  1099105974
-2.64753628 0.93141097 -7.38624573  1064202483
-7.89446497 15.69125652 -2.64753628  1098309447
-2.64753628 0.93141103 -8.88594055  1064202484
-9.84072876 14.54985332 -2.64753628  1096323001
-2.64753628 0.93141097 -11.41152668  1064202483
-11.83467865 12.97992516 -2.64753628  1095335146
-2.64753628 0.93141097 -12.44634724  1064202484
-13.40087128 11.35582352 -2.64753628  1093810573
-2.64753628 0.93141097 -13.75880623  1064202484
-13.93246841 10.69693661 -2.64753628  1093110816
-2.64753628 0.93141103 -14.26895523  1064202483
-14.59070683 9.78005314 -2.64753628  1092138424
-2.64753628 0.93141097 -15.04500198  1064202483
-14.31440163 8.31490326 -2.49513626  1090205936
-2.49513626 0.93522835 -14.93550587  1064266529
-15.15717888 6.65580130 -2.49513626  1086671559
-2.49513626 0.93522835 -15.55335331  1064266528
-15.64241791 5.41797781 -2.49513626  1084575620
-2.49513626 0.93522835 -15.80841923  1064266528
-15.88530731 4.65797806 -2.49513626  1081657189
-2.49513626 0.93522841 -16.15166664  1064266528
-16.20787430 3.36816311 -2.49513626  1078386286
-2.49513626 0.93522835 -16.30772400  1064266528
6.25085783 15.40666866 -2.64753628  1098582549
-2.64753628 0.93487388 5.24846649  1064260580
4.99431515 15.85861206 -2.64753628  1098950026
-2.64753628 0.93487388 3.70556021  1064260581
3.44466686 16.26569939 -2.64753628  1099074866
-2.64753628 0.93487388 2.65693283  1064260581
1.86302316 16.52173996 -2.64753628  1099195764
-2.64753628 0.93487388 1.33123934  1064260581
1.06480134 16.59233284 -2.64753628  1099234987
-2.64753628 0.93487388 -0.27017900  1064260581
-0.53723240 16.61776543 -2.64753628  1099217986
-2.64753628 0.93487388 -1.60340118  1064260581
-2.13427782 16.48889160 -2.64753628  1099144874
-2.64753628 0.93487388 -2.92628694  1064260581
-3.18887162 16.31777573 -2.64753628  1099046287
-2.64753628 0.93487388 -3.71149778  1064260581
-4.48808718 16.00923920 -2.64753628  1098839558
-2.64753628 0.93487388 -5.00013161  1064260581
-5.25425053 15.77439404 -2.64753628  1098386412
-2.64753628 0.93487388 -6.25650215  1064260581
-6.99146938 15.08502769 -2.64753628  1097576619
-2.64753628 0.93487388 -8.86747169  1064260581
-9.31477070 13.77220631 -2.64753628  1096250380
-2.64753628 0.93487388 -10.18004894  1064260581
-10.38994408 12.98028755 -2.64753628  1095564457
-2.64753628 0.93487382 -11.00330544  1064260580
-11.39810181 12.10462475 -2.64753628  1094629397
-2.64753628 0.93487388 -11.78112984  1064260581
-12.33273125 11.15089417 -2.64753628  1093613703
-2.64753628 0.93487388 -13.34880066  1064260580
-13.66037178 9.47802830 -2.64753628  1091603527
-2.64753628 0.93487388 -13.42114449  1064321500
-13.67404175 7.65179443 -2.49513626  1088859152
-2.49513626 0.93850493 -14.13725281  1064321500
-14.44644547 6.06873989 -2.49513626  1085980507
-2.49513626 0.93850493 -14.63396931  1064321500
-14.72207260 5.36562729 -2.49513626  1084496868
-2.49513626 0.93850493 -14.88686752  1064321500
-15.17018318 3.92364287 -2.49513626  1077689711
-2.49513626 0.93850493 6.63060999  1064313029
6.39967823 14.42487240 -2.64753628  1097561775
-2.64753628 0.93800002 5.46003342  1064313029
5.22144651 14.89192390 -2.64753628  1097913591
-2.64753628 0.93800002 4.00953674  1064313029
3.76379657 15.32535744 -2.64753628  1098261560
-2.64753628 0.93800008 3.26946092  1064313029
2.77174926 15.53545094 -2.64753628  1098505500
-2.64753628 0.93800002 1.51608014  1064313029
0.75747961 15.76259232 -2.64753628  1098669330
-2.64753628 0.93800002 0.25064504  1064313029
-0.00289801 15.78077316 -2.64753628  1098675580
-2.64753628 0.93800008 -1.52184463  1064313029
-2.02572298 15.65021706 -2.64753628  1098504626
-2.64753628 0.93800002 -2.52750754  1064313029
-2.77744746 15.53443241 -2.64753628  1098317483
-2.64753628 0.93800002 -3.52272201  1064313029
-3.76941752 15.32397747 -2.64753628  1098063504
-2.64753628 0.93800002 -4.50339365  1064313029
-4.74581003 15.05025196 -2.64753628  1097829776
-2.64753628 0.93800002 -5.22691154  1064313029
-5.46546078 14.80409241 -2.64753628  1097461520
-2.64753628 0.93800002 -6.40496922  1064313029
-6.63586855 14.31775284 -2.64753628  1097029943
-2.64753628 0.93800008 -7.54172277  1064313029
-7.76347017 13.73904228 -2.64753628  1096404215
-2.64753628 0.93800002 -8.20088291  1064313029
-8.62983608 13.21206760 -2.64753628  1095837116
-2.64753628 0.93800002 -9.04987144  1064313029
-9.46055317 12.63055038 -2.64753628  1095213422
-2.64753628 0.93800008 -10.05814457  1064313029
-10.25221157 11.99687481 -2.64753628  1094358167
-2.64753628 0.93800002 -11.00154495  1064313029
-11.18191051 11.13542652 -2.64753628  1093616891
-2.64753628 0.93800002 -11.53390026  1064313029
-11.87399101 10.39428425 -2.64753628  1092828180
-2.64753628 0.93800002 -12.20181847  1064313029
-12.51704884 9.61021900 -2.64753628  1091563366
-2.64753628 0.93800002 -12.35385704  1064371117
-12.48530579 8.08115101 -2.49513626  1089839205
-2.49513626 0.94146234 -12.86018181  1064371117
-13.31340504 6.62880659 -2.49513626  1087193067
-2.49513626 0.94146234 -13.51951027  1064371117
-13.71165371 5.76006556 -2.49513626  1083949835
-2.49513626 0.94146234 -14.12967491  1064371117
-14.33687878 3.95493436 -2.49513626  1080973116
-2.49513626 0.94146234 -14.56128407  1064371117
-14.60803032 2.79164624 -2.49513626  1076076284
-2.49513626 0.94146234 -14.69018078  1064371117
6.30882597 13.62522793 -2.64753628  1096521959
-2.64753628 0.94083619 5.86780548  1064360612
5.64498997 13.91339684 -2.64753628  1096902316
-2.64753628 0.94083619 4.96804953  1064360612
3.81495380 14.52220058 -2.64753628  1097583543
-2.64753628 0.94083619 2.63723540  1064360612
2.16095877 14.85861301 -2.64753628  1097775576
-2.64753628 0.94083619 1.44250560  1064360612
0.47966209 15.00726891 -2.64753628  1097872637
-2.64753628 0.94083625 -0.48516387  1064360612
-0.72621489 14.99735832 -2.64753628  1097801346
-2.64753628 0.94083619 -2.16641068  1064360612
-2.64265680 14.78054523 -2.64753628  1097477433
-2.64753628 0.94083619 -3.58648467  1064360612
-3.82028151 14.52080059 -2.64753628  1097290269
-2.64753628 0.94083619 -4.51549816  1064360612
-4.74498606 14.24546337 -2.64753628  1096986014
-2.64753628 0.94083619 -5.42585850  1064360612
-5.65009642 13.91130924 -2.64753628  1096519618
-2.64753628 0.94083619 -6.31382227  1064360612
-6.74825859 13.41302109 -2.64753628  1096079504
-2.64753628 0.94083619 -7.38670778  1064360612
-7.59578037 12.95191956 -2.64753628  1095581780
-2.64753628 0.94083619 -8.00799465  1064360612
-8.80718708 12.16065979 -2.64753628  1094731787
-2.64753628 0.94083619 -9.19334316  1064360613
-9.38289928 11.72217369 -2.64753628  1094262368
-2.64753628 0.94083619 -9.75476933  1064360608
-10.11638641 11.09535122 -2.64753628  1092689691
-2.64753628 0.94083619 -11.29774666  1064360612
-11.60966682 9.52175426 -2.64753628  1091718437
-2.64753628 0.94083619 -11.49511719  1064416122
-12.00139236 7.49711847 -2.49513626  1088233449
-2.49513626 0.94414485 -12.45810986  1064416123
-12.95648575 5.68943548 -2.49513626  1084794279
-2.49513626 0.94414485 -13.69980431  1064416123
-13.75497532 3.32278872 -2.49513626  1075555892
-2.49513626 0.94414485 -13.97726440  1064416122
-14.01094055 1.98337674 -2.49513626  1095754407
-2.64753628 0.94342065 5.59546185  1064403972
5.16913319 13.35239124 -2.64753628  1096376326
-2.64753628 0.94342065 4.30090952  1064403972
4.08093357 13.72414875 -2.64753628  1096588132
-2.64753628 0.94342065 3.41492796  1064403972
2.28804278 14.13403893 -2.64753628  1097095780
-2.64753628 0.94342065 0.91695553  1064403972
0.68726355 14.30153275 -2.64753628  1097136320
-2.64753628 0.94342065 0.22741444  1064403972
-0.00262844 14.31803703 -2.64753628  1097142002
-2.64753628 0.94342065 -0.69251072  1064403972
-1.15164042 14.27165031 -2.64753628  1097074007
-2.64753628 0.94342065 -2.29323149  1064403972
-3.19619584 13.95673943 -2.64753628  1096709397
-2.64753628 0.94342065 -4.08596897  1064403972
-4.30591583 13.65522766 -2.64753628  1096374588
-2.64753628 0.94342065 -5.81128550  1064403972
-6.22871447 12.89222050 -2.64753628  1095542222
-2.64753628 0.94342065 -6.84267187  1064403972
-7.24323463 12.35078144 -2.64753628  1094957464
-2.64753628 0.94342065 -7.63631821  1064403972
-7.82992649 11.98742867 -2.64753628  1094566626
-2.64753628 0.94342065 -8.76665688  1064403972
-8.94740868 11.17810631 -2.64753628  1093544046
-2.64753628 0.94342065 -9.64685154  1064403972
-9.98180008 10.26498413 -2.64753628  1092724484
-2.64753628 0.94342065 -10.46480942  1064403972
-10.62046242 9.60270691 -2.64753628  1090926333
-2.49513626 0.94658887 -10.83374596  1064457126
-11.55775928 6.96434546 -2.49513626  1087560841
-2.49513626 0.94658887 -11.98118019  1064457127
-12.07937145 6.01437426 -2.49513626  1085534456
-2.49513626 0.94658893 -12.44070911  1064457126
-12.52306652 5.02560949 -2.49513626  1083432061
-2.49513626 0.94658893 -12.75066948  1064457126
-12.81998158 4.21093845 -2.49513626  1081278466
-2.49513626 0.94658887 -13.00798798  1064457126
-13.06396103 3.37888503 -2.49513626  1077757522
-2.49513626 0.94658887 -13.25399494  1064457127
-13.29298210 2.31960559 -2.49513626  1072830162
-2.49513626 0.94658887 5.54817820  1064443645
5.14351940 12.67739391 -2.64753628  1095813589
-2.64753628 0.94578534 3.89938712  1064443645
3.68820119 13.17457390 -2.64753628  1096005327
-2.64753628 0.94578534 2.83444881  1064443645
2.61904192 13.42806149 -2.64753628  1096253084
-2.64753628 0.94578534 1.75121629  1064443645
0.65669012 13.66531944 -2.64753628  1096476094
-2.64753628 0.94578534 -1.75619340  1064443645
-1.97396040 13.53793907 -2.64753628  1096209771
-2.64753628 0.94578534 -3.05401206  1064443645
-4.11436462 13.04776001 -2.64753628  1095666336
-2.64753628 0.94578534 -5.14817333  1064443645
-5.35115957 12.59116173 -2.64753628  1095241367
-2.64753628 0.94578534 -5.95162535  1064443645
-6.14877796 12.22148132 -2.64753628  1094731822
-2.64753628 0.94578534 -6.73051262  1064443645
-7.10973024 11.68862915 -2.64753628  1093749048
-2.64753628 0.94578534 -8.20179939  1064443645
-8.37666416 10.81681728 -2.64753628  1093330100
-2.64753628 0.94578540 -8.88812065  1064443645
-9.21770573 10.10970592 -2.64753628  1092088575
-2.64753628 0.94578540 -10.29411983  1064443645
-9.83677292 8.33560658 -2.49513626  1090704102
-2.49513626 0.94882482 -10.09948635  1064494639
-10.22696495 7.85196066 -2.49513626  1089861866
-2.49513626 0.94882482 -10.47396088  1064494639
-10.59341812 7.35007429 -2.49513626  1087697408
-2.49513626 0.94882482 -11.14909172  1064494639
-11.25170040 6.29628754 -2.49513626  1086565266
-2.49513626 0.94882482 -11.54201221  1064494639
-11.63285637 5.56064129 -2.49513626  1085009852
-2.49513626 0.94882482 -11.80550480  1064494639
-11.96597290 4.80204201 -2.49513626  1082591622
-2.49513626 0.94882482 -12.31274033  1064494639
-12.42931938 3.42871904 -2.49513626  1078894835
-2.49513626 0.94882482 -12.53306293  1064494639
-12.58008862 2.82585788 -2.49513626  1076356432
-2.49513626 0.94882482 -12.66438675  1064494639
5.31114864 11.97133255 -2.64753628  1094771140
-2.64753628 0.94795698 4.53133154  1064480079
4.33332586 12.35894108 -2.64753628  1095161051
-2.64753628 0.94795698 3.53063536  1064480079
3.12360859 12.71865368 -2.64753628  1095609234
-2.64753628 0.94795698 2.09285879  1064480079
1.67640054 12.98886967 -2.64753628  1095799696
-2.64753628 0.94795704 1.04861343  1064480079
0.83873898 13.06972218 -2.64753628  1095861483
-2.64753628 0.94795704 -0.00240352  1064480079
-0.42317870 13.08976746 -2.64753628  1095847148
-2.64753628 0.94795698 -1.05339885  1064480079
-1.26299250 13.03556633 -2.64753628  1095776171
-2.64753628 0.94795698 -1.68116283  1064480079
-2.09759879 12.92753410 -2.64753628  1095608272
-2.64753628 0.94795698 -2.71805143  1064480079
-3.53525329 12.61043549 -2.64753628  1095088050
-2.64753628 0.94795698 -4.73264551  1064480079
-6.62533188 11.29717159 -2.64753628  1093863228
-2.64753628 0.94795698 -7.16197491  1064480079
-7.68197107 10.60699844 -2.64753628  1092570385
-2.64753628 0.94795698 -8.66727257  1064480079
-8.97825527 9.53477859 -2.64753628  1091820734
-2.64753628 0.94795698 -9.42724228  1064480079
-9.02109051 8.42394447 -2.49513626  1090810463
-2.49513626 0.95087790 -9.54349518  1064529084
-9.90954971 7.35824585 -2.49513626  1088153939
-2.49513626 0.95087790 -10.46808338  1064529084
-10.86645699 5.85346222 -2.49513626  1084905131
-2.49513626 0.95087790 -11.59653950  1064529084
-11.78671265 3.66282701 -2.49513626  1079919931
-2.49513626 0.95087790 -11.89831352  1064529084
-11.99762440 2.89826369 -2.49513626  1076699347
-2.49513626 0.95087790 -12.15899467  1064529084
-12.19151306 1.92610788 -2.49513626  1071476716
-2.49513626 0.95087790 4.90775824  1064513653
4.53382635 11.71133137 -2.64753628  1094625453
-2.64753628 0.94995815 3.77231073  1064513653
3.38551474 12.09335136 -2.64753628  1094866629
-2.64753628 0.94995815 2.99521995  1064513653
2.60182858 12.28582001 -2.64753628  1095094052
-2.64753628 0.94995815 1.00551236  1064513653
0.80426055 12.53252029 -2.64753628  1095297103
-2.64753628 0.94995815 -0.00230473  1064513653
-0.20407027 12.55664062 -2.64753628  1095291885
-2.64753628 0.94995815 -0.60739648  1064513653
-1.01009953 12.51760960 -2.64753628  1095237387
-2.64753628 0.94995815 -1.41175270  1064513653
-2.01138067 12.39617538 -2.64753628  1095054292
-2.64753628 0.94995815 -2.60633183  1064513653
-2.80337262 12.24140453 -2.64753628  1094917586
-2.64753628 0.94995815 -3.19523525  1064513653
-3.38994193 12.09211159 -2.64753628  1094689175
-2.64753628 0.94995815 -4.72566652  1064513653
-4.91199684 11.55781746 -2.64753628  1093987434
-2.64753628 0.94995815 -5.82367039  1064513653
-6.00168371 11.03134632 -2.64753628  1093380975
-2.64753628 0.94995815 -6.86760139  1064513653
-7.03564072 10.40243340 -2.64753628  1092670045
-2.64753628 0.94995815 -8.00424385  1064513653
-8.31102276 9.41476250 -2.64753628  1091861231
-2.64753628 0.94995815 -8.75500202  1064513653
-8.65029621 8.07769871 -2.49513626  1090388340
-2.49513626 0.95276952 -8.90536022  1064560820
-9.02946091 7.65151358 -2.49513626  1089481900
-2.49513626 0.95276952 -9.27063370  1064560820
-9.38764954 7.20755863 -2.49513626  1088216837
-2.49513626 0.95276952 -9.72402763  1064560820
-9.93577290 6.43095922 -2.49513626  1085862436
-2.49513626 0.95276952 -10.41980839  1064560821
-10.59477139 5.27518797 -2.49513626  1084446288
-2.49513626 0.95276952 -10.75879097  1064560820
-10.98393822 4.40794468 -2.49513626  1077783492
-2.49513626 0.95276952 -11.50448704  1064560820
-11.54765511 2.59393978 -2.49513626  1075453400
-2.49513626 0.95276952 -11.65922546  1064560820
-11.69040585 1.84693933 -2.49513626  1070880228
-2.49513626 0.95276952 5.06758642  1064544689
4.71334171 11.10168839 -2.64753628  1093849301
-2.64753628 0.95180804 3.80723643  1064544689
3.62287283 11.50382042 -2.64753628  1094308888
-2.64753628 0.95180804 3.06437826  1064544689
2.68801022 11.75745487 -2.64753628  1094580504
-2.64753628 0.95180804 1.92733729  1064544689
1.73580241 11.93524647 -2.64753628  1094673065
-2.64753628 0.95180804 1.35143137  1064544689
0.96567988 12.02208710 -2.64753628  1094751145
-2.64753628 0.95180804 0.57891989  1064544689
0.38529113 12.05465412 -2.64753628  1094775428
-2.64753628 0.95180804 -0.58333486  1064544689
-0.77681494 12.03575897 -2.64753628  1094736129
-2.64753628 0.95180804 -1.16310287  1064544689
-1.35582960 11.98435783 -2.64753628  1094672477
-2.64753628 0.95180804 -2.12272501  1064544689
-2.31320477 11.83690071 -2.64753628  1094501747
-2.64753628 0.95180804 -3.06865740  1064544689
-3.44181871 11.55928230 -2.64753628  1094191668
-2.64753628 0.95180804 -3.81142879  1064544689
-3.99478388 11.38001537 -2.64753628  1093922503
-2.64753628 0.95180804 -4.53846312  1064544689
-5.07160854 10.94266415 -2.64753628  1093140869
-2.64753628 0.95180804 -6.10134077  1064544689
-6.26770926 10.30431747 -2.64753628  1092828301
-2.64753628 0.95180804 -6.59554482  1064544689
-6.75692606 9.99034691 -2.64753628  1091744696
-2.64753628 0.95180804 -7.65826845  1064590155
-8.18190479 7.89017057 -2.49513626  1089728896
-2.49513626 0.95451802 -8.67176437  1064590155
-8.78871059 7.20812893 -2.49513626  1088258383
-2.49513626 0.95451802 -9.44171047  1064590155
-9.64017296 6.02209330 -2.49513626  1086044615
-2.49513626 0.95451802 -9.82868004  1064590155
-9.91913795 5.55060434 -2.49513626  1084707922
-2.49513626 0.95451802 -10.17506599  1064590155
-10.47943115 4.40225744 -2.49513626  1082263170
-2.49513626 0.95451802 -10.74053574  1064590155
-11.00442982 2.84620380 -2.49513626  1076547990
-2.49513626 0.95451802 -11.16451263  1064590155
-11.19735241 1.95392549 -2.49513626  1093167762
-2.64753628 0.95352304 4.70406580  1064573462
4.53311157 10.67717838 -2.64753628  1093473197
-2.64753628 0.95352304 3.83801293  1064573461
3.66164851 11.00651932 -2.64753628  1093789005
-2.64753628 0.95352304 3.12706804  1064573462
2.94719958 11.21896362 -2.64753628  1093987584
-2.64753628 0.95352304 2.40321016  1064573462
2.22057414 11.38508320 -2.64753628  1094104431
-2.64753628 0.95352304 1.66942978  1064573462
1.29975998 11.52657223 -2.64753628  1094237250
-2.64753628 0.95352304 0.92875564  1064573462
0.74286467 11.57581139 -2.64753628  1094279498
-2.64753628 0.95352304 0.37055808  1064573462
0.18423790 11.59815407 -2.64753628  1094279275
-2.64753628 0.95352304 -1.30398560  1064573462
-1.48900521 11.50365734 -2.64753628  1094166241
-2.64753628 0.95352298 -1.85784566  1064573462
-2.22474933 11.38427734 -2.64753628  1093893231
-2.64753628 0.95352304 -3.13116121  1064573462
-3.31020784 11.11727428 -2.64753628  1093730457
-2.64753628 0.95352304 -4.19168806  1064573461
-4.36491871 10.74703503 -2.64753628  1093324523
-2.64753628 0.95352304 -4.87767553  1064573462
-5.04613256 10.44450283 -2.64753628  1092995862
-2.64753628 0.95352304 -5.37910223  1064573462
-5.54352856 10.18923664 -2.64753628  1092522131
-2.64753628 0.95352304 -6.18649054  1064573462
-6.34333897 9.71150494 -2.64753628  1092205492
-2.64753628 0.95352304 -6.65208483  1064573462
-6.96764088 8.42370129 -2.49513626  1090844799
-2.49513626 0.95613885 -7.23469019  1064617347
-7.49426985 7.95881081 -2.49513626  1090178000
-2.49513626 0.95613879 -7.74611044  1064617347
-7.86904240 7.58846426 -2.49513626  1088563262
-2.49513626 0.95613879 -8.67101288  1064617347
-8.77685738 6.51717567 -2.49513626  1085888146
-2.49513626 0.95613879 -9.36340809  1064617347
-9.53984737 5.33835888 -2.49513626  1084614274
-2.49513626 0.95613885 -9.86301041  1064617347
-10.00939465 4.39531326 -2.49513626  1082621002
-2.49513626 0.95613879 -10.20955086  1064617347
-10.32982922 3.57788730 -2.49513626  1079661917
-2.49513626 0.95613879 -10.49023056  1064617347
-10.70324039 2.22424412 -2.49513626  1073959899
-2.49513626 0.95613879 -10.79798603  1064617347
4.69365358 10.13692474 -2.64753628  1092837473
-2.64753628 0.95511723 4.36554050  1064600208
4.19977236 10.35130692 -2.64753628  1093053916
-2.64753628 0.95511723 3.86502886  1064600208
3.35554075 10.65495110 -2.64753628  1093410236
-2.64753628 0.95511723 2.83825684  1064600208
2.66430283 10.84846210 -2.64753628  1093549286
-2.64753628 0.95511723 2.31437469  1064600208
2.13849139 10.96423435 -2.64753628  1093661810
-2.64753628 0.95511723 1.78512001  1064600208
1.07319689 11.11916637 -2.64753628  1093830402
-2.64753628 0.95511729 0.35685697  1064600208
0.17742677 11.16942692 -2.64753628  1093842359
-2.64753628 0.95511723 -0.36095327  1064600208
-0.54029089 11.15776443 -2.64753628  1093819584
-2.64753628 0.95511723 -0.89850086  1064600208
-1.25578499 11.10002995 -2.64753628  1093692692
-2.64753628 0.95511723 -1.96608770  1064600208
-2.66828275 10.84748363 -2.64753628  1093409079
-2.64753628 0.95511723 -3.35944963  1064600208
-3.53018236 10.59837055 -2.64753628  1093182721
-2.64753628 0.95511723 -3.86887050  1064600208
-4.20356798 10.34976673 -2.64753628  1092757962
-2.64753628 0.95511723 -5.18026352  1064600208
-5.33861303 9.81258678 -2.64753628  1092137998
-2.64753628 0.95511723 -6.25833464  1064600208
-6.31140995 8.42620754 -2.49513626  1090858479
-2.49513626 0.95764524 -6.57887840  1064642622
-6.83954859 8.00346279 -2.49513626  1089815676
-2.49513626 0.95764530 -7.33944845  1064642622
-7.69459820 7.18526173 -2.49513626  1088284170
-2.49513626 0.95764530 -8.35048485  1064642622
-8.64970207 6.00145721 -2.49513626  1085439152
-2.49513626 0.95764530 -9.10342026  1064642622
-9.26861763 4.99274921 -2.49513626  1083898729
-2.49513626 0.95764530 -9.42424679  1064642622
-9.49841976 4.54035616 -2.49513626  1079805230
-2.49513626 0.95764530 -10.00206375  1064642622
-10.05355644 3.12423110 -2.49513626  1076410181
-2.49513626 0.95764530 -10.23345280  1064642622
-10.27184868 2.30735683 -2.49513626  1074337520
-2.49513626 0.95764530 -10.34068108  1064642622
-10.42388916 1.47559631 -2.49513626  1092379414
-2.64753628 0.95660293 4.20932770  1064625134
3.88861084 10.04467392 -2.64753628  1092727188
-2.64753628 0.95660293 3.56387925  1064625134
3.40011287 10.22037029 -2.64753628  1092903168
-2.64753628 0.95660293 3.06998396  1064625134
2.73669338 10.41764259 -2.64753628  1093140681
-2.64753628 0.95660293 2.23155737  1064625134
1.89184642 10.60366440 -2.64753628  1093279614
-2.64753628 0.95660293 1.20691872  1064625134
0.86241651 10.73652649 -2.64753628  1093401573
-2.64753628 0.95660293 0.51701170  1064625134
0.17107058 10.76974964 -2.64753628  1093424758
-2.64753628 0.95660293 -0.34803572  1064625134
-0.52095872 10.75850296 -2.64753628  1093388166
-2.64753628 0.95660293 -1.03872919  1064625134
-1.21084940 10.70283318 -2.64753628  1093278954
-2.64753628 0.95660293 -1.89573753  1064625134
-2.06584859 10.57114506 -2.64753628  1093178844
-2.64753628 0.95660293 -2.40442061  1064625134
-2.57280231 10.45932484 -2.64753628  1093053069
-2.64753628 0.95660293 -2.90751791  1064625134
-3.07377577 10.32320881 -2.64753628  1092901921
-2.64753628 0.95660293 -3.40386152  1064625134
-3.73043013 10.10448933 -2.64753628  1092524974
-2.64753628 0.95660293 -5.14757538  1064625134
-5.44890785 9.29118919 -2.64753628  1091684345
-2.64753628 0.95660293 -5.82140207  1064666174
-5.95424366 8.22141361 -2.49513626  1090361687
-2.49513626 0.95904911 -6.46996975  1064666174
-6.95898485 7.39034414 -2.49513626  1089004030
-2.49513626 0.95904911 -7.84890509  1064666174
-7.95131779 6.31040525 -2.49513626  1086706084
-2.49513626 0.95904911 -8.43208027  1064666174
-8.52180004 5.51575994 -2.49513626  1085020583
-2.49513626 0.95904911 -8.85845375  1064666174
-8.93695641 4.81409216 -2.49513626  1083535283
-2.49513626 0.95904911 -9.08701706  1064666174
-9.15853596 4.37788820 -2.49513626  1082613139
-2.49513626 0.95904911 -9.29446411  1064666174
-9.35883999 3.93151331 -2.49513626  1081210397
-2.49513626 0.95904911 -9.48032475  1064666174
-9.53739929 3.47601366 -2.49513626  1079288101
-2.49513626 0.95904911 -9.74095821  1064666174
-9.82769775 2.54185200 -2.49513626  1075350906
-2.49513626 0.95904911 -9.90429020  1064666174
-9.93875694 2.06537533 -2.49513626  1071602602
-2.49513626 0.95904911 4.36873150  1064648417
4.06333208 9.57067966 -2.64753628  1092233179
-2.64753628 0.95799071 3.75373960  1064648417
3.44027162 9.81188774 -2.64753628  1092475570
-2.64753628 0.95799071 2.96350670  1064648417
2.64177322 10.05632210 -2.64753628  1092718395
-2.64753628 0.95799071 2.31731081  1064648417
1.33091056 10.31199646 -2.64753628  1092964371
-2.64753628 0.95799071 0.99890530  1064648417
0.83250427 10.36414814 -2.64753628  1093010649
-2.64753628 0.95799071 0.49907997  1064648417
-0.00190819 10.39752865 -2.64753628  1093027339
-2.64753628 0.95799065 -0.83630383  1064648416
-1.82998335 10.23522091 -2.64753628  1092830624
-2.64753628 0.95799071 -2.32102871  1064648417
-2.48356819 10.09655857 -2.64753628  1092674233
-2.64753628 0.95799071 -2.80667424  1064648417
-2.96716523 9.96516800 -2.64753628  1092358272
-2.64753628 0.95799071 -4.37219381  1064648417
-4.52319241 9.36212349 -2.64753628  1091869858
-2.64753628 0.95799071 -4.82165718  1064648417
-4.96904135 9.13330269 -2.64753628  1091622445
-2.64753628 0.95799071 -5.09233522  1064688171
-5.35866499 8.20398808 -2.49513626  1090189568
-2.49513626 0.96036029 -6.12345219  1064688172
-6.36607599 7.44941616 -2.49513626  1088927361
-2.49513626 0.96036029 -6.83137131  1064688172
-6.94336510 6.91450596 -2.49513626  1087767275
-2.49513626 0.96036029 -7.26845884  1064688172
-7.47585964 6.33500051 -2.49513626  1086773679
-2.49513626 0.96036029 -7.67553759  1064688172
-7.77241755 5.96743345 -2.49513626  1085456516
-2.49513626 0.96036023 -8.22623348  1064688172
-8.31071663 5.19159985 -2.49513626  1083776976
-2.49513626 0.96036023 -8.62699032  1064688172
-8.84088707 4.22604465 -2.49513626  1081877999
-2.49513626 0.96036029 -9.15151310  1064688172
-9.20660973 3.35545301 -2.49513626  1075644745
-2.49513626 0.96036029 -9.62484074  1064688171
4.22168827 9.11762047 -2.64753628  1091828238
-2.64753628 0.95928973 3.62739515  1064670211
3.17171407 9.53382492 -2.64753628  1092179517
-2.64753628 0.95928973 2.86376023  1064670211
2.70866084 9.67557812 -2.64753628  1092320332
-2.64753628 0.95928973 2.39639711  1064670211
1.92345679 9.86174107 -2.64753628  1092502286
-2.64753628 0.95928973 1.60561550  1064670211
1.44605482 9.94296455 -2.64753628  1092617337
-2.64753628 0.95928973 0.80448478  1064670211
-0.16327257 10.04624271 -2.64753628  1092660570
-2.64753628 0.95928973 -0.64714628  1064670211
-0.96895301 10.00073814 -2.64753628  1092599289
-2.64753628 0.95928973 -1.28977001  1064670211
-1.44969964 9.94243813 -2.64753628  1092530064
-2.64753628 0.95928973 -1.76839077  1064670211
-2.39997578 9.75672913 -2.64753628  1092319351
-2.64753628 0.95928973 -2.71220493  1064670211
-3.02164245 9.58244705 -2.64753628  1092071372
-2.64753628 0.95928973 -3.78088450  1064670211
-4.22503185 9.11606979 -2.64753628  1091542047
-2.64753628 0.95928973 -4.39116049  1064708762
-4.65844297 8.24406719 -2.49513626  1090613560
-2.49513626 0.96158755 -5.05025911  1064708762
-5.43034124 7.75739431 -2.49513626  1089442642
-2.49513626 0.96158755 -5.91734648  1064708762
-6.15180588 7.19868374 -2.49513626  1088629324
-2.49513626 0.96158755 -6.37992287  1064708762
-6.81614971 6.57311583 -2.49513626  1087295205
-2.49513626 0.96158755 -7.12494802  1064708762
-7.32166100 6.00491810 -2.49513626  1086086727
-2.49513626 0.96158755 -7.51081610  1064708762
-7.60249186 5.64516211 -2.49513626  1085322908
-2.49513626 0.96158749 -8.03099918  1064708761
-8.11056614 4.88718271 -2.49513626  1083716384
-2.49513626 0.96158755 -8.26339912  1064708761
-8.47660446 4.22053909 -2.49513626  1081903996
-2.49513626 0.96158755 -8.67011547  1064708762
-8.73016834 3.66741514 -2.49513626  1080145199
-2.49513626 0.96158755 -8.84349632  1064708761
-8.94767952 3.09915924 -2.49513626  1077139545
-2.49513626 0.96158749 -9.20444489  1064708762
-9.32824707 1.62776780 -2.49513626  1068098134
-2.49513626 0.96158755 3.84857059  1064728075
3.71453142 8.37255192 -2.49513626  1091634231
-2.64753628 0.96050829 3.36270642  1064690656
3.06799650 9.22206497 -2.64753628  1091850905
-2.64753628 0.96050835 2.77011418  1064690656
2.62008691 9.35917759 -2.64753628  1091987116
-2.64753628 0.96050835 2.16608763  1064690655
2.01358414 9.50813103 -2.64753628  1092215451
-2.64753628 0.96050835 1.24405801  1064690655
0.93372053 9.67404938 -2.64753628  1092288829
-2.64753628 0.96050835 0.62242621  1064690656
-0.47007209 9.70763206 -2.64753628  1092300390
-2.64753628 0.96050829 -0.78172845  1064690655
-0.93727034 9.67370605 -2.64753628  1092256952
-2.64753628 0.96050829 -1.40229535  1064690655
-1.55663157 9.59354115 -2.64753628  1092162464
-2.64753628 0.96050829 -1.86405981  1064690655
-2.01707172 9.50739288 -2.64753628  1091943236
-2.64753628 0.96050829 -2.77353501  1064690655
-3.07137752 9.22093868 -2.64753628  1091746295
-2.64753628 0.96050829 -3.36604786  1064690656
-3.51210046 9.06224251 -2.64753628  1090908263
-2.49513626 0.96273863 -3.85161924  1064728075
-4.24756622 8.11514282 -2.49513626  1090465528
-2.49513626 0.96273863 -4.88511324  1064728075
-5.37264538 7.41836166 -2.49513626  1088929218
-2.49513626 0.96273869 -5.72384644  1064728075
-5.95063877 6.96328211 -2.49513626  1087936386
-2.49513626 0.96273869 -6.38556814  1064728075
-6.59325933 6.35817051 -2.49513626  1086852002
-2.49513626 0.96273869 -6.98800135  1064728075
-7.26520872 5.57801247 -2.49513626  1085193453
-2.49513626 0.96273869 -7.52553225  1064728075
-7.60844755 5.09989262 -2.49513626  1084179330
-2.49513626 0.96273869 -7.84534168  1064728075
-8.06401253 4.34386110 -2.49513626  1082578675
-2.49513626 0.96273869 -8.26394653  1064728075
-8.60580444 3.13648462 -2.49513626  1077342078
-2.49513626 0.96273869 -8.86774731  1064728075
-8.96795845 1.86363363 -2.49513626  1070172791
-2.49513626 0.96273869 -9.04733658  1064728075
3.72617173 8.04744339 -2.49513626  1090747249
-2.49513626 0.96382046 3.06897736  1064746102
2.68201470 9.01959515 -2.64753628  1091673635
-2.64753628 0.96165353 1.35428023  1064709869
1.20449197 9.33249569 -2.64753628  1091935297
-2.64753628 0.96165353 0.75342858  1064709869
0.45167410 9.39905739 -2.64753628  1091992397
-2.64753628 0.96165353 -0.15291092  1064709869
-0.30405217 9.40499401 -2.64753628  1091976944
-2.64753628 0.96165353 -0.75686574  1064709869
-0.90746105 9.36604595 -2.64753628  1091934887
-2.64753628 0.96165353 -1.50712442  1064709869
