# .PCD v0.7 - Point Cloud Data file format
VERSION 0.7
FIELDS x y z intensity
SIZE 4 4 4 4
TYPE F F F F
COUNT 1 1 1 1
WIDTH 1034
HEIGHT 1
VIEWPOINT 0 0 0 1 0 0 0
POINTS 1034
DATA ascii
8.99415302 11.14053059 -2.64753628  1093962813
-2.64753628 0.94342065 8.62992764  1064403971
8.25669479 11.69757271 -2.64753628  1094534354
-2.64753628 0.94342065 7.87487268  1064403972
7.48483562 12.20587730 -2.64753628  1095054222
-2.64753628 0.94342065 6.88529015  1064403972
6.68178463 12.66333389 -2.64753628  1095520247
-2.64753628 0.94342065 6.26960516  1064403972
6.06103802 12.97189331 -2.64753628  1095930476
-2.64753628 0.94342065 5.21154594  1064403972
4.99563885 13.41826248 -2.64753628  1096283209
-2.64753628 0.94342065 4.55997849  1064403972
4.11956406 13.71259975 -2.64753628  1096576980
-2.64753628 0.94342065 3.45104432  1064403972
3.22632718 13.94980335 -2.64753628  1096810555
-2.64753628 0.94342065 2.54736423  1064403972
2.31963897 14.12888908 -2.64753628  1096982974
-2.64753628 0.94342065 1.63307357  1064403972
1.17313576 14.26989460 -2.64753628  1097111407
-2.64753628 0.94342065 0.71197432  1064403972
0.48109084 14.30995464 -2.64753628  1097143970
-2.64753628 0.94342065 -0.21208122  1064403972
-0.90475327 14.28942394 -2.64753628  1097096716
-2.64753628 0.94342065 -1.36545992  1064403972
-2.05370164 14.16998482 -2.64753628  1085644773
-2.49513626 0.94882482 11.28884220  1064494639
11.18683338 6.41083717 -2.49513626  1087563202
-2.49513626 0.94882482 10.97410011  1064494639
10.74993706 7.11919403 -2.49513626  1090095171
-2.49513626 0.94882482 10.14106750  1064494639
9.87880135 8.28573513 -2.49513626  1091699261
-2.64753628 0.94578534 10.04436779  1064443645
9.73935413 9.60818577 -2.64753628  1092368861
-2.64753628 0.94578534 9.26289272  1064443645
9.09919548 10.21650028 -2.64753628  1093292454
-2.64753628 0.94578534 8.42112064  1064443645
7.88939667 11.17719555 -2.64753628  1094237232
-2.64753628 0.94578534 7.15187073  1064443645
6.57899475 11.99537659 -2.64753628  1094818190
-2.64753628 0.94578534 5.99069548  1064443645
5.79141140 12.39483166 -2.64753628  1095406043
-2.64753628 0.94578534 4.35712290  1064443645
4.14725018 13.03735161 -2.64753628  1095869492
-2.64753628 0.94578534 3.72432375  1064443645
3.51137996 13.22280216 -2.64753628  1096053154
-2.64753628 0.94578534 3.08279657  1064443645
2.65100265 13.42178345 -2.64753628  1096286583
-2.64753628 0.94578534 1.77957988  1064443646
0.90074271 13.65140629 -2.64753628  1096473907
-2.64753628 0.94578534 -0.20264991  1064443646
-0.42339981 13.67453861 -2.64753628  1096430932
-2.64753628 0.94578534 -1.30471659  1064443645
-1.74356973 13.56952763 -2.64753628  1096292700
-2.64753628 0.94578534 -2.39829969  1064443645
11.16876793 5.25371218 -2.49513626  1085880420
-2.49513626 0.95087790 10.80655861  1064529084
10.70890808 6.13695288 -2.49513626  1087683854
-2.49513626 0.95087790 10.29067707  1064529084
10.06536674 7.14361668 -2.49513626  1089727171
-2.49513626 0.95087790 9.58353806  1064529084
9.45675755 7.93175030 -2.49513626  1090606432
-2.49513626 0.95087790 9.19583702  1064529084
9.06177139 8.38016987 -2.49513626  1091615894
-2.64753628 0.94795698 9.32327175  1064480079
9.02156353 9.49381542 -2.64753628  1092674975
-2.64753628 0.94795698 8.22688866  1064480079
7.89372683 10.45037079 -2.64753628  1093220592
-2.64753628 0.94795698 7.37868214  1064480079
7.20309305 10.93785000 -2.64753628  1094476654
-2.64753628 0.94795698 5.54399157  1064480079
5.35177135 11.95322895 -2.64753628  1094753231
-2.64753628 0.94795704 4.76696157  1064480079
4.56947279 12.27359200 -2.64753628  1095075877
-2.64753628 0.94795698 4.17097759  1064480079
3.97007108 12.48037052 -2.64753628  1095403200
-2.64753628 0.94795698 3.15664291  1064480079
2.95109725 12.75978756 -2.64753628  1095602937
-2.64753628 0.94795698 2.33005667  1064480080
1.70355344 12.98533916 -2.64753628  1095797104
-2.64753628 0.94795698 0.44005042  1064480079
0.22874396 13.09460926 -2.64753628  1095861712
-2.64753628 0.94795698 -0.61652708  1064480079
-1.03840697 13.05537319 -2.64753628  1095650570
-2.64753628 0.94795698 -2.50363302  1064480080
10.70969963 5.03777075 -2.49513626  1084667904
-2.49513626 0.95276952 10.54153061  1064560820
10.36237907 5.71821165 -2.49513626  1086082949
-2.49513626 0.95276952 10.17242813  1064560820
10.07346916 6.21305323 -2.49513626  1087446564
-2.49513626 0.95276952 9.42554951  1064560820
9.30880070 7.30910587 -2.49513626  1090297660
-2.49513626 0.95276952 8.68930435  1064560820
8.65074825 9.10359097 -2.64753628  1091821394
-2.64753628 0.94995815 8.35243511  1064513653
8.19999218 9.51162243 -2.64753628  1092241562
-2.64753628 0.94995815 7.56927061  1064513653
7.24191999 10.25989437 -2.64753628  1093009865
-2.64753628 0.94995815 6.73685026  1064513653
6.56492615 10.70572758 -2.64753628  1093465839
-2.64753628 0.94995815 6.21598387  1064513653
5.86056995 11.10696125 -2.64753628  1093969193
-2.64753628 0.94995815 5.31611490  1064513653
5.13174677 11.46191502 -2.64753628  1094234400
-2.64753628 0.94995815 4.75920630  1064513653
4.57102585 11.69686031 -2.64753628  1094613094
-2.64753628 0.94995815 3.80688930  1064513653
3.61325288 12.02727222 -2.64753628  1095088677
-2.64753628 0.94995815 1.83428001  1064513653
1.63352942 12.45160294 -2.64753628  1095212829
-2.64753628 0.94995815 1.02895510  1064513653
0.82682109 12.53105068 -2.64753628  1095282475
-2.64753628 0.94995815 0.42196593  1064513653
-0.38865164 12.55228138 -2.64753628  1095284161
-2.64753628 0.94995815 -0.79355413  1064513653
-1.19763982 12.50105762 -2.64753628  1095191383
-2.64753628 0.94995815 -2.40072584  1064513653
10.28544140 4.83820295 -2.49513626  1085258726
-2.49513626 0.95451802 9.86195183  1064590155
9.37427330 6.42817926 -2.49513626  1087850149
-2.49513626 0.95451802 7.82981968  1064590155
8.02155781 9.00653648 -2.64753628  1091708990
-2.64753628 0.95180804 7.72669649  1064544689
7.57622528 9.38422680 -2.64753628  1092221774
-2.64753628 0.95180804 6.95503473  1064544689
6.79510593 9.96442032 -2.64753628  1093218840
-2.64753628 0.95180804 5.28120184  1064544689
5.10552216 10.92688084 -2.64753628  1094052034
-2.64753628 0.95180804 3.84110165  1064544689
3.65608144 11.49330902 -2.64753628  1094353458
-2.64753628 0.95180809 2.14577484  1064544689
1.76161313 11.93146229 -2.64753628  1094669652
-2.64753628 0.95180804 1.37562120  1064544689
0.79406571 12.03464222 -2.64753628  1094763078
-2.64753628 0.95180804 -0.76211798  1064544689
-0.95628035 12.02283669 -2.64753628  1094719465
-2.64753628 0.95180804 -1.34380937  1064544689
-1.72993517 11.93609142 -2.64753628  1094615431
-2.64753628 0.95180804 -2.11426282  1064544689
9.89214325 4.65319824 -2.49513626  1084164734
-2.49513626 0.95613885 9.65533257  1064617347
9.57133484 5.28169441 -2.49513626  1085140852
-2.49513626 0.95613879 9.39588070  1064617347
9.30447483 5.73875904 -2.49513626  1086090228
-2.49513626 0.95613879 8.81158638  1064617348
8.70601940 6.61149359 -2.49513626  1087899987
-2.49513626 0.95613879 8.37581921  1064617347
8.26134872 7.15939140 -2.49513626  1089033811
-2.49513626 0.95613879 7.90514803  1064617347
7.78225851 7.67744684 -2.49513626  1090360948
-2.49513626 0.95613879 7.40154076  1064617347
7.27074146 8.16352081 -2.49513626  1090812434
-2.49513626 0.95613879 7.00347567  1064617347
7.28652287 9.02539062 -2.64753628  1091716319
-2.64753628 0.95352304 6.99144745  1064573462
6.84115839 9.36748981 -2.64753628  1092288638
-2.64753628 0.95352304 5.74146605  1064573462
5.07926083 10.42843246 -2.64753628  1093149970
-2.64753628 0.95352304 4.56856489  1064573462
4.39589548 10.73440266 -2.64753628  1093529167
-2.64753628 0.95352304 3.87119722  1064573462
3.69422174 10.99563313 -2.64753628  1093779205
-2.64753628 0.95352304 2.61377668  1064573462
2.24767351 11.37976456 -2.64753628  1094190174
-2.64753628 0.95352304 1.32301891  1064573462
0.76370335 11.57445621 -2.64753628  1094286651
-2.64753628 0.95352304 0.20259830  1064573462
0.01539197 11.59961510 -2.64753628  1094292175
-2.64753628 0.95352304 -0.54605436  1064573462
-0.73297590 11.57644176 -2.64753628  1094255227
-2.64753628 0.95352304 -1.29242408  1064573462
-1.84875178 11.45133400 -2.64753628  1083139561
-2.49513626 0.95764530 9.45291233  1064642622
9.37688637 4.78631544 -2.49513626  1084095521
-2.49513626 0.95764530 9.21752834  1064642622
8.96053696 5.52662849 -2.49513626  1085633767
-2.49513626 0.95764530 8.77750301  1064642622
8.48587036 6.23095894 -2.49513626  1087376633
-2.49513626 0.95764530 8.17434216  1064642622
7.84365177 7.02224922 -2.49513626  1088991753
-2.49513626 0.95764530 7.25205469  1064642622
7.12794495 7.74772406 -2.49513626  1090229117
-2.49513626 0.95764530 6.61325073  1064642622
6.48018456 8.29711151 -2.49513626  1091589863
-2.64753628 0.95511723 6.44182062  1064600208
6.29369307 9.22914124 -2.64753628  1092213487
-2.64753628 0.95511723 5.52923107  1064600208
5.21308231 9.87984753 -2.64753628  1092577077
-2.64753628 0.95511723 4.72878313  1064600208
4.56482840 10.19558525 -2.64753628  1092897135
-2.64753628 0.95511723 4.06601191  1064600208
3.89756155 10.46884251 -2.64753628  1093172338
-2.64753628 0.95511723 3.55766129  1064600208
3.21405530 10.69848251 -2.64753628  1093451527
-2.64753628 0.95511723 2.69248009  1064600208
2.16458869 10.95911312 -2.64753628  1093657030
-2.64753628 0.95511723 1.80976725  1064600208
1.63162303 11.05103779 -2.64753628  1093744386
-2.64753628 0.95511729 1.27410674  1064600208
1.09483361 11.11705685 -2.64753628  1093837290
-2.64753628 0.95511723 0.19510441  1064600208
0.01481717 11.17082691 -2.64753628  1093770972
-2.64753628 0.95511723 -1.60228646  1064600208
-1.95824659 10.99785709 -2.64753628  1083112998
-2.49513626 0.95904911 8.96569157  1064666174
8.88769627 4.90444279 -2.49513626  1084917264
-2.49513626 0.95904911 8.27811337  1064666174
8.18221569 6.00799608 -2.49513626  1086616796
-2.49513626 0.95904911 7.98405504  1064666174
7.34051561 7.01152754 -2.49513626  1088692585
-2.49513626 0.95904911 7.11039829  1064666174
6.87288141 7.47048616 -2.49513626  1089639148
-2.49513626 0.95904911 6.62819815  1064666174
6.50324774 7.79438686 -2.49513626  1090305812
-2.49513626 0.95904911 5.71916246  1064666174
5.48173380 9.27185917 -2.64753628  1091944184
-2.64753628 0.95660293 4.87213802  1064625134
4.08191347 9.96768570 -2.64753628  1092777220
-2.64753628 0.95660293 3.43035817  1064625134
3.26512575 10.26429558 -2.64753628  1092947179
-2.64753628 0.95660293 2.93215561  1064625134
2.59613395 10.45355701 -2.64753628  1093134288
-2.64753628 0.95660293 2.25740314  1064625134
2.08713245 10.56696033 -2.64753628  1093244569
-2.64753628 0.95660293 1.74500740  1064625134
1.40105939 10.67959595 -2.64753628  1093351054
-2.64753628 0.95660293 0.70915395  1064625134
0.53560108 10.75778389 -2.64753628  1093418379
-2.64753628 0.95660293 0.18811752  1064625134
-0.33334357 10.76594830 -2.64753628  1093412237
-2.64753628 0.95660293 -0.85402220  1064625134
-1.20011306 10.70404434 -2.64753628  1093332664
-2.64753628 0.95660293 -1.71678793  1064625134
-1.88818002 10.60431862 -2.64753628  1082787972
-2.49513626 0.96036023 8.72776413  1064688172
8.65472889 4.59525728 -2.49513626  1083670453
-2.49513626 0.96036029 8.50191116  1064688172
8.34023666 5.14404202 -2.49513626  1084810541
-2.49513626 0.96036023 8.16987419  1064688172
8.08148861 5.54168510 -2.49513626  1086432754
-2.49513626 0.96036029 7.50781393  1064688172
7.40520620 6.41744852 -2.49513626  1087449081
-2.49513626 0.96036023 7.08591890  1064688172
6.86378717 6.99350834 -2.49513626  1088638674
-2.49513626 0.96036023 6.51725769  1064688171
6.15544033 7.62438583 -2.49513626  1089937577
-2.49513626 0.96036029 5.65074158  1064688172
5.38942623 8.18381310 -2.49513626  1090889701
-2.49513626 0.96036029 4.98700571  1064688171
5.14646673 9.03451633 -2.64753628  1091932224
-2.64753628 0.95799071 4.09511614  1064648417
3.78453898 9.68431091 -2.64753628  1092465337
-2.64753628 0.95799071 2.01474309  1064648417
1.68448317 10.26017094 -2.64753628  1092916106
-2.64753628 0.95799071 1.35246575  1064648417
0.85191268 10.36256981 -2.64753628  1093026875
-2.64753628 0.95799071 0.01379413  1064648417
-0.32178062 10.39254951 -2.64753628  1092998707
-2.64753628 0.95799071 -1.15848875  1064648417
-1.32510161 10.31274509 -2.64753628  1092920297
-2.64753628 0.95799065 -1.65724587  1064648417
-1.98766184 10.20577431 -2.64753628  1082194585
-2.49513626 0.96158755 8.43400478  1064708762
8.21575356 4.70820093 -2.49513626  1084166564
-2.49513626 0.96158755 7.97824526  1064708762
7.72203588 5.48050213 -2.49513626  1086005601
-2.49513626 0.96158755 7.25511694  1064708762
7.15596199 6.20144987 -2.49513626  1087224775
-2.49513626 0.96158755 6.63276434  1064708762
6.52283192 6.86428452 -2.49513626  1088782488
-2.49513626 0.96158755 6.06639576  1064708762
5.58468866 7.64702511 -2.49513626  1089965729
-2.49513626 0.96158755 5.20802927  1064708762
5.07971668 7.99138546 -2.49513626  1090757993
-2.49513626 0.96158755 4.41898203  1064708762
4.28324032 8.44509220 -2.49513626  1091602314
-2.64753628 0.95928973 3.65715909  1064670211
3.04579186 9.57479763 -2.64753628  1092220571
-2.64753628 0.95928973 2.73519015  1064670211
2.57879806 9.71099281 -2.64753628  1092432093
-2.64753628 0.95928973 1.94693112  1064670211
1.62778807 9.91483498 -2.64753628  1092553081
-2.64753628 0.95928973 1.30694437  1064670211
1.14599490 9.98199940 -2.64753628  1092630650
-2.64753628 0.95928973 0.49962357  1064670211
0.17549078 10.04603481 -2.64753628  1092666061
-2.64753628 0.95928973 -0.14882813  1064670211
-0.31095180 10.04275322 -2.64753628  1092618050
-2.64753628 0.95928973 -1.11949480  1064670211
-1.28049850 9.96563816 -2.64753628  1092471767
-2.64753628 0.95928973 8.28835583  1064728075
8.22435284 4.03204870 -2.49513626  1083022535
-2.49513626 0.96273869 7.94709349  1064728075
7.71735096 4.93354559 -2.49513626  1085110799
-2.49513626 0.96273869 7.01786995  1064728075
6.72474909 6.21893549 -2.49513626  1087232224
-2.49513626 0.96273869 6.30953169  1064728075
6.20155001 6.74078465 -2.49513626  1088290657
-2.49513626 0.96273869 5.75375032  1064728075
5.63797903 7.21876621 -2.49513626  1089069525
-2.49513626 0.96273869 5.40206766  1064728075
5.28198481 7.48318291 -2.49513626  1089784521
-2.49513626 0.96273869 4.91360569  1064728075
4.78820944 7.80835819 -2.49513626  1090277067
-2.49513626 0.96273869 4.53370619  1064728075
4.40466833 8.03095913 -2.49513626  1090831931
-2.49513626 0.96273863 3.68320131  1064690655
3.39101124 9.10824585 -2.64753628  1091737261
-2.64753628 0.96050835 2.94619370  1064690656
2.79633641 9.30803967 -2.64753628  1091936670
-2.64753628 0.96050829 2.34254837  1064690656
2.19000983 9.46905231 -2.64753628  1092158961
-2.64753628 0.96050835 1.41956723  1064690655
0.79631895 9.68632889 -2.64753628  1092308942
-2.64753628 0.96050829 0.01289369  1064690655
-0.14396143 9.71794033 -2.64753628  1092310250
-2.64753628 0.96050835 -0.77060300  1064690655
-1.23862672 9.63975620 -2.64753628  1092216169
-2.64753628 0.96050835 8.02475357  1064746224
7.76450729 4.28464222 -2.49513626  1082989002
-2.49513626 0.96382046 7.54802656  1064746224
7.47191000 4.77664280 -2.49513626  1084505844
-2.49513626 0.96382046 7.06254196  1064746224
6.97506332 5.47669554 -2.49513626  1085461874
-2.49513626 0.96382046 6.79467392  1064746224
6.70181131 5.80787659 -2.49513626  1086147079
-2.49513626 0.96382040 6.41285515  1064746223
6.10886383 6.42864561 -2.49513626  1088212533
-2.49513626 0.96382046 4.99640179  1064746223
4.87750340 7.40646124 -2.49513626  1089437365
-2.49513626 0.96382040 4.63592815  1064746223
4.13853550 7.84335756 -2.49513626  1090617620
-2.49513626 0.96382046 3.49280453  1064746223
3.36078978 8.20675373 -2.49513626  1090845090
-2.49513626 0.96382040 2.82433796  1064746224
2.56160402 9.05452824 -2.64753628  1091706534
-2.64753628 0.96165353 2.12036228  1064709869
1.97212255 9.20092487 -2.64753628  1091840016
-2.64753628 0.96165353 1.37441957  1064709869
1.07326591 9.34849739 -2.64753628  1091949929
-2.64753628 0.96165353 0.77099234  1064709869
0.16435392 9.40846920 -2.64753628  1091997424
-2.64753628 0.96165353 -0.13938113  1064709869
-0.29121664 9.40539551 -2.64753628  1091977711
-2.64753628 0.96165353 -0.74609518  1064709869
-1.04844737 9.35131264 -2.64753628  1091916974
-2.64753628 0.96165353 -1.49982810  1064709869
-1.64955759 9.26419067 -2.64753628  1091815460
-2.64753628 0.96165353 7.77627563  1064763310
7.65416861 3.90697169 -2.49513626  1082702670
-2.49513626 0.96483886 7.24054909  1064763310
7.16490221 4.74499035 -2.49513626  1083933999
-2.49513626 0.96483886 6.92684793  1064763310
6.84385872 5.19734097 -2.49513626  1084871650
-2.49513626 0.96483886 6.49429798  1064763310
6.40261745 5.73212290 -2.49513626  1085978090
-2.49513626 0.96483886 6.21428633  1064763310
6.11768293 6.03529358 -2.49513626  1086604164
-2.49513626 0.96483886 5.81839991  1064763310
5.61125803 6.50880671 -2.49513626  1087579924
-2.49513626 0.96483886 5.39826584  1064763310
5.28964758 6.77276802 -2.49513626  1088122530
-2.49513626 0.96483886 4.95564890  1064763310
4.72647715 7.17712831 -2.49513626  1089105418
-2.49513626 0.96483886 4.37355995  1064763310
4.13253546 7.53478003 -2.49513626  1089814881
-2.49513626 0.96483886 3.76299858  1064763310
3.38464904 7.89904356 -2.49513626  1090419723
-2.49513626 0.96483886 3.12795472  1064763310
2.99836731 8.05360508 -2.49513626  1090624890
-2.49513626 0.96483886 2.73688555  1064763310
2.47254944 8.23026562 -2.49513626  1090801207
-2.49513626 0.96483886 2.07162786  1064763220
1.80161369 8.40541744 -2.49591470  1090970960
-2.49519992 0.96483797 1.47727799  1064727959
0.89369231 9.07463455 -2.64753628  1091671168
-2.64753628 0.96273178 0.45342657  1064727959
0.15926455 9.11714840 -2.64753628  1091691905
-2.64753628 0.96273178 -0.42925733  1064727959
-0.57619780 9.10031319 -2.64753628  1091661807
-2.64753628 0.96273178 -1.01598299  1064727959
-1.45338798 9.00196552 -2.64753628  1090975336
-2.49513626 0.96483886 7.54162931  1064779423
7.48339272 3.66878676 -2.49513626  1081746206
-2.49513626 0.96579927 7.29705048  1064779423
7.02206755 4.48906565 -2.49513626  1083626449
-2.49513626 0.96579927 6.71783304  1064779423
6.47121382 5.25210094 -2.49513626  1084973869
-2.49513626 0.96579927 6.11889267  1064779423
6.02677155 5.75666285 -2.49513626  1086216051
-2.49513626 0.96579927 5.64283323  1064779423
5.44194078 6.31240463 -2.49513626  1087341336
-2.49513626 0.96579927 4.91537762  1064779423
4.58385754 6.96056128 -2.49513626  1088492426
-2.49513626 0.96579927 4.35682344  1064779423
4.12524891 7.24178839 -2.49513626  1089066601
-2.49513626 0.96579927 3.64945292  1064779423
3.40572834 7.60671806 -2.49513626  1089807463
-2.49513626 0.96579927 3.03356957  1064779423
2.39794278 7.98191881 -2.49513626  1090539571
-2.49513626 0.96579927 2.13908458  1064779423
1.87800026 8.11999321 -2.49513626  1090675535
-2.49513626 0.96579927 1.61495531  1064779423
1.35023057 8.22423649 -2.49513626  1090795369
-2.49513626 0.96579927 0.81683385  1064779423
0.54929030 8.32489014 -2.49772787  1090872345
-2.49732518 0.96576977 0.14567655  1064779040
0.01102125 8.33872318 -2.49645209  1090863030
-2.49602294 0.96578729 -0.79481488  1064779423
-1.06216013 8.26637459 -2.49513626  1090779252
-2.49513626 0.96579927 -1.46100962  1064779423
7.20472336 3.67756176 -2.49513626  1081263731
-2.49513626 0.96670640 7.01828098  1064794642
6.88482046 4.24638081 -2.49513626  1082878992
-2.49513626 0.96670640 6.59652615  1064794642
6.44199467 4.89215851 -2.49513626  1086226080
-2.49513626 0.96670640 4.97904539  1064794642
4.87551022 6.45460272 -2.49513626  1087441362
-2.49513626 0.96670640 4.66465759  1064794642
4.44894314 6.75569391 -2.49513626  1088203284
-2.49513626 0.96670640 4.11674881  1064794642
3.54204178 7.27230501 -2.49513626  1089334610
-2.49513626 0.96670640 2.94428515  1064794642
2.82230735 7.58070374 -2.49513626  1089733164
-2.49513626 0.96670640 2.45209002  1064794642
2.32736492 7.74699068 -2.49513626  1090137496
-2.49513626 0.96670640 1.69529676  1064794642
1.43914330 7.95998478 -2.49513626  1090481659
-2.49513626 0.96670640 1.05218840  1064794642
0.92261165 8.03624821 -2.49513626  1090593997
-2.49513626 0.96670640 0.40223274  1064794642
0.14128274 8.08780289 -2.49513626  1090612393
-2.49513626 0.96670640 -0.11981613  1064794642
-0.38079301 8.08006763 -2.49513626  1090595451
-2.49513626 0.96670640 -0.64136541  1064794642
-0.90127736 8.03866959 -2.49513626  1090543238
-2.49513626 0.96670640 -1.16024578  1064794642
-1.28929687 7.98562527 -2.49513626  1090443072
-2.49513626 0.96670640 -1.54635310  1064794642
7.10933781 3.34418654 -2.49513626  1080806551
-2.49513626 0.96756452 6.87877846  1064809039
6.81661892 3.90639877 -2.49513626  1082391243
-2.49513626 0.96756452 6.61955786  1064809039
6.55039978 4.33803320 -2.49513626  1083059851
-2.49513626 0.96756452 6.40698004  1064809039
6.17938948 4.85194731 -2.49513626  1084532409
-2.49513626 0.96756446 5.76815414  1064809039
5.59299564 5.51766825 -2.49513626  1086045821
-2.49513626 0.96756452 5.03329754  1064809039
4.93527842 6.11303949 -2.49513626  1087202816
-2.49513626 0.96756446 4.32110739  1064809038
4.21464634 6.63046122 -2.49513626  1087924930
-2.49513626 0.96756446 3.77810454  1064809039
3.32581878 7.11794853 -2.49513626  1088779865
-2.49513626 0.96756452 3.09436369  1064809039
2.74121022 7.36288309 -2.49513626  1089273673
-2.49513626 0.96756452 2.38163161  1064809039
2.26049066 7.52438879 -2.49513626  1089596069
-2.49513626 0.96756446 1.89365876  1064809039
1.39779246 7.73126268 -2.49513626  1090000655
-2.49513626 0.96756452 1.02195299  1064809039
0.64372456 7.83019018 -2.49513626  1090197936
-2.49513626 0.96756452 0.26398420  1064809039
0.01042386 7.85659838 -2.49513626  1090216513
-2.49513626 0.96756452 -0.24314454  1064809038
-0.36985222 7.84789419 -2.49513626  1090166451
-2.49513626 0.96756446 -0.74925774  1064809038
-1.12690842 7.77536583 -2.49513626  1089914456
-2.49513626 0.96756446 6.90974188  1064822677
6.85638475 3.36139131 -2.49513626  1079914201
-2.49513626 0.96837741 6.74432659  1064822677
6.68565464 3.68930769 -2.49513626  1081724256
-2.49513626 0.96837741 6.36649513  1064822677
6.15496683 4.51944160 -2.49513626  1083631424
-2.49513626 0.96837741 5.85057545  1064822677
5.68915558 5.09337616 -2.49513626  1084988347
-2.49513626 0.96837741 5.34870815  1064822677
5.26005888 5.53540754 -2.49513626  1085870725
-2.49513626 0.96837741 4.89198494  1064822677
4.79672098 5.94141722 -2.49513626  1086674155
-2.49513626 0.96837741 4.19979191  1064822677
3.99177933 6.50958300 -2.49513626  1087905043
-2.49513626 0.96837741 3.45403767  1064822677
3.23244524 6.91811037 -2.49513626  1088357669
-2.49513626 0.96837741 2.89381647  1064822677
2.66424942 7.15616798 -2.49513626  1088837612
-2.49513626 0.96837741 2.43190527  1064822677
1.95985520 7.38023806 -2.49513626  1089283619
-2.49513626 0.96837741 1.47964382  1064822677
1.35854876 7.51420641 -2.49513626  1089544185
-2.49513626 0.96837741 1.11532521  1064822677
0.74839324 7.59926748 -2.49513626  1089701895
-2.49513626 0.96837741 0.37970665  1064822677
-0.11310599 7.63519335 -2.49513626  1089682749
-2.49513626 0.96837741 -1.33859909  1064822677
-1.45975399 7.49520302 -2.49513626  1078611689
-2.49513626 0.96914852 6.50211477  1064835614
6.44336033 3.69249558 -2.49513626  1081274816
-2.49513626 0.96914852 6.32083035  1064835614
6.25708866 4.00003099 -2.49513626  1082341177
-2.49513626 0.96914852 6.12473249  1064835614
5.76624489 4.67993879 -2.49513626  1083750252
-2.49513626 0.96914852 5.61219645  1064835614
5.53297091 4.95354605 -2.49513626  1084679593
-2.49513626 0.96914852 5.20186949  1064835614
5.11565351 5.38344336 -2.49513626  1085203397
-2.49513626 0.96914852 4.93924570  1064835614
4.57116985 5.85284424 -2.49513626  1086609012
-2.49513626 0.96914852 4.08449411  1064835614
3.88219357 6.33087587 -2.49513626  1087274478
-2.49513626 0.96914852 3.57122517  1064835614
3.46566916 6.56814337 -2.49513626  1088057285
-2.49513626 0.96914852 2.70309496  1064835614
2.59110856 6.95970917 -2.49513626  1088423184
-2.49513626 0.96914852 2.02164531  1064835614
1.67341280 7.23540449 -2.49513626  1089067643
-2.49513626 0.96914852 1.20313632  1064835614
1.08470678 7.34675407 -2.49513626  1089183787
-2.49513626 0.96914852 0.84703338  1064835614
0.72784805 7.39064550 -2.49513626  1089307316
-2.49513626 0.96914852 -0.34959921  1064835614
-0.46927130 7.41155815 -2.49513626  1089267082
-2.49513626 0.96914852 -0.94644719  1064835614
6.48901558 3.18128562 -2.49513626  1079134009
-2.49513626 0.96988094 6.38296175  1064847902
6.27025700 3.59329510 -2.49513626  1080847086
-2.49513626 0.96988094 6.08899021  1064847902
6.02537441 3.99033260 -2.49513626  1082313001
-2.49513626 0.96988094 5.89345264  1064847902
5.82518005 4.27728462 -2.49513626  1083101529
-2.49513626 0.96988094 5.61133242  1064847902
5.53710127 4.64418030 -2.49513626  1083667521
-2.49513626 0.96988094 5.38432741  1064847902
5.22594833 4.99172974 -2.49513626  1084385748
-2.49513626 0.96988094 4.80655289  1064847902
4.71882820 5.47362518 -2.49513626  1085379072
-2.49513626 0.96988094 4.53970957  1064847902
4.44836712 5.69560575 -2.49513626  1085981232
-2.49513626 0.96988094 3.87683821  1064847902
3.67797732 6.22096157 -2.49513626  1087030269
-2.49513626 0.96988094 3.26896763  1064847902
3.16452050 6.49720669 -2.49513626  1087472786
-2.49513626 0.96988094 2.95318055  1064847902
2.73876548 6.68782759 -2.49513626  1088256839
-2.49513626 0.96988094 1.96733272  1064847902
1.05556571 7.14938211 -2.49513626  1088798802
-2.49513626 0.96988094 0.47580755  1064847902
0.35936156 7.21794605 -2.49513626  1088889147
-2.49513626 0.96988094 0.12622461  1064847902
-0.22365613 7.22342491 -2.49513626  1088849989
-2.49513626 0.96988094 -0.80521643  1064847902
-0.92102093 7.16795778 -2.49513626  1088703950
-2.49513626 0.96988094 -1.26687527  1064847902
6.36746645 2.99521637 -2.49513626  1078345453
-2.49513626 0.97057742 6.26748085  1064859587
6.21503305 3.29989433 -2.49513626  1080028085
-2.49513626 0.97057742 5.98919439  1064859587
5.92879629 3.79016066 -2.49513626  1082666779
-2.49513626 0.97057742 5.46370411  1064859587
5.24267149 4.69364834 -2.49513626  1084105723
-2.49513626 0.97057742 4.76429510  1064859587
4.42027378 5.47513485 -2.49513626  1085517213
-2.49513626 0.97057742 3.77483940  1064859587
3.58121109 6.05729771 -2.49513626  1086680674
-2.49513626 0.97057742 3.18296528  1064859587
3.08126450 6.32627296 -2.49513626  1087210620
-2.49513626 0.97057742 2.77145982  1064859587
2.45515990 6.59455252 -2.49513626  1087730570
-2.49513626 0.97057742 1.69605052  1064859587
1.47476161 6.88048029 -2.49513626  1088219271
-2.49513626 0.97057742 1.25193012  1064859587
1.14001215 6.94379616 -2.49513626  1088340708
-2.49513626 0.97057742 0.91531253  1064859587
0.68965977 7.00287771 -2.49513626  1088490638
-2.49513626 0.97057742 -0.21777207  1064859587
-0.44465002 7.02269268 -2.49513626  1088452508
-2.49513626 0.97057742 -0.67107022  1064859587
-1.23354530 6.92779160 -2.49513626  1088226809
-2.49513626 0.97057742 6.15539551  1064870712
6.05479670 3.21481466 -2.49513626  1079245244
-2.49513626 0.97124046 5.94788551  1064870711
5.89209700 3.50410676 -2.49513626  1080447430
-2.49513626 0.97124046 5.77593899  1064870711
5.71559334 3.78517628 -2.49513626  1081994827
-2.49513626 0.97124052 5.45948982  1064870712
5.39186621 4.23359919 -2.49513626  1082801659
-2.49513626 0.97124052 5.25241995  1064870712
5.18063545 4.48960638 -2.49513626  1083331334
-2.49513626 0.97124052 4.64145899  1064870712
4.55943251 5.11929083 -2.49513626  1084630685
-2.49513626 0.97124046 4.13191938  1064870711
3.95322490 5.60067987 -2.49513626  1086117385
-2.49513626 0.97124046 3.39318585  1064870711
3.19917035 6.06307411 -2.49513626  1086956475
-2.49513626 0.97124046 2.59795713  1064870712
2.39186192 6.42453194 -2.49513626  1087294237
-2.49513626 0.97124052 2.18327117  1064870711
1.97240686 6.56545496 -2.49513626  1087636903
-2.49513626 0.97124052 1.65232337  1064870712
1.54473233 6.67902374 -2.49513626  1087799211
-2.49513626 0.97124052 1.32836688  1064870712
1.00129843 6.78181362 -2.49513626  1088024682
-2.49513626 0.97124046 0.67187864  1064870711
0.34088624 6.84685183 -2.49513626  1088116306
-2.49513626 0.97124046 0.00909527  1064870711
-0.21215731 6.85205078 -2.49513626  1088073237
-2.49513626 0.97124046 -0.76381779  1064870712
-0.87366647 6.79943085 -2.49513626  1087895872
-2.49513626 0.97124052 5.99976969  1064881315
5.90171242 3.13353515 -2.49513626  1078894005
-2.49513626 0.97187251 5.79750586  1064881315
5.68726015 3.50775266 -2.49513626  1080448868
-2.49513626 0.97187251 5.57108641  1064881315
5.32145739 4.04120398 -2.49513626  1082572601
-2.49513626 0.97187251 5.11962461  1064881315
5.04965496 4.37609720 -2.49513626  1083088884
-2.49513626 0.97187251 4.90579081  1064881315
4.83193302 4.61537457 -2.49513626  1083900076
-2.49513626 0.97187251 4.52411079  1064881315
4.19743299 5.19911528 -2.49513626  1084785806
-2.49513626 0.97187251 4.02745056  1064881315
3.94087601 5.39617920 -2.49513626  1085190341
-2.49513626 0.97187251 3.76466942  1064881315
3.49305964 5.69629574 -2.49513626  1085804491
-2.49513626 0.97187251 3.30739594  1064881315
3.11828637 5.90978241 -2.49513626  1086340135
-2.49513626 0.97187251 2.63174200  1064881315
2.33138704 6.26209879 -2.49513626  1086951595
-2.49513626 0.97187251 2.12807131  1064881315
2.02556634 6.36759949 -2.49513626  1087225789
-2.49513626 0.97187251 1.71499956  1064881315
1.29478157 6.55536366 -2.49513626  1087569889
-2.49513626 0.97187251 0.97597998  1064881315
0.65489149 6.64983940 -2.49513626  1087752875
-2.49513626 0.97187251 -0.09897502  1064881315
-0.20679314 6.67880964 -2.49513626  1087727008
-2.49513626 0.97187251 -0.63724053  1064881315
-0.85157979 6.62752295 -2.49513626  1087496573
-2.49513626 0.97187251 5.89645433  1064891431
5.85092163 2.86845660 -2.49513626  1078170146
-2.49513626 0.97247547 5.70523119  1064891431
5.54616451 3.42072940 -2.49513626  1080074361
-2.49513626 0.97247547 5.43287516  1064891431
5.37410069 3.68515778 -2.49513626  1081171658
-2.49513626 0.97247547 5.12516022  1064891431
4.99261332 4.18749952 -2.49513626  1082856994
-2.49513626 0.97247547 4.78408337  1064891431
4.71205711 4.50087261 -2.49513626  1083494848
-2.49513626 0.97247547 4.48869085  1064891431
4.17459488 5.00340748 -2.49513626  1084646171
-2.49513626 0.97247547 3.84310746  1064891431
3.75767970 5.32364225 -2.49513626  1085154829
-2.49513626 0.97247547 3.49560928  1064891431
3.40639997 5.55497551 -2.49513626  1085505229
-2.49513626 0.97247547 2.94751573  1064891431
2.85333824 5.85830784 -2.49513626  1086122560
-2.49513626 0.97247547 2.66278172  1064891431
2.46945095 6.03018618 -2.49513626  1086469971
-2.49513626 0.97247547 2.27354789  1064891431
1.97531426 6.20962524 -2.49513626  1086829514
-2.49513626 0.97247547 1.77387726  1064891431
1.57059228 6.32412577 -2.49513626  1087103865
-2.49513626 0.97247547 0.84760368  1064891431
0.63864464 6.48486423 -2.49513626  1087399644
-2.49513626 0.97247547 0.11381147  1064891431
-0.09651957 6.51552105 -2.49513626  1087400816
-2.49513626 0.97247547 -0.41175842  1064891431
-0.72603643 6.47566128 -2.49513626  1087232663
-2.49513626 0.97247547 5.75282097  1064901092
5.70839834 2.79858088 -2.49513626  1077476201
-2.49513626 0.97305131 5.61510181  1064901092
5.56625271 3.07159233 -2.49513626  1078611526
-2.49513626 0.97305131 5.46422052  1064901092
5.35649443 3.42429781 -2.49513626  1080786324
-2.49513626 0.97305131 5.12442207  1064901092
5.00031471 3.92615676 -2.49513626  1082143743
-2.49513626 0.97305131 4.87099552  1064901092
4.66754580 4.31646538 -2.49513626  1084115652
-2.49513626 0.97305131 3.66614342  1064901092
3.58184099 5.25245285 -2.49513626  1084993709
-2.49513626 0.97305131 3.23552108  1064901093
3.14677477 5.52409840 -2.49513626  1085431696
-2.49513626 0.97305131 2.96685028  1064901092
2.78383255 5.71560431 -2.49513626  1085820971
-2.49513626 0.97305137 2.59791708  1064901092
2.31403327 5.92141151 -2.49513626  1086236627
-2.49513626 0.97305131 2.02472329  1064901092
1.92719722 6.05836344 -2.49513626  1086627859
-2.49513626 0.97305131 0.82695615  1064901093
0.52089643 6.33612728 -2.49513626  1087045552
-2.49513626 0.97305131 0.31613126  1064901093
0.21361366 6.35391283 -2.49513626  1087074465
-2.49513626 0.97305131 -0.09416833  1064901092
-0.19675067 6.35445833 -2.49513626  1087047831
-2.49513626 0.97305131 -0.60629225  1064901093
-0.91188705 6.29176521 -2.49513626  1086828590
-2.49513626 0.97305131 5.57178593  1064910328
5.52697420 2.82117486 -2.49513626  1077558679
-2.49513626 0.97360182 5.43304348  1064910328
5.38394880 3.08537984 -2.49513626  1078657008
-2.49513626 0.97360182 5.22830486  1064910328
5.06040716 3.59148192 -2.49513626  1080757570
-2.49513626 0.97360182 4.94186068  1064910328
4.81816387 3.91046810 -2.49513626  1082264512
-2.49513626 0.97360182 4.62324524  1064910328
4.55584240 4.21316624 -2.49513626  1082730517
-2.49513626 0.97360182 4.41749763  1064910328
4.27454329 4.49830341 -2.49513626  1083318899
-2.49513626 0.97360182 4.12713957  1064910328
4.05181408 4.69992256 -2.49513626  1083997999
-2.49513626 0.97360182 3.74015832  1064910328
3.41292596 5.18250847 -2.49513626  1084724432
-2.49513626 0.97360182 3.24388766  1064910328
3.07146788 5.39189768 -2.49513626  1085151937
-2.49513626 0.97360182 2.80689502  1064910328
2.71721148 5.57881832 -2.49513626  1085531902
-2.49513626 0.97360182 2.53574371  1064910328
2.25865507 5.77970123 -2.49513626  1085937604
-2.49513626 0.97360182 2.07094359  1064910328
1.97626817 5.88224792 -2.49513626  1086263929
-2.49513626 0.97360182 1.59266257  1064910328
1.49566221 6.02241325 -2.49513626  1086644839
-2.49513626 0.97360182 0.70776486  1064910328
0.50843054 6.18449450 -2.49513626  1086727169
-2.49513626 0.97360182 0.30856523  1064910328
0.20850110 6.20185423 -2.49513626  1086696092
-2.49513626 0.97360182 -0.69139850  1064910328
-0.79083347 6.15475941 -2.49513626  1086553889
-2.49513626 0.97360182 5.39694881  1064919166
5.30522823 2.92755246 -2.49513626  1078694855
-2.49513626 0.97412860 5.10530472  1064919166
4.76582623 3.74204159 -2.49513626  1081369039
-2.49513626 0.97412860 4.51447630  1064919166
4.44866228 4.11404705 -2.49513626  1082811046
-2.49513626 0.97412860 4.10254669  1064919166
4.03004503 4.52489948 -2.49513626  1083499058
-2.49513626 0.97412860 3.57365894  1064919166
3.41387272 5.00614262 -2.49513626  1084574676
-2.49513626 0.97412860 3.08379149  1064919166
2.82771969 5.35909891 -2.49513626  1085074916
-2.49513626 0.97412860 2.65328646  1064919166
2.56502008 5.48968124 -2.49513626  1085339840
-2.49513626 0.97412860 2.29631209  1064919166
2.20551801 5.64372778 -2.49513626  1085650688
-2.49513626 0.97412860 2.02222252  1064919166
1.92977476 5.74386215 -2.49513626  1085851323
-2.49513626 0.97412860 1.55519211  1064919166
1.46047544 5.88073111 -2.49513626  1086122439
-2.49513626 0.97412860 1.26991892  1064919166
1.17413139 5.94452190 -2.49513626  1086281372
-2.49513626 0.97412860 0.78817612  1064919166
0.49646917 6.03899622 -2.49513626  1086433525
-2.49513626 0.97412860 0.10583209  1064919166
-0.18752426 6.05646944 -2.49513626  1086435160
-2.49513626 0.97412860 -0.48043692  1064919166
-0.57785982 6.03175259 -2.49513626  1086370119
-2.49513626 0.97412860 -0.77222812  1064919166
-0.86912304 5.99671602 -2.49513626  1086286797
-2.49513626 0.97412860 5.18246937  1064927629
5.08747101 3.02558255 -2.49513626  1078386150
-2.49513626 0.97463304 4.98717308  1064927629
4.93506908 3.26827145 -2.49513626  1079393615
-2.49513626 0.97463304 4.82701826  1064927629
4.77110052 3.50330019 -2.49513626  1080368166
-2.49513626 0.97463304 4.59594774  1064927629
4.53514814 3.80380630 -2.49513626  1082459705
-2.49513626 0.97463304 4.07740021  1064927629
4.00762033 4.35608768 -2.49513626  1083143692
-2.49513626 0.97463304 3.56766129  1064927629
3.41336918 4.83584642 -2.49513626  1083997540
-2.49513626 0.97463304 3.25552058  1064927629
3.17531276 4.99538803 -2.49513626  1084324020
-2.49513626 0.97463304 3.01243711  1064927629
2.84642172 5.18983507 -2.49513626  1084720621
-2.49513626 0.97463304 2.59189200  1064927629
2.50567079 5.36265993 -2.49513626  1085071481
-2.49513626 0.97463304 2.33129168  1064927629
2.24317884 5.47764921 -2.49513626  1085303714
-2.49513626 0.97463304 1.88512182  1064927629
1.70305145 5.66887331 -2.49513626  1085739387
-2.49513626 0.97463304 1.42668176  1064927629
1.33378243 5.76693296 -2.49513626  1086095449
-2.49513626 0.97463304 0.48498076  1064927629
0.38970914 5.90632057 -2.49513626  1086139854
-2.49513626 0.97463304 0.10338349  1064927629
-0.08767657 5.91851568 -2.49513626  1086149264
-2.49513626 0.97463304 -0.27864641  1064927629
-0.37402946 5.90733624 -2.49513626  1086098633
-2.49513626 0.97463304 -0.65951097  1064927629
-0.75436109 5.87089825 -2.49513626  1075680158
-2.49513626 0.97511649 5.19378662  1064935740
5.15201521 2.62978172 -2.49513626  1077416295
-2.49513626 0.97511649 4.92325592  1064935740
4.66245556 3.42352319 -2.49513626  1080336174
-2.49513626 0.97511649 4.49129057  1064935740
4.11780739 4.06234741 -2.49513626  1082399455
-2.49513626 0.97511649 3.98455310  1064935740
3.77693391 4.38107252 -2.49513626  1083180449
-2.49513626 0.97511649 3.48642063  1064935740
3.33564210 4.72572613 -2.49513626  1083872996
-2.49513626 0.97511649 3.02381802  1064935740
2.94383836 4.97923946 -2.49513626  1084282327
-2.49513626 0.97511649 2.78160429  1064935740
2.69938898 5.11588717 -2.49513626  1084560585
-2.49513626 0.97511649 2.53287148  1064935740
2.44861174 5.24054384 -2.49513626  1084813487
-2.49513626 0.97511649 2.19209981  1064935740
2.10542417 5.38759947 -2.49513626  1085177049
-2.49513626 0.97511649 1.84219575  1064935740
1.75346053 5.51220322 -2.49513626  1085414410
-2.49513626 0.97511649 1.39419389  1064935740
1.12084603 5.67474222 -2.49513626  1085712283
-2.49513626 0.97511649 0.65974957  1064935740
0.56691688 5.75652981 -2.49513626  1085857537
-2.49513626 0.97511649 0.19435699  1064935740
0.00767417 5.78437281 -2.49513626  1085871207
-2.49513626 0.97511649 -0.17901357  1064935740
-0.27229908 5.77796364 -2.49513626  1085848298
-2.49513626 0.97511649 -0.45863256  1064935740
-0.64449292 5.74835968 -2.49513626  1085747105
-2.49513626 0.97511649 -1.10577881  1064935740
5.07733822 2.48920012 -2.49513626  1076475550
-2.49513626 0.97558028 4.90617085  1064943521
4.66355944 3.19792295 -2.49513626  1079080215
-2.49513626 0.97558028 4.55791998  1064943521
4.44753313 3.49212360 -2.49513626  1080594668
-2.49513626 0.97558028 4.27329874  1064943521
4.21297312 3.77178311 -2.49513626  1082009921
-2.49513626 0.97558028 3.96086359  1064943521
3.82855344 4.16144991 -2.49513626  1082723605
-2.49513626 0.97558028 3.55210114  1064943521
3.18587208 4.67179871 -2.49513626  1083645848
-2.49513626 0.97558028 3.03343511  1064943521
2.87783551 4.86760235 -2.49513626  1084046003
-2.49513626 0.97558028 2.47608328  1064943521
2.39371347 5.12304783 -2.49513626  1084565257
-2.49513626 0.97558028 2.22712636  1064943521
2.05821872 5.26680326 -2.49513626  1085099115
-2.49513626 0.97558028 1.36293519  1064943521
1.18510628 5.52910566 -2.49513626  1085443899
-2.49513626 0.97558028 0.73553735  1064943521
0.64495701 5.61778545 -2.49513626  1085543469
-2.49513626 0.97558028 0.28118312  1064943521
0.18999906 5.65149403 -2.49513626  1085600553
-2.49513626 0.97558028 -0.26619604  1064943521
-0.35731718 5.64338779 -2.49513626  1085563228
-2.49513626 0.97558028 -0.81107795  1064943521
5.00383329 2.35376883 -2.49513626  1075897853
-2.49513626 0.97602546 4.88404465  1064950990
4.84155607 2.67168760 -2.49513626  1077845835
-2.49513626 0.97602546 4.61043072  1064950990
4.40384722 3.34435272 -2.49513626  1079676734
-2.49513626 0.97602546 4.29361725  1064950990
4.17891312 3.62150049 -2.49513626  1080823796
-2.49513626 0.97602546 3.99873304  1064950990
3.93657160 3.88355303 -2.49513626  1081906387
-2.49513626 0.97602546 3.74399066  1064950990
3.67782474 4.12943029 -2.49513626  1082525220
-2.49513626 0.97602546 3.47364521  1064950990
3.18883109 4.51773500 -2.49513626  1083427096
-2.49513626 0.97602546 2.81427240  1064950990
2.73708153 4.80488873 -2.49513626  1083909734
-2.49513626 0.97602546 2.42139316  1064950990
2.34084320 5.00989389 -2.49513626  1084326192
-2.49513626 0.97602546 1.92937315  1064950990
1.67628622 5.26959658 -2.49513626  1084950166
-2.49513626 0.97602546 0.80768627  1064950990
0.71929145 5.48281002 -2.49513626  1085262955
-2.49513626 0.97602546 0.45307890  1064950990
0.36407432 5.51779175 -2.49513626  1085324288
-2.49513626 0.97602546 0.18580280  1064950990
0.00733675 5.52978516 -2.49513626  1085333079
-2.49513626 0.97602546 -0.26031598  1064950990
-0.61612707 5.49535799 -2.49513626  1085190381
-2.49513626 0.97602546 -0.96937370  1064950990
-1.05711162 5.42780733 -2.49513626  1075668307
-2.49513626 0.97645313 4.77772522  1064958165
4.73616171 2.61353016 -2.49513626  1077263769
-2.49513626 0.97645313 4.55768490  1064958165
4.51006603 2.98681140 -2.49513626  1078184469
-2.49513626 0.97645313 4.41132021  1064958165
4.30797863 3.27154994 -2.49513626  1079364929
-2.49513626 0.97645313 4.20014906  1064958165
4.14458466 3.47622514 -2.49513626  1081024697
-2.49513626 0.97645313 3.85087657  1064958165
3.78905964 3.86067104 -2.49513626  1082050514
-2.49513626 0.97645313 3.59776092  1064958165
3.53209853 4.09707689 -2.49513626  1082903166
-2.49513626 0.97645313 3.11941314  1064958165
2.97515750 4.51776075 -2.49513626  1083507137
-2.49513626 0.97645313 2.67749739  1064958165
2.60129118 4.74289322 -2.49513626  1083859271
-2.49513626 0.97645313 2.36868000  1064958165
2.28988361 4.90083265 -2.49513626  1084373280
-2.49513626 0.97645313 1.80530882  1064958165
1.72277701 5.12774515 -2.49513626  1084552398
-2.49513626 0.97645313 1.55638695  1064958165
1.47257245 5.20511913 -2.49513626  1084794424
-2.49513626 0.97645313 0.87636793  1064958165
0.79010236 5.35139751 -2.49513626  1084989798
-2.49513626 0.97645313 0.53016603  1064958165
0.09447987 5.40858746 -2.49513626  1085084941
-2.49513626 0.97645313 -0.16740938  1064958165
-0.34181899 5.39860153 -2.49513626  1085050468
-2.49513626 0.97645313 -0.51587719  1064958165
-0.60271531 5.37572813 -2.49513626  1084993677
-2.49513626 0.97645313 -0.77589637  1064958165
-0.94827169 5.32564735 -2.49513626  1074803426
-2.49513626 0.97686422 4.75284672  1064965062
4.63449621 2.55742693 -2.49513626  1076392171
-2.49513626 0.97686422 4.54954290  1064965062
4.41325474 2.92269802 -2.49513626  1077909045
-2.49513626 0.97686422 4.31662989  1064965062
4.26662397 3.13287497 -2.49513626  1079064155
-2.49513626 0.97686422 4.00019169  1064965062
3.70772481 3.77779961 -2.49513626  1081932568
-2.49513626 0.97686422 3.39112377  1064965062
3.32508659 4.11859083 -2.49513626  1082599687
-2.49513626 0.97686422 2.76710176  1064965062
2.54545283 4.64108419 -2.49513626  1083642098
-2.49513626 0.97686422 2.31783557  1064965062
2.24073029 4.79563427 -2.49513626  1083945417
-2.49513626 0.97686422 2.00599456  1064965062
1.84685791 4.96065426 -2.49513626  1084264652
-2.49513626 0.97686422 1.60459495  1064965062
1.52297866 5.06947041 -2.49513626  1084515397
-2.49513626 0.97686422 1.19275403  1064965062
1.10936618 5.17573977 -2.49513626  1084632271
-2.49513626 0.97686428 0.94174635  1064965062
0.85755736 5.22336912 -2.49513626  1084748353
-2.49513626 0.97686428 0.60373658  1064965063
0.51878589 5.26781178 -2.49513626  1084805348
-2.49513626 0.97686422 0.26321253  1064965062
0.17785606 5.29030752 -2.49513626  1084842661
-2.49513626 0.97686422 -0.16381590  1064965062
-0.24918307 5.28742790 -2.49513626  1084820487
-2.49513626 0.97686422 -0.41969612  1064965062
-0.50480223 5.26917219 -2.49513626  1084752153
-2.49513626 0.97686422 -0.75924218  1064965062
-0.92791682 5.21132994 -2.49513626  1084637944
-2.49513626 0.97686422 4.68840265  1064971698
4.65219879 2.28077316 -2.49513626  1075233145
-2.49513626 0.97725976 4.57616520  1064971698
4.53635550 2.50327063 -2.49513626  1076158407
-2.49513626 0.97725976 4.45320082  1064971698
4.40987921 2.71989965 -2.49513626  1077352311
-2.49513626 0.97725976 4.22521973  1064971698
4.17627287 3.06653285 -2.49513626  1078773812
-2.49513626 0.97725976 3.96973777  1064971698
3.91548371 3.39320946 -2.49513626  1079848569
-2.49513626 0.97725976 3.74666119  1064971698
3.62920928 3.69779873 -2.49513626  1081106555
-2.49513626 0.97725976 3.50797820  1064971698
3.44598293 3.86912012 -2.49513626  1081812640
-2.49513626 0.97725976 3.31931400  1064971698
3.05574059 4.18417692 -2.49513626  1082618958
-2.49513626 0.97725976 2.91911101  1064971698
2.84964538 4.32717085 -2.49513626  1083004705
-2.49513626 0.97725976 2.63686728  1064971698
2.49154997 4.54280329 -2.49513626  1083432448
-2.49513626 0.97725976 2.26875305  1064971698
2.04064345 4.76242161 -2.49513626  1083797112
-2.49513626 0.97725976 1.72914827  1064971698
1.49072826 4.96211672 -2.49513626  1084197238
-2.49513626 0.97725976 1.32980394  1064971698
1.08587480 5.06613779 -2.49513626  1084401652
-2.49513626 0.97725976 0.92180425  1064971698
0.83939826 5.11275721 -2.49513626  1084491065
-2.49513626 0.97725976 0.59095204  1064971698
0.50780088 5.15626097 -2.49513626  1084584023
-2.49513626 0.97725976 0.25763950  1064971698
0.17409013 5.17827892 -2.49513626  1084607586
-2.49513626 0.97725976 -0.07674479  1064971698
-0.32739830 5.17085075 -2.49513626  1084539941
-2.49513626 0.97725976 -0.66031271  1064971698
-0.82582307 5.11496782 -2.49513626  1084439341
-2.49513626 0.97725976 -0.99047285  1064971698
4.55496693 2.23310471 -2.49513626  1075633251
-2.49513626 0.97764045 4.40141010  1064978085
4.31771088 2.66305304 -2.49513626  1077101523
-2.49513626 0.97764045 4.13691139  1064978085
4.03999853 3.06804204 -2.49513626  1078493317
-2.49513626 0.97764045 3.93887758  1064978085
3.83364940 3.32229185 -2.49513626  1080049834
-2.49513626 0.97764045 3.55335808  1064978085
3.49446368 3.67738938 -2.49513626  1081011838
-2.49513626 0.97764045 3.37396145  1064978085
3.31238174 3.84221458 -2.49513626  1082122177
-2.49513626 0.97764045 2.85810018  1064978085
2.79008722 4.23673248 -2.49513626  1082720173
-2.49513626 0.97764045 2.65189719  1064978085
2.51094222 4.40790796 -2.49513626  1083229911
-2.49513626 0.97764045 2.22133565  1064978085
2.07298660 4.63003397 -2.49513626  1083520604
-2.49513626 0.97764045 1.92247784  1064978085
1.84646344 4.72493982 -2.49513626  1083770553
-2.49513626 0.97764045 1.53779113  1064978085
1.45957088 4.85840797 -2.49513626  1084024124
-2.49513626 0.97764045 1.14309525  1064978085
0.98298562 4.97676611 -2.49513626  1084210771
-2.49513626 0.97764045 0.74095410  1064978085
0.49718788 5.04849339 -2.49513626  1084344727
-2.49513626 0.97764045 0.33399323  1064978085
0.17045139 5.07005167 -2.49513626  1084379335
-2.49513626 0.97764045 -0.15699477  1064978085
-0.32055533 5.06277943 -2.49513626  1084332015
-2.49513626 0.97764045 -0.88928390  1064978085
-0.96977270 4.97935820 -2.49513626  1074223074
-2.49513626 0.97800714 4.42508698  1064984237
4.38805723 2.32985353 -2.49513626  1075714244
-2.49513626 0.97800714 4.27014780  1064984237
4.18596315 2.67600060 -2.49513626  1076859072
-2.49513626 0.97800714 4.05153751  1064984237
3.90761638 3.06819153 -2.49513626  1078744405
-2.49513626 0.97800714 3.70153069  1064984237
3.64756560 3.37320828 -2.49513626  1079746539
-2.49513626 0.97800714 3.30433178  1064984237
3.18286943 3.81478882 -2.49513626  1081776115
-2.49513626 0.97800714 2.99450159  1064984237
2.93013096 4.01218081 -2.49513626  1082254058
-2.49513626 0.97800714 2.73250723  1064984237
2.66518545 4.19285631 -2.49513626  1082623943
-2.49513626 0.97800714 2.45912337  1064984237
2.17549419 4.46659660 -2.49513626  1083181368
-2.49513626 0.97800714 1.95675981  1064984237
1.88280225 4.59764194 -2.49513626  1083506188
-2.49513626 0.97800714 1.58226943  1064984237
1.50605559 4.73445463 -2.49513626  1083767458
-2.49513626 0.97800714 0.88391143  1064984237
0.80489266 4.90259123 -2.49513626  1084049209
-2.49513626 0.97800714 0.56666028  1064984237
0.40706742 4.95152140 -2.49513626  1084138341
-2.49513626 0.97800714 0.24704860  1064984237
0.00659148 4.96822071 -2.49513626  1084159805
-2.49513626 0.97800714 -0.15375566  1064984237
