# .PCD v0.7 - Point Cloud Data file format
VERSION 0.7
FIELDS x y z intensity
SIZE 4 4 4 4
TYPE F F F F
COUNT 1 1 1 1
WIDTH 995
HEIGHT 1
VIEWPOINT 0 0 0 1 0 0 0
POINTS 995
DATA ascii
-33.71276855 36.91785431 -2.49513626  1108441958
-2.49513626 0.81854409 -34.88344574  1062308891
-37.62088776 37.40057373 -2.64753628  1108551991
-2.64753628 0.80859447 -39.38218689  1062141964
-39.94907761 34.90283203 -2.64753628  1105977330
-2.64753628 0.80859447 -45.02604294  1062141964
-45.47162628 27.32149887 -2.64753628  1104457822
-2.64753628 0.80859447 -46.73733902  1062141964
-47.13516617 24.33947945 -2.64753628  1102880564
-2.64753628 0.80859447 -47.89406967  1062141964
-49.57268906 18.88603401 -2.64753628  1099579162
-2.64753628 0.80859447 -50.42646027  1062141964
-51.38166046 13.19314671 -2.64753628  1094223298
-2.64753628 0.80859452 -52.27591705  1062141964
-52.53913116 7.33295584 -2.64753628  1085566112
-2.64753628 0.80859447 -52.83183289  1062141964
-52.95858383 3.08576989 -2.64753628  1068539126
-2.64753628 0.80859447 -53.04579926  1062141964
-53.04738998 -0.32766259 -2.64753628  3221371273
-2.64753628 0.80859447 -52.96976471  1062141964
-52.91643524 -3.73974514 -2.64753628  3232635818
-2.64753628 0.80859447 -52.56620789  1062141964
-52.44456100 -7.98141575 -2.64753628  3240627671
-2.64753628 0.80859447 -51.82242584  1062141964
-51.21474838 -13.82688808 -2.64753628  3244975008
-2.64753628 0.80859447 -50.74322128  1062141964
-50.48772430 -16.28262329 -2.64753628  3246964381
-2.64753628 0.80859447 -49.93752289  1062141964
-11.56320286 41.24981308 -2.49513626  1109617883
-2.49513626 0.84227401 -13.54064178  1062707013
-14.19300270 40.42045975 -2.49513626  1109442377
-2.49513626 0.84227401 -15.48652554  1062707012
-16.12734795 39.68832779 -2.49513626  1109242317
-2.49513626 0.84227395 -17.39632416  1062707012
-18.02412605 38.86368942 -2.49513626  1108938188
-2.49513626 0.84227395 -19.87888908  1062707013
-21.08991623 37.28901672 -2.49513626  1108592493
-2.49513626 0.84227401 -22.27909660  1062707013
-22.86509132 36.22764587 -2.49513626  1107999219
-2.49513626 0.84227395 -25.70329094  1062707013
-26.25156403 33.85425186 -2.49513626  1107511058
-2.55143261 0.83901829 -29.97589302  1062615966
-31.08772659 32.96186447 -2.63896298  1107308854
-2.64753628 0.83348960 -32.74845886  1062559634
-33.25154877 30.99397087 -2.64753628  1106486122
-2.64753628 0.83348960 -34.70876694  1062559634
-35.63547134 28.22065926 -2.64753628  1105012188
-2.64753628 0.83348954 -36.52525711  1062559634
-36.95600128 26.46783829 -2.64753628  1104082191
-2.64753628 0.83348954 -38.19040298  1062559635
-40.04861832 21.50350952 -2.64753628  1101111468
-2.64753628 0.83348954 -41.03981018  1062559634
-41.34906769 18.88245964 -2.64753628  1100068708
-2.64753628 0.83348954 -41.93534470  1062559635
-42.73313904 15.49748039 -2.64753628  1096930174
-2.64753628 0.83348954 -43.84062576  1062559634
-44.20451736 10.59499168 -2.64753628  1092492654
-2.64753628 0.83348954 -44.52259064  1062559634
-44.66436386 8.44909573 -2.64753628  1089951114
-2.64753628 0.83348960 -44.91313934  1062559635
-45.11540604 5.55813789 -2.64753628  1083873908
-2.64753628 0.83348954 -45.33108902  1062559634
-45.41619492 1.91349792 -2.64753628  1066882732
-2.64753628 0.83348954 -45.45424652  1062559635
-45.45561600 -0.28076816 -2.64753628  3231002848
-2.64753628 0.83348954 -45.13587189  1062559635
-45.04330063 -6.11504030 -2.64753628  3235568261
-2.64753628 0.83348954 -44.69565201  1062559634
-44.55657959 -9.00020885 -2.64753628  3240550240
-2.64753628 0.83348960 -43.88524628  1062559635
-43.48119354 -13.25432014 -2.64753628  3244972400
-2.64753628 0.83348954 -42.79081345  1062559634
-42.53843307 -16.02418327 -2.64753628  3246761815
-2.64753628 0.83348960 -42.00067139  1062559635
-12.41456604 35.35563660 -2.49513626  1108008041
-2.49513626 0.86051911 -14.66342163  1063013115
-15.76563072 33.99393082 -2.49513626  1107751284
-2.49513626 0.86051911 -17.38799095  1063013114
-18.58237076 32.85543060 -2.51340914  1107518878
-2.53635049 0.85838652 -19.99695969  1062956522
-22.22416496 32.82197952 -2.63939214  1107434543
-2.64487815 0.85279620 -23.85578728  1062881256
-24.86717796 31.02468109 -2.64753628  1105452071
-2.64753628 0.85265976 -29.08501434  1062881256
-29.51758385 26.63869286 -2.64753628  1103722180
-2.64753628 0.85265970 -31.56345367  1062881257
-30.90583420 21.39068604 -2.50275636  1101206615
-2.50275636 0.86012435 -34.40687943  1062881257
-35.61757660 17.67189217 -2.64753628  1098836554
-2.64753628 0.85265976 -36.68069839  1062881257
-36.92288589 14.75154400 -2.64753628  1096973424
-2.64753628 0.85265976 -37.79542542  1062881257
-37.98921204 11.73572254 -2.64753628  1093793524
-2.64753628 0.85265976 -38.34722900  1062881257
-38.66551971 9.26740074 -2.64753628  1090538138
-2.64753628 0.85265976 -39.06775665  1062881257
-39.28536987 6.12922144 -2.64753628  1085268123
-2.64753628 0.85265976 -39.46228027  1062881257
-39.65093613 2.95138812 -2.64753628  1075053956
-2.64753628 0.85265976 -37.43867111  1063013115
-37.47004700 0.37165701 -2.49513626  3194814880
-2.49513626 0.86051911 -37.41632843  1063013115
-37.37865829 -2.64164400 -2.49513626  3228956751
-2.49513626 0.86051911 -37.20759201  1063013115
-37.04533768 -5.63784552 -2.49513626  3234297700
-2.49513626 0.86051911 -36.84469986  1063013115
-36.60588837 -8.00945091 -2.49513626  3239243576
-2.49513626 0.86051911 -36.17664337  1063013115
-35.84357071 -10.92615414 -2.49513626  3241674360
-2.49513626 0.86051911 -35.47336578  1063013115
-35.27444839 -12.64340401 -2.49513626  3243465216
-2.49513626 0.86051911 -34.84926605  1063013115
-9.21503925 32.87311554 -2.55845857  1107472495
-2.64287281 0.86808777 -14.34629822  1063136462
-15.37791252 31.80650902 -2.64753628  1106926688
-2.64753628 0.86787117 -16.89514923  1063136462
-18.37299728 30.17560387 -2.64753628  1106182675
-2.64753628 0.86787117 -19.33465004  1063136462
-20.73924446 28.60100746 -2.64753628  1104971929
-2.64753628 0.86787117 -22.97126198  1063136461
-24.65047836 25.30786324 -2.64753628  1103577935
-2.64753628 0.86787117 -25.84322739  1063136462
-25.50061035 21.56566429 -2.50275636  1101609025
-2.50275636 0.87462282 -26.51175690  1063249736
-26.83518791 19.88042831 -2.50275636  1100483934
-2.50275636 0.87462264 -28.23083115  1063216680
-29.21678162 18.86049271 -2.60606480  1099542775
-2.64753628 0.86787111 -31.12592697  1063136461
-31.64767838 15.70218945 -2.64753628  1098059164
-2.64753628 0.86787117 -32.13663864  1063136461
-32.59230042 13.63363647 -2.64753628  1095319035
-2.64753628 0.86787117 -33.58277512  1063136462
-34.07308197 9.33590984 -2.64753628  1091343549
-2.64753628 0.86787117 -32.37826920  1063255723
-32.49901962 7.23836088 -2.49513626  1087822919
-2.49513626 0.87497967 -32.81045151  1063255723
-32.89731216 5.13257122 -2.49513626  1083393867
-2.49513626 0.87497967 -33.04545212  1063255723
-33.10672760 3.53881288 -2.49513626  1075719337
-2.49513626 0.87497944 -33.23891830  1063255723
-33.29366684 0.33023241 -2.49513626  3193083646
-2.49513626 0.87497962 -33.28704453  1063255722
-33.27080536 -1.27709711 -2.49513626  3219651698
-2.49513626 0.87497962 -33.11971283  1063255723
-33.06046677 -3.94749737 -2.49513626  3230618729
-2.49513626 0.87497962 -32.91634750  1063255719
-32.83140945 -5.53856230 -2.49513626  3233947319
-2.49513626 0.87497962 -32.63619614  1063255719
-32.27993774 -8.15982914 -2.49513626  3240863529
-2.49513626 0.87497944 -31.34278488  1063255754
-31.15792084 -11.73716068 -2.49513626  3242445593
-2.49513626 0.87497962 -10.04554939  1063343859
-10.52950764 29.98715782 -2.64753628  1106055202
-2.64753628 0.88023257 -11.96456432  1063343859
-12.90599728 29.04368591 -2.64753628  1105635429
-2.64753628 0.88023299 -15.19895077  1063343859
-16.08939934 27.40860367 -2.64753628  1104751422
-2.64753628 0.88023299 -16.96316910  1063343859
-17.39352989 26.60010147 -2.64753628  1104316582
-2.64753628 0.88023299 -18.24061394  1063343859
-19.47552490 25.11581421 -2.64753628  1103002781
-2.64753628 0.88023299 -20.61392593  1063447241
-20.96300507 21.52205849 -2.50275636  1100882783
-2.50275636 0.88639504 -22.94046021  1063447241
-23.24971581 19.02885246 -2.50275636  1100422135
-2.53448343 0.88504100 -25.46406174  1063349283
-25.83875465 18.50566292 -2.64753628  1100002064
-2.64753628 0.88023299 -27.24271965  1063343859
-28.00102425 15.03473186 -2.64753628  1096459998
-2.64753628 0.88023299 -28.91026497  1063343859
-29.32018471 12.26487732 -2.64753628  1094494640
-2.64753628 0.88023299 -29.69970703  1063343860
-29.87796593 10.83546734 -2.64753628  1092478053
-2.64753628 0.88023299 -30.51316643  1063343859
-29.01150894 7.44921780 -2.49513626  1088382754
-2.49513626 0.88672054 -29.33723640  1063452702
-29.59457970 4.61730623 -2.49513626  1078705860
-2.49513626 0.88672054 -29.86997032  1063452702
-29.90188980 1.74231207 -2.49513626  1067541414
-2.49513626 0.88672054 -29.95113182  1063452702
-29.94518089 -0.66703826 -2.49513626  3214085778
-2.49513626 0.88672054 -29.90820312  1063452702
-29.87808800 -2.11155915 -2.49513626  3223709102
-2.49513626 0.88672054 -29.61165428  1063452702
-29.53529549 -4.98251534 -2.49513626  3233662631
-2.49513626 0.88672054 -29.03917694  1063452702
-28.78788567 -8.27141571 -2.49513626  3238771989
-2.49513626 0.88672054 -28.35511398  1063452702
-28.02980804 -10.55880451 -2.49513626  3241625970
-2.49513626 0.88672054 -8.24137878  1063515701
-9.56764889 27.24784279 -2.64753628  1104635918
-2.64753628 0.89047557 -11.30079079  1063515701
-11.72704029 26.39055634 -2.64753628  1104254551
-2.64753628 0.89047557 -12.98711014  1063515701
-14.61964035 24.90484238 -2.64753628  1102239905
-2.50275636 0.89614218 -16.37933350  1063610771
-17.07375526 21.30148888 -2.50275636  1101541639
-2.50275636 0.89614218 -17.75047112  1063610771
-18.40880775 20.15892220 -2.50275636  1100931424
-2.50275636 0.89614218 -19.04804611  1063610771
-19.36031723 19.24693298 -2.50275636  1100445308
-2.50275636 0.89614218 -20.27389145  1063585679
-21.60642052 18.87714767 -2.63033628  1100108690
-2.64753628 0.89047557 -22.63944244  1063515701
-23.20473099 17.19085693 -2.64753628  1099335040
-2.64753628 0.89047557 -24.00739479  1063515701
-24.26261139 15.66239834 -2.64753628  1098142071
-2.64753628 0.89047557 -24.75410080  1063515701
-25.44314194 13.66131401 -2.64753628  1095151000
-2.64753628 0.89047557 -26.64179611  1063515701
-26.81770515 10.71428585 -2.64753628  1092454348
-2.64753628 0.89047557 -27.30357933  1063515701
-26.00390625 8.03318787 -2.49513626  1089708778
-2.49513626 0.89644140 -26.56550980  1063615791
-26.65728951 5.48852205 -2.49513626  1081132889
-2.49513626 0.89644140 -27.01222610  1063615791
-27.14136505 2.02024579 -2.49513626  1066575300
-2.49513626 0.89644140 -27.21510887  1063615791
-27.11434174 -2.35535192 -2.49513626  3224544992
-2.49513626 0.89644140 -27.02449226  1063615791
-26.90663719 -4.09486246 -2.49513626  3230720047
-2.49513626 0.89644140 -26.58745766  1063615791
-26.27569199 -7.09387445 -2.49513626  3237868149
-2.49513626 0.89644140 -25.90268898  1063615791
-25.76488304 -8.76958752 -2.49513626  3239674390
-2.49513626 0.89644140 -25.31159210  1063615791
-7.55058432 25.35790634 -2.64753628  1103748455
-2.64753628 0.89909983 -8.36278057  1063660394
-9.16632175 24.81961632 -2.64753628  1103452640
-2.64753628 0.89909983 -9.96035480  1063660392
-10.74407959 24.17849350 -2.64753628  1102231348
-2.50275636 0.90434456 -11.60594082  1063748383
-12.66174412 21.56952858 -2.50275636  1101719384
-2.50275636 0.90434462 -13.68806839  1063748383
-14.02319527 20.71027946 -2.50275636  1101134948
-2.50275636 0.90434450 -15.64262867  1063748383
-17.26099396 18.90198517 -2.56140304  1100424681
-2.59878421 0.90086246 -18.39412117  1063666203
-19.35422897 18.04019547 -2.64753628  1099304885
-2.64753628 0.89909983 -20.74180222  1063660392
-21.25970650 15.74991894 -2.64753628  1098284512
-2.64753628 0.89909983 -21.99508667  1063660392
-22.45697403 13.98996830 -2.64753628  1096419100
-2.64753628 0.89909983 -23.10603142  1063660392
-23.31049538 12.51622200 -2.64753628  1094859543
-2.64753628 0.89909995 -23.70123482  1063660392
-24.06742287 10.99062920 -2.64753628  1092836766
-2.64753628 0.89909983 -24.56983757  1063660392
-24.72463608 9.41950989 -2.64753628  1091588993
-2.64753628 0.89909983 -23.57504845  1063753029
-23.82424927 7.35984564 -2.49513626  1085930229
-2.49513626 0.90462142 -24.42287064  1063753029
-24.50063896 4.63474703 -2.49513626  1081475444
-2.49513626 0.90462154 -24.69578362  1063753029
-24.74805832 3.04891348 -2.49513626  1074794056
-2.49513626 0.90462142 -24.86637306  1063753029
-24.89294434 1.45045340 -2.49513626  1048395779
-2.49513626 0.90462142 -24.92897987  1063753029
-24.91680908 -0.95642948 -2.49513626  3215834254
-2.49513626 0.90462142 -24.84161377  1063753029
-24.80363274 -2.55745602 -2.49513626  3226906258
-2.49513626 0.90462142 -24.65132523  1063753028
-24.26995850 -5.72112226 -2.49513626  3234041108
-2.49513626 0.90462142 -24.07326126  1063753029
-23.18997002 -9.16446590 -2.49513626  3239613811
-2.49513626 0.90462142 -6.58481169  1063865779
-6.93985415 22.00560188 -2.50275636  1101933235
-2.50275636 0.91134185 -8.68634605  1063865779
-9.36982441 21.08588409 -2.50275636  1101493622
-2.50275636 0.91134185 -10.37661552  1063865779
-10.70696163 20.43940163 -2.50275636  1101143441
-2.50275636 0.91134185 -12.62780094  1063865779
-12.93697739 19.10609055 -2.50275636  1100441766
-2.50682020 0.91120446 -13.71701241  1063847782
-14.65799141 18.90307999 -2.59456086  1100425869
-2.62667775 0.90716225 -15.87083817  1063783885
-16.16723633 18.28682137 -2.64753628  1099828835
-2.64753628 0.90646064 -17.03100967  1063783886
-17.58493233 16.92801285 -2.64753628  1099092877
-2.64753628 0.90646064 -18.38146210  1063783886
-18.63755608 15.76163387 -2.64753628  1097695196
-2.64753628 0.90646058 -19.61295509  1063783886
-20.92251396 12.57123184 -2.64753628  1094957524
-2.64753628 0.90646064 -21.31626701  1063783886
-21.50489616 11.54673195 -2.64753628  1093873579
-2.64753628 0.90646064 -21.86537361  1063783885
-22.03713608 10.49534321 -2.64753628  1092762271
-2.64753628 0.90646064 -22.36350060  1063783886
-22.51801300 9.41947556 -2.64753628  1090717924
-2.49513626 0.91159946 -21.62553406  1063870101
-21.86674118 7.14260006 -2.49513626  1087980987
-2.49513626 0.91159946 -22.18599319  1063870101
-22.28095627 5.72102785 -2.49513626  1084986127
-2.49513626 0.91159946 -22.45353508  1063870101
-22.66873932 3.91142845 -2.49513626  1078690445
-2.49513626 0.91159946 -22.83110809  1063870101
-22.87341690 2.44495511 -2.49513626  1071288489
-2.49513626 0.91159946 -22.98332977  1063870101
-23.00328064 -0.14208639 -2.49513626  3210862956
-2.49513626 0.91159946 -22.96961212  1063870101
-22.94648552 -1.62168586 -2.49513626  3221148097
-2.49513626 0.91159946 -22.84146881  1063870101
-22.79462433 -3.09457755 -2.49513626  3227353488
-2.49513626 0.91159946 -22.68321800  1063870101
-22.61869240 -4.19117022 -2.49513626  3230777259
-2.49513626 0.91159946 -22.47208977  1063870101
-22.39004517 -5.27797365 -2.49513626  3233048427
-2.49513626 0.91159946 -22.10920525  1063870101
-21.89331055 -7.06073523 -2.49513626  3236769935
-2.49513626 0.91159946 -21.52700615  1063870101
-21.39370728 -8.45460033 -2.49513626  3238839257
-2.49513626 0.91159946 -6.44012880  1063967092
-7.09401703 20.20316124 -2.50275636  1100919457
-2.50275636 0.91738057 -8.69512081  1063967092
-9.32036686 19.27754021 -2.50275636  1100463519
-2.50275636 0.91738057 -10.30740929  1063958351
-10.70301151 18.92395782 -2.54115748  1100133175
-2.64753628 0.91281569 -13.59033775  1063890506
-13.88022709 17.90006638 -2.64753628  1099664759
-2.64753628 0.91281569 -16.06373024  1063890506
-16.56935883 15.44440174 -2.64753628  1097757493
-2.64753628 0.91281575 -17.52864647  1063890507
-17.75727081 14.06244850 -2.64753628  1096269079
-2.64753628 0.91281569 -18.41529846  1063890506
-18.83022499 12.58950615 -2.64753628  1095011997
-2.64753628 0.91281569 -19.22565460  1063890506
-19.60116196 11.35199356 -2.64753628  1092686914
-2.64753628 0.91281569 -20.45027161  1063890506
-20.06830978 7.27791977 -2.49513626  1087642315
-2.49513626 0.91762149 -20.39619064  1063971134
-20.49495506 5.97176266 -2.49513626  1085572183
-2.49513626 0.91762149 -20.67653275  1063971134
-20.75929451 4.97561312 -2.49513626  1082769912
-2.49513626 0.91762149 -21.09208488  1063971134
-21.18706894 2.61021090 -2.49513626  1074869672
-2.49513626 0.91762149 -21.26009750  1063971134
-21.28838348 1.58458447 -2.49513626  1067381138
-2.49513626 0.91762149 -21.34620476  1063971133
-21.34684563 -0.13185494 -2.49513626  3209796990
-2.49513626 0.91762149 -21.15320969  1063971134
-21.10427856 -3.21181202 -2.49513626  3227731020
-2.49513626 0.91762149 -20.92465973  1063971132
-20.77777100 -4.89791298 -2.49513626  3232197071
-2.49513626 0.91762149 -20.60936737  1063971134
-20.31680489 -6.55230093 -2.49513626  3236330808
-2.49513626 0.91762149 -19.97687531  1063971134
-19.72433853 -8.16428661 -2.49513626  1100505055
-2.50275636 0.92264479 -6.31305170  1064055306
-7.69169378 18.92875481 -2.56044006  1100441025
-2.57707739 0.92044157 -8.77283001  1064000607
-9.14334488 18.91140175 -2.63236189  1100412329
-2.64753628 0.91835767 -10.10338879  1063983484
-10.69528198 18.21962166 -2.64753628  1099885953
-2.64753628 0.91835767 -11.56219101  1063983485
-11.84527588 17.49380112 -2.64753628  1099589695
-2.64753628 0.91835767 -12.40214920  1063983485
-13.73690319 16.05120468 -2.64753628  1098727339
-2.64753628 0.91835767 -14.24638176  1063983485
-14.49560928 15.36947727 -2.64753628  1096972491
-2.64753628 0.91835767 -16.13161659  1063983485
-16.34908485 13.38099575 -2.64753628  1095883699
-2.64753628 0.91835767 -16.77127075  1063983485
-16.97587204 12.57630444 -2.64753628  1095029467
-2.64753628 0.91835767 -17.37181664  1063983485
-17.74978447 11.45813465 -2.64753628  1093844061
-2.64753628 0.91835767 -18.28212929  1063983485
-18.77186012 9.69334412 -2.64753628  1091976535
-2.64753628 0.91835767 -19.07410049  1063983485
-18.24236679 7.97828770 -2.49513626  1089855623
-2.49513626 0.92287099 -18.48968506  1064059206
-19.02366257 5.87683296 -2.49513626  1085422747
-2.49513626 0.92287099 -19.20294571  1064059206
-19.36233521 4.64078188 -2.49513626  1082162373
-2.49513626 0.92287099 -19.56375885  1064059206
-19.71958160 2.75228333 -2.49513626  1066680173
-2.49513626 0.92287099 -19.89307404  1064059206
-19.90974236 0.19747999 -2.49513626  3187400185
-2.49513626 0.92287099 -19.90578651  1064059206
-19.89606857 -0.76370901 -2.49513626  3213539973
-2.49513626 0.92287099 -19.86118507  1064059206
-19.83602333 -1.72310376 -2.49513626  3224071270
-2.49513626 0.92287099 -19.68407631  1064059206
-19.63331413 -3.31208253 -2.49513626  3228052291
-2.49513626 0.92287099 -19.51654816  1064059206
-19.22249413 -5.18966293 -2.49513626  3233400743
-2.49513626 0.92287099 -18.74311256  1064059206
-18.63256454 -7.01886940 -2.49513626  3236572061
-2.49513626 0.92287099 -18.39702034  1064059206
-5.30444670 18.92272949 -2.62880611  1100415379
-2.64753628 0.92323273 -6.25582790  1064065276
-6.55722094 18.67440414 -2.64753628  1100194083
-2.64753628 0.92323291 -7.45089722  1064065275
-7.74502993 18.21385002 -2.64753628  1099861239
-2.64753628 0.92323273 -8.90076256  1064065275
-9.74361038 17.22764778 -2.64753628  1099467905
-2.64753628 0.92323279 -10.29301739  1064065276
-10.56376362 16.73730469 -2.64753628  1099203936
-2.64753628 0.92323273 -11.09695530  1064065276
-11.35927296 16.20792389 -2.64753628  1098919719
-2.64753628 0.92323273 -12.12831116  1064065276
-12.37846088 15.44356441 -2.64753628  1098113185
-2.64753628 0.92323279 -12.86909294  1064065275
-13.10941982 14.82811451 -2.64753628  1097455586
-2.64753628 0.92323279 -14.25899029  1064065275
-14.69335461 13.26028252 -2.64753628  1095531803
-2.64753628 0.92323273 -15.51601982  1064065275
-16.09098053 11.52433205 -2.64753628  1093941481
-2.64753628 0.92323273 -16.45355225  1064065275
-16.79906654 10.46527576 -2.64753628  1092819152
-2.64753628 0.92323273 -17.12716293  1064065276
-17.28459358 9.64227486 -2.64753628  1091948062
-2.64753628 0.92323279 -17.20800209  1064136656
-17.32161903 6.92038298 -2.49513626  1087668394
-2.49513626 0.92748737 -17.73093796  1064136657
-17.82186699 5.50557184 -2.49513626  1082859418
-2.49513626 0.92748743 -18.26966667  1064136656
-18.47381973 2.57841158 -2.49513626  1066066386
-2.49513626 0.92748749 -18.63635254  1064136656
-18.65195465 0.18500467 -2.49513626  3201609415
-2.49513626 0.92748731 -18.63916397  1064136655
-18.55450439 -1.91311991 -2.49513626  3222112527
-2.49513626 0.92748731 -18.48333931  1064136655
-18.28361320 -3.69319940 -2.49513626  3230200684
-2.49513626 0.92748743 -17.84233665  1064136656
-17.75250053 -5.72529650 -2.49513626  3234424261
-2.49513626 0.92748737 -17.45547676  1064136655
-17.23481369 -7.13383055 -2.49513626  1099872122
-2.64753628 0.92755431 -6.16676188  1064137779
-7.00722456 17.24431801 -2.64753628  1099499729
-2.64753628 0.92755431 -7.83135796  1064137779
-8.10210896 16.75778580 -2.64753628  1098801239
-2.64753628 0.92755431 -9.93472862  1064137779
-10.18677616 15.57873726 -2.64753628  1098291895
-2.64753628 0.92755431 -10.92681217  1064137779
-11.16790581 14.89111805 -2.64753628  1097554405
-2.64753628 0.92755431 -11.87362862  1064137779
-12.10278988 14.14178658 -2.64753628  1095206913
-2.64753628 0.92755431 -14.01734352  1064137779
-14.21263123 12.01951027 -2.64753628  1094247637
-2.64753628 0.92755431 -14.95645428  1064137779
-15.47381115 10.34547329 -2.64753628  1092715906
-2.64753628 0.92755431 -15.79875088  1064137779
-16.10732269 9.32854176 -2.64753628  1091639037
-2.64753628 0.92755431 -15.45521164  1064205292
-16.07228851 7.02920389 -2.49513626  1087938754
-2.49513626 0.93157834 -16.29020119  1064205290
-16.39282417 6.24528170 -2.49513626  1086284174
-2.49513626 0.93157834 -16.58532715  1064205291
-16.67514420 5.44680595 -2.49513626  1083463467
-2.49513626 0.93157834 -17.05902863  1064205291
-17.18178177 3.53759050 -2.49513626  1077863915
-2.49513626 0.93157834 -17.37377739  1064205291
-17.49380302 1.30213809 -2.49513626  1055497490
-2.49513626 0.93157834 -17.49853897  1064205291
-17.44967079 -1.79920268 -2.49513626  3223906964
-2.49513626 0.93157828 -17.29777336  1064205291
-17.13677406 -3.74956512 -2.49513626  3229666253
-2.49513626 0.93157834 -16.93582535  1064205291
-16.69540787 -5.38437843 -2.49513626  3233079374
-2.49513626 0.93157834 -16.41606712  1064205291
-16.31442261 -6.44731045 -2.49513626  3235295348
-2.49513626 0.93157834 -5.81942844  1064202484
-6.08540630 16.47743797 -2.64753628  1099105497
-2.64753628 0.93141103 -7.39027214  1064202484
-7.89928675 15.68883133 -2.64753628  1097706081
-2.64753628 0.93141103 -9.61302567  1064202483
-9.84837914 14.54467583 -2.64753628  1097041374
-2.64753628 0.93141103 -10.53888988  1064202484
-10.76369476 13.88095665 -2.64753628  1096123964
-2.64753628 0.93141097 -13.22783947  1064202483
-13.41212749 11.34253025 -2.64753628  1093796061
-2.64753628 0.93141103 -14.28050518  1064202483
-14.44325447 9.99652672 -2.64753628  1092367450
-2.64753628 0.93141103 -14.75750732  1064202483
-14.90890789 9.28776169 -2.64753628  1090586964
-2.49513626 0.93522835 -14.82920456  1064266529
-14.94569874 7.11799049 -2.49513626  1086621967
-2.49513626 0.93522841 -15.65118504  1064266528
-15.73594475 5.14002371 -2.49513626  1083453570
-2.49513626 0.93522835 -16.09820557  1064266528
-16.15821648 3.59884787 -2.49513626  1079355244
-2.49513626 0.93522835 -16.31308746  1064266528
-16.39522171 2.28830147 -2.49513626  1073843064
-2.49513626 0.93522835 -16.48656273  1064266528
-16.50847816 1.22879529 -2.49513626  1064731426
-2.49513626 0.93522835 -16.53947067  1064266529
-16.54854393 0.43057674 -2.49513626  1042817358
-2.49513626 0.93522841 -16.54196548  1064266528
-16.43738556 -1.96266294 -2.49513626  3222177359
-2.49513626 0.93522841 -16.32350159  1064266529
-16.27706909 -3.01608777 -2.49513626  3228767599
-2.49513626 0.93522841 -16.04931450  1064266528
-15.91042805 -4.57142830 -2.49513626  3231881333
-2.49513626 0.93522841 -15.67124557  1064266529
-15.58337212 -5.58554125 -2.49513626  3233463653
-2.49513626 0.93522835 -15.29562569  1064266529
-4.74482298 15.93503666 -2.64753628  1098757291
-2.64753628 0.93487388 -5.76015711  1064260581
-6.25913334 15.40331173 -2.64753628  1098174252
-2.64753628 0.93487388 -6.75162697  1064260581
-6.99528074 15.08326149 -2.64753628  1097826278
-2.64753628 0.93487388 -7.95116568  1064260580
-8.41699219 14.33851051 -2.64753628  1096873615
-2.64753628 0.93487388 -9.09923840  1064260581
-9.32201481 13.76730824 -2.64753628  1096077900
-2.64753628 0.93487388 -10.18840885  1064260581
-10.39854717 12.97339344 -2.64753628  1095556772
-2.64753628 0.93487388 -10.81069279  1064260581
-11.01259232 12.45638657 -2.64753628  1094619333
-2.64753628 0.93487388 -12.16229343  1064260580
-12.34317684 11.13933182 -2.64753628  1093388269
-2.64753628 0.93487382 -12.86643600  1064260581
-13.19869137 10.11105156 -2.64753628  1092281737
-2.64753628 0.93487388 -13.82182312  1064260581
-13.96876526 9.01733589 -2.64753628  1090818204
-2.49513626 0.93850487 -13.68413067  1064321500
-13.80522060 7.41250896 -2.49513626  1088819019
-2.49513626 0.93850493 -14.14689445  1064321500
-14.25349808 6.50900316 -2.49513626  1085440859
-2.49513626 0.93850493 -14.81467819  1064321500
-14.97127914 4.62496471 -2.49513626  1082425583
-2.49513626 0.93850493 -15.17705822  1064321500
-15.44120598 2.66433835 -2.49513626  1075484517
-2.49513626 0.93850493 -15.51895237  1064321500
-15.58062363 1.66542268 -2.49513626  1068829926
-2.49513626 0.93850493 -15.62615108  1064321500
-15.64284801 0.91147101 -2.49513626  1059642329
-2.49513626 0.93850493 -15.66860771  1064321500
-15.66907883 -0.09678459 -2.49513626  3199379987
-2.49513626 0.93850493 -15.63039398  1064321500
-15.58674526 -1.60711992 -2.49513626  3220032317
-2.49513626 0.93850493 -15.52694702  1064321500
-15.49101257 -2.35754204 -2.49513626  3223769522
-2.49513626 0.93850493 -15.35916805  1064321500
-15.25136280 -3.59518218 -2.49513626  3228943682
-2.49513626 0.93850493 -15.06006718  1064321500
-14.91300583 -4.80954170 -2.49513626  3232313140
-2.49513626 0.93850493 -14.66348934  1064321500
-14.57269478 -5.75899506 -2.49513626  3233793248
-2.49513626 0.93850493 -4.74631405  1064313029
-5.22822857 14.88954067 -2.64753628  1097652995
-2.64753628 0.93800002 -5.70471811  1064313029
-6.17529964 14.52234459 -2.64753628  1097141916
-2.64753628 0.93800008 -7.09678745  1064313029
-7.32271671 13.97893810 -2.64753628  1096662928
-2.64753628 0.93800008 -7.76881647  1064313030
-8.20687103 13.47887421 -2.64753628  1096123728
-2.64753628 0.93800002 -8.84786510  1064313030
-9.46822929 12.62479591 -2.64753628  1095042103
-2.64753628 0.93800002 -10.06653690  1064313030
-10.26082420 11.98950768 -2.64753628  1094168389
-2.64753628 0.93800002 -11.19141483  1064313029
-11.36902809 10.94431496 -2.64753628  1093413043
-2.64753628 0.93800002 -12.04957390  1064313029
-12.21200943 9.99498177 -2.64753628  1092403483
-2.64753628 0.93800002 -12.68018913  1064313029
-12.82972622 9.18862915 -2.64753628  1090798048
-2.49513626 0.94146234 -13.21456623  1064371117
-13.42733288 6.39486313 -2.49513626  1086697895
-2.49513626 0.94146234 -13.72034550  1064371117
-13.98136234 5.07044506 -2.49513626  1083902026
-2.49513626 0.94146234 -14.27859020  1064371117
-14.34370804 3.93012881 -2.49513626  1080866963
-2.49513626 0.94146234 -14.46276474  1064371117
-14.56683540 2.99919462 -2.49513626  1073975998
-2.49513626 0.94146234 -14.76078987  1064371117
-14.78813457 1.58071303 -2.49513626  1068226422
-2.49513626 0.94146234 -14.83135986  1064371116
-14.85920334 0.62605500 -2.49513626  1053167374
-2.49513626 0.94146234 -14.87165451  1064371117
-14.86869812 -0.33120495 -2.49513626  3215245054
-2.49513626 0.94146234 -14.79395485  1064371117
-14.76748848 -1.76327324 -2.49513626  3222222166
-2.49513626 0.94146234 -14.66517830  1064371116
-14.62345695 -2.70967960 -2.49513626  3226170169
-2.49513626 0.94146234 -14.47562218  1064371117
-14.41884136 -3.64484286 -2.49513626  3229095820
-2.49513626 0.94146234 -14.22611618  1064371117
-13.91765976 -5.24276733 -2.49513626  3232688060
-2.49513626 0.94146258 -4.28493357  1064360612
-4.51597691 14.31971169 -2.64753628  1097067567
-2.64753628 0.94083625 -5.65246868  1064360612
-6.09723091 13.72122002 -2.64753628  1096413417
-2.64753628 0.94083619 -6.53566885  1064360612
-6.96734428 13.30053520 -2.64753628  1095957669
-2.64753628 0.94083619 -7.39179468  1064360612
-7.80859137 12.82474613 -2.64753628  1095307666
-2.64753628 0.94083619 -8.81425476  1064360612
-9.94519901 11.24905014 -2.64753628  1093756551
-2.64753628 0.94083619 -10.47654247  1064360612
-10.81728458 10.41318607 -2.64753628  1092678745
-2.64753628 0.94083619 -11.46480274  1064360612
-11.63553429 8.05323315 -2.49513626  1089433253
-2.49513626 0.94414485 -12.24524975  1064416122
-12.46715164 6.69405317 -2.49513626  1087357666
-2.49513626 0.94414485 -12.87198257  1064416122
-13.14068985 5.25000429 -2.49513626  1084306935
-2.49513626 0.94414485 -13.30284309  1064416122
-13.45122147 4.39373302 -2.49513626  1081956577
-2.49513626 0.94414485 -13.70602226  1064416122
-13.76088428 3.29822493 -2.49513626  1077322265
-2.49513626 0.94414485 -14.09285736  1064416122
-14.12666988 0.82312787 -2.49513626  1058569733
-2.49513626 0.94414485 -14.14583969  1064416122
-14.14993286 0.14035140 -2.49513626  3182624958
-2.49513626 0.94414485 -14.14712048  1064416122
-14.11540985 -0.99757153 -2.49513626  3216623055
-2.49513626 0.94414490 -14.05081844  1064416122
-14.02200031 -1.90361428 -2.49513626  3221766696
-2.49513626 0.94414485 -13.95347214  1064416122
-13.91377926 -2.57817841 -2.49513626  3225523102
-2.49513626 0.94414485 -13.77312756  1064416122
-13.71909237 -3.46795750 -2.49513626  3229226931
-2.49513626 0.94414485 -13.53571987  1064416122
-13.46756458 -4.34337807 -2.49513626  3230787575
-2.49513626 0.94414485 -13.32080173  1064416122
-13.24223232 -4.98833561 -2.49513626  3232575120
-2.49513626 0.94414485 -4.08605480  1064403972
-4.52558804 13.58400631 -2.64753628  1096296082
-2.64753628 0.94342065 -5.17594004  1064403972
-5.39011526 13.26472282 -2.64753628  1095946735
-2.64753628 0.94342065 -5.81423616  1064403972
-6.02405930 12.98910713 -2.64753628  1095647074
-2.64753628 0.94342065 -6.43898058  1064403972
-6.64396572 12.68321514 -2.64753628  1095198643
-2.64753628 0.94342065 -7.44616365  1064403972
-7.64202309 12.10808468 -2.64753628  1094696064
-2.64753628 0.94342065 -8.02775288  1064403972
-8.21751785 11.72512531 -2.64753628  1094141438
-2.64753628 0.94342065 -8.77385521  1064403972
-8.95481777 11.17217255 -2.64753628  1093692659
-2.64753628 0.94342065 -9.30974197  1064403972
-9.48360920 10.72694588 -2.64753628  1092715389
-2.64753628 0.94342065 -10.62945557  1064403972
-10.93268394 9.24568462 -2.64753628  1091639484
-2.64753628 0.94342065 -10.57846260  1064457126
-10.84259701 8.03256416 -2.49513626  1090219206
-2.49513626 0.94658887 -11.09549046  1064457126
-11.21764469 7.49988890 -2.49513626  1089089579
-2.49513626 0.94658887 -11.56655407  1064457127
-11.67691040 6.76267052 -2.49513626  1087528234
-2.49513626 0.94658887 -11.88850880  1064457127
-12.18274593 5.80211973 -2.49513626  1084662425
-2.49513626 0.94658893 -12.53079414  1064457126
-12.60973644 4.80401087 -2.49513626  1082960265
-2.49513626 0.94658887 -12.82690525  1064457126
-12.89267349 3.98283291 -2.49513626  1081185970
-2.49513626 0.94658887 -13.12219715  1064457126
-13.25870323 2.50812697 -2.49513626  1074976716
-2.49513626 0.94658893 -13.33255577  1064457126
-13.36430645 1.86527383 -2.49513626  1070805341
-2.49513626 0.94658887 -13.41741467  1064457126
-13.43876171 1.21807373 -2.49513626  1065366919
-2.49513626 0.94658887 -13.47100163  1064457126
-13.49318600 0.13383609 -2.49513626  3204743184
-2.49513626 0.94658887 -13.44322395  1064457126
-13.39867687 -1.59983349 -2.49513626  3222251636
-2.49513626 0.94658887 -13.22671032  1064457126
-13.18199825 -2.88425136 -2.49513626  3225822549
-2.49513626 0.94658887 -13.02742481  1064457126
-12.96913433 -3.72632742 -2.49513626  3229911430
-2.49513626 0.94658893 -12.54942799  1064457126
-12.46798801 -5.16074753 -2.49513626  1095811864
-2.64753628 0.94578534 -4.32426214  1064443646
-4.53259516 12.90844059 -2.64753628  1095505941
-2.64753628 0.94578534 -5.55558586  1064443645
-5.75607586 12.41127205 -2.64753628  1094943609
-2.64753628 0.94578534 -7.11492157  1064443645
-7.48729467 11.45042896 -2.64753628  1094009163
-2.64753628 0.94578534 -8.20845032  1064443645
-8.55645275 10.67516804 -2.64753628  1093178309
-2.64753628 0.94578534 -8.89559269  1064443645
-9.06172466 10.24975300 -2.64753628  1092406940
-2.64753628 0.94578534 -10.00775719  1064443645
-10.30279636 9.00136662 -2.64753628  1090523955
-2.49513626 0.94882482 -10.36025620  1064494639
-10.60190201 7.33783102 -2.49513626  1088770548
-2.49513626 0.94882482 -11.64079094  1064494639
-11.97334576 4.78362322 -2.49513626  1082960499
-2.49513626 0.94882482 -12.19027710  1064494639
-12.31913471 3.80565691 -2.49513626  1080481633
-2.49513626 0.94882482 -12.43523026  1064494639
-12.48845768 3.20663238 -2.49513626  1076259000
-2.49513626 0.94882482 -12.66888142  1064494639
-12.70581150 2.19235325 -2.49513626  1071915591
-2.49513626 0.94882482 -12.82052708  1064494639
-12.84092999 1.16388750 -2.49513626  1057681934
-2.49513626 0.94882482 -12.88920498  1064494639
-12.89332104 -0.07963931 -2.49513626  3204265528
-2.49513626 0.94882482 -12.87445450  1064494639
-12.71392822 -2.14480209 -2.49513626  3227770933
-2.49513626 0.94882482 -12.20590019  1064494639
-12.13745975 -4.35042429 -2.49513626  3230757448
-2.49513626 0.94882482 -11.99115849  1064494639
-3.53499603 12.61050797 -2.64753628  1095292141
-2.64753628 0.94795698 -4.13952398  1064480079
-4.33895350 12.35696507 -2.64753628  1095012747
-2.64753628 0.94795698 -4.93029881  1064480079
-5.51016426 11.88104439 -2.64753628  1093973477
-2.64753628 0.94795698 -6.81095362  1064480079
-6.99010229 11.07517910 -2.64753628  1093624129
-2.64753628 0.94795698 -7.34292889  1064480079
-7.51650476 10.72488976 -2.64753628  1092845943
-2.64753628 0.94795698 -8.35431385  1064480079
-8.98587894 9.52759457 -2.64753628  1091967906
-2.64753628 0.94795704 -9.16301918  1064529084
-9.67604351 7.66271114 -2.49513626  1088128487
-2.49513626 0.95087790 -10.36977863  1064529084
-10.57984638 6.35686731 -2.49513626  1085986699
-2.49513626 0.95087790 -10.96689510  1064529084
-11.05661583 5.48581028 -2.49513626  1084871742
-2.49513626 0.95087790 -11.30850410  1064529084
-11.38663769 4.76312685 -2.49513626  1083345227
-2.49513626 0.95087790 -11.53403378  1064529084
-11.73267937 3.83238482 -2.49513626  1079835314
-2.49513626 0.95087790 -11.95492554  1064529084
-12.08914566 2.48905849 -2.49513626  1072925345
-2.49513626 0.95087790 -12.27281475  1064529084
-12.32182789 0.71796322 -2.49513626  1057292924
-2.49513626 0.95087790 -12.33855152  1064529084
-12.34212017 0.12241991 -2.49513626  3181126174
-2.49513626 0.95087790 -12.33966541  1064529084
-12.33364487 -0.47342587 -2.49513626  3215067598
-2.49513626 0.95087790 -12.23053551  1064529084
-12.20222855 -1.85702932 -2.49513626  3222268963
-2.49513626 0.95087790 -12.09837818  1064529084
-11.96632385 -3.02488708 -2.49513626  3226330318
-2.49513626 0.95087790 -11.80638409  1064529084
-11.68443966 -3.97703004 -2.49513626  3229959197
-2.49513626 0.95087790 -11.47887039  1064529084
-3.58386374 12.03605938 -2.64753628  1094689043
-2.64753628 0.94995815 -3.96937370  1064513653
-4.16060686 11.84905815 -2.64753628  1094408225
-2.64753628 0.94995815 -4.91428471  1064513653
-5.46635008 11.30618858 -2.64753628  1093592510
-2.64753628 0.94995815 -6.70278978  1064513653
-7.20755529 10.28406715 -2.64753628  1092791026
-2.64753628 0.94995815 -7.53479099  1064513653
-7.69551563 9.92420483 -2.64753628  1091996026
-2.64753628 0.94995815 -8.46838570  1064513653
-8.91286755 7.78701544 -2.49513626  1089151175
-2.49513626 0.95276952 -9.39538288  1064560820
-9.51000309 7.04533195 -2.49513626  1087203287
-2.49513626 0.95276952 -10.04556942  1064560820
-10.14498425 6.09558344 -2.49513626  1086181108
-2.49513626 0.95276952 -10.33590698  1064560820
-10.42736816 5.59882069 -2.49513626  1085129940
-2.49513626 0.95276952 -10.60215759  1064560820
-10.76596260 4.91638231 -2.49513626  1083687528
-2.49513626 0.95276952 -10.91861534  1064560820
-10.99070644 4.39103699 -2.49513626  1082578343
-2.49513626 0.95276952 -11.18983269  1064560820
-11.66305923 2.01242876 -2.49513626  1072269304
-2.49513626 0.95276958 -11.74659920  1064560820
-11.81536388 0.68845296 -2.49513626  1056904651
-2.49513626 0.95276952 -11.79100323  1064560820
-11.77299023 -1.21389079 -2.49513626  3216219218
-2.49513626 0.95276952 -11.72782421  1064560820
-11.70068359 -1.78070033 -2.49513626  3221881276
-2.49513626 0.95276952 -11.26409912  1064560820
-11.20417690 -3.81356311 -2.49513626  3229586351
-2.49513626 0.95276952 -11.07563782  1064560820
-11.00705528 -4.34988832 -2.49513626  1094307699
-2.64753628 0.95180804 -3.62747622  1064544689
-3.81212974 11.44248867 -2.64753628  1094062877
-2.64753628 0.95180804 -4.35995388  1064544689
-4.54036999 11.17354298 -2.64753628  1093768601
-2.64753628 0.95180804 -5.59654903  1064544689
-5.93749237 10.49806023 -2.64753628  1092932374
-2.64753628 0.95180804 -6.60057783  1064544689
-6.76217556 9.98678589 -2.64753628  1092247911
-2.64753628 0.95180804 -7.39066267  1064544689
-7.54309654 9.41088676 -2.64753628  1091605207
-2.64753628 0.95180804 -8.18886662  1064590155
-8.31466579 7.75015116 -2.49513626  1089712320
-2.49513626 0.95451802 -8.67904663  1064590155
-8.91077328 7.05667400 -2.49513626  1088238075
-2.49513626 0.95451802 -9.13326740  1064590155
-9.34629345 6.46879816 -2.49513626  1086670018
-2.49513626 0.95451802 -9.83605289  1064590155
-10.09953499 5.21515989 -2.49513626  1084336516
-2.49513626 0.95451802 -10.26214600  1064590155
-10.41411877 4.55460691 -2.49513626  1082940805
-2.49513626 0.95451802 -10.62180996  1064590155
-10.68556595 3.87519860 -2.49513626  1080156124
-2.49513626 0.95451802 -10.86014271  1064590155
-10.91273880 3.17972231 -2.49513626  1077209939
-2.49513626 0.95451802 -11.05348969  1064590155
-11.09469700 2.47107458 -2.49513626  1074967413
-2.49513626 0.95451802 -11.16847897  1064590155
-11.25743389 1.57121527 -2.49513626  1068623361
-2.49513626 0.95451802 -11.30216122  1064590155
-11.33519650 0.84372771 -2.49513626  1056242384
-2.49513626 0.95451802 -11.36270618  1064590155
-11.36373425 -0.25313076 -2.49513626  3202300204
-2.49513626 0.95451802 -11.33826637  1064590155
-11.32390881 -0.98367858 -2.49513626  3225263132
-2.49513626 0.95451802 -10.92455864  1064590155
-10.69999027 -3.83519268 -2.49513626  3230342123
-2.49513626 0.95451802 -3.13093114  1064573462
-3.31027651 11.11724567 -2.64753628  1093606597
-2.64753628 0.95352304 -4.19323683  1064573462
-4.88033295 10.52299500 -2.64753628  1093080813
-2.64753628 0.95352304 -5.21647692  1064573462
-5.54721928 10.18722916 -2.64753628  1092717518
-2.64753628 0.95352304 -5.87220860  1064573462
-6.03244019 9.90761375 -2.64753628  1092310360
-2.64753628 0.95352304 -6.80935717  1064573462
-7.25465488 9.05102539 -2.64753628  1090958267
-2.49513626 0.95613879 -7.24079227  1064617347
-7.37167406 8.07249451 -2.49513626  1090420074
-2.49513626 0.95613879 -7.62765265  1064617347
-7.75269318 7.70729160 -2.49513626  1089373565
-2.49513626 0.95613879 -8.57003593  1064617347
-8.67815304 6.64802885 -2.49513626  1086789125
-2.49513626 0.95613879 -9.27871037  1064617347
-9.45993233 5.47871161 -2.49513626  1084910758
-2.49513626 0.95613879 -9.71334648  1064617347
-9.79281139 4.85876656 -2.49513626  1083599556
-2.49513626 0.95613879 -10.08510876  1064617347
-10.21564960 3.89192247 -2.49513626  1078886779
-2.49513626 0.95613885 -10.49544811  1064617347
-10.54331112 2.88882995 -2.49513626  1076040319
-2.49513626 0.95613885 -10.67045403  1064617347
-10.70732117 2.20455098 -2.49513626  1068177550
-2.49513626 0.95613879 -10.91339779  1064617347
-10.93137932 0.10842627 -2.49513626  3201740810
-2.49513626 0.95613879 -10.91570759  1064617347
-10.89090347 -0.94606435 -2.49513626  3213853768
-2.49513626 0.95613885 -10.85480976  1064617347
-10.83254623 -1.47061694 -2.49513626  3218245547
-2.49513626 0.95613879 -10.77960587  1064617347
-10.74894238 -1.99174416 -2.49513626  3221915339
-2.49513626 0.95613879 -10.67927074  1064617347
-10.59853840 -2.67913318 -2.49513626  3226206448
-2.49513626 0.95613879 -10.40421581  1064617347
-10.29084110 -3.68854213 -2.49513626  3229000387
-2.49513626 0.95613879 -4.03823471  1064600208
-4.20533323 10.34904861 -2.64753628  1092834662
-2.64753628 0.95511723 -4.69992924  1064600208
-4.86241913 10.05706310 -2.64753628  1092506469
-2.64753628 0.95511723 -5.49936199  1064600208
-5.65514135 9.63363934 -2.64753628  1091934057
-2.64753628 0.95511723 -6.26320219  1064600208
-6.55765009 9.04349899 -2.64753628  1090744181
-2.49513626 0.95764530 -6.84529638  1064642622
-7.09917688 7.77409220 -2.49513626  1089803570
-2.49513626 0.95764530 -7.34569359  1064642622
-7.58460617 7.30127239 -2.49513626  1087448725
-2.49513626 0.95764530 -8.45932198  1064642622
-8.75193310 5.85136843 -2.49513626  1085716043
-2.49513626 0.95764530 -9.19398022  1064642622
-9.27533817 4.98025417 -2.49513626  1083871765
-2.49513626 0.95764530 -9.43081665  1064642622
-9.50489998 4.52677679 -2.49513626  1081073721
-2.49513626 0.95764530 -9.95356274  1064642622
-10.00746727 3.26886106 -2.49513626  1077021967
-2.49513626 0.95764530 -10.19703388  1064642622
-10.31151962 2.12305903 -2.49513626  1073379653
-2.49513626 0.95764530 -10.37450790  1064642622
-10.40197372 1.62289882 -2.49513626  1067763064
-2.49513626 0.95764530 -10.46818066  1064642622
-10.48483276 0.95033413 -2.49513626  1049375625
-2.49513626 0.95764530 -10.52761364  1064642622
-10.52520275 -0.23445217 -2.49513626  3201220716
-2.49513626 0.95764530 -10.48831654  1064642622
-10.40797424 -1.58396590 -2.49513626  3221579748
-2.49513626 0.95764530 -10.28450871  1064642622
-10.24696255 -2.41550112 -2.49513626  3223658580
-2.49513626 0.95764530 -10.11843300  1064642622
-10.07033253 -3.06972861 -2.49513626  3227064928
-2.49513626 0.95764530 -9.85198402  1064642622
-9.79098034 -3.86930656 -2.49513626  3229669406
-2.49513626 0.95764530 -3.40449095  1064625134
-3.56850648 10.16280174 -2.64753628  1092593883
-2.64753628 0.95660293 -4.21492863  1064625134
-4.37390804 9.84305382 -2.64753628  1092298669
-2.64753628 0.95660293 -4.99809361  1064625134
-5.15100336 9.45959568 -2.64753628  1091961325
-2.64753628 0.95660293 -5.45278025  1064625134
-5.60157108 9.19995689 -2.64753628  1090747576
-2.49513626 0.95904911 -6.09050322  1064666174
-6.22041988 8.02190781 -2.49513626  1089461883
-2.49513626 0.95904911 -6.96489429  1064666174
-7.08284092 7.27172756 -2.49513626  1088750709
-2.49513626 0.95904911 -7.31320524  1064666174
-7.42555332 6.92140388 -2.49513626  1088004541
-2.49513626 0.95904911 -7.64447117  1064666174
-7.85546064 6.42933989 -2.49513626  1086958247
-2.49513626 0.95904911 -8.05831242  1064666174
-8.25280952 5.91065168 -2.49513626  1085573921
-2.49513626 0.95904911 -8.61597252  1064666174
-8.86499023 4.94536495 -2.49513626  1083812443
-2.49513626 0.95904911 -9.01956177  1064666174
-9.16478348 4.36479378 -2.49513626  1082584939
-2.49513626 0.95904911 -9.30051136  1064666174
-9.36477184 3.91736317 -2.49513626  1080511187
-2.49513626 0.95904911 -9.54292488  1064666174
-9.64936638 3.15189195 -2.49513626  1077920133
-2.49513626 0.95904911 -9.74580479  1064666174
-9.87150669 2.36601663 -2.49513626  1070091277
-2.49513626 0.95904911 -10.07492256  1064666174
-10.09359360 1.07891071 -2.49513626  1054525583
-2.49513626 0.95904911 -10.14765835  1064666174
-10.13604164 -0.55256295 -2.49513626  3210798278
-2.49513626 0.95904911 -10.09755802  1064666174
-10.05881977 -1.36557674 -2.49513626  3217260061
-2.49513626 0.95904911 -9.95013142  1064666174
-9.91649437 -2.16975164 -2.49513626  3222605675
-2.49513626 0.95904911 -9.84152794  1064666174
-9.75636101 -2.80322504 -2.49513626  3226555801
-2.49513626 0.95904911 -9.49944782  1064666174
-9.44062614 -3.73084950 -2.49513626  3229120426
-2.49513626 0.95904911 -2.80646873  1064648417
-3.12721920 9.91610432 -2.64753628  1092295720
-2.64753628 0.95799071 -3.91421556  1064648417
-4.06874180 9.56838322 -2.64753628  1092021104
-2.64753628 0.95799071 -4.52581549  1064648417
-4.82474327 9.21034622 -2.64753628  1091705508
-2.64753628 0.95799065 -5.09602261  1064688172
-5.23647165 8.29661942 -2.49816465  1090730133
-2.49513626 0.96036029 -5.49405432  1064688172
-6.00467587 7.74368048 -2.49513626  1089776737
-2.49513626 0.96036023 -6.37142563  1064688171
-6.60773134 7.23592472 -2.49513626  1088691676
-2.49513626 0.96036029 -6.94926929  1064688172
-7.37932920 6.44718695 -2.49513626  1087011731
-2.49513626 0.96036029 -7.58300209  1064688172
-7.96657276 5.70564985 -2.49513626  1085437008
-2.49513626 0.96036023 -8.14607525  1064688171
-8.23267555 5.31448650 -2.49513626  1082875426
-2.49513626 0.96036023 -8.84691620  1064688172
-8.91358280 4.07047701 -2.49513626  1081822128
-2.49513626 0.96036029 -9.15698719  1064688171
-9.36245060 2.89227128 -2.49513626  1076850694
-2.49513626 0.96036029 -9.49113560  1064688172
-9.52912712 2.28395224 -2.49513626  1072243307
-2.49513626 0.96036023 -9.68188953  1064688171
-9.70494556 1.35453165 -2.49513626  1065701269
-2.49513626 0.96036023 -9.75901222  1064688171
-9.77198696 0.72737026 -2.49513626  1058139001
-2.49513626 0.96036023 -9.79033089  1064688171
-9.79570198 0.25487533 -2.49513626  1036454858
-2.49513626 0.96036023 -9.79883003  1064688171
-9.79180527 -0.37585756 -2.49513626  3205008583
-2.49513626 0.96036023 -9.76225281  1064688172
-9.70994473 -1.31821358 -2.49513626  3221621821
-2.49513626 0.96036023 -9.50018978  1064688171
-9.32601070 -3.00769925 -2.49513626  3226079978
-2.49513626 0.96036029 -9.16997337  1064688171
-9.05405045 -3.74765182 -2.49513626  1092227945
-2.64753628 0.95928973 -3.48093510  1064670211
-4.22733545 9.11500263 -2.64753628  1091540593
-2.64753628 0.95928973 -4.79370117  1064708762
-5.05403471 8.00765705 -2.49513626  1090362331
-2.49513626 0.96158755 -5.30913401  1064708762
-5.80256891 7.48304367 -2.49513626  1089237033
-2.49513626 0.96158755 -6.04039526  1064708762
-6.15697861 7.19426632 -2.49513626  1087967342
-2.49513626 0.96158755 -6.71537161  1064708762
-6.82194948 6.56710243 -2.49513626  1086807479
-2.49513626 0.96158755 -7.42334938  1064708762
-7.51700115 5.75851202 -2.49513626  1084779111
-2.49513626 0.96158755 -7.95557642  1064708762
-8.03719997 5.00691509 -2.49513626  1083416334
-2.49513626 0.96158749 -8.54914665  1064708762
-8.73570156 3.65421748 -2.49513626  1080088464
-2.49513626 0.96158755 -9.09113979  1064708762
-9.20839596 2.20707965 -2.49513626  1073987580
-2.49513626 0.96158755 -9.27466202  1064708762
-9.33131599 1.61009276 -2.49513626  1069209505
-2.49513626 0.96158755 -9.37829590  1064708762
-9.43054771 0.85477537 -2.49513626  1057817131
-2.49513626 0.96158755 -9.46080780  1064708762
-9.46600151 0.24629676 -2.49513626  3193434163
-2.49513626 0.96158755 -9.46223354  1064708762
-9.44564152 -0.66754729 -2.49513626  3212353725
-2.49513626 0.96158755 -9.38313007  1064708762
-9.33727360 -1.57517087 -2.49513626  3220175774
-2.49513626 0.96158755 -9.25036144  1064708762
-9.21658993 -2.17261338 -2.49513626  3222570419
-2.49513626 0.96158749 -9.10098648  1064708762
-9.01211548 -2.90646601 -2.49513626  3226237694
-2.49513626 0.96158755 -8.86133099  1064708762
-8.80646515 -3.48023462 -2.49513626  3228026583
-2.49513626 0.96158749 -2.62332487  1064690655
-3.07194471 9.22075081 -2.64753628  1091632353
-2.64753628 0.96050829 -3.65878320  1064690655
-3.58429670 8.42912865 -2.49513626  1090907382
-2.49513626 0.96273869 -4.11915064  1064728075
-4.25028563 8.11372089 -2.49513626  1090461845
-2.49513626 0.96273869 -4.76346922  1064728075
-4.88876438 7.74579811 -2.49513626  1089818831
-2.49513626 0.96273869 -5.72858667  1064728075
-5.84287119 7.05395317 -2.49513626  1088133017
