# .PCD v0.7 - Point Cloud Data file format
VERSION 0.7
FIELDS x y z intensity
SIZE 4 4 4 4
TYPE F F F F
COUNT 1 1 1 1
WIDTH 1019
HEIGHT 1
VIEWPOINT 0 0 0 1 0 0 0
POINTS 1019
DATA ascii
3.11979055 -7.72839355 -2.49513626  3237325515
-2.49513626 0.96579927 3.48974991  1064779423
3.85154438 -7.39099121 -2.49513626  3236172821
-2.49513626 0.96579927 4.43412113  1064779423
4.77007675 -6.83429193 -2.49513626  3235228105
-2.49513626 0.96579927 5.50929546  1064779423
5.70802069 -6.07286310 -2.49513626  3233766581
-2.49513626 0.96579927 5.90081406  1064779423
5.99491882 -5.78982782 -2.49513626  3233163385
-2.49513626 0.96579927 6.52603054  1064779423
6.60873985 -5.07796574 -2.49513626  3231422443
-2.49513626 0.96579927 6.84648991  1064779423
7.06823301 -4.41602325 -2.49513626  3230246398
-2.49513626 0.96579927 7.27344704  1064779423
7.52053499 -3.59203553 -2.49513626  3227392517
-2.49513626 0.96579927 7.68538904  1064779423
7.73636293 -3.09998035 -2.49513626  3224786404
-2.49513626 0.96579927 7.92003584  1064779423
7.96083593 -2.46703601 -2.49513626  3222102631
-2.49513626 0.96579927 8.10325813  1064779423
8.13362312 -1.81806970 -2.49513626  3215271111
-2.49513626 0.96579927 8.25359440  1064779423
8.27117920 -1.02409840 -2.49513626  3208759117
-2.49513626 0.96579927 8.31997776  1064779423
8.33389091 -0.08623311 -2.49513626  1050815286
-2.49513626 0.96579927 8.32212734  1064779423
8.30326653 0.71897382 -2.49513626  1062882419
-2.49513626 0.96579927 8.27577496  1064779423
8.25880337 1.11953080 -2.49513626  1067471408
-2.49513626 0.96579927 8.21842289  1064779423
8.19502544 1.51746988 -2.49513626  1070800513
-2.49513626 0.96579927 8.14185143  1064779423
8.11208630 1.91186047 -2.49513626  1073919537
-2.49513626 0.96579927 8.04624271  1064779423
7.97203588 2.43059397 -2.49513626  1076085520
-2.49513626 0.96579927 7.84521580  1064779423
7.70005655 3.18909025 -2.49513626  1079248111
-2.49513626 0.96579927 -8.08105183  1064794642
-8.08579540 0.22901106 -2.49513626  3171030132
-2.49513626 0.96670640 -8.08741093  1064794642
-8.08374596 -0.29248780 -2.49513626  3201856303
-2.49513626 0.96670640 -8.07011795  1064794642
-8.04809952 -0.81276906 -2.49513626  3214521934
-2.49513626 0.96670640 -7.90539646  1064794642
-7.84604406 -1.96777046 -2.49513626  3221619682
-2.49513626 0.96670640 -7.70294189  1064794642
-7.61934471 -2.71626544 -2.49513626  3225253926
-2.49513626 0.96670640 -7.47912502  1064794642
-7.42848492 -3.20158219 -2.49513626  3227262644
-2.49513626 0.96670640 -7.20675278  1064794642
-7.02073336 -4.01768589 -2.49513626  3229887409
-2.49513626 0.96670640 -6.88757610  1064794642
-6.81830168 -4.35238600 -2.49513626  3231255487
-2.49513626 0.96670640 -6.44574308  1064794642
-6.28485394 -5.09245634 -2.49513626  3232116196
-2.49513626 0.96670640 -6.03132677  1064794642
-5.85443830 -5.58194017 -2.49513626  3233321345
-2.49513626 0.96670640 -5.38600826  1064794642
-5.28802681 -6.12121630 -2.49513626  3234413410
-2.49513626 0.96670640 -4.88260508  1064794642
-4.77801275 -6.52710438 -2.49513626  3235382192
-2.49513626 0.96670640 -4.23698330  1064794642
-4.01266146 -7.02360725 -2.49513626  3236218652
-2.49513626 0.96670640 -3.66843414  1064794642
-3.55174899 -7.26756811 -2.49513626  3236584760
-2.49513626 0.96670640 -3.31562901  1064794642
-3.19626498 -7.43077326 -2.49513626  3237016906
-2.49513626 0.96670640 -2.21409702  1064794642
-2.08839846 -7.81480026 -2.49513626  3237806857
-2.49513626 0.96670640 -1.58050263  1064794642
-1.32395875 -7.97995234 -2.49513626  3238002957
-2.49513626 0.96670640 -0.93664289  1064794642
-0.80700767 -8.04867935 -2.49513626  3238066275
-2.49513626 0.96670640 -0.54714257  1064794642
-0.41697654 -8.07828140 -2.49513626  3238090719
-2.49513626 0.96670640 -0.15635547  1064794642
0.10442037 -8.08836079 -2.49513626  3238080134
-2.49513626 0.96670640 0.62538952  1064794642
0.88503402 -8.04047298 -2.49513626  3237829518
-2.49513626 0.96670640 1.78477967  1064794642
2.28945041 -7.75828028 -2.49513626  3237416252
-2.49513626 0.96670640 2.53835082  1064794642
2.78460646 -7.59463310 -2.49513626  3237056375
-2.49513626 0.96670640 3.02796769  1064794642
3.14848566 -7.45114374 -2.49513626  3236743191
-2.49513626 0.96670640 3.38703799  1064794642
3.50500751 -7.29022932 -2.49513626  3235872736
-2.49513626 0.96670640 4.19264936  1064794642
4.30361366 -6.84918976 -2.49513626  3235290873
-2.49513626 0.96670640 4.84109402  1064794642
4.94492579 -6.40157843 -2.49513626  3234481648
-2.49513626 0.96670640 5.14870739  1064794642
5.34714365 -6.06964302 -2.49513626  3233772016
-2.49513626 0.96670640 5.54001951  1064794642
5.90830135 -5.52489614 -2.49513626  3232406596
-2.49513626 0.96670640 6.25202560  1064794642
6.33395290 -5.03125668 -2.49513626  3230898944
-2.49513626 0.96670640 6.71847200  1064794642
6.92839384 -4.17490864 -2.49513626  3229745536
-2.49513626 0.96670640 7.05937099  1064794642
7.12211657 -3.83509564 -2.49513626  3227951136
-2.49513626 0.96670640 7.45918798  1064794642
7.50866127 -3.00874019 -2.49513626  3224434701
-2.49513626 0.96670640 7.72652769  1064794642
7.76412153 -2.26956224 -2.49513626  3221829917
-2.49513626 0.96670640 7.86475801  1064794642
7.92164707 -1.63707530 -2.49513626  3217108128
-2.49513626 0.96670640 7.97030115  1064794642
8.02773666 -0.99395674 -2.49513626  3206205255
-2.49513626 0.96670640 8.08170223  1064794642
8.08620358 -0.21407205 -2.49513626  1050502482
-2.49513626 0.96670640 8.06908226  1064794642
8.03219700 0.95723397 -2.49513626  1067162165
-2.49513626 0.96670640 7.97653341  1064794642
7.95382595 1.47280681 -2.49513626  1072530419
-2.49513626 0.96670640 7.77442169  1064794642
7.73740053 2.35905600 -2.49513626  1077828603
-2.49513626 0.96670640 7.47342443  1064794642
7.42255926 3.21529627 -2.49513626  1051897665
-2.49513626 0.96756452 -7.85345602  1064809039
-7.85602236 0.09580598 -2.49513626  3189851059
-2.49513626 0.96756452 -7.83824015  1064809039
-7.82855368 -0.66330475 -2.49513626  3209303833
-2.49513626 0.96756446 -7.80310631  1064809039
-7.78733587 -1.04097700 -2.49513626  3215281789
-2.49513626 0.96756446 -7.70407772  1064809039
-7.65041351 -1.78813851 -2.49513626  3220480806
-2.49513626 0.96756446 -7.58879662  1064809039
-7.55502415 -2.15587997 -2.49513626  3224401252
-2.49513626 0.96756452 -7.31152344  1064809039
-7.26422215 -2.99288297 -2.49513626  3226848128
-2.49513626 0.96756452 -7.05627871  1064809038
-6.99967003 -3.56802821 -2.49513626  3228740887
-2.49513626 0.96756446 -6.81900072  1064809039
-6.75521326 -4.01165247 -2.49513626  3230313534
-2.49513626 0.96756452 -6.48267889  1064809038
-6.33623457 -4.64525604 -2.49513626  3231180205
-2.49513626 0.96756452 -6.18320322  1064809039
-6.02374554 -5.04388189 -2.49513626  3232005527
-2.49513626 0.96756452 -5.85802364  1064809039
-5.68621683 -5.42154884 -2.49513626  3232786031
-2.49513626 0.96756446 -5.41748142  1064809038
-5.13608074 -5.94532967 -2.49513626  3233865743
-2.49513626 0.96756452 -4.53792620  1064809039
-4.43395662 -6.48585320 -2.49513626  3235260894
-2.49513626 0.96756452 -4.00683212  1064809047
-3.78689027 -6.88372564 -2.49513626  3235910192
-2.49513626 0.96756452 -3.44969082  1064809039
-3.22035813 -7.16627932 -2.49513626  3236464138
-2.49513626 0.96756452 -2.87016296  1064809039
-2.39294267 -7.48332119 -2.49513626  3236997986
-2.49513626 0.96756452 -2.02839065  1064809039
-1.90577841 -7.62196016 -2.49513626  3237272231
-2.49513626 0.96756452 -1.65909207  1064809038
-1.41068482 -7.72892189 -2.49513626  3237521135
-2.49513626 0.96756452 -0.90972954  1064809038
-0.53142083 -7.83861303 -2.49513626  3237680064
-2.49513626 0.96756452 -0.02522539  1064809039
0.22804233 -7.85329628 -2.49513626  3237685177
-2.49513626 0.96756452 0.48107681  1064809039
0.60741973 -7.83309078 -2.49513626  3237629985
-2.49513626 0.96756452 1.11088932  1064809038
1.36102867 -7.73782110 -2.49513626  3237404742
-2.49513626 0.96756446 1.60974574  1064809039
2.10191226 -7.57021761 -2.49513626  3236784344
-2.49513626 0.96756452 2.94096160  1064809039
3.17427516 -7.18681097 -2.49513626  3236074884
-2.49513626 0.96756452 3.63076997  1064809039
3.74260974 -6.90790510 -2.49513626  3235451861
-2.49513626 0.96756452 4.07217789  1064809039
4.17995453 -6.65238523 -2.49513626  3235033418
-2.49513626 0.96756452 4.49665213  1064809039
4.80283928 -6.21763611 -2.49513626  3234100749
-2.49513626 0.96756452 5.00076675  1064809039
5.28785610 -5.81075239 -2.49513626  3233231166
-2.49513626 0.96756452 5.56257486  1064809039
5.65128708 -5.45795155 -2.49513626  3232085314
-2.49513626 0.96756452 6.07238102  1064809039
6.45404339 -4.48013163 -2.49513626  3230179811
-2.49513626 0.96756446 6.91747046  1064809038
6.97661543 -3.61290407 -2.49513626  3227516841
-2.49513626 0.96756452 7.24485683  1064809039
7.29290581 -2.92228603 -2.49513626  3224599145
-2.49513626 0.96756452 7.38331652  1064809038
7.42564964 -2.56631851 -2.49513626  3223097325
-2.49513626 0.96756446 7.57558346  1064809038
7.63877296 -1.83723199 -2.49513626  3218825126
-2.49513626 0.96756452 7.71865463  1064809039
7.74128342 -1.34119475 -2.49513626  3214650742
-2.49513626 0.96756452 7.79706764  1064809039
7.83462143 -0.58734924 -2.49513626  3193235768
-2.49513626 0.96756452 7.85618639  1064809038
7.85092831 0.29858065 -2.49513626  1057828736
-2.49513626 0.96756452 7.81537533  1064809039
7.78540277 1.05535841 -2.49513626  1071047120
-2.49513626 0.96756452 7.64709520  1064809039
7.61705112 1.92529964 -2.49513626  1074454147
-2.49513626 0.96756452 7.51507425  1064809039
7.47716427 2.41211057 -2.49513626  1077962511
-2.49513626 0.96756452 7.20927668  1064809039
-7.62849283 0.33919582 -2.49513626  1035908014
-2.49513626 0.96837741 -7.63103819  1064822677
-7.62559509 -0.39907852 -2.49513626  3214977636
-2.49513626 0.96837741 -7.48778343  1064822677
-7.46267509 -1.61785316 -2.49513626  3220030690
-2.49513626 0.96837741 -7.23303986  1064822677
-7.19264269 -2.56414843 -2.49513626  3224076580
-2.49513626 0.96837741 -7.10625029  1064822677
-7.06027889 -2.90885544 -2.49513626  3225513246
-2.49513626 0.96837741 -6.91140556  1064822677
-6.80315399 -3.46785402 -2.49513626  3227840197
-2.49513626 0.96837741 -6.62755680  1064822677
-6.36939430 -4.21186113 -2.49513626  3230484363
-2.49513626 0.96837741 -6.15834236  1064822677
-6.08476686 -4.61352110 -2.49513626  3231105166
-2.49513626 0.96837741 -5.93288660  1064822677
-5.85462761 -4.90227365 -2.49513626  3232087813
-2.49513626 0.96837741 -5.44091892  1064822677
-5.35384369 -5.44475222 -2.49513626  3232999927
-2.49513626 0.96837741 -4.99188328  1064822677
-4.80301666 -5.93632793 -2.49513626  3233993066
-2.49513626 0.96837741 -4.51043367  1064822677
-4.41052294 -6.23347902 -2.49513626  3234589372
-2.49513626 0.96837741 -3.99970245  1064822677
-3.89433002 -6.56834507 -2.49513626  3235130148
-2.49513626 0.96837741 -3.68057323  1064822677
-3.35284352 -6.86056805 -2.49513626  3235724601
-2.49513626 0.96837741 -3.12994599  1064822677
-3.01726675 -7.01463223 -2.49513626  3236036311
-2.49513626 0.96837741 -2.67464209  1064822677
-2.55900192 -7.19447422 -2.49513626  3236397924
-2.49513626 0.96837741 -2.32576036  1064822677
-2.09010482 -7.34441471 -2.49513626  3236696481
-2.49513626 0.96837741 -1.85227263  1064822677
-1.73261714 -7.43686676 -2.49513626  3236930732
-2.49513626 0.96837741 -1.37108147  1064822677
-1.24981463 -7.53305387 -2.49513626  3237063632
-2.49513626 0.96837741 -0.88418931  1064822677
-0.76181310 -7.59793329 -2.49513626  3237218096
-2.49513626 0.96837741 -0.27064750  1064822677
-0.14760058 -7.63460302 -2.49513626  3237232641
-2.49513626 0.96837741 0.34465116  1064822677
0.46756828 -7.62170172 -2.49513626  3237078501
-2.49513626 0.96837741 1.32281625  1064822677
1.56455183 -7.47402954 -2.49513626  3236655654
-2.49513626 0.96837741 2.16123462  1064822677
2.39619422 -7.25032377 -2.49513626  3236260617
-2.49513626 0.96837741 2.97216129  1064822677
3.19735432 -6.93439722 -2.49513626  3235657984
-2.49513626 0.96837741 3.41922045  1064822677
3.52883577 -6.77172518 -2.49513626  3235305675
-2.49513626 0.96837741 3.74529290  1064822677
4.16629601 -6.39929199 -2.49513626  3234207693
-2.49513626 0.96837741 4.66799784  1064822677
4.76480103 -5.96704435 -2.49513626  3233576572
-2.49513626 0.96837741 4.95467567  1064822677
5.57742071 -5.21548986 -2.49513626  3231584913
-2.49513626 0.96837741 5.90189695  1064822677
5.97923565 -4.74949503 -2.49513626  3230568073
-2.49513626 0.96837741 6.27284527  1064822677
6.34222078 -4.25266790 -2.49513626  3229928413
-2.49513626 0.96837741 6.60306549  1064822677
6.78074551 -3.51147199 -2.49513626  3226640617
-2.49513626 0.96837741 7.04145622  1064822677
7.25644207 -2.37760496 -2.49513626  3221822999
-2.49513626 0.96837741 7.36289597  1064822677
7.42431211 -1.78565109 -2.49513626  3218421493
-2.49513626 0.96837741 7.47801542  1064822677
7.50195408 -1.42465699 -2.49513626  3215383147
-2.49513626 0.96837741 7.57816505  1064822677
7.59230280 -0.81601888 -2.49513626  3207695069
-2.49513626 0.96837741 7.62910700  1064822677
7.63562107 -0.07900792 -2.49513626  1026854110
-2.49513626 0.96837741 7.63420010  1064822677
7.63051414 0.29019791 -2.49513626  1059627710
-2.49513626 0.96837741 7.54930878  1064822677
7.50839138 1.39032650 -2.49513626  1070651751
-2.49513626 0.96837741 7.40320158  1064822677
7.37207556 1.99034297 -2.49513626  1075186288
-2.49513626 0.96837741 7.22850513  1064822677
7.18789101 2.57743549 -2.49513626  1077608504
-2.49513626 0.96837741 7.00687647  1064822677
-7.42342281 0.21025126 -2.49513626  1035564928
-2.49513626 0.96914852 -7.42634344  1064835614
-7.42490721 -0.14886138 -2.49513626  3213696715
-2.49513626 0.96914852 -7.32538080  1064835614
-7.23149538 -1.69022417 -2.49513626  3219602904
-2.49513626 0.96914852 -7.07193279  1064835614
-6.95407534 -2.60618854 -2.49513626  3224702552
-2.49513626 0.96914852 -6.81995821  1064835614
-6.77169418 -3.04886413 -2.49513626  3226080909
-2.49513626 0.96914852 -6.50423145  1064835614
-6.38531542 -3.79198503 -2.49513626  3229171255
-2.49513626 0.96914852 -6.19453621  1064835614
-5.84462643 -4.58167458 -2.49513626  3231603775
-2.49513626 0.96914852 -5.45676136  1064835614
-5.37485409 -5.12467813 -2.49513626  3232153002
-2.49513626 0.96914852 -5.12083244  1064835614
-4.94479799 -5.54079199 -2.49513626  3233011004
-2.49513626 0.96914852 -4.67115974  1064835614
-4.48263073 -5.92092657 -2.49513626  3234222501
-2.49513626 0.96914852 -3.99136806  1064835614
-3.78741837 -6.38802242 -2.49513626  3234748428
-2.49513626 0.96914852 -3.57953095  1064835614
-3.47417688 -6.56365108 -2.49513626  3235106092
-2.49513626 0.96914852 -3.26079178  1064835614
-2.93443251 -6.82205868 -2.49513626  3235723305
-2.49513626 0.96914852 -2.60121536  1064835614
-2.37564158 -7.03617334 -2.49513626  3236271756
-2.49513626 0.96914852 -1.68505108  1064835614
-1.56824386 -7.25892401 -2.49513626  3236499581
-2.49513626 0.96914852 -1.33343852  1064835614
-1.21550286 -7.32625294 -2.49513626  3236628835
-2.49513626 0.96914852 -0.62169051  1064835614
-0.50232178 -7.40939188 -2.49513626  3236779054
-2.49513626 0.96914852 -0.26321745  1064835614
-0.14354843 -7.42500877 -2.49513626  3236799680
-2.49513626 0.96914852 0.09586632  1064835614
0.21555528 -7.42327023 -2.49513626  3236783887
-2.49513626 0.96914852 0.45473388  1064835614
0.57415915 -7.40417051 -2.49513626  3236731717
-2.49513626 0.96914852 0.93141788  1064835614
1.16843426 -7.33390570 -2.49513626  3236564286
-2.49513626 0.96914852 1.52160013  1064835614
1.75512290 -7.21601725 -2.49513626  3236162933
-2.49513626 0.96914852 2.55649638  1064835614
2.66855621 -6.93038511 -2.49513626  3235667435
-2.49513626 0.96914852 2.89056754  1064835614
3.00045991 -6.79327726 -2.49513626  3235368725
-2.49513626 0.96914852 3.53767538  1064835614
3.64247394 -6.47176933 -2.49513626  3234672859
-2.49513626 0.96914852 3.95107079  1064835614
4.05191755 -6.22361088 -2.49513626  3234138662
-2.49513626 0.96914852 4.25042629  1064835614
4.34804201 -6.02045965 -2.49513626  3233550797
-2.49513626 0.96914852 4.63399172  1064835614
4.72693491 -5.72777939 -2.49513626  3232573769
-2.49513626 0.96914852 5.17275667  1064835614
5.25798321 -5.24452257 -2.49513626  3232044860
-2.49513626 0.96914852 5.42430544  1064835614
5.58498907 -4.89482212 -2.49513626  3231300521
-2.49513626 0.96914852 5.73987150  1064835614
5.81508875 -4.61910582 -2.49513626  3230714613
-2.49513626 0.96914852 6.03158188  1064835614
6.29822445 -3.93494487 -2.49513626  3228044893
-2.49513626 0.96914852 6.53868675  1064835614
6.59459257 -3.41507077 -2.49513626  3226713001
-2.49513626 0.96914852 6.80094242  1064835614
6.84814739 -2.87302828 -2.49513626  3224422662
-2.49513626 0.96914852 6.93719673  1064835614
6.97902250 -2.53862429 -2.49513626  3221576304
-2.49513626 0.96914852 7.24754667  1064835614
7.27271938 -1.50296903 -2.49513626  3216071054
-2.49513626 0.96914852 7.31738758  1064835614
7.33687592 -1.14963341 -2.49513626  3205374146
-2.49513626 0.96914852 7.41966295  1064835614
7.42379856 -0.19653574 -2.49513626  3181206971
-2.49513626 0.96914852 7.40807724  1064835614
7.35909414 0.99756962 -2.49513626  1066326802
-2.49513626 0.96914852 7.32311153  1064835614
7.30226278 1.35215735 -2.49513626  1071255297
-2.49513626 0.96914852 7.19996023  1064835614
7.13755560 2.05101752 -2.49513626  1074437273
-2.49513626 0.96914852 7.03006029  1064835614
6.81451607 2.95190644 -2.49513626  1050959059
-2.49513626 0.96988094 -7.22399044  1064847902
-7.22634983 0.08812660 -2.49513626  3169349227
-2.49513626 0.96988094 -7.22216177  1064847902
-7.20998478 -0.49398291 -2.49513626  3208242291
-2.49513626 0.96988094 -7.17767429  1064847902
-7.10850716 -1.30270028 -2.49513626  3220141708
-2.49513626 0.96988094 -6.94948006  1064847902
-6.84548950 -2.31671500 -2.49513626  3223015433
-2.49513626 0.96988094 -6.72549343  1064847902
-6.68198299 -2.75299883 -2.49513626  3226165669
-2.49513626 0.96988094 -6.38489532  1064847902
-6.32949400 -3.48789477 -2.49513626  3229146411
-2.49513626 0.96988094 -6.02811861  1064847902
-5.82837248 -4.27293396 -2.49513626  3230575807
-2.49513626 0.96988094 -5.46542168  1064847902
-5.38849401 -4.81581163 -2.49513626  3231683981
-2.49513626 0.96988094 -4.81195402  1064847902
-4.72441626 -5.46880245 -2.49513626  3232852608
-2.49513626 0.96988094 -4.54566813  1064847902
-4.45451546 -5.69079828 -2.49513626  3233308970
-2.49513626 0.96988094 -4.26876163  1064847902
-4.17420483 -5.89948225 -2.49513626  3233737088
-2.49513626 0.96988094 -3.88413811  1064847902
-3.17319226 -6.49297667 -2.49513626  3234947731
-2.49513626 0.96988094 -2.85559797  1064847902
-2.74821401 -6.68395233 -2.49513626  3235421232
-2.49513626 0.96988094 -2.08989930  1064847902
-1.86581111 -6.98188019 -2.49513626  3235986059
-2.49513626 0.96988094 -1.52611315  1064847902
-1.41204810 -7.08759642 -2.49513626  3236135044
-2.49513626 0.96988094 -1.18284786  1064847902
-0.95241284 -7.16385412 -2.49513626  3236279402
-2.49513626 0.96988094 -0.72099477  1064847902
-0.60498875 -7.20151758 -2.49513626  3236346644
-2.49513626 0.96988094 -0.25614390  1064847902
0.09329180 -7.22628546 -2.49513626  3236374968
-2.49513626 0.96988094 1.13704383  1064847902
1.25194097 -7.11762238 -2.49513626  3236107947
-2.49513626 0.96988094 1.59455287  1064847902
1.70797157 -7.02216053 -2.49513626  3235537276
-2.49513626 0.96988094 2.70523953  1064847901
2.81291461 -6.65704441 -2.49513626  3235089273
-2.49513626 0.96988094 3.33975935  1064847902
3.44263363 -6.35422468 -2.49513626  3234433133
-2.49513626 0.96988094 4.04017639  1064847902
4.13623905 -5.92616367 -2.49513626  3232914791
-2.49513626 0.96988094 4.94955111  1064847902
5.03378963 -5.18544769 -2.49513626  3231928554
-2.49513626 0.96988094 5.27858019  1064847902
5.43494844 -4.76332235 -2.49513626  3231029854
-2.49513626 0.96988094 5.58567047  1064847902
5.65886545 -4.49501371 -2.49513626  3230264754
-2.49513626 0.96988094 6.00240088  1064847902
6.06649685 -3.92753315 -2.49513626  3228481350
-2.49513626 0.96988094 6.52122116  1064847902
6.66417122 -2.79584289 -2.49513626  3223656382
-2.49513626 0.96988094 6.86763763  1064847902
6.93660307 -2.02766705 -2.49513626  3217672800
-2.49513626 0.96988094 7.09999514  1064847902
7.12080669 -1.23369563 -2.49513626  3210958126
-2.49513626 0.96988094 7.18550301  1064847902
7.19701910 -0.65636563 -2.49513626  3201899156
-2.49513626 0.96988094 7.22650003  1064847902
7.22515488 0.15820774 -2.49513626  1049403069
-2.49513626 0.96988094 7.21630096  1064847902
7.20905972 0.50730157 -2.49513626  1059035550
-2.49513626 0.96988094 7.17610693  1064847902
7.16139030 0.97076988 -2.49513626  1066075280
-2.49513626 0.96988094 7.08395386  1064847902
6.87785816 2.21877408 -2.49513626  1075123238
-2.49513626 0.96988094 6.80276108  1064847902
6.76255798 2.54866672 -2.49513626  1076951855
-2.49513626 0.96988094 -7.03623295  1064859587
-7.03670168 -0.02762651 -2.49513626  3196208590
-2.49513626 0.97057742 -7.02713871  1064859587
-7.00114632 -0.70703816 -2.49513626  3209813574
-2.49513626 0.97057742 -6.94103861  1064859587
-6.90014410 -1.37983871 -2.49513626  3218807782
-2.49513626 0.97057742 -6.79689312  1064859587
-6.73464203 -2.03973985 -2.49513626  3221846364
-2.49513626 0.97057742 -6.66539335  1064859587
-6.58921242 -2.46944904 -2.49513626  3223638628
-2.49513626 0.97057742 -6.41640186  1064859587
-6.36899900 -2.99195528 -2.49513626  3225815010
-2.49513626 0.97057742 -6.26924372  1064859587
-6.21691561 -3.29634547 -2.49513626  3227081276
-2.49513626 0.97057742 -6.10742664  1064859587
-5.99159002 -3.69009233 -2.49513626  3228717327
-2.49513626 0.97057742 -5.86952496  1064859587
-5.80620050 -3.97542191 -2.49513626  3229950707
-2.49513626 0.97057742 -5.60723448  1064859587
-5.32163191 -4.60392904 -2.49513626  3231059256
-2.49513626 0.97057742 -5.17046022  1064859587
-5.09285021 -4.85580158 -2.49513626  3231579667
-2.49513626 0.97057742 -4.93367338  1064859587
-4.85215902 -5.09632206 -2.49513626  3232235695
-2.49513626 0.97057742 -4.60012245  1064859587
-4.15645552 -5.67801237 -2.49513626  3233272084
-2.49513626 0.97057742 -3.97126389  1064859587
-3.87711072 -5.87230349 -2.49513626  3233796277
-2.49513626 0.97057742 -3.39172196  1064859587
-3.29189563 -6.21927357 -2.49513626  3234377819
-2.49513626 0.97057742 -2.88430810  1064859587
-2.78047132 -6.46412563 -2.49513626  3234873958
-2.49513626 0.97057742 -2.57065749  1064859587
-2.46473646 -6.59097958 -2.49513626  3235207193
-2.49513626 0.97057742 -2.14323425  1064859587
-1.92607307 -6.76802588 -2.49513626  3235541880
-2.49513626 0.97057742 -1.48596311  1064859587
-1.26347864 -6.92239428 -2.49513626  3235820656
-2.49513626 0.97057742 -0.58907181  1064859587
-0.47596496 -7.02063990 -2.49513626  3235962999
-2.49513626 0.97057742 -0.13601562  1064859587
-0.02259224 -7.03671932 -2.49513626  3235981388
-2.49513626 0.97057742 0.43087447  1064859587
0.76990151 -6.99451017 -2.49513626  3235834356
-2.49513626 0.97057742 1.10713136  1064859587
1.44176650 -6.88746834 -2.49513626  3235506484
-2.49513626 0.97057742 2.10015464  1064859587
2.20814228 -6.68132114 -2.49513626  3234996978
-2.49513626 0.97057742 2.73890805  1064859587
2.84303522 -6.43685389 -2.49513626  3234626665
-2.49513626 0.97057742 3.15088034  1064859587
3.25189424 -6.24028063 -2.49513626  3234085655
-2.49513626 0.97057742 3.74376917  1064859587
3.93388414 -5.83442259 -2.49513626  3232904121
-2.49513626 0.97057742 4.47892714  1064859587
4.56583357 -5.35435295 -2.49513626  3232298561
-2.49513626 0.97057742 4.73605776  1064859587
4.81933403 -5.12737274 -2.49513626  3231814045
-2.49513626 0.97057742 4.98211050  1064859587
5.13970757 -4.80617809 -2.49513626  3230952073
-2.49513626 0.97057742 5.36603737  1064859587
5.43871832 -4.46500731 -2.49513626  3230404192
-2.49513626 0.97057742 5.57981873  1064859587
5.64820528 -4.19686890 -2.49513626  3228876736
-2.49513626 0.97057742 5.96777201  1064859587
6.02709818 -3.63180614 -2.49513626  3226829897
-2.49513626 0.97057742 6.29994249  1064859587
6.44411707 -2.82653356 -2.49513626  3224254967
-2.49513626 0.97057742 6.53188086  1064859587
6.61285448 -2.40543008 -2.49513626  3222477552
-2.49513626 0.97057742 6.68695736  1064859587
6.75410938 -1.97432160 -2.49513626  3219175124
-2.49513626 0.97057742 6.84165382  1064859587
6.91320181 -1.31285012 -2.49513626  3206781924
-2.49513626 0.97057742 7.01706505  1064859587
7.03037596 -0.29958481 -2.49513626  3191779713
-2.49513626 0.97057742 7.03663874  1064859587
7.03506947 0.15404561 -2.49513626  1049160616
-2.49513626 0.97057742 6.99982643  1064859587
6.98731184 0.83270979 -2.49513626  1064434314
-2.49513626 0.97057742 6.93888903  1064859587
6.89758348 1.39257598 -2.49513626  1069577581
-2.49513626 0.97057742 6.84910822  1064859587
6.82219887 1.72439170 -2.49513626  1074414593
-2.49513626 0.97057742 6.62378645  1064859587
6.54378271 2.58743811 -2.49513626  1076646711
-2.49513626 0.97057742 6.45697880  1064859587
-6.85258579 0.19408342 -2.49513626  1034630320
-2.49513626 0.97124052 -6.85084963  1064870711
-6.84596252 -0.35827720 -2.49513626  3211298581
-2.49513626 0.97124052 -6.77936745  1064870711
-6.74304008 -1.23572505 -2.49513626  3216632261
-2.49513626 0.97124046 -6.67541838  1064870711
-6.59218693 -1.88112676 -2.49513626  3221117685
-2.49513626 0.97124046 -6.52812195  1064870712
-6.49354792 -2.19760776 -2.49513626  3223360135
-2.49513626 0.97124046 -6.33844471  1064870711
-6.29552555 -2.71329117 -2.49513626  3224641382
-2.49513626 0.97124046 -6.20479155  1064870711
-6.15700245 -3.01445460 -2.49513626  3226714030
-2.49513626 0.97124046 -5.89430571  1064870711
-5.83711481 -3.59495378 -2.49513626  3228696556
-2.49513626 0.97124052 -5.65650082  1064870712
-5.59333992 -3.96360373 -2.49513626  3229725751
-2.49513626 0.97124046 -5.46266842  1064870711
-5.32631588 -4.31578016 -2.49513626  3230455185
-2.49513626 0.97124052 -5.18442869  1064870711
-5.11145449 -4.56821680 -2.49513626  3231312710
-2.49513626 0.97124052 -4.80647373  1064870711
-4.72705841 -4.96492958 -2.49513626  3231796126
-2.49513626 0.97124046 -4.56455994  1064870711
-4.31196308 -5.32940578 -2.49513626  3232546360
-2.49513626 0.97124046 -4.13793087  1064870712
-4.04929352 -5.53162050 -2.49513626  3232961504
-2.49513626 0.97124046 -3.86887813  1064870711
-3.77715230 -5.72090149 -2.49513626  3233349191
-2.49513626 0.97124052 -3.59077549  1064870712
-3.40066981 -5.95239735 -2.49513626  3233821895
-2.49513626 0.97124046 -3.20702386  1064870711
-3.10894322 -6.10983372 -2.49513626  3234142148
-2.49513626 0.97124052 -2.80994320  1064870712
-2.60692048 -6.34030914 -2.49513626  3234608468
-2.49513626 0.97124046 -2.40119052  1064870711
-2.19296312 -6.49511099 -2.49513626  3234919081
-2.49513626 0.97124046 -1.87641323  1064870712
-1.76988566 -6.62292242 -2.49513626  3235172773
-2.49513626 0.97124046 -1.55547488  1064870712
-1.44765222 -6.70073891 -2.49513626  3235325052
-2.49513626 0.97124046 -1.23090351  1064870712
-1.12203455 -6.76288033 -2.49513626  3235444356
-2.49513626 0.97124052 -0.79379040  1064870712
-0.68392652 -6.82113028 -2.49513626  3235569223
-2.49513626 0.97124046 -0.35338104  1064870712
-0.13251004 -6.85405016 -2.49513626  3235602069
-2.49513626 0.97124052 0.08849533  1064870712
0.30941656 -6.84834623 -2.49513626  3235559115
-2.49513626 0.97124046 1.07858706  1064870711
1.18757486 -6.75168562 -2.49513626  3235342790
-2.49513626 0.97124052 1.40459347  1064870712
1.51257348 -6.68638229 -2.49513626  3235194878
-2.49513626 0.97124046 1.83403802  1064870711
2.04600739 -6.54289103 -2.49513626  3234801470
-2.49513626 0.97124046 2.35991073  1064870711
2.46335340 -6.39745903 -2.49513626  3234556901
-2.49513626 0.97124046 2.66829228  1064870711
2.87046266 -6.22543526 -2.49513626  3233974878
-2.49513626 0.97124052 3.26563907  1064870711
3.36237812 -5.97410774 -2.49513626  3233638800
-2.49513626 0.97124046 3.55320787  1064870711
3.64724684 -5.80458498 -2.49513626  3233273689
-2.49513626 0.97124046 3.83245969  1064870711
3.92358279 -5.62148190 -2.49513626  3232164859
-2.49513626 0.97124046 4.53162146  1064870711
4.61395216 -5.07020855 -2.49513626  3231701122
-2.49513626 0.97124046 4.77498865  1064870711
4.93106604 -4.76236868 -2.49513626  3230347853
-2.49513626 0.97124046 5.36792850  1064870711
5.43595982 -4.17683458 -2.49513626  3229233106
-2.49513626 0.97124046 5.75459909  1064870712
5.81391048 -3.63235831 -2.49513626  3227677036
-2.49513626 0.97124046 5.92797518  1064870712
5.98270750 -3.34705782 -2.49513626  3226469127
-2.49513626 0.97124046 6.08749056  1064870712
6.18594837 -2.95459676 -2.49513626  3223960578
-2.49513626 0.97124052 6.36347198  1064870712
6.40375233 -2.44695163 -2.49513626  3221789694
-2.49513626 0.97124052 6.54811382  1064870711
6.61012268 -1.81710029 -2.49513626  3217895942
-2.49513626 0.97124046 6.69023705  1064870711
6.80338383 -0.84236312 -2.49513626  3208350468
-2.49513626 0.97124052 6.84911537  1064870712
6.84528780 0.37092212 -2.49513626  1056334432
-2.49513626 0.97124046 6.81935406  1064870712
6.79320049 0.92085946 -2.49513626  1065606874
-2.49513626 0.97124052 6.71974611  1064870712
6.69700813 1.46481764 -2.49513626  1071953812
-2.49513626 0.97124046 6.58869839  1064870712
6.55732727 1.99926412 -2.49513626  1075058500
-2.49513626 0.97124046 6.37507105  1064870711
6.29050350 2.72491360 -2.49513626  1050146930
-2.49513626 0.97187251 -6.67933083  1064881315
-6.68151331 0.08148270 -2.49513626  3168200755
-2.49513626 0.97187245 -6.67763948  1064881315
-6.67287779 -0.34921899 -2.49513626  3207323769
-2.49513626 0.97187251 -6.62309694  1064881315
-6.59111881 -1.09837961 -2.49513626  3214552183
-2.49513626 0.97187251 -6.55228662  1064881314
-6.50664330 -1.52080393 -2.49513626  3218958497
-2.49513626 0.97187245 -6.42551661  1064881315
-6.39512730 -1.93691015 -2.49513626  3221821254
-2.49513626 0.97187245 -6.25703049  1064881315
-6.17818832 -2.54543400 -2.49513626  3224342928
-2.49513626 0.97187251 -6.04791546  1064881315
-6.00133514 -2.93824148 -2.49513626  3225965730
-2.49513626 0.97187251 -5.85227585  1064881315
-5.79953051 -3.31884003 -2.49513626  3227147384
-2.49513626 0.97187245 -5.68953371  1064881315
-5.63230896 -3.59532166 -2.49513626  3228670386
-2.49513626 0.97187251 -5.32455444  1064881315
-5.25878668 -4.12242746 -2.49513626  3230047481
-2.49513626 0.97187251 -5.12316751  1064881315
-4.98222351 -4.45271826 -2.49513626  3230730713
-2.49513626 0.97187251 -4.83610249  1064881315
-4.68495035 -4.76450300 -2.49513626  3231374432
-2.49513626 0.97187245 -4.36821318  1064881315
-4.28613520 -5.12623358 -2.49513626  3232119467
-2.49513626 0.97187251 -4.03331327  1064881315
-3.94691467 -5.39176464 -2.49513626  3232793761
-2.49513626 0.97187251 -3.68165326  1064881315
-3.59129024 -5.63488007 -2.49513626  3233503417
-2.49513626 0.97187251 -3.12594008  1064881315
-3.03033900 -5.95535803 -2.49513626  3233913129
-2.49513626 0.97187251 -2.73890066  1064881315
-2.64029837 -6.13824701 -2.49513626  3234185892
-2.49513626 0.97187251 -2.34048057  1064881315
-2.23928761 -6.29562187 -2.49513626  3234502328
-2.49513626 0.97187251 -2.03518605  1064881315
-1.93233013 -6.39651108 -2.49513626  3234763584
-2.49513626 0.97187251 -1.62085557  1064881315
-1.41105056 -6.53132439 -2.49513626  3235010923
-2.49513626 0.97187251 -1.09366643  1064881315
-0.88060594 -6.62372923 -2.49513626  3235144219
-2.49513626 0.97187281 -0.45197120  1064881315
-0.23683371 -6.67781162 -2.49513626  3235238588
-2.49513626 0.97187251 0.08625718  1064881315
0.19394904 -6.67919350 -2.49513626  3235224381
-2.49513626 0.97187251 0.51660782  1064881315
0.73108894 -6.64189434 -2.49513626  3235026793
-2.49513626 0.97187251 1.78766704  1064881315
1.89121664 -6.40878820 -2.49513626  3234599996
-2.49513626 0.97187245 2.30024481  1064881315
2.50127554 -6.19619417 -2.49513626  3233951068
-2.49513626 0.97187251 2.89533734  1064881315
3.08795524 -5.92568779 -2.49513626  3233546539
-2.49513626 0.97187251 3.27736831  1064881315
3.55503249 -5.65782642 -2.49513626  3232844304
-2.49513626 0.97187251 3.82438350  1064881315
3.99902248 -5.35322905 -2.49513626  3232315364
-2.49513626 0.97187251 4.25312948  1064881315
4.33565426 -5.08442211 -2.49513626  3231740329
-2.49513626 0.97187251 4.49729872  1064881315
4.57637548 -4.86888504 -2.49513626  3231121585
-2.49513626 0.97187251 4.95352888  1064881315
5.02517557 -4.40418720 -2.49513626  3230117211
-2.49513626 0.97187251 5.23221016  1064881315
5.48913574 -3.81033254 -2.49513626  3226912992
-2.49513626 0.97187251 5.93358088  1064881315
5.98234034 -2.97671771 -2.49513626  3224916020
-2.49513626 0.97187251 6.07518768  1064881315
6.11924648 -2.68403864 -2.49513626  3223679342
-2.49513626 0.97187251 6.24184418  1064881315
6.27947903 -2.28416419 -2.49513626  3221991532
-2.49513626 0.97187251 6.34984589  1064881315
6.47071218 -1.66707480 -2.49513626  3217555943
-2.49513626 0.97187251 6.56468391  1064881315
6.63137197 -0.82106549 -2.49513626  3208039723
-2.49513626 0.97187251 6.66331053  1064881315
6.67049789 -0.39206076 -2.49513626  3197216662
-2.49513626 0.97187251 6.68165064  1064881315
6.68040752 0.14628021 -2.49513626  1048708256
-2.49513626 0.97187251 6.67222166  1064881315
6.65709925 0.57643312 -2.49513626  1061842255
-2.49513626 0.97187251 6.60612297  1064881315
6.57031822 1.21662354 -2.49513626  1068057464
-2.49513626 0.97187251 6.52768612  1064881315
6.47826958 1.63745856 -2.49513626  1071574841
-2.49513626 0.97187251 6.42211962  1064881315
6.39153719 1.94871652 -2.49513626  1074813122
-2.49513626 0.97187251 6.25268745  1064881315
6.13145924 2.65602064 -2.49513626  1049899858
-2.49513626 0.97247547 -6.51618576  1064891431
-6.50733089 -0.34055519 -2.49513626  3210544795
-2.49513626 0.97247547 -6.44402933  1064891431
-6.42759895 -1.07112956 -2.49513626  3214301516
-2.49513626 0.97247547 -6.38972902  1064891431
-6.29411650 -1.68684077 -2.49513626  3219447741
-2.49513626 0.97247547 -6.13786983  1064891431
-6.06414652 -2.38483858 -2.49513626  3224057474
-2.49513626 0.97247547 -5.85244656  1064891431
-5.75704145 -3.05250907 -2.49513626  3228639091
-2.49513626 0.97247547 -4.78799438  1064891431
-4.71612453 -4.49661016 -2.49513626  3231709259
-2.49513626 0.97247547 -4.09867334  1064891431
-4.01648378 -5.13119793 -2.49513626  3232120751
-2.49513626 0.97247547 -3.76373720  1064891431
-3.67750478 -5.37933969 -2.49513626  3232749500
-2.49513626 0.97247547 -3.41316152  1064891431
-3.23245502 -5.65796518 -2.49513626  3233303438
-2.49513626 0.97247547 -2.95515895  1064891431
-2.67095089 -5.94368172 -2.49513626  3233946482
-2.49513626 0.97247547 -2.18373418  1064891431
-2.08448958 -6.17383432 -2.49513626  3234241729
-2.49513626 0.97247547 -1.88439119  1064891431
-1.58064389 -6.32162094 -2.49513626  3234706726
-2.49513626 0.97247547 -0.75452644  1064891431
-0.65009505 -6.48372555 -2.49513626  3234872841
-2.49513626 0.97247547 -0.12595551  1064891431
-0.02092105 -6.51620245 -2.49513626  3234885252
-2.49513626 0.97247547 0.50379127  1064891431
0.60845023 -6.48776722 -2.49513626  3234808967
-2.49513626 0.97247547 0.81726408  1064891431
0.92136520 -6.45076895 -2.49513626  3234601092
-2.49513626 0.97247547 1.43775308  1064891431
1.54001808 -6.33163929 -2.49513626  3234392877
-2.49513626 0.97247547 1.84429801  1064891431
1.94480276 -6.21924973 -2.49513626  3234200747
-2.49513626 0.97247547 2.24317813  1064891431
2.34150386 -6.08101130 -2.49513626  3233725986
-2.49513626 0.97247547 2.91780472  1064891431
3.10410452 -5.72938728 -2.49513626  3232796425
-2.49513626 0.97247547 3.89981031  1064891431
4.06606197 -5.09200048 -2.49513626  3231623746
-2.49513626 0.97247547 4.30746603  1064891431
4.38572502 -4.81941414 -2.49513626  3231182947
-2.49513626 0.97247547 4.53879404  1064891431
4.68715286 -4.52680111 -2.49513626  3230397072
-2.49513626 0.97247547 4.90050650  1064891431
5.03640699 -4.13472414 -2.49513626  3229137692
-2.49513626 0.97247547 5.29236460  1064891431
5.35295725 -3.71580195 -2.49513626  3228058123
-2.49513626 0.97247547 5.52632761  1064891431
5.63475132 -3.27275205 -2.49513626  3223815588
-2.49513626 0.97247535 6.00885344  1064891431
6.15880299 -2.12849402 -2.49513626  3220628727
-2.49513626 0.97247547 6.25449705  1064891431
6.28315735 -1.72721839 -2.49513626  3217230756
-2.49513626 0.97247547 6.35930729  1064891431
6.38139343 -1.31876910 -2.49513626  3212910154
-2.49513626 0.97247547 6.47892189  1064891431
6.48930550 -0.59182239 -2.49513626  3196979846
-2.49513626 0.97247547 6.51395416  1064891431
6.51588678 -0.06742172 -2.49513626  1025118926
-2.49513626 0.97247547 6.51467514  1064891431
6.50016212 0.45741656 -2.49513626  1061513134
-2.49513626 0.97247547 6.44223261  1064891431
6.38735867 1.28956556 -2.49513626  1069503864
-2.49513626 0.97247547 6.31755066  1064891431
6.23297024 1.90037179 -2.49513626  1073744308
-2.49513626 0.97247547 6.13381433  1064891431
6.09756565 2.29804587 -2.49513626  1075402937
-2.49513626 0.97247547 6.02032089  1064891431
-6.35495520 0.17998861 -2.49513626  3167516773
-2.49513626 0.97305131 -6.34263659  1064901092
-6.33480597 -0.53674120 -2.49513626  3208485921
-2.49513626 0.97305131 -6.16652441  1064901092
-6.14079714 -1.64575064 -2.49513626  3220727896
-2.49513626 0.97305137 -6.02199030  1064901092
-5.95316315 -2.23107576 -2.49513626  3222595942
-2.49513626 0.97305137 -5.83834887  1064901092
-5.79703093 -2.61003566 -2.49513626  3224174670
-2.49513626 0.97305131 -5.70988321  1064901092
-5.66408014 -2.88722062 -2.49513626  3225328139
-2.49513626 0.97305131 -5.51788139  1064901092
-5.46626759 -3.24619865 -2.49513626  3226820213
-2.49513626 0.97305131 -5.30294466  1064901092
-5.24573278 -3.59167647 -2.49513626  3228254153
-2.49513626 0.97305131 -5.12722969  1064901092
-5.00339890 -3.92222548 -2.49513626  3229784937
-2.49513626 0.97305131 -4.80793953  1064901092
-4.74026537 -4.23647642 -2.49513626  3230881558
-2.49513626 0.97305131 -4.30899429  1064901092
-4.23308611 -4.74329710 -2.49513626  3231314691
-2.49513626 0.97305131 -3.91864491  1064901092
-3.75523591 -5.12991762 -2.49513626  3232231958
-2.49513626 0.97305131 -3.50285769  1064901092
-3.33001852 -5.41560984 -2.49513626  3232907151
-2.49513626 0.97305131 -2.97413206  1064901092
-2.79146504 -5.71188021 -2.49513626  3233556480
-2.49513626 0.97305131 -2.32251453  1064901092
-2.13053894 -5.98987961 -2.49513626  3233857550
-2.49513626 0.97305131 -1.93634975  1064901092
-1.83848906 -6.08587265 -2.49513626  3234048957
-2.49513626 0.97305131 -1.64135849  1064901092
-1.14151621 -6.25418091 -2.49513626  3234378333
-2.49513626 0.97305131 -0.93931651  1064901092
-0.83784020 -6.30205202 -2.49513626  3234491593
-2.49513626 0.97305137 -0.53220946  1064901092
-0.32771927 -6.34905195 -2.49513626  3234549747
-2.49513626 0.97305131 -0.12288731  1064901092
-0.02041143 -6.35747051 -2.49513626  3234557015
-2.49513626 0.97305131 0.18453002  1064901092
0.69558322 -6.31933689 -2.49513626  3234317607
-2.49513626 0.97305131 1.60188591  1064901092
1.70084953 -6.12576294 -2.49513626  3233950474
-2.49513626 0.97305131 1.99499106  1064901092
2.18853474 -5.96893358 -2.49513626  3233667629
-2.49513626 0.97305131 2.75472951  1064901092
2.84672856 -5.68453884 -2.49513626  3233049031
-2.49513626 0.97305131 3.02849126  1064901092
3.11820483 -5.54027557 -2.49513626  3232737355
-2.49513626 0.97305131 3.29517412  1064901092
3.38238621 -5.38305902 -2.49513626  3232280046
-2.49513626 0.97305131 3.63865590  1064901092
3.72222042 -5.15392447 -2.49513626  3231776792
-2.49513626 0.97305137 3.96701431  1064901092
4.04658031 -4.90337086 -2.49513626  3231370450
-2.49513626 0.97305131 4.27889156  1064901092
4.57297611 -4.41653013 -2.49513626  3230013174
-2.49513626 0.97305131 4.84805727  1064901092
4.91372347 -4.03400421 -2.49513626  3229422277
-2.49513626 0.97305131 5.04120350  1064901092
5.16344643 -3.70900011 -2.49513626  3227687339
-2.49513626 0.97305131 5.39170885  1064901092
5.49749184 -3.19303012 -2.49513626  3225855973
-2.49513626 0.97305131 5.59756136  1064901092
5.64542246 -2.92353439 -2.49513626  3224329409
-2.49513626 0.97305131 5.78015184  1064901093
5.86248112 -2.45950747 -2.49513626  3222755103
-2.49513626 0.97305131 5.93871546  1064901092
6.00877714 -2.07664490 -2.49513626  3220234576
-2.49513626 0.97305131 6.10214043  1064901092
6.13010120 -1.68514442 -2.49513626  3217753550
-2.49513626 0.97305131 6.20439625  1064901092
6.22594547 -1.28664446 -2.49513626  3212571188
-2.49513626 0.97305131 6.32109833  1064901092
6.33971357 -0.47527838 -2.49513626  3200187535
-2.49513626 0.97305131 6.35173988  1064901092
6.35527706 -0.16824797 -2.49513626  1024873037
-2.49513626 0.97305131 6.35291147  1064901092
6.34819078 0.34398621 -2.49513626  1055161862
-2.49513626 0.97305131 6.25123644  1064901092
6.23176622 1.25815153 -2.49513626  1070865304
-2.49513626 0.97305131 6.11023569  1064901092
6.08113766 1.85407829 -2.49513626  1073337979
-2.49513626 0.97305131 5.87366867  1064901092
5.83369112 2.52703238 -2.49513626  1049436491
-2.49513626 0.97360182 -6.20287085  1064910328
-6.20531130 -0.02436242 -2.49513626  3187588592
-2.49513626 0.97360182 -6.20130014  1064910328
-6.19687748 -0.32430798 -2.49513626  3204849163
-2.49513626 0.97360182 -6.17395496  1064910328
-6.16310167 -0.72293812 -2.49513626  3213831434
-2.49513626 0.97360182 -6.04250193  1064910328
-6.01894951 -1.50953972 -2.49513626  3219537209
-2.49513626 0.97360182 -5.87787199  1064910328
-5.77483702 -2.27106237 -2.49513626  3223522160
-2.49513626 0.97360182 -5.61649704  1064910328
-5.57323647 -2.72864532 -2.49513626  3224656937
-2.49513626 0.97360182 -5.28367949  1064910328
-5.17603683 -3.42273498 -2.49513626  3227540925
-2.49513626 0.97360182 -5.06301641  1064910328
-5.00452709 -3.66894817 -2.49513626  3228561899
-2.49513626 0.97360182 -4.88365889  1064910328
-4.82131195 -3.90658593 -2.49513626  3229546103
-2.49513626 0.97360182 -4.69287825  1064910328
-4.62682438 -4.13509321 -2.49513626  3230205663
-2.49513626 0.97360182 -4.27887154  1064910328
-4.20587254 -4.56257534 -2.49513626  3230934516
-2.49513626 0.97360224 -3.82486463  1064910328
-3.58417654 -5.06558514 -2.49513626  3231968554
-2.49513626 0.97360182 -3.41902828  1064910328
-2.90295649 -5.48446178 -2.49513626  3232917485
-2.49513626 0.97360182 -2.63443470  1064910328
-2.26693249 -5.77645922 -2.49513626  3233486537
-2.49513626 0.97360182 -1.89000928  1064910328
-1.69850516 -5.96837854 -2.49513626  3233945581
-2.49513626 0.97360182 -0.91683704  1064910328
-0.71852881 -6.16361904 -2.49513626  3234174125
-2.49513626 0.97360182 -0.41973045  1064910328
-0.31987604 -6.19710875 -2.49513626  3234230876
-2.49513626 0.97360182 -0.01992369  1064910328
0.28007868 -6.19903374 -2.49513626  3234214631
-2.49513626 0.97360182 0.57942045  1064910328
0.67893690 -6.16810465 -2.49513626  3234136293
-2.49513626 0.97360182 0.97632146  1064910328
1.07497704 -6.11153793 -2.49513626  3233918331
-2.49513626 0.97360182 1.46654785  1064910328
1.56355155 -6.00514269 -2.49513626  3233706931
-2.49513626 0.97360182 1.85201979  1064910328
2.32285118 -5.75419855 -2.49513626  3233129606
-2.49513626 0.97360182 2.59830499  1064910328
2.77860308 -5.54849863 -2.49513626  3232667631
-2.49513626 0.97360182 3.13035321  1064910328
3.21631527 -5.30676794 -2.49513626  3232015492
-2.49513626 0.97360182 3.63314009  1064910328
3.71375823 -4.97136545 -2.49513626  3231262493
-2.49513626 0.97360182 4.10196447  1064910328
4.32225752 -4.45247841 -2.49513626  3230415661
-2.49513626 0.97360182 4.46353769  1064910328
4.66671228 -4.09002066 -2.49513626  3229351782
-2.49513626 0.97360182 4.92055941  1064910328
5.03987646 -3.62023807 -2.49513626  3227678525
-2.49513626 0.97360182 5.36592817  1064910328
5.51031923 -2.85356903 -2.49513626  3224431504
-2.49513626 0.97360182 5.59943914  1064910328
5.72218227 -2.40065074 -2.49513626  3222517753
-2.49513626 0.97360182 5.79659224  1064910328
5.83154106 -2.12122893 -2.49513626  3221338497
-2.49513626 0.97360182 5.95610666  1064910328
6.00913334 -1.54815650 -2.49513626  3215803494
-2.49513626 0.97360182 6.11427212  1064910328
6.13055420 -0.96061194 -2.49513626  3210516057
-2.49513626 0.97360182 6.16982412  1064910328
6.17971277 -0.56358773 -2.49513626  3203237080
-2.49513626 0.97360182 6.19973183  1064910328
6.19626808 0.33575383 -2.49513626  1054803488
-2.49513626 0.97360182 6.18222523  1064910328
6.16175652 0.73432475 -2.49513626  1062560644
-2.49513626 0.97360182 6.13488531  1064910328
6.03988218 1.42348206 -2.49513626  1069720768
-2.49513626 0.97360182 5.99085760  1064910328
5.96400785 1.71379089 -2.49513626  1072145532
-2.49513626 0.97360182 5.87418699  1064910328
5.80666256 2.18840957 -2.49513626  1074923480
-2.49513626 0.97360182 5.73310280  1064910328
-6.05892086 0.07388975 -2.49513626  3166888376
-2.49513626 0.97412860 -6.05815649  1064919166
-6.05540800 -0.21909809 -2.49513626  3201568590
-2.49513626 0.97412860 -5.99222517  1064919166
-5.97695065 -0.99603117 -2.49513626  3213610687
-2.49513626 0.97412860 -5.94173670  1064919166
-5.92181158 -1.28380561 -2.49513626  3216016935
-2.49513626 0.97412860 -5.87734890  1064919166
-5.85282755 -1.56857383 -2.49513626  3219182229
-2.49513626 0.97412860 -5.77015448  1064919166
-5.73959160 -1.94244659 -2.49513626  3221755840
-2.49513626 0.97412860 -5.63897896  1064919166
-5.60249996 -2.30824804 -2.49513626  3223270781
-2.49513626 0.97412860 -5.48436642  1064919166
-5.30695248 -2.92441940 -2.49513626  3226164469
-2.49513626 0.97412860 -5.10748148  1064919166
-4.99973631 -3.42324567 -2.49513626  3227531177
-2.49513626 0.97412860 -4.88679266  1064919166
-4.82840967 -3.66093898 -2.49513626  3228516414
-2.49513626 0.97412860 -4.70788860  1064919166
-4.58247471 -3.96445632 -2.49513626  3230141498
-2.49513626 0.97412860 -4.24840450  1064919166
-4.17821074 -4.38845921 -2.49513626  3230568781
-2.49513626 0.97412860 -4.03457594  1064919166
-3.96117973 -4.58530998 -2.49513626  3230974224
-2.49513626 0.97412860 -3.81131101  1064919166
-3.73488212 -4.77143955 -2.49513626  3231479186
-2.49513626 0.97412860 -3.41966939  1064919166
-3.33859277 -5.05665684 -2.49513626  3231941532
-2.49513626 0.97412860 -3.09024358  1064919166
-3.00582337 -5.26127386 -2.49513626  3232642423
-2.49513626 0.97412860 -2.48368549  1064919166
-2.12239218 -5.67551184 -2.49513626  3233198080
-2.49513626 0.97412860 -1.93834257  1064919166
-1.84554577 -5.77147913 -2.49513626  3233447605
-2.49513626 0.97412860 -1.56438696  1064919166
-1.46982253 -5.87840366 -2.49513626  3233601456
-2.49513626 0.97412860 -1.27956736  1064919166
-1.18393075 -5.94258165 -2.49513626  3233761528
-2.49513626 0.97412860 -0.89526755  1064919166
-0.60451674 -6.02914238 -2.49513626  3233888288
-2.49513626 0.97412860 -0.31235096  1064919166
-0.21476521 -6.05556440 -2.49513626  3233930515
-2.49513626 0.97412860 -0.01945425  1064919166
0.07821968 -6.05886602 -2.49513626  3233927540
-2.49513626 0.97412860 0.27348968  1064919166
0.37102798 -6.04800081 -2.49513626  3233894859
-2.49513626 0.97412860 0.56578887  1064919166
0.85676628 -5.99849224 -2.49513626  3233740774
-2.49513626 0.97412860 1.14574707  1064919166
1.24150860 -5.93081856 -2.49513626  3233619717
-2.49513626 0.97412860 1.52676666  1064919166
1.80844939 -5.78320646 -2.49513626  3233291024
-2.49513626 0.97412860 2.17733717  1064919166
2.26820278 -5.61882973 -2.49513626  3232849555
-2.49513626 0.97412860 2.53717756  1064919165
2.62554741 -5.46100378 -2.49513626  3232494570
-2.49513626 0.97412860 2.88647079  1064919166
2.97197890 -5.28046560 -2.49513626  3232197510
-2.49513626 0.97412860 3.22377038  1064919166
3.30605531 -5.07798862 -2.49513626  3231761643
-2.49513626 0.97412860 3.46802115  1064919166
3.54766774 -4.91223335 -2.49513626  3231405909
-2.49513626 0.97412860 3.70416689  1064919166
3.85681748 -4.67342806 -2.49513626  3230894704
-2.49513626 0.97412860 4.07823420  1064919166
4.14994287 -4.41519880 -2.49513626  3230199455
-2.49513626 0.97412860 4.49195290  1064919166
4.74466753 -3.76883745 -2.49513626  3227329358
-2.49513626 0.97412860 5.03270340  1064919166
5.23968983 -3.04329348 -2.49513626  3225245447
-2.49513626 0.97412860 5.33506632  1064919166
5.46770668 -2.61154318 -2.49513626  3222669024
-2.49513626 0.97412860 5.62461948  1064919166
5.75815821 -1.88668311 -2.49513626  3219494309
-2.49513626 0.97412860 5.81598568  1064919166
5.84263277 -1.60612023 -2.49513626  3217129607
