# .PCD v0.7 - Point Cloud Data file format
VERSION 0.7
FIELDS x y z intensity
SIZE 4 4 4 4
TYPE F F F F
COUNT 1 1 1 1
WIDTH 1018
HEIGHT 1
VIEWPOINT 0 0 0 1 0 0 0
POINTS 1018
DATA ascii
3.49593925 -10.35784531 -2.49513626  3240414414
-2.49513626 0.95613879 3.82886791  1064617347
4.32065725 -10.04184628 -2.49513626  3240069118
-2.49513626 0.95613879 5.11717892  1064617347
5.27263927 -9.57632637 -2.49513626  3239471647
-2.49513626 0.95613885 5.73058844  1064617347
6.02847528 -9.11944199 -2.49513626  3239073592
-2.49513626 0.95613730 6.32005739  1064617347
6.74495602 -8.60304260 -2.49513626  3238519542
-2.49513626 0.95613879 7.28666067  1064617348
7.41742229 -8.03048134 -2.49513626  3237813013
-2.49513626 0.95613879 -6.32286596  1064642622
-5.47814941 -8.99025631 -2.49513626  3239221774
-2.49513626 0.95764530 -5.03596544  1064642622
-4.73453569 -9.40313625 -2.49513626  3239552935
-2.49513626 0.95764530 -3.96002221  1064642622
-3.64269280 -9.87753105 -2.49513626  3240031801
-2.49513626 0.95764530 -3.32155967  1064642622
-3.15966916 -10.04247570 -2.49513626  3240292586
-2.49513626 0.95764530 -1.33383453  1064642622
-0.82611603 -10.49534893 -2.49513626  3240631810
-2.49513626 0.95764530 -0.48648193  1064642622
-0.31645218 -10.52305508 -2.49513626  3240652225
-2.49513626 0.95764530 0.02381202  1064642622
0.19395211 -10.52602673 -2.49513626  3240646689
-2.49513626 0.95764530 0.70390433  1064642622
0.87357891 -10.49150467 -2.49513626  3240557897
-2.49513626 0.95764530 1.88528991  1064642622
2.21905828 -10.29128551 -2.49513626  3240366262
-2.49513626 0.95764530 2.55050659  1064642622
2.71525383 -10.17164135 -2.49513626  3240182229
-2.49513626 0.95764530 3.52748489  1064642622
3.68733668 -9.86095333 -2.49513626  3239890199
-2.49513626 0.95764530 4.16094303  1064642622
4.31669235 -9.60213566 -2.49513626  3239531100
-2.49513626 0.95764530 4.77701807  1064642622
5.07773352 -9.22233391 -2.49513626  3239197085
-2.49513626 0.95764530 5.37314177  1064642622
5.94680834 -8.68736553 -2.49513626  3238621472
-2.49513626 0.95764530 6.22446871  1064642622
6.49562550 -8.28502750 -2.49513626  3238076891
-2.49513626 0.95764530 6.88955498  1064642622
7.26728678 -7.61717558 -2.49513626  3236951453
-2.49513626 0.95764530 -6.22699213  1064666174
-5.96464396 -8.21387100 -2.49513626  3238326902
-2.49513626 0.95904911 -5.42153025  1064666174
-5.28212309 -8.66855526 -2.49513626  3238961489
-2.49513626 0.95904911 -4.71105385  1064666174
-4.41798735 -9.13925743 -2.49513626  3239270903
-2.49513626 0.95904911 -4.12030745  1064666174
-3.81832075 -9.40558910 -2.49513626  3239767570
-2.49513626 0.95904911 -2.57370257  1064666174
-2.25500131 -9.89745712 -2.49513626  3240063312
-2.49513626 0.95904911 -1.61086726  1064666174
-1.44867539 -10.04718876 -2.49513626  3240172496
-2.49513626 0.95904911 -0.96000189  1064666174
-0.79655492 -10.11979008 -2.49513626  3240237563
-2.49513626 0.95904911 -0.46907392  1064666174
-0.14110300 -10.15011120 -2.49513626  3240258244
-2.49513626 0.95904911 0.18701182  1064666174
0.35101852 -10.14502144 -2.49513626  3240221564
-2.49513626 0.95904911 1.33163965  1064666174
1.65618408 -10.01507473 -2.49513626  3240086211
-2.49513626 0.95904911 1.97899842  1064666174
2.13965154 -9.92303085 -2.49513626  3239981514
-2.49513626 0.95904911 2.77625751  1064666174
3.09037113 -9.66924381 -2.49513626  3239699321
-2.49513626 0.95904911 3.70859194  1064666174
4.31131792 -9.19006157 -2.49513626  3239176237
-2.49513626 0.95904911 4.60608006  1064666174
4.75167942 -8.97029591 -2.49513626  3238938362
-2.49513626 0.95904911 5.18087149  1064666174
5.32127810 -8.64457417 -2.49513626  3238397479
-2.49513626 0.95904911 5.86864042  1064666174
6.13326263 -8.08874226 -2.49513626  3237322382
-2.49513626 0.95904911 6.76620770  1064666174
6.88762474 -7.45689535 -2.49513626  3236145240
-2.49513626 0.95904911 -5.49850512  1064688171
-5.09892035 -8.36789894 -2.49513626  3238473723
-2.49513626 0.96036029 -4.54766273  1064688172
-4.40678358 -8.75219917 -2.49513626  3239070781
-2.49513626 0.96036029 -3.68588829  1064688172
-3.53867292 -9.13775158 -2.49513626  3239310624
-2.49513626 0.96036029 -2.63730741  1064688172
-2.48443794 -9.47883320 -2.49513626  3239594162
-2.49513626 0.96036029 -2.02209616  1064688171
-1.71115685 -9.64845276 -2.49513626  3239758893
-2.49513626 0.96036029 -0.76893044  1064688171
-0.45280486 -9.78854847 -2.49513626  3239884450
-2.49513626 0.96036029 -0.13621023  1064688171
0.18052575 -9.79735374 -2.49513626  3239875865
-2.49513626 0.96036029 0.97082204  1064688172
1.59874153 -9.66771793 -2.49513626  3239722998
-2.49513626 0.96036029 1.91035962  1064688171
2.06544042 -9.57886791 -2.49513626  3239583005
-2.49513626 0.96036029 2.98318601  1064688172
3.28329062 -9.23258972 -2.49513626  3239238246
-2.49513626 0.96036029 3.57996488  1064688172
3.87289572 -9.00118732 -2.49513626  3238985645
-2.49513626 0.96036023 4.72622156  1064688171
5.13671732 -8.34475136 -2.49513626  3238185536
-2.49513626 0.96036023 5.53513479  1064688172
5.66509485 -7.99546480 -2.49513626  3237798976
-2.49513626 0.96036023 5.92054081  1064688172
6.16979980 -7.61277151 -2.49513626  3236979407
-2.49513626 0.96036029 6.64873743  1064688172
6.87790108 -6.97962713 -2.49513626  3237480563
-2.49513626 0.96158755 -5.31343937  1064708761
-4.92729950 -8.08625126 -2.49513626  3238175525
-2.49513626 0.96158755 -4.66338396  1064708762
-4.25846148 -8.45761395 -2.49513626  3238553542
-2.49513626 0.96158755 -3.98289204  1064708762
-3.84352875 -8.65408230 -2.49513626  3238873208
-2.49513626 0.96158755 -3.27640820  1064708762
-3.13239670 -8.93609619 -2.49513626  3239085518
-2.49513626 0.96158755 -2.69560003  1064708762
-2.54853988 -9.11979580 -2.49513626  3239218819
-2.49513626 0.96158755 -2.25246501  1064708762
-2.10352373 -9.23260212 -2.49513626  3239329548
-2.49513626 0.96158755 -1.80403519  1064708762
-1.50265932 -9.34921265 -2.49513626  3239441623
-2.49513626 0.96158755 -1.04775119  1064708762
-0.89551687 -9.42675400 -2.49513626  3239512637
-2.49513626 0.96158755 -0.59038246  1064708762
-0.28463170 -9.46492195 -2.49513626  3239542298
-2.49513626 0.96158755 0.02141754  1064708762
0.48034239 -9.45700836 -2.49513626  3239521036
-2.49513626 0.96158755 0.93814576  1064708762
1.09030700 -9.40622044 -2.49513626  3239457451
-2.49513626 0.96158755 1.54493201  1064708762
1.69571555 -9.31613445 -2.49513626  3239352738
-2.49513626 0.96158755 1.99592316  1064708762
2.44222283 -9.14883995 -2.49513626  3239071941
-2.49513626 0.96158755 3.45946980  1064708762
3.74254417 -8.69822598 -2.49513626  3238603234
-2.49513626 0.96158755 4.15973186  1064708762
4.29667091 -8.43826866 -2.49513626  3238312013
-2.49513626 0.96158755 4.70061255  1064708762
4.83285046 -8.14305305 -2.49513626  3238069673
-2.49513626 0.96158755 5.09350252  1064708762
5.34883547 -7.81381559 -2.49513626  3237241139
-2.49513626 0.96158755 6.08025455  1064708762
6.53653431 -6.85123968 -2.49513626  3236395732
-2.49513626 0.96273869 -5.50111055  1064728075
-5.13968420 -7.58162594 -2.49513626  3238121602
-2.49513626 0.96273869 -4.11920547  1064728075
-3.85264969 -8.30990314 -2.49513626  3238391797
-2.49513626 0.96273869 -3.44535398  1064728075
-3.30774522 -8.54144192 -2.49513626  3238625318
-2.49513626 0.96273869 -3.02996540  1064728075
-2.60745001 -8.78058147 -2.49513626  3238904741
-2.49513626 0.96273869 -2.03473759  1064728075
-1.89013851 -8.96240997 -2.49513626  3239070992
-2.49513626 0.96273869 -1.45352113  1064728075
-1.16048336 -9.08574104 -2.49513626  3239175520
-2.49513626 0.96273869 -0.71874946  1064728075
-0.42325577 -9.14976501 -2.49513626  3239214228
-2.49513626 0.96273863 -0.12732033  1064728075
0.02071616 -9.15952778 -2.49513626  3239212822
-2.49513626 0.96273869 0.90746915  1064728075
1.34816492 -9.05979156 -2.49513626  3239089874
-2.49513626 0.96273869 1.64026582  1064728075
1.78569221 -8.98380089 -2.49513626  3239002786
-2.49513626 0.96273869 2.21902466  1064728075
2.36236095 -8.84966564 -2.49513626  3238852384
-2.49513626 0.96273869 2.78850913  1064728075
2.92915559 -8.67859364 -2.49513626  3238663385
-2.49513626 0.96273869 3.62016034  1064728075
4.02370644 -8.22843838 -2.49513626  3238027584
-2.49513626 0.96273869 4.80150509  1064728075
5.17392397 -7.55829954 -2.49513626  3236898944
-2.49513626 0.96273869 5.65141296  1064728075
5.99414587 -6.92586756 -2.49513626  3235545172
-2.49513626 0.96273845 6.32278490  1064728075
6.42906427 -6.52415085 -2.49513626  3234687904
-2.49513626 0.96273869 -5.32614994  1064746224
-5.09420586 -7.25911665 -2.49513626  3236786272
-2.49513626 0.96382040 -4.73638296  1064746224
-4.61459208 -7.57306004 -2.49513626  3237699371
-2.49513626 0.96382046 -3.85966182  1064746224
-3.73011780 -8.04561520 -2.49513626  3238112630
-2.49513626 0.96382046 -3.06847048  1064746224
-2.38679934 -8.54101276 -2.49513626  3238609261
-2.49513626 0.96382046 -1.97002625  1064746224
-1.54861939 -8.73198128 -2.49513626  3238795276
-2.49513626 0.96382040 -1.26559722  1064746224
-0.98125619 -8.81379414 -2.49513626  3238884427
-2.49513626 0.96382046 -0.40979454  1064746224
-0.26656660 -8.86423397 -2.49513626  3238913087
-2.49513626 0.96382040 0.16337809  1064746224
0.30665889 -8.86293697 -2.49513626  3238901132
-2.49513626 0.96382046 0.73587114  1064746223
1.02111113 -8.80925846 -2.49513626  3238832746
-2.49513626 0.96382046 1.44688368  1064746224
2.69982386 -8.44728661 -2.49513626  3238424791
-2.49513626 0.96382046 3.10607600  1064746224
3.37291074 -8.20178127 -2.49513626  3238032740
-2.49513626 0.96382046 4.15118122  1064746224
4.52613592 -7.62625694 -2.49513626  3237063397
-2.49513626 0.96382046 4.77024746  1064746224
5.00937653 -7.31791973 -2.49513626  3236400473
-2.49513626 0.96382040 5.24326420  1064746224
5.47167730 -6.97900200 -2.49513626  3235674139
-2.49513626 0.96382040 5.80350733  1064746224
5.91112661 -6.61092520 -2.49513626  3234887431
-2.49513626 0.96382040 6.12169600  1064746224
6.32587433 -6.21522617 -2.49513626  3235635284
-2.49513626 0.96483886 -5.04951191  1064763310
-4.93647146 -7.03434515 -2.49513626  3236142956
-2.49513626 0.96483886 -4.70655012  1064763310
-4.58972359 -7.26534033 -2.49513626  3236615564
-2.49513626 0.96483886 -4.35251713  1064763310
-4.23219156 -7.47926092 -2.49513626  3237189275
-2.49513626 0.96483886 -3.86470842  1064763310
-3.74015260 -7.73705816 -2.49513626  3237812352
-2.49513626 0.96483886 -3.23249078  1064763310
-3.10338283 -8.01372337 -2.49513626  3238209757
-2.49513626 0.96483886 -1.90902340  1064763310
-1.77335763 -8.40868378 -2.49513626  3238460127
-2.49513626 0.96483886 -1.50066888  1064763310
-1.22641039 -8.50568390 -2.49513626  3238569847
-2.49513626 0.96483880 -0.81271267  1064763310
-0.53579223 -8.57692814 -2.49513626  3238621099
-2.49513626 0.96483886 0.43593001  1064763310
0.71308595 -8.56401157 -2.49513626  3238580841
-2.49513626 0.96483886 1.81137192  1064763310
2.35030580 -8.26600170 -2.49513626  3238197435
-2.49513626 0.96483886 2.74818110  1064763310
2.87941837 -8.09689713 -2.49513626  3238054384
-2.49513626 0.96483886 3.13959599  1064763310
3.52363086 -7.83803511 -2.49513626  3237541443
-2.49513626 0.96483886 3.77510953  1064763310
3.89938688 -7.65803766 -2.49513626  3237151279
-2.49513626 0.96483886 4.26597881  1064763310
4.38598871 -7.39011955 -2.49513626  3236572992
-2.49513626 0.96483886 4.62254429  1064763310
4.73902225 -7.16885185 -2.49513626  3235930592
-2.49513626 0.96483886 5.08091164  1064763310
5.30225277 -6.76290560 -2.49513626  3235226748
-2.49513626 0.96483886 5.51805305  1064763310
5.62381029 -6.49796724 -2.49513626  3234660298
-2.49513626 0.96483886 5.83088112  1064763310
6.03185511 -6.12106752 -2.49513626  3235200469
-2.49513626 0.96579927 -4.56452894  1064779423
-4.45123243 -7.04611301 -2.49513626  3236151174
-2.49513626 0.96579927 -4.22117949  1064779422
-3.98673463 -7.31869745 -2.49513626  3236836647
-2.49513626 0.96579927 -3.38288808  1064779423
-3.25934649 -7.67058277 -2.49513626  3237420220
-2.49513626 0.96579927 -3.00973845  1064779423
-1.98251200 -8.09511185 -2.49513626  3238134909
-2.49513626 0.96579927 -1.58782542  1064779423
-1.45538652 -8.20627880 -2.49513626  3238242527
-2.49513626 0.96579927 -1.05593038  1064779422
-0.92218000 -8.28316593 -2.49513626  3238314096
-2.49513626 0.96579927 -0.51962095  1064779419
-0.38512313 -8.32543468 -2.49513626  3238348039
-2.49513626 0.96579927 0.69156808  1064779423
1.09331405 -8.26231289 -2.49513626  3238258086
-2.49513626 0.96579927 1.35977495  1064779423
1.75671613 -8.14709377 -2.49513626  3238126040
-2.49513626 0.96579927 2.40865040  1064779422
2.53728294 -7.93872356 -2.49513626  3237693515
-2.49513626 0.96579927 2.91907644  1064779423
3.04486012 -7.75822115 -2.49513626  3237390311
-2.49513626 0.96579927 3.29400778  1064779423
3.41730666 -7.60152435 -2.49513626  3237049122
-2.49513626 0.96579921 3.90126204  1064779423
4.48305893 -7.02590704 -2.49513626  3235152842
-2.49513626 0.96579927 5.14225864  1064779423
5.24758816 -6.47487402 -2.49513626  3234441496
-2.49513626 0.96579927 5.55525017  1064779423
5.75314379 -6.03013277 -2.49513626  3234622718
-2.49513626 0.96670640 -4.64660740  1064794642
-4.53898716 -6.69552898 -2.49513626  3235419020
-2.49513626 0.96670640 -3.86937976  1064794642
-3.63777637 -7.22489262 -2.49513626  3236498489
-2.49513626 0.96670640 -3.40237355  1064794642
-3.28332138 -7.39271879 -2.49513626  3236838387
-2.49513626 0.96670640 -3.04267979  1064794642
-2.30270553 -7.75435638 -2.49513626  3237702483
-2.49513626 0.96670640 -1.79693055  1064794642
-1.28364182 -7.98653650 -2.49513626  3238027696
-2.49513626 0.96670640 -0.76499254  1064794642
-0.50432950 -8.07329845 -2.49513626  3238086988
-2.49513626 0.96670640 -0.11243987  1064794642
0.01829491 -8.08901405 -2.49513626  3238094608
-2.49513626 0.96670640 0.41033256  1064794642
0.54084402 -8.07093525 -2.49513626  3238054319
-2.49513626 0.96670640 1.06113660  1064794642
1.31975341 -7.98064852 -2.49513626  3237915187
-2.49513626 0.96670640 1.95967925  1064794642
2.08626151 -7.81537151 -2.49513626  3237542638
-2.49513626 0.96670640 2.46260405  1064794642
2.58681083 -7.66425848 -2.49513626  3237208818
-2.49513626 0.96670640 2.83316088  1064794642
2.95524287 -7.52987576 -2.49513626  3236914539
-2.49513626 0.96670640 3.19705796  1064794642
3.67041802 -7.20836592 -2.49513626  3236216129
-2.49513626 0.96670640 3.90147018  1064794642
4.12844753 -6.95617867 -2.49513626  3235671801
-2.49513626 0.96670640 4.35111141  1064794642
4.46075106 -6.74790287 -2.49513626  3235223810
-2.49513626 0.96670640 5.09313869  1064794642
5.29358387 -6.11641121 -2.49513626  3233871419
-2.49513626 0.96670640 5.58381462  1064794642
5.67767191 -5.76164341 -2.49513626  3233114497
-2.49513626 0.96670640 -4.81948376  1064809039
-4.51309061 -6.43103933 -2.49513626  3234863540
-2.49513626 0.96756452 -4.30288887  1064809039
-4.19608498 -6.64222383 -2.49513626  3236283644
-2.49513626 0.96756452 -2.71843839  1064809039
-2.35797024 -7.49441433 -2.49513626  3237020258
-2.49513626 0.96756452 -2.11452651  1064809039
-1.99196053 -7.59989119 -2.49513626  3237229035
-2.49513626 0.96756446 -1.74529564  1064809039
-1.62126493 -7.68750572 -2.49513626  3237400185
-2.49513626 0.96756452 -0.99540383  1064809039
-0.86931980 -7.80836296 -2.49513626  3237628131
-2.49513626 0.96756446 -0.48983955  1064809038
-0.23615737 -7.85305643 -2.49513626  3237700379
-2.49513626 0.96756452 0.14474156  1064809039
0.52530158 -7.83902311 -2.49513626  3237645147
-2.49513626 0.96756452 0.77838063  1064809039
0.90462899 -7.80435181 -2.49513626  3237559585
-2.49513626 0.96756452 1.15638840  1064809039
1.28183150 -7.75133324 -2.49513626  3237385825
-2.49513626 0.96756452 1.65601969  1064809039
1.77992713 -7.65232706 -2.49513626  3237144541
-2.49513626 0.96756452 2.14872980  1064809038
2.27058339 -7.52135038 -2.49513626  3236919873
-2.49513626 0.96756446 2.51248145  1064809038
3.33681631 -7.11279964 -2.49513626  3235908138
-2.49513626 0.96756452 3.90010452  1064809039
4.11849165 -6.69061184 -2.49513626  3234970227
-2.49513626 0.96756452 4.43793440  1064809039
4.54213238 -6.41056204 -2.49513626  3234513689
-2.49513626 0.96756452 4.74694157  1064809039
4.84750128 -6.18287992 -2.49513626  3233856582
-2.49513626 0.96756452 5.23681927  1064809039
5.33079195 -5.77138853 -2.49513626  3232772870
-2.49513626 0.96756452 -4.68417597  1064822677
-4.58610010 -6.10546255 -2.49513626  3234900600
-2.49513626 0.96837741 -3.76058626  1064822677
-3.65268779 -6.70573044 -2.49513626  3235643160
-2.49513626 0.96837741 -2.87228322  1064822677
-2.64211798 -7.16436768 -2.49513626  3236421469
-2.49513626 0.96837741 -2.17375159  1064822677
-2.05516100 -7.35426855 -2.49513626  3236716134
-2.49513626 0.96837741 -1.81640410  1064822677
-1.57574761 -7.47167826 -2.49513626  3236993333
-2.49513626 0.96837741 -1.21175539  1064822677
-1.08974779 -7.55786467 -2.49513626  3237190007
-2.49513626 0.96837741 -0.47608718  1064822677
-0.22952805 -7.63257837 -2.49513626  3237237842
-2.49513626 0.96837741 0.01727031  1064822677
0.26404944 -7.63146400 -2.49513626  3237184162
-2.49513626 0.96837741 1.00170887  1064822677
1.24584365 -7.53371334 -2.49513626  3236980523
-2.49513626 0.96837741 1.72995520  1064822677
1.84993088 -7.40855694 -2.49513626  3236697610
-2.49513626 0.96837741 2.08840275  1064822677
2.32469249 -7.27356529 -2.49513626  3235376620
-2.49513626 0.96837741 4.00286388  1064822677
4.21093750 -6.37000465 -2.49513626  3234439869
-2.49513626 0.96837741 4.51473045  1064822677
4.71140480 -6.00929308 -2.49513626  3233501963
-2.49513626 0.96837741 5.08979464  1064822677
5.35970736 -5.43897867 -2.49513626  3232448681
-2.49513626 0.96837741 -4.55558014  1064835614
-4.46019840 -5.93784571 -2.49513626  3233827577
-2.49513626 0.96914852 -4.26596451  1064835614
-4.06727362 -6.21359062 -2.49513626  3234525181
-2.49513626 0.96914852 -3.76132870  1064835614
-3.65734696 -6.46337461 -2.49513626  3235135972
-2.49513626 0.96914852 -2.90427423  1064835614
-2.68185902 -6.92524290 -2.49513626  3235922944
-2.49513626 0.96914852 -2.22885346  1064835614
-1.88288558 -7.18374109 -2.49513626  3236560459
-2.49513626 0.96914852 -0.82171828  1064835614
-0.34316817 -7.41846657 -2.49513626  3236792722
-2.49513626 0.96914852 0.13681544  1064835614
0.25680077 -7.42195702 -2.49513626  3236779709
-2.49513626 0.96914852 0.61622941  1064835614
0.97420996 -7.36221981 -2.49513626  3236394814
-2.49513626 0.96914852 1.79914451  1064835614
2.14625335 -7.10950184 -2.49513626  3235899498
-2.49513626 0.96914852 2.71315527  1064835614
2.82453036 -6.86832380 -2.49513626  3235430357
-2.49513626 0.96914852 3.15409946  1064835614
3.26234818 -6.67146826 -2.49513626  3235104151
-2.49513626 0.96914852 3.47625995  1064835614
3.58187103 -6.50550270 -2.49513626  3234745317
-2.49513626 0.96914852 3.79025269  1064835614
3.99467683 -6.26050758 -2.49513626  3234217601
-2.49513626 0.96914852 4.39078760  1064835614
4.48701000 -5.91761017 -2.49513626  3233324996
-2.49513626 0.96914852 4.76855421  1064835614
4.85994482 -5.61536646 -2.49513626  3232835484
-2.49513626 0.96914852 5.03889227  1064835614
5.12639904 -5.37321281 -2.49513626  3232318695
-2.49513626 0.96914852 5.29738045  1064835614
-4.43319511 -5.70742273 -2.49513626  3233343501
-2.49513626 0.96988094 -4.15136051  1064847902
-3.95800447 -6.04665995 -2.49513626  3234167881
-2.49513626 0.96988094 -3.66027761  1064847902
-3.55909133 -6.28973484 -2.49513626  3234534910
-2.49513626 0.96988094 -3.35394979  1064847902
-3.25005341 -6.45484734 -2.49513626  3234870657
-2.49513626 0.96988094 -3.03974056  1064847902
-2.93337893 -6.60478449 -2.49513626  3235445205
-2.49513626 0.96988094 -2.39064145  1064847902
-2.16897583 -6.89372492 -2.49513626  3235754287
-2.49513626 0.96988094 -1.94504416  1064847902
-1.83230126 -6.99074936 -2.49513626  3235946324
-2.49513626 0.96988094 -1.60540879  1064847902
-1.49131775 -7.07134056 -2.49513626  3236103762
-2.49513626 0.96988094 -1.26199794  1064847902
-1.14682686 -7.13531113 -2.49513626  3236288284
-2.49513626 0.96988094 -0.56709284  1064847902
-0.45057815 -7.21282768 -2.49513626  3236365164
-2.49513626 0.96988094 -0.21722984  1064847902
0.24990302 -7.22256660 -2.49513626  3236347438
-2.49513626 0.96988094 0.59967452  1064847902
0.71599412 -7.19133186 -2.49513626  3236280551
-2.49513626 0.96988094 0.94803816  1064847902
1.06370485 -7.14817667 -2.49513626  3236136361
-2.49513626 0.96988094 1.40891337  1064847902
1.86390257 -6.98239040 -2.49513626  3235803516
-2.49513626 0.96988094 2.20013404  1064847902
2.53119588 -6.76911688 -2.49513626  3235333691
-2.49513626 0.96988094 2.74864578  1064847902
2.85630727 -6.63847876 -2.49513626  3234946505
-2.49513626 0.96988094 3.27921653  1064847902
3.38287258 -6.38624144 -2.49513626  3234501981
-2.49513626 0.96988094 3.68842769  1064847902
3.88735986 -6.09231758 -2.49513626  3233302203
-2.49513626 0.96988094 4.45896578  1064847902
4.90352058 -5.30880117 -2.49513626  3232191188
-2.49513626 0.96988094 5.15506697  1064847902
-4.31656313 -5.55726910 -2.49513626  3233304962
-2.49513626 0.97057742 -3.85387444  1064859587
-3.75821567 -5.94909573 -2.49513626  3233949840
-2.49513626 0.97057742 -3.46545553  1064859587
-3.36602354 -6.17946720 -2.49513626  3234297150
-2.49513626 0.97057742 -3.16454864  1064859587
-3.06255984 -6.33534956 -2.49513626  3234613729
-2.49513626 0.97057742 -2.85620451  1064859587
-2.75189424 -6.47634315 -2.49513626  3234898844
-2.49513626 0.97057742 -2.43476439  1064859587
-2.32774663 -6.64059734 -2.49513626  3235438096
-2.49513626 0.97057742 -1.67385268  1064859587
-1.34061491 -6.90787077 -2.49513626  3235795623
-2.49513626 0.97057742 -0.89153248  1064859587
-0.55217338 -7.01505947 -2.49513626  3235980114
-2.49513626 0.97057742 0.24332730  1064859587
0.47048745 -7.02100945 -2.49513626  3235931726
-2.49513626 0.97057742 0.69715726  1064859587
0.92309636 -6.97594595 -2.49513626  3235784884
-2.49513626 0.97057742 1.48321021  1064859587
1.59418869 -6.85379314 -2.49513626  3235483356
-2.49513626 0.97057742 2.03364539  1064859587
2.14225101 -6.70273685 -2.49513626  3235207678
-2.49513626 0.97057742 2.46460295  1064859587
2.67633080 -6.50793219 -2.49513626  3234685070
-2.49513626 0.97057742 2.98861384  1064859587
3.09118199 -6.32143497 -2.49513626  3234375979
-2.49513626 0.97057742 3.49312258  1064859587
3.59138989 -6.05126953 -2.49513626  3233792521
-2.49513626 0.97057742 3.88046384  1064859587
4.06815195 -5.74160767 -2.49513626  3232226343
-2.49513626 0.97057742 -4.02810097  1064870712
-3.84672213 -5.67435884 -2.49513626  3233254286
-2.49513626 0.97124046 -3.37610769  1064870712
-3.27924061 -6.02014780 -2.49513626  3233960135
-2.49513626 0.97124046 -2.68094397  1064870712
-2.57862401 -6.35187387 -2.49513626  3234631966
-2.49513626 0.97124052 -2.37199116  1064870711
-2.05746341 -6.53930044 -2.49513626  3235007323
-2.49513626 0.97124046 -1.52286875  1064870711
-1.08786535 -6.76846409 -2.49513626  3235513871
-2.49513626 0.97124046 -0.53793716  1064870711
-0.31677955 -6.84801149 -2.49513626  3235595650
-2.49513626 0.97124046 -0.09529106  1064870711
0.01550530 -6.85531712 -2.49513626  3235599704
-2.49513626 0.97124052 0.23705482  1064870711
0.45835701 -6.83998966 -2.49513626  3235531420
-2.49513626 0.97124046 0.89929670  1064870712
1.22763312 -6.74451780 -2.49513626  3235279152
-2.49513626 0.97124046 1.66079819  1064870711
1.87488747 -6.59396553 -2.49513626  3234988663
-2.49513626 0.97124052 2.08701944  1064870711
2.19228125 -6.49534082 -2.49513626  3234691490
-2.49513626 0.97124046 2.50452089  1064870711
2.70945668 -6.29717779 -2.49513626  3234338053
-2.49513626 0.97124046 2.91156054  1064870711
3.01148462 -6.15845490 -2.49513626  3233929821
-2.49513626 0.97124052 3.30643702  1064870712
3.49879479 -5.89525270 -2.49513626  3233468509
-2.49513626 0.97124052 3.68749952  1064870711
3.78041744 -5.71874475 -2.49513626  3233088851
-2.49513626 0.97124046 3.96326709  1064870711
4.48622894 -5.18356133 -2.49513626  3231627412
-2.49513626 0.97124046 4.89002895  1064870712
-3.92625976 -5.40682316 -2.49513626  3232695993
-2.49513626 0.97187251 -3.65958667  1064881315
-3.10107589 -5.91883183 -2.49513626  3233938786
-2.49513626 0.97187251 -2.71221328  1064881315
-2.61316252 -6.14984798 -2.49513626  3234293015
-2.49513626 0.97187251 -2.31201935  1064881315
-2.10819507 -6.34072256 -2.49513626  3234592647
-2.49513626 0.97187251 -1.37887847  1064881315
-1.27303076 -6.55962086 -2.49513626  3235211399
-2.49513626 0.97187251 -0.30877036  1064881315
0.01511329 -6.68199444 -2.49513626  3235230281
-2.49513626 0.97187251 0.33895722  1064881315
0.55446088 -6.65896511 -2.49513626  3235169719
-2.49513626 0.97187251 0.76938325  1064881315
0.98350322 -6.60923338 -2.49513626  3235050895
-2.49513626 0.97187251 1.19659483  1064881315
1.30268717 -6.55379629 -2.49513626  3234923836
-2.49513626 0.97187245 1.51382017  1064881315
1.61880660 -6.48295498 -2.49513626  3234428638
-2.49513626 0.97187251 2.34035373  1064881315
2.44120002 -6.22010899 -2.49513626  3234185545
-2.49513626 0.97187251 2.83794785  1064881315
2.93534541 -6.00274944 -2.49513626  3233608621
-2.49513626 0.97187251 3.22284102  1064881315
3.41033554 -5.74620390 -2.49513626  3233038692
-2.49513626 0.97187251 3.68483758  1064881315
3.86306334 -5.45215464 -2.49513626  3232527042
-2.49513626 0.97187251 4.12277889  1064881315
4.20722532 -5.19119358 -2.49513626  3231821346
-2.49513626 0.97187251 4.53381491  1064881315
4.61255217 -4.83462620 -2.49513626  3231206762
-2.49513626 0.97187251 4.76639557  1064881315
-3.99726009 -5.14618778 -2.49513626  3232151882
-2.49513626 0.97247547 -3.74313951  1064891431
-3.56879663 -5.45206594 -2.49513626  3233431136
-2.49513626 0.97247547 -2.74082971  1064891431
-2.64492679 -5.95530796 -2.49513626  3233968823
-2.49513626 0.97247547 -2.15556145  1064891431
-1.75377953 -6.27579498 -2.49513626  3234549561
-2.49513626 0.97247547 -1.34467089  1064891431
-1.03405559 -6.43367004 -2.49513626  3234780882
-2.49513626 0.97247547 -0.61624914  1064891431
-0.40627083 -6.50355864 -2.49513626  3234876412
-2.49513626 0.97247547 -0.19586870  1064891431
-0.09057748 -6.51560593 -2.49513626  3234888688
-2.49513626 0.97247547 0.22532786  1064891431
0.75029540 -6.47289610 -2.49513626  3234707901
-2.49513626 0.97247547 1.57864571  1064891431
1.88321304 -6.23817682 -2.49513626  3233946374
-2.49513626 0.97247547 2.47835994  1064891431
2.95675611 -5.80679989 -2.49513626  3233301409
-2.49513626 0.97247547 3.14288568  1064891431
3.23473024 -5.65666389 -2.49513626  3232625313
-2.49513626 0.97247547 3.85266280  1064891431
4.02049685 -5.12805414 -2.49513626  3231842110
-2.49513626 0.97247547 4.26432037  1064891431
4.34339666 -4.85759592 -2.49513626  3231264046
-2.49513626 0.97247547 4.49811983  1064891431
4.57372856 -4.64137316 -2.49513626  3231885716
-2.49513626 0.97305131 -3.30812883  1064901092
-3.13093877 -5.53308964 -2.49513626  3233035349
-2.49513626 0.97305131 -2.85907745  1064901092
-2.76693106 -5.72380495 -2.49513626  3233410425
-2.49513626 0.97305137 -2.39136767  1064901092
-2.19973850 -5.96481419 -2.49513626  3233807515
-2.49513626 0.97305131 -2.00581312  1064901092
-1.90805244 -6.06442070 -2.49513626  3234006493
-2.49513626 0.97305131 -1.71105862  1064901092
-1.61187720 -6.14977360 -2.49513626  3234224993
-2.49513626 0.97305131 -1.21120667  1064901092
-1.11018121 -6.25981998 -2.49513626  3234421655
-2.49513626 0.97305131 -0.80547369  1064901093
-0.70344710 -6.31846809 -2.49513626  3234498368
-2.49513626 0.97305131 -0.08837108  1064901092
0.01437954 -6.35749149 -2.49513626  3234550151
-2.49513626 0.97305131 0.32249594  1064901092
0.83399045 -6.30256414 -2.49513626  3234302302
-2.49513626 0.97305131 1.34003806  1064901092
1.73873532 -6.11511755 -2.49513626  3233989195
-2.49513626 0.97305131 1.93546093  1064901093
2.03307939 -6.02365780 -2.49513626  3233636498
-2.49513626 0.97305131 2.41798830  1064901092
2.79279256 -5.71123219 -2.49513626  3233106570
-2.49513626 0.97305131 2.97591758  1064901092
3.06632471 -5.56915712 -2.49513626  3232799384
-2.49513626 0.97305131 3.41971540  1064901092
3.50588655 -5.30345392 -2.49513626  3232104188
-2.49513626 0.97305131 3.84118772  1064901092
3.92255902 -5.00313807 -2.49513626  3231446467
-2.49513626 0.97305131 4.23759317  1064901092
4.38854837 -4.59983778 -2.49513626  3230722032
-2.49513626 0.97305131 -3.80655742  1064910328
-3.72685695 -4.96155310 -2.49513626  3231877761
-2.49513626 0.97360182 -3.48200178  1064910328
-3.31418014 -5.24620581 -2.49513626  3232338455
-2.49513626 0.97360182 -3.14289474  1064910328
-2.87986565 -5.49662113 -2.49513626  3232848824
-2.49513626 0.97360182 -2.70071626  1064910328
-2.61006856 -5.62974358 -2.49513626  3233202639
-2.49513626 0.97360182 -2.24091148  1064910328
-2.05272269 -5.85600567 -2.49513626  3233574377
-2.49513626 0.97360182 -1.86239004  1064910328
-1.76647973 -5.94861507 -2.49513626  3233758866
-2.49513626 0.97360182 -1.57330239  1064910328
-1.37848163 -6.05031109 -2.49513626  3234039100
-2.49513626 0.97360182 -0.68661231  1064910328
-0.08625693 -6.20475864 -2.49513626  3234236843
-2.49513626 0.97360182 0.31477934  1064910328
0.81403190 -6.15173244 -2.49513626  3234064677
-2.49513626 0.97360182 1.11123753  1064910328
1.50333357 -6.02050209 -2.49513626  3233798780
-2.49513626 0.97360182 1.79336870  1064910329
1.88914275 -5.91080379 -2.49513626  3233555677
-2.49513626 0.97360182 2.26706052  1064910328
2.45256448 -5.70012236 -2.49513626  3233094816
-2.49513626 0.97360182 2.90469790  1064910328
2.99294400 -5.43587637 -2.49513626  3232522401
-2.49513626 0.97360182 3.33787656  1064910328
3.50519943 -5.12055159 -2.49513626  3231843842
-2.49513626 0.97360182 3.74926209  1064910328
3.90710926 -4.82088947 -2.49513626  3230926580
-2.49513626 0.97360182 4.21040201  1064910328
4.35552311 -4.41994190 -2.49513626  3230345919
-2.49513626 0.97360182 -3.56040430  1064919166
-3.48070145 -4.95990944 -2.49513626  3231743778
-2.49513626 0.97412860 -3.31858349  1064919166
-3.23621106 -5.12278414 -2.49513626  3232077011
-2.49513626 0.97412860 -3.06895542  1064919166
-2.98411369 -5.27361679 -2.49513626  3232481537
-2.49513626 0.97412860 -2.54866552  1064919166
-2.45948720 -5.53777313 -2.49513626  3232920864
-2.49513626 0.97412860 -2.18819022  1064919166
-1.72492218 -5.80866575 -2.49513626  3233464000
-2.49513626 0.97412860 -1.44135940  1064919166
-1.34605110 -5.90797091 -2.49513626  3233659388
-2.49513626 0.97412860 -1.15440786  1064919166
-0.96155614 -5.98259258 -2.49513626  3233802821
-2.49513626 0.97412860 -0.57304287  1064919166
-0.37778664 -6.04758549 -2.49513626  3233919321
-2.49513626 0.97412860 -0.08422696  1064919166
0.01370514 -6.05935669 -2.49513626  3233930738
-2.49513626 0.97412860 0.69769055  1064919166
0.79488105 -6.00700808 -2.49513626  3233794501
-2.49513626 0.97412860 0.98860657  1064919166
1.08509529 -5.96142197 -2.49513626  3233502981
-2.49513626 0.97412860 1.65719819  1064919166
2.03027368 -5.70911121 -2.49513626  3233127970
-2.49513626 0.97412860 2.39486456  1064919166
2.48450732 -5.52658939 -2.49513626  3232729851
-2.49513626 0.97412860 2.66182590  1064919166
2.83636284 -5.35453033 -2.49513626  3232256627
-2.49513626 0.97412860 3.09255672  1064919166
3.25934982 -5.10809278 -2.49513626  3231473948
-2.49513626 0.97412860 3.89077377  1064919166
4.03887272 -4.51702213 -2.49513626  3230419661
-2.49513626 0.97412860 4.25305462  1064919166
-3.63099790 -4.67465162 -2.49513626  3231386473
-2.49513626 0.97463304 -3.24179459  1064927629
-3.16132832 -5.00424862 -2.49513626  3231928930
-2.49513626 0.97463304 -2.83142447  1064927629
-2.57615900 -5.32915688 -2.49513626  3232650246
-2.49513626 0.97463304 -2.13755846  1064927629
-2.04807043 -5.55355024 -2.49513626  3232940004
-2.49513626 0.97463304 -1.86751795  1064927629
-1.77649438 -5.64628839 -2.49513626  3233180820
-2.49513626 0.97463304 -1.03363609  1064927629
-0.93930715 -5.84416008 -2.49513626  3233511801
-2.49513626 0.97463304 -0.74993759  1064927629
-0.46447608 -5.90091276 -2.49513626  3233614708
-2.49513626 0.97463304 -0.17792228  1064927629
-0.08227874 -5.91859293 -2.49513626  3233638826
-2.49513626 0.97463304 0.39576346  1064927629
0.49116150 -5.89875126 -2.49513626  3233577787
-2.49513626 0.97463304 0.77648824  1064927629
0.96573138 -5.83985138 -2.49513626  3233400677
-2.49513626 0.97463304 1.43399870  1064927629
1.52662456 -5.71890879 -2.49513626  3233165587
-2.49513626 0.97463304 1.71065688  1064927629
1.89290154 -5.60833645 -2.49513626  3232852560
-2.49513626 0.97463304 2.16250324  1064927629
2.25127077 -5.47432995 -2.49513626  3232628171
-2.49513626 0.97463304 2.68583345  1064927629
2.85490680 -5.18517256 -2.49513626  3231900382
-2.49513626 0.97463304 3.34353757  1064927629
3.49964905 -4.77377844 -2.49513626  3230994383
-2.49513626 0.97463304 3.80074549  1064927629
3.87358785 -4.47569275 -2.49513626  3230344228
-2.49513626 0.97463304 4.08596468  1064927629
4.22224474 -4.14839220 -2.49513626  3230805687
-2.49513626 0.97511649 -3.32273483  1064935740
-3.24577785 -4.78789711 -2.49513626  3231584532
-2.49513626 0.97511649 -2.92967606  1064935740
-2.68449163 -5.12372303 -2.49513626  3232060276
-2.49513626 0.97511649 -2.51749349  1064935740
-2.43299747 -5.24781466 -2.49513626  3232606904
-2.49513626 0.97511649 -1.91346264  1064935740
-1.73604143 -5.51771450 -2.49513626  3232854287
-2.49513626 0.97511649 -1.55680645  1064935740
-1.46656811 -5.59537458 -2.49513626  3233007992
-2.49513626 0.97511649 -1.19364619  1064935740
-1.10201633 -5.67843246 -2.49513626  3233202475
-2.49513626 0.97511649 -0.73286039  1064935740
-0.54703611 -5.75845337 -2.49513626  3233318784
-2.49513626 0.97511649 -0.26729158  1064935740
-0.08040447 -5.78381968 -2.49513626  3233354131
-2.49513626 0.97511649 0.20002073  1064935740
0.57307947 -5.75591946 -2.49513626  3233275507
-2.49513626 0.97511649 0.75880653  1064935740
0.94374180 -5.70687199 -2.49513626  3233160100
-2.49513626 0.97511649 1.12768853  1064935740
1.31045985 -5.63397741 -2.49513626  3232994822
-2.49513626 0.97511649 1.58198833  1064935740
1.67170382 -5.53754807 -2.49513626  3232780374
-2.49513626 0.97511649 2.02596068  1064935740
2.20000696 -5.34966946 -2.49513626  3232368517
-2.49513626 0.97511649 2.45671034  1064935740
3.03221369 -4.92592001 -2.49513626  3231344964
-2.49513626 0.97511649 3.26740074  1064935740
3.34411645 -4.71973610 -2.49513626  3231008840
-2.49513626 0.97511649 3.49490595  1064935740
3.64204526 -4.49383259 -2.49513626  3230525046
-2.49513626 0.97511649 3.78538108  1064935740
3.92476273 -4.24914885 -2.49513626  3230002398
-2.49513626 0.97511649 -3.46875882  1064943521
-3.02007604 -4.78065062 -2.49513626  3231352276
-2.49513626 0.97558028 -2.78481603  1064943521
-2.70491195 -4.96577644 -2.49513626  3231729779
-2.49513626 0.97558028 -2.46104860  1064943521
-2.37844944 -5.13015175 -2.49513626  3232139769
-2.49513626 0.97558028 -1.78407133  1064943521
-1.69711912 -5.39400434 -2.49513626  3232646634
-2.49513626 0.97558028 -1.43368614  1064943521
-1.34509659 -5.49237347 -2.49513626  3232787908
-2.49513626 0.97558028 -1.16688478  1064943521
-0.89733624 -5.58303165 -2.49513626  3232988649
-2.49513626 0.97558028 -0.53477240  1064943521
-0.26129866 -5.64864683 -2.49513626  3233084181
-2.49513626 0.97558028 0.10417549  1064943521
0.19553588 -5.65130520 -2.49513626  3233068942
-2.49513626 0.97558028 0.46921560  1064943521
0.65109450 -5.61707735 -2.49513626  3232981729
-2.49513626 0.97558028 0.83229518  1064943521
1.01262486 -5.56327868 -2.49513626  3232817784
-2.49513626 0.97558028 1.28107965  1064943521
1.54651856 -5.43909550 -2.49513626  3232578173
-2.49513626 0.97558028 1.72149742  1064943521
1.80832458 -5.35774708 -2.49513626  3232398724
-2.49513626 0.97558028 1.98053575  1064943521
2.06587958 -5.26380110 -2.49513626  3232118683
-2.49513626 0.97558028 2.40162897  1064943521
2.56582665 -5.03904915 -2.49513626  3231519897
-2.49513626 0.97558028 2.88601518  1064943521
3.04166985 -4.76694202 -2.49513626  3230901554
-2.49513626 0.97558028 3.41654778  1064943521
3.48892426 -4.45004416 -2.49513626  3230438424
-2.49513626 0.97558028 3.63092303  1064943521
3.70051050 -4.27571201 -2.49513626  3230065693
-2.49513626 0.97558028 3.83676600  1064943521
3.90339708 -4.09133005 -2.49513626  3230497812
-2.49513626 0.97602546 -3.24923158  1064950990
-3.17649174 -4.52642059 -2.49513626  3230824486
-2.49513626 0.97602546 -2.48684072  1064950990
-2.40669084 -4.97859621 -2.49513626  3231824011
-2.49513626 0.97602546 -1.99694574  1064950990
-1.82924521 -5.21847153 -2.49513626  3232229970
-2.49513626 0.97602546 -1.57416582  1064950990
-1.40202022 -5.34910440 -2.49513626  3232489413
-2.49513626 0.97602546 -1.14111137  1064950990
-1.05351317 -5.42850828 -2.49513626  3232675333
-2.49513626 0.97602546 -0.61186171  1064950990
-0.52295953 -5.50500584 -2.49513626  3232817043
-2.49513626 0.97602546 -0.07686564  1064950990
0.19121803 -5.52648354 -2.49513626  3232807352
-2.49513626 0.97602546 0.36972809  1064950990
0.45885238 -5.51071930 -2.49513626  3232765229
-2.49513626 0.97602546 0.72540939  1064950990
0.90220404 -5.45569468 -2.49513626  3232599767
-2.49513626 0.97602546 1.16557145  1064950990
1.25278437 -5.38601112 -2.49513626  3232476818
-2.49513626 0.97602546 1.42620146  1064950990
1.51236117 -5.31895971 -2.49513626  3232327424
-2.49513626 0.97602546 1.76838350  1064950990
1.85283029 -5.21014261 -2.49513626  3232087707
-2.49513626 0.97602546 2.10317874  1064950990
2.18555713 -5.07955790 -2.49513626  3231802614
-2.49513626 0.97602546 2.50915551  1064950990
2.58846951 -4.88655233 -2.49513626  3231198167
-2.49513626 0.97602546 2.89875698  1064950990
3.04943895 -4.61297083 -2.49513626  3230578246
-2.49513626 0.97602546 3.48174882  1064950990
3.61877656 -4.18127251 -2.49513626  3229744379
-2.49513626 0.97602546 3.88134456  1064950990
-3.17849636 -4.37708473 -2.49513626  3230511416
-2.49513626 0.97645313 -3.03537488  1064958165
-2.81478930 -4.61938477 -2.49513626  3231187745
-2.49513626 0.97645313 -2.51047492  1064958165
-2.43270469 -4.83152962 -2.49513626  3231593294
-2.49513626 0.97645313 -2.11548233  1064958165
-1.95347500 -5.04436970 -2.49513626  3231990411
-2.49513626 0.97645313 -1.62350583  1064958165
-1.37149930 -5.23265934 -2.49513626  3232395526
-2.49513626 0.97645313 -0.85841453  1064958165
-0.77198434 -5.35404396 -2.49513626  3232500175
-2.49513626 0.97645313 -0.51157629  1064958165
-0.33726326 -5.39888954 -2.49513626  3232557715
-2.49513626 0.97645313 -0.16259973  1064958165
-0.07519236 -5.40889072 -2.49513626  3232569806
-2.49513626 0.97645313 0.09965670  1064958165
0.36167938 -5.39730644 -2.49513626  3232530712
-2.49513626 0.97645313 0.53592896  1064958165
0.62285298 -5.37343359 -2.49513626  3232417828
-2.49513626 0.97645313 1.05458748  1064958165
1.14019704 -5.28788137 -2.49513626  3232186030
-2.49513626 0.97645313 1.47943735  1064958165
1.56333661 -5.17858076 -2.49513626  3231974116
-2.49513626 0.97645313 2.05739355  1064958165
2.13797903 -4.96898174 -2.49513626  3231495837
-2.49513626 0.97645313 2.37630463  1064958165
2.45453334 -4.82048130 -2.49513626  3231250233
-2.49513626 0.97645313 2.76083207  1064958165
2.98305631 -4.51255322 -2.49513626  3230586639
-2.49513626 0.97645313 3.12733841  1064958165
3.26835108 -4.31040478 -2.49513626  3230153092
-2.49513626 0.97645313 3.40595293  1064958165
3.47342849 -4.14693022 -2.49513626  3229682246
-2.49513626 0.97645313 3.73408580  1064958165
3.85862875 -3.79113674 -2.49513626  3230101259
-2.49513626 0.97686422 -2.97021866  1064965062
-2.82706237 -4.47512054 -2.49513626  3230705072
-2.49513626 0.97686422 -2.68095279  1064965062
-2.60683799 -4.60688353 -2.49513626  3230973903
-2.49513626 0.97686422 -2.45658612  1064965062
-2.38048553 -4.72781897 -2.49513626  3231442238
-2.49513626 0.97686422 -1.91154313  1064965062
-1.83151603 -4.96634054 -2.49513626  3231759337
-2.49513626 0.97686422 -1.50684321  1064965062
-1.34206021 -5.12033796 -2.49513626  3232048951
-2.49513626 0.97686422 -0.92434311  1064965063
-0.83998877 -5.22622061 -2.49513626  3232236861
-2.49513626 0.97686422 -0.58569402  1064965062
-0.50059509 -5.26957226 -2.49513626  3232304722
-2.49513626 0.97686422 -0.24459907  1064965062
-0.07357894 -5.29278612 -2.49513626  3232326292
-2.49513626 0.97686422 0.26851216  1064965062
0.35391584 -5.28145170 -2.49513626  3232288036
-2.49513626 0.97686422 0.69438416  1064965062
0.77910328 -5.23564482 -2.49513626  3232146875
-2.49513626 0.97686422 1.11572397  1064965062
1.19920504 -5.15566540 -2.49513626  3231903088
-2.49513626 0.97686422 1.52977931  1064965062
1.93384802 -4.92739487 -2.49513626  3231492070
-2.49513626 0.97686422 2.09208655  1064965062
2.24814034 -4.79216528 -2.49513626  3231197863
-2.49513626 0.97686422 2.84727573  1064965062
2.91902256 -4.41568708 -2.49513626  3230283158
-2.49513626 0.97686422 3.12961030  1064965062
3.19819593 -4.21788216 -2.49513626  3229961458
-2.49513626 0.97686422 3.33284354  1064965062
3.39887023 -4.05791426 -2.49513626  3229619221
-2.49513626 0.97686422 3.59155846  1064965062
3.77580261 -3.70975828 -2.49513626  3230017636
-2.49513626 0.97725976 -2.69604087  1064971698
-2.62418056 -4.46750021 -2.49513626  3230767468
-2.49513626 0.97725976 -2.25498080  1064971698
-2.17929482 -4.70059109 -2.49513626  3231155904
-2.49513626 0.97725976 -1.94890320  1064971698
-1.87106287 -4.83156347 -2.49513626  3231420089
-2.49513626 0.97725976 -1.63468683  1064971698
-1.47493517 -4.96683455 -2.49513626  3231690311
-2.49513626 0.97725976 -1.23246729  1064971698
-0.98710287 -5.08630323 -2.49513626  3232003689
-2.49513626 0.97725976 -0.48999450  1064971698
-0.32303503 -5.17112398 -2.49513626  3232086336
-2.49513626 0.97725976 0.42992699  1064971698
0.51332033 -5.15571356 -2.49513626  3232018977
-2.49513626 0.97725976 0.67968124  1064971698
0.76260483 -5.12477446 -2.49513626  3231945654
-2.49513626 0.97725976 0.92783576  1064971698
1.01009762 -5.08178997 -2.49513626  3231847127
-2.49513626 0.97725976 1.17381060  1064971698
1.25521851 -5.02685881 -2.49513626  3231723638
-2.49513626 0.97725976 1.49738503  1064971698
2.12443638 -4.72563791 -2.49513626  3231062555
-2.49513626 0.97725976 2.35098386  1064971697
2.57200670 -4.49774170 -2.49513626  3230569511
-2.49513626 0.97725976 2.71602583  1064971698
2.78698182 -4.36779308 -2.49513626  3230191716
-2.49513626 0.97725976 3.06333804  1064971698
3.26226640 -4.02523327 -2.49513626  3229496568
-2.49513626 0.97725976 3.39065695  1064971698
3.45353103 -3.86238360 -2.49513626  3228800652
-2.49513626 0.97725976 3.57655549  1064971698
-2.98077655 -4.10480499 -2.49513626  3229933782
-2.49513626 0.97764045 -2.77832389  1064978085
-2.70936179 -4.28880453 -2.49513626  3230398685
-2.49513626 0.97764045 -2.42662358  1064978085
-2.35430694 -4.49352026 -2.49513626  3230803713
-2.49513626 0.97764045 -2.05908704  1064978085
-1.90817153 -4.70035839 -2.49513626  3231146224
-2.49513626 0.97764045 -1.60052180  1064978085
-1.52251339 -4.83905172 -2.49513626  3231423982
-2.49513626 0.97764045 -1.28618431  1064978085
-0.96647233 -4.98000145 -2.49513626  3231700685
-2.49513626 0.97764045 -0.80501556  1064978085
-0.72396249 -5.02098942 -2.49513626  3231778420
-2.49513626 0.97764045 -0.56130940  1064978085
-0.39807037 -5.05727291 -2.49513626  3231843451
-2.49513626 0.97764045 -0.23441546  1064978085
-0.07051495 -5.07242584 -2.49513626  3231864123
-2.49513626 0.97764045 0.17541872  1064978085
0.42094147 -5.05542183 -2.49513626  3231772208
-2.49513626 0.97764045 0.74666637  1064978085
0.82766348 -5.00494337 -2.49513626  3231692173
-2.49513626 0.97764045 0.98898649  1064978085
1.06927192 -4.95894432 -2.49513626  3231587531
-2.49513626 0.97764045 1.22898400  1064978085
1.30836725 -4.90128994 -2.49513626  3231458538
-2.49513626 0.97764045 1.46608913  1064978085
1.54438531 -4.83211803 -2.49513626  3231305485
-2.49513626 0.97764045 1.69974864  1064978085
1.77677333 -4.75158262 -2.49513626  3231064636
-2.49513626 0.97764045 2.08003545  1064978085
2.15454245 -4.59264851 -2.49513626  3230705890
-2.49513626 0.97764045 2.44674897  1064978085
2.51825047 -4.40373564 -2.49513626  3230004320
-2.49513626 0.97764045 2.99931240  1064978085
3.19408369 -3.94110441 -2.49513626  3228698287
-2.49513626 0.97764045 3.44202852  1064978085
3.50180483 -3.67040133 -2.49513626  3227992262
-2.49513626 0.97764045 3.61860061  1064978085
-3.04766226 -3.92364883 -2.49513626  3229656223
-2.49513626 0.97800714 -2.85391068  1064984237
-2.78781247 -4.11234331 -2.49513626  3229943042
-2.49513626 0.97800714 -2.65344810  1064984237
-2.58521795 -4.24263000 -2.49513626  3230209376
-2.49513626 0.97800714 -2.44674730  1064984237
-2.08971238 -4.50736809 -2.49513626  3230747701
-2.49513626 0.97800714 -1.94294631  1064984237
-1.86879194 -4.60335732 -2.49513626  3230941486
-2.49513626 0.97800714 -1.71903896  1064984237
-1.64348125 -4.68852139 -2.49513626  3231112434
-2.49513626 0.97800714 -1.49109340  1064984237
-1.33714831 -4.78490305 -2.49513626  3231345534
-2.49513626 0.97800708 -1.10365999  1064984237
-1.02522850 -4.86129761 -2.49513626  3231453759
-2.49513626 0.97800714 -0.62945622  1064984237
-0.54972577 -4.93772078 -2.49513626  3231597898
-2.49513626 0.97800714 -0.38985634  1064984237
-0.06905973 -4.96774578 -2.49513626  3231642829
-2.49513626 0.97800714 0.17179857  1064984237
0.33218125 -4.95710802 -2.49513626  3231608665
-2.49513626 0.97800714 0.49222028  1064984237
0.65174198 -4.92529106 -2.49513626  3231531118
-2.49513626 0.97800714 0.81058216  1064984237
0.96857631 -4.87289715 -2.49513626  3231410514
-2.49513626 0.97800714 1.12555981  1064984237
1.28136718 -4.80014181 -2.49513626  3231247356
-2.49513626 0.97800714 1.43583262  1064984237
1.51251304 -4.73239565 -2.49513626  3231097465
-2.49513626 0.97800714 1.74010611  1064984237
1.81508780 -4.62479496 -2.49513626  3230861583
-2.49513626 0.97800714 1.96360886  1064984237
2.03710914 -4.53138685 -2.49513626  3230585441
-2.49513626 0.97800714 2.39625549  1064984237
2.53566194 -4.27243376 -2.49513626  3230008869
-2.49513626 0.97800714 2.73975945  1064984237
2.93741608 -4.00685072 -2.49513626  3229235850
-2.49513626 0.97800714 3.12816763  1064984237
3.25128007 -3.75665307 -2.49513626  3228144440
-2.49513626 0.97800714 3.54392362  1064984237
-2.98553276 -3.84366131 -2.49513626  3229158625
-2.49513626 0.97836053 -2.85975099  1064990166
-2.79573154 -3.98384595 -2.49513626  3229673869
-2.49513626 0.97836053 -2.66551661  1064990166
-2.59935379 -4.11466837 -2.49513626  3229941531
-2.49513626 0.97836053 -2.39686799  1064990166
-2.32809615 -4.27400398 -2.49513626  3230414814
-2.49513626 0.97836053 -1.97548211  1064990166
-1.75757611 -4.53850889 -2.49513626  3230857568
-2.49513626 0.97836053 -1.38547432  1064990166
-1.23396242 -4.70791626 -2.49513626  3231139222
-2.49513626 0.97836053 -1.00432813  1064990166
-0.92723119 -4.77780056 -2.49513626  3231327720
-2.49513626 0.97836053 -0.61662483  1064990166
-0.38190842 -4.85193586 -2.49513626  3231412334
-2.49513626 0.97836053 -0.14629389  1064990166
0.08966238 -4.86611748 -2.49513626  3231426087
-2.49513626 0.97836053 0.24688444  1064990166
0.32541037 -4.85605240 -2.49513626  3231381976
-2.49513626 0.97836053 0.71635145  1064990166
0.79405814 -4.80172920 -2.49513626  3231267201
-2.49513626 0.97836053 1.02585602  1064990166
1.33107615 -4.68138599 -2.49513626  3230947703
-2.49513626 0.97836053 1.55640984  1064990166
1.77808499 -4.53051519 -2.49513626  3230601167
-2.49513626 0.97836053 1.99558055  1064990166
2.13800335 -4.37219477 -2.49513626  3230320969
-2.49513626 0.97836053 2.27819371  1064990166
2.41600370 -4.22493410 -2.49513626  3230002754
-2.49513626 0.97836053 2.55128789  1064990166
2.61793971 -4.10286903 -2.49513626  3228695890
-2.49513626 0.97836053 3.12510586  1064990166
3.47167754 -3.41095233 -2.49513626  3229021858
-2.49513626 0.97870129 -2.73940873  1064995883
-2.54698873 -4.03177357 -2.49513626  3229765936
-2.49513626 0.97870129 -2.41535330  1064995883
-2.28119445 -4.18789959 -2.49513626  3230084306
-2.49513626 0.97870129 -2.00587058  1064995883
-1.93568397 -4.35837984 -2.49513626  3230430071
-2.49513626 0.97870129 -1.79381323  1064995883
-1.72216749 -4.44707632 -2.49513626  3230608819
-2.49513626 0.97870129 -1.50460184  1064995883
-1.43126869 -4.54904509 -2.49513626  3230812778
-2.49513626 0.97870129 -1.20910335  1064995883
