# .PCD v0.7 - Point Cloud Data file format
VERSION 0.7
FIELDS x y z intensity
SIZE 4 4 4 4
TYPE F F F F
COUNT 1 1 1 1
WIDTH 1028
HEIGHT 1
VIEWPOINT 0 0 0 1 0 0 0
POINTS 1028
DATA ascii
-2.49513626 0.95276952 10.99178123  1064560820
11.06116199 -4.21041107 -2.49513626  3228990389
-2.49513626 0.95276952 11.25194931  1064560820
11.30970764 -3.48817730 -2.49513626  3226700012
-2.49513626 0.95276952 11.41637325  1064560820
11.59392834 -2.37853932 -2.49513626  3210673742
-1.74345720 0.96675837 7.78211975  1064825815
7.60143900 -0.18887149 -1.60302734  3179765913
-1.60093451 0.96943378 7.60041237  1064839824
7.61342859 0.30245277 -1.60632658  1054521732
-1.61362267 0.96919531 8.17183495  1064799058
11.74974060 1.42141747 -2.49513626  1070477188
-2.49513626 0.95276958 11.63358593  1064560820
3.74446225 -10.73207855 -2.49513626  3240664288
-2.49513626 0.95451802 4.93028927  1064590155
5.09490728 -10.16072845 -2.49513626  3239997370
-2.49513626 0.95451802 5.73968935  1064590155
5.89724970 -9.71703815 -2.49513626  3239702030
-2.49513626 0.95451802 6.51173687  1064590155
6.66122341 -9.21013546 -2.49513626  3238922294
-2.49513626 0.95451802 7.24142456  1064590155
7.38185358 -8.64330673 -2.49513626  3237770374
-2.49513626 0.95451802 8.43313026  1064590155
8.55500984 -7.48400640 -2.49513626  3235730631
-2.49513626 0.95451802 9.23841763  1064590155
9.44728088 -6.32039642 -2.49513626  3232840376
-2.49513626 0.95451802 10.01402569  1064590155
10.09949207 -5.21524143 -2.49513626  3231819433
-2.49513626 0.95451802 10.26252079  1064590155
10.41485786 -4.55294037 -2.49513626  3230419998
-2.49513626 0.95451802 10.55634880  1064590155
10.62297916 -4.04361820 -2.49513626  3228350478
-2.49513626 0.95451802 10.80620861  1064590155
10.91431236 -3.17429566 -2.49513626  3225410407
-2.49513626 0.95451802 11.13464928  1064590155
11.17005825 -2.10435057 -2.49513626  3220586538
-2.49513626 0.95451802 11.23214436  1064590155
11.25880623 -1.56134748 -2.49513626  3216020110
-2.49513626 0.95451802 8.17936802  1064797507
7.74617672 -0.69427150 -1.70722425  3205506733
-1.68893623 0.96898276 7.62297535  1064836728
7.58533049 -0.18847129 -1.66561377  3179748260
-1.66365337 0.96943992 7.57791376  1064840544
7.59562063 0.30174527 -1.66867244  1054479803
-1.67526710 0.96922988 8.12787533  1064801019
11.26077843 1.54701340 -2.49513626  1071464455
-2.49513626 0.95451802 11.20500183  1064590155
11.09946632 2.44955540 -2.49513626  3240496687
-2.49513626 0.95613879 3.76736283  1064617347
3.93246150 -10.20011234 -2.49513626  3240241754
-2.49513626 0.95613879 4.25955296  1064617347
4.58220148 -9.92522049 -2.49513626  3239860976
-2.49513626 0.95613879 5.67174721  1064617347
5.97035503 -9.15759182 -2.49513626  3239114249
-2.49513626 0.95613879 6.82764339  1064617347
6.96452522 -8.42627907 -2.49513626  3238330683
-2.49513626 0.95613879 7.23279476  1064617348
7.36412907 -8.07938099 -2.49513626  3237917757
-2.49513626 0.95613879 7.62098598  1064617348
7.99133587 -7.45957994 -2.49513626  3236040018
-2.49513626 0.95613879 8.67502594  1064617347
8.88515568 -6.36873341 -2.49513626  3234279259
-2.49513626 0.95613879 9.08603287  1064617347
9.45920372 -5.47998524 -2.49513626  3232396243
-2.49513626 0.95613879 10.01661110  1064617347
10.15268517 -4.05334711 -2.49513626  3227055728
-2.49513626 0.95613879 10.54486465  1064617347
10.59002018 -2.71261311 -2.49513626  3222775187
-2.49513626 0.95613879 10.77419376  1064617347
10.82828808 -1.50164390 -2.49513626  3210517691
-1.86739314 0.96698916 7.60353756  1064837080
7.57930899 -0.31076339 -1.73137999  3179730614
-1.72635138 0.96944398 7.56965780  1064840029
7.60162258 0.42493331 -1.73772931  1057826085
-1.74982238 0.96903503 10.85278893  1064617347
10.71166134 2.18333220 -2.49513626  3240094413
-2.49513626 0.95764530 3.62810326  1064642622
4.10209751 -9.69575310 -2.49513626  3239710084
-2.49513626 0.95764530 4.41282177  1064642622
4.87019444 -9.33359623 -2.49513626  3239231183
-2.49513626 0.95764530 5.31615782  1064642622
5.46209526 -9.00001907 -2.49513626  3238957637
-2.49513626 0.95764530 5.89121675  1064642622
6.44173670 -8.32699490 -2.49513626  3238235439
-2.49513626 0.95764530 6.70707798  1064642622
6.83714581 -8.00551510 -2.49513626  3237780696
-2.49513626 0.95764530 7.09190941  1064642622
7.21653748 -7.66527462 -2.49513626  3237054432
-2.49513626 0.95764530 7.46012020  1064642622
7.81084776 -7.05871677 -2.49513626  3235762427
-2.49513626 0.95764530 8.03455353  1064642622
8.14328384 -6.67246246 -2.49513626  3234941255
-2.49513626 0.95764530 8.35435009  1064642622
8.55671215 -6.13331175 -2.49513626  3233796734
-2.49513626 0.95764530 8.84348392  1064642622
8.93450260 -5.56861544 -2.49513626  3231983312
-2.49513626 0.95764530 9.35424900  1064642622
9.43097782 -4.67883587 -2.49513626  3230394390
-2.49513626 0.95764530 9.64634228  1064642622
9.71313190 -4.06077433 -2.49513626  3228545533
-2.49513626 0.95764530 9.95483398  1064642622
10.00881577 -3.26472759 -2.49513626  3225850946
-2.49513626 0.95764530 10.10894966  1064642622
10.19855499 -2.61234069 -2.49513626  3222407820
-2.49513626 0.95764530 10.37592125  1064642622
8.09616470 -0.85753864 -1.92955899  3207637168
-1.83209133 0.96872222 7.63962364  1064833142
7.59299850 -0.43414810 -1.80251217  1030086775
-1.78978348 0.96943337 7.63524771  1064833482
7.69339705 0.67966771 -1.83046961  1062698730
-1.91714811 0.96729410 10.42984962  1064642622
10.40537167 1.60096872 -2.49513626  1071801232
-2.49513626 0.95764530 10.34829330  1064642622
10.28043652 2.26880550 -2.49513626  3239719392
-2.49513626 0.95904911 3.65158343  1064666174
3.95530844 -9.34880733 -2.49513626  3239278080
-2.49513626 0.95904911 4.84052801  1064666174
5.26663971 -8.67797184 -2.49513626  3238435690
-2.49513626 0.95904911 5.94891644  1064666174
6.21122980 -8.02902794 -2.49513626  3237851191
-2.49513626 0.95904911 6.46707582  1064666174
6.71618891 -7.61166716 -2.49513626  3236958941
-2.49513626 0.95904911 6.95830250  1064666174
7.07665443 -7.27774811 -2.49513626  3236246548
-2.49513626 0.95904911 7.42054749  1064666174
8.05540276 -6.17698574 -2.49513626  3233062925
-2.49513626 0.95904911 8.52703476  1064666174
8.70031548 -5.22964478 -2.49513626  3231896984
-2.49513626 0.95904911 8.94319439  1064666174
9.01952362 -4.65755987 -2.49513626  3230686588
-2.49513626 0.95904911 9.23434353  1064666174
9.30116558 -4.06608105 -2.49513626  3228623534
-2.49513626 0.95904911 9.54406643  1064666174
9.59861565 -3.30321670 -2.49513626  3226040134
-2.49513626 0.95904911 9.74721718  1064666174
9.87298107 -2.35985661 -2.49513626  3220213184
-2.49513626 0.95904911 10.00463676  1064666174
10.03105736 -1.55645394 -2.49513626  3216145227
-2.49513626 0.95904911 10.07605839  1064666174
7.72920704 -0.69275063 -1.90745270  3205468542
-1.88351882 0.96892929 7.56820440  1064837847
7.56000090 -0.18784191 -1.85881996  3179724621
-1.85788083 0.96934569 7.56674194  1064837971
7.63788748 0.55071789 -1.88226461  1059998676
-1.90168786 0.96863431 10.07761860  1064666174
10.05663395 1.38158715 -2.49513626  1069913936
-2.49513626 0.95904911 10.00681686  1064666174
9.97799492 1.86662543 -2.49513626  1073856692
-2.49513626 0.95904911 9.91256714  1064666174
3.67200828 -9.08499241 -2.49513626  3238942900
-2.49513626 0.96036029 4.39227724  1064688171
4.67264128 -8.61319637 -2.49513626  3238565435
-2.49513626 0.96036023 4.94813919  1064688172
5.08397436 -8.37698936 -2.49513626  3238221394
-2.49513626 0.96036029 5.86996031  1064688171
5.99580240 -7.75055218 -2.49513626  3235958658
-2.49513626 0.96036029 6.94368935  1064688172
7.05435085 -6.80123949 -2.49513626  3235248134
-2.49513626 0.96036029 7.57955790  1064688172
7.67878389 -6.08744478 -2.49513626  3233197546
-2.49513626 0.96036023 8.05544376  1064688172
8.23128796 -5.31663799 -2.49513626  3232095270
-2.49513626 0.96036029 8.47892475  1064688171
8.55708218 -4.77462673 -2.49513626  3230947714
-2.49513626 0.96036029 9.15798759  1064688171
9.40914822 -2.73653793 -2.49513626  3223035310
-2.49513626 0.96036023 9.53055096  1064688172
9.56606674 -2.12392783 -2.49513626  3220967869
-2.49513626 0.96036029 9.65764141  1064688171
9.72658443 -1.18923271 -2.49513626  3210398429
-2.06610394 0.96706259 7.74805880  1064823067
7.65104675 -0.56145799 -1.95343459  3198084638
-1.92897749 0.96921462 7.56467819  1064837297
7.56820059 -0.06588140 -1.92717385  1043766119
-1.92680883 0.96924865 7.56739473  1064836871
7.64519739 0.55124497 -1.95176053  1060032225
-1.97580123 0.96847922 8.00676441  1064804879
9.72809029 1.17684960 -2.49513626  1068152237
-2.49513626 0.96036029 9.63192272  1064688172
9.60159302 1.95706916 -2.49513626  1074210523
-2.49513626 0.96036023 3.11942101  1064708762
3.40629172 -8.83532429 -2.49513626  3238694893
-2.49513626 0.96158755 3.96909380  1064708762
4.24444246 -8.46465969 -2.49513626  3238184360
-2.49513626 0.96158755 4.91285801  1064708762
5.04284573 -8.01470852 -2.49513626  3237860691
-2.49513626 0.96158755 5.29883337  1064708762
5.42477512 -7.76128769 -2.49513626  3237316377
-2.49513626 0.96158755 5.79399586  1064708762
5.91409302 -7.39521646 -2.49513626  3236326078
-2.49513626 0.96158755 6.70997715  1064708762
6.81691504 -6.57232237 -2.49513626  3234776157
-2.49513626 0.96158755 7.12696934  1064708762
7.60628462 -5.64005375 -2.49513626  3232794588
-2.49513626 0.96158755 8.19354153  1064708762
8.41364384 -4.34469223 -2.49513626  3230051045
-2.49513626 0.96158755 8.61403465  1064708762
8.67636490 -3.79294538 -2.49513626  3228156349
-2.49513626 0.96158749 8.79423714  1064708762
8.84974670 -3.36864066 -2.49513626  3226365190
-2.49513626 0.96158755 9.04860497  1064708762
9.09245491 -2.64443326 -2.49513626  3223311584
-2.49513626 0.96158755 9.20977688  1064708761
9.24409389 -2.05244040 -2.49513626  3219154185
-2.49513626 0.96158755 9.33258247  1064708762
9.35723019 -1.45190048 -2.49513626  3215359493
-2.49513626 0.96158755 9.39920712  1064708762
8.11126900 -0.85913885 -2.14927721  3207776034
-2.06134248 0.96815819 7.67148352  1064827791
7.58117056 0.05634324 -1.99769533  1043785767
-1.99719346 0.96913362 7.57439947  1064835304
7.66531944 0.55269569 -2.02505684  1062729418
-2.13610792 0.96702254 9.40066242  1064708762
9.38108730 1.28877974 -2.49513626  1069044091
-2.49513626 0.96158755 9.33461666  1064708762
9.24669933 2.04066849 -2.49513626  3238732324
-2.49513626 0.96273869 3.01741457  1064728075
3.56896138 -8.43563366 -2.49513626  3238397944
-2.49513626 0.96273869 3.97299147  1064728075
4.10564804 -8.18785954 -2.49513626  3237959884
-2.49513626 0.96273869 4.87793827  1064728075
5.12555790 -7.59118223 -2.49513626  3236606525
-2.49513626 0.96273869 5.83538437  1064728075
6.17020082 -6.76949310 -2.49513626  3235211485
-2.49513626 0.96273863 6.38542032  1064728075
6.49055672 -6.46297646 -2.49513626  3234104759
-2.49513626 0.96273869 6.99033451  1064728075
7.08493137 -5.80526829 -2.49513626  3232416272
-2.49513626 0.96273869 7.61293745  1064728075
7.77332115 -4.84488440 -2.49513626  3231121561
-2.49513626 0.96273863 8.06964016  1064728075
8.13851261 -4.20261908 -2.49513626  3229762446
-2.49513626 0.96273869 8.26988602  1064728075
8.33235073 -3.80385876 -2.49513626  3227655388
-2.49513626 0.96273869 8.50666142  1064728075
8.61181831 -3.11993194 -2.49513626  3224750462
-2.49513626 0.96273869 8.75270748  1064728075
8.83525753 -2.41570354 -2.49513626  3222369781
-2.49513626 0.96273863 8.90860558  1064728075
9.00121117 -1.69575691 -2.49513626  3217453033
-2.49513626 0.96273869 9.05124474  1064728074
7.62969542 -0.43624613 -2.08178544  3198119732
-2.07060170 0.96897900 7.59306574  1064833154
7.59037924 -0.06607446 -2.06775928  1050307757
-2.06981468 0.96899062 7.68879461  1064825516
9.07432270 1.24663615 -2.49513626  1069872973
-2.49513626 0.96273863 8.97501278  1064728075
8.94432545 1.97393775 -2.49513626  3238394130
-2.49513626 0.96382010 3.19011354  1064746224
3.32321954 -8.22204304 -2.49513626  3238118583
-2.49513626 0.96382046 3.71719861  1064746224
4.10247326 -7.86227751 -2.49513626  3237427662
-2.49513626 0.96382046 4.47813511  1064746223
4.60106802 -7.58128643 -2.49513626  3236804944
-2.49513626 0.96382046 5.31239367  1064746224
5.42628574 -7.01435947 -2.49513626  3235170986
-2.49513626 0.96382040 5.97396421  1064746223
6.07894516 -6.45694542 -2.49513626  3234133889
-2.49513626 0.96382046 6.48277044  1064746224
6.76801395 -5.73059511 -2.49513626  3232060362
-2.49513626 0.96382040 7.29028654  1064746224
7.44942617 -4.81162834 -2.49513626  3230548372
-2.49513626 0.96382040 7.74427891  1064746223
7.81299353 -4.19557524 -2.49513626  3229758694
-2.49513626 0.96382046 8.00687027  1064746224
8.12572765 -3.55222964 -2.49513626  3227184098
-2.49513626 0.96382046 8.28810215  1064746224
8.33792877 -3.02070498 -2.49513626  3224940661
-2.49513626 0.96382046 8.47433662  1064746224
8.51540852 -2.47660279 -2.49513626  3222646812
-2.49513626 0.96382046 8.59088802  1064746224
8.62527752 -2.06162858 -2.49513626  3219398726
-2.49513626 0.96382046 8.74029922  1064746223
8.78417683 -1.21817124 -2.49513626  3213476675
-2.49513626 0.96382040 7.71801186  1064822294
7.61337948 -0.31216040 -2.14387250  3179772095
-2.13806701 0.96891654 7.59847879  1064831753
7.64852142 0.42755499 -2.15531969  1057905021
-2.17541957 0.96838218 8.33204842  1064780107
8.33506966 0.87211299 -2.35792685  1067089559
-2.49513626 0.96382040 8.76510143  1064746224
8.74219799 1.48985744 -2.49513626  1070644160
-2.49513626 0.96382040 8.68957138  1064746224
8.65985966 1.91115892 -2.49513626  3238168970
-2.49513626 0.96483886 2.83098936  1064763310
2.96154833 -8.06721783 -2.49513626  3237707810
-2.49513626 0.96483886 3.60209942  1064763310
3.72752738 -7.74314451 -2.49513626  3237335771
-2.49513626 0.96483886 3.97544312  1064763310
4.09786558 -7.55369186 -2.49513626  3236925980
-2.49513626 0.96483886 4.57656384  1064763310
4.69333553 -7.19884443 -2.49513626  3236161753
-2.49513626 0.96483886 4.92318249  1064763310
5.36725712 -6.71143055 -2.49513626  3235116902
-2.49513626 0.96483886 5.58102846  1064763310
5.68574858 -6.44383430 -2.49513626  3234545019
-2.49513626 0.96483886 5.99090767  1064763310
6.08955812 -6.06394768 -2.49513626  3233734196
-2.49513626 0.96483886 6.28203917  1064763310
6.37583971 -5.76189184 -2.49513626  3232871282
-2.49513626 0.96483886 6.64720488  1064763310
6.98467922 -5.00650311 -2.49513626  3231246749
-2.49513626 0.96483886 7.29306269  1064763310
7.36545706 -4.42727852 -2.49513626  3230259687
-2.49513626 0.96483886 7.50448084  1064763310
7.57107210 -4.06566286 -2.49513626  3229374866
-2.49513626 0.96483886 7.69832087  1064763310
7.75894594 -3.69452548 -2.49513626  3227805682
-2.49513626 0.96483886 7.87411976  1064763310
7.92864180 -3.31473136 -2.49513626  3226201441
-2.49513626 0.96483886 8.07975292  1064763310
8.16999912 -2.66493249 -2.49513626  3223460004
-2.49513626 0.96483886 8.25173664  1064763310
8.28938770 -2.26645327 -2.49513626  3221780806
-2.49513626 0.96483886 8.38935184  1064763310
8.41831684 -1.72704983 -2.49513626  3217794429
-2.49513626 0.96483886 8.46966076  1064763310
8.49202824 -1.31765258 -2.49513626  3214350603
-2.49513626 0.96483886 8.47418404  1064769075
8.58643532 -0.35205707 -2.49513626  1031982022
-2.49513626 0.96483886 8.59125900  1064763310
8.58687305 0.34112364 -2.49513626  1058944768
-2.49513626 0.96483886 8.47344112  1064769190
8.49369812 1.30683911 -2.49513626  1070220585
-2.49513626 0.96483886 8.42050838  1064763310
8.39171696 1.85198128 -2.49513626  3237728213
-2.49513626 0.96579927 2.99805403  1064779423
3.24742174 -7.67563772 -2.49513626  3237210466
-2.49513626 0.96579921 3.49340749  1064779423
3.61505127 -7.50949955 -2.49513626  3236721195
-2.49513626 0.96579927 3.97421432  1064779422
4.20853281 -7.19370794 -2.49513626  3236167388
-2.49513626 0.96579927 4.55171633  1064779423
4.66377974 -6.90726614 -2.49513626  3235551353
-2.49513626 0.96579927 5.61430597  1064779423
5.71296549 -6.06821203 -2.49513626  3233558203
-2.49513626 0.96579927 5.99992037  1064779423
6.09248161 -5.68707705 -2.49513626  3232519872
-2.49513626 0.96579927 6.44662571  1064779423
6.61371613 -5.07148266 -2.49513626  3231408053
-2.49513626 0.96579927 6.85138130  1064779423
6.92706299 -4.63432646 -2.49513626  3230470537
-2.49513626 0.96579927 7.21156216  1064779423
7.34261894 -3.94298363 -2.49513626  3228875841
-2.49513626 0.96579927 7.46602774  1064779423
7.58165979 -3.46115589 -2.49513626  3226838994
-2.49513626 0.96579927 7.74026728  1064779423
7.88073969 -2.71203494 -2.49513626  3223139453
-2.49513626 0.96579927 8.07367992  1064779423
8.13620663 -1.80645967 -2.49513626  3218498645
-2.49513626 0.96579927 8.21409321  1064779423
8.25533199 -1.14483213 -2.49513626  3210787616
-2.49513626 0.96579927 8.30106163  1064779423
8.33176517 -0.20701778 -2.49513626  3180631035
-2.49513626 0.96579927 8.33202171  1064779423
8.32776833 0.33083072 -2.49513626  1055795773
-2.49513626 0.96579927 8.31275654  1064779423
8.30200100 0.73343456 -2.49513626  1065361133
-2.49513626 0.96579927 8.25678349  1064779423
8.21588135 1.40016150 -2.49513626  1070927803
-2.49513626 0.96579927 2.54117107  1064794642
2.90981460 -7.54754734 -2.49513626  3236739988
-2.49513626 0.96670640 3.62580156  1064794642
4.08466482 -6.98197746 -2.49513626  3235284711
-2.49513626 0.96670640 4.74047709  1064794642
4.94950294 -6.39803982 -2.49513626  3233945664
-2.49513626 0.96670640 5.44906235  1064794642
5.63912821 -5.79937315 -2.49513626  3233195216
-2.49513626 0.96670640 5.91316462  1064794642
6.08819342 -5.32601261 -2.49513626  3231977113
-2.49513626 0.96670640 6.41905737  1064794642
6.49764585 -4.81799889 -2.49513626  3230884591
-2.49513626 0.96670640 6.79488468  1064794642
6.86481905 -4.27864170 -2.49513626  3229964962
-2.49513626 0.96670640 7.18732977  1064794642
7.24628210 -3.59497952 -2.49513626  3226926727
-2.49513626 0.96670640 7.41175938  1064794642
7.64878845 -2.63221335 -2.49513626  3223358070
-2.49513626 0.96670640 7.72974062  1064794642
7.76720381 -2.25899673 -2.49513626  3220222899
-2.49513626 0.96670640 7.89673805  1064794642
7.92400122 -1.62563920 -2.49513626  3215933108
-2.49513626 0.96670640 8.04403877  1064794642
8.05674076 -0.72210664 -2.49513626  3205991880
-2.49513626 0.96670640 8.08654118  1064794642
8.08872986 -0.07041261 -2.49513626  1031158601
-2.49513626 0.96670640 8.08679008  1064794642
8.08265972 0.32109326 -2.49513626  1055336379
-2.49513626 0.96670640 8.04511738  1064794642
8.03048801 0.97148329 -2.49513626  1066199932
-2.49513626 0.96670640 7.99495888  1064794642
7.97406912 1.35895109 -2.49513626  1071587922
-2.49513626 0.96670640 2.58818841  1064809039
2.70754886 -7.37532568 -2.49513626  3236599011
-2.49513626 0.96756452 3.06127834  1064809039
3.17763352 -7.18532515 -2.49513626  3236184700
-2.49513626 0.96756452 3.96729398  1064809039
4.07620430 -6.71645880 -2.49513626  3234730185
-2.49513626 0.96756446 4.70638609  1064809039
4.90693092 -6.13582087 -2.49513626  3233580162
-2.49513626 0.96756452 5.38549566  1064809039
5.47709274 -5.63273287 -2.49513626  3232661376
-2.49513626 0.96756446 5.82901287  1064809039
6.23461342 -4.78078127 -2.49513626  3230607046
-2.49513626 0.96756446 6.59964037  1064809039
6.66756582 -4.15569925 -2.49513626  3229713842
-2.49513626 0.96756446 6.79818964  1064809039
6.98080969 -3.60479641 -2.49513626  3227003803
-2.49513626 0.96756452 7.19879007  1064809039
7.29658985 -2.91308260 -2.49513626  3224061330
-2.49513626 0.96756446 7.42900944  1064809038
7.46929407 -2.43637300 -2.49513626  3222548902
-2.49513626 0.96756452 7.57844305  1064809038
7.66983175 -1.70291150 -2.49513626  3216649784
-2.49513626 0.96756452 7.74325466  1064809039
7.76370239 -1.20464325 -2.49513626  3205706489
-2.49513626 0.96756446 7.85001087  1064809039
7.85418320 -0.19515136 -2.49513626  3180072891
-2.49513626 0.96756452 7.85442543  1064809038
7.84435940 0.43850252 -2.49513626  1062292842
-2.49513626 0.96756452 7.79973745  1064809039
7.72263336 1.44470572 -2.49513626  1070127421
-2.49513626 0.96756452 7.67199564  1064809039
2.51552343 -7.20979309 -2.49513626  3236258412
-2.49513626 0.96837741 2.86146760  1064822677
2.97533107 -7.03252172 -2.49513626  3235764714
-2.49513626 0.96837741 3.53244734  1064822677
3.64122581 -6.71196222 -2.49513626  3234779609
-2.49513626 0.96837741 4.17034435  1064822677
4.27301550 -6.32852936 -2.49513626  3234351035
-2.49513626 0.96837741 4.67231941  1064822677
4.86477613 -5.88582277 -2.49513626  3233402706
-2.49513626 0.96837741 5.05216789  1064822677
5.32332373 -5.47459412 -2.49513626  3232152843
-2.49513626 0.96837741 5.90648508  1064822677
5.98380852 -4.74373341 -2.49513626  3230970014
-2.49513626 0.96837741 6.34666729  1064822677
6.41435337 -4.14306974 -2.49513626  3229336980
-2.49513626 0.96837741 6.60732841  1064822677
6.66823483 -3.72070026 -2.49513626  3227989267
-2.49513626 0.96837741 6.89434242  1064822677
6.94641781 -3.17115712 -2.49513626  3225190601
-2.49513626 0.96837741 7.17940235  1064822677
7.25959158 -2.36797142 -2.49513626  3222276238
-2.49513626 0.96837741 7.33222103  1064822677
7.42682457 -1.77517223 -2.49513626  3218332262
-2.49513626 0.96837741 7.48023796  1064822677
7.50402641 -1.41369903 -2.49513626  3215289929
-2.49513626 0.96837741 7.54573488  1064822677
7.56364584 -1.04891038 -2.49513626  3205435650
-2.49513626 0.96837741 7.62962008  1064822677
7.63367558 -0.18967247 -2.49513626  3179815185
-2.49513626 0.96837741 7.63581991  1064822677
7.58076096 0.91707748 -2.49513626  1066705580
-2.49513626 0.96837741 7.50581932  1064822677
7.48218632 1.52507579 -2.49513626  1070768983
-2.49513626 0.96837741 2.33300161  1064835614
2.67144680 -6.92926598 -2.49513626  3235469071
-2.49513626 0.96914852 3.22122979  1064835614
3.32878256 -6.63856792 -2.49513626  3235033104
-2.49513626 0.96914852 3.64613676  1064835614
3.85300255 -6.34868288 -2.49513626  3234407504
-2.49513626 0.96914852 4.05585575  1064835614
4.15570927 -6.15479136 -2.49513626  3233990698
-2.49513626 0.96914852 4.35214615  1064835614
4.82297373 -5.64714956 -2.49513626  3232735863
-2.49513626 0.96914852 5.26242495  1064835614
5.42876863 -5.06753111 -2.49513626  3231667763
-2.49513626 0.96914852 5.66763639  1064835614
5.81953526 -4.61349964 -2.49513626  3229885585
-2.49513626 0.96914852 6.30246735  1064835614
6.36503077 -3.82593608 -2.49513626  3228451124
-2.49513626 0.96914852 6.48516941  1064835614
6.54271603 -3.51343679 -2.49513626  3224851456
-2.49513626 0.96914852 6.89704752  1064835614
6.94058132 -2.64192033 -2.49513626  3223446707
-2.49513626 0.96914852 7.02221346  1064835614
7.16346502 -1.95860839 -2.49513626  3219906483
-2.49513626 0.96914852 7.22293425  1064835614
7.24985456 -1.60966516 -2.49513626  3216968004
-2.49513626 0.96914852 7.31925344  1064835614
7.33858395 -1.13868022 -2.49513626  3213005597
-2.49513626 0.96914852 7.38508940  1064835614
7.39674902 -0.66295326 -2.49513626  3197879581
-2.49513626 0.96914852 7.42611790  1064835614
7.41482019 0.41449139 -2.49513626  1059540490
-2.49513626 0.96914852 7.38607550  1064835614
7.37264633 0.89190125 -2.49513626  1065443397
-2.49513626 0.96914852 7.34002781  1064835614
7.32084703 1.24762833 -2.49513626  1070390008
-2.49513626 0.96914852 2.38074017  1064847902
2.49053574 -6.78418016 -2.49513626  3234307132
-2.49513626 0.96988094 3.74949050  1064847902
3.94689417 -6.05391836 -2.49513626  3233786245
-2.49513626 0.96988094 4.78146982  1064847902
5.12105036 -5.09928894 -2.49513626  3231744768
-2.49513626 0.96988094 5.43930054  1064847902
5.73490000 -4.39759016 -2.49513626  3230055014
-2.49513626 0.96988094 6.25330496  1064847902
6.31094646 -3.52134228 -2.49513626  3224978420
-2.49513626 0.96988094 6.66764498  1064847902
6.83356237 -2.35166574 -2.49513626  3221770466
-2.49513626 0.96988094 6.97101974  1064847902
7.02889061 -1.68005717 -2.49513626  3217588347
-2.49513626 0.96988094 7.14143133  1064847902
7.15838099 -0.99270934 -2.49513626  3210774484
-2.49513626 0.96988094 7.18668699  1064847902
7.19803333 -0.64514279 -2.49513626  3204933279
-2.49513626 0.96988094 7.22465706  1064847902
7.22661352 -0.06290786 -2.49513626  1049813174
-2.49513626 0.96988094 7.19885015  1064847902
7.18764925 0.75205618 -2.49513626  1067149306
-2.49513626 0.96988094 7.08128548  1064847902
7.05707264 1.55743659 -2.49513626  3235078631
-2.49513626 0.97057736 2.74182725  1064859587
2.84604359 -6.43552542 -2.49513626  3234623682
-2.49513626 0.97057742 3.05222058  1064859587
3.15413141 -6.29026222 -2.49513626  3234196795
-2.49513626 0.97057742 3.65084553  1064859587
3.74743915 -5.95589209 -2.49513626  3233587443
-2.49513626 0.97057742 4.12380171  1064859587
4.30563688 -5.56573677 -2.49513626  3231805497
-2.49513626 0.97057742 4.98632145  1064859587
5.06578922 -4.88402748 -2.49513626  3231295262
-2.49513626 0.97057742 5.22074556  1064859587
5.37027073 -4.54710197 -2.49513626  3230578463
-2.49513626 0.97057742 5.51419973  1064859587
5.58401966 -4.28189850 -2.49513626  3230015136
-2.49513626 0.97057742 5.84858274  1064859587
5.91095495 -3.81792140 -2.49513626  3227631888
-2.49513626 0.97057742 6.19943953  1064859587
6.30363512 -3.12731934 -2.49513626  3225525459
-2.49513626 0.97057742 6.44758463  1064859587
6.65377855 -2.28979611 -2.49513626  3221535434
-2.49513626 0.97057742 6.81668139  1064859587
6.84396935 -1.63585711 -2.49513626  3217242643
-2.49513626 0.97057742 6.89319134  1064859587
6.91511154 -1.30275202 -2.49513626  3214439077
-2.49513626 0.97057742 6.95354700  1064859587
6.97005224 -0.96659225 -2.49513626  3210387357
-2.49513626 0.97057742 6.99761343  1064859587
7.03656101 0.05229521 -2.49513626  1058965211
-2.49513626 0.97057742 6.99855089  1064859587
6.95491552 1.07008278 -2.49513626  3234874300
-2.49513626 0.97124052 2.36248875  1064870711
2.46602154 -6.39642620 -2.49513626  3234278238
-2.49513626 0.97124052 2.97352934  1064870711
3.26895356 -6.02574015 -2.49513626  3233515805
-2.49513626 0.97124052 3.65082240  1064870711
3.74397206 -5.74266815 -2.49513626  3233140461
-2.49513626 0.97124046 3.92732477  1064870712
4.19462824 -5.42223978 -2.49513626  3232453308
-2.49513626 0.97124052 4.45210218  1064870712
4.53564072 -5.14038134 -2.49513626  3231850746
-2.49513626 0.97124052 4.69914722  1064870712
5.23181391 -4.42986774 -2.49513626  3230337321
-2.49513626 0.97124046 5.50665283  1064870712
5.63553953 -3.90336633 -2.49513626  3228825225
-2.49513626 0.97124052 5.75855637  1064870712
5.87558079 -3.53173542 -2.49513626  3226847096
-2.49513626 0.97124046 6.18947363  1064870712
6.40687037 -2.43876433 -2.49513626  3222630846
-2.49513626 0.97124046 6.51737881  1064870712
6.61261845 -1.80799723 -2.49513626  3217817019
-2.49513626 0.97124052 6.69236422  1064870711
6.75642824 -1.16029215 -2.49513626  3204477063
-2.49513626 0.97124046 6.84415436  1064870711
6.84957886 -0.28084332 -2.49513626  3190709771
-2.49513626 0.97124046 6.85342646  1064870712
6.84992647 0.27212176 -2.49513626  1053025918
-2.49513626 0.97124046 6.81811380  1064870711
6.80571175 0.82331640 -2.49513626  1065709676
-2.49513626 0.97124046 6.75789738  1064870712
2.30275869 -6.27268314 -2.49513626  3234217561
-2.49513626 0.97187251 2.70256424  1064881315
2.80082083 -6.06668377 -2.49513626  3233649084
-2.49513626 0.97187251 3.18630457  1064881315
3.28066421 -5.82121277 -2.49513626  3233205074
-2.49513626 0.97187251 3.64931440  1064881315
4.25698662 -5.15046692 -2.49513626  3231881323
-2.49513626 0.97187251 4.65824509  1064881315
4.73494339 -4.71482372 -2.49513626  3230951657
-2.49513626 0.97187251 4.88461399  1064881315
4.95755053 -4.48017168 -2.49513626  3230452085
-2.49513626 0.97187251 5.09953690  1064881315
5.16854763 -4.23501682 -2.49513626  3229930887
-2.49513626 0.97187251 5.30251169  1064881315
5.36742926 -3.97994447 -2.49513626  3229164521
-2.49513626 0.97187251 5.49305725  1064881315
5.61296606 -3.62544703 -2.49513626  3226886014
-2.49513626 0.97187251 5.83512688  1064881315
5.93714809 -3.06586289 -2.49513626  3224885784
-2.49513626 0.97187251 6.12253952  1064881315
6.16493130 -2.57737637 -2.49513626  3223228521
-2.49513626 0.97187251 6.35260105  1064881315
6.44543266 -1.76228607 -2.49513626  3217479019
-2.49513626 0.97187251 6.56649685  1064881315
6.58560419 -1.13095629 -2.49513626  3206067285
-2.49513626 0.97187251 6.66408968  1064881315
6.67111301 -0.38143703 -2.49513626  3196856322
-2.49513626 0.97187251 6.68175650  1064881315
6.66470671 0.48054817 -2.49513626  1058441459
-2.49513626 0.97187251 6.63364410  1064881315
6.61983204 0.90943700 -2.49513626  1066381427
-2.49513626 0.97187251 6.56806755  1064881315
6.54738569 1.33453822 -2.49513626  1069044311
-2.49513626 0.97187251 2.04707456  1064891431
2.14663148 -6.15250301 -2.49513626  3234053883
-2.49513626 0.97247547 2.34404230  1064891431
2.44184422 -6.04141760 -2.49513626  3233810969
-2.49513626 0.97247547 3.29045892  1064891431
3.38078642 -5.57060289 -2.49513626  3232673005
-2.49513626 0.97247547 3.64639497  1064891431
3.81875658 -5.28000212 -2.49513626  3231897928
-2.49513626 0.97247547 4.54267883  1064891431
4.76343107 -4.44646597 -2.49513626  3230387980
-2.49513626 0.97247547 4.97302198  1064891431
5.10630655 -4.04808331 -2.49513626  3228759451
-2.49513626 0.97247547 5.53005075  1064891431
5.58494663 -3.35703778 -2.49513626  3226154090
-2.49513626 0.97247547 5.74085665  1064891431
5.97064638 -2.61011744 -2.49513626  3223378972
-2.49513626 0.97247547 6.12657070  1064891431
6.22680044 -1.92049098 -2.49513626  3219713565
-2.49513626 0.97247547 6.33770943  1064891431
6.36132860 -1.41238809 -2.49513626  3215433613
-2.49513626 0.97247547 6.42222261  1064891431
6.43918276 -0.99912614 -2.49513626  3211076800
-2.49513626 0.97247547 6.46806908  1064891431
6.49022007 -0.58170307 -2.49513626  3203673140
-2.49513626 0.97247547 6.50561094  1064891431
6.51076508 -0.26695147 -2.49513626  1028021090
-2.49513626 0.97247547 6.51110029  1064891431
6.50607824 0.36369213 -2.49513626  1061705714
-2.49513626 0.97247547 6.45560169  1064891431
6.42362213 1.09472191 -2.49513626  1067881787
-2.49513626 0.97247547 2.09434056  1064901092
2.28694177 -5.93192673 -2.49513626  3233504385
-2.49513626 0.97305131 2.57131505  1064901092
2.66480160 -5.77205992 -2.49513626  3233238607
-2.49513626 0.97305131 3.03156281  1064901092
3.38570213 -5.38097334 -2.49513626  3232275205
-2.49513626 0.97305131 3.72573352  1064901092
3.89001632 -5.02848053 -2.49513626  3231637953
-2.49513626 0.97305131 4.05025005  1064901092
4.20626593 -4.76709318 -2.49513626  3231079150
-2.49513626 0.97305131 4.64739656  1064901092
4.71679115 -4.26259613 -2.49513626  3229840937
-2.49513626 0.97305131 4.91754246  1064901092
5.22629118 -3.61990786 -2.49513626  3227664166
-2.49513626 0.97305131 5.44890118  1064901092
5.50104189 -3.18691039 -2.49513626  3225829691
-2.49513626 0.97305131 5.60101175  1064901092
5.64881659 -2.91697288 -2.49513626  3224300631
-2.49513626 0.97305137 5.78335571  1064901092
5.94160986 -2.26166391 -2.49513626  3220986347
-2.49513626 0.97305131 6.07511806  1064901093
6.15867281 -1.57753217 -2.49513626  3216846190
-2.49513626 0.97305131 6.20636940  1064901092
6.24760103 -1.17699862 -2.49513626  3209004313
-2.49513626 0.97305131 6.34713745  1064901092
6.35216665 -0.26044866 -2.49513626  1052093592
-2.49513626 0.97305131 6.33283806  1064901092
6.26714659 1.06805468 -2.49513626  1066771261
-2.49513626 0.97305131 6.22941923  1064901092
1.94941247 -5.89120150 -2.49513626  3233512644
-2.49513626 0.97360182 2.23221087  1064910328
2.50977993 -5.67516184 -2.49513626  3233040670
-2.49513626 0.97360182 2.87061548  1064910328
2.95901275 -5.45442200 -2.49513626  3232562599
-2.49513626 0.97360182 3.13347745  1064910328
3.21949506 -5.30483913 -2.49513626  3232240130
-2.49513626 0.97360182 3.55496430  1064910328
3.63657045 -5.02810287 -2.49513626  3231645735
-2.49513626 0.97360182 3.95332074  1064910328
4.10560369 -4.65300846 -2.49513626  3230700629
-2.49513626 0.97360182 4.39718294  1064910328
4.46726179 -4.30697584 -2.49513626  3230105509
-2.49513626 0.97360182 4.60391092  1064910328
4.67044783 -4.08575392 -2.49513626  3229634754
-2.49513626 0.97360182 4.86269283  1064910328
5.21257305 -3.36683154 -2.49513626  3226245545
-2.49513626 0.97360182 5.41888666  1064910328
5.51363087 -2.84716415 -2.49513626  3223645650
-2.49513626 0.97360182 5.72516537  1064910328
5.76304245 -2.30083227 -2.49513626  3222095956
-2.49513626 0.97360182 5.86763000  1064910328
5.95846987 -1.73294902 -2.49513626  3218176852
-2.49513626 0.97360182 6.03534889  1064910328
6.05784035 -1.34500563 -2.49513626  3214909524
-2.49513626 0.97360182 6.11582994  1064910328
6.14653540 -0.85238868 -2.49513626  3208694526
-2.49513626 0.97360182 6.18058443  1064910328
6.19524050 -0.35422778 -2.49513626  3196201103
-2.49513626 0.97360182 6.20344400  1064910328
6.20512295 -0.05401576 -2.49513626  1027400850
-2.49513626 0.97360182 6.20363474  1064910328
6.20046806 0.24632083 -2.49513626  1057737715
-2.49513626 0.97360182 6.13318825  1064910328
6.11716318 1.04249489 -2.49513626  1067360946
-2.49513626 0.97360182 6.05954838  1064910328
1.90355170 -5.75260687 -2.49513626  3233082242
-2.49513626 0.97412860 2.27064228  1064919166
2.36099625 -5.58046913 -2.49513626  3232675259
-2.49513626 0.97412860 2.71603084  1064919166
2.88940096 -5.32610178 -2.49513626  3232295888
-2.49513626 0.97412860 3.14375234  1064919166
3.39073873 -5.02183628 -2.49513626  3231640916
-2.49513626 0.97412860 3.62977886  1064919166
3.70759749 -4.79267454 -2.49513626  3231020303
-2.49513626 0.97412860 4.08180857  1064919166
4.22418213 -4.34421921 -2.49513626  3230191824
-2.49513626 0.97412860 4.36216640  1064919166
4.62435770 -3.91552424 -2.49513626  3228944640
-2.49513626 0.97412860 4.86728477  1064919166
4.92489052 -3.53008103 -2.49513626  3227307850
-2.49513626 0.97412860 5.14232922  1064919166
5.33835506 -2.86669517 -2.49513626  3224131895
-2.49513626 0.97412860 5.47082186  1064919166
5.55203485 -2.42711735 -2.49513626  3222639846
-2.49513626 0.97412860 5.62746096  1064919166
5.66297960 -2.15560317 -2.49513626  3220988489
-2.49513626 0.97412860 5.76065731  1064919166
5.81829166 -1.69217741 -2.49513626  3217060988
-2.49513626 0.97412860 5.89336157  1064919166
5.95462370 -1.12180376 -2.49513626  3211646950
-2.49513626 0.97412860 6.00193357  1064919166
6.01458549 -0.73538041 -2.49513626  3206767430
-2.49513626 0.97412860 6.04312420  1064919166
6.04949093 -0.34589428 -2.49513626  3195941200
-2.49513626 0.97412860 6.05750179  1064919166
6.05920696 0.04503193 -2.49513626  1041381715
-2.49513626 0.97412860 6.04992485  1064919166
6.04368162 0.43576971 -2.49513626  1059155051
-2.49513626 0.97412860 6.00298738  1064919166
5.97324800 1.01796901 -2.49513626  3233010410
-2.49513626 0.97463304 2.30636573  1064927629
2.39402652 -5.41342402 -2.49513626  3232410327
-2.49513626 0.97463304 2.65318537  1064927629
2.73822045 -5.24772882 -2.49513626  3231939975
-2.49513626 0.97463304 3.07101130  1064927629
3.23269391 -4.95844698 -2.49513626  3231399918
-2.49513626 0.97463304 3.54579067  1064927629
3.69687939 -4.62272549 -2.49513626  3230793664
-2.49513626 0.97463304 3.91625094  1064927629
3.98735929 -4.37463999 -2.49513626  3229841279
-2.49513626 0.97463304 4.32696676  1064927629
4.45504475 -3.89731765 -2.49513626  3228879750
-2.49513626 0.97463304 4.57848549  1064927629
4.75466251 -3.52557755 -2.49513626  3226641845
-2.49513626 0.97463304 4.97216654  1064927629
5.02334213 -3.13090205 -2.49513626  3225282109
-2.49513626 0.97463304 5.16896534  1064927629
5.25933886 -2.71585250 -2.49513626  3223870534
-2.49513626 0.97463304 5.34423637  1064927629
5.42356682 -2.37095690 -2.49513626  3222413017
-2.49513626 0.97463304 5.49724770  1064927629
5.53194618 -2.10572600 -2.49513626  3221293375
-2.49513626 0.97463304 5.59701300  1064927629
5.70959663 -1.56109631 -2.49513626  3215991374
-2.49513626 0.97463304 5.81684017  1064927629
5.84917116 -0.90757805 -2.49513626  3209700805
-2.49513626 0.97463304 5.87541103  1064927629
5.90329075 -0.43320212 -2.49513626  3195555739
-2.49513626 0.97463304 5.91893959  1064927629
5.91900063 0.04398960 -2.49513626  1051272687
-2.49513626 0.97463304 5.90383720  1064927629
5.89619970 0.52089578 -2.49513626  1058910267
-2.49513626 0.97463304 5.87632132  1064927629
5.83503628 0.99441457 -2.49513626  1066095111
-2.49513626 0.97463304 5.78007936  1064927629
1.81716096 -5.49153471 -2.49513626  3232679059
-2.49513626 0.97511649 1.99341547  1064935740
2.08077407 -5.39716339 -2.49513626  3232239102
-2.49513626 0.97511649 2.67586946  1064935740
2.92089772 -4.99273252 -2.49513626  3231168228
-2.49513626 0.97511649 3.46504712  1064935740
3.75658536 -4.39853096 -2.49513626  3230321536
-2.49513626 0.97511649 3.89656138  1064935740
3.96503782 -4.21159172 -2.49513626  3229922498
-2.49513626 0.97511649 4.09887218  1064935740
4.35359764 -3.80856991 -2.49513626  3228514434
-2.49513626 0.97511649 4.47422791  1064935740
4.70138121 -3.36987257 -2.49513626  3226327488
-2.49513626 0.97511649 4.85894251  1064935740
4.90895367 -3.05960751 -2.49513626  3223619283
-2.49513626 0.97511649 5.30006599  1064935740
5.33676004 -2.23114228 -2.49513626  3221467798
-2.49513626 0.97511649 5.49922037  1064935740
5.52744865 -1.70479476 -2.49513626  3217999064
-2.49513626 0.97511649 5.60346985  1064935740
5.62590122 -1.34471214 -2.49513626  3214965540
-2.49513626 0.97511649 5.66636133  1064935740
5.68438148 -1.07089245 -2.49513626  3210939547
-2.49513626 0.97511649 5.76128292  1064935740
5.77494383 -0.33019641 -2.49513626  3195185171
-2.49513626 0.97511649 5.78415871  1064935740
5.78276968 0.13631609 -2.49513626  1051020261
-2.49513626 0.97511649 5.75297022  1064935740
5.74250841 0.69469643 -2.49513626  1061784149
-2.49513626 0.97511649 1.86281312  1064943521
2.03412223 -5.27615547 -2.49513626  3232220097
-2.49513626 0.97558028 2.20331311  1064943521
2.28705812 -5.17154551 -2.49513626  3231910574
-2.49513626 0.97558028 2.53463745  1064943521
2.61587405 -5.01325130 -2.49513626  3231649134
-2.49513626 0.97558028 2.85540891  1064943521
2.93379378 -4.83408117 -2.49513626  3231159464
-2.49513626 0.97558028 3.23949337  1064943521
3.31385732 -4.58190346 -2.49513626  3230721029
-2.49513626 0.97558028 3.53169703  1064943521
3.74126720 -4.24009562 -2.49513626  3229989835
-2.49513626 0.97558028 3.94206572  1064943521
4.00697231 -3.98994565 -2.49513626  3229298542
-2.49513626 0.97558028 4.37391233  1064943521
4.48727942 -3.44090295 -2.49513626  3226963488
-2.49513626 0.97558028 4.59597206  1064943521
4.64853001 -3.21972990 -2.49513626  3226025019
-2.49513626 0.97558028 4.75000000  1064943521
4.79889107 -2.99100828 -2.49513626  3225055644
-2.49513626 0.97558028 4.93800831  1064943521
4.98182535 -2.67523861 -2.49513626  3223377536
-2.49513626 0.97558028 5.14401054  1064943521
5.18123388 -2.26501894 -2.49513626  3221630863
-2.49513626 0.97558028 5.31654215  1064943521
5.37592459 -1.75354707 -2.49513626  3218428480
-2.49513626 0.97558028 5.42970896  1064943521
5.45448351 -1.49134445 -2.49513626  3214729738
-2.49513626 0.97558028 5.53931952  1064943521
5.55693388 -1.04688239 -2.49513626  3212116754
-2.49513626 0.97558028 5.58782196  1064943521
5.60108519 -0.77674675 -2.49513626  3206052290
-2.49513626 0.97558028 5.63211155  1064943521
5.63952303 -0.41384608 -2.49513626  3194828624
-2.49513626 0.97558028 5.65294313  1064943521
5.65447330 -0.04922235 -2.49513626  1040741701
-2.49513626 0.97558028 5.65023136  1064943521
5.64587307 0.31560633 -2.49513626  1056884791
-2.49513626 0.97558028 5.60206890  1064943521
5.57431793 0.94998264 -2.49513626  1065687147
-2.49513626 0.97558028 1.73718381  1064950990
1.82166862 -5.22112131 -2.49513626  3232111881
-2.49513626 0.97602546 1.98919404  1064950990
2.23654509 -5.05731630 -2.49513626  3231754368
-2.49513626 0.97602546 2.39856839  1064950990
2.55809665 -4.90252495 -2.49513626  3231328345
-2.49513626 0.97602546 2.79233885  1064950990
2.86899447 -4.72730923 -2.49513626  3230836586
-2.49513626 0.97602546 3.31254101  1064950990
3.65863323 -4.14644241 -2.49513626  3228934946
-2.49513626 0.97602546 4.04233074  1064950990
4.10269070 -3.70762897 -2.49513626  3228108091
-2.49513626 0.97602546 4.22019386  1064950990
4.33329964 -3.43527317 -2.49513626  3226950288
-2.49513626 0.97602546 4.54585648  1064950990
4.59607124 -3.07485223 -2.49513626  3225104974
-2.49513626 0.97602546 4.87179041  1064950990
4.99268198 -2.37733221 -2.49513626  3222468912
-2.49513626 0.97602546 5.13562870  1064950990
5.22883129 -1.79942155 -2.49513626  3218119691
-2.49513626 0.97602546 5.33400822  1064950990
5.37829018 -1.28552806 -2.49513626  3213770620
-2.49513626 0.97602546 5.43419647  1064950990
5.47737217 -0.75959039 -2.49513626  3207318986
-2.49513626 0.97602546 5.49903011  1064950990
5.52077389 -0.31566349 -2.49513626  3175426397
-2.49513626 0.97602546 5.52543211  1064950990
5.52117109 0.30863529 -2.49513626  1056515984
-2.49513626 0.97602546 5.49976730  1064950990
5.47833490 0.75261712 -2.49513626  1064162036
-2.49513626 0.97602546 5.43549633  1064950990
5.41838121 1.10441530 -2.49513626  3231874896
-2.49513626 0.97645313 2.34635401  1064958165
2.42469621 -4.83555794 -2.49513626  3231282992
-2.49513626 0.97645313 2.57946730  1064958165
2.95429826 -4.53143215 -2.49513626  3230309150
-2.49513626 0.97645313 3.30990124  1064958165
3.37850666 -4.22462034 -2.49513626  3229851902
-2.49513626 0.97645313 3.64397168  1064958165
3.77107453 -3.87823510 -2.49513626  3228846014
-2.49513626 0.97645313 3.89425707  1064958165
4.07138205 -3.56168580 -2.49513626  3227216839
-2.49513626 0.97645313 4.23896742  1064958165
4.34519482 -3.22195816 -2.49513626  3226054905
-2.49513626 0.97645313 4.44689512  1064958165
4.54396772 -2.93497610 -2.49513626  3224525647
-2.49513626 0.97645313 4.68067455  1064958165
4.76573515 -2.55919862 -2.49513626  3223246982
-2.49513626 0.97645313 4.99081421  1064958165
5.02383041 -2.00570917 -2.49513626  3220591150
-2.49513626 0.97645313 5.11500454  1064958165
5.16914129 -1.59428418 -2.49513626  3217120659
-2.49513626 0.97645313 5.21789169  1064958165
5.28081369 -1.17248452 -2.49513626  3212849225
-2.49513626 0.97645313 5.38781500  1064958165
5.39490604 -0.39589530 -2.49513626  3198032374
-2.49513626 0.97645313 5.40926266  1064958165
5.40790987 0.12747927 -2.49513626  1056160530
-2.49513626 0.97645313 5.37025881  1064958165
5.35907507 0.73623335 -2.49513626  1063822745
-2.49513626 0.97645313 5.31717157  1064958165
1.66288841 -5.02531385 -2.49513626  3231706677
-2.49513626 0.97686422 1.82417905  1064965062
1.90412116 -4.93895960 -2.49513626  3231517431
-2.49513626 0.97686428 2.29598784  1064965062
2.74629474 -4.52513552 -2.49513626  3230621200
-2.49513626 0.97686422 2.96205497  1064965062
3.03245640 -4.33857107 -2.49513626  3230220311
-2.49513626 0.97686422 3.23885155  1064965062
3.30598688 -4.13393736 -2.49513626  3229666731
-2.49513626 0.97686422 3.50216341  1064965062
3.62841368 -3.85403728 -2.49513626  3228754205
-2.49513626 0.97686422 3.81066489  1064965062
3.92722964 -3.54906344 -2.49513626  3227454981
-2.49513626 0.97686422 4.03970766  1064965062
4.30224466 -3.08377862 -2.49513626  3224580302
-2.49513626 0.97686422 4.53678846  1064965062
4.62242126 -2.57918930 -2.49513626  3223340512
-2.49513626 0.97686422 4.70323944  1064965062
4.74181700 -2.35248017 -2.49513626  3222056976
-2.49513626 0.97686422 4.85010147  1064965062
4.91599178 -1.96265543 -2.49513626  3220244635
-2.49513626 0.97686422 5.00520754  1064965062
5.05818081 -1.56006193 -2.49513626  3216848637
-2.49513626 0.97686422 5.21692657  1064965062
5.28466558 -0.30216345 -2.49513626  3188105970
-2.49513626 0.97686422 5.28504515  1064965062
5.27275991 0.46581820 -2.49513626  1057817559
-2.49513626 0.97686422 5.23173332  1064965062
5.20303440 0.97335351 -2.49513626  1066533805
-2.49513626 0.97686422 1.62767553  1064971698
2.01882458 -4.77171326 -2.49513626  3231162857
-2.49513626 0.97725976 2.24736881  1064971697
2.32240510 -4.63155460 -2.49513626  3230776327
-2.49513626 0.97725976 2.54381394  1064971698
2.61631727 -4.47210979 -2.49513626  3230422233
-2.49513626 0.97725976 2.82966423  1064971698
2.96824098 -4.24669647 -2.49513626  3229925942
-2.49513626 0.97725976 3.17026567  1064971698
3.23597860 -4.04639673 -2.49513626  3229587457
-2.49513626 0.97725976 3.36486292  1064971698
3.49024439 -3.82924032 -2.49513626  3228417134
-2.49513626 0.97725976 4.11154699  1064971698
4.21113873 -3.01847577 -2.49513626  3224920738
-2.49513626 0.97725976 4.39706707  1064971698
4.44071722 -2.66925573 -2.49513626  3223730525
-2.49513626 0.97725976 4.56468391  1064971698
4.60364294 -2.37725925 -2.49513626  3222179551
-2.49513626 0.97725976 4.71328926  1064971698
4.78026533 -1.99848783 -2.49513626  3220563561
-2.49513626 0.97725976 4.87137365  1064971698
4.89921665 -1.68599045 -2.49513626  3217257872
-2.49513626 0.97725976 4.97506380  1064971698
4.99776459 -1.36647010 -2.49513626  3212152759
-2.49513626 0.97725976 5.10645294  1064971698
5.16051865 -0.46252513 -2.49513626  3200394667
-2.49513626 0.97725976 5.17685604  1064971698
5.18100882 -0.04510082 -2.49513626  1025357910
-2.49513626 0.97725976 5.17712164  1064971698
5.16110325 0.45595396 -2.49513626  1059015728
-2.49513626 0.97725976 5.13299179  1064971698
5.10756445 0.87043792 -2.49513626  1065645103
-2.49513626 0.97725976 5.05945921  1064971698
1.67116165 -4.78974724 -2.49513626  3231212445
-2.49513626 0.97764045 1.82484472  1064978085
1.97663069 -4.67198181 -2.49513626  3230955168
-2.49513626 0.97764045 2.12635326  1064978085
2.34674501 -4.49747372 -2.49513626  3230576724
-2.49513626 0.97764039 2.49064755  1064978084
2.63195586 -4.33673525 -2.49513626  3230137426
-2.49513626 0.97764045 3.03885818  1064978085
3.10400653 -4.01243401 -2.49513626  3229453963
-2.49513626 0.97764045 3.23186231  1064978085
3.35635400 -3.80386066 -2.49513626  3228328855
-2.49513626 0.97764045 3.70835185  1064978085
3.87151933 -3.27808261 -2.49513626  3226322322
-2.49513626 0.97764045 4.02561522  1064978085
4.21634102 -2.82080650 -2.49513626  3224091379
-2.49513626 0.97764045 4.38951015  1064978085
4.54439688 -2.25453734 -2.49513626  3221984288
-2.49513626 0.97764045 4.61478043  1064978085
4.68035650 -1.95671904 -2.49513626  3218295776
-2.49513626 0.97764045 4.87108421  1064978085
4.89330912 -1.33791018 -2.49513626  3214341083
-2.49513626 0.97764045 4.95231724  1064978085
4.96941805 -1.01949525 -2.49513626  3211816408
-2.49513626 0.97764045 4.99972630  1064978085
5.01293087 -0.77782387 -2.49513626  3207750561
-2.49513626 0.97764045 5.03541899  1064978085
5.05266237 -0.45285815 -2.49513626  3200128741
-2.49513626 0.97764045 5.07272434  1064978085
5.07277679 0.03770086 -2.49513626  1049687854
-2.49513626 0.97764045 5.03619909  1064978085
5.02571154 0.69043595 -2.49513626  1061518626
-2.49513626 0.97764045 4.98641253  1064978085
4.97071123 1.01316845 -2.49513626  1066135396
-2.49513626 0.97764045 1.56076753  1064984237
1.63667369 -4.69090223 -2.49513626  3231006343
-2.49513626 0.97800714 1.78718579  1064984237
1.93583739 -4.57556486 -2.49513626  3230685129
-2.49513626 0.97800714 2.15498662  1064984237
2.22694016 -4.44117165 -2.49513626  3230383735
-2.49513626 0.97800714 2.50877047  1064984237
2.91156507 -4.02567387 -2.49513626  3229522515
-2.49513626 0.97800714 3.10295987  1064984237
3.40558624 -3.61735320 -2.49513626  3227776687
-2.49513626 0.97800714 3.52053761  1064984237
3.68605113 -3.33110929 -2.49513626  3226557259
-2.49513626 0.97800714 3.79162121  1064984237
3.89324093 -3.08641195 -2.49513626  3225248559
-2.49513626 0.97800714 4.03803539  1064984237
4.08421278 -2.82886434 -2.49513626  3224143040
-2.49513626 0.97800714 4.29892254  1064984237
4.37704754 -2.35047269 -2.49513626  3222397943
-2.49513626 0.97800714 4.51954412  1064984237
4.55224800 -1.99005234 -2.49513626  3219274549
-2.49513626 0.97800714 4.67113018  1064984237
4.74754953 -1.46425569 -2.49513626  3216087102
-2.49513626 0.97800714 4.85011768  1064984237
4.86686277 -0.99845546 -2.49513626  3211491233
-2.49513626 0.97800714 4.89654684  1064984237
4.94839001 -0.44351250 -2.49513626  3199871649
-2.49513626 0.97800714 4.96405458  1064984237
4.96669340 -0.12340648 -2.49513626  1024932913
-2.49513626 0.97800714 4.96048069  1064984237
4.94895029 0.43721130 -2.49513626  1061251526
-2.49513626 0.97800714 4.89761257  1064984237
4.88350630 0.91357839 -2.49513626  1065946141
