# .PCD v0.7 - Point Cloud Data file format
VERSION 0.7
FIELDS x y z intensity
SIZE 4 4 4 4
TYPE F F F F
COUNT 1 1 1 1
WIDTH 1022
HEIGHT 1
VIEWPOINT 0 0 0 1 0 0 0
POINTS 1022
DATA ascii
1.89594841 -10.76625061 -2.49513626  3240752312
-2.49513626 0.95613885 2.75382781  1064617348
3.09231257 -10.48543072 -2.49513626  3240498994
-2.49513626 0.95613879 3.75936031  1064617347
4.08723068 -10.13909626 -2.49513626  3240175466
-2.49513626 0.95613879 4.88771343  1064617347
5.65667105 -9.35461330 -2.49513626  3239326533
-2.49513626 0.95613879 5.95431137  1064617347
6.24579287 -8.97199345 -2.49513626  3238915467
-2.49513626 0.95613879 7.08039474  1064617347
7.21330357 -8.21431828 -2.49513626  3238104779
-2.49513626 0.95613879 7.47349358  1064617347
7.60071707 -7.85721731 -2.49513626  3237445010
-2.49513626 0.95613879 7.84923887  1064617347
8.43454933 -6.95450544 -2.49513626  3235524046
-2.49513626 0.95613879 8.65363884  1064617347
8.75984573 -6.54002190 -2.49513626  3234343585
-2.49513626 0.95613879 9.34867001  1064617348
9.43850708 -5.51554060 -2.49513626  3231166612
-2.49513626 0.95613879 -2.86460257  1064642622
-2.70147109 -10.17530727 -2.49513626  3240327799
-2.49513626 0.95764530 -2.37315083  1064642622
-2.20804930 -10.29365444 -2.49513626  3240443566
-2.49513626 0.95764530 -1.70950282  1064642622
-1.54237521 -10.41421700 -2.49513626  3240558752
-2.49513626 0.95764530 -1.03878999  1064642622
-0.70165348 -10.50440121 -2.49513626  3240639147
-2.49513626 0.95764530 -0.36379126  1064642622
0.65064454 -10.50768757 -2.49513626  3240619805
-2.49513626 0.95764530 0.98791355  1064642622
1.15618646 -10.46413040 -2.49513626  3240486000
-2.49513626 0.95764530 1.99221110  1064642622
2.32332397 -10.26825428 -2.49513626  3240297293
-2.49513626 0.95764530 2.81538439  1064642622
2.97800589 -10.09783745 -2.49513626  3240150892
-2.49513626 0.95764530 3.30090547  1064642622
3.46109486 -9.94261837 -2.49513626  3239917686
-2.49513626 0.95764530 4.24782658  1064642622
4.40204620 -9.56330490 -2.49513626  3239566477
-2.49513626 0.95764530 4.85772705  1064642622
5.00716496 -9.26083946 -2.49513626  3239151067
-2.49513626 0.95764530 5.44757175  1064642622
5.87532043 -8.73587227 -2.49513626  3238674139
-2.49513626 0.95764530 6.15296268  1064642622
6.28941679 -8.44263268 -2.49513626  3238359720
-2.49513626 0.95764530 6.68890810  1064642622
7.31975365 -7.56677246 -2.49513626  3236845459
-2.49513626 0.95764530 7.90338278  1064642622
8.01410770 -6.82707119 -2.49513626  3235271000
-2.49513626 0.95764530 8.22932053  1064642622
8.63403320 -6.02397585 -2.49513626  3233566117
-2.49513626 0.95764530 8.82312202  1064642622
8.91426086 -5.60096312 -2.49513626  3232669664
-2.49513626 0.95764530 9.08961391  1064642622
9.17378235 -5.16493416 -2.49513626  3231746619
-2.49513626 0.95764530 9.41199398  1064642622
-2.91868258 -9.72244644 -2.49513626  3239856659
-2.49513626 0.95904911 -2.60480404  1064666174
-2.44683361 -9.85178566 -2.49513626  3240056052
-2.49513626 0.95904911 -1.64832759  1064666174
-1.48718596 -10.04156208 -2.49513626  3240188093
-2.49513626 0.95904911 -0.67654586  1064666174
-0.51372689 -10.13808346 -2.49513626  3240258238
-2.49513626 0.95904911 0.30151495  1064666174
1.27677643 -10.07047749 -2.49513626  3240125271
-2.49513626 0.95904911 1.92092407  1064666174
2.24018550 -9.90081787 -2.49513626  3239956761
-2.49513626 0.95904911 2.55713487  1064666174
2.87144256 -9.73650360 -2.49513626  3239721534
-2.49513626 0.95904911 3.49084163  1064666174
4.53860331 -9.07996273 -2.49513626  3239057423
-2.49513626 0.95904911 4.97083712  1064666174
5.25263834 -8.68645287 -2.49513626  3238632818
-2.49513626 0.95904911 5.52901745  1064666174
5.66508055 -8.42327213 -2.49513626  3238251106
-2.49513626 0.95904911 6.06436062  1064666174
6.32277775 -7.94148302 -2.49513626  3237445339
-2.49513626 0.95904911 6.81977320  1064666174
6.93969631 -7.40846014 -2.49513626  3236526309
-2.49513626 0.95904911 7.17414093  1064666174
7.51184368 -6.82765532 -2.49513626  3235030553
-2.49513626 0.95904911 7.83210325  1064666174
7.93484735 -6.33110285 -2.49513626  3234233685
-2.49513626 0.95904911 8.13416576  1064666174
8.32507992 -5.80841923 -2.49513626  3233124530
-2.49513626 0.95904911 8.84551430  1064666174
8.92438698 -4.83735323 -2.49513626  3230456553
-2.49513626 0.95904911 -2.96787977  1064688172
-2.81745386 -9.38523579 -2.49513626  3239586132
-2.49513626 0.96036029 -2.20886922  1064688172
-2.05519629 -9.58106995 -2.49513626  3239693886
-2.49513626 0.96036029 -1.74630356  1064688172
-1.27968061 -9.71509647 -2.49513626  3239821342
-2.49513626 0.96036029 -0.96688014  1064688172
-0.81008619 -9.76547241 -2.49513626  3239866247
-2.49513626 0.96036029 -0.49590904  1064688172
-0.33860984 -9.79316425 -2.49513626  3239887335
-2.49513626 0.96036029 -0.02378846  1064688172
0.29105541 -9.79469204 -2.49513626  3239878329
-2.49513626 0.96036029 0.60560322  1064688171
0.76266068 -9.76929188 -2.49513626  3239843755
-2.49513626 0.96036023 1.07614803  1064688172
2.31576538 -9.52145004 -2.49513626  3239514866
-2.49513626 0.96036029 2.77185059  1064688172
2.92249990 -9.35305882 -2.49513626  3239370972
-2.49513626 0.96036023 3.36976719  1064688172
3.66365552 -9.08836365 -2.49513626  3238947746
-2.49513626 0.96036029 4.79843092  1064688171
5.07045841 -8.38517570 -2.49513626  3238320017
-2.49513626 0.96036023 5.33725166  1064688172
5.72701788 -7.95122528 -2.49513626  3237705285
-2.49513626 0.96036023 5.97952557  1064688171
6.10348082 -7.66604471 -2.49513626  3237094606
-2.49513626 0.96036023 6.34663677  1064688172
6.58323765 -7.25821495 -2.49513626  3236223271
-2.49513626 0.96036029 6.81303644  1064688172
6.92531729 -6.93258286 -2.49513626  3235528928
-2.49513626 0.96036029 7.45932341  1064688172
7.56045866 -6.23379374 -2.49513626  3232984123
-2.49513626 0.96036029 8.21233368  1064688172
8.37985325 -5.07924986 -2.49513626  3231018285
-2.49513626 0.96036029 8.82984924  1064688171
-2.57655787 -9.11192036 -2.49513626  3239250494
-2.49513626 0.96158755 -2.13452244  1064708762
-1.83701336 -9.28930283 -2.49513626  3239384310
-2.49513626 0.96158755 -1.08561242  1064708762
-0.93433797 -9.42298698 -2.49513626  3239521179
-2.49513626 0.96158755 -0.47921768  1064708762
-0.32721290 -9.46354389 -2.49513626  3239541556
-2.49513626 0.96158755 -0.02298779  1064708762
0.58521974 -9.45110035 -2.49513626  3239513135
-2.49513626 0.96158755 1.03992677  1064708762
1.19100976 -9.39400005 -2.49513626  3239419193
-2.49513626 0.96158755 1.64226592  1064708762
1.94104671 -9.26812649 -2.49513626  3239262000
-2.49513626 0.96158755 2.67855549  1064708762
3.11306810 -8.94284916 -2.49513626  3238937680
-2.49513626 0.96158755 3.39878464  1064708762
3.68099570 -8.72444916 -2.49513626  3238633594
-2.49513626 0.96158755 4.09709311  1064708762
5.41009426 -7.77152586 -2.49513626  3236560480
-2.49513626 0.96158755 6.36166000  1064708762
6.58372355 -6.80590487 -2.49513626  3234816636
-2.49513626 0.96158755 7.10866690  1064708762
7.30598927 -6.02397680 -2.49513626  3233610866
-2.49513626 0.96158755 7.49576235  1064708762
7.58775854 -5.66495228 -2.49513626  3232848542
-2.49513626 0.96158755 7.85190058  1064708762
7.93592310 -5.16593504 -2.49513626  3231790430
-2.49513626 0.96158755 8.17561913  1064708762
8.53265381 -4.10604239 -2.49513626  3238719528
-2.49513626 0.96273869 -2.77420211  1064728075
-2.49230146 -8.81395817 -2.49513626  3238896978
-2.49513626 0.96273869 -2.06472230  1064728075
-1.92107773 -8.95582867 -2.49513626  3239036098
-2.49513626 0.96273869 -1.48732388  1064728075
-1.34192073 -9.06072044 -2.49513626  3239136315
-2.49513626 0.96273869 -0.90378350  1064728075
-0.46354827 -9.14779377 -2.49513626  3239218539
-2.49513626 0.96273869 0.12493066  1064728075
0.27206153 -9.15551090 -2.49513626  3239208505
-2.49513626 0.96273869 0.56608284  1064728075
1.29791152 -9.06712723 -2.49513626  3239045034
-2.49513626 0.96273869 2.02136827  1064728075
2.16464281 -8.90009594 -2.49513626  3238908835
-2.49513626 0.96273869 2.59096575  1064728075
2.87189841 -8.69767857 -2.49513626  3238684697
-2.49513626 0.96273869 3.14986372  1064728075
3.42457414 -8.49527359 -2.49513626  3238205115
-2.49513626 0.96273869 4.22638655  1064728075
4.35640240 -8.05724049 -2.49513626  3237973765
-2.49513626 0.96273869 4.61302900  1064728075
5.35328531 -7.43234348 -2.49513626  3236629842
-2.49513626 0.96273869 5.81957436  1064728075
5.93246698 -6.97876835 -2.49513626  3235659233
-2.49513626 0.96273869 6.36843204  1064728075
6.47338533 -6.48017740 -2.49513626  3234595512
-2.49513626 0.96273869 6.67824459  1064728075
6.77810049 -6.16074228 -2.49513626  3233915431
-2.49513626 0.96273869 6.97254515  1064728075
7.06707764 -5.82698917 -2.49513626  3232717250
-2.49513626 0.96273869 7.51190186  1064728075
7.67641354 -4.99700642 -2.49513626  3231444950
-2.49513626 0.96273869 7.98150110  1064728075
8.05267048 -4.36485004 -2.49513626  3229831910
-2.49513626 0.96273863 8.25363159  1064728075
-2.13761187 -8.60676098 -2.49513626  3238706285
-2.49513626 0.96382040 -1.72042704  1064746224
-1.58042812 -8.72628021 -2.49513626  3238812770
-2.49513626 0.96382040 -1.01671445  1064746223
-0.87503958 -8.82496548 -2.49513626  3238881275
-2.49513626 0.96382046 -0.59104699  1064746224
-0.16400777 -8.86672497 -2.49513626  3238912244
-2.49513626 0.96382040 0.54807895  1064746224
0.83218223 -8.82911015 -2.49513626  3238819276
-2.49513626 0.96382040 1.53804135  1064746223
1.81785929 -8.67993069 -2.49513626  3238613227
-2.49513626 0.96382040 2.37157822  1064746223
2.50856233 -8.50604630 -2.49513626  3238489901
-2.49513626 0.96382046 3.31566072  1064746224
3.44738340 -8.17075634 -2.49513626  3238122555
-2.49513626 0.96382046 3.70812058  1064746224
3.83707261 -7.99516201 -2.49513626  3237861094
-2.49513626 0.96382040 4.09197092  1064746224
4.34264660 -7.73221397 -2.49513626  3237292686
-2.49513626 0.96382046 4.71016884  1064746224
4.83028507 -7.43734169 -2.49513626  3236657943
-2.49513626 0.96382046 5.06674671  1064746224
5.41155195 -7.02572536 -2.49513626  3235775248
-2.49513626 0.96382046 5.85161257  1064746224
5.95792150 -6.56878138 -2.49513626  3234798683
-2.49513626 0.96382046 6.36750269  1064746224
6.46584988 -6.06947327 -2.49513626  3233734578
-2.49513626 0.96382040 6.65751934  1064746224
6.75079107 -5.75087452 -2.49513626  3233056907
-2.49513626 0.96382040 7.02004766  1064746224
7.19052792 -5.19057178 -2.49513626  3231867211
-2.49513626 0.96382040 7.43227768  1064746223
7.50905085 -4.71804810 -2.49513626  3230608859
-2.49513626 0.96382040 7.72765732  1064746224
7.79656219 -4.22603035 -2.49513626  3229502300
-2.49513626 0.96382046 -2.73405027  1064763310
-2.60280299 -8.19000435 -2.49513626  3238244666
-2.49513626 0.96483886 -2.33831882  1064763310
-2.20515800 -8.30590343 -2.49513626  3238393246
-2.49513626 0.96483886 -1.53149188  1064763310
-1.39543259 -8.47959614 -2.49513626  3238527940
-2.49513626 0.96483886 -1.12226534  1064763310
-0.84794486 -8.55171013 -2.49513626  3238594331
-2.49513626 0.96483886 -0.57274580  1064763310
-0.43490654 -8.58263588 -2.49513626  3238619787
-2.49513626 0.96483886 -0.15892947  1064763310
-0.02086226 -8.59362030 -2.49513626  3238624333
-2.49513626 0.96483886 0.39323118  1064763310
0.66884816 -8.56757736 -2.49513626  3238585412
-2.49513626 0.96483886 0.94376951  1064763310
1.62620246 -8.43837833 -2.49513626  3238433824
-2.49513626 0.96483886 2.16480303  1064763310
2.43088770 -8.24266624 -2.49513626  3238215070
-2.49513626 0.96483886 2.95525384  1064763310
3.21299696 -7.97040892 -2.49513626  3237830219
-2.49513626 0.96483886 3.59330249  1064763310
3.71826339 -7.74760246 -2.49513626  3237078766
-2.49513626 0.96483886 4.32802105  1064763310
4.44674683 -7.35372305 -2.49513626  3236339756
-2.49513626 0.96483886 4.79590797  1064763310
4.90985870 -7.05294466 -2.49513626  3235849226
-2.49513626 0.96483886 5.24398851  1064763310
5.46002293 -6.63618040 -2.49513626  3234767476
-2.49513626 0.96483886 5.97496986  1064763310
6.07343817 -6.07981205 -2.49513626  3233347246
-2.49513626 0.96483886 6.45137548  1064763310
6.54175901 -5.57280397 -2.49513626  3232690564
-2.49513626 0.96483886 6.71743584  1064763310
6.80267906 -5.25112534 -2.49513626  3232007251
-2.49513626 0.96483886 7.04779291  1064763310
7.12588692 -4.80338335 -2.49513626  3230813557
-2.49513626 0.96483886 7.34905386  1064763310
7.41967535 -4.33580446 -2.49513626  3230067137
-2.49513626 0.96483886 7.61997032  1064763310
7.68282557 -3.85031843 -2.49513626  3228466453
-2.49513626 0.96483886 -2.65155196  1064779423
-2.26776147 -8.01987553 -2.49513626  3238060649
-2.49513626 0.96579927 -1.87870276  1064779423
-1.61684942 -8.17600060 -2.49513626  3238213371
-2.49513626 0.96579927 -1.35332596  1064779423
-1.08840358 -8.26296520 -2.49513626  3238295647
-2.49513626 0.96579921 -0.68900090  1064779423
-0.55546349 -8.31580544 -2.49513626  3238352451
-2.49513626 0.96579927 0.24755315  1064779423
0.38136673 -8.32560635 -2.49513626  3238336559
-2.49513626 0.96579927 0.64866614  1064779423
0.91529393 -8.28392410 -2.49513626  3238265085
-2.49513626 0.96579927 1.70841563  1064779423
1.96962249 -8.09825802 -2.49513626  3238071438
-2.49513626 0.96579927 2.22879648  1064779423
2.48566961 -7.95503712 -2.49513626  3237637848
-2.49513626 0.96579927 2.99144745  1064779423
3.11604643 -7.72990513 -2.49513626  3237329173
-2.49513626 0.96579927 3.72632337  1064779423
3.96391964 -7.33133793 -2.49513626  3236034756
-2.49513626 0.96579927 4.53948164  1064779423
4.65119362 -6.91574669 -2.49513626  3235242009
-2.49513626 0.96579927 5.29526949  1064779423
5.49931955 -6.26247978 -2.49513626  3234171853
-2.49513626 0.96579927 5.79467821  1064779423
6.16743898 -5.60570002 -2.49513626  3232772150
-2.49513626 0.96579927 6.34436512  1064779422
6.51473665 -5.19801617 -2.49513626  3231226533
-2.49513626 0.96579927 6.91086674  1064779423
6.98482037 -4.54680824 -2.49513626  3230524242
-2.49513626 0.96579927 7.19578981  1064779422
7.26242065 -4.08881664 -2.49513626  3227994835
-2.49513626 0.96579927 -2.44996858  1064794642
-2.07567358 -7.81818914 -2.49513626  3237689225
-2.49513626 0.96670640 -1.69655192  1064794642
-1.44156432 -7.95954704 -2.49513626  3237964270
-2.49513626 0.96670640 -1.18508279  1064794642
-1.05636919 -8.01976204 -2.49513626  3238054660
-2.49513626 0.96670640 -0.40937027  1064794642
-0.27952060 -8.08420372 -2.49513626  3238094598
-2.49513626 0.96670640 0.49992430  1064794642
0.75906259 -8.05334187 -2.49513626  3238028688
-2.49513626 0.96670640 1.91165245  1064794642
2.03768706 -7.82817411 -2.49513626  3237571568
-2.49513626 0.96670640 2.28814793  1064794642
2.78172684 -7.59568930 -2.49513626  3236959133
-2.49513626 0.96670640 3.14448166  1064794642
3.26381397 -7.40135336 -2.49513626  3236147876
-2.49513626 0.96670640 4.07388401  1064794642
4.29630947 -6.85377407 -2.49513626  3235452261
-2.49513626 0.96670640 4.51429749  1064794642
4.62155676 -6.63880301 -2.49513626  3234496834
-2.49513626 0.96670640 5.23911619  1064794642
5.43443060 -5.99161768 -2.49513626  3233606075
-2.49513626 0.96670640 5.62412643  1064794642
5.80802250 -5.63021851 -2.49513626  3232835689
-2.49513626 0.96670640 5.98591661  1064794642
6.15763426 -5.24557495 -2.49513626  3232017340
-2.49513626 0.96670640 6.32299232  1064794642
6.48182058 -4.83926868 -2.49513626  3231154446
-2.49513626 0.96670640 6.63395452  1064794642
6.70746088 -4.52133465 -2.49513626  3230480171
-2.49513626 0.96670640 6.84926605  1064794642
6.98399782 -4.08121061 -2.49513626  3229481845
-2.49513626 0.96670640 7.17253351  1064794642
7.23169613 -3.62423182 -2.49513626  3227548693
-2.49513626 0.96670640 -2.49956298  1064809039
-2.25896430 -7.52484846 -2.49513626  3237080303
-2.49513626 0.96756446 -1.77101529  1064809039
-1.40014124 -7.73083830 -2.49513626  3237524183
-2.49513626 0.96756452 -0.90073371  1064809039
-0.64950681 -7.82971191 -2.49513626  3237680856
-2.49513626 0.96756452 -0.27148703  1064809038
0.23336254 -7.85313988 -2.49513626  3237684710
-2.49513626 0.96756452 0.48555741  1064809039
0.86282891 -7.80908346 -2.49513626  3237535717
-2.49513626 0.96756446 1.36258960  1064809039
1.48673022 -7.71465445 -2.49513626  3237101881
-2.49513626 0.96756452 2.34318900  1064809039
2.46337032 -7.46043205 -2.49513626  3236697072
-2.49513626 0.96756452 2.81997609  1064809039
2.93743014 -7.28681993 -2.49513626  3236406096
-2.49513626 0.96756452 3.17003107  1064809039
3.39936280 -7.08312178 -2.49513626  3235963397
-2.49513626 0.96756446 3.62518334  1064809038
3.95682597 -6.78747320 -2.49513626  3235324676
-2.49513626 0.96756452 4.27927494  1064809039
4.38458538 -6.51933050 -2.49513626  3234438570
-2.49513626 0.96756452 4.89361715  1064809039
5.18409538 -5.90350962 -2.49513626  3233429756
-2.49513626 0.96756446 5.37109375  1064809039
5.55254507 -5.55837011 -2.49513626  3232693627
-2.49513626 0.96756452 5.72826529  1064809039
5.89806890 -5.19028473 -2.49513626  3231707247
-2.49513626 0.96756446 6.14130592  1064809039
6.21924067 -4.80075741 -2.49513626  3230653265
-2.49513626 0.96756452 6.51472902  1064809039
6.58444500 -4.28618193 -2.49513626  3229991227
-2.49513626 0.96756452 6.84613085  1064809039
6.96643734 -3.63248992 -2.49513626  3227125966
-2.49513626 0.96756452 -2.42938757  1064822677
-2.31276512 -7.27736664 -2.49513626  3236563174
-2.49513626 0.96837741 -2.07775474  1064822677
-1.95943081 -7.38035154 -2.49513626  3237026858
-2.49513626 0.96837741 -1.11871517  1064822677
-0.50892478 -7.61905336 -2.49513626  3237236649
-2.49513626 0.96837741 0.10415080  1064822677
1.32433450 -7.52031374 -2.49513626  3236950050
-2.49513626 0.96837741 1.68515122  1064822677
1.92357159 -7.38977957 -2.49513626  3236656144
-2.49513626 0.96837741 2.27740264  1064822677
2.51039767 -7.21158028 -2.49513626  3236262709
-2.49513626 0.96837741 2.74080467  1064822677
2.85496140 -7.08224297 -2.49513626  3235979899
-2.49513626 0.96837741 3.30392480  1064822677
3.41410708 -6.83028841 -2.49513626  3235432740
-2.49513626 0.96837741 3.63179588  1064822677
3.73924923 -6.65785074 -2.49513626  3235060199
-2.49513626 0.96837741 3.95123005  1064822677
4.05570602 -6.46994543 -2.49513626  3234655527
-2.49513626 0.96837741 4.46286392  1064822677
4.65963602 -6.04952478 -2.49513626  3233753606
-2.49513626 0.96837741 4.85159636  1064822677
4.94571209 -5.81797886 -2.49513626  3233258442
-2.49513626 0.96837741 5.39665651  1064822677
5.48275948 -5.31491423 -2.49513626  3232185486
-2.49513626 0.96837741 5.81279182  1064822677
5.89160156 -4.85777903 -2.49513626  3231010733
-2.49513626 0.96837741 6.11882305  1064822677
6.19142866 -4.46936035 -2.49513626  3230388578
-2.49513626 0.96837741 6.33182764  1064822677
6.59287691 -3.85265279 -2.49513626  3228549685
-2.49513626 0.96837741 6.71325684  1064822677
-2.36269164 -7.04052973 -2.49513626  3236278279
-2.49513626 0.96914852 -1.79006815  1064835614
-1.67403853 -7.23525858 -2.49513626  3236550443
-2.49513626 0.96914852 -1.20589364  1064835614
-0.85141253 -7.37742901 -2.49513626  3236723753
-2.49513626 0.96914852 -0.61394197  1064835614
-0.49495161 -7.40988731 -2.49513626  3236779804
-2.49513626 0.96914852 -0.25662279  1064835614
-0.13734251 -7.42512608 -2.49513626  3236799715
-2.49513626 0.96914852 0.33981979  1064835614
0.57800061 -7.40387011 -2.49513626  3236731036
-2.49513626 0.96914852 0.81558204  1064835614
0.93407303 -7.36742067 -2.49513626  3236642610
-2.49513626 0.96914852 1.17030168  1064835614
1.28797829 -7.31385660 -2.49513626  3236518369
-2.49513626 0.96914852 1.52230179  1064835614
1.75505257 -7.21603584 -2.49513626  3236163676
-2.49513626 0.96914852 3.21322227  1064835614
3.53209257 -6.53266716 -2.49513626  3234804682
-2.49513626 0.96914852 3.94436359  1064835614
4.14449644 -6.16234922 -2.49513626  3234007541
-2.49513626 0.96914852 4.34034681  1064835614
4.53171444 -5.88344717 -2.49513626  3233409668
-2.49513626 0.96914852 4.90022564  1064835614
5.07698488 -5.41992474 -2.49513626  3232419356
-2.49513626 0.96914852 5.24850225  1064835614
5.49556065 -4.99501848 -2.49513626  3230938950
-2.49513626 0.96914852 6.09051180  1064835614
6.15799856 -4.15095472 -2.49513626  3229408394
-2.49513626 0.96914852 6.41188145  1064835614
6.52895927 -3.53894091 -2.49513626  3226792745
-2.49513626 0.96914852 6.69189453  1064835614
-2.18884444 -6.88744259 -2.49513626  3235809513
-2.49513626 0.96988094 -1.62906563  1064847902
-1.51573014 -7.06614876 -2.49513626  3236093418
-2.49513626 0.96988094 -1.05877388  1064847902
-0.82853878 -7.17923212 -2.49513626  3236329472
-2.49513626 0.96988094 0.09857060  1064847902
0.56247252 -7.20496511 -2.49513626  3236314475
-2.49513626 0.96988094 0.90897781  1064847902
1.25337660 -7.11737061 -2.49513626  3236107518
-2.49513626 0.96988094 1.70790327  1064847902
1.93263948 -6.96367836 -2.49513626  3235762359
-2.49513626 0.96988094 2.26592851  1064847902
2.48524404 -6.78612471 -2.49513626  3235371429
-2.49513626 0.96988094 2.70199060  1064847902
2.80933309 -6.65849543 -2.49513626  3235092887
-2.49513626 0.96988094 3.12689853  1064847902
3.23117733 -6.46431732 -2.49513626  3234439877
-2.49513626 0.96988094 3.63967967  1064847902
3.83839798 -6.12328243 -2.49513626  3233935936
-2.49513626 0.96988094 4.40996933  1064847902
4.50138807 -5.65379620 -2.49513626  3232929138
-2.49513626 0.96988094 4.68071795  1064847902
4.76858187 -5.43033314 -2.49513626  3232286523
-2.49513626 0.96988094 5.18898964  1064847902
5.26913548 -4.94612074 -2.49513626  3231237849
-2.49513626 0.96988094 5.57592583  1064847902
5.64907217 -4.50731373 -2.49513626  3230292485
-2.49513626 0.96988094 6.05669117  1064847902
6.23962641 -3.64622498 -2.49513626  3235654392
-2.49513626 0.97057742 -1.25403404  1064859587
-1.03092027 -6.96082735 -2.49513626  3235856240
-2.49513626 0.97057742 -0.80674064  1064859587
-0.58172834 -7.01266813 -2.49513626  3235949806
-2.49513626 0.97057742 -0.35611641  1064859587
-0.13013743 -7.03555202 -2.49513626  3235981245
-2.49513626 0.97057742 0.32199067  1064859587
0.43489075 -7.02330446 -2.49513626  3235917502
-2.49513626 0.97057742 0.99711066  1064859587
1.44243097 -6.88732815 -2.49513626  3235618784
-2.49513626 0.97057742 1.66297066  1064859587
1.77261043 -6.80982828 -2.49513626  3235445145
-2.49513626 0.97057742 1.99048948  1064859587
2.09867334 -6.71650982 -2.49513626  3235238480
-2.49513626 0.97057742 2.31338215  1064859587
2.73542333 -6.48331690 -2.49513626  3234630640
-2.49513626 0.97057742 3.04463315  1064859587
3.14616871 -6.29424810 -2.49513626  3234317757
-2.49513626 0.97057742 3.34677267  1064859587
3.54392481 -6.07918692 -2.49513626  3233601540
-2.49513626 0.97057742 4.02035284  1064859587
4.20382643 -5.64302778 -2.49513626  3232916590
-2.49513626 0.97057742 4.55757427  1064859587
4.64312553 -5.28746796 -2.49513626  3232156219
-2.49513626 0.97057742 4.81061172  1064859587
4.97312784 -4.97834635 -2.49513626  3231496903
-2.49513626 0.97057742 5.13051033  1064859587
5.35660410 -4.56319284 -2.49513626  3230613458
-2.49513626 0.97057742 5.50045204  1064859587
5.57025480 -4.29979134 -2.49513626  3230053939
-2.49513626 0.97057742 5.95826340  1064859587
6.13172674 -3.45222521 -2.49513626  3226482754
-2.49513626 0.97057742 6.29094648  1064859587
6.34078884 -3.05128407 -2.49513626  3234855152
-2.49513626 0.97124046 -1.97107267  1064870711
-1.86532652 -6.59667826 -2.49513626  3235120773
-2.49513626 0.97124046 -1.65241873  1064870711
-1.54531121 -6.67888975 -2.49513626  3235329013
-2.49513626 0.97124052 -1.22170246  1064870711
-1.11316490 -6.76435471 -2.49513626  3235447012
-2.49513626 0.97124052 -0.67642277  1064870712
-0.56673020 -6.83186817 -2.49513626  3235570183
-2.49513626 0.97124046 -0.23688941  1064870711
-0.01664062 -6.85531044 -2.49513626  3235595797
-2.49513626 0.97124052 0.31368876  1064870712
0.42367789 -6.84222651 -2.49513626  3235515180
-2.49513626 0.97124052 0.86224580  1064870712
0.97140318 -6.78615999 -2.49513626  3235422508
-2.49513626 0.97124052 1.18893683  1064870711
1.29725611 -6.73147249 -2.49513626  3235247694
-2.49513626 0.97124046 1.72690809  1064870712
2.04456401 -6.54334164 -2.49513626  3234877194
-2.49513626 0.97124052 2.25373936  1064870711
2.35747004 -6.43723059 -2.49513626  3234559511
-2.49513626 0.97124046 2.76603293  1064870711
3.26048613 -6.03032637 -2.49513626  3233760482
-2.49513626 0.97124052 3.45255494  1064870711
3.54726315 -5.86621857 -2.49513626  3233406707
-2.49513626 0.97124052 3.73390913  1064870711
3.82579827 -5.68848562 -2.49513626  3233024644
-2.49513626 0.97124046 4.00658941  1064870711
4.09544325 -5.49753952 -2.49513626  3232179227
-2.49513626 0.97124046 4.52341652  1064870711
4.68658113 -5.00314951 -2.49513626  3231396643
-2.49513626 0.97124052 4.92220926  1064870712
5.14639997 -4.52881622 -2.49513626  3230371417
-2.49513626 0.97124046 5.35863686  1064870712
5.55842447 -4.01241636 -2.49513626  3229289429
-2.49513626 0.97124046 5.74529934  1064870711
5.91882849 -3.45876098 -2.49513626  3226943228
-2.49513626 0.97124046 6.02690220  1064870711
6.07860947 -3.16955280 -2.49513626  3225719582
-2.49513626 0.97124052 6.17730999  1064870711
-2.12586689 -6.33481979 -2.49513626  3234580466
-2.49513626 0.97187251 -1.61064005  1064881315
-1.40145028 -6.53339100 -2.49513626  3235118647
-2.49513626 0.97187251 -0.76606977  1064881315
-0.65932226 -6.64940310 -2.49513626  3235207503
-2.49513626 0.97187251 -0.23090012  1064881315
-0.01622070 -6.68199015 -2.49513626  3235237358
-2.49513626 0.97187251 0.19847387  1064881315
0.52006447 -6.66173935 -2.49513626  3235153899
-2.49513626 0.97187251 0.94684303  1064881315
1.05299640 -6.59851837 -2.49513626  3235026302
-2.49513626 0.97187251 1.26445818  1064881315
1.89014196 -6.40910339 -2.49513626  3234600914
-2.49513626 0.97187251 2.09508562  1064881315
2.59752107 -6.15647125 -2.49513626  3234047342
-2.49513626 0.97187251 3.27207971  1064881315
3.54899859 -5.66161203 -2.49513626  3232977620
-2.49513626 0.97187251 3.72906971  1064881315
3.90528989 -5.42198849 -2.49513626  3232463154
-2.49513626 0.97187251 4.07747650  1064881315
4.16200113 -5.22752237 -2.49513626  3232046729
-2.49513626 0.97187251 4.40904999  1064881315
4.48915243 -4.94941998 -2.49513626  3231297328
-2.49513626 0.97187251 4.72241592  1064881315
4.79776192 -4.65088511 -2.49513626  3230140176
-2.49513626 0.97187251 5.22315598  1064881315
5.35435677 -3.99751353 -2.49513626  3228873456
-2.49513626 0.97187251 5.71427345  1064881315
5.76918364 -3.37131238 -2.49513626  3226192421
-2.49513626 0.97187251 5.92492580  1064881315
5.97379827 -2.99382401 -2.49513626  3234433442
-2.49513626 0.97247547 -1.57068312  1064891431
-1.46887362 -6.34852219 -2.49513626  3234709644
-2.49513626 0.97247547 -0.85097289  1064891431
-0.74706483 -6.47327185 -2.49513626  3234844231
-2.49513626 0.97247547 -0.43429297  1064891431
-0.22517173 -6.51234436 -2.49513626  3234884980
-2.49513626 0.97247547 0.50716221  1064891431
0.61147350 -6.48748207 -2.49513626  3234753120
-2.49513626 0.97247547 1.02687085  1064891431
1.13012612 -6.41748762 -2.49513626  3234644103
-2.49513626 0.97247547 1.43803108  1064891431
1.74259400 -6.27890921 -2.49513626  3234332883
-2.49513626 0.97247547 1.94343102  1064891431
2.33887577 -6.08202219 -2.49513626  3233729250
-2.49513626 0.97247547 2.91344142  1064891431
3.09920669 -5.73203659 -2.49513626  3232919292
-2.49513626 0.97247547 3.54921246  1064891431
3.72296023 -5.34798098 -2.49513626  3232184361
-2.49513626 0.97247547 3.97631788  1064891431
4.05874634 -5.09783316 -2.49513626  3231493853
-2.49513626 0.97247547 4.45476198  1064891431
4.60525799 -4.61008978 -2.49513626  3230737111
-2.49513626 0.97247547 4.96036768  1064891431
5.09357452 -4.06409025 -2.49513626  3229187689
-2.49513626 0.97247547 5.46111059  1064891431
5.57250786 -3.37764478 -2.49513626  3226245464
-2.49513626 0.97247547 5.72878361  1064891431
5.82559490 -2.91954803 -2.49513626  3224688187
-2.49513626 0.97247547 -1.72986901  1064901093
-1.63135648 -6.14463425 -2.49513626  3234165008
-2.49513626 0.97305131 -1.43309295  1064901092
-1.23334813 -6.23672104 -2.49513626  3234443940
-2.49513626 0.97305137 -0.62729955  1064901090
-0.52557468 -6.33574200 -2.49513626  3234541039
-2.49513626 0.97305131 -0.21968667  1064901092
-0.11757459 -6.35641670 -2.49513626  3234558086
-2.49513626 0.97305131 0.39290917  1064901092
0.49480659 -6.33821774 -2.49513626  3234452243
-2.49513626 0.97305131 1.00185859  1064901092
1.10259676 -6.26116180 -2.49513626  3234317232
-2.49513626 0.97305131 1.30319428  1064901092
1.79834795 -6.09785080 -2.49513626  3233885817
-2.49513626 0.97305137 2.09007311  1064901092
2.18627095 -5.96976471 -2.49513626  3233591195
-2.49513626 0.97305137 2.47137499  1064901092
2.65829372 -5.77506018 -2.49513626  3233245520
-2.49513626 0.97305131 2.84247160  1064901092
3.02371144 -5.59240627 -2.49513626  3232167798
-2.49513626 0.97305131 3.79803467  1064901092
3.87945676 -5.03663158 -2.49513626  3231521207
-2.49513626 0.97305131 4.83953619  1064901092
4.90515041 -4.04442358 -2.49513626  3229467664
-2.49513626 0.97305131 5.15477657  1064901092
5.27166796 -3.55350161 -2.49513626  3227384158
-2.49513626 0.97305131 5.38311768  1064901092
5.53983641 -3.11898494 -2.49513626  3225543822
-2.49513626 0.97305131 5.63718748  1064901092
5.68368721 -2.84843230 -2.49513626  3224399495
-2.49513626 0.97305137 -1.97422159  1064910328
-1.87944984 -5.91389370 -2.49513626  3233689532
-2.49513626 0.97360182 -1.49574780  1064910328
-1.39879501 -6.04564667 -2.49513626  3233991815
-2.49513626 0.97360182 -1.10587001  1064910328
-0.81037492 -6.15221310 -2.49513626  3234153244
-2.49513626 0.97360182 -0.61228901  1064910328
-0.41357359 -6.19156075 -2.49513626  3234222375
-2.49513626 0.97360182 0.18431468  1064910328
0.28394729 -6.19885731 -2.49513626  3234181628
-2.49513626 0.97360182 0.68148506  1064910328
0.97788167 -6.12782383 -2.49513626  3234041840
-2.49513626 0.97360182 1.17425919  1064910328
1.27200663 -6.07358789 -2.49513626  3233918204
-2.49513626 0.97360182 1.85071313  1064910328
1.94563615 -5.89244938 -2.49513626  3233215535
-2.49513626 0.97360182 2.50377703  1064910328
2.68490720 -5.59443855 -2.49513626  3232865877
-2.49513626 0.97360182 2.86326694  1064910328
3.03867030 -5.41044855 -2.49513626  3232468155
-2.49513626 0.97360182 3.29583621  1064910328
3.46306205 -5.14914227 -2.49513626  3231785093
-2.49513626 0.97360182 3.78661585  1064910328
3.94261050 -4.79189825 -2.49513626  3231140669
-2.49513626 0.97360182 4.09453773  1064910328
4.24223375 -4.52878857 -2.49513626  3230432287
-2.49513626 0.97360182 4.45552015  1064910328
4.52433634 -4.24698067 -2.49513626  3229978444
-2.49513626 0.97360182 4.65845442  1064910328
4.72371769 -4.02404833 -2.49513626  3228740692
-2.49513626 0.97360182 5.08911753  1064910328
5.25429058 -3.30134821 -2.49513626  3225968503
-2.49513626 0.97360182 5.40725803  1064910328
5.45547390 -2.95707202 -2.49513626  3224870485
-2.49513626 0.97360182 5.54766655  1064910328
5.59161997 -2.69077229 -2.49513626  3233336030
-2.49513626 0.97412860 -1.74221504  1064919166
-1.46055889 -5.88070965 -2.49513626  3233605831
-2.49513626 0.97412860 -1.27086234  1064919166
-1.17550957 -5.94425535 -2.49513626  3233824069
-2.49513626 0.97412860 -0.69468814  1064919166
-0.59788495 -6.02980137 -2.49513626  3233904641
-2.49513626 0.97412860 -0.30665290  1064919166
-0.11206099 -6.05833483 -2.49513626  3233932856
-2.49513626 0.97412860 0.17998011  1064919166
0.27726677 -6.05302191 -2.49513626  3233908604
-2.49513626 0.97412860 0.47160277  1064919166
0.56860203 -6.03263330 -2.49513626  3233856025
-2.49513626 0.97412860 0.76213080  1064919166
0.85861421 -5.99822998 -2.49513626  3233774117
-2.49513626 0.97412860 1.14663291  1064919166
1.33720803 -5.90998220 -2.49513626  3233413895
-2.49513626 0.97412860 1.80717385  1064919166
2.08374667 -5.68981504 -2.49513626  3233086130
-2.49513626 0.97412860 2.26548052  1064919166
2.35548115 -5.58280563 -2.49513626  3232852581
-2.49513626 0.97412860 2.53363419  1064919166
2.62174106 -5.46282530 -2.49513626  3232305067
-2.49513626 0.97412860 3.05168271  1064919166
3.13539600 -5.18510103 -2.49513626  3231992363
-2.49513626 0.97412860 3.30037165  1064919166
3.54138851 -4.91676140 -2.49513626  3231292732
-2.49513626 0.97412860 3.77418113  1064919166
3.92453790 -4.61670303 -2.49513626  3230499590
-2.49513626 0.97412860 4.21294594  1064919166
4.35069990 -4.21751070 -2.49513626  3229772522
-2.49513626 0.97412860 4.54885960  1064919166
4.91304398 -3.54654169 -2.49513626  3226701966
-2.49513626 0.97412860 5.13067818  1064919166
5.18180704 -3.14083099 -2.49513626  3224587381
-2.49513626 0.97412860 5.41715002  1064919166
5.46007252 -2.62746954 -2.49513626  3233055805
-2.49513626 0.97463304 -1.70190299  1064927629
-1.61059737 -5.69582987 -2.49513626  3233272850
-2.49513626 0.97463304 -1.33428276  1064927629
-1.24145484 -5.78751135 -2.49513626  3233403028
-2.49513626 0.97463304 -0.96115130  1064927629
-0.58405066 -5.89027929 -2.49513626  3233611260
-2.49513626 0.97463304 -0.20453961  1064927629
-0.10946874 -5.91815090 -2.49513626  3233615129
-2.49513626 0.97463304 0.55544525  1064927629
0.65005326 -5.88336039 -2.49513626  3233540277
-2.49513626 0.97463304 0.83874673  1064927629
0.93278056 -5.84520578 -2.49513626  3233450744
-2.49513626 0.97463304 1.39885437  1064927629
1.49108124 -5.72827864 -2.49513626  3233131873
-2.49513626 0.97463304 1.76535738  1064927629
1.85590267 -5.62068701 -2.49513626  3232948855
-2.49513626 0.97463304 2.03553152  1064927629
2.30097771 -5.45362234 -2.49513626  3232501604
-2.49513626 0.97463304 2.56107855  1064927629
2.64648771 -5.29458380 -2.49513626  3232238414
-2.49513626 0.97463304 2.81523180  1064927629
3.06284571 -5.06512451 -2.49513626  3231743235
-2.49513626 0.97463304 3.45944595  1064927629
3.83372974 -4.50988054 -2.49513626  3230420175
-2.49513626 0.97463304 4.04657984  1064927629
4.25002909 -4.11992216 -2.49513626  3228936519
-2.49513626 0.97463304 4.56694841  1064927629
4.68557501 -3.61689019 -2.49513626  3227689488
-2.49513626 0.97463304 4.79936314  1064927629
4.85440493 -3.38692474 -2.49513626  3226713694
-2.49513626 0.97463304 5.01196051  1064927629
5.06190920 -3.06815672 -2.49513626  3224667698
-2.49513626 0.97463304 5.24851227  1064927629
5.29180574 -2.65203738 -2.49513626  3232843950
-2.49513626 0.97511649 -1.57392132  1064935740
-1.39427364 -5.61382294 -2.49513626  3233043972
-2.49513626 0.97511649 -1.21318567  1064935740
-1.12216139 -5.67448521 -2.49513626  3233195197
-2.49513626 0.97511649 -0.84743905  1064935740
-0.66316372 -5.74617434 -2.49513626  3233314669
-2.49513626 0.97511649 -0.38551474  1064935740
-0.29273665 -5.77696419 -2.49513626  3233348943
-2.49513626 0.97511649 -0.01404237  1064935740
0.07889540 -5.78383970 -2.49513626  3233350836
-2.49513626 0.97511649 0.26468351  1064935740
0.35749000 -5.77331877 -2.49513626  3233319390
-2.49513626 0.97511649 0.54279733  1064935740
0.63525206 -5.74938822 -2.49513626  3233259853
-2.49513626 0.97511649 0.91153961  1064935740
1.09459674 -5.67986488 -2.49513626  3233098597
-2.49513626 0.97511649 1.36700082  1064935740
1.45712733 -5.59783792 -2.49513626  3232860747
-2.49513626 0.97511649 1.72515714  1064935740
1.90165365 -5.46284962 -2.49513626  3232616342
-2.49513626 0.97511649 2.07618856  1064935740
2.41864920 -5.25443888 -2.49513626  3232161922
-2.49513626 0.97511649 2.58622408  1064935740
2.66901827 -5.13179779 -2.49513626  3231896312
-2.49513626 0.97511649 2.83252192  1064935740
2.91318774 -4.99723387 -2.49513626  3231605924
-2.49513626 0.97511649 3.07224154  1064935740
3.15058851 -4.85106230 -2.49513626  3231181347
-2.49513626 0.97511649 3.38066912  1064935740
3.52972651 -4.58258152 -2.49513626  3230593047
-2.49513626 0.97511649 3.81675792  1064935740
3.88609743 -4.28453636 -2.49513626  3230078699
-2.49513626 0.97511649 4.02174711  1064935740
4.08802652 -4.09231567 -2.49513626  3229668829
-2.49513626 0.97511649 4.21739817  1064935740
4.28046083 -3.89058971 -2.49513626  3227968399
-2.49513626 0.97511649 4.57887793  1064935740
4.69007540 -3.38558865 -2.49513626  3226397696
-2.49513626 0.97511649 4.84775734  1064935740
5.17130375 -2.59164643 -2.49513626  3223357126
-2.49513626 0.97511649 -1.71266568  1064943521
-1.53863168 -5.44133425 -2.49513626  3232734555
-2.49513626 0.97558028 -1.18598497  1064943521
-0.82843906 -5.59366989 -2.49513626  3233006017
-2.49513626 0.97558028 -0.19540051  1064943521
-0.01372686 -5.65467072 -2.49513626  3233083108
-2.49513626 0.97558028 0.34947348  1064943521
0.53062713 -5.62973547 -2.49513626  3233012481
-2.49513626 0.97558028 0.71123201  1064943521
0.80127043 -5.59763002 -2.49513626  3232701782
-2.49513626 0.97558028 1.68647873  1064943521
1.77297807 -5.36954594 -2.49513626  3232425035
-2.49513626 0.97558028 1.94458044  1064943521
2.11417580 -5.24459410 -2.49513626  3232151524
-2.49513626 0.97558028 2.44664550  1064943521
2.52823877 -5.05801535 -2.49513626  3231565100
-2.49513626 0.97558028 2.84787297  1064943521
2.92599320 -4.83880758 -2.49513626  3231273282
-2.49513626 0.97558028 3.07995081  1064943521
3.23072696 -4.64089346 -2.49513626  3230848016
-2.49513626 0.97558028 3.37816572  1064943521
3.52211642 -4.42381954 -2.49513626  3230136212
-2.49513626 0.97558028 3.79896879  1064943521
3.86577320 -4.12689781 -2.49513626  3229748838
-2.49513626 0.97558028 4.12284184  1064943521
4.24505711 -3.73563743 -2.49513626  3228217168
-2.49513626 0.97558028 4.36289024  1064943521
4.42012405 -3.52675414 -2.49513626  3225130648
-2.49513626 0.97558028 4.92741251  1064943521
4.97134829 -2.69465756 -2.49513626  3223802606
-2.49513626 0.97558028 5.05535984  1064943521
-1.75929129 -5.24246883 -2.49513626  3232332590
-2.49513626 0.97602546 -1.15979004  1064950990
-0.81014228 -5.47012329 -2.49513626  3232722968
-2.49513626 0.97602546 -0.63397205  1064950990
-0.27985185 -5.52270508 -2.49513626  3232815358
-2.49513626 0.97602546 -0.10226703  1064950990
0.25303498 -5.52399778 -2.49513626  3232800114
-2.49513626 0.97602546 0.43038642  1064950990
0.60729301 -5.49634218 -2.49513626  3232730186
-2.49513626 0.97602546 0.78357321  1064950990
1.22033799 -5.39345503 -2.49513626  3232493789
-2.49513626 0.97602546 1.56421340  1064950990
1.64922893 -5.27812815 -2.49513626  3232237505
-2.49513626 0.97602546 1.81795800  1064950990
1.98481011 -5.16130972 -2.49513626  3231836389
-2.49513626 0.97602546 2.31219792  1064950990
2.55154800 -4.90593147 -2.49513626  3231426660
-2.49513626 0.97602546 2.78497052  1064950990
2.86136651 -4.73193073 -2.49513626  3230743164
-2.49513626 0.97602546 3.23187733  1064950990
3.44432235 -4.32610941 -2.49513626  3230180756
-2.49513626 0.97602546 3.58154106  1064950990
3.64877105 -4.15512371 -2.49513626  3229507074
-2.49513626 0.97602546 3.90810132  1064950990
3.97045493 -3.84890532 -2.49513626  3228710707
-2.49513626 0.97602546 4.15129471  1064950990
4.20945358 -3.58595705 -2.49513626  3227009268
-2.49513626 0.97602546 4.43107271  1064950990
4.48365164 -3.23658013 -2.49513626  3226108170
-2.49513626 0.97602546 4.63439274  1064950990
4.68226385 -2.94193578 -2.49513626  3224859110
-2.49513626 0.97602546 4.77437019  1064950990
4.90325594 -2.55669069 -2.49513626  3223228591
-2.49513626 0.97602546 4.98286915  1064950990
-1.72099376 -5.12834692 -2.49513626  3232090802
-2.49513626 0.97645313 -1.47189391  1064958165
-1.04941893 -5.30664110 -2.49513626  3232514470
-2.49513626 0.97645313 -0.44719702  1064958165
-0.10004139 -5.40848541 -2.49513626  3232569802
-2.49513626 0.97645313 0.42101616  1064958165
0.50760978 -5.38554192 -2.49513626  3232501209
-2.49513626 0.97645313 0.76651525  1064958165
0.85245115 -5.34182262 -2.49513626  3232364868
-2.49513626 0.97645313 1.19377291  1064958165
1.36266983 -5.23496389 -2.49513626  3232156663
-2.49513626 0.97645313 1.53016090  1064958165
1.69607401 -5.13663864 -2.49513626  3231877945
-2.49513626 0.97645313 2.02247238  1064958165
2.26186323 -4.91383028 -2.49513626  3231452979
-2.49513626 0.97645313 2.49600148  1064958165
2.64890766 -4.71646309 -2.49513626  3230837453
-2.49513626 0.97645313 3.01886320  1064958165
3.09059143 -4.43959188 -2.49513626  3230322924
-2.49513626 0.97645313 3.50357485  1064958165
3.63418603 -4.00679731 -2.49513626  3229395515
-2.49513626 0.97645313 3.94401217  1064958165
4.11781740 -3.50789356 -2.49513626  3227270645
-2.49513626 0.97645313 4.38604498  1064958165
4.43634844 -3.09524655 -2.49513626  3225214729
-2.49513626 0.97645313 4.58033514  1064958165
4.62598276 -2.80393004 -2.49513626  3223967927
-2.49513626 0.97645313 4.75571489  1064958165
-1.60320902 -5.04467106 -2.49513626  3231954626
-2.49513626 0.97686422 -1.27590406  1064965062
-1.02689290 -5.19273472 -2.49513626  3232148617
-2.49513626 0.97686422 -0.77549344  1064965062
-0.69126576 -5.24797487 -2.49513626  3232253124
-2.49513626 0.97686422 -0.52229553  1064965062
-0.43759802 -5.27517891 -2.49513626  3232301637
-2.49513626 0.97686422 -0.26788333  1064965062
0.15722534 -5.29096079 -2.49513626  3232305099
-2.49513626 0.97686422 0.49671394  1064965062
0.58132094 -5.26127815 -2.49513626  3232187616
-2.49513626 0.97686422 1.00166667  1064965062
1.08504748 -5.18089390 -2.49513626  3232052631
-2.49513626 0.97686422 1.25094497  1064965062
1.33342052 -5.12259436 -2.49513626  3231922016
-2.49513626 0.97686422 1.57869613  1064965062
1.65966702 -5.02638006 -2.49513626  3231709273
-2.49513626 0.97686422 1.82030118  1064965062
1.89992535 -4.94057322 -2.49513626  3231521254
-2.49513626 0.97686422 2.05768156  1064965062
2.36665845 -4.73475838 -2.49513626  3231073945
-2.49513626 0.97686428 2.59204769  1064965062
2.66586542 -4.57298040 -2.49513626  3230631131
-2.49513626 0.97686422 2.88311124  1064965062
2.95406246 -4.39232349 -2.49513626  3230233044
-2.49513626 0.97686422 3.16226697  1064965062
3.23005915 -4.19353151 -2.49513626  3229519371
-2.49513626 0.97686422 3.74096251  1064965062
3.80064893 -3.68429852 -2.49513626  3228031826
-2.49513626 0.97686422 3.91705799  1064965062
4.08405781 -3.36741209 -2.49513626  3225831492
-2.49513626 0.97686422 4.34112072  1064965062
4.38922310 -2.95866728 -2.49513626  3224949029
-2.49513626 0.97686422 4.48201609  1064965062
4.52668333 -2.74374199 -2.49513626  3223416754
-2.49513626 0.97686422 4.69355679  1064965062
-1.64838934 -4.91199398 -2.49513626  3231580884
-2.49513626 0.97725976 -1.48972046  1064971698
-1.40979826 -4.98571539 -2.49513626  3231884818
-2.49513626 0.97725976 -0.92335242  1064971698
-0.84132183 -5.11244011 -2.49513626  3231998194
-2.49513626 0.97725976 -0.59400785  1064971698
-0.34531486 -5.16968441 -2.49513626  3232077325
-2.49513626 0.97725976 -0.17903781  1064971698
-0.01257809 -5.18118954 -2.49513626  3232090236
-2.49513626 0.97725976 0.15389621  1064971698
0.32021254 -5.17129993 -2.49513626  3232058285
-2.49513626 0.97725976 0.56901056  1064971698
0.65167850 -5.14005804 -2.49513626  3231981606
-2.49513626 0.97725976 0.81648803  1064971698
0.98045546 -5.08759117 -2.49513626  3231860512
-2.49513626 0.97725976 1.14341080  1064971698
1.22445560 -5.03444004 -2.49513626  3231740839
-2.49513626 0.97725976 1.38557601  1064971698
1.46560895 -4.96959448 -2.49513626  3231236656
-2.49513626 0.97725976 2.09054446  1064971698
2.16644168 -4.70653105 -2.49513626  3231021504
-2.49513626 0.97725976 2.39070439  1064971698
2.46424890 -4.55767345 -2.49513626  3230523488
-2.49513626 0.97725976 2.75188041  1064971698
2.89150620 -4.29931116 -2.49513626  3230143190
-2.49513626 0.97725976 3.29190922  1064971698
3.35576797 -3.94761992 -2.49513626  3228933605
-2.49513626 0.97725976 3.54208112  1064971698
3.66174340 -3.66558552 -2.49513626  3227962697
-2.49513626 0.97725976 3.83411074  1064971698
3.88960648 -3.42284203 -2.49513626  3226390543
-2.49513626 0.97725976 4.20101213  1064971698
4.24919271 -2.96466708 -2.49513626  3224983626
-2.49513626 0.97725976 4.34225130  1064971698
4.47340441 -2.61410451 -2.49513626  3222884414
-2.49513626 0.97725976 -1.61393762  1064978085
-1.38033354 -4.88151264 -2.49513626  3231507933
-2.49513626 0.97764045 -1.22278202  1064978085
-1.14352322 -4.94234991 -2.49513626  3231627525
-2.49513626 0.97764045 -0.98413831  1064978085
-0.90405524 -4.99170828 -2.49513626  3231812235
-2.49513626 0.97764045 -0.41937888  1064978085
-0.33809751 -5.06163597 -2.49513626  3231850517
-2.49513626 0.97764045 -0.09381765  1064978085
-0.01231520 -5.07290077 -2.49513626  3231859452
-2.49513626 0.97764045 0.31351990  1064978085
0.47603461 -5.05053234 -2.49513626  3231756802
-2.49513626 0.97764045 0.79942352  1064978085
0.95996457 -4.98125982 -2.49513626  3231601856
-2.49513626 0.97764045 1.19886410  1064978085
1.27790463 -4.90932035 -2.49513626  3231476679
-2.49513626 0.97764045 1.43497705  1064978085
1.51296914 -4.84204626 -2.49513626  3231272792
-2.49513626 0.97764045 1.82082450  1064978085
1.89666450 -4.70501423 -2.49513626  3231027421
-2.49513626 0.97764045 2.19492745  1064978085
2.26812649 -4.53763103 -2.49513626  3230663922
-2.49513626 0.97764045 2.48413014  1064978085
2.76307702 -4.25439692 -2.49513626  3230053338
-2.49513626 0.97764045 2.96485806  1064978085
3.03060961 -4.06815529 -2.49513626  3229653797
-2.49513626 0.97764045 3.22310686  1064978085
3.28563190 -3.86511350 -2.49513626  3228824818
-2.49513626 0.97764045 3.46805143  1064978085
3.52708650 -3.64611340 -2.49513626  3227646562
-2.49513626 0.97764045 3.75397730  1064978085
3.80831361 -3.35130429 -2.49513626  3226634796
-2.49513626 0.97764045 3.96536851  1064978085
4.01569033 -3.09979272 -2.49513626  3225566046
-2.49513626 0.97764045 4.11320925  1064978085
4.20648289 -2.83548617 -2.49513626  3224444752
-2.49513626 0.97764045 4.29541397  1064978085
4.37990808 -2.55946875 -2.49513626  3223275513
-2.49513626 0.97764045 4.45988226  1064978085
4.49814653 -2.34545588 -2.49513626  3222063167
-2.49513626 0.97764045 -1.50475287  1064984237
-1.42848432 -4.75843382 -2.49513626  3231251474
-2.49513626 0.97800714 -1.19754827  1064984237
-1.04201126 -4.85772610 -2.49513626  3231446651
-2.49513626 0.97800714 -0.88539791  1064984236
-0.72787082 -4.91461611 -2.49513626  3231555369
-2.49513626 0.97800714 -0.41072387  1064984237
-0.33112028 -4.95717907 -2.49513626  3231642813
-2.49513626 0.97800714 -0.01206046  1064984237
0.06776350 -4.96776390 -2.49513626  3231640000
-2.49513626 0.97800714 0.30704853  1064984237
0.38667968 -4.95315552 -2.49513626  3231456346
-2.49513626 0.97800714 1.17412269  1064984237
1.25153208 -4.80800772 -2.49513626  3231265123
-2.49513626 0.97800714 1.40536332  1064984237
1.55774379 -4.71770096 -2.49513626  3230950310
-2.49513626 0.97800714 2.00461054  1064984237
2.22131824 -4.44398785 -2.49513626  3230226758
-2.49513626 0.97800708 2.83852553  1064984237
3.15659070 -3.83656096 -2.49513626  3228494868
-2.49513626 0.97800714 3.51122332  1064984237
3.56724501 -3.45803881 -2.49513626  3227098675
-2.49513626 0.97800714 3.67650509  1064984237
3.72971988 -3.28214192 -2.49513626  3226350044
-2.49513626 0.97800714 3.83324862  1064984237
3.93281722 -3.03582144 -2.49513626  3225303355
-2.49513626 0.97800714 4.07452440  1064984237
4.11967325 -2.77696943 -2.49513626  3223350512
-2.49513626 0.97800714 4.32923985  1064984237
4.47684479 -2.15432572 -2.49513626  3231001199
-2.49513626 0.97836053 -1.32428920  1064990166
-1.24887359 -4.70398283 -2.49513626  3231131244
-2.49513626 0.97836053 -1.09709382  1064990166
-0.86734825 -4.78903723 -2.49513626  3231296734
-2.49513626 0.97836053 -0.55797863  1064990166
-0.40235099 -4.85028362 -2.49513626  3231409499
-2.49513626 0.97836053 -0.24630699  1064990166
-0.09000843 -4.86611128 -2.49513626  3231432163
-2.49513626 0.97836053 0.06638216  1064990166
0.22270334 -4.86184549 -2.49513626  3231412681
-2.49513626 0.97836053 0.45670554  1064990166
0.61215168 -4.82829285 -2.49513626  3231304661
-2.49513626 0.97836053 0.84408528  1064990166
0.92098677 -4.77900887 -2.49513626  3231180548
-2.49513626 0.97836053 1.22601891  1064990166
1.45153868 -4.64544678 -2.49513626  3230864846
-2.49513626 0.97836053 1.67368484  1064990166
1.74689436 -4.54263067 -2.49513626  3230629440
-2.49513626 0.97836053 2.03503847  1064990166
2.10580802 -4.38779020 -2.49513626  3230355198
-2.49513626 0.97836053 2.24569702  1064990166
2.31478214 -4.28123140 -2.49513626  3229959532
-2.49513626 0.97836053 2.58496737  1064990166
2.71612453 -4.03853989 -2.49513626  3229590506
-2.49513626 0.97836053 2.96989107  1064990166
