# .PCD v0.7 - Point Cloud Data file format
VERSION 0.7
FIELDS x y z intensity
SIZE 4 4 4 4
TYPE F F F F
COUNT 1 1 1 1
WIDTH 999
HEIGHT 1
VIEWPOINT 0 0 0 1 0 0 0
POINTS 999
DATA ascii
-2.64753628 0.83348954 -44.22539902  1062559634
-44.38853455 9.79540348 -2.64753628  1089774016
-2.64753628 0.83348954 -44.92609787  1062559635
-45.27808380 4.02333355 -2.64753628  1079174195
-2.64753628 0.83348954 -45.38399124  1062559635
-45.44301605 1.10637367 -2.64753628  1052802333
-2.64753628 0.83348960 -45.45511627  1062559634
-45.44353867 -1.08499706 -2.64753628  3223510646
-2.64753628 0.83348960 -45.33843613  1062559635
-45.20981216 -4.72916889 -2.64753628  3235701116
-2.64753628 0.83348954 -44.81262589  1062559635
-44.54449081 -9.05983925 -2.64753628  3239863382
-2.64753628 0.83348954 -43.87048721  1062559635
-43.46531677 -13.30632496 -2.64753628  1107934391
-2.49513626 0.86051911 -15.87803936  1063013114
-20.13793564 32.84151459 -2.56519580  1107327194
-2.64753628 0.85265976 -23.95112991  1062881257
-24.45805550 31.34821510 -2.64753628  1106533952
-2.64753628 0.85265970 -29.15919304  1062881257
-30.01278687 26.08039665 -2.64753628  1103937570
-2.64753628 0.85265976 -30.83539009  1062881257
-31.62613678 24.09762001 -2.64753628  1101952359
-2.50275636 0.86012441 -31.62867355  1063006493
-31.95091820 19.79576302 -2.50275636  1101211886
-2.64753628 0.85265976 -34.45473099  1062881257
-34.76918030 19.28758430 -2.64753628  1100337027
-2.64753628 0.85265970 -35.37107086  1062881256
-35.65834045 17.58949089 -2.64753628  1099439373
-2.64753628 0.85265976 -37.40752029  1062881257
-37.61924362 12.87245655 -2.64753628  1094992535
-2.64753628 0.85265976 -38.19590378  1062881256
-38.36845016 10.42925739 -2.64753628  1092418340
-2.64753628 0.85265976 -38.68379211  1062881257
-38.95917130 7.94295883 -2.64753628  1083787461
-2.64753628 0.85265970 -39.54291534  1062881256
-39.69721603 2.24463916 -2.64753628  3211065572
-2.49513626 0.86051911 -37.44200134  1063013115
-37.41312027 -2.09781957 -2.49513626  3224156379
-2.49513626 0.86051911 -37.32638168  1063013115
-37.12401581 -5.09414530 -2.49513626  3233158405
-2.49513626 0.86051911 -36.94112778  1063013115
-36.83536911 -6.87736607 -2.49513626  3236887934
-2.49513626 0.86051911 -36.59533310  1063013114
-36.31747818 -9.22944927 -2.49513626  3239902578
-2.49513626 0.86051911 -36.00213242  1063013114
-35.83047104 -10.96901989 -2.49513626  1107462711
-2.64350033 0.86805862 -14.97002792  1063136458
-15.99065113 31.50290298 -2.64753628  1106898770
-2.64753628 0.86787117 -18.94936752  1063136462
-19.42607307 29.50867653 -2.64753628  1105824408
-2.64753628 0.86787117 -21.28155708  1063136462
-22.61590767 27.14139175 -2.64753628  1104556558
-2.64753628 0.86787111 -24.31273842  1063136462
-24.72150612 25.23848534 -2.64753628  1103111243
-2.64753628 0.86787117 -24.85399628  1063249736
-25.90022659 21.08404541 -2.50275636  1101353502
-2.50275636 0.87462282 -27.50901604  1063249736
-28.38106346 18.87242508 -2.55416822  1099763325
-2.64753628 0.86787117 -31.16527557  1063136462
-31.42864227 16.13613319 -2.64753628  1096350538
-2.64753628 0.86787117 -33.23811340  1063136461
-33.42623901 11.43770504 -2.64753628  1092420599
-2.64753628 0.86787111 -34.23646164  1063136461
-32.39358902 7.69634914 -2.49513626  1088788422
-2.49513626 0.87497967 -32.62415695  1063255723
-32.72689819 6.12624788 -2.49513626  1083266811
-2.49513626 0.87497950 -33.05276871  1063255724
-33.11299515 3.47955060 -2.49513626  1077713641
-2.49513626 0.87497967 -33.20775223  1063255720
-33.24221039 1.87965333 -2.49513626  1062171934
-2.49513626 0.87497962 -33.29416275  1063255723
-33.29428864 -0.25969616 -2.49513626  3220084606
-2.49513626 0.87497962 -33.16601181  1063255722
-33.11467743 -3.46395755 -2.49513626  3232936110
-2.49513626 0.87497967 -32.72972870  1063255722
-32.51644516 -7.15947962 -2.49513626  3237333906
-2.49513626 0.87497962 -12.06403160  1063343859
-13.00271130 29.00051117 -2.64753628  1105612143
-2.64753628 0.88023299 -14.83885002  1063343859
-15.28857517 27.86323357 -2.64753628  1104996692
-2.64753628 0.88023299 -16.17611504  1063343859
-16.61365891 27.09402847 -2.64753628  1104582300
-2.64753628 0.88023299 -17.47577667  1063343859
-17.90013504 26.26186371 -2.64753628  1104135227
-2.64753628 0.88023299 -18.73483086  1063343859
-20.34537888 24.41651726 -2.64753628  1102970919
-2.64753628 0.88023299 -20.32282829  1063447241
-20.67579079 21.79813194 -2.50275636  1101771863
-2.50275636 0.88639504 -22.03338051  1063447241
-22.35876656 20.06818962 -2.50275636  1100850811
-2.50275636 0.88639504 -22.99213791  1063447241
-23.29996109 18.96730232 -2.50275636  1100421159
-2.54265690 0.88469249 -25.88582611  1063343859
-26.46504974 17.59834290 -2.64753628  1099521474
-2.64753628 0.88023299 -27.01692390  1063343859
-27.28243828 16.30242729 -2.64753628  1098762836
-2.64753628 0.88023299 -28.03641701  1063343859
-28.27334404 14.51613140 -2.64753628  1096873304
-2.64753628 0.88023299 -28.72523308  1063343859
-28.94008636 13.13665771 -2.64753628  1095415797
-2.64753628 0.88023299 -29.34729385  1063343859
-29.72420120 11.25044727 -2.64753628  1092919649
-2.64753628 0.88023299 -30.23185921  1063343858
-30.38552094 9.31774902 -2.64753628  1089242060
-2.49513626 0.88672054 -29.34885025  1063452702
-29.67261314 4.08588791 -2.49513626  1080488434
-2.49513626 0.88672054 -29.78859520  1063452702
-29.87380028 2.17127752 -2.49513626  1071149271
-2.49513626 0.88672054 -29.94373512  1063452702
-29.95158386 0.24771895 -2.49513626  3214481568
-2.49513626 0.88672054 -29.90563393  1063452702
-29.87481880 -2.15723300 -2.49513626  3223897500
-2.49513626 0.88672054 -29.79006767  1063452702
-29.73614120 -3.59452271 -2.49513626  3229764928
-2.49513626 0.88672054 -29.52835464  1063452702
-29.44381523 -5.49732161 -2.49513626  3233745034
-2.49513626 0.88672054 -29.25194550  1063452702
-29.14466286 -6.90994787 -2.49513626  3238807919
-2.49513626 0.88672054 -10.96199226  1063515701
-11.81492615 26.35132980 -2.64753628  1104233395
-2.64753628 0.89047557 -13.89197350  1063515701
-14.69843864 24.85840988 -2.64753628  1103297628
-2.64753628 0.89047557 -15.87937927  1063515701
-16.44479752 21.79071236 -2.50275636  1101803617
-2.50275636 0.89614218 -17.81066132  1063610771
-18.14085197 20.40039253 -2.50275636  1100903547
-2.50275636 0.89614218 -19.10293579  1063610771
-19.75088882 18.90819359 -2.50670075  1100415166
-2.63822722 0.89083886 -24.54893494  1063515701
-25.02504539 14.41291809 -2.64753628  1096819823
-2.64753628 0.89047557 -25.89924240  1063515701
-26.10120010 12.35767555 -2.64753628  1093754318
-2.64753628 0.89047557 -26.84113884  1063515701
-27.47019386 8.90918350 -2.64753628  1090475452
-2.49513626 0.89644140 -26.26349258  1063615791
-26.37483025 6.71591473 -2.49513626  1086935442
-2.49513626 0.89644140 -26.75177765  1063615791
-26.96203041 3.71263599 -2.49513626  1077282914
-2.49513626 0.89644140 -27.17304420  1063615791
-27.20838737 0.66242766 -2.49513626  3193528466
-2.49513626 0.89644140 -27.20869637  1063615791
-27.06875992 -2.83152580 -2.49513626  3230798070
-2.49513626 0.89644140 -26.67040062  1063615791
-26.57978630 -5.85234737 -2.49513626  3235283727
-2.49513626 0.89644140 -26.26685715  1063615791
-26.02426529 -7.96697903 -2.49513626  1103352533
-2.64753628 0.89909983 -10.82459831  1063660392
-11.21117783 23.96548462 -2.64753628  1102987776
-2.64753628 0.89909983 -12.03153992  1063748383
-13.75278854 20.89082527 -2.50275636  1101234474
-2.50275636 0.90434450 -15.38525105  1063748385
-15.70018196 19.46972084 -2.50275636  1100456975
-2.50275636 0.90434450 -17.35897255  1063708719
-17.91928101 18.89198112 -2.60554981  1099617666
-2.64753628 0.89909983 -20.24790764  1063660392
-20.51899338 16.70346069 -2.64753628  1099102438
-2.64753628 0.89909995 -21.30015182  1063660392
-21.54962158 15.35085011 -2.64753628  1097861755
-2.64753628 0.89909983 -22.03181267  1063660392
-22.92743683 13.20482635 -2.64753628  1094403686
-2.64753628 0.89909983 -23.91339302  1063660392
-24.26487923 10.54753304 -2.64753628  1091951237
-2.64753628 0.89909983 -24.89229965  1063660394
-23.95387077 6.92634916 -2.49513626  1087458265
-2.49513626 0.90462148 -24.25984383  1063753029
-24.34931183 5.37326241 -2.49513626  1081283116
-2.49513626 0.90462142 -24.70207024  1063753029
-24.83727074 2.20700073 -2.49513626  1072127548
-2.49513626 0.90462136 -24.89539719  1063753029
-24.93431091 0.20623040 -2.49513626  3192334360
-2.49513626 0.90462136 -24.92805862  1063753029
-24.91527367 -0.99570781 -2.49513626  3216158462
-2.49513626 0.90462142 -24.79984856  1063753029
-24.58197784 -4.18196535 -2.49513626  3232469982
-2.49513626 0.90462142 -24.16694450  1063753031
-23.84290504 -7.29917479 -2.49513626  1101635790
-2.50275636 0.91134185 -9.44004345  1063865779
-10.11178112 20.74029922 -2.50275636  1101306328
-2.50275636 0.91134185 -11.09959602  1063865779
-11.42325783 20.04787636 -2.50275636  1100932297
-2.50275636 0.91134185 -13.34766102  1063860727
-13.80357170 18.91557121 -2.53992081  1100432699
-2.56947684 0.90908909 -15.23624516  1063792241
-16.21987724 18.24015045 -2.64753628  1099944235
-2.64753628 0.90646064 -16.79766655  1063783886
-17.08008385 17.43726349 -2.64753628  1099516095
-2.64753628 0.90646064 -17.63163948  1063783885
-17.90061569 16.59383774 -2.64753628  1099067046
-2.64753628 0.90646064 -18.42462730  1063783886
-18.67953491 15.71185780 -2.64753628  1098288606
-2.64753628 0.90646064 -19.17481613  1063783886
-19.41505051 14.79335213 -2.64753628  1096980148
-2.64753628 0.90646064 -20.74910164  1063783886
-20.95302010 12.52032852 -2.64753628  1094184811
-2.64753628 0.90646058 -22.06109619  1063783886
-22.22609901 10.08900547 -2.64753628  1092333632
-2.64753628 0.90646064 -22.53884315  1063783885
-22.68650055 9.00612068 -2.64753628  1090669010
-2.49513626 0.91159946 -21.64231491  1063870101
-21.76480675 7.44742584 -2.49513626  1087885316
-2.49513626 0.91159946 -22.09844017  1063870101
-22.29236984 5.67638254 -2.49513626  1084893248
-2.49513626 0.91159946 -22.46327019  1063870101
-22.61097145 4.23261690 -2.49513626  1078514825
-2.49513626 0.91159946 -22.83617210  1063870101
-22.98494148 0.92938465 -2.49513626  3191323378
-2.49513626 0.91159946 -22.98537254  1063870101
-22.91439247 -2.02527332 -2.49513626  3222874857
-2.49513626 0.91159946 -22.83747292  1063870101
-22.73696327 -3.49309015 -2.49513626  3232354784
-2.49513626 0.91159946 -22.29503632  1063870101
-22.10144043 -6.37944269 -2.49513626  1100905111
-2.50275636 0.91738057 -9.07313919  1063967092
-9.38364506 19.24681664 -2.50275636  1100529550
-2.50275636 0.91738057 -11.18565845  1063932135
-11.59648991 18.91188431 -2.59295964  1100428047
-2.64480424 0.91290164 -12.75743866  1063890506
-13.35233116 18.29722404 -2.64753628  1099998315
-2.64753628 0.91281569 -15.58808804  1063890506
-16.10817719 15.92481518 -2.64753628  1098277390
-2.64753628 0.91281569 -17.33444977  1063890506
-17.56652641 14.30001068 -2.64753628  1096525391
-2.64753628 0.91281569 -18.23528671  1063890506
-18.44885254 13.14202881 -2.64753628  1095282045
-2.64753628 0.91281569 -19.44421959  1063890506
-19.80755615 10.98789310 -2.64753628  1092978647
-2.64753628 0.91281569 -20.31409836  1063890506
-20.47252846 9.69277096 -2.64753628  1091947737
-2.64753628 0.91281569 -20.77341461  1063890506
-19.96502113 7.55665398 -2.49513626  1088914365
-2.49513626 0.91762149 -20.19755173  1063971134
-20.68714714 5.26764011 -2.49513626  1084090250
-2.49513626 0.91762149 -20.91695213  1063971134
-21.23036003 2.23090720 -2.49513626  1072814368
-2.49513626 0.91762149 -21.29111099  1063971132
-21.31320763 1.20513654 -2.49513626  1063045682
-2.49513626 0.91762149 -21.34095573  1063971132
-21.34660339 -0.16650397 -2.49513626  3210361149
-2.49513626 0.91762149 -21.31377411  1063971134
-21.29181862 -1.53746188 -2.49513626  3220214110
-2.49513626 0.91762143 -21.19297791  1063971134
-21.09972763 -3.24156070 -2.49513626  3227853413
-2.49513626 0.91762143 -20.98463821  1063971133
-20.91898346 -4.25468159 -2.49513626  3231553377
-2.49513626 0.91762143 -20.60243797  1063971134
-20.41216278 -6.24890900 -2.49513626  1100440568
-2.58065939 0.92033559 -8.48279190  1064007893
-8.84857082 18.91508102 -2.61691189  1100396028
-2.64753628 0.91835767 -9.86398125  1063983485
-10.75292778 18.18565941 -2.64753628  1099961735
-2.64753628 0.91835767 -11.33179569  1063983485
-11.61686611 17.64630508 -2.64753628  1099671712
-2.64753628 0.91835767 -12.17795372  1063983485
-13.52440071 16.23065567 -2.64753628  1098913532
-2.64753628 0.91835767 -14.78356075  1063983485
-15.02420235 14.85318184 -2.64753628  1097190805
-2.64753628 0.91835767 -15.94732285  1063983485
-16.16795158 13.59930038 -2.64753628  1095271801
-2.64753628 0.91835767 -17.20736694  1063983485
-17.59239960 11.69833946 -2.64753628  1093797879
-2.64753628 0.91835767 -18.13574982  1063983485
-18.30755806 10.54405022 -2.64753628  1092876742
-2.64753628 0.91835767 -18.63695335  1063983485
-18.79444695 9.64947033 -2.64753628  1091610084
-2.64753628 0.91835767 -18.13028145  1064059206
-18.26019096 7.93739557 -2.49513626  1089148501
-2.49513626 0.92287099 -18.62151527  1064059206
-18.83839035 6.44607162 -2.49513626  1086623586
-2.49513626 0.92287099 -19.03581429  1064059206
-19.12716293 5.53068590 -2.49513626  1084694407
-2.49513626 0.92287099 -19.29502106  1064059206
-19.37148285 4.60245228 -2.49513626  1082739757
-2.49513626 0.92287099 -19.50938225  1064059206
-19.57078171 3.66351247 -2.49513626  1078073230
-2.49513626 0.92287099 -19.72460175  1064059206
-19.76570129 2.39872909 -2.49513626  1074080640
-2.49513626 0.92287105 -19.87896729  1064059206
-19.89446449 0.80442137 -2.49513626  1056448257
-2.49513626 0.92287099 -19.91003609  1064059206
-19.90505409 -0.47524741 -2.49513626  3209398754
-2.49513626 0.92287099 -19.83340454  1064059206
-19.80267715 -2.07145691 -2.49513626  3224189913
-2.49513626 0.92287099 -19.62870407  1064059206
-19.57250595 -3.65429473 -2.49513626  3229481392
-2.49513626 0.92287099 -19.29733086  1064059206
-19.12976456 -5.52168512 -2.49513626  1099918219
-2.64753628 0.92323273 -8.67359447  1064065275
-8.95836830 17.64872551 -2.64753628  1099695380
-2.64753628 0.92323279 -9.79853153  1064065276
-10.07362270 17.03678894 -2.64753628  1099276882
-2.64753628 0.92323279 -10.88298702  1064065275
-11.14725113 16.35449028 -2.64753628  1098493051
-2.64753628 0.92323285 -12.42401505  1064065275
-12.67000580 15.20529461 -2.64753628  1096721213
-2.64753628 0.92323273 -14.51495457  1064065276
-14.72930527 13.22034073 -2.64753628  1095232501
-2.64753628 0.92323279 -15.54813766  1064065278
-15.74296856 11.99539757 -2.64753628  1094441610
-2.64753628 0.92323273 -16.12031364  1064065275
-16.65501022 10.69304752 -2.64753628  1091904894
-2.64753628 0.92323273 -17.60713768  1064065275
-16.85883522 7.98185587 -2.49513626  1088757606
-2.49513626 0.92748737 -17.54894257  1064136658
-17.64828873 6.03884745 -2.49513626  1084607778
-2.49513626 0.92748743 -18.07607841  1064136656
-18.14771271 4.31170177 -2.49513626  1080982352
-2.49513626 0.92748731 -18.33442497  1064136655
-18.38717461 3.13698196 -2.49513626  1076025506
-2.49513626 0.92748737 -18.51701164  1064136657
-18.63801384 -0.74484497 -2.49513626  3218224206
-2.49513626 0.92748737 -18.51808548  1064136655
-18.43658447 -2.83242130 -2.49513626  3225958066
-2.49513626 0.92748737 -18.21653748  1064136656
-18.14974403 -4.30315018 -2.49513626  3230860330
-2.49513626 0.92748749 -18.00206947  1064136656
-17.92123222 -5.17284966 -2.49513626  1099547556
-2.64753628 0.92755431 -7.34130764  1064137779
-7.88719511 16.86000252 -2.64753628  1099290944
-2.64753628 0.92755431 -8.42493248  1064137779
-8.69058228 16.46029472 -2.64753628  1099074640
-2.64753628 0.92755431 -9.47378063  1064137779
-9.73003483 15.86801434 -2.64753628  1097896619
-2.64753628 0.92755431 -11.68421078  1064137779
-12.14382935 14.10655975 -2.64753628  1096715685
-2.64753628 0.92755431 -12.59089375  1064137779
-12.80956554 13.50490570 -2.64753628  1096073675
-2.64753628 0.92755431 -13.23695374  1064137779
-13.44553757 12.87186813 -2.64753628  1095399253
-2.64753628 0.92755431 -13.85224533  1064137779
-14.24463940 11.98155117 -2.64753628  1094452336
-2.64753628 0.92755431 -14.80553722  1064137779
-14.98491287 11.04173183 -2.64753628  1093197607
-2.64753628 0.92755431 -15.49964428  1064137779
-15.97835445 9.54775810 -2.64753628  1091598382
-2.64753628 0.92755431 -15.60552979  1064205291
-15.85495472 7.50656796 -2.49513626  1088947868
-2.49513626 0.93157834 -16.30442238  1064205291
-16.40633392 6.20970917 -2.49513626  1086209918
-2.49513626 0.93157834 -16.59741592  1064205291
-16.68653488 5.41180897 -2.49513626  1083960762
-2.49513626 0.93157834 -16.99972343  1064205291
-17.06708908 4.05495453 -2.49513626  1081208343
-2.49513626 0.93157834 -17.18858337  1064205291
-17.29232788 2.95019698 -2.49513626  1074217379
-2.49513626 0.93157834 -17.47333527  1064205291
-17.51420784 0.99032593 -2.49513626  1041535255
-2.49513626 0.93157834 -17.53718567  1064205291
-17.52819061 -0.70049238 -2.49513626  3215046548
-2.49513626 0.93157834 -17.47406197  1064205291
-17.44698906 -1.82504058 -2.49513626  3229712468
-2.49513626 0.93157834 -16.93012810  1064205291
-16.77376747 -5.13506460 -2.49513626  1098686109
-2.64753628 0.93141103 -7.95041752  1064202484
-8.44965839 15.39939308 -2.64753628  1098133392
-2.64753628 0.93141103 -8.94018555  1064202483
-9.18200588 14.97427368 -2.64753628  1097675340
-2.64753628 0.93141103 -10.35432720  1064202484
-10.58101177 14.02070999 -2.64753628  1096652016
-2.64753628 0.93141103 -11.24443913  1064202483
-11.67229843 13.12614250 -2.64753628  1095695723
-2.64753628 0.93141097 -12.08809090  1064202484
-12.29132938 12.54836369 -2.64753628  1095079518
-2.64753628 0.93141103 -12.68823814  1064202483
-12.88180351 11.94140816 -2.64753628  1094433221
-2.64753628 0.93141103 -13.25889874  1064202484
-13.44233894 11.30671024 -2.64753628  1093056409
-2.64753628 0.93141103 -14.30652714  1064202483
-14.46845627 9.96001434 -2.64753628  1092081325
-2.64753628 0.93141097 -14.34506321  1064266528
-14.72657585 7.56093693 -2.49513626  1086031036
-2.49513626 0.93522835 -15.57444191  1064266528
-15.66259003 5.35938549 -2.49513626  1084451974
-2.49513626 0.93522835 -15.82673168  1064266528
-15.97451973 4.34216833 -2.49513626  1082308471
-2.49513626 0.93522835 -16.10581207  1064266528
-16.22046280 3.30701375 -2.49513626  1077030283
-2.49513626 0.93522835 -16.39939880  1064266529
-16.46349907 1.73000038 -2.49513626  1067031086
-2.49513626 0.93522835 -16.55357933  1064266528
-16.54942703 -0.39512950 -2.49513626  3211608174
-2.49513626 0.93522835 -16.51115608  1064266528
-16.48986244 -1.45744562 -2.49513626  3222276002
-2.49513626 0.93522835 -16.36218071  1064266528
-16.27294540 -3.03824854 -2.49513626  3228854818
-2.49513626 0.93522835 -16.04415703  1064266529
-15.97656441 -4.33464146 -2.49513626  3230853143
-2.49513626 0.93522841 -15.82900810  1064266529
-6.31116867 15.38206100 -2.64753628  1098151261
-2.64753628 0.93487388 -7.76277590  1064260581
-7.99805212 14.57634449 -2.64753628  1097137423
-2.64753628 0.93487388 -8.91791725  1064260581
-9.14226341 13.88732147 -2.64753628  1095875883
-2.64753628 0.93487388 -10.43680477  1064260581
-10.84734917 12.60054302 -2.64753628  1094970702
-2.64753628 0.93487388 -11.44201851  1064260580
-11.63439655 11.87769032 -2.64753628  1093982675
-2.64753628 0.93487382 -12.37337971  1064260581
-13.22489834 10.07674885 -2.64753628  1092472450
-2.64753628 0.93487388 -13.54188919  1064260580
-13.99106216 8.98270512 -2.64753628  1090783954
-2.49513626 0.93850493 -13.45093918  1064321500
-13.57836437 7.82032204 -2.49513626  1089682492
-2.49513626 0.93850493 -13.82267284  1064321500
-13.93948364 7.15682793 -2.49513626  1086841858
-2.49513626 0.93850493 -14.56376171  1064321500
-14.65478706 5.54675579 -2.49513626  1084878822
-2.49513626 0.93850493 -14.98084450  1064321500
-15.05273438 4.35255241 -2.49513626  1080545186
-2.49513626 0.93850493 -15.30124378  1064321500
-15.35353088 3.13026214 -2.49513626  1077445903
-2.49513626 0.93850493 -15.48655224  1064321500
-15.55525112 1.88775659 -2.49513626  1070701266
-2.49513626 0.93850493 -15.62815475  1064321500
-15.64438915 0.88459837 -2.49513626  1052984403
-2.49513626 0.93850493 -15.66890335  1064321500
-15.65688419 -0.62570781 -2.49513626  3216020759
-2.49513626 0.93850493 -15.58435059  1064321500
-15.52391338 -2.13018560 -2.49513626  3222816701
-2.49513626 0.93850493 -15.40320969  1064321500
-15.35500431 -3.12303185 -2.49513626  3226969076
-2.49513626 0.93850493 -15.24671268  1064321500
-15.12266731 -4.10296869 -2.49513626  3230844783
-2.49513626 0.93850493 -5.99016237  1064313029
-6.45624495 14.39964294 -2.64753628  1097118808
-2.64753628 0.93800002 -6.91566086  1064313029
-7.14272451 14.07175541 -2.64753628  1096763470
-2.64753628 0.93800002 -7.81260586  1064313029
-8.46432400 13.31870556 -2.64753628  1095951680
-2.64753628 0.93800002 -8.88796616  1064313029
-9.09637165 12.89530754 -2.64753628  1095338638
-2.64753628 0.93800002 -9.90595627  1064313029
-10.48649311 11.79263973 -2.64753628  1094317605
-2.64753628 0.93800002 -10.86004639  1064313029
-12.23839951 9.96265221 -2.64753628  1092369452
-2.64753628 0.93800002 -12.55223942  1064313029
-12.70431519 9.36125851 -2.64753628  1091731089
-2.64753628 0.93800002 -12.64253902  1064371117
-13.00534534 7.21448708 -2.49513626  1088431421
-2.49513626 0.94146234 -13.23047924  1064371117
-13.33793545 6.57931423 -2.49513626  1087088354
-2.49513626 0.94146234 -13.54248047  1064371117
-13.73302555 5.70890284 -2.49513626  1085249901
-2.49513626 0.94146234 -13.90940285  1064371117
-13.99221325 5.04042482 -2.49513626  1083839432
-2.49513626 0.94146234 -14.14696217  1064371117
-14.35164738 3.90104151 -2.49513626  1079772478
-2.49513626 0.94146234 -14.61846542  1064371117
-14.69885445 2.26527834 -2.49513626  1073862487
-2.49513626 0.94146234 -14.81400871  1064371117
-14.83325863 1.07810605 -2.49513626  1052333477
-2.49513626 0.94146234 -14.87187576  1064371117
-14.86052418 -0.59388244 -2.49513626  3210028577
-2.49513626 0.94146234 -14.81463432  1064371117
-14.76490402 -1.78479075 -2.49513626  3226250269
-2.49513626 0.94146234 -14.41420174  1064371117
-14.28903675 -4.12443972 -2.49513626  1096696368
-2.64753628 0.94083619 -5.92195749  1064360613
-6.36230707 13.60033894 -2.64753628  1096169660
-2.64753628 0.94083619 -7.01037502  1064360612
-7.22284126 13.16353893 -2.64753628  1095682876
-2.64753628 0.94083619 -7.84886074  1064360612
-8.25615120 12.54129982 -2.64753628  1094995931
-2.64753628 0.94083619 -8.85097027  1064360612
-9.61184502 11.53519058 -2.64753628  1093377927
-2.64753628 0.94083619 -10.84601879  1064360612
-11.01147842 10.20762062 -2.64753628  1092457313
-2.64753628 0.94083619 -11.39196396  1064416122
-11.52538681 8.21009731 -2.49513626  1090173999
-2.49513626 0.94414485 -11.90766907  1064416122
-12.26228142 7.06233788 -2.49513626  1088137444
-2.49513626 0.94414485 -12.48291397  1064416122
-12.58840179 6.46315336 -2.49513626  1086440642
-2.49513626 0.94414485 -12.88525963  1064416122
-12.97758675 5.64113522 -2.49513626  1085133245
-2.49513626 0.94414485 -13.15217209  1064416122
-13.23437881 5.00913906 -2.49513626  1083349398
-2.49513626 0.94414485 -13.65515804  1064416122
-13.76738644 3.27097893 -2.49513626  1076273816
-2.49513626 0.94414485 -13.94906425  1064416123
-13.98551750 2.15534353 -2.49513626  1073157244
-2.49513626 0.94414485 -14.04755783  1064416122
-14.09507751 1.25246680 -2.49513626  1061978644
-2.49513626 0.94414485 -14.13907433  1064416122
-14.14643669 0.34441516 -2.49513626  1039118414
-2.49513626 0.94414485 -14.15019703  1064416122
-14.14659500 -0.33776012 -2.49513626  3212997506
-2.49513626 0.94414485 -14.09567833  1064416122
-14.07383728 -1.47219276 -2.49513626  3221849408
-2.49513626 0.94414485 -13.91025734  1064416122
-13.81960773 -3.04280543 -2.49513626  3227455449
-2.49513626 0.94414490 -5.43492651  1064403972
-5.64710140 13.15737438 -2.64753628  1095729519
-2.64753628 0.94342065 -7.08844662  1064403972
-8.25321674 11.70002556 -2.64753628  1094114356
-2.64753628 0.94342065 -8.80749226  1064403972
-9.16572475 10.99980354 -2.64753628  1093508623
-2.64753628 0.94342065 -9.85341263  1064403972
-10.01907921 10.22859955 -2.64753628  1092685675
-2.64753628 0.94342065 -10.50039768  1064403972
-10.65546608 9.56384945 -2.64753628  1091978008
-2.64753628 0.94342065 -10.95730782  1064403972
-10.60038090 8.34960747 -2.49513626  1090705879
-2.49513626 0.94658887 -10.86322498  1064457126
-10.99045658 7.82903910 -2.49513626  1089030621
-2.49513626 0.94658887 -11.47068596  1064457126
-11.58341503 6.92159081 -2.49513626  1087469294
-2.49513626 0.94658893 -11.90354061  1064457126
-12.00413322 6.16317511 -2.49513626  1086260706
-2.49513626 0.94658893 -12.28721428  1064457126
-12.37525463 5.37930918 -2.49513626  1083759177
-2.49513626 0.94658887 -12.90090752  1064457126
-13.07657528 3.32973313 -2.49513626  1078435934
-2.49513626 0.94658887 -13.17681980  1064457127
-13.36771965 1.84072149 -2.49513626  1068794071
-2.49513626 0.94658893 -13.48986149  1064457126
-13.49338818 0.11160357 -2.49513626  3198478372
-2.49513626 0.94658887 -13.48308659  1064457126
-13.44145203 -1.18801379 -2.49513626  3216224713
-2.49513626 0.94658887 -13.39632988  1064457126
-13.36857891 -1.83443153 -2.49513626  3222328988
-2.49513626 0.94658887 -13.26463509  1064457126
-13.22312927 -2.68943334 -2.49513626  3225893646
-2.49513626 0.94658887 -13.07813358  1064457127
-13.02304268 -3.53331470 -2.49513626  3228532553
-2.49513626 0.94658887 -5.39588356  1064443646
-5.59722137 12.48372364 -2.64753628  1094922500
-2.64753628 0.94578534 -6.38761139  1064443645
-6.77311277 11.88684750 -2.64753628  1094360027
-2.64753628 0.94578534 -7.33812094  1064443645
-7.52268887 11.42719841 -2.64753628  1093984404
-2.64753628 0.94578534 -8.58793640  1064443645
-8.92575836 10.36836910 -2.64753628  1092850643
-2.64753628 0.94578534 -9.25435257  1064443645
-9.57337761 9.77357388 -2.64753628  1091883064
-2.64753628 0.94578534 -10.18144989  1064443645
-9.86720753 8.29955673 -2.49513626  1090665748
-2.49513626 0.94882482 -10.12881470  1064494639
-10.50153637 7.48076344 -2.49513626  1088350498
-2.49513626 0.94882482 -10.96040726  1064494639
-11.06812191 6.61367846 -2.49513626  1087236917
-2.49513626 0.94882482 -11.37400627  1064494639
-11.47012329 5.88900375 -2.49513626  1084521202
-2.49513626 0.94882482 -11.90580559  1064494639
-11.98380947 4.75734854 -2.49513626  1083313549
-2.49513626 0.94882482 -12.26466560  1064494639
-12.32699585 3.78008723 -2.49513626  1080375120
-2.49513626 0.94882482 -12.44210815  1064494639
-12.49485683 3.18160796 -2.49513626  1077853936
-2.49513626 0.94882482 -12.63367271  1064494639
-12.67342949 2.37238097 -2.49513626  1074448151
-2.49513626 0.94882482 -12.74312687  1064494639
-12.77303886 1.75883448 -2.49513626  1069994989
-2.49513626 0.94882482 -12.82295895  1064494639
-12.84295654 1.14120507 -2.49513626  1064256995
-2.49513626 0.94882482 -12.87300491  1064494639
-12.88974857 0.31381804 -2.49513626  1037722919
-2.49513626 0.94882482 -12.88989449  1064494639
-12.87334728 -0.72183114 -2.49513626  3211639216
-2.49513626 0.94882482 -12.80038548  1064494639
-12.71093941 -2.16242671 -2.49513626  3222762301
-2.49513626 0.94882482 -12.63488293  1064494639
-12.54577255 -2.97449660 -2.49513626  3226997394
-2.49513626 0.94882482 -12.38784122  1064494639
-5.35809517 11.95039272 -2.64753628  1094474305
-2.64753628 0.94795698 -5.92780924  1064480079
-6.11472225 11.58150768 -2.64753628  1094169920
-2.64753628 0.94795698 -6.84607887  1064480079
-7.02461910 11.05331802 -2.64753628  1093600813
-2.64753628 0.94795698 -7.37619972  1064480079
-7.54916143 10.70193005 -2.64753628  1092680619
-2.64753628 0.94795698 -8.70283413  1064480079
-8.85898590 9.64569759 -2.64753628  1091627051
-2.64753628 0.94795698 -9.18544292  1064529084
-9.44564247 7.94498253 -2.49513626  1089096732
-2.49513626 0.95087790 -10.05288982  1064529084
-10.16667557 6.99868679 -2.49513626  1087726383
-2.49513626 0.95087790 -10.88808346  1064529084
-11.23902416 5.10168648 -2.49513626  1083292475
-2.49513626 0.95087790 -11.54354000  1064529084
-11.61226177 4.18309355 -2.49513626  1078932315
-2.49513626 0.95087790 -11.96105099  1064529084
-12.13199711 2.27102494 -2.49513626  1074059611
-2.49513626 0.95087790 -12.22734833  1064529084
-12.25282764 1.48698056 -2.49513626  1067784938
-2.49513626 0.95087790 -12.33907223  1064529084
-12.32336998 -0.69099295 -2.49513626  3215220097
-2.49513626 0.95087790 -12.25352764  1064529084
-12.19959927 -1.87423003 -2.49513626  3221519243
-2.49513626 0.95087790 -12.13306904  1064529084
-12.09509468 -2.46000409 -2.49513626  3223968770
-2.49513626 0.95087790 -12.00979328  1064529084
-11.96248341 -3.04005384 -2.49513626  3227991076
-2.49513626 0.95087790 -5.13786221  1064513653
-5.32135057 11.37515259 -2.64753628  1093872667
-2.64753628 0.94995815 -5.86338472  1064513653
-6.04109383 11.00981808 -2.64753628  1093571768
-2.64753628 0.94995815 -6.39179420  1064513653
-6.73588657 10.59899426 -2.64753628  1093129345
-2.64753628 0.94995815 -7.07301664  1064513653
-7.23886681 10.26205158 -2.64753628  1092512653
-2.64753628 0.94995815 -8.34512043  1064513653
-8.41665459 8.32085800 -2.49513626  1090567359
-2.49513626 0.95276952 -8.93380070  1064560820
-9.05739880 7.61842012 -2.49513626  1087151577
-2.49513626 0.95276952 -10.06089783  1064560820
-10.15977287 6.07090330 -2.49513626  1084001074
-2.49513626 0.95276952 -10.85429192  1064560820
-11.00030994 4.36691809 -2.49513626  1082528011
-2.49513626 0.95276952 -11.31533909  1064560820
-11.55733776 2.55040407 -2.49513626  1074487069
-2.49513626 0.95276952 -11.66682243  1064560821
-11.69731045 1.80270195 -2.49513626  1070507922
-2.49513626 0.95276952 -11.78894711  1064560821
-11.81652832 0.66815525 -2.49513626  1056232029
-2.49513626 0.95276952 -11.83190155  1064560820
-11.83500004 0.09788678 -2.49513626  3183283946
-2.49513626 0.95276952 -11.81684589  1064560820
-11.77118015 -1.23132324 -2.49513626  3217945299
-2.49513626 0.95276952 -11.63436508  1064560820
-11.59795284 -2.35889030 -2.49513626  3225063675
-2.49513626 0.95276952 -11.31696987  1064560820
-4.75683546 11.08311367 -2.64753628  1093670272
-2.64753628 0.95180804 -5.11055279  1064544689
-5.45898724 10.75465298 -2.64753628  1093217719
-2.64753628 0.95180804 -5.97095394  1064544689
-6.13858652 10.38175678 -2.64753628  1092580512
-2.64753628 0.95180804 -6.95210457  1064544689
-7.86865950 9.14042091 -2.64753628  1090226067
-2.49513626 0.95451802 -8.33586693  1064590155
-8.45897293 7.59238386 -2.49513626  1089377066
-2.49513626 0.95451802 -8.92923164  1064590155
-9.36260223 6.44516945 -2.49513626  1086941040
-2.49513626 0.95451802 -9.75729942  1064590155
-10.11168957 5.19155645 -2.49513626  1084287106
-2.49513626 0.95451802 -10.35014153  1064590155
-10.42430401 4.53126574 -2.49513626  1082892029
-2.49513626 0.95451802 -10.69386101  1064590155
-10.81213093 3.50660968 -2.49513626  1079330324
-2.49513626 0.95451802 -10.96855831  1064590155
-11.05871391 2.62743092 -2.49513626  1074125241
-2.49513626 0.95451802 -11.20465660  1064590155
-11.23392773 1.73128974 -2.49513626  1065403965
-2.49513626 0.95451802 -11.35727406  1064590155
-11.36318588 0.27665272 -2.49513626  1036027812
-2.49513626 0.95451802 -11.34872627  1064590155
-11.33703613 -0.81863654 -2.49513626  3212842939
-2.49513626 0.95451802 -11.30487061  1064590155
-11.20555496 -1.90632570 -2.49513626  3221586807
-2.49513626 0.95451802 -11.05994892  1064590155
-10.96996880 -2.97628999 -2.49513626  3226058139
-2.49513626 0.95451802 -4.40305662  1064573462
-4.57494307 10.65931225 -2.64753628  1093147603
-2.64753628 0.95352304 -5.08334112  1064573462
-5.25023746 10.34340668 -2.64753628  1092698361
-2.64753628 0.95352304 -5.90385771  1064573462
-6.37820053 9.68864346 -2.64753628  1092069533
-2.64753628 0.95352304 -6.98741627  1064573462
-7.13530207 9.14541149 -2.64753628  1091598624
-2.64753628 0.95352304 -7.13842678  1064616714
-7.26437235 8.16918945 -2.49513626  1090572929
-2.49513626 0.95613879 -7.89665365  1064617347
-8.01711845 7.43185425 -2.49513626  1088779200
-2.49513626 0.95613879 -8.47798252  1064617347
-8.80073547 6.48488331 -2.49513626  1087043270
-2.49513626 0.95613879 -9.00459290  1064617347
-9.10304451 6.05320978 -2.49513626  1085816266
-2.49513626 0.95613879 -9.47309589  1064617347
-9.64354134 5.14867544 -2.49513626  1083883883
-2.49513626 0.95613879 -9.95436859  1064617347
-10.02569675 4.35800028 -2.49513626  1082542137
-2.49513626 0.95613879 -10.16057014  1064617347
-10.22407627 3.86975741 -2.49513626  1080892921
-2.49513626 0.95613879 -10.34315014  1064617347
-10.45154285 3.20497417 -2.49513626  1078089674
-2.49513626 0.95613879 -10.77620316  1064617347
-10.82972622 1.49124157 -2.49513626  1066548143
-2.49513626 0.95613879 -10.92299080  1064617347
-10.90352535 -0.78733331 -2.49513626  3212207015
-2.49513626 0.95613879 -10.87259293  1064617347
-10.85291004 -1.31190646 -2.49513626  3216914967
-2.49513626 0.95613879 -10.80514717  1064617347
-10.74622059 -2.00637817 -2.49513626  3224842981
-2.49513626 0.95613879 -4.24029589  1064600208
-4.57022619 10.19316864 -2.64753628  1092740350
-2.64753628 0.95511723 -5.05616331  1064600208
-5.53035879 9.70581055 -2.64753628  1092116098
-2.64753628 0.95511723 -6.14242649  1064600208
-6.29158497 9.23058128 -2.64753628  1091702131
-2.64753628 0.95511723 -6.47597027  1064642623
-6.60855007 8.19523525 -2.49513626  1090240564
-2.49513626 0.95764530 -7.12136745  1064642622
-7.24505091 7.63832760 -2.49513626  1089264011
-2.49513626 0.95764530 -7.72076511  1064642622
-7.94678068 6.90532351 -2.49513626  1087953648
-2.49513626 0.95764530 -8.57468033  1064642622
-8.67173195 5.96957922 -2.49513626  1085670046
-2.49513626 0.95764530 -9.12291813  1064642622
-9.20617867 5.10696507 -2.49513626  1084140247
-2.49513626 0.95764530 -9.44161034  1064642622
-9.51523399 4.50501442 -2.49513626  1082216832
-2.49513626 0.95764530 -9.90475750  1064642622
-9.96081829 3.40836883 -2.49513626  1077618858
-2.49513626 0.95764530 -10.20225716  1064642622
-10.24268818 2.43355227 -2.49513626  1071816948
-2.49513626 0.95764530 -10.42940044  1064642622
-10.45113277 1.26833081 -2.49513626  1064209240
-2.49513626 0.95764530 -10.51921654  1064642622
-10.52469444 0.25623879 -2.49513626  1035096752
-2.49513626 0.95764530 -10.52481461  1064642622
-10.51130104 -0.58938712 -2.49513626  3211610123
-2.49513626 0.95764530 -10.47068214  1064642622
-10.45172977 -1.26341128 -2.49513626  3216454128
-2.49513626 0.95764530 -10.40572929  1064642622
-10.37869453 -1.76565731 -2.49513626  3221637675
-2.49513626 0.95764530 -10.24383545  1064642622
-10.20348167 -2.59303451 -2.49513626  3225082538
-2.49513626 0.95764530 -4.24817944  1064625134
-4.40668821 9.82842255 -2.64753628  1092360693
-2.64753628 0.95660293 -5.18137741  1064625134
-5.33246708 9.35850334 -2.64753628  1091758777
-2.64753628 0.95660293 -5.77729559  1064625134
-5.92263222 8.99662209 -2.64753628  1090522562
-2.49513626 0.95904911 -6.37207317  1064666174
-6.62272978 7.69312096 -2.49513626  1089650182
-2.49513626 0.95904911 -6.86654091  1064666174
-7.10325050 7.25179243 -2.49513626  1088708573
-2.49513626 0.95904911 -7.44448996  1064666174
-7.66241789 6.65822697 -2.49513626  1086644018
-2.49513626 0.95904911 -8.17213821  1064666174
-8.26785183 5.88959408 -2.49513626  1085243219
-2.49513626 0.95904911 -8.62911892  1064666174
-8.79646969 5.06624031 -2.49513626  1084068665
-2.49513626 0.95904911 -9.03041649  1064666174
-9.10375881 4.49068642 -2.49513626  1082851449
-2.49513626 0.95904911 -9.24336815  1064666174
-9.37343216 3.89659262 -2.49513626  1081062800
-2.49513626 0.95904911 -9.49381161  1064666174
-9.55033207 3.44032621 -2.49513626  1077835714
-2.49513626 0.95904911 -9.79566097  1064666174
-9.87617016 2.34647083 -2.49513626  1071285481
-2.49513626 0.95904911 -10.03265095  1064666174
-10.07715511 1.22294581 -2.49513626  1058190509
-2.49513626 0.95904911 -10.14280415  1064666174
-10.15074635 0.08395639 -2.49513626  3195542613
-2.49513626 0.95904911 -10.14299679  1064666174
-10.12472916 -0.73109722 -2.49513626  3211053676
-2.49513626 0.95904911 -10.09600544  1064666174
-10.07773018 -1.21820211 -2.49513626  3216024518
-2.49513626 0.95904911 -10.00730991  1064666174
-9.97866154 -1.86307061 -2.49513626  3221322753
-2.49513626 0.95904911 -9.87727547  1064666174
-9.83836555 -2.50024724 -2.49513626  3225300219
-2.49513626 0.95904911 -3.94675803  1064648417
-4.25384808 9.48753834 -2.64753628  1092005871
-2.64753628 0.95799071 -4.55654287  1064648417
-4.70614910 9.27150249 -2.64753628  1091771750
-2.64753628 0.95799065 -5.00166845  1064648417
-5.14751863 9.03391743 -2.64753628  1090975004
-2.49513626 0.96036023 -5.12231541  1064688171
-5.38811350 8.18467808 -2.49513626  1090620784
-2.49513626 0.96036029 -5.77630281  1064688172
-6.02769470 7.72577620 -2.49513626  1089738721
-2.49513626 0.96036029 -6.27286482  1064688172
-6.39302921 7.42629671 -2.49513626  1089098425
-2.49513626 0.96036029 -6.62838507  1064688172
-6.96849823 6.88917589 -2.49513626  1087952764
-2.49513626 0.96036023 -7.18629026  1064688171
-7.29241371 6.54533482 -2.49513626  1086715381
-2.49513626 0.96036029 -7.69782400  1064688172
-7.98109055 5.68532276 -2.49513626  1085394291
-2.49513626 0.96036029 -8.41169167  1064688172
-8.49137878 4.89052343 -2.49513626  1083710492
-2.49513626 0.96036029 -8.64416122  1064688171
-8.85653496 4.19315004 -2.49513626  1082235881
-2.49513626 0.96036029 -8.98671246  1064688171
-9.04832840 3.76144457 -2.49513626  1080517935
-2.49513626 0.96036029 -9.16453266  1064688172
-9.32105350 3.02302027 -2.49513626  1077402763
-2.49513626 0.96036023 -9.60149860  1064688171
-9.63171768 1.80299056 -2.49513626  1068177678
-2.49513626 0.96036023 -9.72764397  1064688172
-9.74536037 1.02405274 -2.49513626  3200800659
-2.49513626 0.96036029 -9.78364944  1064688171
-9.77357006 -0.70574033 -2.49513626  3213000129
-2.49513626 0.96036023 -9.72819901  1064688172
-9.70804501 -1.33213484 -2.49513626  3216930254
-2.49513626 0.96036023 -9.60241890  1064688171
-9.56979275 -2.10707974 -2.49513626  3222959941
-2.49513626 0.96036023 -9.45712566  1064688171
-3.96281028 9.23308086 -2.64753628  1091743992
-2.64753628 0.95928973 -4.25747824  1064670211
-4.55513096 8.30161381 -2.49513626  1090677312
-2.49513626 0.96158755 -4.94990206  1064708762
-5.07898903 7.99184799 -2.49513626  1090328619
-2.49513626 0.96158755 -5.45824623  1064708762
-5.58188391 7.64907312 -2.49513626  1089200297
-2.49513626 0.96158755 -6.06173277  1064708762
-6.17785454 7.17634153 -2.49513626  1088149815
-2.49513626 0.96158755 -6.62609482  1064708762
-6.84006596 6.54822636 -2.49513626  1086278716
-2.49513626 0.96158755 -7.53192711  1064708762
-7.79975700 5.36931562 -2.49513626  1084737775
-2.49513626 0.96158755 -7.96827793  1064708762
-8.20557499 4.72591782 -2.49513626  1082811924
-2.49513626 0.96158755 -8.55844593  1064708761
-8.62245750 3.91395831 -2.49513626  1081186247
-2.49513626 0.96158755 -8.80106735  1064708761
-9.00732613 2.92127180 -2.49513626  1076385499
-2.49513626 0.96158755 -9.13764572  1064708762
-9.17638588 2.33661461 -2.49513626  1073911751
-2.49513626 0.96158755 -9.27833462  1064708761
-9.30753136 1.74230540 -2.49513626  1070323489
-2.49513626 0.96158755 -9.40023136  1064708762
-9.41735172 0.98958462 -2.49513626  1057544672
-2.49513626 0.96158755 -9.46146965  1064708762
-9.46640015 0.23047335 -2.49513626  1033921704
-2.49513626 0.96158749 -9.46891785  1064708761
-9.46164894 -0.37812302 -2.49513626  3204953619
-2.49513626 0.96158755 -9.44461441  1064708762
-9.41781425 -0.98514974 -2.49513626  3213980827
-2.49513626 0.96158749 -9.35939407  1064708762
-9.30835152 -1.73792052 -2.49513626  3220279973
-2.49513626 0.96158755 -9.24769306  1064708762
-9.21377563 -2.18450809 -2.49513626  3223236538
-2.49513626 0.96158755 -9.09778976  1064708762
-3.68919873 8.99160099 -2.64753628  1090956350
-2.49513626 0.96273863 -3.88364124  1064727688
-4.01402044 8.23316765 -2.49513626  1090623808
-2.49513626 0.96273869 -4.40614748  1064728075
-4.91290331 7.73050833 -2.49513626  1089258535
-2.49513626 0.96273869 -5.63433886  1064728075
-5.74966097 7.13013220 -2.49513626  1087889299
-2.49513626 0.96273869 -6.30343723  1064728075
-6.51374912 6.43960190 -2.49513626  1087025386
-2.49513626 0.96273869 -6.71732712  1064728075
-7.10346889 5.78257132 -2.49513626  1085136715
-2.49513626 0.96273869 -7.46026039  1064728075
-7.54470205 5.19373417 -2.49513626  1083328698
-2.49513626 0.96273869 -8.00968838  1064728074
-8.08006287 4.31393766 -2.49513626  1082515325
-2.49513626 0.96273869 -8.21452045  1064728075
-8.34049320 3.78596783 -2.49513626  1079528322
-2.49513626 0.96273863 -8.61747360  1064728075
-8.66624832 2.96539521 -2.49513626  1077205244
-2.49513626 0.96273869 -8.87630939  1064728075
-8.97492504 1.82979798 -2.49513626  1071102190
-2.49513626 0.96273863 -9.10939693  1064728075
-9.12360382 0.81070900 -2.49513626  1052604544
-2.49513626 0.96273869 -9.15684414  1064728074
-9.15923882 0.07575636 -2.49513626  3180482680
-2.49513626 0.96273863 -9.15694237  1064728075
-9.15224743 -0.36575815 -2.49513626  3209589089
-2.49513626 0.96273869 -9.10984707  1064728075
-9.02981567 -1.53618157 -2.49513626  3218550256
-2.49513626 0.96273869 -8.97578812  1064728074
-8.94528770 -1.96957612 -2.49513626  3222299331
-2.49513626 0.96273869 -8.75832939  1064728075
-3.49767542 8.14935684 -2.49513626  1090615610
-2.49513626 0.96382046 -3.75775957  1064746223
-4.14052248 7.84230709 -2.49513626  1090046671
-2.49513626 0.96382046 -4.39040899  1064746224
-4.75665569 7.48464632 -2.49513626  1089109591
-2.49513626 0.96382046 -5.11184263  1064746223
-5.22763252 7.16362906 -2.49513626  1088404969
-2.49513626 0.96382046 -5.89304018  1064746224
-6.10296631 6.43425179 -2.49513626  1087028009
-2.49513626 0.96382040 -6.30658674  1064746223
-6.50368834 6.02890778 -2.49513626  1086164545
-2.49513626 0.96382046 -6.78669071  1064746223
-6.87755060 5.59866142 -2.49513626  1085249765
-2.49513626 0.96382046 -7.22299767  1064746223
-7.61269760 4.54891634 -2.49513626  1081270007
-2.49513626 0.96382040 -8.07523632  1064746223
-8.39062691 2.87108612 -2.49513626  1076828303
-2.49513626 0.96382040 -8.47855854  1064746223
-8.51924801 2.46337318 -2.49513626  1075109794
-2.49513626 0.96382046 -8.59401321  1064746223
-8.62806511 2.04993486 -2.49513626  1072995352
-2.49513626 0.96382040 -8.68948650  1064746223
-8.74193096 1.49143517 -2.49513626  1065926955
-2.49513626 0.96382046 -8.81968403  1064746223
-8.84491634 0.64286363 -2.49513626  1056975486
-2.49513626 0.96382040 -8.86797810  1064746223
-8.86572170 -0.21167545 -2.49513626  3204330087
-2.49513626 0.96382040 -8.84521675  1064746223
-8.83380699 -0.78077018 -2.49513626  3215744640
-2.49513626 0.96382040 -8.71760559  1064746223
-8.69032288 -1.76751220 -2.49513626  3220444795
-2.49513626 0.96382040 -8.59503746  1064746223
-8.55882931 -2.32211781 -2.49513626  1089941273
-2.49513626 0.96483886 -3.88967180  1064763310
-4.25446653 7.46661043 -2.49513626  1089105629
-2.49513626 0.96483886 -4.72532749  1064763310
-4.84006739 7.10102177 -2.49513626  1088468706
-2.49513626 0.96483886 -5.06576443  1064763310
-5.28623199 6.77543306 -2.49513626  1087400142
-2.49513626 0.96483886 -5.91399288  1064763310
-6.01342583 6.13917828 -2.49513626  1086412285
-2.49513626 0.96483886 -6.30230951  1064763310
-6.39538050 5.74019623 -2.49513626  1085562802
-2.49513626 0.96483886 -6.75092030  1064763310
-6.91831589 5.09780884 -2.49513626  1084198179
-2.49513626 0.96483886 -7.07856798  1064763310
-7.30518150 4.52604389 -2.49513626  1082229852
-2.49513626 0.96483886 -7.76709843  1064763310
-8.17447948 2.65116334 -2.49513626  1075920569
-2.49513626 0.96483886 -8.36090660  1064763310
-8.42042732 1.71674752 -2.49513626  1070228731
-2.49513626 0.96483886 -8.47124577  1064763310
-8.49337959 1.30893600 -2.49513626  1065649443
-2.49513626 0.96483886 -8.55991936  1064763310
-8.57104015 0.62295765 -2.49513626  3179890251
-2.49513626 0.96483886 -8.59120178  1064763310
-8.56027889 -0.75659454 -2.49513626  3213099412
-2.49513626 0.96483886 -8.49399471  1064763310
-8.44767284 -1.57722664 -2.49513626  3218816117
-2.49513626 0.96483886 -8.39262009  1064763310
-8.29381371 -2.25021553 -2.49513626  3222832767
-2.49513626 0.96483886 -3.16359854  1064779423
-3.40975118 7.60491800 -2.49513626  1089198182
-2.49513626 0.96579927 -4.00918245  1064779423
-4.35666513 7.10497189 -2.49513626  1088340723
-2.49513626 0.96579927 -4.80408764  1064779423
-5.02046299 6.65252876 -2.49513626  1087522186
-2.49513626 0.96579927 -5.23165560  1064779423
-5.33524466 6.40283632 -2.49513626  1086988006
-2.49513626 0.96579927 -5.63762665  1064779423
-5.73553991 6.04688025 -2.49513626  1086228121
-2.49513626 0.96579927 -5.92690229  1064779423
-6.11213970 5.66594362 -2.49513626  1085206107
-2.49513626 0.96579927 -6.46349335  1064779423
-6.54721403 5.15704823 -2.49513626  1084334895
-2.49513626 0.96579927 -6.70955896  1064779423
-6.86497307 4.72581387 -2.49513626  1083419932
-2.49513626 0.96579927 -7.01329613  1064779423
-7.15437746 4.27504921 -2.49513626  1082464984
-2.49513626 0.96579927 -7.28806734  1064779423
-7.47444439 3.68698144 -2.49513626  1080311742
-2.49513626 0.96579927 -7.58906984  1064779423
-7.84109545 2.82460451 -2.49513626  1076670422
-2.49513626 0.96579927 -8.04251862  1064779423
-8.07661533 2.05657625 -2.49513626  1073125428
-2.49513626 0.96579927 -8.16634083  1064779423
-8.25643158 1.13690209 -2.49513626  1063188696
-2.49513626 0.96579927 -8.31241322  1064779422
-8.32104683 0.47050428 -2.49513626  1045411872
-2.49513626 0.96579921 -8.33196163  1064779423
-8.32769012 -0.33280575 -2.49513626  3203327143
-2.49513626 0.96579921 -8.30197239  1064779423
-8.27410507 -1.00017893 -2.49513626  3213952698
-2.49513626 0.96579927 -8.21628857  1064779422
-8.16712856 -1.66110039 -2.49513626  3220577031
-2.49513626 0.96579927 -8.07757950  1064779423
-8.04354763 -2.18231559 -2.49513626  3223069635
-2.49513626 0.96579927 -3.07048416  1064794642
-3.19035506 7.43331337 -2.49513626  1089107549
-2.49513626 0.96670640 -3.77671623  1064794642
-3.89118218 7.09162807 -2.49513626  1088480985
-2.49513626 0.96670640 -4.22843695  1064794642
-4.33871174 6.82701015 -2.49513626  1087911040
-2.49513626 0.96670640 -4.66269112  1064794642
-5.07767296 6.29680490 -2.49513626  1086418617
-2.49513626 0.96670640 -5.66032171  1064794642
-5.84310532 5.59380341 -2.49513626  1085073029
-2.49513626 0.96670640 -6.19037819  1064794642
-6.27325630 5.10673618 -2.49513626  1084023115
-2.49513626 0.96670640 -6.58834887  1064794642
-6.73577023 4.47905397 -2.49513626  1082906865
-2.49513626 0.96670640 -6.94380617  1064794642
-7.00958681 4.03710270 -2.49513626  1081332454
-2.49513626 0.96670640 -7.19600868  1064794642
-7.25445366 3.57846355 -2.49513626  1079871471
-2.49513626 0.96670640 -7.41848326  1064794642
-7.46934748 3.10505462 -2.49513626  1077871608
-2.49513626 0.96670640 -7.61031246  1064794642
-7.65338612 2.61881518 -2.49513626  1075820052
-2.49513626 0.96670640 -7.73359108  1064794642
-7.83889771 1.99604607 -2.49513626  1072649779
-2.49513626 0.96670640 -7.89899349  1064794642
-7.92598438 1.61594152 -2.49513626  1067300011
-2.49513626 0.96670640 -8.01342106  1064794642
-8.03011990 0.97452044 -2.49513626  1060587783
-2.49513626 0.96670640 -8.06775570  1064794642
-8.08243179 0.32680845 -2.49513626  3179361988
-2.49513626 0.96670640 -8.08673191  1064794642
-8.06802940 -0.58258486 -2.49513626  3208007842
-2.49513626 0.96670640 -8.01393986  1064794642
-7.99523354 -1.22831416 -2.49513626  3216902110
-2.49513626 0.96670640 -7.89981508  1064794642
-7.80680656 -2.11808443 -2.49513626  3222768458
-2.49513626 0.96670640 -3.09868336  1064809039
-3.21430111 7.16899681 -2.49513626  1088666031
-2.49513626 0.96756452 -3.66819882  1064809039
-3.77937198 6.88785744 -2.49513626  1087924531
-2.49513626 0.96756452 -4.10693693  1064809039
-5.12577200 5.95421934 -2.49513626  1085696148
-2.49513626 0.96756452 -5.49767828  1064809039
-5.58716917 5.52356863 -2.49513626  1085135800
-2.49513626 0.96756446 -5.76178598  1064809039
