# .PCD v0.7 - Point Cloud Data file format
VERSION 0.7
FIELDS x y z intensity
SIZE 4 4 4 4
TYPE F F F F
COUNT 1 1 1 1
WIDTH 1004
HEIGHT 1
VIEWPOINT 0 0 0 1 0 0 0
POINTS 1004
DATA ascii
-2.49513626 0.86051911 -8.93024158  1063013115
-9.51394653 36.24399567 -2.49513626  1108323735
-2.49513626 0.86051911 -11.24970150  1063013115
-12.95929337 35.15962601 -2.49513626  1108068747
-2.49513626 0.86051911 -14.63879108  1063013115
-15.19124889 34.25447083 -2.49513626  1107754630
-2.49513626 0.86051911 -16.82454109  1063013115
-17.89188576 32.92447662 -2.49513507  1107520588
-2.51219177 0.85963595 -19.95573235  1062957738
-21.42163086 32.82961273 -2.61023092  1107511851
-2.63765979 0.85316688 -22.76105499  1062883824
-23.30740738 32.21292496 -2.64753628  1107006453
-2.64753628 0.85265976 -26.77644539  1062881257
-28.16193581 28.06800079 -2.64753628  1104995580
-2.64753628 0.85265976 -29.04940605  1062881256
-29.90688705 26.20206451 -2.64753628  1103744732
-2.64753628 0.85265994 -31.13492393  1062881256
-31.91357803 23.71563339 -2.64753628  1102017212
-2.50275636 0.86012441 -31.54628372  1063006493
-31.87059593 19.92477417 -2.50275636  1100695465
-2.50275636 0.86012441 -34.99869919  1062881256
-36.13851547 16.58056831 -2.64753628  1098289598
-2.64753628 0.85265976 -36.89564133  1062881257
-37.12903976 14.22469234 -2.64753628  1096418505
-2.64753628 0.85265976 -38.79166031  1062881257
-39.05200195 7.47319508 -2.64753628  1088096019
-2.64753628 0.85265976 -39.36680222  1062881257
-39.45143127 4.94896078 -2.64753628  1082789597
-2.64753628 0.85265976 -39.59009552  1062881257
-39.64410019 3.04181147 -2.64753628  1075437618
-2.64753628 0.85265976 -7.51108313  1063230122
-8.63006783 32.87681580 -2.54724383  1107523170
-2.58204269 0.87091893 -10.92615223  1063177319
-11.51438618 32.85734177 -2.60913110  1107427289
-2.64577150 0.86795306 -14.32248783  1063136462
-14.83965302 32.06118011 -2.64753628  1107201118
-2.64753628 0.86787117 -15.86237907  1063136462
-16.36765862 31.30868530 -2.64753628  1106793781
-2.64753628 0.86787117 -17.36539650  1063136462
-17.85759544 30.48343849 -2.64753628  1106348618
-2.64753628 0.86787117 -19.30602646  1063136462
-19.77902222 29.27326775 -2.64753628  1105349044
-2.64753628 0.86787117 -21.61873245  1063136462
-22.06499290 27.59112549 -2.64753628  1104796949
-2.64753628 0.86787117 -23.36915779  1063136462
-24.20859528 25.73087883 -2.64753628  1103382039
-2.64753628 0.86787117 -25.47076035  1063249736
-25.81463242 21.18875694 -2.50275636  1101187350
-2.50275636 0.87462282 -27.43218422  1063249736
-29.11870766 18.86189842 -2.59994984  1100084282
-2.64753628 0.86787117 -30.82431984  1063136461
-31.36318016 16.26299477 -2.64753628  1097578593
-2.64753628 0.86787111 -32.78328323  1063136462
-32.99066544 12.63922501 -2.64753628  1094265038
-2.64753628 0.86787111 -33.73448563  1063136462
-32.48389435 7.30572414 -2.49513626  1086865826
-2.49513626 0.87497962 -32.96552277  1063255722
-33.09873581 3.61279416 -2.49513626  1076036967
-2.49513626 0.87497956 -33.23436356  1063255723
-7.57424927 30.86634445 -2.64753628  1106635984
-2.64753628 0.88023299 -9.54151917  1063343859
-10.51084900 29.99370575 -2.64753628  1106153785
-2.64753628 0.88023299 -11.46935654  1063343862
-11.94422722 29.45225716 -2.64753628  1105857879
-2.64753628 0.88023299 -13.34981918  1063343859
-13.81163311 28.62410164 -2.64753628  1105408002
-2.64753628 0.88023299 -15.62197971  1063343859
-16.50339890 27.16133308 -2.64753628  1104618505
-2.64753628 0.88023299 -17.36778831  1063343859
-18.21422005 26.04500961 -2.64753628  1104018894
-2.64753628 0.88023299 -19.04182625  1063343859
-19.44830894 25.13689423 -2.64753628  1103532444
-2.64753628 0.88023299 -20.24611092  1063343859
-20.63722038 24.17034149 -2.64753628  1103015736
-2.64753628 0.88023299 -20.23292351  1063447241
-20.58722687 21.88179207 -2.50275636  1101816462
-2.50275636 0.88639504 -21.61791420  1063447241
-21.95042419 20.51403809 -2.50275636  1101087963
-2.50275636 0.88639504 -22.91361237  1063447241
-23.78293800 18.88966751 -2.53005815  1100410155
-2.63483548 0.88077182 -26.10570335  1063343859
-26.39365005 17.70524979 -2.64753628  1099352190
-2.64753628 0.88023299 -27.47653770  1063343859
-28.21446037 14.63026810 -2.64753628  1096512652
-2.64753628 0.88023299 -29.09606552  1063343858
-29.29780960 12.31822681 -2.64753628  1094551654
-2.64753628 0.88023299 -29.67855644  1063343859
-29.85744858 10.89188004 -2.64753628  1093046743
-2.64753628 0.88023299 -30.34769249  1063343859
-28.87194061 7.97304964 -2.49513626  1087524903
-2.49513626 0.88672054 -29.32450294  1063452702
-29.58451271 4.68135500 -2.49513626  1082560917
-2.49513626 0.88672054 -29.86482620  1063452702
-29.89778900 1.81121767 -2.49513626  1105331966
-2.64753628 0.89047557 -9.11148071  1063515701
-11.70757675 26.39920044 -2.64753628  1104047902
-2.64753628 0.89047557 -13.78890610  1063515701
-14.99582577 24.68016052 -2.64753628  1103330526
-2.64753628 0.89047557 -16.16788673  1063515701
-16.55035973 23.66580963 -2.64753628  1102114890
-2.50275636 0.89614218 -16.35618591  1063610771
-17.05017853 21.32036400 -2.50275636  1101099671
-2.50275636 0.89614218 -18.70658684  1063610771
-19.02370834 19.57970619 -2.50275636  1100427141
-2.53741288 0.89478248 -20.87350273  1063559446
-22.61380959 17.96108437 -2.64753628  1099549929
-2.64753628 0.89047557 -23.45317841  1063515701
-24.48722267 15.30884838 -2.64753628  1097349431
-2.64753628 0.89047557 -25.19660187  1063515701
-25.63707924 13.29379940 -2.64753628  1095636151
-2.64753628 0.89047557 -26.79791641  1063515701
-26.96743393 10.33163261 -2.64753628  1092508095
-2.64753628 0.89047551 -27.28553581  1063515701
-27.43403816 9.01990795 -2.64753628  1090607218
-2.49513626 0.89644140 -26.34754181  1063615791
-26.64572716 5.54439449 -2.49513626  1084469705
-2.49513626 0.89644140 -27.00479889  1063615791
-27.09971619 2.51798368 -2.49513626  1074086354
-2.49513626 0.89644140 -5.47639751  1063660392
-6.30546856 25.69583130 -2.64753628  1103936190
-2.64753628 0.89909983 -7.12801361  1063660392
-7.94319582 25.23768234 -2.64753628  1103682215
-2.64753628 0.89909983 -8.75015640  1063660392
-9.15030289 24.82552147 -2.64753628  1103373866
-2.64753628 0.89909983 -10.33617020  1063660391
-10.72624493 24.18640900 -2.64753628  1103012404
-2.64753628 0.89909983 -11.22985458  1063748383
-12.64237785 21.58091545 -2.50275636  1101725674
-2.50275636 0.90434450 -13.32941055  1063748383
-13.66778374 20.94649696 -2.50275636  1101384473
-2.50275636 0.90434450 -14.33391857  1063748383
-14.66145992 20.26344681 -2.50275636  1101018020
-2.50275636 0.90434450 -16.24072647  1063748383
-17.22008514 18.90260124 -2.55869389  1100425026
-2.59588718 0.90096730 -18.34907341  1063668078
-18.73997688 18.67747307 -2.64753628  1100152258
-2.64753628 0.89909983 -19.61836433  1063660392
-19.90110970 17.43498993 -2.64753628  1099491147
-2.64753628 0.89909983 -20.45118332  1063660392
-21.23645782 15.78125286 -2.64753628  1098318265
-2.64753628 0.89909983 -21.73265266  1063660392
-21.97237015 14.73939514 -2.64753628  1097213561
-2.64753628 0.89909983 -22.65721321  1063660392
-22.87384033 13.29738998 -2.64753628  1095686512
-2.64753628 0.89909983 -23.28940773  1063660392
-24.55170822 9.86146355 -2.64753628  1091638238
-2.64753628 0.89909983 -23.55944061  1063753031
-23.68769073 7.78817797 -2.49513626  1089274325
-2.49513626 0.90462154 -23.92574501  1063753029
-24.23641777 5.86159706 -2.49513626  1085216029
-2.49513626 0.90462142 -24.56291962  1063753029
-24.86208916 1.90761983 -2.49513626  1102947534
-2.64753628 0.90646064 -6.57259035  1063865779
-6.92719889 22.00959015 -2.50275636  1101801252
-2.50275636 0.91134185 -9.35427666  1063865779
-10.36000633 20.61742783 -2.50275636  1101239822
-2.50275636 0.91134185 -11.01724911  1063865779
-11.34165287 20.09415245 -2.50275636  1100755334
-2.50275636 0.91134185 -12.60911369  1063865779
-13.68741989 18.91723633 -2.53266096  1100433608
-2.56188416 0.90934521 -14.62560749  1063814992
-15.11161232 18.89628792 -2.62442350  1100383647
-2.64753628 0.90646058 -15.84947014  1063783885
-16.43786430 18.04394913 -2.64753628  1099552911
-2.64753628 0.90646064 -18.09875679  1063783886
-18.35961914 16.08452034 -2.64753628  1098684707
-2.64753628 0.90646064 -19.35501289  1063783886
-19.59151268 14.55884933 -2.64753628  1097064377
-2.64753628 0.90646064 -20.04927635  1063783886
-20.27042389 13.59770012 -2.64753628  1095698217
-2.64753628 0.90646064 -20.90221596  1063783886
-21.10208893 12.26741219 -2.64753628  1094636477
-2.64753628 0.90646058 -21.84658813  1063783886
-22.01872444 10.53390598 -2.64753628  1091669978
-2.64753628 0.90646064 -21.48120117  1063870101
-21.73458672 7.53517199 -2.49513626  1088071216
-2.49513626 0.91159946 -22.07249069  1063870101
-22.17376709 6.12333250 -2.49513626  1083569481
-2.49513626 0.91159946 -22.66030693  1063870101
-22.72101974 3.59530568 -2.49513626  1078899471
-2.49513626 0.91159946 -22.82483101  1063870101
-22.90505981 2.12823963 -2.49513626  1071727344
-2.49513626 0.91159946 -4.43201828  1063967092
-5.76866007 20.62074852 -2.50275636  1101052591
-2.50275636 0.91738057 -8.36499977  1063967092
-8.68069172 19.57392120 -2.50275636  1100706946
-2.50275636 0.91738057 -9.30526733  1063967092
-10.68132782 18.92424583 -2.53993988  1100359154
-2.64753628 0.91281569 -12.98127937  1063890507
-13.27793217 18.35128784 -2.64753628  1100027282
-2.64753628 0.91281569 -13.86083126  1063890506
-14.14694691 17.69002724 -2.64753628  1098347851
-2.64753628 0.91281569 -17.03756905  1063890506
-17.27526474 14.65057468 -2.64753628  1097199548
-2.64753628 0.91281569 -17.96128654  1063890506
-18.60555458 12.91922855 -2.64753628  1095361938
-2.64753628 0.91281569 -19.01112747  1063890506
-19.20658112 12.00750828 -2.64753628  1094067476
-2.64753628 0.91281551 -19.76298141  1063890506
-19.93830299 10.74882030 -2.64753628  1092035001
-2.64753628 0.91281569 -19.80905914  1063971134
-19.93436623 7.63715553 -2.49513626  1087039376
-2.49513626 0.91762149 -20.48307800  1063971134
-21.02856636 3.67483330 -2.49513626  1079347151
-2.49513626 0.91762137 -21.13580704  1063971134
-21.18124199 2.65706992 -2.49513626  1100688176
-2.50275636 0.92264479 -5.68886089  1064055411
-5.99579334 19.05025864 -2.50275636  1100449105
-2.51502109 0.92228085 -6.97971296  1064042290
-7.67653131 18.92892647 -2.55974531  1100438904
-2.59376979 0.91994745 -8.75545788  1064001049
-9.12519169 18.91163063 -2.63139796  1100416340
-2.64753628 0.91835767 -9.78791237  1063983486
-10.08755779 18.56300163 -2.64753628  1099985192
-2.64753628 0.91835767 -11.25923634  1063983485
-12.10773563 17.31318474 -2.64753628  1099387437
-2.64753628 0.91835767 -13.19495010  1063983485
-13.45841599 16.28541374 -2.64753628  1098942783
-2.64753628 0.91835767 -14.22768784  1063983485
-14.72224331 15.15252781 -2.64753628  1097514679
-2.64753628 0.91835767 -15.43542576  1063983485
-15.66526413 14.17543888 -2.64753628  1095908496
-2.64753628 0.91835767 -16.75261116  1063983485
-17.15762901 12.32717705 -2.64753628  1094765607
-2.64753628 0.91835767 -17.54493141  1063983485
-17.91410255 11.19949055 -2.64753628  1093264185
-2.64753628 0.91835767 -18.43306160  1063983485
-18.75530243 9.72533989 -2.64753628  1091690883
-2.64753628 0.91835767 -18.22800064  1064059206
-18.47603798 7.42111349 -2.49513626  1088051733
-2.49513626 0.92287099 -18.91461563  1064059206
-19.10470200 5.60777998 -2.49513626  1084856745
-2.49513626 0.92287099 -19.27505875  1064059206
-19.49320221 4.05610371 -2.49513626  1079729336
-2.49513626 0.92287099 -19.75588799  1064059206
-19.82532501 1.84208465 -2.49513626  1100445778
-2.58876705 0.92487109 -4.32417250  1064088632
-4.64486122 18.92857552 -2.60713577  1100440052
-2.62843037 0.92376512 -5.94194746  1064065276
-6.24458647 18.78125763 -2.64753628  1100255519
-2.64753628 0.92323285 -7.14236498  1064065278
-7.73202133 18.21937943 -2.64753628  1099864762
-2.64753628 0.92323279 -8.88650799  1064065276
-9.16956615 17.53989792 -2.64753628  1099472619
-2.64753628 0.92323279 -10.81572342  1064065276
-11.08071709 16.39964104 -2.64753628  1099022692
-2.64753628 0.92323279 -11.60204220  1064065275
-12.11136341 15.65390587 -2.64753628  1098338544
-2.64753628 0.92323273 -13.09200668  1064065275
-13.32886124 14.63117790 -2.64753628  1097245758
-2.64753628 0.92323273 -13.79217625  1064065276
-14.01855087 13.97178841 -2.64753628  1096300942
-2.64753628 0.92323279 -14.67561817  1064065276
-14.88712597 13.04233360 -2.64753628  1095297575
-2.64753628 0.92323279 -15.49845028  1064065275
-15.69425297 12.05900002 -2.64753628  1094239835
-2.64753628 0.92323273 -16.25724411  1064065275
-16.43655777 11.02588463 -2.64753628  1093413441
-2.64753628 0.92323279 -16.94886017  1064065275
-17.26857948 9.67092705 -2.64753628  1091978804
-2.64753628 0.92323279 -17.57046318  1064065275
-17.07645226 7.50495577 -2.49513626  1088321826
-2.49513626 0.92748731 -17.41833305  1064136656
-17.62376213 6.10998535 -2.49513626  1084154591
-2.49513626 0.92748731 -18.19830322  1064136656
-18.32041740 3.50588894 -2.49513626  1078821176
-2.49513626 0.92748737 -18.50783348  1064136656
-3.85271239 18.21055222 -2.64753628  1100032918
-2.64753628 0.92755431 -5.30207014  1064137779
-5.58813238 17.75500870 -2.64753628  1099779490
-2.64753628 0.92755431 -6.99530792  1064137779
-8.08898354 16.76412392 -2.64753628  1099093656
-2.64753628 0.92755431 -9.40857029  1064137779
-9.66545868 15.90743256 -2.64753628  1098645547
-2.64753628 0.92755431 -10.42090416  1064137779
-10.66742516 15.25364113 -2.64753628  1097943206
-2.64753628 0.92755431 -12.08649254  1064137779
-12.75469780 13.55673885 -2.64753628  1095908537
-2.64753628 0.92755431 -13.80175591  1064137779
-14.38765430 11.80944443 -2.64753628  1093262551
-2.64753628 0.92755431 -15.45782280  1064137779
-15.62246799 10.11958885 -2.64753628  1092209645
-2.64753628 0.92755431 -16.09203911  1064137779
-15.44122791 8.32443619 -2.49513626  1089618424
-2.49513626 0.93157834 -16.17098808  1064205291
-16.27816772 6.53830481 -2.49513626  1086903259
-2.49513626 0.93157834 -16.47988319  1064205291
-16.57436943 5.74617338 -2.49513626  1084669140
-2.49513626 0.93157834 -16.83204651  1064205291
-16.98213768 4.39719009 -2.49513626  1082389860
-2.49513626 0.93157834 -17.11468124  1064205291
-17.17432785 3.57360315 -2.49513626  1078019220
-2.49513626 0.93157834 -17.32660294  1064205291
-17.40576744 2.18345642 -2.49513626  1072931931
-2.49513626 0.93157834 -17.49077415  1064205291
-4.73219967 16.91580391 -2.64753628  1099303477
-2.64753628 0.93141103 -5.80912161  1064202483
-6.33885956 16.38160324 -2.64753628  1098996478
-2.64753628 0.93141097 -7.37815523  1064202484
-7.63338375 15.81991196 -2.64753628  1098170336
-2.64753628 0.93141097 -9.36122322  1064202481
-9.59879780 14.71058178 -2.64753628  1097391854
-2.64753628 0.93141103 -10.52400017  1064202483
-10.97053242 13.71807480 -2.64753628  1096328147
-2.64753628 0.93141097 -11.40574074  1064202483
-11.61895084 13.17338943 -2.64753628  1095340494
-2.64753628 0.93141097 -12.44124031  1064202484
-13.02439404 11.78572273 -2.64753628  1094267584
-2.64753628 0.93141097 -13.39642811  1064202484
-13.57728958 11.14429569 -2.64753628  1093352498
-2.64753628 0.93141097 -14.09862518  1064202483
-14.26517582 10.24904537 -2.64753628  1092391066
-2.64753628 0.93141097 -14.74255466  1064202483
-14.31154728 8.31981659 -2.49513626  1090612095
-2.49513626 0.93522835 -14.57153797  1064266528
-15.04609489 6.90324020 -2.49513626  1087197409
-2.49513626 0.93522835 -15.36132431  1064266528
-15.55167961 5.67318535 -2.49513626  1084585078
-2.49513626 0.93522835 -16.09025764  1064266528
-16.15072060 3.63234758 -2.49513626  1079497758
-2.49513626 0.93522835 -16.30701828  1064266528
-16.35070992 2.58728719 -2.49513626  1073995480
-2.49513626 0.93522835 -16.45640564  1064266528
-3.44139743 16.26638985 -2.64753628  1098760303
-2.64753628 0.93487388 -5.75009584  1064260580
-6.00006819 15.50605774 -2.64753628  1098286505
-2.64753628 0.93487388 -6.49529696  1064260580
-6.74042320 15.19886112 -2.64753628  1097951950
-2.64753628 0.93487388 -7.46510458  1064260581
-7.70291996 14.73443699 -2.64753628  1097313049
-2.64753628 0.93487388 -8.40411091  1064260581
-9.30836487 13.77653980 -2.64753628  1096417450
-2.64753628 0.93487388 -9.74630642  1064260581
-9.96152496 13.31190300 -2.64753628  1095746072
-2.64753628 0.93487388 -10.59153080  1064260581
-11.19693375 12.29094696 -2.64753628  1094634453
-2.64753628 0.93487388 -11.77629471  1064260581
-12.14740372 11.35250473 -2.64753628  1093828152
-2.64753628 0.93487388 -12.50597095  1064260581
-12.85162544 10.54866886 -2.64753628  1092752711
-2.64753628 0.93487382 -13.50274754  1064260580
-13.65691090 9.48301315 -2.64753628  1090615339
-2.49513626 0.93850493 -13.67144966  1064321500
-13.91044998 7.21309853 -2.49513626  1088397989
-2.49513626 0.93850493 -14.13507938  1064321500
-14.54030704 5.84028292 -2.49513626  1085498142
-2.49513626 0.93850493 -14.80488777  1064321500
-14.88546467 4.89412117 -2.49513626  1083502537
-2.49513626 0.93850493 -15.10404396  1064321500
-15.16912174 3.92774415 -2.49513626  1080802750
-2.49513626 0.93850493 -15.39011669  1064321500
-15.43546104 2.69741368 -2.49513626  1075625091
-2.49513626 0.93850493 -15.51417542  1064321500
-15.57686234 1.70024049 -2.49513626  1067020499
-2.49513626 0.93850493 -3.76084948  1064313029
-4.00666523 15.26365280 -2.64753628  1097992257
-2.64753628 0.93800002 -5.45762968  1064313029
-5.93067122 14.62395096 -2.64753628  1097147219
-2.64753628 0.93800002 -7.31112003  1064313030
-7.75679588 13.74281216 -2.64753628  1096408238
-2.64753628 0.93800008 -8.41012096  1064313030
-9.04391956 12.93214798 -2.64753628  1095536614
-2.64753628 0.93800002 -9.45485020  1064313029
-9.65668297 12.48123741 -2.64753628  1095053542
-2.64753628 0.93800002 -10.05281448  1064313029
-10.43856335 11.83508682 -2.64753628  1094182238
-2.64753628 0.93800002 -10.99683285  1064313029
-11.17731667 11.14003468 -2.64753628  1093621750
-2.64753628 0.93800002 -11.70122623  1064313029
-11.86987495 10.39897346 -2.64753628  1092833118
-2.64753628 0.93800002 -12.19795418  1064313029
-12.35727978 9.81480885 -2.64753628  1092212430
-2.64753628 0.93800002 -12.66632557  1064313029
-12.35087490 8.28515148 -2.49513626  1090275675
-2.49513626 0.94146234 -12.73583508  1064371117
-12.85761547 7.47459650 -2.49513626  1088099378
-2.49513626 0.94146234 -13.31124592  1064371117
-13.41612625 6.41836452 -2.49513626  1086748215
-2.49513626 0.94146234 -13.70987892  1064371117
-14.27032566 4.18875217 -2.49513626  1080989446
-2.49513626 0.94146228 -14.60731697  1064371117
-14.80860043 1.37595153 -2.49513626  1066509025
-2.49513626 0.94146228 -3.34351563  1064360612
-4.04512453 14.45977497 -2.64753628  1097070556
-2.64753628 0.94083619 -5.19276953  1064360612
-5.41851711 14.00313854 -2.64753628  1096522871
-2.64753628 0.94083625 -6.30690622  1064360612
-6.52508307 13.52299690 -2.64753628  1096083102
-2.64753628 0.94083619 -7.79676294  1064360612
-8.00197983 12.70496559 -2.64753628  1095176025
-2.64753628 0.94083619 -8.99600601  1064360612
-9.18804264 11.87552071 -2.64753628  1094266761
-2.64753628 0.94083619 -9.93197823  1064360612
-10.28874207 10.93571758 -2.64753628  1093422505
-2.64753628 0.94083619 -10.97001648  1064360612
-11.75758171 9.33849239 -2.64753628  1091723142
-2.64753628 0.94083625 -11.75148678  1064416122
-11.99875259 7.50134325 -2.49513626  1088656466
-2.49513626 0.94414485 -12.45587349  1064416122
-12.76503754 6.10688257 -2.49513626  1084802647
-2.49513626 0.94414485 -13.29370975  1064416122
-13.36991405 4.63522100 -2.49513626  1082069493
-2.49513626 0.94414485 -13.69885731  1064416122
-13.75409126 3.32643938 -2.49513626  1071739573
-2.49513626 0.94414485 -14.06707764  1064416122
-14.08993721 1.30917692 -2.49513626  1096818858
-2.64753628 0.94342065 -3.18833590  1064403972
-3.41224957 13.90549374 -2.64753628  1096451421
-2.64753628 0.94342065 -4.51745129  1064403972
-4.73521280 13.51236439 -2.64753628  1096132281
-2.64753628 0.94342065 -5.38095188  1064403972
-5.59349489 13.18025398 -2.64753628  1095854885
-2.64753628 0.94342065 -6.01418257  1064403972
-6.22222948 12.89535046 -2.64753628  1095435508
-2.64753628 0.94342065 -6.83650684  1064403972
-7.23728848 12.35426235 -2.64753628  1094433847
-2.64753628 0.94342065 -8.39313507  1064403972
-8.76159382 11.32433796 -2.64753628  1093390123
-2.64753628 0.94342065 -9.64235592  1064403972
-10.76964855 9.43508625 -2.64753628  1090751364
-2.49513626 0.94658887 -11.44185162  1064457126
-11.55533504 6.96836948 -2.49513626  1087964224
-2.49513626 0.94658887 -11.87775707  1064457126
-11.97912979 6.21163368 -2.49513626  1086363132
-2.49513626 0.94658893 -12.17257214  1064457126
-12.26458549 5.62706518 -2.49513626  1085127746
-2.49513626 0.94658887 -12.60074806  1064457126
-12.74938488 4.42008734 -2.49513626  1082580526
-2.49513626 0.94658893 -12.88484192  1064457127
-13.00700283 3.59191155 -2.49513626  1079540092
-2.49513626 0.94658887 -13.29240704  1064457126
-13.32802010 2.10898471 -2.49513626  1069247038
-2.49513626 0.94658887 -13.43597603  1064457126
-13.45431328 1.03232193 -2.49513626  1062265621
-2.49513626 0.94658887 -3.04649854  1064443645
-3.26045513 13.28690052 -2.64753628  1096006012
-2.64753628 0.94578534 -3.68577743  1064443645
-3.89703918 13.11431980 -2.64753628  1095743362
-2.64753628 0.94578534 -4.73147583  1064443645
-5.14157391 12.67818928 -2.64753628  1095244343
-2.64753628 0.94578534 -5.94543028  1064443645
-6.33835268 12.12424755 -2.64753628  1094508535
-2.64753628 0.94578534 -7.10414982  1064443645
-7.47621012 11.45766735 -2.64753628  1093886523
-2.64753628 0.94578534 -8.19685078  1064443645
-8.37182999 10.82056904 -2.64753628  1093188640
-2.64753628 0.94578534 -9.04967976  1064443645
-9.99550438 9.34142303 -2.64753628  1091755915
-2.64753628 0.94578534 -10.29054832  1064443645
-9.83351612 8.33945465 -2.49513626  1090708139
-2.49513626 0.94882482 -10.09642982  1064494639
-10.34892941 7.69050026 -2.49513626  1089164142
-2.49513626 0.94882482 -10.70755196  1064494639
-10.93285370 6.83496952 -2.49513626  1087705454
-2.49513626 0.94882482 -11.14686775  1064494639
-11.44623375 5.93530321 -2.49513626  1085801659
-2.49513626 0.94882482 -11.63106823  1064494639
-11.96451378 4.80567598 -2.49513626  1083415528
-2.49513626 0.94882482 -12.18221283  1064494639
-12.24852180 4.02713060 -2.49513626  1080584517
-2.49513626 0.94882482 -12.42837715  1064494639
-12.57934952 2.82913446 -2.49513626  1075517710
-2.49513626 0.94882482 -12.79330063  1064494639
-12.83826637 1.19287658 -2.49513626  1061656637
-2.49513626 0.94882482 -2.71077847  1064480079
-2.91634393 12.76777363 -2.64753628  1095467538
-2.64753628 0.94795698 -4.13208008  1064480079
-4.33126640 12.35965919 -2.64753628  1094856526
-2.64753628 0.94795698 -5.11633015  1064480079
-6.43743372 11.40528679 -2.64753628  1093979716
-2.64753628 0.94795698 -6.80064297  1064480079
-6.97964048 11.08177471 -2.64753628  1093125537
-2.64753628 0.94795698 -8.17959499  1064480079
-8.50408554 9.96000099 -2.64753628  1092429590
-2.64753628 0.94795698 -8.97424030  1064480079
-9.12637234 9.39310741 -2.64753628  1091824743
-2.64753628 0.94795698 -9.42353058  1064480079
-9.41338444 7.98317719 -2.49513626  1089512834
-2.49513626 0.95087790 -9.90680122  1064529084
-10.13827515 7.03976440 -2.49513626  1088161676
-2.49513626 0.95087790 -10.35927868  1064529084
-10.56958103 6.37391901 -2.49513626  1086025040
-2.49513626 0.95087790 -10.95722294  1064529084
-11.13416195 5.32666254 -2.49513626  1084535945
-2.49513626 0.95087790 -11.29959965  1064529084
-11.52581406 4.41571236 -2.49513626  1081522630
-2.49513626 0.95087790 -11.84307194  1064529084
-11.94867802 3.09387255 -2.49513626  1076712514
-2.49513626 0.95087790 -12.15846920  1064529084
-12.19104481 1.92907286 -2.49513626  1069851908
-2.49513626 0.95087790 -12.26985073  1064529084
-12.28979111 1.14191461 -2.49513626  1064417996
-2.49513626 0.95087790 -12.32014179  1064529084
-2.59935760 12.28634262 -2.64753628  1094968126
-2.64753628 0.94995815 -2.99287248  1064513653
-3.18849444 12.14678192 -2.64753628  1094811883
-2.64753628 0.94995815 -3.57721162  1064513653
-3.96223736 11.91685772 -2.64753628  1094557783
-2.64753628 0.94995815 -4.53197575  1064513653
-4.90603352 11.56035042 -2.64753628  1094168101
-2.64753628 0.94995815 -5.27501583  1064513653
-5.63856363 11.22129536 -2.64753628  1093800277
-2.64753628 0.94995815 -5.99627542  1064513653
-6.69275665 10.62628269 -2.64753628  1093158666
-2.64753628 0.94995815 -7.03080320  1064513653
-7.19712639 10.29136658 -2.64753628  1092799034
-2.64753628 0.94995815 -7.52414417  1064513653
-7.68476295 9.93253422 -2.64753628  1092144980
-2.64753628 0.94995815 -8.30698299  1064513653
-8.45727444 9.28360748 -2.64753628  1090604168
-2.49513626 0.95276958 -8.77578640  1064560820
-8.90227127 7.79911375 -2.49513626  1089489313
-2.49513626 0.95276952 -9.38492870  1064560820
-9.49960232 7.05934811 -2.49513626  1088224277
-2.49513626 0.95276952 -9.72156334  1064560820
-9.93348217 6.43450117 -2.49513626  1086559476
-2.49513626 0.95276952 -10.50685120  1064560820
-10.67651463 5.10771704 -2.49513626  1084092273
-2.49513626 0.95276952 -10.91028214  1064560820
-10.98259354 4.41128302 -2.49513626  1082621613
-2.49513626 0.95276952 -11.11868954  1064560820
-11.18243980 3.87684369 -2.49513626  1080857996
-2.49513626 0.95276952 -11.30124378  1064560821
-11.35628986 3.33339596 -2.49513626  1077022560
-2.49513626 0.95276952 -11.54697609  1064560820
-11.58721733 2.41104507 -2.49513626  1074683522
-2.49513626 0.95276958 -11.68995571  1064560820
-11.71817589 1.66167045 -2.49513626  1094309505
-2.64753628 0.95180804 -3.43550396  1064544689
-3.62085986 11.50445271 -2.64753628  1093996723
-2.64753628 0.95180804 -4.35244274  1064544689
-4.53264713 11.17667484 -2.64753628  1093772135
-2.64753628 0.95180804 -5.06605005  1064544689
-5.58768654 10.68834305 -2.64753628  1093242373
-2.64753628 0.95180804 -5.92830420  1064544689
-6.26278687 10.30730724 -2.64753628  1092609363
-2.64753628 0.95180804 -7.06996346  1064544689
-7.53268003 9.41922569 -2.64753628  1090811088
-2.49513626 0.95451802 -7.92078161  1064590155
-8.05078125 8.02392864 -2.49513626  1090295724
-2.49513626 0.95451802 -8.30448055  1064590155
-8.54961395 7.49015808 -2.49513626  1088567424
-2.49513626 0.95451802 -9.12328148  1064590155
-9.23105717 6.63220310 -2.49513626  1087337652
-2.49513626 0.95451802 -9.43943310  1064590155
-9.91725636 5.55396461 -2.49513626  1084714907
-2.49513626 0.95451802 -10.17341805  1064590155
-10.33108234 4.73996305 -2.49513626  1083332766
-2.49513626 0.95451802 -10.73944473  1064590155
-10.79789925 3.55019808 -2.49513626  1078780636
-2.49513626 0.95451802 -10.95645809  1064590155
-11.00366783 2.84918261 -2.49513626  1076560293
-2.49513626 0.95451802 -11.08954048  1064590155
-11.12819767 2.31553340 -2.49513626  1074313908
-2.49513626 0.95451802 -11.25396824  1064590155
-11.29943371 1.23335278 -2.49513626  1063165090
-2.49513626 0.95451802 -11.34575367  1064590155
-2.40092707 11.34842110 -2.64753628  1093988123
-2.64753628 0.95352304 -2.94509125  1064573462
-3.30413485 11.11907959 -2.64753628  1093732440
-2.64753628 0.95352304 -4.35932350  1064573462
-4.70253325 10.60365295 -2.64753628  1093168480
-2.64753628 0.95352304 -5.04087973  1064573462
-5.37402248 10.27963734 -2.64753628  1092817464
-2.64753628 0.95352304 -5.70161343  1064573462
-6.02330637 9.91316795 -2.64753628  1092316792
-2.64753628 0.95352304 -6.49408293  1064573462
-6.79961920 9.39768314 -2.64753628  1091868761
-2.64753628 0.95352304 -7.09812546  1064573462
-7.24464417 9.05904961 -2.64753628  1090966525
-2.49513626 0.95613879 -7.09848356  1064617347
-7.23117065 8.19859314 -2.49513626  1090604302
-2.49513626 0.95613879 -7.49092007  1064617347
-7.61790466 7.84055328 -2.49513626  1089925772
-2.49513626 0.95613879 -8.22269154  1064617347
-8.33740425 7.07067442 -2.49513626  1088287182
-2.49513626 0.95613879 -8.56033707  1064617347
-8.66849518 6.66061687 -2.49513626  1087416203
-2.49513626 0.95613879 -9.07848454  1064617347
-9.17517471 5.94329929 -2.49513626  1085581001
-2.49513626 0.95613879 -9.45096207  1064617347
-9.70477867 5.03229809 -2.49513626  1083966853
-2.49513626 0.95613879 -9.86149406  1064617347
-9.93603897 4.55871582 -2.49513626  1082627531
-2.49513626 0.95613879 -10.14420605  1064617347
-10.26991177 3.74642253 -2.49513626  1080372551
-2.49513626 0.95613879 -10.38500786  1064617347
-10.43853378 3.24710107 -2.49513626  1078267192
-2.49513626 0.95613879 -10.53750229  1064617347
-10.66549492 2.39870024 -2.49513626  1069839625
-2.49513626 0.95613879 -10.86736393  1064617347
-10.89987850 0.83632642 -2.49513626  1059666532
-2.49513626 0.95613879 -2.66221404  1064600208
-2.83622432 10.80478764 -2.64753628  1093245616
-2.64753628 0.95511723 -3.86332774  1064600208
-4.52870178 10.21167564 -2.64753628  1092237358
-2.64753628 0.95511723 -6.10447073  1064600208
-6.25402832 9.25606632 -2.64753628  1091620353
-2.64753628 0.95511723 -6.44225550  1064642622
-6.70652151 8.11525631 -2.49513626  1090063095
-2.49513626 0.95764530 -7.21401596  1064642622
-7.45671320 7.43184137 -2.49513626  1088021968
-2.49513626 0.95764530 -8.13760948  1064642622
-8.34806538 6.41440725 -2.49513626  1086910724
-2.49513626 0.95764530 -8.64751434  1064642622
-8.74289513 5.86486387 -2.49513626  1085745097
-2.49513626 0.95764530 -9.18546200  1064642622
-9.49695873 4.54341221 -2.49513626  1082299069
-2.49513626 0.95764530 -9.76922226  1064642622
-9.94698620 3.44852400 -2.49513626  1079145039
-2.49513626 0.95764530 -10.05267239  1064642622
-10.14797878 2.80238843 -2.49513626  1076421741
-2.49513626 0.95764530 -10.23279667  1064642622
-10.30704689 2.14467216 -2.49513626  1067956921
-2.49513626 0.95764530 -10.46565247  1064642622
-10.48265934 0.97400403 -2.49513626  1062088540
-2.49513626 0.95764530 -10.50854969  1064642622
-2.39850640 10.50066471 -2.64753628  1093099334
-2.64753628 0.95660293 -3.23367095  1064625134
-3.56218743 10.16501904 -2.64753628  1092727824
-2.64753628 0.95660293 -4.04795742  1064625134
-5.29437113 9.38010883 -2.64753628  1091782695
-2.64753628 0.95660293 -5.88603544  1064625134
-5.81759214 8.31869125 -2.49513626  1090754050
-2.49513626 0.95904911 -6.21172762  1064666174
-6.59146118 7.71992779 -2.49513626  1089707442
-2.49513626 0.95904911 -7.07378912  1064666174
-7.18988562 7.16590357 -2.49513626  1088525561
-2.49513626 0.95904911 -7.52689362  1064666174
-7.63538122 6.68921566 -2.49513626  1087510978
-2.49513626 0.95904911 -7.84641886  1064666174
-7.94890499 6.31344414 -2.49513626  1086712455
-2.49513626 0.95904911 -8.24395084  1064666174
-8.33807755 5.78974485 -2.49513626  1084735376
-2.49513626 0.95904911 -8.85677624  1064666174
-9.35762691 3.93440199 -2.49513626  1077999767
-2.49513626 0.95904911 -9.82701111  1064666174
-9.99955273 1.74746442 -2.49513626  1068920014
-2.49513626 0.95904911 -10.07215214  1064666174
-10.09115696 1.10146654 -2.49513626  1064332329
-2.49513626 0.95904911 -10.13251686  1064666174
-2.31531692 10.13646412 -2.64753628  1092718896
-2.64753628 0.95799071 -2.63988543  1064648417
-2.96172428 9.96678448 -2.64753628  1092233806
-2.64753628 0.95799071 -4.06190491  1064648417
-4.36740255 9.43580437 -2.64753628  1091949712
-2.64753628 0.95799071 -4.81710386  1064648417
-4.96456385 9.13573837 -2.64753628  1091537698
-2.64753628 0.95799065 -5.08832550  1064688171
-5.22611570 8.29778576 -2.49702835  1090735572
-2.49513626 0.96036023 -5.74411440  1064688172
-5.87095547 7.84554672 -2.49513626  1089995128
-2.49513626 0.96036029 -6.12005854  1064688172
-6.48178864 7.34895468 -2.49513626  1088708879
-2.49513626 0.96036029 -6.94051552  1064688172
-7.26583481 6.57482767 -2.49513626  1087283570
-2.49513626 0.96036029 -8.04888248  1064688172
-8.22433472 5.32738590 -2.49513626  1084635531
-2.49513626 0.96036029 -8.39129829  1064688172
-8.47153854 4.92481279 -2.49513626  1083201634
-2.49513626 0.96036029 -8.77042389  1064688172
-8.90634727 4.08628607 -2.49513626  1079438405
-2.49513626 0.96036029 -9.25839806  1064688172
-9.30878544 3.06059098 -2.49513626  1077561144
-2.49513626 0.96036029 -9.56021500  1064688171
-9.67859459 1.53151071 -2.49513626  1068505360
-2.49513626 0.96036023 -9.72281551  1064688171
-2.07967710 9.82998371 -2.64753628  1092362508
-2.64753628 0.95928973 -2.55103159  1064670211
-2.70688462 9.67607307 -2.64753628  1092229607
-2.64753628 0.95928973 -3.01645136  1064670211
-3.32290006 9.48219299 -2.64753628  1092015953
-2.64753628 0.95928973 -3.77604032  1064670211
-4.07332373 9.18486023 -2.64753628  1091619214
-2.64753628 0.95928973 -4.51126814  1064670211
-4.38701630 8.39165401 -2.49513626  1090777335
-2.49513626 0.96158755 -4.78636503  1064708762
-4.91704845 8.09249020 -2.49513626  1090532066
-2.49513626 0.96158755 -5.17458534  1064708762
-5.30136156 7.84610224 -2.49513626  1090015495
-2.49513626 0.96158755 -5.55077934  1064708762
-5.67335129 7.58148003 -2.49513626  1089448079
-2.49513626 0.96158755 -5.91407156  1064708762
-6.37694931 7.00001955 -2.49513626  1088205116
-2.49513626 0.96158755 -6.59861326  1064708762
-6.81346703 6.57589626 -2.49513626  1087066144
-2.49513626 0.96158755 -7.22184420  1064708762
-7.41494799 5.88934517 -2.49513626  1085068185
-2.49513626 0.96158755 -7.86376333  1064708762
-8.02923203 5.01968908 -2.49513626  1083722278
-2.49513626 0.96158755 -8.26182842  1064708762
-8.40625954 4.35896444 -2.49513626  1082311945
-2.49513626 0.96158755 -8.60657692  1064708762
-8.66892529 3.80991960 -2.49513626  1080746776
-2.49513626 0.96158755 -8.84247398  1064708762
-8.99547482 2.95757890 -2.49513626  1076539275
-2.49513626 0.96158755 -9.12756348  1064708762
-9.16688919 2.37358475 -2.49513626  1071894469
-2.49513626 0.96158755 -9.35283566  1064708762
-9.39556503 1.17862141 -2.49513626  1092100854
-2.64753628 0.96050835 -2.46761203  1064690656
-2.76844549 9.31637287 -2.64753628  1091748097
-2.64753628 0.96050829 -3.36122704  1064690655
-3.50734615 9.06408310 -2.64753628  1091574481
-2.64753628 0.96050829 -3.57827544  1064728075
-4.11255646 8.18439102 -2.49513626  1090316217
-2.49513626 0.96273869 -4.88144588  1064728075
-5.00537395 7.67095947 -2.49513626  1089483334
-2.49513626 0.96273869 -5.36926556  1064728075
-5.60497713 7.24441957 -2.49513626  1087301912
-2.49513626 0.96273869 -6.59066200  1064728075
-6.98568296 5.92432404 -2.49513626  1085928980
-2.49513626 0.96273869 -7.17247248  1064728075
-7.43869591 5.34445429 -2.49513626  1084442813
-2.49513626 0.96273869 -7.68763065  1064728075
-7.76666689 4.85554075 -2.49513626  1083661549
-2.49513626 0.96273869 -7.91870165  1064728075
-7.99166107 4.47557259 -2.49513626  1082857216
-2.49513626 0.96273869 -8.55332088  1064728075
-8.60487938 3.13902211 -2.49513626  1077352581
-2.49513626 0.96273863 -8.74616528  1064728075
-8.78875923 2.57975221 -2.49513626  1075579639
-2.49513626 0.96273869 -8.96747875  1064728075
-9.02281475 1.57677543 -2.49513626  1067752233
-2.49513626 0.96273869 -9.10547256  1064728074
-9.13270950 0.70073402 -2.49513626  1091749691
-2.64753628 0.96165353 -2.53509116  1064709869
-2.68040061 9.02008057 -2.64753628  1091542276
-2.64753628 0.96165353 -2.79800105  1064746223
-2.93287468 8.36922741 -2.49513626  1090802836
-2.49513626 0.96382046 -3.33282828  1064746224
-3.59522057 8.10679626 -2.49513626  1090569340
-2.49513626 0.96382046 -3.85389829  1064746224
-4.10859537 7.85907936 -2.49513626  1089938100
-2.49513626 0.96382040 -4.60499048  1064746224
-4.72619772 7.50391722 -2.49513626  1089317359
-2.49513626 0.96382046 -4.96491575  1064746223
-5.42671728 7.01401854 -2.49513626  1088266500
-2.49513626 0.96382040 -5.64933109  1064746223
-5.75846195 6.74431992 -2.49513626  1087287212
-2.49513626 0.96382046 -6.17983246  1064746224
-6.28126001 6.26031113 -2.49513626  1086657262
-2.49513626 0.96382046 -6.47920132  1064746224
-6.57567835 5.95030689 -2.49513626  1085997291
-2.49513626 0.96382046 -6.76351404  1064746223
-6.85482168 5.62646532 -2.49513626  1085308838
-2.49513626 0.96382040 -7.03210449  1064746223
-7.28434849 5.05806875 -2.49513626  1083600787
-2.49513626 0.96382040 -7.66685486  1064746224
-7.87276363 4.08232784 -2.49513626  1080864355
-2.49513626 0.96382046 -8.11876011  1064746223
-8.17505646 3.43719149 -2.49513626  1077537291
-2.49513626 0.96382046 -8.42457962  1064746223
-8.54828835 2.36062717 -2.49513626  1074676932
-2.49513626 0.96382040 -8.65212345  1064746224
-8.68227863 1.80659270 -2.49513626  1069770899
-2.49513626 0.96382040 -8.78040409  1064746223
-8.79927826 1.10382068 -2.49513626  1064720181
-2.49513626 0.96382046 -8.83020687  1064746224
-8.84225845 0.67844832 -2.49513626  1090946385
-2.49513626 0.96483886 -1.91362941  1064763310
-2.04802203 8.34603882 -2.49513626  1090846244
-2.49513626 0.96483886 -2.57995868  1064763310
-2.84206080 8.11008263 -2.49513626  1090585478
-2.49513626 0.96483886 -3.10123253  1064763310
-3.22963071 7.96368456 -2.49513626  1090331877
-2.49513626 0.96483886 -3.73456359  1064763310
-3.85847068 7.67873526 -2.49513626  1089576931
-2.49513626 0.96483886 -4.57985592  1064763310
-4.69612551 7.19702387 -2.49513626  1088674859
-2.49513626 0.96483886 -4.92499542  1064763310
-5.25868464 6.79683495 -2.49513626  1087064558
-2.49513626 0.96483886 -6.08677006  1064763310
-6.27858019 5.86772490 -2.49513626  1085834135
-2.49513626 0.96483886 -6.46391201  1064763310
-6.64256954 5.45224905 -2.49513626  1084950675
-2.49513626 0.96483886 -6.81436205  1064763310
-6.97910976 5.01425695 -2.49513626  1084020910
-2.49513626 0.96483886 -7.21266460  1064763310
-7.28681993 4.55555153 -2.49513626  1082294040
-2.49513626 0.96483886 -7.62898970  1064763310
-7.69157887 3.83280134 -2.49513626  1080908620
-2.49513626 0.96483886 -7.81078100  1064763310
-8.02487183 3.07444906 -2.49513626  1077705810
-2.49513626 0.96483886 -8.16371822  1064763310
-8.24576283 2.42036748 -2.49513626  1073826292
-2.49513626 0.96483886 -8.38421917  1064763310
-8.41343975 1.75065315 -2.49513626  1067085745
-2.49513626 0.96483886 -8.54290771  1064763310
-8.57792568 0.51965296 -2.49513626  1090680367
-2.49513626 0.96579927 -1.98622358  1064779423
-2.11605120 8.06123352 -2.49513626  1090546500
-2.49513626 0.96579927 -2.37402439  1064779423
-2.50210977 7.94988203 -2.49513626  1090327453
-2.49513626 0.96579927 -2.75630307  1064779423
-3.13217831 7.72337914 -2.49513626  1089719463
-2.49513626 0.96579927 -3.74204254  1064779423
-3.97943783 7.32292652 -2.49513626  1088963004
-2.49513626 0.96579927 -4.66600370  1064779423
-4.99341249 6.67285681 -2.49513626  1087392046
-2.49513626 0.96579927 -5.41177845  1064779423
-5.71097040 6.07009029 -2.49513626  1086080234
-2.49513626 0.96579927 -5.99688721  1064779423
-6.26886702 5.49203825 -2.49513626  1085046699
-2.49513626 0.96579921 -6.44213343  1064779423
-6.52627850 5.18351793 -2.49513626  1084391083
-2.49513626 0.96579927 -6.68949366  1064779423
-6.76851892 4.86295366 -2.49513626  1083478725
-2.49513626 0.96579927 -6.99502563  1064779423
-7.06693935 4.41808987 -2.49513626  1082767846
-2.49513626 0.96579927 -7.20527935  1064779423
-7.33617353 3.95496154 -2.49513626  1081444884
-2.49513626 0.96579927 -7.57509565  1064779423
-7.68288088 3.23025680 -2.49513626  1078382276
-2.49513626 0.96579927 -7.91738272  1064779423
-7.95819521 2.47554564 -2.49513626  1075198650
-2.49513626 0.96579921 -8.03364563  1064779422
-8.13122940 1.82873785 -2.49513626  1070105175
-2.49513626 0.96579927 -8.20991898  1064779423
-8.23191547 1.30259264 -2.49513626  1066780339
-2.49513626 0.96579927 -1.67429411  1064794642
-1.92776465 7.85596609 -2.49513626  1090149881
-2.49513626 0.96670640 -2.30414939  1064794642
-2.42846513 7.71589661 -2.49513626  1089751202
-2.49513626 0.96670640 -2.79751468  1064794642
-2.91912889 7.54394960 -2.49513626  1089249199
-2.49513626 0.96670640 -3.63190413  1064794642
-4.08873606 6.97959375 -2.49513626  1088239406
-2.49513626 0.96670640 -4.31093025  1064794642
-4.42037439 6.77442169 -2.49513626  1087798003
-2.49513626 0.96670640 -4.63580418  1064794642
-4.84644222 6.47645760 -2.49513626  1087158844
-2.49513626 0.96670640 -5.25249577  1064794642
-5.44748974 5.97974491 -2.49513626  1086097047
-2.49513626 0.96670640 -5.63684511  1064794642
-5.72935915 5.71024990 -2.49513626  1085522451
-2.49513626 0.96670640 -5.99790812  1064794642
-6.25252533 5.13209963 -2.49513626  1084292498
-2.49513626 0.96670640 -6.41422796  1064794642
-6.49260616 4.82478714 -2.49513626  1083640014
-2.49513626 0.96670640 -6.71759605  1064794642
-7.05764246 3.95249319 -2.49513626  1081453287
-2.49513626 0.96670640 -7.23993778  1064794642
-7.29698277 3.49092531 -2.49513626  1078503131
-2.49513626 0.96670640 -7.50617456  1064794642
-7.55365658 2.89392114 -2.49513626  1076980475
-2.49513626 0.96670640 -7.64275742  1064794642
-7.72396421 2.40268540 -2.49513626  1074908876
-2.49513626 0.96670640 -7.79719114  1064794642
-7.83078718 2.02762747 -2.49513626  1070787835
-2.49513626 0.96670640 -7.94487095  1064794642
-7.98962736 1.26425385 -2.49513626  1063301674
-2.49513626 0.96670640 -8.05434322  1064794642
-8.07423401 0.48913929 -2.49513626  1089804624
-2.49513626 0.96756452 -1.99475598  1064809038
-2.11662340 7.56611872 -2.49513626  1089535740
-2.49513626 0.96756452 -2.47881913  1064809039
-2.59830904 7.41451454 -2.49513626  1089201610
-2.49513626 0.96756452 -3.06926656  1064809039
-3.18509793 7.18201971 -2.49513626  1088581164
-2.49513626 0.96756452 -3.86179352  1064809039
-4.07967949 6.71434689 -2.49513626  1087394114
-2.49513626 0.96756452 -4.60548830  1064809039
-4.90691185 6.13583469 -2.49513626  1086272239
-2.49513626 0.96756452 -5.19693613  1064809039
-5.29096079 5.80792046 -2.49513626  1085742034
-2.49513626 0.96756452 -5.47487640  1064809039
-5.65314150 5.45602846 -2.49513626  1084991938
-2.49513626 0.96756452 -5.82556486  1064809039
-5.90952969 5.17722702 -2.49513626  1084195359
-2.49513626 0.96756446 -6.15218687  1064809039
-6.22992182 4.78688908 -2.49513626  1083355600
-2.49513626 0.96756446 -6.52457237  1064809039
-6.72793341 4.05723906 -2.49513626  1080990668
-2.49513626 0.96756452 -6.97468185  1064809039
-7.03190470 3.50407863 -2.49513626  1079574500
-2.49513626 0.96756452 -7.19261694  1064809039
-7.24248838 3.04509687 -2.49513626  1077635426
-2.49513626 0.96756452 -7.33660984  1064809039
-7.42315006 2.57353449 -2.49513626  1075645664
-2.49513626 0.96756452 -7.50202179  1064809039
-7.57314825 2.09134126 -2.49513626  1072457359
-2.49513626 0.96756452 -7.69185543  1064809039
-7.76005459 1.22792685 -2.49513626  1064982501
-2.49513626 0.96756452 -7.82290936  1064809039
-7.83358097 0.60105455 -2.49513626  1089408951
-2.49513626 0.96837741 -1.70038569  1064822677
-1.93875396 7.38580990 -2.49513626  1089163648
-2.49513626 0.96837741 -2.40922737  1064822677
-2.52536345 7.20635128 -2.49513626  1088676629
-2.49513626 0.96837741 -2.98309565  1064822677
-3.09567714 6.98038387 -2.49513626  1088274525
-2.49513626 0.96837741 -3.31841111  1064822677
-3.53772020 6.76708984 -2.49513626  1087812375
-2.49513626 0.96837741 -3.75337291  1064822677
-4.17282200 6.39503765 -2.49513626  1086563311
-2.49513626 0.96837741 -4.67269325  1064822677
-4.95834303 5.80721903 -2.49513626  1085751763
-2.49513626 0.96837741 -5.23246813  1064822677
-5.32116795 5.47668982 -2.49513626  1084862706
-2.49513626 0.96837741 -5.74361849  1064822677
-5.82374382 4.93892193 -2.49513626  1083701634
-2.49513626 0.96837741 -6.12900496  1064822677
-6.20140839 4.45550299 -2.49513626  1082875477
-2.49513626 0.96837741 -6.47482586  1064822677
-6.53904486 3.94333148 -2.49513626  1081449836
-2.49513626 0.96837741 -6.66239595  1064822677
-6.72149944 3.62358952 -2.49513626  1080096613
-2.49513626 0.96837741 -6.83448362  1064822677
-6.88833237 3.29542685 -2.49513626  1076811451
-2.49513626 0.96837741 -7.29140186  1064822677
-7.39224339 1.91407526 -2.49513626  1072022397
-2.49513626 0.96837741 -7.47590494  1064822677
-7.49993896 1.43522537 -2.49513626  1065957910
-2.49513626 0.96837741 -7.57664824  1064822677
-7.60328007 0.70646381 -2.49513626  1058376918
-2.49513626 0.96837741 -1.53714037  1064835614
-1.65370524 7.23993444 -2.49513626  1088867372
-2.49513626 0.96914852 -1.88552880  1064835614
-2.00072265 7.15181828 -2.49513626  1088439750
-2.49513626 0.96914852 -2.56834888  1064835614
-2.90120173 6.83625889 -2.49513626  1087543835
-2.49513626 0.96914852 -3.65033102  1064835614
-3.85628867 6.34668875 -2.49513626  1086920100
-2.49513626 0.96914852 -4.15769148  1064835614
-4.35330439 6.01665592 -2.49513626  1086059745
-2.49513626 0.96914852 -4.63822222  1064835614
-4.73083258 5.72456360 -2.49513626  1085586105
-2.49513626 0.96914852 -4.91236544  1064835614
-5.08882141 5.40881777 -2.49513626  1084911965
-2.49513626 0.96914852 -5.50657225  1064835614
-5.74033070 4.71168804 -2.49513626  1083428208
-2.49513626 0.96914852 -5.88878775  1064835614
-6.03116131 4.33318472 -2.49513626  1082417991
-2.49513626 0.96914852 -6.29707146  1064835614
-6.35952806 3.83507562 -2.49513626  1081007923
-2.49513626 0.96914852 -6.53697395  1064835614
-6.59276676 3.41860104 -2.49513626  1079245600
-2.49513626 0.96914852 -6.74986792  1064835614
-6.79876900 2.98800230 -2.49513626  1077425903
-2.49513626 0.96914852 -6.89128542  1064835614
-7.01667690 2.43261433 -2.49513626  1074605264
-2.49513626 0.96914852 -7.12576628  1064835614
-7.24541569 1.62951601 -2.49513626  1069655444
-2.49513626 0.96914852 -7.29404163  1064835614
-7.31553411 1.27842116 -2.49513626  1066701174
-2.49513626 0.96914852 -7.35283852  1064835614
-7.38254929 0.80581754 -2.49513626  1060103115
-2.49513626 0.96914852 -7.40463400  1064835614
-7.41280937 0.44906977 -2.49513626  1088517164
-2.49513626 0.96988094 -2.05856848  1064847902
-2.16963410 6.89351797 -2.49513626  1088123588
-2.49513626 0.96988094 -2.39005065  1064847902
-2.71598005 6.69711542 -2.49513626  1087693339
-2.49513626 0.96988094 -3.55226302  1064847902
-3.85146141 6.11507511 -2.49513626  1086161875
-2.49513626 0.96988094 -4.23635149  1064847902
-4.51361370 5.64403915 -2.49513626  1084780201
-2.49513626 0.96988094 -5.03605652  1064847902
-5.28001642 4.93450308 -2.49513626  1083910939
-2.49513626 0.96988094 -5.51170444  1064847902
-5.58611679 4.58510876 -2.49513626  1082976034
-2.49513626 0.96988088 -6.00161934  1064847902
-6.06554174 3.92900848 -2.49513626  1081006544
-2.49513626 0.96988094 -6.24785566  1064847902
-6.30542040 3.53122663 -2.49513626  1079737304
-2.49513626 0.96988094 -6.41565132  1064847902
-6.46828699 3.22322178 -2.49513626  1078434637
-2.49513626 0.96988094 -6.56853199  1064847902
-6.66199303 2.80102587 -2.49513626  1076197497
-2.49513626 0.96988094 -6.78924990  1064847902
-6.90072536 2.14659977 -2.49513626  1073890409
-2.49513626 0.96988094 -6.96614742  1064847902
-6.99616385 1.81151807 -2.49513626  1071215593
-2.49513626 0.96988094 -7.07534122  1064847902
-7.09808779 1.35832751 -2.49513626  1067400672
-2.49513626 0.96988094 -7.15530586  1064847902
-7.17068720 0.89952254 -2.49513626  1059793431
-2.49513626 0.96988094 -7.20570707  1064847902
-7.21366215 0.43700516 -2.49513626  1088073775
-2.49513626 0.97057742 -1.78659952  1064859587
-1.89574957 6.77658081 -2.49513626  1087745220
-2.49513626 0.97057742 -2.32717180  1064859587
-2.43359542 6.60254097 -2.49513626  1087504546
-2.49513626 0.97057742 -2.64452696  1064859587
-3.05798435 6.33756161 -2.49513626  1086927872
-2.49513626 0.97057742 -3.26008129  1064859587
-3.35987782 6.18281174 -2.49513626  1086474973
-2.49513626 0.97057742 -3.65395927  1064859587
-3.75013399 5.95419550 -2.49513626  1085969477
-2.49513626 0.97057742 -4.03274536  1064859587
-4.30598116 5.56546926 -2.49513626  1085117221
-2.49513626 0.97057742 -4.56921339  1064859587
-4.65462589 5.27734709 -2.49513626  1084489794
-2.49513626 0.97057742 -4.98404264  1064859587
-5.29286003 4.63697624 -2.49513626  1082352389
-2.49513626 0.97057742 -5.77996826  1064859587
-5.84372234 3.92005754 -2.49513626  1080998949
-2.49513626 0.97057742 -6.19399691  1064859587
-6.34773588 3.03680253 -2.49513626  1077228261
-2.49513626 0.97057742 -6.52971554  1064859587
-6.61063194 2.41153216 -2.49513626  1075021017
-2.49513626 0.97057742 -6.68471622  1064859587
-6.71917391 2.09012508 -2.49513626  1072677358
