# .PCD v0.7 - Point Cloud Data file format
VERSION 0.7
FIELDS x y z intensity
SIZE 4 4 4 4
TYPE F F F F
COUNT 1 1 1 1
WIDTH 1029
HEIGHT 1
VIEWPOINT 0 0 0 1 0 0 0
POINTS 1029
DATA ascii
8.20747852 9.50516224 -2.64753628  1092234578
-2.64753628 0.94995815 7.89721823  1064513653
7.73899984 9.89033699 -2.64753628  1092630496
-2.64753628 0.94995815 7.41659117  1064513653
7.25248098 10.25242996 -2.64753628  1093001918
-2.64753628 0.94995815 6.91866922  1064513653
6.40460539 10.80240250 -2.64753628  1093667901
-2.64753628 0.94995815 5.87559795  1064513653
5.51523781 11.28241920 -2.64753628  1094140951
-2.64753628 0.94995809 4.77775288  1064513653
4.59016705 11.68936539 -2.64753628  1094463515
-2.64753628 0.94995815 4.21147251  1064513653
4.02046061 11.89734364 -2.64753628  1094794686
-2.64753628 0.94995815 2.65701890  1064513653
1.86164320 12.41954708 -2.64753628  1095232329
-2.64753628 0.94995815 1.05855000  1064513653
0.25106791 12.55579090 -2.64753628  1095297781
-2.64753628 0.94995815 -0.55745262  1064513653
-0.75935298 12.53531933 -2.64753628  1095242219
-2.64753628 0.94995815 -1.56446421  1064513653
-1.76485491 12.43366909 -2.64753628  1095136601
-2.64753628 0.94995815 -2.16421795  1064513653
-2.36308670 12.33396339 -2.64753628  1094928816
-2.64753628 0.94995815 -3.54163074  1064513653
-3.92767692 11.92829418 -2.64753628  1094570233
-2.64753628 0.94995815 -4.87410355  1064513653
-5.05979729 11.49388123 -2.64753628  1094005589
-2.64753628 0.94995815 -5.60881472  1064513653
-6.14475012 10.95230103 -2.64753628  1089345478
-2.49513626 0.95451802 8.47206306  1064590155
8.34897232 7.71318197 -2.49513626  1090472815
-2.49513626 0.95451802 7.96684933  1064590155
8.02827549 9.00053978 -2.64753628  1092090369
-2.64753628 0.95180804 7.27854109  1064544689
6.96517944 9.84628677 -2.64753628  1092571252
-2.64753628 0.95180804 6.31710863  1064544689
5.64283991 10.65933418 -2.64753628  1093401357
-2.64753628 0.95180804 5.12163401  1064544689
4.76745033 11.07855320 -2.64753628  1094044764
-2.64753628 0.95180804 3.49134827  1064544689
3.11789107 11.65083122 -2.64753628  1094446123
-2.64753628 0.95180804 2.55176353  1064544689
2.36166215 11.82732487 -2.64753628  1094570541
-2.64753628 0.95180804 1.97968304  1064544689
1.78789520 11.92755508 -2.64753628  1094747629
-2.64753628 0.95180804 0.62919486  1064544689
0.24111837 12.05839825 -2.64753628  1094772039
-2.64753628 0.95180804 -1.11645830  1064544689
-1.69494271 11.94111633 -2.64753628  1094621365
-2.64753628 0.95180804 -2.07848763  1064544689
-2.83871818 11.72197723 -2.64753628  1094263776
-2.64753628 0.95180804 -4.13892746  1064544689
-4.32075596 11.26028919 -2.64753628  1093863215
-2.64753628 0.95180809 -4.68102169  1064544689
-4.85935545 11.03855896 -2.64753628  1093621669
-2.64753628 0.95180804 -5.55964851  1064544689
-5.73123217 10.61207294 -2.64753628  1093058758
-2.64753628 0.95180804 8.37850857  1064617347
8.26437664 7.15589523 -2.49513626  1089025898
-2.49513626 0.95613879 7.78674793  1064617347
7.66220999 7.79726171 -2.49513626  1090350419
-2.49513626 0.95613879 7.01041937  1064617347
7.14822149 9.13532925 -2.64753628  1091828942
-2.64753628 0.95352304 6.85042286  1064573462
6.39051151 9.68052769 -2.64753628  1092387763
-2.64753628 0.95352304 5.91568613  1064573462
5.42706585 10.25174141 -2.64753628  1093057784
-2.64753628 0.95352304 4.92578936  1064573462
4.75608397 10.57973289 -2.64753628  1093302934
-2.64753628 0.95352304 3.88997531  1064573462
3.53615284 11.04747391 -2.64753628  1093827923
-2.64753628 0.95352304 2.63637781  1064573462
2.45418715 11.33701992 -2.64753628  1094094845
-2.64753628 0.95352304 1.90394890  1064573462
1.71952927 11.47146130 -2.64753628  1094232158
-2.64753628 0.95352304 0.41857383  1064573462
0.23190016 11.59729958 -2.64753628  1094293428
-2.64753628 0.95352298 -0.70138502  1064573462
-1.07376695 11.54981804 -2.64753628  1094221598
-2.64753628 0.95352304 -1.44503474  1064573462
-1.99901032 11.42607594 -2.64753628  1094076244
-2.64753628 0.95352304 -2.36581302  1064573462
-2.73017216 11.27375126 -2.64753628  1093853525
-2.64753628 0.95352304 -3.45000482  1064573462
-3.80474472 10.95788097 -2.64753628  1093554886
-2.64753628 0.95352304 -4.32934237  1064573462
-4.84384060 10.53984261 -2.64753628  1093099058
-2.64753628 0.95352304 -5.18064785  1064573462
-5.51207924 10.20628548 -2.64753628  1092738056
-2.64753628 0.95352304 7.95888090  1064642622
7.73289967 7.14402533 -2.49513626  1088983054
-2.49513626 0.95764530 7.49890661  1064642622
7.37897396 7.50903225 -2.49513626  1089736485
-2.49513626 0.95764530 7.13341427  1064642622
7.00784349 7.85652494 -2.49513626  1090713761
-2.49513626 0.95764530 6.45121813  1064600208
6.30356693 9.22240162 -2.64753628  1092008596
-2.64753628 0.95511723 5.85096788  1064600208
5.54158258 9.69940758 -2.64753628  1092653859
-2.64753628 0.95511723 4.74370670  1064600208
4.41565847 10.26107121 -2.64753628  1093033427
-2.64753628 0.95511723 3.91511965  1064600208
3.57627320 10.58290768 -2.64753628  1093286343
-2.64753628 0.95511723 3.06117082  1064600208
2.71372581 10.83620453 -2.64753628  1093578736
-2.64753628 0.95511723 1.83360124  1064600209
0.94159645 11.13108253 -2.64753628  1093827954
-2.64753628 0.95511723 0.22332723  1064600208
0.04350130 11.17075157 -2.64753628  1093843033
-2.64753628 0.95511723 -0.31614265  1064600208
-0.49586180 11.15982723 -2.64753628  1093822471
-2.64753628 0.95511723 -1.03407335  1064600208
-1.39161968 11.08381939 -2.64753628  1093699658
-2.64753628 0.95511723 -2.10200882  1064600208
-2.27836108 10.93602753 -2.64753628  1093468974
-2.64753628 0.95511723 -2.97740221  1064600209
-3.32247448 10.66530704 -2.64753628  1093256285
-2.64753628 0.95511723 -3.66409898  1064600208
-4.16930723 10.36361408 -2.64753628  1092693605
-2.64753628 0.95511723 -4.98914623  1064600208
-5.30832148 9.82900524 -2.64753628  1092345949
-2.64753628 0.95511723 -5.62199879  1064600208
7.88402700 6.39427805 -2.49513626  1087416038
-2.49513626 0.95904911 7.56611729  1064666174
7.45619106 6.88838863 -2.49513626  1088437674
-2.49513626 0.95904911 7.23057032  1064666174
7.11492968 7.24033594 -2.49513626  1089164146
-2.49513626 0.95904911 6.75707912  1064666174
6.25557137 7.99452972 -2.49513626  1090617817
-2.49513626 0.95904911 5.78858185  1064625134
5.64159822 9.17546368 -2.64753628  1092025989
-2.64753628 0.95660293 4.73035717  1064625134
4.41637707 9.82407093 -2.64753628  1092504933
-2.64753628 0.95660293 3.61213136  1064625134
3.44830108 10.20421410 -2.64753628  1092992416
-2.64753628 0.95660293 2.78448653  1064625134
2.44807243 10.48921871 -2.64753628  1093169075
-2.64753628 0.95660293 1.59671032  1064625134
1.08057237 10.71677017 -2.64753628  1093384563
-2.64753628 0.95660293 0.73500443  1064625134
0.38867325 10.76409435 -2.64753628  1093422500
-2.64753628 0.95660293 -0.30483001  1064625134
-0.82428837 10.73952293 -2.64753628  1093376263
-2.64753628 0.95660293 -1.16960073  1064625134
-1.34182358 10.68720341 -2.64753628  1093312676
-2.64753628 0.95660293 -1.68518353  1064625134
-1.85623121 10.60995865 -2.64753628  1093223004
-2.64753628 0.95660293 -2.19683743  1064625134
-3.20358634 10.28366661 -2.64753628  1092738885
-2.64753628 0.95660293 -4.02011633  1064625134
-4.49787664 9.78702831 -2.64753628  1092235720
-2.64753628 0.95660293 -5.27028084  1064625134
-5.42082644 9.30760002 -2.64753628  1086686498
-2.49513626 0.96036029 7.40792227  1064688171
6.97978878 6.87773800 -2.49513626  1088629241
-2.49513626 0.96036029 6.63959932  1064688171
6.52271843 7.31265163 -2.49513626  1089295796
-2.49513626 0.96036023 6.28391695  1064688172
5.91358280 7.81346989 -2.49513626  1090325372
-2.49513626 0.96036029 5.65898228  1064688171
5.52946520 8.08985424 -2.49513626  1090705499
-2.49513626 0.96036029 5.26616430  1064688172
5.15796185 9.02795792 -2.64753628  1091682776
-2.64753628 0.95799071 4.86464739  1064648417
4.10998106 9.55074120 -2.64753628  1092213192
-2.64753628 0.95799065 3.32870078  1064648417
3.00986266 9.95235252 -2.64753628  1092615684
-2.64753628 0.95799071 2.52586484  1064648417
2.36316466 10.12541580 -2.64753628  1092821970
-2.64753628 0.95799071 1.87156129  1064648417
1.54133081 10.28264999 -2.64753628  1092978027
-2.64753628 0.95799071 0.54242080  1064648416
0.37519318 10.39075661 -2.64753628  1093030853
-2.64753628 0.95799065 -0.12690026  1064648417
-0.46153784 10.38728046 -2.64753628  1093001060
-2.64753628 0.95799065 -1.62673354  1064648416
-1.79184973 10.24196625 -2.64753628  1092726740
-2.64753628 0.95799065 -2.93226314  1064648417
-3.09247613 9.92699337 -2.64753628  1092486087
-2.64753628 0.95799071 -3.72489190  1064648416
-3.88068342 9.64618397 -2.64753628  1092108948
-2.64753628 0.95799071 -4.34187078  1064648417
-4.49340057 9.37645817 -2.64753628  1091723417
-2.64753628 0.95799071 -5.08749151  1064648417
7.35442257 5.96474791 -2.49513626  1087217426
-2.49513626 0.96158755 6.41612101  1064708762
6.18859720 7.16708183 -2.49513626  1088979269
-2.49513626 0.96158755 5.95465374  1064708762
5.71454525 7.55048084 -2.49513626  1090136449
-2.49513626 0.96158755 5.21680975  1064708762
4.95969820 8.06642151 -2.49513626  1090671317
-2.49513626 0.96158755 4.29501343  1064708762
4.41259718 9.02677059 -2.64753628  1091668948
-2.64753628 0.95928973 4.11971045  1064670211
3.82255483 9.29202175 -2.64753628  1091997809
-2.64753628 0.95928973 3.21666431  1064670211
3.06301045 9.56930351 -2.64753628  1092262772
-2.64753628 0.95928973 2.12581229  1064670211
1.80856776 9.88345718 -2.64753628  1092523179
-2.64753628 0.95928973 1.48945212  1064670211
1.32929230 9.95924664 -2.64753628  1092612919
-2.64753628 0.95928973 0.52416795  1064670211
0.20086969 10.04556274 -2.64753628  1092665285
-2.64753628 0.95928973 -0.44600341  1064670211
-0.60754108 10.02918339 -2.64753628  1092603780
-2.64753628 0.95928973 -1.25168574  1064670211
-1.41201687 9.94785690 -2.64753628  1092536326
-2.64753628 0.95928973 -2.04926610  1064670211
-2.20735264 9.80210304 -2.64753628  1092284953
-2.64753628 0.95928973 -3.29566240  1064670211
-3.44803739 9.43740845 -2.64753628  1091966784
-2.64753628 0.95928973 -3.75006986  1064670211
-3.89964676 9.25993633 -2.64753628  1091703504
-2.64753628 0.95928973 -4.63326073  1064708762
-4.76560831 8.18258762 -2.49513626  1086080368
-2.49513626 0.96273869 6.72788239  1064728075
6.62695122 6.32304811 -2.49513626  1087224226
-2.49513626 0.96273869 6.09705925  1064728075
5.87384129 7.02818489 -2.49513626  1088677391
-2.49513626 0.96273869 5.64453793  1064728075
5.52767515 7.30357504 -2.49513626  1089243163
-2.49513626 0.96273869 5.28968859  1064728075
5.16862297 7.56192732 -2.49513626  1089772777
-2.49513626 0.96273869 4.92250490  1064728075
4.41520977 8.02516651 -2.49513626  1090618872
-2.49513626 0.96273869 4.02260590  1064728075
3.88961172 8.29266548 -2.49513626  1090952717
-2.49513626 0.96273869 3.69755578  1064690655
3.55237913 9.04653072 -2.64753628  1091675143
-2.64753628 0.96050829 3.25930500  1064690655
3.11147642 9.20748615 -2.64753628  1091931438
-2.64753628 0.96050835 2.36103201  1064690655
2.05629396 9.49898624 -2.64753628  1092155092
-2.64753628 0.96050835 1.44074643  1064690655
1.28582716 9.63357353 -2.64753628  1092285281
-2.64753628 0.96050829 0.50702590  1064690655
0.35070899 9.71267891 -2.64753628  1092319513
-2.64753628 0.96050829 -0.58767164  1064690655
-0.74377346 9.69050503 -2.64753628  1092261290
-2.64753628 0.96050829 -1.21075523  1064690655
-1.67491555 9.57359695 -2.64753628  1092139501
-2.64753628 0.96050829 -1.98225319  1064690655
-2.74090934 9.32451153 -2.64753628  1091757732
-2.64753628 0.96050829 -3.33528614  1064690655
-3.62743878 9.01669407 -2.64753628  1090857426
-2.49513626 0.96273869 -4.09085941  1064728075
-4.22226191 8.12833786 -2.49513626  1090581234
-2.49513626 0.96273869 -4.48175144  1064728074
-4.60976982 7.91501427 -2.49513626  1085456933
-2.49513626 0.96382046 6.60994625  1064746224
6.21577549 6.32533264 -2.49513626  1087215137
-2.49513626 0.96382046 5.90314865  1064746224
5.79583979 6.71222353 -2.49513626  1088388792
-2.49513626 0.96382040 5.35187387  1064746224
5.23734474 7.15653133 -2.49513626  1088925033
-2.49513626 0.96382046 5.00424099  1064746224
4.76594877 7.47873402 -2.49513626  1090549371
-2.49513626 0.96382046 2.97399950  1064746223
2.72397089 9.00701237 -2.64753628  1091701855
-2.64753628 0.96165353 2.13869858  1064709869
1.99089992 9.19688606 -2.64753628  1091836268
-2.64753628 0.96165353 1.54455745  1064709869
1.39492357 9.30593777 -2.64753628  1091910697
-2.64753628 0.96165353 0.94401526  1064709869
0.79316771 9.37641621 -2.64753628  1091983996
-2.64753628 0.96165353 0.03664714  1064709869
-0.56898111 9.39268589 -2.64753628  1091955067
-2.64753628 0.96165353 -1.17224872  1064709869
-1.32240534 9.31652164 -2.64753628  1091790028
-2.64753628 0.96165353 -2.65373755  1064709869
-2.79873157 8.98406410 -2.64753628  1090962960
-2.49513626 0.96382046 -2.90883636  1064746223
-3.04332685 8.32969856 -2.49513626  1090757494
-2.49513626 0.96382046 -3.44192624  1064746223
-3.57305479 8.11658669 -2.49513626  1090579872
-2.49513626 0.96382046 -3.83249927  1064746224
-4.08797121 7.86982775 -2.49513626  1089812894
-2.49513626 0.96382046 6.67440891  1064763310
6.21751738 5.93238640 -2.49513626  1086391242
-2.49513626 0.96483886 6.02330971  1064763310
5.92385530 6.22564936 -2.49513626  1086996256
-2.49513626 0.96483886 5.72036362  1064763310
5.51093817 6.59396124 -2.49513626  1087935268
-2.49513626 0.96483886 5.18615913  1064763310
4.61837769 7.24716187 -2.49513626  1089094179
-2.49513626 0.96483886 4.14242506  1064763310
4.02067375 7.59505987 -2.49513626  1089803500
-2.49513626 0.96483886 3.77407765  1064763310
3.39693594 7.89376831 -2.49513626  1090569962
-2.49513626 0.96483886 2.75120115  1064763310
1.95361304 8.37061787 -2.49569488  1090940189
-2.49588990 0.96482843 1.64134169  1064727959
1.49673378 8.99486256 -2.64753628  1091586269
-2.64753628 0.96273178 1.20638275  1064727959
0.76861054 9.08608341 -2.64753628  1091678890
-2.64753628 0.96273178 0.32904121  1064727959
0.03550925 9.11846924 -2.64753628  1091691199
-2.64753628 0.96273178 -0.25806111  1064727959
-0.84409416 9.07938385 -2.64753628  1091635372
-2.64753628 0.96273178 -1.13594890  1064727959
-1.57143354 8.98211098 -2.64753628  1090815554
-2.49513626 0.96483886 -2.55595756  1064763310
-2.68770957 8.16253853 -2.49513626  1090594304
-2.49513626 0.96483886 -3.07865381  1064763310
-3.71383333 7.74972296 -2.49513626  1089866679
-2.49513626 0.96483886 -4.32496357  1064763310
6.47301149 5.24988508 -2.49513626  1084968747
-2.49513626 0.96579927 6.12174559  1064779422
5.93650579 5.84970808 -2.49513626  1086208397
-2.49513626 0.96579927 5.44690800  1064779423
5.02966928 6.64556932 -2.49513626  1088328494
-2.49513626 0.96579927 4.47901917  1064779423
4.36528778 7.09967756 -2.49513626  1089444451
-2.49513626 0.96579927 3.53918576  1064779423
3.41725302 7.60154819 -2.49513626  1089796729
-2.49513626 0.96579927 2.79495168  1064779423
2.54073071 7.93762112 -2.49513626  1090471849
-2.49513626 0.96579927 2.15454412  1064779423
2.02465582 8.08467388 -2.49513626  1090640905
-2.49513626 0.96579927 1.63197088  1064779423
1.50018597 8.19820690 -2.49513626  1090751086
-2.49513626 0.96579927 0.83611161  1064779423
0.56930661 8.32344818 -2.49769878  1090874045
-2.49689960 0.96577549 0.03247210  1064779113
-0.10176356 8.33735561 -2.49622583  1090801540
-2.49513626 0.96579927 -1.43628883  1064779423
-1.56826854 8.18545532 -2.49513626  1090685919
-2.49513626 0.96579927 -1.83097088  1064779423
-1.96162915 8.10019588 -2.49513626  1090589890
-2.49513626 0.96579927 -2.47883177  1064779423
-2.73371220 7.87324429 -2.49513626  1090158780
-2.49513626 0.96579927 -2.98575640  1064779423
-3.23470640 7.68100452 -2.49513626  1088845344
-2.49513626 0.96579927 6.11519861  1064794642
6.02916384 5.39274406 -2.49513626  1085253312
-2.49513626 0.96670640 5.66962957  1064794642
5.48095465 5.94908667 -2.49513626  1086401394
-2.49513626 0.96670640 5.28659153  1064794642
5.18734169 6.20676994 -2.49513626  1087268399
-2.49513626 0.96670640 4.67146063  1064794642
4.23680830 6.89071512 -2.49513626  1088333871
-2.49513626 0.96670640 4.01277542  1064794642
3.89918637 7.08723068 -2.49513626  1088860371
-2.49513626 0.96670640 3.31667495  1064794642
3.19747114 7.43025351 -2.49513626  1089531993
-2.49513626 0.96670640 2.71268821  1064794642
1.96506524 7.84672022 -2.49513626  1090261801
-2.49513626 0.96670640 1.71143615  1064794642
1.58393729 7.93244076 -2.49513626  1090428679
-2.49513626 0.96670640 1.32774997  1064794642
1.19911909 7.99966335 -2.49513626  1090569611
-2.49513626 0.96670640 0.42199311  1064794642
-0.35906568 8.08106327 -2.49513626  1090575981
-2.49513626 0.96670640 -1.52210844  1064794642
-1.77708054 7.89141703 -2.49513626  1090229184
-2.49513626 0.96670640 -2.15599942  1064794642
-2.28123236 7.76070118 -2.49513626  1089938064
-2.49513626 0.96670640 -2.65325117  1064794642
-2.77592492 7.59781170 -2.49513626  1089579805
-2.49513626 0.96670640 -3.01908135  1064794642
-3.13950300 7.45493317 -2.49513626  1089039850
-2.49513626 0.96670640 -3.95794964  1064794642
-4.07100630 6.98995113 -2.49513626  1084726265
-2.49513626 0.96756452 5.77084160  1064809039
5.68426943 5.42359257 -2.49513626  1085306354
-2.49513626 0.96756446 5.50671864  1064809038
5.32346630 5.77814674 -2.49513626  1086212606
-2.49513626 0.96756452 5.03828764  1064809039
4.94058609 6.10875368 -2.49513626  1086879731
-2.49513626 0.96756446 4.63989973  1064809038
4.53723097 6.41403246 -2.49513626  1087636725
-2.49513626 0.96756446 4.11506748  1064809039
4.00678968 6.75809860 -2.49513626  1088303744
-2.49513626 0.96756452 3.56357718  1064809039
3.45039320 7.05840254 -2.49513626  1088769639
-2.49513626 0.96756452 3.10559511  1064809039
2.87165785 7.31299114 -2.49513626  1089264202
-2.49513626 0.96756452 2.51524115  1064809039
2.15296221 7.55585909 -2.49513626  1089787119
-2.49513626 0.96756446 1.66225958  1064809039
1.53842437 7.70451117 -2.49513626  1089949202
-2.49513626 0.96756452 1.28959763  1064809039
1.16466367 7.76979971 -2.49513626  1090073484
-2.49513626 0.96756452 0.91392535  1064809039
0.78818554 7.81697083 -2.49513626  1090159682
-2.49513626 0.96756452 0.40986830  1064809038
0.28350380 7.85148954 -2.49513626  1090215029
-2.49513626 0.96756452 0.03059397  1064809039
-0.09588836 7.85602045 -2.49513626  1090147576
-2.49513626 0.96756452 -0.97874373  1064809039
-1.10411310 7.77863741 -2.49513626  1090015419
-2.49513626 0.96756452 -1.35395968  1064809039
-1.72601819 7.66466522 -2.49513626  1089755436
-2.49513626 0.96756452 -1.97187316  1064809039
-2.21568346 7.53770590 -2.49513626  1089391755
-2.49513626 0.96756452 -2.57701421  1064809039
-2.81461048 7.33513546 -2.49513626  1089027701
-2.49513626 0.96756452 -3.16546321  1064809039
-3.39531446 7.08506346 -2.49513626  1088363346
-2.49513626 0.96756452 -3.84422135  1064809039
5.85245419 4.90486956 -2.49513626  1084796594
-2.49513626 0.96837741 5.35211420  1064822677
4.99052858 5.77958345 -2.49513626  1086029409
-2.49513626 0.96837741 4.70567274  1064822677
4.40984774 6.23395634 -2.49513626  1086962569
-2.49513626 0.96837741 4.20687294  1064822677
3.99953461 6.50482082 -2.49513626  1087894914
-2.49513626 0.96837741 3.35352349  1064822677
3.24264741 6.91333437 -2.49513626  1088347735
-2.49513626 0.96837741 3.01840425  1064822677
2.56076980 7.19384575 -2.49513626  1089070095
-2.49513626 0.96837741 1.97402191  1064822677
1.85501623 7.40728426 -2.49513626  1089336642
-2.49513626 0.96837741 1.61559129  1064822677
1.13196576 7.55166197 -2.49513626  1089647023
-2.49513626 0.96837741 0.52107131  1064822677
0.15265909 7.63450432 -2.49513626  1089755618
-2.49513626 0.96837741 -0.46172196  1064822677
-0.58436805 7.61363649 -2.49513626  1089686977
-2.49513626 0.96837741 -0.82917160  1064822677
-1.31594741 7.52178526 -2.49513626  1089469676
-2.49513626 0.96837741 -1.79727042  1064822677
-1.91651368 7.39161158 -2.49513626  1089105734
-2.49513626 0.96837741 -2.38820982  1064822677
-2.50466323 7.21357203 -2.49513626  1088598547
-2.49513626 0.96837741 -3.07659245  1064822677
-3.29998922 6.88614750 -2.49513626  1087952841
-2.49513626 0.96837741 -3.62860012  1064822677
-3.73629451 6.65950918 -2.49513626  1083552230
-2.49513626 0.96914852 5.37301064  1064835614
5.28978395 5.21244192 -2.49513626  1084850291
-2.49513626 0.96914852 4.85352278  1064835614
4.57648802 5.84869003 -2.49513626  1086310031
-2.49513626 0.96914852 4.28878260  1064835614
4.09138107 6.19773912 -2.49513626  1086875877
-2.49513626 0.96914852 3.78738761  1064835614
3.57977128 6.50665808 -2.49513626  1087621894
-2.49513626 0.96914852 3.15362716  1064835614
2.93553925 6.82158232 -2.49513626  1088414242
-2.49513626 0.96914852 1.91982996  1064835614
1.80409133 7.20393419 -2.49513626  1088908514
-2.49513626 0.96914852 1.57123899  1064835614
1.33675563 7.30509615 -2.49513626  1089144035
-2.49513626 0.96914852 0.74502623  1064835614
0.50676614 7.40908480 -2.49513626  1089294899
-2.49513626 0.96914852 -0.21017227  1064835614
-0.32965004 7.41907930 -2.49513626  1089270435
-2.49513626 0.96914852 -0.80640662  1064835614
-0.92515045 7.36854839 -2.49513626  1089161554
-2.49513626 0.96914852 -1.16188812  1064835614
-1.51466107 7.27029657 -2.49513626  1088817597
-2.49513626 0.96914852 -2.09435701  1064835614
-2.20878983 7.09031916 -2.49513626  1088454473
-2.49513626 0.96914852 -2.66049004  1064835614
-2.88232017 6.84424114 -2.49513626  1087893200
-2.49513626 0.96914852 -3.31679368  1064835614
-3.42333031 6.59030819 -2.49513626  1087445340
-2.49513626 0.96914852 -3.73751855  1064835614
5.61289167 4.55228996 -2.49513626  1084026390
-2.49513626 0.96988094 5.22866631  1064847902
5.14767647 5.07240915 -2.49513626  1084551856
-2.49513626 0.96988094 4.81058073  1064847902
4.72313547 5.46990871 -2.49513626  1085826704
-2.49513626 0.96988094 4.26800489  1064847902
4.17356634 5.89993620 -2.49513626  1086390246
-2.49513626 0.96988094 3.88385582  1064847902
3.78523755 6.15628576 -2.49513626  1087020687
-2.49513626 0.96988094 3.38121271  1064847902
3.17383885 6.49266052 -2.49513626  1087663389
-2.49513626 0.96988094 2.74944019  1064847902
2.53285503 6.76849604 -2.49513626  1088248796
-2.49513626 0.96988094 1.52902520  1064847902
1.41511893 7.08698416 -2.49513626  1088730250
-2.49513626 0.96988094 0.95611775  1064847902
0.84067249 7.17782450 -2.49513626  1088821245
-2.49513626 0.96988094 0.60916054  1064847902
0.49315169 7.21004009 -2.49513626  1088877067
-2.49513626 0.96988094 0.14448029  1064847902
0.02814236 7.22683144 -2.49513626  1088891634
-2.49513626 0.96988094 -0.32079560  1064847902
-0.90029514 7.17059183 -2.49513626  1088747300
-2.49513626 0.96988094 -1.47396803  1064847902
-1.70097089 7.02385855 -2.49513626  1088349449
-2.49513626 0.96988094 -2.14944983  1064847902
-2.69730091 6.70465994 -2.49513626  1087709630
-2.49513626 0.96988094 -2.91174483  1064847902
-3.01785231 6.56661654 -2.49513626  1087409351
-2.49513626 0.96988094 -3.22768784  1064847902
-3.63710856 6.24494553 -2.49513626  1083037503
-2.49513626 0.97057742 5.39315414  1064859587
5.16864347 4.77504444 -2.49513626  1083929015
-2.49513626 0.97057742 4.93208218  1064859587
4.68401909 5.25127602 -2.49513626  1084911260
-2.49513626 0.97057742 4.51253462  1064859587
4.33637285 5.54182339 -2.49513626  1085508765
-2.49513626 0.97057742 4.15571785  1064859587
4.06376314 5.74471426 -2.49513626  1085925005
-2.49513626 0.97057742 3.49076366  1064859587
3.39195085 6.16527271 -2.49513626  1086893646
-2.49513626 0.97057742 2.98816514  1064859587
2.78152251 6.46367407 -2.49513626  1087389282
-2.49513626 0.97057742 2.35980272  1064859587
2.25277328 6.66640377 -2.49513626  1087796528
-2.49513626 0.97057742 2.03699327  1064859587
1.92829812 6.76739120 -2.49513626  1088056905
-2.49513626 0.97057742 1.37788892  1064859587
0.93096364 6.97490120 -2.49513626  1088398785
-2.49513626 0.97057742 0.70593750  1064859587
0.48017761 7.02035284 -2.49513626  1088489359
-2.49513626 0.97057742 0.14067958  1064859587
0.02740383 7.03670168 -2.49513626  1088493061
-2.49513626 0.97057742 -0.31235585  1064859587
-0.42548773 7.02388096 -2.49513626  1088455694
-2.49513626 0.97057742 -1.21267223  1064859587
-1.65622008 6.83906794 -2.49513626  1088026619
-2.49513626 0.97057742 -2.93845248  1064859587
-3.04100633 6.34572363 -2.49513626  1086611780
-2.49513626 0.97057742 5.32431507  1064870712
5.25410700 4.40340137 -2.49513626  1083152618
-2.49513626 0.97124046 5.10962248  1064870712
4.72558355 4.96632862 -2.49513626  1084315163
-2.49513626 0.97124046 4.56325388  1064870712
4.48030424 5.18868780 -2.49513626  1084773139
-2.49513626 0.97124052 4.31093979  1064870711
4.22457218 5.39894533 -2.49513626  1085739949
-2.49513626 0.97124052 3.59062767  1064870711
3.49615073 5.89682293 -2.49513626  1086447918
-2.49513626 0.97124052 3.10942221  1064870711
3.01066375 6.15885496 -2.49513626  1086854443
-2.49513626 0.97124052 2.70980549  1064870712
2.60808253 6.33983469 -2.49513626  1087206610
-2.49513626 0.97124046 2.08985519  1064870711
1.87858272 6.59291410 -2.49513626  1087742241
-2.49513626 0.97124052 1.45041430  1064870711
1.34236300 6.72262239 -2.49513626  1087883669
-2.49513626 0.97124052 1.12524748  1064870711
0.02669584 6.85528231 -2.49513626  1088112743
-2.49513626 0.97124046 -0.30430254  1064870711
-0.41451591 6.84278727 -2.49513626  1088076339
-2.49513626 0.97124046 -0.74439812  1064870711
-0.85401016 6.80193090 -2.49513626  1087975828
-2.49513626 0.97124046 -1.07254267  1064870711
-1.18140566 6.75276852 -2.49513626  1087767273
-2.49513626 0.97124046 -1.72057140  1064870711
-1.93330777 6.57707453 -2.49513626  1087467887
-2.49513626 0.97124052 -2.14404297  1064870711
-2.35255432 6.43902779 -2.49513626  1086991507
-2.49513626 0.97124046 -2.76204443  1064870712
-2.96260095 6.18212032 -2.49513626  1086391581
-2.49513626 0.97124052 5.12126684  1064881315
4.75956154 4.68997049 -2.49513626  1083893645
-2.49513626 0.97187251 4.52758360  1064881315
4.20194626 5.19546938 -2.49513626  1084915553
-2.49513626 0.97187251 3.85889506  1064881315
3.77057552 5.51652193 -2.49513626  1085559375
-2.49513626 0.97187251 3.49984789  1064881314
3.40775561 5.74773407 -2.49513626  1085909181
-2.49513626 0.97187251 3.22095060  1064881315
2.83752155 6.04960442 -2.49513626  1086613762
-2.49513626 0.97187251 2.54214287  1064881315
2.44233227 6.21966791 -2.49513626  1087017485
-2.49513626 0.97187251 2.03701663  1064881315
1.93430173 6.39591455 -2.49513626  1087218594
-2.49513626 0.97187251 1.51869595  1064881315
1.20276558 6.57286739 -2.49513626  1087564947
-2.49513626 0.97187251 0.77729040  1064881315
0.56323242 6.65822840 -2.49513626  1087722348
-2.49513626 0.97187251 0.24111909  1064881315
-0.08155262 6.68151093 -2.49513626  1087741198
-2.49513626 0.97187251 -0.61854774  1064881315
-0.83241832 6.62995720 -2.49513626  1087615947
-2.49513626 0.97187251 -1.04542804  1064881315
-1.36283624 6.54155207 -2.49513626  1087361332
-2.49513626 0.97187251 -1.67706907  1064881315
-1.88442802 6.41078520 -2.49513626  1087120851
-2.49513626 0.97187251 -2.08983397  1064881315
-2.29307437 6.27622986 -2.49513626  1086567282
-2.49513626 0.97187251 -3.17525578  1064881315
-3.26949430 5.82749081 -2.49513626  1085850992
-2.49513626 0.97187251 5.06095123  1064891431
4.92618418 4.26544762 -2.49513626  1082852271
-2.49513626 0.97247547 4.64148283  1064891431
4.17873430 4.99995089 -2.49513626  1084367204
-2.49513626 0.97247547 4.01560402  1064891431
3.84831262 5.25849915 -2.49513626  1084898191
-2.49513626 0.97247547 3.67703128  1064891431
3.41301870 5.55091286 -2.49513626  1085496649
-2.49513626 0.97247547 3.23254752  1064891431
3.14104342 5.70921755 -2.49513626  1085819417
-2.49513626 0.97247547 2.95561528  1064891431
2.86173916 5.85420942 -2.49513626  1086114014
-2.49513626 0.97247547 2.67179203  1064891431
2.18524361 6.13889551 -2.49513626  1086884252
-2.49513626 0.97247547 1.68454111  1064891431
1.48101819 6.34569883 -2.49513626  1087098002
-2.49513626 0.97247547 1.17292583  1064891431
0.86209708 6.45895576 -2.49513626  1087358726
-2.49513626 0.97247547 0.44465774  1064891431
0.23513898 6.51199150 -2.49513626  1087404632
-2.49513626 0.97247547 -0.18441415  1064891431
-0.39401412 6.50431252 -2.49513626  1087348687
-2.49513626 0.97247547 -0.91574675  1064891431
-1.01949203 6.43598986 -2.49513626  1087163252
-2.49513626 0.97247547 -1.32902741  1064891431
-1.43155265 6.35704231 -2.49513626  1086969949
-2.49513626 0.97247547 -1.73679590  1064891431
-1.83767724 6.25173998 -2.49513626  1086788932
-2.49513626 0.97247547 -2.03798890  1064891431
-2.13736439 6.15573025 -2.49513626  1086419865
-2.49513626 0.97247547 -2.62542129  1064891431
-2.72109365 5.92089319 -2.49513626  1085968691
-2.49513626 0.97247547 -3.18838167  1064891431
4.93766880 4.00465775 -2.49513626  1082305815
-2.49513626 0.97305131 4.80618572  1064901092
4.73856544 4.23837709 -2.49513626  1083099749
-2.49513626 0.97305131 4.45599127  1064901092
4.38241625 4.60567904 -2.49513626  1083833086
-2.49513626 0.97305131 4.07694197  1064901092
3.91778493 5.00687647 -2.49513626  1084501063
-2.49513626 0.97305137 3.67149162  1064901092
3.41663384 5.36138725 -2.49513626  1085318287
-2.49513626 0.97305131 2.97445846  1064901092
2.79203081 5.71160269 -2.49513626  1086071902
-2.49513626 0.97305131 2.32372141  1064901092
2.13201380 5.98935652 -2.49513626  1086372768
-2.49513626 0.97305131 1.93809068  1064901092
1.84036398 6.08530426 -2.49513626  1086621263
-2.49513626 0.97305137 1.54442465  1064901093
1.24488139 6.23442841 -2.49513626  1086893639
-2.49513626 0.97305137 0.94243675  1064901093
0.84109807 6.30161858 -2.49513626  1086983960
-2.49513626 0.97305137 0.63779408  1064901092
0.53588003 6.33487844 -2.49513626  1087043397
-2.49513626 0.97305131 0.12709883  1064901092
-0.17992172 6.35495710 -2.49513626  1087050077
-2.49513626 0.97305137 -0.48652372  1064901092
-0.89343953 6.29441214 -2.49513626  1086910287
-2.49513626 0.97305131 -1.29665184  1064901093
-1.39668047 6.20218754 -2.49513626  1086647717
-2.49513626 0.97305131 -1.79291332  1064901093
-1.98834264 6.03857088 -2.49513626  1086264820
-2.49513626 0.97305131 -2.27756047  1064901093
-2.37281919 5.89809847 -2.49513626  1085944425
-2.49513626 0.97305131 -2.65480947  1064901092
-2.83940172 5.68820190 -2.49513626  1085369453
-2.49513626 0.97305131 4.69116545  1064910328
4.55796623 4.21086836 -2.49513626  1083453387
-2.49513626 0.97360182 4.05551338  1064910328
3.82402706 4.88705158 -2.49513626  1084118493
-2.49513626 0.97360182 3.58362675  1064910328
3.50160766 5.12300730 -2.49513626  1084602377
-2.49513626 0.97360182 3.33486843  1064910328
3.25019002 5.28608751 -2.49513626  1085339744
-2.49513626 0.97360182 2.72521353  1064910328
2.63511109 5.61806583 -2.49513626  1085695561
-2.49513626 0.97360182 2.36080241  1064910328
1.98660493 5.87876368 -2.49513626  1086198217
-2.49513626 0.97360182 1.60417390  1064910328
1.50746429 6.01947117 -2.49513626  1086414829
-2.49513626 0.97360182 1.31289732  1064910328
1.21508932 6.08522892 -2.49513626  1086542846
-2.49513626 0.97360182 0.62252998  1064910328
0.52305508 6.18327427 -2.49513626  1086752804
-2.49513626 0.97360182 0.02416440  1064910328
-0.17561585 6.20287323 -2.49513626  1086731590
-2.49513626 0.97360182 -0.47488180  1064910328
-0.57442433 6.17871380 -2.49513626  1086654029
-2.49513626 0.97360182 -1.06939423  1064910328
-1.16765976 6.09450960 -2.49513626  1086437477
-2.49513626 0.97360182 -1.75000668  1064910328
-1.84562278 5.92453671 -2.49513626  1086102560
-2.49513626 0.97360182 -2.03539419  1064910328
-2.22305536 5.79348755 -2.49513626  1085815021
-2.49513626 0.97360182 -2.59127569  1064910328
-2.77145076 5.55207396 -2.49513626  1085290295
-2.49513626 0.97360182 -2.94875288  1064910328
4.70611858 3.81686115 -2.49513626  1082514044
-2.49513626 0.97412860 4.17690468  1064919166
4.10569668 4.45636940 -2.49513626  1083224910
-2.49513626 0.97412860 3.96010303  1064919166
3.65675402 4.83157539 -2.49513626  1084116000
-2.49513626 0.97412860 3.41922903  1064919166
3.33825350 5.05688143 -2.49513626  1084458203
-2.49513626 0.97412860 3.17372680  1064919166
3.09021544 5.21215200 -2.49513626  1084775414
-2.49513626 0.97412860 2.83497119  1064919166
2.74839258 5.40021467 -2.49513626  1085246579
-2.49513626 0.97412860 2.30526376  1064919166
2.21475196 5.64010906 -2.49513626  1085713392
-2.49513626 0.97412860 1.84720528  1064919166
1.75406110 5.79993629 -2.49513626  1086017290
-2.49513626 0.97412860 1.47199988  1064919166
1.37718117 5.90079021 -2.49513626  1086161568
-2.49513626 0.97412860 0.99459499  1064919166
0.89824128 5.99242306 -2.49513626  1086337538
-2.49513626 0.97412860 0.70485991  1064919166
0.60788476 6.02880335 -2.49513626  1086404020
-2.49513626 0.97412860 0.21865278  1064919166
-0.07395358 6.05892181 -2.49513626  1086436720
-2.49513626 0.97412860 -0.36638701  1064919166
-0.46370992 6.04160166 -2.49513626  1086292761
-2.49513626 0.97412860 -1.04423594  1064919166
-1.23584676 5.93200159 -2.49513626  1086092251
-2.49513626 0.97412860 -1.52079952  1064919166
-1.61502671 5.84017849 -2.49513626  1085933449
-2.49513626 0.97412860 -1.80220282  1064919166
-2.17075515 5.65718985 -2.49513626  1085453109
-2.49513626 0.97412860 -2.44134855  1064919166
-2.61862111 5.46432304 -2.49513626  1085111437
-2.49513626 0.97412860 -2.79317594  1064919166
-2.96483850 5.28447866 -2.49513626  1084722640
-2.49513626 0.97412860 4.59722376  1064927629
4.53660345 3.80206895 -2.49513626  1081604514
-2.49513626 0.97463304 4.34774971  1064927629
4.28252506 4.08613348 -2.49513626  1082454537
-2.49513626 0.97463304 4.08025599  1064927629
4.01069546 4.35325527 -2.49513626  1083005485
-2.49513626 0.97463304 3.86847043  1064927629
3.57214093 4.71977901 -2.49513626  1083759230
-2.49513626 0.97463304 3.34011126  1064927629
3.26100945 4.93987036 -2.49513626  1084210235
-2.49513626 0.97463304 3.10028982  1064927629
3.01871228 5.09154844 -2.49513626  1084617849
-2.49513626 0.97463304 2.59952331  1064927629
2.42698026 5.39872932 -2.49513626  1085144251
-2.49513626 0.97463304 1.89498174  1064927629
1.80446255 5.63741302 -2.49513626  1085623725
-2.49513626 0.97463304 1.53018844  1064927629
1.43793929 5.74184942 -2.49513626  1085952453
-2.49513626 0.97463304 0.87745750  1064927629
0.68855077 5.87898016 -2.49513626  1086126273
-2.49513626 0.97463304 0.30879217  1064927629
0.21359158 5.91530943 -2.49513626  1086155115
-2.49513626 0.97463304 -0.07224207  1064927629
-0.16751638 5.91679430 -2.49513626  1086142976
-2.49513626 0.97463304 -0.45298010  1064927629
-0.54793358 5.89374876 -2.49513626  1086081811
-2.49513626 0.97463304 -0.83183986  1064927629
-0.92607772 5.84627104 -2.49513626  1085969487
-2.49513626 0.97463304 -1.11380661  1064927629
-1.39317703 5.75287342 -2.49513626  1085757877
-2.49513626 0.97463304 -1.66929495  1064927629
-1.76050210 5.65129519 -2.49513626  1085532476
-2.49513626 0.97463304 -2.03128767  1064927629
-2.47176456 5.37837219 -2.49513626  1084936176
-2.49513626 0.97463304 -2.97896528  1064927629
4.43329811 3.71549034 -2.49513626  1081234448
-2.49513626 0.97511649 4.18500805  1064935740
4.12018156 4.05993938 -2.49513626  1082394142
-2.49513626 0.97511649 3.91936779  1064935740
3.85037231 4.31666946 -2.49513626  1083173832
-2.49513626 0.97511649 3.56460023  1064935740
3.18675160 4.82738256 -2.49513626  1084274669
-2.49513626 0.97511649 2.62366152  1064935740
2.37171364 5.27579165 -2.49513626  1085033191
-2.49513626 0.97511649 1.76337266  1064935740
1.67445552 5.53671455 -2.49513626  1085408181
-2.49513626 0.97511649 1.40519524  1064935740
1.22382629 5.65342712 -2.49513626  1085637705
-2.49513626 0.97511649 1.04119098  1064935740
0.94945836 5.70592356 -2.49513626  1085738516
-2.49513626 0.97511649 0.76527351  1064935740
0.48757011 5.76379013 -2.49513626  1085856021
-2.49513626 0.97511649 0.02252517  1064935740
-0.07059719 5.78394747 -2.49513626  1085860587
-2.49513626 0.97511649 -0.34976074  1064935740
-0.53545457 5.75954008 -2.49513626  1085800816
-2.49513626 0.97511649 -0.72059560  1064935740
-0.90498978 5.71314621 -2.49513626  1085691053
-2.49513626 0.97511649 -1.17975986  1064935740
-1.27076983 5.64306116 -2.49513626  1085433723
-2.49513626 0.97511649 -1.63128185  1064935740
-1.72041321 5.52260685 -2.49513626  1085263991
-2.49513626 0.97511649 -2.58343101  1064935740
-2.83028555 5.04465199 -2.49513626  1084224299
-2.49513626 0.97511649 4.39181376  1064943521
4.33390141 3.63218760 -2.49513626  1080878378
-2.49513626 0.97558028 4.21472120  1064943521
4.15348577 3.83719158 -2.49513626  1082000053
-2.49513626 0.97558028 3.89794374  1064943521
3.76404452 4.21988773 -2.49513626  1082962363
-2.49513626 0.97558028 3.41253281  1064943521
3.19086957 4.66838884 -2.49513626  1083638598
-2.49513626 0.97558028 3.03892779  1064943521
2.96176386 4.81699419 -2.49513626  1084038522
-2.49513626 0.97558028 2.56483674  1064943521
2.48337483 5.08018923 -2.49513626  1084478217
-2.49513626 0.97558028 2.31854010  1064943521
2.23520994 5.19416189 -2.49513626  1084848382
-2.49513626 0.97558028 1.89632046  1064943521
1.81031179 5.35707617 -2.49513626  1085092823
-2.49513626 0.97558028 1.54956686  1064943521
1.46181786 5.46247005 -2.49513626  1085290208
-2.49513626 0.97558028 1.19638872  1064943521
1.10725987 5.54521704 -2.49513626  1085406863
-2.49513626 0.97558028 0.65778601  1064943521
0.47663864 5.63456345 -2.49513626  1085584413
-2.49513626 0.97558028 -0.52344936  1064943521
-0.61402398 5.62125111 -2.49513626  1085388725
-2.49513626 0.97558028 -1.24227870  1064943521
-1.50716507 5.45013285 -2.49513626  1085005654
-2.49513626 0.97558028 -1.85477102  1064943521
-2.11050582 5.24606943 -2.49513626  1084595438
-2.49513626 0.97558028 -2.36132264  1064943521
-2.44373202 5.09937906 -2.49513626  1084176101
-2.49513626 0.97558028 4.18044472  1064950990
4.00081301 3.81733727 -2.49513626  1081632364
-2.49513626 0.97602546 3.87584496  1064950990
3.81184888 4.00604439 -2.49513626  1082396105
-2.49513626 0.97602546 3.61399531  1064950990
3.54614711 4.24304390 -2.49513626  1082874935
-2.49513626 0.97602546 3.26574492  1064950990
2.82013655 4.75661755 -2.49513626  1083811092
-2.49513626 0.97602546 2.66554379  1064950990
2.58719945 4.88722610 -2.49513626  1084241078
-2.49513626 0.97602546 2.26732922  1064950990
2.18584037 5.07943773 -2.49513626  1084466593
-2.49513626 0.97602546 1.85443628  1064950990
1.51534128 5.31811285 -2.49513626  1085076102
-2.49513626 0.97602546 0.90766966  1064950990
0.81973672 5.46869230 -2.49513626  1085259904
-2.49513626 0.97602546 0.46611091  1064950990
0.19954160 5.52618885 -2.49513626  1085336317
-2.49513626 0.97602546 -0.33436638  1064950990
-0.42318070 5.51357412 -2.49513626  1085288841
-2.49513626 0.97602546 -0.60046041  1064950990
-0.68887877 5.48671293 -2.49513626  1085165131
-2.49513626 0.97602546 -1.04053736  1064950990
-1.21484053 5.39469576 -2.49513626  1085012839
-2.49513626 0.97602546 -1.47387564  1064950990
-1.64469254 5.27954340 -2.49513626  1084756866
-2.49513626 0.97602546 -1.81380439  1064950990
-2.06389093 5.13019753 -2.49513626  1084429556
-2.49513626 0.97602546 -2.22797704  1064950990
-2.46972680 4.94762850 -2.49513626  1084033033
-2.49513626 0.97602546 -2.62772679  1064950990
4.08944178 3.54093528 -2.49513626  1080479182
-2.49513626 0.97645313 3.97332573  1064958165
3.91371799 3.73423934 -2.49513626  1081277976
-2.49513626 0.97645313 3.66529799  1064958165
3.46894979 4.15067673 -2.49513626  1082562418
-2.49513626 0.97645313 3.33352757  1064958165
3.19465184 4.36531067 -2.49513626  1083003207
-2.49513626 0.97645313 3.05246425  1064958165
2.98017430 4.51445341 -2.49513626  1083308713
-2.49513626 0.97645313 2.83329678  1064958165
2.75874376 4.65307140 -2.49513626  1083591892
-2.49513626 0.97645313 2.60751653  1064958165
2.53087831 4.78083324 -2.49513626  1083852115
-2.49513626 0.97645313 2.37565494  1064958165
2.29711199 4.89744854 -2.49513626  1084162283
-2.49513626 0.97645313 2.05798793  1064958165
1.97718549 5.03512430 -2.49513626  1084546189
-2.49513626 0.97645313 1.56591094  1064958165
1.39840972 5.22553158 -2.49513626  1084789289
-2.49513626 0.97645313 1.14449275  1064958165
1.05923426 5.30469608 -2.49513626  1084960848
-2.49513626 0.97645313 0.71566361  1064958165
0.54267883 5.38212347 -2.49513626  1085070735
-2.49513626 0.97645313 -0.06602076  1064958165
-0.15309025 5.40724707 -2.49513626  1085075005
-2.49513626 0.97645313 -0.58739048  1064958165
-0.67388326 5.36727476 -2.49513626  1084973605
-2.49513626 0.97645313 -0.93222535  1064958165
-1.01788712 5.31278419 -2.49513626  1084847728
-2.49513626 0.97645313 -1.27319801  1064958165
-1.35767031 5.23626471 -2.49513626  1084675806
-2.49513626 0.97645313 -1.60888958  1064958165
-1.85635591 5.08091450 -2.49513626  1084266418
-2.49513626 0.97645313 -2.09949279  1064958165
-2.25889635 4.91519260 -2.49513626  1083891878
-2.49513626 0.97645313 -2.49356341  1064958165
-2.57052517 4.75963783 -2.49513626  1079338297
-2.49513626 0.97686422 4.00165892  1064965062
3.94535899 3.52889824 -2.49513626  1080418973
-2.49513626 0.97686422 3.77038908  1064965062
3.71008563 3.77548170 -2.49513626  1081437185
-2.49513626 0.97686422 3.58662128  1064965062
3.52348542 3.95019603 -2.49513626  1082259576
-2.49513626 0.97686422 3.32866168  1064965062
3.19443870 4.22072792 -2.49513626  1082804413
-2.49513626 0.97686422 2.77247787  1064965062
2.62587571 4.59605885 -2.49513626  1083467863
-2.49513626 0.97686422 2.47655201  1064965062
2.17036152 4.82788944 -2.49513626  1083938603
-2.49513626 0.97686422 1.93474483  1064965062
1.53229773 5.06666040 -2.49513626  1084417736
-2.49513626 0.97686422 1.36839271  1064965062
1.20306695 5.15476561 -2.49513626  1084591366
-2.49513626 0.97686428 0.95279586  1064965063
0.78467900 5.23481369 -2.49513626  1084745086
-2.49513626 0.97686428 0.44617614  1064965062
0.36120620 5.28095770 -2.49513626  1084841846
-2.49513626 0.97686422 -0.23496503  1064965062
-0.32006544 5.28361130 -2.49513626  1084810117
-2.49513626 0.97686422 -0.65941846  1064965062
-0.82815826 5.22811031 -2.49513626  1084676587
-2.49513626 0.97686422 -1.07960093  1064965062
-1.24586868 5.14458990 -2.49513626  1084487351
-2.49513626 0.97686422 -1.49279022  1064965062
-1.65550780 5.02775097 -2.49513626  1084228525
-2.49513626 0.97686422 -1.81650758  1064965062
-1.89631307 4.94196224 -2.49513626  1083972471
-2.49513626 0.97686422 -2.13269353  1064965062
-2.36410379 4.73603201 -2.49513626  1083592906
-2.49513626 0.97686422 3.91691923  1064971698
3.86181116 3.45417070 -2.49513626  1080099947
-2.49513626 0.97725976 3.51067090  1064971698
3.44887114 3.86654496 -2.49513626  1082190301
-2.49513626 0.97725976 2.64236259  1064971698
2.57027030 4.49873209 -2.49513626  1083261904
-2.49513626 0.97725976 2.42410827  1064971698
2.35007572 4.61757755 -2.49513626  1083503675
-2.49513626 0.97725976 2.12440228  1064971698
2.04805136 4.75924015 -2.49513626  1083790526
-2.49513626 0.97725976 1.81589091  1064971698
1.57949531 4.93457890 -2.49513626  1084142373
-2.49513626 0.97725976 1.41981733  1064971698
1.33941567 5.00508118 -2.49513626  1084282101
-2.49513626 0.97725976 0.93262017  1064971698
0.85045165 5.11092949 -2.49513626  1084512079
-2.49513626 0.97725976 0.60270727  1064971698
0.18696471 5.17783070 -2.49513626  1084605424
-2.49513626 0.97725976 0.02017613  1064971698
-0.39650428 5.16601086 -2.49513626  1084560944
-2.49513626 0.97725976 -0.64545369  1064971698
-0.72813159 5.12978649 -2.49513626  1084473789
-2.49513626 0.97725976 -0.89289898  1064971698
-1.13825881 5.05462599 -2.49513626  1084166554
-2.49513626 0.97725976 -1.54101396  1064971698
-1.62044799 4.92128229 -2.49513626  1083947750
-2.49513626 0.97725976 -1.85615408  1064971698
-1.93378747 4.80680084 -2.49513626  1083755824
-2.49513626 0.97725976 -2.08753061  1064971698
-2.46208096 4.55884218 -2.49513626  1083218047
-2.49513626 0.97725976 -2.60756898  1064971698
3.93997145 3.19548297 -2.49513626  1079020344
-2.49513626 0.97764045 3.83505464  1064978085
3.61341310 3.56058121 -2.49513626  1080529437
-2.49513626 0.97764045 3.49691129  1064978085
3.43729734 3.73088121 -2.49513626  1081679470
-2.49513626 0.97764045 3.19007683  1064978085
3.12616467 3.99519587 -2.49513626  1082713596
-2.49513626 0.97764045 2.58713579  1064978085
2.51655078 4.40470839 -2.49513626  1083062930
-2.49513626 0.97764045 2.30095863  1064978085
2.22787595 4.55752611 -2.49513626  1083445109
-2.49513626 0.97764045 1.77793801  1064978085
1.70122159 4.77915525 -2.49513626  1083820574
-2.49513626 0.97764045 1.31142104  1064978085
1.23236167 4.92095184 -2.49513626  1084174545
-2.49513626 0.97764045 0.91312712  1064978085
0.75200868 5.01686525 -2.49513626  1084326828
-2.49513626 0.97764045 0.42760077  1064978085
0.18305528 5.06961393 -2.49513626  1084378375
-2.49513626 0.97764045 -0.06191401  1064978085
-0.14356707 5.07088566 -2.49513626  1084370016
-2.49513626 0.97764045 -0.46959609  1064978085
-0.71291226 5.02257347 -2.49513626  1084249492
-2.49513626 0.97764045 -0.87423611  1064978085
-0.95456755 4.98229837 -2.49513626  1084156878
-2.49513626 0.97764045 -1.11446869  1064978085
-1.27321517 4.91053915 -2.49513626  1083995654
-2.49513626 0.97764045 -1.96889114  1064978085
-2.11838222 4.60943937 -2.49513626  1083335750
-2.49513626 0.97764045 -2.26567602  1064978085
-2.41062307 4.46356201 -2.49513626  1083019993
-2.49513626 0.97764045 3.75590992  1064984237
3.70306730 3.31218290 -2.49513626  1079493758
-2.49513626 0.97800714 3.36636043  1064984237
3.30710173 3.70760822 -2.49513626  1081342540
-2.49513626 0.97800714 3.12424159  1064984237
2.99826264 3.96152639 -2.49513626  1082149892
-2.49513626 0.97800714 2.86917591  1064984237
2.80350852 4.10165882 -2.49513626  1082437161
-2.49513626 0.97800714 2.53374410  1064984237
2.46461654 4.31380653 -2.49513626  1082870569
-2.49513626 0.97800714 2.18190002  1064984237
1.89014173 4.59463024 -2.49513626  1083500079
-2.49513626 0.97800714 1.43819702  1064984237
1.36145341 4.77804422 -2.49513626  1083806775
-2.49513626 0.97800714 1.12918520  1064984237
0.89428383 4.88707733 -2.49513626  1084019625
-2.49513626 0.97800714 0.65729547  1064984237
0.57793164 4.93449497 -2.49513626  1084108384
-2.49513626 0.97800714 0.41877586  1064984237
0.33902419 4.95664454 -2.49513626  1084146758
-2.49513626 0.97800714 0.09932505  1064984237
0.01934710 4.96818972 -2.49513626  1084150678
-2.49513626 0.97800714 -0.30041137  1064984237
-0.53948194 4.93884897 -2.49513626  1084079785
-2.49513626 0.97800714 -0.69820005  1064984237
-0.93486899 4.87947607 -2.49513626  1083941938
-2.49513626 0.97800714 -1.09146976  1064984237
-1.16935599 4.82865047 -2.49513626  1083827446
-2.49513626 0.97800714 -1.40111506  1064984237
-1.47766852 4.74339056 -2.49513626  1083528224
-2.49513626 0.97800714 -1.77985466  1064984237
-1.92825830 4.57876348 -2.49513626  1083277842
-2.49513626 0.97800714 -2.29019284  1064984237
-2.43094277 4.33287239 -2.49513626  1082745263
-2.49513626 0.97800714 3.77999806  1064990166
3.73015428 3.12619448 -2.49513626  1078715595
-2.49513626 0.97836053 3.57487202  1064990166
3.41125393 3.47138214 -2.49513626  1080803813
-2.49513626 0.97836053 2.81068540  1064990166
2.61558080 4.10437250 -2.49513626  1082521446
-2.49513626 0.97836053 2.41437292  1064990166
2.34602833 4.26418591 -2.49513626  1082762518
-2.49513626 0.97836053 2.06675243  1064990166
1.70574951 4.55824041 -2.49513626  1083357495
-2.49513626 0.97836053 1.25817478  1064990166
0.95301098 4.77272463 -2.49513626  1083781831
-2.49513626 0.97836053 0.79886901  1064990166
0.72147590 4.81316948 -2.49513626  1083879250
-2.49513626 0.97836053 0.48825827  1064990166
0.41023719 4.84962130 -2.49513626  1083924754
-2.49513626 0.97836053 0.25390080  1064990166
0.17562270 4.86377335 -2.49513626  1083946503
-2.49513626 0.97836053 -0.13773790  1064990166
-0.21603972 4.86214590 -2.49513626  1083929869
-2.49513626 0.97836053 -0.45052847  1064990166
-0.83873993 4.79412746 -2.49513626  1083766217
-2.49513626 0.97836053 -0.99264348  1064990166
-1.06922042 4.74804258 -2.49513626  1083534252
-2.49513626 0.97836053 -1.44754601  1064990166
-1.67019486 4.57138681 -2.49513626  1083271090
-2.49513626 0.97836053 -1.81649566  1064990166
-1.96091413 4.45443106 -2.49513626  1083016026
