# .PCD v0.7 - Point Cloud Data file format
VERSION 0.7
FIELDS x y z intensity
SIZE 4 4 4 4
TYPE F F F F
COUNT 1 1 1 1
WIDTH 1028
HEIGHT 1
VIEWPOINT 0 0 0 1 0 0 0
POINTS 1028
DATA ascii
-2.64753628 0.90646064 21.48668098  1063783886
21.10505104 12.26231384 -2.64753628  1095690068
-2.64753628 0.90646064 20.49219513  1063783886
20.27734184 13.58738518 -2.64753628  1097051003
-2.64753628 0.90646064 19.60184860  1063783886
19.36656761 14.85676765 -2.64753628  1098665587
-2.64753628 0.90646064 18.37643433  1063783886
18.11696625 16.35734749 -2.64753628  1099245914
-2.64753628 0.90646064 17.31102943  1063783886
17.03340340 17.48286247 -2.64753628  1100103140
-2.64753628 0.90646064 15.88004684  1063783886
15.58137417 18.78851700 -2.64753628  1100471323
-2.60701084 0.90782428 14.26512051  1063824333
12.95853519 19.09147835 -2.50275636  1100635920
-2.50275636 0.91134185 11.39093685  1063865779
20.72584152 -5.11318493 -2.49513626  3231251613
-2.49513626 0.91762149 20.87886238  1063971134
20.94736481 -4.11255217 -2.49513626  3228677854
-2.49513626 0.91762149 21.06825066  1063971134
21.16755295 -2.76402831 -2.49513626  3219085547
-2.49513626 0.91762149 9.22889233  1064739801
9.03471756 -0.45049235 -1.05731916  3197868212
-1.05058730 0.96444917 8.95005131  1064759175
8.92851162 -0.01614057 -1.04359519  1040321761
-1.04565501 0.96461308 8.97154808  1064757600
9.13064575 0.56875509 -1.06928825  1070956574
-2.49513626 0.91762149 21.17740631  1063971134
20.96209717 4.03679848 -2.49513626  1084307745
-2.49513626 0.91762143 20.57232094  1063971134
20.27506447 6.68033409 -2.49513626  1088430181
-2.49513626 0.91762149 20.05088997  1063971134
19.80616570 7.96372414 -2.49513626  1091691757
-2.64753628 0.91281569 20.58612442  1063890506
20.27317047 10.10305023 -2.64753628  1093063100
-2.64753628 0.91281569 19.76490974  1063890506
19.58530426 11.37932110 -2.64753628  1094389659
-2.64753628 0.91281569 19.21109009  1063890506
19.01658249 12.30621433 -2.64753628  1095665981
-2.64753628 0.91281569 18.19034767  1063890506
17.97200203 13.78695774 -2.64753628  1097182800
-2.64753628 0.91281569 16.06448555  1063890506
15.80685425 16.22394943 -2.64753628  1099413004
-2.64753628 0.91281569 14.45937634  1063890506
14.17849064 17.66475487 -2.64753628  1100126562
-2.64753628 0.91281569 13.01936626  1063890506
12.41948700 18.94279289 -2.64753628  1100465653
-2.62437034 0.91354460 11.58985233  1063916208
11.17885113 18.97858810 -2.57449389  1100472542
-2.52895856 0.91655272 9.99010277  1063964327
19.25233078 -5.07786226 -2.49513626  3230576919
-2.49513626 0.92287099 19.53774452  1064059206
19.65049934 -3.20855832 -2.49513626  3223649894
-2.49513626 0.92287099 19.78184700  1064059206
19.81551170 -1.94485450 -2.49513626  3202402284
-1.10474789 0.96508551 8.75569725  1064771037
8.72760868 -0.15547505 -1.09388435  3162564989
-1.09086728 0.96551657 8.74537849  1064771778
8.79362774 0.40660641 -1.10316145  1057825625
-1.11129379 0.96488237 19.84984970  1064059206
19.75230598 2.50663853 -2.49513626  1077191332
-2.49513626 0.92287099 19.60923576  1064059206
19.55148315 3.76514482 -2.49513626  1083596735
-2.49513626 0.92287099 19.27056313  1064059206
19.18794441 5.31599045 -2.49513626  1086172382
-2.49513626 0.92287099 18.80855370  1064059206
18.58985138 7.13122368 -2.49513626  1089937100
-2.49513626 0.92287099 18.22616386  1064059206
18.09555244 8.30588627 -2.49513626  1091692770
-2.64753628 0.91835767 18.90892220  1063983485
18.59765816 10.02350330 -2.64753628  1092951591
-2.64753628 0.91835767 18.09514427  1063983485
17.16555786 12.31613636 -2.64753628  1095331239
-2.64753628 0.91835767 16.76260757  1063983485
16.55466843 13.12580013 -2.64753628  1096169879
-2.64753628 0.91835767 16.12611008  1063983485
15.90560722 13.90522957 -2.64753628  1097237412
-2.64753628 0.91835767 14.74315643  1063983485
14.25133896 15.59624863 -2.64753628  1099045158
-2.64753628 0.91835767 12.95899773  1063983485
12.41836548 17.09174728 -2.64753628  1099583086
-2.64753628 0.91835767 11.86501312  1063983485
11.29950523 17.85118675 -2.64753628  1100063005
-2.64753628 0.91835767 10.13432789  1063983485
9.83635807 18.69731712 -2.64753628  3231201781
-2.49513626 0.92748737 18.10989571  1064136656
18.17909431 -4.17741871 -2.49513626  3226678469
-2.49513626 0.92748731 18.40910530  1064136655
18.45483208 -2.71085787 -2.49513626  3219732226
-2.49513626 0.92748731 18.59045792  1064136656
8.64565372 -0.56992912 -1.15901232  3189487179
-1.14202142 0.96613300 8.51819992  1064786277
8.53206539 0.12113599 -1.14142179  1071685495
-2.49513626 0.92748731 18.53969383  1064136655
18.50446320 2.34827924 -2.49513626  1078916340
-2.49513626 0.92748743 18.31632805  1064136657
18.19405556 4.11166334 -2.49513626  1084185980
-2.49513626 0.92748737 17.71602821  1064136656
17.62033081 6.11993456 -2.49513626  1087752304
-2.49513626 0.92748731 17.30631447  1064136655
16.95237541 7.78116560 -2.49513626  1090573013
-2.49513626 0.92748743 16.69466591  1064136657
17.27024841 9.66790771 -2.64753628  1093405728
-2.64753628 0.92323279 16.26372528  1064065276
16.08113289 11.53807068 -2.64753628  1095789989
-2.64753628 0.92323279 14.69038677  1064065276
14.25838852 13.72691631 -2.64753628  1097673236
-2.64753628 0.92323273 12.87658024  1064065275
12.63436222 15.23491573 -2.64753628  1098315376
-2.64753628 0.92323279 11.88860035  1064065276
10.85194111 16.55189323 -2.64753628  1099286944
-2.64753628 0.92323279 10.31667423  1064065275
9.77081013 17.21223831 -2.64753628  1099702534
-2.64753628 0.92323279 17.03153801  1064205291
17.21357536 -3.37950468 -2.49513626  3224693637
-2.49513626 0.93157834 17.35593987  1064205291
17.48348427 -1.43387878 -2.49513626  3205425428
-1.20712793 0.96629244 8.39559078  1064793356
8.37819767 -0.14925039 -1.19187331  3161956110
-1.18915832 0.96678579 8.37423325  1064795015
8.39155579 0.25351310 -1.19412899  1053253863
-1.19915712 0.96651125 8.45533466  1064788683
17.46437454 1.65037096 -2.49513626  1073151750
-2.49513626 0.93157834 17.40261269  1064205291
17.32301903 2.76426744 -2.49513626  1080421269
-2.49513626 0.93157834 17.11068916  1064205291
17.04661560 4.14017725 -2.49513626  1082995421
-2.49513626 0.93157834 16.74683189  1064205291
16.66111183 5.48958445 -2.49513626  1085812025
-2.49513626 0.93157834 16.47689056  1064205291
16.16897583 6.80385494 -2.49513626  1088551381
-2.49513626 0.93157834 15.94294548  1064205291
15.82378769 7.57204580 -2.49513626  1091935664
-2.64753628 0.92755431 15.94258022  1064137779
15.78678226 9.86128902 -2.64753628  1092995218
-2.64753628 0.92755431 15.29529953  1064137779
14.94798756 11.09167576 -2.64753628  1094739817
-2.64753628 0.92755431 14.01350880  1064137779
13.81564713 12.47379017 -2.64753628  1095667073
-2.64753628 0.92755431 13.20104790  1064137779
12.55602646 13.74094963 -2.64753628  1096952843
-2.64753628 0.92755431 11.88204956  1064137779
11.65122795 14.51607990 -2.64753628  1098279538
-2.64753628 0.92755431 9.95533657  1064137779
9.70235729 15.88495350 -2.64753628  1099005863
-2.64753628 0.92755431 8.92876720  1064137779
16.19092751 -3.44871616 -2.49513626  3225121067
-2.49513626 0.93522841 8.29697037  1064798795
8.23217964 -0.01488160 -1.24080384  1039117945
-1.24255884 0.96720207 8.25758171  1064801809
8.32467747 0.51855063 -1.25717521  1059663722
-1.27486193 0.96636397 16.45368576  1064266528
16.34732437 2.60857058 -2.49513626  1077390278
-2.49513626 0.93522841 16.25546646  1064266529
16.20328903 3.39016104 -2.49513626  1080658409
-2.49513626 0.93522841 16.08649063  1064266528
15.95321178 4.41981268 -2.49513626  1083545085
-2.49513626 0.93522835 15.80359077  1064266528
15.72269821 5.18039370 -2.49513626  1086693051
-2.49513626 0.93522841 15.25828075  1064266528
14.93253899 7.14556122 -2.49513626  1089226410
-2.49513626 0.93522835 15.04463959  1064202484
14.74677944 9.54309464 -2.64753628  1093105830
-2.64753628 0.93141097 13.93674374  1064202483
13.22421932 11.56106377 -2.64753628  1094473454
-2.64753628 0.93141097 12.84744835  1064202483
12.65410614 12.18243217 -2.64753628  1095322752
-2.64753628 0.93141103 11.63978577  1064202484
11.42776203 13.33957958 -2.64753628  1096494329
-2.64753628 0.93141103 10.77435017  1064202484
10.55095768 14.04334068 -2.64753628  1097031113
-2.64753628 0.93141103 10.09612083  1064202484
9.86479187 14.53354931 -2.64753628  1097533550
-2.64753628 0.93141103 9.15588379  1064202484
15.15123653 -3.99618530 -2.49513626  3228578909
-2.49513626 0.93850493 15.27136707  1064321500
15.37585545 -3.01870823 -2.49513626  3223427811
-2.49513626 0.93850493 15.50301647  1064321500
15.53747559 -2.02886176 -2.49513626  3219379481
-2.49513626 0.93850493 8.34085274  1064794046
8.20984459 -0.54120028 -1.31014383  3201346761
-1.30319428 0.96739489 8.14000797  1064808780
8.10988522 -0.01466027 -1.29139161  1038886904
-1.29341125 0.96763563 8.13670254  1064809060
8.20204449 0.51091158 -1.30859590  1059467465
-1.32300651 0.96690750 15.54470825  1064321500
15.47361374 2.46915221 -2.49513626  1076746923
-2.49513626 0.93850493 15.38666344  1064321500
15.33727264 3.20897150 -2.49513626  1079840400
-2.49513626 0.93850493 15.22671700  1064321500
15.03167534 4.42471790 -2.49513626  1083524442
-2.49513626 0.93850493 14.80198860  1064321500
14.71781445 5.37729168 -2.49513626  1085511342
-2.49513626 0.93850493 14.53818607  1064321500
14.44277477 6.07747507 -2.49513626  1086970315
-2.49513626 0.93850493 14.02438545  1064321500
13.91073990 7.21254301 -2.49513626  1089332558
-2.49513626 0.93850493 13.67278671  1064321500
13.95860767 9.03304291 -2.64753628  1091835298
-2.64753628 0.93487382 13.66237354  1064260581
13.50898647 9.69257641 -2.64753628  1092741963
-2.64753628 0.93487388 13.02822399  1064260580
12.51742935 10.94315910 -2.64753628  1093813757
-2.64753628 0.93487388 12.16079235  1064260581
11.97778511 11.53132057 -2.64753628  1095000621
-2.64753628 0.93487388 11.01767635  1064260581
10.81698608 12.62662125 -2.64753628  1095899532
-2.64753628 0.93487388 9.98704338  1064260580
9.77303028 13.45089722 -2.64753628  1096396912
-2.64753628 0.93487388 8.66653156  1064260581
8.43833923 14.32596016 -2.64753628  1097427767
-2.64753628 0.93487388 14.49462032  1064371117
14.59379005 -2.86516786 -2.49513626  3223873101
-2.49513626 0.94146234 14.67800999  1064371117
14.71448612 -2.16143274 -2.49513626  3218620034
-2.49513626 0.94146234 14.80126762  1064371117
8.20203876 -0.67267632 -1.38067365  3204970879
-1.35472119 0.96777958 7.94545746  1064821089
7.93265486 -0.01434030 -1.33086169  1047937477
-1.33611000 0.96821511 8.00121975  1064816935
8.04708195 0.50125873 -1.35267365  1059287483
-1.37087095 0.96740180 14.78213310  1064371117
14.68656731 2.34356308 -2.49513626  1076167406
-2.49513626 0.94146234 14.60405254  1064371117
14.55717278 3.04574728 -2.49513626  1081043747
-2.49513626 0.94146234 14.33250237  1064371117
14.26712036 4.19966078 -2.49513626  1083026869
-2.49513626 0.94146234 14.12540627  1064371117
13.96922493 5.10378551 -2.49513626  1084912706
-2.49513626 0.94146234 13.79873180  1064371117
13.61409760 5.98700285 -2.49513626  1087204773
-2.49513626 0.94146234 13.31105423  1064371117
13.20319557 6.84569120 -2.49513626  1088977071
-2.49513626 0.94146234 12.35508156  1064371117
12.67300797 9.40360260 -2.64753628  1092202228
-2.64753628 0.93800002 12.04545021  1064313030
11.71300411 10.57536888 -2.64753628  1093414646
-2.64753628 0.93800002 11.01245499  1064313029
10.83018017 11.47782707 -2.64753628  1094523074
-2.64753628 0.93800002 10.26679897  1064313029
9.87799263 12.30683041 -2.64753628  1095359959
-2.64753628 0.93800002 9.27593708  1064313030
9.07044220 12.91355419 -2.64753628  1096252001
-2.64753628 0.93800002 8.00914001  1064313029
7.79050589 13.72373390 -2.64753628  1096649702
-2.64753628 0.93800002 7.34730339  1064313029
13.73870850 -3.38941860 -2.49513626  3225201647
-2.49513626 0.94414485 13.96568298  1064416122
14.00038815 -2.05653834 -2.49513626  3219817985
-2.49513626 0.94414485 14.05903435  1064416122
8.40473652 -0.82490903 -1.48910224  3207124112
-1.42265761 0.96776009 7.87318897  1064824064
7.82427740 -0.39013699 -1.38134456  3196499771
-1.37219858 0.96888560 7.76386929  1064832357
7.77365589 0.23484607 -1.37132990  1061668781
-1.46262336 0.96686959 14.06475353  1064416122
14.03804302 1.78147483 -2.49513626  1074705807
-2.49513626 0.94414485 13.93636227  1064416122
13.89531612 2.67590117 -2.49513626  1078436243
-2.49513626 0.94414485 13.75087261  1064416122
13.57473373 3.99585605 -2.49513626  1083028531
-2.49513626 0.94414485 13.21187687  1064416122
12.95340538 5.69644785 -2.49513626  1086121354
-2.49513626 0.94414485 12.76446342  1064416122
12.56244469 6.51346922 -2.49513626  1090261278
-2.49513626 0.94414485 11.49738121  1064416122
11.36388969 8.43221378 -2.49513626  1091713444
-2.64753628 0.94083619 11.61466408  1064360612
11.46088696 9.70031929 -2.64753628  1092867021
-2.64753628 0.94083619 10.81684303  1064360612
10.64879704 10.58542728 -2.64753628  1093921660
-2.64753628 0.94083619 9.21001053  1064360612
8.63025475 12.28685665 -2.64753628  1095297153
-2.64753628 0.94083619 8.03060150  1064360612
7.82652855 12.81380463 -2.64753628  1095822443
-2.64753628 0.94083619 7.20250654  1064360612
6.99073696 13.28825665 -2.64753628  3227270959
-2.49513626 0.94658887 13.10104942  1064457126
13.15109825 -3.02202296 -2.49513626  3222850140
-2.49513626 0.94658887 7.89950800  1064820919
7.73694849 -0.51002645 -1.43373775  1047326762
-1.41688204 0.96931082 7.68432856  1064836356
7.85706043 0.61579579 -1.45729768  1076943911
-2.49513626 0.94658887 13.11264706  1064457126
13.06000233 3.39416432 -2.49513626  1080464199
-2.49513626 0.94658887 12.94468307  1064457127
12.88204575 4.01707172 -2.49513626  1083026500
-2.49513626 0.94658887 12.67440319  1064457126
12.59867287 4.83295870 -2.49513626  1085133678
-2.49513626 0.94658887 12.17202377  1064457126
12.07724857 6.01864529 -2.49513626  1087167948
-2.49513626 0.94658887 11.77446365  1064457126
11.66746712 6.77895117 -2.49513626  1088348091
-2.49513626 0.94658887 11.44453621  1064457126
11.32866192 7.33112526 -2.49513626  1089494556
-2.49513626 0.94658887 10.96374702  1064457127
11.07559013 9.07400227 -2.64753628  1092191651
-2.64753628 0.94342065 10.47239399  1064403972
10.31479454 9.93031788 -2.64753628  1092714886
-2.64753628 0.94342065 9.65838432  1064403972
9.48798847 10.72307396 -2.64753628  1093987837
-2.64753628 0.94342065 8.41614628  1064403972
8.22969341 11.71658707 -2.64753628  1095186951
-2.64753628 0.94342065 6.66627264  1064403972
12.51824188 -3.08832169 -2.49513626  3224103230
-2.49513626 0.94882482 12.65203667  1064494639
12.81011200 -1.46462655 -2.49513626  3209227221
-1.55491543 0.96779376 7.80470085  1064826392
7.67133999 -0.38251114 -1.48638594  3196348284
-1.48014092 0.96931851 7.62081289  1064840307
7.62824440 0.10830373 -1.47635078  1047290674
-1.47940040 0.96933365 7.90743351  1064818994
12.79098225 1.62321699 -2.49513626  1072296606
-2.49513626 0.94882482 12.73248482  1064494639
12.69833755 2.23525476 -2.49513626  1076428289
-2.49513626 0.94882482 12.52932453  1064494639
12.47901821 3.24317002 -2.49513626  1079791972
-2.49513626 0.94882482 12.24597740  1064494639
12.17983341 4.23032713 -2.49513626  1083829170
-2.49513626 0.94882482 11.80270100  1064494639
11.71812153 5.37863350 -2.49513626  1085413477
-2.49513626 0.94882482 11.53997612  1064494639
11.44646931 5.93484974 -2.49513626  1086570680
-2.49513626 0.94882482 11.25066471  1064494639
11.04333973 6.65497732 -2.49513626  1088432366
-2.49513626 0.94882482 10.59496880  1064494639
10.47602177 7.51645136 -2.49513626  1090698608
-2.49513626 0.94882482 9.70281887  1064443645
9.38916969 9.95066357 -2.64753628  1092874196
-2.64753628 0.94578534 8.90077019  1064443645
8.73334217 10.53094482 -2.64753628  1093460354
-2.64753628 0.94578534 8.21785545  1064443645
7.86359119 11.19536877 -2.64753628  1094251840
-2.64753628 0.94578534 7.13126755  1064443645
6.75395203 11.89774895 -2.64753628  1094717869
-2.64753628 0.94578534 6.36972046  1064443645
11.98343754 -2.95638299 -2.49513626  3223621910
-2.49513626 0.95087790 12.11151600  1064529084
12.14802074 -2.18369198 -2.49513626  3221133170
-2.49513626 0.95087790 12.21168423  1064529084
12.23882580 -1.59812784 -2.49513626  3216209543
-2.49513626 0.95087790 7.95522976  1064814763
7.76881933 -0.63714677 -1.57577372  3204567069
-1.55840313 0.96903002 7.62643433  1064838814
7.61346960 -0.13562761 -1.53934002  3160491136
-1.53752756 0.96943849 7.64137840  1064837570
7.85021210 0.74183971 -1.59402490  1068353924
-2.49513626 0.95087790 12.18852520  1064529084
12.15583801 2.13976049 -2.49513626  1075142822
-2.49513626 0.95087790 12.08112812  1064529084
12.03912735 2.72071195 -2.49513626  1077571390
-2.49513626 0.95087790 11.89467335  1064529084
11.84041023 3.48533463 -2.49513626  1081553646
-2.49513626 0.95087790 11.59318447  1064529084
11.52391052 4.42066717 -2.49513626  1084539735
-2.49513626 0.95087790 10.95745087  1064529084
10.86512566 5.85593367 -2.49513626  1086385697
-2.49513626 0.95087790 10.67214775  1064529084
10.57154655 6.37066269 -2.49513626  1087804752
-2.49513626 0.95087790 9.79305077  1064529084
9.29237556 8.12370968 -2.49513626  1092415198
-2.64753628 0.94795698 8.19783878  1064480079
7.86676979 10.47067738 -2.64753628  1093368098
-2.64753628 0.94795698 7.35516644  1064480079
7.00460386 11.06601143 -2.64753628  1093850046
-2.64753628 0.94795698 6.64685965  1064480079
6.28230715 11.49146366 -2.64753628  1094283987
-2.64753628 0.94795698 11.44404125  1064560820
11.49088097 -2.83486676 -2.49513626  3223954308
-2.49513626 0.95276952 11.57571983  1064560820
11.61369133 -2.28009129 -2.49513626  3218877181
-2.49513626 0.95276952 11.75879955  1064560820
7.62876654 -0.38038826 -1.61029184  3196307917
-1.60497391 0.96935785 7.60575533  1064839378
7.71286488 0.60449445 -1.63100994  1060988544
-1.65788329 0.96836382 11.71589088  1064560820
11.68754005 1.86500239 -2.49513626  1073959129
-2.49513626 0.95276952 11.58456039  1064560820
11.54428577 2.60888696 -2.49513626  1079370914
-2.49513626 0.95276952 11.29879761  1064560820
11.05024719 4.23896742 -2.49513626  1083733579
-2.49513626 0.95276952 10.75642967  1064560820
10.67603588 5.10872793 -2.49513626  1085166652
-2.49513626 0.95276952 10.41853714  1064560820
10.13702393 6.10881138 -2.49513626  1086891512
-2.49513626 0.95276952 9.93632603  1064560820
9.72545242 6.74480581 -2.49513626  1089162525
-2.49513626 0.95276952 9.15517235  1064560820
8.91043377 7.78980160 -2.49513626  1091562296
-2.64753628 0.94995815 8.47133255  1064513653
8.32187939 9.40516663 -2.64753628  1092399918
-2.64753628 0.94995815 7.54342079  1064513653
7.05284595 10.39077759 -2.64753628  1093582258
-2.64753628 0.94995815 6.02408457  1064513653
5.84696531 11.11414814 -2.64753628  3223513897
-2.49513626 0.95451802 11.29298115  1064590155
7.89535999 -0.77491444 -1.74148262  3206658499
-1.69658554 0.96884447 7.64782810  1064834797
7.61066151 -0.37948555 -1.67273474  3196287767
-1.66727781 0.96937436 7.58080673  1064840315
11.27611828 1.43097734 -2.49513626  1073494601
-2.49513626 0.95451802 11.08696747  1064590155
11.04544735 2.68265033 -2.49513626  1077345049
-2.49513626 0.95451802 10.95393372  1064590155
10.85120010 3.38377857 -2.49513626  1080995107
-2.49513626 0.95451802 10.61249733  1064590155
10.54598713 4.24036169 -2.49513626  1082987314
-2.49513626 0.95451802 10.40487862  1064590155
10.25310898 4.90634823 -2.49513626  1084373984
-2.49513626 0.95451802 10.09083557  1064590155
10.00581264 5.39279270 -2.49513626  1085717094
-2.49513626 0.95451802 9.54270458  1064590155
9.44265270 6.32730627 -2.49513626  1087326363
-2.49513626 0.95451802 9.23532009  1064590155
9.12809467 6.77321148 -2.49513626  1088250807
-2.49513626 0.95451802 8.90665340  1064590155
8.79249573 7.20350742 -2.49513626  1089141840
-2.49513626 0.95451802 8.55745029  1064590155
8.43662071 7.61720324 -2.49513626  1089997373
-2.49513626 0.95451802 8.06131268  1064590155
7.93203354 8.14133263 -2.49513626  1090929045
-2.49513626 0.95451802 7.99221182  1064544689
7.84663010 9.15933895 -2.64753628  1091993099
-2.64753628 0.95180804 7.24459219  1064544689
6.77345085 9.97915363 -2.64753628  1092706650
-2.64753628 0.95180804 5.95406723  1064544689
5.78544188 10.58259964 -2.64753628  1093322774
-2.64753628 0.95180804 10.69204807  1064617347
10.75945759 -1.93408835 -2.49513626  3219226031
-2.49513626 0.95613879 10.83988380  1064617347
10.86114979 -1.24179435 -2.49513626  3204493407
-1.74428797 0.96913141 7.59257650  1064838010
7.56040382 -0.01366736 -1.72561443  1047151093
-1.72914886 0.96939516 7.58715010  1064838461
7.61364365 0.47425964 -1.74113095  1060931777
-1.78669381 0.96839291 10.84493160  1064617347
10.76638603 1.89517868 -2.49513626  1074023851
-2.49513626 0.95613879 10.70021820  1064617347
10.66301727 2.40972567 -2.49513626  1076886497
-2.49513626 0.95613879 10.43626213  1064617348
10.32677078 3.58671808 -2.49513626  1081088256
-2.49513626 0.95613879 10.20669365  1064617347
9.78425980 4.87594461 -2.49513626  1084618872
-2.49513626 0.95613879 9.53896236  1064617347
9.36318588 5.64247465 -2.49513626  1085887693
-2.49513626 0.95613879 9.17780876  1064617347
9.08157825 6.08535671 -2.49513626  1087106724
-2.49513626 0.95613879 8.56607723  1064617347
8.34432030 7.06250048 -2.49513626  1088831137
-2.49513626 0.95613879 8.11401558  1064617348
7.99573660 7.45485258 -2.49513626  1089904413
-2.49513626 0.95613879 7.62872839  1064617347
7.50244379 7.95110703 -2.49513626  1090592599
-2.49513626 0.95613879 7.24413967  1064617347
7.11218596 8.30202198 -2.49513626  1091615967
-2.64753628 0.95352304 7.11508942  1064573462
6.96757126 9.27384567 -2.64753628  1091970438
-2.64753628 0.95352304 6.20395374  1064573462
6.04630232 9.89916515 -2.64753628  1092894797
-2.64753628 0.95352304 10.17968750  1064642622
10.22135162 -2.52166629 -2.49513626  3222036039
-2.49513626 0.95764530 10.36173534  1064642622
10.41603851 -1.53002727 -2.49513626  3209054142
-1.87929666 0.96792936 7.61417770  1064835111
7.55617285 -0.13460691 -1.79112899  3160382716
-1.78934705 0.96944070 7.57553339  1064838258
7.65674257 0.60009575 -1.82024550  1060954022
-1.85861540 0.96827668 10.44404984  1064642622
10.39628506 1.65895426 -2.49513626  1072274846
-2.49513626 0.95764530 10.33786583  1064642622
10.26885700 2.32065296 -2.49513626  1078498529
-2.49513626 0.95764530 9.99904251  1064642622
9.94503784 3.45413232 -2.49513626  1081826199
-2.49513626 0.95764530 9.70368958  1064642622
9.63709927 4.23805714 -2.49513626  1082951978
-2.49513626 0.95764530 9.49652958  1064642622
9.34623051 4.84590340 -2.49513626  1084526502
-2.49513626 0.95764530 9.10288048  1064642622
8.92895412 5.57751131 -2.49513626  1085736892
-2.49513626 0.95764530 8.45453167  1064642622
8.24943066 6.54077435 -2.49513626  1087733938
-2.49513626 0.95764530 8.03587532  1064642622
7.92599535 6.92917299 -2.49513626  1088537511
-2.49513626 0.95764530 7.70017481  1064642622
7.34672880 7.54058266 -2.49513626  1089800114
-2.49513626 0.95764530 7.10164833  1064642622
6.84928131 7.99513483 -2.49513626  1090627808
-2.49513626 0.95764530 6.58989668  1064642622
6.45765495 8.31465626 -2.49513626  1090956233
-2.49513626 0.95764530 6.27363634  1064600208
5.82279873 9.53323936 -2.64753628  1092317043
-2.64753628 0.95511723 9.85559750  1064666174
9.99095821 -1.79594553 -2.49513626  3218170515
-2.49513626 0.95904911 10.04331875  1064666174
10.06564140 -1.31435657 -2.49513626  3209030052
-1.94542658 0.96792459 7.67742777  1064829232
7.58231688 -0.37807220 -1.86604702  3196257295
-1.86030996 0.96930623 7.55682135  1064838955
7.55975199 -0.01366618 -1.85818827  1051942509
-1.86430120 0.96924138 7.66070032  1064830505
7.82584763 0.73953706 -1.93216169  1067684901
-2.49513626 0.95904911 10.04858398  1064666174
10.02426910 1.59959054 -2.49513626  1071727003
-2.49513626 0.95904911 9.96794415  1064666174
9.90140343 2.23761296 -2.49513626  1076720839
-2.49513626 0.95904911 9.69084549  1064666174
9.47766972 3.63571453 -2.49513626  1081866907
-2.49513626 0.95904911 8.93586159  1064666174
8.85763931 4.95851755 -2.49513626  1084729757
-2.49513626 0.95904911 8.60944462  1064666174
8.43292236 5.65070772 -2.49513626  1086152129
-2.49513626 0.95904911 8.15200043  1064666174
8.05415058 6.17861843 -2.49513626  1086967983
-2.49513626 0.95904911 7.85228729  1064666174
7.74832296 6.55806065 -2.49513626  1087753368
-2.49513626 0.95904911 7.53446960  1064666174
7.42463779 6.92238712 -2.49513626  1088506443
-2.49513626 0.95904911 7.19929552  1064666174
7.08383894 7.27075672 -2.49513626  1089225500
-2.49513626 0.95904911 6.84752607  1064666174
6.72672033 7.60236073 -2.49513626  1089908860
-2.49513626 0.95904911 6.22657824  1064666174
6.09747839 8.11575317 -2.49513626  1090741649
-2.49513626 0.95904911 5.83462715  1064666174
5.70093679 8.39904690 -2.49513626  1091673604
-2.64753628 0.95660293 5.46660709  1064625134
5.31737852 9.36708450 -2.64753628  1092040507
-2.64753628 0.95660293 9.47499084  1064688171
9.51377010 -2.34710193 -2.49513626  3220284121
-2.49513626 0.96036023 9.67094803  1064688171
9.73559093 -1.11310542 -2.49513626  3204486510
-1.94435859 0.96897298 7.58488607  1064835465
7.56472158 -0.25591242 -1.92731690  1037829743
-1.92698753 0.96924585 7.57807350  1064836011
7.81991196 0.73897636 -2.00006533  1066006694
-2.49513626 0.96036029 9.62221718  1064688172
9.59133053 2.00676322 -2.49513626  1074412932
-2.49513626 0.96036029 9.40022087  1064688172
9.25658417 3.21501946 -2.49513626  1079457601
-2.49513626 0.96036023 9.09161377  1064688171
9.03194618 3.80061507 -2.49513626  1082612199
-2.49513626 0.96036029 8.77030087  1064688172
8.69923115 4.51044226 -2.49513626  1083779924
-2.49513626 0.96036023 8.31083870  1064688172
7.96169901 5.71244812 -2.49513626  1085987373
-2.49513626 0.96036029 7.77480412  1064688172
7.27314854 6.56673813 -2.49513626  1088229455
-2.49513626 0.96036029 6.72494984  1064688171
6.37513351 7.44166565 -2.49513626  1089560101
-2.49513626 0.96036029 6.01061773  1064688172
5.88599348 7.83427191 -2.49513626  1090538571
-2.49513626 0.96036029 5.50320959  1064688172
5.37275028 8.19476986 -2.49513626  1090812333
-2.49513626 0.96036023 5.10773468  1064688172
4.97324705 8.44319534 -2.49513626  1091611867
-2.64753628 0.95799071 4.98758602  1064648417
4.84093904 9.20184231 -2.64753628  3220996585
-2.49513626 0.96158755 9.36866665  1064708762
7.63569546 -0.50335187 -2.01637435  3200376923
-2.00355911 0.96903682 7.57502508  1064835372
7.57991028 -0.01370263 -1.99731100  1037853774
-1.99741781 0.96913022 7.58710289  1064834306
7.62009144 0.47466135 -2.01178741  1061044466
-2.08149815 0.96785188 9.37357998  1064708762
9.35089684 1.49214113 -2.49513626  1070735349
-2.49513626 0.96158755 9.26850605  1064708762
9.20169640 2.23485160 -2.49513626  1075957240
-2.49513626 0.96158755 9.08382797  1064708762
9.03987122 2.81894612 -2.49513626  1077782016
-2.49513626 0.96158755 8.94502640  1064708762
8.60593700 3.95013857 -2.49513626  1082313646
-2.49513626 0.96158755 8.40643215  1064708762
8.33560181 4.49260521 -2.49513626  1083718132
-2.49513626 0.96158755 7.94979715  1064708762
7.69372225 5.52017832 -2.49513626  1085575213
-2.49513626 0.96158755 7.51311827  1064708762
7.32481432 6.00107002 -2.49513626  1086571210
-2.49513626 0.96158755 7.12900496  1064708762
7.02834845 6.34571314 -2.49513626  1087283934
-2.49513626 0.96158755 6.82166481  1064708762
6.60798550 6.78234911 -2.49513626  1088185392
-2.49513626 0.96158755 6.38754892  1064708762
6.27485704 7.09167910 -2.49513626  1089027683
-2.49513626 0.96158755 5.92725515  1064708762
5.80831289 7.47858524 -2.49513626  1089618489
-2.49513626 0.96158755 5.56599951  1064708762
5.06451702 8.00102806 -2.49513626  1090685778
-2.49513626 0.96158755 4.67466402  1064708762
4.54227638 8.30863953 -2.49513626  1090917780
-2.49513626 0.96158755 8.85667133  1064728075
9.03984261 -1.47603714 -2.49513626  3213176322
-2.49513626 0.96273869 7.91710424  1064808926
7.61246920 -0.37957594 -2.07627463  3196287872
-2.06903505 0.96900213 7.58832788  1064833630
7.59202337 0.10778950 -2.06833696  1047190406
-2.06902027 0.96900237 7.60499239  1064831960
9.08667564 1.15312982 -2.49513626  1067856413
-2.49513626 0.96273869 9.02085876  1064728075
8.96542072 1.87580550 -2.49513626  1073821712
-2.49513626 0.96273869 8.82705116  1064728075
8.69950485 2.86635685 -2.49513626  1078537186
-2.49513626 0.96273869 8.49831200  1064728075
8.38460350 3.68725467 -2.49513626  1082309578
-2.49513626 0.96273869 8.06302166  1064728075
7.76848936 4.85262585 -2.49513626  1084177945
-2.49513626 0.96273869 7.60920858  1064728075
7.44213486 5.33966732 -2.49513626  1085433669
-2.49513626 0.96273869 7.17728233  1064728075
7.08528852 5.80483150 -2.49513626  1086151682
-2.49513626 0.96273869 6.89588261  1064728075
6.79851627 6.13820744 -2.49513626  1086841101
-2.49513626 0.96273869 6.59859371  1064728075
6.06966543 6.85977840 -2.49513626  1088329696
-2.49513626 0.96273869 5.84701538  1064728075
5.50188780 7.32301903 -2.49513626  1089806000
-2.49513626 0.96273869 4.89890289  1064728074
4.39374304 8.03694057 -2.49513626  3222323042
-2.49513626 0.96382046 8.70211792  1064746224
8.75233746 -1.42909300 -2.49513626  3215259818
-2.49513626 0.96382040 8.81084156  1064746223
8.33380699 -0.81794709 -2.35603595  3200443876
-2.15060520 0.96873719 7.60646772  1064830934
7.59680271 -0.01373316 -2.13741088  1056208518
-2.16081262 0.96859109 7.74203110  1064820471
8.81442928 0.97551608 -2.49513626  1073362937
-2.49513626 0.96382046 8.58311749  1064746223
8.50732803 2.50421238 -2.49513626  1076993227
-2.49513626 0.96382046 8.37733841  1064746223
8.32970047 3.04333663 -2.49513626  1078675366
-2.49513626 0.96382040 8.05976582  1064746224
7.87292242 4.08201170 -2.49513626  1082565557
-2.49513626 0.96382046 7.73824978  1064746224
7.52142096 4.69829130 -2.49513626  1084340551
-2.49513626 0.96382046 7.12178564  1064746224
7.03630304 5.39779234 -2.49513626  1085296522
-2.49513626 0.96382040 6.85994959  1064746224
6.76912451 5.72928286 -2.49513626  1085982651
-2.49513626 0.96382046 6.58229733  1064746223
6.48634434 6.04756784 -2.49513626  1086853330
-2.49513626 0.96382040 5.98216486  1064746224
5.76958227 6.73480701 -2.49513626  1088430195
-2.49513626 0.96382046 5.09727192  1064746224
4.86241245 7.41637850 -2.49513626  1090060468
-2.49513626 0.96382040 8.30947781  1064763310
8.34348965 -2.05838704 -2.49513626  3218336161
-2.49513626 0.96483886 8.45808125  1064763310
8.50240612 -1.24893105 -2.49513626  3212437280
-2.49513626 0.96483886 8.46993256  1064769735
8.58298397 -0.42796782 -2.49513626  3197420429
-2.49513626 0.96483886 8.59363270  1064763310
8.59278202 0.12199801 -2.49513626  1048894776
-2.49513626 0.96483886 8.55553055  1064763310
8.54149532 0.94530952 -2.49513626  1066040125
-2.49513626 0.96483886 8.50686741  1064763310
8.48628139 1.35417140 -2.49513626  1071727822
-2.49513626 0.96483886 8.38226604  1064763310
8.35087585 2.02820945 -2.49513626  1074419609
-2.49513626 0.96483886 8.28168964  1064763310
8.20401573 2.55829740 -2.49513626  1077179228
-2.49513626 0.96483886 8.02354527  1064763310
7.62914371 3.95561647 -2.49513626  1082545142
-2.49513626 0.96483886 7.36045742  1064763310
7.28852749 4.55281496 -2.49513626  1083533169
-2.49513626 0.96483886 7.13908815  1064763310
7.06161833 4.89738178 -2.49513626  1084248061
-2.49513626 0.96483886 6.81843042  1064763310
6.73384666 5.33910561 -2.49513626  1085384958
-2.49513626 0.96483886 6.37848330  1064763310
6.19091272 5.96015120 -2.49513626  1086447342
-2.49513626 0.96483886 5.79693460  1064763310
5.59093332 6.52627182 -2.49513626  1087796645
-2.49513626 0.96483886 5.27125740  1064763310
5.05134916 6.95231104 -2.49513626  1089414798
-2.49513626 0.96483886 4.00108004  1064763310
8.05874348 -2.12551832 -2.49513626  3220105772
-2.49513626 0.96579927 8.17821407  1064779423
8.22541046 -1.34305584 -2.49513626  3214608917
-2.49513626 0.96579927 8.26417828  1064779423
8.28039265 -0.94672722 -2.49513626  3201597943
-2.49513626 0.96579927 8.33301544  1064779423
8.33349609 0.11831655 -2.49513626  1048632009
-2.49513626 0.96579927 8.32544136  1064779423
8.31821442 0.51814753 -2.49513626  1059501410
-2.49513626 0.96579927 8.29736996  1064779423
8.28375912 0.91678542 -2.49513626  1069084952
-2.49513626 0.96579927 8.18396568  1064779423
8.15769482 1.70680797 -2.49513626  1072375690
-2.49513626 0.96579927 8.09889126  1064779423
8.03179073 2.22519565 -2.49513626  1075759710
-2.49513626 0.96579927 7.91573715  1064779423
7.87298393 2.73446369 -2.49513626  1077349397
-2.49513626 0.96579927 7.73267031  1064779423
7.68192101 3.23252892 -2.49513626  1079425336
-2.49513626 0.96579927 7.45938778  1064779423
7.33659697 3.95417690 -2.49513626  1082279511
-2.49513626 0.96579927 7.20629025  1064779423
7.13835859 4.30174303 -2.49513626  1083237715
-2.49513626 0.96579927 6.92366886  1064779423
6.84853363 4.74960613 -2.49513626  1083931044
-2.49513626 0.96579927 6.69302464  1064779423
6.61268663 5.07282257 -2.49513626  1085033630
-2.49513626 0.96579927 6.27460861  1064779423
6.18601561 5.58519316 -2.49513626  1085660939
-2.49513626 0.96579927 5.81603384  1064779423
5.71975756 6.06181002 -2.49513626  1086831735
-2.49513626 0.96579927 5.21688700  1064779423
5.11219978 6.58229351 -2.49513626  1087881930
-2.49513626 0.96579927 4.79039335  1064779423
4.34427357 7.11255646 -2.49513626  1088801833
-2.49513626 0.96579927 4.11441660  1064779423
3.99789476 7.31286478 -2.49513626  3221489543
-2.49513626 0.96670640 7.85356808  1064794642
7.88356972 -1.81158495 -2.49513626  3218584615
-2.49513626 0.96670640 7.98331642  1064794642
8.00315571 -1.17559516 -2.49513626  3213234176
-2.49513626 0.96670640 8.03667831  1064794642
8.05035400 -0.79012686 -2.49513626  3196847954
-2.49513626 0.96670640 8.05315876  1064794642
8.03994751 0.88980210 -2.49513626  1065507220
-2.49513626 0.96670640 8.00735188  1064794642
7.91759300 1.65657222 -2.49513626  1075970481
-2.49513626 0.96670640 7.64126158  1064794642
7.59780884 2.77593064 -2.49513626  1078512373
-2.49513626 0.96670640 7.35159588  1064794642
7.29665184 3.49161339 -2.49513626  1080486023
-2.49513626 0.96670640 7.18116856  1064794642
6.99418974 4.06371641 -2.49513626  1083184976
-2.49513626 0.96670640 6.64696598  1064794642
6.25720024 5.12639570 -2.49513626  1085110078
-2.49513626 0.96670640 5.91642237  1064794642
5.73685789 5.70271587 -2.49513626  1086264934
-2.49513626 0.96670640 5.36027956  1064794642
5.26263952 6.14305592 -2.49513626  1086799726
-2.49513626 0.96670640 5.06334114  1064794642
4.75473881 6.54407835 -2.49513626  1087623575
-2.49513626 0.96670640 4.54287052  1064794642
4.43517780 6.76473904 -2.49513626  3221240916
-2.49513626 0.96756452 7.62790442  1064809038
7.68422174 -1.63676345 -2.49513626  3217145054
-2.49513626 0.96756452 7.77319336  1064809038
7.80575132 -0.89245969 -2.49513626  3206833812
-2.49513626 0.96756446 7.84685755  1064809039
7.85535860 -0.13993664 -2.49513626  3160978140
-2.49513626 0.96756452 7.84140778  1064809039
7.77726984 1.11370599 -2.49513626  1068390203
-2.49513626 0.96756452 7.71485376  1064809039
7.69008875 1.60897243 -2.49513626  1072519252
-2.49513626 0.96756452 7.60400438  1064809039
7.53685951 2.21854734 -2.49513626  1075665404
-2.49513626 0.96756452 7.42169762  1064809039
7.33540010 2.81392026 -2.49513626  1077646539
-2.49513626 0.96756452 7.24158716  1064809039
7.08699036 3.39128685 -2.49513626  1080987558
-2.49513626 0.96756452 6.79321957  1064809039
6.52679920 4.37346029 -2.49513626  1083346985
-2.49513626 0.96756452 6.23364019  1064809039
6.15631390 4.88119507 -2.49513626  1084386382
-2.49513626 0.96756452 5.91494226  1064809039
5.83142757 5.26504803 -2.49513626  1084977725
-2.49513626 0.96756452 5.65994549  1064809038
5.57201481 5.53885603 -2.49513626  1085725669
-2.49513626 0.96756446 5.20625830  1064809038
5.01527834 6.04758167 -2.49513626  1086754634
-2.49513626 0.96756446 4.30773735  1064809039
3.98742676 6.76954126 -2.49513626  1088323570
-2.49513626 0.96756452 7.44207096  1064822677
7.49299002 -1.47108293 -2.49513626  3215781076
-2.49513626 0.96837741 7.57175159  1064822677
7.58660460 -0.86740398 -2.49513626  3206531328
-2.49513626 0.96837741 7.63601923  1064822677
7.63526106 0.10840329 -2.49513626  1056116803
-2.49513626 0.96837741 7.55892134  1064822677
7.54063082 1.20327246 -2.49513626  1068069428
-2.49513626 0.96837741 7.47418880  1064822677
7.42031097 1.80220032 -2.49513626  1073076800
-2.49513626 0.96837741 7.32526398  1064822677
7.28981733 2.27321815 -2.49513626  1075861426
-2.49513626 0.96837741 7.12945747  1064822677
7.03827810 2.96168900 -2.49513626  1079638555
-2.49513626 0.96837741 6.77900600  1064822677
6.72188711 3.62287045 -2.49513626  1080997903
-2.49513626 0.96837741 6.60249853  1064822677
6.47634506 4.04548120 -2.49513626  1082442087
-2.49513626 0.96837741 6.27471828  1064822677
6.20427227 4.45151329 -2.49513626  1083890583
-2.49513626 0.96837741 5.74888039  1064822677
5.66770840 5.11722898 -2.49513626  1084662277
-2.49513626 0.96837741 5.50103998  1064822677
5.41557837 5.38335133 -2.49513626  1086230477
-2.49513626 0.96837741 4.68386555  1064822677
4.48846102 6.17759609 -2.49513626  1086991791
-2.49513626 0.96837741 3.98027945  1064822677
3.55522704 6.75790882 -2.49513626  3220335989
-2.49513626 0.96914852 7.26345444  1064835614
7.34755230 -1.07929301 -2.49513626  3210212754
-2.49513626 0.96914852 7.39088345  1064835614
7.41031313 -0.48849428 -2.49513626  3196096200
-2.49513626 0.96914852 7.40369511  1064835614
7.36731005 0.93493670 -2.49513626  1065795483
-2.49513626 0.96914852 7.31394958  1064835614
7.18762732 1.86799359 -2.49513626  1073597404
-2.49513626 0.96914852 7.12416172  1064835614
7.08969021 2.21081161 -2.49513626  1075100738
-2.49513626 0.96914852 6.93373108  1064835614
6.89027739 2.77046585 -2.49513626  1078798434
-2.49513626 0.96914852 6.64676332  1064835614
6.59290075 3.41833639 -2.49513626  1080131468
-2.49513626 0.96914852 6.29854822  1064835614
6.03394556 4.32930326 -2.49513626  1083022383
-2.49513626 0.96914852 5.81921053  1064835614
5.74462223 4.70645046 -2.49513626  1083803507
-2.49513626 0.96914852 5.51211357  1064835614
5.43176270 5.06432343 -2.49513626  1084721590
-2.49513626 0.96914852 4.92117596  1064835614
4.83153248 5.63982773 -2.49513626  1085730052
-2.49513626 0.96914852 4.55527830  1064835614
4.36523962 6.00800276 -2.49513626  1086628037
-2.49513626 0.96914852 3.97194242  1064835614
3.87101030 6.33771944 -2.49513626  1087161200
-2.49513626 0.96914852 3.66619349  1064835614
3.56236553 6.51620388 -2.49513626  3219909164
-2.49513626 0.96988094 7.04331970  1064847902
7.09150982 -1.39226103 -2.49513626  3214217572
-2.49513626 0.96988094 7.15015841  1064847902
7.16605186 -0.93573242 -2.49513626  3209832533
-2.49513626 0.96988094 7.19232893  1064847902
7.21792078 -0.35990253 -2.49513626  3195680064
-2.49513626 0.96988094 7.22574186  1064847902
7.22687531 -0.01306442 -2.49513626  1046443829
-2.49513626 0.96988094 7.21917343  1064847902
7.21290684 0.44929764 -2.49513626  1058049663
-2.49513626 0.96988094 7.18302965  1064847902
7.16938829 0.90982008 -2.49513626  1066517556
-2.49513626 0.96988094 7.04912519  1064847902
7.02272749 1.70563686 -2.49513626  1072213497
-2.49513626 0.96988094 6.93277168  1064847902
6.82683659 2.37111592 -2.49513626  1075755362
-2.49513626 0.96988094 6.51895666  1064847902
6.46819878 3.22339845 -2.49513626  1079305588
-2.49513626 0.96988094 6.36172390  1064847902
6.30603695 3.53012753 -2.49513626  1081412037
-2.49513626 0.96988094 6.00366640  1064847902
5.93851471 4.11848736 -2.49513626  1082966683
-2.49513626 0.96988094 5.66287756  1064847902
5.59029484 4.58001089 -2.49513626  1083717088
-2.49513626 0.96988094 5.36403179  1064847902
5.20629120 5.01222754 -2.49513626  1084426617
-2.49513626 0.96988094 5.04321194  1064847902
4.95972824 5.25632906 -2.49513626  1085407983
-2.49513626 0.96988094 4.34099102  1064847902
4.15385771 5.91382837 -2.49513626  1086416459
-2.49513626 0.96988094 3.86523652  1064847902
3.76701474 6.16745424 -2.49513626  1087040169
-2.49513626 0.96988094 6.88235998  1064859587
6.94478846 -1.13395405 -2.49513626  3205709510
-2.49513626 0.97057742 7.03273201  1064859587
7.03674412 -0.01272071 -2.49513626  1054866675
-2.49513626 0.97057742 7.01524258  1064859587
7.00554609 0.66201931 -2.49513626  1063438652
-2.49513626 0.97057742 6.94884300  1064859587
6.90979528 1.33065987 -2.49513626  1069053205
-2.49513626 0.97057742 6.83796692  1064859587
6.81051254 1.76998436 -2.49513626  1072724728
-2.49513626 0.97057742 6.68332863  1064859587
6.64723110 2.30873251 -2.49513626  1075481698
-2.49513626 0.97057742 6.56993866  1064859587
6.48591518 2.72925496 -2.49513626  1077665293
-2.49513626 0.97057742 6.29802799  1064859587
6.24699068 3.23898864 -2.49513626  1079356100
-2.49513626 0.97057742 6.14013147  1064859587
5.96808386 3.72799277 -2.49513626  1081388157
-2.49513626 0.97057742 5.84571648  1064859587
5.78228092 4.01013327 -2.49513626  1082344672
-2.49513626 0.97057742 5.65098143  1064859587
5.51389265 4.37183285 -2.49513626  1083805241
-2.49513626 0.97057742 4.74671841  1064859587
4.57803679 5.34392405 -2.49513626  1085396725
-2.49513626 0.97057742 4.13620758  1064859587
3.95190096 5.82223511 -2.49513626  1086083005
-2.49513626 0.97057742 3.76354599  1064859587
3.66790795 6.00519657 -2.49513626  1086575361
-2.49513626 0.97057742 6.62864685  1064870711
6.70491600 -1.42816818 -2.49513626  3215526932
-2.49513626 0.97124046 6.74719000  1064870711
6.76573706 -1.10471857 -2.49513626  3212774770
-2.49513626 0.97124046 6.81095886  1064870712
6.82254887 -0.66962022 -2.49513626  3202801767
-2.49513626 0.97124046 6.85141420  1064870711
6.85532331 -0.01239275 -2.49513626  1054488224
-2.49513626 0.97124046 6.82492781  1064870711
6.81373215 0.75409293 -2.49513626  1063055462
-2.49513626 0.97124046 6.78610802  1064870711
6.76968384 1.08025157 -2.49513626  1066934083
-2.49513626 0.97124052 6.73164701  1064870711
6.66166687 1.61794496 -2.49513626  1071429514
-2.49513626 0.97124046 6.57633638  1064870712
6.47585201 2.24920797 -2.49513626  1075220566
-2.49513626 0.97124046 6.36043739  1064870711
6.27533388 2.75967026 -2.49513626  1077347861
-2.49513626 0.97124052 5.87159348  1064870711
5.63320065 3.90674305 -2.49513626  1082673843
-2.49513626 0.97124046 5.30288029  1064870712
5.23267221 4.42885303 -2.49513626  1083204234
-2.49513626 0.97124046 5.08824921  1064870712
4.86189604 4.83296299 -2.49513626  1084354967
-2.49513626 0.97124046 4.54275370  1064870711
4.46000528 5.20614624 -2.49513626  1084953648
-2.49513626 0.97124052 3.94029570  1064870711
3.85001063 5.67212391 -2.49513626  1086010933
-2.49513626 0.97124052 3.47925258  1064870712
3.38427687 5.96173382 -2.49513626  1086356466
-2.49513626 0.97124052 6.46105337  1064881315
6.53539801 -1.39206016 -2.49513626  3210574997
-2.49513626 0.97187251 6.63875818  1064881315
6.65005589 -0.65269041 -2.49513626  3205223028
-2.49513626 0.97187251 6.67371798  1064881315
6.67487717 0.30863777 -2.49513626  1064467422
-2.49513626 0.97187251 6.59852791  1064881315
6.54038763 1.36842299 -2.49513626  1069320357
-2.49513626 0.97187251 6.49324226  1064881315
6.41006947 1.88686490 -2.49513626  1073651305
-2.49513626 0.97187251 6.34640074  1064881315
6.19962549 2.49276614 -2.49513626  1076635466
-2.49513626 0.97187251 6.02745390  1064881315
5.83058596 3.26397181 -2.49513626  1079818949
-2.49513626 0.97187251 5.60983181  1064881315
5.55101490 3.71960807 -2.49513626  1081691512
-2.49513626 0.97187251 5.16880798  1064881315
5.10037518 4.31687689 -2.49513626  1083132658
-2.49513626 0.97187251 4.81375790  1064881315
4.73897314 4.71077299 -2.49513626  1083934033
-2.49513626 0.97187251 4.42789888  1064881315
4.26547241 5.14344215 -2.49513626  1084809162
-2.49513626 0.97187251 3.92768693  1064881315
3.84067249 5.46794987 -2.49513626  1085336379
-2.49513626 0.97187251 3.66371107  1064881315
3.48299742 5.70245266 -2.49513626  1085816105
-2.49513626 0.97187251 3.20528960  1064881315
6.32655191 -1.56079662 -2.49513626  3216690151
-2.49513626 0.97247547 6.37326145  1064891431
6.41344213 -1.15286148 -2.49513626  3213256914
-2.49513626 0.97247547 6.46138287  1064891431
6.49443245 -0.53262997 -2.49513626  3202053331
-2.49513626 0.97247547 6.51251030  1064891431
6.51557922 0.09250619 -2.49513626  1050286631
-2.49513626 0.97247547 6.46439123  1064891431
6.41756821 1.12966728 -2.49513626  1069013825
-2.49513626 0.97247547 6.27968979  1064891431
6.25104237 1.84005463 -2.49513626  1073237324
-2.49513626 0.97247547 6.08394957  1064891431
6.04582071 2.43092346 -2.49513626  1076355575
-2.49513626 0.97247547 5.87791920  1064891431
5.68593693 3.18299484 -2.49513626  1079083622
-2.49513626 0.97247547 5.47065830  1064891431
5.41330004 3.62732911 -2.49513626  1081286177
-2.49513626 0.97247547 5.23296928  1064891431
5.17015791 3.96620822 -2.49513626  1082232021
-2.49513626 0.97247547 4.90582991  1064891431
4.76605749 4.44365120 -2.49513626  1083219598
-2.49513626 0.97247547 4.54729128  1064891431
4.31804752 4.88014317 -2.49513626  1084260800
-2.49513626 0.97247547 4.07884502  1064891431
3.74538922 5.33229589 -2.49513626  1085048732
-2.49513626 0.97247547 3.30715322  1064891431
3.21687341 5.66683817 -2.49513626  1085835860
-2.49513626 0.97247547 6.14727879  1064901092
6.17243958 -1.52277613 -2.49513626  3215558598
-2.49513626 0.97305137 6.23841190  1064901092
6.27441311 -1.02449441 -2.49513626  3211560928
-2.49513626 0.97305131 6.31635284  1064901093
6.32710123 -0.62099302 -2.49513626  3204778018
-2.49513626 0.97305131 6.34373522  1064901092
6.34961557 -0.31660679 -2.49513626  1035523659
-2.49513626 0.97305131 6.35460424  1064901092
6.35071898 0.29364851 -2.49513626  1056855371
-2.49513626 0.97305131 6.31892300  1064901092
6.30692196 0.80036896 -2.49513626  1067049495
-2.49513626 0.97305131 6.20112610  1064901092
6.15310049 1.59912932 -2.49513626  1071203410
-2.49513626 0.97305137 6.09877014  1064901092
6.00558043 2.08587193 -2.49513626  1074504000
-2.49513626 0.97305131 5.93574810  1064901092
5.89854670 2.37170768 -2.49513626  1075695540
-2.49513626 0.97305137 5.81962252  1064901092
5.73473787 2.74420214 -2.49513626  1077246704
-2.49513626 0.97305131 5.59642029  1064901092
5.54743099 3.10545802 -2.49513626  1078749156
-2.49513626 0.97305131 5.44520330  1064901092
5.28143549 3.53896904 -2.49513626  1080549337
-2.49513626 0.97305131 4.91779137  1064901092
4.71874523 4.26043272 -2.49513626  1082833828
-2.49513626 0.97305131 4.50882912  1064901092
4.36307859 4.62400103 -2.49513626  1083726921
-2.49513626 0.97305131 4.13612223  1064901093
3.97948599 4.95797682 -2.49513626  1084271689
-2.49513626 0.97305131 3.73694277  1064901092
3.65415335 5.20240545 -2.49513626  1084891726
-2.49513626 0.97305131 3.13851094  1064901093
2.95996332 5.62641048 -2.49513626  3217723749
-2.49513626 0.97360182 6.08911610  1064910328
6.12425661 -0.99997669 -2.49513626  3207885720
-2.49513626 0.97360182 6.17568398  1064910328
6.19765902 -0.30902985 -2.49513626  3193362240
-2.49513626 0.97360182 6.20437431  1064910328
6.20534754 -0.01121775 -2.49513626  1035233813
-2.49513626 0.97360182 6.20252848  1064910328
6.19873571 0.28662175 -2.49513626  1053132307
-2.49513626 0.97360182 6.17783546  1064910328
6.16770124 0.68259495 -2.49513626  1061682617
-2.49513626 0.97360182 6.14269638  1064910328
6.12783194 0.97782874 -2.49513626  1067624928
-2.49513626 0.97360182 6.05272245  1064910328
5.95281649 1.75226843 -2.49513626  1073254290
-2.49513626 0.97360182 5.75738573  1064910328
5.63964462 2.58860493 -2.49513626  1076962080
-2.49513626 0.97360182 5.36546803  1064910328
5.20966244 3.37133288 -2.49513626  1079841501
-2.49513626 0.97360182 4.92349815  1064910328
4.80009890 3.93262219 -2.49513626  1082149179
-2.49513626 0.97360182 4.67178059  1064910328
4.60581827 4.15847349 -2.49513626  1082767431
-2.49513626 0.97360182 4.18588972  1064910328
4.11204147 4.64732122 -2.49513626  1083758961
-2.49513626 0.97360182 3.80630493  1064910328
3.56670427 5.07790375 -2.49513626  1084509298
-2.49513626 0.97360182 3.31888032  1064910328
3.23454213 5.29567671 -2.49513626  1085059068
-2.49513626 0.97360182 2.97664547  1064910328
5.85900545 -1.54533064 -2.49513626  3215037581
