# .PCD v0.7 - Point Cloud Data file format
VERSION 0.7
FIELDS x y z intensity
SIZE 4 4 4 4
TYPE F F F F
COUNT 1 1 1 1
WIDTH 1036
HEIGHT 1
VIEWPOINT 0 0 0 1 0 0 0
POINTS 1036
DATA ascii
14.21844864 4.36160755 -2.49513626  1083366876
-2.49513626 0.94146234 13.99167061  1064371117
13.73235416 5.71051550 -2.49513626  1086179024
-2.49513626 0.94146234 13.54171276  1064371117
13.44112492 6.36584949 -2.49513626  1088435252
-2.49513626 0.94146234 13.00432110  1064371117
12.88664627 7.42443275 -2.49513626  1090557837
-2.49513626 0.94146234 12.38296890  1064371117
12.24892521 8.43507862 -2.49513626  1091948695
-2.64753628 0.93800002 12.55057335  1064313029
12.39518642 9.76689339 -2.64753628  1092986388
-2.64753628 0.93800002 11.74200249  1064313030
11.57101917 10.73051834 -2.64753628  1093575772
-2.64753628 0.93800002 11.22014141  1064313029
11.04031181 11.27583027 -2.64753628  1094319987
-2.64753628 0.93800002 10.29299450  1064313029
9.90317345 12.28657818 -2.64753628  1095654436
-2.64753628 0.93800002 8.88478088  1064313029
8.67399788 13.18311882 -2.64753628  1096098329
-2.64753628 0.93800008 8.24576759  1064313029
8.02842712 13.58592033 -2.64753628  1096509778
-2.64753628 0.93800002 7.36418390  1064313029
7.13889122 14.07369995 -2.64753628  1097231468
-2.64753628 0.93800002 6.21985149  1064313029
5.98592806 14.60142040 -2.64753628  1097540048
-2.64753628 0.93800002 5.51349831  1064313029
5.27511787 14.87299633 -2.64753628  1097812792
-2.64753628 0.93799996 4.79433203  1064313029
4.30857849 15.18120575 -2.64753628  1098186063
-2.64753628 0.93800008 3.57177019  1064313029
3.32423282 15.42667580 -2.64753628  1098360411
-2.64753628 0.93800002 2.82664371  1064313030
2.57673216 15.56898499 -2.64753628  1098497010
-2.64753628 0.93800008 2.07495475  1064313030
13.71274471 3.49297476 -2.49513626  1080926453
-2.49513626 0.94414485 13.59338188  1064416122
13.23382378 5.01060581 -2.49513626  1084694557
-2.49513626 0.94414485 13.06593227  1064416122
12.78882694 6.05691099 -2.49513626  1086873545
-2.49513626 0.94414485 12.26124763  1064416123
11.90647793 7.64696312 -2.49513626  1090177953
-2.49513626 0.94414485 11.65452576  1064416122
11.52401733 8.21201801 -2.49513626  1090934473
-2.49513626 0.94414485 11.94149113  1064360612
11.79364491 9.29290390 -2.64753628  1092072265
-2.64753628 0.94083619 11.48884296  1064360612
11.17216682 10.03149223 -2.64753628  1093201687
-2.64753628 0.94083619 10.50452232  1064360612
9.79347420 11.38138866 -2.64753628  1094228211
-2.64753628 0.94083619 9.42257214  1064360612
9.23344898 11.84025097 -2.64753628  1095283078
-2.64753628 0.94083619 7.43003845  1064360612
6.79243946 13.39070320 -2.64753628  1096284271
-2.64753628 0.94083619 6.13904905  1064360612
5.91799927 13.79947376 -2.64753628  1096698098
-2.64753628 0.94083619 5.24592829  1064360612
4.56166315 14.30522346 -2.64753628  1097205495
-2.64753628 0.94083619 3.86677074  1064360613
3.39843106 14.62528133 -2.64753628  1097521446
-2.64753628 0.94083619 2.92656374  1064360612
1.97425485 14.88455772 -2.64753628  1080203645
-2.49513626 0.94658887 12.90052414  1064457126
12.83525085 4.16417217 -2.49513626  1083335425
-2.49513626 0.94658887 12.54116821  1064457126
12.45949841 5.18120909 -2.49513626  1085026206
-2.49513626 0.94658887 12.28652096  1064457126
12.10084057 5.97106743 -2.49513626  1087472820
-2.49513626 0.94658887 11.58238411  1064457126
11.46960163 7.10860109 -2.49513626  1089415099
-2.49513626 0.94658887 11.11360168  1064457126
10.98915005 7.83086920 -2.49513626  1090525848
-2.49513626 0.94658887 10.59886074  1064457128
10.65363026 9.56589413 -2.64753628  1092339265
-2.64753628 0.94342065 10.18013382  1064403972
10.01697350 10.23066330 -2.64753628  1093190123
-2.64753628 0.94342065 9.51217365  1064403972
9.33892536 10.85313988 -2.64753628  1093666711
-2.64753628 0.94342065 8.80489445  1064403972
8.25039864 11.70201397 -2.64753628  1094672621
-2.64753628 0.94342065 7.28426170  1064403972
6.68159103 12.66343498 -2.64753628  1095519905
-2.64753628 0.94342065 6.06338692  1064403972
5.85411406 13.06658173 -2.64753628  1095928633
-2.64753628 0.94342065 5.43108797  1064403972
5.21744394 13.33358765 -2.64753628  1096359177
-2.64753628 0.94342065 4.34994173  1064403972
4.13010597 13.70943069 -2.64753628  1096637586
-2.64753628 0.94342065 2.56464195  1064403972
2.11053634 14.16163254 -2.64753628  1078702346
-2.49513626 0.94882482 12.44180298  1064494639
12.38582134 3.58265185 -2.49513626  1082908638
-2.49513626 0.94882482 12.05820370  1064494639
11.90523052 4.95072031 -2.49513626  1084524197
-2.49513626 0.94882482 11.73994446  1064494639
11.46932220 5.89055395 -2.49513626  1086480245
-2.49513626 0.94882482 11.17203712  1064494639
10.95936775 6.79237175 -2.49513626  1088354050
-2.49513626 0.94882482 10.73537445  1064494639
10.50029373 7.48250961 -2.49513626  1089785710
-2.49513626 0.94882482 10.25435257  1064494639
10.12739658 7.97997046 -2.49513626  1090667647
-2.49513626 0.94882482 9.86565876  1064494639
9.73095036 8.45888329 -2.49513626  1091714784
-2.64753628 0.94578534 10.03146458  1064443645
9.88063908 9.46283340 -2.64753628  1092380834
-2.64753628 0.94578534 9.41300297  1064443645
9.25220585 10.07810879 -2.64753628  1093153515
-2.64753628 0.94578534 8.58552456  1064443645
8.41320133 10.78843403 -2.64753628  1093583264
-2.64753628 0.94578534 8.06208229  1064443645
7.51989603 11.42905998 -2.64753628  1094239860
-2.64753628 0.94578540 7.14863777  1064443645
6.76999998 11.88862419 -2.64753628  1094924266
-2.64753628 0.94578534 5.79365110  1064443645
5.59369326 12.48530579 -2.64753628  1095314816
-2.64753628 0.94578534 5.18947935  1064443645
4.98534155 12.74043560 -2.64753628  1095798023
-2.64753628 0.94578534 3.73530817  1064443645
3.52327347 13.21963596 -2.64753628  1096049819
-2.64753628 0.94578534 2.01664805  1064443645
1.79887736 13.56230450 -2.64753628  1077324033
-2.49513626 0.95087790 11.91026974  1064529084
11.80001831 3.61973667 -2.49513626  1081329054
-2.49513626 0.95087790 11.61181259  1064529084
11.47131348 4.55541420 -2.49513626  1084063556
-2.49513626 0.95087790 11.23838806  1064529084
10.97933006 5.63890076 -2.49513626  1085936033
-2.49513626 0.95087790 10.79240227  1064529084
10.69474506 6.16160250 -2.49513626  1087729781
-2.49513626 0.95087790 10.27673912  1064529084
9.93526649 7.32348251 -2.49513626  1089762068
-2.49513626 0.95087790 9.57069302  1064529084
9.31522369 8.09749985 -2.49513626  1090930859
-2.49513626 0.95087785 9.45851898  1064480079
9.01086044 9.50397396 -2.64753628  1092682583
-2.64753628 0.94795698 8.05377769  1064480079
7.88673449 10.45564938 -2.64753628  1093602678
-2.64753628 0.94795698 7.02184296  1064480079
6.84324026 11.16652203 -2.64753628  1093953207
-2.64753628 0.94795698 6.48077250  1064480079
6.29700041 11.48341656 -2.64753628  1094276247
-2.64753628 0.94795698 5.73612452  1064480079
5.54613590 11.86429501 -2.64753628  1094919008
-2.64753628 0.94795698 4.57570219  1064480079
4.37786961 12.34323120 -2.64753628  1095145365
-2.64753628 0.94795698 3.97885919  1064480079
3.77777886 12.53991699 -2.64753628  1095506841
-2.64753628 0.94795698 2.34586048  1064480080
2.13845158 12.92083931 -2.64753628  1095743992
-2.64753628 0.94795698 11.51464176  1064560820
11.36933231 3.28863025 -2.49513626  1079911448
-2.49513626 0.95276952 10.92817688  1064560820
10.77646255 4.89333773 -2.49513626  1084725028
-2.49513626 0.95276952 10.43977642  1064560820
10.34879589 5.74273777 -2.49513626  1087154839
-2.49513626 0.95276952 9.74769688  1064560820
9.63854313 6.86842775 -2.49513626  1088469001
-2.49513626 0.95276952 9.41279125  1064560820
8.67814350 8.04777431 -2.49513626  1090714310
-2.49513626 0.95276952 8.41497993  1064560820
8.34309006 9.38635635 -2.64753628  1092248859
-2.64753628 0.94995815 7.88092041  1064513653
7.72274113 9.90303516 -2.64753628  1092769444
-2.64753628 0.94995815 7.23639488  1064513653
7.07048559 10.37878036 -2.64753628  1093131138
-2.64753628 0.94995815 6.73322248  1064513653
6.56195927 10.70754623 -2.64753628  1093467248
-2.64753628 0.94995815 6.21439314  1064513653
6.03817654 11.01141548 -2.64753628  1094059700
-2.64753628 0.94995815 3.81531644  1064513653
3.62250257 12.02448845 -2.64753628  1095003283
-2.64753628 0.94995815 2.44774246  1064513653
2.24943948 12.35519600 -2.64753628  1095122034
-2.64753628 0.94995815 1.85114372  1064513653
1.65124679 12.44926834 -2.64753628  1076377259
-2.49513626 0.95451802 11.01481915  1064590155
10.96829796 2.98243618 -2.49513626  1082182421
-2.49513626 0.95451802 10.56406021  1064590155
10.49526501 4.36439276 -2.49513626  1083597368
-2.49513626 0.95451802 10.27267170  1064590155
9.84890079 5.67428350 -2.49513626  1085972126
-2.49513626 0.95451802 9.66142464  1064590155
9.46396065 6.29538965 -2.49513626  1087575348
-2.49513626 0.95451802 9.14949608  1064590155
8.45751858 7.59400511 -2.49513626  1089950642
-2.49513626 0.95451802 8.20905399  1064590155
8.08162785 7.99285936 -2.49513626  1090646685
-2.49513626 0.95451802 7.82052660  1064590155
7.68695498 8.37314034 -2.49513626  1092103161
-2.64753628 0.95180804 6.94972897  1064544689
6.46648550 10.18074131 -2.64753628  1093120166
-2.64753628 0.95180804 5.62824345  1064544689
5.45605659 10.75613880 -2.64753628  1093499563
-2.64753628 0.95180804 4.93121672  1064544689
4.75365973 11.08448315 -2.64753628  1093980123
-2.64753628 0.95180804 4.03162861  1064544689
3.84839630 11.43035412 -2.64753628  1094239541
-2.64753628 0.95180804 3.10600400  1064544689
2.72980523 11.74782085 -2.64753628  1094607370
-2.64753628 0.95180804 1.77781272  1064544689
1.58582985 11.95608902 -2.64753628  1080202174
-2.49513626 0.95613879 10.28454685  1064617347
10.16010666 4.03471899 -2.49513626  1082883756
-2.49513626 0.95613879 9.95379829  1064617348
9.87986279 4.67920017 -2.49513626  1084215746
-2.49513626 0.95613879 9.47229385  1064617348
8.69423294 6.62698555 -2.49513626  1088782450
-2.49513626 0.95613879 8.13411331  1064617347
8.01567078 7.43342352 -2.49513626  1089599027
-2.49513626 0.95613879 7.52148485  1064617347
7.26260471 8.17076015 -2.49513626  1090938458
-2.49513626 0.95613879 7.27930832  1064573462
7.13320255 9.14705944 -2.64753628  1091840809
-2.64753628 0.95352298 6.37580347  1064573462
5.90127468 9.98629093 -2.64753628  1092699929
-2.64753628 0.95352304 5.41302490  1064573462
5.24742413 10.34484386 -2.64753628  1093064823
-2.64753628 0.95352304 4.74265480  1064573462
4.39994335 10.73274231 -2.64753628  1093527013
-2.64753628 0.95352298 3.87746048  1064573462
3.52405977 11.05134773 -2.64753628  1093776501
-2.64753628 0.95352304 3.16701007  1064573462
1.70983088 11.47291279 -2.64753628  1094187908
-2.64753628 0.95352310 10.24248791  1064642622
10.20203495 2.59871387 -2.49513626  1077622793
-2.49513626 0.95764530 10.06490326  1064642622
10.01397705 3.24885488 -2.49513626  1080322944
-2.49513626 0.95764530 9.84572411  1064642622
9.78453541 3.88557482 -2.49513626  1082219236
-2.49513626 0.95764530 9.36489201  1064642622
9.12215519 5.25557995 -2.49513626  1085069648
-2.49513626 0.95764530 8.94850922  1064642622
8.85820675 5.68920231 -2.49513626  1086263901
-2.49513626 0.95764530 8.47435284  1064642622
8.26918793 6.51577806 -2.49513626  1088226469
-2.49513626 0.95764530 7.71936798  1064642622
7.48528242 7.40306568 -2.49513626  1089517507
-2.49513626 0.95764530 7.24345160  1064642622
7.11971855 7.75528479 -2.49513626  1090243733
-2.49513626 0.95764530 6.86675692  1064642622
6.73759460 8.08947945 -2.49513626  1091594031
-2.64753628 0.95511723 5.83698416  1064600208
5.68313503 9.61715126 -2.64753628  1092401086
-2.64753628 0.95511723 5.21293402  1064600208
4.56734037 10.19446182 -2.64753628  1092895699
-2.64753628 0.95511723 4.23729563  1064600208
4.07061291 10.40277576 -2.64753628  1093105732
-2.64753628 0.95511723 3.39379454  1064600208
2.52837205 10.88094330 -2.64753628  1093581071
-2.64753628 0.95511723 2.17731404  1064600208
2.00091672 10.99017525 -2.64753628  1093686701
-2.64753628 0.95511723 9.87597561  1064666174
9.83697224 2.50572157 -2.49513626  1076524819
-2.49513626 0.95904911 9.75134563  1064666174
9.49341297 3.59440756 -2.49513626  1081067328
-2.49513626 0.95904911 9.24284458  1064666174
9.10316658 4.49188757 -2.49513626  1083467641
-2.49513626 0.95904911 8.95407772  1064666174
8.87605095 4.92548418 -2.49513626  1084369180
-2.49513626 0.95904911 8.62829971  1064666174
8.54123020 5.48562431 -2.49513626  1085532443
-2.49513626 0.95904911 8.17111301  1064666174
7.97328949 6.28262138 -2.49513626  1087184501
-2.49513626 0.95904911 7.66116858  1064666174
7.33123446 7.02122927 -2.49513626  1088711635
-2.49513626 0.95904911 6.98425627  1064666174
6.86495113 7.47777510 -2.49513626  1089653246
-2.49513626 0.95904911 6.62104034  1064666174
6.24242735 8.00479794 -2.49513626  1090628199
-2.49513626 0.95904911 5.71519661  1064666174
5.77500725 9.09208679 -2.64753628  1092119578
-2.64753628 0.95660293 4.71758795  1064625134
4.56133604 9.75761223 -2.64753628  1092437586
-2.64753628 0.95660293 3.92495298  1064625134
3.76321864 10.09232140 -2.64753628  1092775058
-2.64753628 0.95660293 3.10697508  1064625134
2.94080448 10.36187458 -2.64753628  1093043808
-2.64753628 0.95660293 2.60622168  1064625134
2.43789792 10.49158669 -2.64753628  1093171328
-2.64753628 0.95660293 2.09940052  1064625134
1.58770454 10.65344810 -2.64753628  1093326701
-2.64753628 0.95660293 9.45568371  1064688172
9.41313553 2.72279191 -2.49513626  1077406579
-2.49513626 0.96036029 9.32075119  1064688172
9.27094173 3.17338252 -2.49513626  1079286652
-2.49513626 0.96036029 9.16415024  1064688171
9.04788589 3.76251006 -2.49513626  1081742281
-2.49513626 0.96036029 8.85599709  1064688171
8.78743553 4.33609295 -2.49513626  1083130315
-2.49513626 0.96036029 8.56819820  1064688171
8.49066734 4.89175892 -2.49513626  1084567643
-2.49513626 0.96036029 8.15880680  1064688172
7.98014593 5.68665171 -2.49513626  1085935055
-2.49513626 0.96036029 7.79323483  1064688172
7.69674730 6.06471777 -2.49513626  1086718263
-2.49513626 0.96036029 7.39545202  1064688171
7.29116011 6.54673243 -2.49513626  1087715320
-2.49513626 0.96036029 6.85544252  1064688172
6.74201775 7.11097193 -2.49513626  1089101381
-2.49513626 0.96036029 6.02591610  1064688171
5.90093374 7.82302475 -2.49513626  1090528116
-2.49513626 0.96036023 5.51697397  1064688172
4.99925137 9.11680222 -2.64753628  1091773120
-2.64753628 0.95799065 4.55396557  1064648417
4.40313244 9.41918373 -2.64753628  1092080097
-2.64753628 0.95799071 3.63269687  1064648416
3.47563219 9.79941654 -2.64753628  1092463117
-2.64753628 0.95799071 3.15885425  1064648417
2.83880663 10.00248909 -2.64753628  1092665293
-2.64753628 0.95799071 2.19024539  1064648417
2.02658606 10.19811440 -2.64753628  1092886710
-2.64753628 0.95799071 1.36713195  1064648417
9.21256542 2.18960690 -2.49513626  1075156994
-2.49513626 0.96158755 9.13742447  1064708762
9.05283928 2.77702069 -2.49513626  1077609700
-2.49513626 0.96158755 8.95890045  1064708762
8.90845108 3.21017790 -2.49513626  1079416531
-2.49513626 0.96158755 8.68377972  1064708762
8.55792046 4.05311441 -2.49513626  1082529203
-2.49513626 0.96158755 8.35259342  1064708762
8.27980804 4.59461927 -2.49513626  1083930594
-2.49513626 0.96158755 7.96747971  1064708762
7.88419724 5.24453926 -2.49513626  1085266199
-2.49513626 0.96158755 7.53092813  1064708762
7.43768978 5.86059189 -2.49513626  1086527397
-2.49513626 0.96158755 6.83876276  1064708762
6.51509380 6.87163019 -2.49513626  1089203115
-2.49513626 0.96158755 5.58007002  1064708762
5.45638180 7.73909855 -2.49513626  1090331312
-2.49513626 0.96158755 5.07698107  1064708762
4.81743097 8.15218639 -2.49513626  1090758708
-2.49513626 0.96158755 4.55290270  1064708762
4.41885376 8.37493134 -2.49513626  1091674730
-2.64753628 0.95928973 3.81121898  1064670211
3.66129732 9.35673904 -2.64753628  1092002123
-2.64753628 0.95928973 3.20600486  1064670211
2.89826632 9.62048340 -2.64753628  1092265781
-2.64753628 0.95928973 2.58753681  1064670211
1.79971635 9.88507175 -2.64753628  1092524674
-2.64753628 0.95928973 1.48105037  1064670211
8.91131020 2.11800575 -2.49513626  1074836407
-2.49513626 0.96273869 8.83862495  1064728075
8.75680637 2.68620968 -2.49513626  1077208905
-2.49513626 0.96273869 8.51287556  1064728075
8.45743847 3.51697826 -2.49513626  1081237077
-2.49513626 0.96273869 8.27807140  1064728075
8.21398449 4.05312920 -2.49513626  1082791165
-2.49513626 0.96273869 8.00905418  1064728075
7.93658113 4.57253218 -2.49513626  1083597418
-2.49513626 0.96273869 7.70693779  1064728075
7.54385233 5.19496584 -2.49513626  1085386419
-2.49513626 0.96273869 7.19447231  1064728075
6.91283798 6.00916672 -2.49513626  1087681435
-2.49513626 0.96273869 6.19439268  1064728075
6.08513594 6.84605837 -2.49513626  1088302318
-2.49513626 0.96273869 5.86193419  1064728074
5.74804783 7.13143396 -2.49513626  1088889353
-2.49513626 0.96273869 5.51585150  1064728075
5.03460360 7.65180731 -2.49513626  1089956466
-2.49513626 0.96273869 4.78604603  1064728075
4.53254509 7.95948601 -2.49513626  1090625017
-2.49513626 0.96273869 4.01175261  1064728074
3.87887621 8.29769421 -2.49513626  1090895446
-2.49513626 0.96273869 3.61015558  1064728074
3.68658948 8.99267006 -2.64753628  1091620848
-2.64753628 0.96050829 3.39563370  1064690655
3.24881983 9.15992546 -2.64753628  1091788827
-2.64753628 0.96050829 2.80349422  1064690655
2.65355372 9.34974575 -2.64753628  1092126093
-2.64753628 0.96050835 1.74086428  1064690655
8.51901817 2.46416640 -2.49513626  1076261669
-2.49513626 0.96382046 8.43540668  1064746224
8.39032841 2.87195325 -2.49513626  1081274319
-2.49513626 0.96382040 7.88864613  1064746223
7.75433445 4.30302429 -2.49513626  1083026145
-2.49513626 0.96382046 7.61201477  1064746223
7.53789425 4.67181778 -2.49513626  1083792164
-2.49513626 0.96382046 7.38383102  1064746223
7.30393314 5.02974701 -2.49513626  1085485685
-2.49513626 0.96382040 6.59859896  1064746223
6.50251150 6.03018188 -2.49513626  1087030686
-2.49513626 0.96382040 6.10161686  1064746224
5.89160919 6.62832689 -2.49513626  1088032405
-2.49513626 0.96382040 5.56523895  1064746224
5.45353699 6.99318790 -2.49513626  1089278471
-2.49513626 0.96382046 4.63383150  1064746224
4.38839245 7.70634460 -2.49513626  1090049044
-2.49513626 0.96382040 3.88416314  1064746223
3.75551629 8.03379726 -2.49513626  1090616684
-2.49513626 0.96382046 3.49533963  1064746224
3.36388087 8.20548725 -2.49513626  1090843442
-2.49513626 0.96382040 2.82970166  1064746224
2.71433210 9.00992012 -2.64753628  1091622546
-2.64753628 0.96165353 1.68549919  1064709869
1.53647661 9.28361702 -2.64753628  1091911766
-2.64753628 0.96165353 8.29254723  1064763310
8.17421627 2.65197921 -2.49513626  1077026072
-2.49513626 0.96483886 8.03687286  1064763310
7.98692417 3.17171812 -2.49513626  1079193100
-2.49513626 0.96483886 7.88084841  1064763310
7.76662683 3.67835045 -2.49513626  1083235967
-2.49513626 0.96483886 6.83459330  1064763310
6.57552576 5.53291845 -2.49513626  1085782462
-2.49513626 0.96483886 6.11008787  1064763310
6.01215792 6.14041424 -2.49513626  1086820203
-2.49513626 0.96483886 5.81168509  1064763310
5.60519934 6.51402378 -2.49513626  1088302382
-2.49513626 0.96483886 4.95186710  1064763310
4.49035072 7.32717896 -2.49513626  1089402777
-2.49513626 0.96483886 4.13192415  1064763310
4.01027250 7.60056019 -2.49513626  1089814476
-2.49513626 0.96483886 3.76389384  1064763310
3.51362348 7.84252548 -2.49513626  1090417147
-2.49513626 0.96483886 3.13149357  1064763310
3.00245595 8.05208206 -2.49513626  1090623165
-2.49513626 0.96483886 2.61082244  1064763310
2.34629941 8.26713943 -2.49513626  1091563587
-2.64753628 0.96273178 1.19896305  1064727959
8.07643509 2.05727053 -2.49513626  1074525423
-2.49513626 0.96579927 7.92755985  1064779423
7.88519430 2.69905019 -2.49513626  1077203991
-2.49513626 0.96579927 7.74592066  1064779423
7.69547939 3.20012021 -2.49513626  1080315796
-2.49513626 0.96579927 7.47395897  1064779423
7.41371250 3.80762863 -2.49513626  1082467188
-2.49513626 0.96579927 7.08408070  1064779423
7.01259279 4.50385571 -2.49513626  1083885025
-2.49513626 0.96579927 6.54629707  1064779423
6.37711191 5.36596727 -2.49513626  1085208590
-2.49513626 0.96579927 6.11103249  1064779423
5.01890993 6.65369940 -2.49513626  1087863022
-2.49513626 0.96579927 4.69234037  1064779423
4.58101988 6.96243143 -2.49513626  1088495634
-2.49513626 0.96579927 4.35485601  1064779423
4.12419319 7.24238873 -2.49513626  1089200379
-2.49513626 0.96579927 3.77027941  1064779423
3.52941608 7.55012417 -2.49513626  1089692509
-2.49513626 0.96579927 3.28490567  1064779423
2.91185808 7.80911350 -2.49513626  1090214759
-2.49513626 0.96579927 2.65934324  1064779423
2.53204131 7.94040060 -2.49513626  1090752330
-2.49513626 0.96579927 1.22851360  1064779423
7.86980629 1.87046492 -2.49513626  1073714306
-2.49513626 0.96670640 7.77049255  1064794642
7.65311241 2.61961198 -2.49513626  1076855205
-2.49513626 0.96670640 7.56495667  1064794642
7.51794004 2.98547673 -2.49513626  1078380436
-2.49513626 0.96670640 7.36528873  1064794642
7.19550848 3.69556022 -2.49513626  1081336623
-2.49513626 0.96670640 7.07300043  1064794642
6.87557793 4.26132774 -2.49513626  1082909094
-2.49513626 0.96670640 6.73505116  1064794642
6.58756685 4.69430208 -2.49513626  1083807274
-2.49513626 0.96670640 6.43327332  1064794642
6.35362291 5.00639200 -2.49513626  1084453806
-2.49513626 0.96670640 6.18941689  1064794642
6.01881266 5.40429306 -2.49513626  1085276871
-2.49513626 0.96670640 5.84199429  1064794642
5.75131083 5.68813944 -2.49513626  1085863059
-2.49513626 0.96670640 5.56550074  1064794642
5.17682600 6.21554327 -2.49513626  1087447399
-2.49513626 0.96670640 4.66109896  1064794642
4.55423307 6.68516731 -2.49513626  1087913344
-2.49513626 0.96670640 4.11527681  1064794642
3.65931058 7.21401024 -2.49513626  1089109555
-2.49513626 0.96670640 3.18822360  1064794642
3.06831574 7.48451328 -2.49513626  1089539388
-2.49513626 0.96670640 2.58107257  1064794642
2.33332157 7.74519825 -2.49513626  1090061239
-2.49513626 0.96670640 1.70396221  1064794642
1.44890451 7.95821381 -2.49513626  1090478095
-2.49513626 0.96670640 1.06359720  1064794642
7.64367723 1.81671929 -2.49513626  1073233019
-2.49513626 0.96756452 7.47314501  1064809039
7.43320990 2.54433918 -2.49513626  1077021569
-2.49513626 0.96756452 7.25436831  1064809039
7.20494080 3.13290334 -2.49513626  1078977600
-2.49513626 0.96756452 6.86976624  1064809039
6.80760288 3.92209005 -2.49513626  1082195462
-2.49513626 0.96756452 6.67801476  1064809039
6.47074032 4.45598173 -2.49513626  1083729970
-2.49513626 0.96756452 6.17105865  1064809039
5.76074505 5.34229183 -2.49513626  1085138162
-2.49513626 0.96756452 5.49652433  1064809038
5.40558195 5.70139980 -2.49513626  1086056731
-2.49513626 0.96756446 5.02807283  1064809039
4.83142996 6.19544792 -2.49513626  1086895801
-2.49513626 0.96756446 4.21237707  1064809038
3.99702787 6.76387691 -2.49513626  1088059605
-2.49513626 0.96756452 3.77754879  1064809039
3.44108105 7.06294823 -2.49513626  1088667982
-2.49513626 0.96756452 3.21227431  1064809039
2.86291742 7.31641722 -2.49513626  1089270520
-2.49513626 0.96756452 2.26627660  1064809039
2.14506745 7.55810452 -2.49513626  1089662580
-2.49513626 0.96756452 1.77823889  1064809039
1.53133249 7.70592594 -2.49513626  1089997193
-2.49513626 0.96756452 1.15809572  1064809039
7.42907953 1.76571488 -2.49513626  1074252591
-2.49513626 0.96837741 7.30027390  1064822677
7.14129877 2.70384979 -2.49513626  1077650893
-2.49513626 0.96837741 6.95281410  1064822677
6.90116739 3.26846147 -2.49513626  1079985463
-2.49513626 0.96837741 6.73558998  1064822677
6.67689610 3.70513511 -2.49513626  1081785813
-2.49513626 0.96837741 6.21864653  1064822677
5.99780464 4.72602510 -2.49513626  1083853912
-2.49513626 0.96837741 5.84279490  1064822677
5.76301479 5.00965166 -2.49513626  1084440738
-2.49513626 0.96837741 5.59900856  1064822677
5.42922211 5.36959171 -2.49513626  1085362839
-2.49513626 0.96837741 5.16407204  1064822677
5.07298803 5.70734262 -2.49513626  1086046776
-2.49513626 0.96837741 4.29918385  1064822677
4.19719172 6.37907076 -2.49513626  1087528460
-2.49513626 0.96837741 3.56339383  1064822677
3.34447098 6.86465359 -2.49513626  1088248928
-2.49513626 0.96837741 3.12208939  1064822677
2.43652487 7.23686934 -2.49513626  1088998816
-2.49513626 0.96837741 2.08484292  1064822677
1.96649671 7.37847137 -2.49513626  1089279890
-2.49513626 0.96837741 1.60853422  1064822677
1.48833978 7.48957872 -2.49513626  1089540820
-2.49513626 0.96837741 1.00403261  1064822677
7.22512674 1.71724045 -2.49513626  1072342203
-2.49513626 0.96914852 7.16619539  1064835614
7.09986067 2.17793107 -2.49513626  1075912980
-2.49513626 0.96914852 6.94524813  1064835614
6.85713768 2.85150290 -2.49513626  1077774037
-2.49513626 0.96914852 6.71170902  1064835614
6.65974855 3.28620243 -2.49513626  1080027294
-2.49513626 0.96914852 6.43483496  1064835614
6.37441349 3.81028008 -2.49513626  1081762379
-2.49513626 0.96914852 6.18332815  1064835614
6.04792595 4.30975580 -2.49513626  1082982731
-2.49513626 0.96914852 5.90627050  1064835614
5.83314800 4.59627962 -2.49513626  1083769148
-2.49513626 0.96914852 5.60480452  1064835614
5.36342955 5.13663578 -2.49513626  1084693526
-2.49513626 0.96914852 5.02230215  1064835614
4.66041327 5.78203773 -2.49513626  1086324664
-2.49513626 0.96914852 4.08196688  1064835614
3.98171735 6.26875591 -2.49513626  1087275595
-2.49513626 0.96914852 3.25265431  1064835614
3.14492393 6.72761965 -2.49513626  1087954848
-2.49513626 0.96914852 2.92704988  1064835614
2.81696320 6.87139511 -2.49513626  1088245287
-2.49513626 0.96914852 2.48245835  1064835614
2.14218020 7.11072493 -2.49513626  1088724382
-2.49513626 0.96914852 1.68086684  1064835614
1.44748247 7.28396845 -2.49513626  1089180892
-2.49513626 0.96914852 7.03102398  1064847902
7.00325346 1.78390443 -2.49513626  1072871451
-2.49513626 0.96988094 6.94229603  1064847902
6.90912104 2.11942029 -2.49513626  1077885593
-2.49513626 0.96988094 6.42859411  1064847902
6.31914377 3.50661039 -2.49513626  1081733615
-2.49513626 0.96988094 6.01721430  1064847902
5.95210028 4.09882879 -2.49513626  1082734477
-2.49513626 0.96988094 5.74760056  1064847902
5.67644072 4.47279692 -2.49513626  1083499761
-2.49513626 0.96988094 5.45423079  1064847902
5.21934080 4.99863720 -2.49513626  1084571146
-2.49513626 0.96988094 4.88737869  1064847902
4.80117607 5.40153742 -2.49513626  1085541871
-2.49513626 0.96988094 4.25870800  1064847902
4.16430807 5.90647364 -2.49513626  1086267373
-2.49513626 0.96988094 3.87474942  1064847902
3.67666149 6.22173929 -2.49513626  1087146276
-2.49513626 0.96988094 3.26929212  1064847902
3.16527247 6.49684238 -2.49513626  1087471623
-2.49513626 0.96988094 2.63345122  1064847902
2.30597472 6.84911537 -2.49513626  1088181336
-2.49513626 0.96988094 1.74864829  1064847902
1.63571000 7.03934050 -2.49513626  1088607031
-2.49513626 0.96988094 1.29447842  1064847902
1.06527233 7.14794302 -2.49513626  1088766121
-2.49513626 0.96988094 6.81900597  1064859587
6.79020691 1.84635556 -2.49513626  1074008836
-2.49513626 0.97057742 6.69331121  1064859587
6.65753937 2.27883291 -2.49513626  1075358932
-2.49513626 0.97057742 6.58085108  1064859587
6.53995180 2.59710455 -2.49513626  1077555874
-2.49513626 0.97057742 6.35956573  1064859587
6.31033182 3.11378622 -2.49513626  1078837130
-2.49513626 0.97057742 6.09721899  1064859587
6.03996611 3.61036587 -2.49513626  1082092663
-2.49513626 0.97057742 5.73061037  1064859587
5.66423035 4.17521620 -2.49513626  1082687692
-2.49513626 0.97057742 5.52709866  1064859587
5.38425303 4.53053522 -2.49513626  1083601088
-2.49513626 0.97057742 5.00313759  1064859587
4.92295074 5.02797031 -2.49513626  1084612637
-2.49513626 0.97057742 4.67486143  1064859587
4.50338602 5.40698099 -2.49513626  1085231425
-2.49513626 0.97057742 4.32726192  1064859587
4.23751163 5.61777878 -2.49513626  1085802718
-2.49513626 0.97057742 3.96178484  1064859587
3.86779666 5.87844324 -2.49513626  1086198599
-2.49513626 0.97057742 3.57993054  1064859587
3.48209262 6.11481428 -2.49513626  1086681241
-2.49513626 0.97057742 3.28373981  1064859587
3.18328094 6.27556133 -2.49513626  1087008233
-2.49513626 0.97057742 2.97991657  1064859587
2.87706804 6.42171288 -2.49513626  1087304379
-2.49513626 0.97057742 2.56416798  1064859587
2.35221243 6.63196993 -2.49513626  1087727566
-2.49513626 0.97057742 2.13782549  1064859587
2.02978659 6.73764753 -2.49513626  1087938290
-2.49513626 0.97057742 1.70264113  1064859587
1.26042092 6.92295170 -2.49513626  1070262139
-2.49513626 0.97124052 6.61513710  1064870712
6.58537292 1.90484905 -2.49513626  1073785676
-2.49513626 0.97124046 6.44936943  1064870712
6.37133837 2.53014803 -2.49513626  1077241257
-2.49513626 0.97124052 6.19560003  1064870712
6.14763784 3.03350401 -2.49513626  1079304839
-2.49513626 0.97124052 5.94002008  1064870711
5.88424349 3.51728344 -2.49513626  1080891457
-2.49513626 0.97124046 5.70785141  1064870712
5.58286142 3.97834802 -2.49513626  1082457046
-2.49513626 0.97124052 5.24543428  1064870712
5.17381096 4.49746990 -2.49513626  1083517593
-2.49513626 0.97124052 4.95100021  1064870711
4.87414694 4.82061100 -2.49513626  1084014380
-2.49513626 0.97124052 4.30204296  1064870711
4.21569586 5.40587759 -2.49513626  1085491762
-2.49513626 0.97124046 3.48763204  1064870712
3.29612231 6.01091766 -2.49513626  1086563316
-2.49513626 0.97124046 2.70197010  1064870711
2.60034847 6.34301090 -2.49513626  1087130020
-2.49513626 0.97124046 2.39512181  1064870711
2.29156661 6.46098423 -2.49513626  1087438960
-2.49513626 0.97124046 1.97745430  1064870711
1.55161405 6.67742920 -2.49513626  1087795910
-2.49513626 0.97124046 1.33617699  1064870711
1.22792423 6.74446106 -2.49513626  1087993676
-2.49513626 0.97124052 6.50091362  1064881315
6.44788980 1.75327408 -2.49513626  1072539640
-2.49513626 0.97187251 6.24908781  1064881315
6.12777090 2.66452026 -2.49513626  1077349390
-2.49513626 0.97187251 5.99220514  1064881315
5.89406681 3.14789248 -2.49513626  1079344242
-2.49513626 0.97187251 5.56354046  1064881315
5.37867641 3.96472955 -2.49513626  1082236698
-2.49513626 0.97187251 5.18130732  1064881315
5.11281538 4.30213499 -2.49513626  1082935239
-2.49513626 0.97187251 4.97188568  1064881315
4.75091219 4.69873190 -2.49513626  1083910945
-2.49513626 0.97187251 4.51888895  1064881315
4.35833311 5.06499529 -2.49513626  1084792135
-2.49513626 0.97187251 4.02388287  1064881315
3.76205802 5.52233124 -2.49513626  1085448317
-2.49513626 0.97187251 3.58260822  1064881315
3.49148178 5.69726181 -2.49513626  1085919031
-2.49513626 0.97187251 3.21278763  1064881315
2.82968926 6.05327272 -2.49513626  1086620646
-2.49513626 0.97187251 2.53460312  1064881315
2.43489981 6.22258186 -2.49513626  1086948912
-2.49513626 0.97187251 1.82436967  1064881315
1.72081006 6.45662880 -2.49513626  1087338608
-2.49513626 0.97187251 1.40756845  1064881315
1.19687819 6.57394218 -2.49513626  1087566944
-2.49513626 0.97187251 0.98495495  1064881315
6.33963299 1.50677884 -2.49513626  1070457560
-2.49513626 0.97247547 6.28792429  1064891431
6.22971725 1.91100812 -2.49513626  1073787522
-2.49513626 0.97247547 6.16507244  1064891431
6.01674175 2.50202775 -2.49513626  1076251764
-2.49513626 0.97247547 5.64619923  1064891431
5.59318304 3.34330010 -2.49513626  1079751311
-2.49513626 0.97247547 5.30670834  1064891431
5.24523830 3.86636853 -2.49513626  1081921470
-2.49513626 0.97247547 5.11825085  1064891431
5.05276585 4.11471701 -2.49513626  1082707161
-2.49513626 0.97247547 4.84853888  1064891431
4.70610046 4.50710058 -2.49513626  1083506255
-2.49513626 0.97247547 4.40678072  1064891431
4.32905436 4.87038183 -2.49513626  1084381520
-2.49513626 0.97247547 4.00716686  1064891431
3.92405438 5.20222282 -2.49513626  1084910552
-2.49513626 0.97247547 3.58168840  1064891431
3.31511784 5.60992908 -2.49513626  1085616932
-2.49513626 0.97247547 2.85401702  1064891431
2.75948811 5.90309668 -2.49513626  1086301135
-2.49513626 0.97247547 2.47172379  1064891431
2.17821503 6.14139080 -2.49513626  1086693020
-2.49513626 0.97247547 1.87963772  1064891431
1.67811823 6.29644632 -2.49513626  1087001291
-2.49513626 0.97247547 1.37265027  1064891431
1.16718590 6.41085148 -2.49513626  1069296487
-2.49513626 0.97305131 6.16077518  1064901092
6.13475370 1.66812789 -2.49513626  1072604806
-2.49513626 0.97305131 6.04721069  1064901092
6.01489496 2.05885816 -2.49513626  1075194772
-2.49513626 0.97305137 5.83018064  1064901092
5.70120096 2.81321335 -2.49513626  1077915223
-2.49513626 0.97305131 5.55896044  1064901092
5.50865936 3.17372441 -2.49513626  1079763076
-2.49513626 0.97305131 5.29335260  1064901092
5.23607302 3.60574508 -2.49513626  1080827858
-2.49513626 0.97305131 5.11746693  1064901092
4.99357271 3.93472743 -2.49513626  1082160807
-2.49513626 0.97305131 4.86451578  1064901092
4.79809475 4.17086792 -2.49513626  1082649382
-2.49513626 0.97305131 4.59146166  1064901092
4.52018881 4.47054291 -2.49513626  1083563286
-2.49513626 0.97305131 4.06867790  1064901092
3.98963094 4.94981718 -2.49513626  1084255488
-2.49513626 0.97305131 3.66334653  1064901092
3.49444199 5.31100273 -2.49513626  1084996153
-2.49513626 0.97305137 3.23436332  1064901092
3.05676150 5.57440948 -2.49513626  1085632228
-2.49513626 0.97305131 2.78449464  1064901092
2.69226885 5.75930262 -2.49513626  1085995197
-2.49513626 0.97305131 2.41151428  1064901092
2.31665134 5.92038727 -2.49513626  1086307521
-2.49513626 0.97305131 2.02856922  1064901092
1.83385205 6.08726835 -2.49513626  1086624774
-2.49513626 0.97305131 1.53828728  1064901093
1.43893683 6.19251919 -2.49513626  1086775309
-2.49513626 0.97305131 1.23914266  1064901093
1.13875365 6.25468493 -2.49513626  1086928834
-2.49513626 0.97305131 0.83592457  1064901092
6.01333714 1.53174663 -2.49513626  1070622997
-2.49513626 0.97360182 5.80331945  1064910328
5.65014839 2.56559873 -2.49513626  1076493659
-2.49513626 0.97360182 5.47362375  1064910328
5.37682867 3.09777188 -2.49513626  1079064405
-2.49513626 0.97360182 5.16667366  1064910328
5.11076450 3.51945496 -2.49513626  1080457520
-2.49513626 0.97360182 4.99499750  1064910328
4.93516922 3.76172256 -2.49513626  1082279441
-2.49513626 0.97360182 4.19654083  1064910328
4.12252235 4.63802576 -2.49513626  1083606178
-2.49513626 0.97360182 3.89415264  1064910328
3.73684525 4.95403337 -2.49513626  1084496877
-2.49513626 0.97360182 3.24242234  1064910328
3.15695977 5.34229040 -2.49513626  1085050388
-2.49513626 0.97360182 2.98360825  1064910328
2.80717397 5.53409719 -2.49513626  1085440797
-2.49513626 0.97360182 2.53714037  1064910328
2.44578719 5.70303345 -2.49513626  1085782850
-2.49513626 0.97360182 2.26120973  1064910328
2.16803288 5.81430101 -2.49513626  1086075141
-2.49513626 0.97360182 1.88523984  1064910328
1.69423163 5.96959257 -2.49513626  1086368705
-2.49513626 0.97360182 1.40450025  1064910328
1.30716324 6.06611872 -2.49513626  1086580751
-2.49513626 0.97360182 0.91469520  1064910328
0.81591976 6.15148354 -2.49513626  1069511550
-2.49513626 0.97412860 5.76362944  1064919166
5.73282719 1.96230936 -2.49513626  1073969167
-2.49513626 0.97412860 5.63157129  1064919166
5.59489870 2.32660508 -2.49513626  1076231568
-2.49513626 0.97412860 5.34485149  1064919166
5.29827642 2.94011045 -2.49513626  1078040536
-2.49513626 0.97412860 5.15039110  1064919166
5.04512119 3.35599470 -2.49513626  1079767595
-2.49513626 0.97412860 4.93464518  1064919166
4.69850731 3.82622600 -2.49513626  1081716266
-2.49513626 0.97412860 4.57308769  1064919166
4.37614727 4.19109774 -2.49513626  1082677571
-2.49513626 0.97412860 4.16902971  1064919166
4.09781408 4.46362019 -2.49513626  1083239642
-2.49513626 0.97412860 3.95221925  1064919166
3.87787890 4.65596724 -2.49513626  1083635549
-2.49513626 0.97412860 3.57070494  1064919166
3.49155593 4.95227575 -2.49513626  1084243848
-2.49513626 0.97412860 3.33057189  1064919166
3.24877429 5.11482334 -2.49513626  1084883990
-2.49513626 0.97412860 2.74113226  1064919166
2.65391707 5.44726610 -2.49513626  1085338569
-2.49513626 0.97412860 2.38824797  1064919166
2.20801258 5.64275312 -2.49513626  1085784984
-2.49513626 0.97412860 1.84088850  1064919166
1.74785531 5.80180836 -2.49513626  1085966445
-2.49513626 0.97412860 1.56046140  1064919166
1.46614993 5.87931681 -2.49513626  1086164105
-2.49513626 0.97412860 0.98939103  1064919166
0.89317632 5.99318218 -2.49513626  1086338918
-2.49513626 0.97412860 5.71177292  1064927629
5.68606997 1.64472175 -2.49513626  1072287580
-2.49513626 0.97463304 5.60017633  1064927629
5.53566742 2.09592104 -2.49513626  1074516210
-2.49513626 0.97463304 5.46543884  1064927629
5.42819929 2.36032820 -2.49513626  1075617817
-2.49513626 0.97463304 5.34952641  1064927629
5.30811167 2.61924672 -2.49513626  1076695588
-2.49513626 0.97463304 5.22117710  1064927629
5.17567968 2.87208104 -2.49513626  1077746968
-2.49513626 0.97463304 5.08068752  1064927629
4.92838478 3.27834201 -2.49513626  1080084034
-2.49513626 0.97463304 4.70755768  1064927629
4.52911568 3.81098676 -2.49513626  1081640933
-2.49513626 0.97463304 4.40427494  1064927629
4.34014320 4.02488041 -2.49513626  1082327820
-2.49513626 0.97463304 4.20852995  1064927629
4.14107800 4.22941780 -2.49513626  1082886116
-2.49513626 0.97463304 3.71455288  1064927629
3.63999677 4.66764688 -2.49513626  1083652024
-2.49513626 0.97463304 3.41076493  1064927629
2.92905974 5.14364719 -2.49513626  1084720713
-2.49513626 0.97463304 2.50664091  1064927629
2.33298588 5.44000769 -2.49513626  1085372930
-2.49513626 0.97463304 1.88870239  1064927629
1.70741129 5.66756153 -2.49513626  1085683582
-2.49513626 0.97463304 1.43222511  1064927629
0.96649861 5.83972454 -2.49513626  1068184777
-2.49513626 0.97511649 5.60538149  1064935740
5.55659103 1.60726941 -2.49513626  1071938657
-2.49513626 0.97511649 5.44183636  1064935740
5.37599182 2.13488054 -2.49513626  1075027710
-2.49513626 0.97511649 5.14542532  1064935740
5.10228491 2.72501588 -2.49513626  1077801088
-2.49513626 0.97511649 4.91664839  1064935740
4.65612936 3.43212485 -2.49513626  1080060635
-2.49513626 0.97511649 4.42598104  1064935740
4.30398321 3.86454844 -2.49513626  1082544867
-2.49513626 0.97511649 3.91184068  1064935740
3.84284377 4.32337475 -2.49513626  1083062960
-2.49513626 0.97511649 3.62996697  1064935740
3.55710936 4.56135750 -2.49513626  1083426354
-2.49513626 0.97511649 3.40865374  1064935740
3.33309817 4.72752523 -2.49513626  1083767229
-2.49513626 0.97511649 3.10133529  1064935740
2.61673117 5.15865707 -2.49513626  1084812263
-2.49513626 0.97511649 2.27986145  1064935740
1.30921769 5.63426828 -2.49513626  1085600347
-2.49513626 0.97511649 0.85264057  1064935740
0.76056749 5.73415613 -2.49513626  1067933213
-2.49513626 0.97558028 5.45656252  1064943521
5.43200779 1.57123291 -2.49513626  1072326278
-2.49513626 0.97558028 5.31982660  1064943521
5.28832579 2.00227213 -2.49513626  1074459971
-2.49513626 0.97558028 5.18565989  1064943521
5.03006220 2.58340144 -2.49513626  1076861345
-2.49513626 0.97558028 4.89968204  1064943521
4.80641270 2.97890615 -2.49513626  1078170078
-2.49513626 0.97558028 4.70817661  1064943521
4.60507631 3.28157759 -2.49513626  1079730889
-2.49513626 0.97558028 4.44153690  1064943521
4.38471031 3.57068753 -2.49513626  1080623433
-2.49513626 0.97558028 4.26766872  1064943521
4.20748615 3.77790308 -2.49513626  1081480495
-2.49513626 0.97558028 4.02048588  1064943521
3.95604825 4.04044151 -2.49513626  1082347501
-2.49513626 0.97558028 3.75668573  1064943521
3.68826461 4.28628016 -2.49513626  1082853977
-2.49513626 0.97558028 3.47735739  1064943521
3.33222961 4.56855869 -2.49513626  1083542456
-2.49513626 0.97558028 2.87680697  1064943521
2.71883845 4.95816565 -2.49513626  1084230157
-2.49513626 0.97558028 2.55806184  1064943521
2.47667027 5.08346224 -2.49513626  1084640596
-2.49513626 0.97558028 2.06054807  1064943521
1.97563934 5.29833412 -2.49513626  1085096490
-2.49513626 0.97558028 1.36823058  1064943521
1.27986395 5.50794220 -2.49513626  1085334469
-2.49513626 0.97558028 1.01286447  1064943521
0.74351484 5.60559320 -2.49513626  1067690946
-2.49513626 0.97602546 5.25989628  1064950990
5.23178768 1.79080629 -2.49513626  1073913450
-2.49513626 0.97602546 5.07112312  1064950990
4.95893383 2.44694710 -2.49513626  1076279718
-2.49513626 0.97602546 4.83521366  1064950990
4.79146147 2.76052117 -2.49513626  1078507796
-2.49513626 0.97602546 4.45119953  1064950990
4.39788532 3.35218978 -2.49513626  1079998967
-2.49513626 0.97602546 4.11455441  1064950990
4.05463982 3.76011658 -2.49513626  1081662771
-2.49513626 0.97602546 3.80466199  1064950990
3.67371058 4.13308954 -2.49513626  1082770854
-2.49513626 0.97602546 3.40055132  1064950990
3.25863051 4.46765137 -2.49513626  1083219799
-2.49513626 0.97602546 2.96483755  1064950990
2.88942456 4.71484947 -2.49513626  1083910185
-2.49513626 0.97602546 2.42196846  1064950990
2.09754777 5.11652946 -2.49513626  1084541286
-2.49513626 0.97602546 1.93200266  1064950990
1.84847045 5.21169281 -2.49513626  1084732434
-2.49513626 0.97602546 1.59509325  1064950990
1.50978410 5.31969309 -2.49513626  1084947481
-2.49513626 0.97602546 1.33801079  1064950990
1.25159526 5.38628674 -2.49513626  1085211955
-2.49513626 0.97602546 0.72709304  1064950990
5.26280642 1.25084364 -2.49513626  1068871068
-2.49513626 0.97645313 5.19639349  1064958165
5.14539337 1.66933250 -2.49513626  1072348131
-2.49513626 0.97645313 5.02750254  1064958165
4.85098171 2.39368105 -2.49513626  1075718799
-2.49513626 0.97645313 4.72995472  1064958165
4.50395823 2.99601674 -2.49513626  1078221442
-2.49513626 0.97645313 4.40532970  1064958165
4.35430241 3.20964313 -2.49513626  1079107244
-2.49513626 0.97645313 4.24888182  1064958165
4.19452000 3.41580534 -2.49513626  1080238247
-2.49513626 0.97645313 4.02498293  1064958165
3.96637416 3.67826414 -2.49513626  1081307739
-2.49513626 0.97645313 3.72183728  1064958165
3.65826201 3.98483014 -2.49513626  1082458727
-2.49513626 0.97645313 3.32652569  1064958165
3.25752950 4.31859207 -2.49513626  1082907201
-2.49513626 0.97645313 2.97331691  1064958165
2.82652450 4.61221457 -2.49513626  1083688825
-2.49513626 0.97645313 2.44710493  1064958165
2.36924291 4.86296368 -2.49513626  1084167860
-2.49513626 0.97645313 2.05188489  1064958165
1.88994515 5.06851673 -2.49513626  1084549977
-2.49513626 0.97645313 1.56037104  1064958165
1.39307833 5.22695589 -2.49513626  1084749086
-2.49513626 0.97645313 1.22434878  1064958165
1.13949561 5.28803205 -2.49513626  1084902707
-2.49513626 0.97645313 0.88326371  1064958165
0.71126354 5.36244535 -2.49513626  1067232210
-2.49513626 0.97686422 5.12949753  1064965062
5.08484936 1.47081566 -2.49513626  1070667389
-2.49513626 0.97686422 4.97983694  1064965062
4.95034885 1.87430704 -2.49513626  1073352879
-2.49513626 0.97686422 4.88754511  1064965062
4.81969023 2.18850827 -2.49513626  1074856239
-2.49513626 0.97686422 4.74685431  1064965062
4.70859051 2.41829729 -2.49513626  1075812424
-2.49513626 0.97686422 4.58654308  1064965062
4.49923515 2.78852463 -2.49513626  1077649675
-2.49513626 0.97686422 4.31076574  1064965062
4.15767908 3.27607870 -2.49513626  1079372608
-2.49513626 0.97686422 3.64194655  1064965062
3.57973409 3.89929438 -2.49513626  1081947271
-2.49513626 0.97686422 3.45254850  1064965062
3.38760591 4.06732273 -2.49513626  1082384712
-2.49513626 0.97686422 3.25511861  1064965062
3.18760514 4.22589254 -2.49513626  1082814454
-2.49513626 0.97686422 2.83803940  1064965062
2.76585150 4.51320934 -2.49513626  1083475315
-2.49513626 0.97686422 2.39457583  1064965062
2.31838632 4.75857830 -2.49513626  1083944060
-2.49513626 0.97686422 2.00784016  1064965062
1.76941705 4.98880196 -2.49513626  1084262394
-2.49513626 0.97686422 1.44521308  1064965062
1.36317551 5.11475658 -2.49513626  1084512813
-2.49513626 0.97686422 1.11503744  1064965062
1.03171718 5.19177675 -2.49513626  1067014781
-2.49513626 0.97725976 5.02087545  1064971698
4.99966955 1.35948241 -2.49513626  1071040002
-2.49513626 0.97725976 4.84552002  1064971698
4.75145006 2.06605840 -2.49513626  1074338105
-2.49513626 0.97725976 4.68258524  1064971698
4.60888052 2.36708713 -2.49513626  1075590933
-2.49513626 0.97725976 4.40395880  1064971698
4.31394815 2.86962247 -2.49513626  1077678565
-2.49513626 0.97725976 4.21948099  1064971698
4.12065220 3.14087701 -2.49513626  1079344821
-2.49513626 0.97725976 3.79904413  1064971698
3.74192476 3.58369780 -2.49513626  1080634648
-2.49513626 0.97725976 3.56482434  1064971698
3.37943506 3.92737961 -2.49513626  1082051548
-2.49513626 0.97725976 3.25144863  1064971698
3.12010407 4.13640451 -2.49513626  1082520546
-2.49513626 0.97725976 2.98553514  1064971698
2.91708589 4.28199673 -2.49513626  1082913820
-2.49513626 0.97725976 2.70728183  1064971698
2.56388521 4.50237417 -2.49513626  1083269195
-2.49513626 0.97725976 2.19413090  1064971698
1.96532202 4.79399538 -2.49513626  1083982549
-2.49513626 0.97725976 1.65323329  1064971698
1.57409346 4.93630552 -2.49513626  1084194767
-2.49513626 0.97725976 1.33430874  1064971698
1.25366545 5.02724648 -2.49513626  1084363785
-2.49513626 0.97725976 0.92805552  1064971698
0.84600204 5.11166811 -2.49513626  1084513257
-2.49513626 0.97725976 4.93543100  1064978085
4.91593790 1.25221288 -2.49513626  1068130423
-2.49513626 0.97764045 4.87314796  1064978085
4.84986115 1.48772788 -2.49513626  1071391187
-2.49513626 0.97764045 4.74424744  1064978085
4.65214443 2.02287769 -2.49513626  1074768504
-2.49513626 0.97764045 4.51255465  1064978085
4.47471905 2.38984942 -2.49513626  1075677360
-2.49513626 0.97764045 4.39558840  1064978085
4.35431337 2.60277128 -2.49513626  1077137724
-2.49513626 0.97764045 4.13129377  1064978085
4.08343935 3.00998425 -2.49513626  1078521997
-2.49513626 0.97764045 3.93359876  1064978085
3.88159871 3.26613855 -2.49513626  1079312321
-2.49513626 0.97764045 3.66371799  1064978085
3.43069720 3.73695040 -2.49513626  1082235190
-2.49513626 0.97764045 2.98940110  1064978085
2.78836012 4.23786926 -2.49513626  1082722122
-2.49513626 0.97764045 2.43911672  1064978085
2.36730361 4.48668814 -2.49513626  1083450635
-2.49513626 0.97764045 1.99944496  1064978085
1.92424631 4.69379854 -2.49513626  1083649027
-2.49513626 0.97764045 1.77237988  1064978085
1.69574964 4.78109837 -2.49513626  1083824381
-2.49513626 0.97764045 1.54119492  1064978085
1.30642211 4.90180969 -2.49513626  1084141783
-2.49513626 0.97764045 0.98876435  1064978085
0.90865898 4.99087095 -2.49513626  1066601661
-2.49513626 0.97800714 4.79415226  1064984237
4.77257872 1.38049018 -2.49513626  1069187022
-2.49513626 0.97800714 4.72573948  1064984237
4.70048475 1.60894537 -2.49513626  1073968772
-2.49513626 0.97800714 4.49010277  1064984237
4.41942739 2.26978517 -2.49513626  1075464289
-2.49513626 0.97800714 4.26445341  1064984237
4.13661909 2.75166202 -2.49513626  1077171919
-2.49513626 0.97800714 4.04603434  1064984237
3.95126843 3.01176667 -2.49513626  1078250236
-2.49513626 0.97800714 3.85241985  1064984237
3.80149460 3.19873428 -2.49513626  1079024242
-2.49513626 0.97800714 3.64287996  1064984237
3.47579646 3.54994369 -2.49513626  1080703660
-2.49513626 0.97800714 3.11779451  1064984237
2.86281085 4.06048918 -2.49513626  1082352688
-2.49513626 0.97800714 2.73081517  1064984237
2.52757144 4.27722454 -2.49513626  1082877561
-2.49513626 0.97800714 2.17601109  1064984237
2.03132272 4.53398228 -2.49513626  1083317519
-2.49513626 0.97800714 1.88453591  1064984237
1.73580253 4.65513277 -2.49513626  1083561592
-2.49513626 0.97800714 1.27946067  1064984237
1.20213234 4.82059574 -2.49513626  1083890562
-2.49513626 0.97800714 0.96835822  1064984237
0.88990623 4.88787365 -2.49513626  1084070488
-2.49513626 0.97800714 4.71633863  1064990166
4.65294409 1.42732215 -2.49513626  1071421025
-2.49513626 0.97836053 4.52333164  1064990166
4.49387455 1.86875105 -2.49513626  1073244746
-2.49513626 0.97836053 4.43148422  1064990166
4.39856863 2.08320451 -2.49513626  1074386223
-2.49513626 0.97836053 4.21711636  1064990166
4.17751884 2.49709392 -2.49513626  1076659245
-2.49513626 0.97836053 3.96355271  1064990166
3.87071776 2.95036888 -2.49513626  1077987321
-2.49513626 0.97836053 3.77388453  1064990166
