# .PCD v0.7 - Point Cloud Data file format
VERSION 0.7
FIELDS x y z intensity
SIZE 4 4 4 4
TYPE F F F F
COUNT 1 1 1 1
WIDTH 1001
HEIGHT 1
VIEWPOINT 0 0 0 1 0 0 0
POINTS 1001
DATA ascii
-21.42446327 -59.96173859 -2.64753628  3262197827
-2.64753628 0.77498055 -19.49333000  1061578016
-17.54218102 -61.21021652 -2.64753628  3262698649
-2.64753628 0.77498055 -12.58997440  1061578016
-7.55708408 -63.22427750 -2.64753628  3263057981
-2.64753628 0.77498055 -0.43696257  1061578016
1.60227811 -63.65416336 -2.64753628  3263068984
-2.64753628 0.77498055 3.63987565  1061578016
6.68861961 -63.32204056 -2.64753628  3262926126
-2.64753628 0.77498055 12.73281860  1061578016
13.73027039 -62.17634583 -2.64753628  3262630725
-2.64753628 0.77498055 15.71431637  1061578016
17.68223381 -61.16989517 -2.64753628  3262350329
-2.64753628 0.77498055 19.63203239  1061578016
21.56169891 -59.91253662 -2.64753628  3262004481
-2.64753628 0.77498055 23.46923065  1061578016
24.41409683 -58.80791473 -2.64753628  3261702973
-2.64753628 0.77498055 -43.69063950  1062141964
-43.20322800 -30.78335381 -2.64753628  3254502681
-2.64753628 0.80859447 -42.19527435  1062141964
-41.67500305 -32.82266617 -2.64753628  3255169402
-2.64753628 0.80859452 -40.60254669  1062141964
-40.05061340 -34.78623581 -2.64753628  3255142734
-2.49513626 0.81854409 -34.42583466  1062308891
-33.84087753 -36.80046082 -2.49513626  3256179138
-2.49513626 0.81854409 -32.64501953  1062308890
-30.15415001 -39.87738419 -2.49513626  3256970154
-2.49513626 0.81854409 -28.86170387  1062308891
-28.20427704 -41.27950287 -2.49513626  3257329479
-2.49513626 0.81854409 -26.18929100  1062308891
-25.50395012 -43.00031662 -2.49513626  3257769186
-2.49513626 0.81854409 -24.11384773  1062308891
-22.70069313 -44.53219986 -2.49513626  3258506969
-2.49513626 0.81854409 -18.32075500  1062308890
-17.57350159 -46.80438995 -2.49513626  3258732987
-2.49513626 0.81854403 -16.06564522  1062308890
-15.30546188 -47.59433365 -2.49513626  3258930519
-2.49513626 0.81854409 -13.77348328  1062308891
-13.00209236 -48.27447128 -2.49513626  3259148816
-2.49513626 0.81854409 -10.66872501  1062308891
-7.52018404 -49.42595673 -2.49513626  3259464184
-2.49513626 0.81854409 -2.74362540  1062308891
-1.94386208 -49.95698166 -2.49513626  3259493702
-2.49513626 0.81854403 2.05823779  1062308890
4.45482206 -49.79591370 -2.49513626  3259373851
-2.49513626 0.81854409 7.63332748  1062308891
8.42356110 -49.28004456 -2.49513626  3259232423
-2.49513626 0.81854409 10.78051472  1062308891
11.56090832 -48.63972855 -2.49513626  3259091744
-2.49513626 0.81854409 13.11257744  1062308891
13.88347054 -48.02840042 -2.49513626  3258921756
-2.49513626 0.81854409 16.17400932  1062308890
16.92947388 -47.04117966 -2.49513626  3258495498
-2.49513626 0.81854403 19.90602875  1062308891
-35.66744995 -23.72946167 -2.49513626  3251327449
-2.49513626 0.84227401 -33.65514374  1062707013
-33.22637939 -27.04187202 -2.49513626  3252731009
-2.49513626 0.84227395 -31.88934326  1062707012
-30.95693016 -29.61289787 -2.49513626  3253786287
-2.49513626 0.84227395 -29.49905396  1062707012
-28.48911476 -31.99414635 -2.49513626  3255013234
-2.49513626 0.84227395 -26.91970062  1062707012
-26.38259125 -33.75224304 -2.49513626  3255348866
-2.49513626 0.84227395 -25.28820038  1062707012
-24.73121834 -34.98031235 -2.49513626  3255764082
-2.49513626 0.84227401 -23.02276230  1062707013
-22.44125366 -36.49171066 -2.49513626  3256050360
-2.49513626 0.84227395 -21.26116180  1062707012
-20.66284180 -37.52734756 -2.49513626  3256314345
-2.49513626 0.84227395 -18.83675575  1062707012
-18.21817398 -38.77309799 -2.49513626  3256630605
-2.49513626 0.84227395 -16.96719742  1062707013
-16.33509636 -39.60327530 -2.49513626  3256840300
-2.49513626 0.84227395 -15.05850029  1062707012
-13.76644897 -40.56772232 -2.49513626  3257186919
-2.49513626 0.84227401 -10.47747326  1062707012
-9.14189434 -41.85308075 -2.49513626  3257493738
-2.49513626 0.84227401 -4.40253830  1062707013
-3.03566432 -42.73218155 -2.49513626  3257604589
-2.49513626 0.84227401 -0.97994751  1062707012
0.39205253 -42.83808899 -2.49513626  3257611992
-2.49513626 0.84227395 2.44889688  1062707012
3.13348603 -42.72512436 -2.49513626  3257576842
-2.49513626 0.84227395 5.18175077  1062707013
5.86207390 -42.43690491 -2.49513626  3257429241
-2.49513626 0.84227401 9.23768806  1062707012
10.57255077 -41.51477051 -2.49513626  3257228366
-2.49513626 0.84227395 13.20838451  1062707013
14.50664997 -40.30896378 -2.49513626  3256830851
-2.49513626 0.84227395 17.05722618  1062707012
-30.86182594 -21.25300980 -2.49513626  3250158300
-2.49513626 0.86051911 -29.06299210  1063013115
-26.65966034 -26.33258057 -2.49513626  3252030620
-2.49513626 0.86051911 -24.91932869  1063013115
-24.46795654 -28.38065147 -2.49513626  3253085844
-2.49513626 0.86051911 -23.54656982  1063013115
-23.07675934 -29.52296829 -2.49513626  3253672993
-2.49513626 0.86051911 -20.64139366  1063013115
-19.62928581 -31.91916466 -2.49513626  3254996183
-2.49513626 0.86051911 -17.54574966  1063013115
-15.39024544 -34.16551590 -2.49513626  3255472185
-2.49513626 0.86051911 -13.73169994  1063013115
-13.17143917 -35.08105469 -2.49513626  3255693328
-2.49513626 0.86051911 -9.16461372  1063013115
-7.40910673 -36.73210526 -2.49513626  3256102563
-2.49513626 0.86051911 -5.04253578  1063013115
-4.44729137 -37.20703888 -2.49513626  3256177229
-2.49513626 0.86051911 -2.65528440  1063013115
-0.85716754 -37.46207809 -2.49513626  3256214095
-2.49513626 0.86051911 0.94292945  1063013115
2.74084902 -37.37151718 -2.49513626  3256175251
-2.49513626 0.86051911 3.93620849  1063013115
4.53244925 -37.19676590 -2.49513626  3256099154
-2.49513626 0.86051911 6.31359243  1063013115
6.90426207 -36.83033371 -2.49513626  3256015926
-2.49513626 0.86051911 8.66508389  1063013115
9.24776554 -36.31282425 -2.49513626  3255735775
-2.49513626 0.86051911 12.12267303  1063013115
13.25188541 -35.05038834 -2.49513626  3255522737
-2.49513626 0.86051911 14.91988754  1063013115
-27.72087860 -18.44261742 -2.49513626  3247903443
-2.49513626 0.87497944 -26.80320168  1063255722
-26.48344421 -20.17930412 -2.49513626  3248803449
-2.49513626 0.87497962 -25.48378563  1063255722
-25.13736343 -21.83323479 -2.49513626  3249865767
-2.49513626 0.87497962 -24.05983925  1063255722
-23.68820000 -23.39757538 -2.49513626  3250852047
-2.49513626 0.87497962 -22.14183998  1063255722
-21.33416367 -25.56229401 -2.49513626  3251582087
-2.49513626 0.87497962 -20.50464249  1063255722
-20.08192635 -26.55736542 -2.49513626  3252256412
-2.49513626 0.87497962 -17.89337921  1063255722
-17.44142914 -28.36148453 -2.49513626  3253016804
-2.49513626 0.87497962 -16.52425194  1063255722
-15.11699390 -29.66569519 -2.49513626  3253801888
-2.49513626 0.87497962 -13.18696785  1063255723
-11.70352173 -31.17057800 -2.49513626  3254441212
-2.49513626 0.87497962 -9.68417835  1063255722
-9.17282486 -32.00660706 -2.49513626  3254819124
-2.49513626 0.87497962 -8.14313030  1063255723
-7.10511398 -32.52836990 -2.49513626  3254947145
-2.49513626 0.87497967 -6.05979681  1063255722
-3.42166853 -33.11901855 -2.49513626  3255086498
-2.49513626 0.87497962 -2.35932803  1063255722
-1.82718766 -33.24512482 -2.49513626  3255117177
-2.49513626 0.87497962 -0.22848776  1063255722
0.30470499 -33.29391098 -2.49513626  3255116696
-2.49513626 0.87497962 2.96680593  1063255722
3.49748182 -33.11109924 -2.49513626  3255055376
-2.49513626 0.87497962 4.55602217  1063255722
5.08361006 -32.90492630 -2.49513626  3254772427
-2.49513626 0.87497967 9.75708580  1063255722
11.27461433 -31.32826805 -2.49513626  3254330960
-2.49513626 0.87497962 12.76613331  1063255722
13.25692844 -30.54228210 -2.49513626  3246909441
-2.49513626 0.88672054 -23.82462502  1063452702
-23.53085899 -18.53259277 -2.49513626  3248300376
-2.49513626 0.88672054 -21.97310448  1063452702
-21.31000900 -21.04856491 -2.49513626  3249215710
-2.49513626 0.88672054 -20.27456093  1063452702
-19.91890526 -22.36953735 -2.49513626  3250059189
-2.49513626 0.88672054 -18.82160950  1063452702
-18.44607544 -23.59875107 -2.49513626  3250528518
-2.49513626 0.88672054 -17.29146576  1063452702
-16.49939346 -24.99857140 -2.49513626  3251245986
-2.49513626 0.88672054 -15.69033146  1063452696
-14.86529064 -26.00349617 -2.49513626  3251994567
-2.49513626 0.88672054 -13.17020702  1063452702
-12.73771667 -27.10920334 -2.49513626  3252320478
-2.49513626 0.88672256 -11.42110538  1063452702
-9.62516499 -28.36397362 -2.49513626  3252952480
-2.49513626 0.88672054 -8.71192551  1063452702
-7.78973961 -28.92194366 -2.49513626  3253344751
-2.49513626 0.88672054 -5.92236090  1063452702
-5.45141792 -29.45234489 -2.49513626  3253487987
-2.49513626 0.88672054 -4.50544834  1063452702
-3.07814908 -29.79401970 -2.49513626  3253647175
-2.49513626 0.88672054 -1.16459990  1063452702
-0.20554325 -29.95189857 -2.49513626  3253705824
-2.49513626 0.88672054 0.75371671  1063452702
3.14635086 -29.78689384 -2.49513626  3253558763
-2.49513626 0.88672054 5.04667950  1063452702
5.98956585 -29.34763908 -2.49513626  3253337039
-2.49513626 0.88672054 7.39207554  1063452702
7.85594082 -28.90402603 -2.49513626  3253088823
-2.49513626 0.88672054 8.77751827  1063452702
9.69008827 -28.34185791 -2.49513626  3252778722
-2.49513626 0.88672054 11.48446846  1063452702
-21.90963745 -16.14629364 -2.49513626  3246831513
-2.49513626 0.89644140 -20.25950241  1063615791
-19.96586800 -18.49592209 -2.49513626  3248191406
-2.49513626 0.89644140 -18.42248917  1063615791
-17.43910027 -20.89528275 -2.49513626  3249384290
-2.49513626 0.89644140 -14.99218464  1063615791
-14.62651062 -22.95213127 -2.49513626  3250157476
-2.49513626 0.89644140 -13.88399220  1063615791
-13.12723446 -23.84136581 -2.49513626  3250716421
-2.49513626 0.89644140 -11.96711540  1063615791
-10.77936745 -24.99080086 -2.49513626  3251279328
-2.49513626 0.89644140 -9.56676292  1063615791
-8.74591064 -25.77293587 -2.49513626  3251719746
-2.49513626 0.89644140 -7.07815599  1063615791
-6.65640497 -26.38991356 -2.49513626  3251990237
-2.49513626 0.89644140 -4.09388447  1063615791
-3.66247773 -26.96889305 -2.49513626  3252218058
-2.49513626 0.89644140 -1.49358761  1063615791
-1.05821431 -27.19586945 -2.49513626  3252259850
-2.49513626 0.89644140 2.85893297  1063615791
3.29199314 -27.01662254 -2.49513626  3252104642
-2.49513626 0.89644140 5.01467991  1063615791
5.86875820 -26.57616425 -2.49513626  3251885193
-2.49513626 0.89644140 6.71680975  1063615791
7.13830423 -26.26365852 -2.49513626  3251710713
-2.49513626 0.89644140 8.39137173  1063615792
8.80489635 -25.75284195 -2.49513626  3251349840
-2.49513626 0.89644140 10.83656597  1063615791
-20.76041985 -13.81185055 -2.49513626  3245125550
-2.49513626 0.90462154 -19.83369637  1063753029
-19.58914948 -15.42813778 -2.49513626  3246575228
-2.49513626 0.90462178 -18.56134605  1063753029
-18.01863480 -17.23633194 -2.49513626  3247337383
-2.49513626 0.90462142 -17.17006493  1063753029
-16.58222771 -18.62234879 -2.49513626  3247904138
-2.49513626 0.90462142 -15.97735214  1063753029
-14.06702995 -20.58836555 -2.49513626  3248913639
-2.49513626 0.90462142 -13.40051365  1063753029
-12.72023201 -21.44662476 -2.49513626  3249454683
-2.49513626 0.90462154 -10.60398769  1063753029
-10.24122906 -22.73497963 -2.49513626  3250088198
-2.49513626 0.90462142 -9.13757515  1063753028
-8.01283073 -23.61263847 -2.49513626  3250510695
-2.49513626 0.90462142 -6.48486328  1063753029
-6.09846258 -24.17786980 -2.49513626  3250774761
-2.49513626 0.90462142 -2.95939970  1063753039
-2.56252337 -24.80313683 -2.49513626  3251056193
-2.49513626 0.90462142 -0.57039052  1063753029
0.22819738 -24.93413544 -2.49513626  3251071736
-2.49513626 0.90462154 1.02655375  1063753029
1.82386076 -24.86837196 -2.49513626  3251003566
-2.49513626 0.90462142 3.01605582  1063753029
3.80715680 -24.64277077 -2.49513626  3250852068
-2.49513626 0.90462142 4.98623133  1063753029
5.37683582 -24.34854507 -2.49513626  3250671520
-2.49513626 0.90462142 6.92444563  1063753029
7.68799734 -23.72039223 -2.49513626  3250231082
-2.49513626 0.90462142 9.56067276  1063753029
-18.94584465 -13.04706860 -2.49513626  3243924069
-2.49513626 0.91159946 -18.29740715  1063870101
-17.36740112 -15.08457565 -2.49513626  3245721008
-2.49513626 0.91159946 -16.62293625  1063870101
-16.36617088 -16.16537857 -2.49513626  3246748438
-2.49513626 0.91159946 -15.02070141  1063870101
-13.57899666 -18.56830406 -2.49513626  3248173589
-2.49513626 0.91159946 -12.05027676  1063870101
-11.41660118 -19.97078896 -2.49513626  3248567642
-2.49513626 0.91159946 -10.77121353  1063870101
-10.11476898 -20.66065407 -2.49513626  3249076998
-2.49513626 0.91159946 -8.08595848  1063870101
-7.39216471 -21.78364182 -2.49513626  3249541784
-2.49513626 0.91159981 -6.33748865  1063870101
-4.18671131 -22.61951447 -2.49513626  3249895457
-2.49513626 0.91159946 -3.09557915  1063870101
-2.36402988 -22.88192177 -2.49513626  3250054141
-2.49513626 0.91159946 0.21052021  1063870101
0.57885742 -22.99643517 -2.49513626  3250053035
-2.49513626 0.91159946 1.68258417  1063870101
2.41640949 -22.87645149 -2.49513626  3249974709
-2.49513626 0.91159946 3.51226735  1063870101
4.23847628 -22.60987282 -2.49513626  3249641044
-2.49513626 0.91159946 6.74116802  1063870101
7.78962755 -21.64468956 -2.49513626  3249141514
-2.49513626 0.91159946 -17.58158302  1063971134
-16.77047157 -13.20819473 -2.49513626  3244019900
-2.49513626 0.91762149 -15.89056206  1063971134
-15.18766403 -15.00133228 -2.49513626  3245597144
-2.49513626 0.91762149 -14.69951344  1063971141
-14.44970322 -15.71340942 -2.49513626  3246331305
-2.49513626 0.91762149 -13.67838001  1063971134
-13.14653301 -16.81885338 -2.49513626  3247036813
-2.49513626 0.91762149 -12.04292965  1063971134
-11.75913429 -17.81650543 -2.49513626  3247441198
-2.49513626 0.91762149 -11.18255234  1063971134
-10.88992310 -18.36068153 -2.49513626  3247719168
-2.49513626 0.91762149 -10.29636192  1063971134
-9.07818317 -19.32076073 -2.49513626  3248207250
-2.49513626 0.91762149 -7.82277060  1063971134
-6.53527308 -20.32228470 -2.49513626  3248710921
-2.49513626 0.91762149 -5.55176020  1063971134
-5.22096109 -20.69895744 -2.49513626  3248936992
-2.49513626 0.91762149 -3.88523221  1063971134
-3.54859304 -21.05023575 -2.49513626  3249067390
-2.49513626 0.91762191 -1.85347557  1063971134
-1.17149675 -21.31508446 -2.49513626  3249191867
-2.49513626 0.91762149 -0.14649597  1063971134
0.87884343 -21.32915306 -2.49513626  3249176496
-2.49513626 0.91762149 2.58208346  1063971134
2.92108870 -21.14645004 -2.49513626  3249063571
-2.49513626 0.91762149 3.59677267  1063971134
5.26833296 -20.68694496 -2.49513626  3248802983
-2.49513626 0.91762149 6.25574207  1063971133
6.58177757 -20.30735397 -2.49513626  3248533584
-2.49513626 0.91762149 7.54943085  1063971133
-16.57719231 -11.02876282 -2.49513626  3241455444
-2.49513626 0.92287099 -16.21551895  1064059206
-15.64192867 -12.31937122 -2.49513626  3242792873
-2.49513626 0.92287099 -15.03224373  1064059206
-14.82123375 -13.29540825 -2.49513626  3244045849
-2.49513626 0.92287099 -14.16563416  1064059206
-13.47733021 -14.65600109 -2.49513626  3245206346
-2.49513626 0.92287099 -12.75791454  1064059206
-12.26185799 -15.68705654 -2.49513626  3246621882
-2.49513626 0.92287099 -10.96782207  1064059206
-10.15713787 -17.12462044 -2.49513626  3247147115
-2.49513626 0.92287099 -9.32295227  1064059206
-8.46727562 -18.02060127 -2.49513626  3247520550
-2.49513626 0.92287099 -6.99874878  1064059206
-6.39824247 -18.85468864 -2.49513626  3247990329
-2.49513626 0.92287099 -5.48537540  1064059206
-5.17816162 -19.22559166 -2.49513626  3248201184
-2.49513626 0.92287099 -3.93683577  1064059206
-3.62378097 -19.57818031 -2.49513626  3248346691
-2.49513626 0.92287099 -2.36306906  1064059206
-1.72875237 -19.83552742 -2.49513626  3248415399
-2.49513626 0.92287099 -1.09266293  1064059206
0.50102645 -19.90441513 -2.49513626  3248424571
-2.49513626 0.92287099 1.45635235  1064059206
1.77415931 -19.83151817 -2.49513626  3248364997
-2.49513626 0.92287099 3.35473371  1064059206
3.66858959 -19.56983185 -2.49513626  3248230799
-2.49513626 0.92287099 4.60420132  1064059206
5.22216463 -19.21368408 -2.49513626  3248031061
-2.49513626 0.92287099 5.83477688  1064059206
6.44139624 -18.83999252 -2.49513626  3247706688
-2.49513626 0.92287099 -15.52994919  1064136656
-15.36250687 -10.57939816 -2.49513626  3241217528
-2.49513626 0.92748743 -14.27666187  1064136657
-13.68368340 -12.67624092 -2.49513626  3243134130
-2.49513626 0.92748743 -13.27072620  1064136657
-13.05910206 -13.31876278 -2.49513626  3244427751
-2.49513626 0.92748737 -11.48723030  1064136656
-11.01072025 -15.05637169 -2.49513626  3245584674
-2.49513626 0.92748737 -10.52291203  1064136657
-8.73397160 -16.48170662 -2.49513626  3246919263
-2.49513626 0.92748743 -7.38767147  1064136657
-6.55661249 -17.46256065 -2.49513626  3247211974
-2.49513626 0.92748737 -5.71041250  1064136657
-5.42531681 -17.84644508 -2.49513626  3247403713
-2.49513626 0.92748743 -3.98046327  1064136657
-3.68813038 -18.28461838 -2.49513626  3247618831
-2.49513626 0.92748737 -3.10070157  1064136657
-2.80575299 -18.44066048 -2.49513626  3247693211
-2.49513626 0.92748743 -2.21378756  1064136657
-1.02363467 -18.62476349 -2.49513626  3247774779
-2.49513626 0.92748731 -0.42667806  1064136656
-0.12800583 -18.65244675 -2.49513626  3247781755
-2.49513626 0.92748743 0.46937430  1064136657
1.36434817 -18.60290909 -2.49513626  3247710361
-2.49513626 0.92748743 2.55239868  1064136656
2.84796858 -18.43417168 -2.49513626  3247642354
-2.49513626 0.92748743 3.43682551  1064136655
3.72997665 -18.27613068 -2.49513626  3247517111
-2.49513626 0.92748737 4.60338545  1064136655
5.17986870 -17.91922379 -2.49513626  3247352834
-2.49513626 0.92748737 5.75104475  1064136657
6.03446102 -17.64978409 -2.49513626  3247204409
-2.49513626 0.92748737 7.42687416  1064136655
-14.60520077 -9.71680355 -2.49513626  3240288077
-2.49513626 0.93157834 -14.12171078  1064205291
-13.95324230 -10.63180256 -2.49513626  3240995202
-2.49513626 0.93157834 -13.60561943  1064205291
-13.42655563 -11.28963184 -2.49513626  3241896907
-2.49513626 0.93157834 -12.86887455  1064205291
-12.67632198 -12.12596321 -2.49513626  3242748220
-2.49513626 0.93157834 -12.07934284  1064205291
-11.66579723 -13.10104561 -2.49513626  3243923140
-2.49513626 0.93157834 -10.80321121  1064205291
-10.35508060 -14.15977001 -2.49513626  3244801825
-2.49513626 0.93157834 -9.66311169  1064205291
-9.42742062 -14.79364491 -2.49513626  3245434950
-2.49513626 0.93157834 -8.70607567  1064205291
-8.46107769 -15.36679268 -2.49513626  3246003180
-2.49513626 0.93157834 -7.71331644  1064205291
-7.46002960 -15.87690258 -2.49513626  3246385353
-2.49513626 0.93157834 -6.42838812  1064205291
-5.90240908 -16.51937675 -2.49513626  3246712043
-2.49513626 0.93157834 -5.10226727  1064205291
-4.83284616 -16.86332703 -2.49513626  3246883369
-2.49513626 0.93157834 -4.29034424  1064205291
-3.74344563 -17.13810921 -2.49513626  3247018271
-2.49513626 0.93157834 -3.19270277  1064205291
-2.08196259 -17.41819382 -2.49513626  3247165110
-2.49513626 0.93157834 -0.96268195  1064205291
-0.40127447 -17.53759003 -2.49513626  3247199627
-2.49513626 0.93157834 0.16054405  1064205291
1.28311002 -17.49519157 -2.49513626  3247163260
-2.49513626 0.93157834 2.12183237  1064205291
2.40041566 -17.37717056 -2.49513626  3247068359
-2.49513626 0.93157834 3.50787497  1064205291
4.05649424 -17.06672096 -2.49513626  3246915361
-2.49513626 0.93157834 5.14068413  1064205291
5.67514133 -16.59882355 -2.49513626  3246656489
-2.49513626 0.93157834 6.46573782  1064205291
6.72604847 -16.20149612 -2.49513626  3239229016
-2.49513626 0.93522841 -13.48188305  1064266529
-13.32632542 -9.82082939 -2.49513626  3240134422
-2.49513626 0.93522835 -12.49808788  1064266528
-12.32264900 -11.05405140 -2.49513626  3241410523
-2.49513626 0.93522835 -11.96234989  1064266528
-11.77757263 -11.63307667 -2.49513626  3242008461
-2.49513626 0.93522841 -11.39899635  1064266528
-10.40228462 -12.87758636 -2.49513626  3243290145
-2.49513626 0.93522835 -8.89643574  1064266528
-8.67173100 -14.10109234 -2.49513626  3244819776
-2.49513626 0.93522841 -7.75127363  1064266528
-7.27888536 -14.86800385 -2.49513626  3245440734
-2.49513626 0.93522841 -6.06632090  1064266529
-5.31961966 -15.67613983 -2.49513626  3246138921
-2.49513626 0.93522835 -4.81488991  1064266528
-4.56064272 -15.91352749 -2.49513626  3246418251
-2.49513626 0.93522835 -3.79113150  1064266529
-2.49006414 -16.36579514 -2.49513626  3246602883
-2.49513626 0.93522841 -1.96470213  1064266528
-1.70122480 -16.46649551 -2.49513626  3246649051
-2.49513626 0.93522841 -0.90846020  1064266528
-0.37867340 -16.54981232 -2.49513626  3246681463
-2.49513626 0.93522841 0.68151653  1064266529
1.47506678 -16.48829460 -2.49513626  3246633810
-2.49513626 0.93522841 2.26521564  1064266528
2.52753019 -16.36005402 -2.49513626  3246557747
-2.49513626 0.93522835 3.31030393  1064266521
3.56961441 -16.16470146 -2.49513626  3246289627
-2.49513626 0.93522841 4.85114002  1064266529
5.10396957 -15.74767399 -2.49513626  3245946859
-2.49513626 0.93522835 5.85435104  1064266529
6.34721184 -15.28896904 -2.49513626  3239148522
-2.49513626 0.93850493 -12.61407852  1064321500
-12.46359253 -9.49674988 -2.49513626  3240388322
-2.49513626 0.93850493 -11.66404247  1064321500
-11.49499035 -10.64869404 -2.49513626  3240971622
-2.49513626 0.93850493 -10.78975582  1064321500
-10.60641670 -11.53400707 -2.49513626  3242058323
-2.49513626 0.93850493 -10.04024792  1064321500
-9.64985847 -12.34543037 -2.49513626  3243609879
-2.49513626 0.93850493 -7.33699274  1064321500
-6.43563509 -14.28677845 -2.49513626  3244700993
-2.49513626 0.93850493 -5.74209452  1064321500
-5.50788736 -14.66944504 -2.49513626  3245334269
-2.49513626 0.93850493 -4.31689310  1064321500
-4.07511997 -15.13019466 -2.49513626  3245545630
-2.49513626 0.93850493 -3.34379721  1064321500
-3.09822011 -15.36002922 -2.49513626  3245770196
-2.49513626 0.93850493 -2.35697842  1064321500
-2.10860538 -15.52685165 -2.49513626  3245928485
-2.49513626 0.93850493 -1.61029947  1064321500
-1.36049831 -15.61020374 -2.49513626  3246003312
-2.49513626 0.93850493 0.39429861  1064321500
0.89572364 -15.64375687 -2.49513626  3246000605
-2.49513626 0.93850493 1.39623129  1064321500
1.64597869 -15.58269024 -2.49513626  3245923979
-2.49513626 0.93850493 2.14414787  1064321500
2.88711095 -15.40110111 -2.49513626  3245712756
-2.49513626 0.93850493 3.62342310  1064321500
3.86707878 -15.18469906 -2.49513626  3245469415
-2.49513626 0.93850493 4.35135555  1064321500
5.06926394 -14.82673264 -2.49513626  3245073920
-2.49513626 0.93850493 5.77545452  1064321500
6.00797606 -14.47182178 -2.49513626  3238252221
-2.49513626 0.94146234 -11.53494072  1064371117
-11.22838116 -9.75248718 -2.49513626  3240212104
-2.49513626 0.94146234 -10.74707603  1064371117
-10.41234016 -10.61937237 -2.49513626  3240922702
-2.49513626 0.94146234 -9.52957153  1064371117
-9.34550190 -11.56933403 -2.49513626  3241900773
-2.49513626 0.94146234 -8.97021770  1064371117
-8.58574009 -12.14383411 -2.49513626  3242490359
-2.49513626 0.94146234 -7.58688354  1064371117
-6.75247955 -13.25110817 -2.49513626  3243620478
-2.49513626 0.94146234 -6.32466650  1064371117
-4.55304813 -14.15830326 -2.49513626  3244534685
-2.49513626 0.94146234 -3.86785030  1064371117
-3.40598631 -14.47712231 -2.49513626  3244849688
-2.49513626 0.94146234 -2.94063568  1064371117
-2.47226429 -14.66545868 -2.49513626  3245098684
-2.49513626 0.94146234 -1.29129803  1064371117
-0.57826310 -14.86114025 -2.49513626  3245204823
-2.49513626 0.94146234 -0.10206117  1064371117
0.13610594 -14.87176132 -2.49513626  3245183399
-2.49513626 0.94146234 1.08782732  1064371117
1.56225967 -14.79010487 -2.49513626  3245062214
-2.49513626 0.94146234 2.50582886  1064371117
2.97399926 -14.57199669 -2.49513626  3244662963
-2.49513626 0.94146234 4.35830641  1064371117
4.58545017 -14.14784431 -2.49513626  3244370270
-2.49513626 0.94146234 5.48169184  1064371117
-11.78147411 -7.83818340 -2.49513626  3238224398
-2.49513626 0.94414485 -11.39146233  1064416122
-11.11677933 -8.75542164 -2.49513626  3238980296
-2.49513626 0.94414485 -10.53350639  1064416122
-10.38084221 -9.61656761 -2.49513626  3240208903
-2.49513626 0.94414485 -9.57839203  1064416122
-9.41036510 -10.56812572 -2.49513626  3240852166
-2.49513626 0.94414485 -9.06709957  1064416122
-8.89196587 -11.00787067 -2.49513626  3241304498
-2.49513626 0.94414485 -8.53489208  1064416122
-8.35305595 -11.42220402 -2.49513626  3241865470
-2.49513626 0.94414485 -6.82523155  1064416123
-6.42477894 -12.60802841 -2.49513626  3242940742
-2.49513626 0.94414485 -5.60450983  1064416122
-5.18554449 -13.16626072 -2.49513626  3243739657
-2.49513626 0.94414485 -4.11580753  1064416122
-3.89847565 -13.60300827 -2.49513626  3244001469
-2.49513626 0.94414485 -3.01970005  1064416122
-2.79792452 -13.87126064 -2.49513626  3244204267
-2.49513626 0.94414485 -1.90422940  1064416122
-1.45422173 -14.07570553 -2.49513626  3244447392
-2.49513626 0.94414485 0.58256614  1064416122
1.26089931 -14.09432507 -2.49513626  3244369996
-2.49513626 0.94414485 1.93632615  1064416122
2.16055298 -13.98471260 -2.49513626  3244198048
-2.49513626 0.94414485 2.82967114  1064416122
3.05133963 -13.81772804 -2.49513626  3243993122
-2.49513626 0.94414485 3.92960286  1064416122
4.14679909 -13.52938557 -2.49513626  3243729221
-2.49513626 0.94414485 4.57792616  1064416122
4.79175234 -13.31462765 -2.49513626  3243407408
-2.49513626 0.94414490 5.63424110  1064416122
-10.46575642 -8.51774025 -2.49513626  3239062311
-2.49513626 0.94658887 -9.89903164  1064457126
-8.47925758 -10.49696159 -2.49513626  3240761907
-2.49513626 0.94658887 -8.13876057  1064457126
-7.96536255 -10.89206409 -2.49513626  3241423166
-2.49513626 0.94658893 -7.25178814  1064457126
-7.06862354 -11.49428082 -2.49513626  3241783858
-2.49513626 0.94658887 -6.69691229  1064457126
-5.73842716 -12.21287918 -2.49513626  3242606334
-2.49513626 0.94658887 -5.14528370  1064457126
-4.74317789 -12.63274384 -2.49513626  3242938420
-2.49513626 0.94658887 -4.33620358  1064457126
-3.50933552 -13.02952576 -2.49513626  3243333703
-2.49513626 0.94658887 -3.09028101  1064457126
-2.45590138 -13.26847744 -2.49513626  3243602420
-2.49513626 0.94658887 -1.60149360  1064457126
-0.95618320 -13.45992851 -2.49513626  3243742084
-2.49513626 0.94658887 -0.52466005  1064457126
-0.30866954 -13.49031830 -2.49513626  3243763073
-2.49513626 0.94658887 0.12348999  1064457126
0.77136165 -13.47178555 -2.49513626  3243725506
-2.49513626 0.94658887 1.20237923  1064457126
1.63216233 -13.39477730 -2.49513626  3243597508
-2.49513626 0.94658893 3.12034845  1064457126
3.33017540 -13.07646179 -2.49513626  3243206890
-2.49513626 0.94658887 3.95433068  1064457126
4.36545038 -12.76819324 -2.49513626  3242593469
-2.49513626 0.94658887 -10.61913395  1064494639
-10.50066948 -7.48198223 -2.49513626  3237266953
-2.49513626 0.94882482 -10.12923241  1064494639
-9.73441315 -8.45488739 -2.49513626  3238802003
-2.49513626 0.94882482 -9.31714439  1064494639
-9.17322540 -9.06068325 -2.49513626  3239267716
-2.49513626 0.94882482 -8.72750282  1064494639
-8.57440186 -9.62931538 -2.49513626  3239853840
-2.49513626 0.94882482 -8.26163101  1064494639
-7.94040012 -10.15845299 -2.49513626  3240653554
-2.49513626 0.94882482 -7.27383280  1064494639
-6.57742596 -11.08970165 -2.49513626  3241351433
-2.49513626 0.94882482 -6.03725290  1064494639
-5.48314857 -11.66958332 -2.49513626  3242028370
-2.49513626 0.94882482 -4.91639185  1064494639
-4.72488928 -11.99664783 -2.49513626  3242271193
-2.49513626 0.94882482 -3.55215669  1064494639
-3.35321760 -12.44989967 -2.49513626  3242723380
-2.49513626 0.94882482 -2.95280766  1064494639
-2.34664798 -12.67822075 -2.49513626  3242945858
-2.49513626 0.94882482 -1.93944240  1064494639
-1.73506987 -12.77628899 -2.49513626  3243038407
-2.49513626 0.94882482 -1.11948657  1064494639
-0.50132340 -12.88381672 -2.49513626  3243133401
-2.49513626 0.94882482 0.53081441  1064494639
0.73704702 -12.87247562 -2.49513626  3243097753
-2.49513626 0.94882482 1.14888859  1064494639
1.35439587 -12.82223606 -2.49513626  3242975447
-2.49513626 0.94882482 2.17242074  1064494639
2.37566161 -12.67281246 -2.49513626  3242860894
-2.49513626 0.94882482 2.78027606  1064494639
3.18203235 -12.49474716 -2.49513626  3242602206
-2.49513626 0.94882482 3.77841973  1064494639
3.97534323 -12.26542854 -2.49513626  3242182094
-2.49513626 0.94882482 4.94366980  1064494639
-10.27625942 -6.83676863 -2.49513626  3236245977
-2.49513626 0.95087790 -9.93607426  1064529084
-9.69648743 -7.63682175 -2.49513626  3238409476
-2.49513626 0.95087790 -8.64129353  1064529084
-8.49906158 -8.95035648 -2.49513626  3239279782
-2.49513626 0.95087790 -7.90867519  1064529084
-7.75591660 -9.60149193 -2.49513626  3239810919
-2.49513626 0.95087790 -7.44446659  1064529084
-7.28586054 -9.96288967 -2.49513626  3240181925
-2.49513626 0.95087790 -6.63315821  1064529084
-6.46561813 -10.51373863 -2.49513626  3240745687
-2.49513626 0.95087790 -6.12561893  1064529084
-5.77933168 -10.90606499 -2.49513626  3241327757
-2.49513626 0.95087790 -4.88847113  1064529084
-4.70635414 -11.41022110 -2.49513626  3241656057
-2.49513626 0.95087790 -4.33854818  1064529084
-4.15295219 -11.62307549 -2.49513626  3241934959
-2.49513626 0.95087790 -3.58996964  1064529084
-3.40040374 -11.86508369 -2.49513626  3242258249
-2.49513626 0.95087790 -2.44045806  1064529084
-2.24639440 -12.13658047 -2.49513626  3242487844
-2.49513626 0.95087790 -1.07165956  1064529084
-0.47990140 -12.33339119 -2.49513626  3242555827
-2.49513626 0.95087790 0.31058800  1064529084
0.70556068 -12.32254410 -2.49513626  3242521701
-2.49513626 0.95087790 1.49292696  1064529084
2.07961130 -12.16627216 -2.49513626  3242294968
-2.49513626 0.95087790 2.66149712  1064529084
3.04608965 -11.96094418 -2.49513626  3242047325
-2.49513626 0.95087790 3.61699939  1064529084
4.73246670 -11.39941597 -2.49513626  3235303047
-2.49513626 0.95276952 -9.52767372  1064560820
-9.41400909 -7.17309046 -2.49513626  3237501487
-2.49513626 0.95276952 -8.55249596  1064560820
-8.28611279 -8.45086670 -2.49513626  3238613454
-2.49513626 0.95276952 -8.01124573  1064560820
-7.58360624 -9.08656979 -2.49513626  3239512936
-2.49513626 0.95276952 -6.98638964  1064560820
-6.83251143 -9.66403675 -2.49513626  3239860988
-2.49513626 0.95276952 -6.51953363  1064560820
-6.36051750 -9.98101330 -2.49513626  3240185394
-2.49513626 0.95276952 -5.87383699  1064560820
-5.70853996 -10.36770725 -2.49513626  3240579865
-2.49513626 0.95276958 -5.20404053  1064560820
-4.86096859 -10.79109955 -2.49513626  3241086788
-2.49513626 0.95276952 -4.16022158  1064560820
-3.62330341 -11.26714230 -2.49513626  3241487861
-2.49513626 0.95276952 -3.26063871  1064560820
-3.07802248 -11.42815018 -2.49513626  3241647513
-2.49513626 0.95276952 -2.71047211  1064560820
-2.52563787 -11.56278419 -2.49513626  3241779393
-2.49513626 0.95276952 -1.96742094  1064560820
-1.78027296 -11.70074272 -2.49513626  3241911520
-2.49513626 0.95276952 -1.40466416  1064560820
-1.21629250 -11.77274036 -2.49513626  3241977536
-2.49513626 0.95276952 -0.83866489  1064560821
-0.46017593 -11.82645607 -2.49513626  3242023882
-2.49513626 0.95276952 0.29782179  1064560821
0.67655987 -11.81605053 -2.49513626  3241975038
-2.49513626 0.95276952 1.43156338  1064560820
1.61951900 -11.72407722 -2.49513626  3241811925
-2.49513626 0.95276952 2.36670351  1064560820
2.73684645 -11.51461983 -2.49513626  3241536283
-2.49513626 0.95276952 3.64909101  1064560820
3.82892013 -11.19893932 -2.49513626  3241291218
-2.49513626 0.95276952 4.36232090  1064560820
4.53794813 -10.93086624 -2.49513626  3240998256
-2.49513626 0.95276952 -9.46351910  1064590155
-9.36148643 -6.44679165 -2.49513626  3236272377
-2.49513626 0.95451802 -8.46108627  1064590155
-8.33845425 -7.72455168 -2.49513626  3237702973
-2.49513626 0.95451802 -8.08682251  1064590155
-7.82687521 -8.24248123 -2.49513626  3238387265
-2.49513626 0.95451802 -7.28318787  1064590155
-7.14250612 -8.84211445 -2.49513626  3239004460
-2.49513626 0.95451802 -6.41237593  1064590155
-6.10854864 -9.58562279 -2.49513626  3239766618
-2.49513626 0.95451802 -5.79844570  1064590155
-4.83376312 -10.28752708 -2.49513626  3240481117
-2.49513626 0.95451802 -4.33413315  1064590155
-4.16531038 -10.57585430 -2.49513626  3240772176
-2.49513626 0.95451802 -3.47976971  1064590155
-3.30604053 -10.87513733 -2.49513626  3241170806
-2.49513626 0.95451802 -2.06873035  1064590155
-1.52958035 -11.26316357 -2.49513626  3241448527
-2.49513626 0.95451802 -0.80544156  1064590155
-0.44195029 -11.35795593 -2.49513626  3241532275
-2.49513626 0.95451802 0.46794906  1064590155
0.83139646 -11.33610821 -2.49513626  3241466834
-2.49513626 0.95451802 1.37485468  1064590155
1.73547542 -11.23328304 -2.49513626  3241209729
-2.49513626 0.95451802 2.80517578  1064590155
3.15647364 -10.91948605 -2.49513626  3241009520
-2.49513626 0.95451802 3.50453424  1064590155
3.67723989 -10.75529671 -2.49513626  3240828635
-2.49513626 0.95451802 4.01976538  1064590155
4.35817766 -10.49783993 -2.49513626  3233924367
-2.49513626 0.95613879 -9.00351810  1064617347
-8.90307617 -6.34365845 -2.49513626  3235120178
-2.49513626 0.95613879 -8.47873211  1064617347
-8.36714458 -7.03545809 -2.49513626  3236259010
-2.49513626 0.95613879 -7.89961529  1064617347
-7.52758932 -7.92730522 -2.49513626  3238051792
-2.49513626 0.95613879 -6.73233271  1064617347
-6.59353876 -8.71963215 -2.49513626  3238866821
-2.49513626 0.95613879 -6.31092739  1064617347
-6.02184057 -9.12381744 -2.49513626  3239280985
-2.49513626 0.95613879 -5.57672167  1064617347
-5.42544079 -9.49059391 -2.49513626  3239655509
-2.49513626 0.95613885 -4.96339083  1064617347
-4.64892912 -9.89414978 -2.49513626  3240065575
-2.49513626 0.95613879 -4.32970476  1064617347
-4.16840363 -10.10599613 -2.49513626  3240279621
-2.49513626 0.95613879 -3.84263873  1064617347
-3.51293182 -10.35210514 -2.49513626  3240581435
-2.49513626 0.95613879 -2.67364883  1064617347
-2.50355959 -10.64137936 -2.49513626  3240812973
-2.49513626 0.95613885 -2.16150618  1064617347
-1.81722915 -10.77981663 -2.49513626  3240995998
-2.49513626 0.95613879 -0.94916356  1064617347
-0.77464294 -10.90443325 -2.49513626  3241068356
-2.49513626 0.95613879 -0.07501789  1064617347
0.10004423 -10.93145561 -2.49513626  3241067300
-2.49513626 0.95613879 0.97409630  1064617347
1.14833546 -10.87143326 -2.49513626  3240992855
-2.49513626 0.95613879 1.49588847  1064617347
1.84190404 -10.77562237 -2.49513626  3240766332
-2.49513626 0.95613879 2.69790816  1064617347
2.86720943 -10.54920769 -2.49513626  3240626178
-2.49513626 0.95613873 3.37052441  1064617348
3.70181942 -10.28607273 -2.49513626  3240269967
-2.49513626 0.95613885 4.19153070  1064617347
4.35267639 -10.02800941 -2.49513626  3233454948
-2.49513626 0.95764530 -8.67069912  1064642622
-8.57397175 -6.10916233 -2.49513626  3235162064
-2.49513626 0.95764530 -7.83674002  1064642622
-7.60760117 -7.27730942 -2.49513626  3236990191
-2.49513626 0.95764530 -7.24932909  1064642622
-7.12615013 -7.74937582 -2.49513626  3237714327
-2.49513626 0.95764530 -6.74576044  1064642622
-6.61546183 -8.18966007 -2.49513626  3238524788
-2.49513626 0.95764530 -6.07764530  1064642622
-5.93920565 -8.69256496 -2.49513626  3238923650
-2.49513626 0.95764530 -5.37057495  1064642622
-5.22488737 -9.13977051 -2.49513626  3239284331
-2.49513626 0.95764530 -4.92951965  1064642622
-4.77992010 -9.38014889 -2.49513626  3239528883
-2.49513626 0.95764530 -4.47708225  1064642622
-4.32392073 -9.59888172 -2.49513626  3239750550
-2.49513626 0.95764530 -4.01431704  1064642622
-3.70059419 -9.85598469 -2.49513626  3240009644
-2.49513626 0.95764530 -3.38307405  1064642622
-2.90039754 -10.12040138 -2.49513626  3240318042
-2.49513626 0.95764530 -2.41101503  1064642622
-2.08160567 -10.31996822 -2.49513626  3240552879
-2.49513626 0.95764530 -1.08191478  1064642622
-0.91407752 -10.48805523 -2.49513626  3240625538
-2.49513626 0.95764530 -0.40933624  1064642622
-0.24082007 -10.52505684 -2.49513626  3240652829
-2.49513626 0.95764530 0.43342003  1064642622
0.60181141 -10.51059818 -2.49513626  3240592217
-2.49513626 0.95764530 1.27340448  1064642622
1.44059432 -10.42878437 -2.49513626  3240495470
-2.49513626 0.95764530 1.93976998  1064642622
2.10522509 -10.31517601 -2.49513626  3240393591
-2.49513626 0.95764530 2.43447590  1064642622
2.59818101 -10.20217228 -2.49513626  3240115491
-2.49513626 0.95764530 3.40589499  1064642622
3.56497765 -9.90584469 -2.49513626  3239939919
-2.49513626 0.95764530 -8.36043167  1064666174
-8.17177677 -6.02218676 -2.49513626  3234397240
-2.49513626 0.95904911 -7.76951170  1064666174
-7.55631495 -6.77840519 -2.49513626  3235692761
-2.49513626 0.95904911 -7.33537722  1064666174
-7.10690355 -7.24821138 -2.49513626  3236662790
-2.49513626 0.95904911 -6.87115383  1064666174
-6.75061750 -7.58115053 -2.49513626  3237785851
-2.49513626 0.95904911 -6.12258959  1064666174
-5.99214792 -8.19382954 -2.49513626  3238402736
-2.49513626 0.95904911 -5.59172964  1064666174
-5.31755400 -8.64686584 -2.49513626  3238769107
-2.49513626 0.95904911 -4.75312471  1064666174
-4.60887957 -9.04449558 -2.49513626  3239247819
-2.49513626 0.95904911 -4.16919804  1064666174
-3.87066793 -9.38422108 -2.49513626  3239517824
-2.49513626 0.95904911 -3.56817532  1064666174
-3.41553378 -9.55922699 -2.49513626  3239747202
-2.49513626 0.95904911 -2.95251632  1064666174
-2.00711870 -9.95068550 -2.49513626  3240080498
-2.49513626 0.95904911 -1.52692080  1064666174
-1.36601710 -10.05876160 -2.49513626  3240183040
-2.49513626 0.95904911 -1.04320216  1064666174
-0.88136870 -10.11275864 -2.49513626  3240231512
-2.49513626 0.95904911 -0.55707401  1064666174
0.25543854 -10.14787865 -2.49513626  3240249246
-2.49513626 0.95904911 0.58027655  1064666174
0.74249291 -10.12390137 -2.49513626  3240076034
-2.49513626 0.95904911 2.34736180  1064666174
2.81894040 -9.75183201 -2.49513626  3239685864
-2.49513626 0.95904911 3.74151278  1064666174
4.04177856 -9.31174946 -2.49513626  3232608350
-2.49513626 0.96036029 -7.69814110  1064688172
-7.60006475 -6.18544626 -2.49513626  3234701052
-2.49513626 0.96036029 -6.97158432  1064688172
-6.63283730 -7.21291876 -2.49513626  3236572867
-2.49513626 0.96036029 -6.15750313  1064688171
-5.78431749 -7.90963888 -2.49513626  3238003999
-2.49513626 0.96036029 -5.52805948  1064688172
-5.39778852 -8.17830086 -2.49513626  3238279188
-2.49513626 0.96036023 -5.13312054  1064688172
-4.86319017 -8.50706100 -2.49513626  3238614900
-2.49513626 0.96036023 -4.44902706  1064688172
-4.16715336 -8.86879539 -2.49513626  3238982471
-2.49513626 0.96036023 -3.73642254  1064688172
-3.59088230 -9.11736107 -2.49513626  3239233397
-2.49513626 0.96036029 -3.29706955  1064688172
-3.14888167 -9.27929211 -2.49513626  3239444868
-2.49513626 0.96036029 -2.69961452  1064688171
-2.54842257 -9.46183205 -2.49513626  3239616014
-2.49513626 0.96036029 -2.09108019  1064688172
-1.93750620 -9.60556030 -2.49513626  3239772185
-2.49513626 0.96036029 -1.31864023  1064688171
-1.16298056 -9.72975922 -2.49513626  3239834686
-2.49513626 0.96036029 -0.85080147  1064688172
-0.53775144 -9.78424931 -2.49513626  3239886405
-2.49513626 0.96036023 0.08967658  1064688172
0.40341467 -9.79070854 -2.49513626  3239872292
-2.49513626 0.96036029 0.87314838  1064688172
1.02933013 -9.74480534 -2.49513626  3239813652
-2.49513626 0.96036029 1.65102327  1064688171
1.95948803 -9.60109997 -2.49513626  3239647371
-2.49513626 0.96036023 2.41831970  1064688172
2.87157130 -9.36882019 -2.49513626  3239336538
-2.49513626 0.96036029 3.46540928  1064688171
3.61174345 -9.10911751 -2.49513626  3232225220
-2.49513626 0.96158755 -7.71182394  1064708762
-7.62284422 -5.61765146 -2.49513626  3233760686
-2.49513626 0.96158755 -7.24760199  1064708762
-7.04873228 -6.32307291 -2.49513626  3234720940
-2.49513626 0.96158755 -6.84262848  1064708762
-6.73693514 -6.65428209 -2.49513626  3235404987
-2.49513626 0.96158755 -6.52038383  1064708762
-6.06744671 -7.26992655 -2.49513626  3236673415
-2.49513626 0.96158755 -5.83153057  1064708762
-5.58962870 -7.64341640 -2.49513626  3237440536
-2.49513626 0.96158755 -5.21611023  1064708762
-5.08888483 -7.98555088 -2.49513626  3238071920
-2.49513626 0.96158755 -4.83054733  1064708762
-4.43383789 -8.36701012 -2.49513626  3238460850
-2.49513626 0.96158755 -3.75038147  1064708762
-3.32848644 -8.86492538 -2.49513626  3238964329
-2.49513626 0.96158755 -2.60875201  1064708762
-2.46264791 -9.14336586 -2.49513626  3239241715
-2.49513626 0.96158755 -2.16858006  1064708762
-1.87229180 -9.28225613 -2.49513626  3239405109
-2.49513626 0.96158755 -1.12383521  1064708762
-0.51965195 -9.45492935 -2.49513626  3239535749
-2.49513626 0.96158755 -0.21660638  1064708762
0.08665807 -9.46880245 -2.49513626  3239540112
-2.49513626 0.96158755 0.54129708  1064708762
0.69261640 -9.44383621 -2.49513626  3239470354
-2.49513626 0.96158755 1.29573464  1064708762
2.04186988 -9.24643517 -2.49513626  3239274139
-2.49513626 0.96158755 2.91953993  1064708762
3.06341767 -8.95998001 -2.49513626  3238784403
-2.49513626 0.96158755 -7.62602520  1064728075
-7.45964384 -5.31517744 -2.49513626  3232621293
-2.49513626 0.96273869 -7.28560829  1064728075
-7.19577694 -5.66729212 -2.49513626  3233350776
-2.49513626 0.96273869 -7.01060104  1064728075
-6.30716276 -6.64206791 -2.49513626  3235364930
-2.49513626 0.96273869 -6.09122992  1064728075
-5.98089838 -6.93730736 -2.49513626  3236359643
-2.49513626 0.96273869 -5.52454662  1064728075
-5.40684509 -7.39347219 -2.49513626  3236910292
-2.49513626 0.96273869 -5.04553986  1064728075
-4.54582930 -7.95190907 -2.49513626  3238027522
-2.49513626 0.96273869 -4.15869284  1064728075
-4.02747059 -8.22659588 -2.49513626  3238306815
-2.49513626 0.96273869 -3.76195860  1064728075
-3.49259400 -8.46753597 -2.49513626  3238709161
-2.49513626 0.96273869 -2.80411673  1064728075
-2.66412139 -8.76355171 -2.49513626  3238846886
-2.49513626 0.96273869 -2.38211799  1064728075
-1.95461869 -8.94856834 -2.49513626  3239028952
-2.49513626 0.96273869 -1.66705263  1064728074
-0.94130224 -9.11105824 -2.49513626  3239182297
-2.49513626 0.96273869 -0.50266016  1064728075
-0.35613862 -9.15262604 -2.49513626  3239216054
-2.49513626 0.96273869 0.08382381  1064728075
0.52359617 -9.14457607 -2.49513626  3239192839
-2.49513626 0.96273869 0.81616753  1064728075
0.96215886 -9.10887718 -2.49513626  3239148049
-2.49513626 0.96273869 1.25336361  1064728075
1.39850342 -9.05216026 -2.49513626  3239081257
-2.49513626 0.96273869 1.68766379  1064728075
1.83161628 -8.97455120 -2.49513626  3238921483
-2.49513626 0.96273869 2.40235829  1064728074
2.54359031 -8.79928875 -2.49513626  3238702070
-2.49513626 0.96273869 3.10165119  1064728075
3.23926377 -8.56764507 -2.49513626  3238542364
-2.49513626 0.96273869 -7.38348675  1064746224
-7.13906336 -5.26112986 -2.49513626  3232497204
-2.49513626 0.96382046 -6.87816143  1064746224
-6.40836573 -6.13013792 -2.49513626  3234294861
-2.49513626 0.96382046 -6.00280619  1064746224
-5.68237972 -6.80854464 -2.49513626  3235693025
-2.49513626 0.96382046 -5.46143627  1064746224
-5.23488569 -7.15833044 -2.49513626  3236411453
-2.49513626 0.96382046 -5.00296831  1064746224
-4.64554644 -7.55411530 -2.49513626  3237221587
-2.49513626 0.96382040 -4.40125561  1064746223
-4.27739573 -7.76850033 -2.49513626  3237929204
-2.49513626 0.96382046 -3.51236296  1064746224
-3.38151503 -8.19823551 -2.49513626  3238370921
-2.49513626 0.96382046 -2.57939029  1064746223
-2.44318843 -8.52505493 -2.49513626  3238593127
-2.49513626 0.96382046 -2.03095293  1064746223
-1.89245415 -8.66396713 -2.49513626  3238729522
-2.49513626 0.96382040 -1.61403322  1064746224
-1.47418332 -8.74485683 -2.49513626  3238828525
-2.49513626 0.96382046 -0.91136509  1064746224
-0.62840956 -8.84594822 -2.49513626  3238910672
-2.49513626 0.96382046 0.36509603  1064746224
0.50694472 -8.85374069 -2.49513626  3238888198
-2.49513626 0.96382046 0.79021132  1064746224
1.21350253 -8.78482437 -2.49513626  3238804075
-2.49513626 0.96382046 1.49419951  1064746223
1.63399124 -8.71640873 -2.49513626  3238694342
-2.49513626 0.96382046 2.05071282  1064746224
2.18861341 -8.59393215 -2.49513626  3238587566
-2.49513626 0.96382046 2.46269631  1064746224
2.86900115 -8.39133739 -2.49513626  3238363734
-2.49513626 0.96382046 3.40027404  1064746224
-7.15486336 -4.76011419 -2.49513626  3231447152
-2.49513626 0.96483886 -6.99876308  1064763310
-6.91800928 -5.09822416 -2.49513626  3233473098
-2.49513626 0.96483886 -6.11401558  1064763310
-5.29232788 -6.77067375 -2.49513626  3235772745
-2.49513626 0.96483886 -4.96106243  1064763310
-4.84805822 -7.09556770 -2.49513626  3236577066
-2.49513626 0.96483886 -4.26497364  1064763310
-4.14495039 -7.52795887 -2.49513626  3237411983
-2.49513626 0.96483886 -3.65455580  1064763310
-3.52953243 -7.83537865 -2.49513626  3238235591
-2.49513626 0.96483886 -2.23494101  1064763310
-1.96806586 -8.36525345 -2.49513626  3238447273
-2.49513626 0.96483886 -1.56405795  1064763310
-1.42853737 -8.47408104 -2.49513626  3238522646
-2.49513626 0.96483886 -1.15643418  1064763310
-0.74614340 -8.56119347 -2.49513626  3238624961
-2.49513626 0.96483886 0.49124792  1064763310
0.90271360 -8.54610252 -2.49513626  3238470895
-2.49513626 0.96483886 1.98721433  1064763310
2.12084723 -8.32783413 -2.49513626  3238270752
-2.49513626 0.96483886 2.78016472  1064763310
3.03913260 -8.03831100 -2.49513626  3237870282
-2.49513626 0.96483886 -6.93896914  1064779423
-6.86415434 -4.72700262 -2.49513626  3231367959
-2.49513626 0.96579927 -6.62922239  1064779423
-6.54748392 -5.15670681 -2.49513626  3232258372
-2.49513626 0.96579927 -6.37899160  1064779423
-6.29227686 -5.46520090 -2.49513626  3232896673
-2.49513626 0.96579927 -6.11403561  1064779423
-5.92952728 -5.85678005 -2.49513626  3234091053
-2.49513626 0.96579927 -5.54244995  1064779423
-5.44205904 -6.31230354 -2.49513626  3234996151
-2.49513626 0.96579927 -5.02682066  1064779423
-4.59097004 -6.95587254 -2.49513626  3236258551
-2.49513626 0.96579921 -4.13627911  1064779422
-4.01987982 -7.30080318 -2.49513626  3237044623
-2.49513626 0.96579927 -3.42303085  1064779423
-3.30090547 -7.65278912 -2.49513626  3237383333
-2.49513626 0.96579927 -2.92957449  1064779423
-2.67821002 -7.89229727 -2.49513626  3237864640
-2.49513626 0.96579927 -2.42409968  1064779423
-1.51686168 -8.19513893 -2.49513626  3238253833
-2.49513626 0.96579927 -1.12153924  1064779423
-0.72363144 -8.30286598 -2.49513626  3238331297
-2.49513626 0.96579927 -0.32405272  1064779423
0.07627196 -8.33398819 -2.49513626  3238350497
-2.49513626 0.96579927 0.34311575  1064779423
0.47642380 -8.32070827 -2.49513626  3238304916
-2.49513626 0.96579927 1.00809014  1064779423
1.14044416 -8.25593948 -2.49513626  3238228326
-2.49513626 0.96579927 1.66660035  1064779422
1.79715621 -8.13826847 -2.49513626  3238116402
-2.49513626 0.96579927 2.05684829  1064779423
2.18592191 -8.04257011 -2.49513626  3238009538
-2.49513626 0.96579927 2.44235277  1064779423
2.56964207 -7.92830849 -2.49513626  3237763914
-2.49513626 0.96579927 2.94742703  1064779423
3.31841731 -7.64521217 -2.49513626  3230846943
-2.49513626 0.96670640 -6.51179075  1064794642
-6.43410730 -4.90252686 -2.49513626  3231933641
-2.49513626 0.96670640 -6.19124126  1064794642
-6.10707998 -5.30434608 -2.49513626  3232753930
-2.49513626 0.96670640 -5.75500584  1064794642
-5.66323328 -5.77583790 -2.49513626  3233712389
-2.49513626 0.96670640 -5.28188610  1064794642
-4.87886906 -6.45206547 -2.49513626  3234918544
-2.49513626 0.96670640 -4.66975403  1064794642
-4.12647867 -6.95734835 -2.49513626  3235952793
-2.49513626 0.96670640 -3.90156245  1064794642
-3.55675864 -7.26511908 -2.49513626  3236579023
-2.49513626 0.96670640 -2.96425366  1064794642
-2.59938359 -7.66000700 -2.49513626  3237456001
-2.49513626 0.96670640 -2.10370779  1064794642
-1.97835863 -7.84337950 -2.49513626  3237738561
-2.49513626 0.96670640 -1.72617507  1064794642
-1.59939969 -7.92933941 -2.49513626  3237906082
-2.49513626 0.96670640 -1.34465480  1064794642
-1.08852959 -8.01546097 -2.49513626  3238051139
