# .PCD v0.7 - Point Cloud Data file format
VERSION 0.7
FIELDS x y z intensity
SIZE 4 4 4 4
TYPE F F F F
COUNT 1 1 1 1
WIDTH 997
HEIGHT 1
VIEWPOINT 0 0 0 1 0 0 0
POINTS 997
DATA ascii
-64.39026642 -76.57873535 -2.49513626  3264951480
-2.49513626 0.67009711 -61.89775085  1059818365
-57.06307602 -82.91136169 -2.51005697  3265783403
-2.51403975 0.66806781 -54.54107666  1059777363
-51.93954468 -86.93364716 -2.52545691  3266764732
-2.54261923 0.66501153 -40.79344559  1059716686
-39.32553482 -94.58911896 -2.55464435  3267363288
-2.55998874 0.66316080 -34.83202744  1059697401
-30.21755600 -98.50387573 -2.56951451  3267763740
-2.57165337 0.66192079 -27.08159637  1059677720
-25.49748993 -100.07660675 -2.57547927  3268068393
-2.58043265 0.66098905 -19.06788254  1059662931
-15.80511475 -102.41767120 -2.58436894  3268241300
-2.58547330 0.66045469 -12.51766682  1059654949
-9.21069241 -103.36690521 -2.58801723  3268378597
-2.58949614 0.66002858 0.77763093  1059648623
5.77687836 -103.66754913 -2.58931208  3268351424
-2.58883882 0.66009814 9.09937382  1059651666
18.96033859 -101.79638672 -2.58229709  3268073796
-2.58091235 0.66093820 -65.17195892  1061001475
-63.30615234 -40.26593781 -2.49513626  3257211911
-2.49513626 0.74061602 -59.87236023  1061001473
-59.13853455 -46.16980743 -2.49513626  3258741842
-2.49513626 0.74061608 -56.87373352  1060999671
-57.74612045 -54.79988098 -2.64753628  3260998002
-2.64753628 0.72715670 -55.03992081  1060775665
-54.10911179 -58.39387131 -2.64753628  3262146530
-2.64753628 0.72715670 -51.23397446  1060775665
-49.25073242 -62.54602814 -2.64753628  3262992588
-2.64753628 0.72715670 -47.21674728  1060775665
-46.18133545 -64.84538269 -2.64753628  3263375433
-2.64753628 0.72715676 -44.07504654  1060775665
-43.00471497 -66.99429321 -2.64753628  3263650370
-2.64753628 0.72715670 -31.52772713  1060801471
-28.78647804 -72.50295258 -2.59430170  3264280145
-2.56217194 0.73466533 -24.80433846  1060923607
-23.50757027 -72.45925903 -2.53339243  3264273670
-2.49632144 0.74051040 -17.35356140  1061001475
-13.81803036 -73.74331665 -2.49513626  3264473428
-2.49513626 0.74061602 -11.44266605  1061001476
-9.05551434 -74.47826385 -2.49513626  3264587754
-2.49513626 0.74061602 -4.25563908  1061001475
-1.84787393 -75.00399017 -2.49513626  3264613450
-2.49513626 0.74061602 1.76655161  1061001475
4.17441082 -74.91053772 -2.49513626  3264575943
-2.49513626 0.74061602 10.16980648  1061001474
12.55178165 -73.96936798 -2.49513626  3264417382
-2.49513626 0.74061602 -55.31066132  1061578016
-54.79691315 -32.43017960 -2.64753628  3255349598
-2.64753628 0.77498055 -52.60203552  1061578016
-52.01900864 -36.72112274 -2.64753628  3256235267
-2.64753628 0.77498055 -50.81290817  1061578016
-50.19013977 -39.18376923 -2.64753628  3257080327
-2.64753628 0.77498055 -48.24473572  1061578016
-46.88529205 -43.08349609 -2.64753628  3258451082
-2.64753628 0.77498055 -41.75612259  1061578016
-36.36291122 -47.73694229 -2.49513626  3259056722
-2.49513626 0.78643620 -34.81119919  1061770212
-34.02175522 -49.43283081 -2.49513626  3259491369
-2.49513626 0.78643626 -32.41669083  1061770213
-31.60153198 -51.01396561 -2.49513626  3259895621
-2.49513626 0.78643632 -29.94695091  1061770214
-28.26146126 -52.93744659 -2.49513626  3260385725
-2.49513626 0.78643626 -27.24755859  1061578016
-25.38532257 -58.39523315 -2.64753628  3261804151
-2.64753628 0.77498055 -20.61945724  1061578016
-19.64933395 -60.56667709 -2.64753628  3262498139
-2.64753628 0.77498055 -11.72719955  1061578016
-10.72060966 -62.76533890 -2.64753628  3262887860
-2.64753628 0.77498055 -8.69939804  1061578016
-7.68530798 -63.20880890 -2.64753628  3263038908
-2.64753628 0.77498055 -3.61171126  1061578016
-0.54582655 -63.67197800 -2.64753628  3263082665
-2.64753628 0.77498060 1.49925148  1061578016
2.52132297 -63.62438202 -2.64753628  3263057282
-2.64753628 0.77498055 4.56328392  1061578016
5.58262205 -63.42913055 -2.64753628  3262993213
-2.64753628 0.77498055 9.64299965  1061578016
10.65253067 -62.77692795 -2.64753628  3262800920
-2.64753628 0.77498084 -46.08047104  1062141964
-45.21268082 -27.74793243 -2.64753628  3252929391
-2.64753628 0.80859447 -44.29825592  1062141965
-43.33813858 -30.59314346 -2.64753628  3254405130
-2.64753628 0.80859447 -41.81446075  1062141964
-40.74450684 -33.97085190 -2.64753628  3255259003
-2.49513626 0.81854403 -35.70733643  1062308890
-35.14076614 -35.56128693 -2.49513626  3256004500
-2.49513626 0.81854409 -32.78540802  1062308891
-30.29476929 -39.77066422 -2.49513626  3256943123
-2.49513626 0.81854409 -29.00194931  1062308890
-27.67922020 -41.63339233 -2.49513626  3257532631
-2.49513626 0.81854409 -24.25043488  1062308891
-22.11670876 -44.83669662 -2.49513626  3258325098
-2.49513626 0.81854409 -19.93164635  1062308891
-19.19274902 -46.16401672 -2.49513626  3258572155
-2.49513626 0.81854409 -17.70033455  1062308891
-16.94718552 -47.03478241 -2.49513626  3258790939
-2.49513626 0.81854409 -15.42794991  1062308891
-11.56370831 -48.63908768 -2.49513626  3259232509
-2.49513626 0.81854409 -9.20777512  1062308890
-6.83046865 -49.52597427 -2.49513626  3259425044
-2.49513626 0.81854403 -4.43729401  1062308891
-3.63701224 -49.86231995 -2.49513626  3259486278
-2.49513626 0.81854409 -1.23134840  1062308891
-0.42855743 -49.99294662 -2.49513626  3259493495
-2.49513626 0.81854409 2.78165698  1062308891
5.18250895 -49.72544861 -2.49513626  3259275545
-2.49513626 0.81854409 9.94260502  1062308890
-37.21283722 -21.22404289 -2.49513626  3249442087
-2.49513626 0.84227395 -36.51204681  1062707012
-35.77358627 -23.56916428 -2.49513626  3250659321
-2.49513626 0.84227401 -34.18675995  1062707013
-32.90371323 -27.43357277 -2.49513626  3252932371
-2.49513626 0.84227395 -31.54428101  1062707012
-30.59715843 -29.98448181 -2.49513626  3253978793
-2.49513626 0.84227395 -29.11754990  1062707013
-28.09338570 -32.34218216 -2.49513626  3254986781
-2.49513626 0.84227395 -27.04022598  1062707012
-26.50312996 -33.65767670 -2.49513626  3255324891
-2.49513626 0.84227395 -23.14197159  1062707012
-21.97227097 -36.77600861 -2.49513626  3256381783
-2.49513626 0.84227401 -18.33206749  1062707013
-17.70790291 -39.00878143 -2.49513626  3256690445
-2.49513626 0.84227395 -15.80863476  1062707012
-14.52182293 -40.30349350 -2.49513626  3257073419
-2.49513626 0.84227395 -12.56391239  1062707012
-11.90456772 -41.15260696 -2.49513626  3257227932
-2.49513626 0.84227395 -8.56522274  1062707020
-7.21278811 -42.22830963 -2.49513626  3257516207
-2.49513626 0.84227401 -5.17065096  1062707013
-3.11650896 -42.72637177 -2.49513626  3257603431
-2.49513626 0.84227401 -1.74276185  1062707013
-1.05513132 -42.82688904 -2.49513626  3257621099
-2.49513626 0.84227401 0.32076284  1062707012
1.00869215 -42.82800293 -2.49513626  3257604116
-2.49513626 0.84227401 3.75597525  1062707013
5.12451458 -42.53227615 -2.49513626  3257431640
-2.49513626 0.84227395 8.51967907  1062707012
-30.95592690 -21.11569977 -2.49513626  3249588907
-2.49513626 0.86051911 -29.53654671  1063013115
-28.39168930 -24.45515633 -2.49513626  3251061627
-2.49513626 0.86051911 -27.59167480  1063013114
-25.46902466 -27.48582649 -2.49513626  3252834581
-2.49513626 0.86051911 -24.11569977  1063013115
-23.18219185 -29.44024849 -2.49513626  3254363040
-2.49513626 0.86051911 -19.73318481  1063013115
-18.69999886 -32.47233200 -2.49513626  3254981353
-2.49513626 0.86051911 -17.64751816  1063013115
-16.57682610 -33.60582352 -2.49513626  3255335870
-2.49513626 0.86051911 -14.93908691  1063013115
-13.82776260 -34.82721710 -2.49513626  3255578087
-2.49513626 0.86051899 -12.13440514  1063013115
-11.56350040 -35.64306259 -2.49513626  3255827439
-2.49513626 0.86051911 -9.25152493  1063013115
-8.08061600 -36.59024429 -2.49513626  3256015990
-2.49513626 0.86051911 -6.90137672  1063013115
-5.11953402 -37.12051010 -2.49513626  3256175559
-2.49513626 0.86051911 -2.72599387  1063013115
-2.12546682 -37.41155624 -2.49513626  3256206194
-2.49513626 0.86051911 -0.92291951  1063013115
0.28056771 -37.47084045 -2.49513626  3256211602
-2.49513626 0.86051911 2.08489466  1063013115
2.68546104 -37.37553406 -2.49513626  3256176500
-2.49513626 0.86051911 3.88437128  1063013115
4.48238993 -37.20282745 -2.49513626  3256101028
-2.49513626 0.86051911 6.86141586  1063013115
-28.65331078 -16.95774269 -2.49513626  3247371281
-2.49513626 0.87497962 -27.50560760  1063255722
-27.20074654 -19.20147514 -2.49513626  3248297514
-2.49513626 0.87497962 -26.24442863  1063255722
-25.91200447 -20.90802002 -2.49513626  3249395151
-2.49513626 0.87497962 -24.51633072  1063255722
-24.15138054 -22.91916466 -2.49513626  3250220722
-2.49513626 0.87497962 -23.01955605  1063255722
-20.59833145 -26.15886497 -2.49513626  3252057205
-2.49513626 0.87497962 -19.31459999  1063255722
-18.87657166 -27.42722130 -2.49513626  3252539527
-2.49513626 0.87497962 -17.53374481  1063255722
-17.07692146 -28.58244514 -2.49513626  3253129968
-2.49513626 0.87497962 -15.68054199  1063255722
-14.24774647 -30.09283829 -2.49513626  3253897925
-2.49513626 0.87497967 -13.27398872  1063255723
-12.78191090 -30.74410820 -2.49513626  3254226996
-2.49513626 0.87497962 -11.78798962  1063255722
-11.28641987 -31.32401466 -2.49513626  3254518405
-2.49513626 0.87497962 -9.76471996  1063255722
-9.25227165 -31.98394394 -2.49513626  3254813565
-2.49513626 0.87497962 -7.70115137  1063255722
-6.65691757 -32.62303543 -2.49513626  3254970182
-2.49513626 0.87497926 -5.60580301  1063255722
-5.07801723 -32.90578842 -2.49513626  3255055650
-2.49513626 0.87497967 -3.48734307  1063255722
-2.95512962 -33.16390610 -2.49513626  3255096349
-2.49513626 0.87497944 -1.88856411  1063255722
-1.35448039 -33.26774597 -2.49513626  3255116813
-2.49513626 0.87497962 -0.28541270  1063255722
0.24929778 -33.29436874 -2.49513626  3255117042
-2.49513626 0.87497962 2.38614154  1063255722
4.51313972 -32.98801041 -2.49513626  3254996450
-2.49513626 0.87497962 6.09664965  1063255722
6.62152529 -32.63024139 -2.49513626  3245610379
-2.49513626 0.88672054 -25.52833176  1063452702
-25.27344704 -16.07518578 -2.49513626  3247059101
-2.49513626 0.88672054 -24.18935585  1063452702
-23.60960197 -18.43217468 -2.49513626  3247863994
-2.49513626 0.88672054 -23.00547981  1063452702
-22.69447899 -19.54786873 -2.49513626  3248628232
-2.49513626 0.88672054 -21.72669411  1063452702
-21.39278030 -20.96443367 -2.49513626  3249172795
-2.49513626 0.88672054 -20.70849228  1063452702
-20.35828781 -21.97040939 -2.49513626  3249691430
-2.49513626 0.88672054 -19.27653694  1063452702
-18.53034973 -23.53263283 -2.49513626  3251218035
-2.49513626 0.88672054 -13.68012047  1063452702
-13.25044537 -26.86231804 -2.49513626  3252196030
-2.49513626 0.88672054 -12.38093567  1063452702
-11.94133854 -27.46930695 -2.49513626  3252598146
-2.49513626 0.88672054 -10.15330982  1063452702
-9.24311256 -28.49076080 -2.49513626  3253015946
-2.49513626 0.88672054 -8.32338428  1063452702
-7.86024094 -28.90285873 -2.49513626  3253280636
-2.49513626 0.88672054 -6.45912266  1063452702
-5.98859358 -29.34783363 -2.49513626  3253522762
-2.49513626 0.88672054 -3.61519408  1063452702
-1.69896078 -29.90438080 -2.49513626  3253705904
-2.49513626 0.88672054 0.22426796  1063452702
2.14658403 -29.87558937 -2.49513626  3253440971
-2.49513626 0.88672054 5.95675468  1063452702
-23.19633293 -14.23605824 -2.49513626  3244930352
-2.49513626 0.89644140 -22.72719193  1063615791
-22.48379517 -15.33668709 -2.49513626  3246072307
-2.49513626 0.89644140 -21.97966194  1063615791
-21.71907616 -16.40173149 -2.49513626  3246963170
-2.49513626 0.89644140 -20.90394402  1063615791
-20.33344269 -18.09105682 -2.49513626  3248152409
-2.49513626 0.89644140 -18.81678581  1063615791
-18.49857330 -19.96341324 -2.49513626  3248623668
-2.49513626 0.89644140 -17.84790993  1063615791
-15.78825760 -22.16903496 -2.49513626  3249757084
-2.49513626 0.89644140 -13.58211803  1063615791
-13.20159054 -23.80027580 -2.49513626  3250696731
-2.49513626 0.89644140 -12.04001904  1063615791
-11.64648247 -24.59867096 -2.49513626  3251178585
-2.49513626 0.89644140 -9.63582230  1063615803
-8.81342316 -25.74992371 -2.49513626  3251575530
-2.49513626 0.89644140 -7.56305408  1063615791
-6.71953487 -26.37390518 -2.49513626  3251936216
-2.49513626 0.89644140 -5.44153786  1063615791
-4.15090466 -26.89805031 -2.49513626  3252167628
-2.49513626 0.89644140 -2.41560149  1063615791
-1.97993815 -27.14433479 -2.49513626  3252248975
-2.49513626 0.89644140 -1.10718453  1063615791
-0.23330055 -27.21544838 -2.49513626  3252271540
-2.49513626 0.89644146 1.07769382  1063615791
3.25563431 -27.02103043 -2.49513626  3252140253
-2.49513626 0.89644140 4.12172842  1063615791
4.55323935 -26.83287621 -2.49513626  3242930794
-2.49513626 0.90462142 -21.25201607  1063753028
-21.03981590 -13.38238716 -2.49513626  3243999015
-2.49513626 0.90462142 -20.59920120  1063753029
-20.37089157 -14.38016129 -2.49513626  3245370969
-2.49513626 0.90462142 -19.65469742  1063753029
-18.89286423 -16.27334976 -2.49513626  3246692583
-2.49513626 0.90462142 -17.52664566  1063753029
-16.94802284 -18.29007339 -2.49513626  3247872370
-2.49513626 0.90462142 -15.10967636  1063753029
-14.78918934 -20.07591057 -2.49513626  3248651408
-2.49513626 0.90462142 -14.13683319  1063753029
-13.80515671 -20.76486778 -2.49513626  3249004294
-2.49513626 0.90462142 -13.13118649  1063753029
-12.44366169 -21.60827065 -2.49513626  3249727097
-2.49513626 0.90462142 -10.30697250  1063753029
-8.07468319 -23.59156036 -2.49513626  3250437837
-2.49513626 0.90462154 -6.92910767  1063753031
-5.37713861 -24.34848404 -2.49513626  3250852256
-2.49513626 0.90462142 -4.19823885  1063753029
-3.80297542 -24.64341545 -2.49513626  3250953307
-2.49513626 0.90462142 -2.21312499  1063753029
-1.81397581 -24.86909294 -2.49513626  3251054845
-2.49513626 0.90462142 0.98736125  1063753029
1.78699660 -24.87101173 -2.49513626  3251005463
-2.49513626 0.90462142 2.98274899  1063753029
3.37993193 -24.70502090 -2.49513626  3250854862
-2.49513626 0.90462142 -19.98216629  1063870101
-19.79656792 -11.71609974 -2.49513626  3242559600
-2.49513626 0.91159946 -19.00361824  1063870101
-18.79298973 -13.26629734 -2.49513626  3243839472
-2.49513626 0.91159946 -18.35725975  1063870101
-18.13226700 -14.15598392 -2.49513626  3244761127
-2.49513626 0.91159946 -17.42944908  1063870101
-17.18610382 -15.29081059 -2.49513626  3245934999
-2.49513626 0.91159946 -16.68618202  1063870101
-16.16905403 -16.36254311 -2.49513626  3246716401
-2.49513626 0.91159946 -15.63524342  1063870101
-15.36225796 -17.12226868 -2.49513626  3247478226
-2.49513626 0.91159946 -13.64363575  1063870101
-13.34444427 -18.73757744 -2.49513626  3247937664
-2.49513626 0.91159946 -11.47979450  1063870101
-11.15816498 -20.11632156 -2.49513626  3248642020
-2.49513626 0.91159946 -10.50638390  1063870101
-10.17639160 -20.63036537 -2.49513626  3248903230
-2.49513626 0.91159946 -9.50860786  1063870101
-8.48876476 -21.38017845 -2.49513626  3249413394
-2.49513626 0.91159946 -6.39239120  1063870101
-6.03669643 -22.19750595 -2.49513626  3249689902
-2.49513626 0.91159946 -5.32072306  1063870101
-4.96063137 -22.46248245 -2.49513626  3249819748
-2.49513626 0.91159946 -3.87304854  1063870101
-2.77648282 -22.83554649 -2.49513626  3250015664
-2.49513626 0.91159946 -1.67346740  1063870101
-1.30480850 -22.96668243 -2.49513626  3250053277
-2.49513626 0.91159946 -0.56657624  1063870101
-0.19719158 -23.00287247 -2.49513626  3250062917
-2.49513626 0.91159952 0.91088164  1063870101
1.27989757 -22.96808243 -2.49513626  3250032249
-2.49513626 0.91159946 2.38458824  1063870101
3.11813259 -22.79141045 -2.49513626  3249924156
-2.49513626 0.91159946 3.84845996  1063870101
4.21217394 -22.61478996 -2.49513626  3241014660
-2.49513626 0.91762149 -18.19406891  1063971134
-18.01241112 -11.45678806 -2.49513626  3242227762
-2.49513626 0.91762149 -17.43973160  1063971134
-16.39602852 -13.67024040 -2.49513626  3245281241
-2.49513626 0.91762149 -14.50936985  1063971134
-13.99902821 -16.11621284 -2.49513626  3246569005
-2.49513626 0.91762149 -13.47423458  1063971134
-13.20660019 -16.77172852 -2.49513626  3247222260
-2.49513626 0.91762149 -10.94884872  1063971134
-10.65314770 -18.49907112 -2.49513626  3247789977
-2.49513626 0.91762149 -8.82390690  1063971134
-8.19510937 -19.71155357 -2.49513626  3248469872
-2.49513626 0.91762149 -6.58757734  1063971134
-6.26064014 -20.40856361 -2.49513626  3248753986
-2.49513626 0.91762149 -5.27047396  1063971134
-4.60342407 -20.84498787 -2.49513626  3248968816
-2.49513626 0.91762149 -3.25576663  1063971134
-2.91653252 -21.14708138 -2.49513626  3249133235
-2.49513626 0.91762149 -1.89467955  1063971134
-1.55296373 -21.29069138 -2.49513626  3249176777
-2.49513626 0.91762149 0.50263435  1063971134
0.84529042 -21.33050728 -2.49513626  3249177460
-2.49513626 0.91762149 2.21287751  1063971134
2.89360046 -21.15023422 -2.49513626  3249037108
-2.49513626 0.91762114 -17.13479424  1064059206
-16.44846153 -11.21984959 -2.49513626  3241654413
-2.49513626 0.92287099 -15.88900852  1064059206
-15.69427299 -12.25261974 -2.49513626  3242724510
-2.49513626 0.92287099 -15.29268551  1064059206
-14.87532711 -13.23486042 -2.49513626  3243740535
-2.49513626 0.92287105 -14.22066116  1064059206
-13.05698299 -15.03170109 -2.49513626  3246222375
-2.49513626 0.92287099 -11.55020618  1064059206
-11.02341175 -16.58075142 -2.49513626  3246876896
-2.49513626 0.92287099 -10.21206474  1064059206
-9.65788078 -17.41155434 -2.49513626  3247211494
-2.49513626 0.92287099 -9.09373093  1064059206
-8.80811214 -17.85648346 -2.49513626  3247437584
-2.49513626 0.92287099 -8.23011398  1064059206
-7.93789721 -18.25997353 -2.49513626  3247641775
-2.49513626 0.92287099 -7.34739113  1064059206
-7.04926443 -18.62108231 -2.49513626  3247823590
-2.49513626 0.92287099 -6.14427471  1064059206
-5.22502422 -19.21291161 -2.49513626  3248118482
-2.49513626 0.92287099 -4.60531712  1064059206
-4.29364347 -19.44225883 -2.49513626  3248230871
-2.49513626 0.92287099 -3.66705227  1064059206
-3.03667450 -19.67778969 -2.49513626  3248365324
-2.49513626 0.92287099 -0.80998456  1064059206
-0.49039182 -19.90468025 -2.49513626  3248441256
-2.49513626 0.92287099 1.74566483  1064059206
3.01532984 -19.68107033 -2.49513626  3248294517
-2.49513626 0.92287099 3.64582610  1064059206
3.95970225 -19.51301193 -2.49513626  3239575723
-2.49513626 0.92748737 -15.57614613  1064136657
-15.40935230 -10.51104927 -2.49513626  3240893783
-2.49513626 0.92748737 -14.70280743  1064136655
-14.32659149 -11.94483662 -2.49513626  3242848097
-2.49513626 0.92748749 -13.32228565  1064136656
-13.11090565 -13.26779747 -2.49513626  3243745345
-2.49513626 0.92748737 -12.23211479  1064136657
-11.77357006 -14.46766090 -2.49513626  3244980825
-2.49513626 0.92748737 -11.30286694  1064136657
-10.57514000 -15.36543655 -2.49513626  3245901904
-2.49513626 0.92748737 -10.07622814  1064136657
-9.82284737 -15.85690308 -2.49513626  3246629732
-2.49513626 0.92748743 -8.25166988  1064136656
-6.60393476 -17.44472313 -2.49513626  3247203158
-2.49513626 0.92748743 -6.04030371  1064136657
-5.75611210 -17.74250984 -2.49513626  3247352139
-2.49513626 0.92748743 -4.89493990  1064136656
-4.31438541 -18.14707565 -2.49513626  3247584710
-2.49513626 0.92748737 -3.43539095  1064136655
-3.14051533 -18.38659668 -2.49513626  3247667757
-2.49513626 0.92748743 -2.25135207  1064136656
-1.65553951 -18.57925797 -2.49513626  3247756252
-2.49513626 0.92748743 -0.45941642  1064136656
0.43919334 -18.64769936 -2.49513626  3247774496
-2.49513626 0.92748737 1.33677673  1064136657
1.63537979 -18.58104324 -2.49513626  3247711945
-2.49513626 0.92748743 2.52837777  1064136656
2.82484055 -18.43774796 -2.49513626  3247644345
-2.49513626 0.92748737 -14.80176258  1064205291
-14.16684818 -10.34546375 -2.49513626  3240699241
-2.49513626 0.93157834 -13.82731152  1064205291
-13.47349548 -11.23356915 -2.49513626  3241618699
-2.49513626 0.93157834 -13.10578442  1064205291
-12.91683292 -11.86944103 -2.49513626  3242488624
-2.49513626 0.93157834 -12.12823296  1064205291
-11.50375080 -13.24355793 -2.49513626  3243692885
-2.49513626 0.93157834 -11.07250214  1064205291
-10.85256958 -13.78223133 -2.49513626  3244423794
-2.49513626 0.93157834 -10.17621231  1064205291
-9.94543076 -14.45048809 -2.49513626  3244932030
-2.49513626 0.93157834 -9.47623634  1064205291
-9.23794270 -14.91269970 -2.49513626  3245404725
-2.49513626 0.93157834 -8.75426006  1064205291
-8.50899792 -15.34031105 -2.49513626  3245977801
-2.49513626 0.93157834 -7.76031637  1064205291
-7.50666285 -15.85490799 -2.49513626  3246363421
-2.49513626 0.93157834 -6.99361992  1064205291
-6.73435783 -16.19804001 -2.49513626  3246550732
-2.49513626 0.93157834 -6.21069860  1064205291
-5.94643354 -16.50357819 -2.49513626  3246704267
-2.49513626 0.93157834 -3.78288102  1064205291
-3.23082685 -17.24209976 -2.49513626  3247113602
-2.49513626 0.93157834 -2.11729360  1064205291
-1.83736324 -17.44569206 -2.49513626  3247163545
-2.49513626 0.93157834 -0.99502110  1064205291
-0.71363044 -17.52766037 -2.49513626  3247197053
-2.49513626 0.93157834 -0.15037127  1064205291
0.41304168 -17.53731918 -2.49513626  3247192631
-2.49513626 0.93157834 1.25717485  1064205291
1.81844330 -17.44767570 -2.49513626  3247133804
-2.49513626 0.93157834 2.93476009  1064205291
3.48866081 -17.19178200 -2.49513626  3238213840
-2.49513626 0.93522841 -14.24618340  1064266529
-13.96807384 -8.88440514 -2.49513626  3239164062
-2.49513626 0.93522841 -13.52398300  1064266528
-13.21041965 -9.97620010 -2.49513626  3240295983
-2.49513626 0.93522835 -12.88322926  1064266528
-12.71462536 -10.60085201 -2.49513626  3241152306
-2.49513626 0.93522835 -12.00786877  1064266528
-11.63572121 -11.77496147 -2.49513626  3242346473
-2.49513626 0.93522835 -11.05513191  1064266528
-10.85581970 -12.49763393 -2.49513626  3242899915
-2.49513626 0.93522835 -10.44888973  1064266550
-10.24131775 -13.00596523 -2.49513626  3243422526
-2.49513626 0.93522835 -9.60305214  1064266528
-9.16507339 -13.78554535 -2.49513626  3244221742
-2.49513626 0.93522835 -8.02974129  1064266528
-7.32322741 -14.84621143 -2.49513626  3245642306
-2.49513626 0.93522841 -5.61151409  1064266529
-4.85493660 -15.82622147 -2.49513626  3246477623
-2.49513626 0.93522841 -3.04885602  1064266528
-1.99803829 -16.43312263 -2.49513626  3246647577
-2.49513626 0.93522835 -0.93897802  1064266529
-0.40772483 -16.54912376 -2.49513626  3246681584
-2.49513626 0.93522841 0.38977462  1064266529
0.92105162 -16.52850151 -2.49513626  3246635069
-2.49513626 0.93522841 2.24389505  1064266529
2.50700188 -16.36321259 -2.49513626  3246559509
-2.49513626 0.93522835 3.29216766  1064266529
-13.48477173 -7.98062229 -2.49513626  3238432143
-2.49513626 0.93850493 -13.08476925  1064321500
-12.50436497 -9.44300270 -2.49513626  3239725069
-2.49513626 0.93850493 -12.19466019  1064321500
-12.03506565 -10.03427219 -2.49513626  3240535625
-2.49513626 0.93850493 -11.01383018  1064321500
-10.83342552 -11.32105827 -2.49513626  3241843757
-2.49513626 0.93850493 -9.89039993  1064321500
-9.69394970 -12.31084061 -2.49513626  3242684509
-2.49513626 0.93850493 -9.08980274  1064321500
-8.88365459 -12.90775490 -2.49513626  3243296686
-2.49513626 0.93850493 -7.81965780  1064321500
-7.60057735 -13.70257568 -2.49513626  3244785651
-2.49513626 0.93850493 -5.54764318  1064321500
-5.07416630 -14.82505608 -2.49513626  3245242718
-2.49513626 0.93850493 -4.11199999  1064321500
-3.86865044 -15.18430042 -2.49513626  3245658034
-2.49513626 0.93850493 -3.13286495  1064321500
-2.88590384 -15.40133286 -2.49513626  3245924495
-2.49513626 0.93850493 -1.39073789  1064321500
-1.13991320 -15.62786007 -2.49513626  3246018156
-2.49513626 0.93850493 -0.63744324  1064321500
-0.38593131 -15.66462612 -2.49513626  3246031731
-2.49513626 0.93850493 0.87182432  1064321500
1.62430239 -15.58496284 -2.49513626  3245926636
-2.49513626 0.93850493 2.62144184  1064321500
-12.91889095 -7.36818409 -2.49513626  3237110763
-2.49513626 0.94146234 -12.67559910  1064371117
-12.54903889 -7.98182297 -2.49513626  3238401888
-2.49513626 0.94146234 -12.01075172  1064371117
-11.72289181 -9.15213871 -2.49513626  3239406954
-2.49513626 0.94146234 -11.42292595  1064371117
-11.26850414 -9.70611477 -2.49513626  3239980124
-2.49513626 0.94146234 -10.78796864  1064371117
-9.57138920 -11.38316154 -2.49513626  3241709831
-2.49513626 0.94146234 -8.82089901  1064371117
-8.43180561 -12.25122643 -2.49513626  3242600747
-2.49513626 0.94146234 -7.83198786  1064371117
-7.42192650 -12.88809204 -2.49513626  3243251465
-2.49513626 0.94146234 -7.00419521  1064371117
-6.57925034 -13.33796310 -2.49513626  3243708938
-2.49513626 0.94146234 -5.92924309  1064371117
-5.70943642 -13.73281479 -2.49513626  3244108266
-2.49513626 0.94146234 -5.26547432  1064371117
-4.58948803 -14.14653397 -2.49513626  3244786022
-2.49513626 0.94146234 -3.20715332  1064371117
-2.97351575 -14.57209110 -2.49513626  3244942139
-2.49513626 0.94146228 -2.26825547  1064371117
-1.55772948 -14.79058456 -2.49513626  3245167595
-2.49513626 0.94146228 -0.84358597  1064371116
0.11135665 -14.87196636 -2.49513626  3245168806
-2.49513626 0.94146234 1.30392730  1064371117
1.77903485 -14.76558399 -2.49513626  3245029038
-2.49513626 0.94146234 2.95770836  1064371117
-12.17776203 -7.20710325 -2.49513626  3236748048
-2.49513626 0.94414485 -11.94003296  1064416122
-11.81653023 -7.78523302 -2.49513626  3237948146
-2.49513626 0.94414485 -11.56041718  1064416122
-11.42787361 -8.34529591 -2.49513626  3238745063
-2.49513626 0.94414485 -11.01268578  1064416123
-10.86857033 -9.06170177 -2.49513626  3239297760
-2.49513626 0.94414485 -10.57195187  1064416122
-10.10667896 -9.90430546 -2.49513626  3240168355
-2.49513626 0.94414485 -9.78339672  1064416122
-9.27964973 -10.68308735 -2.49513626  3240970928
-2.49513626 0.94414485 -8.93177700  1064416122
-8.57469368 -11.25677109 -2.49513626  3241560525
-2.49513626 0.94414485 -8.20877075  1064416122
-7.06174040 -12.26262951 -2.49513626  3242589639
-2.49513626 0.94414485 -6.66428757  1064416122
-6.46295404 -12.58850574 -2.49513626  3243125140
-2.49513626 0.94414490 -5.64149284  1064416122
-4.58235645 -13.38813782 -2.49513626  3243932060
-2.49513626 0.94414485 -3.49368215  1064416122
-3.27301669 -13.76690197 -2.49513626  3244102977
-2.49513626 0.94414485 -2.15817976  1064416122
-1.93330956 -14.01793671 -2.49513626  3244370471
-2.49513626 0.94414485 -0.57566178  1064416122
-0.12129976 -14.15010929 -2.49513626  3244451672
-2.49513626 0.94414485 0.78732032  1064416122
1.01411629 -14.11424255 -2.49513626  3244372152
-2.49513626 0.94414485 1.69269943  1064416122
1.91810083 -14.02002811 -2.49513626  3244242967
-2.49513626 0.94414485 -11.72142887  1064457126
-11.61255455 -6.87259769 -2.49513626  3236027593
-2.49513626 0.94658887 -11.26808834  1064457126
-11.14741325 -7.60388947 -2.49513626  3237545368
-2.49513626 0.94658887 -10.89746475  1064457126
-10.76826191 -8.13194180 -2.49513626  3238321264
-2.49513626 0.94658887 -10.50155830  1064457126
-10.22401619 -8.80644608 -2.49513626  3239019284
-2.49513626 0.94658887 -9.17154408  1064457126
-9.01141357 -10.04382515 -2.49513626  3240296185
-2.49513626 0.94658887 -8.68420601  1064457126
-8.34804440 -10.60160828 -2.49513626  3240869816
-2.49513626 0.94658887 -7.65025377  1064457127
-7.10603857 -11.47118950 -2.49513626  3241760608
-2.49513626 0.94658887 -6.35497379  1064457127
-6.16298532 -12.00423145 -2.49513626  3242303586
-2.49513626 0.94658887 -5.77429676  1064457126
-5.37965393 -12.37510586 -2.49513626  3242679238
-2.49513626 0.94658887 -4.97945833  1064457126
-4.77741098 -12.61983776 -2.49513626  3243206126
-2.49513626 0.94658887 -3.33152914  1064457126
-3.12110472 -13.12793350 -2.49513626  3243477719
-2.49513626 0.94658887 -2.48522615  1064457126
-1.84357464 -13.36731625 -2.49513626  3243685579
-2.49513626 0.94658887 -1.19764841  1064457127
-0.11566985 -13.49335289 -2.49513626  3243763008
-2.49513626 0.94658893 0.53431785  1064457126
0.75078052 -13.47294903 -2.49513626  3243727024
-2.49513626 0.94658887 1.18306541  1064457126
1.61413693 -13.39695930 -2.49513626  3243600212
-2.49513626 0.94658887 2.25748491  1064457126
2.47084117 -13.26570320 -2.49513626  3234997186
-2.49513626 0.94882482 -10.98907280  1064494639
-10.53345776 -7.43575001 -2.49513626  3237520737
-2.49513626 0.94882482 -10.03438663  1064494639
-9.90307140 -8.25671387 -2.49513626  3238600886
-2.49513626 0.94882482 -9.35259342  1064494639
-8.91429520 -9.31554890 -2.49513626  3239530994
-2.49513626 0.94882482 -8.45529842  1064494639
-8.29788876 -9.86859512 -2.49513626  3240236141
-2.49513626 0.94882482 -7.81296873  1064494639
-7.64725065 -10.38092518 -2.49513626  3240751161
-2.49513626 0.94882482 -6.96506739  1064494639
-6.78991795 -10.96088123 -2.49513626  3241220261
-2.49513626 0.94882482 -6.43441629  1064494639
-6.25414419 -11.27518272 -2.49513626  3241641473
-2.49513626 0.94882482 -5.70386028  1064494639
-4.94977713 -11.90561390 -2.49513626  3242258265
-2.49513626 0.94882482 -4.37064838  1064494639
-3.78137636 -12.32660961 -2.49513626  3242815867
-2.49513626 0.94882482 -1.96645963  1064494639
-1.76156461 -12.77266598 -2.49513626  3243035125
-2.49513626 0.94882482 -0.93797970  1064494639
-0.31756562 -12.88965321 -2.49513626  3243133468
-2.49513626 0.94882482 0.09653959  1064494639
0.30358511 -12.88999081 -2.49513626  3243061129
-2.49513626 0.94882482 1.54232955  1064494639
2.36092067 -12.67557240 -2.49513626  3242863909
-2.49513626 0.94882482 -10.51959419  1064529084
-10.30683804 -6.79058218 -2.49513626  3236153164
-2.49513626 0.95087790 -9.96783352  1064529084
-9.84965324 -7.43823004 -2.49513626  3237154270
-2.49513626 0.95087790 -9.60570431  1064529084
-9.35183430 -8.05519295 -2.49513626  3238371127
-2.49513626 0.95087790 -8.95303345  1064529084
-8.81543827 -8.63892174 -2.49513626  3238964829
-2.49513626 0.95087790 -8.38914585  1064529084
-7.94338226 -9.44698811 -2.49513626  3239652454
-2.49513626 0.95087790 -7.47918129  1064529084
-7.32053947 -9.93743324 -2.49513626  3240156163
-2.49513626 0.95087790 -6.49984169  1064529084
-5.46017933 -11.06929588 -2.49513626  3241398962
-2.49513626 0.95087790 -4.73831415  1064529084
-4.36986494 -11.54327106 -2.49513626  3241858991
-2.49513626 0.95087790 -3.80885553  1064529084
-2.85485220 -12.00802994 -2.49513626  3242251861
-2.49513626 0.95087790 -2.46774936  1064529084
-2.07809806 -12.16652679 -2.49513626  3242461749
-2.49513626 0.95087790 -1.29277396  1064529084
-0.89790660 -12.31002331 -2.49513626  3242552441
-2.49513626 0.95087790 0.29061732  1064529084
0.68673384 -12.32360840 -2.49513626  3242506532
-2.49513626 0.95087790 1.47643793  1064529084
1.86921394 -12.20036983 -2.49513626  3242337549
-2.49513626 0.95087790 2.45463157  1064529084
-10.18531990 -6.02792597 -2.49513626  3234208359
-2.49513626 0.95276952 -9.98649216  1064560820
-9.88319588 -6.51146889 -2.49513626  3235539593
-2.49513626 0.95276952 -9.55812550  1064560820
-9.44480610 -7.13249493 -2.49513626  3236499541
-2.49513626 0.95276958 -9.21087360  1064560821
-9.09033585 -7.57909346 -2.49513626  3237724012
-2.49513626 0.95276952 -8.71475601  1064560821
-8.45309925 -8.28383541 -2.49513626  3238580479
-2.49513626 0.95276958 -7.90387678  1064560820
-7.61688471 -9.05869007 -2.49513626  3239239847
-2.49513626 0.95276952 -7.17176580  1064560820
-7.01964760 -9.52897644 -2.49513626  3239722853
-2.49513626 0.95276952 -6.55257654  1064560820
-6.39345026 -9.95995140 -2.49513626  3240368599
-2.49513626 0.95276952 -5.74087334  1064560820
-5.57392550 -10.44069672 -2.49513626  3241073481
-2.49513626 0.95276952 -3.83262444  1064560820
-2.92206907 -11.46901703 -2.49513626  3241687870
-2.49513626 0.95276952 -2.55224323  1064560820
-1.80507135 -11.69694424 -2.49513626  3241908030
-2.49513626 0.95276952 -0.86099869  1064560820
-0.29150194 -11.83181477 -2.49513626  3242023946
-2.49513626 0.95276952 0.08861722  1064560820
0.27867210 -11.83212280 -2.49513626  3242014669
-2.49513626 0.95276952 0.65850681  1064560820
0.84819412 -11.80497456 -2.49513626  3241935294
-2.49513626 0.95276952 1.60427809  1064560820
2.16716576 -11.63530254 -2.49513626  3241776512
-2.49513626 0.95276952 -9.59088135  1064590155
-9.39003086 -6.40514183 -2.49513626  3234972546
-2.49513626 0.95451802 -8.95947647  1064590155
-8.73022652 -7.27885103 -2.49513626  3236782377
-2.49513626 0.95451802 -8.24494553  1064590155
-8.11823368 -7.95567608 -2.49513626  3238091846
-2.49513626 0.95451802 -7.85854912  1064590155
-7.45391846 -8.58123493 -2.49513626  3238736512
-2.49513626 0.95451802 -6.88766050  1064590155
-6.74156857 -9.15149117 -2.49513626  3239432182
-2.49513626 0.95451802 -6.29300261  1064590155
-5.82982159 -9.75764751 -2.49513626  3239942564
-2.49513626 0.95451802 -5.51345158  1064590155
-5.19139290 -10.11177349 -2.49513626  3240303092
-2.49513626 0.95451802 -4.69837141  1064590155
-4.53155279 -10.42418098 -2.49513626  3240691585
-2.49513626 0.95451802 -4.02425623  1064590155
-3.85302043 -10.69357395 -2.49513626  3240951078
-2.49513626 0.95451802 -3.33353543  1064590155
-2.98284078 -10.96818924 -2.49513626  3241163806
-2.49513626 0.95451802 -2.27257562  1064590155
-1.00883996 -11.32169628 -2.49513626  3241501198
-2.49513626 0.95451802 -0.27995422  1064590155
-0.09743388 -11.36613464 -2.49513626  3241468564
-2.49513626 0.95451802 1.54072320  1064590155
1.90159369 -11.20635700 -2.49513626  3241331257
-2.49513626 0.95451802 2.26049900  1064590155
-9.49600124 -5.41596794 -2.49513626  3233217266
-2.49513626 0.95613879 -9.22414303  1064617347
-9.12873459 -6.01439810 -2.49513626  3234144391
-2.49513626 0.95613879 -8.82847786  1064617347
-8.72380829 -6.58801365 -2.49513626  3235333557
-2.49513626 0.95613879 -8.39639664  1064617347
-8.28288555 -7.13445425 -2.49513626  3236464539
-2.49513626 0.95613879 -8.04948807  1064617348
-7.92967272 -7.52509451 -2.49513626  3237271760
-2.49513626 0.95613879 -7.68391466  1064617347
-7.43023968 -8.01862240 -2.49513626  3238387686
-2.49513626 0.95613879 -6.90014553  1064617347
-6.62428379 -8.69629192 -2.49513626  3238843178
-2.49513626 0.95613879 -6.05236816  1064617347
-5.90538692 -9.19962883 -2.49513626  3239454468
-2.49513626 0.95613885 -5.30262613  1064617347
-4.99288464 -9.72511482 -2.49513626  3239894365
-2.49513626 0.95613879 -4.67798948  1064617347
-4.51871395 -9.95428658 -2.49513626  3240126661
-2.49513626 0.95613879 -4.19670868  1064617347
-3.87037539 -10.22384167 -2.49513626  3240459360
-2.49513626 0.95613879 -3.37349105  1064617347
-3.03781509 -10.50134754 -2.49513626  3240675283
-2.49513626 0.95613879 -2.52853322  1064617347
-2.35741019 -10.67470646 -2.49513626  3240845568
-2.49513626 0.95613879 -1.66727579  1064617347
-1.14500570 -10.87178421 -2.49513626  3241031782
-2.49513626 0.95613879 -0.79527128  1064617347
-0.44471931 -10.92286396 -2.49513626  3241076601
-2.49513626 0.95613879 0.43287230  1064617347
0.60823792 -10.91498184 -2.49513626  3241047543
-2.49513626 0.95613879 0.95845091  1064617347
1.30767906 -10.85342121 -2.49513626  3240971228
-2.49513626 0.95613879 1.65555680  1064617347
1.82887995 -10.77784634 -2.49513626  3240883218
-2.49513626 0.95613879 2.17405796  1064617347
-8.97276020 -5.50676250 -2.49513626  3233074685
-2.49513626 0.95764530 -8.69713879  1064642622
-8.60074520 -6.07141113 -2.49513626  3234246169
-2.49513626 0.95764530 -8.40132904  1064642622
-8.08602047 -6.74174309 -2.49513626  3235634442
-2.49513626 0.95764530 -7.27866983  1064642622
-7.15557671 -7.72221279 -2.49513626  3238395731
-2.49513626 0.95764530 -6.24410772  1064642622
-6.10717821 -8.57538414 -2.49513626  3238707703
-2.49513626 0.95764530 -5.68709278  1064642622
-5.39963818 -9.03763008 -2.49513626  3239180426
-2.49513626 0.95764530 -4.95810938  1064642622
-4.35168123 -9.58633137 -2.49513626  3239738057
-2.49513626 0.95764530 -4.04157734  1064642622
-3.56870747 -9.90450191 -2.49513626  3240058458
-2.49513626 0.95764530 -2.92552280  1064642622
-2.76273656 -10.15884495 -2.49513626  3240353939
-2.49513626 0.95764530 -2.27026796  1064642622
-1.77252805 -10.37752151 -2.49513626  3240624039
-2.49513626 0.95764530 -0.59715462  1064642622
-0.09024420 -10.52742672 -2.49513626  3240652983
-2.49513626 0.95764530 0.24788381  1064642622
0.41687134 -10.51955795 -2.49513626  3240624906
-2.49513626 0.95764530 1.09132349  1064642622
1.42703497 -10.43065166 -2.49513626  3240525967
-2.49513626 0.95764530 1.76127601  1064642622
2.09369612 -10.31752682 -2.49513626  3232650681
-2.49513626 0.95904911 -8.47670746  1064666174
-8.29298115 -5.85415840 -2.49513626  3234054712
-2.49513626 0.95904911 -7.90006685  1064666174
-7.79667473 -6.50050402 -2.49513626  3235118837
-2.49513626 0.95904911 -7.58389330  1064666174
-6.89953041 -7.44588184 -2.49513626  3237070973
-2.49513626 0.95904911 -6.65684843  1064666174
-6.53291607 -7.76953650 -2.49513626  3237737296
-2.49513626 0.95904911 -6.28003025  1064666174
-5.88864660 -8.26852608 -2.49513626  3238662761
-2.49513626 0.95904911 -5.06580830  1064666174
-4.92388058 -8.87693977 -2.49513626  3239083237
-2.49513626 0.95904911 -4.49064398  1064666174
-4.34386301 -9.17472267 -2.49513626  3239375785
-2.49513626 0.95904911 -3.89695477  1064666174
-3.74592519 -9.43465424 -2.49513626  3239628071
-2.49513626 0.95904911 -3.28719687  1064666174
-3.13253713 -9.65566540 -2.49513626  3239790224
-2.49513626 0.95904911 -2.82083988  1064666174
-2.66387439 -9.79532909 -2.49513626  3239928758
-2.49513626 0.95904911 -2.18903017  1064666174
-1.38687873 -10.05590534 -2.49513626  3240199723
-2.49513626 0.95904911 -0.90096146  1064666174
-0.41295469 -10.14269066 -2.49513626  3240255042
-2.49513626 0.95904911 0.07600549  1064666174
0.23901194 -10.14827728 -2.49513626  3240249925
-2.49513626 0.95904911 0.56479394  1064666174
0.72748834 -10.12499046 -2.49513626  3240217282
-2.49513626 0.95904911 1.37596869  1064666174
1.69825029 -10.00802803 -2.49513626  3231406509
-2.49513626 0.96036023 -8.43284893  1064688172
-8.09507084 -5.52182436 -2.49513626  3233344797
-2.49513626 0.96036029 -7.72389984  1064688171
-7.10790348 -6.74525356 -2.49513626  3236072782
-2.49513626 0.96036023 -6.42596483  1064688172
-6.18507004 -7.60036993 -2.49513626  3237572939
-2.49513626 0.96036029 -5.81185246  1064688172
-5.68440771 -7.98174429 -2.49513626  3238078188
-2.49513626 0.96036029 -5.02584362  1064688172
-4.89010906 -8.49161625 -2.49513626  3238754811
-2.49513626 0.96036023 -4.33489275  1064688172
-3.90661836 -8.98660469 -2.49513626  3239163909
-2.49513626 0.96036029 -3.32166338  1064688172
-2.41930318 -9.49566650 -2.49513626  3239610462
-2.49513626 0.96036029 -2.11310720  1064688172
-1.95917273 -9.60116291 -2.49513626  3239742413
-2.49513626 0.96036023 -0.86971354  1064688172
0.23072410 -9.79629993 -2.49513626  3239881035
-2.49513626 0.96036029 0.70225638  1064688172
0.85912502 -9.76128197 -2.49513626  3239833737
-2.49513626 0.96036029 1.32824540  1064688172
1.48398781 -9.68599415 -2.49513626  3239744283
-2.49513626 0.96036023 -8.22541809  1064708762
-8.14901638 -4.82278919 -2.49513626  3232150918
-2.49513626 0.96158755 -7.82260656  1064708762
-7.36938572 -5.94625187 -2.49513626  3233942258
-2.49513626 0.96158755 -7.17462158  1064708762
-7.07445240 -6.29427481 -2.49513626  3234662086
-2.49513626 0.96158755 -6.86866522  1064708762
-6.76310539 -6.62768126 -2.49513626  3235350716
-2.49513626 0.96158755 -6.54677248  1064708762
-6.43605995 -6.94571018 -2.49513626  3236217634
-2.49513626 0.96158755 -6.09407520  1064708762
-5.97689390 -7.34456110 -2.49513626  3236827429
-2.49513626 0.96158755 -5.73794222  1064708762
-5.49308157 -7.71309185 -2.49513626  3237762610
-2.49513626 0.96158755 -5.11523485  1064708762
-4.72551537 -8.20580673 -2.49513626  3238373182
-2.49513626 0.96158755 -3.77512908  1064708762
-3.49429560 -8.80088806 -2.49513626  3238900133
-2.49513626 0.96158755 -3.06638288  1064708762
-2.77709079 -9.05281734 -2.49513626  3239152185
-2.49513626 0.96158755 -2.33787370  1064708762
-2.19021177 -9.21242428 -2.49513626  3239309640
-2.49513626 0.96158755 -1.44419050  1064708762
-1.14290559 -9.39996719 -2.49513626  3239488635
-2.49513626 0.96158755 -0.84044075  1064708762
-0.68886268 -9.44410992 -2.49513626  3239540246
-2.49513626 0.96158755 -0.08117040  1064708762
0.07089975 -9.46893597 -2.49513626  3239527877
-2.49513626 0.96158755 0.83020824  1064708762
0.98158622 -9.41818714 -2.49513626  3239471961
-2.49513626 0.96158755 1.58417153  1064708762
-7.95643950 -4.53789186 -2.49513626  3231008852
-2.49513626 0.96273869 -7.72865772  1064728075
-7.56680393 -5.16148186 -2.49513626  3232553918
-2.49513626 0.96273869 -7.30943966  1064728075
-7.12840271 -5.75180674 -2.49513626  3233993879
-2.49513626 0.96273863 -6.74445152  1064728075
-6.54194832 -6.41095400 -2.49513626  3235315364
-2.49513626 0.96273869 -6.11689806  1064728075
-5.89479542 -7.01062012 -2.49513626  3236124445
-2.49513626 0.96273869 -5.66660881  1064728075
-5.07111406 -7.62766027 -2.49513626  3237715459
-2.49513626 0.96273869 -4.57099104  1064728074
-4.44292641 -8.00986099 -2.49513626  3238086757
-2.49513626 0.96273863 -4.18340206  1064728075
-4.05200529 -8.21453953 -2.49513626  3238359655
-2.49513626 0.96273869 -3.51630902  1064728075
-3.24288106 -8.56627750 -2.49513626  3238701042
-2.49513626 0.96273869 -2.11858940  1064728075
-1.39696467 -9.05239582 -2.49513626  3239128503
-2.49513626 0.96273869 -0.95936966  1064728075
-0.51954472 -9.14480400 -2.49513626  3239218214
-2.49513626 0.96273869 0.21566571  1064728075
0.36269203 -9.15236950 -2.49513626  3239203689
-2.49513626 0.96273869 1.09566748  1064728075
1.24156678 -9.07501411 -2.49513626  3239107789
-2.49513626 0.96273869 1.53236818  1064728075
1.67719126 -9.00468826 -2.49513626  3230439453
-2.49513626 0.96382040 -7.63184881  1064746227
-7.55832338 -4.63869429 -2.49513626  3231206817
-2.49513626 0.96382046 -7.40545750  1064746224
-7.32615232 -4.99732876 -2.49513626  3231951010
-2.49513626 0.96382046 -7.16188145  1064746224
-6.99023247 -5.45732021 -2.49513626  3232904252
-2.49513626 0.96382046 -6.81136703  1064746224
-6.71928740 -5.78765059 -2.49513626  3233809339
-2.49513626 0.96382046 -6.43274784  1064746224
-5.92235661 -6.60086393 -2.49513626  3235266164
-2.49513626 0.96382046 -5.59757376  1064746223
-5.37378788 -7.05465269 -2.49513626  3236199223
-2.49513626 0.96382040 -5.14446259  1064746224
-4.79059839 -7.46296740 -2.49513626  3237191019
-2.49513626 0.96382046 -4.42561245  1064746223
-4.30162334 -7.75511217 -2.49513626  3237770443
-2.49513626 0.96382046 -3.66569567  1064746224
-3.40447617 -8.18872833 -2.49513626  3238256806
-2.49513626 0.96382046 -2.73666143  1064746224
-2.60084248 -8.47828579 -2.49513626  3238587208
-2.49513626 0.96382040 -2.05120945  1064746224
-1.91239011 -8.65958881 -2.49513626  3238725350
-2.49513626 0.96382046 -1.63330519  1064746223
-1.49311149 -8.74164486 -2.49513626  3238804319
-2.49513626 0.96382046 -0.78710252  1064746224
-0.64514428 -8.84474373 -2.49513626  3238905407
-2.49513626 0.96382046 0.06640079  1064746224
0.20880823 -8.86578274 -2.49513626  3238905812
-2.49513626 0.96382046 0.49341774  1064746224
0.77752084 -8.83409119 -2.49513626  3238827288
-2.49513626 0.96382040 1.34303141  1064746224
1.48363435 -8.74325848 -2.49513626  3238755883
-2.49513626 0.96382046 1.76365125  1064746224
-7.46486807 -4.25752687 -2.49513626  3230404409
-2.49513626 0.96483886 -7.32428741  1064763310
-7.17615318 -4.72795677 -2.49513626  3231381120
-2.49513626 0.96483886 -6.94012117  1064763310
-6.85784054 -5.17887926 -2.49513626  3232542630
-2.49513626 0.96483886 -6.32775784  1064763310
-6.13776731 -6.01486540 -2.49513626  3234639853
-2.49513626 0.96483886 -5.63551140  1064763310
-5.09693909 -6.91895628 -2.49513626  3235905365
-2.49513626 0.96483886 -4.87211466  1064763310
-4.52552700 -7.30550289 -2.49513626  3236843110
-2.49513626 0.96483886 -4.16842747  1064763310
-3.92493701 -7.64497662 -2.49513626  3237753479
-2.49513626 0.96483886 -3.17120028  1064763310
-3.04252648 -8.03702641 -2.49513626  3238228933
-2.49513626 0.96483886 -2.38804626  1064763310
-1.98769724 -8.36061192 -2.49513626  3238443228
-2.49513626 0.96483886 -1.44687939  1064763310
-1.31065798 -8.49311161 -2.49513626  3238589608
-2.49513626 0.96483886 -0.21165960  1064763310
0.06434453 -8.59340763 -2.49513626  3238611213
-2.49513626 0.96483886 0.61587280  1064763310
1.30144560 -8.49452877 -2.49513626  3238498175
-2.49513626 0.96483886 1.57357109  1064763310
1.70904160 -8.42199135 -2.49513626  3229884728
-2.49513626 0.96579927 -7.10328007  1064779423
-7.03235626 -4.47293377 -2.49513626  3230841525
-2.49513626 0.96579927 -6.80877304  1064779423
-6.73070669 -4.91515589 -2.49513626  3231758647
-2.49513626 0.96579927 -6.48618078  1064779423
-6.40129328 -5.33709812 -2.49513626  3232632321
-2.49513626 0.96579927 -6.22659302  1064779423
-6.13682127 -5.63920212 -2.49513626  3233256888
-2.49513626 0.96579927 -5.95256042  1064779423
-5.66471195 -6.11328030 -2.49513626  3234420855
-2.49513626 0.96579927 -5.15608311  1064779423
-5.05026340 -6.62993431 -2.49513626  3235297739
-2.49513626 0.96579927 -4.83474398  1064779423
-4.72509956 -6.86546421 -2.49513626  3235934196
-2.49513626 0.96579927 -4.38897085  1064779422
-4.27462101 -7.15463352 -2.49513626  3236371855
-2.49513626 0.96579927 -3.92508531  1064779423
-3.80650258 -7.41428947 -2.49513626  3236900555
-2.49513626 0.96579927 -3.56643605  1064779423
-3.44500542 -7.58901167 -2.49513626  3237254753
-2.49513626 0.96579927 -2.82516646  1064779423
-2.18711853 -8.04224300 -2.49513626  3238116283
-2.49513626 0.96579927 -1.66633058  1064779423
-1.53497434 -8.19176579 -2.49513626  3238228510
-2.49513626 0.96579927 -1.27110732  1064779423
-1.13866484 -8.25619221 -2.49513626  3238305197
-2.49513626 0.96579927 -0.60630387  1064779423
-0.47273704 -8.32091999 -2.49513626  3238353019
-2.49513626 0.96579927 0.19623545  1064779423
0.33001655 -8.32779980 -2.49513626  3238330794
-2.49513626 0.96579927 0.73070967  1064779423
0.86394507 -8.28943634 -2.49513626  3238290516
-2.49513626 0.96579927 1.12971163  1064779423
1.39431214 -8.21687698 -2.49513626  3238205510
-2.49513626 0.96579927 -7.02653742  1064794642
-6.96127176 -4.11985302 -2.49513626  3231229915
-2.49513626 0.96670640 -6.45515347  1064794642
-6.37603807 -4.97781467 -2.49513626  3231878095
-2.49513626 0.96670640 -6.12889767  1064794642
-5.95619965 -5.47322559 -2.49513626  3233291919
-2.49513626 0.96670640 -5.59256077  1064794642
-5.49798346 -5.93335390 -2.49513626  3233852174
-2.49513626 0.96670640 -5.30460024  1064794642
-5.10574245 -6.27406502 -2.49513626  3234720221
-2.49513626 0.96670640 -4.47842932  1064794642
-4.25979376 -6.87653017 -2.49513626  3235926058
-2.49513626 0.96670640 -3.92366242  1064794642
-3.57843018 -7.25446939 -2.49513626  3236782972
-2.49513626 0.96670640 -3.10534263  1064794642
-2.98499012 -7.51813412 -2.49513626  3237090635
-2.49513626 0.96670640 -2.74201417  1064794642
-2.61944890 -7.65316868 -2.49513626  3237361481
-2.49513626 0.96670640 -2.37232113  1064794642
-2.24782252 -7.77044344 -2.49513626  3237594876
-2.49513626 0.96670640 -1.99711967  1064794642
-1.10515249 -8.01318645 -2.49513626  3238049394
-2.49513626 0.96670640 -0.58845979  1064794642
-0.45882329 -8.07601261 -2.49513626  3238089028
-2.49513626 0.96670640 -0.19923009  1064794642
-0.06933956 -8.08873844 -2.49513626  3238093698
-2.49513626 0.96670640 0.32030326  1064794642
0.45006371 -8.07650661 -2.49513626  3238063385
-2.49513626 0.96670640 0.96761227  1064794642
1.35327482 -7.97503519 -2.49513626  3237850561
-2.49513626 0.96670640 -6.82463741  1064809039
-6.76124763 -4.00147343 -2.49513626  3229843799
-2.49513626 0.96756452 -6.49042606  1064809039
-6.19282961 -4.83478212 -2.49513626  3231572004
-2.49513626 0.96756452 -5.95279026  1064809039
-5.86967993 -5.22236824 -2.49513626  3232373846
-2.49513626 0.96756452 -5.61135483  1064809038
-5.43186140 -5.67636776 -2.49513626  3233311070
-2.49513626 0.96756452 -5.05626059  1064809038
-4.95903349 -6.09378815 -2.49513626  3234170434
-2.49513626 0.96756452 -4.34974909  1064809038
-4.24411535 -6.61164093 -2.49513626  3235232230
-2.49513626 0.96756446 -4.02959633  1064809039
-3.81092000 -6.87045527 -2.49513626  3235760347
-2.49513626 0.96756452 -2.89922118  1064809039
-2.66322589 -7.39144707 -2.49513626  3236814156
