# .PCD v0.7 - Point Cloud Data file format
VERSION 0.7
FIELDS x y z intensity
SIZE 4 4 4 4
TYPE F F F F
COUNT 1 1 1 1
WIDTH 1007
HEIGHT 1
VIEWPOINT 0 0 0 1 0 0 0
POINTS 1007
DATA ascii
36.54578781 -34.11574173 -2.49513626  3255179066
-2.49513626 0.81854409 37.62568665  1062308891
38.15107346 -32.31058121 -2.49513626  3254618366
-2.49513626 0.81854409 39.17200470  1062308890
39.66728592 -30.43002129 -2.49513626  3253619742
-2.49513626 0.81854403 40.62685394  1062308890
41.09086227 -28.47839355 -2.49513626  3252231909
-2.49513626 0.81854403 42.41852570  1062308890
42.83919907 -25.77374458 -2.49513626  3250785030
-2.49513626 0.81854409 44.40980911  1062308890
44.77389908 -22.24356651 -2.49513626  3249285161
-2.49513626 0.81854397 45.46713257  1062308891
45.79596710 -20.05550957 -2.49513626  3247738341
-2.49513626 0.81854409 46.71138000  1062308891
46.99232483 -17.06458664 -2.49513626  3245106528
-2.49513626 0.81854409 47.99353790  1062308891
48.21286392 -13.22867393 -2.49513626  3242669269
-2.49513626 0.81854409 48.61394501  1062308891
48.79558945 -10.88434505 -2.49513626  3240201524
-2.49513626 0.81854409 49.26438522  1062308891
49.61818314 -6.12497568 -2.49513626  3232392745
-2.49513626 0.81854409 49.85611343  1062308891
49.90958023 -2.91752791 -2.49513626  3221700465
-2.49513626 0.81854409 49.99224854  1062308891
49.98252869 1.10723448 -2.49513626  1073005108
-2.49513626 0.81854409 49.92092514  1062308891
49.80752945 4.32315350 -2.49513626  1086167854
-2.49513626 0.81854403 49.54055405  1062308890
49.42582321 7.52110100 -2.49513626  1090850626
-2.49513626 0.81854403 49.27968216  1062302081
51.99797058 10.50447273 -2.64753628  1094021962
-2.64753628 0.80859447 51.42986298  1062141964
51.21373367 13.83063412 -2.64753628  1097495979
-2.64753628 0.80859452 50.21696854  1062141964
48.25415802 19.07880211 -2.58967090  1100578677
-2.50275636 0.81804365 46.01656723  1062300495
45.68956757 20.66959381 -2.50275636  1102121820
-2.50275636 0.81804365 47.22001266  1062141964
46.82448196 24.93184471 -2.64753628  1104374492
-2.64753628 0.80859447 45.56552124  1062141964
45.12205505 27.89504814 -2.64753628  1105523227
-2.64753628 0.80859447 44.20014572  1062141964
43.23237228 30.74240685 -2.64753628  1107504608
-2.64753628 0.80859447 41.16329956  1062141964
39.49885559 35.41149521 -2.64753628  1108993495
-2.64753628 0.80859447 33.23371124  1062308892
31.39079094 38.91137314 -2.49513626  1109239240
-2.49513626 0.81854403 30.12126923  1062308891
29.47465515 40.38221359 -2.49513626  1109616660
-2.49513626 0.81854433 26.81345177  1062308891
26.13030624 42.62258148 -2.49513626  1110189784
-2.49513626 0.81854409 24.74387360  1062308891
24.04094505 43.83503723 -2.49513626  1110595774
-2.49513626 0.81854409 21.89545441  1062308891
21.16865730 45.29201126 -2.49513626  1110953253
-2.49513626 0.81854409 16.69940567  1062308891
15.93824577 47.38619614 -2.49513626  1111516976
-2.49513626 0.81854409 12.07429504  1062308891
11.29128647 48.70304489 -2.49513626  1111720877
-2.49513626 0.81854409 9.71668816  1062308891
7.33645630 49.45355988 -2.49513626  1111949371
-2.49513626 0.81854403 4.13707256  1062308891
3.33400226 49.88349152 -2.49513626  1111996687
-2.49513626 0.81854409 1.72555077  1062308890
-0.68997669 49.99001694 -2.49513626  1111988196
-2.49513626 0.81854409 -5.51058388  1062308891
-7.10825586 49.48688507 -2.49513626  1111848642
-2.49513626 0.81854403 -8.69855404  1062308891
-10.27978706 48.92651749 -2.49513626  1111588299
-2.49513626 0.81854409 -14.95301437  1062308891
-15.71948338 47.45919800 -2.49513626  1111209610
-2.49513626 0.81854409 -17.99360847  1062308891
-18.74257660 46.34862518 -2.49513626  1110806148
-2.49513626 0.81854403 -21.68787766  1062308891
-23.83849525 43.94548416 -2.49513626  1110220434
-2.49513626 0.81854397 -27.96781158  1062308890
-28.63167000 40.98421860 -2.49513626  1109404085
-2.49513626 0.81854409 -30.57795525  1062308891
-31.21101570 39.05574417 -2.49513626  1109012761
-2.49513626 0.81854403 -32.45283508  1062308890
-33.06119919 37.50247574 -2.49513626  3257506483
-2.49513626 0.84227401 6.79804039  1062707012
8.83323574 -41.91931534 -2.49513626  3257105469
-2.49513626 0.84227395 13.49370289  1062707013
14.14685249 -40.43663406 -2.49513626  3256800007
-2.49513626 0.84227401 16.72104073  1062707013
19.22586060 -38.28343582 -2.49513626  3256344585
-2.49513626 0.84227401 20.44900894  1062707012
21.05271530 -37.31047058 -2.49513626  3256081739
-2.49513626 0.84227395 22.83037376  1062707012
25.67268181 -34.29531479 -2.49513626  3255272042
-2.49513626 0.84227395 27.29931641  1062707012
28.34858131 -32.11873627 -2.49513626  3254104565
-2.49513626 0.84227395 30.35777092  1062707012
30.84069443 -29.73392677 -2.49513626  3253329309
-2.49513626 0.84227425 31.78240585  1062707012
32.24095535 -28.20950317 -2.49513626  3252240443
-2.49513626 0.84227395 33.56599426  1062707012
34.40595245 -25.52421379 -2.49513626  3249890119
-2.49513626 0.84227395 36.70837402  1062707012
37.73231888 -20.28617477 -2.49513626  3248318418
-2.49513626 0.84227401 38.36618042  1062707013
38.66819763 -18.43978310 -2.49513626  3247342632
-2.49513626 0.84227401 39.24208450  1062707012
39.51378250 -16.55041313 -2.49513626  3246298940
-2.49513626 0.84227389 40.02633286  1062707011
40.26711655 -14.62239552 -2.49513626  3242196449
-2.49513626 0.84227395 41.81232452  1062707012
41.95709991 -8.65198421 -2.49513626  3236526402
-2.49513626 0.84227401 42.32604980  1062707013
42.42712402 -5.93254089 -2.49513626  3232232160
-2.49513626 0.84227395 42.66416931  1062707012
42.72103500 -3.18858504 -2.49513626  3202141616
-2.49513626 0.84227395 42.82936859  1062707013
42.53795242 5.07720232 -2.49513626  1090111252
-2.49513626 0.84227395 41.99164581  1062707009
44.40562820 9.71765423 -2.64753628  1093068792
-2.64753628 0.83348954 43.88438416  1062559634
43.68779755 12.55660343 -2.64753628  1096033092
-2.64753628 0.83348966 42.78868866  1062559634
41.99759293 17.39238930 -2.64753628  1099991133
-2.64753628 0.83348954 40.37568665  1062605106
38.76872635 19.06603241 -2.51630425  1100785647
-2.50275636 0.84183258 37.92917252  1062699607
37.59895325 20.80386162 -2.50275636  1101742351
-2.50275636 0.84183258 36.90935135  1062699607
38.27448273 24.52257919 -2.64753628  1104330237
-2.64753628 0.83348954 36.17755127  1062559634
35.27228546 28.67329216 -2.64753628  1106427850
-2.64753628 0.83348960 33.35291290  1062559634
32.85113907 31.41806412 -2.64753628  1107416818
-2.64753628 0.83348954 31.29515839  1062559634
30.71305275 33.41685867 -2.64348745  1107555193
-2.50141048 0.84191054 26.89842796  1062707012
24.69582176 35.00531006 -2.49513626  1108187160
-2.49513626 0.84227401 23.55550194  1062707012
22.39071655 36.52273178 -2.49513626  1108575164
-2.49513626 0.84227401 21.20269966  1062707013
18.13914299 38.81012726 -2.49513626  1109156759
-2.49513626 0.84227401 16.87968063  1062707013
16.24328613 39.64102554 -2.49513626  1109366542
-2.49513626 0.84227395 14.95803356  1062707012
12.34231567 41.02344131 -2.49513626  1109805431
-2.49513626 0.84227395 9.67535019  1062707013
9.00190067 41.88341141 -2.49513626  1109923719
-2.49513626 0.84227401 7.64817429  1062707013
6.96824551 42.26934814 -2.49513626  1110016289
-2.49513626 0.84227401 4.91830349  1062707012
3.54500580 42.69294739 -2.49513626  1110131173
-2.49513626 0.84227401 0.78882885  1062707013
0.09879457 42.83975983 -2.49513626  1110125977
-2.49513626 0.84227395 -2.65969610  1062707013
-3.34805250 42.70884705 -2.49513626  1110087928
-2.49513626 0.84227395 -5.40716791  1062707012
-6.77319241 42.30105209 -2.49513626  1109966576
-2.49513626 0.84227401 -10.82346916  1062707012
-16.69787979 39.45168686 -2.49513626  1108946379
-2.49513626 0.84227401 -21.03078270  1062707013
-22.22201538 36.62563324 -2.49513626  1108413761
-2.49513626 0.84227395 -23.96524811  1062707012
-24.53410149 35.11884689 -2.49513626  1108009058
-2.49513626 0.84227395 -25.65254402  1062707013
-26.20184326 33.89274216 -2.49513626  1107680644
-2.49513626 0.84227401 -27.27991486  1062707012
-28.01460075 32.82917786 -2.51363778  3256089863
-2.49513626 0.86051911 7.72639465  1063013115
9.48854733 -36.25064850 -2.49513626  3255853047
-2.49513626 0.86051708 10.65123844  1063013115
11.22852135 -35.74999619 -2.49513626  3255714317
-2.49513626 0.86051911 15.17963314  1063013115
15.72947979 -34.01066971 -2.49513626  3255023331
-2.49513626 0.86051518 18.41472435  1063013115
18.93798256 -32.33411407 -2.49513626  3254786428
-2.49513626 0.86051911 19.96964836  1063013115
20.47776413 -31.38157845 -2.49513626  3254280613
-2.49513626 0.86051911 21.47792435  1063013115
21.96970940 -30.35579681 -2.49513626  3253538603
-2.49513626 0.86051911 23.41036606  1063013115
25.24570465 -27.69109535 -2.49513626  3251638455
-2.49513626 0.86051911 27.39164734  1063013115
27.79994965 -25.12578392 -2.49513626  3250210046
-2.49513626 0.86051911 29.73125839  1063013115
30.09477043 -22.32593918 -2.49513626  3248932088
-2.49513626 0.86051911 31.46980476  1063013115
31.79336357 -19.83241081 -2.49513626  3248130747
-2.49513626 0.86051911 33.28586197  1063013115
33.55875397 -16.67190361 -2.49513626  3245375657
-2.49513626 0.86051911 34.79125595  1063013115
35.01092148 -13.35582256 -2.49513626  3243025555
-2.49513626 0.86051911 35.42293930  1063013115
35.61518860 -11.64907169 -2.49513626  3241227101
-2.49513626 0.86051857 35.97192001  1063013115
36.29132843 -9.33177185 -2.49513626  3238784948
-2.49513626 0.86051911 36.69973373  1063013115
36.81686783 -6.97574091 -2.49513626  3232107977
-2.49513626 0.86051911 37.18961716  1063013114
37.31818390 -3.39049792 -2.49513626  3224534686
-2.49513626 0.86051911 37.46999359  1063013115
37.41652679 2.03613448 -2.49513626  1083055290
-2.49513626 0.86051911 37.13143158  1063013115
36.94982910 6.23313713 -2.49513626  1088060089
-2.49513626 0.86051911 36.72989273  1063013115
36.60561371 8.01071167 -2.49513626  1092350544
-2.64753628 0.85265970 38.03170013  1062881257
37.83997345 12.20836067 -2.64753628  1098700844
-2.64753628 0.85265976 35.67940521  1062881256
35.39214325 18.11914062 -2.64753628  1100498894
-2.61801195 0.85417670 31.64777756  1063006493
31.31707382 20.78395271 -2.50275636  1101678863
-2.50275636 0.86012441 30.27657127  1063006493
31.25251961 24.58023071 -2.64753628  1103668411
-2.64753628 0.85265976 30.44457054  1062881256
30.02868271 26.06117821 -2.64753628  1104927138
-2.64753628 0.85265976 28.28841400  1062881257
27.37376404 28.83720207 -2.64753628  1105867238
-2.64753628 0.85265976 24.96502876  1062881256
24.46333885 31.34410286 -2.64753628  1107326611
-2.64753628 0.85265970 22.92073250  1062881257
17.48752975 33.14103317 -2.49513626  1107668086
-2.49513626 0.86051911 16.41099167  1063013115
15.86624622 33.94708252 -2.49513626  1108218139
-2.49513626 0.86051911 11.37233257  1063013115
10.79577827 35.88305283 -2.49513626  1108511365
-2.49513626 0.86051911 7.28281832  1063013115
6.68983030 36.86988831 -2.49513626  1108624338
-2.49513626 0.86051911 4.90104198  1063013115
3.70189381 37.28858185 -2.49513626  1108696989
-2.49513626 0.86051911 2.49888921  1063013115
1.89636755 37.42387390 -2.49513626  1108724826
-2.49513626 0.86051911 0.68997735  1063013115
-0.51714855 37.46831512 -2.49513626  1108726285
-2.49513626 0.86051911 -1.72374296  1063013115
-2.92852354 37.35727310 -2.49513626  1108686996
-2.49513626 0.86051911 -4.72963285  1063013115
-5.32775116 37.09120178 -2.49513626  1108607127
-2.49513626 0.86051911 -6.51971197  1063013115
-7.11319923 36.79055023 -2.49513626  1108411998
-2.49513626 0.86051911 -10.63015366  1063013115
-11.20753288 35.75658798 -2.49513626  1108232484
-2.49513626 0.86051911 -12.92162895  1063013115
-13.48649788 34.96078873 -2.49513626  1108014275
-2.49513626 0.86051911 -14.60557461  1063013115
-16.79711723 33.49625778 -2.49513626  1107616428
-2.49513626 0.86051911 -17.86733055  1063013116
-18.51402283 32.85602570 -2.51120639  1107519039
-2.53406310 0.85850471 -19.92722321  1062958579
-23.80868340 31.84421158 -2.64753628  1107011355
-2.64753628 0.85265976 -26.29343605  1062881256
4.75327921 -32.95426941 -2.49513626  3255008867
-2.49513626 0.87497967 6.33956480  1063255722
6.86521769 -32.57984161 -2.49513626  3254835003
-2.49513626 0.87497962 9.46405983  1063255722
10.48734760 -31.60051727 -2.49513626  3254479750
-2.49513626 0.87497962 11.49975109  1063255722
12.50022411 -30.85970879 -2.49513626  3253962576
-2.49513626 0.87497962 14.46122074  1063255722
14.94240856 -29.75402260 -2.49513626  3253474155
-2.49513626 0.87497962 15.89302921  1063255723
16.82717133 -28.73018456 -2.49513626  3252773597
-2.49513626 0.87497962 18.19532585  1063255722
18.64209366 -27.58712578 -2.49513626  3252143974
-2.49513626 0.87497962 19.95289421  1063255722
20.37963104 -26.32960892 -2.49513626  3251633097
-2.49513626 0.87497962 21.62767601  1063255722
22.82523346 -24.24017525 -2.49513626  3250517127
-2.49513626 0.87497962 23.96949577  1063255722
24.33859825 -22.72025299 -2.49513626  3249497451
-2.49513626 0.87497962 25.40768051  1063255722
25.75098610 -21.10601807 -2.49513626  3248627718
-2.49513626 0.87497962 26.74043465  1063255722
27.36551666 -18.96591759 -2.49513626  3247479003
-2.49513626 0.87497962 28.52987289  1063255722
29.32570457 -15.76642990 -2.49513626  3245147338
-2.49513626 0.87497962 30.05305862  1063255722
30.27999687 -13.84553528 -2.49513626  3242057735
-2.49513626 0.87497962 31.47472763  1063255722
31.64554787 -10.35067368 -2.49513626  3238852006
-2.49513626 0.87497962 32.24633408  1063255722
32.37569809 -7.77119684 -2.49513626  3234224105
-2.49513626 0.87497962 32.80887985  1063255722
32.89596176 -5.14132071 -2.49513626  3229779931
-2.49513626 0.87497962 33.10590744  1063255722
33.20294952 -2.47812104 -2.49513626  3220747343
-2.49513626 0.87497962 33.29469681  1063255722
33.28713608 0.73739660 -2.49513626  1067647186
-2.49513626 0.87497962 33.24611282  1063255722
33.17059326 2.87910032 -2.49513626  1081904046
-2.49513626 0.87497962 32.91638947  1063255722
32.83143997 5.53839016 -2.49513626  1086464193
-2.49513626 0.87497962 32.52558136  1063255722
32.40671539 7.64081097 -2.49513626  1090688690
-2.49513626 0.87497967 33.62235641  1063136462
33.05913162 12.45905781 -2.64753628  1096853917
-2.64753628 0.86787117 32.18834686  1063136461
31.70260429 15.59099483 -2.64753628  1098959868
-2.64753628 0.86787117 26.90197182  1063249736
26.57972908 20.22069550 -2.50275636  1101563869
-2.50275636 0.87462282 25.57194710  1063249736
25.22262573 21.89012337 -2.50275636  1102207282
-2.50275636 0.87462282 25.92200089  1063136462
25.53202629 24.41823006 -2.64753628  1103745756
-2.64753628 0.86787111 24.32270241  1063136461
23.48477554 26.39316750 -2.64753628  1104553193
-2.64753628 0.86787117 21.73666954  1063136462
21.28526115 28.19701767 -2.64753628  1105480225
-2.64753628 0.86787117 19.42560959  1063136462
18.46504974 30.11936378 -2.64753628  1106464143
-2.64753628 0.86787117 15.47247314  1063136462
14.95888424 32.00571442 -2.64753628  1107359826
-2.64753628 0.86787117 13.92022896  1063136462
12.83768845 32.82715988 -2.64147782  1107537990
-2.58929610 0.87058079 9.90518188  1063191951
9.32977676 32.92353821 -2.56442738  1107538488
-2.55314517 0.87226707 8.19417477  1063218468
5.97400236 32.92472458 -2.50765181  1107539027
-2.50077248 0.87471575 4.35477638  1063255722
3.82300711 33.07936096 -2.49545336  1107593117
-2.49513626 0.87497962 2.22036386  1063255722
1.68499994 33.25263977 -2.49513626  1107635790
-2.49513626 0.87497962 -1.53162014  1063255722
-2.06713414 33.23107910 -2.49513626  1107597001
-2.49513626 0.87497962 -4.20247889  1063255723
-4.73382187 32.95703125 -2.49513507  1107532242
-2.49693441 0.87489545 -5.81163692  1063249424
-6.35904408 32.88994980 -2.51040459  1107527941
-2.52698398 0.87348932 -8.58489323  1063215492
-9.15202045 32.87351990 -2.55721664  1107523247
-2.58110857 0.87096244 -11.47365475  1063167195
-12.06925297 32.85325241 -2.62288880  1107430169
-2.64558673 0.86796170 -14.81111145  1063136462
-18.32592201 30.20421791 -2.64753628  1106197929
-2.64753628 0.86787117 -19.76352692  1063136461
-20.23264313 28.96159935 -2.64753628  1105530437
-2.64753628 0.86787111 -21.60798836  1063136462
-22.05537224 27.59881783 -2.64753628  1104800642
-2.64753628 0.86787117 -23.36278915  1063136462
5.22874355 -29.49268913 -2.49513626  3253419191
-2.49513626 0.88672054 6.64726543  1063452702
7.58453226 -28.97642708 -2.49513626  3253058717
-2.49513626 0.88672054 8.97535610  1063452702
9.43447113 -28.42796326 -2.49513626  3252740075
-2.49513626 0.88672054 10.79664612  1063452702
11.69094563 -27.57680893 -2.49513626  3252360276
-2.49513626 0.88672054 12.57312965  1063452702
14.71954060 -26.08627701 -2.49513626  3251423740
-2.49513626 0.88672054 16.77050972  1063452702
18.33360672 -23.68622971 -2.49513626  3250105047
-2.49513626 0.88672054 20.53368378  1063452702
20.88224983 -21.47301483 -2.49513626  3248532450
-2.49513626 0.88672054 23.46853065  1063452692
24.34013939 -17.45613098 -2.49513626  3246947997
-2.49513626 0.88672054 24.88976479  1063452702
25.66560555 -15.44135571 -2.49513626  3244040402
-2.49513626 0.88671851 27.24002075  1063452702
27.43711090 -12.01513767 -2.49513626  3241747831
-2.49513626 0.88672054 27.80987930  1063452702
28.31480980 -9.76884174 -2.49513626  3238895831
-2.49513626 0.88672054 29.33539200  1063452702
29.59335327 -4.62515450 -2.49513626  3224204039
-2.49513626 0.88672054 29.86952972  1063452702
29.92583656 -1.26607716 -2.49513626  3197788114
-2.49513626 0.88672054 29.95206070  1063452702
29.90835571 1.62755477 -2.49513626  1078231241
-2.49513626 0.88672054 29.53531265  1063452702
28.78716660 8.27391338 -2.49513626  1093883105
-2.64753628 0.88023299 29.16402435  1063343859
28.95677948 13.09981823 -2.64753628  1097793080
-2.64753628 0.88023299 27.03328514  1063343859
26.19445419 17.99864388 -2.64753628  1100485433
-2.61540389 0.88159686 24.17906761  1063404478
23.00464249 19.32441711 -2.50275636  1101406144
-2.50275636 0.88639504 21.37540436  1063447241
19.97168350 22.44501114 -2.50275636  1103144229
-2.64753628 0.88023299 20.35126686  1063343859
19.95542526 24.73623466 -2.64753628  1103818215
-2.64753628 0.88023299 18.73727036  1063343859
18.32135391 25.96976089 -2.64753628  1104437002
-2.64753628 0.88023299 17.04551506  1063343859
16.61124229 27.09551239 -2.64753628  1104863328
-2.64753628 0.88023299 15.28301716  1063343859
13.91911125 28.57199097 -2.64753628  1105726276
-2.64753628 0.88023299 12.52270603  1063343859
12.05057716 29.40890884 -2.64753628  1106133281
-2.64753628 0.88023299 10.61594200  1063343859
10.13206196 30.12377548 -2.64753628  1106396089
-2.64753628 0.88023299 9.15652370  1063343859
8.66511917 30.57803345 -2.64753628  1106688745
-2.64753628 0.88023299 7.17795277  1063343859
6.67833281 31.07249641 -2.64753628  1107038859
-2.64753628 0.88023299 3.13979077  1063343859
2.11945057 31.71133041 -2.64753628  1107179175
-2.64753628 0.88023299 -1.46200049  1063343859
-1.97317779 31.72076607 -2.64753628  1107131037
-2.64753628 0.88023299 -3.50312209  1063343859
-4.01146555 31.52790451 -2.64753628  1107012720
-2.64753628 0.88023299 -5.02490234  1063343859
-5.52973843 31.29732132 -2.64753628  1106768658
-2.64753628 0.88023299 -8.52398682  1063343859
-9.01604080 30.47640800 -2.64753628  1106250470
-2.64753628 0.88023299 -11.91479874  1063343859
-13.78715420 28.63590240 -2.64753628  1105414122
-2.64753628 0.88023299 -14.70236874  1063343859
-15.15431595 27.93648338 -2.64753628  1105035924
-2.64753628 0.88023305 -16.04629517  1063343859
-17.35273361 26.62673187 -2.64753628  1104330768
-2.64753628 0.88023299 -18.61865616  1063343859
-19.03112411 25.45420647 -2.64753628  1103701931
-2.64753628 0.88023299 -20.23844337  1063343859
-20.63051796 24.17606354 -2.64753628  1103018386
-2.64753628 0.88023299 3.88545442  1063615787
5.18212748 -26.71854973 -2.49513626  3251916117
-2.49513626 0.89644146 6.89168549  1063615791
7.31487465 -26.21502876 -2.49513626  3251312910
-2.49513626 0.89644009 10.21800709  1063615791
10.62298584 -25.05768204 -2.49513626  3251048717
-2.49513626 0.89644140 11.42457962  1063615791
11.82098389 -24.51528931 -2.49513626  3250754268
-2.49513626 0.89644140 12.60448360  1063615791
12.99138069 -23.91566658 -2.49513626  3250315490
-2.49513626 0.89644140 14.50428295  1063615791
14.87333679 -22.79296112 -2.49513626  3249695393
-2.49513626 0.89644140 15.95696545  1063615791
16.31001472 -21.78803635 -2.49513626  3249286679
-2.49513626 0.89644140 17.00333405  1063615791
17.34343147 -20.97476006 -2.49513626  3248851614
-2.49513626 0.89644140 18.01003647  1063615791
18.33637238 -20.11250305 -2.49513626  3247739828
-2.49513626 0.89644140 20.76890564  1063615791
22.85703468 -14.77467537 -2.49513626  3243531128
-2.49513626 0.89644140 24.56615448  1063615791
24.75166130 -11.31770134 -2.49513626  3241061971
-2.49513626 0.89644140 25.10336113  1063615791
25.42900658 -9.70055485 -2.49513626  3239355055
-2.49513626 0.89644140 25.72826576  1063615791
25.86789703 -8.46090984 -2.49513626  3238047948
-2.49513626 0.89644140 26.12700462  1063615791
26.24640274 -7.20150232 -2.49513626  3235439591
-2.49513626 0.89644140 26.46474075  1063615791
26.56362915 -5.92528248 -2.49513626  3232752781
-2.49513626 0.89644140 26.89001465  1063615791
26.95421982 -3.76898837 -2.49513626  3226822140
-2.49513626 0.89644140 27.10481453  1063615791
27.17007065 -1.58826089 -2.49513626  3208009796
-2.49513626 0.89644140 27.21507263  1063615791
27.20977211 0.60276878 -2.49513626  1065696842
-2.49513626 0.89644140 27.14889908  1063615791
27.07308006 2.78988314 -2.49513626  1085044032
-2.49513626 0.89644146 26.15747452  1063615791
27.33740616 9.30866623 -2.64753628  1092351720
-2.64753628 0.89047557 27.02338982  1063515701
26.85585213 10.61830521 -2.64753628  1094165797
-2.64753628 0.89047557 26.31159210  1063515701
25.70590019 13.16023540 -2.64753628  1097636818
-2.64753628 0.89047557 24.56380844  1063515701
24.31602287 15.57935143 -2.64753628  1098875132
-2.64753628 0.89047557 23.80160141  1063515701
21.81033325 18.92866325 -2.64753628  1100480486
-2.60941625 0.89196408 19.87973022  1063598200
19.11123657 19.49427795 -2.50275636  1101057084
-2.50275636 0.89614218 16.09458733  1063610771
15.73767948 22.30750847 -2.50281167  1103029871
-2.64753628 0.89047557 15.48842049  1063515701
14.69530010 24.86026955 -2.64753628  1103675392
-2.64753628 0.89047557 13.88692093  1063515701
13.06413460 25.75486946 -2.64753628  1104337104
-2.64753628 0.89047557 11.37876034  1063515701
10.94976044 26.72241974 -2.64753628  1104619933
-2.64753628 0.89047557 10.08335686  1063515701
9.20650196 27.37198448 -2.64753628  1104945729
-2.64753628 0.89047557 8.32008362  1063515701
6.97454834 28.02393341 -2.64753628  1105268644
-2.64753628 0.89047557 5.61271238  1063515701
3.77713037 28.63072205 -2.64753628  1105559733
-2.64753628 0.89047557 2.85297108  1063515701
2.38971972 28.77975464 -2.64753628  1105643818
-2.64753628 0.89047557 -1.79292893  1063515701
-2.72037601 28.75038528 -2.64753628  1105567593
-2.64753628 0.89047557 -4.56587934  1063515701
-5.02459478 28.43832970 -2.64753628  1105284257
-2.64753628 0.89047557 -6.84520149  1063515701
-7.29621077 27.94190788 -2.64753628  1104966768
-2.64753628 0.89047557 -10.39375973  1063515701
-10.82639503 26.77263641 -2.64753628  1103827829
-2.64753628 0.89047557 -14.98008537  1063515700
-15.37583447 24.44521523 -2.64753628  1102931018
-2.64753628 0.89047557 -16.34699631  1063610771
-17.38403320 21.04903793 -2.50275636  1101406564
-2.50275636 0.89614218 -18.05302048  1063610771
3.55977440 -24.67975044 -2.49513626  3250910249
-2.49513626 0.90462136 5.53376293  1063753029
5.92466354 -24.22108078 -2.49513626  3250649829
-2.49513626 0.90462142 6.70174170  1063753024
7.08772182 -23.90661812 -2.49513626  3250410446
-2.49513626 0.90462142 8.23423862  1063753029
9.73256493 -22.95743179 -2.49513626  3249868344
-2.49513626 0.90462142 10.83014107  1063753029
12.25382805 -21.71649361 -2.49513626  3249283426
-2.49513626 0.90462142 12.94695568  1063753029
13.28853035 -21.09922600 -2.49513626  3248951105
-2.49513626 0.90462142 14.29219532  1063753029
14.61942673 -20.19982719 -2.49513626  3248468384
-2.49513626 0.90462154 16.50043106  1063753029
16.79940796 -18.42666817 -2.49513626  3247374866
-2.49513626 0.90462142 18.22740364  1063753029
18.49910164 -16.71961403 -2.49513626  3246451628
-2.49513626 0.90462142 19.53724670  1063753029
20.72037888 -13.87178898 -2.49513626  3243807881
-2.49513626 0.90462142 21.36628532  1063753029
21.57054138 -12.50889587 -2.49513626  3242364601
-2.49513626 0.90462142 22.67696953  1063753029
22.84101486 -10.00243950 -2.49513626  3239325524
-2.49513626 0.90462142 23.57171631  1063753029
23.69964600 -7.75171423 -2.49513626  3236679349
-2.49513626 0.90462142 24.14957619  1063753028
24.24646187 -5.81992245 -2.49513626  3232610122
-2.49513626 0.90462142 24.49928093  1063753029
24.57087135 -4.24670172 -2.49513626  3225649893
-2.49513626 0.90462142 24.79331970  1063753029
24.86600113 -1.85588789 -2.49513626  3216654791
-2.49513626 0.90462142 24.91287231  1063753029
24.93389511 -0.25100514 -2.49513626  1031434658
-1.01278651 0.96012926 24.92904472  1063753029
24.91691589 0.95370758 -2.49513626  1068330491
-2.49513626 0.90462142 24.87327003  1063753029
24.65138817 3.75118637 -2.49513626  1083269726
-2.49513626 0.90462142 24.44141006  1063753029
24.35870552 5.33062077 -2.49513626  1085742286
-2.49513626 0.90462154 24.17437172  1063753029
24.07278442 6.50102711 -2.49513626  1088186855
-2.49513626 0.90462142 23.85089874  1063753029
23.73065376 7.65625143 -2.49513626  1093156989
-2.64753628 0.89909983 24.10614967  1063660392
23.92737007 11.29230309 -2.64753628  1094373856
-2.64753628 0.89909983 23.55122566  1063660392
23.35396385 12.43491459 -2.64753628  1095562135
-2.64753628 0.89909983 22.94131851  1063660392
22.72604370 13.54849339 -2.64753628  1096719067
-2.64753628 0.89909983 20.79656601  1063660392
20.25892639 17.01795578 -2.64753628  1100106714
-2.64753628 0.89909983 18.82414246  1063660392
18.52221107 18.89344978 -2.64753628  1100477750
-2.58155155 0.90148634 16.37018204  1063743979
15.70417690 19.46649742 -2.50275636  1100984996
-2.50275636 0.90434450 14.08717537  1063748383
12.72728252 21.53095436 -2.50275636  1101913476
-2.50275636 0.90434450 11.67237759  1063748383
11.20284748 23.96937370 -2.64753628  1103178854
-2.64753628 0.89909995 10.42499161  1063660392
9.63631344 24.64094353 -2.64753628  1103517694
-2.64753628 0.89909983 8.43480778  1063660392
7.21359730 25.45582199 -2.64753628  1104032330
-2.64753628 0.89909983 5.55962706  1063660392
3.46053600 26.23088264 -2.64753628  1104299019
-2.64753628 0.89909983 2.61383200  1063660392
2.18940949 26.36742783 -2.64753628  1104359864
-2.64753628 0.89909983 0.91319484  1063660392
0.48718071 26.45368767 -2.64753628  1104390689
-2.64753628 0.89909995 -0.36515465  1063660392
-0.79122281 26.44633484 -2.64753628  1104376056
-2.64753628 0.89909983 -3.33949518  1063660392
-3.76181698 26.18937683 -2.64753628  1104138521
-2.64753628 0.89909983 -7.50574493  1063660392
-9.12370872 24.83531189 -2.64753628  1103461141
-2.64753628 0.89909995 -9.91892242  1063660392
-10.31271076 24.36560822 -2.64753628  1102240917
-2.50275636 0.90434450 -11.57020092  1063748385
-11.92588520 21.98497581 -2.50275636  1101943287
-2.50275636 0.90434456 -12.62784386  1063748383
-13.31666756 21.17145920 -2.50275636  1101505101
-2.50275636 0.90434450 -14.32380676  1063748383
-14.97679329 20.03151131 -2.50275636  1100762961
-2.50275636 0.90434450 -15.92689514  1063748383
-16.67127228 18.91080093 -2.52264929  3249878075
-2.49513626 0.91159946 4.38000584  1063870101
5.10512495 -22.43008232 -2.49513626  3249670199
-2.49513626 0.91159946 6.53871822  1063870101
7.24570608 -21.83279037 -2.49513626  3249321060
-2.49513626 0.91159946 8.97869205  1063870101
9.65621090 -20.87890053 -2.49513626  3248691922
-2.49513626 0.91159946 11.62588978  1063870101
11.94410133 -19.65984344 -2.49513626  3248207906
-2.49513626 0.91159946 12.57114697  1063870101
13.48704433 -18.63520050 -2.49513626  3247540073
-2.49513626 0.91159946 14.37145519  1063870101
14.65890789 -17.72815704 -2.49513626  3247172350
-2.49513626 0.91159946 15.22233105  1063870101
15.76995373 -16.74752808 -2.49513626  3246648910
-2.49513626 0.91159946 16.30119896  1063870101
16.56051826 -15.96622372 -2.49513626  3246074016
-2.49513626 0.91159946 18.02391815  1063870101
18.25180817 -14.00152302 -2.49513626  3243985577
-2.49513626 0.91159946 19.51771164  1063870101
19.89974403 -11.53998756 -2.49513626  3241036244
-2.49513626 0.91159946 20.60147476  1063870101
21.35809708 -8.54416752 -2.49513626  3238211398
-2.49513626 0.91159946 21.62222290  1063870101
21.74588585 -7.50250769 -2.49513626  3234738127
-2.49513626 0.91159946 22.18382072  1063870101
22.36836433 -5.36911774 -2.49513626  3229269127
-2.49513626 0.91159946 22.72780800  1063870101
22.78207397 -3.18560076 -2.49513626  3205528320
-1.04899883 0.96183574 9.44662189  1064726963
9.25293636 0.05589873 -1.00365341  1052278515
-1.02190316 0.96280295 22.94662094  1063870101
22.84158897 2.72630787 -2.49513626  1078329842
-2.49513626 0.91159946 22.61866188  1063870101
22.54821396 4.55512094 -2.49513626  1084055026
-2.49513626 0.91159946 22.38979149  1063870101
22.30185890 5.63897896 -2.49513626  1087067963
-2.49513626 0.91159946 22.00343895  1063870101
21.89251137 7.06320906 -2.49513626  1090025571
-2.49513626 0.91159946 21.52577400  1063870101
22.39808083 9.70120811 -2.64753628  1093425495
-2.64753628 0.90646064 21.72698212  1063783886
21.54500008 11.47172451 -2.64753628  1094880843
-2.64753628 0.90646064 20.96570969  1063783886
20.76166725 12.83513641 -2.64753628  1097626962
-2.64753628 0.90646064 18.68969536  1063783886
18.43439102 15.99877453 -2.64753628  1099061591
-2.64753628 0.90646058 17.90950203  1063783886
17.08750534 17.42999077 -2.64753628  1099941187
-2.64753628 0.90646064 16.22562408  1063783886
15.92975426 18.49401855 -2.64753628  1100348500
-2.64753628 0.90646058 14.81484509  1063804089
14.33229828 18.98628426 -2.58026123  1100475556
-2.55016470 0.90974057 13.40046120  1063855212
11.41998100 20.04973984 -2.50275636  1101307826
-2.50275636 0.91134185 9.09155273  1063865779
8.05653763 21.62175751 -2.50275636  1101921634
-2.50275636 0.91134179 7.35593319  1063865779
7.00271082 21.98568344 -2.50275636  1102103510
-2.50275636 0.91134179 5.51269817  1063783886
4.74394083 23.94331551 -2.64753628  1103110666
-2.64753628 0.90646064 2.80228782  1063783885
2.41136551 24.28935432 -2.64753628  1103299859
-2.64753628 0.90646064 0.84245795  1063783886
0.44944558 24.40462303 -2.64753628  1103315041
-2.64753628 0.90646064 -1.12282193  1063783885
-1.51540291 24.36166763 -2.64753628  1103259352
-2.64753628 0.90646064 -3.08082938  1063783886
-3.47043562 24.16078377 -2.64753628  1103083573
-2.64753628 0.90646064 -5.40295410  1063783886
-5.82962465 22.32539940 -2.50275636  1102173231
-2.50275636 0.91134185 -7.25497532  1063865779
-8.99364376 21.24905777 -2.50275636  1101582273
-2.50275636 0.91134185 -9.67340469  1063865779
-10.00956059 20.78982925 -2.50275636  1101332956
-2.50275636 0.91134185 -10.67400360  1063865779
-11.00211620 20.28204536 -2.50275636  1101058384
-2.50275636 0.91134185 -11.64970779  1063865779
-11.96899033 19.72692299 -2.50275636  1100759208
-2.50275636 0.91134185 -13.22351646  1063864789
-14.13882065 18.91071892 -2.56110287  1100430039
-2.59170318 0.90833992 -16.14134407  1063783886
3.04755974 -21.12859344 -2.49513626  3249052983
-2.49513626 0.91762149 5.07216644  1063971134
5.40549898 -20.65153122 -2.49513626  3248733134
-2.49513626 0.91762149 6.39674187  1063971133
6.72395658 -20.26063919 -2.49513626  3248566940
-2.49513626 0.91762149 7.37305593  1063971134
7.69478273 -19.91218948 -2.49513626  3248376077
-2.49513626 0.91762149 8.33215046  1063971134
9.27180004 -19.22859192 -2.49513626  3248004019
-2.49513626 0.91762388 9.88633823  1063971134
10.78872681 -18.42033195 -2.49513626  3247473041
-2.49513626 0.91762149 11.66591644  1063971134
12.51586151 -17.29330444 -2.49513626  3246962492
-2.49513626 0.91762149 13.06637573  1063971134
13.33658314 -16.66855240 -2.49513626  3246628050
-2.49513626 0.91762149 13.86659718  1063971106
14.38215065 -15.77526474 -2.49513626  3245661315
-2.49513626 0.91762149 15.12737179  1063971134
15.36801624 -14.81651592 -2.49513626  3244623225
-2.49513626 0.91762149 16.06577492  1063971134
16.29011154 -13.79628372 -2.49513626  3243803518
-2.49513626 0.91762149 16.93752098  1063971134
17.34723663 -12.44100285 -2.49513626  3241461173
-2.49513626 0.91762149 18.29190063  1063971134
18.80214691 -10.10863590 -2.49513626  3239894820
-2.49513626 0.91762149 19.68984795  1063971134
19.82012939 -7.92891359 -2.49513626  3236506158
-2.49513626 0.91762149 20.17999268  1063971134
20.28951645 -6.63632536 -2.49513626  3234455699
-2.49513626 0.91762149 20.49274445  1063971133
20.67470169 -5.31619024 -2.49513626  3230971991
-2.49513626 0.91762149 20.90736198  1063971134
20.97409058 -3.97399020 -2.49513626  3225236107
-2.49513626 0.91762149 8.95622158  1064758722
21.23479652 2.18824673 -2.49513626  1078822936
-2.49513626 0.91762149 20.98992157  1063971134
20.92454720 4.22711897 -2.49513626  1083312393
-2.49513626 0.91762149 20.77753639  1063971133
20.69593048 5.23293161 -2.49513626  1085413737
-2.49513626 0.91762149 20.51663971  1063971134
19.72288132 8.16780663 -2.49513626  1091920203
-2.64753628 0.91281569 20.16245270  1063890506
19.45600128 11.59901619 -2.64753628  1095264155
-2.64753628 0.91281569 18.66880989  1063890506
17.80415726 14.00304317 -2.64753628  1097698350
-2.64753628 0.91281569 16.61986732  1063890506
16.11554527 15.91735935 -2.64753628  1098999335
-2.64753628 0.91281569 15.32785511  1063890506
13.64702320 18.07849312 -2.64753628  1100438386
-2.64753628 0.91281569 12.05523491  1063901219
11.21835136 18.97827148 -2.57680845  1100474318
-2.50943089 0.91716963 9.06639957  1063967092
8.75277805 19.54179192 -2.50275636  1100974274
-2.50275636 0.91738057 7.15224600  1063967092
6.49845505 20.40252495 -2.50275636  1101269328
-2.50275636 0.91738057 5.50534678  1063967092
5.17133760 20.77859497 -2.50275636  1101455266
-2.50275636 0.91738057 4.49937057  1063967093
3.82274985 21.06844521 -2.50275636  1101623796
-2.50275636 0.91738057 2.80058742  1063967092
2.45828986 21.27086449 -2.50275636  1101720339
-2.50275636 0.91738057 1.08363640  1063967092
0.73904485 21.39969254 -2.50275636  1101743425
-2.50275636 0.91738057 0.04938012  1063967092
-0.64033723 21.40287018 -2.50275636  1101733445
-2.50275636 0.91738057 -2.01704788  1063967092
-2.36014557 21.28197861 -2.50275636  1101655547
-2.50275636 0.91738057 -3.04442072  1063967092
-4.73971224 20.88128090 -2.50275636  1101425400
-2.50275636 0.91738057 -5.74285030  1063967092
-6.40428591 20.43227577 -2.50275636  1101175967
-2.50275636 0.91738057 -7.05906963  1063967092
-7.38376856 20.09907341 -2.50275636  1100993021
-2.50275636 0.91738057 -9.28878021  1063967092
-9.90538216 18.98357773 -2.50275636  1100443611
-2.51712394 0.91692656 -11.47548962  1063923138
-12.31831264 18.90171432 -2.63704634  1100362672
-2.64753628 0.91281569 -12.97214413  1063890506
-13.26953697 18.35735703 -2.64753628  1099914500
-2.64753628 0.91281569 -14.70338917  1063890506
-14.97902966 16.99122810 -2.64753628  3248334714
-2.49513626 0.92287099 3.15952611  1064059206
3.47576165 -19.60503197 -2.49513626  3248250667
-2.49513626 0.92287099 4.10542727  1064059206
5.04174614 -19.26181602 -2.49513626  3248011049
-2.49513626 0.92287099 7.47518587  1064059206
7.77145052 -18.33143234 -2.49513626  3247546763
-2.49513626 0.92287099 8.64787006  1064059206
9.22105789 -17.64678001 -2.49513626  3247094165
-2.49513626 0.92287099 10.06271553  1064059206
10.33814144 -17.01645660 -2.49513626  3246744996
-2.49513626 0.92287099 11.14804459  1064059206
11.67362690 -16.12957764 -2.49513626  3245916157
-2.49513626 0.92287099 12.68792439  1064059206
12.93343639 -15.13813400 -2.49513626  3245042503
-2.49513626 0.92287099 13.88128662  1064059206
14.10940361 -14.04854870 -2.49513626  3244104836
-2.49513626 0.92287099 14.77153206  1064059206
14.98465443 -13.11095047 -2.49513626  3242321701
-2.49513626 0.92287099 15.99088383  1064059206
16.17988205 -11.60380363 -2.49513626  3240663942
-2.49513626 0.92287099 17.22409630  1064059206
17.83147621 -8.85863113 -2.49513626  3238600660
-2.49513626 0.92287099 18.10756111  1064059206
18.48636627 -7.39535093 -2.49513626  3235477870
-2.49513626 0.92287099 18.82201195  1064059206
18.92416382 -6.18974352 -2.49513626  3233565391
-2.49513626 0.92287099 19.11371613  1064059206
19.20106697 -5.26839876 -2.49513626  3230971369
-2.49513626 0.92287099 19.43313789  1064059206
19.50043869 -4.02118206 -2.49513626  3225732376
-2.49513626 0.92287099 19.71888542  1064059206
19.79746246 -2.12070131 -2.49513626  3204720552
-1.10856271 0.96496713 8.78154850  1064769164
8.73964691 -0.22880438 -1.09559488  1029146923
-1.09157181 0.96549469 8.76925278  1064770060
8.81869984 0.47989646 -1.10676110  1059205086
-1.12752426 0.96437871 19.83614540  1064059206
19.80583763 2.04099202 -2.49513626  1075250691
-2.49513626 0.92287099 19.72981834  1064059206
19.68412781 2.99532986 -2.49513626  1080569259
-2.49513626 0.92287099 19.45042801  1064059206
19.37934113 4.56923294 -2.49513626  1084628295
-2.49513626 0.92287099 18.84799957  1064059206
18.74218178 6.72069359 -2.49513626  1088467375
-2.49513626 0.92287099 18.51598549  1064059206
18.27057266 7.91347456 -2.49513626  1090735811
-2.49513626 0.92287099 18.00620079  1064059206
18.95828438 9.32347298 -2.64753628  1092542036
-2.64753628 0.91835767 18.48578644  1063983485
18.31864166 10.52478504 -2.64753628  1094380339
-2.64753628 0.91835767 17.41251945  1063983485
17.21755028 12.24334526 -2.64753628  1095257639
-2.64753628 0.91835767 16.81426430  1063983485
16.60605240 13.06072330 -2.64753628  1096104288
-2.64753628 0.91835767 16.17674637  1063983485
15.95577145 13.84764290 -2.64753628  1097182099
-2.64753628 0.91835767 15.26824474  1063983485
14.78998470 15.08641529 -2.64753628  1098197427
-2.64753628 0.91835767 13.78794193  1063983485
12.99861622 16.65471840 -2.64753628  1099359545
-2.64753628 0.91835767 11.89931965  1063983485
11.04217148 18.01149750 -2.64753628  1100054274
-2.64753628 0.91835767 9.55732155  1063983485
8.86302853 18.96314621 -2.62313557  1100462491
-2.60421228 0.91963845 8.13152695  1064013911
7.41942167 18.97214890 -2.55285525  1100466896
-2.53745413 0.92161554 5.75670815  1064054795
5.44506264 19.21492195 -2.50275636  1100679915
-2.50275636 0.92264479 4.19659567  1064055411
3.88154674 19.59069824 -2.50275636  1100821655
-2.50275636 0.92264479 3.24852252  1064055411
2.29286790 19.83947563 -2.50275636  1100966564
-2.50275636 0.92264479 1.01071393  1064055411
0.68931395 19.95962906 -2.50275636  1100988875
-2.50275636 0.92264479 -0.59724277  1064055411
-1.23992443 19.93299675 -2.50275636  1100957846
-2.50275636 0.92264479 -2.20132494  1064055411
-2.83954930 19.76863670 -2.50275636  1100858174
-2.50275636 0.92264479 -4.73389435  1064055411
-5.04579878 19.32360840 -2.50275636  1100606251
-2.50275636 0.92264479 -5.66559267  1064055411
-7.30362844 18.93305779 -2.54303503  1100441252
-2.57530355 0.92049408 -9.10538864  1063992006
-9.47029781 18.88536072 -2.64753628  1100339148
-2.64753628 0.91835767 -10.07370663  1063983484
-10.66663074 18.23641396 -2.64753628  1099988857
-2.64753628 0.91835767 -11.53507328  1063983485
-11.81866550 17.51179123 -2.64753628  1099599263
-2.64753628 0.91835767 -12.65076542  1063983485
-12.92166138 16.71449089 -2.64753628  1099171994
-2.64753628 0.91835767 -13.71394634  1063983485
-13.97103691 15.84783077 -2.64753628  3247681996
-2.49513626 0.92748737 2.95992732  1064136656
3.55158782 -18.31164932 -2.49513626  3247572008
-2.49513626 0.92748749 4.13956308  1064136656
4.43197823 -18.11871529 -2.49513626  3247463446
-2.49513626 0.92748737 5.58936882  1064136657
6.15966368 -17.60647964 -2.49513626  3247180341
-2.49513626 0.92748743 7.55616426  1064136656
8.37111473 -16.66895676 -2.49513626  3246519814
-2.49513626 0.92748743 9.42700768  1064136656
10.69134712 -15.28478813 -2.49513626  3245458693
-2.49513626 0.92748743 11.41718102  1064136657
11.88637066 -14.37511158 -2.49513626  3244484769
-2.49513626 0.92748737 12.34324074  1064136655
13.21805382 -13.16105080 -2.49513626  3243189388
-2.49513626 0.92748743 13.63514519  1064136624
14.98066902 -11.11347103 -2.49513626  3241012875
-2.49513626 0.92748737 15.50000572  1064136656
15.66514874 -10.12587643 -2.49513626  3239965872
-2.49513626 0.92748743 15.98315907  1064136656
16.28460121 -9.09623051 -2.49513626  3238032947
-2.49513626 0.92748731 17.53266525  1064136657
17.63295555 -6.08351326 -2.49513626  3230967158
-2.49513626 0.92748737 18.13770103  1064136656
18.32682991 -3.47240925 -2.49513626  3226161186
-2.49513626 0.92748743 18.42914772  1064136657
18.47316742 -2.58308959 -2.49513626  3221114146
-2.49513626 0.92748731 18.57637787  1064136655
8.91880131 -0.66565955 -1.19635820  3204507418
-1.15419781 0.96577817 8.52748108  1064785643
8.52297688 0.05148891 -1.14011168  1044495824
-1.14275360 0.96611160 8.56490421  1064782813
18.48341560 2.50870848 -2.49513626  1077122849
-2.49513626 0.92748737 18.22167015  1064136656
17.92710114 5.15255260 -2.49513626  1085151650
-2.49513626 0.92748737 17.65728188  1064136657
17.55816650 6.29611254 -2.49513626  1087537094
-2.49513626 0.92748737 17.34625816  1064136656
17.11633682 7.41354418 -2.49513626  1089865298
-2.49513626 0.92748743 16.86866570  1064136657
16.73826408 8.23169327 -2.49513626  1091587972
-2.64753628 0.92323273 17.31797028  1064065275
17.16136360 9.85988903 -2.64753628  1092757789
-2.64753628 0.92323273 16.66506958  1064065275
16.12985611 11.46988869 -2.64753628  1094428347
-2.64753628 0.92323273 15.75204659  1064065275
15.55698776 12.23563290 -2.64753628  1095984112
-2.64753628 0.92323279 14.52215767  1064065276
14.30369949 13.67972374 -2.64753628  1096950328
-2.64753628 0.92323273 13.15677547  1064065275
12.67367268 15.20223236 -2.64753628  1098694453
-2.64753628 0.92323279 11.66856194  1064065276
11.14758396 16.35424232 -2.64753628  1099277183
-2.64753628 0.92323273 10.34458733  1064065276
10.07147121 17.03807449 -2.64753628  1099535783
-2.64753628 0.92323279 9.23669624  1064065275
8.95354652 17.65119171 -2.64753628  1099847757
-2.64753628 0.92323273 8.09045506  1064065276
7.79847097 18.19105148 -2.64753628  1100121000
-2.64753628 0.92323279 6.91066170  1064065276
6.61104059 18.65542030 -2.64753628  1100354402
-2.64753628 0.92323279 5.04237843  1064076556
4.39439821 18.95450974 -2.60273361  1100457091
-2.59349585 0.92473918 3.75579739  1064094537
3.12512517 18.95703506 -2.57004714  1100457842
-2.53904009 0.92625976 0.34909445  1064117455
0.04371195 18.95486069 -2.53553939  1100457474
-2.53593397 0.92634654 -0.56707805  1064117204
-0.87275887 18.95251465 -2.53790307  1100453937
-2.54256654 0.92616117 -2.72091007  1064106279
-3.03276396 18.94068718 -2.56590748  1100448311
-2.57259274 0.92532259 -3.66121292  1064096884
-3.97815585 18.93396568 -2.58803463  1100443182
-2.60631943 0.92438149 -4.94197416  1064079759
-5.26819897 18.92306328 -2.62754440  1100369567
-2.64753628 0.92323273 -6.52491522  1064065276
-7.12339020 18.46583748 -2.64753628  1100139055
-2.64753628 0.92323273 -8.00706100  1064065276
-8.58590317 17.83289719 -2.64753628  1099640263
-2.64753628 0.92323273 -10.26665115  1064065275
-11.07203484 16.40550423 -2.64753628  1099025624
-2.64753628 0.92323279 -12.60341263  1064065276
-12.84758759 15.05556583 -2.64753628  1097698286
-2.64753628 0.92323273 2.78367567  1064205291
3.06229210 -17.27282524 -2.49513626  3246970498
-2.49513626 0.93157834 4.16807461  1064205291
4.71475315 -16.89672279 -2.49513626  3246820473
-2.49513626 0.93157834 5.79288721  1064205291
6.58594894 -16.25894928 -2.49513626  3246470338
-2.49513626 0.93157834 7.10623026  1064205291
7.36363697 -15.92183971 -2.49513626  3245634021
-2.49513626 0.93157834 8.86567402  1064205291
9.10833931 -14.99220657 -2.49513626  3244515220
-2.49513626 0.93157834 10.51251316  1064205291
10.73734474 -13.87218857 -2.49513626  3243976893
-2.49513626 0.93157834 11.81858635  1064205291
12.02585316 -12.77133560 -2.49513626  3242800956
-2.49513626 0.93157834 12.43097401  1064205291
13.01433849 -11.76244831 -2.49513626  3241726489
-2.49513626 0.93157834 13.38645840  1064205291
13.91846657 -10.67728519 -2.49513626  3240091981
-2.49513626 0.93157834 14.73235321  1064205291
15.17515373 -8.80016422 -2.49513626  3238584223
-2.49513626 0.93157834 15.45073414  1064205291
15.58252621 -8.05686283 -2.49513626  3237593379
-2.49513626 0.93157834 15.83395386  1064205291
16.18020439 -6.77710676 -2.49513626  3234889702
-2.49513626 0.93157834 16.67298508  1064205291
16.83998680 -4.91356182 -2.49513626  3230959781
-2.49513626 0.93157834 16.98951530  1064205291
17.05767250 -4.09438324 -2.49513626  3228855337
-2.49513626 0.93157834 17.18070221  1064205291
17.28590202 -2.98760486 -2.49513626  3224198352
-2.49513626 0.93157834 17.37316322  1064205291
17.47022820 -1.58723640 -2.49513626  3206767337
-1.21968305 0.96594787 8.38725185  1064794028
8.38291359 0.18570331 -1.19264770  1050982029
-1.19637024 0.96658772 8.43883705  1064790019
8.49279690 0.59949774 -1.21099043  1072049002
-2.49513626 0.93157834 17.38279915  1064205291
17.24854088 3.19623494 -2.49513626  1079922743
-2.49513626 0.93157834 17.13664055  1064205291
17.07401466 4.02568674 -2.49513626  1082759943
-2.49513626 0.93157834 16.93548965  1064205291
16.69479752 5.38626385 -2.49513626  1085600107
-2.49513626 0.93157834 16.41513443  1064205291
16.31335831 6.44999933 -2.49513626  1087817746
-2.49513626 0.93157834 16.09714127  1064205291
15.98275566 7.23047209 -2.49513626  1089443141
-2.49513626 0.93157834 15.48404408  1064205291
15.83243656 9.78782177 -2.64753628  1092659778
-2.64753628 0.92755431 15.34116459  1064137779
15.16938686 10.78690243 -2.64753628  1093947781
-2.64753628 0.92755431 14.63065624  1064137778
14.25239563 11.97233582 -2.64753628  1094923424
-2.64753628 0.92755431 13.65743542  1064137779
13.24300861 13.08014774 -2.64753628  1096067861
-2.64753628 0.92755431 12.81481743  1064137779
12.59571743 13.70457458 -2.64753628  1096711594
-2.64753628 0.92755431 11.45232677  1064137779
11.21449280 14.85606575 -2.64753628  1098078823
-2.64753628 0.92755431 10.48379898  1064137779
9.98295784 15.71012497 -2.64753628  1098998880
-2.64753628 0.92755431 8.95072079  1064137779
8.68668461 16.46235275 -2.64753628  1099222291
-2.64753628 0.92755431 8.15192699  1064137779
7.60870600 16.98749924 -2.64753628  1099488477
-2.64753628 0.92755431 7.05759668  1064137779
6.49916363 17.44214630 -2.64753628  1099717444
-2.64753628 0.92755431 5.93398857  1064137779
5.07485104 17.90847397 -2.64753628  1099949874
-2.64753628 0.92755431 4.20387220  1064137779
3.91126275 18.19806480 -2.64753628  1100091860
-2.64753628 0.92755431 3.32308078  1064137779
2.73144960 18.41213799 -2.64753628  1100194116
-2.64753628 0.92755425 2.13696957  1064137779
1.83886456 18.52258682 -2.64753628  1100244476
-2.64753628 0.92755431 1.24128890  1064137779
0.04292594 18.61358833 -2.64753628  1100273584
-2.64753628 0.92755431 -2.05164385  1064137779
-2.64648366 18.42453766 -2.64753628  1100155202
-2.64753628 0.92755431 -3.53338027  1064137779
-4.41202879 18.08318138 -2.64753628  1099961348
-2.64753628 0.92755431 -5.28037643  1064137779
-6.13638735 17.57305717 -2.64753628  1099679367
-2.64753628 0.92755431 -6.69922304  1064137779
-7.25511646 17.14149284 -2.64753628  1099443688
-2.64753628 0.92755431 -8.07465267  1064137779
-8.61065674 16.50224495 -2.64753628  1099021069
-2.64753628 0.92755431 -9.65531349  1064137779
-9.91039181 15.75600338 -2.64753628  1098308514
-2.64753628 0.92755431 -10.90429211  1064137779
-11.38452625 14.72616863 -2.64753628  1097377660
-2.64753628 0.92755431 -11.85293388  1064137779
-12.30907536 13.96260071 -2.64753628  3246571857
-2.49513626 0.93522841 2.88981128  1064266529
3.67379713 -16.14134026 -2.49513626  3246398970
-2.49513626 0.93522835 4.44920206  1064266528
5.21422100 -15.71151066 -2.49513626  3245998592
-2.49513626 0.93522841 5.71758032  1064266529
6.70597887 -15.13504314 -2.49513626  3245369004
