# .PCD v0.7 - Point Cloud Data file format
VERSION 0.7
FIELDS x y z intensity
SIZE 4 4 4 4
TYPE F F F F
COUNT 1 1 1 1
WIDTH 1007
HEIGHT 1
VIEWPOINT 0 0 0 1 0 0 0
POINTS 1007
DATA ascii
-2.53818703 0.73678887 -20.64061928  1060891715
-21.93694687 74.43107605 -2.58059645  1117051018
-2.60641599 0.73076403 -27.25268555  1060793343
-32.13451004 72.83553314 -2.64753628  1116773855
-2.64753628 0.72715670 -35.61613083  1060775666
-36.75860977 70.61476898 -2.64753628  1116473050
-2.64753628 0.72715670 -40.12753677  1060775666
-41.23005676 68.10082245 -2.64753628  1116134139
-2.64753628 0.72715676 -45.53032684  1060775666
-46.57654190 64.56211090 -2.64753628  1115430071
-2.64753628 0.72715670 -51.62089539  1060775665
-56.21596909 56.13980484 -2.64215660  1113193808
-2.60725999 0.73068982 -56.37089157  1060892785
-56.38248825 51.10977554 -2.53082585  1111640490
-2.49513626 0.74061608 -57.95713425  1061001475
-60.19144058 44.78845596 -2.49513626  1110134217
-2.49513626 0.74061602 -62.28526306  1061001470
-63.60036850 39.79956818 -2.49513626  1109070896
-2.49513626 0.74061602 7.91559362  1061770211
5.03224850 59.79766464 -2.49513626  1114635663
-2.49513626 0.78643632 -0.76288152  1061770212
-2.69571495 59.94845963 -2.49513626  1114591851
-2.49513626 0.78643632 -5.58906984  1061770212
-7.51111126 59.53711700 -2.49513626  1114355733
-2.49513626 0.78643632 -15.10155582  1061770213
-17.89002609 57.28028870 -2.49513626  1113845828
-2.49513626 0.78643626 -20.63670349  1061770212
-24.22281265 54.90299606 -2.49513626  1113195966
-2.49513626 0.78643632 -25.97910500  1061770211
-27.70843887 53.22899628 -2.49513626  1112742478
-2.49513626 0.78643626 -31.07898521  1061770212
-33.52297211 49.77243042 -2.49513626  1111665291
-2.49513626 0.78643632 -37.41948700  1061770212
-46.48127747 43.51906204 -2.64753628  1109917424
-2.64753628 0.77498055 -48.52968216  1061578016
-50.46473694 38.82956314 -2.64753628  1108655071
-2.64753628 0.77498055 -52.28188705  1061578016
-53.42570496 34.64263916 -2.64753628  1107762201
-2.64753628 0.77498049 -54.51409531  1061578016
-56.04020691 30.23101807 -2.64753628  1111898960
-2.49513626 0.81854409 5.79537344  1062308891
0.97531581 49.98528290 -2.49513626  1112013404
-2.49513626 0.81854409 -3.05021214  1062308890
-5.45772648 49.69599915 -2.49513626  1111850813
-2.49513626 0.81854409 -8.64693642  1062308891
-10.22889519 48.93718719 -2.49513626  1111691370
-2.49513626 0.81854409 -11.80024624  1062308890
-12.58141327 48.38581467 -2.49513626  1111478852
-2.49513626 0.81854409 -14.90455437  1062308891
-15.67144394 47.47509766 -2.49513626  1111285158
-2.49513626 0.81854403 -17.19286919  1062308891
-19.44098282 46.06004333 -2.49513626  1110898337
-2.49513626 0.81854403 -20.91485977  1062308890
-21.64373970 45.06692886 -2.49513626  1110628731
-2.49513626 0.81854403 -24.50123405  1062308891
-25.89255524 42.76742935 -2.49513626  1110008065
-2.49513626 0.81854403 -27.92869568  1062308891
-29.25015640 40.54512405 -2.49513626  1109153426
-2.49513626 0.81854409 -33.02697372  1062308890
-33.62737274 36.99565506 -2.49513626  1108316795
-2.49513626 0.81854409 -40.43108749  1062141965
-42.04322052 32.34967041 -2.64753628  1106760609
-2.64753628 0.80859447 -44.03931046  1062141964
-44.51006699 28.86152267 -2.64753628  1104891090
-2.64753628 0.80859452 -45.85256577  1062141964
-47.47548676 23.66881561 -2.64753628  1110014423
-2.49513626 0.84227401 5.65085840  1062707013
4.27977276 42.62556076 -2.49513626  1110098308
-2.49513626 0.84227401 2.21528149  1062707013
1.52570093 42.81269455 -2.49513626  1110137801
-2.49513626 0.84227395 -1.23471308  1062707013
-1.92443419 42.79663849 -2.49513626  1110025456
-2.49513626 0.84227395 -6.72869205  1062707012
-10.11147594 41.62948227 -2.49513626  1109776445
-2.49513626 0.84227395 -12.11106586  1062707012
-14.08231258 40.45915604 -2.49513626  1109254011
-2.49513626 0.84227395 -17.29243660  1062707012
-19.16598892 38.31344223 -2.49513626  1108419446
-2.49513626 0.84227401 -23.93173027  1062707013
-26.17037201 33.91704941 -2.49513626  1107687116
-2.49513626 0.84227401 -27.24952888  1062707013
-28.88074684 32.82072830 -2.54630375  1107511837
-2.58339190 0.83717567 -30.91794777  1062575595
-31.64197159 32.63408279 -2.64747548  1107327921
-2.64753628 0.83348960 -32.67770386  1062559634
-33.18254089 31.06783676 -2.64753628  1106525143
-2.64753628 0.83348954 -34.16624832  1062559635
-35.11450195 28.86630249 -2.64753628  1104436170
-2.64753628 0.83348978 -37.32353592  1062559635
-37.73670578 25.34232521 -2.64753628  1103485237
-2.64753628 0.83348954 -39.65366364  1062559635
-40.00656891 21.58163071 -2.64753628  1101494638
-2.64753628 0.83348954 -40.68111420  1062559634
3.74350214 37.28442383 -2.49513626  1108728809
-2.49513626 0.86051911 -0.47638062  1063013115
-1.68331146 37.43405151 -2.49513626  1108653428
-2.49513626 0.86051911 -5.88556337  1063013115
-7.07478571 36.79795837 -2.49513626  1108522878
-2.49513626 0.86051911 -8.84447384  1063013115
-9.42997456 36.26593018 -2.49513626  1108329965
-2.49513626 0.86051911 -11.17120075  1063013115
-12.88632679 35.18643570 -2.49513626  1108017938
-2.49513626 0.86051911 -14.57133389  1063013115
-15.12563229 34.28349304 -2.49513626  1107762447
-2.49513626 0.86051911 -17.30218697  1063013115
-17.83543015 32.95509338 -2.49513507  1107520753
-2.50987220 0.85975599 -19.17205429  1062980527
-22.71048737 32.57362366 -2.64410090  1107023186
-2.64753628 0.85265976 -24.79330826  1062881256
-25.29088974 30.68026352 -2.64753628  1106388619
-2.64753628 0.85265970 -26.26621437  1062881257
-26.74371529 29.42246246 -2.64753628  1105485139
-2.64753628 0.85265970 -28.13406754  1062881257
-29.45869827 26.70379639 -2.64753628  1104268870
-2.64753628 0.85265970 -30.30375099  1062881256
-30.71463776 25.24894524 -2.64753628  1103495762
-2.64753628 0.85265970 -31.51207542  1062881256
-30.51182365 21.94901657 -2.50275636  1101767449
-2.50275636 0.86012441 -31.53666496  1063006493
-31.86202621 19.93847847 -2.50275636  1100702045
-2.50275636 0.86012441 -35.29319382  1062881257
-35.58362579 17.74015617 -2.64753628  1107540119
-2.49520659 0.87497634 4.39186811  1063255722
3.32625055 33.12873840 -2.49513626  1107630275
-2.49513626 0.87497962 0.11314920  1063255723
-0.95962352 33.28147125 -2.49513626  1107627000
-2.49513626 0.87497967 -4.16742992  1063255723
-6.32347012 32.89013672 -2.50991392  1107527995
-2.52640772 0.87351632 -7.98648310  1063223873
-9.11581135 32.87374878 -2.55650711  1107522253
-2.59337711 0.87039065 -12.63412476  1063144296
-13.18612766 32.70171738 -2.64237857  1107380898
-2.64753628 0.86787117 -15.29460335  1063136461
-15.80570316 31.59610558 -2.64753628  1106948835
-2.64753628 0.86787117 -19.73588181  1063136462
-20.20541763 28.98060226 -2.64753628  1104619812
-2.64753628 0.86787111 -23.76288223  1063136462
-24.18099403 25.75682068 -2.64753628  1102068225
-2.50275636 0.87462282 -26.79327583  1063249736
-27.11100769 19.50261497 -2.50275636  1100415659
-2.53733397 0.87300557 -29.08937454  1063175024
-29.94843864 18.74100494 -2.64753628  1100090472
-2.64753628 0.86787117 -30.53669357  1063136462
-31.09324837 16.77331924 -2.64753628  1098658977
-2.64753628 0.86787117 4.69929075  1063343859
4.19226265 31.50436401 -2.64753628  1107123310
-2.64753628 0.88023299 2.15459704  1063343859
0.10799202 31.78189087 -2.64753628  1107180655
-2.64753628 0.88023299 -1.42770875  1063343859
-4.48553467 31.46395493 -2.64753628  1106882318
-2.64753628 0.88023299 -6.50258541  1063343859
-7.50151300 30.88410378 -2.64753628  1106645743
-2.64753628 0.88023299 -8.49262142  1063343859
-10.44739342 30.01586342 -2.64753628  1106165706
-2.64753628 0.88023299 -11.40902328  1063343859
-11.88544369 29.47603226 -2.64753628  1105539575
-2.64753628 0.88023299 -14.67499733  1063343859
-15.12726784 27.95113945 -2.64753628  1105043805
-2.64753628 0.88023299 -16.01994705  1063343859
-16.46009827 27.18759537 -2.64753628  1104339559
-2.64753628 0.88023299 -18.17688370  1063343859
-18.59454727 25.77484894 -2.64753628  1103873666
-2.64753628 0.88023299 -19.41528130  1063343859
-19.81815910 24.84634399 -2.64753628  1103376583
-2.64753628 0.88023299 -20.20819092  1063447241
-21.93172264 20.53402710 -2.50275636  1100908742
-2.50275636 0.88639504 -23.20863724  1063447241
-26.09570694 18.14151382 -2.64753628  1099584692
-2.64753628 0.88023299 -27.20988655  1063343859
-27.47095108 15.98271847 -2.64753628  1098423265
-2.64753628 0.88023299 -27.97162628  1063343859
-28.44325066 14.18033218 -2.64753628  1105493422
-2.64753628 0.89047557 3.34761763  1063515701
1.49333954 28.84016228 -2.64753628  1105650242
-2.64753628 0.89047557 -0.36712638  1063515701
-0.83233291 28.86679649 -2.64753628  1105644563
-2.64753628 0.89047557 -2.22608137  1063515701
-2.68968511 28.75327110 -2.64753628  1105569360
-2.64753628 0.89047557 -3.61464643  1063515701
-4.53588581 28.52035522 -2.64753628  1105232057
-2.64753628 0.89047557 -8.60941124  1063515701
-9.49303532 27.27392769 -2.64753628  1104468216
-2.64753628 0.89047557 -12.91998959  1063515701
-13.33444405 25.61596298 -2.64753628  1103595717
-2.64753628 0.89047557 -15.35255432  1063515701
-15.97199631 22.13959885 -2.50275636  1101850757
-2.50275636 0.89614218 -18.03433037  1063610771
-19.00349045 19.59932899 -2.50275636  1100427427
-2.53501558 0.89487648 -22.01010704  1063515701
-22.30847359 18.33894920 -2.64753628  1099161557
-2.64753628 0.89047557 -24.23064804  1063515701
-24.72427368 14.92297363 -2.64753628  1096507406
-2.64753628 0.89047557 -25.63402748  1063515701
3.91210198 26.16734505 -2.64753628  1104297225
-2.64753628 0.89909983 2.64321566  1063660392
1.79367197 26.39726830 -2.64753628  1104372165
-2.64753628 0.89909995 0.51615554  1063660392
0.08990962 26.45801735 -2.64753628  1104384978
-2.64753628 0.89909983 -1.61422861  1063660392
-2.03955078 26.37944794 -2.64753628  1104330444
-2.64753628 0.89909983 -2.88832521  1063660392
-3.31167006 26.25009727 -2.64753628  1104251893
-2.64753628 0.89909983 -4.57612705  1063660392
-5.41332197 25.89847374 -2.64753628  1103944311
-2.64753628 0.89909983 -7.47985506  1063660394
-8.29361629 25.12469864 -2.64753628  1103619855
-2.64753628 0.89909983 -9.49786568  1063660392
-10.28853893 24.37582970 -2.64753628  1103118567
-2.64753628 0.89909983 -11.54867363  1063748384
-12.25743866 21.80185318 -2.50275636  1101736509
-2.50275636 0.90434456 -13.63609219  1063748383
-14.30452347 20.51697731 -2.50275636  1101153618
-2.50275636 0.90434456 -14.95811081  1063748383
-15.90915966 19.29933357 -2.50275636  1100501753
-2.50275636 0.90434450 -16.64104462  1063737460
-17.73875237 18.89474106 -2.59335232  1100161752
-2.64753628 0.89909971 -19.60288811  1063660392
-20.16521835 17.12888718 -2.64753628  1099328010
-2.64753628 0.89909983 -20.70661545  1063660392
-21.22649765 15.79464436 -2.64753628  1098331561
-2.64753628 0.89909983 -21.72434807  1063660392
-22.42865944 14.03530693 -2.64753628  1096466690
-2.64753628 0.89909983 -22.86921120  1063660392
-23.28601837 12.56169415 -2.64753628  1094907230
-2.64753628 0.89909983 3.21967864  1063783886
2.04687428 24.32278252 -2.64753628  1103286817
-2.64753628 0.90646064 -0.31030312  1063783886
-1.09648561 24.38411903 -2.64753628  1103292418
-2.64753628 0.90646064 -1.88150704  1063783886
-2.27335691 24.30265617 -2.64753628  1103188165
-2.64753628 0.90646064 -3.83379269  1063783886
-4.60843039 23.96977234 -2.64753628  1103045545
-2.64753628 0.90646064 -5.80667448  1063865779
-7.23280334 21.91106224 -2.50275636  1101810112
-2.50275636 0.91134185 -8.62890720  1063865779
-8.97255325 21.25797272 -2.50275636  1101424034
-2.50275636 0.91134185 -11.63057137  1063865779
-11.95012951 19.73835373 -2.50275636  1100765334
-2.50275636 0.91134185 -14.11165047  1063833701
-14.58642578 18.90414047 -2.58990192  1100426445
-2.62183928 0.90732509 -15.52589035  1063783885
-15.82732010 18.58180809 -2.64753628  1099988852
-2.64753628 0.90646064 -16.99117088  1063783886
-17.27129936 17.24789238 -2.64753628  1099265469
-2.64753628 0.90646064 -18.08448410  1063783885
-19.10271454 15.19453621 -2.64753628  1097738278
-2.64753628 0.90646064 -19.58231926  1063783886
-20.04160690 13.93275261 -2.64753628  1096055344
-2.64753628 0.90646058 -20.69137001  1063783886
-21.48231888 11.58868027 -2.64753628  1101689166
-2.50275636 0.91738057 1.79560924  1063967092
1.10725129 21.38379860 -2.50275636  1101743192
-2.50275636 0.91738057 -0.27221268  1063967092
-0.61713815 21.40354919 -2.50275636  1101724416
-2.50275636 0.91738057 -1.65055037  1063967092
-2.33750629 21.28447723 -2.50275636  1101605990
-2.50275636 0.91738057 -3.70343137  1063967092
-4.38097000 20.95948410 -2.50275636  1101469413
-2.50275636 0.91738057 -5.05396986  1063967092
-5.38854504 20.72332764 -2.50275636  1101337107
-2.50275636 0.91738057 -6.05342197  1063967092
-7.36359549 20.10647202 -2.50275636  1100997058
-2.50275636 0.91738057 -8.95770836  1063967092
-9.57964134 19.15001869 -2.50275636  1100476943
-2.50275636 0.91738057 -12.29303169  1063896875
-12.65364075 18.78718948 -2.64753628  1100150087
-2.64753628 0.91281569 -13.54658985  1063890506
-15.50361919 16.51395988 -2.64753628  1099045033
-2.64753628 0.91281569 -16.02761650  1063890506
-16.53497124 15.48120689 -2.64753628  1097796636
-2.64753628 0.91281569 -17.26365852  1063890506
-17.49767303 14.38417053 -2.64753628  1096915773
-2.64753628 0.91281569 -17.95202065  1063890506
-18.80432320 12.62816334 -2.64753628  1095052628
-2.64753628 0.91281569 -19.57863998  1063890502
-19.75955009 11.07398796 -2.64753628  1093407024
-2.64753628 0.91281569 -20.10607910  1063890506
-20.27153206 10.10633850 -2.64753628  1100874780
-2.50275636 0.92264479 2.31508565  1064055411
1.99518800 19.87161636 -2.50275636  1100952992
-2.50275636 0.92264479 0.71126616  1064055411
-0.57561105 19.96323204 -2.50275636  1100958717
-2.50275636 0.92264479 -2.18020678  1064055411
-3.45421195 19.67054367 -2.50275636  1100801556
-2.50275636 0.92264479 -4.08615828  1064055411
-5.02592707 19.32878685 -2.50275636  1100609124
-2.50275636 0.92264479 -5.64605570  1064055411
-6.26030588 18.96498108 -2.50275636  1100443506
-2.55774784 0.92101407 -8.34787846  1064011212
-9.45186710 18.89459610 -2.64753628  1100260450
-2.64753628 0.91835761 -10.35363579  1063983489
-11.51828480 17.71080780 -2.64753628  1099706105
-2.64753628 0.91835767 -12.08291817  1063983485
-12.36056042 17.13359833 -2.64753628  1099396407
-2.64753628 0.91835767 -13.17394257  1063983485
-13.43833351 16.30198669 -2.64753628  1098951355
-2.64753628 0.91835767 -13.95657539  1063983485
-14.70660019 15.16771317 -2.64753628  1097529838
-2.64753628 0.91835767 -15.65290642  1063983485
-15.87947083 13.93505669 -2.64753628  1096472239
-2.64753628 0.91835767 -16.32019806  1063983485
-17.34688187 12.05940723 -2.64753628  1094480951
-2.64753628 0.91835767 -17.90928268  1063983485
-18.08752441 10.91719246 -2.64753628  1093270895
-2.64753628 0.91835767 -18.90739059  1063983485
2.52267003 18.95754433 -2.55824280  1100458299
-2.55311227 0.92586648 1.90341759  1064111555
1.59536636 18.95744896 -2.54484177  1100457858
-2.53918791 0.92625558 0.67553508  1064116860
0.36986762 18.95565987 -2.53612232  1100456875
-2.53555250 0.92635715 -0.24100503  1064117526
-0.54652250 18.95446396 -2.53653288  1100455682
-2.53779745 0.92629445 -1.15835428  1064115744
-2.08073306 18.94635010 -2.54963160  1100449485
-2.56549668 0.92552072 -3.64073443  1064097118
-3.95762968 18.93412018 -2.58749413  1100443273
-2.60569119 0.92439908 -5.24737167  1064074958
-5.90048409 18.89217377 -2.64753628  1100372863
-2.64753628 0.92323273 -7.40162325  1064065277
-7.98916483 18.10809708 -2.64753628  1099944182
-2.64753628 0.92323279 -9.97635746  1064065276
-10.25046635 16.93097305 -2.64753628  1099307999
-2.64753628 0.92323291 -10.79063129  1064065275
-11.31958580 16.23566437 -2.64753628  1098355010
-2.64753628 0.92323279 -13.07488823  1064065275
-13.31256676 14.64600277 -2.64753628  1097260983
-2.64753628 0.92323279 -14.44799614  1064065275
-14.66404915 13.29271412 -2.64753628  1095819311
-2.64753628 0.92323273 -15.08469105  1064065277
-15.48969936 12.32070446 -2.64753628  1094519641
-2.64753628 0.92323273 -16.60654259  1064065276
-16.94484901 10.22750568 -2.64753628  1092567104
-2.64753628 0.92323273 -17.26556587  1064065276
-17.41924095 9.39684582 -2.64753628  1090857134
-2.49513626 0.92748737 2.75220942  1064137779
2.15767980 18.48815727 -2.64753628  1100229125
-2.64753628 0.92755431 1.26187468  1064137779
0.66290641 18.60182762 -2.64753628  1100273894
-2.64753628 0.92755431 -0.83615619  1064137779
-1.13560402 18.57896423 -2.64753628  1100156820
-2.64753628 0.92755431 -3.80833697  1064137779
-4.68420839 18.01459885 -2.64753628  1099834189
-2.64753628 0.92755431 -5.83466339  1064137779
-6.11866999 17.57923126 -2.64753628  1099682739
-2.64753628 0.92755431 -6.68185949  1064137779
-7.23810148 17.14868736 -2.64753628  1099447586
-2.64753628 0.92755431 -8.05821705  1064137779
-8.32749367 16.64693260 -2.64753628  1099025680
-2.64753628 0.92755431 -10.14809513  1064137779
-10.39817619 15.43844128 -2.64753628  1098141045
-2.64753628 0.92755431 -10.89017200  1064137779
-11.37085056 14.73673534 -2.64753628  1097190852
-2.64753628 0.92755431 -12.51986694  1064137779
-12.95713329 13.36339188 -2.64753628  1095238869
-2.64753628 0.92755431 -13.99048328  1064137779
-14.56734943 11.58705330 -2.64753628  1093781917
-2.64753628 0.92755431 -15.45252609  1064137779
-15.61770630 10.12693787 -2.64753628  1091672568
-2.64753628 0.92755431 -15.69931221  1064205291
2.59719348 17.37218094 -2.64753628  1099666208
-2.64753628 0.93141103 1.75479758  1064202483
1.19079673 17.52484131 -2.64753628  1099726539
-2.64753628 0.93141097 0.05968655  1064202484
-0.22330321 17.56383324 -2.64753628  1099724464
-2.64753628 0.93141103 -1.91752863  1064202483
-2.19857645 17.42711830 -2.64753628  1099501948
-2.64753628 0.93141103 -4.14592409  1064202483
-4.42037821 16.99995232 -2.64753628  1099264154
-2.64753628 0.93141103 -6.04057217  1064202483
-6.30551863 16.39446640 -2.64753628  1099060087
-2.64753628 0.93141097 -7.09026098  1064202484
-7.34826231 15.95434666 -2.64753628  1098733469
-2.64753628 0.93141097 -8.11054897  1064202483
-8.60830879 15.31127644 -2.64753628  1098037962
-2.64753628 0.93141097 -9.09713554  1064202484
-10.04596138 14.40891075 -2.64753628  1096342597
-2.64753628 0.93141097 -11.60375786  1064202484
-11.81470680 12.99810982 -2.64753628  1095353729
-2.64753628 0.93141103 -12.42893124  1064202483
-12.82236862 12.00520325 -2.64753628  1093362292
-2.64753628 0.93141097 -14.09201050  1064202483
-14.25912285 10.25746346 -2.64753628  1092398884
-2.64753628 0.93141097 -14.73806095  1064202483
-14.89011192 9.31787109 -2.64753628  1091648099
-2.64753628 0.93141103 -14.56941891  1064266528
-14.81507015 7.38602781 -2.49513626  1099159918
-2.64753628 0.93487388 1.92732573  1064260581
1.66100812 16.54326820 -2.64753628  1099205381
-2.64753628 0.93487388 1.12716234  1064260580
0.85976326 16.60420036 -2.64753628  1099234427
-2.64753628 0.93487388 0.05650225  1064260581
-0.47919959 16.61954117 -2.64753628  1099219847
-2.64753628 0.93487388 -1.28162599  1064260581
-1.81504297 16.52707672 -2.64753628  1099079310
-2.64753628 0.93487388 -3.92433429  1064260581
-4.44282246 16.02185822 -2.64753628  1098853331
-2.64753628 0.93487388 -5.96850491  1064260580
-6.21774483 15.42006588 -2.64753628  1097965644
-2.64753628 0.93487388 -7.19792080  1064260580
-7.43841648 14.86970901 -2.64753628  1097463056
-2.64753628 0.93487388 -8.14821529  1064260581
-8.38065624 14.35977745 -2.64753628  1097044212
-2.64753628 0.93487388 -9.06468868  1064260580
-9.72753429 13.48382950 -2.64753628  1095759920
-2.64753628 0.93487388 -10.57572746  1064260580
-10.78104973 12.65731907 -2.64753628  1095218738
-2.64753628 0.93487382 -11.57382679  1064260581
-11.76464176 11.74869442 -2.64753628  1094249487
-2.64753628 0.93487388 -12.13705254  1064260581
-12.31855488 11.16655445 -2.64753628  1092761984
-2.64753628 0.93487382 -13.49701786  1064260580
-13.65168953 9.49052811 -2.64753628  1091850063
-2.64753628 0.93487388 -13.95036221  1064260580
-13.41516972 8.09707546 -2.49513626  1090267152
-2.49513626 0.93850493 -13.90879250  1064321500
-14.02325058 6.99126863 -2.49513626  1098495891
-2.64753628 0.93800002 2.08158660  1064313029
1.82929957 15.67439079 -2.64753628  1098594994
-2.64753628 0.93800002 1.32334590  1064313029
0.81603438 15.75965691 -2.64753628  1098676436
-2.64753628 0.93800002 -0.70890105  1064313030
-0.96279448 15.75137424 -2.64753628  1098605845
-2.64753628 0.93800002 -1.72272074  1064313029
-1.97521996 15.65667248 -2.64753628  1098512144
-2.64753628 0.93800002 -2.47862744  1064313029
-2.72939134 15.54294491 -2.64753628  1098210231
-2.64753628 0.93800008 -4.94666624  1064313029
-5.42690277 14.81828499 -2.64753628  1097574832
-2.64753628 0.93800002 -5.90148735  1064313030
-6.13652134 14.53877449 -2.64753628  1097269796
-2.64753628 0.93800002 -6.60174465  1064313029
-6.83181429 14.22529888 -2.64753628  1096808193
-2.64753628 0.93800002 -7.51115227  1064313029
-7.73377228 13.75576591 -2.64753628  1096421886
-2.64753628 0.93800002 -8.38937283  1064313030
-8.60362911 13.22914982 -2.64753628  1095855055
-2.64753628 0.93800002 -9.23276329  1064313029
-9.64028740 12.49390888 -2.64753628  1094727531
-2.64753628 0.93800002 -10.42491531  1064313029
-10.80119514 11.50508785 -2.64753628  1094010357
-2.64753628 0.93800002 -11.34445572  1064313030
-11.51972675 10.78557968 -2.64753628  1093243858
-2.64753628 0.93800002 -11.86122894  1064313029
-12.02739239 10.21639252 -2.64753628  1092638514
-2.64753628 0.93800002 -12.35030365  1064313029
-12.95732117 9.00781155 -2.64753628  1090824662
-2.49513626 0.94146228 -12.47862053  1064371117
-12.60736179 7.88937902 -2.49513626  1089426625
-2.49513626 0.94146234 -12.97382641  1064371117
-13.08929062 7.06104517 -2.49513626  1097819271
-2.64753628 0.94083619 1.01790428  1064360612
0.77642900 14.99484348 -2.64753628  1097871742
-2.64753628 0.94083613 0.05102777  1064360611
-0.19088326 15.01371765 -2.64753628  1097868187
-2.64753628 0.94083619 -1.15740478  1064360612
-1.63912177 14.92519379 -2.64753628  1097750912
-2.64753628 0.94083625 -2.11911964  1064360612
-3.54396915 14.59069633 -2.64753628  1097232458
-2.64753628 0.94083619 -4.47628021  1064360612
-4.70660448 14.25819016 -2.64753628  1096999777
-2.64753628 0.94083619 -5.16353273  1064360612
-5.39001036 14.01413536 -2.64753628  1096732348
-2.64753628 0.94083619 -5.83871365  1064360612
-6.50026178 13.53494835 -2.64753628  1096211197
-2.64753628 0.94083619 -6.93296909  1064360612
-7.14663506 13.20506573 -2.64753628  1095598699
-2.64753628 0.94083619 -8.18609142  1064360612
-8.58737564 12.31686211 -2.64753628  1094898852
-2.64753628 0.94083619 -9.36277485  1064360612
-10.45203590 10.77975178 -2.64753628  1093255781
-2.64753628 0.94083619 -10.79391575  1064360612
-11.12458134 10.08423805 -2.64753628  1092515215
-2.64753628 0.94083619 -11.44369030  1064360613
-11.59882545 9.53495312 -2.64753628  1091931311
-2.64753628 0.94083619 -12.04597378  1064360612
-11.48719692 8.26344681 -2.49513626  1090600102
-2.49513626 0.94414485 -11.74745560  1064416122
-12.23114395 7.11613369 -2.49513626  1088250246
-2.49513626 0.94414485 -12.56068707  1064416122
1.65973914 14.22151852 -2.64753628  1097068874
-2.64753628 0.94342065 1.20068455  1064403972
0.74039251 14.29888153 -2.64753628  1097141124
-2.64753628 0.94342065 -0.18202367  1064403972
-0.64318883 14.30358601 -2.64753628  1097116015
-2.64753628 0.94342065 -1.56304336  1064403972
-2.02076125 14.17471981 -2.64753628  1096917719
-2.64753628 0.94342065 -2.70327902  1064403972
-2.92946100 14.01515198 -2.64753628  1096719786
-2.64753628 0.94342065 -3.60320306  1064403972
-3.82598400 13.79739189 -2.64753628  1096531531
-2.64753628 0.94342065 -5.13984060  1064403972
-5.35447884 13.27914619 -2.64753628  1095962365
-2.64753628 0.94342065 -5.98981714  1064403972
-6.61118460 12.70033264 -2.64753628  1095334282
-2.64753628 0.94342065 -7.01692438  1064403972
-7.61175823 12.12713432 -2.64753628  1094716414
-2.64753628 0.94342065 -7.99851561  1064403972
-8.18880749 11.74519634 -2.64753628  1094016914
-2.64753628 0.94342065 -9.10739708  1064403972
-9.28421402 10.89997864 -2.64753628  1093076170
-2.64753628 0.94342065 -10.29293156  1064403972
-10.91256046 9.26942539 -2.64753628  1090938438
-2.49513626 0.94658887 -11.07956505  1064457126
-11.43877029 7.15810394 -2.49513626  1087576853
-2.49513626 0.94658893 -11.97770405  1064457126
1.80462539 13.56154728 -2.64753628  1096404329
-2.64753628 0.94578534 1.14727104  1064443645
0.04649312 13.68101025 -2.64753628  1096474937
-2.64753628 0.94578534 -0.83468831  1064443645
-1.93087196 13.54415417 -2.64753628  1096123512
-2.64753628 0.94578534 -3.22914481  1064443645
-3.44291186 13.24079227 -2.64753628  1095954438
-2.64753628 0.94578540 -3.86771655  1064443645
-4.07863617 13.05897522 -2.64753628  1095753084
-2.64753628 0.94578534 -4.49724531  1064443645
-4.91119242 12.76919746 -2.64753628  1095255458
-2.64753628 0.94578534 -6.12073612  1064443645
-6.51176882 12.03200626 -2.64753628  1094520367
-2.64753628 0.94578534 -7.08550596  1064443645
-7.45888853 11.46896935 -2.64753628  1093898288
-2.64753628 0.94578534 -8.35761452  1064443645
-8.70224857 10.55666351 -2.64753628  1093051446
-2.64753628 0.94578534 -9.36405468  1064443646
-9.52353954 9.82213974 -2.64753628  1091935170
-2.64753628 0.94578534 -10.28305435  1064443645
-9.82689762 8.34722996 -2.49513626  1090715986
-2.49513626 0.94882482 -10.58668423  1064494639
-10.81829834 7.01487732 -2.49513626  1087714491
-2.49513626 0.94882482 -11.53904915  1064494639
1.72752774 12.98217106 -2.64753628  1095770642
-2.64753628 0.94795698 0.88785809  1064480079
0.67723501 13.07908630 -2.64753628  1095860601
-2.64753628 0.94795704 -0.58832330  1064480079
-1.42970002 13.01833439 -2.64753628  1095755223
-2.64753628 0.94795698 -2.05703354  1064480079
-2.26514769 12.89923096 -2.64753628  1095616235
-2.64753628 0.94795698 -2.67955446  1064480079
-3.49959993 12.62037659 -2.64753628  1095303015
-2.64753628 0.94795698 -3.90439010  1064480079
-4.10528278 12.43654728 -2.64753628  1094782405
-2.64753628 0.94795698 -5.66978216  1064480079
-5.85924721 11.71282768 -2.64753628  1094311641
-2.64753628 0.94795698 -6.23357344  1064480079
-6.41832733 11.41604805 -2.64753628  1093991044
-2.64753628 0.94795698 -7.14022923  1064480079
-7.31618500 10.86253071 -2.64753628  1093136655
-2.64753628 0.94795698 -8.80901337  1064480079
-8.96400833 9.54817581 -2.64753628  1091834393
-2.64753628 0.94795698 -9.56032372  1064480079
-9.14476871 8.28954887 -2.49513626  1090499363
-2.49513626 0.95087790 -9.78216076  1064529084
-9.90215397 7.36819315 -2.49513626  1088857472
-2.49513626 0.95087790 -10.35611820  1064529084
-10.46296120 6.54746580 -2.49513626  1087117552
-2.49513626 0.95087790 -10.76709557  1064529084
-10.95591736 5.68425322 -2.49513626  1095154020
-2.64753628 0.94995815 1.65652144  1064513653
1.45575273 12.47363853 -2.64753628  1095232884
-2.64753628 0.94995815 1.05311632  1064513653
0.85136479 12.52940655 -2.64753628  1095290410
-2.64753628 0.94995815 -0.76618934  1064513653
-1.16964400 12.50370979 -2.64753628  1095220062
-2.64753628 0.94995815 -1.57187295  1064513653
-2.17204261 12.36903763 -2.64753628  1094975117
-2.64753628 0.94995815 -3.16035581  1064513653
-3.35575581 12.10164165 -2.64753628  1094699969
-2.64753628 0.94995815 -3.93654132  1064513653
-4.31871367 11.79235077 -2.64753628  1094262372
-2.64753628 0.94995815 -5.06918955  1064513653
-5.79864120 11.13941765 -2.64753628  1093711483
-2.64753628 0.94995815 -6.33008337  1064513653
-7.18237305 10.30166721 -2.64753628  1092684269
-2.64753628 0.94995815 -7.67171478  1064513653
-7.83090544 9.81772614 -2.64753628  1092291435
-2.64753628 0.94995815 -8.44693851  1064513653
-8.37456799 8.36321926 -2.49513626  1090757287
-2.49513626 0.95276952 -8.76886749  1064560820
-8.89579010 7.80651760 -2.49513626  1089810583
-2.49513626 0.95276952 -9.60774708  1064560820
-9.93045425 6.43917179 -2.49513626  1086567762
-2.49513626 0.95276958 -10.32453442  1064560820
-10.41642189 5.61916018 -2.49513626  1085172580
-2.49513626 0.95276952 -10.59205055  1064560820
1.78330886 11.92823982 -2.64753628  1094713840
-2.64753628 0.95180804 0.62367135  1064544689
0.42953077 12.05315018 -2.64753628  1094777034
-2.64753628 0.95180804 -0.34761024  1064544689
-0.54179192 12.04863262 -2.64753628  1094753549
-2.64753628 0.95180804 -1.12330782  1064544689
-1.50960648 11.96596146 -2.64753628  1094650519
-2.64753628 0.95180804 -2.08599830  1064544689
-2.27711201 11.84389591 -2.64753628  1094419786
-2.64753628 0.95180804 -3.59559536  1064544689
-3.78059983 11.45295429 -2.64753628  1093781771
-2.64753628 0.95180804 -5.56892920  1064544689
-5.74056339 10.60702705 -2.64753628  1093154282
-2.64753628 0.95180804 -6.24635410  1064544689
-6.57551336 10.11067295 -2.64753628  1092619774
-2.64753628 0.95180804 -6.89784431  1064544689
-7.05634642 9.78115845 -2.64753628  1092266188
-2.64753628 0.95180804 -7.36780500  1064544689
-7.67161655 9.30640507 -2.64753628  1091758045
-2.64753628 0.95180804 -7.78398132  1064589761
-8.17117405 7.90129423 -2.49513626  1090033810
-2.49513626 0.95451802 -8.42149258  1064590155
-8.54338932 7.49726725 -2.49513626  1089174017
-2.49513626 0.95451802 -9.11900234  1064590155
-9.43619633 6.33693600 -2.49513626  1086059669
-2.49513626 0.95451802 -9.82472038  1064590155
-9.91552925 5.55703306 -2.49513626  1084719766
-2.49513626 0.95451802 -10.17245388  1064590155
1.15882111 11.54159355 -2.64753628  1094250679
-2.64753628 0.95352298 0.59982324  1064573462
0.41310883 11.59225845 -2.64753628  1094291196
-2.64753628 0.95352304 -0.33431792  1064573462
-0.52107441 11.58790493 -2.64753628  1094270861
-2.64753628 0.95352304 -0.89414001  1064573462
-1.26628268 11.53029251 -2.64753628  1094197866
-2.64753628 0.95352304 -1.63710403  1064573462
-1.82187068 11.45565128 -2.64753628  1094074767
-2.64753628 0.95352304 -2.37327290  1064573462
-2.55589676 11.31452370 -2.64753628  1093797339
-2.64753628 0.95352304 -3.45810080  1064573462
-3.63603258 11.01501083 -2.64753628  1093617578
-2.64753628 0.95352304 -3.98902965  1064573462
-4.68222141 10.61263657 -2.64753628  1093178034
-2.64753628 0.95352304 -5.84685421  1064573462
-6.00749874 9.92275238 -2.64753628  1092326848
-2.64753628 0.95352304 -6.47991800  1064573462
-6.93719387 9.29658890 -2.64753628  1091760154
-2.64753628 0.95352304 -7.37826777  1064573462
-7.35300255 8.08950520 -2.49513626  1090456097
-2.49513626 0.95613885 -7.60980511  1064617347
-7.73527098 7.72478724 -2.49513626  1089678412
-2.49513626 0.95613879 -8.33181000  1064617347
-8.55550385 6.80515480 -2.49513626  1087722354
-2.49513626 0.95613879 -8.77030754  1064617347
-8.87430859 6.38383818 -2.49513626  1086828138
-2.49513626 0.95613879 -9.07536983  1064617347
-9.53638268 5.34454584 -2.49513626  1084626470
-2.49513626 0.95613879 -9.70361519  1064617348
-9.78347588 4.87753582 -2.49513626  1093715154
-2.64753628 0.95511723 0.75730485  1064600208
0.57764924 11.15589237 -2.64753628  1093839040
-2.64753628 0.95511723 -0.50181305  1064600208
-0.68153965 11.15002918 -2.64753628  1093809056
-2.64753628 0.95511723 -1.57658815  1064600208
-1.75455999 11.03218842 -2.64753628  1093633240
-2.64753628 0.95511723 -2.28554463  1064600208
-2.63664818 10.85521603 -2.64753628  1093417970
-2.64753628 0.95511723 -3.33027530  1064600208
-3.67207551 10.55004692 -2.64753628  1093063161
-2.64753628 0.95511723 -4.17752504  1064600208
-4.34389448 10.29165840 -2.64753628  1092431992
-2.64753628 0.95511723 -5.63072920  1064600208
-6.09030628 9.36460495 -2.64753628  1091739085
-2.64753628 0.95511723 -6.53565836  1064600208
-6.43128824 8.33504772 -2.49513626  1090534320
-2.49513626 0.95764530 -7.56822062  1064642622
-7.68514347 7.19537354 -2.49513626  1088570003
-2.49513626 0.95764530 -8.02382088  1064642622
-8.23924637 6.55359983 -2.49513626  1086921908
-2.49513626 0.95764530 -8.54626656  1064642622
-8.92445374 5.58470583 -2.49513626  1085150739
-2.49513626 0.95764530 -9.09975052  1064642622
-9.18386745 5.14698029 -2.49513626  1084224119
-2.49513626 0.95764530 -9.42182732  1064642622
1.42078137 10.67699242 -2.64753628  1093348618
-2.64753628 0.95660293 1.07604992  1064625134
0.90324563 10.73316860 -2.64753628  1093398775
-2.64753628 0.95660293 0.55697936  1064625134
0.21012315 10.76905727 -2.64753628  1093420065
-2.64753628 0.95660293 -0.48385772  1064625134
-0.65715200 10.75104237 -2.64753628  1093375664
-2.64753628 0.95660293 -1.34817946  1064625134
-1.69177866 10.63741875 -2.64753628  1093254546
-2.64753628 0.95660293 -2.03361559  1064625134
-2.20376301 10.54325676 -2.64753628  1093147173
-2.64753628 0.95660293 -2.54230118  1064625134
-2.71060205 10.42446232 -2.64753628  1092964028
-2.64753628 0.95660293 -3.21110702  1064625134
-3.86657715 10.05317783 -2.64753628  1092605262
-2.64753628 0.95660293 -4.18845797  1064625134
-4.66302967 9.70942688 -2.64753628  1092148683
-2.64753628 0.95660293 -5.12670708  1064625134
-5.27866077 9.38895893 -2.64753628  1091885013
-2.64753628 0.95660293 -5.57841492  1064625134
-5.72614002 9.12294388 -2.64753628  1090861943
-2.49513626 0.95904905 -5.93903923  1064666174
-6.07090139 8.13565254 -2.49513626  1090168454
-2.49513626 0.95904911 -6.58224964  1064666174
-7.06627226 7.28782940 -2.49513626  1088784775
-2.49513626 0.95904911 -7.52095556  1064666174
-7.62981844 6.69556093 -2.49513626  1087523813
-2.49513626 0.95904911 -7.94441700  1064666174
-8.04519176 6.19027948 -2.49513626  1086450274
-2.49513626 0.95904911 -8.33488464  1064666174
-8.51723576 5.52280378 -2.49513626  1084447433
-2.49513626 0.95904911 -8.85523891  1064666174
-8.93404675 4.81949043 -2.49513626  1083240145
-2.49513626 0.95904911 1.53737605  1064648417
1.20527673 10.32743549 -2.64753628  1092978488
-2.64753628 0.95799071 0.87191802  1064648417
0.70488000 10.37360859 -2.64753628  1093032967
-2.64753628 0.95799071 -0.29967332  1064648417
-0.80147880 10.36659241 -2.64753628  1092985642
-2.64753628 0.95799065 -1.13505709  1064648417
-1.96307981 10.21053123 -2.64753628  1092682153
-2.64753628 0.95799071 -2.93943834  1064648417
-3.09973454 9.92472935 -2.64753628  1092368067
-2.64753628 0.95799071 -3.88833427  1064648417
-4.34971094 9.44397163 -2.64753628  1091958391
-2.64753628 0.95799065 -4.65171528  1064648417
-5.09558201 9.06331348 -2.64753628  1091546688
-2.64753628 0.95799071 -5.07498360  1064688171
-5.20942068 8.29969406 -2.49516582  1090211764
-2.49513626 0.96036029 -6.11031580  1064688172
-6.35395432 7.45975828 -2.49513626  1089169355
-2.49513626 0.96036029 -6.70696354  1064688172
-6.82118797 7.03506136 -2.49513626  1088026876
-2.49513626 0.96036029 -7.26010275  1064688171
-7.76615715 5.97557735 -2.49513626  1086009502
-2.49513626 0.96036023 -8.13487053  1064688172
-8.22182941 5.33125162 -2.49513626  1084643032
-2.49513626 0.96036023 -8.38932514  1064688171
-8.46981812 4.92777729 -2.49513626  1083498475
-2.49513626 0.96036023 -8.69801712  1064688172
-8.76959419 4.37206554 -2.49513626  1092574012
-2.64753628 0.95928973 0.68115300  1064670211
0.19601250 10.04565620 -2.64753628  1092666011
-2.64753628 0.95928973 -0.12773290  1064670211
-0.45135391 10.03742599 -2.64753628  1092646444
-2.64753628 0.95928973 -1.73779571  1064670211
-1.89700603 9.86686802 -2.64753628  1092407129
-2.64753628 0.95928973 -2.84050202  1064670211
-3.14952779 9.54118347 -2.64753628  1092080576
-2.64753628 0.95928973 -3.45528913  1064670211
-3.75746059 9.31853676 -2.64753628  1091836881
-2.64753628 0.95928973 -4.05572939  1064670211
-4.34979200 9.05720425 -2.64753628  1090862768
-2.49513626 0.96158755 -4.77300453  1064708762
-5.16257763 7.93811035 -2.49513626  1089464019
-2.49513626 0.96158755 -6.14009333  1064708762
-6.48121977 6.90358925 -2.49513626  1087998839
-2.49513626 0.96158755 -6.70027494  1064708762
-6.80720711 6.58237696 -2.49513626  1087314279
-2.49513626 0.96158755 -7.01574183  1064708762
-7.68690634 5.52966642 -2.49513626  1084813001
-2.49513626 0.96158755 -8.02706623  1064708762
-8.10695648 4.89316177 -2.49513626  1083728290
-2.49513626 0.96158755 -8.26039505  1064708762
-8.40525818 4.36089420 -2.49513626  1082602103
-2.49513626 0.96158755 1.28200173  1064690655
1.12662148 9.65348625 -2.64753628  1092270567
-2.64753628 0.96050829 0.03302849  1064690655
-0.59296238 9.70090199 -2.64753628  1092260642
-2.64753628 0.96050829 -1.21648967  1064690655
-1.37168610 9.62172508 -2.64753628  1092138265
-2.64753628 0.96050829 -1.98850167  1064690655
-2.14151835 9.48013592 -2.64753628  1091993568
-2.64753628 0.96050835 -2.74761558  1064690655
-3.19483066 9.17889786 -2.64753628  1091699980
-2.64753628 0.96050829 -3.48889852  1064690655
-3.63458967 9.01381302 -2.64753628  1090979014
-2.49513626 0.96273869 -3.83181357  1064728075
-4.09785986 8.19175816 -2.49513626  1090649767
-2.49513626 0.96273869 -4.86940336  1064728075
-5.35892487 7.42827845 -2.49513626  1089136971
-2.49513626 0.96273869 -5.59546185  1064728075
-5.82619429 7.06773186 -2.49513626  1088162588
-2.49513626 0.96273869 -6.16087961  1064728075
-6.37605190 6.57596922 -2.49513626  1087315403
-2.49513626 0.96273869 -6.58460617  1064728075
-6.68633270 6.26021719 -2.49513626  1086642840
-2.49513626 0.96273869 -6.98099422  1064728075
-7.07562780 5.81660461 -2.49513626  1085699476
-2.49513626 0.96273869 -7.25935364  1064728075
-7.34840012 5.46794558 -2.49513626  1084959159
-2.49513626 0.96273869 -7.60400534  1064728075
-7.84185171 4.73315430 -2.49513626  1083132970
-2.49513626 0.96273869 -8.13040161  1064728075
-8.19730759 4.08675337 -2.49513626  1091911220
-2.64753628 0.96165353 1.09079170  1064709869
0.94006461 9.36283588 -2.64753628  1091962678
-2.64753628 0.96165353 0.33512405  1064709869
0.18357135 9.40811348 -2.64753628  1091996638
-2.64753628 0.96165353 -0.27120814  1064709869
-0.42270836 9.40040493 -2.64753628  1091954548
-2.64753628 0.96165353 -1.02724075  1064709869
-1.17780411 9.33590317 -2.64753628  1091898674
-2.64753628 0.96165353 -1.47797751  1064709869
-1.62750816 9.26809120 -2.64753628  1091788703
-2.64753628 0.96165353 -2.22101498  1064709869
-2.91516566 8.37541294 -2.49513626  1090862299
-2.49513626 0.96382046 -3.18349171  1064746223
-3.31643081 8.22477913 -2.49513626  1090638225
-2.49513626 0.96382046 -3.70994782  1064746224
-4.09480286 7.86627674 -2.49513626  1089804425
-2.49513626 0.96382046 -4.59290838  1064746224
-4.71453762 7.51124811 -2.49513626  1089167338
-2.49513626 0.96382046 -5.30368710  1064746224
-5.41750431 7.02113819 -2.49513626  1088281262
-2.49513626 0.96382046 -5.75041389  1064746224
-5.96493959 6.56240940 -2.49513626  1086883714
-2.49513626 0.96382046 -6.37519026  1064746224
-6.66559935 5.84940863 -2.49513626  1085552178
-2.49513626 0.96382040 -6.94044113  1064746223
-7.02848005 5.40798283 -2.49513626  1084110372
-2.49513626 0.96382046 -7.44086552  1064746224
-7.59244919 4.58262062 -2.49513626  1082571723
-2.49513626 0.96382046 -7.87182093  1064746224
-7.93660021 3.95677757 -2.49513626  1091608365
-2.64753628 0.96273178 0.76466393  1064727959
0.61817205 9.09755898 -2.64753628  1091685844
-2.64753628 0.96273178 0.03098670  1064727959
-0.55632758 9.10155296 -2.64753628  1091650352
-2.64753628 0.96273178 -1.14133227  1064727959
-1.28693843 9.02726746 -2.64753628  1091573234
-2.64753628 0.96273178 -1.75825357  1064763310
-1.89355278 8.38243294 -2.49513626  1090886922
-2.49513626 0.96483886 -2.16263247  1064763310
-2.29634523 8.28115749 -2.49513626  1090773933
-2.49513626 0.96483886 -2.69377828  1064763310
-2.82490158 8.11607552 -2.49513626  1090591926
-2.49513626 0.96483886 -3.59507465  1064763310
-3.72036052 7.74659300 -2.49513626  1089859794
-2.49513626 0.96483886 -4.21153641  1064763310
-4.33167791 7.42208290 -2.49513626  1089158689
-2.49513626 0.96483886 -4.68522978  1064763310
-4.80068684 7.12770414 -2.49513626  1087831067
-2.49513626 0.96483886 -5.57236004  1064763310
-5.67703724 6.45151329 -2.49513626  1087078058
-2.49513626 0.96483886 -6.08074379  1064763310
-6.17778921 5.97374868 -2.49513626  1085845780
-2.49513626 0.96483886 -6.45920277  1064763310
-6.54968739 5.56348324 -2.49513626  1084960695
-2.49513626 0.96483886 -6.89439487  1064763310
-6.97614956 5.01837587 -2.49513626  1084029062
-2.49513626 0.96483886 -7.13420773  1064763310
-7.28485632 4.55868673 -2.49513626  1081952901
-2.49513626 0.96483886 1.23231304  1064779423
1.09935331 8.26151085 -2.49513626  1090838835
-2.49513626 0.96579927 0.56559139  1064778842
0.29707614 8.33658981 -2.49739528  1090874082
-2.49688625 0.96577567 0.02835525  1064779116
-0.24029782 8.33396053 -2.49606085  1090863886
-2.49601936 0.96578735 -0.77623528  1064779423
-1.04317772 8.26879406 -2.49513626  1090737911
-2.49513626 0.96579927 -1.57354355  1064779423
-1.70519817 8.15803051 -2.49513626  1090654829
-2.49513626 0.96579927 -1.96715069  1064779422
-2.09737492 8.06611156 -2.49513626  1090551834
-2.49513626 0.96579927 -2.48464799  1064779423
-2.61249375 7.91429377 -2.49513626  1090154167
-2.49513626 0.96579927 -2.99183226  1064779423
-3.24089313 7.67839527 -2.49513626  1089733001
-2.49513626 0.96579927 -3.48659301  1064779423
-4.08445740 7.26487160 -2.49513626  1088837387
-2.49513626 0.96579927 -4.65582705  1064779423
-4.76659393 6.83671856 -2.49513626  1087916556
-2.49513626 0.96579927 -5.09134674  1064779423
-5.50573397 6.25684071 -2.49513626  1086675641
-2.49513626 0.96579927 -5.70445776  1064779423
-5.89725924 5.88927031 -2.49513626  1085891659
-2.49513626 0.96579927 -6.26429796  1064779423
-6.35205412 5.39560699 -2.49513626  1084841140
-2.49513626 0.96579927 -6.52259398  1064779423
-6.60533381 5.08239508 -2.49513626  1084175826
-2.49513626 0.96579927 -6.84318018  1064779423
-6.99289274 4.53437948 -2.49513626  1082773683
-2.49513626 0.96579927 -7.20381594  1064779422
-7.27040195 4.07460642 -2.49513626  1081949824
-2.49513626 0.96579927 -7.45878267  1064779423
1.06699800 8.01835537 -2.49513626  1090555220
-2.49513626 0.96670640 0.67833161  1064794642
0.54837841 8.07042503 -2.49513626  1090601052
-2.49513626 0.96670640 0.28808081  1064794642
0.15780373 8.08749676 -2.49513626  1090611714
-2.49513626 0.96670640 -0.23313878  1064794642
-0.36337319 8.08086872 -2.49513626  1090596600
-2.49513626 0.96670640 -0.62353194  1064794642
-0.88304794 8.04069328 -2.49513626  1090545697
-2.49513626 0.96670640 -1.65500975  1064794642
-1.90925109 7.86048698 -2.49513626  1090159813
-2.49513626 0.96670640 -2.28681207  1064794642
-2.65902400 7.63950729 -2.49513626  1089671109
-2.49513626 0.96670640 -2.90377426  1064794642
-3.38397336 7.34719181 -2.49513626  1089033667
-2.49513626 0.96670640 -3.61892605  1064794642
-3.73501325 7.17510748 -2.49513626  1088660970
-2.49513626 0.96670640 -3.96424150  1064794642
-4.30029535 6.85127354 -2.49513626  1087811977
-2.49513626 0.96670640 -4.83767891  1064794642
-5.14526224 6.24169683 -2.49513626  1086656065
-2.49513626 0.96670640 -5.34368706  1064794642
-5.44083166 5.98580503 -2.49513626  1085336050
-2.49513626 0.96670640 -6.07992554  1064794642
-6.16509771 5.23680210 -2.49513626  1084086674
-2.49513626 0.96670640 -6.48956156  1064794642
-6.64176607 4.61729956 -2.49513626  1083199343
-2.49513626 0.96670640 -6.78707504  1064794642
-6.99178648 4.06785440 -2.49513626  1081940339
-2.49513626 0.96670640 -7.11921692  1064794642
-7.23925209 3.60911679 -2.49513626  1090037216
-2.49513626 0.96756452 0.53262329  1064809039
0.40626913 7.84609556 -2.49513626  1090216992
-2.49513626 0.96756446 -0.35293189  1064809038
-0.47933608 7.84197140 -2.49513626  1090146706
-2.49513626 0.96756446 -0.85767365  1064809038
-0.98338163 7.79482174 -2.49513626  1090053400
-2.49513626 0.96756452 -1.23400712  1064809039
-1.35885358 7.73820066 -2.49513626  1089921990
-2.49513626 0.96756452 -1.60745537  1064809039
-1.73114836 7.66350889 -2.49513626  1089688060
-2.49513626 0.96756452 -2.09939671  1064809039
-2.22110462 7.53610754 -2.49513626  1089469098
-2.49513626 0.96756452 -2.93811297  1064809039
-3.05512285 7.23826456 -2.49513626  1088707262
-2.49513626 0.96756452 -3.40128112  1064809039
-3.51494002 7.02648258 -2.49513626  1088356745
-2.49513626 0.96756452 -3.73949647  1064809039
-4.06897640 6.72083807 -2.49513626  1087554203
-2.49513626 0.96756452 -4.59661818  1064809039
-4.69867373 6.29672241 -2.49513626  1086786547
-2.49513626 0.96756446 -4.89909697  1064809039
-5.19014215 5.89819431 -2.49513626  1085754132
-2.49513626 0.96756452 -5.46905851  1064809039
-5.90522432 5.18214083 -2.49513626  1084204919
-2.49513626 0.96756452 -6.14871454  1064809039
-6.22671175 4.79106712 -2.49513626  1083577735
-2.49513626 0.96756452 -6.45092201  1064809039
-6.52233505 4.38011599 -2.49513626  1082482139
-2.49513626 0.96756446 -6.85365868  1064809039
-6.91465187 3.73012567 -2.49513626  1080529217
-2.49513626 0.96756452 -7.03123999  1064809039
1.12906122 7.55209637 -2.49513626  1089647785
-2.49513626 0.96837741 0.64034325  1064822677
0.51766789 7.61846161 -2.49513626  1089734314
-2.49513626 0.96837741 0.14896621  1064822677
0.02594846 7.63598537 -2.49513626  1089754447
-2.49513626 0.96837741 -0.34302351  1064822677
-0.46587875 7.62180519 -2.49513626  1089708093
-2.49513626 0.96837741 -0.71119720  1064822677
-1.19936275 7.54125357 -2.49513626  1089514400
-2.49513626 0.96837741 -1.68254769  1064822677
-1.80233014 7.42027998 -2.49513626  1089240364
-2.49513626 0.96837741 -2.04045582  1064822677
-2.39360189 7.25118208 -2.49513626  1088865807
-2.49513626 0.96837741 -2.62597871  1064822677
-2.96934962 7.03504944 -2.49513626  1088287105
-2.49513626 0.96837741 -3.74223471  1064822677
-4.05946684 6.46758223 -2.49513626  1086728903
-2.49513626 0.96837741 -4.56675673  1064822677
-4.66475964 6.04557467 -2.49513626  1086261058
-2.49513626 0.96837741 -5.13613033  1064822677
-5.31551313 5.48217869 -2.49513626  1084686749
-2.49513626 0.96837741 -5.65754366  1064822677
-5.81983757 4.94352579 -2.49513626  1083911166
-2.49513626 0.96837741 -6.26981258  1064822677
-6.33921862 4.25714397 -2.49513626  1082454355
-2.49513626 0.96837741 -6.47308254  1064822677
-6.83383608 3.40699768 -2.49513626  1089180027
-2.49513626 0.96914852 0.86086255  1064835614
0.74190831 7.38924789 -2.49513626  1089261253
-2.49513626 0.96914852 0.50345796  1064835614
0.38402352 7.41646051 -2.49513626  1089306224
-2.49513626 0.96914852 0.14487770  1064835614
-0.09440997 7.42580080 -2.49513626  1089300390
-2.49513626 0.96914852 -0.45308721  1064835614
-0.69167280 7.39411926 -2.49513626  1089223027
-2.49513626 0.96914852 -1.04811883  1064835614
-1.16643584 7.33422089 -2.49513626  1089081391
-2.49513626 0.96914852 -1.40212083  1064835614
-1.75284970 7.21657276 -2.49513626  1088749787
-2.49513626 0.96914852 -2.32789040  1064835614
-2.44120407 7.01369381 -2.49513626  1088366212
-2.49513626 0.96914852 -2.77722740  1064835614
-2.88782883 6.84191465 -2.49513626  1087887796
-2.49513626 0.96914852 -3.21503544  1064835614
-3.42904830 6.58733797 -2.49513626  1086797876
-2.49513626 0.96914852 -4.24732494  1064835614
-4.53669643 5.87960577 -2.49513626  1085917372
-2.49513626 0.96914852 -4.81548214  1064835614
-4.90594339 5.57522440 -2.49513626  1085266640
-2.49513626 0.96914852 -5.08301926  1064835614
-5.25481606 5.24769354 -2.49513626  1084014473
-2.49513626 0.96914852 -5.81202745  1064835614
-5.95794916 4.43331289 -2.49513626  1082836639
-2.49513626 0.96914852 -6.09768581  1064835614
-6.16518927 4.14027357 -2.49513626  1080581557
-2.49513626 0.96914852 -6.59198046  1064835614
-6.64622784 3.31346607 -2.49513626  1088731116
-2.49513626 0.96988094 0.83773738  1064847902
0.37370667 7.21721745 -2.49513626  1088894817
-2.49513626 0.96988094 -0.67308939  1064847902
-0.78892875 7.18369532 -2.49513626  1088746002
-2.49513626 0.96988094 -1.13509917  1064847902
-1.59239542 7.04926825 -2.49513626  1088409945
-2.49513626 0.96988094 -2.04307842  1064847902
-2.37562132 6.82527161 -2.49513626  1087973328
-2.49513626 0.96988094 -2.59428334  1064847902
-2.81024766 6.65810728 -2.49513626  1087403828
-2.49513626 0.96988094 -3.43977094  1064847902
-3.54172134 6.29953241 -2.49513626  1086706741
-2.49513626 0.96988094 -3.84195948  1064847902
-4.13321877 5.92827034 -2.49513626  1085888594
-2.49513626 0.96988094 -4.59686899  1064847902
