# .PCD v0.7 - Point Cloud Data file format
VERSION 0.7
FIELDS x y z intensity
SIZE 4 4 4 4
TYPE F F F F
COUNT 1 1 1 1
WIDTH 1027
HEIGHT 1
VIEWPOINT 0 0 0 1 0 0 0
POINTS 1027
DATA ascii
9.66396332 36.20428085 -2.49513626  1108438018
-2.49513626 0.86051911 7.30908203  1063013115
6.71523905 36.86526108 -2.49513626  1108598799
-2.49513626 0.86051911 4.92379427  1063013115
3.72282434 37.28649902 -2.49513626  1108696553
-2.49513626 0.86051911 1.31052089  1063013115
0.10171997 37.47174835 -2.49513626  1088494717
-2.49513626 0.87497962 32.29977798  1063255722
33.28345108 11.84678173 -2.64753628  1095114093
-2.64753628 0.86787117 32.67132187  1063136461
31.98266983 15.00809765 -2.64753628  1098924471
-2.64753628 0.86787117 30.38241577  1063136462
30.08761215 18.51674461 -2.64753628  1100480366
-2.64753628 0.86787117 27.81655502  1063231600
26.93933105 19.73908043 -2.50275636  1101318263
-2.50275636 0.87462288 25.95279694  1063249736
25.96304893 23.95943069 -2.64753628  1103513281
-2.64753628 0.86787111 24.36390495  1063136462
23.52587128 26.35654259 -2.64753628  1104534653
-2.64753628 0.86787111 22.22313881  1063136462
20.40580368 28.83986092 -2.64753628  1105810058
-2.64753628 0.86787117 19.46478462  1063136462
17.52294159 30.67704582 -2.64753628  1106748766
-2.64753628 0.86787111 16.52413940  1063136462
16.01823044 31.48890114 -2.64753628  1107464450
-2.64465022 0.86800522 12.87125111  1063141043
12.30242157 32.91898727 -2.63357925  1107537742
-2.60371923 0.86990899 10.51851177  1063181348
9.93632889 32.92286682 -2.57714391  1107538482
-2.55369902 0.87224120 7.65981293  1063225802
7.10194492 32.92481232 -2.52411938  1107560135
-2.49513626 0.87497962 2.77296495  1063255722
1.16444552 33.27493668 -2.49513626  1107634262
-2.49513626 0.87497962 29.37470818  1063452702
29.27642822 6.32847214 -2.49513626  1088002372
-2.49513626 0.88672054 29.05702591  1063452702
30.42249489 9.19632149 -2.64753628  1092797584
-2.64753628 0.88023299 29.94194031  1063343859
29.58253860 11.61782169 -2.64753628  1095306971
-2.64753628 0.88023299 28.98581696  1063343859
28.55019760 13.96376419 -2.64753628  1097253563
-2.64753628 0.88023299 28.08484840  1063343859
27.59026146 15.77586269 -2.64753628  1099252497
-2.64753628 0.88023299 26.79469681  1063343859
26.22933769 17.94776154 -2.64753628  1100367578
-2.64753628 0.88023299 25.08320808  1063362248
23.48828888 19.02328110 -2.51787400  1100822574
-2.50275636 0.88639504 22.07922554  1063447241
21.74765015 20.72887611 -2.50275636  1102270359
-2.50275636 0.88639504 20.77871132  1063343859
19.99204445 24.70664978 -2.64753628  1103964377
-2.64753628 0.88023299 18.35715675  1063343859
16.64583015 27.07428360 -2.64753628  1104987923
-2.64753628 0.88023299 14.41007042  1063343859
13.48869133 28.77768707 -2.64753628  1106031490
-2.64753628 0.88023299 10.64424038  1063343859
10.15973759 30.11445808 -2.64753628  1106391563
-2.64753628 0.88023299 9.18293095  1063343859
8.69088459 30.57072258 -2.64753628  1106618327
-2.64753628 0.88023299 6.70133352  1063343859
6.19925880 31.17161369 -2.64753628  1106912249
-2.64753628 0.88023299 4.68388128  1063343859
3.15754652 31.62483788 -2.64753628  1107124108
-2.64753628 0.88023299 1.62380517  1063343859
0.08627392 31.78195953 -2.64753628  1085801191
-2.49513626 0.89644140 26.50580025  1063615792
26.40267181 6.60557842 -2.49513626  1088486212
-2.49513626 0.89644140 26.17582893  1063615791
26.05217552 7.87523174 -2.49513626  1090827841
-2.49513626 0.89644140 27.35944366  1063515701
27.20675659 9.68386841 -2.64753628  1092743614
-2.64753628 0.89047557 26.52563667  1063515701
26.33797455 11.84465885 -2.64753628  1094994378
-2.64753628 0.89047557 25.51930809  1063515701
25.29789734 13.92843723 -2.64753628  1098001751
-2.64753628 0.89047557 24.34701347  1063515701
24.09329033 15.92163086 -2.64753628  1099069255
-2.64753628 0.89047557 23.01639175  1063515696
22.14556885 18.53534317 -2.64753628  1100422942
-2.64753628 0.89047557 19.94627380  1063595322
19.45458603 19.15164375 -2.50275636  1100723266
-2.50275636 0.89614218 18.50523186  1063610771
18.17903519 20.36637115 -2.50275636  1101645509
-2.50275636 0.89614218 16.82778740  1063610771
16.47880745 21.76500130 -2.50275636  1102068062
-2.50275636 0.89614218 15.76808357  1063610771
16.29774666 23.84047508 -2.64753628  1103154535
-2.64753628 0.89047557 14.72638893  1063515701
14.32370949 25.07621002 -2.64753628  1104014132
-2.64753628 0.89047557 12.67676353  1063515701
12.25650597 26.14885712 -2.64753628  1104330459
-2.64753628 0.89047557 11.40653801  1063515701
10.54470539 26.88483429 -2.64753628  1104701787
-2.64753628 0.89047557 8.78901672  1063515701
8.34407902 27.64708710 -2.64753628  1105147664
-2.64753628 0.89047557 6.99671173  1063515701
6.08917046 28.22953796 -2.64753628  1105369026
-2.64753628 0.89047557 2.86910343  1063515701
1.94056070 28.81352234 -2.64753628  1105657157
-2.64753628 0.89047557 0.07838771  1063515701
24.45407104 4.87450218 -2.49513626  1084790401
-2.49513626 0.90462142 24.08881569  1063753029
23.74897194 7.59924984 -2.49513626  1090480012
-2.49513626 0.90462142 24.62708473  1063660392
24.30225372 10.46113968 -2.64753628  1093509409
-2.64753628 0.89909983 23.95211601  1063660392
23.57703972 12.00658035 -2.64753628  1095901595
-2.64753628 0.89909983 22.53288841  1063660392
21.59170532 15.29160404 -2.64753628  1098528000
-2.64753628 0.89909983 21.08715057  1063660392
20.82660675 16.31830978 -2.64753628  1099249572
-2.64753628 0.89909983 19.73090935  1063660392
19.15195847 18.25478363 -2.64753628  1100250546
-2.64753628 0.89909977 18.55304527  1063660394
17.51291656 18.99419785 -2.58524561  1100480241
-2.54839087 0.90268809 15.73299408  1063748383
15.09754372 19.94066238 -2.50275636  1101344398
-2.50275636 0.90434450 13.78020000  1063748383
13.44167423 21.09234619 -2.50275636  1101689757
-2.50275636 0.90434450 12.75421143  1063748384
12.40546131 21.71796989 -2.50275636  1102008958
-2.50275636 0.90434450 11.69835567  1063748384
11.34138680 22.29508209 -2.50302029  1103079438
-2.64753628 0.89909983 10.84120750  1063660392
10.45043755 24.30685425 -2.64753628  1103349565
-2.64753628 0.89909983 8.86119175  1063660392
7.64467382 25.32970428 -2.64753628  1103977459
-2.64753628 0.89909983 5.99529505  1063660392
5.57877731 25.86333466 -2.64753628  1104124297
-2.64753628 0.89909983 4.32095337  1063660392
3.05300689 26.28143501 -2.64753628  1104342549
-2.64753628 0.89909983 0.92533642  1063660392
0.49865210 26.45347023 -2.64753628  1083172569
-2.49513626 0.91159946 22.40307045  1063870101
21.90940857 7.01062298 -2.49513626  1089183497
-2.49513626 0.91159946 21.67183495  1063870101
21.54457283 8.06240368 -2.49513626  1090947830
-2.49513626 0.91159946 22.57260513  1063783886
22.26121712 10.01126862 -2.64753628  1093003216
-2.64753628 0.90646064 21.92666245  1063783885
21.56927109 11.42602539 -2.64753628  1095191695
-2.64753628 0.90646064 20.14423370  1063783886
19.68906784 14.42664146 -2.64753628  1097916024
-2.64753628 0.90646058 17.66847801  1063783886
17.39450073 17.12363434 -2.64753628  1099642719
-2.64753628 0.90646064 16.83301544  1063783885
15.95811367 18.46958542 -2.64753628  1100336143
-2.64753628 0.90646058 15.35396290  1063783886
13.90170479 18.99018669 -2.55273581  1100477502
-2.52380705 0.91063046 13.02179432  1063865779
12.08496952 19.65608597 -2.50275636  1101023533
-2.50275636 0.91134185 11.11983013  1063865779
10.46179199 20.56597137 -2.50275636  1101472868
-2.50275636 0.91134185 9.45453262  1063865779
9.11374950 21.19782257 -2.50275636  1101781168
-2.50275636 0.91134185 8.07751656  1063865779
7.72777796 21.74142456 -2.50275636  1101981689
-2.50275636 0.91134185 7.02235746  1063865779
6.66685963 22.08983994 -2.50275636  1102155360
-2.50275636 0.91134185 5.95075464  1063865779
5.59027767 22.38652229 -2.50275636  1103070452
-2.64753628 0.90646064 3.59723473  1063783886
2.03285360 24.32395744 -2.64753628  1103287332
-2.64753628 0.90646064 1.24708843  1063783886
0.46003342 24.40442848 -2.64753628  1082493480
-2.49513626 0.91762149 20.86533737  1063971134
20.78985786 4.84634399 -2.49513626  1086002812
-2.49513626 0.91762149 20.33174324  1063971134
19.99317932 7.48184204 -2.49513626  1091872093
-2.64753628 0.91281569 20.50565720  1063890506
20.01609612 10.60325336 -2.64753628  1093585902
-2.64753628 0.91281569 19.66360664  1063890506
19.47966003 11.55923939 -2.64753628  1094579120
-2.64753628 0.91281569 19.09660912  1063890506
18.89760017 12.48814869 -2.64753628  1096779328
-2.64753628 0.91281569 17.60218430  1063890506
16.14194489 15.89058685 -2.64753628  1098985735
-2.64753628 0.91281569 15.62088966  1063890506
15.08359241 16.89847374 -2.64753628  1099629227
-2.64753628 0.91281569 14.24834824  1063890506
13.67286301 18.05895805 -2.64753628  1100322861
-2.64753628 0.91281569 12.47982979  1063890506
12.08975601 18.97095680 -2.62937832  1100467184
-2.60345292 0.91420323 11.25026608  1063926881
10.84222984 18.98125839 -2.55502176  1100473817
-2.51086235 0.91712439 9.39930058  1063967092
8.77372646 19.53239441 -2.50275636  1100832517
-2.50275636 0.91738057 7.81846523  1063967092
7.49586153 20.05753899 -2.50275636  1101096998
-2.50275636 0.91738057 5.52224493  1063967092
5.18777657 20.77449989 -2.50275636  1101453319
-2.50275636 0.91738057 4.51486826  1063967092
4.17660522 21.00116158 -2.50275636  1101647990
-2.50275636 0.91738057 1.43885124  1063967092
1.09400070 21.38447952 -2.50275636  1101743335
-2.50275636 0.91738057 0.05812228  1063967092
19.52656746 3.89229059 -2.49513626  1082564117
-2.49513626 0.92287099 19.39083862  1064059206
19.14943886 5.45306683 -2.49513626  1085824111
-2.49513626 0.92287099 18.96355057  1064059206
18.86319351 6.37314320 -2.49513626  1087743722
-2.49513626 0.92287099 18.64776802  1064059206
18.53276253 7.27829266 -2.49513626  1089630524
-2.49513626 0.92287099 18.28831291  1064059206
18.02482605 8.45828247 -2.49513626  1092500558
-2.64753628 0.91835767 18.50716972  1063983485
18.34037781 10.48686028 -2.64753628  1093741408
-2.64753628 0.91835767 17.62591553  1063983485
17.24097443 12.21034050 -2.64753628  1095223887
-2.64753628 0.91835767 16.83808517  1063983485
16.41766930 13.29675388 -2.64753628  1096889674
-2.64753628 0.91835761 15.52599907  1063983485
15.29283619 14.57645130 -2.64753628  1097671649
-2.64753628 0.91835767 14.56970787  1063983485
13.55275249 16.20698738 -2.64753628  1099240980
-2.64753628 0.91835767 12.47938728  1063983485
12.20275211 17.24634743 -2.64753628  1099954851
-2.64753628 0.91835767 10.77337646  1063983485
10.47878838 18.34498787 -2.64753628  1100391637
-2.64753628 0.91835767 8.88833427  1063994926
8.15498352 18.96780777 -2.58735204  1100464779
-2.57015800 0.92064643 6.74472094  1064044983
5.77045822 19.11972427 -2.50275636  1100635664
-2.50275636 0.92264479 3.26160002  1064055411
2.94329929 19.75345421 -2.50275636  1100938070
-2.50275636 0.92264479 1.34202492  1064055411
1.02038097 19.94544411 -2.50275636  1100988013
-2.50275636 0.92264479 0.05421044  1064055411
18.29300308 3.64639783 -2.49513626  1082622533
-2.49513626 0.92748743 18.01977539  1064136656
17.76555252 5.68466282 -2.49513626  1086262921
-2.49513626 0.92748731 17.57289886  1064136657
17.36194611 6.81848240 -2.49513626  1089208434
-2.49513626 0.92748731 16.88612747  1064136656
17.48974419 9.26495361 -2.64753628  1092432030
-2.64753628 0.92323273 17.02099800  1064065276
16.68630981 10.64413452 -2.64753628  1093572436
-2.64753628 0.92323273 16.33423805  1064065275
16.15178108 11.43895817 -2.64753628  1094665186
-2.64753628 0.92323279 15.57946014  1064065275
14.97062683 12.94646168 -2.64753628  1095957269
-2.64753628 0.92323273 14.32672119  1064065276
13.87871456 14.11067581 -2.64753628  1097159392
-2.64753628 0.92323279 13.41627884  1064065276
12.93987274 14.97632408 -2.64753628  1098472299
-2.64753628 0.92323279 11.94713211  1064065275
11.43184566 16.15681839 -2.64753628  1099085455
-2.64753628 0.92323279 10.63678932  1064065275
10.09278107 17.02545929 -2.64753628  1099529481
-2.64753628 0.92323279 9.25724030  1064065276
8.97381687 17.64087677 -2.64753628  1099914910
-2.64753628 0.92323279 8.10981750  1064065276
7.52315760 18.30660820 -2.64753628  1100239234
-2.64753628 0.92323273 6.02357531  1064065275
5.05894613 18.95242119 -2.62397003  1100456639
-2.60318875 0.92446882 4.08869839  1064090358
3.76987195 18.95599365 -2.58534241  1100457741
-2.57748675 0.92518598 2.20222831  1064109536
1.58435130 18.95744133 -2.54471803  1100457250
-2.53608584 0.92634231 0.05145659  1064117698
17.08414078 3.98249769 -2.49513626  1082670628
-2.49513626 0.93157834 16.94677162  1064205291
16.87145805 4.80437469 -2.49513626  1084953542
-2.49513626 0.93157834 16.61926270  1064205291
16.42947006 6.14823008 -2.49513626  1087740436
-2.49513626 0.93157834 16.11277390  1064205291
15.99878407 7.19493866 -2.49513626  1089370016
-2.49513626 0.93157834 15.63194752  1064205291
15.50148678 8.21170235 -2.49513626  1091002132
-2.49513626 0.93157828 16.00748062  1064137779
15.69270706 10.01031685 -2.64753628  1092891109
-2.64753628 0.92755431 15.19002438  1064137779
14.27377987 11.94683456 -2.64753628  1095367054
-2.64753628 0.92755431 13.47363281  1064137779
13.26470184 13.05814743 -2.64753628  1097303133
-2.64753628 0.92755431 11.47367573  1064137779
10.99486160 15.01933765 -2.64753628  1098243084
-2.64753628 0.92755431 10.00341225  1064137779
8.97029972 16.30954552 -2.64753628  1099144699
-2.64753628 0.92755431 8.17072296  1064137779
7.62691879 16.97932816 -2.64753628  1099545465
-2.64753628 0.92755431 5.95019579  1064137779
5.66489506 17.73066521 -2.64753628  1099947821
-2.64753628 0.92755431 4.50968742  1064137779
4.21776104 18.12948036 -2.64753628  1100090500
-2.64753628 0.92755431 3.03983998  1064137779
2.74318409 18.41038895 -2.64753628  1100212761
-2.64753628 0.92755431 1.84926140  1064137779
1.55021441 18.54897308 -2.64753628  1100271977
-2.64753628 0.92755431 0.35079351  1064137779
16.23475456 3.23611999 -2.49513626  1080023246
-2.49513626 0.93522841 16.12190056  1064266529
16.05917549 4.01778460 -2.49513626  1082709961
-2.49513626 0.93522841 15.92119980  1064266528
15.59568310 5.55106878 -2.49513626  1086432335
-2.49513626 0.93522841 15.09767437  1064266528
14.98617744 7.03237391 -2.49513626  1088994887
-2.49513626 0.93522841 14.75150490  1064266528
14.23634529 8.44785595 -2.49513626  1091784009
-2.64753628 0.93141097 14.80883884  1064202484
13.82652950 10.83352280 -2.64753628  1094178341
-2.64753628 0.93141097 13.09910583  1064202483
12.90860462 11.91243267 -2.64753628  1094838259
-2.64753628 0.93141097 10.14559650  1064202484
9.91294956 14.50074673 -2.64753628  1097820649
-2.64753628 0.93141103 8.95719051  1064202484
8.46506310 15.39093494 -2.64753628  1098546956
-2.64753628 0.93141097 7.19734383  1064202484
6.93791914 16.13702202 -2.64753628  1099092431
-2.64753628 0.93141097 6.14907837  1064202483
5.88283491 16.55084038 -2.64753628  1099335507
-2.64753628 0.93141103 3.70367932  1064202484
3.42619109 17.22786522 -2.64753628  1099604651
-2.64753628 0.93141103 2.58867455  1064202484
2.30806875 17.41295052 -2.64753628  1099666776
-2.64753628 0.93141103 1.74511409  1064202483
1.18032885 17.52554893 -2.64753628  1099716265
-2.64753628 0.93141097 0.61431634  1064202483
0.33105004 17.56213379 -2.64753628  1080273720
-2.49513626 0.93850493 14.58494949  1064321500
14.29075050 6.42680836 -2.49513626  1088654002
-2.49513626 0.93850493 13.84654903  1064321500
13.72641468 7.55744553 -2.49513626  1090742066
-2.49513626 0.93850493 13.87127876  1064260581
13.56833744 9.60931683 -2.64753628  1092434742
-2.64753628 0.93487388 13.25127125  1064260581
12.92041206 10.46430779 -2.64753628  1093320192
-2.64753628 0.93487388 12.57609081  1064260581
12.39900112 11.07716274 -2.64753628  1094159063
-2.64753628 0.93487382 11.65883923  1064260581
11.27036953 12.22364235 -2.64753628  1095136833
-2.64753628 0.93487388 10.87015343  1064260581
10.66577339 12.75460625 -2.64753628  1095858450
-2.64753628 0.93487382 10.03620052  1064260581
9.82105064 13.41587257 -2.64753628  1096362296
-2.64753628 0.93487388 9.38313389  1064260580
9.16048527 13.87530518 -2.64753628  1096832815
-2.64753628 0.93487388 8.70808411  1064260580
8.47845364 14.30225277 -2.64753628  1097268907
-2.64753628 0.93487388 8.01263332  1064260580
7.77656364 14.69570541 -2.64753628  1097669543
-2.64753628 0.93487382 7.29839849  1064260581
7.05646229 15.05473518 -2.64753628  1098146953
-2.64753628 0.93487388 6.31984043  1064260581
5.82042885 15.57438183 -2.64753628  1098649748
-2.64753628 0.93487388 5.06011343  1064260580
4.80394840 15.91731167 -2.64753628  1098976375
-2.64753628 0.93487388 3.76747084  1064260581
3.50573134 16.25264549 -2.64753628  1099068651
-2.64753628 0.93487388 2.71530604  1064260581
2.45031834 16.44489479 -2.64753628  1099160504
-2.64753628 0.93487388 1.91852355  1064260581
0.58148217 16.61627197 -2.64753628  1099234537
-2.64753628 0.93487388 0.04513408  1064260581
14.58544254 2.90735888 -2.49513626  1078532903
-2.49513626 0.94146234 14.42770100  1064371117
14.36759090 3.84189892 -2.49513626  1082283905
-2.49513626 0.94146234 14.16489124  1064371117
14.01129723 4.98712683 -2.49513626  1086073709
-2.49513626 0.94146234 13.56387997  1064371117
13.25287724 6.74901152 -2.49513626  1088342066
-2.49513626 0.94146234 12.79005432  1064371117
12.66594696 7.79496861 -2.49513626  1090728265
-2.49513626 0.94146234 12.87820816  1064313029
12.72939396 9.32712841 -2.64753628  1092124694
-2.64753628 0.93800002 12.10141087  1064313029
11.93643379 10.32251930 -2.64753628  1093154893
-2.64753628 0.93800002 11.42303467  1064313030
10.50855732 11.77296448 -2.64753628  1094651452
-2.64753628 0.93800002 10.12327766  1064313029
9.52572918 12.58146858 -2.64753628  1095482478
-2.64753628 0.93800002 8.69455338  1064313029
8.48096275 13.30811977 -2.64753628  1096629456
-2.64753628 0.93800002 6.69754744  1064313029
6.23308563 14.49763680 -2.64753628  1097435767
-2.64753628 0.93800002 5.76213741  1064313029
5.28519154 14.86941814 -2.64753628  1097972011
-2.64753628 0.93800002 3.82334518  1064313029
3.32741499 15.42599010 -2.64753628  1098359936
-2.64753628 0.93800002 2.32569051  1064313028
2.07359052 15.64394379 -2.64753628  1098595906
-2.64753628 0.93800002 1.31428206  1064313029
0.29741952 15.77797413 -2.64753628  1076955785
-2.49513626 0.94414485 13.83117485  1064416122
13.78114128 3.21253371 -2.49513626  1082785890
-2.49513626 0.94414485 13.33132553  1064416122
13.25304127 4.95954704 -2.49513626  1085475246
-2.49513626 0.94414485 12.90562344  1064416122
12.81031227 6.01133156 -2.49513626  1086780272
-2.49513626 0.94414485 12.60971451  1064416122
12.39598465 6.82494068 -2.49513626  1088472292
-2.49513626 0.94414485 12.05126667  1064416122
11.93004990 7.61013412 -2.49513626  1090500266
-2.49513626 0.94414485 11.54789448  1064416122
11.41442966 8.36363888 -2.49513626  1092235627
-2.64753628 0.94083619 11.03437805  1064360613
10.86868000 10.35953426 -2.64753628  1093531851
-2.64753628 0.94083619 9.99858379  1064360612
9.63199520 11.51836967 -2.64753628  1094369685
-2.64753628 0.94083619 9.25538635  1064360612
8.47367573 12.39536095 -2.64753628  1095673853
-2.64753628 0.94083619 7.02281952  1064360612
6.59102154 13.49098015 -2.64753628  1096386407
-2.64753628 0.94083619 5.93059492  1064360612
4.56966066 14.30266953 -2.64753628  1097203216
-2.64753628 0.94083619 3.87233734  1064360612
3.63779783 14.56758881 -2.64753628  1097465204
-2.64753628 0.94083619 2.92873693  1064360612
2.69078422 14.77186012 -2.64753628  1097702808
-2.64753628 0.94083619 1.49173021  1064360612
0.28298461 15.01226521 -2.64753628  1077311270
-2.49513626 0.94658887 13.03584290  1064457126
12.91660500 3.90451837 -2.49513626  1082799830
-2.49513626 0.94658887 12.71257496  1064457126
12.63792324 4.72935915 -2.49513626  1084086296
-2.49513626 0.94658887 12.47877312  1064457126
12.39431572 5.33525276 -2.49513626  1086175122
-2.49513626 0.94658887 12.02445412  1064457126
11.82064533 6.50817347 -2.49513626  1087788599
-2.49513626 0.94658887 11.60452938  1064457127
11.37633610 7.25692129 -2.49513626  1089722447
-2.49513626 0.94658887 10.88467121  1064457126
10.75459194 8.15001297 -2.49513626  1090857151
-2.49513626 0.94658893 10.83003521  1064403972
10.67752552 9.53921509 -2.64753628  1092834229
-2.64753628 0.94342065 9.70559788  1064403972
9.53451443 10.68172455 -2.64753628  1093490867
-2.64753628 0.94342065 9.00655174  1064403972
8.45750046 11.55322075 -2.64753628  1094659728
-2.64753628 0.94342065 7.10165739  1064403972
6.28510904 12.86482048 -2.64753628  1095825766
-2.64753628 0.94342065 5.65533638  1064403972
5.22804117 13.32943439 -2.64753628  1096276934
-2.64753628 0.94342065 4.35757065  1064403972
3.69260883 13.83368587 -2.64753628  1096753465
-2.64753628 0.94342065 3.01899624  1064403972
2.79280519 14.04302120 -2.64753628  1097013804
-2.64753628 0.94342065 0.50075179  1064403972
0.26984957 14.31549263 -2.64753628  1097143925
-2.64753628 0.94342065 12.64480209  1064494639
12.34200001 3.73082328 -2.49513626  1081834529
-2.49513626 0.94882482 12.21521950  1064494639
12.00124359 4.71319580 -2.49513626  1084030848
-2.49513626 0.94882482 11.84294510  1064494639
11.67231750 5.47731924 -2.49513626  1088283671
-2.49513626 0.94882482 10.75697327  1064494639
10.40046024 7.62066269 -2.49513626  1090418840
-2.49513626 0.94882482 9.88737011  1064494639
9.75257587 8.43393898 -2.49513626  1091688052
-2.64753628 0.94578534 10.05415916  1064443645
9.90316200 9.43924999 -2.64753628  1092358058
-2.64753628 0.94578534 9.43489265  1064443645
9.27383614 10.05823803 -2.64753628  1092832766
-2.64753628 0.94578534 8.94452000  1064443645
8.60588646 10.63536644 -2.64753628  1093426548
-2.64753628 0.94578534 8.25830269  1064443645
8.08126450 11.03926945 -2.64753628  1093841141
-2.64753628 0.94578534 7.53762388  1064443648
7.16545963 11.65454769 -2.64753628  1094470734
-2.64753628 0.94578534 6.59320354  1064443645
6.39895296 12.09238052 -2.64753628  1094916810
-2.64753628 0.94578534 5.80641699  1064443645
5.60580730 12.47986412 -2.64753628  1095485586
-2.64753628 0.94578534 4.78934765  1064443645
4.16371822 13.03210163 -2.64753628  1095864239
-2.64753628 0.94578534 3.74112654  1064443645
3.31463671 13.27348709 -2.64753628  1096102949
-2.64753628 0.94578534 2.45175266  1064443645
2.23429298 13.49741459 -2.64753628  1096319452
-2.64753628 0.94578534 1.79769158  1064443645
1.57865870 13.58970451 -2.64753628  1096405122
-2.64753628 0.94578534 1.13941228  1064443645
0.69899130 13.66322231 -2.64753628  1096467323
-2.64753628 0.94578534 0.25784552  1064443645
0.03713683 13.68104172 -2.64753628  1077106036
-2.49513626 0.95087790 11.97367859  1064529084
11.92379093 3.18842483 -2.49513626  1080332901
-2.49513626 0.95087790 11.75556946  1064529084
11.69335556 3.95072532 -2.49513626  1082421639
-2.49513626 0.95087790 11.48852348  1064529084
11.41424274 4.69658709 -2.49513626  1085114464
-2.49513626 0.95087790 10.99868298  1064529084
10.40585518 6.63785505 -2.49513626  1088012660
-2.49513626 0.95087790 9.59153271  1064529084
9.46496105 7.92195988 -2.49513626  1090596239
-2.49513626 0.95087790 9.20446110  1064529084
9.03181744 9.48406219 -2.64753628  1092226678
-2.64753628 0.94795698 8.72115517  1064480079
8.40140152 10.04676914 -2.64753628  1092805984
-2.64753628 0.94795698 8.07291126  1064480079
7.56453180 10.69107056 -2.64753628  1093467337
-2.64753628 0.94795698 7.21569252  1064480079
6.85933781 11.15664005 -2.64753628  1094054968
-2.64753628 0.94795698 6.31153011  1064480079
6.12557745 11.57576752 -2.64753628  1094469401
-2.64753628 0.94795698 5.55835676  1064480079
5.36632395 11.94670105 -2.64753628  1094832467
-2.64753628 0.94795698 4.58473539  1064480079
4.18657351 12.40942001 -2.64753628  1095277502
-2.64753628 0.94795698 3.58129716  1064480079
2.96762800 12.75595093 -2.64753628  1095599442
-2.64753628 0.94795698 2.13883948  1064480079
1.72089171 12.98305130 -2.64753628  1095771490
-2.64753628 0.94795698 0.45803457  1064480079
0.24682982 13.09427834 -2.64753628  1095863168
-2.64753628 0.94795698 11.56822109  1064560820
11.52637291 2.68691921 -2.49513626  1077401436
-2.49513626 0.95276952 11.38287926  1064560820
11.32910347 3.42463732 -2.49513626  1081242684
-2.49513626 0.95276952 11.15015125  1064560820
11.01631451 4.32638931 -2.49513626  1083555506
-2.49513626 0.95276952 10.71438313  1064560820
10.36784554 5.70829344 -2.49513626  1086062196
-2.49513626 0.95276952 10.17829037  1064560820
9.97814178 6.36501932 -2.49513626  1087426087
-2.49513626 0.95276952 9.76760674  1064560820
9.65851212 6.84031773 -2.49513626  1088411909
-2.49513626 0.95276952 9.31626511  1064560820
9.19729424 7.44893360 -2.49513626  1089672508
-2.49513626 0.95276952 8.82612991  1064560820
8.69777584 8.02655220 -2.49513626  1090836726
-2.49513626 0.95276952 8.66058064  1064513653
8.36268806 9.36890030 -2.64753628  1092232223
-2.64753628 0.94995815 7.89961004  1064513653
7.74108887 9.88870144 -2.64753628  1092629088
-2.64753628 0.94995815 7.41804504  1064513653
7.08727646 10.36732388 -2.64753628  1093348171
-2.64753628 0.94995815 6.40395117  1064513653
6.22884035 10.90469551 -2.64753628  1093962236
-2.64753628 0.94995815 5.32989264  1064513653
4.77350521 11.61570168 -2.64753628  1094465514
-2.64753628 0.94995815 3.82200575  1064513653
3.43409681 12.07964611 -2.64753628  1094906434
-2.64753628 0.94995815 2.05092716  1064513653
1.85077953 12.42116928 -2.64753628  1095184585
-2.64753628 0.94995815 1.04590642  1064513653
0.64162999 12.54190063 -2.64753628  1095290713
-2.64753628 0.94995809 0.23668693  1064513653
0.03409534 12.55825615 -2.64753628  1074673018
-2.49513626 0.95451802 11.10995293  1064590155
11.06975555 2.58047843 -2.49513626  1076924147
-2.49513626 0.95451802 10.76854134  1064590155
10.64556217 3.98377895 -2.49513626  1082455483
-2.49513626 0.95451802 10.36649799  1064590155
10.28993893 4.82862949 -2.49513626  1084215014
-2.49513626 0.95451802 10.12879848  1064590155
9.58286381 6.11287260 -2.49513626  1086883995
-2.49513626 0.95451802 9.38066959  1064590155
9.16870785 6.71812963 -2.49513626  1088139113
-2.49513626 0.95451802 8.94720650  1064590155
8.83294582 7.15384769 -2.49513626  1089041414
-2.49513626 0.95451802 8.47648907  1064590155
8.35321712 7.70858431 -2.49513626  1090761495
-2.49513626 0.95451802 7.70491886  1064590155
8.03139973 8.99775219 -2.64753628  1091699901
-2.64753628 0.95180804 7.58667231  1064544689
7.43442869 9.49696445 -2.64753628  1092213185
-2.64753628 0.95180804 6.64500856  1064544689
6.48176479 10.17102909 -2.64753628  1093111868
-2.64753628 0.95180804 5.81235456  1064544689
5.64111233 10.66025162 -2.64753628  1093402488
-2.64753628 0.95180804 5.29426813  1064544689
4.94190216 11.00184059 -2.64753628  1093748804
-2.64753628 0.95180804 4.22213316  1064544689
4.03932285 11.36428356 -2.64753628  1094177188
-2.64753628 0.95180804 3.48478293  1064544689
3.29805636 11.60111713 -2.64753628  1094349294
-2.64753628 0.95180804 2.92207718  1064544689
2.73292208 11.74709320 -2.64753628  1094492782
-2.64753628 0.95180804 2.35251927  1064544690
2.16138601 11.86555958 -2.64753628  1094639012
-2.64753628 0.95180804 1.39169478  1064544689
1.00447190 12.01890850 -2.64753628  1094774859
-2.64753628 0.95180804 10.68512917  1064617347
10.60504246 2.65323448 -2.49513626  1077197831
-2.49513626 0.95613879 10.29897118  1064617347
10.23849392 3.83144379 -2.49513626  1082114155
-2.49513626 0.95613879 10.10955906  1064617347
10.04113579 4.32230425 -2.49513626  1083144893
-2.49513626 0.95613879 9.40129280  1064617348
8.81811523 6.46123838 -2.49513626  1087881563
-2.49513626 0.95613879 8.38308620  1064617347
8.03379726 7.41381645 -2.49513626  1089559504
-2.49513626 0.95613879 7.79044962  1064617347
7.53897858 7.91647387 -2.49513626  1090557899
-2.49513626 0.95613885 7.27966118  1064617347
7.14714527 8.27194595 -2.49513626  1091585728
-2.64753628 0.95352304 7.00186729  1064573462
6.69987679 9.46904469 -2.64753628  1092171494
-2.64753628 0.95352304 6.23390865  1064573462
5.91508675 9.97812748 -2.64753628  1092691949
-2.64753628 0.95352304 5.59009981  1064573462
5.42540264 10.25262260 -2.64753628  1093380583
-2.64753628 0.95352304 3.53024006  1064573462
3.35152364 11.10488033 -2.64753628  1093931141
-2.64753628 0.95352304 2.26255679  1064573462
2.07873678 11.41184044 -2.64753628  1094160706
-2.64753628 0.95352304 0.96606046  1064573461
0.77945870 11.57340527 -2.64753628  1094286078
-2.64753628 0.95352304 10.32469177  1064642622
10.25292206 2.39006209 -2.49513626  1076070323
-2.49513626 0.95764530 10.17047882  1064642622
10.07744884 3.04627728 -2.49513626  1078810466
-2.49513626 0.95764530 9.97392845  1064642622
9.91826725 3.53027010 -2.49513626  1080829427
-2.49513626 0.95764530 9.79921532  1064642622
9.66996288 4.16252851 -2.49513626  1082797305
-2.49513626 0.95764530 9.53064060  1064642622
9.45725060 4.62549925 -2.49513626  1083760895
-2.49513626 0.95764530 9.22239017  1064642622
9.13927460 5.22575283 -2.49513626  1085313652
-2.49513626 0.95764530 8.87574482  1064642622
8.78324890 5.80425501 -2.49513626  1086209801
-2.49513626 0.95764530 8.59142780  1064642622
8.39066219 6.35858583 -2.49513626  1087358880
-2.49513626 0.95764530 7.73683071  1064642622
7.50247097 7.38564491 -2.49513626  1089482464
-2.49513626 0.95764530 7.01056862  1064642622
6.75353384 8.07617760 -2.49513626  1090931615
-2.49513626 0.95764530 6.45221615  1064600208
6.15467072 9.32242870 -2.64753628  1092108820
-2.64753628 0.95511723 4.90359974  1064600208
4.74103785 10.11485004 -2.64753628  1092815442
-2.64753628 0.95511723 4.41225624  1064600208
4.24612093 10.33238125 -2.64753628  1093102718
-2.64753628 0.95511723 3.74126101  1064600208
3.57096744 10.58469963 -2.64753628  1093288254
-2.64753628 0.95511723 3.22763968  1064600208
2.88094902 10.79295063 -2.64753628  1093580563
-2.64753628 0.95511723 2.17892790  1064600209
2.00189567 10.98999596 -2.64753628  1093686644
-2.64753628 0.95511723 1.28899825  1064600208
1.10981822 11.11557007 -2.64753628  1093817428
-2.64753628 0.95511729 0.03032053  1064600208
9.95524025 1.98440766 -2.49513626  1074348958
-2.49513626 0.95904911 9.88603878  1064666174
9.80654621 2.62227464 -2.49513626  1077013952
-2.49513626 0.95904911 9.71684456  1064666174
9.66819382 3.09365296 -2.49513626  1078981437
-2.49513626 0.95904911 9.50720024  1064666174
9.38747406 3.86264038 -2.49513626  1082785351
-2.49513626 0.95904911 9.11883831  1064666174
9.04570198 4.60651159 -2.49513626  1083707165
-2.49513626 0.95904911 8.89238167  1064666174
8.81223965 5.03875971 -2.49513626  1084605633
-2.49513626 0.95904911 8.46895409  1064666174
8.37756538 5.73245525 -2.49513626  1086045525
-2.49513626 0.95904911 8.09041595  1064666174
7.88841391 6.38886499 -2.49513626  1087666977
-2.49513626 0.95904911 7.57007265  1064666174
7.34795189 7.00373507 -2.49513626  1088676400
-2.49513626 0.95904911 7.11817741  1064666174
7.00049829 7.35103369 -2.49513626  1089392891
-2.49513626 0.95904911 6.63665199  1064666174
6.51186943 7.78718472 -2.49513626  1090504801
-2.49513626 0.95904911 5.99613428  1064666174
5.93443632 8.98883915 -2.64753628  1092026686
-2.64753628 0.95660293 5.03788948  1064625134
4.72813368 9.67788792 -2.64753628  1092357095
-2.64753628 0.95660293 3.93292475  1064625134
3.77064633 10.08954906 -2.64753628  1092772498
-2.64753628 0.95660293 2.94538498  1064625134
2.60960913 10.45020199 -2.64753628  1093241917
-2.64753628 0.95660293 1.75905657  1064625134
1.58738935 10.65349579 -2.64753628  1093326830
-2.64753628 0.95660293 1.24287629  1064625134
0.89705861 10.73369026 -2.64753628  1093424717
-2.64753628 0.95660293 9.60995483  1064688172
9.42435265 2.68371177 -2.49513626  1077245748
-2.49513626 0.96036029 9.28347683  1064688171
9.23166847 3.28588390 -2.49513626  1079758071
-2.49513626 0.96036023 9.12085724  1064688172
9.00055313 3.87437391 -2.49513626  1082471689
-2.49513626 0.96036023 8.73196411  1064688172
8.65908909 4.58703375 -2.49513626  1083653238
-2.49513626 0.96036029 8.50660038  1064688172
8.42702389 5.00059986 -2.49513626  1085887786
-2.49513626 0.96036029 7.71331835  1064688171
7.61481571 6.16727781 -2.49513626  1086931493
-2.49513626 0.96036029 7.41188622  1064688172
7.30751371 6.52847290 -2.49513626  1087678475
-2.49513626 0.96036023 7.09309721  1064688172
6.87129259 6.98613453 -2.49513626  1088623371
-2.49513626 0.96036029 6.64234066  1064688172
6.52525759 7.31038618 -2.49513626  1089506316
-2.49513626 0.96036029 6.04023170  1064688172
5.78816748 7.90682173 -2.49513626  1090705264
-2.49513626 0.96036029 5.13222504  1064688172
4.99688816 8.42922497 -2.49513626  1091683449
-2.64753628 0.95799071 4.71426439  1064648416
4.56414557 9.34222507 -2.64753628  1092002399
-2.64753628 0.95799071 4.10681248  1064648417
3.95218015 9.61711502 -2.64753628  1092343150
-2.64753628 0.95799071 3.48226929  1064648417
2.84322810 10.00123310 -2.64753628  1092664217
-2.64753628 0.95799071 2.51909971  1064648417
2.35602903 10.12708187 -2.64753628  1092856532
-2.64753628 0.95799071 1.53233516  1064648416
1.03299117 10.34608841 -2.64753628  1093026361
-2.64753628 0.95799071 0.19595999  1064648416
0.02822357 10.39749146 -2.64753628  1072492815
-2.49513626 0.96158755 9.25543308  1064708762
9.18607044 2.29822803 -2.49513626  1075613022
-2.49513626 0.96158755 9.10714626  1064708762
8.97101021 3.03095627 -2.49513626  1078671339
-2.49513626 0.96158755 8.86856174  1064708762
8.75687885 3.60316968 -2.49513626  1082177859
-2.49513626 0.96158755 8.50629044  1064708762
8.36764240 4.43264389 -2.49513626  1083599037
-2.49513626 0.96158755 8.06436825  1064708762
7.98325253 5.09248638 -2.49513626  1084690249
-2.49513626 0.96158755 7.72752428  1064708762
7.63823032 5.59671116 -2.49513626  1085735870
-2.49513626 0.96158755 7.45370626  1064708762
7.35851383 5.95969963 -2.49513626  1087673189
-2.49513626 0.96158755 6.64001751  1064708762
6.53024483 6.85723305 -2.49513626  1088556801
-2.49513626 0.96158755 6.19083977  1064708762
6.07443857 7.26408529 -2.49513626  1089179250
-2.49513626 0.96158755 5.34394264  1064708762
5.08897305 7.98549366 -2.49513626  1090588827
-2.49513626 0.96158755 4.42895794  1064708762
4.26430845 9.09776211 -2.64753628  1091875287
-2.64753628 0.95928973 3.66873455  1064670211
3.21189165 9.52036667 -2.64753628  1092166293
-2.64753628 0.95928973 2.27672958  1064670211
1.95982826 9.85457802 -2.64753628  1092495513
-2.64753628 0.95928973 1.48075950  1064670211
1.32024717 9.96044827 -2.64753628  1092595695
-2.64753628 0.95928973 0.83679974  1064670211
0.67516601 10.02485847 -2.64753628  1092666031
-2.64753628 0.95928973 8.92038822  1064728075
8.88568115 2.22307467 -2.49513626  1075277508
-2.49513626 0.96273869 8.80933762  1064728075
8.76772118 2.65036869 -2.49513626  1077650259
-2.49513626 0.96273869 8.62922668  1064728075
8.52564716 3.34824252 -2.49513626  1080543051
-2.49513626 0.96273869 8.35367393  1064728075
8.29198074 3.89107418 -2.49513626  1082181478
-2.49513626 0.96273869 8.16213322  1064728075
8.09401321 4.28769398 -2.49513626  1083809710
-2.49513626 0.96273869 7.72219515  1064728075
7.55926085 5.17251921 -2.49513626  1084843727
-2.49513626 0.96273869 6.73130226  1064728075
6.63021517 6.31962395 -2.49513626  1087436719
-2.49513626 0.96273869 6.31670237  1064728075
6.20887518 6.73403740 -2.49513626  1088276846
-2.49513626 0.96273869 5.76167917  1064728075
5.41044378 7.39083862 -2.49513626  1089599516
-2.49513626 0.96273869 5.04653502  1064728075
4.92256021 7.72436380 -2.49513626  1090105420
-2.49513626 0.96273869 4.67080212  1064728075
4.15296412 8.16396332 -2.49513626  1090891627
-2.49513626 0.96273869 3.61783719  1064728075
3.69426894 8.98952103 -2.64753628  1091617892
-2.64753628 0.96050835 3.40233660  1064690655
3.25502372 9.15772438 -2.64753628  1091886888
-2.64753628 0.96050829 2.65768528  1064690655
2.04927802 9.50050354 -2.64753628  1092125801
-2.64753628 0.96050829 1.74171674  1064690655
1.43233645 9.61288261 -2.64753628  1092253476
-2.64753628 0.96050829 0.96558243  1064690655
0.80943668 9.68524075 -2.64753628  1092298514
-2.64753628 0.96050829 0.49656349  1064690656
0.33990914 9.71306038 -2.64753628  1092319739
-2.64753628 0.96050829 0.02638359  1064690655
8.69714546 1.73362792 -2.49513626  1073797623
-2.49513626 0.96382046 8.60308075  1064746224
8.48887825 2.56607842 -2.49513626  1076689115
-2.49513626 0.96382046 8.40167236  1064746224
8.30572224 3.10816503 -2.49513626  1078950105
-2.49513626 0.96382046 8.20112801  1064746224
7.90254498 4.02436161 -2.49513626  1082711792
-2.49513626 0.96382046 7.55256748  1064746224
7.47660398 4.76929665 -2.49513626  1083995415
-2.49513626 0.96382046 7.31884623  1064746224
7.23710108 5.12543488 -2.49513626  1084734090
-2.49513626 0.96382046 7.06798458  1064746224
6.98065615 5.46956539 -2.49513626  1086354679
-2.49513626 0.96382046 6.41935062  1064746223
6.01140833 6.51986933 -2.49513626  1087814572
-2.49513626 0.96382046 5.68892908  1064746224
5.57843637 6.89396667 -2.49513626  1088923852
-2.49513626 0.96382046 4.76600456  1064746223
4.52225161 7.62856197 -2.49513626  1090037716
-2.49513626 0.96382040 4.02088356  1064746223
3.89284444 7.96815491 -2.49513626  1090550413
-2.49513626 0.96382046 3.50277638  1064746224
2.13223958 9.16514301 -2.64753628  1091837698
-2.64753628 0.96165353 1.38678420  1064709869
1.23645806 9.32831478 -2.64753628  1091948614
-2.64753628 0.96165353 0.78369147  1064709869
0.63231683 9.38863945 -2.64753628  1091991396
-2.64753628 0.96165353 0.02554448  1064709869
8.42784500 1.67994738 -2.49513626  1074101388
-2.49513626 0.96483886 8.30196285  1064763310
8.26506901 2.35359025 -2.49513626  1075782861
-2.49513626 0.96483886 8.18484116  1064763310
8.09608650 2.88169003 -2.49513626  1077986154
-2.49513626 0.96483886 7.94718790  1064763310
7.89340019 3.39779162 -2.49513626  1080136833
-2.49513626 0.96483886 7.71976805  1064763310
7.65785217 3.89974976 -2.49513626  1082434045
-2.49513626 0.96483886 7.31870937  1064763310
7.24509525 4.62161779 -2.49513626  1083919194
-2.49513626 0.96483886 6.93197632  1064763310
6.76450968 5.30020809 -2.49513626  1085084572
-2.49513626 0.96483886 6.22058010  1064763310
6.02606058 6.12677526 -2.49513626  1086792797
-2.49513626 0.96483886 5.72258949  1064763310
5.51277637 6.59242439 -2.49513626  1087751852
-2.49513626 0.96483886 5.29723024  1064763310
5.18737411 6.85141706 -2.49513626  1088283916
-2.49513626 0.96483886 4.84982586  1064763310
4.50091362 7.32069445 -2.49513626  1089244715
-2.49513626 0.96483886 4.26239681  1064763310
4.14145803 7.52988005 -2.49513626  1089805102
-2.49513626 0.96483886 3.52123833  1064763310
3.00838375 8.04987144 -2.49513626  1090757191
-2.49513626 0.96483886 2.34995270  1064763310
2.08236861 8.33886051 -2.49550867  1090909129
-2.49570346 0.96483099 1.81254721  1064763133
1.67625976 8.42877102 -2.49519229  1091537123
-2.64753628 0.96273178 1.34384513  1064727959
1.19817281 9.03947258 -2.64753628  1091644608
-2.64753628 0.96273178 0.46588263  1064727959
0.31890750 9.11295795 -2.64753628  1091690215
-2.64753628 0.96273178 8.08513927  1064779423
7.85179043 2.79473615 -2.49513626  1077604946
-2.49513626 0.96579927 7.75754309  1064779423
7.65522146 3.29526353 -2.49513626  1079690749
-2.49513626 0.96579927 7.48682737  1064779423
7.36479712 3.90140009 -2.49513626  1082417669
-2.49513626 0.96579927 7.16741800  1064779423
7.09787178 4.36822605 -2.49513626  1083378102
-2.49513626 0.96579927 6.72280359  1064779423
6.47661257 5.24544096 -2.49513626  1085174775
-2.49513626 0.96579927 5.93932724  1064779423
5.84422731 5.94190073 -2.49513626  1086398991
-2.49513626 0.96579927 5.54991341  1064779423
5.44888163 6.30641413 -2.49513626  1087149967
-2.49513626 0.96579927 5.03084612  1064779423
4.92299843 6.72497320 -2.49513626  1088009835
-2.49513626 0.96579927 4.70348454  1064779423
4.13378143 7.23691988 -2.49513626  1089056626
-2.49513626 0.96579927 3.89815784  1064779423
3.77880788 7.42844391 -2.49513626  1089685563
-2.49513626 0.96579927 3.29189420  1064779423
3.04317141 7.75888395 -2.49513626  1090210799
-2.49513626 0.96579927 2.66422653  1064779423
2.53648090 7.93898058 -2.49513626  1090642302
-2.49513626 0.96579927 1.75731671  1064779423
1.62565374 8.17425251 -2.49513626  1090728140
-2.49513626 0.96579927 1.36110091  1064779423
1.22827017 8.24333096 -2.49513626  1090793842
-2.49513626 0.96579927 0.96169734  1064779423
0.69477987 8.31330681 -2.49751711  1090858863
-2.49771142 0.96576458 0.42628860  1064778797
0.29172888 8.33670235 -2.49737287  1090874128
-2.49686766 0.96577591 0.02259154  1064779119
7.87782526 1.83640468 -2.49513626  1074117614
-2.49513626 0.96670640 7.66346073  1064794642
7.62069082 2.71248174 -2.49513626  1078263265
-2.49513626 0.96670640 7.37734556  1064794642
7.32286072 3.43630648 -2.49513626  1081235253
-2.49513626 0.96670640 7.08601427  1064794642
6.95646238 4.12796736 -2.49513626  1082864941
-2.49513626 0.96670640 6.60121584  1064794642
6.52493525 4.78097391 -2.49513626  1084204478
-2.49513626 0.96670640 6.03231382  1064794642
5.85531473 5.58102179 -2.49513626  1085642644
-2.49513626 0.96670640 5.67221737  1064794642
5.57844353 5.85776949 -2.49513626  1086213588
-2.49513626 0.96670640 5.28850842  1064794642
5.18907213 6.20532322 -2.49513626  1087099627
-2.49513626 0.96670640 4.56504774  1064794642
4.01211500 7.02391911 -2.49513626  1089102147
-2.49513626 0.96670640 3.31447387  1064794642
3.19500613 7.43131399 -2.49513626  1089432485
-2.49513626 0.96670640 2.95360303  1064794642
2.46182585 7.70531797 -2.49513626  1089982232
-2.49513626 0.96670640 1.95980084  1064794642
1.83293676 7.87863255 -2.49513626  1090324375
-2.49513626 0.96670640 1.44961524  1064794642
1.19212186 8.00070763 -2.49513626  1090570436
-2.49513626 0.96670640 0.67368710  1064794642
0.28290224 8.08408833 -2.49513626  1069848377
-2.49513626 0.96756452 7.58993959  1064809039
7.52051306 2.27335262 -2.49513626  1075395986
-2.49513626 0.96756452 7.44325829  1064809039
7.40171909 2.63453984 -2.49513626  1076902679
-2.49513626 0.96756452 7.31287384  1064809039
7.26559258 2.98955417 -2.49513626  1078382308
-2.49513626 0.96756452 7.05767632  1064809039
6.94264126 3.67776942 -2.49513626  1082602796
-2.49513626 0.96756452 6.55468750  1064809039
6.41153669 4.54075623 -2.49513626  1083480156
-2.49513626 0.96756452 6.26171207  1064809038
6.02479839 5.04262304 -2.49513626  1084519430
-2.49513626 0.96756452 5.85898161  1064809039
5.77377796 5.32820415 -2.49513626  1085855227
-2.49513626 0.96756452 5.13654757  1064809038
5.03996801 6.02702093 -2.49513626  1086550272
-2.49513626 0.96756452 4.84290934  1064809038
4.22232676 6.62557220 -2.49513626  1087915092
-2.49513626 0.96756452 3.78626394  1064809039
3.67471266 6.94426203 -2.49513626  1088427426
-2.49513626 0.96756446 3.21923614  1064809039
2.75036621 7.35946703 -2.49513626  1089515582
-2.49513626 0.96756452 2.14840722  1064809039
2.02621245 7.59083366 -2.49513626  1089727431
-2.49513626 0.96756452 1.15786541  1064809039
1.03235519 7.78848314 -2.49513626  1090181079
-2.49513626 0.96756452 0.40140891  1064809039
0.27477318 7.85179853 -2.49513626  1090215393
-2.49513626 0.96756452 0.02132694  1064809039
7.48870182 1.49274564 -2.49513626  1073511749
-2.49513626 0.96837741 7.30937433  1064822677
7.27277613 2.32716131 -2.49513626  1075604873
-2.49513626 0.96837741 7.19391537  1064822677
6.96419477 3.13192534 -2.49513626  1078958977
-2.49513626 0.96837741 6.85953045  1064822677
6.80451441 3.46518922 -2.49513626  1080345821
-2.49513626 0.96837741 6.56688404  1064822677
6.50316334 4.00222874 -2.49513626  1082354027
-2.49513626 0.96837741 6.37066269  1064822677
6.23153067 4.41327429 -2.49513626  1083206753
-2.49513626 0.96837741 5.85565186  1064822677
5.69448948 5.08741093 -2.49513626  1084790610
-2.49513626 0.96837741 5.44169140  1064822677
5.35455942 5.44404840 -2.49513626  1085515141
-2.49513626 0.96837741 4.60932875  1064822677
4.51051569 6.16151047 -2.49513626  1087246558
-2.49513626 0.96837741 3.89390039  1064822677
3.78742599 6.63056183 -2.49513626  1087896128
-2.49513626 0.96837741 3.35194683  1064822677
2.78819227 7.10879278 -2.49513626  1088830919
-2.49513626 0.96837741 2.32395792  1064822677
2.20631027 7.31034470 -2.49513626  1089214019
-2.49513626 0.96837741 1.85004723  1064822677
1.73028696 7.43740892 -2.49513626  1089395710
-2.49513626 0.96837741 1.48944592  1064822677
1.24705863 7.53351068 -2.49513626  1089580879
-2.49513626 0.96837741 0.88112003  1064822677
0.51311600 7.61877060 -2.49513626  1089734826
-2.49513626 0.96837741 0.14391458  1064822677
0.02072760 7.63600159 -2.49513626  1070126928
-2.49513626 0.96914852 7.23248816  1064835614
7.20434666 1.80242789 -2.49513626  1073057481
-2.49513626 0.96914852 7.03568506  1064835614
6.99641991 2.49028182 -2.49513626  1076739462
-2.49513626 0.96914852 6.86774683  1064835614
6.77300692 3.04594374 -2.49513626  1079038648
-2.49513626 0.96914852 6.61770868  1064835614
6.50554371 3.58180261 -2.49513626  1080814620
-2.49513626 0.96914852 5.99042463  1064835614
5.84570360 4.58029652 -2.49513626  1083737901
-2.49513626 0.96914852 5.61726141  1064835614
5.45761633 5.03644609 -2.49513626  1084487283
-2.49513626 0.96914852 5.20755863  1064835614
4.76399422 5.69699717 -2.49513626  1085848912
-2.49513626 0.96914852 4.57772112  1064835614
4.48278904 5.92081213 -2.49513626  1086598951
-2.49513626 0.96914852 3.99112320  1064835614
3.88956785 6.32634497 -2.49513626  1087265376
-2.49513626 0.96914852 3.57893825  1064835614
3.36714768 6.61919355 -2.49513626  1087843860
-2.49513626 0.96914852 3.04295802  1064835614
2.93327713 6.82255650 -2.49513626  1088147140
-2.49513626 0.96914852 2.37398577  1064835614
2.14574027 7.10965252 -2.49513626  1088722506
-2.49513626 0.96914852 1.91526067  1064835614
1.56587565 7.25943708 -2.49513626  1089063986
-2.49513626 0.96914852 1.21282327  1064835614
0.61849999 7.40059853 -2.49513626  1089295772
-2.49513626 0.96914852 0.02015926  1064835614
7.03818703 1.64067638 -2.49513626  1071678277
-2.49513626 0.96988094 6.98159456  1064847902
6.95056820 1.97926831 -2.49513626  1075055578
-2.49513626 0.96988094 6.76847935  1064847902
6.72673702 2.64176273 -2.49513626  1076887284
-2.49513626 0.96988094 6.59104919  1064847902
6.54237366 3.07005668 -2.49513626  1078670987
-2.49513626 0.96988094 6.43992424  1064847902
6.27371550 3.58725429 -2.49513626  1081240343
-2.49513626 0.96988094 6.09281254  1064847902
6.02931929 3.98437071 -2.49513626  1082699610
-2.49513626 0.96988094 5.75982714  1064847902
5.68866062 4.45724440 -2.49513626  1083469353
-2.49513626 0.96988094 5.38937712  1064847902
5.23124123 4.98618221 -2.49513626  1084884316
-2.49513626 0.96988094 4.72484493  1064847902
4.63600826 5.54394531 -2.49513626  1085971096
-2.49513626 0.96988094 4.17421150  1064847902
3.98171735 6.03107023 -2.49513626  1086652702
-2.49513626 0.96988094 3.68526387  1064847902
3.58449340 6.27529240 -2.49513626  1087021627
-2.49513626 0.96988094 3.27668858  1064847902
3.17234707 6.49338770 -2.49513626  1087566991
-2.49513626 0.96988094 2.85447407  1064847902
2.42037988 6.80952549 -2.49513626  1088178754
-2.49513626 0.96988094 2.08809614  1064847902
1.97621012 6.95143795 -2.49513626  1088385008
-2.49513626 0.96988094 1.52380919  1064847902
1.29511106 7.10989237 -2.49513626  1088694227
-2.49513626 0.96988094 1.06506252  1064847902
0.83390880 7.17861319 -2.49513626  1088895010
-2.49513626 0.96988094 0.01961849  1064847902
6.85301924 1.59751189 -2.49513626  1071291177
-2.49513626 0.97057742 6.79791498  1064859587
6.76770544 1.92719626 -2.49513626  1073893343
-2.49513626 0.97057742 6.66654205  1064859587
6.62933683 2.35962248 -2.49513626  1076583850
-2.49513626 0.97057742 6.46337223  1064859587
6.32119608 3.09166956 -2.49513626  1078746651
-2.49513626 0.97057742 6.21816587  1064859587
6.16421413 3.39387560 -2.49513626  1080003411
-2.49513626 0.97057742 6.05151653  1064859587
5.93251801 3.78433228 -2.49513626  1082020334
-2.49513626 0.97057742 5.74248219  1064859587
5.67612553 4.15902948 -2.49513626  1082654844
-2.49513626 0.97057742 5.46826267  1064859587
5.39610195 4.51641655 -2.49513626  1083394767
-2.49513626 0.97057742 5.01462841  1064859587
4.93433380 5.01680088 -2.49513626  1084428385
-2.49513626 0.97057742 4.51403904  1064859587
4.33754396 5.54090786 -2.49513626  1085788434
