# .PCD v0.7 - Point Cloud Data file format
VERSION 0.7
FIELDS x y z intensity
SIZE 4 4 4 4
TYPE F F F F
COUNT 1 1 1 1
WIDTH 997
HEIGHT 1
VIEWPOINT 0 0 0 1 0 0 0
POINTS 997
DATA ascii
-2.64753628 0.77498055 -44.20100403  1061578016
-43.45583344 -46.54040909 -2.64753628  3258773785
-2.64753628 0.77498055 -41.15313339  1061578016
-39.56409454 -49.89088821 -2.64753628  3259025981
-2.49513626 0.78643638 -33.37647629  1061770212
-30.92450142 -51.42721558 -2.49513626  3260001666
-2.49513626 0.78643638 -29.24918938  1061770212
-28.40000725 -52.86329651 -2.49513626  3260367388
-2.49513626 0.78643626 -23.62117195  1061578016
-20.73256111 -60.20447540 -2.64753628  3262340668
-2.64753628 0.77498055 -17.79540825  1061578016
-14.81651974 -61.92648697 -2.64753628  3262685502
-2.64753628 0.77498055 -10.79194832  1061578015
-8.76173878 -63.06861115 -2.64753628  3263016121
-2.64753628 0.77498055 -2.62489843  1061578016
-1.59813380 -63.65425110 -2.64753628  3263082465
-2.64753628 0.77498055 0.45633733  1061578016
3.53651142 -63.57602310 -2.64753628  3263018787
-2.64753628 0.77498055 7.62927675  1061578016
-47.42273712 -23.77429390 -2.64753628  3250866776
-2.64753628 0.80859447 -45.79075623  1062141964
-44.90282059 -28.24660492 -2.64753628  3254660951
-2.64753628 0.80859447 -41.43340683  1062141964
-40.89356232 -33.79128265 -2.64753628  3255590729
-2.64753628 0.80859447 -35.28110123  1062308890
-32.92325211 -37.62364578 -2.49513626  3256660139
-2.49513626 0.81854409 -30.42828751  1062308891
-29.13264847 -40.62963486 -2.49513626  3257163938
-2.49513626 0.81854409 -27.80665207  1062308891
-26.45172310 -42.42387009 -2.49513626  3258035070
-2.49513626 0.81854409 -20.03468513  1062308891
-19.29309845 -46.12217331 -2.49513626  3258561970
-2.49513626 0.81854403 -16.27845192  1062308891
-14.74491787 -47.77098083 -2.49513626  3258974898
-2.49513626 0.81854409 -13.19602489  1062308890
-12.41632748 -48.42843628 -2.49513626  3259137381
-2.49513626 0.81854403 -10.84744930  1062308890
-8.47343922 -49.27148438 -2.49513626  3259341677
-2.49513626 0.81854409 -6.87939024  1062308891
-6.07959270 -49.62374878 -2.49513626  3259423887
-2.49513626 0.81854403 -4.47542238  1062308891
-2.86659813 -49.91253281 -2.49513626  3259485988
-2.49513626 0.81854409 -0.44829643  1062308891
0.35830817 -49.99350357 -2.49513626  3259493572
-2.49513626 0.81854403 1.97103310  1062308891
3.58173490 -49.86631775 -2.49513626  3259426356
-2.49513626 0.81854403 7.58847713  1062308891
-40.63592911 -20.37188721 -2.64753628  3249365221
-2.64753628 0.83348960 -37.32301331  1062707012
-36.97887421 -21.62910652 -2.49513626  3249653886
-2.49513626 0.84227395 -36.26179886  1062707013
-35.50699615 -23.96889305 -2.49513626  3251163349
-2.49513626 0.84227401 -34.30573654  1062707012
-33.88729095 -26.20889282 -2.49513626  3252028548
-2.49513626 0.84227395 -33.02408981  1062707012
-32.57952881 -27.81779671 -2.49513626  3252860908
-2.49513626 0.84227395 -31.66509247  1062707012
-29.23694229 -31.31224251 -2.49513626  3254664487
-2.49513626 0.84227395 -27.68768692  1062707013
-27.15666008 -33.13262177 -2.49513626  3255190534
-2.49513626 0.84227395 -26.07360077  1062707012
-25.52180862 -34.40774155 -2.49513626  3255517839
-2.49513626 0.84227401 -24.39843941  1062707012
-23.24967766 -35.98204422 -2.49513626  3256197202
-2.49513626 0.84227395 -19.66302109  1062707013
-19.04639626 -38.37303925 -2.49513626  3256529798
-2.49513626 0.84227401 -17.79846954  1062707013
-17.16747093 -39.24962616 -2.49513626  3256751618
-2.49513626 0.84227395 -15.89223766  1062707012
-12.63473892 -40.93431854 -2.49513626  3257223256
-2.49513626 0.84227395 -8.61913395  1062707013
-7.26077271 -42.22009659 -2.49513626  3257514684
-2.49513626 0.84227401 -5.20952272  1062707013
-4.52281713 -42.60046387 -2.49513626  3257603037
-2.49513626 0.84227395 -1.07520914  1062707012
0.30702999 -42.83878326 -2.49513626  3257578217
-2.49513626 0.84227401 5.13296747  1062707012
6.50246143 -42.34351349 -2.49513626  3247089509
-2.49513626 0.86051911 -31.71807289  1063013115
-31.39204979 -20.46160889 -2.49513626  3248994621
-2.49513626 0.86051917 -30.36526871  1063013115
-30.00710297 -22.44362259 -2.49513626  3250021899
-2.49513626 0.86051905 -29.26738739  1063013114
-28.88604927 -23.86920166 -2.49513626  3250759730
-2.49513626 0.86051911 -27.69733810  1063013115
-26.86865616 -26.11929321 -2.49513626  3251922218
-2.49513626 0.86051911 -25.57345009  1063013115
-25.12824440 -27.79772186 -2.49513626  3252994162
-2.49513626 0.86051911 -23.75382996  1063013115
-22.32383537 -30.09632683 -2.49513626  3253968601
-2.49513626 0.86051911 -20.84152794  1063013115
-17.73402786 -33.00979233 -2.49513626  3255118490
-2.49513626 0.86051911 -16.65980911  1063013115
-15.56826115 -34.08477020 -2.49513626  3255391093
-2.49513626 0.86051911 -14.46048641  1063013115
-13.90089607 -34.79809570 -2.49513626  3255729427
-2.49513626 0.86051911 -11.05155849  1063013115
-9.89064217 -36.14301682 -2.49513626  3255906567
-2.49513626 0.86051911 -7.53913212  1063013115
-5.15622187 -37.11543655 -2.49513626  3256141426
-2.49513626 0.86051911 -3.95609164  1063013115
-0.94048136 -37.46008301 -2.49513626  3256213931
-2.49513626 0.86051911 0.87305707  1063013115
2.08121181 -37.41403961 -2.49513626  3256161280
-2.49513626 0.86051911 5.08938265  1063013115
5.68767929 -37.03771591 -2.49513626  3245260615
-2.49513626 0.87497962 -29.51980209  1063255722
-29.26749611 -15.87421799 -2.49513626  3246816084
-2.49513626 0.87497962 -28.18280411  1063255722
-27.29202843 -19.07151222 -2.49513626  3249337842
-2.49513626 0.87497962 -24.96880722  1063255722
-24.61021996 -22.42575645 -2.49513626  3249966877
-2.49513626 0.87497967 -23.87390327  1063255722
-23.49635696 -23.59021950 -2.49513626  3250761751
-2.49513626 0.87497962 -22.32747459  1063255722
-21.92607880 -25.05642319 -2.49513626  3251323229
-2.49513626 0.87497962 -20.26449203  1063255722
-19.83564377 -26.74181557 -2.49513626  3252351319
-2.49513626 0.87497962 -18.51855278  1063255722
-17.61621284 -28.25325394 -2.49513626  3252962610
-2.49513626 0.87497962 -16.69550705  1063255722
-16.22857094 -29.07250977 -2.49513626  3253380341
-2.49513626 0.87497962 -15.28216267  1063255723
-14.31984997 -30.05858803 -2.49513626  3253881122
-2.49513626 0.87497967 -12.84873867  1063255723
-11.34754276 -31.30192757 -2.49513626  3254507760
-2.49513626 0.87497962 -10.33173180  1063255714
-9.81976318 -31.81429863 -2.49513626  3254763433
-2.49513626 0.87497962 -5.64310551  1063255722
-5.11297369 -32.90037918 -2.49513626  3255036433
-2.49513626 0.87497967 -2.98052526  1063255723
-2.44513750 -33.20516586 -2.49513626  3255119110
-2.49513626 0.87497962 0.23862492  1063255722
1.31265974 -33.26941299 -2.49513626  3255105986
-2.49513626 0.87497967 2.38533950  1063255722
3.98935270 -33.05544662 -2.49513626  3255038583
-2.49513626 0.87497962 -26.55614471  1063452702
-25.85473251 -15.12254715 -2.49513626  3245906551
-2.49513626 0.88672054 -25.35338020  1063452702
-25.09277725 -16.35577011 -2.49513626  3247204308
-2.49513626 0.88672054 -23.98573875  1063452702
-23.08963966 -19.07949829 -2.49513626  3248948814
-2.49513626 0.88672054 -21.13742447  1063452702
-20.44176292 -21.89276123 -2.49513626  3249820597
-2.49513626 0.88672054 -18.98728561  1063452702
-18.61108589 -23.46883965 -2.49513626  3250462937
-2.49513626 0.88672054 -17.45379448  1063452702
-17.05879402 -24.62024117 -2.49513626  3251589514
-2.49513626 0.88672054 -14.59929085  1063452702
-13.74790478 -26.61115646 -2.49513626  3252179879
-2.49513626 0.88672054 -12.44425869  1063452702
-10.66126823 -27.99099731 -2.49513626  3252766300
-2.49513626 0.88672054 -9.75266171  1063452702
-9.29448795 -28.47404289 -2.49513626  3253007961
-2.49513626 0.88672054 -6.96973944  1063452702
-4.59965372 -29.59732628 -2.49513626  3253557095
-2.49513626 0.88672054 -2.68129563  1063452703
-0.75176740 -29.94316673 -2.49513626  3253705847
-2.49513626 0.88672054 0.21466836  1063452702
0.69786566 -29.94448662 -2.49513626  3253682241
-2.49513626 0.88672054 2.14586973  1063452702
2.62757754 -29.83712769 -2.49513626  3253593351
-2.49513626 0.88672054 4.06812620  1063452700
4.54636383 -29.60556412 -2.49513626  3243623366
-2.49513626 0.89644140 -23.26816177  1063615791
-22.55783081 -15.22759151 -2.49513626  3245960903
-2.49513626 0.89644140 -21.79465294  1063615791
-21.25738525 -16.99584389 -2.49513626  3247092054
-2.49513626 0.89644140 -20.69798470  1063615791
-20.11703300 -18.33139610 -2.49513626  3247782526
-2.49513626 0.89644140 -19.51515007  1063615791
-18.89292717 -19.59062386 -2.49513626  3248432279
-2.49513626 0.89644140 -18.25105667  1063615791
-17.25280190 -21.04936409 -2.49513626  3249183111
-2.49513626 0.89644140 -16.56472588  1063615791
-16.21416664 -21.85946083 -2.49513626  3249598992
-2.49513626 0.89644140 -15.50048542  1063615791
-15.13754559 -22.61835098 -2.49513626  3249987713
-2.49513626 0.89644140 -13.64733696  1063615791
-13.26565266 -23.76462746 -2.49513626  3250572782
-2.49513626 0.89644146 -12.10029602  1063615791
-11.30748272 -24.75633240 -2.49513626  3251076092
-2.49513626 0.89644140 -10.50289154  1063615791
-10.09644222 -25.27443314 -2.49513626  3251567566
-2.49513626 0.89644140 -7.60632658  1063615791
-7.18373537 -26.25126839 -2.49513626  3251880260
-2.49513626 0.89644140 -5.04496622  1063615791
-4.17947817 -26.89362335 -2.49513626  3252136208
-2.49513626 0.89644140 -2.87338257  1063615800
-2.43635917 -27.10717773 -2.49513626  3252233418
-2.49513626 0.89644140 -1.56053543  1063615791
-0.68308723 -27.20787621 -2.49513626  3252271586
-2.49513626 0.89644134 1.94984519  1063615791
3.26100373 -27.02038002 -2.49513626  3252106616
-2.49513626 0.89644140 -22.29084015  1063753029
-21.72404480 -12.24043465 -2.49513626  3242814946
-2.49513626 0.90462142 -20.88941765  1063753029
-20.66702271 -13.95121288 -2.49513626  3244934539
-2.49513626 0.90462142 -19.96782112  1063753029
-19.22183609 -15.88342571 -2.49513626  3246491678
-2.49513626 0.90462154 -18.15746880  1063753029
-17.87939072 -17.38072777 -2.49513626  3247265252
-2.49513626 0.90462142 -17.30931854  1063753029
-16.42064476 -18.76498413 -2.49513626  3247978562
-2.49513626 0.90462142 -15.80667114  1063753029
-14.53005981 -20.26424408 -2.49513626  3248748512
-2.49513626 0.90462142 -13.86871052  1063753029
-12.84985733 -21.36921501 -2.49513626  3249313547
-2.49513626 0.90462142 -12.15372276  1063753029
-11.44495678 -22.15344620 -2.49513626  3249712774
-2.49513626 0.90462142 -10.72425556  1063753031
-10.35968876 -22.68124962 -2.49513626  3250143061
-2.49513626 0.90462142 -6.96875715  1063753029
-6.19271612 -24.15393257 -2.49513626  3250717039
-2.49513626 0.90462142 -4.62209654  1063753029
-4.22617292 -24.57441330 -2.49513626  3250920825
-2.49513626 0.90462142 -3.43113184  1063753029
-2.23214102 -24.83504868 -2.49513626  3251040594
-2.49513626 0.90462142 -1.42972946  1063753029
-0.62583059 -24.92730713 -2.49513626  3251065729
-2.49513626 0.90462142 2.18742466  1063753029
2.58788610 -24.80050659 -2.49513626  3250954754
-2.49513626 0.90462142 3.78479671  1063753024
-20.39522362 -10.63982773 -2.49513626  3241454922
-2.49513626 0.91159946 -19.66657257  1063870101
-19.47149277 -12.24875546 -2.49513626  3242785554
-2.49513626 0.91159946 -19.06618500  1063870101
-18.42114067 -13.77797699 -2.49513626  3244371091
-2.49513626 0.91159946 -17.96702957  1063870101
-17.73294067 -14.65312004 -2.49513626  3245276990
-2.49513626 0.91159946 -17.00319290  1063870101
-16.75101662 -15.76624393 -2.49513626  3246409354
-2.49513626 0.91159946 -15.96856022  1063870101
-15.69935417 -16.81372261 -2.49513626  3246949569
-2.49513626 0.91159946 -14.58230782  1063870101
-14.00073433 -18.25241089 -2.49513626  3247804045
-2.49513626 0.91159946 -13.10122299  1063870101
-12.79446983 -19.11733627 -2.49513626  3248132597
-2.49513626 0.91159946 -11.85452366  1063870101
-11.53492069 -19.90267944 -2.49513626  3248627106
-2.49513626 0.91159946 -9.89358234  1063870101
-9.55724144 -20.92439079 -2.49513626  3249052509
-2.49513626 0.91159946 -8.53365135  1063870101
-6.07179117 -22.18793678 -2.49513626  3249816637
-2.49513626 0.91159946 -3.53255367  1063870101
-2.05924392 -22.91136360 -2.49513626  3250030697
-2.49513626 0.91159946 -1.31898606  1063870101
0.16486189 -23.00312996 -2.49513626  3250032271
-2.49513626 0.91159946 2.01798987  1063870101
2.38743258 -22.87949371 -2.49513626  3249976375
-2.49513626 0.91159946 3.49162507  1063870101
-19.08342361 -9.56703281 -2.49513626  3239967369
-2.49513626 0.91762149 -18.25041008  1063971134
-18.06937790 -11.36673832 -2.49513626  3241837088
-2.49513626 0.91762149 -17.69325447  1063971134
-16.67324829 -13.33071041 -2.49513626  3244421885
-2.49513626 0.91762149 -15.77881718  1063971134
-15.30672836 -14.87982464 -2.49513626  3245473635
-2.49513626 0.91762149 -14.31523895  1063971134
-12.99256039 -16.93807983 -2.49513626  3246991862
-2.49513626 0.91762149 -11.87316036  1063971134
-11.58539009 -17.92996979 -2.49513626  3247499926
-2.49513626 0.91762149 -9.79814816  1063971134
-9.18115997 -19.27203751 -2.49513626  3248183132
-2.49513626 0.91762149 -8.55460644  1063971134
-8.23795414 -19.69368553 -2.49513626  3248396187
-2.49513626 0.91762149 -6.62419844  1063971134
-5.63456964 -20.59020996 -2.49513626  3248887576
-2.49513626 0.91762149 -3.95702052  1063971134
-2.59592199 -21.18882751 -2.49513626  3249176382
-2.49513626 0.91762149 -0.19143161  1063971151
0.15299022 -21.34670067 -2.49513626  3249191759
-2.49513626 0.91762149 0.84160680  1063971134
1.18563950 -21.31430054 -2.49513626  3249166039
-2.49513626 0.91762143 2.21551251  1063971134
2.55777168 -21.19346428 -2.49513626  3238970770
-2.49513626 0.92287099 -17.34664536  1064059206
-17.02227783 -10.32855034 -2.49513626  3240730907
-2.49513626 0.92287099 -16.68019676  1064059206
-16.50261688 -11.14004135 -2.49513626  3241572917
-2.49513626 0.92287099 -15.94430161  1064059206
-15.55125046 -12.43364239 -2.49513626  3243425417
-2.49513626 0.92287099 -14.49873638  1064059206
-14.05090809 -14.10704803 -2.49513626  3244642167
-2.49513626 0.92287099 -13.58847523  1064059206
-13.35191727 -14.77034760 -2.49513626  3245972595
-2.49513626 0.92287099 -12.11824703  1064059206
-11.86179256 -15.99170971 -2.49513626  3246583227
-2.49513626 0.92287099 -11.07417297  1064059206
-10.80576992 -16.72340202 -2.49513626  3247034409
-2.49513626 0.92287099 -9.42299080  1064059206
-9.13879776 -17.68952560 -2.49513626  3247353188
-2.49513626 0.92287099 -8.27221203  1064059206
-7.68359375 -18.36843491 -2.49513626  3247696775
-2.49513626 0.92287099 -6.48299217  1064059206
-5.87225676 -19.02507210 -2.49513626  3248025679
-2.49513626 0.92287099 -5.25539780  1064059206
-4.94488049 -19.28691101 -2.49513626  3248192966
-2.49513626 0.92287099 -3.69074321  1064059206
-3.05757380 -19.67455292 -2.49513626  3248364169
-2.49513626 0.92287099 -2.10207248  1064059206
-1.14163971 -19.87796593 -2.49513626  3248432766
-2.49513626 0.92287099 -0.49972937  1064059206
-0.17853671 -19.90991974 -2.49513626  3248441374
-2.49513626 0.92287099 0.46390197  1064059206
0.78497589 -19.89524078 -2.49513626  3248425527
-2.49513626 0.92287099 1.42644691  1064059206
2.06642294 -19.80319977 -2.49513626  3248366438
-2.49513626 0.92287099 2.70424867  1064059206
3.02215385 -19.68002319 -2.49513626  3238379664
-2.49513626 0.92748743 -16.53775406  1064136656
-16.39639282 -8.89313793 -2.49513626  3239215392
-2.49513626 0.92748737 -16.10095215  1064136655
-15.78873539 -9.93207359 -2.49513626  3240294345
-2.49513626 0.92748743 -15.28968239  1064136657
-14.56882286 -11.64816284 -2.49513626  3242072939
-2.49513626 0.92748731 -13.98815918  1064136656
-13.58278561 -12.78427124 -2.49513626  3243247407
-2.49513626 0.92748737 -13.16324806  1064136657
-12.73003960 -13.63366795 -2.49513626  3244123477
-2.49513626 0.92748743 -12.05547047  1064136657
-11.82426929 -14.42625237 -2.49513626  3244939166
-2.49513626 0.92748737 -10.37456608  1064136657
-9.86905003 -15.82818604 -2.49513626  3246541855
-2.49513626 0.92748737 -8.02233315  1064136658
-7.47488070 -17.08965492 -2.49513626  3247024641
-2.49513626 0.92748743 -6.63927364  1064136656
-6.35718536 -17.53614616 -2.49513626  3247249248
-2.49513626 0.92748743 -5.21301794  1064136657
-4.63249493 -18.06849098 -2.49513626  3247582189
-2.49513626 0.92748737 -3.45758104  1064136656
-2.26827240 -18.51444244 -2.49513626  3247727509
-2.49513626 0.92748743 -1.66976726  1064136656
-1.36982131 -18.60252190 -2.49513626  3247766079
-2.49513626 0.92748737 -0.46816024  1064136657
-0.16725774 -18.65212059 -2.49513626  3247774571
-2.49513626 0.92748731 1.03599298  1064136656
1.33633208 -18.60494232 -2.49513626  3247744471
-2.49513626 0.92748737 1.93587780  1064136657
2.53340912 -18.48003006 -2.49513626  3247668853
-2.49513626 0.92748743 -15.68187141  1064205291
-15.42006588 -8.36359501 -2.49513626  3238643673
-2.49513626 0.93157834 -14.84857464  1064205291
-14.53949642 -9.81484509 -2.49513626  3240867485
-2.49513626 0.93157834 -13.52278519  1064205291
-13.34074783 -11.39090061 -2.49513626  3242435597
-2.49513626 0.93157834 -12.37944031  1064205291
-11.55211353 -13.20139503 -2.49513626  3244026617
-2.49513626 0.93157834 -10.67668438  1064205291
-9.99073505 -14.41920376 -2.49513626  3244900751
-2.49513626 0.93157834 -9.52033806  1064205291
-9.04002666 -15.03349781 -2.49513626  3245675467
-2.49513626 0.93157834 -7.54464960  1064205291
-6.76956701 -16.18335724 -2.49513626  3246543586
-2.49513626 0.93157834 -5.44345379  1064205291
-5.17370367 -16.76189041 -2.49513626  3246873685
-2.49513626 0.93157834 -4.35664988  1064205291
-3.80615616 -17.12429619 -2.49513626  3247040455
-2.49513626 0.93157834 -2.41384220  1064205291
-2.13320804 -17.41199303 -2.49513626  3247148443
-2.49513626 0.93157834 0.12572353  1064205291
0.40871710 -17.53742218 -2.49513626  3247185647
-2.49513626 0.93157834 2.66264462  1064205291
-14.79861450 -7.41894341 -2.49513626  3237282794
-2.49513626 0.93522835 -13.72058105  1064266529
-13.56936741 -9.48219395 -2.49513626  3240010742
-2.49513626 0.93522835 -13.09469795  1064266529
-12.92959976 -10.33756351 -2.49513626  3240671118
-2.49513626 0.93522835 -12.58935070  1064266528
-12.41428185 -10.95104218 -2.49513626  3241912685
-2.49513626 0.93522835 -11.49144268  1064266528
-11.29771328 -12.09964466 -2.49513626  3242490951
-2.49513626 0.93522835 -10.69905376  1064266528
-10.49385262 -12.80307484 -2.49513626  3243214853
-2.49513626 0.93522841 -10.07533646  1064266528
-9.86211491 -13.29580688 -2.49513626  3243882119
-2.49513626 0.93522835 -8.98411942  1064266528
-8.75863361 -14.04728127 -2.49513626  3244489976
-2.49513626 0.93522835 -8.06870556  1064266528
-7.83445978 -14.58290291 -2.49513626  3245035905
-2.49513626 0.93522841 -7.35988951  1064266528
-7.11970997 -14.94487858 -2.49513626  3245403329
-2.49513626 0.93522835 -6.14106750  1064266529
-5.89225149 -15.47000408 -2.49513626  3246026446
-2.49513626 0.93522835 -5.13686514  1064266529
-4.88230324 -15.81780148 -2.49513626  3246356778
-2.49513626 0.93522841 -4.11126375  1064266528
-3.33060026 -16.21563530 -2.49513626  3246556262
-2.49513626 0.93522841 -2.54212785  1064266529
-2.27789021 -16.39667320 -2.49513626  3246633323
-2.49513626 0.93522835 -0.94918048  1064266528
-0.14844073 -16.55347824 -2.49513626  3246679472
-2.49513626 0.93522835 0.91942567  1064266529
-14.00767708 -7.02242470 -2.49513626  3236424583
-2.49513626 0.93850493 -13.65149593  1064321500
-13.26334286 -8.34344864 -2.49513626  3238586055
-2.49513626 0.93850493 -12.98726082  1064321500
-12.69764996 -9.18145466 -2.49513626  3239455078
-2.49513626 0.93850493 -12.07909393  1064321500
-11.23549747 -10.92213631 -2.49513626  3241440911
-2.49513626 0.93850493 -10.69388390  1064321500
-10.31881332 -11.79201221 -2.49513626  3242321556
-2.49513626 0.93850493 -9.53684139  1064321500
-9.33501530 -12.58518982 -2.49513626  3242966812
-2.49513626 0.93850493 -8.71516800  1064321500
-8.50394535 -13.16101646 -2.49513626  3243960754
-2.49513626 0.93850493 -7.19206810  1064321500
-6.96652746 -14.03555775 -2.49513626  3244667631
-2.49513626 0.93850493 -6.04684687  1064321500
-5.34036016 -14.73125839 -2.49513626  3245149257
-2.49513626 0.93850493 -4.86231136  1064321500
-4.62136269 -14.97239017 -2.49513626  3245389904
-2.49513626 0.93850493 -3.89153361  1064321500
-3.15259027 -15.34895992 -2.49513626  3245759873
-2.49513626 0.93850493 -2.65574765  1064321500
-2.40625906 -15.48351765 -2.49513626  3245888317
-2.49513626 0.93850493 -1.65429330  1064321500
-1.15072024 -15.62707138 -2.49513626  3246017587
-2.49513626 0.93850493 -0.39327887  1064321500
-0.14050518 -15.66874599 -2.49513626  3246044195
-2.49513626 0.93850493 0.36507866  1064321500
0.61775911 -15.65719604 -2.49513626  3245926247
-2.49513626 0.93850493 2.12819481  1064321500
-13.29520226 -6.66524172 -2.49513626  3235651509
-2.49513626 0.94146234 -12.95713997  1064371117
-12.83766651 -7.50880337 -2.49513626  3237404889
-2.49513626 0.94146234 -12.58872890  1064371117
-12.45932579 -8.12113190 -2.49513626  3238339381
-2.49513626 0.94146234 -12.19083595  1064371117
-11.90965462 -8.90775108 -2.49513626  3239154797
-2.49513626 0.94146234 -11.46471405  1064371117
-11.31037235 -9.65728092 -2.49513626  3239930507
-2.49513626 0.94146234 -10.82988262  1064371117
-10.66402340 -10.36660290 -2.49513626  3240839364
-2.49513626 0.94146234 -10.14996338  1064371117
-9.61212158 -11.34878635 -2.49513626  3241675214
-2.49513626 0.94146234 -9.24097347  1064371117
-8.66634369 -12.08645439 -2.49513626  3242432604
-2.49513626 0.94146234 -8.27189350  1064371117
-7.86883163 -12.62019730 -2.49513626  3243231038
-2.49513626 0.94146234 -6.82625675  1064371117
-5.73929024 -13.72036362 -2.49513626  3244096146
-2.49513626 0.94146234 -5.29364920  1064371117
-4.84249640 -14.06193829 -2.49513626  3244439082
-2.49513626 0.94146234 -4.38630342  1064371117
-4.15646410 -14.27976418 -2.49513626  3244655868
-2.49513626 0.94146234 -2.52066803  1064371117
-1.80854964 -14.76201057 -2.49513626  3245121752
-2.49513626 0.94146234 -0.85275376  1064371116
-0.37327459 -14.86769772 -2.49513626  3245208320
-2.49513626 0.94146216 0.34651130  1064371117
0.58633798 -14.86082268 -2.49513626  3245168834
-2.49513626 0.94146234 1.30467105  1064371117
-12.64998531 -6.34177780 -2.49513626  3235374121
-2.49513626 0.94414485 -12.21465302  1064416122
-12.09779835 -7.34053993 -2.49513626  3237027013
-2.49513626 0.94414485 -11.85468006  1064416122
-11.46693134 -8.29154396 -2.49513626  3238501239
-2.49513626 0.94414485 -11.05233288  1064416122
-10.90832996 -9.01380062 -2.49513626  3239249037
-2.49513626 0.94414490 -10.61183453  1064416122
-10.45943356 -9.53102875 -2.49513626  3239783726
-2.49513626 0.94414485 -10.14649773  1064416122
-9.98603439 -10.02593327 -2.49513626  3240459379
-2.49513626 0.94414485 -9.31866455  1064416122
-9.14564419 -10.79802990 -2.49513626  3241089889
-2.49513626 0.94414485 -8.61248493  1064416122
-8.05915356 -11.63143635 -2.49513626  3241945275
-2.49513626 0.94414485 -7.48695612  1064416122
-7.29225397 -12.12696362 -2.49513626  3242570204
-2.49513626 0.94414485 -6.69695711  1064416122
-6.49497747 -12.57201004 -2.49513626  3242904955
-2.49513626 0.94414485 -6.08599043  1064416122
-5.87909126 -12.87153912 -2.49513626  3243302730
-2.49513626 0.94414485 -5.24943829  1064416122
-4.60748768 -13.37949753 -2.49513626  3243792076
-2.49513626 0.94414485 -3.95475054  1064416122
-3.73503351 -13.64879990 -2.49513626  3243987206
-2.49513626 0.94414485 -3.29274273  1064416122
-3.07028437 -13.81353092 -2.49513626  3244148670
-2.49513626 0.94414485 -2.39834046  1064416122
-1.26673424 -14.09381199 -2.49513626  3244412019
-2.49513626 0.94414485 -0.81136769  1064416122
-0.58334303 -14.13859558 -2.49513626  3244447411
-2.49513626 0.94414485 0.32969353  1064416122
0.55788285 -14.13962364 -2.49513626  3244413959
-2.49513626 0.94414485 1.24135685  1064416122
1.69548929 -14.04868603 -2.49513626  3233907861
-2.49513626 0.94658887 -11.96372890  1064457126
-11.75613117 -6.62400198 -2.49513626  3235512965
-2.49513626 0.94658887 -11.53629971  1064457126
-11.42186642 -7.18504858 -2.49513626  3236678092
-2.49513626 0.94658887 -11.18411732  1064457126
-11.06085396 -7.72926092 -2.49513626  3237807033
-2.49513626 0.94658887 -10.80573463  1064457126
-10.67393684 -8.25536537 -2.49513626  3238449905
-2.49513626 0.94658887 -10.11930561  1064457126
-9.97397900 -9.08865929 -2.49513626  3239311719
-2.49513626 0.94658887 -9.20915222  1064457126
-9.04883003 -10.01012707 -2.49513626  3240262174
-2.49513626 0.94658887 -8.55389881  1064457126
-8.38441658 -10.57286835 -2.49513626  3240978405
-2.49513626 0.94658887 -7.86305046  1064457126
-7.68510246 -11.09158325 -2.49513626  3241372938
-2.49513626 0.94658887 -6.57707787  1064457126
-6.38612890 -11.88702106 -2.49513626  3242387919
-2.49513626 0.94658887 -5.60622263  1064457127
-4.80297518 -12.61013317 -2.49513626  3243064946
-2.49513626 0.94658887 -3.97973251  1064457126
-3.77119875 -12.95616055 -2.49513626  3243320103
-2.49513626 0.94658887 -3.13991570  1064457126
-1.85678566 -13.36548901 -2.49513626  3243706602
-2.49513626 0.94658887 -0.99095303  1064457127
-0.77370954 -13.47164631 -2.49513626  3243758950
-2.49513626 0.94658887 -0.12099751  1064457127
0.09670695 -13.49350166 -2.49513626  3243741566
-2.49513626 0.94658887 1.18374121  1064457127
1.40045381 -13.42098141 -2.49513626  3243661477
-2.49513626 0.94658887 1.83271694  1064457126
2.04816890 -13.33750248 -2.49513626  3233343672
-2.49513626 0.94882482 -11.43150616  1064494639
-11.33380508 -6.14727020 -2.49513626  3234499038
-2.49513626 0.94882482 -10.91375828  1064494639
-10.80157280 -7.04059362 -2.49513626  3237768059
-2.49513626 0.94882482 -9.80549335  1064494639
-9.53027916 -8.68434715 -2.49513626  3238880313
-2.49513626 0.94882482 -8.95036793  1064494639
-8.79947567 -9.42408085 -2.49513626  3239788487
-2.49513626 0.94882482 -8.33319569  1064494639
-8.17337418 -9.97196484 -2.49513626  3240341499
-2.49513626 0.94882482 -7.68132925  1064494639
-7.51325989 -10.47831059 -2.49513626  3240969692
-2.49513626 0.94882482 -6.28449392  1064494639
-5.91800165 -11.45518780 -2.49513626  3241724271
-2.49513626 0.94882482 -5.16690969  1064494639
-4.78310537 -11.97355366 -2.49513626  3242324533
-2.49513626 0.94882482 -4.00095892  1064494639
-3.40323305 -12.43632317 -2.49513626  3242811895
-2.49513626 0.94882482 -2.39001083  1064494639
-2.18528557 -12.70702839 -2.49513626  3242973601
-2.49513626 0.94882482 -1.36123824  1064494639
-1.15420496 -12.84180164 -2.49513626  3243097459
-2.49513626 0.94882482 -0.53152221  1064494639
0.09240487 -12.89323616 -2.49513626  3243123456
-2.49513626 0.94882482 0.71611655  1064494639
0.92372298 -12.86043549 -2.49513626  3243060953
-2.49513626 0.94882482 1.54487181  1064494639
1.95705354 -12.74417782 -2.49513626  3233197770
-2.49513626 0.95087790 -10.84960175  1064529084
-10.34011364 -6.73980904 -2.49513626  3235707883
-2.49513626 0.95087790 -10.11728573  1064529084
-9.64027596 -7.70765924 -2.49513626  3238175778
-2.49513626 0.95087790 -9.12312508  1064529084
-8.85017014 -8.60333824 -2.49513626  3239073772
-2.49513626 0.95087790 -8.27690029  1064529084
-7.82418919 -9.54594040 -2.49513626  3239754782
-2.49513626 0.95087790 -7.51214504  1064529084
-7.35316801 -9.91327095 -2.49513626  3240131987
-2.49513626 0.95087790 -7.02950811  1064529084
-6.86491299 -10.25747776 -2.49513626  3240484559
-2.49513626 0.95087790 -5.30843687  1064529084
-5.12796879 -11.22705936 -2.49513626  3241471722
-2.49513626 0.95087790 -4.39324617  1064529084
-4.20658827 -11.60377407 -2.49513626  3241917495
-2.49513626 0.95087790 -3.64023280  1064529084
-2.87205553 -12.00392437 -2.49513626  3242291714
-2.49513626 0.95087790 -2.09192514  1064529084
-1.89540434 -12.19632435 -2.49513626  3242433254
-2.49513626 0.95087790 -1.50093138  1064529084
-0.90641767 -12.30939770 -2.49513626  3242535072
-2.49513626 0.95087790 -0.50881439  1064529084
-0.11067554 -12.34222984 -2.49513626  3242552853
-2.49513626 0.95087790 0.88425976  1064529084
1.28098524 -12.27607441 -2.49513626  3242463129
-2.49513626 0.95087790 1.67637336  1064529084
1.87344396 -12.19971943 -2.49513626  3232349149
-2.49513626 0.95276952 -10.01807690  1064560820
-9.91509724 -6.46277857 -2.49513626  3235112619
-2.49513626 0.95276952 -9.47767162  1064560820
-9.36207008 -7.24074984 -2.49513626  3237645042
-2.49513626 0.95276952 -8.48640156  1064560820
-8.35219479 -8.38556385 -2.49513626  3239581689
-2.49513626 0.95276952 -6.58274651  1064560820
-6.42320681 -9.94078636 -2.49513626  3240351415
-2.49513626 0.95276952 -5.76873159  1064560820
-5.60124969 -10.42606449 -2.49513626  3240639934
-2.49513626 0.95276952 -5.26196146  1064560820
-4.91719580 -10.76559448 -2.49513626  3241211644
-2.49513626 0.95276952 -4.03368235  1064560820
-3.85364437 -11.19045639 -2.49513626  3241411786
-2.49513626 0.95276952 -2.93935299  1064560820
-2.75400710 -11.51052856 -2.49513626  3241770626
-2.49513626 0.95276952 -2.19386554  1064560820
-1.81749427 -11.69501781 -2.49513626  3241906347
-2.49513626 0.95276952 -0.86916131  1064560820
-0.48790067 -11.82534409 -2.49513626  3242024083
-2.49513626 0.95276952 0.27575430  1064560820
0.46661085 -11.82620335 -2.49513626  3242005246
-2.49513626 0.95276952 1.41808712  1064560820
1.60746849 -11.72572708 -2.49513626  3241880609
-2.49513626 0.95276952 -10.07764912  1064590155
-9.99151707 -5.41923618 -2.49513626  3233918131
-2.49513626 0.95451802 -9.52232170  1064590155
-9.42094803 -6.35958242 -2.49513626  3234879492
-2.49513626 0.95451802 -8.99119759  1064590155
-8.76216221 -7.24037361 -2.49513626  3236704115
-2.49513626 0.95451802 -8.52400303  1064590155
-8.27698135 -7.79038620 -2.49513626  3238058652
-2.49513626 0.95451802 -7.48525190  1064590155
-7.34627056 -8.67356205 -2.49513626  3238832071
-2.49513626 0.95451802 -7.06261683  1064590155
-6.91801548 -9.01884651 -2.49513626  3239186827
-2.49513626 0.95451802 -6.62344646  1064590155
-6.16875553 -9.54698753 -2.49513626  3239828298
-2.49513626 0.95451802 -5.05351210  1064590155
-4.88859320 -10.26157951 -2.49513626  3240455433
-2.49513626 0.95451802 -4.38638020  1064590155
-4.21662855 -10.55549431 -2.49513626  3240819207
-2.49513626 0.95451802 -3.70098376  1064590155
-3.35232997 -10.86095810 -2.49513626  3241110103
-2.49513626 0.95451802 -2.82291460  1064590155
-2.64490986 -11.05454540 -2.49513626  3241289045
-2.49513626 0.95451802 -2.10695362  1064590155
-1.92647696 -11.20210648 -2.49513626  3241391402
-2.49513626 0.95451802 -1.20002282  1064590155
-0.83472997 -11.33586311 -2.49513626  3241529020
-2.49513626 0.95451802 -0.10192028  1064590155
0.99712521 -11.32273197 -2.49513626  3241446913
-2.49513626 0.95451802 -9.52411652  1064617347
-9.34602451 -5.67085552 -2.49513626  3233744261
-2.49513626 0.95613879 -9.06070518  1064617347
-8.96084213 -6.26178408 -2.49513626  3234658868
-2.49513626 0.95613879 -8.31366348  1064617348
-8.19805908 -7.23177719 -2.49513626  3238361202
-2.49513626 0.95613879 -6.79255581  1064617347
-6.65348196 -8.67398167 -2.49513626  3238929755
-2.49513626 0.95613879 -6.08022881  1064617348
-5.63355160 -9.36855412 -2.49513626  3239531752
-2.49513626 0.95613879 -5.01762390  1064617347
-4.70166302 -9.86919212 -2.49513626  3240040877
-2.49513626 0.95613879 -4.38080931  1064617347
-4.05539656 -10.15187263 -2.49513626  3240326311
-2.49513626 0.95613879 -3.72576094  1064617347
-3.55946374 -10.33619022 -2.49513626  3240511168
-2.49513626 0.95613879 -3.05519819  1064617347
-2.88545799 -10.54423714 -2.49513626  3240803951
-2.49513626 0.95613879 -1.85281229  1064617347
-1.67875242 -10.80224800 -2.49513626  3240991952
-2.49513626 0.95613879 -1.15413582  1064617347
-0.97860008 -10.88801575 -2.49513626  3241046072
-2.49513626 0.95613879 -0.62681240  1064617348
-0.27437535 -10.92847061 -2.49513626  3241076563
-2.49513626 0.95613879 0.07834833  1064617347
0.25470236 -10.92894745 -2.49513626  3241047562
-2.49513626 0.95613879 1.30983472  1064617347
-9.41136169 -4.71816826 -2.49513626  3231751811
-2.49513626 0.95764530 -8.91126537  1064642622
-8.81967068 -5.74876499 -2.49513626  3234162297
-2.49513626 0.95764530 -8.32773399  1064642622
-8.11560059 -6.70610619 -2.49513626  3235561952
-2.49513626 0.95764530 -7.89501524  1064642622
-7.66621971 -7.21553040 -2.49513626  3236614950
-2.49513626 0.95764530 -7.42943239  1064642622
-7.30812359 -7.57800579 -2.49513626  3237362887
-2.49513626 0.95764530 -6.93291616  1064642622
-6.80419493 -8.03354073 -2.49513626  3238151875
-2.49513626 0.95764530 -6.40753269  1064642622
-6.27192974 -8.45563221 -2.49513626  3239165141
-2.49513626 0.95764530 -5.13139248  1064642622
-4.98241520 -9.27417660 -2.49513626  3239502254
-2.49513626 0.95764530 -4.52786684  1064642622
-4.06270742 -9.71232319 -2.49513626  3239865593
-2.49513626 0.95764530 -3.74724722  1064642622
-3.58803511 -9.89751530 -2.49513626  3240051728
-2.49513626 0.95764530 -3.26684904  1064642622
-2.94226122 -10.10831070 -2.49513626  3240261806
-2.49513626 0.95764530 -2.44973898  1064642622
-2.11813450 -10.31253242 -2.49513626  3240493581
-2.49513626 0.95764530 -1.44865215  1064642622
-1.28022945 -10.44968128 -2.49513626  3240591594
-2.49513626 0.95764530 -0.94242448  1064642622
-0.26423046 -10.52449703 -2.49513626  3240653010
-2.49513626 0.95764530 0.24528867  1064642622
0.41505486 -10.51962757 -2.49513626  3240610731
-2.49513626 0.95764530 1.09262514  1064642622
1.26141608 -10.45197201 -2.49513626  3240550999
-2.49513626 0.95764530 1.59796691  1064642622
-9.00001431 -4.69514751 -2.49513626  3231375146
-2.49513626 0.95904911 -8.67847538  1064666174
-8.41353703 -5.67953253 -2.49513626  3233419430
-2.49513626 0.95904911 -8.22591782  1064666174
-8.02974033 -6.21030807 -2.49513626  3234785944
-2.49513626 0.95904911 -7.71985626  1064666174
-7.61250544 -6.71523952 -2.49513626  3236308610
-2.49513626 0.95904911 -6.80721378  1064666174
-6.68483639 -7.63921785 -2.49513626  3238059765
-2.49513626 0.95904911 -6.04750156  1064666174
-5.50911045 -8.52609921 -2.49513626  3238736060
-2.49513626 0.95904911 -4.94777489  1064666174
-4.65923691 -9.01865482 -2.49513626  3239296134
-2.49513626 0.95904911 -3.91732907  1064666174
-3.76573420 -9.42676640 -2.49513626  3239561179
-2.49513626 0.95904911 -3.45964336  1064666174
-2.99385667 -9.69956112 -2.49513626  3239834132
-2.49513626 0.95904911 -2.67936325  1064666174
-2.52105093 -9.83305454 -2.49513626  3239966091
-2.49513626 0.95904911 -1.88165069  1064666174
-1.72047317 -10.00423145 -2.49513626  3240132018
-2.49513626 0.95904911 -1.39681458  1064666174
-0.74547100 -10.12368107 -2.49513626  3240240761
-2.49513626 0.95904911 -0.41846678  1064666174
-0.25477782 -10.14789295 -2.49513626  3240257844
-2.49513626 0.95904911 0.07275037  1064666174
0.23651014 -10.14833641 -2.49513626  3240249996
-2.49513626 0.95904911 0.72724622  1064666174
0.89050072 -10.11195755 -2.49513626  3240200791
-2.49513626 0.95904911 1.37870836  1064666174
-8.68786240 -4.53230381 -2.49513626  3231313284
-2.49513626 0.96036023 -8.45839596  1064688171
-8.29437637 -5.21766710 -2.49513626  3232446912
-2.49513626 0.96036029 -8.12172508  1064688171
-7.94061422 -5.74172068 -2.49513626  3233533820
-2.49513626 0.96036023 -7.55379248  1064688172
-7.24294043 -6.60003996 -2.49513626  3236017550
-2.49513626 0.96036029 -6.33316803  1064688172
-6.21170235 -7.57861900 -2.49513626  3237530990
-2.49513626 0.96036023 -5.83775330  1064688171
-5.31803560 -8.23038387 -2.49513626  3238503961
-2.49513626 0.96036029 -4.77616835  1064688172
-4.63750887 -8.63215923 -2.49513626  3238742834
-2.49513626 0.96036029 -4.35659361  1064688171
-4.21442175 -8.84643269 -2.49513626  3239027982
-2.49513626 0.96036029 -3.63512802  1064688171
-3.48784137 -9.15727329 -2.49513626  3239329170
-2.49513626 0.96036029 -2.73858356  1064688172
-2.58643222 -9.45151138 -2.49513626  3239607047
-2.49513626 0.96036029 -1.81639075  1064688171
-1.50478113 -9.68278503 -2.49513626  3239812830
-2.49513626 0.96036029 -0.71961427  1064688172
-0.40395293 -9.79068565 -2.49513626  3239885856
-2.49513626 0.96036029 -0.08786761  1064688172
0.38632247 -9.79139709 -2.49513626  3239873232
-2.49513626 0.96036029 0.85961396  1064688172
1.17409241 -9.72842407 -2.49513626  3239793882
-2.49513626 0.96036029 -8.46501350  1064708762
-8.39544868 -4.37975979 -2.49513626  3230973750
-2.49513626 0.96158755 -8.17370129  1064708762
-8.01520443 -5.04205036 -2.49513626  3232069227
-2.49513626 0.96158755 -7.84836388  1064708762
-7.67334890 -5.54846716 -2.49513626  3233374566
-2.49513626 0.96158749 -7.20128298  1064708762
-7.10114193 -6.26414824 -2.49513626  3234600889
-2.49513626 0.96158755 -6.89535141  1064708762
-6.68237352 -6.70907259 -2.49513626  3235519676
-2.49513626 0.96158755 -6.34994411  1064708762
-6.23578739 -7.12605810 -2.49513626  3236378946
-2.49513626 0.96158755 -5.76323175  1064708762
-5.39296150 -7.78343248 -2.49513626  3237904889
-2.49513626 0.96158755 -4.61541271  1064708762
-4.07257318 -8.54867935 -2.49513626  3238645750
-2.49513626 0.96158755 -3.65418482  1064708762
-3.22724438 -8.90228367 -2.49513626  3239053119
-2.49513626 0.96158755 -2.79274702  1064708762
-2.64640808 -9.09187889 -2.49513626  3239232173
-2.49513626 0.96158755 -2.20341086  1064708762
-2.05454803 -9.24362659 -2.49513626  3239340219
-2.49513626 0.96158755 -1.75525463  1064708762
-0.99970788 -9.41627407 -2.49513626  3239503391
-2.49513626 0.96158755 -0.69539559  1064708762
0.06786329 -9.46895599 -2.49513626  3239540561
-2.49513626 0.96158755 0.52592528  1064708762
0.67839193 -9.44486713 -2.49513626  3239489635
-2.49513626 0.96158755 1.28609478  1064708762
1.43728602 -9.35948467 -2.49513626  3230110128
-2.49513626 0.96273869 -7.83077669  1064728075
-7.75310183 -4.87716961 -2.49513626  3231972886
-2.49513626 0.96273869 -7.50804853  1064728075
-7.42242670 -5.36702728 -2.49513626  3233461385
-2.49513626 0.96273869 -6.86893034  1064728074
-6.77028227 -6.16933441 -2.49513626  3234614837
-2.49513626 0.96273869 -6.46385670  1064728075
-6.25112295 -6.69483805 -2.49513626  3235883419
-2.49513626 0.96273869 -5.45679235  1064728075
-5.21660805 -7.52890348 -2.49513626  3237525547
-2.49513626 0.96273869 -4.72020006  1064728075
-4.59294128 -7.92479086 -2.49513626  3238147113
-2.49513626 0.96273863 -3.80547404  1064728075
-3.67056084 -8.39192390 -2.49513626  3238791350
-2.49513626 0.96273869 -2.55986881  1064728075
-2.41764927 -8.83472633 -2.49513626  3238954927
-2.49513626 0.96273869 -1.84284997  1064728075
-1.26037574 -9.07242203 -2.49513626  3239218181
-2.49513626 0.96273869 0.06564590  1064728075
0.21340707 -9.15706539 -2.49513626  3239211099
-2.49513626 0.96273869 0.95061904  1064728075
1.09747350 -9.09356594 -2.49513626  3239129570
-2.49513626 0.96273869 -7.79543495  1064746223
-7.72620201 -4.35333538 -2.49513626  3231128348
-2.49513626 0.96382046 -7.42936468  1064746224
-7.26926231 -5.07971811 -2.49513626  3232122978
-2.49513626 0.96382046 -7.10159731  1064746223
-6.92653179 -5.53794765 -2.49513626  3233301995
-2.49513626 0.96382046 -6.65047121  1064746223
-6.55496073 -5.97312546 -2.49513626  3233972170
-2.49513626 0.96382046 -6.35884094  1064746224
-6.15609503 -6.38343191 -2.49513626  3235797657
-2.49513626 0.96382040 -5.28324509  1064746224
-5.05069685 -7.28945780 -2.49513626  3236681467
-2.49513626 0.96382046 -4.81289434  1064746224
-4.69209576 -7.52528667 -2.49513626  3237163845
-2.49513626 0.96382046 -4.19700336  1064746224
-4.07042217 -7.87892056 -2.49513626  3237884183
-2.49513626 0.96382064 -3.81410861  1064746224
-3.68444490 -8.06663322 -2.49513626  3238304114
-2.49513626 0.96382040 -3.02243042  1064746223
-2.88752651 -8.38498116 -2.49513626  3238454074
-2.49513626 0.96382046 -2.61550593  1064746223
-2.06357121 -8.62481689 -2.49513626  3238824649
-2.49513626 0.96382046 -1.07841814  1064746223
-0.93626386 -8.81868649 -2.49513626  3238875768
-2.49513626 0.96382046 -0.07952031  1064746223
0.06355802 -8.86801529 -2.49513626  3238910582
-2.49513626 0.96382046 0.34962851  1064746224
0.49254882 -8.85455227 -2.49513626  3238877255
-2.49513626 0.96382046 1.20447338  1064746223
1.34606946 -8.76548862 -2.49513626  3230324559
-2.49513626 0.96483886 -7.34696960  1064763310
-7.19932175 -4.69260359 -2.49513626  3232251215
-2.49513626 0.96483886 -6.71205854  1064763310
-6.62460661 -5.47406340 -2.49513626  3233364151
-2.49513626 0.96483886 -6.16194677  1064763310
-5.96547794 -6.18577576 -2.49513626  3234398127
-2.49513626 0.96483886 -5.65920496  1064763310
-5.55412912 -6.55762243 -2.49513626  3235700363
-2.49513626 0.96483886 -5.00763607  1064763310
-4.66386843 -7.21797037 -2.49513626  3236518478
-2.49513626 0.96483886 -3.69600844  1064763310
-3.31630874 -7.92798090 -2.49513626  3237961691
-2.49513626 0.96483886 -2.79811788  1064763310
-2.66666532 -8.16943359 -2.49513626  3238224352
-2.49513626 0.96483886 -1.59295607  1064763310
-1.45650673 -8.46931744 -2.49513626  3238518288
-2.49513626 0.96483886 -1.18250406  1064763310
-0.90727341 -8.54562092 -2.49513626  3238588993
-2.49513626 0.96483886 -0.35426292  1064763310
-0.21568614 -8.59094238 -2.49513626  3238602017
-2.49513626 0.96483886 0.75387371  1064763310
0.89188695 -8.54723835 -2.49513626  3238541673
-2.49513626 0.96483886 -7.45049858  1064779423
-7.26105165 -4.09124660 -2.49513626  3230292260
-2.49513626 0.96579921 -6.90775299  1064779423
-6.83162212 -4.77389812 -2.49513626  3231466903
-2.49513626 0.96579927 -6.50952578  1064779423
-6.16032410 -5.61351728 -2.49513626  3234000647
-2.49513626 0.96579927 -5.28322697  1064779423
-5.17854834 -6.53022337 -2.49513626  3235093771
-2.49513626 0.96579927 -4.96517181  1064779423
-4.85653210 -6.77312803 -2.49513626  3235750951
-2.49513626 0.96579927 -4.29493952  1064779423
-3.58448362 -7.52413750 -2.49513626  3237123959
-2.49513626 0.96579927 -3.21623898  1064779423
-3.09177542 -7.73964500 -2.49513626  3237559175
-2.49513626 0.96579927 -2.84046769  1064779423
-2.71368718 -7.88016939 -2.49513626  3238005033
-2.49513626 0.96579927 -1.93933570  1064779423
-1.67682052 -8.16391182 -2.49513626  3238201815
-2.49513626 0.96579927 -1.41255748  1064779423
-1.27985764 -8.23547935 -2.49513626  3238270131
-2.49513626 0.96579927 -0.87989682  1064779423
-0.34357321 -8.32725048 -2.49513626  3238353040
-2.49513626 0.96579927 0.46289527  1064779423
0.86497605 -8.28932858 -2.49513626  3238290310
-2.49513626 0.96579921 1.13195896  1064779422
-7.23121119 -3.62520123 -2.49513626  3229012675
-2.49513626 0.96670640 -7.04733992  1064794642
-6.98235893 -4.08401251 -2.49513626  3230025398
-2.49513626 0.96670640 -6.84696293  1064794642
-6.55493450 -4.73976135 -2.49513626  3231385948
-2.49513626 0.96670640 -6.39860821  1064794642
-6.23561430 -5.15263033 -2.49513626  3232240894
-2.49513626 0.96670640 -6.06612778  1064794642
-5.80012369 -5.63835764 -2.49513626  3233436252
-2.49513626 0.96670640 -5.52052832  1064794642
-5.42442131 -6.00067997 -2.49513626  3233991705
-2.49513626 0.96670640 -5.02612877  1064794642
-4.81903410 -6.49687719 -2.49513626  3235169371
-2.49513626 0.96670640 -4.49905348  1064794642
-4.39001036 -6.79413843 -2.49513626  3235620494
-2.49513626 0.96670640 -4.16853046  1064794642
-4.05614424 -6.99858522 -2.49513626  3236037899
-2.49513626 0.96670640 -3.82823467  1064794642
-3.59634519 -7.24560452 -2.49513626  3236656024
-2.49513626 0.96670640 -3.12157655  1064794642
-3.00077629 -7.51184654 -2.49513626  3237173787
-2.49513626 0.96670640 -2.38569355  1064794642
-1.75508940 -7.89633846 -2.49513626  3237842520
-2.49513626 0.96670640 -1.49942136  1064794642
-1.37098253 -7.97200775 -2.49513626  3237988193
-2.49513626 0.96670640 -0.98366272  1064794642
-0.46380866 -8.07572842 -2.49513626  3238093746
-2.49513626 0.96670640 0.31890854  1064794642
0.70960784 -8.05785084 -2.49513626  3238050245
-2.49513626 0.96670640 0.96920699  1064794642
1.22779739 -7.99531221 -2.49513626  3227605153
-2.49513626 0.96756446 -6.96570969  1064809039
-6.78172874 -3.96666336 -2.49513626  3229772541
-2.49513626 0.96756452 -6.65022326  1064809039
-6.58186769 -4.29013920 -2.49513626  3230444067
-2.49513626 0.96756452 -6.21475077  1064809039
-6.05644131 -5.00457525 -2.49513626  3231924375
-2.49513626 0.96756452 -5.89182472  1064809038
-5.80720949 -5.29174709 -2.49513626  3232710200
-2.49513626 0.96756452 -5.54437304  1064809038
-5.36189985 -5.74249983 -2.49513626  3233624882
-2.49513626 0.96756452 -5.07777500  1064809038
-4.88170958 -6.15590572 -2.49513626  3234458912
-2.49513626 0.96756452 -4.36977434  1064809038
-4.15684843 -6.66684914 -2.49513626  3235480842
-2.49513626 0.96756446 -3.49300838  1064809039
-3.37901735 -7.09284592 -2.49513626  3236212646
-2.49513626 0.96756452 -3.14842319  1064809039
-3.03188062 -7.24803209 -2.49513626  3236622917
-2.49513626 0.96756452 -1.70465970  1064809039
-1.33158875 -7.74294186 -2.49513626  3237545236
-2.49513626 0.96756452 -0.95539874  1064809039
-0.45048162 -7.84368086 -2.49513626  3237696778
-2.49513626 0.96756452 0.81539494  1064809039
0.94135791 -7.80000639 -2.49513626  3237511064
-2.49513626 0.96756452 -6.77014685  1064822677
-6.71228313 -3.64063382 -2.49513626  3228559022
-2.49513626 0.96837741 -6.52827215  1064822677
-6.46351671 -4.06594515 -2.49513626  3230398224
-2.49513626 0.96837741 -6.11485481  1064822677
-6.04026985 -4.67162609 -2.49513626  3231624004
-2.49513626 0.96837741 -5.56046009  1064822677
-5.47530222 -5.32259560 -2.49513626  3232571571
-2.49513626 0.96837741 -5.02858257  1064822677
-4.14415932 -6.41364813 -2.49513626  3234814334
-2.49513626 0.96837741 -3.93508196  1064822677
-3.72190142 -6.66756201 -2.49513626  3235332469
-2.49513626 0.96837741 -3.17250443  1064822677
-3.06003165 -6.99608278 -2.49513626  3236280641
-2.49513626 0.96837741 -2.48631620  1064822677
-2.36951280 -7.25908899 -2.49513626  3236527073
-2.49513626 0.96837741 -2.13408279  1064822677
-1.41544831 -7.50369596 -2.49513626  3237007705
-2.49513626 0.96837741 -1.17262220  1064822677
-0.92857611 -7.57935715 -2.49513626  3237149891
-2.49513626 0.96837741 -0.68356121  1064822677
-0.56077552 -7.61533356 -2.49513626  3237213042
-2.49513626 0.96837741 -0.06847215  1064822677
0.17791075 -7.63395691 -2.49513626  3237177648
-2.49513626 0.96837741 0.79250240  1064822677
0.91492909 -7.58101892 -2.49513626  3237090999
-2.49513626 0.96837741 -6.58428526  1064835614
-6.52800894 -3.54068637 -2.49513626  3228127398
-2.49513626 0.96914852 -6.15522671  1064835614
-5.80038023 -4.63755894 -2.49513626  3231146129
-2.49513626 0.96914852 -5.56920290  1064835614
-5.48921967 -5.00198269 -2.49513626  3232260091
-2.49513626 0.96914852 -4.98006296  1064835614
-4.70767546 -5.74362230 -2.49513626  3233582968
-2.49513626 0.96914852 -4.42426920  1064835614
-4.32746506 -6.03526783 -2.49513626  3234027119
-2.49513626 0.96914852 -3.92923355  1064835614
-3.72387147 -6.42527390 -2.49513626  3235062319
-2.49513626 0.96914852 -3.30174041  1064835614
-3.19399047 -6.70446110 -2.49513626  3235494532
-2.49513626 0.96914852 -2.86586380  1064835614
-2.64333892 -6.94004059 -2.49513626  3235867335
-2.49513626 0.96914852 -2.19026208  1064835614
-2.07549453 -7.13047600 -2.49513626  3236311815
-2.49513626 0.96914852 -1.72806823  1064835614
-1.61131787 -7.24948788 -2.49513626  3236574437
-2.49513626 0.96914852 -0.78404135  1064835614
-0.66479474 -7.39658308 -2.49513626  3236774139
-2.49513626 0.96914852 -0.18639146  1064835614
0.05322446 -7.42620850 -2.49513626  3236787650
-2.49513626 0.96914852 0.41246787  1064835614
0.65147811 -7.39776850 -2.49513626  3236715655
-2.49513626 0.96914852 0.88981038  1064835614
-6.35263538 -3.44556689 -2.49513626  3229388754
-2.49513626 0.96988094 -5.92385101  1064847902
-5.85629368 -4.23458624 -2.49513626  3230689860
-2.49513626 0.96988094 -5.34175301  1064847902
-5.26252651 -4.95315218 -2.49513626  3231963643
-2.49513626 0.96988094 -5.01671028  1064847902
-4.93213558 -5.28222847 -2.49513626  3232468541
-2.49513626 0.96988094 -4.67078400  1064847902
-4.39849472 -5.73420715 -2.49513626  3233542311
-2.49513626 0.96988094 -4.11590195  1064847902
-4.01952982 -6.00593758 -2.49513626  3233955192
-2.49513626 0.96988094 -3.62383008  1064847902
-3.52247953 -6.31031179 -2.49513626  3234801076
-2.49513626 0.96988094 -3.10818410  1064847902
-2.78887129 -6.66708946 -2.49513626  3235299914
-2.49513626 0.96988094 -2.57232261  1064847902
