# .PCD v0.7 - Point Cloud Data file format
VERSION 0.7
FIELDS x y z intensity
SIZE 4 4 4 4
TYPE F F F F
COUNT 1 1 1 1
WIDTH 1025
HEIGHT 1
VIEWPOINT 0 0 0 1 0 0 0
POINTS 1025
DATA ascii
0.69680351 11.14908504 -2.64753628  1093831309
-2.64753628 0.95511723 0.33888984  1064600209
-0.19850042 11.16907406 -2.64753628  1093837211
-2.64753628 0.95511723 -0.73545140  1064600208
-0.91411352 11.13337612 -2.64753628  1093767877
-2.64753628 0.95511723 -1.62595940  1064600208
-1.97955644 10.99404240 -2.64753628  1093455207
-2.64753628 0.95511723 -3.02668715  1064600208
-3.19874048 10.70306778 -2.64753628  1093298182
-2.64753628 0.95511723 -3.54033756  1064600208
-3.70979857 10.53684139 -2.64753628  1093048677
-2.64753628 0.95511723 -4.37764597  1064600208
-4.70499277 10.13166618 -2.64753628  1092673773
-2.64753628 0.95511723 -5.02748871  1064600208
-5.18682766 9.89365673 -2.64753628  1092416130
-2.64753628 0.95511723 -5.65666199  1064600208
-6.11339664 9.34954834 -2.64753628  1091723522
-2.64753628 0.95511723 -6.31450415  1064642622
-6.84154463 8.00175571 -2.49513626  1090290469
-2.49513626 0.95764530 -7.34044170  1064642622
5.12074995 9.47600746 -2.64753628  1092151578
-2.64753628 0.95660293 4.81421995  1064625134
4.34523916 9.85574341 -2.64753628  1092536668
-2.64753628 0.95660293 4.02693033  1064625134
3.86620283 10.05332088 -2.64753628  1092796689
-2.64753628 0.95660293 3.37822509  1064625134
3.21376920 10.28048897 -2.64753628  1092962963
-2.64753628 0.95660293 2.71561384  1064625134
2.04183459 10.57580566 -2.64753628  1093282930
-2.64753628 0.95660293 1.18811893  1064625134
0.84418422 10.73797607 -2.64753628  1093412613
-2.64753628 0.95660293 -0.19139998  1064625134
-0.36408913 10.76495361 -2.64753628  1093410731
-2.64753628 0.95660293 -0.70913589  1064625134
-0.88140392 10.73498535 -2.64753628  1093329403
-2.64753628 0.95660293 -1.73847330  1064625134
-1.90872264 10.60064220 -2.64753628  1093212485
-2.64753628 0.95660293 -2.24770021  1064625134
-2.41634917 10.49657249 -2.64753628  1093094839
-2.64753628 0.95660293 -2.75173211  1064625134
-2.91838193 10.36821270 -2.64753628  1092951817
-2.64753628 0.95660293 -3.24938560  1064625134
-3.41365480 10.21585846 -2.64753628  1092657984
-2.64753628 0.95660293 -4.06153727  1064625134
-4.22099924 9.90958881 -2.64753628  1092449073
-2.64753628 0.95660293 -4.69271231  1064625134
-5.15356541 9.45820045 -2.64753628  1091960134
-2.64753628 0.95660293 -5.45424604  1064625134
-5.74931002 9.10836124 -2.64753628  1090944631
-2.49513626 0.95904911 -6.34590483  1064666174
-6.59673023 7.71542501 -2.49513626  1089470245
-2.49513626 0.95904911 -6.96016884  1064666174
4.79581261 9.22544193 -2.64753628  1091883412
-2.64753628 0.95799071 4.49748421  1064648417
4.34656620 9.44542122 -2.64753628  1092106491
-2.64753628 0.95799071 4.04141855  1064648417
3.73210740 9.70463657 -2.64753628  1092367930
-2.64753628 0.95799071 3.41896605  1064648417
3.26105452 9.87289810 -2.64753628  1092587253
-2.64753628 0.95799071 2.62142849  1064648417
2.45973349 10.10239220 -2.64753628  1092763559
-2.64753628 0.95799071 2.13448358  1064648416
1.64259696 10.26695919 -2.64753628  1092922356
-2.64753628 0.95799071 0.64856589  1064648417
0.14872487 10.39646626 -2.64753628  1093031310
-2.64753628 0.95799071 -0.35146132  1064648417
-1.67817378 10.26120472 -2.64753628  1092828118
-2.64753628 0.95799065 -2.16974139  1064648416
-2.33254242 10.13251495 -2.64753628  1092714553
-2.64753628 0.95799071 -2.65628934  1064648417
-2.81716299 10.00860786 -2.64753628  1092471003
-2.64753628 0.95799065 -3.60981989  1064648416
-3.76572990 9.69163990 -2.64753628  1092228221
-2.64753628 0.95799071 -4.07459927  1064648417
-4.37928343 9.43029499 -2.64753628  1091943902
-2.64753628 0.95799071 -4.67945576  1064648416
-5.12060452 9.04920006 -2.64753628  1091531872
-2.64753628 0.95799071 -5.23043203  1064688171
-5.36264515 8.20138645 -2.49513626  1090545453
-2.49513626 0.96036029 -6.71876574  1064688172
4.63482523 8.25737000 -2.49513626  1090865739
-2.49513626 0.96158755 4.49082947  1064670211
3.75642443 9.31895447 -2.64753628  1091963974
-2.64753628 0.95928973 3.30388904  1064670211
3.15129447 9.54059505 -2.64753628  1092186176
-2.64753628 0.95928973 2.68879795  1064670211
2.06263781 9.83357143 -2.64753628  1092505739
-2.64753628 0.95928973 0.78747708  1064670211
0.62673843 10.02800465 -2.64753628  1092661222
-2.64753628 0.95928973 0.14371926  1064670211
-0.01741404 10.04755306 -2.64753628  1092664406
-2.64753628 0.95928973 -0.50062567  1064670211
-0.82219630 10.01387024 -2.64753628  1092615561
-2.64753628 0.95928973 -1.78050530  1064670211
-1.93885994 9.85872650 -2.64753628  1092434121
-2.64753628 0.95928973 -2.41076660  1064670211
-2.72234106 9.67173481 -2.64753628  1092224899
-2.64753628 0.95928973 -3.03111053  1064670211
-3.18434477 9.52961636 -2.64753628  1092068125
-2.64753628 0.95928973 -4.08519411  1064670211
-4.23188591 9.11288929 -2.64753628  1091613599
-2.64753628 0.95928973 -4.52195215  1064670211
-4.53065157 8.31498337 -2.49513626  1090772015
-2.49513626 0.96158755 -4.79498816  1064708762
-5.18215322 7.92534351 -2.49513626  1090186046
-2.49513626 0.96158755 -5.43364668  1064708762
-5.55731630 7.66694069 -2.49513626  1089438538
-2.49513626 0.96158755 -6.03738880  1064708762
-6.15360260 7.19715214 -2.49513626  1088197218
-2.49513626 0.96158755 4.48326254  1064728075
4.35459280 8.05822086 -2.49513626  1090652230
-2.49513626 0.96273869 3.96199512  1064728075
3.83047366 8.32391167 -2.49606752  1090918696
-2.49513626 0.96273869 3.34263706  1064690655
3.19585228 9.17854023 -2.64753628  1091807334
-2.64753628 0.96050829 2.89985371  1064690655
2.75071597 9.32162189 -2.64753628  1091992334
-2.64753628 0.96050835 2.29921389  1064690655
1.99518800 9.51200867 -2.64753628  1092193572
-2.64753628 0.96050835 1.07206547  1064690655
0.91701633 9.67564774 -2.64753628  1092310589
-2.64753628 0.96050835 0.29484951  1064690655
0.13902181 9.71801090 -2.64753628  1092315725
-2.64753628 0.96050829 -0.79531002  1064690655
-1.10554254 9.65592766 -2.64753628  1092213018
-2.64753628 0.96050829 -2.18032455  1064690655
-2.33193421 9.43510246 -2.64753628  1091940347
-2.64753628 0.96050835 -2.78301549  1064690655
-2.93198991 9.26620483 -2.64753628  1091796198
-2.64753628 0.96050829 -3.37425065  1064690656
-3.51998734 9.05918217 -2.64753628  1091569261
-2.64753628 0.96050829 -3.58945942  1064728075
-3.72413850 8.36828613 -2.49513626  1090841459
-2.49513626 0.96273869 -3.99059367  1064728075
-4.12230015 8.17948914 -2.49513626  1090459823
-2.49513626 0.96273869 -4.63818979  1064728075
-5.13499069 7.58480406 -2.49513626  1089473570
-2.49513626 0.96273869 -5.61065960  1064728075
-6.06325531 6.86544418 -2.49513626  1087933924
-2.49513626 0.96273869 -6.38643217  1064728075
4.34067869 7.73331976 -2.49513626  1090577939
-2.49513626 0.96382046 3.44699955  1064746224
3.05003595 8.32724476 -2.49513626  1090912346
-2.49513626 0.96382046 2.78141451  1064746224
2.80762696 8.98128605 -2.64753628  1091593997
-2.64753628 0.96165353 2.51815534  1064709869
2.37242818 9.10592651 -2.64753628  1091717359
-2.64753628 0.96165353 2.07917953  1064709869
1.78379655 9.23928452 -2.64753628  1091873526
-2.64753628 0.96165353 1.33737290  1064709869
1.18781936 9.33463478 -2.64753628  1091953418
-2.64753628 0.96165353 0.58696288  1064709869
0.13459876 9.40894127 -2.64753628  1091997417
-2.64753628 0.96165353 -0.16720922  1064709869
-0.46885231 9.39822006 -2.64753628  1091976024
-2.64753628 0.96165353 -0.77001542  1064709869
-1.07037926 9.34882927 -2.64753628  1091914128
-2.64753628 0.96165353 -1.51876950  1064709869
-1.66750789 9.26098347 -2.64753628  1091811986
-2.64753628 0.96165353 -1.96364570  1064709869
-2.25776958 9.13502884 -2.64753628  1091584260
-2.64753628 0.96165353 -2.83874226  1064709869
-2.81058192 8.41108513 -2.49513626  1090901697
-2.49513626 0.96382040 -3.07888126  1064746223
-3.21185946 8.26617718 -2.49513626  1090743027
-2.49513626 0.96382040 -3.47529960  1064746223
-3.73517060 8.04327202 -2.49513626  1090482000
-2.49513626 0.96382046 -3.99119043  1064746224
-4.11768818 7.85432196 -2.49513626  1090072929
-2.49513626 0.96382046 -4.49067640  1064746224
-4.73361301 7.49924135 -2.49513626  1089307654
-2.49513626 0.96382046 -4.97167683  1064746224
-5.08880424 7.26290464 -2.49513626  1088800138
-2.49513626 0.96382046 -5.31910563  1064746224
-5.65423203 6.83194447 -2.49513626  1087877445
-2.49513626 0.96382040 -5.87042284  1064746223
-6.08057165 6.45541239 -2.49513626  1089457605
-2.49513626 0.96483886 4.08555174  1064763310
3.96378040 7.62490654 -2.49513626  1089863667
-2.49513626 0.96483886 3.59247732  1064763310
3.46681809 7.86333132 -2.49513626  1090457100
-2.49513626 0.96483886 2.95559597  1064763310
2.82580614 8.11576080 -2.49513626  1090686850
-2.49513626 0.96483886 2.29971838  1064763310
2.03335238 8.35119820 -2.49557948  1090952543
-2.49596810 0.96482736 1.58475649  1064727959
1.44054461 9.00402737 -2.64753628  1091633562
-2.64753628 0.96273178 0.27663302  1064727959
-0.01580439 9.11852169 -2.64753628  1091680036
-2.64753628 0.96273178 -0.74617374  1064727959
-1.03723741 9.05935001 -2.64753628  1091611190
-2.64753628 0.96273178 -1.32723856  1064727959
-1.47174263 8.99898148 -2.64753628  1090911846
-2.49513626 0.96483886 -2.19544435  1064763310
-2.46076894 8.23379421 -2.49513626  1090630102
-2.49513626 0.96483886 -2.98354673  1064763310
-3.11240697 8.01022339 -2.49513626  1090207129
-2.49513626 0.96483886 -3.61951494  1064763310
-3.86760998 7.67413425 -2.49513626  1089703498
-2.49513626 0.96483886 -4.35162783  1064763310
-4.70299101 7.19253874 -2.49513626  1088665561
-2.49513626 0.96483886 -5.04346800  1064763310
-5.37227345 6.70741463 -2.49513626  1087439741
-2.49513626 0.96483886 -5.68864918  1064763310
-5.79122019 6.34921503 -2.49513626  1086660756
-2.49513626 0.96483886 3.60504508  1064779423
3.48407531 7.57115602 -2.49513626  1089734825
-2.49513626 0.96579927 3.23947501  1064779423
2.99154401 7.77893496 -2.49513626  1090338284
-2.49513626 0.96579927 2.48671031  1064779423
2.23032355 8.03036499 -2.49513626  1090587307
-2.49513626 0.96579927 1.97164726  1064779423
1.84152460 8.12834263 -2.49513626  1090711159
-2.49513626 0.96579927 1.44846249  1064779423
1.31665683 8.22967720 -2.49513626  1090780903
-2.49513626 0.96579927 1.05205178  1064779423
0.78636748 8.29715538 -2.49513626  1090851256
-2.49757648 0.96576637 0.52042085  1064778827
0.38680616 8.33426285 -2.49780035  1090871811
-2.49615669 0.96578550 -0.28182206  1064779219
-0.41541168 8.32696629 -2.49603033  1090844605
-2.49636722 0.96578264 -0.81512058  1064779423
-0.94803321 8.28024197 -2.49513626  1090755036
-2.49513626 0.96579927 -1.47690833  1064779423
-1.73919797 8.15084839 -2.49513626  1090614337
-2.49513626 0.96579927 -2.12919831  1064779423
-2.51426840 7.94604588 -2.49513626  1090228217
-2.49513626 0.96579927 -2.89351988  1064779423
-3.01849365 7.76851797 -2.49513626  1089929976
-2.49513626 0.96579927 -3.75090599  1064779423
-3.98766160 7.31845140 -2.49513626  1088953635
-2.49513626 0.96579927 -4.22031879  1064779423
-4.33502769 7.11819363 -2.49513626  1088522041
-2.49513626 0.96579927 -4.56107950  1064779423
-4.67236280 6.90146303 -2.49513626  1088056247
-2.49513626 0.96579927 -4.89128399  1064779423
-4.99887371 6.66876507 -2.49513626  1087383845
-2.49513626 0.96579927 -5.41610384  1064779423
3.95928478 7.05383301 -2.49513626  1088793460
-2.49513626 0.96670640 3.61545086  1064794642
3.38153005 7.34831572 -2.49513626  1089264106
-2.49513626 0.96670640 3.02420092  1064794642
2.53702474 7.68088484 -2.49513626  1089933059
-2.49513626 0.96670640 2.28939581  1064794642
2.03940988 7.82772636 -2.49513626  1090286476
-2.49513626 0.96670640 1.66057563  1064794642
1.53340507 7.94236565 -2.49513626  1090526298
-2.49513626 0.96670640 0.76322180  1064794642
0.63397658 8.06415367 -2.49513626  1090608495
-2.49513626 0.96670640 0.11570499  1064794642
-0.01401978 8.08902359 -2.49513626  1090607554
-2.49513626 0.96670640 -0.40304062  1064794642
-0.53255415 8.07148647 -2.49513626  1090571736
-2.49513626 0.96670640 -0.92012912  1064794642
-1.17738831 8.00289059 -2.49513626  1090483344
-2.49513626 0.96670640 -1.43343842  1064794642
-1.56092465 7.93700314 -2.49513626  1090332289
-2.49513626 0.96670640 -1.81466103  1064794642
-1.94084346 7.85274696 -2.49513626  1089995408
-2.49513626 0.96670640 -2.56363273  1064794642
-2.68634057 7.62994528 -2.49513626  1089554080
-2.49513626 0.96670640 -3.05018830  1064794642
-3.64050579 7.22351933 -2.49513626  1088637996
-2.49513626 0.96670640 -4.09610415  1064794642
-4.20743752 6.90868902 -2.49513626  1088087024
-2.49513626 0.96670640 -4.53483963  1064794642
-4.64167643 6.62475204 -2.49513626  1087477038
-2.49513626 0.96670640 -4.85174465  1064794642
-4.95491695 6.39384890 -2.49513626  1086635415
-2.49513626 0.96670640 -5.45116520  1064794642
-5.54630423 5.88820982 -2.49513626  1088109725
-2.49513626 0.96756452 3.73515224  1064809038
3.62382460 6.97095156 -2.49513626  1088709552
-2.49513626 0.96756452 3.05378556  1064809039
2.70210528 7.37732077 -2.49513626  1089386965
-2.49513626 0.96756446 2.34417057  1064809039
2.22361302 7.53536844 -2.49513626  1089811083
-2.49513626 0.96756452 1.48934495  1064809039
0.86663306 7.80866241 -2.49513626  1090144818
-2.49513626 0.96756452 0.49007255  1064809039
0.23834972 7.85298872 -2.49513626  1090216635
-2.49513626 0.96756452 -0.01361675  1064809038
-0.26557192 7.85211754 -2.49513626  1090197859
-2.49513626 0.96756446 -0.64290851  1064809038
-1.01875782 7.79027557 -2.49513626  1090042850
-2.49513626 0.96756452 -1.39225030  1064809039
-1.76251948 7.65635538 -2.49513626  1089737027
-2.49513626 0.96756446 -2.12870955  1064809039
-2.24971747 7.52761650 -2.49513626  1089283206
-2.49513626 0.96756446 -2.72766018  1064809039
-3.07885790 7.22819996 -2.49513626  1088572380
-2.49513626 0.96756452 -3.53589964  1064809039
-3.75908732 6.89895010 -2.49513626  1088081676
-2.49513626 0.96756452 -4.08654356  1064809039
-4.40453768 6.50586367 -2.49513626  1087082373
-2.49513626 0.96756452 -4.71233654  1064809039
-4.91151810 6.13214874 -2.49513626  1086435032
-2.49513626 0.96756452 -5.20075655  1064809039
-5.29453230 5.80467033 -2.49513626  1085735475
-2.49513626 0.96756452 -5.47796249  1064809039
3.73755550 6.65880251 -2.49513626  1087830250
-2.49513626 0.96837741 3.30298948  1064822677
3.08049870 6.98709536 -2.49513626  1088496540
-2.49513626 0.96837741 2.74089170  1064822677
2.62624383 7.17020369 -2.49513626  1089100974
-2.49513626 0.96837741 1.68722785  1064822677
1.44753015 7.49757385 -2.49513626  1089512039
-2.49513626 0.96837741 0.59847248  1064822677
0.23165712 7.63251495 -2.49513626  1089754100
-2.49513626 0.96837741 -0.01323444  1064822677
-0.13568860 7.63482428 -2.49513626  1089746585
-2.49513626 0.96837741 -0.38047081  1064822677
-0.50273222 7.61946154 -2.49513626  1089702034
-2.49513626 0.96837741 -0.74682403  1064822677
-0.86860204 7.58646774 -2.49513626  1089620539
-2.49513626 0.96837741 -1.47351050  1064822677
-1.59347618 7.46791649 -2.49513626  1089224336
-2.49513626 0.96837741 -2.30360556  1064822677
-2.42006111 7.24239302 -2.49513626  1088846877
-2.49513626 0.96837741 -2.65108180  1064822677
-2.76558399 7.11761904 -2.49513626  1088474876
-2.49513626 0.96837741 -3.10469699  1064822677
-3.21617842 6.92568779 -2.49513626  1088042268
-2.49513626 0.96837741 -3.76061249  1064822677
-3.97181368 6.52178192 -2.49513626  1087144836
-2.49513626 0.96837741 -4.28088140  1064822677
-4.38173342 6.25374794 -2.49513626  1086707835
-2.49513626 0.96837741 -4.96230745  1064822677
-5.05474424 5.72350693 -2.49513626  1085573332
-2.49513626 0.96837741 -5.32416725  1064822677
3.53062391 6.53345919 -2.49513626  1087560457
-2.49513626 0.96914852 3.21231246  1064835614
3.10451889 6.74635792 -2.49513626  1087992554
-2.49513626 0.96914852 2.77646565  1064835614
2.66564655 6.93150234 -2.49513626  1088530273
-2.49513626 0.96914852 2.21581030  1064835614
1.98735499 7.15554428 -2.49513626  1088984400
-2.49513626 0.96914852 1.40779126  1064835614
1.17322016 7.33314085 -2.49513626  1089158012
-2.49513626 0.96914852 0.70070082  1064835614
0.58204216 7.40355444 -2.49513626  1089285778
-2.49513626 0.96914852 0.34431356  1064835614
0.22529650 7.42298126 -2.49513626  1089314517
-2.49513626 0.96914852 -0.01287134  1064835614
-0.37002441 7.41717529 -2.49513626  1089282322
-2.49513626 0.96914852 -0.60770494  1064835614
-0.72632378 7.39079428 -2.49513626  1089184623
-2.49513626 0.96914852 -1.08094013  1064835614
-1.43305612 7.28681993 -2.49513626  1088973234
-2.49513626 0.96914852 -1.66600823  1064835614
-2.01214647 7.14861059 -2.49513626  1088663951
-2.49513626 0.96914852 -2.35362434  1064835614
-2.46628094 7.00491524 -2.49513626  1088347366
-2.49513626 0.96914852 -2.91026855  1064835614
-3.23550034 6.68452740 -2.49513626  1087535479
-2.49513626 0.96914852 -3.55324888  1064835614
-3.65737176 6.46335983 -2.49513626  1087171714
-2.49513626 0.96914852 -3.86277342  1064835614
-3.96399641 6.27997684 -2.49513626  1086638521
-2.49513626 0.96914852 -4.35842991  1064835614
-4.45429945 5.94227457 -2.49513626  1086052269
-2.49513626 0.96914852 -4.73493576  1064835614
-4.82607794 5.64449883 -2.49513626  1085415367
-2.49513626 0.96914852 -5.17800283  1064835614
3.53729534 6.30201769 -2.49513626  1087509871
-2.49513626 0.96988094 2.91544366  1064847902
2.70187521 6.70281649 -2.49513626  1087887717
-2.49513626 0.96988094 2.48552918  1064847902
2.37638140 6.82500553 -2.49513626  1088408107
-2.49513626 0.96988094 1.70965898  1064847902
1.48359025 7.07296658 -2.49513626  1088622899
-2.49513626 0.96988094 1.25599587  1064847902
1.14170206 7.13613367 -2.49513626  1088805218
-2.49513626 0.96988094 0.56640530  1064847902
0.45079237 7.21281338 -2.49513626  1088881406
-2.49513626 0.96988094 0.21924430  1064847902
0.10337348 7.22614813 -2.49513626  1088897680
-2.49513626 0.96988094 -0.12841825  1064847902
-0.47579443 7.21120691 -2.49513626  1088846877
-2.49513626 0.96988094 -0.70681077  1064847902
-0.82206023 7.17998028 -2.49513626  1088698995
-2.49513626 0.96988094 -1.28065920  1064847902
-1.39455545 7.09105825 -2.49513626  1088511408
-2.49513626 0.96988094 -1.95809031  1064847902
-2.29039335 6.85434151 -2.49513626  1087588431
-2.49513626 0.96988094 -3.14857793  1064847902
-3.25249410 6.45361757 -2.49513626  1087050329
-2.49513626 0.96988094 -3.55911636  1064847902
-3.75900102 6.17234230 -2.49513626  1086426693
-2.49513626 0.96988094 -4.24134064  1064847902
-4.60773134 5.56746817 -2.49513626  1085101755
-2.49513626 0.96988094 -4.87016726  1064847902
-5.03889465 5.18048573 -2.49513626  1086610413
-2.49513626 0.97057742 3.24567103  1064859587
3.04377198 6.34439802 -2.49513626  1087147652
-2.49513626 0.97057742 2.83874178  1064859587
2.73511839 6.48344517 -2.49513626  1087428833
-2.49513626 0.97057742 2.31386161  1064859587
2.09955263 6.71623468 -2.49513626  1087960754
-2.49513626 0.97057742 1.77410913  1064859587
1.66467893 6.83701420 -2.49513626  1088134229
-2.49513626 0.97057742 1.11166382  1064859587
1.00009072 6.96532440 -2.49513626  1088380926
-2.49513626 0.97057742 0.77619821  1064859587
0.21347605 7.03351593 -2.49513626  1088497459
-2.49513626 0.97057742 -0.01219619  1064859587
-0.12503968 7.03564453 -2.49513626  1088466954
-2.49513626 0.97057742 -0.57582009  1064859587
-0.68821532 7.00302172 -2.49513626  1088403184
-2.49513626 0.97057742 -0.91244870  1064859587
-1.13574100 6.94449711 -2.49513626  1088122839
-2.49513626 0.97057742 -1.68836617  1064859587
-1.90657568 6.77354431 -2.49513626  1087881025
-2.49513626 0.97057742 -2.12281847  1064859587
-2.23013639 6.67401028 -2.49513626  1087581049
-2.49513626 0.97057742 -2.65339708  1064859587
-2.75757408 6.47392511 -2.49513626  1087224143
-2.49513626 0.97057742 -2.96377611  1064859587
-3.06574273 6.33380985 -2.49513626  1086811759
-2.49513626 0.97057742 -3.46548057  1064859587
-3.66010427 6.00995779 -2.49513626  1086220900
-2.49513626 0.97057742 -4.03785467  1064859587
-4.12975550 5.69746065 -2.49513626  1084802886
-2.49513626 0.97057742 -4.90632725  1064859587
3.35543156 5.97801304 -2.49513626  1086389867
-2.49513626 0.97124046 3.16199112  1064870711
2.96529746 6.18082428 -2.49513626  1086988038
-2.49513626 0.97124052 2.56296253  1064870712
2.15008855 6.50942993 -2.49513626  1087463650
-2.49513626 0.97124046 1.72836876  1064870711
1.40731382 6.70932293 -2.49513626  1087899713
-2.49513626 0.97124046 0.75618619  1064870711
0.64682114 6.82475185 -2.49513626  1088074278
-2.49513626 0.97124046 0.09805887  1064870711
-0.12181601 6.85425138 -2.49513626  1088100645
-2.49513626 0.97124046 -0.67046964  1064870711
-0.77979720 6.81083775 -2.49513626  1087965396
-2.49513626 0.97124046 -1.21481764  1064870711
-1.32285869 6.72648716 -2.49513626  1087801985
-2.49513626 0.97124046 -1.53789771  1064870711
-1.64483619 6.65508080 -2.49513626  1087641426
-2.49513626 0.97124046 -2.27663159  1064870712
-2.38003778 6.42892027 -2.49513626  1086968589
-2.49513626 0.97124052 -2.98670459  1064870711
-3.08527327 6.12182093 -2.49513626  1086366105
-2.49513626 0.97124046 -3.37613177  1064870712
-3.65917850 5.79706717 -2.49513626  1085774534
-2.49513626 0.97124046 -3.84320617  1064870712
-3.93374920 5.61437464 -2.49513626  1085245395
-2.49513626 0.97124052 -4.19921684  1064870711
-4.37083626 5.28123093 -2.49513626  1084517706
-2.49513626 0.97124046 -4.77983284  1064870711
3.27059650 5.82687140 -2.49513626  1086175344
-2.49513626 0.97187251 2.89032435  1064881315
2.79333758 6.07013464 -2.49513626  1086738826
-2.49513626 0.97187251 2.09572840  1064881315
1.58075678 6.49233675 -2.49513626  1087456551
-2.49513626 0.97187251 1.16129899  1064881315
0.63046634 6.65219975 -2.49513626  1087711908
-2.49513626 0.97187251 0.30980134  1064881315
0.09557939 6.68132544 -2.49513626  1087752800
-2.49513626 0.97187251 -0.22586781  1064881315
-0.33293480 6.67370939 -2.49513626  1087724612
-2.49513626 0.97187251 -0.54679102  1064881315
-0.65351856 6.64997435 -2.49513626  1087636702
-2.49513626 0.97187251 -0.97259098  1064881315
-1.07848573 6.59440184 -2.49513626  1087491634
-2.49513626 0.97187251 -1.60324931  1064881315
-1.81045854 6.43206692 -2.49513626  1087168224
-2.49513626 0.97187251 -2.21907234  1064881315
-2.51963091 6.18875599 -2.49513626  1086544458
-2.49513626 0.97187245 -2.81436276  1064881315
-3.00726771 5.96703959 -2.49513626  1086152860
-2.49513626 0.97187251 -3.19708753  1064881315
-3.29077387 5.81550074 -2.49513626  1085825565
-2.49513626 0.97187251 -3.74603963  1064881315
-3.83429217 5.47242594 -2.49513626  1085087901
-2.49513626 0.97187251 -4.09304810  1064881315
-4.17722511 5.21536350 -2.49513626  1084537341
-2.49513626 0.97187251 -4.50297642  1064881315
-4.58156681 4.86399889 -2.49513626  1085658503
-2.49513626 0.97247547 3.09791946  1064891431
2.72403765 5.91953897 -2.49513626  1086416382
-2.49513626 0.97247547 2.33895040  1064891431
2.24111509 6.11871958 -2.49513626  1086647433
-2.49513626 0.97247547 1.94424522  1064891431
1.84425378 6.24980402 -2.49513626  1086908953
-2.49513626 0.97247547 1.64287460  1064891431
1.43980253 6.35517645 -2.49513626  1087116308
-2.49513626 0.97247547 1.23525655  1064891431
1.02943277 6.43440771 -2.49513626  1087298049
-2.49513626 0.97247547 0.71878082  1064891431
0.61482430 6.48716497 -2.49513626  1087392665
-2.49513626 0.97247547 0.09320814  1064891431
-0.11579009 6.51520729 -2.49513626  1087361531
-2.49513626 0.97247547 -0.74122465  1064891431
-0.84495336 6.46122122 -2.49513626  1087261831
-2.49513626 0.97247547 -1.15472686  1064891431
-1.35979891 6.37277651 -2.49513626  1087008176
-2.49513626 0.97247547 -1.76554322  1064891431
-1.96579087 6.21264839 -2.49513626  1086557342
-2.49513626 0.97247547 -2.36002064  1064891431
-2.45712209 6.03522015 -2.49513626  1086314331
-2.49513626 0.97247547 -2.64940405  1064891431
-2.74454165 5.91006136 -2.49513626  1085945162
-2.49513626 0.97247547 -3.02560806  1064891431
-3.20913291 5.67122412 -2.49513626  1085057925
-2.49513626 0.97247547 -3.82427120  1064891431
-4.31348610 4.88417482 -2.49513626  1083838288
-2.49513626 0.97247547 -4.46790409  1064891431
3.11176324 5.54389620 -2.49513626  1085762657
-2.49513626 0.97305131 2.47109938  1064901092
2.37684274 5.89648056 -2.49513626  1086333060
-2.49513626 0.97305131 1.99395156  1064901092
1.89688492 6.06792355 -2.49513626  1086588211
-2.49513626 0.97305131 1.60285592  1064901092
1.50398850 6.17704391 -2.49513626  1086744942
-2.49513626 0.97305131 1.30511487  1064901092
1.00435603 6.27766848 -2.49513626  1086967824
-2.49513626 0.97305137 0.70127255  1064901092
0.59984761 6.32914114 -2.49513626  1087033464
-2.49513626 0.97305131 0.29475573  1064901092
0.19287072 6.35457945 -2.49513626  1087073109
-2.49513626 0.97305137 -0.11297043  1064901092
-0.21489875 6.35386992 -2.49513626  1087045549
-2.49513626 0.97305131 -0.52023667  1064901092
-0.92535949 6.28979778 -2.49513626  1086899669
-2.49513626 0.97305131 -1.12659824  1064901092
-1.42621732 6.19546270 -2.49513626  1086685011
-2.49513626 0.97305137 -1.82045400  1064901093
-2.20720100 5.96205664 -2.49513626  1086090290
-2.49513626 0.97305131 -2.49138737  1064901093
-2.58486605 5.80829620 -2.49513626  1085834200
-2.49513626 0.97305137 -2.76980925  1064901092
-2.95190692 5.63063812 -2.49513626  1085449340
-2.49513626 0.97305131 -3.30679893  1064901092
-3.39345264 5.37609005 -2.49513626  1084782270
-2.49513626 0.97305131 -3.64808345  1064901092
-3.73111343 5.14749002 -2.49513626  1084280402
-2.49513626 0.97305131 -4.13145113  1064901092
-4.20841217 4.76519871 -2.49513626  1083446992
-2.49513626 0.97305131 2.86219287  1064910328
2.50334287 5.67800665 -2.49513626  1085811703
-2.49513626 0.97360182 1.66059566  1064910328
1.56449628 6.00490093 -2.49513626  1086386008
-2.49513626 0.97360182 1.27388155  1064910328
1.07845998 6.11092377 -2.49513626  1086591982
-2.49513626 0.97360182 0.88193011  1064910328
0.68448883 6.16749191 -2.49513626  1086697346
-2.49513626 0.97360182 0.38707229  1064910328
0.08876143 6.20472288 -2.49513626  1086755385
-2.49513626 0.97360182 -0.11026628  1064910328
-0.20975584 6.20181179 -2.49513626  1086727169
-2.49513626 0.97360182 -0.50778633  1064910328
-0.90321308 6.13927364 -2.49513626  1086584783
-2.49513626 0.97360182 -1.39208567  1064910328
-1.48888469 6.02409220 -2.49513626  1086323561
-2.49513626 0.97360182 -1.68131173  1064910328
-1.77688873 5.94551325 -2.49513626  1086149104
-2.49513626 0.97360182 -2.15437913  1064910328
-2.24742818 5.78407574 -2.49513626  1085794766
-2.49513626 0.97360182 -2.52300644  1064910328
-2.61360312 5.62810230 -2.49513626  1085362966
-2.49513626 0.97360182 -3.05603147  1064910328
-3.31224155 5.24743080 -2.49513626  1084633671
-2.49513626 0.97360182 -3.56077838  1064910328
-3.64182210 5.02430105 -2.49513626  1084028201
-2.49513626 0.97360182 -3.87924767  1064910328
-3.95642257 4.78050089 -2.49513626  1083356603
-2.49513626 0.97360182 -4.32664156  1064910328
2.88071871 5.33080196 -2.49513626  1085016772
-2.49513626 0.97412860 2.70827818  1064919166
2.62100124 5.46317959 -2.49513626  1085285615
-2.49513626 0.97412860 2.44444942  1064919166
2.35521841 5.58291435 -2.49513626  1085674044
-2.49513626 0.97412860 1.99247253  1064919166
1.71495140 5.81162214 -2.49513626  1086088546
-2.49513626 0.97412860 1.24391258  1064919166
1.14864933 5.94949961 -2.49513626  1086320249
-2.49513626 0.97412860 0.76487923  1064919166
0.66838467 6.02239752 -2.49513626  1086392555
-2.49513626 0.97412860 0.47490174  1064919166
0.37796593 6.04757071 -2.49513626  1086435586
-2.49513626 0.97412860 0.18382581  1064919166
0.08667251 6.05875063 -2.49513626  1086449223
-2.49513626 0.97412860 -0.10767168  1064919166
-0.20482108 6.05590582 -2.49513626  1086433468
-2.49513626 0.97412860 -0.39892912  1064919166
-0.49584043 6.03904963 -2.49513626  1086388324
-2.49513626 0.97412860 -0.68925691  1064919166
-0.97799027 5.97992802 -2.49513626  1086248133
-2.49513626 0.97412860 -1.16926420  1064919166
-1.35933530 5.90492868 -2.49513626  1086078046
-2.49513626 0.97412860 -1.54800439  1064919166
-1.82796621 5.77706718 -2.49513626  1085728036
-2.49513626 0.97412860 -2.19455504  1064919166
-2.28485084 5.61208200 -2.49513626  1085267134
-2.49513626 0.97412860 -2.63992238  1064919166
-2.72704864 5.41102695 -2.49513626  1084996389
-2.49513626 0.97412860 -2.98413539  1064919166
-3.06832767 5.22506618 -2.49513626  1084594983
-2.49513626 0.97412860 -3.47700977  1064919166
-3.71165204 4.78953218 -2.49513626  1083660076
-2.49513626 0.97412860 -3.93771052  1064919166
-4.01106215 4.54173946 -2.49513626  1083130405
-2.49513626 0.97412860 -4.15465307  1064919166
2.81406188 5.20745230 -2.49513626  1084755882
-2.49513626 0.97463304 2.64561081  1064927629
2.56035376 5.33676767 -2.49513626  1085255037
-2.49513626 0.97463304 2.12463689  1064927629
2.03576612 5.55807257 -2.49513626  1085464914
-2.49513626 0.97463304 1.67526817  1064927629
1.58400738 5.70328236 -2.49513626  1085802853
-2.49513626 0.97463304 1.30787683  1064927629
0.84125501 5.85907698 -2.49513626  1086131038
-2.49513626 0.97463304 0.17957151  1064927629
-0.01025885 5.91915560 -2.49513626  1086153250
-2.49513626 0.97463304 -0.38969794  1064927629
-0.57891148 5.89078665 -2.49513626  1086050409
-2.49513626 0.97463304 -1.04892147  1064927629
-1.23520243 5.78884983 -2.49513626  1085838816
-2.49513626 0.97463304 -1.60376966  1064927629
-1.69493604 5.67130375 -2.49513626  1085576877
-2.49513626 0.97463304 -1.87594223  1064927629
-1.96573436 5.58322430 -2.49513626  1085312464
-2.49513626 0.97463304 -2.31961107  1064927629
-2.40664434 5.40782404 -2.49513626  1084735968
-2.49513626 0.97463304 -3.31837606  1064927629
-3.47385907 4.79257822 -2.49513626  1083553787
-2.49513626 0.97463304 -3.70033646  1064927629
-3.98889852 4.37323523 -2.49513626  1082777837
-2.49513626 0.97463304 2.83123946  1064935740
2.58536673 5.17444563 -2.49513626  1084678981
-2.49513626 0.97511649 2.33351278  1064935740
2.24833131 5.32954454 -2.49513626  1084992868
-2.49513626 0.97511649 1.98940849  1064935740
1.81419718 5.49251270 -2.49513626  1085376551
-2.49513626 0.97511649 1.45835829  1064935740
1.27809381 5.64140749 -2.49513626  1085687932
-2.49513626 0.97511649 0.91381443  1064935740
0.73016775 5.73810720 -2.49513626  1085818427
-2.49513626 0.97511649 0.45334992  1064935740
0.26818398 5.77815771 -2.49513626  1085865606
-2.49513626 0.97511649 -0.38082534  1064935740
-0.47333732 5.76497793 -2.49513626  1085814387
-2.49513626 0.97511649 -0.65797544  1064935740
-0.84193832 5.72277594 -2.49513626  1085713495
-2.49513626 0.97511649 -1.29764438  1064935740
-1.38787544 5.61540699 -2.49513626  1085469995
-2.49513626 0.97511649 -1.65634298  1064935740
-1.74500775 5.51488638 -2.49513626  1085117993
-2.49513626 0.97511649 -2.09496021  1064935740
-2.18115497 5.35738659 -2.49513626  1084574569
-2.49513626 0.97511649 -2.92907715  1064935740
-3.00869131 4.94032478 -2.49513626  1083786978
-2.49513626 0.97511649 -3.39475513  1064935740
-3.46942782 4.62840176 -2.49513626  1083330355
-2.49513626 0.97511649 -3.61607480  1064935740
-3.82902575 4.33561802 -2.49513626  1082704322
-2.49513626 0.97511649 -3.96609855  1064935740
-4.03311491 4.14644384 -2.49513626  1084174685
-2.49513626 0.97558028 2.60819840  1064943521
2.52740121 5.05843210 -2.49513626  1084592768
-2.49513626 0.97558028 2.19792151  1064943521
2.11408496 5.24462938 -2.49513626  1084810295
-2.49513626 0.97558028 1.85940278  1064943521
1.77352202 5.36936760 -2.49513626  1085263949
-2.49513626 0.97558028 1.24943888  1064943521
1.16083491 5.53424931 -2.49513626  1085420092
-2.49513626 0.97558028 0.71379620  1064943521
0.62374747 5.62018061 -2.49513626  1085577468
-2.49513626 0.97558028 0.26217109  1064943521
-0.10048159 5.65379524 -2.49513626  1085585835
-2.49513626 0.97558028 -0.46272489  1064943521
-0.55304366 5.62757730 -2.49513626  1085474273
-2.49513626 0.97558028 -1.00205386  1064943521
-1.09117305 5.54840851 -2.49513626  1085339484
-2.49513626 0.97558028 -1.35675967  1064943521
-1.70588195 5.39123821 -2.49513626  1084725175
-2.49513626 0.97558028 -2.21596694  1064943521
-2.29911089 5.16619444 -2.49513626  1084497400
-2.49513626 0.97558028 -2.46361256  1064943521
-2.70555162 4.96542883 -2.49513626  1083769917
-2.49513626 0.97558028 -3.09460545  1064943521
-3.24479270 4.63107109 -2.49513626  1083343506
-2.49513626 0.97558028 -3.46376419  1064943521
-3.53499866 4.41353321 -2.49513626  1082877593
-2.49513626 0.97558028 -3.67472291  1064943521
-3.94269037 4.05347776 -2.49513626  1084031355
-2.49513626 0.97602546 2.47157764  1064950990
2.39192915 4.98570538 -2.49513626  1084353099
-2.49513626 0.97602546 2.14937592  1064950990
2.06739044 5.12878895 -2.49513626  1084631183
-2.49513626 0.97602546 1.56506646  1064950990
1.47980952 5.32810879 -2.49513626  1085128363
-2.49513626 0.97602546 0.96104717  1064950990
0.87359482 5.46034861 -2.49513626  1085245870
-2.49513626 0.97602546 0.60997093  1064950990
0.52175182 5.50512075 -2.49513626  1085337449
-2.49513626 0.97602546 -0.09826182  1064950990
-0.36406210 5.51779413 -2.49513626  1085299744
-2.49513626 0.97602546 -0.71704215  1064950990
-0.89251471 5.45728874 -2.49513626  1085155097
-2.49513626 0.97602546 -1.06707203  1064950990
-1.15394700 5.40804815 -2.49513626  1084953807
-2.49513626 0.97602546 -1.66820371  1064950990
-1.75253737 5.24472952 -2.49513626  1084617295
-2.49513626 0.97602546 -2.00275421  1064950990
-2.08515644 5.12159300 -2.49513626  1084259838
-2.49513626 0.97602546 -2.48870683  1064950990
-2.72332597 4.81269932 -2.49513626  1083741891
-2.49513626 0.97602546 -2.87626982  1064950990
-3.24534225 4.47731256 -2.49513626  1082908335
-2.49513626 0.97602546 -3.45692015  1064950990
-3.52569294 4.26005411 -2.49513626  1082309855
-2.49513626 0.97602546 -3.79153895  1064950990
2.64770818 4.71713924 -2.49513626  1084047371
-2.49513626 0.97645313 2.18224454  1064958165
2.10258508 4.98406219 -2.49513626  1084263528
-2.49513626 0.97645313 1.77874899  1064958165
1.61400354 5.16301727 -2.49513626  1084622342
-2.49513626 0.97645313 1.44759476  1064958165
1.27969956 5.25586367 -2.49513626  1084805792
-2.49513626 0.97645313 1.11048198  1064958165
0.94012702 5.32708836 -2.49513626  1084943718
-2.49513626 0.97645313 0.76880687  1064958165
0.59669089 5.37640381 -2.49513626  1085035579
-2.49513626 0.97645313 0.33742225  1064958165
0.16410801 5.40692234 -2.49513626  1085085022
-2.49513626 0.97645313 -0.09612330  1064958165
-0.18285091 5.40632057 -2.49513626  1085072097
-2.49513626 0.97645313 -0.61532295  1064958165
-0.70143402 5.36374140 -2.49513626  1084965371
-2.49513626 0.97645313 -0.87308753  1064958165
-1.04384422 5.30774403 -2.49513626  1084836432
-2.49513626 0.97645313 -1.21352553  1064958165
-1.38195956 5.22990656 -2.49513626  1084611149
-2.49513626 0.97645313 -1.63188994  1064958165
-1.71438718 5.13055611 -2.49513626  1084442336
-2.49513626 0.97645313 -2.11984849  1064958165
-2.27836323 4.90619946 -2.49513626  1083872351
-2.49513626 0.97645313 -2.51169038  1064958165
-2.58819842 4.75005150 -2.49513626  1083615072
-2.49513626 0.97645313 -2.73920274  1064958165
-2.81365871 4.62007380 -2.49513626  1083236601
-2.49513626 0.97645313 -3.03260303  1064958165
-3.17469454 4.37984705 -2.49513626  1082819078
-2.49513626 0.97645313 -3.31352162  1064958165
-3.38166738 4.22209501 -2.49513626  1082364205
-2.49513626 0.97645313 -3.64537764  1064958165
-3.77167511 3.87765670 -2.49513626  1083422030
-2.49513626 0.97686422 2.44150853  1064965062
2.21280217 4.80858612 -2.49513626  1083899282
-2.49513626 0.97686422 1.89998627  1064965062
1.82051170 4.97038460 -2.49513626  1084225362
-2.49513626 0.97686422 1.57935715  1064965063
1.49813306 5.07686901 -2.49513626  1084437803
-2.49513626 0.97686422 1.16958737  1064965062
1.00342858 5.19731808 -2.49513626  1084729981
-2.49513626 0.97686428 0.58388287  1064965062
0.33018035 5.28298807 -2.49513626  1084830734
-2.49513626 0.97686422 0.07571469  1064965062
-0.17892601 5.29027224 -2.49513626  1084828886
-2.49513626 0.97686422 -0.34849325  1064965062
-0.43315360 5.27554417 -2.49513626  1084789451
-2.49513626 0.97686422 -0.60211486  1064965062
-0.77046001 5.23692513 -2.49513626  1084666983
-2.49513626 0.97686422 -1.02143729  1064965062
-1.10459602 5.17676115 -2.49513626  1084518405
-2.49513626 0.97686422 -1.35229564  1064965062
-1.83772945 4.96404457 -2.49513626  1084023229
-2.49513626 0.97686422 -2.22945762  1064965062
-2.45777488 4.68810511 -2.49513626  1083403140
-2.49513626 0.97686422 -2.75326109  1064965062
-2.82540917 4.47616577 -2.49513626  1082516307
-2.49513626 0.97686422 -3.30907726  1064965062
-3.37490892 4.07786417 -2.49513626  1082179119
-2.49513626 0.97686422 -3.56712937  1064965062
-3.69071341 3.79441977 -2.49513626  1083382729
-2.49513626 0.97725976 2.31577492  1064971698
2.24114728 4.67141771 -2.49513626  1083612612
-2.49513626 0.97725976 2.01388335  1064971698
1.93706691 4.80548191 -2.49513626  1083944742
-2.49513626 0.97725976 1.46640801  1064971698
1.14482009 5.05314398 -2.49513626  1084376172
-2.49513626 0.97725976 0.98217899  1064971698
0.90046531 5.10235643 -2.49513626  1084471146
-2.49513626 0.97725976 0.65402746  1064971698
0.48886138 5.15809011 -2.49513626  1084586437
-2.49513626 0.97725976 0.07411095  1064971698
-0.09206814 5.18038559 -2.49513626  1084601389
-2.49513626 0.97725976 -0.34111321  1064971698
-0.42397940 5.16382885 -2.49513626  1084555506
-2.49513626 0.97725976 -0.58936334  1064971698
-0.67184067 5.13746214 -2.49513626  1084491882
-2.49513626 0.97725976 -0.99980712  1064971698
-1.16232979 5.04914474 -2.49513626  1084247028
-2.49513626 0.97725976 -1.40382195  1064971698
-1.48362315 4.96424532 -2.49513626  1084047467
-2.49513626 0.97725976 -1.72066009  1064971698
-2.03041768 4.76678896 -2.49513626  1083668933
-2.49513626 0.97725976 -2.18224549  1064971698
-2.25732422 4.66362047 -2.49513626  1083444969
-2.49513626 0.97725976 -2.40572810  1064971698
-2.47900915 4.54965973 -2.49513626  1083198548
-2.49513626 0.97725976 -2.62364507  1064971698
-2.69495821 4.42516518 -2.49513626  1082930241
-2.49513626 0.97725976 -2.83548546  1064971698
-2.97309566 4.24329901 -2.49513626  1082330500
-2.49513626 0.97725976 -3.30344057  1064971698
-3.36702776 3.93801951 -2.49513626  1081641865
-2.49513626 0.97725976 -3.49159122  1064971698
2.41174269 4.46295786 -2.49513626  1083258713
-2.49513626 0.97764045 2.04649758  1064978085
1.97179222 4.67402506 -2.49513626  1083671539
-2.49513626 0.97764045 1.74471724  1064978085
1.66810131 4.79081631 -2.49513626  1083843700
-2.49513626 0.97764045 1.43576050  1064978085
1.12089312 4.94753170 -2.49513626  1084187596
-2.49513626 0.97764045 0.88164526  1064978085
0.80141723 5.00921202 -2.49513626  1084272505
-2.49513626 0.97764045 0.64035892  1064978085
0.55957335 5.04195976 -2.49513626  1084369061
-2.49513626 0.97764045 -0.00879222  1064978085
-0.09014393 5.07211590 -2.49513626  1084374420
-2.49513626 0.97764045 -0.25275993  1064978085
-0.49614471 5.04859638 -2.49513626  1084311450
-2.49513626 0.97764045 -0.73838210  1064978085
-0.81877518 5.00640583 -2.49513626  1084212128
-2.49513626 0.97764045 -1.13803792  1064978085
-1.21717072 4.92472935 -2.49513626  1084027469
-2.49513626 0.97764045 -1.37448227  1064978085
-1.45261657 4.86049271 -2.49513626  1083776703
-2.49513626 0.97764045 -1.83728468  1064978085
-1.91287911 4.69844389 -2.49513626  1083529572
-2.49513626 0.97764045 -2.13663626  1064978085
-2.21014619 4.56615114 -2.49513626  1083242176
-2.49513626 0.97764045 -2.35544872  1064978085
-2.49832344 4.41507196 -2.49513626  1082915680
-2.49513626 0.97764045 -2.63863087  1064978085
-2.97721028 4.10739470 -2.49513626  1082150994
-2.49513626 0.97764045 -3.17130828  1064978085
-3.23439813 3.90808797 -2.49513626  1081525254
-2.49513626 0.97764045 -3.47828150  1064978085
2.36197090 4.37085342 -2.49513626  1082986427
-2.49513626 0.97800714 2.14902163  1064984237
1.93110025 4.57756662 -2.49513626  1083581549
-2.49513626 0.97800714 1.55822206  1064984237
1.25259078 4.80773163 -2.49513626  1083903424
-2.49513626 0.97800714 1.01991487  1064984237
0.94180578 4.87814045 -2.49513626  1084002386
-2.49513626 0.97800714 0.70610398  1064984236
0.62714386 4.92848301 -2.49513626  1084097362
-2.49513626 0.97800714 0.38938299  1064984237
0.23034406 4.96288204 -2.49513626  1084159882
-2.49513626 0.97800714 -0.00861099  1064984237
-0.24754465 4.96205473 -2.49513626  1084126006
-2.49513626 0.97800714 -0.48590538  1064984237
-0.72314399 4.91531515 -2.49513626  1084024343
-2.49513626 0.97800714 -0.88040763  1064984237
-1.03676224 4.85884666 -2.49513626  1083856593
-2.49513626 0.97800714 -1.26924670  1064984237
-1.34611642 4.78238726 -2.49513626  1083569615
-2.49513626 0.97800714 -1.72487068  1064984237
-1.94695473 4.57084417 -2.49513626  1083191704
-2.49513626 0.97800714 -2.30683994  1064984237
-2.44676495 4.32395697 -2.49513626  1082640592
-2.49513626 0.97800714 -2.71892977  1064984237
-2.78526688 4.11406803 -2.49513626  1082274870
-2.49513626 0.97800714 -2.91576886  1064984237
-2.97990513 3.97535205 -2.49513626  1081617647
-2.49513626 0.97800714 -3.16764998  1064984237
-3.34806514 3.67065668 -2.49513626  1080290799
-2.49513626 0.97800714 2.17531323  1064990166
2.10521221 4.38807678 -2.49513626  1083325893
-2.49513626 0.97836053 1.52645576  1064990166
1.37746477 4.66794729 -2.49513626  1083618825
-2.49513626 0.97836053 1.07538128  1064990166
0.99912298 4.76328564 -2.49513626  1083763472
-2.49513626 0.97836053 0.84585005  1064990166
0.45921049 4.84523153 -2.49513626  1083928669
-2.49513626 0.97836053 0.22564904  1064990166
0.14765114 4.86470366 -2.49513626  1083947500
-2.49513626 0.97836053 -0.39826506  1064990166
-0.70840192 4.81511211 -2.49513626  1083814722
-2.49513626 0.97836053 -0.86245978  1064990166
-0.93916470 4.77546883 -2.49513626  1083723835
-2.49513626 0.97836053 -1.16775107  1064990166
-1.31867480 4.68489408 -2.49513626  1083521145
-2.49513626 0.97836053 -1.61629570  1064990166
-1.68970811 4.56421185 -2.49513626  1083132166
-2.49513626 0.97836053 -1.97882736  1064990166
-2.04988384 4.41419411 -2.49513626  1082928931
-2.49513626 0.97836053 -2.32864738  1064990166
-2.39688540 4.23580885 -2.49513626  1082193762
-2.49513626 0.97836053 -2.91915703  1064990166
-2.98123384 3.84699631 -2.49513626  1081286081
-2.49513626 0.97836053 -3.10307264  1064990166
-3.16280413 3.69916248 -2.49513626  1080653894
-2.49513626 0.97836053 2.26720572  1064995883
2.19963074 4.23130894 -2.49513626  1082758894
-2.49513626 0.97870129 1.92384994  1064995883
1.85362279 4.39390898 -2.49513626  1083017675
-2.49513626 0.97870129 1.71175671  1064995883
1.42289257 4.55167389 -2.49513626  1083419844
-2.49513626 0.97870129 1.12817371  1064995883
0.97899312 4.66732359 -2.49513626  1083590717
-2.49513626 0.97870129 0.60198081  1064995883
0.52603799 4.73978996 -2.49513626  1083698298
-2.49513626 0.97870129 0.14467497  1064995883
0.06821389 4.76840544 -2.49513626  1083694973
-2.49513626 0.97870129 -0.61837804  1064995883
-0.76970619 4.70636940 -2.49513626  1083584637
-2.49513626 0.97870129 -0.92024344  1064995883
-0.99516612 4.66390324 -2.49513626  1083450777
-2.49513626 0.97870129 -1.29210842  1064995883
-1.58373332 4.49823713 -2.49513626  1083063943
-2.49513626 0.97870129 -1.93896127  1064995883
-2.07769275 4.29249811 -2.49513626  1082599476
-2.49513626 0.97870129 -2.34859776  1064995883
-2.41485977 4.11227369 -2.49513626  1082199039
-2.49513626 0.97870129 -2.67351675  1064995883
-2.79878473 3.86123776 -2.49513626  1081358075
-2.49513626 0.97870129 -2.92117405  1064995883
-3.04056001 3.67387295 -2.49513626  1080556057
-2.49513626 0.97870129 -3.15681624  1064995883
-3.21373582 3.52338552 -2.49513626  1079913307
-2.49513626 0.97870129 -3.32507777  1064995883
2.28770685 4.07576275 -2.49513626  1082365159
-2.49513626 0.97903013 2.15581965  1065001400
2.08903599 4.18107271 -2.49513626  1082579299
-2.49513626 0.97903013 1.88553214  1065001399
1.53689861 4.41399813 -2.49513626  1083049147
-2.49513626 0.97903013 1.25077009  1065001400
1.17838883 4.52292299 -2.49513626  1083265495
-2.49513626 0.97903013 1.03273034  1065001400
0.95949423 4.57436323 -2.49513626  1083365997
-2.49513626 0.97903013 0.73838294  1065001400
0.66427433 4.62646437 -2.49513626  1083465317
-2.49513626 0.97903013 0.51556128  1065001400
0.36631721 4.65953398 -2.49513626  1083533185
-2.49513626 0.97903013 0.14179529  1065001400
-0.00809995 4.67390347 -2.49513626  1083542178
-2.49513626 0.97903013 -0.15798910  1065001400
-0.30771464 4.66377068 -2.49513626  1083480105
-2.49513626 0.97903013 -0.82825303  1065001400
-0.90191555 4.58606482 -2.49513626  1083257399
-2.49513626 0.97903013 -1.19405830  1065001400
-1.26637328 4.49908113 -2.49513626  1083038436
-2.49513626 0.97903013 -1.62268996  1065001400
-1.69277632 4.35659838 -2.49513626  1082820168
-2.49513626 0.97903013 -1.83161902  1065001400
-1.90034270 4.27014494 -2.49513626  1082564551
-2.49513626 0.97903013 -2.17018342  1065001400
-2.49479890 3.95239496 -2.49513626  1081760820
-2.49513626 0.97903013 -2.74304080  1065001400
-2.80337691 3.73985457 -2.49513626  1080455645
-2.49513626 0.97903013 -3.14972734  1065001400
-3.20469999 3.40225363 -2.49513626  1079405903
-2.49513626 0.97903013 2.24264193  1065006725
2.17827702 4.03092623 -2.49513626  1082337442
-2.49513626 0.97934753 1.91538465  1065006725
1.71298599 4.24958181 -2.49513626  1082710306
-2.49513626 0.97934753 1.50662339  1065006725
1.43703687 4.35065317 -2.49513626  1082957759
-2.49513626 0.97934753 1.08392227  1065006725
1.01238692 4.46859407 -2.49513626  1083145984
-2.49513626 0.97934753 0.86856091  1065006725
0.65118903 4.53532887 -2.49513626  1083292002
-2.49513626 0.97934753 0.43230972  1065006725
0.35910040 4.56774426 -2.49513626  1083340306
-2.49513626 0.97934753 0.13900071  1065006725
0.06553841 4.58137035 -2.49513626  1083345144
-2.49513626 0.97934753 -0.30165380  1065006725
-0.37493491 4.56647301 -2.49513626  1083288272
-2.49513626 0.97934753 -0.81193632  1065006725
-0.88414794 4.49572420 -2.49513626  1083105727
-2.49513626 0.97934753 -1.31199777  1065006725
-1.38223112 4.36837339 -2.49513626  1082855302
-2.49513626 0.97934753 -1.59072447  1065006725
-1.92980003 4.15561199 -2.49513626  1082390749
-2.49513626 0.97934753 -2.19223619  1065006725
-2.50747466 3.83481741 -2.49513626  1081092050
-2.49513626 0.97934753 -2.68900514  1065006725
-2.80659366 3.62163973 -2.49513626  1080352737
-2.49513626 0.97934753 -2.92129779  1065006725
-3.03299403 3.43426800 -2.49513626  1079551709
-2.49513626 0.97934753 -3.19465542  1065006725
2.19893003 3.91759872 -2.49513626  1082362678
-2.49513626 0.97965413 1.74620438  1065011869
1.67959762 4.16675138 -2.49513626  1082639429
-2.49513626 0.97965413 1.40902734  1065011869
1.20223260 4.32868481 -2.49513626  1082895920
-2.49513626 0.97965413 0.92226142  1065011869
0.63849664 4.44692945 -2.49513626  1083105856
-2.49513626 0.97965413 0.42388296  1065011869
0.35210180 4.47871494 -2.49513626  1083145002
-2.49513626 0.97965413 0.06426112  1065011869
-0.00778646 4.49252748 -2.49513626  1083161864
-2.49513626 0.97965413 -0.15185834  1065011869
-0.29577363 4.48278856 -2.49513626  1083131754
-2.49513626 0.97965413 -0.43938163  1065011869
-0.51102781 4.46337461 -2.49513626  1083083810
-2.49513626 0.97965413 -0.65390587  1065011869
-0.72510147 4.43363190 -2.49513626  1083014244
-2.49513626 0.97965413 -1.21723068  1065011869
-1.28642631 4.30441284 -2.49513626  1082677673
-2.49513626 0.97965413 -1.49195564  1065011869
-1.62708521 4.18753576 -2.49513626  1082467874
-2.49513626 0.97965413 -1.82659721  1065011869
-2.08596754 3.97889400 -2.49513626  1081752742
-2.49513626 0.97965413 -2.33675075  1065011869
-2.57792211 3.67929196 -2.49513626  1080609903
-2.49513626 0.97965413 -2.69458938  1065011869
-2.86435866 3.46097159 -2.49513626  1079476828
-2.49513626 0.97965413 -3.08033848  1065011869
-3.13238740 3.22040462 -2.49513626  1082135502
-2.49513626 0.97995037 1.77739739  1065016839
1.51530039 4.13709021 -2.49513626  1082467779
-2.49513626 0.97995037 1.31457531  1065016839
1.17903876 4.24517584 -2.49513626  1082719319
-2.49513626 0.97995037 0.97350329  1065016839
0.90446806 4.31202698 -2.49513626  1082865562
-2.49513626 0.97995037 0.55615652  1065016839
0.48599425 4.37897825 -2.49513626  1082940371
