# .PCD v0.7 - Point Cloud Data file format
VERSION 0.7
FIELDS x y z intensity
SIZE 4 4 4 4
TYPE F F F F
COUNT 1 1 1 1
WIDTH 1015
HEIGHT 1
VIEWPOINT 0 0 0 1 0 0 0
POINTS 1015
DATA ascii
-2.49513626 0.95904911 -10.02271652  1064666174
-10.04729939 1.44791543 -2.49513626  1066393402
-2.49513626 0.95904911 -10.10544491  1064666174
-10.11960316 0.79892814 -2.49513626  1059247308
-2.49513626 0.95904911 -10.14006519  1064666174
-10.14636135 0.30987209 -2.49513626  3199184820
-2.49513626 0.95904911 -10.13845921  1064666174
-10.10223579 -0.99471885 -2.49513626  3215513945
-2.49513626 0.95904911 -10.04249763  1064666174
-10.01737976 -1.64218688 -2.49513626  3219573724
-2.49513626 0.95904911 -9.92650700  1064666174
-5.22865915 8.98719883 -2.64753628  1090840946
-2.49513626 0.96036017 -5.46205139  1064688172
-5.59219456 8.04661942 -2.49513626  1090425996
-2.49513626 0.96036029 -5.84811449  1064688171
-5.97382021 7.76750851 -2.49513626  1089827863
-2.49513626 0.96036029 -6.22056198  1064688172
-6.34153557 7.47031784 -2.49513626  1088972338
-2.49513626 0.96036029 -6.80872011  1064688172
-7.03186512 6.82448387 -2.49513626  1087814767
-2.49513626 0.96036029 -7.24772453  1064688172
-7.35286474 6.47735214 -2.49513626  1087076043
-2.49513626 0.96036029 -7.55739832  1064688172
-7.94280481 5.73869753 -2.49513626  1084959266
-2.49513626 0.96036029 -8.37815857  1064688172
-8.53728485 4.80993652 -2.49513626  1083539716
-2.49513626 0.96036023 -8.82887650  1064688171
-8.96104050 3.96490073 -2.49513626  1081376541
-2.49513626 0.96036029 -9.08392906  1064688172
-9.14186001 3.52804899 -2.49513626  1078909954
-2.49513626 0.96036029 -9.30139732  1064688171
-9.34978104 2.93297362 -2.49513626  1077022662
-2.49513626 0.96036029 -9.58889198  1064688171
-9.73876095 1.08501661 -2.49513626  1058877205
-2.49513626 0.96036023 -9.78837299  1064688171
-9.79444981 0.29912451 -2.49513626  1041297929
-2.49513626 0.96036023 -9.79747772  1064688171
-9.79341507 -0.33123600 -2.49513626  3204069355
-2.49513626 0.96036029 -9.75185776  1064688171
-9.69418907 -1.42948663 -2.49513626  3217746130
-2.49513626 0.96036029 -9.64319420  1064688171
-9.61395454 -1.89543712 -2.49513626  3221434439
-2.49513626 0.96036023 -4.62955523  1064708762
-4.76182222 8.18479538 -2.49513626  1090631391
-2.49513626 0.96158755 -5.02261305  1064708762
-5.15107632 7.94557714 -2.49513626  1090228994
-2.49513626 0.96158755 -5.89273691  1064708761
-6.24341345 7.11937904 -2.49513626  1088459713
-2.49513626 0.96158755 -6.46917152  1064708762
-6.79518604 6.59478569 -2.49513626  1087341099
-2.49513626 0.96158755 -7.20513678  1064708762
-7.30303431 6.02756357 -2.49513626  1085883389
-2.49513626 0.96158755 -7.67546606  1064708762
-7.76366615 5.42137051 -2.49513626  1084581714
-2.49513626 0.96158755 -8.01613140  1064708762
-8.09616661 4.91099405 -2.49513626  1083766505
-2.49513626 0.96158755 -8.24993610  1064708762
-8.39516926 4.38028526 -2.49513626  1082643586
-2.49513626 0.96158755 -8.53171635  1064708762
-8.77818394 3.55095243 -2.49513626  1079652868
-2.49513626 0.96158755 -8.93924999  1064708762
-8.98833561 2.97921467 -2.49513626  1077240952
-2.49513626 0.96158755 -9.16128254  1064708762
-9.23358059 2.09924293 -2.49513626  1070817619
-2.49513626 0.96158755 -9.34944820  1064708761
-9.39289188 1.19972658 -2.49513626  1061079413
-2.49513626 0.96158755 -9.45059395  1064708762
-9.46479321 0.28905755 -2.49513626  1040978175
-2.49513626 0.96158755 -9.46919250  1064708762
-9.46771812 -0.16782828 -2.49513626  3198411389
-2.49513626 0.96158755 -9.42363358  1064708761
-9.40748405 -1.07935107 -2.49513626  3214770621
-2.49513626 0.96158749 -9.34447193  1064708762
-9.29036808 -1.83164060 -2.49513626  3221064650
-2.49513626 0.96158755 -4.47816563  1064728075
-4.73284578 7.84203911 -2.49513626  1090025994
-2.49513626 0.96273869 -5.22726011  1064728075
-5.58398104 7.26061630 -2.49513626  1088385856
-2.49513626 0.96273869 -6.03925085  1064728075
-6.25762606 6.68876076 -2.49513626  1087556288
-2.49513626 0.96273869 -6.46952438  1064728075
-6.57297754 6.37913418 -2.49513626  1086896395
-2.49513626 0.96273869 -6.87303162  1064728075
-6.96952581 5.94332504 -2.49513626  1085729316
-2.49513626 0.96273869 -7.33723021  1064728075
-7.42447138 5.36419916 -2.49513626  1084484745
-2.49513626 0.96273869 -7.67457008  1064728075
-7.83141661 4.75040197 -2.49513626  1083438694
-2.49513626 0.96273869 -7.98015833  1064728075
-8.12064266 4.23704863 -2.49513626  1082352490
-2.49513626 0.96273869 -8.25272179  1064728075
-8.31556988 3.84040642 -2.49513626  1080897986
-2.49513626 0.96273869 -8.43478966  1064728075
-8.49113369 3.43483472 -2.49513626  1079185262
-2.49513626 0.96273869 -8.59721565  1064728075
-8.64693260 3.02125454 -2.49513626  1077440315
-2.49513626 0.96273869 -8.78259659  1064728075
-8.82328892 2.45905471 -2.49513626  1072791164
-2.49513626 0.96273863 -8.99232578  1064728075
-9.06589890 1.30648589 -2.49513626  1066699544
-2.49513626 0.96273869 -9.10322380  1064728075
-9.11836433 0.86766464 -2.49513626  1058204964
-2.49513626 0.96273869 -9.14960384  1064728074
-9.15528393 0.27960417 -2.49513626  1040677993
-2.49513626 0.96273869 -9.15954494  1064728074
-9.15432262 -0.30962029 -2.49513626  3206191367
-2.49513626 0.96273869 -9.09985542  1064728075
-9.06156540 -1.33620143 -2.49513626  3219310727
-2.49513626 0.96273863 -4.33574247  1064746224
-4.45961714 7.66535330 -2.49513626  1089182642
-2.49513626 0.96382046 -5.06101274  1064746224
-5.17748690 7.19996071 -2.49513626  1088484172
-2.49513626 0.96382046 -5.51875734  1064746223
-5.84717703 6.66755247 -2.49513626  1087525650
-2.49513626 0.96382040 -6.05860806  1064746224
-6.16198587 6.37775278 -2.49513626  1086694372
-2.49513626 0.96382040 -6.46245050  1064746223
-6.55928802 5.96837139 -2.49513626  1085809478
-2.49513626 0.96382040 -6.92945719  1064746224
-7.18834686 5.19359922 -2.49513626  1084389706
-2.49513626 0.96382046 -7.50738811  1064746224
-7.58234596 4.59932041 -2.49513626  1082870854
-2.49513626 0.96382040 -7.79537344  1064746224
-7.86237717 4.10229492 -2.49513626  1080948764
-2.49513626 0.96382046 -8.22108078  1064746223
-8.46168137 2.65438199 -2.49513626  1075914224
-2.49513626 0.96382046 -8.54267788  1064746223
-8.57986832 2.24313951 -2.49513626  1074181609
-2.49513626 0.96382040 -8.84073448  1064746223
-8.85860825 0.41324678 -2.49513626  1049270992
-2.49513626 0.96382040 -8.86731815  1064746223
-8.86823559 -0.01454253 -2.49513626  3205869139
-2.49513626 0.96382040 -8.83839703  1064746224
-8.82556248 -0.86901075 -2.49513626  3214115517
-2.49513626 0.96382040 -8.75142956  1064746223
-8.72722530 -1.57523155 -2.49513626  3218838059
-2.49513626 0.96382040 -8.67203999  1064746223
-4.08036900 7.56315660 -2.49513626  1089463224
-2.49513626 0.96483886 -4.67479038  1064763310
-4.90430307 7.05680943 -2.49513626  1088373687
-2.49513626 0.96483886 -5.12874365  1064763310
-5.23898649 6.81203461 -2.49513626  1087291728
-2.49513626 0.96483886 -5.87100983  1064763310
-5.97118473 6.18026829 -2.49513626  1086499701
-2.49513626 0.96483886 -6.44839144  1064763310
-6.53892708 5.57612705 -2.49513626  1085213737
-2.49513626 0.96483886 -6.71489191  1064763310
-6.80028248 5.25422859 -2.49513626  1084060011
-2.49513626 0.96483886 -7.12403107  1064763310
-7.20041370 4.69093132 -2.49513626  1083335270
-2.49513626 0.96483886 -7.34756613  1064763310
-7.48711920 4.21826982 -2.49513626  1082334486
-2.49513626 0.96483886 -7.61892319  1064763310
-7.80180788 3.60313702 -2.49513626  1078330677
-2.49513626 0.96483886 -8.06605721  1064763310
-8.11269760 2.83459163 -2.49513626  1076141767
-2.49513626 0.96483886 -8.23998165  1064763310
-8.27816200 2.30712867 -2.49513626  1073908246
-2.49513626 0.96483886 -8.37981224  1064763310
-8.40936756 1.77010787 -2.49513626  1066098088
-2.49513626 0.96483886 -8.54080391  1064763310
-8.55500317 0.81405753 -2.49513626  1057610048
-2.49513626 0.96483886 -8.59363842  1064763310
-8.58873749 -0.29049096 -2.49513626  3202052217
-2.49513626 0.96483886 -8.57495213  1064763310
-8.56472874 -0.70443904 -2.49513626  3212493778
-2.49513626 0.96483886 -8.52078152  1064763310
-8.45699120 -1.52645552 -2.49513626  3218392491
-2.49513626 0.96483886 -4.07471275  1064779423
-4.19112682 7.20386219 -2.49513626  1088407867
-2.49513626 0.96579927 -4.86577702  1064779423
-5.08090067 6.60648155 -2.49513626  1087423448
-2.49513626 0.96579927 -5.49515200  1064779423
-5.88666296 5.89986324 -2.49513626  1085504855
-2.49513626 0.96579927 -6.25381470  1064779423
-6.42777824 5.30517149 -2.49513626  1084428249
-2.49513626 0.96579927 -6.67619371  1064779423
-6.98314190 4.54938269 -2.49513626  1082806599
-2.49513626 0.96579927 -7.19445658  1064779423
-7.45007849 3.73597217 -2.49513626  1080518404
-2.49513626 0.96579927 -7.56638956  1064779423
-7.62161350 3.37226200 -2.49513626  1078981515
-2.49513626 0.96579927 -7.72613525  1064779423
-7.77540636 3.00070548 -2.49513626  1076351351
-2.49513626 0.96579927 -7.95224953  1064779423
-8.02836895 2.23751116 -2.49513626  1074195193
-2.49513626 0.96579927 -8.12695503  1064779422
-8.15561962 1.71669531 -2.49513626  1070263063
-2.49513626 0.96579921 -8.22893238  1064779423
-8.24911880 1.18877983 -2.49513626  1065822489
-2.49513626 0.96579927 -8.28308773  1064779423
-8.29685879 0.78949362 -2.49513626  1059580900
-2.49513626 0.96579927 -8.31795979  1064779423
-8.33302784 -0.14771433 -2.49513626  3197124182
-2.49513626 0.96579921 -8.31620312  1064779423
-8.30628872 -0.68318272 -2.49513626  3211997886
-2.49513626 0.96579927 -8.24517822  1064779423
-8.20180416 -1.48039496 -2.49513626  3217971732
-2.49513626 0.96579921 -3.95478392  1064794642
-4.40029097 6.78748274 -2.49513626  1087514519
-2.49513626 0.96670640 -4.82758856  1064794642
-5.03385067 6.33189154 -2.49513626  1086849253
-2.49513626 0.96670640 -5.43054867  1064794642
-5.71340370 5.72621584 -2.49513626  1085158640
-2.49513626 0.96670640 -6.32060099  1064794642
-6.47969580 4.84211302 -2.49513626  1083676583
-2.49513626 0.96670640 -6.63208866  1064794642
-6.70571470 4.52392435 -2.49513626  1083001761
-2.49513626 0.96670640 -6.91612530  1064794642
-6.98270607 4.08342075 -2.49513626  1081529429
-2.49513626 0.96670640 -7.17154694  1064794642
-7.23080444 3.62601304 -2.49513626  1080072050
-2.49513626 0.96670640 -7.44897795  1064794642
-7.49873638 3.03339076 -2.49513626  1077057967
-2.49513626 0.96670640 -7.63632727  1064794642
-7.79207420 2.17165565 -2.49513626  1070941447
-2.49513626 0.96670640 -7.96507406  1064794642
-8.02385139 1.02486277 -2.49513626  1059256996
-2.49513626 0.96670640 -8.08526611  1064794642
-8.08819294 0.11684631 -2.49513626  3188903611
-2.49513626 0.96670640 -8.08441353  1064794642
-8.06181240 -0.66307503 -2.49513626  3209358197
-2.49513626 0.96670640 -8.00250053  1064794642
-7.98248434 -1.30860054 -2.49513626  3216501229
-2.49513626 0.96670640 -7.91007328  1064794642
-4.48368216 6.45157766 -2.49513626  1086802452
-2.49513626 0.96756452 -4.88920784  1064809039
-4.98749161 6.07051754 -2.49513626  1085953268
-2.49513626 0.96756452 -5.36747837  1064809039
-5.45906115 5.65021372 -2.49513626  1085216815
-2.49513626 0.96756452 -5.81104469  1064809039
-5.89534187 5.19338131 -2.49513626  1084229835
-2.49513626 0.96756452 -6.13898468  1064809039
-6.21705294 4.80359411 -2.49513626  1083604683
-2.49513626 0.96756452 -6.36834145  1064809039
-6.65099096 4.18217468 -2.49513626  1082286996
-2.49513626 0.96756452 -6.84498167  1064809039
-6.90612268 3.74589348 -2.49513626  1080596692
-2.49513626 0.96756452 -7.07877064  1064809039
-7.18473911 3.17895722 -2.49513626  1077710597
-2.49513626 0.96756446 -7.32971287  1064809039
-7.41690540 2.59148097 -2.49513626  1075720919
-2.49513626 0.96756452 -7.53327131  1064809039
-7.56817675 2.10925531 -2.49513626  1071575408
-2.49513626 0.96756452 -7.68813133  1064809039
-7.71316767 1.49442828 -2.49513626  1067413209
-2.49513626 0.96756452 -7.77627373  1064809039
-7.79329348 0.99541432 -2.49513626  1061062233
-2.49513626 0.96756452 -7.83223534  1064809039
-7.85294485 0.23983006 -2.49513626  1038642323
-2.49513626 0.96756452 -7.85212469  1064809038
-7.84683037 -0.39183378 -2.49513626  3204750131
-2.49513626 0.96756446 -7.83016634  1064809039
-7.81879520 -0.76987916 -2.49513626  3211084295
-2.49513626 0.96756452 -7.78998709  1064809039
-7.75311804 -1.27099776 -2.49513626  3216154876
-2.49513626 0.96756452 -7.70822430  1064809039
-3.62568140 6.72037220 -2.49513626  1087452288
-2.49513626 0.96837741 -4.05027151  1064822677
-4.15386677 6.40736723 -2.49513626  1087037195
-2.49513626 0.96837741 -4.35780144  1064822677
-4.55723095 6.12703896 -2.49513626  1086435773
-2.49513626 0.96837741 -4.75194216  1064822677
-4.84746552 5.90008879 -2.49513626  1085950095
-2.49513626 0.96837741 -5.03473091  1064822677
-5.12642336 5.65939522 -2.49513626  1085435984
-2.49513626 0.96837741 -5.30579662  1064822677
-5.39343882 5.40553284 -2.49513626  1084894651
-2.49513626 0.96837741 -5.64789724  1064822677
-6.18954706 4.47196531 -2.49513626  1082910224
-2.49513626 0.96837741 -6.33017921  1064822677
-6.39804792 4.16820669 -2.49513626  1081963755
-2.49513626 0.96837741 -6.71223211  1064822677
-6.76992273 3.53229308 -2.49513626  1079247774
-2.49513626 0.96837741 -6.98302555  1064822677
-7.03181791 2.97699571 -2.49513626  1077363662
-2.49513626 0.96837741 -7.16722870  1064822677
-7.20867395 2.51872516 -2.49513626  1075429867
-2.49513626 0.96837741 -7.28595495  1064822677
-7.35569859 2.05003738 -2.49513626  1073166885
-2.49513626 0.96837741 -7.41782999  1064822677
-7.44602108 1.69284391 -2.49513626  1069148825
-2.49513626 0.96837741 -7.55795193  1064822677
-7.57449484 0.96746802 -2.49513626  1062761383
-2.49513626 0.96837741 -7.62102509  1064822677
-7.63247156 0.23309660 -2.49513626  1038214727
-2.49513626 0.96837741 -7.63601923  1064822677
-7.63483143 -0.13533783 -2.49513626  3196332130
-2.49513626 0.96837741 -7.62652826  1064822677
-7.61033201 -0.62594128 -2.49513626  3208613445
-2.49513626 0.96837741 -7.58626080  1064822677
-7.57128143 -0.99230111 -2.49513626  3214810823
-2.49513626 0.96837741 -7.51460266  1064822677
-7.49181747 -1.47704768 -2.49513626  1087448550
-2.49513626 0.96914852 -3.63081479  1064835614
-3.73454976 6.41907740 -2.49513626  1086944732
-2.49513626 0.96914852 -4.03982878  1064835614
-4.23816633 6.09830379 -2.49513626  1086386290
-2.49513626 0.96914852 -4.43212318  1064835614
-4.52739096 5.88677597 -2.49513626  1085932984
-2.49513626 0.96914852 -4.71438694  1064835614
-4.80607224 5.66154289 -2.49513626  1085451287
-2.49513626 0.96914852 -4.98568869  1064835614
-5.07356787 5.42312479 -2.49513626  1084588476
-2.49513626 0.96914852 -5.41174984  1064835614
-5.49284649 4.99800396 -2.49513626  1084036759
-2.49513626 0.96914852 -5.65076542  1064835614
-5.72754097 4.72722864 -2.49513626  1083064619
-2.49513626 0.96914852 -6.01962614  1064835614
-6.08879995 4.25181007 -2.49513626  1082451996
-2.49513626 0.96914852 -6.22240353  1064835614
-6.41069746 3.74891543 -2.49513626  1080642780
-2.49513626 0.96914852 -6.63847160  1064835614
-6.74211025 3.11373448 -2.49513626  1077496848
-2.49513626 0.96914852 -6.88445425  1064835614
-6.92835903 2.67381048 -2.49513626  1074676395
-2.49513626 0.96914852 -7.15376377  1064835614
-7.18490696 1.87843788 -2.49513626  1069796493
-2.49513626 0.96914852 -7.33247662  1064835614
-7.39300394 0.70348644 -2.49513626  1058382029
-2.49513626 0.96914852 -7.41180325  1064835614
-7.41833305 0.34605885 -2.49513626  1037808408
-2.49513626 0.96914852 -7.42638779  1064835614
-7.41024113 -0.48962921 -2.49513626  3210261580
-2.49513626 0.96914852 -7.36342812  1064835614
-7.26209354 -1.55350173 -2.49513626  1087080317
-2.49513626 0.96988094 -3.73421645  1064847902
-3.83325338 6.12650442 -2.49513626  1086324819
-2.49513626 0.96988094 -4.31305218  1064847902
-4.40576077 5.72862673 -2.49513626  1085295969
-2.49513626 0.96988094 -4.76496696  1064847902
-4.85174799 5.35616016 -2.49513626  1084470647
-2.49513626 0.96988094 -5.18608093  1064847902
-5.26636076 4.94907570 -2.49513626  1083760178
-2.49513626 0.96988094 -5.49895620  1064847902
-5.57366848 4.60023022 -2.49513626  1083008258
-2.49513626 0.96988094 -5.78907442  1064847902
-5.92522430 4.13758707 -2.49513626  1081073752
-2.49513626 0.96988094 -6.35258770  1064847902
-6.40718651 3.34303164 -2.49513626  1077170606
-2.49513626 0.96988094 -6.69950294  1064847902
-6.74222708 2.60197711 -2.49513626  1075810443
-2.49513626 0.96988094 -6.92946959  1064847902
-6.99188137 1.82797313 -2.49513626  1071353428
-2.49513626 0.96988094 -7.04705906  1064847902
-7.11613655 1.26035249 -2.49513626  1066575741
-2.49513626 0.96988094 -7.15299320  1064847902
-7.19438887 0.68458736 -2.49513626  1058118585
-2.49513626 0.96988094 -7.21268606  1064847902
-7.22351933 0.22060712 -2.49513626  1037421497
-2.49513626 0.96988094 -7.21789360  1064847902
-7.20256567 -0.59240299 -2.49513626  3209880048
-2.49513626 0.96988094 -7.13169336  1064847902
-7.11196709 -1.28368342 -2.49513626  3216174756
-2.49513626 0.96988094 -7.06699705  1064847902
-3.44031763 6.13841677 -2.49513626  1086376299
-2.49513626 0.97057742 -3.73240662  1064859587
-3.82787061 5.90452051 -2.49513626  1085722869
-2.49513626 0.97057742 -4.19958019  1064859587
-4.37901068 5.50819397 -2.49513626  1084991990
-2.49513626 0.97057742 -4.63960600  1064859587
-4.80737257 5.13858986 -2.49513626  1084354679
-2.49513626 0.97057742 -4.97016144  1064859587
-5.12781096 4.81886768 -2.49513626  1083673460
-2.49513626 0.97057742 -5.35428524  1064859587
-5.42703104 4.47920465 -2.49513626  1082764471
-2.49513626 0.97057742 -5.70379305  1064859587
-5.89593077 3.84108520 -2.49513626  1080252312
-2.49513626 0.97057742 -6.13069487  1064859587
-6.29016876 3.15431571 -2.49513626  1077295373
-2.49513626 0.97057742 -6.47996140  1064859587
-6.52324581 2.63878751 -2.49513626  1075979582
-2.49513626 0.97057742 -6.71415567  1064859587
-6.74716282 1.99793041 -2.49513626  1072811954
-2.49513626 0.97057742 -6.86165953  1064859587
-6.90828466 1.33848214 -2.49513626  1066322880
-2.49513626 0.97057742 -6.96480513  1064859587
-6.98004913 0.89154077 -2.49513626  1061648110
-2.49513626 0.97057742 -7.00511360  1064859587
-7.01492786 0.55381906 -2.49513626  1054982130
-2.49513626 0.97057742 -7.02911234  1064859587
-7.03273487 -0.23786335 -2.49513626  3207628226
-2.49513626 0.97057742 -6.99089336  1064859587
-6.97708988 -0.91442531 -2.49513626  3213997570
-2.49513626 0.97057742 -6.90385866  1064859587
-3.35161924 5.98015690 -2.49513626  1085929477
-2.49513626 0.97124046 -3.72917938  1064870711
-3.82121754 5.69156170 -2.49513626  1085547458
-2.49513626 0.97124052 -4.26611137  1064870711
-4.35186815 5.29687023 -2.49513626  1084701939
-2.49513626 0.97124046 -4.91945028  1064870711
-4.99560452 4.69462776 -2.49513626  1083245105
-2.49513626 0.97124052 -5.28711176  1064870711
-5.35661221 4.27812099 -2.49513626  1082531846
-2.49513626 0.97124046 -5.49144077  1064870712
-5.55673838 4.01475859 -2.49513626  1080658999
-2.49513626 0.97124046 -5.86130905  1064870711
-5.91773462 3.46063805 -2.49513626  1079467065
-2.49513626 0.97124046 -6.12799501  1064870711
-6.17662907 2.97403169 -2.49513626  1076563040
-2.49513626 0.97124052 -6.35506153  1064870712
-6.39559078 2.46820235 -2.49513626  1073959474
-2.49513626 0.97124046 -6.63241053  1064870711
-6.65944147 1.62709391 -2.49513626  1067903142
-2.49513626 0.97124046 -6.75027704  1064870711
-6.81317711 0.75907040 -2.49513626  1059470972
-2.49513626 0.97124046 -6.85461664  1064870711
-6.85532475 -0.01124167 -2.49513626  3194833619
-2.49513626 0.97124046 -6.84680271  1064870711
-6.83226252 -0.56194592 -2.49513626  3209169496
-2.49513626 0.97124052 -6.79720497  1064870711
-6.74632120 -1.21768594 -2.49513626  3216477875
-2.49513626 0.97124052 -3.17270041  1064881315
-3.54424310 5.66459084 -2.49513626  1085376114
-2.49513626 0.97187251 -3.81335163  1064881315
-3.90111160 5.42499495 -2.49513626  1084277582
-2.49513626 0.97187251 -4.48594522  1064881315
-4.64290810 4.80548143 -2.49513626  1083661741
-2.49513626 0.97187245 -4.79507256  1064881314
-5.01396275 4.41694832 -2.49513626  1082486850
-2.49513626 0.97187251 -5.28757477  1064881315
-5.35260201 3.99986196 -2.49513626  1081399075
-2.49513626 0.97187251 -5.53930712  1064881315
-5.59869671 3.64744282 -2.49513626  1080272016
-2.49513626 0.97187251 -5.76811695  1064881315
-5.82162714 3.27992535 -2.49513626  1077916399
-2.49513626 0.97187251 -6.11058807  1064881315
-6.15328550 2.60505939 -2.49513626  1075863118
-2.49513626 0.97187251 -6.23388910  1064881315
-6.34267950 2.10230231 -2.49513626  1072879544
-2.49513626 0.97187251 -6.46472406  1064881314
-6.51574183 1.48134577 -2.49513626  1068510285
-2.49513626 0.97187251 -6.56002045  1064881314
-6.61368656 0.95309782 -2.49513626  1059195510
-2.49513626 0.97187251 -6.67889738  1064881314
-6.68095922 -0.11842916 -2.49513626  3202453476
-2.49513626 0.97187251 -6.64984989  1064881315
-6.62535286 -0.86832643 -2.49513626  3212413699
-2.49513626 0.97187251 -6.57575560  1064881314
-6.55581856 -1.29251051 -2.49513626  3216173734
-2.49513626 0.97187251 -3.09398913  1064891431
-3.27684951 5.63236904 -2.49513626  1085326614
-2.49513626 0.97247547 -3.54471540  1064891431
-4.05508852 5.10074425 -2.49513626  1084300699
-2.49513626 0.97247547 -4.21704912  1064891431
-4.29640818 4.89920616 -2.49513626  1083869949
-2.49513626 0.97247547 -4.45176458  1064891431
-4.52772331 4.68626356 -2.49513626  1083415636
-2.49513626 0.97247547 -4.67611027  1064891431
-4.74849796 4.46240997 -2.49513626  1082938800
-2.49513626 0.97247547 -4.88957214  1064891431
-5.02558565 4.14787054 -2.49513626  1081713652
-2.49513626 0.97247547 -5.28187418  1064891431
-5.45979834 3.55695438 -2.49513626  1079150204
-2.49513626 0.97247547 -5.67719841  1064891431
-5.72791004 3.10682845 -2.49513626  1076812566
-2.49513626 0.97247547 -6.07923365  1064891431
-6.11618328 2.24803042 -2.49513626  1074368297
-2.49513626 0.97247547 -6.18532324  1064891431
-6.21749878 1.95039511 -2.49513626  1072484713
-2.49513626 0.97247547 -6.27701330  1064891431
-6.30433989 1.64822054 -2.49513626  1069938510
-2.49513626 0.97247547 -6.35409164  1064891431
-6.39726734 1.23947251 -2.49513626  1060681156
-2.49513626 0.97247547 -6.49602270  1064891431
-6.51319885 0.19891480 -2.49513626  3157201574
-2.49513626 0.97247547 -6.51521206  1064891431
-6.51251316 -0.22026819 -2.49513626  3198575737
-2.49513626 0.97247547 -6.50205803  1064891431
-6.49430656 -0.53414935 -2.49513626  3206772480
-2.49513626 0.97247547 -6.47376633  1064891431
-6.46098232 -0.84678388 -2.49513626  3212007970
-2.49513626 0.97247547 -6.41261721  1064891431
-6.37206936 -1.36310852 -2.49513626  1085475718
-2.49513626 0.97305131 -3.10822630  1064901092
-3.19702864 5.49516726 -2.49513626  1085156697
-2.49513626 0.97305131 -3.54372454  1064901092
-3.71165729 5.16153574 -2.49513626  1084439750
-2.49513626 0.97305131 -3.87575483  1064901092
-4.03583956 4.91221619 -2.49513626  1083623230
-2.49513626 0.97305131 -4.34332180  1064901092
-4.41742992 4.57210827 -2.49513626  1083179988
-2.49513626 0.97305131 -4.56220245  1064901092
-4.63282633 4.35370874 -2.49513626  1082392935
-2.49513626 0.97305131 -4.90316677  1064901092
-5.09265995 3.80561018 -2.49513626  1078814108
-2.49513626 0.97305131 -5.58838129  1064901092
-5.68298435 2.84983182 -2.49513626  1076921359
-2.49513626 0.97305131 -5.85445595  1064901092
-5.89356375 2.38406706 -2.49513626  1074953827
-2.49513626 0.97305131 -6.06604290  1064901092
-6.09586477 1.80507231 -2.49513626  1070454089
-2.49513626 0.97305131 -6.17583704  1064901092
-6.27710152 1.00790656 -2.49513626  1063789778
-2.49513626 0.97305131 -6.30627108  1064901092
-6.31841040 0.70394748 -2.49513626  1058679786
-2.49513626 0.97305137 -6.34501076  1064901092
-6.35684061 0.09183414 -2.49513626  3186017180
-2.49513626 0.97305137 -6.35387325  1064901092
-6.34959269 -0.31706879 -2.49513626  3201735584
-2.49513626 0.97305131 -6.33610773  1064901093
-6.32690954 -0.62298048 -2.49513626  3208217476
-2.49513626 0.97305131 -6.30359602  1064901092
-6.27376223 -1.02848125 -2.49513626  3213921151
-2.49513626 0.97305131 -6.23743773  1064901092
-6.21684885 -1.32990396 -2.49513626  1084661478
-2.49513626 0.97360182 -3.45891786  1064910328
-3.62283063 5.03801203 -2.49513626  1084183728
-2.49513626 0.97360182 -3.86162829  1064910328
-3.93925357 4.79465914 -2.49513626  1083386754
-2.49513626 0.97360182 -4.38293505  1064910328
-4.52195644 4.24951506 -2.49513626  1081266451
-2.49513626 0.97360182 -4.97078133  1064910328
-5.02988672 3.63410664 -2.49513626  1078851635
-2.49513626 0.97360182 -5.35665703  1064910328
-5.40634918 3.04595757 -2.49513626  1077762516
-2.49513626 0.97360182 -5.50152397  1064910328
-5.59100246 2.69205427 -2.49513626  1075884397
-2.49513626 0.97360182 -5.71435022  1064910328
-5.75252104 2.32701087 -2.49513626  1074724067
-2.49513626 0.97360182 -5.82438993  1064910328
-5.85807037 2.04682088 -2.49513626  1072545153
-2.49513626 0.97360182 -5.94998074  1064910328
-5.97754908 1.66594648 -2.49513626  1069319553
-2.49513626 0.97360182 -6.05095005  1064910328
-6.07229233 1.27817154 -2.49513626  1066866015
-2.49513626 0.97360182 -6.11026335  1064910328
-6.12687731 0.98378438 -2.49513626  1063425705
-2.49513626 0.97360182 -6.19316387  1064910328
-6.19861746 0.28915992 -2.49513626  3185655253
-2.49513626 0.97360182 -6.20181274  1064910328
-6.19763613 -0.30948076 -2.49513626  3204593647
-2.49513626 0.97360182 -2.87706661  1064919166
-2.96246767 5.28580856 -2.49513626  1084621405
-2.49513626 0.97412860 -3.61627102  1064919166
-3.69400311 4.80315685 -2.49513626  1083429377
-2.49513626 0.97412860 -4.06793976  1064919166
-4.34826183 4.22002506 -2.49513626  1082444049
-2.49513626 0.97412860 -4.48174191  1064919166
-4.54675293 4.00537348 -2.49513626  1081844057
-2.49513626 0.97412860 -4.67323446  1064919166
-4.73466396 3.78139448 -2.49513626  1080237176
-2.49513626 0.97412860 -5.02314758  1064919166
-5.07700491 3.30757260 -2.49513626  1078534075
-2.49513626 0.97412860 -5.27916002  1064919166
-5.32631636 2.88900304 -2.49513626  1076009125
-2.49513626 0.97412860 -5.54119921  1064919166
-5.78158140 1.81365037 -2.49513626  1071396565
-2.49513626 0.97412860 -5.83692503  1064919166
-5.90859795 1.34331214 -2.49513626  1067434440
-2.49513626 0.97412860 -6.01053953  1064919166
-6.04746342 0.37967509 -2.49513626  1049661737
-2.49513626 0.97412860 -6.05873775  1064919166
-6.05842209 -0.10739385 -2.49513626  3193027998
-2.49513626 0.97412860 -6.04619026  1064919166
-6.03898191 -0.49669942 -2.49513626  3206021390
-2.49513626 0.97412860 -6.01987982  1064919166
-6.00799417 -0.78741479 -2.49513626  3210889807
-2.49513626 0.97412860 -5.96301889  1064919166
-5.94493580 -1.17207229 -2.49513626  3215081140
-2.49513626 0.97412860 -3.05850101  1064927629
-3.13961840 5.01789808 -2.49513626  1084157853
-2.49513626 0.97463304 -3.45574522  1064927629
-3.53259444 4.74945068 -2.49513626  1083458707
-2.49513626 0.97463304 -3.75757408  1064927629
-3.83064961 4.51249743 -2.49513626  1083074777
-2.49513626 0.97463304 -3.97381163  1064927629
-4.11285496 4.25686979 -2.49513626  1082242687
-2.49513626 0.97463304 -4.74152994  1064927629
-4.79790545 3.46650028 -2.49513626  1078905167
-2.49513626 0.97463304 -5.10960579  1064927629
-5.24779034 2.73810244 -2.49513626  1075762562
-2.49513626 0.97463304 -5.41297960  1064927629
-5.48721123 2.21968794 -2.49513626  1074291880
-2.49513626 0.97463304 -5.67556429  1064927629
-5.70186186 1.58911240 -2.49513626  1069524007
-2.49513626 0.97463304 -5.75002432  1064927629
-5.82845497 1.03228939 -2.49513626  1061157991
-2.49513626 0.97463304 -5.89254618  1064927629
-5.90080452 0.46586040 -2.49513626  1052632407
-2.49513626 0.97463304 -5.91273403  1064927629
-5.91640615 0.18068846 -2.49513626  3184974448
-2.49513626 0.97463304 -5.91179800  1064927629
-5.89924479 -0.48520619 -2.49513626  3207379211
-2.49513626 0.97463304 -5.82503891  1064927629
-5.80737400 -1.14495289 -2.49513626  1084417910
-2.49513626 0.97511649 -2.90881658  1064935740
-3.14659834 4.85365295 -2.49513626  1083813214
-2.49513626 0.97511649 -3.37705231  1064935740
-3.45215225 4.64129877 -2.49513626  1083357632
-2.49513626 0.97511649 -3.74342084  1064935740
-3.88332367 4.28705359 -2.49513626  1082600280
-2.49513626 0.97511649 -4.01920080  1064935740
-4.15092325 4.02850723 -2.49513626  1081967791
-2.49513626 0.97511649 -4.27834415  1064935740
-4.34040833 3.82359457 -2.49513626  1081095645
-2.49513626 0.97511649 -4.46114731  1064935740
-4.79518032 3.23500490 -2.49513626  1077935876
-2.49513626 0.97511649 -4.99325371  1064935740
-5.03957510 2.83931518 -2.49513626  1076576137
-2.49513626 0.97511649 -5.21170139  1064935740
-5.25139093 2.42526865 -2.49513626  1074451259
-2.49513626 0.97511649 -5.51919222  1064935740
-5.54632425 1.64234543 -2.49513626  1069991498
-2.49513626 0.97511649 -5.61908913  1064935740
-5.69573402 1.00878274 -2.49513626  1062418259
-2.49513626 0.97511649 -5.74880791  1064935740
-5.75836802 0.54794252 -2.49513626  1049231757
-2.49513626 0.97511649 -5.78377199  1064935740
-5.78347015 -0.10251992 -2.49513626  3192404178
-2.49513626 0.97511649 -5.76491213  1064935740
-5.75654030 -0.56681883 -2.49513626  3208670730
-2.49513626 0.97511649 -5.72249794  1064935740
-5.70818567 -0.93576431 -2.49513626  3213067174
-2.49513626 0.97511649 -5.67513371  1064935740
-2.76461482 4.93278790 -2.49513626  1083894797
-2.49513626 0.97558028 -3.15196872  1064943521
-3.22707057 4.64343691 -2.49513626  1083142040
-2.49513626 0.97558028 -3.51894188  1064943521
-3.72835469 4.25145340 -2.49513626  1082401666
-2.49513626 0.97558028 -3.92908716  1064943521
-4.05785513 3.93818474 -2.49513626  1081315200
-2.49513626 0.97558028 -4.36112404  1064943521
-4.47464037 3.45732403 -2.49513626  1079243120
-2.49513626 0.97558028 -4.68766975  1064943521
-4.73792791 3.08666921 -2.49513626  1077653767
-2.49513626 0.97558028 -4.88130045  1064943521
-5.01331234 2.61575794 -2.49513626  1075984878
-2.49513626 0.97558028 -5.09485102  1064943521
-5.13364935 2.37089181 -2.49513626  1074247277
-2.49513626 0.97558028 -5.30752659  1064943521
-5.36752748 1.77908492 -2.49513626  1069699424
-2.49513626 0.97558028 -5.47080660  1064943521
-5.53343010 1.16474354 -2.49513626  1065987353
-2.49513626 0.97558028 -5.56802988  1064943521
-5.58317184 0.89648271 -2.49513626  1062107904
-2.49513626 0.97558028 -5.60911798  1064943521
-5.61991644 0.62612617 -2.49513626  1055120596
-2.49513626 0.97558028 -5.64357519  1064943521
-5.64854479 0.26349938 -2.49513626  1043382704
-2.49513626 0.97558028 -5.65409756  1064943521
-5.65379953 -0.10022134 -2.49513626  3192109979
-2.49513626 0.97558028 -5.64765120  1064943521
-5.64238405 -0.37281862 -2.49513626  3208387978
-2.49513626 0.97558028 -5.56476784  1064943521
-5.54789305 -1.09379351 -2.49513626  3214371006
-2.49513626 0.97558028 -2.62561274  1064950990
-2.78079271 4.77972460 -2.49513626  1083670544
-2.49513626 0.97602546 -3.00810957  1064950990
-3.08235073 4.59104443 -2.49513626  1083264728
-2.49513626 0.97602546 -3.22841978  1064950990
-3.30021381 4.43702221 -2.49513626  1082819511
-2.49513626 0.97602546 -3.51039243  1064950990
-3.57866168 4.21565580 -2.49513626  1082336723
-2.49513626 0.97602546 -3.77784252  1064950990
-3.84230304 3.97684312 -2.49513626  1081771938
-2.49513626 0.97602546 -3.96822810  1064950990
-4.02965736 3.78687787 -2.49513626  1080962639
-2.49513626 0.97602546 -4.14937544  1064950990
-4.20763111 3.58809400 -2.49513626  1079236960
-2.49513626 0.97602546 -4.48229027  1064950990
-4.53379726 3.16595364 -2.49513626  1078013689
-2.49513626 0.97602546 -4.72797012  1064950990
-4.81776857 2.71434736 -2.49513626  1076411531
-2.49513626 0.97602546 -5.05690336  1064950990
-5.09223795 2.15585256 -2.49513626  1073665929
-2.49513626 0.97602546 -5.19029856  1064950990
-5.22031164 1.82398617 -2.49513626  1071559022
-2.49513626 0.97602546 -5.30221605  1064950990
-5.32678270 1.48457766 -2.49513626  1065788069
-2.49513626 0.97602546 -5.44504738  1064950990
-5.47324896 0.78874952 -2.49513626  1060330320
-2.49513626 0.97602546 -5.50492430  1064950990
-5.51263666 0.43521464 -2.49513626  1051813738
-2.49513626 0.97602546 -5.52378416  1064950990
-5.52921391 0.07987781 -2.49513626  3155464676
-2.49513626 0.97602546 -5.52663422  1064950990
-5.51118088 -0.45328838 -2.49513626  3205150743
-2.49513626 0.97602546 -5.49375010  1064950990
-5.48290157 -0.71859539 -2.49513626  3211068185
-2.49513626 0.97602546 -5.44185638  1064950990
-2.64469790 4.71882534 -2.49513626  1083547428
-2.49513626 0.97645313 -2.86923766  1064958165
-2.94262576 4.53901863 -2.49513626  1083057428
-2.49513626 0.97645313 -3.22837114  1064958165
-3.50075865 4.12388611 -2.49513626  1082149623
-2.49513626 0.97645313 -3.75866103  1064958165
-3.82074666 3.82931519 -2.49513626  1081154686
-2.49513626 0.97645313 -3.94193721  1064958165
-4.17195940 3.44332886 -2.49513626  1078640646
-2.49513626 0.97645313 -4.43510342  1064958165
-4.48433781 3.02530050 -2.49513626  1077738091
-2.49513626 0.97645313 -4.57932377  1064958165
-4.62504768 2.80547380 -2.49513626  1076806692
-2.49513626 0.97645313 -4.87386084  1064958165
-4.94681883 2.18877029 -2.49513626  1074198681
-2.49513626 0.97645313 -5.01465845  1064958165
-5.04663801 1.94761217 -2.49513626  1072619334
-2.49513626 0.97645313 -5.10666847  1064958165
-5.25483894 1.28390884 -2.49513626  1066311395
-2.49513626 0.97645313 -5.31065464  1064958165
-5.35410070 0.77157891 -2.49513626  1060074434
-2.49513626 0.97645313 -5.39263439  1064958165
-5.39878082 0.33894899 -2.49513626  1042880316
-2.49513626 0.97645313 -5.40884733  1064958165
-5.39120817 -0.44342089 -2.49513626  3204952840
-2.49513626 0.97645313 -5.33816051  1064958165
-2.66186523 4.57531118 -2.49513626  1083152432
-2.49513626 0.97686422 -2.87945890  1064965062
-2.95052695 4.39469910 -2.49513626  1082541270
-2.49513626 0.97686422 -3.29404616  1064965062
-3.36026335 4.08993959 -2.49513626  1081566002
-2.49513626 0.97686422 -3.67797875  1064965062
-3.73873186 3.74711609 -2.49513626  1080815498
-2.49513626 0.97686422 -3.85732079  1064965062
-3.91512322 3.56241536 -2.49513626  1079485569
-2.49513626 0.97686422 -4.13607025  1064965062
-4.24017763 3.16857576 -2.49513626  1078355419
-2.49513626 0.97686422 -4.38808060  1064965062
-4.43512726 2.88940048 -2.49513626  1077171463
-2.49513626 0.97686422 -4.52576780  1064965062
-4.69291115 2.44858646 -2.49513626  1074984916
-2.49513626 0.97686422 -4.84063387  1064965062
-4.90701675 1.98498750 -2.49513626  1072283296
-2.49513626 0.97686422 -4.99705362  1064965062
-5.02448797 1.66538370 -2.49513626  1070255127
-2.49513626 0.97686422 -5.09897041  1064965062
-5.14203978 1.25634885 -2.49513626  1066110761
-2.49513626 0.97686422 -5.19665623  1064965062
-5.22635126 0.83918852 -2.49513626  1059827622
-2.49513626 0.97686422 -5.26074743  1064965062
-5.29082918 0.16158327 -2.49513626  1033672685
-2.49513626 0.97686422 -5.29246521  1064965062
-5.29027128 -0.17892921 -2.49513626  3202230392
-2.49513626 0.97686422 -5.26782131  1064965062
-5.23667002 -0.77219087 -2.49513626  3210426311
-2.49513626 0.97686422 -5.20912361  1064965062
-5.19332743 -1.02388942 -2.49513626  3213736845
-2.49513626 0.97686422 -2.60549688  1064971698
-2.67718720 4.43593884 -2.49513626  1082953152
-2.49513626 0.97725976 -2.81848502  1064971698
-2.88804579 4.30163574 -2.49513626  1082664431
-2.49513626 0.97725976 -3.02490711  1064971698
-3.28910708 4.00333166 -2.49513626  1081691993
-2.49513626 0.97725976 -3.53969622  1064971698
-3.60009360 3.72615266 -2.49513626  1080488065
-2.49513626 0.97725976 -3.77563691  1064971698
-3.88780808 3.42488456 -2.49513626  1079186299
-2.49513626 0.97725976 -4.04848385  1064971698
-4.24799776 2.96637821 -2.49513626  1077506932
-2.49513626 0.97725976 -4.63148832  1064971698
-4.73812771 2.09643269 -2.49513626  1073263280
-2.49513626 0.97725976 -4.83373451  1064971698
-4.89123535 1.70900667 -2.49513626  1069973691
-2.49513626 0.97725976 -4.99099398  1064971698
-5.01272297 1.31053758 -2.49513626  1067280450
-2.49513626 0.97725976 -5.07010126  1064971698
-5.08661318 0.98553282 -2.49513626  1063735739
-2.49513626 0.97725976 -5.13945198  1064971698
-5.15790558 0.49080446 -2.49513626  1053870226
-2.49513626 0.97725976 -5.17102337  1064971698
-5.17879009 0.15816167 -2.49513626  3199133282
-2.49513626 0.97725976 -5.16376829  1064971698
-5.15626955 -0.50771302 -2.49513626  3205967968
-2.49513626 0.97725976 -5.13727140  1064971698
-5.12577724 -0.75583875 -2.49513626  3210122080
-2.49513626 0.97725976 -5.06657505  1064971698
-2.48018217 4.42528629 -2.49513626  1082760632
-2.49513626 0.97764045 -2.96168661  1064978085
-3.09262657 4.02121305 -2.49513626  1081793465
-2.49513626 0.97764045 -3.34476972  1064978085
-3.40568662 3.75975823 -2.49513626  1080891001
-2.49513626 0.97764045 -3.64037347  1064978085
-3.75212240 3.41409874 -2.49513626  1078897189
-2.49513626 0.97764045 -3.96386933  1064978085
-4.06364393 3.03665662 -2.49513626  1077814089
-2.49513626 0.97764045 -4.20538759  1064978085
-4.25047636 2.76910448 -2.49513626  1076679426
-2.49513626 0.97764045 -4.37909937  1064978085
-4.41972303 2.49008799 -2.49513626  1075195748
-2.49513626 0.97764045 -4.53469038  1064978085
-4.60548592 2.12696671 -2.49513626  1073555049
-2.49513626 0.97764045 -4.70271635  1064978085
-4.73270845 1.82645941 -2.49513626  1071001163
-2.49513626 0.97764045 -4.84034872  1064978085
-4.86414385 1.44034219 -2.49513626  1068389229
-2.49513626 0.97764045 -4.92795658  1064978085
-4.99517584 0.88470542 -2.49513626  1062069074
-2.49513626 0.97764045 -5.02104712  1064978085
-5.03203440 0.64272696 -2.49513626  1057999908
-2.49513626 0.97764045 -5.05718088  1064978085
-5.06740618 0.23638968 -2.49513626  1033245431
-2.49513626 0.97764045 -5.07290983  1064978085
-5.06660366 -0.25300241 -2.49513626  3204351011
-2.49513626 0.97764045 -5.03985357  1064978085
-5.02990150 -0.65922493 -2.49513626  3208475488
-2.49513626 0.97764045 -5.00609493  1064978085
-4.99224854 -0.90108114 -2.49513626  3213350124
-2.49513626 0.97764045 -2.35897493  1064984237
-2.49839473 4.29433203 -2.49513626  1082392182
-2.49513626 0.97800714 -2.83531427  1064984237
-2.90056443 4.03360701 -2.49513626  1082073519
-2.49513626 0.97800714 -3.09175444  1064984236
-3.15390372 3.83877254 -2.49513626  1081239330
-2.49513626 0.97800714 -3.39419389  1064984237
-3.45210743 3.57298493 -2.49513626  1079623539
-2.49513626 0.97800714 -3.72799349  1064984237
-3.88206601 3.10045576 -2.49513626  1077283667
-2.49513626 0.97800714 -4.11860085  1064984237
-4.32851171 2.43869948 -2.49513626  1075288523
-2.49513626 0.97800714 -4.47635317  1064984236
-4.57510662 1.93692124 -2.49513626  1072593305
-2.49513626 0.97800714 -4.63503790  1064984237
-4.66320896 1.71398509 -2.49513626  1070711490
-2.49513626 0.97800714 -4.71592569  1064984237
-4.76376200 1.41061759 -2.49513626  1068153458
-2.49513626 0.97800714 -4.80666685  1064984237
-4.84460163 1.10141408 -2.49513626  1065549068
-2.49513626 0.97800714 -4.87752199  1064984236
-4.89208889 0.86644751 -2.49513626  1060465173
-2.49513626 0.97800714 -4.93767452  1064984237
-4.94588423 0.47062922 -2.49513626  1041976487
-2.49513626 0.97800714 -4.96770668  1064984237
-4.96822023 -0.00814711 -2.49513626  3182712335
-2.49513626 0.97800714 -4.96538973  1064984236
-4.96204329 -0.24778107 -2.49513626  3198662116
-2.49513626 0.97800714 -4.95150614  1064984237
-4.94431496 -0.48684299 -2.49513626  3205560675
-2.49513626 0.97800714 -4.91507626  1064984237
-4.90278339 -0.80372918 -2.49513626  3212182753
-2.49513626 0.97800708 -4.85830784  1064984237
-2.44746375 4.20678711 -2.49513626  1082215839
-2.49513626 0.97836053 -2.77751327  1064990166
-2.84143400 3.95137858 -2.49513626  1081332345
-2.49513626 0.97836053 -3.08961034  1064990166
-3.20896506 3.65919089 -2.49513626  1080482501
-2.49513626 0.97836053 -3.43759274  1064990166
-3.65199661 3.21715164 -2.49513626  1078598811
-2.49513626 0.97836053 -3.75358415  1064990166
-3.89864993 2.91336083 -2.49513626  1076219558
-2.49513626 0.97836053 -4.16123581  1064990166
-4.20129633 2.45687842 -2.49513626  1075085986
-2.49513626 0.97836053 -4.31491661  1064990166
-4.35057020 2.18166876 -2.49513626  1073912143
-2.49513626 0.97836053 -4.56814528  1064990166
-4.61978722 1.53124416 -2.49513626  1068556495
-2.49513626 0.97836053 -4.68827009  1064990166
-4.70868015 1.23104787 -2.49513626  1066015588
-2.49513626 0.97836053 -4.80539083  1064990166
-4.81717968 0.69420356 -2.49513626  1055657161
-2.49513626 0.97836053 -4.86165667  1064990166
-4.86643553 0.07030337 -2.49513626  3154297556
-2.49513626 0.97836053 -4.86617899  1064990166
-4.86088657 -0.24272987 -2.49513626  3198438053
-2.49513626 0.97836053 -4.84352016  1064990166
-4.82567501 -0.63245851 -2.49513626  3207971349
-2.49513626 0.97836053 -4.80283546  1064990166
-4.78954983 -0.86449581 -2.49513626  3211854048
-2.49513626 0.97836047 -4.75926638  1064990166
-2.26432991 4.19704103 -2.49513626  1082466138
-2.49513626 0.97870129 -2.52949691  1064995883
-2.59419298 4.00156307 -2.49513626  1081959810
-2.49513626 0.97870129 -2.72155762  1064995883
-2.84610629 3.82649040 -2.49513626  1081010425
-2.49513626 0.97870129 -3.02736402  1064995883
-3.08624005 3.63558364 -2.49513626  1080391778
-2.49513626 0.97870129 -3.20158172  1064995883
-3.25801468 3.48248386 -2.49513626  1079512734
-2.49513626 0.97870129 -3.47517991  1064995883
-3.57842207 3.15233970 -2.49513626  1078085482
-2.49513626 0.97870129 -3.72631288  1064995883
-3.82010770 2.85466766 -2.49513626  1077067296
-2.49513626 0.97870129 -3.90994978  1064995883
-3.99574327 2.60314965 -2.49513626  1076000644
-2.49513626 0.97870129 -4.07740355  1064995883
-4.11665726 2.40738225 -2.49513626  1074605878
-2.49513626 0.97870129 -4.26292372  1064995883
-4.32947683 1.99949753 -2.49513626  1073151285
-2.49513626 0.97870129 -4.39154911  1064995883
-4.44907475 1.71699870 -2.49513626  1070765696
-2.49513626 0.97870129 -4.52671766  1064995883
-4.55026340 1.42739296 -2.49513626  1067083341
-2.49513626 0.97870129 -4.63262224  1064995883
-4.65023041 1.05722404 -2.49513626  1065056083
-2.49513626 0.97870129 -4.68182755  1064995883
-4.70858192 0.75605088 -2.49513626  1059988167
-2.49513626 0.97870129 -4.74744987  1064995883
-4.75410128 0.37532973 -2.49513626  1050213966
-2.49513626 0.97870129 -4.76839685  1064995883
-4.76295948 -0.23783980 -2.49513626  3200788011
-2.49513626 0.97870129 -4.74594259  1064995883
-4.72845650 -0.61971718 -2.49513626  3209002980
-2.49513626 0.97870129 -4.69305944  1064995883
-4.67882919 -0.92245466 -2.49513626  1082368352
-2.49513626 0.97903013 -2.35039139  1065001400
-2.41506338 4.00161314 -2.49513626  1081629048
-2.49513626 0.97903013 -2.72873735  1065001400
-2.84937882 3.70492768 -2.49513626  1080500372
-2.49513626 0.97903013 -3.08169031  1065001400
-3.19312286 3.41312218 -2.49513626  1079451626
-2.49513626 0.97903013 -3.30125141  1065001399
-3.35404110 3.25512576 -2.49513626  1078073463
-2.49513626 0.97903013 -3.65209579  1065001399
-3.78853869 2.73722863 -2.49513626  1076576920
-2.49513626 0.97903007 -3.99619293  1065001400
-4.17801762 2.09513950 -2.49513626  1073857879
-2.49513626 0.97903013 -4.24324465  1065001400
-4.27421522 1.89117002 -2.49513626  1072250153
-2.49513626 0.97903013 -4.36046124  1065001400
-4.41233253 1.54167724 -2.49513626  1068699961
-2.49513626 0.97903007 -4.50232315  1065001400
-4.54035330 1.10933924 -2.49513626  1065656605
-2.49513626 0.97903013 -4.57368469  1065001400
-4.58857870 0.88903850 -2.49513626  1062251439
-2.49513626 0.97903013 -4.63624525  1065001400
-4.66472626 0.29286367 -2.49513626  1046414923
-2.49513626 0.97903013 -4.67173290  1065001400
-4.67342234 0.06751498 -2.49513626  3189885106
-2.49513626 0.97903013 -4.66809464  1065001400
-4.63427830 -0.60737389 -2.49513626  3207498927
-2.49513626 0.97903013 -4.59958601  1065001400
-4.58563995 -0.90408248 -2.49513626  1082117442
-2.49513626 0.97934753 -2.30409169  1065006725
-2.36748958 3.92278624 -2.49513626  1081644722
-2.49513626 0.97934753 -2.49243903  1065006725
-2.55395460 3.80401969 -2.49513626  1081134072
-2.49513626 0.97934753 -2.67498469  1065006725
-2.73447132 3.67639995 -2.49513626  1080586689
-2.49513626 0.97934753 -2.90862083  1065006725
-2.96518660 3.49298310 -2.49513626  1079801906
-2.49513626 0.97934753 -3.13022232  1065006725
-3.18363285 3.29510784 -2.49513626  1078737257
-2.49513626 0.97934753 -3.33886933  1065006725
-3.38890243 3.08360004 -2.49513626  1078056468
-2.49513626 0.97934753 -3.58015251  1065006725
-3.67026734 2.74269629 -2.49513626  1076355822
-2.49513626 0.97934753 -3.83901548  1065006725
-3.99187732 2.24903774 -2.49513626  1074515844
-2.49513626 0.97934753 -4.12822056  1065006725
-4.27456522 1.64965141 -2.49513626  1070224362
-2.49513626 0.97934753 -4.39327717  1065006725
-4.43284798 1.15893400 -2.49513626  1066087104
-2.49513626 0.97934753 -4.46783018  1065006725
-4.52389383 0.72639573 -2.49513626  1059540536
-2.49513626 0.97934753 -4.57686186  1065006725
-4.58136082 0.06618502 -2.49513626  3181793328
-2.49513626 0.97934753 -4.55978823  1065006725
-4.50897980 -0.81385297 -2.49513626  3210928830
-2.49513626 0.97934753 -4.48047018  1065006725
-2.19642997 3.91899896 -2.49513626  1081327186
-2.49513626 0.97965413 -2.44385910  1065011869
-2.50417566 3.72987509 -2.49513626  1080826493
-2.49513626 0.97965413 -2.68117309  1065011869
-2.73880529 3.56115341 -2.49513626  1080103083
-2.49513626 0.97965413 -2.85192776  1065011869
-3.06921172 3.28067231 -2.49513626  1078692188
-2.49513626 0.97965413 -3.22388411  1065011869
-3.27379131 3.07655001 -2.49513626  1077347641
-2.49513626 0.97965413 -3.64152050  1065011869
-3.68336654 2.57209778 -2.49513626  1075383623
-2.49513626 0.97965413 -3.84111667  1065011869
-3.94903445 2.14196157 -2.49513626  1074069682
-2.49513626 0.97965413 -4.01588535  1065011869
-4.04775715 1.94898367 -2.49513626  1072765606
-2.49513626 0.97965413 -4.13705635  1065011869
-4.19124889 1.61749780 -2.49513626  1068821463
-2.49513626 0.97965413 -4.30764771  1065011869
-4.32760715 1.20610642 -2.49513626  1065909300
-2.49513626 0.97965413 -4.38074684  1065011869
-4.39619875 0.92536652 -2.49513626  1061720751
-2.49513626 0.97965413 -4.43571806  1065011869
-4.45633173 0.56919414 -2.49513626  1052051539
-2.49513626 0.97965413 -4.48370695  1065011869
-4.49044085 0.13713890 -2.49513626  1032120215
-2.49513626 0.97965413 -4.48276043  1065011869
-4.47741556 -0.36826241 -2.49513626  3204650984
-2.49513626 0.97965413 -4.45444012  1065011869
-4.43335867 -0.72677779 -2.49513626  3209447661
-2.49513626 0.97965413 -4.39314127  1065011869
-2.09196162 3.87754512 -2.49513626  1081473587
-2.49513626 0.97995037 -2.21559834  1065016839
-2.33694100 3.73501873 -2.49513626  1080859342
-2.49513626 0.97995037 -2.51438141  1065016839
-2.68596888 3.49245334 -2.49513626  1079818534
-2.49513626 0.97995037 -2.85130262  1065016839
-2.90495992 3.31253219 -2.49513626  1079049207
-2.49513626 0.97995037 -3.06135917  1065016839
-3.11192703 3.11890507 -2.49513626  1078223224
-2.49513626 0.97995037 -3.21063399  1065016839
-3.30601883 2.91237020 -2.49513626  1077116256
-2.49513626 0.97995037 -3.52930498  1065016839
-3.61230898 2.52247715 -2.49513626  1074681860
-2.49513626 0.97995037 -3.90613675  1065016839
-3.93841267 1.97498536 -2.49513626  1072998470
-2.49513626 0.97995037 -4.02909374  1065016839
-4.13537550 1.51997757 -2.49513626  1069155467
-2.49513626 0.97995037 -4.20388126  1065016839
-4.24411964 1.18283892 -2.49513626  1059119436
-2.49513626 0.97995037 -4.39219999  1065016839
-4.39720917 0.27606866 -2.49513626  1045576696
-2.49513626 0.97995037 -4.40381289  1065016839
-4.40517426 -0.07808775 -2.49513626  3189277054
-2.49513626 0.97995037 -4.39627981  1065016839
-4.39103889 -0.36115795 -2.49513626  3204485243
-2.49513626 0.97995037 -4.36850691  1065016839
-4.34783173 -0.71275425 -2.49513626  3209189424
-2.49513626 0.97995037 -4.30838919  1065016839
-2.05199790 3.80347490 -2.49513626  1081021065
-2.49513626 0.98023683 -2.35093021  1065021645
-2.46635008 3.54883528 -2.49513626  1080069811
-2.49513626 0.98023683 -2.57921982  1065021645
-2.63466001 3.42573762 -2.49513626  1079358948
-2.49513626 0.98023683 -2.79683518  1065021645
-2.90136266 3.20300245 -2.49513626  1078590117
-2.49513626 0.98023683 -3.00288057  1065021645
