# .PCD v0.7 - Point Cloud Data file format
VERSION 0.7
FIELDS x y z intensity
SIZE 4 4 4 4
TYPE F F F F
COUNT 1 1 1 1
WIDTH 1027
HEIGHT 1
VIEWPOINT 0 0 0 1 0 0 0
POINTS 1027
DATA ascii
-5.69887495 28.31091499 -2.64753628  1105312375
-2.64753628 0.89047557 -7.49902916  1063515701
22.06334686 14.60287094 -2.64753628  1098175454
-2.64753628 0.89909995 20.82495308  1063660392
20.29177475 16.97877502 -2.64753628  1099589992
-2.64753628 0.89909983 19.73778915  1063660392
19.45316124 17.93346786 -2.64753628  1100474366
-2.62632203 0.89986640 16.46557999  1063740232
15.76445007 19.41771889 -2.50275636  1100958894
-2.50275636 0.90434462 14.81397533  1063748383
14.16121101 20.61615372 -2.50275636  1101560000
-2.50275636 0.90434450 12.46725655  1063748383
11.76668262 22.07058716 -2.50275636  1102962423
-2.64753628 0.89909983 11.31203461  1063660392
10.92765236 24.09604263 -2.64753628  1103412832
-2.64753628 0.89909983 9.36317348  1063660392
8.96579552 24.89275742 -2.64753628  1103643582
-2.64753628 0.89909995 7.76027918  1063660394
7.35434294 25.41551399 -2.64753628  1103904112
-2.64753628 0.89909983 6.53688717  1063660392
6.12557650 25.73927689 -2.64753628  1104063541
-2.64753628 0.89909977 5.29839516  1063660392
4.46577454 26.07856369 -2.64753628  1104227453
-2.64753628 0.89909983 3.62856245  1063660392
3.20851183 26.26290703 -2.64753628  1104313532
-2.64753628 0.89909983 0.67472112  1063660392
-2.70929170 26.31908798 -2.64753628  1104293314
-2.64753628 0.89909983 -3.55052137  1063660392
-5.63578653 25.85097122 -2.64753628  1104023353
-2.64753628 0.89909983 19.21188354  1063783886
18.72000313 15.66361809 -2.64753628  1098867084
-2.64753628 0.90646064 18.20892525  1063783886
17.94635010 16.54437065 -2.64753628  1100055522
-2.64753628 0.90646064 15.68607616  1063783886
14.91202641 18.98087502 -2.61816573  1100475095
-2.55639076 0.90953052 13.49936390  1063851742
12.44870090 19.42776108 -2.50275636  1101006401
-2.50275636 0.91134185 11.17983723  1063865779
10.85525131 20.36102676 -2.50275636  1101455028
-2.50275636 0.91134185 9.19228840  1063865779
8.85227394 21.30834007 -2.50275636  1102139716
-2.50275636 0.91134185 6.05799437  1063865779
4.11985207 24.05855942 -2.64753628  1103165618
-2.64753628 0.90646064 2.95998311  1063783885
2.57170749 24.27290535 -2.64753628  1103295091
-2.64753628 0.90646064 0.23172414  1063783886
-0.15906005 24.40824127 -2.64753628  1103313013
-2.64753628 0.90646058 -2.11039782  1063783886
-2.49943638 24.28044891 -2.64753628  1103200512
-2.64753628 0.90646058 -3.66233325  1063783886
-4.04821205 24.07071877 -2.64753628  1103103433
-2.64753628 0.90646058 -5.58039045  1063783886
-5.99167585 22.28245544 -2.50275636  1095239384
-2.64753628 0.91281569 18.47873116  1063890506
18.04986382 13.68486214 -2.64753628  1097372222
-2.64753628 0.91281569 17.13706207  1063890506
16.65405846 15.35302925 -2.64753628  1098506758
-2.64753628 0.91281569 15.63735962  1063890506
14.27683544 17.58536530 -2.64753628  1099857491
-2.64753628 0.91281569 13.70652103  1063890506
13.41605568 18.25055313 -2.64753628  1100198967
-2.64753628 0.91281569 12.82488251  1063890506
12.15562725 18.97038269 -2.63346744  1100466886
-2.60755515 0.91407400 11.31992626  1063924710
10.91371822 18.98069954 -2.55911970  1100472007
-2.53650999 0.91631430 10.12253380  1063960644
9.46349049 19.20768547 -2.50275636  1100743083
-2.50275636 0.91738057 8.21483421  1063967092
7.57756090 20.02681541 -2.50275636  1101081119
-2.50275636 0.91738057 6.93251133  1063967092
6.60728073 20.36754227 -2.50275636  1101251588
-2.50275636 0.91738057 5.95182848  1063967092
5.62176752 20.66128159 -2.50275636  1101397302
-2.50275636 0.91738057 3.61411667  1063967092
2.93657470 21.21012688 -2.50275636  1101662479
-2.50275636 0.91738057 1.91482520  1063967092
0.54605103 21.40548325 -2.50275636  1101744823
-2.50275636 0.91738057 -0.13953766  1063967092
-0.48232070 21.40701294 -2.50275636  1101686318
-2.50275636 0.91738057 -2.53334045  1063967092
-2.87341857 21.21877480 -2.50275636  1101618245
-2.50275636 0.91738057 -3.55127525  1063967092
-4.22548580 20.99138451 -2.50275636  1101448002
-2.50275636 0.91738057 -5.22847509  1063967092
-5.56022930 20.67792702 -2.50275636  1094651420
-2.64753628 0.91835767 16.83522797  1063983485
16.62872314 13.03184700 -2.64753628  1096072718
-2.64753628 0.91835767 16.20298195  1063983485
15.98384857 13.81521797 -2.64753628  1096883225
-2.64753628 0.91835761 15.53334808  1063983485
15.30210400 14.56672001 -2.64753628  1098157510
-2.64753628 0.91835767 14.08825684  1063983485
11.96185684 17.41429138 -2.64753628  1099845247
-2.64753628 0.91835767 10.82285786  1063983485
10.53098774 18.31507111 -2.64753628  1100293257
-2.64753628 0.91835767 8.96827602  1063992841
8.23821640 18.96728325 -2.59142900  1100466596
-2.54219031 0.92147511 6.83443880  1064043124
6.16265678 18.99693871 -2.50275636  1100529357
-2.50275636 0.92264479 5.55130291  1064055411
5.24345493 19.27091217 -2.50275636  1100665265
-2.50275636 0.92264479 4.62379742  1064055411
4.31216574 19.50043488 -2.50275636  1100777770
-2.50275636 0.92264485 3.37090874  1064055411
3.05532742 19.73643684 -2.50275636  1100931593
-2.50275636 0.92264479 1.46728456  1064055411
0.18960279 19.97063255 -2.50275636  1100989651
-2.50275636 0.92264479 -0.44985992  1064055411
-1.08886111 19.94182396 -2.50275636  1100963819
-2.50275636 0.92264479 -2.04506540  1064055411
-2.36286426 19.83125687 -2.50275636  1100871341
-2.50275636 0.92264479 -3.62718320  1064055411
-4.87662840 19.36699486 -2.50275636  1093306287
-2.64753628 0.92323273 16.50460815  1064065275
15.96108341 11.70357513 -2.64753628  1095448454
-2.64753628 0.92323279 14.55204678  1064065275
13.66366196 14.31901550 -2.64753628  1097595998
-2.64753628 0.92323279 12.71926498  1064065276
12.22725677 15.56354713 -2.64753628  1098653163
-2.64753628 0.92323279 11.46591663  1064065276
11.20616817 16.31415367 -2.64753628  1099430832
-2.64753628 0.92323273 9.86569786  1064065276
8.74738407 17.75424194 -2.64753628  1099899613
-2.64753628 0.92323273 7.88486719  1064065276
7.59321690 18.27766037 -2.64753628  1100164304
-2.64753628 0.92323279 5.80512762  1064065276
5.48368835 18.95081902 -2.63898802  1100455383
-2.62732792 0.92379588 4.51082563  1064084580
4.19156218 18.95504189 -2.59680820  1100457326
-2.58807945 0.92489034 3.55943251  1064096844
2.00855517 18.95762444 -2.55009580  1100457030
-2.53569365 0.92635322 -0.42707649  1064117384
-0.73077321 18.95338058 -2.53721571  1100455081
-2.53885627 0.92626482 -1.33929992  1064115046
-1.64446437 18.94856453 -2.54421544  1100449950
-2.56278396 0.92559642 -3.49755335  1064098716
14.83254242 11.24558735 -2.64753628  1094414173
-2.64753628 0.92755431 14.08244228  1064137779
13.88576889 12.39568806 -2.64753628  1095812335
-2.64753628 0.92755431 13.06399727  1064137779
12.85005856 13.46638775 -2.64753628  1096675099
-2.64753628 0.92755431 11.49918556  1064137779
11.26338196 14.81903267 -2.64753628  1098393303
-2.64753628 0.92755431 9.53539181  1064137779
8.75687218 16.42512321 -2.64753628  1099273110
-2.64753628 0.92755431 7.95815277  1064137779
7.68774748 16.95187569 -2.64753628  1099531190
-2.64753628 0.92755431 6.58710480  1064137779
6.30754328 17.51235008 -2.64753628  1099752322
-2.64753628 0.92755431 5.45945358  1064137779
4.88694954 17.96065903 -2.64753628  1100080268
-2.64753628 0.92755431 3.43504333  1064137779
2.84759641 18.39453125 -2.64753628  1100185736
-2.64753628 0.92755431 2.25722480  1064137779
1.36752391 18.56333351 -2.64753628  1100261805
-2.64753628 0.92755431 0.47465041  1064137779
0.17668773 18.61279678 -2.64753628  1100277742
-2.64753628 0.92755431 -0.41926834  1064137779
-0.71714127 18.59981728 -2.64753628  1100253666
-2.64753628 0.92755431 -1.60932875  1064137779
-1.90600872 18.51579475 -2.64753628  1100209405
-2.64753628 0.92755431 -2.79281545  1064137779
-3.08708787 18.35585594 -2.64753628  1100115649
-2.64753628 0.92755431 -3.67317080  1064137779
-4.25549746 18.12065887 -2.64753628  1099943185
-2.64753628 0.92755431 14.80091000  1064202484
14.16522408 10.38674736 -2.64753628  1093949979
-2.64753628 0.93141097 13.28926849  1064202483
13.10367203 11.69751930 -2.64753628  1094614580
-2.64753628 0.93141097 12.72245502  1064202484
12.52693558 12.31316376 -2.64753628  1095250372
-2.64753628 0.93141097 12.12629890  1064202483
11.92129612 12.90041637 -2.64753628  1096242081
-2.64753628 0.93141103 10.17582989  1064202484
9.94530773 14.47856903 -2.64753628  1097948585
-2.64753628 0.93141097 8.26365185  1064202483
7.50992680 15.87888908 -2.64753628  1099079069
-2.64753628 0.93141103 5.95227909  1064202483
5.68694019 16.61917114 -2.64753628  1099365377
-2.64753628 0.93141097 4.61169863  1064202483
2.96476865 17.31324005 -2.64753628  1099619888
-2.64753628 0.93141097 2.13008857  1064202484
1.85067606 17.46748734 -2.64753628  1099691396
-2.64753628 0.93141097 0.16675444  1064202484
-0.11446664 17.56487846 -2.64753628  1099721452
-2.64753628 0.93141103 -1.23834527  1064202483
-1.51870406 17.49947357 -2.64753628  1099644995
-2.64753628 0.93141097 -2.63551927  1064202484
-2.91321158 17.32198906 -2.64753628  1099575133
-2.64753628 0.93141103 -3.46628690  1064202484
-4.01581335 17.10004044 -2.64753628  1099449528
-2.64753628 0.93141103 13.20340061  1064321500
13.86471272 9.17651558 -2.64753628  1092213214
-2.64753628 0.93487388 13.24902058  1064260581
13.08650589 10.25583076 -2.64753628  1093102759
-2.64753628 0.93487388 12.75145340  1064260581
11.66928673 11.84341240 -2.64753628  1094934521
-2.64753628 0.93487388 10.68484306  1064260581
10.27153015 13.07418633 -2.64753628  1096341015
-2.64753628 0.93487388 9.19315147  1064260580
8.97018147 13.99908924 -2.64753628  1097381414
-2.64753628 0.93487388 7.34826040  1064260581
7.10854101 15.03021336 -2.64753628  1098121314
-2.64753628 0.93487388 6.37869740  1064260581
5.63414955 15.64273071 -2.64753628  1098713757
-2.64753628 0.93487388 4.62150669  1064260581
4.36521912 16.04317665 -2.64753628  1098965847
-2.64753628 0.93487388 3.84935045  1064260581
3.58991075 16.23426056 -2.64753628  1099059511
-2.64753628 0.93487388 3.06831670  1064260581
2.28020692 16.46934319 -2.64753628  1099171754
-2.64753628 0.93487382 1.22153747  1064260579
0.95591056 16.59894562 -2.64753628  1099233251
-2.64753628 0.93487388 -0.37451330  1064260581
-0.64057910 16.61409950 -2.64753628  1099223119
-2.64753628 0.93487388 -1.96709716  1064260581
-2.49465895 16.43823051 -2.64753628  1099064669
-2.64753628 0.93487388 -3.54155612  1064260581
-4.05983067 16.12316704 -2.64753628  1090528271
-2.49513626 0.94146234 12.40200901  1064371117
12.26898861 8.40590668 -2.49513626  1092337468
-2.64753628 0.93800002 12.10287571  1064313029
11.93919563 10.31932640 -2.64753628  1093346295
-2.64753628 0.93800002 11.42996407  1064313029
11.07575035 11.24102402 -2.64753628  1094101908
-2.64753628 0.93799996 10.71019554  1064313029
10.52327347 11.75982666 -2.64753628  1094808461
-2.64753628 0.93800002 9.94650650  1064313029
9.54917431 12.56368160 -2.64753628  1095769962
-2.64753628 0.93800002 8.72555828  1064313029
8.30011272 13.42165947 -2.64753628  1096475489
-2.64753628 0.93800002 6.97450352  1064313029
6.51772547 14.37191868 -2.64753628  1097307955
-2.64753628 0.93800008 6.05425501  1064313029
5.82016945 14.66828060 -2.64753628  1097698731
-2.64753628 0.93800008 5.10919189  1064313029
4.38643885 15.15889168 -2.64753628  1098097281
-2.64753628 0.93800002 3.89887619  1064313029
3.65356064 15.35201359 -2.64753628  1098440367
-2.64753628 0.93800002 1.41121125  1064313029
1.15939331 15.73811722 -2.64753628  1098650401
-2.64753628 0.93800002 0.65494293  1064313029
0.14981388 15.78006077 -2.64753628  1098677423
-2.64753628 0.93800002 -0.60799825  1064313029
-0.86038125 15.75730324 -2.64753628  1098590791
-2.64753628 0.93800002 -2.36777186  1064313030
-2.61725402 15.56222153 -2.64753628  1098239517
-2.64753628 0.93800002 11.80013847  1064416122
11.67359066 7.99796915 -2.49513626  1090711804
-2.49513626 0.94414485 11.96486187  1064360612
11.81809902 9.26178646 -2.64753628  1092039270
-2.64753628 0.94083619 10.53824329  1064360612
10.01257992 11.18911934 -2.64753628  1094353636
-2.64753628 0.94083619 9.27596474  1064360612
8.89321041 12.09789181 -2.64753628  1094963655
-2.64753628 0.94083619 8.50133419  1064360612
8.10074711 12.64223385 -2.64753628  1095521066
-2.64753628 0.94083619 7.48441696  1064360612
7.27505922 13.13475037 -2.64753628  1096253595
-2.64753628 0.94083619 6.41954803  1064360612
6.20141649 13.67444897 -2.64753628  1096571399
-2.64753628 0.94083619 5.08805990  1064360612
4.40394354 14.35456181 -2.64753628  1097386638
-2.64753628 0.94083619 3.47625208  1064360612
3.00681782 14.71077442 -2.64753628  1097648827
-2.64753628 0.94083625 2.29704857  1064360612
1.34272087 14.95476055 -2.64753628  1097848686
-2.64753628 0.94083619 0.62315589  1064360613
0.38290703 15.01005363 -2.64753628  1097874393
-2.64753628 0.94083619 -0.33821419  1064360612
-0.81862760 14.99259758 -2.64753628  1097791968
-2.64753628 0.94083619 -1.77641416  1064360612
-2.72697496 14.76522064 -2.64753628  1097513403
-2.64753628 0.94083619 11.25245667  1064457126
11.00825214 7.80399418 -2.49513626  1090475484
-2.49513626 0.94658887 11.12674046  1064403972
10.83253860 9.36281681 -2.64753628  1092128653
-2.64753628 0.94342065 10.52722549  1064403972
10.21113300 10.03688049 -2.64753628  1092824941
-2.64753628 0.94342065 9.54786015  1064403972
9.20136547 10.97000790 -2.64753628  1093786314
-2.64753628 0.94342065 8.84543610  1064403972
8.29466820 11.67067719 -2.64753628  1094899562
-2.64753628 0.94342065 6.53284550  1064403972
6.12159586 12.94342613 -2.64753628  1095901140
-2.64753628 0.94342065 5.28069592  1064403972
4.85190964 13.47090340 -2.64753628  1096335337
-2.64753628 0.94342065 4.41814899  1064403972
3.97985983 13.75379753 -2.64753628  1096736068
-2.64753628 0.94342065 3.09148979  1064403972
2.86726642 14.02800655 -2.64753628  1096886112
-2.64753628 0.94342065 1.96362424  1064403972
1.28040421 14.26067352 -2.64753628  1097131046
-2.64753628 0.94342065 0.36513123  1064403972
-0.09330616 14.31773186 -2.64753628  1097140174
-2.64753628 0.94342065 -0.55164224  1064403972
-0.78062898 14.29674244 -2.64753628  1097106629
-2.64753628 0.94342065 -2.14829946  1064403972
-2.82548976 14.03648186 -2.64753628  1096799431
-2.64753628 0.94342065 -3.27342343  1064403972
-3.71800041 13.82688236 -2.64753628  1089379920
-2.49513626 0.94882482 10.39781570  1064494639
10.14839458 7.95324564 -2.49513626  1090639314
-2.49513626 0.94882482 9.75483227  1064494639
10.05891609 9.27310658 -2.64753628  1092021600
-2.64753628 0.94578534 9.12311745  1064443645
8.95872498 10.33989811 -2.64753628  1093121610
-2.64753628 0.94578534 8.27861977  1064443645
8.10318947 11.02318573 -2.64753628  1094209158
-2.64753628 0.94578534 6.62878466  1064443645
6.43632984 12.07252502 -2.64753628  1094998969
-2.64753628 0.94578540 5.45031834  1064443646
5.24872351 12.63420773 -2.64753628  1095464770
-2.64753628 0.94578534 4.84154272  1064443645
4.63606739 12.87164021 -2.64753628  1095703424
-2.64753628 0.94578534 4.22160053  1064443645
4.01272106 13.07937813 -2.64753628  1096086320
-2.64753628 0.94578534 2.95396256  1064443645
2.09299183 13.52004623 -2.64753628  1096396251
-2.64753628 0.94578534 0.78657055  1064443645
0.56779808 13.66929531 -2.64753628  1096471429
-2.64753628 0.94578534 -0.30817121  1064443645
-0.52710146 13.67093468 -2.64753628  1096440395
-2.64753628 0.94578534 -1.18287539  1064443645
-1.40093243 13.60917473 -2.64753628  1096375339
-2.64753628 0.94578534 -1.83591902  1064443645
-3.12780452 13.31874943 -2.64753628  1095983996
-2.64753628 0.94578534 10.18216038  1064529084
9.59169960 7.76802397 -2.49513626  1090352507
-2.49513626 0.95087790 9.48583031  1064480079
9.34004974 9.18066311 -2.64753628  1092065675
-2.64753628 0.94795698 8.73336220  1064480079
8.41642475 10.03418732 -2.64753628  1092791982
-2.64753628 0.94795698 8.09085941  1064480079
7.92494774 10.42671394 -2.64753628  1093195269
-2.64753628 0.94795698 7.41520023  1064480079
6.70912933 11.24760818 -2.64753628  1094143589
-2.64753628 0.94795710 6.16135788  1064480080
5.97554731 11.65392303 -2.64753628  1094726409
-2.64753628 0.94795698 4.83021212  1064480079
4.63470507 12.24910641 -2.64753628  1095193072
-2.64753628 0.94795698 3.43847275  1064480079
3.23571467 12.69059658 -2.64753628  1095490103
-2.64753628 0.94795698 2.82776690  1064480079
2.00357437 12.94244099 -2.64753628  1095733461
-2.64753628 0.94795698 1.37986052  1064480079
1.17117703 13.04413700 -2.64753628  1095826105
-2.64753628 0.94795704 0.75297111  1064480079
0.54354119 13.08532047 -2.64753628  1095858752
-2.64753628 0.94795698 0.12433407  1064480079
-0.08534425 13.09632778 -2.64753628  1095859732
-2.64753628 0.94795704 -0.50458360  1064480080
-0.92330939 13.06401825 -2.64753628  1095766768
-2.64753628 0.94795698 -1.75748301  1064480079
-1.96503294 12.94834900 -2.64753628  1095673033
-2.64753628 0.94795698 -2.37857223  1064480079
-2.78967428 12.79604626 -2.64753628  1095499509
-2.64753628 0.94795698 -3.19791722  1064480079
9.97280025 6.37338495 -2.49513626  1087440903
-2.49513626 0.95276952 9.76364326  1064560820
9.65529823 6.84485435 -2.49513626  1089052148
-2.49513626 0.95276952 9.19745445  1064560820
9.07702351 7.59503031 -2.49513626  1090542203
-2.49513626 0.95276952 8.57234573  1064560820
8.44060612 8.29656696 -2.49513626  1090970600
-2.49513626 0.95276952 8.66971207  1064513653
8.37439346 9.35843945 -2.64753628  1092082796
-2.64753628 0.94995815 8.07048035  1064513653
7.75830078 9.87520409 -2.64753628  1092614244
-2.64753628 0.94995815 7.43816900  1064513653
7.27522421 10.23630619 -2.64753628  1093217863
-2.64753628 0.94995815 6.43336344  1064513653
6.08476925 10.98573685 -2.64753628  1093750486
-2.64753628 0.94995815 5.55029106  1064513653
5.36922550 11.35263252 -2.64753628  1094123140
-2.64753628 0.94995815 4.63167667  1064513653
4.44420385 11.74563313 -2.64753628  1094519650
-2.64753628 0.94995815 4.06588459  1064513653
3.68340230 12.00597382 -2.64753628  1094779829
-2.64753628 0.94995815 3.29713941  1064513653
2.90749383 12.21709061 -2.64753628  1094988148
-2.64753628 0.94995815 2.11966491  1064513653
1.12303805 12.50798416 -2.64753628  1095276981
-2.64753628 0.94995815 0.32025930  1064513653
-0.08183634 12.55803299 -2.64753628  1095279181
-2.64753628 0.94995815 -2.08280444  1064513653
-2.28080964 12.34944439 -2.64753628  1095039814
-2.64753628 0.94995815 -2.87110782  1064513653
-3.06647086 12.17815876 -2.64753628  1087214775
-2.49513626 0.95451802 9.05760098  1064590155
8.71744156 7.29415560 -2.49513626  1089329507
-2.49513626 0.95451802 8.35716724  1064590155
8.23275661 7.83710480 -2.49513626  1090753233
-2.49513626 0.95451802 7.71433449  1064590154
7.89772463 9.11531925 -2.64753628  1092198936
-2.64753628 0.95180804 7.14350462  1064544689
6.98701954 9.83080292 -2.64753628  1092886516
-2.64753628 0.95180804 6.17850876  1064544689
6.01188850 10.45563602 -2.64753628  1093193481
-2.64753628 0.95180804 4.80482244  1064544689
4.44819593 11.21055794 -2.64753628  1094028850
-2.64753628 0.95180804 3.90481830  1064544689
3.35243511 11.58552074 -2.64753628  1094385045
-2.64753628 0.95180804 2.60412169  1064544689
2.22575355 11.85364628 -2.64753628  1094628239
-2.64753628 0.95180804 1.46258104  1064544689
1.27072871 11.99368095 -2.64753628  1094742921
-2.64753628 0.95180804 0.69341671  1064544689
0.50055528 12.05041027 -2.64753628  1094772999
-2.64753628 0.95180804 0.11449926  1064544689
-0.07859584 12.06054306 -2.64753628  1094767716
-2.64753628 0.95180804 -0.65756339  1064544689
-0.85028249 12.03079224 -2.64753628  1094710630
-2.64753628 0.95180804 -1.61848307  1064544689
-2.19045544 11.86022949 -2.64753628  1094528418
-2.64753628 0.95180804 -2.56904316  1064544689
-2.94499207 11.69572258 -2.64753628  1094343283
-2.64753628 0.95180804 9.21150112  1064617347
9.11607170 6.03357363 -2.49513626  1087298430
-2.49513626 0.95613879 8.71125221  1064617347
8.60439968 6.74322367 -2.49513626  1089009222
-2.49513626 0.95613885 7.91794968  1064617347
7.79626608 7.66322374 -2.49513626  1090072480
-2.49513626 0.95613879 7.54692316  1064617347
7.41934252 8.02870655 -2.49513626  1091573338
-2.64753628 0.95352298 7.16604710  1064573462
6.71984243 9.45488358 -2.64753628  1092265108
-2.64753628 0.95352304 5.29252291  1064573462
4.95934916 10.48599434 -2.64753628  1093286640
-2.64753628 0.95352304 4.45016766  1064573462
4.10494137 10.84899712 -2.64753628  1093573881
-2.64753628 0.95352304 3.57931662  1064573462
3.22424340 11.14251041 -2.64753628  1093866830
-2.64753628 0.95352304 2.68553948  1064573462
2.32288551 11.36465073 -2.64753628  1094084599
-2.64753628 0.95352304 1.59081161  1064573462
1.40665388 11.51400948 -2.64753628  1094244781
-2.64753628 0.95352304 0.66690159  1064573462
-0.07558909 11.59937000 -2.64753628  1094290432
-2.64753628 0.95352304 -0.63241917  1064573462
-0.81776971 11.57075405 -2.64753628  1094247970
-2.64753628 0.95352304 -1.37236893  1064573462
-1.74048519 11.46830654 -2.64753628  1094125071
-2.64753628 0.95352304 -2.28904271  1064573462
-2.47080660 11.33341885 -2.64753628  1093971374
-2.64753628 0.95352304 8.58856678  1064642622
8.48999023 6.22534370 -2.49513626  1087080685
-2.49513626 0.95764530 8.28633499  1064642622
7.85374308 7.01096010 -2.49513626  1088706679
-2.49513626 0.95764530 7.50807524  1064642622
7.38895559 7.49920940 -2.49513626  1089714869
-2.49513626 0.95764530 7.14508295  1064642622
7.02038193 7.84532213 -2.49513626  1090428261
-2.49513626 0.95764530 6.76560974  1064642622
6.63560390 8.17334557 -2.49513626  1090919174
-2.49513626 0.95764530 6.47144508  1064600208
6.32484293 9.20782471 -2.64753628  1092092823
-2.64753628 0.95511723 4.93708706  1064600208
4.77602768 10.09837532 -2.64753628  1092947586
-2.64753628 0.95511723 3.78542590  1064600208
3.10505915 10.73062229 -2.64753628  1093567606
-2.64753628 0.95511723 2.06151748  1064600208
1.88548088 11.01056576 -2.64753628  1093706021
-2.64753628 0.95511723 1.35465837  1064600208
0.99895996 11.12608337 -2.64753628  1093812249
-2.64753628 0.95511723 0.28487009  1064600209
0.10604952 11.17033386 -2.64753628  1093843658
-2.64753628 0.95511723 -0.25162396  1064600208
-0.43038711 11.16254330 -2.64753628  1093826483
-2.64753628 0.95511723 -1.49905896  1064600208
-1.67608976 11.04438114 -2.64753628  1093613568
-2.64753628 0.95511723 -2.37947249  1064600208
-2.72768497 10.83269978 -2.64753628  1093442093
-2.64753628 0.95511729 8.46494770  1064666174
8.37416649 5.73742151 -2.49513626  1086330144
-2.49513626 0.95904911 8.08904266  1064666174
7.98982286 6.26158190 -2.49513626  1087403032
-2.49513626 0.95904911 7.67996931  1064666174
7.57271099 6.76008368 -2.49513626  1088171186
-2.49513626 0.95904911 7.23941088  1064666174
7.00787926 7.34399700 -2.49513626  1089605920
-2.49513626 0.95904911 6.64719296  1064666174
6.52351379 7.77743340 -2.49513626  1090269218
-2.49513626 0.95904911 6.27117062  1064666174
6.01240110 8.17897797 -2.49513626  1090904154
-2.49513626 0.95904911 5.61277628  1064666174
5.81115103 9.06902981 -2.64753628  1091921596
-2.64753628 0.95660293 5.21883583  1064625134
5.06731319 9.50468826 -2.64753628  1092180611
-2.64753628 0.95660293 4.44864750  1064625134
4.29102945 9.87946510 -2.64753628  1092628544
-2.64753628 0.95660293 3.64996934  1064625134
3.32366204 10.24548912 -2.64753628  1092928027
-2.64753628 0.95660293 2.99394941  1064625134
2.82791853 10.39325047 -2.64753628  1093074621
-2.64753628 0.95660293 2.49372244  1064625134
2.32565141 10.51703835 -2.64753628  1093230767
-2.64753628 0.95660293 1.13484454  1064625134
0.79134047 10.74200058 -2.64753628  1093415027
-2.64753628 0.95660293 -0.07019139  1064625134
-0.41498625 10.76311302 -2.64753628  1093396656
-2.64753628 0.95660293 -1.27434790  1064625134
-2.63007879 10.44506836 -2.64753628  1093037325
-2.64753628 0.95660293 8.17135334  1064688171
7.71270752 6.04440928 -2.49513626  1086675198
-2.49513626 0.96036029 7.51523924  1064688171
7.41360044 6.40774965 -2.49513626  1087427041
-2.49513626 0.96036029 7.20464993  1064688172
7.09739542 6.75630760 -2.49513626  1088147301
-2.49513626 0.96036029 6.76482153  1064688172
6.65046024 7.19667387 -2.49513626  1089055696
-2.49513626 0.96036029 6.29725313  1064688172
6.05366087 7.70544577 -2.49513626  1090691904
-2.49513626 0.96036023 5.28669500  1064688172
5.01983881 8.41557884 -2.49513626  1091582005
-2.64753628 0.95799065 5.03782797  1064648417
4.89156342 9.17503071 -2.64753628  1091832033
-2.64753628 0.95799071 4.59531355  1064648416
4.44540167 9.39930725 -2.64753628  1092130503
-2.64753628 0.95799071 3.98898602  1064648416
3.83475494 9.66453648 -2.64753628  1092387971
-2.64753628 0.95799071 3.36631227  1064648417
3.20838523 9.89013863 -2.64753628  1092603385
-2.64753628 0.95799071 2.72983599  1064648417
2.56886506 10.07519341 -2.64753628  1092736809
-2.64753628 0.95799071 1.75495553  1064648417
1.26087868 10.32079315 -2.64753628  1092989349
-2.64753628 0.95799071 0.59778798  1064648416
0.43152258 10.38856792 -2.64753628  1093032540
-2.64753628 0.95799071 -0.23420697  1064648416
-0.73302460 10.37165833 -2.64753628  1092992205
-2.64753628 0.95799065 -1.23014748  1064648417
-1.39528453 10.30348492 -2.64753628  1092909611
-2.64753628 0.95799065 -1.72444165  1064648416
-1.88837564 10.22460842 -2.64753628  1092818638
-2.64753628 0.95799065 -2.21475101  1064648417
-2.37710881 10.12215233 -2.64753628  1092659037
-2.64753628 0.95799065 7.89632082  1064708762
7.81163740 5.35201454 -2.49513626  1085226646
-2.49513626 0.96158755 7.63629007  1064708762
7.26228905 6.07658672 -2.49513626  1087201904
-2.49513626 0.96158755 6.64596748  1064708762
6.31445503 7.05644512 -2.49513626  1088956641
-2.49513626 0.96158755 5.96836853  1064708762
5.84990835 7.44609642 -2.49513626  1089742178
-2.49513626 0.96158755 5.36138821  1064708762
5.23574257 7.89004278 -2.49513626  1090462112
-2.49513626 0.96158755 4.72006321  1064708762
4.45482826 8.35585022 -2.49513626  1090965839
-2.49513626 0.96158755 4.44064522  1064670211
4.29577971 9.08294487 -2.64753628  1091725484
-2.64753628 0.95928973 3.40478730  1064670211
2.63795519 9.69509220 -2.64753628  1092417556
-2.64753628 0.95928973 2.01207948  1064670211
1.69588876 9.90341187 -2.64753628  1092566519
-2.64753628 0.95928973 0.73818284  1064670211
0.57766831 10.03094864 -2.64753628  1092665595
-2.64753628 0.95928973 -0.22632369  1064670211
-0.38711020 10.04011250 -2.64753628  1092650401
-2.64753628 0.95928973 -0.70835060  1064670211
-0.86871976 10.00994396 -2.64753628  1092570777
-2.64753628 0.95928973 -1.50755227  1064670211
-1.82481658 9.88046932 -2.64753628  1092458894
-2.64753628 0.95928973 -2.14020753  1064670211
-2.60907769 9.70290279 -2.64753628  1084085888
-2.49513626 0.96273869 7.47234154  1064728075
7.38657713 5.41626072 -2.49513626  1085347088
-2.49513626 0.96273869 7.02480841  1064728075
6.63423347 6.31540632 -2.49513626  1087207233
-2.49513626 0.96273869 6.32336092  1064728075
6.21646309 6.72703600 -2.49513626  1088459110
-2.49513626 0.96273869 5.77320051  1064728075
5.65861273 7.20260382 -2.49513626  1089218953
-2.49513626 0.96273869 5.30627441  1064728075
5.18606663 7.54997492 -2.49513626  1089915343
-2.49513626 0.96273869 4.56571388  1064728075
4.43800354 8.01258564 -2.49513626  1090605664
-2.49513626 0.96273869 4.17919970  1064728075
3.91611385 8.28018379 -2.49513626  1090877462
-2.49513626 0.96273869 3.58450603  1064690655
3.14663315 9.19552994 -2.64753628  1091919942
-2.64753628 0.96050829 2.55169249  1064690655
2.40122557 9.41770554 -2.64753628  1092081161
-2.64753628 0.96050829 1.79358745  1064690655
1.48685503 9.60460091 -2.64753628  1092246338
-2.64753628 0.96050829 1.02399707  1064690656
0.40336335 9.71063042 -2.64753628  1092318236
-2.64753628 0.96050829 0.09226847  1064690656
-0.06333467 9.71880150 -2.64753628  1092318963
-2.64753628 0.96050829 -0.52988827  1064690655
-0.68518734 9.69482422 -2.64753628  1092283387
-2.64753628 0.96050829 -1.14987183  1064690655
-1.30423236 9.63110161 -2.64753628  1092206182
-2.64753628 0.96050829 -1.61190581  1064690655
-2.07022238 9.49596024 -2.64753628  1092051638
-2.64753628 0.96050829 7.39518785  1064746223
7.23469210 5.12883234 -2.49513626  1084977997
-2.49513626 0.96382046 6.89163017  1064746224
6.80139160 5.69094229 -2.49513626  1085903415
-2.49513626 0.96382046 6.52030849  1064746223
6.22418547 6.31705999 -2.49513626  1087196932
-2.49513626 0.96382046 5.91371059  1064746224
5.69910145 6.79455423 -2.49513626  1088726720
-2.49513626 0.96382046 5.02113008  1064746224
4.90345764 7.38930416 -2.49513626  1089714176
-2.49513626 0.96382046 4.42050648  1064746224
4.29685736 7.75775385 -2.49513626  1090424903
-2.49513626 0.96382046 3.79156852  1064746224
3.66273427 8.07651520 -2.49513626  1090659675
-2.49513626 0.96382046 2.73649144  1064746224
2.75996494 8.99604797 -2.64753628  1091651289
-2.64753628 0.96165353 2.03174639  1064709869
1.88438368 9.21929455 -2.64753628  1091827958
-2.64753628 0.96165353 1.43956721  1064709869
1.29050577 9.32099247 -2.64753628  1091942514
-2.64753628 0.96165353 0.84149021  1064709869
0.39053404 9.40179729 -2.64753628  1091997221
-2.64753628 0.96165353 -0.21195924  1064709869
-0.36254233 9.40292168 -2.64753628  1091982756
-2.64753628 0.96165353 -0.81358343  1064709869
-1.11330032 9.34381485 -2.64753628  1091908187
-2.64753628 0.96165353 -1.41187775  1064709869
-1.70900393 9.25341034 -2.64753628  1091803408
-2.64753628 0.96165353 -2.15131521  1064709869
-2.44349360 9.08711243 -2.64753628  1084164718
-2.49513626 0.96483886 6.76397324  1064763310
6.67823792 5.40850019 -2.49513626  1085307036
-2.49513626 0.96483886 6.50165796  1064763310
6.31841183 5.82481575 -2.49513626  1086977821
-2.49513626 0.96483886 5.73059988  1064763310
5.52263403 6.58416986 -2.49513626  1087913548
-2.49513626 0.96483886 5.08994150  1064763310
4.97843790 7.00470686 -2.49513626  1089069815
-2.49513626 0.96483886 4.40235329  1064763310
4.16380835 7.51754379 -2.49513626  1089908329
-2.49513626 0.96483886 3.42356443  1064763310
1.99000072 8.36185265 -2.49564219  1090931436
-2.49583602 0.96482915 1.72136807  1064763160
1.58638811 8.44874477 -2.49593449  1091601568
-2.64753628 0.96273178 0.96073169  1064727959
0.66992742 9.09389496 -2.64753628  1091691479
-2.64753628 0.96273178 -0.05941967  1064727959
-0.20539729 9.11622143 -2.64753628  1091684812
-2.64753628 0.96273178 -0.49715078  1064727959
-0.78839570 9.08439064 -2.64753628  1091624759
-2.64753628 0.96273178 -1.22364902  1064727959
-1.36815929 9.01531124 -2.64753628  1091559492
-2.64753628 0.96273178 -1.69585013  1064763310
-1.96470022 8.36604500 -2.49513626  1090868760
-2.49513626 0.96483886 6.87542820  1064779423
6.72109604 4.92828894 -2.49513626  1084301529
-2.49513626 0.96579927 6.39191866  1064779423
6.21741152 5.55022287 -2.49513626  1085792958
-2.49513626 0.96579927 5.94376135  1064779423
5.84946156 5.93674660 -2.49513626  1086578432
-2.49513626 0.96579927 5.55768156  1064779423
5.45753670 6.29892588 -2.49513626  1087133176
-2.49513626 0.96579927 5.25307369  1064779423
5.14880991 6.55369425 -2.49513626  1087657028
-2.49513626 0.96579927 4.82821512  1064779423
4.71883821 6.86976957 -2.49513626  1088305362
-2.49513626 0.96579927 4.49648237  1064779423
4.26951361 7.15768290 -2.49513626  1089031541
-2.49513626 0.96579927 3.92092633  1064779423
3.80268168 7.41625118 -2.49513626  1089659783
-2.49513626 0.96579927 3.32026029  1064779423
3.19745111 7.69658852 -2.49513626  1090367266
-2.49513626 0.96579927 2.44449329  1064779423
2.18815374 8.04196167 -2.49513626  1090598693
-2.49513626 0.96579927 1.92956197  1064779423
1.79951453 8.13774586 -2.49513626  1090692594
-2.49513626 0.96579927 1.53805447  1064779423
1.40671921 8.21476078 -2.49513626  1090766745
-2.49513626 0.96579927 1.14299905  1064779423
1.01068199 8.27282906 -2.49513626  1090820976
-2.49513626 0.96579927 0.61292708  1064778858
0.21265706 8.33805370 -2.49706197  1090873546
-2.49631071 0.96578342 -0.32121748  1064779223
-0.45456159 8.32499027 -2.49605060  1090851571
-2.49619460 0.96578497 -0.72110409  1064779022
-0.85342681 8.29052544 -2.49513626  1090808237
-2.49513626 0.96579927 -1.51366222  1064779423
-1.64467859 8.17044735 -2.49513626  1090638160
-2.49513626 0.96579927 6.67306757  1064794642
6.59901762 4.67819071 -2.49513626  1083990729
-2.49513626 0.96670640 6.28609896  1064794642
5.94740057 5.48278475 -2.49513626  1085438260
-2.49513626 0.96670640 5.76882410  1064794642
5.48992062 5.94081545 -2.49513626  1086562829
-2.49513626 0.96670640 5.09846163  1064794642
4.68610907 6.59339714 -2.49513626  1088025077
-2.49513626 0.96670640 4.25454044  1064794642
4.03210115 7.01246452 -2.49513626  1088581523
-2.49513626 0.96670640 3.80552459  1064794642
3.57504845 7.25613832 -2.49513626  1089509856
-2.49513626 0.96670640 2.86259627  1064794642
2.61891270 7.65335178 -2.49513626  1090037254
-2.49513626 0.96670640 1.87277138  1064794642
1.74655223 7.89823103 -2.49513626  1090362133
-2.49513626 0.96670640 1.49278641  1064794642
1.36531627 7.97298145 -2.49513626  1090549802
-2.49513626 0.96670640 0.85226196  1064794642
0.59429175 8.06717587 -2.49513626  1090598371
-2.49513626 0.96670640 0.33571547  1064794642
-0.18220703 8.08698177 -2.49513626  1090606102
-2.49513626 0.96670640 -0.57027471  1064794642
-0.69938266 8.05874348 -2.49513626  1090513725
-2.49513626 0.96670640 -1.34157228  1064794642
-1.59627044 7.92996883 -2.49513626  1090256475
-2.49513626 0.96670640 6.40940189  1064809038
6.26064873 4.74663305 -2.49513626  1083905161
-2.49513626 0.96756452 6.02552891  1064809039
5.94403791 5.13757420 -2.49513626  1084909668
-2.49513626 0.96756446 5.69051361  1064809039
5.51416874 5.59644651 -2.49513626  1085662053
-2.49513626 0.96756452 5.14470673  1064809038
4.95196247 6.09953499 -2.49513626  1086859397
-2.49513626 0.96756452 4.65339851  1064809039
4.44835043 6.47599030 -2.49513626  1087470571
-2.49513626 0.96756452 4.23873949  1064809039
4.13229084 6.68209743 -2.49513626  1087892147
-2.49513626 0.96756446 3.69617605  1064809039
3.58470964 6.99114418 -2.49513626  1088636482
-2.49513626 0.96756452 3.24490929  1064809039
3.12994051 7.20622826 -2.49513626  1088957531
-2.49513626 0.96756452 2.89762688  1064809039
2.78034258 7.34819365 -2.49513626  1089243480
-2.49513626 0.96756452 2.54366016  1064809039
2.30437517 7.51106358 -2.49513626  1089569021
-2.49513626 0.96756452 1.69636476  1064809039
1.57332790 7.69745731 -2.49513626  1089935320
-2.49513626 0.96756452 0.70258468  1064809039
0.45170143 7.84361124 -2.49513626  1090206087
-2.49513626 0.96756452 -0.67928672  1064809039
-0.80450982 7.81530762 -2.49513626  1090069292
-2.49513626 0.96756452 -1.17881513  1064809039
-1.55040252 7.70210981 -2.49513626  1089781938
-2.49513626 0.96756452 6.36764860  1064822677
6.22945642 4.41620064 -2.49513626  1083211233
-2.49513626 0.96837741 6.08487892  1064822677
5.77715921 4.99333525 -2.49513626  1084406235
-2.49513626 0.96837741 5.61433077  1064822677
5.53075266 5.26495552 -2.49513626  1084967510
-2.49513626 0.96837741 5.27158785  1064822677
5.00026655 5.77116060 -2.49513626  1086011161
-2.49513626 0.96837741 4.52275324  1064822677
4.11973572 6.42936611 -2.49513626  1087361774
-2.49513626 0.96837741 3.91178465  1064822677
3.80629134 6.61975288 -2.49513626  1087750466
-2.49513626 0.96837741 3.59240508  1064822677
3.48406720 6.79486847 -2.49513626  1088106848
-2.49513626 0.96837741 3.26474047  1064822677
2.92954516 7.05171967 -2.49513626  1088626808
-2.49513626 0.96837741 2.70228386  1064822677
2.47224736 7.22474480 -2.49513626  1089051433
-2.49513626 0.96837741 1.88659453  1064822677
1.76789069 7.42856121 -2.49513626  1089378002
-2.49513626 0.96837741 1.52915585  1064822677
1.40918636 7.50487471 -2.49513626  1089525985
-2.49513626 0.96837741 0.92600036  1064822677
0.56100887 7.61539221 -2.49513626  1089729254
-2.49513626 0.96837741 0.19473009  1064822677
0.07249223 7.63568544 -2.49513626  1089755402
-2.49513626 0.96837741 -0.17200349  1064822677
-0.29419941 7.63035870 -2.49513626  1089731919
-2.49513626 0.96837741 -0.53833944  1064822677
-0.78192329 7.59589100 -2.49513626  1089533961
-2.49513626 0.96837741 -1.38683748  1064822677
-1.50687623 7.48587275 -2.49513626  1089271001
-2.49513626 0.96837741 -1.98286796  1064822677
6.19283867 4.09879923 -2.49513626  1082544447
-2.49513626 0.96914852 5.91782951  1064835614
5.77115393 4.67388248 -2.49513626  1083736171
-2.49513626 0.96914852 5.61855841  1064835614
5.54009008 4.94558191 -2.49513626  1084480111
-2.49513626 0.96914852 5.29625177  1064835614
5.21222448 5.29000187 -2.49513626  1085009331
-2.49513626 0.96914852 4.86299610  1064835614
4.68080521 5.76554108 -2.49513626  1086436475
-2.49513626 0.96914852 4.10622978  1064835614
4.00663519 6.25285864 -2.49513626  1086987865
-2.49513626 0.96914852 3.80439591  1064835614
3.70179892 6.43801880 -2.49513626  1087365881
-2.49513626 0.96914852 3.49378228  1064835614
3.17511559 6.71342278 -2.49513626  1088308277
-2.49513626 0.96914852 2.51655889  1064835614
2.29157853 7.06399584 -2.49513626  1088702365
-2.49513626 0.96914852 1.94977713  1064835614
1.71935630 7.22462225 -2.49513626  1088948745
-2.49513626 0.96914852 1.25347018  1064835614
0.66411209 7.39664221 -2.49513626  1089302689
-2.49513626 0.96914852 0.18938425  1064835614
0.07050203 7.42606354 -2.49513626  1089312160
-2.49513626 0.96914852 -0.28612259  1064835614
-0.40489393 7.41535378 -2.49513626  1089277355
-2.49513626 0.96914852 -0.87862897  1064835614
-0.99657691 7.35922480 -2.49513626  1089139801
-2.49513626 0.96914852 -1.23167384  1064835614
-1.34876418 7.30288982 -2.49513626  1089009852
-2.49513626 0.96914852 -1.69784164  1064835614
-1.92843091 7.17164660 -2.49513626  1081676151
-2.49513626 0.96988094 5.96183586  1064847902
5.89567852 4.17957830 -2.49513626  1082703852
-2.49513626 0.96988094 5.75884867  1064847902
5.68820906 4.45782042 -2.49513626  1084014546
-2.49513626 0.96988094 5.23441267  1064847902
5.15396833 5.06601477 -2.49513626  1084537718
-2.49513626 0.96988094 4.64429760  1064847902
4.55505657 5.61064672 -2.49513626  1085659632
-2.49513626 0.96988094 3.80108094  1064847902
3.70218945 6.20658493 -2.49513626  1087228179
-2.49513626 0.96988094 2.87907290  1064847902
2.66537714 6.71741438 -2.49513626  1087916943
-2.49513626 0.96988094 2.44895172  1064847902
2.33978367 6.83763790 -2.49513626  1088158112
-2.49513626 0.96988094 2.11967683  1064847902
1.56039882 7.05641890 -2.49513626  1088680258
-2.49513626 0.96988094 1.10559964  1064847902
0.99111980 7.15860081 -2.49513626  1088785853
-2.49513626 0.96988094 0.29993504  1064847902
0.06860941 7.22656155 -2.49513626  1088893858
-2.49513626 0.96988094 -0.27843544  1064847902
-0.50949347 7.20890474 -2.49513626  1088840949
-2.49513626 0.96988094 -0.74002498  1064847902
-0.85502404 7.17613077 -2.49513626  1088687810
-2.49513626 0.96988094 -1.42613757  1064847902
-1.53937995 7.06103373 -2.49513626  1088496303
-2.49513626 0.96988094 -1.76465225  1064847902
5.92934132 3.78930783 -2.49513626  1082034776
-2.49513626 0.97057742 5.74057007  1064859587
5.67468262 4.16099834 -2.49513626  1082657478
-2.49513626 0.97057742 5.53855801  1064859587
5.46835804 4.42865515 -2.49513626  1083569293
-2.49513626 0.97057742 5.09669924  1064859587
4.85787487 5.09087276 -2.49513626  1084579888
-2.49513626 0.97057742 4.60784721  1064859587
4.52211046 5.39133120 -2.49513626  1085198647
-2.49513626 0.97057742 4.34718657  1064859587
4.07650566 5.73568201 -2.49513626  1086292879
-2.49513626 0.97057742 3.50757527  1064859587
3.31047392 6.20940304 -2.49513626  1086873369
-2.49513626 0.97057742 3.10998011  1064859587
3.00852561 6.36118555 -2.49513626  1087181504
-2.49513626 0.97057742 2.80332541  1064859587
2.69963717 6.49829960 -2.49513626  1087458639
-2.49513626 0.97057742 2.38452268  1064859587
2.17134643 6.69336891 -2.49513626  1087849935
-2.49513626 0.97057742 1.84747720  1064859587
1.73853445 6.81860638 -2.49513626  1088098018
-2.49513626 0.97057742 1.18770587  1064859587
1.07651305 6.95392323 -2.49513626  1088390059
-2.49513626 0.97057742 0.62926853  1064859587
0.51698196 7.01773787 -2.49513626  1088474562
-2.49513626 0.97057742 0.29204330  1064859587
0.17944761 7.03446770 -2.49513626  1088477022
-2.49513626 0.97057742 -0.72055596  1064859587
-0.83252913 6.98733377 -2.49513626  1088331915
-2.49513626 0.97057742 -1.27799988  1064859587
-1.49888027 6.87526608 -2.49513626  1088108129
-2.49513626 0.97057742 -1.71822762  1064859587
5.71662998 3.78361535 -2.49513626  1081982342
-2.49513626 0.97124052 5.46276951  1064870711
5.39576292 4.22863340 -2.49513626  1082789938
-2.49513626 0.97124046 4.96529675  1064870711
4.88898849 4.80555916 -2.49513626  1084455312
-2.49513626 0.97124052 4.40552092  1064870711
4.23510504 5.39068127 -2.49513626  1085846657
-2.49513626 0.97124052 3.60565639  1064870711
3.41714191 5.94295692 -2.49513626  1086428155
-2.49513626 0.97124046 3.02979636  1064870712
2.83136630 6.24331045 -2.49513626  1086928376
-2.49513626 0.97124052 2.63003206  1064870711
2.52834320 6.37205505 -2.49513626  1087416926
-2.49513626 0.97124052 1.90551519  1064870712
1.79984522 6.61484289 -2.49513626  1087727879
-2.49513626 0.97124052 1.37281775  1064870712
1.15708482 6.75697756 -2.49513626  1087949268
-2.49513626 0.97124046 0.83132780  1064870711
0.39413643 6.84399414 -2.49513626  1088117854
-2.49513626 0.97124046 -0.26412046  1064870711
-0.37375838 6.84513474 -2.49513626  1088082724
-2.49513626 0.97124052 -0.70197952  1064870711
-1.13696229 6.76039219 -2.49513626  1087879398
-2.49513626 0.97124052 -1.35281563  1064870711
5.63042450 3.59827304 -2.49513626  1080821614
-2.49513626 0.97187251 5.45116806  1064881315
5.25934172 4.12171936 -2.49513626  1082561170
-2.49513626 0.97187251 4.98477554  1064881315
4.91289473 4.52909613 -2.49513626  1083403756
-2.49513626 0.97187251 4.76537943  1064881315
4.68977499 4.75975370 -2.49513626  1084033506
-2.49513626 0.97187251 4.29413605  1064881315
4.21162271 5.18762875 -2.49513626  1084761080
-2.49513626 0.97187251 3.87099481  1064881315
3.60502958 5.62610102 -2.49513626  1085660137
-2.49513626 0.97187251 3.42305899  1064881315
3.33074546 5.79270077 -2.49513626  1086000269
-2.49513626 0.97187251 3.04877925  1064881315
2.56353712 6.17070055 -2.49513626  1086767131
-2.49513626 0.97187251 2.06188059  1064881315
1.85733867 6.41868591 -2.49513626  1087320588
-2.49513626 0.97187251 1.54701638  1064881315
1.44275248 6.52439308 -2.49513626  1087471155
-2.49513626 0.97187251 1.23312771  1064881315
0.91639298 6.61887121 -2.49513626  1087651594
-2.49513626 0.97187251 0.59754467  1064881315
0.49091849 6.66395044 -2.49513626  1087731835
-2.49513626 0.97187251 0.27731988  1064881315
-0.04354342 6.68186712 -2.49513626  1087751457
-2.49513626 0.97187251 -0.68423229  1064881315
-0.79055911 6.63507748 -2.49513626  1087628267
-2.49513626 0.97187251 -1.00257897  1064881315
-1.31861115 6.55061102 -2.49513626  1087433418
-2.49513626 0.97187251 -1.63160551  1064881315
-1.73513436 6.45279455 -2.49513626  1080437862
-2.49513626 0.97247547 5.37558508  1064891431
5.25491762 3.85320354 -2.49513626  1082677959
-2.49513626 0.97247547 4.86111021  1064891431
4.71968937 4.49286938 -2.49513626  1083321304
-2.49513626 0.97247547 4.49853039  1064891431
4.26699686 4.92484283 -2.49513626  1084351166
-2.49513626 0.97247547 4.02561808  1064891431
3.77495956 5.31140232 -2.49513626  1085128388
-2.49513626 0.97247547 3.51559234  1064891431
3.42730403 5.54210329 -2.49513626  1085696151
-2.49513626 0.97247547 3.06559324  1064891431
2.97314262 5.79842615 -2.49513626  1086000271
-2.49513626 0.97247547 2.78598022  1064891431
2.49993849 6.01760960 -2.49513626  1086443984
-2.49513626 0.97247547 2.20813465  1064891431
2.10970140 6.16526413 -2.49513626  1086868833
-2.49513626 0.97247547 1.60993314  1064891431
1.50863659 6.33918953 -2.49513626  1087085015
-2.49513626 0.97247547 1.30491221  1064891431
1.20253396 6.40431404 -2.49513626  1087211297
-2.49513626 0.97247547 0.79020560  1064891431
0.68655050 6.47996712 -2.49513626  1087352609
-2.49513626 0.97247547 0.27043942  1064891431
0.16617347 6.51411676 -2.49513626  1087406747
-2.49513626 0.97247547 -0.04246322  1064891431
-0.25105572 6.51139832 -2.49513626  1087356188
-2.49513626 0.97247547 -0.66725630  1064891431
-0.77094573 6.47046995 -2.49513626  1087252665
-2.49513626 0.97247547 -1.28589904  1064891431
-1.38800621 6.36669254 -2.49513626  1087045432
-2.49513626 0.97247547 -1.69208694  1064891431
5.35698843 3.42352653 -2.49513626  1080070405
-2.49513626 0.97305131 5.24463749  1064901092
5.12690973 3.75934124 -2.49513626  1081463282
-2.49513626 0.97305131 4.94050264  1064901092
4.87581158 4.07974482 -2.49513626  1082460279
-2.49513626 0.97305137 4.67430544  1064901092
4.53395319 4.45658207 -2.49513626  1083677310
-2.49513626 0.97305137 3.84701753  1064901092
3.76549220 5.12239504 -2.49513626  1085300030
-2.49513626 0.97305137 3.08034897  1064901093
2.99091601 5.61001587 -2.49513626  1085605790
-2.49513626 0.97305131 2.71811390  1064901092
2.53272486 5.83122349 -2.49513626  1086285639
-2.49513626 0.97305137 1.96174753  1064901092
1.86468291 6.07789612 -2.49513626  1086549070
-2.49513626 0.97305131 1.66914153  1064901092
1.47188747 6.18477106 -2.49513626  1086759984
-2.49513626 0.97305131 0.77095670  1064901092
0.66982675 6.32211828 -2.49513626  1087074194
-2.49513626 0.97305131 -0.14320363  1064901092
-0.34661645 6.34804773 -2.49513626  1087041300
-2.49513626 0.97305131 -0.54967344  1064901092
-1.05439734 6.26945734 -2.49513626  1086812295
-2.49513626 0.97305137 -1.35419619  1064901092
-1.45346773 6.18912649 -2.49513626  1086670898
-2.49513626 0.97305131 5.17461920  1064910328
5.11912394 3.50728345 -2.49513626  1080405691
-2.49513626 0.97360182 5.00421429  1064910328
4.94482756 3.74901843 -2.49513626  1082251632
-2.49513626 0.97360182 4.56244135  1064910328
4.49452066 4.27852154 -2.49513626  1082864283
-2.49513626 0.97360182 4.35523653  1064910328
4.28391266 4.48938227 -2.49513626  1083975038
-2.49513626 0.97360182 3.75495172  1064910328
3.59486294 5.05800676 -2.49513626  1085321865
-2.49513626 0.97360182 2.74253297  1064910328
2.65306544 5.60960817 -2.49513626  1085593593
-2.49513626 0.97360182 2.38067126  1064910328
2.28862381 5.76790094 -2.49513626  1086054475
-2.49513626 0.97360182 1.91479909  1064910328
1.82005596 5.93244123 -2.49513626  1086242570
-2.49513626 0.97360182 1.62919629  1064910328
1.53312755 6.01298428 -2.49513626  1086401828
-2.49513626 0.97360182 1.33983397  1064910328
1.24265635 6.07965994 -2.49513626  1086531885
-2.49513626 0.97360182 1.04737711  1064910328
0.94932240 6.13231230 -2.49513626  1086659361
-2.49513626 0.97360182 0.55491996  1064910328
0.45590118 6.18858862 -2.49513626  1086733880
-2.49513626 0.97360182 0.25753769  1064910328
-0.33832145 6.19612885 -2.49513626  1086723026
-2.49513626 0.97360182 -0.63542271  1064910328
-0.73416543 6.16177607 -2.49513626  1086637698
-2.49513626 0.97360182 -0.93106192  1064910328
-1.12700272 6.10215807 -2.49513626  1086456749
-2.49513626 0.97360182 -1.41868448  1064910328
-1.51521790 6.01752329 -2.49513626  1086308993
-2.49513626 0.97360182 5.10577631  1064919166
4.99869013 3.42477036 -2.49513626  1080381605
-2.49513626 0.97412860 4.38878298  1064919166
4.25277662 4.31623411 -2.49513626  1082935245
-2.49513626 0.97412860 3.89400387  1064919166
3.74337506 4.76478100 -2.49513626  1083858690
-2.49513626 0.97412860 3.43076968  1064919166
3.35036802 5.04886198 -2.49513626  1084549578
-2.49513626 0.97412860 2.93589687  1064919166
2.85065913 5.34693670 -2.49513626  1085049436
-2.49513626 0.97412860 2.67801118  1064919166
2.59065056 5.47763920 -2.49513626  1085314765
-2.49513626 0.97412860 2.41395354  1064919166
2.32466388 5.59570503 -2.49513626  1085553414
-2.49513626 0.97412860 2.14432526  1064919166
1.96178651 5.73300505 -2.49513626  1086055302
-2.49513626 0.97412860 1.40286255  1064919166
1.30831301 5.91644096 -2.49513626  1086191831
-2.49513626 0.97412860 1.02273464  1064919166
0.92698735 5.98804235 -2.49513626  1086329181
-2.49513626 0.97412860 0.54186386  1064919166
0.44517395 6.04299355 -2.49513626  1086428231
-2.49513626 0.97412860 0.25147712  1064919166
-0.23345430 6.05487394 -2.49513626  1086401660
