# .PCD v0.7 - Point Cloud Data file format
VERSION 0.7
FIELDS x y z intensity
SIZE 4 4 4 4
TYPE F F F F
COUNT 1 1 1 1
WIDTH 1020
HEIGHT 1
VIEWPOINT 0 0 0 1 0 0 0
POINTS 1020
DATA ascii
-2.57717705 0.66133446 65.74731445  1059818365
62.05605316 78.48219299 -2.49513626  1117711787
-2.49513626 0.67009717 59.51539993  1059818364
71.73619843 -21.97576141 -2.49513626  3248921581
-2.49513626 0.74061602 72.70726776  1061001475
72.99391174 -17.34665298 -2.49513626  3246484370
-2.49513626 0.74061602 73.74169922  1061001468
74.31971741 -10.27596092 -2.49513626  3239142013
-2.49513626 0.74061602 74.61026764  1061001473
74.72693634 -6.70116138 -2.49513626  3232771760
-2.49513626 0.74061596 74.96224213  1061001475
75.02335358 -0.71274954 -2.49513626  1056516990
-2.49513626 0.74061608 75.00780487  1061001475
74.97127533 2.88481927 -2.49513626  1087322552
-2.49513626 0.74061602 74.63368225  1061001475
78.20919800 9.30303955 -2.61931014  1093314375
-2.64753628 0.72715670 78.71099091  1060775665
78.51029968 13.18241405 -2.64753628  1098577888
-2.64753628 0.72715664 76.18421936  1060827265
72.02137756 21.82587051 -2.50275636  1103261044
-2.64753628 0.72715670 74.99317932  1060775665
74.55651855 27.90992165 -2.64753628  1107009063
-2.64753628 0.72715670 72.62060547  1060775665
70.62636566 33.08841324 -2.59378767  1108647162
-2.49513626 0.74061602 63.96059418  1061001475
63.32548141 40.23552704 -2.49513626  1109719182
-2.49513626 0.74061602 58.43611145  1061001475
56.90193176 48.89973450 -2.49513626  1112426809
-2.49513626 0.74061608 53.66075516  1061001475
52.81563950 53.28717804 -2.49513626  1113096110
-2.49513626 0.74061608 51.08516312  1061001476
50.20025635 55.75795364 -2.49513626  1114855503
-2.64753628 0.72715670 50.36867523  1060775666
49.37669373 62.44662857 -2.64753628  1115782126
-2.64753628 0.72715670 57.37712860  1061770211
57.65078354 -16.65748405 -2.49513626  3246112108
-2.49513626 0.78643632 58.59743500  1061770211
58.79679108 -12.00093365 -2.49513626  3241210774
-2.49513626 0.78643632 59.15037918  1061770212
59.44351578 -8.21905708 -2.49513626  3236466999
-2.49513626 0.78643626 59.67588806  1061770211
59.84724808 -4.40357494 -2.49513626  3227291662
-2.49513626 0.78643626 60.00633621  1061770211
60.00777054 0.38923916 -2.49513626  1086607124
-2.49513626 0.78643626 59.58894348  1061770212
62.79528809 10.54375935 -2.64753628  1096330450
-2.64753628 0.77498055 61.49679947  1061578016
61.22502136 17.49044418 -2.64753628  1100201046
-2.64753628 0.77498055 59.60279083  1061634539
57.01771545 19.28970528 -2.50275636  1102053939
-2.50275636 0.78585953 58.88882065  1061578016
58.49413300 25.15659142 -2.64753628  1104196916
-2.64753628 0.77498055 57.66002655  1061578016
57.22082520 27.93200111 -2.64753628  1106115024
-2.64753628 0.77498055 55.81588364  1061578016
55.31888199 31.53156471 -2.64753628  1107619680
-2.64354825 0.77527821 53.25601578  1061608120
50.69432068 35.73291779 -2.57884312  1108698764
-2.57987213 0.78004605 49.12218475  1061651069
48.80498886 39.30022049 -2.60541439  1109987778
-2.64753628 0.77498055 46.24682999  1061578016
45.54124832 44.50182343 -2.64753628  1110762901
-2.64753628 0.77498055 44.09531021  1061578016
42.60433578 47.32112503 -2.64753628  1111663302
-2.64753628 0.77498055 40.28663635  1061578016
38.68970871 50.57197189 -2.64753628  1111700847
-2.49513626 0.78643632 47.80208206  1062308891
48.24578476 -13.10811520 -2.49513626  3242548445
-2.49513626 0.81854403 48.81874466  1062308890
48.98482895 -9.99822617 -2.49513626  3239275527
-2.49513626 0.81854409 49.27941895  1062308891
49.62677765 -6.05489492 -2.49513626  3232258139
-2.49513626 0.81854409 49.95179749  1062308890
49.99252701 -0.47497138 -2.49513626  1066388686
-2.49513626 0.81854409 49.95781326  1062308891
49.92070389 2.72072744 -2.49513626  1089448075
-2.49513626 0.81854409 49.30459976  1062308891
51.44760513 12.93357754 -2.64753628  1098262995
-2.64753628 0.80859452 49.68145370  1062141964
48.58078003 19.07690811 -2.60480261  1100529483
-2.50538182 0.81787121 45.74514008  1062300496
46.90356827 24.78282928 -2.64753628  1103903842
-2.64753628 0.80859447 46.08732986  1062141964
45.66148376 27.00301170 -2.64753628  1105057289
-2.64753628 0.80859452 44.31438446  1062141964
43.84254456 29.86577034 -2.64753628  1106904124
-2.64753628 0.80859447 42.36032104  1062141964
41.84441757 32.60640717 -2.64753628  1107629486
-2.64753628 0.80859447 40.23307800  1062141964
38.52920532 36.46414566 -2.64753628  1108626742
-2.64753628 0.80859447 36.73672867  1062141964
34.04107666 36.61533737 -2.49513626  1108786516
-2.49513626 0.81854409 32.24649429  1062308891
41.34115601 -11.23231316 -2.49513626  3240697332
-2.49513626 0.84227395 41.83213425  1062707012
42.10604095 -7.89532614 -2.49513626  3236369237
-2.49513626 0.84227401 42.33691406  1062707013
42.43613815 -5.86760378 -2.49513626  3228885577
-2.49513626 0.84227401 42.72439194  1062707012
42.80304718 -1.77623975 -2.49513626  3213606750
-2.49513626 0.84227401 42.83795929  1062707012
42.83897781 0.27787495 -2.49513626  1064726813
-2.49513626 0.84227395 42.80819702  1062707012
42.73366165 3.01487684 -2.49513626  1084353769
-2.49513626 0.84227395 42.45365524  1062707012
42.35647964 6.41750050 -2.49513626  1090033126
-2.49513626 0.84227395 44.41654205  1062559634
44.08478546 11.08261204 -2.64753628  1094488897
-2.64753628 0.83348954 43.70796204  1062559634
43.50277710 13.18340015 -2.64753628  1096681668
-2.64753628 0.83348960 42.57138443  1062559634
42.31118393 16.61493492 -2.64753628  1099934755
-2.64753628 0.83348954 41.46596527  1062559635
40.66792679 19.05290413 -2.61569762  1100514103
-2.53118515 0.84018779 38.30928802  1062699606
37.56811142 25.59159279 -2.64753628  1105167649
-2.64753628 0.83348954 35.40470886  1062559634
34.94441986 29.07197380 -2.64753628  1106900769
-2.64753628 0.83348948 31.99942970  1062559634
31.47922516 32.79256058 -2.64753628  1107633590
-2.64715934 0.83351117 27.10471344  1062707012
35.82834244 -10.97619724 -2.49513626  3238086371
-2.49513626 0.86051911 37.11876297  1063013114
37.19606018 -4.53823948 -2.49513626  3229375183
-2.49513626 0.86051911 37.32213211  1063013114
37.37086487 -2.74975681 -2.49513626  3217481399
-2.49513626 0.86051911 37.46242523  1063013115
37.41635513 2.03922415 -2.49513626  1081420338
-2.49513626 0.86051911 37.20956802  1063013115
37.13405609 5.02037477 -2.49513626  1087991764
-2.49513626 0.86051911 36.73733139  1063013115
38.71084213 9.07623959 -2.64753628  1094222045
-2.64753628 0.85265976 37.86251068  1062881257
37.00942993 14.53301334 -2.64753628  1099060018
-2.64753628 0.85265976 35.44742966  1062881256
33.40886688 19.04293442 -2.56059790  1101872310
-2.50275636 0.86012441 31.74974060  1062881256
30.96836853 24.93727303 -2.64753628  1103851245
-2.64753628 0.85265970 30.15533066  1062881256
29.73718834 26.39331245 -2.64753628  1105088274
-2.64753628 0.85265976 27.53476334  1062881256
27.07271576 29.12000847 -2.64753628  1106011269
-2.64753628 0.85265976 25.64549255  1062881257
23.13743401 32.33522797 -2.64753628  3239840187
-2.49513626 0.87497962 31.98686028  1063255722
32.13051987 -8.72968197 -2.49513626  3236281428
-2.49513626 0.87497962 32.62270355  1063255722
33.05022049 -4.03241205 -2.49513626  3227531837
-2.49513626 0.87497962 33.16223145  1063255722
33.20553970 -2.44327116 -2.49513626  3216028736
-2.49513626 0.87497962 33.28449249  1063255722
33.29380798 -0.31631938 -2.49513626  1046291740
-2.49513626 0.87497962 33.28690338  1063255722
33.21275330 2.34317350 -2.49513626  1077406940
-2.49513626 0.87497962 32.83565903  1063255722
32.74332047 6.03754950 -2.49513626  1087499591
-2.49513626 0.87497962 32.53357697  1063255722
32.41622162 7.60038853 -2.49513626  1090642386
-2.49513626 0.87497962 34.12077332  1063136462
33.81050110 10.24617767 -2.64753628  1093439702
-2.64753628 0.86787117 33.08662415  1063136462
32.88440704 12.91318607 -2.64753628  1096220384
-2.64753628 0.86787117 32.45478058  1063136462
31.23662567 16.50476074 -2.64753628  1099432992
-2.64753628 0.86787117 30.69303131  1063136462
30.11805534 18.46718025 -2.64753628  1100452356
-2.64753628 0.86787117 28.91016960  1063178621
26.98620033 19.67494965 -2.50275636  1101059241
-2.50275636 0.87462282 26.34343910  1063249736
25.32900429 21.76695251 -2.50275636  1103674532
-2.64753628 0.86787117 23.63850784  1063136462
21.91234016 27.71251488 -2.64753628  1105230176
-2.64753628 0.86787117 21.01522636  1063136462
28.63892937 -8.77328110 -2.49513626  3238332289
-2.49513626 0.88672054 29.34753036  1063452702
29.43953705 -5.52016783 -2.49513626  3230822473
-2.49513626 0.88672054 29.73212242  1063452702
29.78631210 -3.15181351 -2.49513626  3224057623
-2.49513626 0.88672054 29.90317154  1063452702
29.92684746 -1.24190462 -2.49513626  3208866148
-2.49513626 0.88672054 29.95125389  1063452702
29.95197105 0.19428459 -2.49513626  1066625724
-2.49513626 0.88672054 29.90822029  1063452702
29.79567719 3.06201839 -2.49513626  1080192421
-2.49513626 0.88672054 29.68256569  1063452702
29.61461639 4.48695898 -2.49513626  1084143321
-2.49513626 0.88672054 29.45603752  1063452702
29.26735497 6.37028742 -2.49513626  1088080769
-2.49513626 0.88672054 28.92829323  1063452702
30.26484871 9.70255947 -2.64753628  1094805822
-2.64753628 0.88023299 29.19647217  1063343859
28.78013802 13.48347282 -2.64753628  1097226406
-2.64753628 0.88023299 27.85966301  1063343859
27.61158371 15.73850632 -2.64753628  1099000918
-2.64753628 0.88023299 27.09433937  1063343859
26.54939461 17.47082901 -2.64753628  1099900136
-2.64753628 0.88023299 25.97731400  1063343859
25.68127823 18.72356796 -2.64753628  1100484314
-2.63031244 0.88096380 23.62255096  1063430228
22.78608513 19.58164597 -2.50275636  1100975134
-2.50275636 0.88639504 22.14844513  1063447241
21.82109642 20.65155029 -2.50275636  1101527901
-2.50275636 0.88639504 21.14974785  1063447241
20.80592155 21.67395401 -2.50275636  1102225339
-2.50275636 0.88639504 20.88500214  1063343859
20.49934769 24.28738976 -2.64753628  1103422809
-2.64753628 0.88023299 19.71244621  1063343859
19.31138802 25.24223900 -2.64753628  3237943639
-2.49513626 0.89644140 26.37504005  1063615791
26.66664696 -5.44289351 -2.49513626  3230846415
-2.49513626 0.89644140 26.95996475  1063615791
27.06535339 -2.86389709 -2.49513626  3223032612
-2.49513626 0.89644140 27.17152786  1063615791
27.19304085 -1.12845707 -2.49513626  3207696281
-2.49513626 0.89644140 27.21522331  1063615791
27.20957756 0.61158353 -2.49513626  1065743204
-2.49513626 0.89644140 27.17612076  1063615791
27.14896584 1.91537058 -2.49513626  1075206212
-2.49513626 0.89644140 26.97107887  1063615791
26.90933990 4.07706881 -2.49513626  1083193140
-2.49513626 0.89644140 26.76524925  1063615791
26.68292999 5.36248350 -2.49513626  1087657602
-2.49513626 0.89644140 26.28570557  1063615791
26.16954041 7.47597408 -2.49513626  1090295424
-2.49513626 0.89644140 27.20426941  1063515701
27.04586792 10.12451553 -2.64753628  1093198754
-2.64753628 0.89047557 26.52938652  1063515701
26.34360123 11.83214569 -2.64753628  1095414061
-2.64753628 0.89047557 25.74605179  1063515701
25.08928108 14.30080318 -2.64753628  1097544560
-2.64753628 0.89047557 24.61928749  1063515701
23.60430145 16.63796997 -2.64753628  1099438843
-2.64753628 0.89047557 23.06035614  1063515701
22.20046043 18.46961784 -2.64753628  1100387271
-2.64753628 0.89047557 20.08717918  1063589215
19.21772575 19.38930893 -2.50275636  1101001520
-2.50275636 0.89614218 18.26607704  1063610771
17.93940163 20.57775879 -2.50275636  1101602877
-2.50275636 0.89614218 16.93222427  1063610771
16.58773232 21.68210220 -2.50275636  1102158916
-2.50275636 0.89614218 23.84154510  1063753028
24.06283951 -6.53774166 -2.49513626  3233315881
-2.49513626 0.90462142 24.43144035  1063753029
24.57836914 -4.20308828 -2.49513626  3228815622
-2.49513626 0.90462142 24.70017433  1063753029
24.86793709 -1.82978857 -2.49513626  3216460871
-2.49513626 0.90462142 24.91371727  1063753029
24.92706299 -0.63545996 -2.49513626  3195180147
-2.49513626 0.90462142 10.13447380  1064683429
24.92886734 0.56032258 -2.49513626  1071685140
-2.49513626 0.90462142 24.84210396  1063753029
24.80452156 2.54908895 -2.49513626  1077706677
-2.49513626 0.90462142 24.71035576  1063753029
24.65379143 3.73533559 -2.49513626  1083224265
-2.49513626 0.90462142 24.44636154  1063753029
24.08243370 6.46518469 -2.49513626  1088105929
-2.49513626 0.90462142 23.74475861  1063753031
23.62006569 7.99091959 -2.49513626  1092682533
-2.64753628 0.89909983 24.30569077  1063660392
24.13547516 10.84037304 -2.64753628  1094697634
-2.64753628 0.89909983 23.19277954  1063660394
22.98629570 13.10210514 -2.64753628  1096632469
-2.64753628 0.89909995 22.33172607  1063660391
21.86670876 14.89571095 -2.64753628  1098114264
-2.64753628 0.89909983 20.60747910  1063660392
20.06645584 17.24448395 -2.64753628  1099727149
-2.64753628 0.89909983 19.50492477  1063660392
18.92330742 18.49155235 -2.64753628  1100371311
-2.64753628 0.89909983 16.56667900  1063736233
15.19734478 19.86470604 -2.50275636  1101183258
-2.50275636 0.90434450 22.19896698  1063870101
22.53901863 -4.60040760 -2.49513626  3229100373
-2.49513626 0.91159946 22.73365211  1063870101
22.78693390 -3.15067339 -2.49513626  3222989606
-2.49513626 0.91159946 22.91178131  1063870101
22.94169617 -1.68805599 -2.49513626  3182707760
-1.00493681 0.96340913 9.25461483  1064739982
9.53821850 0.51984125 -1.03611398  1070544906
-2.49513626 0.91159946 22.84268188  1063870101
22.55278587 4.53244925 -2.49513626  1084754192
-2.49513626 0.91159946 22.30955315  1063870101
22.21704292 5.96439743 -2.49513626  1086993309
-2.49513626 0.91159946 22.01501656  1063870101
21.79048729 7.37195492 -2.49513626  1090947024
-2.49513626 0.91159940 22.57429695  1063783886
22.42300415 9.64346695 -2.64753628  1092616919
-2.64753628 0.90646064 22.10325432  1063783886
21.93488884 10.70738220 -2.64753628  1093724197
-2.64753628 0.90646058 21.58138466  1063783885
21.39632797 11.74668694 -2.64753628  1094804815
-2.64753628 0.90646064 20.80855942  1063783886
20.60193253 13.08998966 -2.64753628  1096199873
-2.64753628 0.90646064 20.17293930  1063783886
19.95067787 14.06264019 -2.64753628  1097208714
-2.64753628 0.90646064 19.25355721  1063783886
19.01125717 15.30880928 -2.64753628  1098499515
-2.64753628 0.90646058 17.99409676  1063783885
17.45767593 17.05922508 -2.64753628  1099608167
-2.64753628 0.90646064 16.61974144  1063783886
16.33183861 18.13996506 -2.64753628  1100429187
-2.64753628 0.90646058 15.00749683  1063796887
14.52396202 18.98451424 -2.59268713  1100476812
-2.53317857 0.91031396 20.50834465  1063971133
20.60045052 -5.59703064 -2.49513626  3232271150
-2.49513626 0.91762149 20.76884651  1063971134
21.04180145 -3.59830737 -2.49513626  3226516448
-2.49513626 0.91762149 21.14607620  1063971134
21.22873688 -2.24630094 -2.49513626  3204802786
-1.06063068 0.96411550 9.00787544  1064754994
8.96127701 -0.22844779 -1.04776347  3182292617
-1.04486096 0.96463948 8.95671368  1064758686
21.29432106 1.50232327 -2.49513626  1075929155
-2.49513626 0.91762149 21.15479469  1063971134
21.10636711 3.19787526 -2.49513626  1081589250
-2.49513626 0.91762149 20.70306778  1063971134
20.32816315 6.51697874 -2.49513626  1088764766
-2.49513626 0.91762149 19.61056328  1063971134
20.66262817 9.28055668 -2.64753628  1092206921
-2.64753628 0.91281569 20.19394302  1063890506
19.49697876 11.53000546 -2.64753628  1094545799
-2.64753628 0.91281569 18.92178154  1063890506
18.72031212 12.75237560 -2.64753628  1095814359
-2.64753628 0.91281569 18.30307961  1063890506
17.64227867 14.20644379 -2.64753628  1097320800
-2.64753628 0.91281569 17.17910194  1063890506
16.94089699 15.03592968 -2.64753628  1098178704
-2.64753628 0.91281569 16.45156670  1063890506
16.20057297 15.83081150 -2.64753628  1098953673
-2.64753628 0.91281569 15.68619823  1063890506
15.42297840 16.58930016 -2.64753628  1099344765
-2.64753628 0.91281569 14.88475895  1063890506
14.60990810 17.30964279 -2.64753628  1099951071
-2.64753628 0.91281569 13.47389221  1063890506
13.18109226 18.42096138 -2.64753628  3233455973
-2.49513626 0.92287099 19.21417236  1064059206
19.29517174 -4.91255569 -2.49513626  3230879659
-2.49513626 0.92287099 19.44235611  1064059206
19.50850105 -3.98185539 -2.49513626  3225595900
-2.49513626 0.92287099 19.72308731  1064059206
19.80018425 -2.09513950 -2.49513626  3216704731
-2.49513626 0.92287099 8.76987267  1064770015
8.81895256 0.48064068 -1.10679805  1059195715
-1.12714231 0.96439052 19.80640984  1064059206
19.77133179 2.35181427 -2.49513626  1076541883
-2.49513626 0.92287099 19.63585091  1064059206
19.52041817 3.92303729 -2.49513626  1082622415
-2.49513626 0.92287099 19.30989075  1064059206
19.22982216 5.16245604 -2.49513626  1085211568
-2.49513626 0.92287099 19.05496216  1064059206
18.96021271 6.07842493 -2.49513626  1087123236
-2.49513626 0.92287099 18.75620461  1064059206
18.64699554 6.98042870 -2.49513626  1089623489
-2.49513626 0.92287099 18.29090118  1064059206
18.16281128 8.15776825 -2.49513626  1091848328
-2.64753628 0.91835767 18.67962837  1063983485
18.35455322 10.46202946 -2.64753628  1093406937
-2.64753628 0.91835767 17.46055794  1063983485
17.07140541 12.44631958 -2.64753628  1095746917
-2.64753628 0.91835767 16.45506859  1063983485
16.24114037 13.51180267 -2.64753628  1096569035
-2.64753628 0.91835767 15.57467651  1063983485
14.38511276 15.47294807 -2.64753628  1098594051
-2.64753628 0.91835767 13.88311577  1063983485
13.62675667 16.14481735 -2.64753628  1099096704
-2.64753628 0.91835767 12.83707047  1063983485
12.56718731 16.98261833 -2.64753628  3232083936
-2.49513626 0.92748737 18.07622147  1064136656
18.14748764 -4.31265736 -2.49513626  3229660207
-2.49513626 0.92748731 18.27606201  1064136657
18.33336067 -3.43766308 -2.49513626  3224789869
-2.49513626 0.92748731 18.47709084  1064136656
18.51558304 -2.25906086 -2.49513626  3220913248
-2.49513626 0.92748743 8.83806419  1064763805
8.61146545 -0.49537021 -1.15383303  3193900194
-1.14333522 0.96609467 8.52347374  1064785921
8.56535053 0.32958660 -1.14660823  1058847563
-1.16370726 0.96550113 18.58325958  1064136657
18.55516624 1.90686154 -2.49513626  1079540007
-2.49513626 0.92748737 18.28723907  1064136656
18.22611427 3.96707034 -2.49513626  1083884301
-2.49513626 0.92748743 17.85118484  1064136656
17.66910744 5.97764683 -2.49513626  1086868635
-2.49513626 0.92748731 17.46898079  1064136657
17.36221123 6.81786537 -2.49513626  1088620175
-2.49513626 0.92748737 17.13537979  1064136657
17.01538467 7.64240503 -2.49513626  1090990242
-2.49513626 0.92748743 17.49954987  1064065276
16.70535278 10.61419201 -2.64753628  1094623389
-2.64753628 0.92323273 15.41552830  1064065276
15.21512794 12.65821648 -2.64753628  1095656878
-2.64753628 0.92323279 14.80267811  1064065276
14.59075165 13.37310028 -2.64753628  1096635082
-2.64753628 0.92323273 13.70633602  1064065276
13.47634029 14.49545002 -2.64753628  1097990013
-2.64753628 0.92323279 12.52248096  1064065275
12.02608967 15.71950817 -2.64753628  1098813015
-2.64753628 0.92323279 11.51743507  1064065275
16.77280807 -5.13819933 -2.49513626  3231437364
-2.49513626 0.93157834 16.92849350  1064205291
16.99985695 -4.32816839 -2.49513626  3228701822
-2.49513626 0.93157834 17.24170113  1064205291
17.33623886 -2.68012190 -2.49513626  3219932835
-2.49513626 0.93157834 8.44530296  1064789499
8.36903954 -0.07951263 -1.19043541  1029587919
-1.18992889 0.96676463 8.38326359  1064794339
8.40541649 0.32343197 -1.19644058  1055620193
-1.20211542 0.96643001 8.49259472  1064785933
17.41938019 2.07204700 -2.49513626  1076375252
-2.49513626 0.93157834 17.25136185  1064205291
17.19830513 3.45635581 -2.49513626  1082139636
-2.49513626 0.93157834 16.94228172  1064205291
16.78821945 5.08762026 -2.49513626  1084972800
-2.49513626 0.93157834 16.52500343  1064205291
16.42878723 6.15004969 -2.49513626  1088276356
-2.49513626 0.93157834 16.00219727  1064205291
15.88525486 7.44223356 -2.49513626  1089879879
-2.49513626 0.93157834 15.63921833  1064205291
15.51019096 8.19524956 -2.49513626  1090982672
-2.49513626 0.93157828 16.17113113  1064137779
15.71062851 9.98216820 -2.64753628  1092859512
-2.64753628 0.92755431 15.38348866  1064137779
14.68227673 11.44094086 -2.64753628  1094851442
-2.64753628 0.92755431 13.51913834  1064137779
13.31287956 13.00902939 -2.64753628  1096210684
-2.64753628 0.92755431 12.00574398  1064137779
11.54488277 14.60079575 -2.64753628  3230327797
-2.49513626 0.93522835 16.04236603  1064266528
16.10560799 -3.82741451 -2.49513626  3225633148
-2.49513626 0.93522841 16.35980034  1064266528
16.39813995 -2.26731658 -2.49513626  3216851189
-2.49513626 0.93522835 8.27786827  1064800257
8.25308800 -0.21039414 -1.24435711  1029362647
-1.24144959 0.96723086 8.25019264  1064802404
8.27064133 0.31824607 -1.24752116  1073367200
-2.49513626 0.93522835 16.40490150  1064266528
16.36734772 2.47984576 -2.49513626  1077943750
-2.49513626 0.93522835 16.22963905  1064266528
16.17542076 3.52071810 -2.49513626  1083277975
-2.49513626 0.93522841 15.76387310  1064266528
15.59425640 5.55507660 -2.49513626  1085912981
-2.49513626 0.93522841 15.20739555  1064266528
14.99054241 7.02306128 -2.49513626  1089467727
-2.49513626 0.93522835 14.51110077  1064266528
14.24900150 8.42649078 -2.49513626  1092007952
-2.64753628 0.93141103 14.51703167  1064202484
14.35708809 10.11988640 -2.64753628  1093451437
-2.64753628 0.93141103 13.68105602  1064202483
13.50318813 11.23396969 -2.64753628  1095212032
-2.64753628 0.93141103 11.96004963  1064202484
11.32953548 13.42310143 -2.64753628  1096758937
-2.64753628 0.93141097 10.22154140  1064202483
15.05359840 -4.34955168 -2.49513626  3229841304
-2.49513626 0.93850493 15.18495369  1064321500
15.35284042 -3.13364673 -2.49513626  3206229803
-1.31541109 0.96709430 8.13235474  1064809416
8.11438751 0.05263383 -1.29213345  1050707012
-1.29834259 0.96751428 8.18456554  1064805358
8.51933956 0.73808557 -1.36167109  1070401994
-2.49513626 0.93850493 15.55968571  1064321500
15.52810860 2.09934115 -2.49513626  1075198542
-2.49513626 0.93850493 15.36221409  1064321500
15.31089687 3.33254719 -2.49513626  1081376739
-2.49513626 0.93850493 14.99590778  1064321500
14.92134094 4.78361034 -2.49513626  1084769015
-2.49513626 0.93850493 14.58515549  1064321500
14.49173355 5.95979118 -2.49513626  1086724649
-2.49513626 0.93850493 14.29380322  1064321500
14.18934441 6.64769983 -2.49513626  1088156980
-2.49513626 0.93850493 13.96957588  1064321500
13.88902950 9.13967228 -2.64753628  1092625154
-2.64753628 0.93487388 12.94984436  1064260580
12.60986328 10.83651733 -2.64753628  1094707472
-2.64753628 0.93487388 11.32082367  1064260581
10.51952267 12.87549210 -2.64753628  1096144668
-2.64753628 0.93487382 14.28791714  1064371117
14.35209560 -3.89938712 -2.49513626  3228227659
-2.49513626 0.94146234 14.46941757  1064371117
14.52254009 -3.20683098 -2.49513626  3223351565
-2.49513626 0.94146234 14.69778442  1064371117
14.76291180 -1.80120206 -2.49513626  3217576190
-2.49513626 0.94146234 8.10149288  1064809452
7.95472383 -0.20278797 -1.33499575  1028839389
-1.33140719 0.96832520 7.97344589  1064818939
8.27409363 0.71683830 -1.39334226  1069718526
-2.49513626 0.94146234 14.73830318  1064371117
14.66707230 2.46269774 -2.49513626  1079592663
-2.49513626 0.94146234 14.42359257  1064371117
14.36378288 3.85610914 -2.49513626  1084676494
-2.49513626 0.94146234 13.75463963  1064371117
13.56677628 6.09347534 -2.49513626  1087423777
-2.49513626 0.94146234 13.25904274  1064371117
13.14965057 6.94799232 -2.49513626  1088751806
-2.49513626 0.94146234 12.80142689  1064371116
12.55286598 7.97579765 -2.49513626  1090910178
-2.49513626 0.94146240 12.89853001  1064313029
12.75154305 9.29682446 -2.64753628  1092091362
-2.64753628 0.93800002 12.29117680  1064313029
11.80253029 10.47535896 -2.64753628  1093311081
-2.64753628 0.93800002 11.46162128  1064313029
11.28675365 11.02914619 -2.64753628  1093883054
-2.64753628 0.93800002 10.74501324  1064313029
9.78783321 12.37865734 -2.64753628  1095431861
-2.64753628 0.93800002 9.18312073  1064313029
13.65558720 -3.71014905 -2.49513626  3227480742
-2.49513626 0.94414485 13.86477184  1064416122
13.94814873 -2.38523960 -2.49513626  3220706401
-2.49513626 0.94414485 14.04646492  1064416122
8.18122292 -0.73364377 -1.44835830  3205861280
-1.40380967 0.96818036 7.76869631  1064831960
7.84065819 0.42732280 -1.38457060  1057931600
-1.39716887 0.96832848 8.12197876  1064806775
14.02305126 1.89586282 -2.49513626  1074244275
-2.49513626 0.94414485 13.95527554  1064416122
13.87322330 2.78810835 -2.49513626  1077976160
-2.49513626 0.94414485 13.77701283  1064416122
13.72361374 3.45002484 -2.49513626  1080741987
-2.49513626 0.94414485 13.60630989  1064416122
13.47509480 4.31996012 -2.49513626  1083252039
-2.49513626 0.94414485 13.33010578  1064416122
13.08712482 5.38213539 -2.49513626  1085466279
-2.49513626 0.94414490 12.81404591  1064416122
12.61557674 6.40994740 -2.49513626  1087605678
-2.49513626 0.94414485 12.18015957  1064416123
12.06346416 7.39683008 -2.49513626  1089656553
-2.49513626 0.94414485 11.69496918  1064416122
11.38765240 9.78619003 -2.64753628  1093134082
-2.64753628 0.94083619 10.39804173  1064360612
10.04645443 11.15871334 -2.64753628  1093998105
-2.64753628 0.94083619 9.49991989  1064360612
9.12335396 11.92529011 -2.64753628  1094786338
-2.64753628 0.94083619 8.73746204  1064360612
12.90202808 -3.95242476 -2.49513626  3227676094
-2.49513626 0.94658887 13.12823486  1064457126
13.22125244 -2.69857168 -2.49513626  3223267561
-2.49513626 0.94658887 13.30077362  1064457126
13.39452362 -1.63424695 -2.49513626  3205690699
-1.44651651 0.96867913 7.67193222  1064837282
7.63964748 0.04955443 -1.41267061  1043342191
-1.41542351 0.96934193 7.76717806  1064830143
7.95405149 0.68911111 -1.47628629  1070334923
-2.49513626 0.94658887 13.37219429  1064457126
13.34158707 2.02140737 -2.49513626  1074725101
-2.49513626 0.94658887 13.22933197  1064457126
13.18513870 2.86985779 -2.49513626  1080027769
-2.49513626 0.94658887 12.84967041  1064457126
12.78217411 4.32435131 -2.49513626  1083662950
-2.49513626 0.94658887 12.56016064  1064457126
12.39606762 5.33118296 -2.49513626  1085336280
-2.49513626 0.94658887 11.93079853  1064457126
11.82849503 6.49389887 -2.49513626  1088146572
-2.49513626 0.94658887 11.50355816  1064457126
11.38932991 7.23651314 -2.49513626  1089297792
-2.49513626 0.94658887 11.15216923  1064457126
11.02929688 7.77422476 -2.49513626  1090647840
-2.49513626 0.94658887 10.64390564  1064457127
11.00691128 9.15718937 -2.64753628  1092274734
-2.64753628 0.94342065 10.39922905  1064403972
9.74904633 10.48628902 -2.64753628  1093447288
-2.64753628 0.94342065 9.23509407  1064403971
8.69991112 11.37179756 -2.64753628  1094198939
-2.64753628 0.94342065 12.32807636  1064494639
12.38687325 -3.57903433 -2.49513626  3227015957
-2.49513626 0.94882482 12.54421520  1064494639
12.59026718 -2.78015161 -2.49513626  3223651970
-2.49513626 0.94882482 12.67271233  1064494639
12.70907974 -2.17334819 -2.49513626  3220972995
-2.49513626 0.94882482 12.77205944  1064494639
12.79865837 -1.56154680 -2.49513626  3205626905
-1.50383425 0.96883512 7.65225315  1064837788
7.62440729 -0.07243834 -1.47552669  1043315387
-1.47788131 0.96936464 7.64799929  1064838131
7.73066187 0.54540116 -1.49974000  1059964246
-1.52188230 0.96846706 12.80330658  1064494639
12.74807739 1.93148363 -2.49513626  1074308190
-2.49513626 0.94882482 12.55314159  1064494639
12.50448799 3.14354205 -2.49513626  1079374936
-2.49513626 0.94882482 12.39759636  1064494639
12.27804756 3.93620038 -2.49513626  1082815559
-2.49513626 0.94882482 11.92454052  1064494639
11.84461975 5.09401798 -2.49513626  1085213383
-2.49513626 0.94882482 11.58678150  1064494639
11.49488354 5.84052277 -2.49513626  1086754680
-2.49513626 0.94882482 10.99180794  1064494639
10.88266945 6.91459465 -2.49513626  1088605767
-2.49513626 0.94882482 10.65605831  1064494639
10.53865337 7.42838383 -2.49513626  1089671586
-2.49513626 0.94882482 10.29579449  1064494639
10.17040443 7.92508078 -2.49513626  1090609903
-2.49513626 0.94882482 10.23216438  1064443645
9.78501320 9.56168270 -2.64753628  1092479469
-2.64753628 0.94578534 8.99027348  1064443645
8.65600681 10.59461689 -2.64753628  1093383370
-2.64753628 0.94578534 8.13812160  1064443645
7.96127653 11.12611294 -2.64753628  3228000327
-2.49513626 0.95087790 11.85767937  1064529084
11.91093636 -3.23613644 -2.49513626  3225609824
-2.49513626 0.95087790 12.00830078  1064529084
12.05238628 -2.66137815 -2.49513626  3220266996
-2.49513626 0.95087790 12.22640991  1064529084
8.26442909 -0.87449324 -1.68001747  3207822542
-1.58690071 0.96847272 7.66879606  1064835451
7.60902929 -0.07229222 -1.53826809  1043288619
-1.54024911 0.96938521 7.63018560  1064838480
12.25632572 1.45789778 -2.49513626  1072474860
-2.49513626 0.95087790 12.06035042  1064529084
11.97026825 3.00924230 -2.49513626  1078775904
-2.49513626 0.95087790 11.81223488  1064529084
11.69176388 3.95544505 -2.49513626  1082816596
-2.49513626 0.95087790 11.48868752  1064529084
11.41509724 4.69450712 -2.49513626  1083968350
-2.49513626 0.95087790 11.25918961  1064529084
10.91301250 5.76619911 -2.49513626  1086198743
-2.49513626 0.95087790 10.52222252  1064529084
10.31058979 6.78488398 -2.49513626  1088314606
-2.49513626 0.95087790 10.08841896  1064529084
9.97345543 7.27138901 -2.49513626  1089651874
-2.49513626 0.95087790 9.48840046  1064529084
9.36099243 8.04454613 -2.49513626  1090721590
-2.49513626 0.95087790 9.09903812  1064529084
9.36697769 9.15318489 -2.64753628  1092624821
-2.64753628 0.94795698 8.28620434  1064480079
8.12301540 10.27315903 -2.64753628  3227377062
-2.49513626 0.95276952 11.46950817  1064560820
11.55699635 -2.55198789 -2.49513626  3222764396
-2.49513626 0.95276952 11.63267326  1064560820
11.66605663 -1.99498379 -2.49513626  3216472421
-2.49513626 0.95276952 7.78241968  1064825793
7.69632673 -0.56629753 -1.62692332  3198276030
-1.60700727 0.96931964 7.60195923  1064839697
7.59261322 0.04924923 -1.60070586  1054156266
-1.61273634 0.96921194 7.68590641  1064833011
7.76281404 0.67254287 -1.64268434  1062537435
-1.71612227 0.96727091 11.60340023  1064560820
11.56463623 2.51713920 -2.49513626  1077456111
-2.49513626 0.95276952 11.38014507  1064560820
11.32671738 3.43252611 -2.49513626  1082011349
-2.49513626 0.95276952 11.08421612  1064560820
11.01646805 4.32599449 -2.49513626  1083182261
-2.49513626 0.95276952 10.79640484  1064560820
10.55150986 5.36119986 -2.49513626  1086033024
-2.49513626 0.95276952 10.18733788  1064560820
9.98953819 6.34712029 -2.49513626  1088041761
-2.49513626 0.95276952 9.45083141  1064560820
9.21824551 7.42299032 -2.49513626  1089616021
-2.49513626 0.95276952 8.59608841  1064560820
8.69678307 9.05961514 -2.64753628  1091774695
-2.64753628 0.94995815 8.25245094  1064513653
8.10006618 9.59686184 -2.64753628  1092327964
-2.64753628 0.94995815 7.30790520  1064513653
10.86803341 -3.32932425 -2.49513626  3226070558
-2.49513626 0.95451802 10.96890926  1064590155
11.05857658 -2.62801313 -2.49513626  3223116651
-2.49513626 0.95451802 11.13693333  1064590155
11.17185020 -2.09481788 -2.49513626  3220520443
-2.49513626 0.95451802 11.25942707  1064590155
11.28288269 -1.37660885 -2.49513626  3207714073
-1.70729589 0.96865094 7.67396212  1064832781
7.62386560 -0.43855903 -1.67632461  1028215547
-1.66341674 0.96944422 7.59462643  1064839071
7.61764812 0.41516843 -1.67467475  1062463026
-1.77738571 0.96738517 11.28698254  1064590155
11.23828602 1.70273256 -2.49513626  1072753433
-2.49513626 0.95451802 11.14373779  1064590155
11.10651016 2.41742563 -2.49513626  1076976647
-2.49513626 0.95451802 10.97784042  1064590155
10.87801456 3.29654837 -2.49513626  1079907545
-2.49513626 0.95451802 10.70746708  1064590155
10.64511299 3.98495317 -2.49513626  1082454682
-2.49513626 0.95451802 10.51228142  1064590155
10.44183540 4.49072123 -2.49513626  1083508414
-2.49513626 0.95451802 10.04991341  1064590155
9.96373844 5.47013950 -2.49513626  1085875671
-2.49513626 0.95451802 9.69003010  1064590155
9.59380817 6.09568167 -2.49513626  1088091110
-2.49513626 0.95451802 8.96589661  1064590155
8.73797321 7.26954985 -2.49513626  1089848185
-2.49513626 0.95451802 8.12960625  1064590155
8.00156593 8.07300568 -2.49513626  1090728637
-2.49513626 0.95451802 7.74730825  1064589393
7.92553329 9.09114838 -2.64753628  1092296343
-2.64753628 0.95180804 10.45245838  1064617347
10.50230312 -3.03451085 -2.49513626  3224149833
-2.49513626 0.95613879 10.63571262  1064617347
10.71107769 -2.18622327 -2.49513626  3221287195
-2.49513626 0.95613879 10.77549267  1064617347
10.85144520 -1.32396984 -2.49513626  3210495858
-1.86640310 0.96700639 7.71072960  1064828695
7.65164614 -0.56300986 -1.75115836  3202348409
-1.73844421 0.96923321 7.57046604  1064839951
7.56369352 -0.07186148 -1.72644126  1028189269
-1.72610593 0.96944821 7.56919622  1064840072
7.69624758 0.66677582 -1.76319718  1062389135
-1.83821905 0.96749645 10.85538769  1064617347
10.83335686 1.46462846 -2.49513626  1070701982
-2.49513626 0.95613879 10.78099251  1064617347
10.75068378 1.98232067 -2.49513626  1075104922
-2.49513626 0.95613879 10.60202694  1064617347
10.55806637 2.83442044 -2.49513626  1077948048
-2.49513626 0.95613879 10.46205139  1064617348
10.35535908 3.50332689 -2.49513626  1080739683
-2.49513626 0.95613879 10.23807144  1064617347
10.17548656 3.99575400 -2.49513626  1082461599
-2.49513626 0.95613879 9.97222900  1064617347
9.89934540 4.63783932 -2.49513626  1084452201
-2.49513626 0.95613879 9.58273506  1064617348
9.49741173 5.41349173 -2.49513626  1085411689
-2.49513626 0.95613879 9.22695923  1064617347
8.72937393 6.58063650 -2.49513626  1087833308
-2.49513626 0.95613879 8.51454258  1064617347
8.17603970 7.25666189 -2.49513626  1090024756
-2.49513626 0.95613879 7.18370295  1064617347
7.05104637 8.35400009 -2.49513626  1091007313
-2.49513626 0.95613879 7.19452620  1064573461
7.04815102 9.21275425 -2.64753628  1092022025
-2.64753628 0.95352304 10.11408806  1064642622
10.24256039 -2.43409133 -2.49513626  3222358102
-2.49513626 0.95764530 10.31513882  1064642622
10.37717247 -1.77457511 -2.49513626  3217940961
-2.49513626 0.95764530 10.42859936  1064642622
7.69955683 -0.69045037 -1.83215022  3205491378
-1.81567836 0.96899801 7.59355402  1064836755
7.55241871 -0.07175434 -1.79003632  1049955559
-1.79438889 0.96935594 7.58871698  1064837165
7.62994385 0.53829545 -1.81282377  1059747022
-1.82832015 0.96878558 10.45411396  1064642622
10.43289757 1.41048980 -2.49513626  1070194186
-2.49513626 0.95764530 10.35327816  1064642622
10.32143974 2.07430744 -2.49513626  1075432984
-2.49513626 0.95764530 10.16778469  1064642622
10.07532501 3.05329585 -2.49513626  1078833584
-2.49513626 0.95764530 9.97256851  1064642622
9.85961533 3.69090819 -2.49513626  1081493115
-2.49513626 0.95764530 9.53341866  1064642622
9.46079922 4.61823273 -2.49513626  1084056286
-2.49513626 0.95764530 9.14633942  1064642622
8.88588142 5.64588022 -2.49513626  1085878487
-2.49513626 0.95764530 8.40669060  1064642622
8.30430603 6.47095919 -2.49513626  1087589083
-2.49513626 0.95764530 7.98452377  1064642622
7.87380838 6.98841619 -2.49513626  1088659694
-2.49513626 0.95764530 7.64637995  1064642622
7.29064989 7.59481812 -2.49513626  1089911689
-2.49513626 0.95764530 7.04413509  1064642622
6.91815519 7.93561316 -2.49513626  1090566431
-2.49513626 0.95764530 6.52974844  1064642622
9.75217247 -2.81776929 -2.49513626  3223341795
-2.49513626 0.95904911 9.87604904  1064666174
9.94602871 -2.03007007 -2.49513626  3220141771
-2.49513626 0.95904911 10.00584221  1064666174
10.03191662 -1.55089974 -2.49513626  3216111196
-2.49513626 0.95904911 10.07637024  1064666174
7.56899261 -0.31409818 -1.86205816  3192216512
-1.85892236 0.96932876 7.55892944  1064838766
7.56617641 0.29113904 -1.86114073  1054068482
-1.86851156 0.96917301 7.69879389  1064827597
7.94232607 0.81621045 -1.96250391  1069720793
-2.49513626 0.95904911 9.98280525  1064666174
9.95210266 2.00008178 -2.49513626  1074408400
-2.49513626 0.95904911 9.88307667  1064666174
9.80394650 2.63197207 -2.49513626  1077048453
-2.49513626 0.95904911 9.71479702  1064666174
9.66649055 3.09896684 -2.49513626  1078997714
-2.49513626 0.95904911 9.56248188  1064666174
9.50680542 3.55883527 -2.49513626  1080915576
-2.49513626 0.95904911 9.38817692  1064666174
9.32525730 4.01051617 -2.49513626  1082773373
-2.49513626 0.95904911 9.12226295  1064666174
8.89828587 4.88520050 -2.49513626  1084283846
-2.49513626 0.95904911 8.65384483  1064666174
8.47979259 5.58012629 -2.49513626  1085726990
-2.49513626 0.95904911 8.29707146  1064666174
7.80359411 6.49219418 -2.49513626  1088125883
-2.49513626 0.95904911 7.14593506  1064666174
7.02976656 7.32305098 -2.49513626  1089562804
-2.49513626 0.95904911 6.42257977  1064666174
9.49607468 -2.41770339 -2.49513626  3221698987
-2.49513626 0.96036023 8.06385517  1064800968
7.74873686 -0.69486088 -1.98098814  3198211828
-1.92921793 0.96921080 7.56802511  1064837206
7.56869125 0.04909422 -1.92726624  1049957232
-1.92817712 0.96922719 7.71222782  1064825615
9.73041821 1.15743995 -2.49513626  1069278354
-2.49513626 0.96036029 9.66373920  1064688172
9.60692883 1.93071163 -2.49513626  1074094331
-2.49513626 0.96036029 9.50331783  1064688172
9.42208576 2.69165277 -2.49513626  1077273143
-2.49513626 0.96036029 9.28221035  1064688171
9.17707729 3.43540215 -2.49513626  1080375818
-2.49513626 0.96036029 9.06256294  1064688172
9.00182533 3.87141633 -2.49513626  1082161526
-2.49513626 0.96036023 8.87346172  1064688171
8.73602676 4.43875551 -2.49513626  1083342260
-2.49513626 0.96036023 8.51317692  1064688171
8.35369968 5.12215185 -2.49513626  1085311302
-2.49513626 0.96036023 8.00929928  1064688172
7.72943449 6.02300215 -2.49513626  1086630494
-2.49513626 0.96036029 7.43179083  1064688171
7.32873964 6.50463724 -2.49513626  1087867396
-2.49513626 0.96036029 7.00846958  1064688172
6.89808941 6.95967627 -2.49513626  1088566720
-2.49513626 0.96036029 6.67207861  1064688171
6.43924046 7.38626337 -2.49513626  1089445847
-2.49513626 0.96036029 6.07772017  1064688172
5.95406675 7.78266048 -2.49513626  1090260774
-2.49513626 0.96036029 5.70222569  1064688172
9.09707737 -2.62849021 -2.49513626  3223250170
-2.49513626 0.96158755 9.17645550  1064708762
9.30700016 -1.74514258 -2.49513626  3217837605
-2.49513626 0.96158755 9.39950275  1064708762
7.79237890 -0.69877434 -2.06153274  3202358474
-2.00835848 0.96896380 7.57784939  1064835035
7.58129740 0.04917599 -1.99771512  1043228894
-1.99721050 0.96913338 7.57397747  1064835357
9.36235142 1.41850626 -2.49513626  1070117907
-2.49513626 0.96158755 9.28357792  1064708762
9.21918869 2.16155386 -2.49513626  1075036430
-2.49513626 0.96158755 9.10495663  1064708762
9.06221390 2.74627805 -2.49513626  1078081147
-2.49513626 0.96158755 8.92013073  1064708762
8.81399059 3.46111560 -2.49513626  1080459315
-2.49513626 0.96158755 8.63792229  1064708762
8.57479572 4.01728821 -2.49513626  1082453083
-2.49513626 0.96158755 8.44198895  1064708762
8.30054951 4.55704165 -2.49513626  1083850240
-2.49513626 0.96158755 7.99237108  1064708762
7.82594442 5.33107328 -2.49513626  1085182836
-2.49513626 0.96158755 7.27939272  1064708762
7.18164921 6.17168379 -2.49513626  1087391959
-2.49513626 0.96158755 6.77257776  1064708762
6.66591120 6.72542715 -2.49513626  1088067745
-2.49513626 0.96158755 6.44750834  1064708762
6.22250795 7.13765717 -2.49513626  1088917282
-2.49513626 0.96158755 8.79959774  1064728075
8.83911896 -2.40154028 -2.49513626  3222315693
-2.49513626 0.96273869 8.94408989  1064728075
8.97451973 -1.83177698 -2.49513626  3213753891
-2.49513626 0.96273869 7.82960320  1064815262
7.63051558 -0.43894157 -2.08205032  3198247600
-2.07090855 0.96897447 7.59291601  1064833156
7.58971834 0.04923061 -2.06754446  1057667938
-2.09766054 0.96858007 7.79155207  1064817974
8.02166843 0.82436430 -2.19667554  1066040309
-2.49513626 0.96273869 9.05619431  1064728075
9.00770187 1.66093242 -2.49513626  1073305984
-2.49513626 0.96273863 8.76587296  1064728075
8.67647171 2.93534517 -2.49513626  1078245140
-2.49513626 0.96273869 8.57819748  1064728075
8.41438293 3.61877823 -2.49513626  1082168221
-2.49513626 0.96273869 8.02911758  1064728075
7.95762110 4.53581858 -2.49513626  1084556303
-2.49513626 0.96273869 7.40131092  1064728075
7.22502565 5.62995386 -2.49513626  1085789408
-2.49513626 0.96273869 7.04135227  1064728075
6.94680405 5.96986818 -2.49513626  1086492839
-2.49513626 0.96273869 6.75240707  1064728075
6.65260649 6.29604721 -2.49513626  1087599275
-2.49513626 0.96273869 6.23667097  1064728075
6.01902819 6.90424967 -2.49513626  1088617225
-2.49513626 0.96273869 5.68110132  1064728075
5.33011055 7.44898176 -2.49513626  3223161867
-2.49513626 0.96382040 8.55799961  1064746223
8.62795734 -2.05038977 -2.49513626  3219325607
-2.49513626 0.96382046 8.71633434  1064746224
8.76413441 -1.35490441 -2.49513626  3208595398
-2.35374403 0.96583515 7.71895742  1064822223
7.65238094 -0.44019908 -2.15660524  3198273838
-2.14424372 0.96882820 7.59909725  1064831702
7.59819603 0.04928559 -2.13784575  1050010093
-2.14207673 0.96885920 7.70445395  1064823318
8.33176136 0.72183448 -2.35297513  1062946242
-2.35736895 0.96578348 8.80616188  1064746223
8.78829288 1.18814373 -2.49513626  1068108717
-2.49513626 0.96382040 8.72122192  1064746224
8.69439983 1.74732077 -2.49513626  1073844047
-2.49513626 0.96382046 8.60063171  1064746224
8.56497192 2.29935741 -2.49513626  1076140911
-2.49513626 0.96382046 8.35402393  1064746223
8.30537605 3.10908628 -2.49513626  1078948884
-2.49513626 0.96382046 8.08972073  1064746224
7.96943092 3.89023113 -2.49513626  1082166366
-2.49513626 0.96382046 7.84099293  1064746224
7.70453882 4.39156055 -2.49513626  1083208717
-2.49513626 0.96382046 7.56020975  1064746224
7.48514271 4.75588369 -2.49513626  1083965300
-2.49513626 0.96382046 7.32927799  1064746223
7.16592503 5.22449064 -2.49513626  1085173188
-2.49513626 0.96382046 6.81740952  1064746224
6.63260794 5.88678503 -2.49513626  1086308091
-2.49513626 0.96382040 6.03831959  1064746224
5.93372011 6.59064913 -2.49513626  1087954173
-2.49513626 0.96382046 5.50042057  1064746224
5.27522898 7.12865829 -2.49513626  3222287324
-2.49513626 0.96483886 8.32797050  1064763310
8.36080360 -1.98690176 -2.49513626  3218864949
-2.49513626 0.96483886 8.44644356  1064763310
8.47068405 -1.44855130 -2.49513626  3215462085
-2.49513626 0.96483886 8.54593754  1064763310
8.47421169 -0.75991666 -2.47033143  3206639658
-2.49513626 0.96483886 8.57946301  1064763310
8.59325886 -0.08164325 -2.49513626  1051274790
-2.49513626 0.96483886 8.58091354  1064763310
8.57233906 0.60478193 -2.49513626  1063315086
-2.49513626 0.96483886 8.49667549  1064763310
8.47501278 1.42301261 -2.49513626  1071168332
-2.49513626 0.96483886 8.29976273  1064763310
8.04820919 3.01281548 -2.49513626  1079062551
-2.49513626 0.96483886 7.89451694  1064763310
7.83923149 3.52096486 -2.49513626  1082666418
-2.49513626 0.96483886 7.39699078  1064763310
7.17876673 4.72398901 -2.49513626  1084124968
-2.49513626 0.96483886 6.77864170  1064763310
6.69333315 5.38980818 -2.49513626  1085268028
-2.49513626 0.96483886 6.51760864  1064763310
6.33522224 5.80652523 -2.49513626  1086129824
-2.49513626 0.96483886 6.04956055  1064763310
5.95121384 6.19950199 -2.49513626  1087698172
-2.49513626 0.96483886 5.22166252  1064763310
5.11188507 6.90792274 -2.49513626  1088398313
-2.49513626 0.96483886 7.96880436  1064779423
8.00681114 -2.31346917 -2.49513626  3222002159
-2.49513626 0.96579927 8.10851765  1064779423
8.13828564 -1.79707611 -2.49513626  3217333080
-2.49513626 0.96579927 8.21508312  1064779423
8.25579453 -1.14150131 -2.49513626  3212915512
-2.49513626 0.96579927 8.28806782  1064779423
8.30102921 -0.74438697 -2.49513626  3206320408
-2.49513626 0.96579927 8.32058048  1064779423
8.33162975 -0.21239635 -2.49513626  1029532961
-2.49513626 0.96579927 8.33223248  1064779423
8.32817268 0.32045978 -2.49513626  1058416391
-2.49513626 0.96579927 8.30323315  1064779423
8.29067230 0.85200906 -2.49513626  1066331430
-2.49513626 0.96579927 8.19616604  1064779423
8.04932022 2.16092491 -2.49513626  1077083663
-2.49513626 0.96579927 7.70796108  1064779423
7.65630341 3.29274964 -2.49513626  1079675602
-2.49513626 0.96579927 7.43023491  1064779423
7.24069309 4.12717009 -2.49513626  1082878135
-2.49513626 0.96579927 7.03450203  1064779423
6.96215057 4.58144379 -2.49513626  1083811657
-2.49513626 0.96579927 6.49136591  1064779423
6.40697289 5.33027935 -2.49513626  1085133595
-2.49513626 0.96579927 6.23329592  1064779423
6.14405918 5.63131523 -2.49513626  1085756018
-2.49513626 0.96579927 5.86701727  1064779423
5.77164030 6.01243258 -2.49513626  1086731302
-2.49513626 0.96579927 5.47675514  1064779423
5.27312040 6.45409632 -2.49513626  1087791652
-2.49513626 0.96579927 4.84990358  1064779423
7.73426199 -2.36932182 -2.49513626  3222254661
-2.49513626 0.96670640 7.89875460  1064794642
7.92562771 -1.61768901 -2.49513626  3215886070
-2.49513626 0.96670640 7.99406958  1064794642
8.01280594 -1.10790396 -2.49513626  3212495736
-2.49513626 0.96670640 8.04412746  1064794642
8.05670738 -0.72247779 -2.49513626  3206018408
-2.49513626 0.96670640 8.08207989  1064794642
8.08640766 -0.20614491 -2.49513626  3181208352
-2.49513626 0.96670640 8.08886623  1064794642
8.07704926 0.44020560 -2.49513626  1058126757
-2.49513626 0.96670640 8.05884743  1064794642
8.04665661 0.82693207 -2.49513626  1071396098
-2.49513626 0.96670640 7.84493876  1064794642
7.81240940 2.09732342 -2.49513626  1074672728
-2.49513626 0.96670640 7.61999416  1064794642
7.48109770 3.07663512 -2.49513626  1078757518
-2.49513626 0.96670640 7.32499552  1064794642
7.21154356 3.66417074 -2.49513626  1081680966
-2.49513626 0.96670640 7.02758026  1064794642
6.96264744 4.11752892 -2.49513626  1082839287
-2.49513626 0.96670640 6.75723743  1064794642
6.53628874 4.76543999 -2.49513626  1084168772
-2.49513626 0.96670640 6.30030870  1064794642
5.96322298 5.46557188 -2.49513626  1085402409
-2.49513626 0.96670640 5.78545523  1064794642
5.50776577 5.92427254 -2.49513626  1086348985
-2.49513626 0.96670640 5.31556034  1064794642
5.11791992 6.26413584 -2.49513626  1087048568
-2.49513626 0.96670640 4.81172085  1064794642
7.54785442 -2.18085957 -2.49513626  3221476797
-2.49513626 0.96756452 7.61371517  1064809039
7.64373112 -1.81649315 -2.49513626  3215557415
-2.49513626 0.96756452 7.76436996  1064809039
7.79877424 -0.95151752 -2.49513626  3209929784
-2.49513626 0.96756452 7.82520437  1064809039
7.83542442 -0.57653230 -2.49513626  3202810844
-2.49513626 0.96756452 7.84985113  1064809038
7.85405493 -0.20022160 -2.49513626  1043646702
-2.49513626 0.96756452 7.85079718  1064809038
7.80160522 0.92800725 -2.49513626  1067877907
-2.49513626 0.96756452 7.72635746  1064809039
7.70259571 1.54799628 -2.49513626  1070981423
-2.49513626 0.96756452 7.64917135  1064809039
7.61952066 1.91549551 -2.49513626  1073897261
-2.49513626 0.96756452 7.51892805  1064809039
7.40104151 2.63644218 -2.49513626  1077397966
-2.49513626 0.96756452 7.26613569  1064809039
7.21743584 3.10400510 -2.49513626  1079333456
-2.49513626 0.96756452 7.00432777  1064809039
6.76258183 3.99921536 -2.49513626  1082577882
-2.49513626 0.96756452 6.56307173  1064809039
6.27367258 4.72940779 -2.49513626  1084075641
-2.49513626 0.96756452 5.70627546  1064809039
5.61921597 5.49096346 -2.49513626  1085628055
-2.49513626 0.96756446 5.34950733  1064809039
5.06748819 6.00390005 -2.49513626  1086666217
-2.49513626 0.96756446 4.57190371  1064809038
7.36889553 -2.00208831 -2.49513626  3217258452
-2.49513626 0.96837741 7.52676916  1064822677
7.56406975 -1.04585862 -2.49513626  3211575275
-2.49513626 0.96837741 7.60551262  1064822677
7.62342739 -0.43853390 -2.49513626  3192341839
-2.49513626 0.96837741 7.63586998  1064822677
7.60753298 0.65908992 -2.49513626  1063708256
-2.49513626 0.96837741 7.54986620  1064822677
7.48634195 1.50453627 -2.49513626  1070587901
-2.49513626 0.96837741 7.43441868  1064822677
7.37489557 1.97986841 -2.49513626  1074150813
-2.49513626 0.96837741 7.23330069  1064822677
7.15137386 2.67708945 -2.49513626  1077059801
