# .PCD v0.7 - Point Cloud Data file format
VERSION 0.7
FIELDS x y z intensity
SIZE 4 4 4 4
TYPE F F F F
COUNT 1 1 1 1
WIDTH 1011
HEIGHT 1
VIEWPOINT 0 0 0 1 0 0 0
POINTS 1011
DATA ascii
-2.49513626 0.96158755 -0.98126400  1064708762
-0.82947373 -9.43280029 -2.49513626  3239517812
-2.49513626 0.96158755 -0.52529019  1064708762
-0.37297338 -9.46185207 -2.49513626  3239543004
-2.49513626 0.96158755 0.54156727  1064708762
0.69372970 -9.44375324 -2.49513626  3239503580
-2.49513626 0.96158755 1.14897823  1064708762
1.30018580 -9.37951279 -2.49513626  3239400208
-2.49513626 0.96158755 2.19898510  1064708762
2.49443483 -9.13474560 -2.49513626  3239149193
-2.49513626 0.96158755 3.07726407  1064708762
3.36404300 -8.85149670 -2.49513626  3225638768
-2.49513626 0.96273869 -8.58578205  1064728075
-8.53328800 -3.32872462 -2.49513626  3227373100
-2.49513626 0.96273869 -8.36257935  1064728075
-8.03491688 -4.39744329 -2.49513626  3230717725
-2.49513626 0.96273869 -7.88914490  1064728074
-7.81317902 -4.78033352 -2.49513626  3231513128
-2.49513626 0.96273869 -7.57320642  1064728075
-7.40337753 -5.39327335 -2.49513626  3232784539
-2.49513626 0.96273869 -6.94560242  1064728074
-6.74971104 -6.19183350 -2.49513626  3234436937
-2.49513626 0.96273863 -6.54682779  1064728075
-6.33714485 -6.61346960 -2.49513626  3235307131
-2.49513626 0.96273869 -6.12089539  1064728075
-5.89829111 -7.00767994 -2.49513626  3236118926
-2.49513626 0.96273869 -5.55299139  1064728075
-5.31554365 -7.45938015 -2.49513626  3237046407
-2.49513626 0.96273869 -5.07258129  1064728075
-4.94911718 -7.70737648 -2.49513626  3237714858
-2.49513626 0.96273863 -4.44272375  1064728074
-4.18248177 -8.14888191 -2.49513626  3238228313
-2.49513626 0.96273869 -3.64926052  1064728075
-3.37683392 -8.51436424 -2.49513626  3238651429
-2.49513626 0.96273869 -2.96171808  1064728075
-2.68107700 -8.75838184 -2.49513626  3238883673
-2.49513626 0.96273869 -2.25498676  1064728075
-2.11173677 -8.91279888 -2.49513626  3238994272
-2.49513626 0.96273869 -1.82363296  1064728075
-1.67885435 -9.00437832 -2.49513626  3239107648
-2.49513626 0.96273869 -1.24205184  1064728075
-1.09575546 -9.09377766 -2.49513626  3239166857
-2.49513626 0.96273869 -0.65531862  1064728075
-0.50811470 -9.14544773 -2.49513626  3239211114
-2.49513626 0.96273869 -0.06586690  1064728075
0.08163409 -9.15918827 -2.49513626  3239210448
-2.49513626 0.96273869 0.52385747  1064728075
0.67104417 -9.13493824 -2.49513626  3239165130
-2.49513626 0.96273869 1.40360689  1064728074
1.54917955 -9.02759171 -2.49513626  3239022978
-2.49513626 0.96273869 1.98333502  1064728074
2.12707710 -8.90914822 -2.49513626  3238879332
-2.49513626 0.96273869 2.69614792  1064728075
2.97663593 -8.66239262 -2.49513626  3238592036
-2.49513626 0.96273869 -8.36139774  1064746223
-8.31272030 -3.08940220 -2.49513626  3226354514
-2.49513626 0.96382040 -8.15382957  1064746223
-8.03730583 -3.74799514 -2.49513626  3229097891
-2.49513626 0.96382046 -7.91244316  1064746224
-7.84693098 -4.13176203 -2.49513626  3230154280
-2.49513626 0.96382046 -7.63824034  1064746223
-7.56468916 -4.62830448 -2.49513626  3231437562
-2.49513626 0.96382040 -7.33235312  1064746223
-7.08290958 -5.33649874 -2.49513626  3232654649
-2.49513626 0.96382046 -6.90738916  1064746223
-6.53504133 -5.99491072 -2.49513626  3234016761
-2.49513626 0.96382040 -6.33861685  1064746223
-6.23791409 -6.30350924 -2.49513626  3234653819
-2.49513626 0.96382046 -5.92622995  1064746223
-5.81922054 -6.69197130 -2.49513626  3235645254
-2.49513626 0.96382046 -5.37638617  1064746223
-5.26211977 -7.13834047 -2.49513626  3236543241
-2.49513626 0.96382046 -4.91125631  1064746223
-4.79171324 -7.46225834 -2.49513626  3237190438
-2.49513626 0.96382040 -4.42575407  1064746224
-4.17598915 -7.82348442 -2.49513626  3237771412
-2.49513626 0.96382040 -3.79329705  1064746224
-3.66372204 -8.07606697 -2.49513626  3238258093
-2.49513626 0.96382046 -3.13626742  1064746224
-3.00228667 -8.34458447 -2.49513626  3238413565
-2.49513626 0.96382046 -2.73201990  1064746223
-2.59580588 -8.47982979 -2.49513626  3238662594
-2.49513626 0.96382046 -1.90535331  1064746224
-1.76563168 -8.69070053 -2.49513626  3238755575
-2.49513626 0.96382040 -1.48486006  1064746224
-1.34387875 -8.76583004 -2.49513626  3238846330
-2.49513626 0.96382040 -0.91898686  1064746223
-0.77683157 -8.83415222 -2.49513626  3238898787
-2.49513626 0.96382046 -0.34930387  1064746223
0.07903790 -8.86788940 -2.49513626  3238897884
-2.49513626 0.96382046 0.64970404  1064746224
0.93417424 -8.81890774 -2.49513626  3238825031
-2.49513626 0.96382046 1.78059292  1064746224
1.92025721 -8.65784550 -2.49513626  3238658887
-2.49513626 0.96382046 2.33612657  1064746224
2.47358155 -8.51628304 -2.49513626  3238501129
-2.49513626 0.96382040 2.74653959  1064746224
2.88196778 -8.38689232 -2.49513626  3238306502
-2.49513626 0.96382046 -8.10248947  1064763310
-8.00607300 -3.12306428 -2.49513626  3226475010
-2.49513626 0.96483886 -7.90135288  1064763310
-7.84591246 -3.50605440 -2.49513626  3228070334
-2.49513626 0.96483886 -7.72894335  1064763310
-7.66744232 -3.88085628 -2.49513626  3229622103
-2.49513626 0.96483886 -7.53849554  1064763310
-7.47108126 -4.24661398 -2.49513626  3230382422
-2.49513626 0.96483886 -7.10531235  1064763310
-6.86358929 -5.17125654 -2.49513626  3232300760
-2.49513626 0.96483886 -6.69350624  1064763310
-6.60585070 -5.49668121 -2.49513626  3232974445
-2.49513626 0.96483886 -6.42541933  1064763310
-6.04476118 -6.10832453 -2.49513626  3234437127
-2.49513626 0.96483886 -5.63903284  1064763310
-5.42728424 -6.66298246 -2.49513626  3235732106
-2.49513626 0.96483886 -4.98713541  1064763310
-4.40807343 -7.37696648 -2.49513626  3237124475
-2.49513626 0.96483886 -3.67584181  1064763310
-3.16820312 -7.98832035 -2.49513626  3238093076
-2.49513626 0.96483886 -2.64742756  1064763310
-2.51543045 -8.21726036 -2.49513626  3238271860
-2.49513626 0.96483886 -2.11566472  1064763310
-1.98126721 -8.36213779 -2.49513626  3238414735
-2.49513626 0.96483886 -1.57512856  1064763310
-1.43888414 -8.47233105 -2.49513626  3238521107
-2.49513626 0.96483886 -0.75277770  1064763310
-0.61483091 -8.57162380 -2.49513626  3238611295
-2.49513626 0.96483886 -0.06179745  1064763310
0.07659050 -8.59330463 -2.49513626  3238617556
-2.49513626 0.96483886 0.62958509  1064763310
0.76751560 -8.55930614 -2.49513626  3238575039
-2.49513626 0.96483886 1.45346606  1064763310
1.99566031 -8.35871792 -2.49513626  3238343991
-2.49513626 0.96483886 2.26378918  1064763310
3.05299163 -8.03305626 -2.49513626  3224485414
-2.49513626 0.96579927 -7.76449442  1064779423
-7.71471310 -3.15347028 -2.49513626  3227610671
-2.49513626 0.96579927 -7.49572563  1064779423
-7.43608189 -3.76375699 -2.49513626  3229123398
-2.49513626 0.96579927 -7.31102276  1064779423
-7.24564314 -4.11847353 -2.49513626  3230822747
-2.49513626 0.96579927 -6.73638296  1064779423
-6.57486248 -5.12175274 -2.49513626  3232831865
-2.49513626 0.96579927 -6.14160585  1064779423
-5.86236238 -5.92400885 -2.49513626  3233845376
-2.49513626 0.96579927 -5.56944323  1064779423
-5.15877819 -6.54585171 -2.49513626  3235294380
-2.49513626 0.96579927 -4.72672606  1064779423
-4.61557627 -6.93956995 -2.49513626  3236082962
-2.49513626 0.96579921 -4.27506447  1064779423
-4.15930462 -7.22228384 -2.49513626  3236510192
-2.49513626 0.96579927 -3.92457318  1064779423
-3.32048464 -7.64431429 -2.49513626  3237472684
-2.49513626 0.96579927 -2.94745231  1064779423
-2.82153416 -7.84220076 -2.49513626  3237853772
-2.49513626 0.96579927 -2.18163729  1064779423
-2.05182576 -8.07782078 -2.49513626  3238149179
-2.49513626 0.96579927 -1.65933609  1064779423
-1.52759910 -8.19314384 -2.49513626  3238229894
-2.49513626 0.96579927 -1.26297247  1064779423
-1.13015103 -8.25735950 -2.49513626  3238306215
-2.49513626 0.96579927 -0.59627759  1064779423
-0.46233687 -8.32150173 -2.49513626  3238350895
-2.49513626 0.96579927 -0.05993273  1064779423
0.07427940 -8.33400536 -2.49513626  3238345878
-2.49513626 0.96579927 0.47666213  1064779423
0.74435675 -8.30102921 -2.49513626  3238304644
-2.49513626 0.96579927 1.01127684  1064779423
1.27715206 -8.23590088 -2.49513626  3238227364
-2.49513626 0.96579921 1.54170084  1064779423
1.67339373 -8.16461563 -2.49513626  3238080571
-2.49513626 0.96579927 2.19547963  1064779423
2.32466149 -8.00356770 -2.49513626  3237929493
-2.49513626 0.96579927 2.58118582  1064779422
2.70846152 -7.88196898 -2.49513626  3237563673
-2.49513626 0.96579927 -7.62671900  1064794642
-7.58232546 -2.81795216 -2.49513626  3225166781
-2.49513626 0.96670640 -7.48764896  1064794642
-7.43739462 -3.18082929 -2.49513626  3226678837
-2.49513626 0.96670640 -7.33110809  1064794642
-7.27510643 -3.53628683 -2.49513626  3228158578
-2.49513626 0.96670640 -6.76049566  1064794642
-6.38134813 -4.97100592 -2.49513626  3232075968
-2.49513626 0.96670640 -6.04812527  1064794642
-5.96084213 -5.46816778 -2.49513626  3232892856
-2.49513626 0.96670640 -5.78167295  1064794642
-5.68981934 -5.74964952 -2.49513626  3233661348
-2.49513626 0.96670640 -5.40551996  1064794642
-5.30791378 -6.10397959 -2.49513626  3234204036
-2.49513626 0.96670640 -4.79976177  1064794642
-4.69429445 -6.58757305 -2.49513626  3235197349
-2.49513626 0.96670640 -4.37068892  1064794642
-4.26051521 -6.87608242 -2.49513626  3235787677
-2.49513626 0.96670640 -4.03688526  1064794642
-3.80906463 -7.13607121 -2.49513626  3236317595
-2.49513626 0.96670640 -3.46000028  1064794642
-3.34181118 -7.36646366 -2.49513626  3236891733
-2.49513626 0.96670640 -2.86069942  1064794642
-2.73848963 -7.61138487 -2.49513626  3237364359
-2.49513626 0.96670640 -2.36772561  1064794642
-2.11742616 -7.80698395 -2.49513626  3237732408
-2.49513626 0.96670640 -1.61049712  1064794642
-1.48263824 -7.95199871 -2.49513626  3238017707
-2.49513626 0.96670640 -0.96768969  1064794642
-0.31861091 -8.08275890 -2.49513626  3238095829
-2.49513626 0.96670640 0.20233716  1064794642
0.33252892 -8.08219814 -2.49513626  3238082164
-2.49513626 0.96670640 0.59261650  1064794642
0.85209286 -8.04403019 -2.49513626  3237989052
-2.49513626 0.96670640 1.62414277  1064794642
1.75153494 -7.89712763 -2.49513626  3237725653
-2.49513626 0.96670640 2.13086343  1064794642
2.50521541 -7.69131899 -2.49513626  3223817706
-2.49513626 0.96756446 -7.31942844  1064809038
-7.27250051 -2.97271013 -2.49513626  3228657382
-2.49513626 0.96756452 -6.76691151  1064809039
-6.42391443 -4.52322626 -2.49513626  3231140262
-2.49513626 0.96756452 -6.03929567  1064809038
-5.95758772 -5.12185574 -2.49513626  3232166578
-2.49513626 0.96756452 -5.78956223  1064809039
-5.70329189 -5.40358067 -2.49513626  3232748734
-2.49513626 0.96756452 -5.25019884  1064809038
-5.05925989 -6.01083708 -2.49513626  3234000330
-2.49513626 0.96756452 -4.86307287  1064809039
-4.55940866 -6.39828491 -2.49513626  3234795872
-2.49513626 0.96756452 -4.35100746  1064809039
-3.58752370 -6.98970222 -2.49513626  3236003192
-2.49513626 0.96756452 -2.89647937  1064809038
-2.77850127 -7.34888983 -2.49513626  3236729044
-2.49513626 0.96756452 -2.42036772  1064809039
-2.29969215 -7.51250029 -2.49513626  3237258101
-2.49513626 0.96756446 -1.56421959  1064809039
-1.31547892 -7.74569464 -2.49513626  3237613271
-2.49513626 0.96756446 -0.43583778  1064809039
-0.30945647 -7.85050869 -2.49513626  3237697497
-2.49513626 0.96756452 -0.05649735  1064809039
0.07002240 -7.85629368 -2.49513626  3237657693
-2.49513626 0.96756452 0.82760864  1064809039
0.95330971 -7.79855442 -2.49513626  3237545913
-2.49513626 0.96756452 1.32880855  1064809039
2.19141269 -7.54479742 -2.49513626  3236972000
-2.49513626 0.96756452 2.67252707  1064809038
-7.19960499 -2.54453278 -2.49513626  3224476280
-2.49513626 0.96837741 -7.06832266  1064822677
-7.02088261 -3.00269532 -2.49513626  3226372821
-2.49513626 0.96837741 -6.75662422  1064822677
-6.69845819 -3.66600966 -2.49513626  3229109985
-2.49513626 0.96837741 -6.51360226  1064822677
-6.38189077 -4.19290113 -2.49513626  3230654690
-2.49513626 0.96837741 -6.09875917  1064822677
-6.02397633 -4.69261742 -2.49513626  3231268764
-2.49513626 0.96837741 -5.79032660  1064822677
-5.62702131 -5.16193676 -2.49513626  3232425218
-2.49513626 0.96837741 -5.28307962  1064822677
-4.82250643 -5.92050648 -2.49513626  3233802922
-2.49513626 0.96837741 -4.62935448  1064822677
-4.53096294 -6.14648914 -2.49513626  3234266936
-2.49513626 0.96837741 -4.22885323  1064822677
-4.02192450 -6.49090815 -2.49513626  3235472402
-2.49513626 0.96837741 -3.26623249  1064822677
-3.15466189 -6.95392418 -2.49513626  3236204524
-2.49513626 0.96837741 -2.58512831  1064822677
-2.46909165 -7.22582483 -2.49513626  3236538008
-2.49513626 0.96837741 -2.11726236  1064822677
-1.87991095 -7.40100622 -2.49513626  3236807980
-2.49513626 0.96837741 -1.64061189  1064822677
-0.91349715 -7.58119297 -2.49513626  3237153172
-2.49513626 0.96837741 -0.66889352  1064822677
-0.54631668 -7.61646223 -2.49513626  3237214727
-2.49513626 0.96837741 -0.05491117  1064822677
0.19100457 -7.63364124 -2.49513626  3237225851
-2.49513626 0.96837741 0.55942804  1064822677
0.80437160 -7.59354639 -2.49513626  3237121063
-2.49513626 0.96837741 1.04847896  1064822677
1.41252673 -7.50424719 -2.49513626  3236913276
-2.49513626 0.96837741 1.65344405  1064822677
1.89264750 -7.39775991 -2.49513626  3236673765
-2.49513626 0.96837741 2.36491656  1064822677
2.48152661 -7.22156239 -2.49513626  3236284422
-2.49513626 0.96837741 2.71278834  1064822677
-6.96119499 -2.58711076 -2.49513626  3224156742
-2.49513626 0.96914852 -6.87427425  1064835614
-6.82813883 -2.92026305 -2.49513626  3225544929
-2.49513626 0.96914852 -6.67914581  1064835614
-6.62599754 -3.35373402 -2.49513626  3227349150
-2.49513626 0.96914852 -6.39637327  1064835614
-6.33478212 -3.87580872 -2.49513626  3229777229
-2.49513626 0.96914852 -6.14021826  1064835614
-6.07215786 -4.27554655 -2.49513626  3230395829
-2.49513626 0.96914852 -5.78434992  1064835614
-5.63136482 -4.84139681 -2.49513626  3231567472
-2.49513626 0.96914852 -5.13804388  1064835614
-5.05103111 -5.44412136 -2.49513626  3232977817
-2.49513626 0.96914852 -4.78222704  1064835614
-4.50226450 -5.90601683 -2.49513626  3233761715
-2.49513626 0.96914852 -3.80934167  1064835614
-3.70619130 -6.43549109 -2.49513626  3234964965
-2.49513626 0.96914852 -3.28424764  1064835614
-3.17656422 -6.71273661 -2.49513626  3235510316
-2.49513626 0.96914852 -2.84868431  1064835614
-2.62635756 -6.94648600 -2.49513626  3236042293
-2.49513626 0.96914852 -1.94397008  1064835614
-1.47856879 -7.27772188 -2.49513626  3236535915
-2.49513626 0.96914852 -1.24344432  1064835614
-1.12538350 -7.34063196 -2.49513626  3236687916
-2.49513626 0.96914852 -0.76957482  1064835614
-0.65053040 -7.39785242 -2.49513626  3236787675
-2.49513626 0.96914852 -0.17298011  1064835614
-0.05340369 -7.42620754 -2.49513626  3236799137
-2.49513626 0.96914852 0.30528858  1064835614
0.42473501 -7.41424322 -2.49513626  3236713109
-2.49513626 0.96914852 0.90110755  1064835614
1.01969576 -7.35605764 -2.49513626  3236575387
-2.49513626 0.96914852 1.37374890  1064835614
1.49109519 -7.27516699 -2.49513626  3236430259
-2.49513626 0.96914852 1.72459590  1064835614
1.84069026 -7.19466543 -2.49513626  3236249665
-2.49513626 0.96914852 2.07141447  1064835614
2.18598795 -7.09738350 -2.49513626  3236034008
-2.49513626 0.96914852 2.41340208  1064835614
2.52618408 -6.98353243 -2.49513626  3222937575
-2.49513626 0.96988094 -6.77418280  1064847902
-6.68959808 -2.73444390 -2.49513626  3224756280
-2.49513626 0.96988094 -6.59807491  1064847902
-6.44799137 -3.26363635 -2.49513626  3226959279
-2.49513626 0.96988094 -6.33955002  1064847902
-6.16459990 -3.77168608 -2.49513626  3229070791
-2.49513626 0.96988094 -6.03994513  1064847902
-5.90902805 -4.16068316 -2.49513626  3230149468
-2.49513626 0.96988094 -5.55523539  1064847902
-5.48007679 -4.71133184 -2.49513626  3231289634
-2.49513626 0.96988094 -5.24616575  1064847902
-5.16544676 -5.05431080 -2.49513626  3231998204
-2.49513626 0.96988094 -4.82938671  1064847902
-4.74218273 -5.45340300 -2.49513626  3233278539
-2.49513626 0.96988094 -4.28819227  1064847902
-4.19396496 -5.88545132 -2.49513626  3233708193
-2.49513626 0.96988094 -3.90485334  1064847902
-3.80641961 -6.14321327 -2.49513626  3234235599
-2.49513626 0.96988094 -3.60662460  1064847902
-3.50530934 -6.31986618 -2.49513626  3234595853
-2.49513626 0.96988094 -3.29997802  1064847902
-3.09122515 -6.53239775 -2.49513626  3235126553
-2.49513626 0.96988094 -2.77215171  1064847902
-2.66432118 -6.71783352 -2.49513626  3235486409
-2.49513626 0.96988094 -2.33679557  1064847902
-2.22637057 -6.87540388 -2.49513626  3235787110
-2.49513626 0.96988094 -1.89174545  1064847902
-1.55270612 -7.05811644 -2.49513626  3236206314
-2.49513626 0.96988094 -0.74889863  1064847902
-0.63305199 -7.19910669 -2.49513626  3236342515
-2.49513626 0.96988094 -0.40090078  1064847902
0.18077131 -7.22462559 -2.49513626  3236356545
-2.49513626 0.96988094 0.87690216  1064847902
0.99230319 -7.15843773 -2.49513626  3236163008
-2.49513626 0.96988094 1.45103753  1064847902
1.56485116 -7.05543280 -2.49513626  3235967020
-2.49513626 0.96988094 1.79123938  1064847902
1.90375006 -6.97163153 -2.49513626  3235709897
-2.49513626 0.96988094 2.34856677  1064847902
2.56743646 -6.75545406 -2.49513626  3222671835
-2.49513626 0.97057742 -6.59596109  1064859587
-6.55563259 -2.55726695 -2.49513626  3224442692
-2.49513626 0.97057742 -6.42448664  1064859587
-6.27835178 -3.17777300 -2.49513626  3226587732
-2.49513626 0.97057742 -6.11756277  1064859587
-6.00241518 -3.67245817 -2.49513626  3228643695
-2.49513626 0.97057742 -5.88104105  1064859587
-5.68758774 -4.14334202 -2.49513626  3230105636
-2.49513626 0.97057742 -5.55121565  1064859587
-5.48085928 -4.41317463 -2.49513626  3231024855
-2.49513626 0.97057742 -5.18541241  1064859587
-5.10814524 -4.83970928 -2.49513626  3231546264
-2.49513626 0.97057742 -4.86846495  1064859587
-4.70233107 -5.23488522 -2.49513626  3232667259
-2.49513626 0.97057736 -4.35560369  1064859587
-4.26604319 -5.59614611 -2.49513626  3233243439
-2.49513626 0.97057742 -3.89697218  1064859587
-3.80211782 -5.92113447 -2.49513626  3233769781
-2.49513626 0.97057742 -3.60947561  1064859587
-3.51173782 -6.09783840 -2.49513626  3234244091
-2.49513626 0.97057742 -3.11192966  1064859587
-2.80351710 -6.45416307 -2.49513626  3234853756
-2.49513626 0.97057742 -2.59422755  1064859587
-2.48855948 -6.58202124 -2.49513626  3235111220
-2.49513626 0.97057742 -2.27531767  1064859587
-2.16779852 -6.69451809 -2.49513626  3235404010
-2.49513626 0.97057742 -1.73237562  1064859587
-1.62232590 -6.84718847 -2.49513626  3235637994
-2.49513626 0.97057742 -1.40099192  1064859587
-1.28976572 -6.91754580 -2.49513626  3235774292
-2.49513626 0.97057742 -0.72919714  1064859587
-0.39035392 -7.02591944 -2.49513626  3235978617
-2.49513626 0.97057742 -0.05060174  1064859587
0.28927094 -7.03080797 -2.49513626  3235958462
-2.49513626 0.97057742 0.51552594  1064859587
0.62846649 -7.00863457 -2.49513626  3235900514
-2.49513626 0.97057742 0.96619713  1064859587
1.19014525 -6.93537951 -2.49513626  3235579188
-2.49513626 0.97057742 1.85366523  1064859587
1.96273375 -6.75748682 -2.49513626  3235257049
-2.49513626 0.97057742 2.28677750  1064859587
-6.38661480 -2.49133515 -2.49513626  3223716293
-2.49513626 0.97124052 -6.30307674  1064870711
-6.25884819 -2.79685378 -2.49513626  3224988928
-2.49513626 0.97124046 -6.16554022  1064870711
-6.11647987 -3.09584284 -2.49513626  3226233205
-2.49513626 0.97124046 -6.01361513  1064870712
-5.95983934 -3.38761377 -2.49513626  3227446250
-2.49513626 0.97124046 -5.84765816  1064870712
-5.78928757 -3.67147875 -2.49513626  3229876687
-2.49513626 0.97124046 -5.40809441  1064870711
-5.26962614 -4.38481855 -2.49513626  3230772205
-2.49513626 0.97124046 -5.05172157  1064870711
-4.97644711 -4.71493101 -2.49513626  3231280173
-2.49513626 0.97124046 -4.66262197  1064870711
-4.58109570 -5.09991884 -2.49513626  3232074096
-2.49513626 0.97124046 -4.24330664  1064870711
-3.97834277 -5.58286667 -2.49513626  3233066419
-2.49513626 0.97124052 -3.79650021  1064870711
-3.61072111 -5.82737494 -2.49513626  3233797774
-2.49513626 0.97124052 -3.22812223  1064870711
-3.13031769 -6.09891272 -2.49513626  3234119870
-2.49513626 0.97124046 -2.83213258  1064870712
-2.73123384 -6.28775883 -2.49513626  3234589472
-2.49513626 0.97124046 -2.42439961  1064870711
-2.32082891 -6.45053101 -2.49513626  3234829840
-2.49513626 0.97124046 -2.00661063  1064870712
-1.90079439 -6.58654261 -2.49513626  3235159660
-2.49513626 0.97124046 -1.58049679  1064870711
-1.47287536 -6.69523668 -2.49513626  3235314327
-2.49513626 0.97124046 -1.25651324  1064870711
-1.14782786 -6.75855494 -2.49513626  3235498899
-2.49513626 0.97124052 -0.71039581  1064870711
-0.49046278 -6.83776665 -2.49513626  3235597651
-2.49513626 0.97124046 0.28181291  1064870711
0.72213560 -6.81719208 -2.49513626  3235465975
-2.49513626 0.97124052 1.05050981  1064870711
1.37643492 -6.71572781 -2.49513626  3235261066
-2.49513626 0.97124046 1.59198081  1064870711
1.69914734 -6.64142036 -2.49513626  3235094360
-2.49513626 0.97124046 1.91212821  1064870712
2.12313080 -6.51827431 -2.49513626  3234821811
-2.49513626 0.97124046 -6.30010843  1064881315
-6.18522835 -2.52827811 -2.49513626  3225089166
-2.49513626 0.97187251 -5.96183777  1064881315
-5.91247320 -3.11318374 -2.49513626  3226686304
-2.49513626 0.97187251 -5.75522995  1064881314
-5.52475405 -3.75850844 -2.49513626  3229339187
-2.49513626 0.97187251 -5.27136040  1064881315
-5.13639402 -4.27395725 -2.49513626  3230530832
-2.49513626 0.97187251 -4.92399740  1064881315
-4.38464212 -5.04223967 -2.49513626  3231946516
-2.49513626 0.97187245 -4.21999645  1064881315
-4.05097723 -5.31402254 -2.49513626  3232637575
-2.49513626 0.97187245 -3.61044097  1064881315
-3.24102283 -5.84337378 -2.49513626  3233587778
-2.49513626 0.97187251 -2.95504904  1064881315
-2.46344423 -6.21133614 -2.49513626  3234333090
-2.49513626 0.97187251 -2.26214933  1064881315
-2.16061115 -6.32305384 -2.49513626  3234557122
-2.49513626 0.97187251 -1.95587862  1064881315
-1.54053891 -6.50199938 -2.49513626  3234911408
-2.49513626 0.97187251 -0.90609252  1064881315
-0.79936630 -6.63402319 -2.49513626  3235163215
-2.49513626 0.97187251 -0.47806159  1064881315
-0.04804995 -6.68183565 -2.49513626  3235238104
-2.49513626 0.97187251 0.16714126  1064881315
0.38216126 -6.67107153 -2.49513626  3235201003
-2.49513626 0.97187251 0.59678429  1064881315
1.13014519 -6.58574390 -2.49513626  3234953292
-2.49513626 0.97187251 1.44686866  1064881315
1.55173004 -6.49933720 -2.49513626  3234743708
-2.49513626 0.97187251 2.06945229  1064881315
2.17149401 -6.31932354 -2.49513626  3234403006
-2.49513626 0.97187251 2.37386107  1064881315
-6.10804796 -2.27004075 -2.49513626  3223987460
-2.49513626 0.97247547 -5.71615505  1064891431
-5.66503716 -3.22004533 -2.49513626  3226723596
-2.49513626 0.97247547 -5.55840731  1064891431
-5.50292206 -3.48986936 -2.49513626  3228571982
-2.49513626 0.97247547 -5.20440054  1064891431
-5.14058399 -4.00446320 -2.49513626  3230463343
-2.49513626 0.97247547 -4.73028708  1064891431
-4.65750694 -4.55729961 -2.49513626  3231243368
-2.49513626 0.97247547 -4.35449266  1064891431
-4.27586460 -4.91714716 -2.49513626  3231958489
-2.49513626 0.97247547 -3.95047760  1064891431
-3.86651564 -5.24513054 -2.49513626  3232354450
-2.49513626 0.97247547 -3.69561028  1064891431
-3.52087283 -5.48313665 -2.49513626  3232956252
-2.49513626 0.97247547 -2.97547626  1064891431
-2.88173699 -5.84439182 -2.49513626  3233928425
-2.49513626 0.97247547 -2.30447865  1064891431
-2.10700893 -6.16618538 -2.49513626  3234226378
-2.49513626 0.97247547 -1.90735579  1064891431
-1.60422850 -6.31567812 -2.49513626  3234522864
-2.49513626 0.97247547 -1.40002227  1064891431
-1.29735720 -6.38578033 -2.49513626  3234838483
-2.49513626 0.97247547 -0.46620214  1064891431
-0.25666264 -6.51117945 -2.49513626  3234887301
-2.49513626 0.97247547 -0.04685865  1064891431
0.05807560 -6.51597643 -2.49513626  3234879458
-2.49513626 0.97247547 0.37268034  1064891431
0.68641514 -6.47998095 -2.49513626  3234790036
-2.49513626 0.97247547 0.99854660  1064891431
1.10210824 -6.42235947 -2.49513626  3234655169
-2.49513626 0.97247547 1.30835009  1064891431
1.61509931 -6.31290436 -2.49513626  3234408336
-2.49513626 0.97247547 1.91807795  1064891431
2.11762166 -6.16254997 -2.49513626  3221722474
-2.49513626 0.97305137 -5.95925808  1064901092
-5.88485050 -2.40549350 -2.49513626  3223322389
-2.49513626 0.97305131 -5.76181698  1064901092
-5.67230654 -2.87102556 -2.49513626  3225638708
-2.49513626 0.97305131 -5.47573423  1064901092
-5.19818115 -3.66015887 -2.49513626  3228537769
-2.49513626 0.97305131 -5.01536131  1064901092
-4.95179844 -3.98717570 -2.49513626  3230078930
-2.49513626 0.97305131 -4.61506081  1064901092
-4.54405308 -4.44628382 -2.49513626  3231144093
-2.49513626 0.97305131 -4.17170572  1064901092
-3.93516207 -4.99323130 -2.49513626  3232083355
-2.49513626 0.97305131 -3.43510604  1064901092
-3.17275262 -5.50921869 -2.49513626  3232884789
-2.49513626 0.97305131 -2.90299559  1064901092
-2.81154013 -5.70202541 -2.49513626  3233276880
-2.49513626 0.97305137 -2.62646580  1064901092
-2.53289628 -5.83114862 -2.49513626  3233618987
-2.49513626 0.97305131 -2.24834108  1064901092
-2.05568314 -6.01598072 -2.49513626  3234035369
-2.49513626 0.97305131 -1.66417170  1064901092
-1.46572542 -6.18623447 -2.49513626  3234246765
-2.49513626 0.97305131 -1.16526592  1064901092
-1.06447494 -6.26775551 -2.49513626  3234404144
-2.49513626 0.97305137 -0.86208898  1064901092
-0.76054698 -6.31184673 -2.49513626  3234486341
-2.49513626 0.97305137 -0.25040978  1064901092
0.05666076 -6.35725164 -2.49513626  3234536301
-2.49513626 0.97305131 0.66969448  1064901092
0.77141052 -6.31052828 -2.49513626  3234366045
-2.49513626 0.97305131 1.17602289  1064901092
1.27647936 -6.22803879 -2.49513626  3234241813
-2.49513626 0.97305131 1.96895027  1064901093
-5.85069990 -2.06779528 -2.49513626  3221903864
-2.49513626 0.97360182 -5.78107977  1064910328
-5.74401474 -2.34792686 -2.49513626  3224590635
-2.49513626 0.97360182 -5.49071598  1064910328
-5.44344664 -2.97915268 -2.49513626  3227128228
-2.49513626 0.97360182 -5.13065100  1064910328
-5.07378006 -3.57256579 -2.49513626  3228162019
-2.49513626 0.97360182 -4.83329296  1064910328
-4.70546246 -4.04538059 -2.49513626  3230175895
-2.49513626 0.97360182 -4.43530607  1064910328
-4.36484194 -4.41073990 -2.49513626  3230621665
-2.49513626 0.97360182 -4.22054577  1064910328
-3.99593735 -4.74752140 -2.49513626  3231446435
-2.49513626 0.97360182 -3.76200700  1064910328
-3.68205142 -4.99489498 -2.49513626  3231943746
-2.49513626 0.97360182 -3.26837826  1064910328
-3.09682417 -5.37737370 -2.49513626  3232605762
-2.49513626 0.97360182 -2.92205477  1064910328
-2.65427732 -5.60903502 -2.49513626  3233161621
-2.49513626 0.97360182 -2.38030648  1064910328
-2.00648713 -5.87200832 -2.49513626  3233606131
-2.49513626 0.97360182 -1.81635725  1064910328
-1.62434614 -5.98898792 -2.49513626  3233838517
-2.49513626 0.97360182 -1.43064678  1064910328
-1.33322966 -6.06044292 -2.49513626  3233978519
-2.49513626 0.97360182 -0.84145790  1064910329
-0.44396064 -6.18945742 -2.49513626  3234219014
-2.49513626 0.97360182 -0.24441770  1064910328
0.05530561 -6.20511198 -2.49513626  3234234978
-2.49513626 0.97360182 0.25509331  1064910328
0.35490158 -6.19520140 -2.49513626  3234204080
-2.49513626 0.97360182 0.55421346  1064910328
0.65366751 -6.17083502 -2.49513626  3234142896
-2.49513626 0.97360182 1.14787877  1064910328
1.24593079 -6.07899094 -2.49513626  3233883285
-2.49513626 0.97360182 1.53804636  1064910328
1.63465178 -5.98618317 -2.49513626  3233722571
-2.49513626 0.97360188 1.92183089  1064910328
2.01659393 -5.86854601 -2.49513626  3233463008
-2.49513626 0.97360182 2.20452642  1064910329
-5.71305704 -2.01914692 -2.49513626  3221690551
-2.49513626 0.97412860 -5.60888147  1064919166
-5.44967222 -2.64897823 -2.49513626  3224314112
-2.49513626 0.97412860 -5.36154366  1064919166
-5.26785278 -2.99428391 -2.49513626  3225749979
-2.49513626 0.97412860 -5.16869783  1064919166
-5.06418419 -3.32716727 -2.49513626  3227132253
-2.49513626 0.97412860 -4.89759922  1064919166
-4.83951092 -3.64624619 -2.49513626  3229092746
-2.49513626 0.97412860 -4.59476376  1064919166
-4.46517611 -4.09612274 -2.49513626  3229965324
-2.49513626 0.97412860 -4.33096266  1064919166
-4.26215458 -4.30697393 -2.49513626  3230400606
-2.49513626 0.97412860 -4.12125397  1064919166
-4.04919291 -4.50777674 -2.49513626  3230814485
-2.49513626 0.97412860 -3.90193081  1064919166
-3.59542871 -4.87738752 -2.49513626  3231574183
-2.49513626 0.97412860 -3.27401853  1064919166
-3.10812759 -5.20149231 -2.49513626  3232338026
-2.49513626 0.97412860 -2.85331130  1064919166
-2.32430887 -5.59585476 -2.49513626  3233250255
-2.49513626 0.97412860 -1.77362633  1064919166
-1.68009853 -5.82179022 -2.49513626  3233489807
-2.49513626 0.97412860 -1.39698923  1064919166
-1.20639873 -5.93806124 -2.49513626  3233717619
-2.49513626 0.97412860 -1.01455545  1064919165
-0.82166183 -6.00340319 -2.49513626  3233841636
-2.49513626 0.97412860 -0.43351522  1064919166
-0.33613601 -6.05004072 -2.49513626  3233932571
-2.49513626 0.97412860 0.05400385  1064919166
0.34655210 -6.04945374 -2.49513626  3233882112
-2.49513626 0.97412860 0.63828820  1064919166
0.73523551 -6.01459694 -2.49513626  3233812532
-2.49513626 0.97412860 0.92853725  1064919166
1.02483761 -5.97207642 -2.49513626  3233585499
-2.49513626 0.97412860 1.50186110  1064919166
1.78360033 -5.79092169 -2.49513626  3233243161
-2.49513626 0.97412860 -5.58086348  1064927629
-5.51445341 -2.15111637 -2.49513626  3222230594
-2.49513626 0.97463304 -5.44232416  1064927629
-5.36455011 -2.50162292 -2.49513626  3224756043
-2.49513626 0.97463304 -5.09818935  1064927629
-4.99869823 -3.17009854 -2.49513626  3226469106
-2.49513626 0.97463304 -4.89402390  1064927629
-4.83977556 -3.40779686 -2.49513626  3229021861
-2.49513626 0.97463304 -4.36185503  1064927629
-4.16353512 -4.20727539 -2.49513626  3230188308
-2.49513626 0.97463304 -3.73822594  1064927629
-3.58850098 -4.70735264 -2.49513626  3231561456
-2.49513626 0.97463304 -3.11764097  1064927629
-3.03621292 -5.08113289 -2.49513626  3232080897
-2.49513626 0.97463304 -2.78728819  1064927629
-2.61768889 -5.30888033 -2.49513626  3232530006
-2.49513626 0.97463304 -2.27052593  1064927629
-2.18220806 -5.50222445 -2.49513626  3232836672
-2.49513626 0.97463304 -2.00389314  1064927629
-1.91394711 -5.60118866 -2.49513626  3233095177
-2.49513626 0.97463304 -1.64122200  1064927629
-1.45723629 -5.73698282 -2.49513626  3233348966
-2.49513626 0.97463304 -1.17848384  1064927629
-0.89698088 -5.85080576 -2.49513626  3233524075
-2.49513626 0.97463322 -0.61338466  1064927629
-0.51850110 -5.89641094 -2.49513626  3233619745
-2.49513626 0.97463304 -0.23314507  1064927629
0.14805980 -5.91731167 -2.49513626  3233628366
-2.49513626 0.97463304 0.62352026  1064927629
1.18846703 -5.79862452 -2.49513626  3233299503
-2.49513626 0.97463304 1.55926108  1064927629
1.65100753 -5.68424988 -2.49513626  3233088902
-2.49513626 0.97463304 1.92358685  1064927629
-5.45378017 -1.92751336 -2.49513626  3221288742
-2.49513626 0.97511649 -5.38888407  1064935740
-5.35433054 -2.18863988 -2.49513626  3222377125
-2.49513626 0.97511649 -5.28107643  1064935740
-5.24239063 -2.44465756 -2.49513626  3223793244
-2.49513626 0.97511649 -5.07415533  1064935740
-5.02877903 -2.85839319 -2.49513626  3225498814
-2.49513626 0.97511649 -4.88487148  1064935740
-4.83435345 -3.17617083 -2.49513626  3226483474
-2.49513626 0.97511649 -4.72956705  1064935740
-4.67533112 -3.40592289 -2.49513626  3227436275
-2.49513626 0.97511649 -4.56323004  1064935740
-4.44639444 -3.69981050 -2.49513626  3228653314
-2.49513626 0.97511649 -4.32494402  1064935740
-4.06872368 -4.11150789 -2.49513626  3229984212
-2.49513626 0.97511649 -3.93421960  1064935740
-3.86542630 -4.30319881 -2.49513626  3230379303
-2.49513626 0.97511649 -3.72484851  1064935740
-3.58040833 -4.54309416 -2.49513626  3230872710
-2.49513626 0.97511649 -3.43225789  1064935740
-3.35683680 -4.71069813 -2.49513626  3231432963
-2.49513626 0.97511649 -2.88673019  1064935740
-2.80563807 -5.05839920 -2.49513626  3232017680
-2.49513626 0.97511649 -2.55808091  1064935740
-2.30455399 -5.30547285 -2.49513626  3232572270
-2.49513626 0.97511649 -1.95826316  1064935740
-1.87036407 -5.47364378 -2.49513626  3232824886
-2.49513626 0.97511649 -1.60384929  1064935740
-1.06021774 -5.68638897 -2.49513626  3233269075
-2.49513626 0.97511649 -0.41384161  1064935740
-0.22783601 -5.77988768 -2.49513626  3233355878
-2.49513626 0.97511649 0.05155374  1064935740
0.14468747 -5.78256559 -2.49513626  3233345938
-2.49513626 0.97511649 0.33082336  1064935740
0.42377424 -5.76883411 -2.49513626  3233307714
-2.49513626 0.97511649 0.60932064  1064935740
0.70186836 -5.74163628 -2.49513626  3233212916
-2.49513626 0.97511649 0.97832698  1064935740
1.16140497 -5.66658211 -2.49513626  3233068393
-2.49513626 0.97511649 1.34327757  1064935740
1.43370306 -5.60388279 -2.49513626  3232927728
-2.49513626 0.97511649 1.61341202  1064935740
1.79145169 -5.49997425 -2.49513626  3232697757
-2.49513626 0.97511649 1.96762931  1064935740
2.05496740 -5.40704441 -2.49513626  3220254869
-2.49513626 0.97558028 -5.26806021  1064943521
-5.23428392 -2.13956928 -2.49513626  3222163223
-2.49513626 0.97558028 -5.16267252  1064943521
-5.04523849 -2.55363727 -2.49513626  3224887553
-2.49513626 0.97558028 -4.72596312  1064943521
-4.67535067 -3.18065786 -2.49513626  3226491545
-2.49513626 0.97558028 -4.57050657  1064943521
-4.34670162 -3.61686039 -2.49513626  3228298699
-2.49513626 0.97558028 -3.71052885  1064943521
-3.64133406 -4.32621956 -2.49513626  3230420009
-2.49513626 0.97558028 -3.50013232  1064943521
-3.35530210 -4.55164099 -2.49513626  3230992589
-2.49513626 0.97558028 -3.13157892  1064943521
-3.05535555 -4.75818157 -2.49513626  3231305991
-2.49513626 0.97558028 -2.90055037  1064943521
-2.74273396 -4.94498682 -2.49513626  3231687142
-2.49513626 0.97558028 -2.58207178  1064943521
-2.50072694 -5.07167053 -2.49513626  3231944608
-2.49513626 0.97558028 -2.33611298  1064943521
-2.25288534 -5.18652010 -2.49513626  3232177066
-2.49513626 0.97558028 -2.08470297  1064943521
-1.91435742 -5.32078314 -2.49513626  3232447161
-2.49513626 0.97558028 -1.56788862  1064943521
-1.39212382 -5.48064566 -2.49513626  3232764741
-2.49513626 0.97558028 -1.21491694  1064943521
-1.12582612 -5.54148245 -2.49513626  3232883309
-2.49513626 0.97558028 -0.76678586  1064943521
-0.49533361 -5.63295031 -2.49513626  3233065950
-2.49513626 0.97558028 -0.22272713  1064943521
-0.04066320 -5.65454102 -2.49513626  3233083740
-2.49513626 0.97558028 0.23245664  1064943521
0.32340607 -5.64543056 -2.49513626  3233052343
-2.49513626 0.97558028 0.59565914  1064943521
0.68613189 -5.61290503 -2.49513626  3232971891
-2.49513626 0.97558028 0.86652243  1064943521
0.95639229 -5.57322168 -2.49513626  3232879552
-2.49513626 0.97558028 1.48959208  1064943521
1.66447783 -5.40416574 -2.49513626  3232440541
-2.49513626 0.97558028 1.92351425  1064943521
2.00889254 -5.28581667 -2.49513626  3219905744
-2.49513626 0.97602546 -5.18339443  1064950990
-5.04864264 -2.25605679 -2.49513626  3222639211
-2.49513626 0.97602546 -4.97337627  1064950990
-4.93380260 -2.49723482 -2.49513626  3223971977
-2.49513626 0.97602546 -4.62158203  1064950990
-4.52140665 -3.18362474 -2.49513626  3226493602
-2.49513626 0.97602546 -4.36238861  1064950990
-4.25069666 -3.53697205 -2.49513626  3228238429
-2.49513626 0.97602546 -3.95244098  1064950990
-3.88964796 -3.93054986 -2.49513626  3229726830
-2.49513626 0.97602546 -3.69529772  1064950990
-3.35244322 -4.39769363 -2.49513626  3230560118
-2.49513626 0.97602546 -3.13615847  1064950990
-2.98787022 -4.65308666 -2.49513626  3231366809
-2.49513626 0.97602546 -2.44549227  1064950990
-2.03865623 -5.14027882 -2.49513626  3232199306
-2.49513626 0.97602546 -1.27489436  1064950990
-1.10096085 -5.41908312 -2.49513626  3232625815
-2.49513626 0.97602546 -0.92588431  1064950990
-0.83797568 -5.46593046 -2.49513626  3232739001
-2.49513626 0.97602546 -0.57303506  1064950990
-0.39562729 -5.51562071 -2.49513626  3232804425
-2.49513626 0.97602546 -0.21780770  1064950990
-0.12880321 -5.52829027 -2.49513626  3232812480
-2.49513626 0.97602546 0.31626299  1064950990
0.40512267 -5.51492977 -2.49513626  3232775940
-2.49513626 0.97602546 0.58250380  1064950990
0.75927854 -5.47741508 -2.49513626  3232685314
-2.49513626 0.97602546 0.93526822  1064950990
1.02291095 -5.43435669 -2.49513626  3232460421
-2.49513626 0.97602546 1.45669079  1064950990
1.54240274 -5.31032658 -2.49513626  3232308504
-2.49513626 0.97602546 -5.07055616  1064958165
-4.93873787 -2.20694351 -2.49513626  3222755703
-2.49513626 0.97645313 -4.82639647  1064958165
-4.70279503 -2.67310143 -2.49513626  3224364855
-2.49513626 0.97645313 -4.52097368  1064958165
-4.37225914 -3.18513489 -2.49513626  3226489880
-2.49513626 0.97645313 -4.26742458  1064958165
-4.10190773 -3.52648926 -2.49513626  3227903150
-2.49513626 0.97645313 -3.98621821  1064958165
-3.92681694 -3.72046018 -2.49513626  3228963900
-2.49513626 0.97645313 -3.74256730  1064958165
-3.67918897 -3.96551800 -2.49513626  3229664934
-2.49513626 0.97645313 -3.41629410  1064958165
-3.34831285 -4.24859524 -2.49513626  3230568935
-2.49513626 0.97645313 -2.62376523  1064958165
-2.39225674 -4.85168743 -2.49513626  3231556475
-2.49513626 0.97645313 -2.15516663  1064958165
-1.99427795 -5.02837801 -2.49513626  3231899959
-2.49513626 0.97645313 -1.66646719  1064958165
-1.49988151 -5.19731474 -2.49513626  3232264217
-2.49513626 0.97645313 -1.16221893  1064958165
-0.99149048 -5.31777143 -2.49513626  3232438821
-2.49513626 0.97645313 -0.73352736  1064958165
-0.38701537 -5.39554882 -2.49513626  3232561029
-2.49513626 0.97645313 -0.12599930  1064958165
0.30937830 -5.40055895 -2.49513626  3232539346
-2.49513626 0.97645313 0.48312476  1064958165
0.82893699 -5.34552336 -2.49513626  3232406396
-2.49513626 0.97645313 1.08611822  1064958165
1.17131090 -5.28107643 -2.49513626  3232215846
-2.49513626 0.97645313 1.42497766  1064958165
1.59228051 -5.16975880 -2.49513626  3232012064
-2.49513626 0.97645313 1.84007978  1064958165
1.92175627 -5.05654192 -2.49513626  3221237336
-2.49513626 0.97686422 -4.86687565  1064965062
-4.83272600 -2.15957046 -2.49513626  3222542785
-2.49513626 0.97686422 -4.72279787  1064965062
-4.68369150 -2.46617508 -2.49513626  3223495757
-2.49513626 0.97686422 -4.60184717  1064965062
-4.32803869 -3.04747033 -2.49513626  3226196806
-2.49513626 0.97686422 -4.17582130  1064965062
-3.95776701 -3.51497698 -2.49513626  3227845157
-2.49513626 0.97686422 -3.84252739  1064965062
-3.72329855 -3.76245070 -2.49513626  3228867145
-2.49513626 0.97686422 -3.60021210  1064965062
-3.34296227 -4.10409546 -2.49513626  3229944160
-2.49513626 0.97686422 -3.20906925  1064965062
-3.07184935 -4.31076908 -2.49513626  3230368375
-2.49513626 0.97686422 -2.86008787  1064965062
-2.56744599 -4.62895298 -2.49513626  3231181787
-2.49513626 0.97686422 -2.26415253  1064965062
-2.18681169 -4.82046080 -2.49513626  3231407249
-2.49513626 0.97686422 -2.03045011  1064965062
-1.87198365 -4.95122862 -2.49513626  3231670821
-2.49513626 0.97686422 -1.71157432  1064965062
-1.54939127 -5.06145906 -2.49513626  3231984654
-2.49513626 0.97686422 -1.05387568  1064965063
-0.88628697 -5.21856737 -2.49513626  3232246599
-2.49513626 0.97686422 -0.37870795  1064965062
-0.29363802 -5.28514528 -2.49513626  3232325876
-2.49513626 0.97686422 0.47275475  1064965062
0.64228117 -5.25418425 -2.49513626  3232221177
-2.49513626 0.97686422 0.81114316  1064965062
0.89526886 -5.21703768 -2.49513626  3232134740
-2.49513626 0.97686422 1.06280434  1064965062
1.14616752 -5.16771603 -2.49513626  3231979934
-2.49513626 0.97686422 1.39439130  1064965062
1.55810106 -5.05878496 -2.49513626  3231780520
-2.49513626 0.97686422 1.80058229  1064965062
-4.88508129 -1.72651815 -2.49513626  3221382301
-2.49513626 0.97725976 -4.73038673  1064971698
-4.65986586 -2.26506901 -2.49513626  3222650753
-2.49513626 0.97725976 -4.54504251  1064971698
-4.50439739 -2.56032777 -2.49513626  3224178478
-2.49513626 0.97725976 -4.37549543  1064971698
-4.33024502 -2.84497166 -2.49513626  3225347590
-2.49513626 0.97725999 -4.18780518  1064971698
-4.13813496 -3.11780787 -2.49513626  3226191689
-2.49513626 0.97725976 -3.98274040  1064971698
-3.70328856 -3.62360883 -2.49513626  3228283550
-2.49513626 0.97725976 -3.58467770  1064971698
-3.52397275 -3.79822421 -2.49513626  3229462977
-2.49513626 0.97725976 -3.20705652  1064971698
-3.07435298 -4.17051983 -2.49513626  3230272839
-2.49513626 0.97725976 -2.72895575  1064971698
-2.58571339 -4.48987389 -2.49513626  3230892308
-2.49513626 0.97725976 -2.29133368  1064971698
-2.21620607 -4.68330145 -2.49513626  3231191639
-2.49513626 0.97725976 -1.98745286  1064971698
-1.83234096 -4.84638119 -2.49513626  3231449630
-2.49513626 0.97725976 -1.51658165  1064971698
-1.43660605 -4.97805691 -2.49513626  3231712375
-2.49513626 0.97725976 -1.27555811  1064971698
-1.11318851 -5.06021118 -2.49513626  3231965756
-2.49513626 0.97725976 -0.61982650  1064971698
-0.37068716 -5.16792774 -2.49513626  3232090964
-2.49513626 0.97725976 0.12960149  1064971698
0.21299179 -5.17682505 -2.49513626  3232073460
-2.49513626 0.97725976 0.37958479  1064971698
0.46274352 -5.16049910 -2.49513626  3232030791
-2.49513626 0.97725976 0.62868017  1064971698
0.71141547 -5.13213062 -2.49513626  3231962910
-2.49513626 0.97725976 0.95842910  1064971698
1.12189698 -5.05828381 -2.49513626  3231794199
-2.49513626 0.97725976 1.36486340  1064971698
1.44517243 -4.97557688 -2.49513626  3231557009
-2.49513626 0.97725976 1.76245296  1064971698
1.84068251 -4.84322023 -2.49513626  3219913300
-2.49513626 0.97764045 -4.66424894  1064978085
-4.63151932 -2.06965947 -2.49513626  3221829330
-2.49513626 0.97764045 -4.56247425  1064978085
-4.32724333 -2.64753962 -2.49513626  3224520139
-2.49513626 0.97764045 -4.14784575  1064978085
-4.05164719 -3.05264544 -2.49513626  3226181179
-2.49513626 0.97764045 -3.89950013  1064978085
-3.73825192 -3.42928004 -2.49513626  3228434813
-2.49513626 0.97764045 -3.26670432  1064978085
-3.20378208 -3.93322706 -2.49513626  3229548261
-2.49513626 0.97764045 -3.07546329  1064978085
-3.01010084 -4.08335400 -2.49513626  3229987721
-2.49513626 0.97764045 -2.80939388  1064978085
-2.74101377 -4.26864481 -2.49513626  3230268879
-2.49513626 0.97764045 -2.60213041  1064978085
-2.53167105 -4.39603567 -2.49513626  3230610816
-2.49513626 0.97764045 -2.24344492  1064978085
-2.09576607 -4.61976576 -2.49513626  3231050335
-2.49513626 0.97764045 -1.71740282  1064978085
-1.56280208 -4.82619333 -2.49513626  3231398192
-2.49513626 0.97764045 -1.40657926  1064978085
-1.32791138 -4.89603186 -2.49513626  3231536708
-2.49513626 0.97764045 -1.08992279  1064978085
-1.00999880 -4.97135258 -2.49513626  3231683920
-2.49513626 0.97764045 -0.84938741  1064978085
-0.68789780 -5.02605867 -2.49513626  3231787751
-2.49513626 0.97764045 -0.28141367  1064978085
-0.19981228 -5.06897879 -2.49513626  3231821634
-2.49513626 0.97764045 0.53437728  1064978085
0.61554050 -5.03543282 -2.49513626  3231738496
-2.49513626 0.97764045 0.93839753  1064978085
1.01855600 -4.96960974 -2.49513626  3231611749
-2.49513626 0.97764045 1.33633816  1064978085
1.72561693 -4.77040052 -2.49513626  3231170159
-2.49513626 0.97764045 -4.68427515  1064984237
-4.65700722 -1.73076522 -2.49513626  3219594144
-2.49513626 0.97800714 -4.59885883  1064984237
-4.56799173 -1.95364177 -2.49513626  3221338502
-2.49513626 0.97800714 -4.27914429  1064984236
-4.19563627 -2.66080856 -2.49513626  3224557995
-2.49513626 0.97800714 -4.01566124  1064984237
-3.96803188 -2.98964643 -2.49513626  3225642725
-2.49513626 0.97800714 -3.81902575  1064984237
-3.76735759 -3.23887253 -2.49513626  3228339154
-2.49513626 0.97800714 -3.26008201  1064984237
-3.13766432 -3.85205507 -2.49513626  3229203388
-2.49513626 0.97800714 -2.88320088  1064984237
-2.81767321 -4.09194136 -2.49513626  3229992727
-2.49513626 0.97800714 -2.61677694  1064984237
-2.54843116 -4.26482821 -2.49513626  3230417128
-2.49513626 0.97800714 -2.19714618  1064984237
-1.97939277 -4.55689240 -2.49513626  3230971283
-2.49513626 0.97800714 -1.68196023  1064984237
-1.22312510 -4.81531143 -2.49513626  3231401280
-2.49513626 0.97800708 -0.91062558  1064984236
-0.75287724 -4.91084766 -2.49513626  3231569773
-2.49513626 0.97800714 -0.51484090  1064984237
-0.43520170 -4.94912720 -2.49513626  3231617894
-2.49513626 0.97800714 -0.27560601  1064984237
-0.19568931 -4.96437073 -2.49513626  3231641769
-2.49513626 0.97800714 0.12427334  1064984237
0.28414547 -4.96009350 -2.49513626  3231616598
-2.49513626 0.97800714 0.44372192  1064984237
0.60283881 -4.93151617 -2.49513626  3231545911
-2.49513626 0.97800714 0.99753547  1064984237
1.15374649 -4.83240414 -2.49513626  3231276588
-2.49513626 0.97800714 1.38576782  1064984237
1.61455500 -4.69856119 -2.49513626  3231023266
-2.49513626 0.97800714 -4.58878088  1064990166
-4.56206989 -1.69548178 -2.49513626  3219895978
-2.49513626 0.97836053 -4.47486877  1064990166
-4.26936865 -2.33655334 -2.49513626  3223208797
-2.49513626 0.97836053 -4.15154648  1064990166
-4.11010408 -2.60656571 -2.49513626  3224045769
-2.49513626 0.97836053 -3.88714004  1064990166
-3.79081511 -3.05235338 -2.49513626  3226392267
-2.49513626 0.97836053 -3.58646989  1064990166
-3.47866869 -3.40382385 -2.49513626  3227346645
-2.49513626 0.97836053 -3.36725307  1064990166
-3.31023002 -3.56784534 -2.49513626  3228454531
-2.49513626 0.97836053 -3.07369924  1064990166
-3.01253462 -3.82253480 -2.49513626  3229071125
-2.49513626 0.97836053 -2.88788104  1064990166
-2.76023316 -4.00852251 -2.49513626  3229901691
-2.49513626 0.97836053 -2.49648046  1064990166
-2.29180455 -4.29357338 -2.49513626  3230305977
-2.49513626 0.97836053 -2.08178377  1064990166
-2.01067281 -4.43219376 -2.49513626  3230713243
-2.49513626 0.97836053 -1.57371378  1064990166
-1.49934959 -4.63023663 -2.49513626  3230985157
-2.49513626 0.97836053 -1.34947014  1064990166
-1.27399492 -4.69724131 -2.49513626  3231118047
-2.49513626 0.97836053 -1.04566920  1064990166
-0.96899068 -4.76950645 -2.49513626  3231288099
-2.49513626 0.97836053 -0.73752958  1064990166
-0.65996641 -4.82199049 -2.49513626  3231358895
-2.49513626 0.97836053 -0.50434631  1064990166
-0.34820405 -4.85447216 -2.49513626  3231416474
-2.49513626 0.97836053 -0.19170004  1064990166
-0.11336492 -4.86562252 -2.49513626  3231431785
-2.49513626 0.97836053 0.35656005  1064990166
0.51268017 -4.83986521 -2.49513626  3231335519
-2.49513626 0.97836053 0.82315826  1064990166
0.97719878 -4.76783180 -2.49513626  3231071687
-2.49513626 0.97836053 1.43260384  1064990166
1.50731707 -4.62764835 -2.49513626  3230823529
-2.49513626 0.97836053 1.72903764  1064990166
-4.49633551 -1.58912396 -2.49513626  3218384458
-2.49513626 0.97870129 -4.44283199  1064995883
-4.41434669 -1.80441153 -2.49513626  3220179073
-2.49513626 0.97870129 -4.35395193  1064995883
-4.21968222 -2.22185326 -2.49513626  3222439791
-2.49513626 0.97870129 -4.10745859  1064995883
-4.02730227 -2.55405378 -2.49513626  3224873252
-2.49513626 0.97870129 -3.76212692  1064995883
-3.66580224 -3.05028701 -2.49513626  3226593884
-2.49513626 0.97870129 -3.40858603  1064995883
-3.29941678 -3.44328356 -2.49513626  3227500016
-2.49513626 0.97870129 -3.12928247  1064995883
-2.70462418 -3.92776656 -2.49513626  3229726898
-2.49513626 0.97870129 -2.44618535  1064995883
-2.37994695 -4.13257790 -2.49513626  3230048347
-2.49513626 0.97870129 -2.17759657  1064995883
-2.03984427 -4.31061268 -2.49513626  3230333197
-2.49513626 0.97870129 -1.89997625  1064995883
-1.82929528 -4.40409279 -2.49513626  3230522101
-2.49513626 0.97870129 -1.54201066  1064995883
-1.46914256 -4.53695631 -2.49513626  3230788536
-2.49513626 0.97870129 -1.32228410  1064995883
-1.09946954 -4.64042234 -2.49513626  3230993019
-2.49513626 0.97870129 -0.87408918  1064995883
-0.79848313 -4.70157194 -2.49513626  3231134192
-2.49513626 0.97870129 -0.41774085  1064995883
