# .PCD v0.7 - Point Cloud Data file format
VERSION 0.7
FIELDS x y z intensity
SIZE 4 4 4 4
TYPE F F F F
COUNT 1 1 1 1
WIDTH 1036
HEIGHT 1
VIEWPOINT 0 0 0 1 0 0 0
POINTS 1036
DATA ascii
-2.49513626 0.95087790 9.02446270  1064529084
8.50843143 9.95628929 -2.64753628  1092712856
-2.64753628 0.94795698 7.84902859  1064480079
6.97921515 11.08204174 -2.64753628  1094091070
-2.64753628 0.94795704 5.87609196  1064480079
5.68661594 11.79760742 -2.64753628  1094686949
-2.64753628 0.94795698 4.91440153  1064480079
4.71802807 12.21725464 -2.64753628  1095019253
-2.64753628 0.94795698 4.12175465  1064480079
3.92078733 12.49594116 -2.64753628  3219499364
-2.49513626 0.95276952 7.77104330  1064826632
7.64106798 -0.42404804 -1.61336637  3176907124
-1.60076487 0.96943694 7.59372187  1064840388
7.69670105 0.56716162 -1.62701547  1060319243
-1.64764631 0.96855611 11.74753666  1064560820
11.69501591 1.81753874 -2.49513626  1073766443
-2.49513626 0.95276952 11.63033199  1064560820
11.59345150 2.38092017 -2.49513626  1076902182
-2.49513626 0.95276952 11.36404610  1064560820
11.25151443 3.67154932 -2.49513626  1082198428
-2.49513626 0.95276952 11.06081676  1064560820
10.99147701 4.38910055 -2.49513626  1083316896
-2.49513626 0.95276952 10.84424496  1064560820
10.76639271 4.91545057 -2.49513626  1084412983
-2.49513626 0.95276952 10.60230160  1064560820
10.42718601 5.59915686 -2.49513626  1085835166
-2.49513626 0.95276952 10.24123001  1064560820
10.14424419 6.09680939 -2.49513626  1086869120
-2.49513626 0.95276952 9.94238949  1064560820
9.83757210 6.58019495 -2.49513626  1087872345
-2.49513626 0.95276952 9.62029171  1064560820
9.50788689 7.04818344 -2.49513626  1090080746
-2.49513626 0.95276952 8.52223301  1064560820
8.38871765 8.34903240 -2.49513626  1091860198
-2.64753628 0.94995815 8.15870953  1064513653
8.00371170 9.67737007 -2.64753628  1092411889
-2.64753628 0.94995815 7.68752050  1064513653
7.52640867 10.05306149 -2.64753628  1092920809
-2.64753628 0.94995815 6.69234896  1064513653
6.17068052 10.93771362 -2.64753628  1094083296
-2.64753628 0.94995815 5.08534718  1064513651
4.52410603 11.71508980 -2.64753628  1094489488
-2.64753628 0.94995815 4.14402199  1064513653
3.95234036 11.92014408 -2.64753628  1094756737
-2.64753628 0.94995815 3.37133026  1064513653
11.26150227 -1.54177749 -2.49513626  3215856760
-2.49513626 0.95451802 8.11022568  1064802224
7.66748381 -0.54965007 -1.68745315  3201858912
-1.67509568 0.96923298 7.57775640  1064840556
7.59781837 0.31402346 -1.66926384  1054895253
-1.67630517 0.96921110 7.67433405  1064832752
7.74806070 0.69671798 -1.70768309  1063169967
-1.80810761 0.96683085 11.28216553  1064590155
11.20211983 1.92640829 -2.49513626  1074189681
-2.49513626 0.95451802 11.13418198  1064590155
11.01058960 2.82230806 -2.49513626  1078673720
-2.49513626 0.95451802 10.86123848  1064590155
10.80578995 3.52610064 -2.49513626  1080871587
-2.49513626 0.95451802 10.62264824  1064590155
10.33988380 4.72072792 -2.49513626  1084335932
-2.49513626 0.95451802 10.09952259  1064590155
10.01412201 5.37734890 -2.49513626  1085356096
-2.49513626 0.95451802 9.83553028  1064590155
9.64671135 6.01161194 -2.49513626  1086673637
-2.49513626 0.95451802 9.44786072  1064590155
9.34473896 6.47103739 -2.49513626  1087626789
-2.49513626 0.95451802 9.02091122  1064590155
8.90823936 7.05987120 -2.49513626  1089433490
-2.49513626 0.95451802 8.43468189  1064590155
8.31073570 7.75436640 -2.49513626  1090282802
-2.49513626 0.95451802 7.98232460  1064544689
6.91319704 9.88285542 -2.64753628  1093043490
-2.64753628 0.95180804 5.41135740  1064544689
5.23686647 10.86454487 -2.64753628  1093609790
-2.64753628 0.95180804 4.88383245  1064544689
4.52573061 11.17948627 -2.64753628  1093927957
-2.64753628 0.95180804 4.16291332  1064544689
3.97975850 11.38524532 -2.64753628  1094134464
-2.64753628 0.95180792 10.77744007  1064617347
10.83088207 -1.48282206 -2.49513626  3210160339
-1.85118771 0.96727091 7.70063210  1064829451
7.60101748 -0.42182544 -1.73755062  3191064749
-1.72815192 0.96941257 7.56265497  1064840624
7.56350517 0.06851558 -1.72639000  1058036148
-1.75125754 0.96901000 8.14745617  1064798609
10.85075378 1.32961917 -2.49513626  1069584439
-2.49513626 0.95613879 10.80224323  1064617347
10.74249458 2.02621770 -2.49513626  1076020553
-2.49513626 0.95613879 10.58956146  1064617347
10.54442024 2.88477564 -2.49513626  1078164352
-2.49513626 0.95613885 10.15241051  1064617347
9.87000751 4.69996834 -2.49513626  1084911979
-2.49513626 0.95613879 9.27783775  1064617347
9.18340397 5.93057442 -2.49513626  1086793652
-2.49513626 0.95613879 8.88589954  1064617347
8.67596626 6.65089178 -2.49513626  1087981305
-2.49513626 0.95613879 8.34421921  1064617347
8.22924995 7.19625187 -2.49513626  1089382076
-2.49513626 0.95613879 7.87166309  1064617347
7.74832916 7.71168852 -2.49513626  1090600128
-2.49513626 0.95613879 6.96717453  1064617347
7.10066557 9.17233181 -2.64753628  1091867121
-2.64753628 0.95352304 6.33892584  1064573462
5.69962072 10.10274982 -2.64753628  1092818913
-2.64753628 0.95352304 5.20443535  1064573462
4.86748409 10.52895355 -2.64753628  1093251693
-2.64753628 0.95352304 4.17874384  1064573462
3.82767177 10.94988537 -2.64753628  3219242242
-2.49513626 0.95764530 10.45218372  1064642622
8.02777100 -0.83638746 -1.91291440  3207404005
-1.82992589 0.96875858 7.63382053  1064833593
7.56591415 -0.29760462 -1.79454052  3191047792
-1.79190338 0.96939772 7.56772423  1064838889
7.59350634 0.43658733 -1.80266547  1058022124
-1.81578124 0.96899629 7.70070410  1064828357
10.44965172 1.28046846 -2.49513626  1069117939
-2.49513626 0.95764530 10.40293312  1064642622
10.37551212 1.78425789 -2.49513626  1074236209
-2.49513626 0.95764530 10.27709961  1064642622
10.23893738 2.44927597 -2.49513626  1076317331
-2.49513626 0.95764530 10.15464020  1064642622
10.05978489 3.10411167 -2.49513626  1079051430
-2.49513626 0.95764530 9.95446968  1064642622
9.89792156 3.58691502 -2.49513626  1081065239
-2.49513626 0.95764530 9.71290302  1064642622
9.64615726 4.21740150 -2.49513626  1083234020
-2.49513626 0.95764530 9.27517605  1064642622
9.19366646 5.12945652 -2.49513626  1084808549
-2.49513626 0.95764530 9.02349567  1064642622
8.93488026 5.56801319 -2.49513626  1086016885
-2.49513626 0.95764530 8.65519047  1064642622
8.45744324 6.26948881 -2.49513626  1087174163
-2.49513626 0.95764530 8.25089836  1064642622
8.14439392 6.67110777 -2.49513626  1088005729
-2.49513626 0.95764530 7.92505741  1064642622
7.81228685 7.05712557 -2.49513626  1088803925
-2.49513626 0.95764530 7.34119177  1064642622
7.21857214 7.66335869 -2.49513626  1090055045
-2.49513626 0.95764530 6.57795334  1064642622
6.44892263 8.33043289 -2.49682212  1090967446
-2.49513626 0.95764530 6.54982901  1064600208
5.95296907 9.45250225 -2.64753628  1092141458
-2.64753628 0.95511723 5.33134365  1064600208
5.17237377 9.90122032 -2.64753628  1092598717
-2.64753628 0.95511723 4.68755293  1064600208
4.52345657 10.21400833 -2.64753628  1092987964
-2.64753628 0.95511723 3.85573101  1064600208
3.17197323 10.71103287 -2.64753628  1093413930
-2.64753628 0.95511723 10.00765133  1064666174
10.07817078 -1.21457100 -2.49513626  3207423643
-1.90112209 0.96864355 7.59237432  1064835871
7.56656456 -0.29763022 -1.86129820  3191048802
-1.85856271 0.96933460 7.55858755  1064838904
7.56872702 0.31282115 -1.86197948  1054841927
-1.87021446 0.96914536 7.73619509  1064824934
10.07572746 1.23464990 -2.49513626  1068683053
-2.49513626 0.95904911 9.97520447  1064666174
9.94356823 2.04208684 -2.49513626  1074589693
-2.49513626 0.95904911 9.87255573  1064666174
9.79127407 2.67872977 -2.49513626  1077249321
-2.49513626 0.95904911 9.48673534  1064666174
9.42726421 3.76448417 -2.49513626  1081778089
-2.49513626 0.95904911 9.23421001  1064666174
9.09347439 4.51147461 -2.49513626  1083509329
-2.49513626 0.95904911 8.94328117  1064666174
8.86468601 4.94590807 -2.49513626  1084412550
-2.49513626 0.95904911 8.61515999  1064666174
8.52747631 5.50698090 -2.49513626  1085861410
-2.49513626 0.95904911 8.25121593  1064666174
8.15480709 6.04514647 -2.49513626  1087231531
-2.49513626 0.95904911 7.64147282  1064666174
7.53273582 6.80459881 -2.49513626  1088264955
-2.49513626 0.95904911 7.19489813  1064666174
7.07849789 7.27595568 -2.49513626  1089471302
-2.49513626 0.95904911 6.46953964  1064666174
6.34257174 7.92568350 -2.49513626  1090547265
-2.49513626 0.95904911 5.95191765  1064666174
5.68368578 8.41072941 -2.49513626  1091589140
-2.64753628 0.95660293 5.59224653  1064625134
5.44308901 9.29459763 -2.64753628  1092055485
-2.64753628 0.95660293 4.98728752  1064625134
4.67687225 9.70276356 -2.64753628  1092382268
-2.64753628 0.95660293 4.36159039  1064625134
4.20222998 9.91756058 -2.64753628  1092792128
-2.64753628 0.95660293 3.38987446  1064625134
3.22459221 10.27710056 -2.64753628  3218218117
-2.49513626 0.96036023 9.68576050  1064688172
9.72862244 -1.17244530 -2.49513626  3210017991
-2.04436135 0.96740347 7.72309303  1064824826
7.59550524 -0.42151949 -1.93702948  3197658715
-1.92834067 0.96922463 7.56460428  1064837298
7.56973505 0.31286269 -1.92913663  1058036679
-1.95383561 0.96882415 7.75235558  1064822764
8.08273029 0.85839742 -2.06968999  1068276619
-2.49513626 0.96036029 9.68278122  1064688172
9.65725899 1.66074109 -2.49513626  1072200308
-2.49513626 0.96036029 9.59869003  1064688172
9.45167923 2.58582211 -2.49513626  1077471524
-2.49513626 0.96036029 9.31558704  1064688172
9.26536369 3.18963194 -2.49513626  1079977560
-2.49513626 0.96036029 8.91393566  1064688171
8.77807999 4.35500097 -2.49513626  1083754396
-2.49513626 0.96036029 8.47913456  1064688171
8.31635571 5.18256283 -2.49513626  1084890241
-2.49513626 0.96036029 8.05602741  1064688172
7.87196875 5.83548164 -2.49513626  1086244302
-2.49513626 0.96036023 7.67972469  1064688171
7.47948980 6.33071709 -2.49513626  1087269488
-2.49513626 0.96036029 7.27147341  1064688172
7.05590439 6.79962635 -2.49513626  1088700512
-2.49513626 0.96036023 6.48538113  1064688171
6.24515390 7.55107832 -2.49513626  1089991639
-2.49513626 0.96036029 5.87272072  1064688172
5.74548340 7.93789291 -2.49513626  1090549972
-2.49513626 0.96036029 5.48655558  1064688171
5.22191906 8.29169941 -2.49513626  1091626105
-2.64753628 0.95799071 4.81431150  1064648417
4.51465893 9.36624050 -2.64753628  1092236342
-2.64753628 0.95799071 3.27230287  1064648417
2.95239067 9.96955204 -2.64753628  3217754649
-2.49513626 0.96158755 9.35975742  1064708762
9.40117741 -1.13298309 -2.49513626  3210120908
-2.13116503 0.96709758 7.76643896  1064820782
7.66331053 -0.54935086 -2.02446532  3201833074
-2.00707436 0.96898329 7.57378578  1064835353
7.57746029 -0.17575486 -1.99719799  3176885103
-1.99771285 0.96912575 7.58078241  1064835256
7.57752323 0.31318468 -1.99838364  1054867137
-2.00834036 0.96896404 8.12200451  1064795851
9.39889908 1.15171409 -2.49513626  1067895878
-2.49513626 0.96158755 9.35687637  1064708762
9.33221436 1.60484481 -2.49513626  1071687511
-2.49513626 0.96158755 9.20937443  1064708762
9.17265701 2.35119653 -2.49513626  1075833901
-2.49513626 0.96158755 9.09207726  1064708762
9.04823685 2.79198408 -2.49513626  1078885028
-2.49513626 0.96158755 8.54937935  1064708762
8.48262501 4.20842075 -2.49513626  1083971521
-2.49513626 0.96158755 8.03644276  1064708762
7.95464849 5.13705444 -2.49513626  1085309060
-2.49513626 0.96158755 7.22774267  1064708762
7.12816286 6.23338318 -2.49513626  1087289376
-2.49513626 0.96158755 6.81841516  1064708762
6.71158409 6.67984867 -2.49513626  1087975611
-2.49513626 0.96158755 6.49271631  1064708762
6.38073587 6.99656725 -2.49513626  1089444699
-2.49513626 0.96158755 5.30188847  1064708762
5.04615974 8.01261806 -2.49513626  1090616493
-2.49513626 0.96158755 4.52155399  1064708437
4.38447523 8.39298534 -2.49513626  1091004095
-2.49513626 0.96158755 4.06860447  1064670211
3.61961746 9.37293911 -2.64753628  1092130699
-2.64753628 0.95928973 3.00798297  1064670211
2.85301924 9.63399696 -2.64753628  1092279332
-2.64753628 0.95928973 9.03012276  1064728074
9.05368710 -1.38857627 -2.49513626  3210174048
-2.21153855 0.96690285 7.81046867  1064816637
7.68680906 -0.55103582 -2.09932208  3197690708
-2.06957412 0.96899420 7.58989096  1064833513
7.59048557 0.06876010 -2.06779432  1044633593
-2.06904697 0.96900195 7.59536362  1064832720
8.15134716 0.86568451 -2.23297977  1068764139
-2.49513626 0.96273869 8.97229862  1064728075
8.90822124 2.13095665 -2.49513626  1076087337
-2.49513626 0.96273869 8.75235367  1064728075
8.50642776 3.39677453 -2.49513626  1080743310
-2.49513626 0.96273863 8.33222961  1064728075
8.26980782 3.93797660 -2.49513626  1082278914
-2.49513626 0.96273869 8.13853455  1064728075
7.92580128 4.59119368 -2.49513626  1083901184
-2.49513626 0.96273869 7.35825777  1064728075
7.26935387 5.57260132 -2.49513626  1085913883
-2.49513626 0.96273869 6.89506769  1064728075
6.79695034 6.13993931 -2.49513626  1086846365
-2.49513626 0.96273869 6.38708305  1064728075
6.06215763 6.86641598 -2.49513626  1088544172
-2.49513626 0.96273869 5.72304106  1064728075
5.25021172 7.50550985 -2.49513626  1089657499
-2.49513626 0.96273869 5.00548077  1064728075
4.75554419 7.82829428 -2.49513626  1090317618
-2.49513626 0.96273869 4.50066280  1064728075
4.24109793 8.11852932 -2.49513626  1090782288
-2.49513626 0.96273869 3.84356856  1064728075
3.57349825 8.43371105 -2.49513626  1091637284
-2.64753628 0.96050829 3.05875945  1064690655
8.78628159 -1.20290256 -2.49513626  3213349231
-2.49513626 0.96382046 7.70988274  1064822908
7.64756107 -0.42440829 -2.15500093  3197714489
-2.14263034 0.96885127 7.60322475  1064831309
7.59836960 -0.05369018 -2.13790250  1050746921
-2.14411855 0.96882999 7.71947861  1064822183
8.33231926 0.74925518 -2.35380983  1063427686
-2.35840273 0.96576875 8.80240154  1064746224
8.78386784 1.22040772 -2.49513626  1068388866
-2.49513626 0.96382046 8.71458054  1064746224
8.68694496 1.78401673 -2.49513626  1074006837
-2.49513626 0.96382046 8.55389786  1064746224
8.47399426 2.61479282 -2.49513626  1077460738
-2.49513626 0.96382040 8.28784943  1064746223
8.23589420 3.28874445 -2.49513626  1079702392
-2.49513626 0.96382046 8.12556839  1064746224
7.94428015 3.94133496 -2.49513626  1082274957
-2.49513626 0.96382046 7.74440575  1064746224
7.60106039 4.56832409 -2.49513626  1083831294
-2.49513626 0.96382046 7.20846319  1064746223
7.12423897 5.28118896 -2.49513626  1085526767
-2.49513626 0.96382040 6.67577744  1064746223
6.48408127 6.05000114 -2.49513626  1086861426
-2.49513626 0.96382046 6.18395233  1064746223
6.08065796 6.45533371 -2.49513626  1087880425
-2.49513626 0.96382040 5.54102659  1064746224
5.42866611 7.01251030 -2.49513626  1088629774
-2.49513626 0.96382046 5.19973993  1064746224
4.72590923 7.50409889 -2.49513626  1089636820
-2.49513626 0.96382040 4.23241806  1064746223
3.85063767 7.98863649 -2.49513626  1090749947
-2.49513626 0.96382046 3.19477034  1064746224
3.06096482 8.32323265 -2.49513626  1090956925
-2.49513626 0.96382046 2.81708670  1064709869
2.67195368 9.02258015 -2.64753628  3214226486
-2.49513626 0.96483886 8.54738045  1064763310
8.47319221 -0.74490666 -2.46965075  3199004692
-2.49513626 0.96483886 8.59133625  1064763310
8.59329319 0.07784402 -2.49513626  1056738976
-2.49513626 0.96483886 8.51188564  1064763310
8.49170971 1.31970835 -2.49513626  1072603323
-2.49513626 0.96483886 8.32452202  1064763310
8.28903484 2.26774311 -2.49513626  1075424147
-2.49513626 0.96483886 8.21160507  1064763310
8.16968441 2.66589713 -2.49513626  1077085847
-2.49513626 0.96483886 8.07948017  1064763310
8.03122044 3.05781674 -2.49513626  1079258073
-2.49513626 0.96483886 7.87396955  1064763310
7.81744051 3.56909323 -2.49513626  1080849804
-2.49513626 0.96483886 7.69829369  1064763310
7.57114363 4.06552744 -2.49513626  1084474337
-2.49513626 0.96483886 6.82023048  1064763310
6.73504639 5.33759308 -2.49513626  1085161848
-2.49513626 0.96483886 6.55944204  1064763310
6.46907043 5.65702486 -2.49513626  1085822660
-2.49513626 0.96483886 6.09101057  1064763310
5.99246979 6.15962934 -2.49513626  1086860452
-2.49513626 0.96483886 5.68761969  1064763310
5.26057339 6.79537582 -2.49513626  1088168783
-2.49513626 0.96483886 5.03873682  1064763310
4.92583656 7.04179668 -2.49513626  1089144642
-2.49513626 0.96483886 4.22259951  1064763310
4.10136604 7.55179167 -2.49513626  1089715707
-2.49513626 0.96483886 3.60610342  1064763310
3.47986197 7.85756493 -2.49513626  1090587735
-2.49513626 0.96483886 2.83575559  1064763310
2.57271910 8.19950771 -2.49513626  1090770613
-2.49513626 0.96483886 2.30700231  1064763310
8.25731087 -1.13048279 -2.49513626  3208305065
-2.49513626 0.96579927 8.31300545  1064779423
8.32153225 -0.46181086 -2.49513626  3198662706
-2.49513626 0.96579927 8.33412933  1064779423
8.33169270 0.20985952 -2.49513626  1058851841
-2.49513626 0.96579927 8.30084229  1064779423
8.28772926 0.88016862 -2.49513626  1069922994
-2.49513626 0.96579927 8.10564899  1064779423
8.03891563 2.19931459 -2.49513626  1075660173
-2.49513626 0.96579927 7.92316675  1064779423
7.74005413 3.09074783 -2.49513626  1078838506
-2.49513626 0.96579927 7.63637638  1064779423
7.40530825 3.82394791 -2.49513626  1081890740
-2.49513626 0.96579927 7.27815962  1064779423
7.21174002 4.17755604 -2.49513626  1082745514
-2.49513626 0.96579927 7.07329082  1064779423
7.00129938 4.52138996 -2.49513626  1083459373
-2.49513626 0.96579927 6.77448273  1064779423
6.69532967 4.96323681 -2.49513626  1084597802
-2.49513626 0.96579927 6.44750357  1064779423
6.36151314 5.38445044 -2.49513626  1085458130
-2.49513626 0.96579927 6.00124454  1064779423
5.81164980 5.97376633 -2.49513626  1086656175
-2.49513626 0.96579927 5.51599836  1064779423
5.31167793 6.42240238 -2.49513626  1087388436
-2.49513626 0.96579927 5.10183716  1064779423
4.99491549 6.67173004 -2.49513626  1088063928
-2.49513626 0.96579927 4.55452108  1064779423
4.44139051 7.05231905 -2.49513626  1088679869
-2.49513626 0.96579927 4.21168804  1064779423
4.09518290 7.25883245 -2.49513626  1089101196
-2.49513626 0.96579927 3.85900331  1064779423
3.49729109 7.56505823 -2.49513626  1090046635
-2.49513626 0.96579927 2.87668300  1064779423
2.75018787 7.86750460 -2.49513626  1090332025
-2.49513626 0.96579927 7.97473383  1064794642
8.01427650 -1.09720981 -2.49513626  3210122867
-2.49513626 0.96670640 8.06833267  1064794642
8.08686066 -0.18757015 -2.49513626  1033244752
-2.49513626 0.96670640 8.08647156  1064794642
8.02898216 0.98384762 -2.49513626  1066302614
-2.49513626 0.96670640 7.76687908  1064794642
7.72942924 2.38504410 -2.49513626  1076396919
-2.49513626 0.96670640 7.60505962  1064794642
7.55963564 2.87826657 -2.49513626  1077935210
-2.49513626 0.96670640 7.41161680  1064794642
7.35840607 3.35951805 -2.49513626  1079939854
-2.49513626 0.96670640 7.24625778  1064794642
7.18735027 3.71140003 -2.49513626  1081404003
-2.49513626 0.96670640 7.06394386  1064794642
6.93319368 4.16693115 -2.49513626  1082713815
-2.49513626 0.96670640 6.72359467  1064794642
6.65020847 4.60512972 -2.49513626  1083623094
-2.49513626 0.96670640 6.49826813  1064794642
6.33957005 5.02417564 -2.49513626  1084491282
-2.49513626 0.96670640 5.91435480  1064794642
5.82461214 5.61305475 -2.49513626  1085900993
-2.49513626 0.96670640 5.45072556  1064794642
5.05416632 6.31568718 -2.49513626  1087155960
-2.49513626 0.96670640 4.84790134  1064794642
4.74286699 6.55268764 -2.49513626  1087797367
-2.49513626 0.96670640 4.42047119  1064794642
4.19974470 6.91336775 -2.49513626  1088380334
-2.49513626 0.96670640 3.97465205  1064794642
3.86053705 7.10835791 -2.49513626  1088902424
-2.49513626 0.96670640 3.51230288  1064794642
3.39435577 7.34239912 -2.49513626  1089361469
-2.49513626 0.96670640 3.03535151  1064794642
2.66924214 7.63594532 -2.49513626  1089927723
-2.49513626 0.96670640 2.17153907  1064794642
7.74558783 -1.31610990 -2.49513626  3211830858
-2.49513626 0.96756452 7.81430912  1064809039
7.82642031 -0.68804616 -2.49513626  3205484513
-2.49513626 0.96756446 7.85053444  1064809039
7.85449362 -0.18218054 -2.49513626  3177407012
-2.49513626 0.96756452 7.85628414  1064809039
7.84990406 0.32444286 -2.49513626  1060381113
-2.49513626 0.96756452 7.79827785  1064809039
7.78185463 1.08119082 -2.49513626  1067085657
-2.49513626 0.96756446 7.74294853  1064809039
7.72047281 1.45621276 -2.49513626  1070222858
-2.49513626 0.96756452 7.61056328  1064809039
7.54370356 2.19516468 -2.49513626  1077573684
-2.49513626 0.96756452 7.24846172  1064809039
7.19865179 3.14732671 -2.49513626  1080942793
-2.49513626 0.96756452 6.86096764  1064809039
6.79835701 3.93809724 -2.49513626  1082229414
-2.49513626 0.96756452 6.53040028  1064809039
6.45912075 4.47280693 -2.49513626  1083339167
-2.49513626 0.96756452 6.31154633  1064809038
5.83008671 5.26653051 -2.49513626  1084982242
-2.49513626 0.96756446 5.38701630  1064809038
5.29410505 5.80506086 -2.49513626  1086093350
-2.49513626 0.96756452 5.10417604  1064809039
5.00720978 6.05426502 -2.49513626  1086606203
-2.49513626 0.96756446 4.70860195  1064809039
4.60658455 6.36440420 -2.49513626  1087242978
-2.49513626 0.96756446 4.29345417  1064809038
4.07907009 6.71471930 -2.49513626  1088092114
-2.49513626 0.96756446 3.74960923  1064809039
3.63780284 6.96366549 -2.49513626  1089014333
-2.49513626 0.96756446 2.47262621  1064809039
2.35206723 7.49626732 -2.49513626  1089540125
-2.49513626 0.96756452 2.10914207  1064809039
7.52812719 -1.27915990 -2.49513626  3209335293
-2.49513626 0.96837741 7.62429905  1064822677
7.63013029 -0.30013058 -2.49513626  1044702209
-2.49513626 0.96837741 7.62951756  1064822677
7.62344027 0.43830848 -2.49513626  1057990861
-2.49513626 0.96837741 7.57933950  1064822677
7.54545403 1.17264962 -2.49513626  1074301913
-2.49513626 0.96837741 7.29656315  1064822677
7.25931120 2.36882925 -2.49513626  1075778450
-2.49513626 0.96837741 7.13627672  1064822677
7.04496002 2.94575977 -2.49513626  1079122978
-2.49513626 0.96837741 6.72746849  1064822677
6.66834688 3.72049832 -2.49513626  1082211364
-2.49513626 0.96837741 6.41468287  1064822677
6.34705687 4.24544716 -2.49513626  1082858633
-2.49513626 0.96837741 6.06023169  1064822677
5.90728855 4.83868837 -2.49513626  1084854029
-2.49513626 0.96837741 5.32470989  1064822677
5.23577213 5.55838633 -2.49513626  1085574130
-2.49513626 0.96837741 4.96087503  1064822677
4.86662960 5.88429070 -2.49513626  1086245031
-2.49513626 0.96837741 4.06925726  1064822677
3.75205994 6.65063953 -2.49513626  1087814286
-2.49513626 0.96837741 3.53567076  1064822677
3.31560326 6.87864304 -2.49513626  1088277624
-2.49513626 0.96837741 2.97911239  1064822677
2.63565326 7.16675043 -2.49513626  1088858752
-2.49513626 0.96837741 2.28603244  1064822677
2.16826034 7.32172155 -2.49513626  1089167906
-2.49513626 0.96837741 7.32145596  1064835614
7.35776424 -1.00732875 -2.49513626  3206971053
-2.49513626 0.96914852 7.40738773  1064835614
7.41498899 -0.41150156 -2.49513626  3190838895
-2.49513626 0.96914852 7.42621374  1064835614
7.42404413 0.18699798 -2.49513626  1050477766
-2.49513626 0.96914852 7.40631580  1064835614
7.39655638 0.66511017 -2.49513626  1061734096
-2.49513626 0.96914852 7.37126207  1064835614
7.35574102 1.02198744 -2.49513626  1067522760
-2.49513626 0.96914852 7.29771996  1064835614
7.27457523 1.49396193 -2.49513626  1070479164
-2.49513626 0.96914852 7.22262383  1064835614
7.09624815 2.18966508 -2.49513626  1075016045
-2.49513626 0.96914852 6.94036484  1064835614
6.59857607 3.40736890 -2.49513626  1081827269
-2.49513626 0.96914852 6.23858213  1064835614
6.17281055 4.12889719 -2.49513626  1082608350
-2.49513626 0.96914852 5.96594334  1064835614
5.89385843 4.51816320 -2.49513626  1083803690
-2.49513626 0.96914852 5.34747362  1064835614
5.26368618 5.23879576 -2.49513626  1084904942
-2.49513626 0.96914852 5.09203625  1064835614
5.00421333 5.48718977 -2.49513626  1085581696
-2.49513626 0.96914852 4.64013863  1064835614
4.54604435 5.87238169 -2.49513626  1086503685
-2.49513626 0.96914852 3.95754743  1064835614
3.85570884 6.34703970 -2.49513626  1087181175
-2.49513626 0.96914852 3.54428887  1064835614
3.33202744 6.63694143 -2.49513626  1087771352
-2.49513626 0.96914852 3.11629844  1064835614
3.00720215 6.79029322 -2.49513626  1088178045
-2.49513626 0.96914852 2.56329894  1064835614
2.45058227 7.01042271 -2.49513626  1088524696
-2.49513626 0.96914852 2.22327423  1064835614
7.16009569 -0.98026657 -2.49513626  3210566770
-2.49513626 0.96988094 7.18797970  1064847902
7.19912100 -0.63289809 -2.49513626  3204729095
-2.49513626 0.96988094 7.21578455  1064847902
7.22494411 -0.16757846 -2.49513626  1032196557
-2.49513626 0.96988094 7.22459602  1064847902
7.21497297 0.41482359 -2.49513626  1059434913
-2.49513626 0.96988094 7.18647337  1064847902
7.17323351 0.87898678 -2.49513626  1066274440
-2.49513626 0.96988094 7.00056458  1064847902
6.97072172 1.90707433 -2.49513626  1073822435
-2.49513626 0.96988094 6.90560770  1064847902
6.87035275 2.24190617 -2.49513626  1076138840
-2.49513626 0.96988094 6.71157169  1064847902
6.62166834 2.89506483 -2.49513626  1078824751
-2.49513626 0.96988094 6.36700726  1064847902
6.00697756 4.01797485 -2.49513626  1082370148
-2.49513626 0.96988094 5.87430477  1064847902
5.80566740 4.30373383 -2.49513626  1082962539
-2.49513626 0.96988094 5.66388464  1064847902
5.59077454 4.57942533 -2.49513626  1083718630
-2.49513626 0.96988094 5.36279631  1064847902
5.28399038 4.93024826 -2.49513626  1084605038
-2.49513626 0.96988094 4.95523739  1064847902
4.86977530 5.33977461 -2.49513626  1085263613
-2.49513626 0.96988094 4.33120108  1064847902
4.23736095 5.85428572 -2.49513626  1086160837
-2.49513626 0.96988094 4.04639912  1064847902
3.94932628 6.05233145 -2.49513626  1086694933
-2.49513626 0.96988094 3.34622669  1064847902
3.13795209 6.51008034 -2.49513626  1087498786
-2.49513626 0.96988094 2.92641592  1064847902
6.93732119 -1.17877162 -2.49513626  3213396909
-2.49513626 0.97057742 6.97172213  1064859587
6.98620462 -0.84194273 -2.49513626  3206398562
-2.49513626 0.97057742 7.02594519  1064859587
7.03452444 0.17718677 -2.49513626  1059149224
-2.49513626 0.97057742 6.98451424  1064859587
6.95328665 1.08062053 -2.49513626  1066968805
-2.49513626 0.97057742 6.91482830  1064859587
6.78733015 1.85690141 -2.49513626  1073457414
-2.49513626 0.97057742 6.68960190  1064859587
6.65353489 2.29050088 -2.49513626  1076738976
-2.49513626 0.97057742 6.40117121  1064859587
6.30361319 3.12736416 -2.49513626  1078894921
-2.49513626 0.97057742 6.08893728  1064859587
5.97204447 3.72164440 -2.49513626  1081762447
-2.49513626 0.97057742 5.71975803  1064859587
5.65292692 4.19050598 -2.49513626  1082907627
-2.49513626 0.97057742 5.29708385  1064859587
5.22170639 4.71696091 -2.49513626  1083809287
-2.49513626 0.97057742 5.06690454  1064859587
4.90682840 5.04370499 -2.49513626  1084645529
-2.49513626 0.97057742 4.57154703  1064859587
4.48469877 5.42249250 -2.49513626  1085263782
-2.49513626 0.97057742 4.30752659  1064859587
4.21725225 5.63300276 -2.49513626  1085834112
-2.49513626 0.97057742 3.93994093  1064859587
3.84542346 5.89310312 -2.49513626  1086228976
-2.49513626 0.97057742 3.65341115  1064859587
3.55596638 6.07215309 -2.49513626  1086594631
-2.49513626 0.97057742 3.35833073  1064859587
2.95279431 6.38724852 -2.49513626  1087234958
-2.49513626 0.97057742 2.42880893  1064859587
2.32200789 6.64260626 -2.49513626  1087749083
-2.49513626 0.97057742 2.10662508  1064859587
1.99809659 6.74711370 -2.49513626  1087957271
-2.49513626 0.97057742 6.75845909  1064870712
6.77609777 -1.03925920 -2.49513626  3211660244
-2.49513626 0.97124052 6.80608606  1064870711
6.83778667 -0.49017239 -2.49513626  3200416969
-2.49513626 0.97124052 6.85003471  1064870711
6.85516262 -0.04843867 -2.49513626  1031690913
-2.49513626 0.97124052 6.84948301  1064870712
6.84402800 0.39349601 -2.49513626  1060722274
-2.49513626 0.97124052 6.79010725  1064870712
6.77401733 1.05275977 -2.49513626  1068533176
-2.49513626 0.97124052 6.66723013  1064870711
6.61233568 1.80902565 -2.49513626  1073032188
-2.49513626 0.97124052 6.51712608  1064870712
6.44517136 2.33566976 -2.49513626  1075584332
-2.49513626 0.97124046 6.32469034  1064870712
6.09116554 3.14535356 -2.49513626  1078956009
-2.49513626 0.97124046 5.50718307  1064870711
5.37268829 4.25791168 -2.49513626  1083029963
-2.49513626 0.97124052 5.16051245  1064870711
5.08707857 4.59534550 -2.49513626  1083549725
-2.49513626 0.97124046 4.93626928  1064870711
4.85892820 4.83595133 -2.49513626  1084519229
-2.49513626 0.97124046 4.45368290  1064870711
4.19646978 5.42081642 -2.49513626  1085387947
-2.49513626 0.97124046 3.92944384  1064870711
3.55921841 5.85897160 -2.49513626  1086263265
-2.49513626 0.97124046 3.27174473  1064870712
3.17418814 6.07619333 -2.49513626  1086791499
-2.49513626 0.97124052 2.67453241  1064870712
2.57241321 6.35439205 -2.49513626  1087234963
-2.49513626 0.97124046 2.15750527  1064870712
2.05231190 6.54091835 -2.49513626  1087590764
-2.49513626 0.97124046 6.60477972  1064881315
6.63400698 -0.79949772 -2.49513626  3205877343
-2.49513626 0.97187251 6.67684698  1064881315
6.68184233 -0.04721399 -2.49513626  1031269365
-2.49513626 0.97187251 6.67630959  1064881315
6.65515661 0.59844214 -2.49513626  1065572519
-2.49513626 0.97187251 6.56622887  1064881315
6.54540586 1.34421349 -2.49513626  1069124523
-2.49513626 0.97187251 6.49866009  1064881315
6.47275066 1.65913951 -2.49513626  1073491704
-2.49513626 0.97187251 6.35235691  1064881315
6.28221750 2.27661705 -2.49513626  1075325649
-2.49513626 0.97187251 6.20554543  1064881315
6.16478586 2.57772374 -2.49513626  1077402617
-2.49513626 0.97187251 5.98582649  1064881315
5.93716526 3.06583095 -2.49513626  1079008485
-2.49513626 0.97187251 5.78197336  1064881315
5.55407763 3.71503353 -2.49513626  1081308782
-2.49513626 0.97187251 5.36794281  1064881315
4.88559866 4.55852747 -2.49513626  1083785998
-2.49513626 0.97187251 4.58163166  1064881315
4.50261211 4.93717813 -2.49513626  1084246742
-2.49513626 0.97187251 4.34107971  1064881315
4.25860929 5.14912653 -2.49513626  1084822672
-2.49513626 0.97187251 4.00464582  1064881315
3.74131513 5.53640747 -2.49513626  1085477510
-2.49513626 0.97187251 3.56085968  1064881315
3.09393477 5.92256641 -2.49513626  1086265353
-2.49513626 0.97187251 2.90136337  1064881315
2.60691237 6.15250063 -2.49513626  1086814118
-2.49513626 0.97187251 2.30636477  1064881315
2.20494723 6.30773115 -2.49513626  1087042928
-2.49513626 0.97187251 1.89736462  1064881315
6.49120092 -0.57066262 -2.49513626  3203304926
-2.49513626 0.97247547 6.50622416  1064891431
6.51120090 -0.25611761 -2.49513626  1030866350
-2.49513626 0.97247547 6.51416969  1064891431
6.51067734 0.26909131 -2.49513626  1052737840
-2.49513626 0.97247547 6.49861670  1064891431
6.49004984 0.58359510 -2.49513626  1060121464
-2.49513626 0.97247547 6.45423937  1064891431
6.43894148 1.00068521 -2.49513626  1067096167
-2.49513626 0.97247547 6.38302088  1064891431
6.36105633 1.41361237 -2.49513626  1069681671
-2.49513626 0.97247547 6.31216764  1064891431
6.12636328 2.22013617 -2.49513626  1075078239
-2.49513626 0.97247547 5.92766762  1064891431
5.88326025 2.80153155 -2.49513626  1078283146
-2.49513626 0.97247547 5.63852882  1064891431
5.41628695 3.62286758 -2.49513626  1080912939
-2.49513626 0.97247547 5.17152309  1064891431
5.10692883 4.04729605 -2.49513626  1082401200
-2.49513626 0.97247547 4.97377634  1064891431
4.90524960 4.28950596 -2.49513626  1082902266
-2.49513626 0.97247547 4.76439238  1064891431
4.69209814 4.52167606 -2.49513626  1083838966
-2.49513626 0.97247547 4.31270552  1064891431
4.23338270 4.95376682 -2.49513626  1084272422
-2.49513626 0.97247547 3.98889160  1064891431
3.90529466 5.21632051 -2.49513626  1084811872
-2.49513626 0.97247547 3.64849734  1064891431
3.47251892 5.51388741 -2.49513626  1085534078
-2.49513626 0.97247547 3.10990953  1064891431
3.01717758 5.77563572 -2.49513626  1085954661
-2.49513626 0.97247547 2.73437047  1064891431
2.44516730 6.04007483 -2.49513626  1086489808
-2.49513626 0.97247547 2.15024447  1064891431
1.95079327 6.21737289 -2.49513626  1086844868
-2.49513626 0.97247547 1.74931192  1064891431
6.32327700 -0.65880179 -2.49513626  3189175554
-2.49513626 0.97305131 6.35207987  1064901093
6.34702253 0.36492053 -2.49513626  1055864375
-2.49513626 0.97305131 6.29701710  1064901092
6.28209162 0.97630805 -2.49513626  1068533989
-2.49513626 0.97305131 6.07487345  1064901092
6.04386044 1.97220802 -2.49513626  1074032909
-2.49513626 0.97305131 5.94142818  1064901092
5.90417910 2.35764980 -2.49513626  1075639911
-2.49513626 0.97305131 5.82509136  1064901092
5.55184364 3.09756064 -2.49513626  1079456120
-2.49513626 0.97305131 5.10725498  1064901092
5.04554796 3.86785555 -2.49513626  1082190260
-2.49513626 0.97305131 4.78575993  1064901092
4.64833403 4.33714819 -2.49513626  1082993473
-2.49513626 0.97305131 4.35912943  1064901092
4.28394699 4.69740820 -2.49513626  1083736582
-2.49513626 0.97305131 3.97227478  1064901092
3.72761154 5.15002489 -2.49513626  1084666850
-2.49513626 0.97305131 3.55962157  1064901092
3.47422743 5.32424545 -2.49513626  1085023602
-2.49513626 0.97305131 3.12384033  1064901092
2.94368029 5.63494253 -2.49513626  1085657163
-2.49513626 0.97305131 2.66776371  1064901092
2.57437015 5.81295824 -2.49513626  1086017945
-2.49513626 0.97305131 2.38560510  1064901092
6.11767197 -1.03949904 -2.49513626  3211842382
-2.49513626 0.97360182 6.14800787  1064910328
6.16078091 -0.74246663 -2.49513626  3199208491
-2.49513626 0.97360182 6.20368958  1064910328
6.20339108 0.15625130 -2.49513626  1052139063
-2.49513626 0.97360182 6.18857908  1064910328
6.17065716 0.65533185 -2.49513626  1062902964
-2.49513626 0.97360182 6.13175154  1064910328
6.11558962 1.05168664 -2.49513626  1066612812
-2.49513626 0.97360182 6.07849979  1064910328
6.05758095 1.34617186 -2.49513626  1069074968
-2.49513626 0.97360182 5.98540258  1064910328
5.89922094 1.92500913 -2.49513626  1073825190
-2.49513626 0.97360182 5.76288366  1064910328
5.55883646 2.75786304 -2.49513626  1077294962
-2.49513626 0.97360182 5.41897869  1064910328
5.10158730 3.53274345 -2.49513626  1081187928
-2.49513626 0.97360182 4.86328793  1064910328
4.80051088 3.93211865 -2.49513626  1082149328
-2.49513626 0.97360182 4.60475779  1064910328
4.32708263 4.44778967 -2.49513626  1083357248
-2.49513626 0.97360182 4.10695410  1064910328
3.95482707 4.78182077 -2.49513626  1083902455
-2.49513626 0.97360182 3.71898055  1064910328
3.55688143 5.08478975 -2.49513626  1084640363
-2.49513626 0.97360182 3.30685115  1064910328
3.13582706 5.35472202 -2.49513626  1085177691
-2.49513626 0.97360182 2.87323380  1064910328
2.78417659 5.54570293 -2.49513626  1085554223
-2.49513626 0.97360182 2.32851505  1064910328
1.95294607 5.89003229 -2.49513626  1086219746
-2.49513626 0.97360182 1.66585517  1064910328
5.97374582 -1.01504326 -2.49513626  3211471068
-2.49513626 0.97412860 6.04386234  1064919166
6.05006218 -0.33575371 -2.49513626  3195265122
-2.49513626 0.97412860 6.05922222  1064919166
6.05912542 0.05488793 -2.49513626  1042037991
-2.49513626 0.97412860 6.04938364  1064919166
6.04298401 0.44530082 -2.49513626  1057680635
-2.49513626 0.97412860 6.01438332  1064919166
6.00172186 0.83386356 -2.49513626  1066385830
-2.49513626 0.97412860 5.91507196  1064919166
5.89310551 1.40970314 -2.49513626  1069585601
-2.49513626 0.97412860 5.84458971  1064919166
5.76043272 1.87972200 -2.49513626  1073509934
-2.49513626 0.97412860 5.69683456  1064919166
5.59034538 2.33752871 -2.49513626  1075534308
-2.49513626 0.97412860 5.51207018  1064919166
5.42805767 2.69298053 -2.49513626  1077736069
-2.49513626 0.97412860 5.14254570  1064919166
5.09020472 3.28721642 -2.49513626  1079822008
-2.49513626 0.97412860 4.92529964  1064919166
4.86775351 3.60846066 -2.49513626  1080815408
-2.49513626 0.97412860 4.74887657  1064919166
4.68757153 3.83961105 -2.49513626  1082260010
-2.49513626 0.97412860 4.43035221  1064919166
4.36312675 4.20465279 -2.49513626  1082991753
-2.49513626 0.97412860 4.08305359  1064919166
4.01033449 4.54237747 -2.49513626  1083914258
-2.49513626 0.97412860 3.55280733  1064919166
3.31130552 5.07456779 -2.49513626  1084707303
-2.49513626 0.97412860 2.97734952  1064919166
2.89186692 5.32475901 -2.49513626  1085004994
-2.49513626 0.97412860 2.63101125  1064919166
2.45364690 5.54036045 -2.49513626  1085520674
-2.49513626 0.97412860 2.18287730  1064919166
2.09145451 5.68698549 -2.49513626  1085803511
-2.49513626 0.97412860 1.72056592  1064919166
5.83552217 -0.99155682 -2.49513626  3211114476
-2.49513626 0.97463304 5.91007137  1064927629
5.91459084 -0.23264994 -2.49513626  1041801063
-2.49513626 0.97463304 5.89537716  1064927629
5.84895229 0.90899330 -2.49513626  1065379913
-2.49513626 0.97463304 5.79815674  1064927629
5.77820349 1.28408599 -2.49513626  1068516436
-2.49513626 0.97463304 5.73379517  1064927629
5.70935297 1.56198478 -2.49513626  1070837999
-2.49513626 0.97463304 5.56501532  1064927629
5.53177547 2.10617542 -2.49513626  1074560104
-2.49513626 0.97463304 5.46098948  1064927629
5.42346191 2.37119365 -2.49513626  1075664206
-2.49513626 0.97463304 5.34418678  1064927629
5.30246067 2.63066912 -2.49513626  1077098401
-2.49513626 0.97463304 5.07337570  1064927629
5.02355289 3.13056326 -2.49513626  1078821775
-2.49513626 0.97463304 4.86630058  1064927629
4.81133461 3.44783401 -2.49513626  1080137977
-2.49513626 0.97463304 4.57910872  1064927629
4.45578957 3.89646578 -2.49513626  1081995388
-2.49513626 0.97463304 4.32783842  1064927629
4.26216888 4.10736179 -2.49513626  1082498587
-2.49513626 0.97463304 4.12751627  1064927629
4.05857420 4.30865145 -2.49513626  1083433844
-2.49513626 0.97463304 3.54745913  1064927629
3.39283586 4.85027504 -2.49513626  1084245742
-2.49513626 0.97463304 3.07316852  1064927629
2.82495379 5.20155001 -2.49513626  1085171524
-2.49513626 0.97463304 2.22112107  1064927629
1.86287487 5.61838055 -2.49513626  1085699547
-2.49513626 0.97463304 5.70263863  1064935740
5.73091650 -0.78460217 -2.49513626  3207671110
-2.49513626 0.97511649 5.75323486  1064935740
5.76957083 -0.41359791 -2.49513626  3198425775
-2.49513626 0.97511649 5.78423405  1064935740
5.78254366 0.14565173 -2.49513626  1054451113
-2.49513626 0.97511649 5.75202942  1064935740
5.74143171 0.70353806 -2.49513626  1061931003
-2.49513626 0.97511649 5.71576262  1064935740
5.70069933 0.98033863 -2.49513626  1065958267
-2.49513626 0.97511649 5.66612291  1064935740
5.64662695 1.25484574 -2.49513626  1068253382
-2.49513626 0.97511649 5.60323048  1064935740
5.55400610 1.61617661 -2.49513626  1072017249
-2.49513626 0.97511649 5.43829012  1064935740
5.37192106 2.14510822 -2.49513626  1075072260
-2.49513626 0.97511649 5.05134630  1064935740
5.00524902 2.89939785 -2.49513626  1077851085
-2.49513626 0.97511649 4.80796480  1064935740
4.75548887 3.29307675 -2.49513626  1079485181
-2.49513626 0.97511649 4.59069157  1064935740
4.47483778 3.66535950 -2.49513626  1082299181
-2.49513626 0.97511649 4.03352833  1064935740
3.96615648 4.21053791 -2.49513626  1082835558
-2.49513626 0.97511649 3.61417508  1064935740
3.46667933 4.63046169 -2.49513626  1083568560
-2.49513626 0.97511649 3.31557679  1064935740
2.76062560 5.08310461 -2.49513626  1084752854
-2.49513626 0.97511649 2.34229279  1064935740
2.08381104 5.39599276 -2.49513626  1085127033
-2.49513626 0.97511649 5.58933163  1064943521
5.60242653 -0.76701081 -2.49513626  3207410767
-2.49513626 0.97558028 5.62424469  1064943521
5.63296127 -0.49521190 -2.49513626  3198184646
-2.49513626 0.97558028 5.65316677  1064943521
5.65445566 0.05122218 -2.49513626  1047469580
-2.49513626 0.97558028 5.63939667  1064943521
5.63196421 0.50643498 -2.49513626  1058594975
-2.49513626 0.97558028 5.58761215  1064943521
5.57288456 0.95835888 -2.49513626  1067255005
-2.49513626 0.97558028 5.49952745  1064943521
5.45424986 1.49219310 -2.49513626  1071679756
-2.49513626 0.97558028 5.34673405  1064943521
5.28460693 2.01206779 -2.49513626  1074854348
-2.49513626 0.97558028 5.14393616  1064943521
5.10540104 2.43112493 -2.49513626  1075894034
-2.49513626 0.97558028 4.79909229  1064943521
4.75024748 3.06767583 -2.49513626  1078539556
-2.49513626 0.97558028 4.59635639  1064943521
4.54265165 3.36746240 -2.49513626  1079782743
-2.49513626 0.97558028 4.37450743  1064943521
4.31616354 3.65324688 -2.49513626  1081251794
-2.49513626 0.97558028 4.07172871  1064943521
3.94309235 4.05308676 -2.49513626  1082373983
-2.49513626 0.97558028 3.81036043  1064943521
3.74249911 4.23900890 -2.49513626  1082757063
-2.49513626 0.97558028 3.60387087  1064943521
3.53314352 4.41501808 -2.49513626  1083119054
-2.49513626 0.97558028 3.31552672  1064943521
3.24123955 4.63355780 -2.49513626  1083567433
-2.49513626 0.97558028 3.09015465  1064943521
2.85754943 4.87953901 -2.49513626  1084162863
-2.49513626 0.97558028 2.53710699  1064943521
2.45529485 5.09382057 -2.49513626  1084505976
-2.49513626 0.97558028 2.28977752  1064943521
2.20611453 5.20658731 -2.49513626  1084734007
-2.49513626 0.97558028 2.03709006  1064943521
1.95177329 5.30717087 -2.49513626  1084936317
-2.49513626 0.97558028 1.60565519  1064943521
1.51802528 5.44711637 -2.49513626  3207160050
-2.49513626 0.97602546 5.50854492  1064950990
5.51563787 -0.39539289 -2.49513626  3193868261
-2.49513626 0.97602546 5.52830410  1064950990
5.52956295 0.05009107 -2.49513626  1047123447
-2.49513626 0.97602546 5.51483822  1064950990
5.50756884 0.49524906 -2.49513626  1064299456
-2.49513626 0.97602546 5.41674232  1064950990
5.37805700 1.28649747 -2.49513626  1069205552
-2.49513626 0.97602546 5.30955839  1064950990
5.22863960 1.79997587 -2.49513626  1073470259
-2.49513626 0.97602546 5.13548756  1064950990
4.99263620 2.37742805 -2.49513626  1075994881
-2.49513626 0.97602546 4.87183762  1064950990
4.69309330 2.92463017 -2.49513626  1078248301
-2.49513626 0.97602546 4.54618597  1064950990
4.49483490 3.22103000 -2.49513626  1079165405
-2.49513626 0.97602546 4.38864326  1064950990
4.22083139 3.57255602 -2.49513626  1080621100
-2.49513626 0.97602546 3.98179555  1064950990
3.85600066 3.96356416 -2.49513626  1082183326
-2.49513626 0.97602546 3.72620010  1064950990
3.65983725 4.14538097 -2.49513626  1083025204
-2.49513626 0.97602546 3.24229765  1064950990
3.16964889 4.53121519 -2.49513626  1083350415
-2.49513626 0.97602546 2.94683886  1064950990
2.71713281 4.81619740 -2.49513626  1083932689
-2.49513626 0.97602546 2.56042910  1064950990
2.40106416 4.98131275 -2.49513626  1084268226
-2.49513626 0.97602546 2.23920131  1064950990
2.15738773 5.09158754 -2.49513626  1084491216
-2.49513626 0.97602546 1.90866578  1064950990
1.65547800 5.27617073 -2.49513626  1084912942
-2.49513626 0.97602546 5.33297253  1064958165
5.35941696 -0.73374122 -2.49513626  3205464199
-2.49513626 0.97645313 5.38863039  1064958165
5.39556646 -0.38678569 -2.49513626  3197728612
-2.49513626 0.97645313 5.40523434  1064958165
5.40927839 -0.03822204 -2.49513626  1040939679
-2.49513626 0.97645313 5.40479898  1064958165
5.40049314 0.31050059 -2.49513626  1053526484
-2.49513626 0.97645313 5.35794306  1064958165
5.33115911 0.91679001 -2.49513626  1066093149
-2.49513626 0.97645313 5.28059196  1064958165
5.26098251 1.25849211 -2.49513626  1068231809
-2.49513626 0.97645313 5.19397640  1064958165
5.05538464 1.92479396 -2.49513626  1073767216
-2.49513626 0.97645313 4.80642366  1064958165
4.76578283 2.55911589 -2.49513626  1076407818
-2.49513626 0.97645313 4.68078995  1064958165
4.63646269 2.78656912 -2.49513626  1077352960
-2.49513626 0.97645313 4.49629498  1064958165
4.44721985 3.07960773 -2.49513626  1078864733
-2.49513626 0.97645313 4.29310608  1064958165
4.18476200 3.42775679 -2.49513626  1080288748
-2.49513626 0.97645313 4.01411581  1064958165
3.58016562 4.05514288 -2.49513626  1083037603
-2.49513626 0.97645313 2.95611739  1064958165
2.88268924 4.57732058 -2.49513626  1083531091
-2.49513626 0.97645313 2.65798235  1064958165
2.50469160 4.79460907 -2.49513626  1083880229
-2.49513626 0.97645313 2.34879351  1064958165
2.26992083 4.91011333 -2.49513626  1084187210
-2.49513626 0.97645313 1.94873130  1064958165
1.86711478 5.07696962 -2.49513626  1084450751
-2.49513626 0.97645313 1.53600907  1064958165
1.45218074 5.21084690 -2.49513626  3203225632
-2.49513626 0.97686422 5.28920650  1064965062
5.29187298 -0.12274200 -2.49513626  1027892619
-2.49513626 0.97686422 5.29161787  1064965062
5.28878117 0.21858957 -2.49513626  1056094507
-2.49513626 0.97686422 5.26369572  1064965062
5.25399780 0.64380932 -2.49513626  1062213877
-2.49513626 0.97686422 5.21672153  1064965062
5.18508291 1.06484783 -2.49513626  1066597348
-2.49513626 0.97686422 5.12752724  1064965062
5.10566998 1.39682686 -2.49513626  1069371083
-2.49513626 0.97686422 5.05797672  1064965062
5.03215456 1.64207268 -2.49513626  1071418148
-2.49513626 0.97686422 4.97659397  1064965062
4.94686747 1.88347685 -2.49513626  1073431388
-2.49513626 0.97686422 4.88356686  1064965062
4.81518745 2.19839907 -2.49513626  1074898411
-2.49513626 0.97686422 4.66348219  1064965062
4.62249851 2.57904840 -2.49513626  1076481735
-2.49513626 0.97686422 4.49238300  1064965062
4.39978027 2.94294405 -2.49513626  1077992756
-2.49513626 0.97686422 4.30260324  1064965062
4.14848232 3.28771710 -2.49513626  1079421660
-2.49513626 0.97686422 4.04031801  1064965062
3.98465300 3.48446894 -2.49513626  1080235718
-2.49513626 0.97686422 3.87022972  1064965062
3.75178480 3.73404479 -2.49513626  1081266631
-2.49513626 0.97686422 3.62943745  1064965062
3.56684113 3.91109037 -2.49513626  1082296088
-2.49513626 0.97686422 3.30734038  1064965062
3.24027348 4.18564463 -2.49513626  1082628177
-2.49513626 0.97686422 3.03409171  1064965062
2.96376348 4.38578224 -2.49513626  1083135101
-2.49513626 0.97686422 2.74822474  1064965062
2.67492342 4.56768799 -2.49513626  1083581009
-2.49513626 0.97686422 2.29837680  1064965062
2.22119522 4.80471468 -2.49513626  1083891837
-2.49513626 0.97686422 1.82703578  1064965062
1.74669588 4.99680233 -2.49513626  1084333542
-2.49513626 0.97686422 1.50303805  1064965062
5.12132120 -0.78546375 -2.49513626  3206460306
-2.49513626 0.97725976 5.16129875  1064971698
5.16794348 -0.37046829 -2.49513626  3192948804
-2.49513626 0.97725976 5.17981195  1064971698
5.18099213 0.04693341 -2.49513626  1050166524
-2.49513626 0.97725976 5.16719484  1064971698
5.16038322 0.46403006 -2.49513626  1057756057
-2.49513626 0.97725976 5.14273787  1064971698
5.13190889 0.71301442 -2.49513626  1066393363
-2.49513626 0.97725976 5.03903627  1064971698
5.01894665 1.28649080 -2.49513626  1069108359
-2.49513626 0.97725976 4.95086813  1064971698
4.89903688 1.68650937 -2.49513626  1071772850
-2.49513626 0.97725976 4.81175661  1064971698
4.78015137 1.99875748 -2.49513626  1074378707
-2.49513626 0.97725976 4.67791176  1064971698
4.56472731 2.45115304 -2.49513626  1076246078
-2.49513626 0.97725976 4.35249662  1064971698
4.25960398 2.94968653 -2.49513626  1078011557
-2.49513626 0.97725976 4.16228390  1064971698
4.11199379 3.15220475 -2.49513626  1078850884
-2.49513626 0.97725976 4.00821877  1064971698
3.90027356 3.41068172 -2.49513626  1080178677
-2.49513626 0.97725976 3.73079205  1064971698
3.67233753 3.65497255 -2.49513626  1080929650
-2.49513626 0.97725976 3.55258012  1064971698
3.49130940 3.82826924 -2.49513626  1081644170
-2.49513626 0.97725976 3.36605716  1064971698
3.23730373 4.04533768 -2.49513626  1082333872
-2.49513626 0.97725976 3.03790927  1064971698
2.96984196 4.24557829 -2.49513626  1082744708
-2.49513626 0.97725976 2.83140779  1064971698
2.69002771 4.42816305 -2.49513626  1083372653
-2.49513626 0.97725976 2.24970484  1064971698
2.17415977 4.70296812 -2.49513626  1083746551
-2.49513626 0.97725976 1.86651945  1064971698
1.78834665 4.86278725 -2.49513626  1084055449
-2.49513626 0.97725976 1.55111945  1064971698
1.47121048 4.96793890 -2.49513626  1084208741
-2.49513626 0.97725976 5.01428366  1064978085
5.02603292 -0.68809849 -2.49513626  3204879185
-2.49513626 0.97764045 5.05342674  1064978085
5.06512308 -0.28109357 -2.49513626  3186682094
-2.49513626 0.97764045 5.07279062  1064978085
5.07270908 0.04595236 -2.49513626  1040371078
-2.49513626 0.97764045 5.06455278  1064978085
5.05919790 0.37280712 -2.49513626  1055432219
