# .PCD v0.7 - Point Cloud Data file format
VERSION 0.7
FIELDS x y z intensity
SIZE 4 4 4 4
TYPE F F F F
COUNT 1 1 1 1
WIDTH 1003
HEIGHT 1
VIEWPOINT 0 0 0 1 0 0 0
POINTS 1003
DATA ascii
-36.86780930 14.88865185 -2.64753628  1097120770
-2.64753628 0.85265976 -37.32602310  1062881257
-37.74587631 12.49624825 -2.64753628  1094597723
-2.64753628 0.85265970 -38.30283737  1062881257
-38.46886826 10.05253506 -2.64753628  1089611959
-2.64753628 0.85265976 -39.25630569  1062881257
-39.58007812 3.78483152 -2.64753628  1078565527
-2.64753628 0.85265976 -39.68104172  1062881256
-37.43006134 1.77008629 -2.49513626  1066779599
-2.49513626 0.86051911 -37.46755600  1063013115
-37.47194672 -0.03087744 -2.49514103  3219814218
-2.49513626 0.86051911 -10.36597538  1063187216
-10.94674206 32.86141205 -2.59566283  1107520967
-2.60959625 0.86963540 -12.72680187  1063142398
-15.35948849 31.81540871 -2.64753628  1106932833
-2.64753628 0.86787111 -16.87083817  1063136462
-18.34317589 30.19374466 -2.64753628  1106193100
-2.64753628 0.86787117 -19.30138206  1063136462
-19.77312279 29.27725220 -2.64753628  1105700651
-2.64753628 0.86787117 -20.70121574  1063136462
-21.15733337 28.29313469 -2.64753628  1105173116
-2.64753628 0.86787117 -22.49268913  1063136462
-22.92640114 26.87963867 -2.64753628  1104417263
-2.64753628 0.86787111 -24.19179916  1063136458
-24.60124779 25.35572243 -2.64753628  1103604326
-2.64753628 0.86787111 -25.40122414  1063136462
-25.79145050 24.14405060 -2.64753628  1102069453
-2.50275636 0.87462282 -25.79310989  1063249736
-26.12978935 20.79885864 -2.50275636  1101202693
-2.50275636 0.87462282 -26.78290939  1063249736
-27.09919930 19.51902390 -2.50275636  1099594006
-2.64753628 0.86787117 -31.59450340  1063136462
-32.31782913 14.27220440 -2.64753628  1096550914
-2.64753628 0.86787117 -32.96636200  1063136462
-33.16570663 12.17252827 -2.64753628  1093773221
-2.64753628 0.86787111 -34.03363419  1063136462
-34.31992340 8.38313675 -2.64753628  1089221347
-2.49513626 0.87497967 -32.95349884  1063255721
-33.02550125 4.22992945 -2.49513626  1076417124
-2.49513626 0.87497967 -33.29145432  1063255722
-33.27731323 -1.09444332 -2.49513626  3226359406
-2.49513626 0.87497962 -9.56001949  1063343859
-10.04454231 30.15306664 -2.64753628  1106241509
-2.64753628 0.88023299 -12.89313412  1063343859
-13.81746674 28.62128830 -2.64753628  1105406811
-2.64753628 0.88023299 -14.72763062  1063343859
-15.17708302 27.92411995 -2.64753628  1105029920
-2.64753628 0.88023299 -16.50159836  1063343859
-16.93477440 26.89449310 -2.64753628  1104475398
-2.64753628 0.88023299 -17.78798485  1063343859
-18.20778084 26.04951668 -2.64753628  1104021748
-2.64753628 0.88023299 -19.43869019  1063343859
-20.23452950 24.50845337 -2.64753628  1103021944
-2.64753628 0.88023299 -20.57291222  1063447241
-21.26403236 21.22469139 -2.50275636  1101283899
-2.50275636 0.88639504 -22.25952339  1063447241
-22.58004761 19.81888199 -2.50275636  1100525113
-2.50275636 0.88639504 -27.70619583  1063343859
-27.95217514 15.12534618 -2.64753628  1097518762
-2.64753628 0.88023299 -28.42255020  1063343859
-29.07321739 12.83934212 -2.64753628  1094112742
-2.64753628 0.88023299 -30.32781982  1063343859
-30.47622490 9.01665306 -2.64753628  1089623160
-2.49513626 0.88672054 -29.09714317  1063452702
-29.40510368 5.70069027 -2.49513626  1082719648
-2.49513626 0.88672054 -29.70990181  1063452702
-29.81659508 2.85120106 -2.49513626  1064266990
-2.49513626 0.88672054 -29.94835854  1063452702
-29.93642426 -0.98456639 -2.49513626  3222996376
-2.49513626 0.88672054 -8.68672371  1063515701
-10.43323231 26.92828560 -2.64753628  1104547746
-2.64753628 0.89047557 -11.29084206  1063515701
-12.13685513 26.20461082 -2.64753628  1104154064
-2.64753628 0.89047557 -12.97043324  1063515701
-13.79066753 25.37326431 -2.64753628  1103704358
-2.64753628 0.89047557 -15.38779831  1063515701
-15.77745724 24.18794823 -2.64753628  1102928883
-2.64753628 0.89047557 -15.99635220  1063610771
-16.34880638 21.86281967 -2.50275636  1101842621
-2.50275636 0.89614218 -18.04640770  1063610771
-18.37235260 20.19215012 -2.50275636  1100949816
-2.50275636 0.89614218 -20.18821335  1063589402
-20.83722687 18.88890648 -2.57837343  1099948379
-2.64753628 0.89047557 -22.88008308  1063515701
-23.15952492 17.25171089 -2.64753628  1099368153
-2.64753628 0.89047557 -23.70049286  1063515701
-23.96188927 16.11871719 -2.64753628  1098218231
-2.64753628 0.89047557 -24.70887375  1063515701
-25.39875603 13.74365234 -2.64753628  1095245045
-2.64753628 0.89047557 -26.60096931  1063515701
-26.77770042 10.81387138 -2.64753628  1093018164
-2.64753628 0.89047557 -26.09819031  1063615791
-26.21858406 7.30213070 -2.49513626  1088172391
-2.49513626 0.89644140 -26.43912697  1063615791
-26.63251114 5.60751963 -2.49513626  1084605056
-2.49513626 0.89644140 -26.79854012  1063615791
-26.87123680 4.32106256 -2.49513626  1081668531
-2.49513626 0.89644140 -26.99591827  1063615791
-27.04786110 3.02460408 -2.49513626  1076219574
-2.49513626 0.89644140 -27.13089752  1063615791
-27.21644211 -0.02242566 -2.49513626  3211068993
-2.49513626 0.89644140 -27.18391228  1063615791
-27.12730980 -2.20094776 -2.49513626  3223890533
-2.49513626 0.89644140 -7.95859861  1063660392
-8.36194992 25.10203743 -2.64753628  1103371856
-2.64753628 0.89909983 -10.73337269  1063660392
-11.11955166 24.00813675 -2.64753628  1102235160
-2.50275636 0.90434450 -11.94380093  1063748383
-13.99848461 20.72698975 -2.50275636  1101266930
-2.50275636 0.90434462 -15.61266613  1063748383
-16.66057014 18.91095924 -2.52195287  1100429611
-2.55731416 0.90236455 -18.32379341  1063669129
-18.72606659 18.69141960 -2.64753628  1099835560
-2.64753628 0.89909983 -19.88500595  1063660392
-20.43413162 16.80717087 -2.64753628  1099158011
-2.64753628 0.89909983 -20.96227074  1063660392
-21.71391106 15.11756802 -2.64753628  1097615435
-2.64753628 0.89909983 -22.18723488  1063660392
-22.41538429 14.05650711 -2.64753628  1096491183
-2.64753628 0.89909983 -22.85434914  1063660392
-23.26983070 12.59165859 -2.64753628  1094941013
-2.64753628 0.89909983 -23.84811211  1063660392
-24.02867889 11.07507420 -2.64753628  1093338226
-2.64753628 0.89909983 -24.37126732  1063660392
-24.53315926 9.90743828 -2.64753628  1091689372
-2.64753628 0.89909983 -23.54302025  1063753029
-23.91063499 7.07416534 -2.49513626  1086962814
-2.49513626 0.90462142 -24.22299767  1063753029
-24.31470871 5.52786303 -2.49513626  1083694502
-2.49513626 0.90462142 -24.55228043  1063753029
-24.67916679 3.56382561 -2.49513626  1078640139
-2.49513626 0.90462142 -24.82193565  1063753029
-24.85675240 1.97550368 -2.49513626  1061638487
-2.49513626 0.90462154 -24.93227959  1063753029
-24.93162346 -0.42015526 -2.49513626  3209810905
-2.49513626 0.90462142 -24.90535164  1063753029
-24.85349083 -2.01646399 -2.49513626  3222964020
-2.49513626 0.90462136 -6.94063663  1063865779
-7.64228058 21.77162361 -2.50275636  1101799371
-2.50275636 0.91134185 -9.36049080  1063865779
-11.01865005 20.27307129 -2.50275636  1101054025
-2.50275636 0.91134185 -11.98025990  1063865778
-12.60608292 19.32601357 -2.50275636  1100437183
-2.53214192 0.91034901 -14.14124012  1063832635
-14.61417961 18.90372849 -2.59170675  1099984514
-2.64753628 0.90646064 -16.71408653  1063783886
-16.99699783 17.51826096 -2.64753628  1099113912
-2.64753628 0.90646064 -18.34474182  1063783882
-18.60041428 15.80543804 -2.64753628  1098388930
-2.64753628 0.90646064 -19.09740639  1063783886
-19.57474899 14.58137989 -2.64753628  1097089221
-2.64753628 0.90646058 -21.27846146  1063783886
-22.32834625 9.86064816 -2.64753628  1092093538
-2.64753628 0.90646064 -22.63287735  1063783886
-21.59517097 7.92589045 -2.49513626  1089635739
-2.49513626 0.91159946 -22.34671593  1063870101
-22.51016808 4.73955250 -2.49513626  1082923574
-2.49513626 0.91159946 -22.76755142  1063870101
-22.81732178 2.92247176 -2.49513626  1072252711
-2.49513626 0.91159946 -22.95767593  1063870101
-22.97804070 1.08664262 -2.49513626  3200677094
-2.49513626 0.91159946 -22.97621727  1063870101
-22.92837524 -1.86027157 -2.49513626  1101169918
-2.50275636 0.91738057 -7.09196901  1063967092
-7.41483688 20.08763313 -2.50275636  1100987092
-2.50275636 0.91738057 -8.05478382  1063967092
-8.37169743 19.70805550 -2.50275636  1100705771
-2.50275636 0.91738057 -10.28833008  1063958902
-10.68191242 18.92423630 -2.53997278  1100428900
-2.63772726 0.91312426 -13.27256298  1063890506
-13.85397530 17.92039299 -2.64753628  1099796880
-2.64753628 0.91281569 -15.24399471  1063890506
-15.77306652 16.25679779 -2.64753628  1098638105
-2.64753628 0.91281569 -16.53616524  1063890506
-17.02376366 14.94204235 -2.64753628  1097510219
-2.64753628 0.91281569 -17.72222710  1063890506
-18.37971687 13.23854733 -2.64753628  1095701424
-2.64753628 0.91281569 -18.79453278  1063890506
-18.99473190 12.33990669 -2.64753628  1093767242
-2.64753628 0.91281569 -19.92156601  1063890505
-20.09173775 10.45921135 -2.64753628  1092758658
-2.64753628 0.91281569 -20.41662025  1063890506
-20.57122993 9.48149776 -2.64753628  1090505682
-2.49513626 0.91762149 -20.04015160  1063971132
-20.15542221 7.03306818 -2.49513626  1087811957
-2.49513626 0.91762149 -20.37046051  1063971134
-20.56457138 5.72743320 -2.49513626  1085060464
-2.49513626 0.91762149 -20.73755836  1063971134
-20.81607056 4.73246002 -2.49513626  1082965651
-2.49513626 0.91762149 -20.95704269  1063971134
-21.01948738 3.72656584 -2.49513626  1079568732
-2.49513626 0.91762149 -21.12809372  1063971134
-21.17427444 2.71202540 -2.49513626  1073876269
-2.49513626 0.91762149 -21.30452156  1063971134
-21.34424782 -0.35969979 -2.49513626  3207832244
-2.49513626 0.91762149 -21.27735710  1063971132
-21.24695969 -2.06708288 -2.49513626  1100504944
-2.50275636 0.92264479 -6.64831448  1064049084
-6.98989534 18.93642616 -2.52954698  1100443198
-2.56013298 0.92094344 -8.39760494  1064009994
-8.76115322 18.91615677 -2.61241078  1100434150
-2.63164878 0.91882712 -9.48876858  1063983485
-9.79005623 18.72160149 -2.64753628  1100251035
-2.64753628 0.91835761 -11.25724220  1063983485
-11.54230213 17.69516373 -2.64753628  1099698231
-2.64753628 0.91835767 -12.37940788  1063983485
-13.18788815 16.50524712 -2.64753628  1099060620
-2.64753628 0.91835767 -14.95278168  1063983484
-15.19003105 14.68354225 -2.64753628  1097008902
-2.64753628 0.91835767 -16.31665421  1063983485
-16.73836708 12.89072323 -2.64753628  1095077917
-2.64753628 0.91835767 -17.33855629  1063983485
-17.52978516 11.79195881 -2.64753628  1094199037
-2.64753628 0.91835767 -18.24919319  1063983485
-18.41743851 10.35092163 -2.64753628  1092043449
-2.64753628 0.91835767 -18.21368599  1064059206
-18.34025383 7.75061083 -2.49513626  1089377583
-2.49513626 0.92287099 -18.79909897  1064059206
-18.99966431 5.95395994 -2.49513626  1084944845
-2.49513626 0.92287099 -19.26385689  1064059206
-19.41528893 4.41399813 -2.49513626  1079931716
-2.49513626 0.92287099 -19.65817642  1064059206
-19.70631599 2.84570765 -2.49513626  1074633986
-2.49513626 0.92287099 -19.88849258  1064059206
-19.90842056 0.30268145 -2.49513626  3198928348
-2.49513626 0.92287099 -19.89996529  1064059206
-19.88692093 -0.97331059 -2.49513626  3215285490
-2.49513626 0.92287099 -19.84551239  1064059206
-19.81715965 -1.92797935 -2.49513626  1100415261
-2.64753628 0.92323279 -6.25519323  1064065276
-6.55531359 18.67503548 -2.64753628  1100253800
-2.64753628 0.92323285 -7.15041161  1064065277
-7.44528627 18.33843803 -2.64753628  1099863844
-2.64753628 0.92323279 -8.88932991  1064065275
-9.17157459 17.53887749 -2.64753628  1099636229
-2.64753628 0.92323273 -9.72893715  1064065276
-11.59734344 16.03843498 -2.64753628  1098344089
-2.64753628 0.92323273 -12.60097408  1064065276
-13.08364487 14.85088730 -2.64753628  1097255054
-2.64753628 0.92323273 -13.78223038  1064065278
-14.00813770 13.98222637 -2.64753628  1096554562
-2.64753628 0.92323279 -14.44902897  1064065276
-14.66394138 13.29283333 -2.64753628  1095820761
-2.64753628 0.92323273 -15.08241081  1064065275
-15.48540115 12.32610798 -2.64753628  1093988540
-2.64753628 0.92323279 -16.59727478  1064065276
-16.93428040 10.24495983 -2.64753628  1092587122
-2.64753628 0.92323273 -17.40712929  1064065275
-16.81278038 8.07833195 -2.49513626  1090116125
-2.49513626 0.92748731 -17.18161583  1064136657
-17.40550041 6.70663071 -2.49513626  1086629621
-2.49513626 0.92748737 -17.70769691  1064136656
-17.88648796 5.29187012 -2.49513626  1084237101
-2.49513626 0.92748737 -18.04687309  1064136656
-18.12013054 4.42610073 -2.49513626  1082413860
-2.49513626 0.92748731 -18.25268936  1064136655
-18.31193161 3.55012536 -2.49513626  1075292533
-2.49513626 0.92748743 -18.59423828  1064136657
-18.61555099 1.17961335 -2.49513626  3162230866
-2.49513626 0.92748743 -18.65023994  1064136656
-18.63059044 -0.91182303 -2.49513626  3217101860
-2.49513626 0.92748731 -18.56523705  1064136655
-5.59897041 17.75159073 -2.64753628  1099777749
-2.64753628 0.92755431 -6.16498089  1064137779
-6.72466850 17.35644913 -2.64753628  1099501158
-2.64753628 0.92755431 -7.55105495  1064137779
-7.82273483 16.89000893 -2.64753628  1099093335
-2.64753628 0.92755431 -9.14962959  1064137779
-9.40822506 16.06090927 -2.64753628  1098477922
-2.64753628 0.92755431 -10.41779423  1064137779
-10.90677834 15.08342457 -2.64753628  1097761245
-2.64753628 0.92755425 -11.38454723  1064137779
-11.61908340 14.54181480 -2.64753628  1097181415
-2.64753628 0.92755431 -12.30456352  1064137779
-12.52680874 13.76759529 -2.64753628  1096354447
-2.64753628 0.92755431 -13.17400932  1064137779
-13.38305664 12.93682194 -2.64753628  1094768824
-2.64753628 0.92755431 -14.92731380  1064137779
-15.44447708 10.38921261 -2.64753628  1091964467
-2.64753628 0.92755431 -16.22653580  1064137779
-15.56007004 8.10014820 -2.49513626  1090203909
-2.49513626 0.93157834 -15.93139267  1064205291
-16.36907005 6.30727768 -2.49513626  1086417281
-2.49513626 0.93157834 -16.65328407  1064205291
-16.73950195 5.24569225 -2.49513626  1083042959
-2.49513626 0.93157834 -17.04116631  1064205291
-17.16581154 3.61428928 -2.49513626  1079356870
-2.49513626 0.93157834 -17.31968117  1064205291
-17.36208916 2.50719070 -2.49513626  1074700710
-2.49513626 0.93157834 -17.43352318  1064205291
-17.48704147 1.38979042 -2.49513626  1062478501
-2.49513626 0.93157834 -17.54015541  1064205291
-17.53969193 -0.29558426 -2.49513626  3213996314
-2.49513626 0.93157834 -17.48472786  1064205291
-5.55139351 16.66493797 -2.64753628  1099208502
-2.64753628 0.93141097 -6.08260727  1064202483
-7.12575197 16.05496025 -2.64753628  1098717182
-2.64753628 0.93141097 -7.88914108  1064202484
-8.38804054 15.43304729 -2.64753628  1098170119
-2.64753628 0.93141103 -9.59648609  1064202484
-9.83103085 14.55640602 -2.64753628  1097055732
-2.64753628 0.93141097 -10.51925278  1064202484
-10.74333096 13.89672661 -2.64753628  1096333691
-2.64753628 0.93141097 -11.39881420  1064202483
-11.82125568 12.99215698 -2.64753628  1095553298
-2.64753628 0.93141097 -12.23153782  1064202484
-12.43200397 12.40900326 -2.64753628  1094717765
-2.64753628 0.93141103 -13.38540649  1064202484
-13.56597042 11.15807343 -2.64753628  1092895211
-2.64753628 0.93141103 -14.41559792  1064202483
-14.88129807 9.33193874 -2.64753628  1091664356
-2.64753628 0.93141103 -14.29933357  1064266529
-14.68367386 7.64391518 -2.49513626  1089276705
-2.49513626 0.93522841 -14.92110443  1064266528
-15.24842644 6.44400501 -2.49513626  1085703355
-2.49513626 0.93522835 -15.62991810  1064266529
-15.71531296 5.20275259 -2.49513626  1083590994
-2.49513626 0.93522841 -16.08134842  1064266528
-16.19897461 3.41072202 -2.49513626  1078568126
-2.49513626 0.93522841 -16.29995728  1064266528
-16.42000771 2.10309315 -2.49513626  1057248043
-2.49513626 0.93522835 -16.55179405  1064266529
-16.54520035 -0.54414809 -2.49513626  3209636249
-2.49513626 0.93522841 -16.51926231  1064266528
-5.00122118 15.85643291 -2.64753628  1098670930
-2.64753628 0.93487388 -5.75750732  1064260581
-6.00673914 15.50347710 -2.64753628  1098283979
-2.64753628 0.93487388 -6.50049543  1064260581
-6.74490452 15.19687366 -2.64753628  1097830671
-2.64753628 0.93487382 -7.46750593  1064260580
-7.70459843 14.73356152 -2.64753628  1097312848
-2.64753628 0.93487388 -8.85924530  1064260581
-10.16913986 13.15398407 -2.64753628  1095574571
-2.64753628 0.93487388 -10.78958130  1064260580
-10.99092770 12.47550488 -2.64753628  1095025574
-2.64753628 0.93487388 -11.38508892  1064260581
-11.76754856 11.74578476 -2.64753628  1094247445
-2.64753628 0.93487388 -12.13793087  1064260581
-12.49583817 10.96780491 -2.64753628  1093419556
-2.64753628 0.93487382 -12.84090996  1064260581
-13.00852776 10.35456181 -2.64753628  1092767990
-2.64753628 0.93487388 -13.49114132  1064260580
-13.40681648 8.11090088 -2.49513626  1089841829
-2.49513626 0.93850493 -13.78113842  1064321500
-14.01304817 7.01169491 -2.49513626  1087973568
-2.49513626 0.93850493 -14.33384037  1064321500
-14.43344593 6.09959459 -2.49513626  1085556994
-2.49513626 0.93850493 -14.70991898  1064321500
-14.87537766 4.92468119 -2.49513626  1083568365
-2.49513626 0.93850493 -15.02556133  1064321500
-15.09487534 4.20406961 -2.49513626  1079923125
-2.49513626 0.93850493 -15.33318806  1064321500
-15.47063160 2.48777938 -2.49513626  1074746462
-2.49513626 0.93850493 -15.57231808  1064321500
-15.59822464 1.49157465 -2.49513626  1065201140
-2.49513626 0.93850493 -15.65188694  1064321500
-15.66715622 -0.26402768 -2.49513626  3208910624
-2.49513626 0.93850493 -15.61805725  1064321500
-4.74684381 15.04992676 -2.64753628  1097829629
-2.64753628 0.93800002 -5.22671175  1064313030
-5.93629980 14.62166882 -2.64753628  1097360636
-2.64753628 0.93800002 -6.63216591  1064313029
-7.08767271 14.09956646 -2.64753628  1096272551
-2.64753628 0.93800002 -8.40863705  1064313030
-9.04071426 12.93437195 -2.64753628  1095539449
-2.64753628 0.93800002 -9.45058727  1064313029
-10.04706478 12.16919613 -2.64753628  1094720289
-2.64753628 0.93800002 -10.43189526  1064313029
-10.80600452 11.50056934 -2.64753628  1093820331
-2.64753628 0.93800002 -11.34625244  1064313029
-11.52056026 10.78468990 -2.64753628  1093243964
-2.64753628 0.93800002 -12.02556133  1064313029
-12.80493641 9.22314548 -2.64753628  1091585187
-2.64753628 0.93800002 -12.34021187  1064371117
-12.47165585 8.10220337 -2.49513626  1090312039
-2.49513626 0.94146234 -12.84664154  1064371117
-12.96507931 7.28660059 -2.49513626  1088585232
-2.49513626 0.94146234 -13.19193935  1064371117
-13.30029964 6.65505981 -2.49513626  1086797441
-2.49513626 0.94146234 -13.60477543  1064371117
-13.79032707 5.56906796 -2.49513626  1084488165
-2.49513626 0.94146234 -14.04205132  1064371117
-14.11876202 4.67419434 -2.49513626  1082590405
-2.49513626 0.94146234 -14.32710552  1064371116
-14.44761944 3.52904010 -2.49513626  1079182057
-2.49513626 0.94146234 -14.60053349  1064371117
-14.64402199 2.59625387 -2.49513626  1075256966
-2.49513626 0.94146234 -14.71970177  1064371117
-14.86512566 0.46438128 -2.49513626  3158886132
-2.49513626 0.94146228 -14.86435032  1064371117
-14.85460377 -0.72701782 -2.49513626  3212249472
-2.49513626 0.94146234 -14.82367802  1064371117
-4.51648235 14.31955147 -2.64753628  1097067744
-2.64753628 0.94083619 -5.42454338  1064360612
-5.64821291 13.91207409 -2.64753628  1096416804
-2.64753628 0.94083619 -6.52783918  1064360612
-6.74370670 13.41531086 -2.64753628  1096082279
-2.64753628 0.94083619 -7.38066626  1064360612
-8.00056553 12.70586872 -2.64753628  1095317346
-2.64753628 0.94083619 -8.60196686  1064360613
-8.79809284 12.16724014 -2.64753628  1094739225
-2.64753628 0.94083619 -9.18349648  1064360612
-9.37268448 11.73034286 -2.64753628  1094109301
-2.64753628 0.94083613 -9.92563343  1064360612
-10.45561218 10.77626705 -2.64753628  1093072998
-2.64753628 0.94083625 -10.96146488  1064360612
-11.59630680 9.53801632 -2.64753628  1091935611
-2.64753628 0.94083619 -11.61325550  1064416122
-11.74132824 7.89817381 -2.49513626  1089507886
-2.49513626 0.94414485 -12.44540405  1064416122
-12.75468826 6.12847042 -2.49513626  1086163847
-2.49513626 0.94414485 -12.94453430  1064416122
-13.03448582 5.50839233 -2.49513626  1084854209
-2.49513626 0.94414490 -13.20431995  1064416122
-13.28416634 4.87557125 -2.49513626  1082615920
-2.49513626 0.94414485 -13.63180637  1064416122
-13.69089890 3.57764649 -2.49513626  1078510939
-2.49513626 0.94414485 -13.84702110  1064416122
-13.93334293 2.47025466 -2.49513626  1072045162
-2.49513626 0.94414485 -14.08636951  1064416122
-14.10613632 1.12109196 -2.49513626  1059790625
-2.49513626 0.94414485 -14.14899158  1064416122
-14.15062237 -0.01165975 -2.49513626  3215942516
-2.49513626 0.94414485 -4.52513266  1064403972
-4.95814276 13.43216133 -2.64753628  1096129949
-2.64753628 0.94342065 -5.38605928  1064403972
-5.80844116 13.08694935 -2.64753628  1095753724
-2.64753628 0.94342065 -6.22486019  1064403972
-6.43070602 12.79266167 -2.64753628  1095321522
-2.64753628 0.94342065 -7.03810406  1064403972
-7.23702192 12.35442066 -2.64753628  1094961707
-2.64753628 0.94342065 -7.62923145  1064403972
-7.82242346 11.99232292 -2.64753628  1094435972
-2.64753628 0.94342065 -8.38974476  1064403972
-8.57460308 11.46657467 -2.64753628  1093859696
-2.64753628 0.94342065 -9.11578941  1064403972
-9.46495247 10.74341202 -2.64753628  1092905716
-2.64753628 0.94342065 -10.13374901  1064403972
-10.29455566 9.95129871 -2.64753628  1092390795
-2.64753628 0.94342065 -10.91090107  1064403972
-10.55757999 8.40365982 -2.49513626  1090763762
-2.49513626 0.94658887 -10.94926739  1064457126
-11.07424641 7.71006346 -2.49513626  1089536732
-2.49513626 0.94658887 -11.43200016  1064457127
-11.54541874 6.98478794 -2.49513626  1088000075
-2.49513626 0.94658887 -11.86777210  1064457127
-11.96916389 6.23081732 -2.49513626  1085587297
-2.49513626 0.94658893 -12.34374714  1064457126
-12.42951298 5.25272512 -2.49513626  1084338450
-2.49513626 0.94658887 -12.66760254  1064457126
-12.74048042 4.44568491 -2.49513626  1082204047
-2.49513626 0.94658887 -13.05545521  1064457126
-13.10845661 3.20192981 -2.49513626  1077900242
-2.49513626 0.94658893 -13.20433426  1064457126
-13.32269287 2.14237523 -2.49513626  1073142794
-2.49513626 0.94658893 -13.38451099  1064457126
-13.45143414 1.06905937 -2.49513626  1059270098
-2.49513626 0.94658887 -13.48726273  1064457127
-13.49228954 0.20513202 -2.49513626  3194540999
-2.49513626 0.94658887 -13.48655701  1064457126
-13.47771740 -0.65962970 -2.49513626  1095242631
-2.64753628 0.94578534 -5.74973869  1064443645
-5.94794416 12.32048225 -2.64753628  1094842876
-2.64753628 0.94578534 -6.91507530  1064443645
-7.10337162 11.69249249 -2.64753628  1093755333
-2.64753628 0.94578534 -8.36769104  1064443645
-8.54006672 10.68828678 -2.64753628  1093192957
-2.64753628 0.94578534 -8.87821960  1064443645
-9.20724964 10.11923313 -2.64753628  1092585134
-2.64753628 0.94578534 -9.52680016  1064443646
-9.83659649 9.50861168 -2.64753628  1091934361
-2.64753628 0.94578534 -10.13625908  1064443645
-9.82540321 8.34898663 -2.49513626  1090240367
-2.49513626 0.94882482 -10.46218109  1064494639
-10.58160114 7.36707687 -2.49513626  1088834082
-2.49513626 0.94882482 -10.81225967  1064494639
-11.03180790 6.67406034 -2.49513626  1087365789
-2.49513626 0.94882482 -11.24003410  1064494639
-11.43670750 5.95363855 -2.49513626  1085841515
-2.49513626 0.94882482 -11.62163639  1064494639
-11.70963192 5.39709044 -2.49513626  1083867049
-2.49513626 0.94882482 -12.24021816  1064494639
-12.30359459 3.85560107 -2.49513626  1079025932
-2.49513626 0.94882482 -12.52531147  1064494639
-12.57274151 2.85836959 -2.49513626  1075645950
-2.49513626 0.94882482 -12.73002625  1064494639
-12.76119614 1.84279537 -2.49513626  1067260318
-2.49513626 0.94882482 -12.85303211  1064494639
-12.86776066 0.81539243 -2.49513626  1044952683
-2.49513626 0.94882482 -12.88660145  1064494639
-12.87815189 -0.63028574 -2.49513626  3210095364
-2.49513626 0.94882482 -12.85134029  1064494639
-12.83298111 -1.24850011 -2.49513626  1095227219
-2.64753628 0.94795698 -4.13910627  1064480079
-4.33769846 12.35740566 -2.64753628  1095013554
-2.64753628 0.94795698 -4.73149729  1064480079
-4.92658997 12.13465214 -2.64753628  1094591559
-2.64753628 0.94795698 -5.88212395  1064480079
-6.43770504 11.40513515 -2.64753628  1093751333
-2.64753628 0.94795698 -7.15511322  1064480079
-7.50297451 10.73435974 -2.64753628  1093128317
-2.64753628 0.94795698 -8.01019955  1064480079
-8.17521763 10.23166275 -2.64753628  1092720343
-2.64753628 0.94795698 -8.65752411  1064480079
-8.96800232 9.54442501 -2.64753628  1091986509
-2.64753628 0.94795698 -9.26926517  1064480079
-9.41635609 9.10238361 -2.64753628  1091515514
-2.64753628 0.94795704 -9.27634907  1064529084
-9.53251743 7.84053802 -2.49513626  1089862131
-2.49513626 0.95087790 -10.01521492  1064529084
-10.12953281 7.05234003 -2.49513626  1088189314
-2.49513626 0.95087790 -10.45676899  1064529084
-10.56051159 6.38893414 -2.49513626  1086783746
-2.49513626 0.95087790 -10.75983715  1064529084
-11.20937252 5.16652107 -2.49513626  1084198687
-2.49513626 0.95087790 -11.36918640  1064529084
-11.58696461 4.25266457 -2.49513626  1081623581
-2.49513626 0.95087790 -11.77796078  1064529084
-11.94173431 3.12056184 -2.49513626  1077637417
-2.49513626 0.95087790 -12.03560734  1064529084
-12.07791233 2.54302144 -2.49513626  1070118451
-2.49513626 0.95087790 -12.26627254  1064529084
-12.30393028 0.97786039 -2.49513626  1061671577
-2.49513626 0.95087790 -12.34272289  1064529084
-12.34097672 -0.20797388 -2.49513626  3201284588
-2.49513626 0.95087790 -12.32797050  1064529084
-12.31672001 -0.80085272 -2.49513626  3212805580
-2.49513626 0.95087790 -3.77752519  1064513653
-4.15940285 11.84947205 -2.64753628  1094484021
-2.64753628 0.94995815 -4.53701544  1064513653
-4.90995884 11.55868530 -2.64753628  1094166525
-2.64753628 0.94995815 -5.27785683  1064513653
-5.45979834 11.30935383 -2.64753628  1093895872
-2.64753628 0.94995815 -5.99703836  1064513653
-6.34756470 10.83601761 -2.64753628  1093384696
-2.64753628 0.94995815 -6.69157171  1064513653
-7.02870417 10.40711975 -2.64753628  1092418126
-2.64753628 0.94995815 -7.99542570  1064513653
-8.14959431 9.55484200 -2.64753628  1092011170
-2.64753628 0.94995815 -8.45162010  1064513653
-8.37663269 8.36114407 -2.49513626  1090611732
-2.49513626 0.95276952 -8.76879787  1064560820
-8.89506245 7.80734825 -2.49513626  1089813964
-2.49513626 0.95276952 -9.14070225  1064560820
-9.26001549 7.37081718 -2.49513626  1088569264
-2.49513626 0.95276952 -9.82030582  1064560820
-9.92491150 6.44771242 -2.49513626  1086589671
-2.49513626 0.95276952 -10.22332287  1064560820
-10.58434391 5.29607677 -2.49513626  1082666061
-2.49513626 0.95276952 -11.17462826  1064560820
-11.49737930 2.80839872 -2.49513626  1076358150
-2.49513626 0.95276952 -11.65367317  1064560820
-11.68528557 1.87906933 -2.49513626  1067998027
-2.49513626 0.95276952 -11.78166199  1064560820
-11.79819584 0.93766683 -2.49513626  1061133312
-2.49513626 0.95276952 -11.82219124  1064560820
-11.82962704 0.36955342 -2.49513626  3192665653
-2.49513626 0.95276952 -11.82901096  1064560820
-11.77978992 -1.14603686 -2.49513626  1094128894
-2.64753628 0.95180804 -3.99463105  1064544689
-4.35728550 11.24620533 -2.64753628  1093770455
-2.64753628 0.95180804 -4.89274836  1064544689
-5.06878185 10.94397449 -2.64753628  1093519369
-2.64753628 0.95180804 -5.58890438  1064544689
-5.75947046 10.59677219 -2.64753628  1093042704
-2.64753628 0.95180804 -6.26210356  1064544689
-6.58922338 10.10174370 -2.64753628  1092610788
-2.64753628 0.95180804 -6.90956783  1064544689
-7.67869139 9.30058098 -2.64753628  1091752513
-2.64753628 0.95180804 -7.97281027  1064544689
-7.64958048 8.40727615 -2.49513626  1090823634
-2.49720597 0.95448118 -7.91507292  1064590155
-8.54269218 7.49806213 -2.49513626  1089177282
-2.49513626 0.95451802 -8.77860069  1064590155
-8.89318848 7.07882261 -2.49513626  1087673694
-2.49513626 0.95451802 -9.32839680  1064590155
-9.43127537 6.34424162 -2.49513626  1086080702
-2.49513626 0.95451802 -9.81833267  1064590155
-9.90884304 5.56894350 -2.49513626  1084748788
-2.49513626 0.95451802 -10.24525166  1064590155
-10.47000122 4.42463827 -2.49513626  1082667896
-2.49513626 0.95451802 -10.67056465  1064590155
-10.73195076 3.74482346 -2.49513626  1079609545
-2.49513626 0.95451802 -11.04190731  1064590155
-11.15878105 2.16335058 -2.49513626  1073609662
-2.49513626 0.95451802 -11.24986076  1064590155
-11.29614639 1.26318276 -2.49513626  1066040987
-2.49513626 0.95451802 -11.33081627  1064590155
-11.34380054 0.71882367 -2.49513626  1057584233
-2.49513626 0.95451802 -11.36100101  1064590155
-11.36493874 -0.19152543 -2.49513626  3208433081
-2.49513626 0.95451802 -11.32932472  1064590155
-11.31314087 -1.10063732 -2.49513626  1093730214
-2.64753628 0.95352304 -3.66598868  1064573462
-4.19066620 10.81616402 -2.64753628  1093400132
-2.64753628 0.95352304 -4.53513908  1064573461
-4.70565367 10.60226822 -2.64753628  1092997720
-2.64753628 0.95352304 -5.53923655  1064573462
-5.70185280 10.10149097 -2.64753628  1092423026
-2.64753628 0.95352304 -6.33726168  1064573462
-6.64535809 9.50738239 -2.64753628  1091753237
-2.64753628 0.95352304 -7.24076462  1064573462
-7.09418249 8.31742001 -2.49513626  1090731549
-2.49513626 0.95613879 -7.35707331  1064617347
-7.61241579 7.84587240 -2.49513626  1089675737
-2.49513626 0.95613879 -7.98070955  1064617347
-8.76691437 6.53054380 -2.49513626  1087140965
-2.49513626 0.95613879 -8.97169495  1064617347
-9.07063866 6.10165167 -2.49513626  1086231426
-2.49513626 0.95613879 -9.26152706  1064617347
-9.35340595 5.65865755 -2.49513626  1085293012
-2.49513626 0.95613879 -9.52995300  1064617347
-9.61456490 5.20258617 -2.49513626  1084000640
-2.49513626 0.95613879 -9.85349369  1064617347
-10.00016117 4.41627884 -2.49513626  1082326575
-2.49513626 0.95613885 -10.20085526  1064617347
-10.26253796 3.76657486 -2.49513626  1080459541
-2.49513626 0.95613879 -10.43170166  1064617347
-10.57675552 2.76387739 -2.49513626  1076233305
-2.49513626 0.95613879 -10.65989876  1064617347
-10.79325676 1.73562527 -2.49513626  1068614927
-2.49513626 0.95613879 -10.86420155  1064617347
-10.88227558 1.04061425 -2.49513626  1060174726
-2.49513626 0.95613879 -10.91971302  1064617347
-10.92657661 0.34134299 -2.49513626  3205025273
-2.49513626 0.95613879 -10.90888023  1064617347
-10.88054276 -1.05855072 -2.49513626  1093301426
-2.64753628 0.95511723 -3.53047657  1064600208
-3.69986868 10.54033279 -2.64753628  1093119179
-2.64753628 0.95511723 -4.03575897  1064600208
-4.20216846 10.35033321 -2.64753628  1092911536
-2.64753628 0.95511723 -4.53170729  1064600208
-5.01719332 9.98075294 -2.64753628  1092422032
-2.64753628 0.95511723 -5.49108124  1064600208
-5.64627600 9.63883781 -2.64753628  1092141307
-2.64753628 0.95511723 -5.95227909  1064600208
-6.10300636 9.35633373 -2.64753628  1091837443
-2.64753628 0.95511723 -6.30475712  1064642622
-6.43907642 8.32906246 -2.49513626  1090754763
-2.49513626 0.95764530 -6.70268583  1064642622
-6.83192778 8.00996780 -2.49513626  1090308169
-2.49513626 0.95764530 -7.08512068  1064642622
-7.20900154 7.67236090 -2.49513626  1089339168
-2.49513626 0.95764530 -7.56941271  1064642622
-7.68569851 7.19478178 -2.49513626  1088570142
-2.49513626 0.95764530 -7.91232300  1064642622
-8.34097099 6.42363310 -2.49513626  1086645660
-2.49513626 0.95764530 -8.73534298  1064642622
-8.82839108 5.73535824 -2.49513626  1085170219
-2.49513626 0.95764530 -9.17767525  1064642622
-9.25915909 5.01027060 -2.49513626  1083621425
-2.49513626 0.95764530 -9.76185322  1064642622
-9.88318157 3.62734222 -2.49513626  1079231143
-2.49513626 0.95764530 -10.04608917  1064642622
-10.14181995 2.82459688 -2.49513626  1075831115
-2.49513626 0.95764530 -10.30193615  1064642622
-10.36615658 1.83782685 -2.49513626  1069586726
-2.49513626 0.95764530 -10.44250679  1064642622
-10.49472046 0.83407265 -2.49513626  1059745968
-2.49513626 0.95764530 -10.52267838  1064642622
-10.52212524 -0.34605768 -2.49513626  3204693856
-2.49513626 0.95764530 -10.49333191  1064642622
-10.47834206 -1.01942110 -2.49513626  1092845860
-2.64753628 0.95660293 -3.72988892  1064625134
-3.89134884 10.04361439 -2.64753628  1092378902
-2.64753628 0.95660293 -5.14359140  1064625134
-5.44423532 9.29392719 -2.64753628  1091783084
-2.64753628 0.95660293 -5.88461781  1064625134
-5.81554317 8.32012939 -2.49513626  1090373271
-2.49513626 0.95904911 -6.95103931  1064666174
-7.29855394 7.05519533 -2.49513626  1087526713
-2.49513626 0.95904911 -7.83987570  1064666174
-7.94220877 6.32186556 -2.49513626  1085623947
-2.49513626 0.95904911 -8.60001469  1064666174
-8.68533611 5.25448465 -2.49513626  1084171889
-2.49513626 0.95904911 -8.92783546  1064666174
-9.00411034 4.68729067 -2.49513626  1083267898
-2.49513626 0.95904911 -9.14970303  1064666174
-9.21897984 4.24912500 -2.49513626  1081296375
-2.49513626 0.95904911 -9.52952576  1064666174
-9.58435059 3.34438109 -2.49513626  1078085066
-2.49513626 0.95904911 -9.73401260  1064666174
-9.77891064 2.72352147 -2.49513626  1075456171
-2.49513626 0.95904911 -9.93329811  1064666174
-10.04687881 1.45083070 -2.49513626  1067782786
-2.49513626 0.95904911 -10.08821297  1064666174
-10.10499668 0.96628642 -2.49513626  1059346272
-2.49513626 0.95904911 -10.14614201  1064666174
-10.15108871 -0.00836424 -2.49513626  3190761070
-2.49513626 0.95904911 -10.14560604  1064666174
-10.13895607 -0.49622336 -2.49513626  3207109953
-2.49513626 0.95904911 -10.10338974  1064666174
-3.12757015 9.91599274 -2.64753628  1092474212
-2.64753628 0.95799071 -3.91127038  1064648417
-4.06515646 9.56990719 -2.64753628  1092023447
-2.64753628 0.95799065 -4.52039337  1064648417
-4.66987848 9.28982449 -2.64753628  1091791796
-2.64753628 0.95799071 -5.11095953  1064648417
-5.25541258 8.97158146 -2.64753628  1090911932
-2.49513626 0.96036023 -5.22511339  1064687708
-5.35352993 8.20734024 -2.49513626  1090645383
-2.49513626 0.96036029 -5.74179506  1064688171
-5.86830616 7.84752846 -2.49513626  1088941670
-2.49513626 0.96036029 -6.70995283  1064688172
-6.82352877 7.03279305 -2.49513626  1088024471
-2.49513626 0.96036029 -7.15365028  1064688172
-7.26004791 6.58121729 -2.49513626  1087297860
-2.49513626 0.96036023 -7.56796074  1064688172
-7.66674805 6.10259771 -2.49513626  1085752382
-2.49513626 0.96036029 -8.61818695  1064688171
-8.69181442 4.52471828 -2.49513626  1082937499
-2.49513626 0.96036029 -8.96382332  1064688172
-9.02611351 3.81444836 -2.49513626  1079514160
-2.49513626 0.96036029 -9.25193119  1064688172
-9.30248070 3.07970238 -2.49513626  1077643476
-2.49513626 0.96036029 -9.39639854  1064688172
-9.43974304 2.62906027 -2.49513626  1075744381
-2.49513626 0.96036023 -9.51914978  1064688172
-9.58877754 2.01893258 -2.49513626  1072609406
-2.49513626 0.96036023 -9.64855385  1064688171
-9.67472744 1.55575836 -2.49513626  1068712946
-2.49513626 0.96036029 -9.75452232  1064688171
-9.79901314 -0.00807181 -2.49513626  3209354414
-2.49513626 0.96036023 -3.02230000  1064670211
-3.17547512 9.53257561 -2.64753628  1092014219
-2.64753628 0.95928973 -3.92833209  1064670211
-4.22268152 9.11716080 -2.64753628  1091618281
-2.64753628 0.95928973 -4.51269722  1064670211
-4.38797188 8.39115429 -2.49513626  1090854328
-2.49513626 0.96158755 -4.65463352  1064708762
-4.78618717 8.17056847 -2.49513626  1090198531
-2.49513626 0.96158755 -5.67079258  1064708762
-5.91090250 7.39776850 -2.49513626  1089055407
-2.49513626 0.96158755 -6.14495087  1064708762
-6.25962448 7.10512924 -2.49513626  1088430072
-2.49513626 0.96158755 -6.48411226  1064708762
-6.70193386 6.68953800 -2.49513626  1087543744
-2.49513626 0.96158755 -6.91287327  1064708762
-7.40869856 5.89719629 -2.49513626  1085858565
-2.49513626 0.96158755 -7.77126217  1064708762
-7.94066286 5.15864658 -2.49513626  1083471257
-2.49513626 0.96158755 -8.39926624  1064708762
-8.59970760 3.96369553 -2.49513626  1081397999
-2.49513626 0.96158749 -8.72231102  1064708762
-8.83596134 3.40464306 -2.49513626  1078438281
-2.49513626 0.96158755 -8.98937702  1064708762
-9.03591728 2.83160305 -2.49513626  1076620947
-2.49513626 0.96158749 -9.16156292  1064708762
-9.23358154 2.09922266 -2.49513626  1073330608
-2.49513626 0.96158755 -9.32380676  1064708761
-9.37198734 1.35337245 -2.49513626  1065792159
-2.49513626 0.96158755 -9.43943596  1064708762
-9.46458435 0.29567099 -2.49513626  3154094883
-2.49513626 0.96158755 -9.44924927  1064708762
-9.43819141 -0.76575840 -2.49513626  3211442926
-2.49513626 0.96158749 -3.21901059  1064690655
-3.36555982 9.11768150 -2.64753628  1091573004
-2.64753628 0.96050835 -3.71578646  1064728075
-3.98217463 8.24861717 -2.49513626  1090469890
-2.49513626 0.96273869 -4.75573921  1064728075
-4.88058043 7.75095606 -2.49513626  1089486058
-2.49513626 0.96273869 -5.36709499  1064728075
-5.48535204 7.33541489 -2.49513626  1088938971
-2.49513626 0.96273869 -5.71761417  1064728075
-5.83156490 7.06330252 -2.49513626  1087949760
-2.49513626 0.96273869 -6.27207375  1064728075
-6.48277521 6.47078180 -2.49513626  1086869369
-2.49513626 0.96273869 -6.78626919  1064728075
-7.07409239 5.81847286 -2.49513626  1085704723
-2.49513626 0.96273869 -7.25692511  1064728075
-7.34555531 5.47176456 -2.49513626  1084717373
-2.49513626 0.96273869 -7.60004568  1064728075
-7.68099880 4.98995399 -2.49513626  1083420246
-2.49513626 0.96273869 -8.12460518  1064728075
-8.19134331 4.09869385 -2.49513626  1081991582
-2.49513626 0.96273863 -8.31848812  1064728075
-8.49314117 3.42985964 -2.49513626  1079166359
-2.49513626 0.96273863 -8.59869957  1064728075
-8.64816856 3.01770568 -2.49513626  1076841442
-2.49513626 0.96273869 -8.82372570  1064728075
-8.86197281 2.31577301 -2.49513626  1074469336
-2.49513626 0.96273869 -8.96303272  1064728075
-8.99212551 1.74330103 -2.49513626  1070377756
-2.49513626 0.96273863 -9.04337597  1064728074
-9.06551838 1.30911636 -2.49513626  1066726091
-2.49513626 0.96273869 -9.10281754  1064728074
-9.14121914 0.57925308 -2.49513626  1054705614
-2.49513626 0.96273869 -9.15954971  1064728075
-9.14025211 -0.59431386 -2.49513626  1090904602
-2.49513626 0.96382046 -3.07095146  1064746223
-3.33599234 8.21686554 -2.49513626  1090568370
-2.49513626 0.96382040 -3.85552382  1064746224
-3.98302054 7.92346287 -2.49513626  1090222529
-2.49513626 0.96382046 -4.23490667  1064746223
-4.84501982 7.42775726 -2.49513626  1089154118
-2.49513626 0.96382046 -5.08056879  1064746223
-5.42403316 7.01610041 -2.49513626  1088271461
-2.49513626 0.96382046 -5.75496531  1064746224
-5.86236238 6.65420961 -2.49513626  1087497892
-2.49513626 0.96382040 -6.17538691  1064746224
-6.27659893 6.26499033 -2.49513626  1086451864
-2.49513626 0.96382046 -6.75794601  1064746224
-6.84911108 5.63342524 -2.49513626  1085324253
-2.49513626 0.96382046 -7.02613020  1064746223
-7.11194181 5.29774237 -2.49513626  1084611542
-2.49513626 0.96382046 -7.35833216  1064746224
-7.58772278 4.59044695 -2.49513626  1082329522
-2.49513626 0.96382046 -8.05392742  1064746224
-8.11238575 3.58259869 -2.49513626  1079832486
-2.49513626 0.96382046 -8.22302818  1064746223
-8.27519321 3.18857145 -2.49513626  1074179408
-2.49513626 0.96382046 -8.64757633  1064746224
-8.70614052 1.68785751 -2.49513626  1069951166
-2.49513626 0.96382040 -8.75575924  1064746223
-8.77719784 1.26748133 -2.49513626  1065110640
-2.49513626 0.96382040 -8.82797718  1064746223
-8.84036732 0.70259237 -2.49513626  1040846025
-2.49513626 0.96382040 -8.86823940  1064746224
-8.86345482 -0.29150644 -2.49513626  3205713464
-2.49513626 0.96382040 -8.82657051  1064746223
-2.71597052 8.15317535 -2.49513626  1090632918
-2.49513626 0.96483886 -2.97586107  1064763310
-3.10468078 8.01322079 -2.49513626  1090440270
-2.49513626 0.96483886 -3.35988617  1064763310
-3.61164117 7.79787540 -2.49513626  1089712224
-2.49513626 0.96483886 -4.22425079  1064763310
-4.34363985 7.41508818 -2.49513626  1088836620
-2.49513626 0.96483886 -4.80974436  1064763310
-5.03550053 6.96379662 -2.49513626  1088174862
-2.49513626 0.96483886 -5.25608587  1064763310
-6.08225107 6.07099915 -2.49513626  1085845890
-2.49513626 0.96483886 -6.45867491  1064763310
-6.54869318 5.56465769 -2.49513626  1084039269
-2.49513626 0.96483886 -7.20644283  1064763310
-7.28054380 4.56557131 -2.49513626  1081996787
-2.49513626 0.96483886 -7.68525553  1064763310
-7.96841049 3.21795154 -2.49513626  1078312944
-2.49513626 0.96483886 -8.11385918  1064763310
-8.15818977 2.70087194 -2.49513626  1076131664
-2.49513626 0.96483886 -8.24055672  1064763310
-8.31445312 2.17270064 -2.49513626  1073906114
-2.49513626 0.96483886 -8.43656445  1064763310
-8.46169472 1.50018227 -2.49513626  1066122996
-2.49513626 0.96483886 -8.54041576  1064763310
-8.56663418 0.68083709 -2.49513626  1057693820
-2.49513626 0.96483886 -8.58405304  1064763310
-8.59265518 0.13064022 -2.49513626  3188999945
-2.49513626 0.96483886 -8.58900356  1064763310
-8.56550407 -0.69495368 -2.49513626  3210020528
-2.49513626 0.96483886 -2.50696135  1064779423
-2.88606620 7.81868219 -2.49513626  1090039683
-2.49513626 0.96579927 -3.13515258  1064779423
-3.38101649 7.61773682 -2.49513626  1089098534
-2.49513626 0.96579927 -4.09678411  1064779423
-4.44087315 7.05264521 -2.49513626  1088226233
-2.49513626 0.96579927 -4.77469826  1064779423
-4.99115753 6.67454386 -2.49513626  1087569807
-2.49513626 0.96579927 -5.20249510  1064779423
-5.30617857 6.42694569 -2.49513626  1087040046
-2.49513626 0.96579927 -5.70700264  1064779422
-5.89871883 5.88780832 -2.49513626  1085889615
-2.49513626 0.96579927 -6.08437872  1064779423
-6.43676376 5.29426908 -2.49513626  1084406399
-2.49513626 0.96579927 -6.68376875  1064779423
-6.98899078 4.54039431 -2.49513626  1083027608
-2.49513626 0.96579927 -7.13090944  1064779423
-7.26550055 4.08334017 -2.49513626  1081989414
-2.49513626 0.96579927 -7.39263058  1064779423
-7.51216602 3.60950375 -2.49513626  1078960770
-2.49513626 0.96579927 -7.72796631  1064779423
-7.86902618 2.74583197 -2.49513626  1076339666
-2.49513626 0.96579927 -7.99190187  1064779422
-8.02876663 2.23608923 -2.49513626  1074191195
-2.49513626 0.96579927 -8.09630299  1064779423
-8.12695694 1.84763467 -2.49513626  1071369177
-2.49513626 0.96579927 -8.22862625  1064779423
-8.28271103 0.92620695 -2.49513626  1061886189
-2.49513626 0.96579927 -8.32503414  1064779423
-8.33337688 0.12669836 -2.49513626  3152086766
-2.49513626 0.96579927 -8.33315659  1064779422
-8.32983398 -0.27395636 -2.49513626  3205132295
-2.49513626 0.96579927 -8.29517269  1064779423
-2.43317533 7.71441221 -2.49513626  1089836265
-2.49513626 0.96670640 -2.92237568  1064794642
-3.04287648 7.49489164 -2.49513626  1089355465
-2.49513626 0.96670640 -3.39956808  1064794642
-3.51676083 7.28456593 -2.49513626  1088898503
-2.49513626 0.96670640 -3.86280560  1064794642
-3.97620559 7.04430914 -2.49513626  1088379280
-2.49513626 0.96670640 -4.31016493  1064794642
-4.41931152 6.77511644 -2.49513626  1087799920
-2.49513626 0.96670640 -4.63416529  1064794642
-4.73982096 6.55489063 -2.49513626  1086994820
-2.49513626 0.96670640 -5.34726429  1064794642
-5.44384623 5.98306513 -2.49513626  1086104650
-2.49513626 0.96670640 -5.63278675  1064794642
-5.72510481 5.71451521 -2.49513626  1085335104
-2.49513626 0.96670640 -5.99312973  1064794642
-6.07942820 5.33601570 -2.49513626  1084517924
-2.49513626 0.96670640 -6.32885742  1064794642
-6.40877676 4.93559361 -2.49513626  1083875799
-2.49513626 0.96670640 -6.56365824  1064794642
-6.85303831 4.29748487 -2.49513626  1082289091
-2.49513626 0.96670640 -7.11426735  1064794642
-7.23398590 3.61966228 -2.49513626  1079555022
-2.49513626 0.96670640 -7.39958858  1064794642
-7.45100880 3.14880610 -2.49513626  1078057755
-2.49513626 0.96670640 -7.59373379  1064794642
-7.63742161 2.66501522 -2.49513626  1075498766
-2.49513626 0.96670640 -7.79245949  1064794642
-7.91548395 1.66661799 -2.49513626  1067737848
-2.49513626 0.96670640 -8.02349186  1064794642
-8.03893089 0.89894652 -2.49513626  1061494433
-2.49513626 0.96670640 -8.07284546  1064794642
-8.08000660 0.38210732 -2.49513626  1048662421
-2.49513626 0.96670640 -8.08810139  1064794642
-8.07199001 -0.52485371 -2.49513626  1089455253
-2.49513626 0.96756452 -2.60216784  1064809039
-2.72063375 7.37050724 -2.49513626  1089105475
-2.49513626 0.96756452 -2.95544314  1064809039
-3.07172298 7.23123598 -2.49513626  1088801646
-2.49513626 0.96756446 -3.30188560  1064809039
-3.64070487 6.96215010 -2.49513626  1088218278
-2.49513626 0.96756446 -3.97110486  1064809039
-4.18631697 6.64838409 -2.49513626  1087542007
-2.49513626 0.96756452 -4.39723349  1064809039
-4.50100708 6.43950319 -2.49513626  1087093431
-2.49513626 0.96756452 -4.80529213  1064809039
-4.90428305 6.13793612 -2.49513626  1086447518
-2.49513626 0.96756452 -5.09847307  1064809039
-5.56060028 5.55031347 -2.49513626  1085193293
-2.49513626 0.96756452 -5.73561621  1064809039
-5.90474224 5.18269014 -2.49513626  1084410871
-2.49513626 0.96756452 -6.06780148  1064809039
-6.22462893 4.79377317 -2.49513626  1083584608
-2.49513626 0.96756452 -6.37505770  1064809039
-6.44782495 4.48907757 -2.49513626  1082938189
-2.49513626 0.96756446 -6.72215843  1064809039
-6.84903717 3.84927940 -2.49513626  1081035814
-2.49513626 0.96756452 -7.13518286  1064809039
-7.23690891 3.05832720 -2.49513626  1075709918
-2.49513626 0.96756452 -7.56855106  1064809038
-7.60135889 1.98635590 -2.49513626  1072603310
-2.49513626 0.96756452 -7.66111183  1064809039
-7.68804121 1.61872971 -2.49513626  1069508213
-2.49513626 0.96756452 -7.77594709  1064809039
-7.79294538 0.99812841 -2.49513626  1063224455
-2.49513626 0.96756452 -7.82092953  1064809039
-7.83190823 0.62244385 -2.49513626  1056859045
-2.49513626 0.96756452 -7.84783697  1064809038
-7.85569811 0.11943547 -2.49513626  3204612215
-2.49513626 0.96756446 -7.81968689  1064809039
-2.29691195 7.28238678 -2.49513626  1088934940
-2.49513626 0.96837741 -2.64425278  1064822677
-2.75871706 7.12028265 -2.49513626  1088579509
-2.49513626 0.96837741 -2.98548484  1064822677
-3.09773207 6.97947073 -2.49513626  1088272850
-2.49513626 0.96837741 -3.31981349  1064822677
-3.42959523 6.82252359 -2.49513626  1087932595
-2.49513626 0.96837741 -3.75352931  1064822677
-3.96471000 6.52610397 -2.49513626  1087293048
-2.49513626 0.96837741 -4.17181826  1064822677
-4.37464142 6.25871038 -2.49513626  1086566543
-2.49513626 0.96837741 -4.67037916  1064822677
-4.86159182 5.88845301 -2.49513626  1085757725
-2.49513626 0.96837741 -5.40448475  1064822677
-5.57458973 5.21851778 -2.49513626  1084305570
-2.49513626 0.96837741 -5.81895065  1064822677
-5.89744759 4.85067797 -2.49513626  1083512850
-2.49513626 0.96837741 -6.19607639  1064822677
-6.26680040 4.36304569 -2.49513626  1082465913
-2.49513626 0.96837741 -6.71584940  1064822677
-6.82886410 3.41695309 -2.49513626  1079224101
-2.49513626 0.96837741 -6.93486023  1064822677
-7.12537909 2.74552965 -2.49513626  1076388359
-2.49513626 0.96837741 -7.20970583  1064822677
-7.24909735 2.39990664 -2.49513626  1074930596
-2.49513626 0.96837741 -7.32228327  1064822677
-7.35606194 2.04873490 -2.49513626  1072164249
-2.49513626 0.96837741 -7.44602633  1064822677
-7.49645138 1.45333278 -2.49513626  1068146722
-2.49513626 0.96837741 -7.55763674  1064822677
-7.57415628 0.97010595 -2.49513626  1060770971
-2.49513626 0.96837741 -7.61202860  1064822677
-7.62074566 0.48290443 -2.49513626  3150851133
-2.49513626 0.96837741 -7.62690115  1064822677
-7.60014677 -0.73940629 -2.49513626  1088594827
-2.49513626 0.96914852 -2.34706974  1064835614
-2.68298149 6.92480755 -2.49513626  1088172171
-2.49513626 0.96914852 -3.12108302  1064835614
-3.33544278 6.63522673 -2.49513626  1087543010
-2.49513626 0.96914852 -3.65048361  1064835614
-3.75365734 6.40792227 -2.49513626  1087052327
-2.49513626 0.96914852 -4.05729055  1064835614
-4.15645075 6.15429020 -2.49513626  1086362332
-2.49513626 0.96914852 -4.72812605  1064835614
-4.81929398 5.65029335 -2.49513626  1085427853
-2.49513626 0.96914852 -5.08528566  1064835614
-5.17135811 5.32995510 -2.49513626  1084201831
-2.49513626 0.96914852 -5.58141470  1064835614
-5.88378477 4.53127861 -2.49513626  1082226404
-2.49513626 0.96914852 -6.35407019  1064835614
-6.47400141 3.63850236 -2.49513626  1080177080
