# .PCD v0.7 - Point Cloud Data file format
VERSION 0.7
FIELDS x y z intensity
SIZE 4 4 4 4
TYPE F F F F
COUNT 1 1 1 1
WIDTH 997
HEIGHT 1
VIEWPOINT 0 0 0 1 0 0 0
POINTS 997
DATA ascii
-2.64753628 0.83348954 -43.43026352  1062559634
-43.63991547 12.72202206 -2.64753628  1094734786
-2.64753628 0.83348954 -44.36579132  1062559635
-44.51884842 9.18500900 -2.64753628  1089999849
-2.64753628 0.83348960 -44.90911484  1062559635
-45.11159897 5.58894157 -2.64753628  1083943831
-2.64753628 0.83348954 -45.37711716  1062559634
-45.42515182 -1.68761194 -2.64753628  3226022529
-2.64753628 0.83348960 -45.14394760  1062559634
-45.05279160 -6.04470062 -2.64753628  3238968249
-2.64753628 0.83348954 -44.42372894  1062559634
-44.09183502 -11.05446434 -2.64753628  3244145935
-2.64753628 0.83348954 -43.06452942  1062559634
-42.82559586 -15.24010754 -2.64753628  3247416010
-2.64753628 0.83348960 -41.16303253  1062559634
-40.84841537 -19.94238663 -2.64753628  3248815833
-2.49513626 0.84227395 -25.42132187  1062881256
-25.90842438 30.16058922 -2.64753628  1106111978
-2.64753628 0.85265976 -26.86244774  1062881257
-27.78883553 28.43744278 -2.64753628  1105192841
-2.64753628 0.85265976 -28.68666840  1062881256
-29.97773361 26.11977959 -2.64753628  1103959481
-2.64753628 0.85265976 -30.80008316  1062881256
-31.19942093 24.64759254 -2.64753628  1101976897
-2.50275636 0.86012441 -31.26508141  1063006492
-34.09695053 20.45250511 -2.64753628  1100953933
-2.64753628 0.85265976 -34.73541260  1062881257
-35.33812332 18.22429085 -2.64753628  1099474646
-2.64753628 0.85265970 -36.43386459  1062881257
-36.68453598 15.33466434 -2.64753628  1097591042
-2.64753628 0.85265970 -37.15750504  1062881257
-37.37968063 13.55237770 -2.64753628  1095710660
-2.64753628 0.85265970 -37.79513168  1062881257
-37.98830414 11.73870182 -2.64753628  1091860123
-2.64753628 0.85265976 -38.80660248  1062881257
-38.94048309 8.03408813 -2.64753628  1087962615
-2.64753628 0.85265976 -39.28185272  1062881256
-39.64842987 2.98497605 -2.64753628  1075204313
-2.64753628 0.85265976 -37.45820618  1063013115
-37.41892624 -1.99158287 -2.49513626  3226219800
-2.49513626 0.86051911 -37.27981949  1063013115
-36.85643005 -6.76358557 -2.49513626  3236647616
-2.49513626 0.86051911 -36.62052917  1063013115
-36.48843765 -8.52856922 -2.49513626  3239169446
-2.49513626 0.86051911 -36.19611359  1063013115
-35.68790436 -11.42433071 -2.49513626  3242192025
-2.49513626 0.86051911 -35.09708023  1063013115
-34.42501068 -14.80071354 -2.49513626  3246621686
-2.49513626 0.86051911 -33.12863159  1063013115
-23.02069283 26.79891586 -2.64753628  1104374007
-2.64753628 0.86787111 -23.86838531  1063136462
-24.69150734 25.26783371 -2.64753628  1103557314
-2.64753628 0.86787117 -25.87834358  1063136462
-25.17983437 21.93934059 -2.50275636  1101373252
-2.50275636 0.87462288 -26.85653687  1063249736
-27.17147064 19.41829491 -2.50275636  1100470022
-2.50275636 0.87462282 -30.00117111  1063136462
-30.58411789 17.68461609 -2.64753628  1099532495
-2.64753628 0.86787117 -31.13561058  1063136462
-31.65505219 15.68730927 -2.64753628  1095867750
-2.64753628 0.86787117 -33.40228653  1063136458
-33.75415039 10.43031311 -2.64753628  1092498326
-2.64753628 0.86787111 -34.07136917  1063136459
-32.49640274 7.24984980 -2.49513626  1087850786
-2.49513626 0.87497967 -32.71223831  1063255721
-32.80751801 5.67836761 -2.49513626  1084545097
-2.49513626 0.87497973 -33.04266739  1063255723
-33.10414124 3.56322408 -2.49513626  1078069543
-2.49513626 0.87497950 -33.20134354  1063255722
-33.23717117 1.96677434 -2.49513626  1068989015
-2.49513626 0.87497967 -33.28314209  1063255723
-33.29330063 0.36576203 -2.49513626  3190576683
-2.49513626 0.87497962 -33.27235413  1063255722
-33.24829483 -1.76960564 -2.49513626  3224728165
-2.49513626 0.87497944 -32.99961472  1063255722
-32.42146301 -7.57798147 -2.49513626  3238646480
-2.49513626 0.87497967 -32.01943207  1063255722
-31.71016693 -10.15098476 -2.49513626  3240790108
-2.49513626 0.87497962 -31.36826324  1063255719
-31.18523598 -11.66441822 -2.49513626  3244425563
-2.49513626 0.87497962 -29.43615150  1063255723
-20.32016182 24.43750954 -2.64753628  1102983029
-2.64753628 0.88023299 -20.99790955  1063447240
-22.96553612 19.37088203 -2.50275636  1100480534
-2.50275636 0.88639504 -25.85759926  1063343859
-26.71652985 17.21416664 -2.64753628  1099318400
-2.64753628 0.88023299 -27.51361465  1063343859
-28.24700546 14.56732273 -2.64753628  1096447493
-2.64753628 0.88023299 -29.32325172  1063343859
-29.51607323 11.78565693 -2.64753628  1093990597
-2.64753628 0.88023311 -29.87890244  1063343859
-30.21099281 9.86897278 -2.64753628  1091969387
-2.64753628 0.88023299 -28.88636971  1063452702
-29.00969696 7.45628643 -2.49513626  1088401054
-2.49513626 0.88672054 -29.23392105  1063452702
-29.66245079 4.15903664 -2.49513626  1076792910
-2.49513626 0.88672054 -29.90030289  1063452702
-29.95079803 0.32904643 -2.49513626  3213776529
-2.49513626 0.88672054 -29.84382248  1063452702
-29.68660164 -3.98302913 -2.49513626  3231571030
-2.49513626 0.88672048 -29.46064949  1063452702
-29.37014580 -5.87819433 -2.49513626  3234539264
-2.49513626 0.88672054 -29.16649628  1063452702
-28.80482864 -8.21221924 -2.49513626  3239189544
-2.49513626 0.88672054 -28.37646866  1063452702
-28.21903229 -10.04214859 -2.49513626  3240617272
-2.49513626 0.88672054 -27.88242912  1063452702
-27.70334244 -11.38786793 -2.49513626  3242480686
-2.49513626 0.88672054 -27.12352562  1063452702
-26.91621780 -13.14062119 -2.49513626  3244291169
-2.49513626 0.88672054 -17.45422363  1063610771
-17.78866196 20.70820999 -2.50275636  1100594043
-2.50275636 0.89614218 -20.33234024  1063583136
-20.98687363 18.88663101 -2.58841419  1100415634
-2.63428211 0.89099282 -22.94486237  1063515701
-23.22318840 17.16591263 -2.64753628  1099322484
-2.64753628 0.89047557 -24.27598572  1063515701
-24.52372932 15.25029469 -2.64753628  1096439886
-2.64753628 0.89047557 -25.66665649  1063515701
-26.98810959 10.27750587 -2.64753628  1092451894
-2.64753628 0.89047557 -27.30386162  1063515701
-27.45122719 8.96744728 -2.64753628  1089716121
-2.49513626 0.89644140 -26.24761009  1063615791
-26.46494865 6.35151100 -2.49513626  1086170021
-2.49513626 0.89644140 -26.65505028  1063615791
-26.88871956 4.21090651 -2.49513626  1081203899
-2.49513626 0.89644140 -27.06014633  1063615791
-27.16892242 1.60768950 -2.49513626  1066793675
-2.49513626 0.89644140 -27.21610451  1063615791
-27.21039200 -0.57408297 -2.49513626  3212924395
-2.49513626 0.89644140 -27.15128899  1063615791
-27.02932358 -3.18606281 -2.49513626  3228016812
-2.49513626 0.89644140 -26.84478188  1063615791
-26.76943016 -4.91250467 -2.49513626  3233323060
-2.49513626 0.89644140 -26.28983116  1063615791
-25.78429604 -8.71235657 -2.49513626  3239612135
-2.49513626 0.89644140 -25.33537865  1063615791
-25.00344849 -10.75000858 -2.49513626  3241721373
-2.49513626 0.89644140 -24.45743370  1063615791
-24.06188393 -12.71853161 -2.49513626  3243353399
-2.49513626 0.89644140 -16.29761887  1063748383
-19.08915901 18.32045174 -2.64753628  1099962485
-2.64753628 0.89909983 -19.66692162  1063660392
-20.49549103 16.73229408 -2.64753628  1097897410
-2.64753628 0.89909983 -22.00845146  1063660392
-22.24116325 14.33057213 -2.64753628  1096781140
-2.64753628 0.89909983 -22.90473175  1063660392
-23.11417580 12.87508678 -2.64753628  1095240469
-2.64753628 0.89909983 -23.89214134  1063660392
-24.57175446 9.81140804 -2.64753628  1092003868
-2.64753628 0.89909983 -23.70253944  1063753029
-23.82367325 7.36171532 -2.49513626  1085945422
-2.49513626 0.90462142 -24.56982613  1063753030
-24.63489914 3.85795116 -2.49513626  1079875301
-2.49513626 0.90462142 -24.74597168  1063753029
-24.79195595 2.66852379 -2.49513626  1074876581
-2.49513626 0.90462142 -24.86479950  1063753028
-24.91204071 1.07350266 -2.49513626  1059880324
-2.49513626 0.90462142 -24.93365669  1063753029
-24.93484306 -0.12603953 -2.49513626  3211590979
-2.49513626 0.90462142 -24.89991951  1063753029
-24.80731583 -2.52143335 -2.49513626  3225080065
-2.49513626 0.90462142 -24.71371269  1063753029
-24.65735817 -3.71176958 -2.49513626  3229838016
-2.49513626 0.90462142 -24.52560997  1063753029
-24.18655396 -6.06391954 -2.49513626  3234754368
-2.49513626 0.90462142 -23.97964859  1063753029
-23.74800491 -7.60215759 -2.49513626  3237965121
-2.49513626 0.90462142 -23.49197960  1063753029
-23.35487556 -8.73567104 -2.49513626  3239165681
-2.49513626 0.90462154 -23.06267738  1063753029
-22.90765762 -9.84893513 -2.49513626  3240706537
-2.49513626 0.90462142 -22.22906685  1063753029
-15.60596561 18.76809883 -2.64753628  1099814087
-2.64753628 0.90646064 -17.05935860  1063783886
-17.33718300 17.18166351 -2.64753628  1098632409
-2.64753628 0.90646064 -19.15309715  1063783885
-19.39331436 14.82183933 -2.64753628  1097344074
-2.64753628 0.90646064 -20.08380890  1063783886
-20.30371284 13.54794312 -2.64753628  1095993175
-2.64753628 0.90646064 -20.72780228  1063783885
-20.93187714 12.55563164 -2.64753628  1094942245
-2.64753628 0.90646064 -21.32381248  1063783886
-21.51158714 11.53426266 -2.64753628  1093125993
-2.64753628 0.90646064 -22.20684242  1063783886
-22.52036858 9.41383839 -2.64753628  1091621544
-2.64753628 0.90646064 -21.86656952  1063870101
-22.18484497 6.08307076 -2.49513626  1085000142
-2.49513626 0.91159946 -22.45176125  1063870101
-22.52921486 4.64816475 -2.49513626  1082730695
-2.49513626 0.91159946 -22.66670609  1063870101
-22.72671509 3.55911613 -2.49513626  1077216120
-2.49513626 0.91159946 -22.90815353  1063870101
-22.98239517 0.99035233 -2.49513626  1059004743
-2.49513626 0.91159946 -22.99859810  1063870101
-22.92017555 -1.95877206 -2.49513626  3222593359
-2.49513626 0.91159946 -22.79942322  1063870101
-22.68957901 -3.78867555 -2.49513626  3229933090
-2.49513626 0.91159946 -22.55638695  1063870101
-22.31312943 -5.59422493 -2.49513626  3234452245
-2.49513626 0.91159946 -22.01821899  1063870101
-21.90855217 -7.01331425 -2.49513626  3236668494
-2.49513626 0.91159946 -21.67232704  1063870101
-21.54584122 -8.05901814 -2.49513626  3238425839
-2.49513626 0.91159946 -21.27627563  1063870101
-20.98481560 -9.42383099 -2.49513626  3240886144
-2.49513626 0.91159946 -20.16239548  1063870101
-14.48219681 17.41663361 -2.64753628  1099527409
-2.64753628 0.91281569 -15.03337002  1063890506
-15.56907558 16.45226479 -2.64753628  1098299692
-2.64753628 0.91281569 -17.07794189  1063890505
-17.54640198 14.32469177 -2.64753628  1096853925
-2.64753628 0.91281569 -17.99682808  1063890506
-18.42873955 13.17022324 -2.64753628  1095628708
-2.64753628 0.91281569 -18.84166527  1063890506
-19.23522568 11.96157837 -2.64753628  1093688374
-2.64753628 0.91281569 -19.96256447  1063890506
-20.13167000 10.38214588 -2.64753628  1092334230
-2.64753628 0.91281563 -20.60775757  1063890506
-19.69571686 8.23309040 -2.49513626  1090343168
-2.49513626 0.91762149 -20.06893349  1063971134
-20.18305588 6.95337868 -2.49513626  1087643323
-2.49513626 0.91762149 -20.39569283  1063971134
-20.67523956 5.31410265 -2.49513626  1084189446
-2.49513626 0.91762149 -20.97340965  1063971134
-21.09019661 3.30283237 -2.49513626  1077785766
-2.49513626 0.91762149 -21.22467995  1063971132
-21.28700829 1.60261512 -2.49513626  1067542580
-2.49513626 0.91762149 -21.33945847  1063971134
-21.34596634 0.23450793 -2.49513626  3185376420
-2.49513626 0.91762149 -21.34250259  1063971134
-21.31710625 -1.13458061 -2.49513626  3224743273
-2.49513626 0.91762149 -20.52922630  1063971134
-20.43271828 -6.18136024 -2.49513626  3235556460
-2.49513626 0.91762149 -19.87183380  1063971134
-19.03053856 -9.67180634 -2.49513626  3240074457
-2.49513626 0.91762149 -13.50763988  1063983485
-13.76646233 16.02585983 -2.64753628  1098701077
-2.64753628 0.91835767 -14.27338696  1063983485
-15.00611210 14.87147331 -2.64753628  1097469922
-2.64753628 0.91835767 -15.70403671  1063983485
-15.92869091 13.87877178 -2.64753628  1096413615
-2.64753628 0.91835767 -16.36564445  1063983485
-16.57784081 13.09652233 -2.64753628  1095011099
-2.64753628 0.91835767 -17.94081688  1063983485
-18.11745644 10.86744881 -2.64753628  1093219614
-2.64753628 0.91835767 -18.45668983  1063983485
-18.77693558 9.68349648 -2.64753628  1091647570
-2.64753628 0.91835767 -18.11454010  1064059208
-18.37032509 7.67905760 -2.49513626  1088602035
-2.49513626 0.92287099 -18.82486916  1064059206
-18.92647362 6.18267727 -2.49513626  1086069574
-2.49513626 0.92287099 -19.11503220  1064059206
-19.20195007 5.26515865 -2.49513626  1083486380
-2.49513626 0.92287099 -19.43298149  1064059206
-19.50002098 4.02318907 -2.49513626  1080913726
-2.49513626 0.92287099 -19.71784782  1064059206
-19.79637337 2.13081861 -2.49513626  1069503643
-2.49513626 0.92287099 -19.90345192  1064059206
-19.91046906 -0.10064255 -2.49513626  3213325329
-2.49513626 0.92287099 -19.86305046  1064059206
-19.83840942 -1.69540262 -2.49513626  3222613059
-2.49513626 0.92287099 -19.73389816  1064059206
-19.68889046 -2.96384764 -2.49513626  3227910507
-2.49513626 0.92287099 -19.52353668  1064059206
-19.38816452 -4.53166294 -2.49513626  3232028294
-2.49513626 0.92287099 -19.14774704  1064059206
-19.05773163 -5.76540089 -2.49513626  3233955874
-2.49513626 0.92287099 -18.53459358  1064059206
-18.41554642 -7.56998158 -2.49513626  3238167039
-2.49513626 0.92287099 -18.03011322  1064059206
-17.89231110 -8.73510838 -2.49513626  3239665348
-2.49513626 0.92287099 -13.13592339  1064065275
-13.83282471 14.15569210 -2.64753628  1096739184
-2.64753628 0.92323273 -14.27975178  1064065275
-14.49769974 13.47392082 -2.64753628  1096013236
-2.64753628 0.92323273 -14.92240715  1064065276
-15.12902451 12.76097298 -2.64753628  1095255131
-2.64753628 0.92323273 -15.53055382  1064065275
-15.72533894 12.01849747 -2.64753628  1094466622
-2.64753628 0.92323279 -16.10272026  1064065276
-16.46353531 10.98553181 -2.64753628  1093371236
-2.64753628 0.92323273 -16.80741501  1064065276
-16.97290802 10.18091202 -2.64753628  1090533109
-2.49513626 0.92748731 -17.09219170  1064136657
-17.43168831 6.63826466 -2.49513626  1086483602
-2.49513626 0.92748731 -17.82141876  1064136656
-17.98889542 4.93254614 -2.49513626  1082870797
-2.49513626 0.92748731 -18.42826462  1064136656
-18.47219658 2.59001684 -2.49513626  1074972422
-2.49513626 0.92748731 -18.54576683  1064136655
-18.57539558 1.69849586 -2.49513626  1062048770
-2.49513626 0.92748737 -18.65261459  1064136658
-18.64873695 -0.39344978 -2.49513626  3221995462
-2.49513626 0.92748731 -18.44507217  1064136656
-18.39814949 -3.07209778 -2.49513626  3226958250
-2.49513626 0.92748737 -18.22907829  1064136657
-18.16332817 -4.24537754 -2.49513626  3231345838
-2.49513626 0.92748731 -17.85378265  1064136655
-17.57331467 -6.25371504 -2.49513626  3236676349
-2.49513626 0.92748731 -17.01581955  1064136656
-16.89107323 -7.91336775 -2.49513626  3238475657
-2.49513626 0.92748743 -16.49089241  1064136656
-11.90079784 14.31218243 -2.64753628  1096935755
-2.64753628 0.92755431 -13.00913429  1064137779
-13.22100163 13.10239124 -2.64753628  1095417582
-2.64753628 0.92755431 -14.03385067  1064137779
-14.41882038 11.77136803 -2.64753628  1094229517
-2.64753628 0.92755431 -14.78895569  1064137779
-14.96835423 11.06417370 -2.64753628  1093478839
-2.64753628 0.92755431 -15.48321056  1064137779
-15.80661583 9.82947159 -2.64753628  1092170219
-2.64753628 0.92755431 -16.11375237  1064137779
-16.26112175 9.05778694 -2.64753628  1090561469
-2.49513626 0.93157834 -16.18502808  1064205291
-16.29145813 6.50511694 -2.49513626  1086281197
-2.49513626 0.93157834 -16.76023674  1064205291
-16.84114838 4.90957975 -2.49513626  1083470161
-2.49513626 0.93157834 -17.05780792  1064205291
-17.18033600 3.54460526 -2.49513626  1070364210
-2.49513626 0.93157834 -17.49268150  1064205291
-17.51154709 1.03622615 -2.49513626  1061246523
-2.49513626 0.93157834 -17.53577805  1064205291
-17.54112434 0.19270773 -2.49513626  3206986127
-2.49513626 0.93157834 -17.51738548  1064205291
-17.38639450 -2.33271933 -2.49513626  3226117389
-2.49513626 0.93157828 -17.20105743  1064205291
-17.14362526 -3.71809816 -2.49513626  3230743210
-2.49513626 0.93157834 -16.87003136  1064205293
-16.79066086 -5.07955599 -2.49513626  3232441492
-2.49513626 0.93157834 -16.52688980  1064205291
-16.11581039 -6.92884398 -2.49513626  3236296505
-2.49513626 0.93157834 -15.88528728  1064205291
-15.76387501 -7.69599724 -2.49513626  3238209933
-2.49513626 0.93157834 -11.44569206  1064202483
-11.65792465 13.13891125 -2.64753628  1095709739
-2.64753628 0.93141097 -12.07334423  1064202483
-12.27641296 12.56295586 -2.64753628  1094883972
-2.64753628 0.93141103 -12.86649513  1064202484
-13.05662918 11.75000000 -2.64753628  1094005737
-2.64753628 0.93141103 -13.60670757  1064202483
-14.29092503 10.21311092 -2.64753628  1091856856
-2.64753628 0.93141097 -14.58926678  1064266529
-14.83266354 7.35063171 -2.49513626  1088656315
-2.49513626 0.93522835 -15.16906548  1064266528
-15.27342987 6.38451242 -2.49513626  1086096893
-2.49513626 0.93522835 -15.56284904  1064266529
-15.65134525 5.39213228 -2.49513626  1084522014
-2.49513626 0.93522835 -16.03302002  1064266528
-16.09705162 3.86324739 -2.49513626  1080471888
-2.49513626 0.93522835 -16.21268082  1064266528
-16.26424408 3.08449864 -2.49513626  1077194727
-2.49513626 0.93522841 -16.35480881  1064266528
-16.48537254 1.50738823 -2.49513626  1064981810
-2.49513626 0.93522841 -16.53879547  1064266529
-16.54810143 0.44732094 -2.49513626  3182124638
-2.49513626 0.93522835 -16.54273415  1064266528
-16.51450920 -1.14486194 -2.49513626  3216272749
-2.49513626 0.93522841 -16.46929359  1064266528
-16.40712929 -2.20133209 -2.49513626  3223172460
-2.49513626 0.93522835 -16.28225136  1064266528
-16.23223305 -3.24874830 -2.49513626  3230207138
-2.49513626 0.93522835 -15.91979313  1064266528
-15.84495354 -4.79346132 -2.49513626  3231809765
-2.49513626 0.93522841 -15.50501442  1064266528
-15.41000366 -6.04743814 -2.49513626  3234424577
-2.49513626 0.93522835 -15.20811081  1064266529
-14.99057293 -7.02299595 -2.49513626  3236456105
-2.49513626 0.93522841 -14.75760365  1064266529
-14.63540840 -7.73592329 -2.49513626  1095355140
-2.64753628 0.93487382 -11.23289490  1064260581
-11.80952454 11.70358086 -2.64753628  1094202336
-2.64753628 0.93487388 -12.70916748  1064260581
-12.87946987 10.51465511 -2.64753628  1092937814
-2.64753628 0.93487388 -13.37033272  1064260581
-13.97646332 9.00540257 -2.64753628  1090809104
-2.49572515 0.93849087 -13.43737030  1064321500
-13.56491756 7.84362125 -2.49513626  1088803703
-2.49513626 0.93850493 -14.03990364  1064321500
-14.14969444 6.73168087 -2.49513626  1086415501
-2.49513626 0.93850493 -14.55218220  1064321500
-14.81482792 5.10394096 -2.49513626  1083945847
-2.49513626 0.93850493 -14.97091484  1064321500
-15.04318523 4.38542938 -2.49513626  1059893812
-2.49513626 0.93850493 -15.66365719  1064321500
-15.66843319 0.17213532 -2.49513626  3198761381
-2.49513626 0.93850493 -15.65857601  1064321500
-15.63186264 -1.08367264 -2.49513626  3215640769
-2.49513626 0.93850493 -15.56164265  1064321500
-15.49480438 -2.33249426 -2.49513626  3226766794
-2.49513626 0.93850493 -15.25813580  1064321500
-15.06892872 -4.29613304 -2.49513626  3230740801
-2.49513626 0.93850493 -14.92338753  1064321500
-14.84484196 -5.01598358 -2.49513626  3232242736
-2.49513626 0.93850493 -14.67632008  1064321500
-14.49269962 -5.95743799 -2.49513626  3234204998
-2.49513626 0.93850493 -14.29416943  1064321500
-14.08092403 -6.87437296 -2.49513626  3236113848
-2.49513626 0.93850493 -10.28290844  1064313029
-10.47358227 11.80410576 -2.64753628  1094330199
-2.64753628 0.93800002 -11.02923775  1064313029
-11.55936718 10.74308300 -2.64753628  1093199516
-2.64753628 0.93800002 -11.89799881  1064313029
-12.38287926 9.78249454 -2.64753628  1092178548
-2.64753628 0.93800002 -12.69027519  1064313029
-12.62956047 7.85379457 -2.49513626  1088919353
-2.49513626 0.94146234 -13.10712337  1064371117
-13.21815491 6.81676197 -2.49513626  1086687673
-2.49513626 0.94146234 -13.89869308  1064371117
-13.98179817 5.06924152 -2.49513626  1083901139
-2.49513626 0.94146234 -14.20943928  1064371117
-14.34296799 3.93283343 -2.49513626  1080881673
-2.49513626 0.94146234 -14.46172810  1064371117
-14.72831631 2.06508422 -2.49513626  1072303859
-2.49513626 0.94146234 -14.81060314  1064371116
-14.83041668 1.11652339 -2.49513626  1063315109
-2.49513626 0.94146234 -14.86213303  1064371117
-14.85136604 -0.79044831 -2.49513626  3213076383
-2.49513626 0.94146234 -14.79615593  1064371117
-14.77012920 -1.74101973 -2.49513626  3221038369
-2.49513626 0.94146228 -14.70669270  1064371116
-14.62811375 -2.68442965 -2.49513626  3225078794
-2.49513626 0.94146234 -14.53448677  1064371117
-14.48206043 -3.38494205 -2.49513626  3228006744
-2.49513626 0.94146234 -14.36604118  1064371117
-14.30247879 -4.07761908 -2.49513626  3232152306
-2.49513626 0.94146234 -13.84453106  1064371123
-13.75555515 -5.65442419 -2.49513626  3234002799
-2.49513626 0.94146234 -13.03540993  1064371117
-9.59993362 11.54510593 -2.64753628  1093738142
-2.64753628 0.94083619 -10.49398613  1064360612
-10.66488361 10.56921577 -2.64753628  1093032267
-2.64753628 0.94083619 -11.32058716  1064360612
-11.63112736 9.49552631 -2.64753628  1091690911
-2.64753628 0.94083619 -11.37936497  1064416122
-11.64329720 8.04200649 -2.49513626  1089815280
-2.49513626 0.94414485 -12.01664257  1064416122
-12.13495541 7.27894688 -2.49513626  1088596748
-2.49513626 0.94414485 -12.47103119  1064416122
-12.57667351 6.48594427 -2.49513626  1086490859
-2.49513626 0.94414485 -12.96664619  1064416122
-13.05586052 5.45753717 -2.49513626  1084746501
-2.49513626 0.94414485 -13.22418690  1064416122
-13.30325985 4.82322931 -2.49513626  1083408098
-2.49513626 0.94414485 -13.51985931  1064416122
-13.58512783 3.96037006 -2.49513626  1080128082
-2.49513626 0.94414485 -13.75989819  1064416122
-13.81109428 3.08121943 -2.49513626  1077345961
-2.49513626 0.94414485 -13.90281582  1064416122
-13.94331551 2.41332769 -2.49513626  1073447093
-2.49513626 0.94414485 -14.04326344  1064416122
-14.06936264 1.51438153 -2.49513626  1067773574
-2.49513626 0.94414485 -14.11069298  1064416122
-14.12592030 0.83588552 -2.49513626  3214555935
-2.49513626 0.94414485 -14.07808590  1064416122
-14.05333233 -1.65652752 -2.49513626  3220233251
-2.49513626 0.94414485 -13.99297428  1064416122
-13.87545109 -2.77705860 -2.49513626  3225416638
-2.49513626 0.94414485 -13.77924156  1064416122
-13.72581387 -3.44126081 -2.49513626  3228192078
-2.49513626 0.94414485 -13.54440022  1064416122
-13.40600681 -4.52981043 -2.49513626  3231622034
-2.49513626 0.94414485 -13.17260551  1064416122
-13.08799648 -5.38001537 -2.49513626  3232946960
-2.49513626 0.94414485 -12.90871048  1064416122
-12.81406116 -6.00331306 -2.49513626  3234244750
-2.49513626 0.94414485 -12.61492634  1064416122
-12.51047802 -6.61273098 -2.49513626  1093674477
-2.64753628 0.94342065 -9.32977390  1064403972
-9.50277519 10.70997143 -2.64753628  1093035275
-2.64753628 0.94342065 -10.33023739  1064403972
-10.64290142 9.57783031 -2.64753628  1091993218
-2.64753628 0.94342065 -10.94462967  1064403972
-11.09128857 9.05480862 -2.64753628  1090901595
-2.49513626 0.94658887 -10.85122013  1064457126
-10.97846794 7.84584284 -2.49513626  1089824357
-2.49513626 0.94658887 -11.34314632  1064457127
-11.45890999 7.12582016 -2.49513626  1088298378
-2.49513626 0.94658893 -11.89221001  1064457126
-11.99294758 6.18491125 -2.49513626  1085899134
-2.49513626 0.94658893 -12.27656937  1064457127
-12.36482048 5.40325356 -2.49513626  1083812864
-2.49513626 0.94658887 -12.75794792  1064457126
-12.95459652 3.77655745 -2.49513626  1080319748
-2.49513626 0.94658887 -13.12125587  1064457126
-13.21551037 2.72658658 -2.49513626  1075898873
-2.49513626 0.94658887 -13.33136177  1064457126
-13.36313248 1.87366951 -2.49513626  1070882049
-2.49513626 0.94658887 -13.43778896  1064457126
-13.45576954 1.01303184 -2.49513626  1041746651
-2.49513626 0.94658887 -13.49084854  1064457126
-13.48454762 -0.50097096 -2.49513626  3208091956
-2.49513626 0.94658887 -13.46154118  1064457126
-13.44485092 -1.14900553 -2.49513626  3217699260
-2.49513626 0.94658887 -13.37401199  1064457126
-13.34351444 -2.00865221 -2.49513626  3223052550
-2.49513626 0.94658887 -13.23144627  1064457126
-13.08875370 -3.28153992 -2.49513626  3227479390
-2.49513626 0.94658887 -12.97676849  1064457126
-12.78379250 -4.31956673 -2.49513626  3231563326
-2.49513626 0.94658887 -12.48054028  1064457126
-12.39664936 -5.32982540 -2.49513626  3233231005
-2.49513626 0.94658887 -12.02942562  1064457126
-11.92982292 -6.30581570 -2.49513626  3234849314
-2.49513626 0.94658887 -9.24300098  1064443645
-9.40359306 9.93703556 -2.64753628  1090161307
-2.49513626 0.94882482 -10.72513485  1064494639
-10.83854103 6.98356104 -2.49513626  1088020956
-2.49513626 0.94882482 -11.05695534  1064494639
-11.16190624 6.45413494 -2.49513626  1086519364
-2.49513626 0.94882482 -11.45943737  1064494639
-11.55275726 5.72520018 -2.49513626  1085358304
-2.49513626 0.94882482 -11.73043633  1064494639
-12.04942989 4.58861113 -2.49513626  1082958309
-2.49513626 0.94882482 -12.19040298  1064494639
-12.25619507 4.00371170 -2.49513626  1081319357
-2.49513626 0.94882482 -12.37830448  1064494639
-12.53754902 3.00897670 -2.49513626  1076280589
-2.49513626 0.94882482 -12.66777039  1064494639
-12.70467091 2.19894099 -2.49513626  1073698905
-2.49513626 0.94882482 -12.81952000  1064494639
-12.84000206 1.17406344 -2.49513626  1064815786
-2.49513626 0.94882482 -12.88161373  1064494639
-12.88885975 0.34840640 -2.49513626  1041304165
-2.49513626 0.94882482 -12.89340401  1064494639
-12.88467979 -0.47868499 -2.49513626  3213658029
-2.49513626 0.94882482 -12.82747269  1064494639
-12.80491638 -1.50937116 -2.49513626  3222598090
-2.49513626 0.94882482 -12.55517673  1064494639
-12.45459175 -3.33574915 -2.49513626  3227664056
-2.49513626 0.94882482 -12.34119701  1064494639
-11.92533684 -4.90208626 -2.49513626  3232696933
-2.49513626 0.94882482 -11.49429035  1064494639
-8.37343121 10.07009220 -2.64753628  1092547499
-2.64753628 0.94795698 -9.00185204  1064480079
-9.17461395 8.25647449 -2.49513626  1090111372
-2.49513626 0.95087790 -10.26693535  1064529084
-10.58457947 6.34898043 -2.49513626  1086698873
-2.49513626 0.95087790 -10.87771988  1064529084
-10.96986580 5.65729237 -2.49513626  1085235495
-2.49513626 0.95087790 -11.46271324  1064529084
-11.53465080 4.39258051 -2.49513626  1080637236
-2.49513626 0.95087790 -11.84947681  1064529084
-11.90335751 3.26389456 -2.49513626  1077434592
-2.49513626 0.95087790 -12.04657364  1064529084
-12.16190147 2.10499787 -2.49513626  1071341269
-2.49513626 0.95087790 -12.24907970  1064529084
-12.27184296 1.32090211 -2.49513626  1066392603
-2.49513626 0.95087790 -12.34256840  1064529084
-12.33998299 -0.26034802 -2.49513626  3203046839
-2.49513626 0.95087790 -12.31317520  1064529084
-12.27946186 -1.24809313 -2.49513626  3218216542
-2.49513626 0.95087790 -12.20521450  1064529084
-12.14000320 -2.22783256 -2.49513626  3222996553
-2.49513626 0.95087790 -12.06230164  1064529084
-11.97218990 -3.00160122 -2.49513626  3227030607
-2.49513626 0.95087790 -11.81395435  1064529084
-11.69324303 -3.95107603 -2.49513626  3230293756
-2.49513626 0.95087790 -11.41586018  1064529084
-11.09150600 -5.41492462 -2.49513626  3232953012
-2.49513626 0.95087790 -10.91212177  1064529084
-8.02926064 9.65618229 -2.64753628  1092119329
-2.64753628 0.94995815 -8.33484745  1064513653
-8.48444176 9.25878811 -2.64753628  1091695031
-2.64753628 0.94995815 -8.77703571  1064513653
-8.40652275 8.33110619 -2.49513626  1090723725
-2.49513626 0.95276952 -8.66939640  1064560820
-8.92336750 7.77498341 -2.49513626  1089744898
-2.49513626 0.95276952 -9.16814995  1064560820
-9.40349865 7.18686676 -2.49513626  1087518382
-2.49513626 0.95276952 -9.94903374  1064560820
-10.05056763 6.25003147 -2.49513626  1086166300
-2.49513626 0.95276952 -10.33955765  1064560821
-10.76773262 4.91250467 -2.49513626  1083314518
-2.49513626 0.95276952 -11.06054401  1064560820
-11.12667656 4.03408670 -2.49513626  1080009021
-2.49513626 0.95276958 -11.46282673  1064560820
-11.59126568 2.39147711 -2.49513626  1074602760
-2.49513626 0.95276952 -11.69289017  1064560820
-11.72075367 1.64338827 -2.49513626  1067589696
-2.49513626 0.95276952 -11.81473827  1064560820
-11.82443237 0.50953513 -2.49513626  1050918578
-2.49513626 0.95276952 -11.83525562  1064560820
-11.82724857 -0.43939972 -2.49513626  3209792130
-2.49513626 0.95276958 -11.79242325  1064560820
-11.77474117 -1.19679284 -2.49513626  3216070661
-2.49513626 0.95276952 -11.73029804  1064560820
-11.67378426 -1.94927239 -2.49513626  3222578959
-2.49513626 0.95276952 -11.56650734  1064560820
-11.48009777 -2.87822652 -2.49513626  3225679781
-2.49513626 0.95276952 -11.21261406  1064560820
-10.87305641 -4.67477036 -2.49513626  3231393636
-2.49513626 0.95276952 -10.46360207  1064560820
-10.37354374 -5.69792843 -2.49513626  1091854567
-2.64753628 0.95180804 -7.85893965  1064544689
-8.00466633 9.02155304 -2.64753628  1090654877
-2.49513626 0.95451802 -8.20079041  1064590155
-8.32596493 7.73801231 -2.49513626  1089401219
-2.49513626 0.95451802 -8.68852806  1064590155
-8.80495834 7.18827200 -2.49513626  1087601794
-2.49513626 0.95451802 -9.45492935  1064590155
-9.55490875 6.15647984 -2.49513626  1085674107
-2.49513626 0.95451802 -9.92996216  1064590155
-10.10226822 5.20986176 -2.49513626  1084326486
-2.49513626 0.95451802 -10.26417542  1064590155
-10.34117699 4.71789837 -2.49513626  1083286869
-2.49513626 0.95451802 -10.48717785  1064590155
-10.80466938 3.52954245 -2.49513626  1077960269
-2.49513626 0.95451802 -11.00872517  1064590155
-11.05270004 2.65261674 -2.49513626  1074986441
-2.49513626 0.95451808 -11.16749763  1064590155
-11.20002937 1.93851709 -2.49513626  1071717026
-2.49513626 0.95451802 -11.25644398  1064590155
-11.31933117 1.03501749 -2.49513626  1062892477
-2.49513626 0.95451802 -11.35601425  1064590155
-11.36586761 0.12486620 -2.49513626  3177928015
-2.49513626 0.95451802 -11.36402225  1064590155
-11.35871696 -0.42199320 -2.49513626  3206195063
-2.49513626 0.95451802 -11.33933353  1064590155
-11.28840065 -1.33061302 -2.49513626  3217127625
-2.49513626 0.95451802 -11.23991680  1064590155
-11.21132278 -1.87205195 -2.49513626  3221442046
-2.49513626 0.95451802 -11.14551830  1064590155
-11.10830784 -2.40916181 -2.49513626  3223687602
-2.49513626 0.95451802 -11.02531242  1064590155
-10.76843452 -3.63858938 -2.49513626  3228820688
-2.49513626 0.95451802 -10.64618969  1064590155
-10.51299191 -4.32151985 -2.49513626  3230990822
-2.49513626 0.95451802 -10.29295158  1064590155
-10.21428776 -4.98666286 -2.49513626  3232701526
-2.49513626 0.95451802 -6.98941469  1064617347
-7.12462807 8.29395103 -2.49558735  1090138793
-2.49513626 0.95613879 -7.88720512  1064617347
-8.00758934 7.44211960 -2.49513626  1089077737
-2.49513626 0.95613879 -8.35629559  1064617347
-8.46827126 6.91340446 -2.49513626  1087953572
-2.49513626 0.95613879 -8.79100895  1064617347
-9.09338760 6.06769419 -2.49513626  1086159198
-2.49513626 0.95613879 -9.37472820  1064617347
-9.46371460 5.47219181 -2.49513626  1084898031
-2.49513626 0.95613885 -9.63436127  1064617347
-10.08616352 4.21616125 -2.49513626  1082243369
-2.49513626 0.95613879 -10.21620369  1064617347
-10.27728844 3.72613430 -2.49513626  1080288372
-2.49513626 0.95613879 -10.44461727  1064617347
-10.49504471 3.05954456 -2.49513626  1077478200
-2.49513626 0.95613879 -10.58777237  1064617347
-10.63006115 2.55118251 -2.49513626  1075337158
-2.49513626 0.95613885 -10.70641327  1064617347
-10.74047184 2.03691792 -2.49513626  1072604245
-2.49513626 0.95613879 -10.82601738  1064617347
-10.84897327 1.34409595 -2.49513626  1066778601
-2.49513626 0.95613879 -10.88650036  1064617347
-10.91281986 0.64575446 -2.49513626  1055979420
-2.49513626 0.95613879 -10.92792416  1064617347
-10.93124962 0.12009205 -2.49513626  3201289339
-2.49513626 0.95613879 -10.91646385  1064617347
-10.90573311 -0.75603575 -2.49513626  3211676806
-2.49513626 0.95613879 -10.81012058  1064617347
-10.78262138 -1.80046797 -2.49513626  3221000526
-2.49513626 0.95613879 -10.68354511  1064617347
-10.64500618 -2.48809433 -2.49513626  3224699378
-2.49513626 0.95613879 -10.51300621  1064617347
-10.46358299 -3.16547418 -2.49513626  3228209492
-2.49513626 0.95613879 -10.17634773  1064617347
-9.97247887 -4.47842693 -2.49513626  3230951635
-2.49513626 0.95613879 -9.74552059  1064617347
-9.66483307 -5.10859728 -2.49513626  3232262701
-2.49513626 0.95613879 -6.98722839  1064642622
-7.11263466 7.76178217 -2.49513626  1089532668
-2.49513626 0.95764530 -7.47775316  1064642622
-7.59565067 7.28978300 -2.49513626  1087976859
-2.49513626 0.95764530 -8.15523815  1064642622
-8.36458492 6.39285135 -2.49513626  1086865511
-2.49513626 0.95764530 -8.56532669  1064642622
-8.66240501 5.98310709 -2.49513626  1085400976
-2.49513626 0.95764530 -9.02818680  1064642622
-9.27822399 4.97487497 -2.49513626  1083861474
-2.49513626 0.95764530 -9.43301392  1064642622
-9.50677967 4.52282429 -2.49513626  1082905881
-2.49513626 0.95764530 -9.71332645  1064642622
-9.83855724 3.74668288 -2.49513626  1079736304
-2.49513626 0.95764530 -10.00738907  1064642622
-10.05853462 3.10817099 -2.49513626  1077711516
-2.49513626 0.95764530 -10.15304852  1064642622
-10.23711681 2.45687842 -2.49513626  1074275613
-2.49513626 0.95764530 -10.37357807  1064642622
-10.40104389 1.62885582 -2.49513626  1069227279
-2.49513626 0.95764530 -10.44793415  1064642622
-10.46735191 1.12667239 -2.49513626  1064659344
-2.49513626 0.95764530 -10.49810314  1064642622
-10.50942993 0.62188417 -2.49513626  1055395643
-2.49513626 0.95764530 -10.52396870  1064642622
-10.52547073 -0.22206563 -2.49513626  3200785935
-2.49513626 0.95764530 -10.51293182  1064642622
-10.48957729 -0.89644593 -2.49513626  3213378511
-2.49513626 0.95764530 -10.45542812  1064642622
-10.43431664 -1.39996445 -2.49513626  3218993380
-2.49513626 0.95764530 -10.25151253  1064642622
-10.21175957 -2.56023622 -2.49513626  3224260865
-2.49513626 0.95764530 -10.12438869  1064642622
-10.07679176 -3.04846096 -2.49513626  3226299289
-2.49513626 0.95764530 -9.97383022  1064642622
-9.91849232 -3.52963805 -2.49513626  3229946048
-2.49513626 0.95764530 -6.49019194  1064666174
-6.73720264 7.59307289 -2.49513626  1089436990
-2.49513626 0.95904911 -6.97727823  1064666174
-7.09463072 7.26022387 -2.49513626  1088234323
-2.49513626 0.95904911 -7.75944090  1064666174
-8.06527615 6.16409159 -2.49513626  1086395897
-2.49513626 0.95904911 -8.35243511  1064666174
-8.44388962 5.63430643 -2.49513626  1084983778
-2.49513626 0.95904911 -8.70513058  1064666174
-8.78775883 5.08133602 -2.49513626  1084101201
-2.49513626 0.95904911 -8.94621944  1064666174
-9.02200317 4.65275574 -2.49513626  1082887478
-2.49513626 0.95904911 -9.23536396  1064666174
-9.36575222 3.91502047 -2.49513626  1081141844
-2.49513626 0.95904911 -9.48650074  1064666174
-9.69860744 2.99695134 -2.49513626  1076612152
-2.49513626 0.95904911 -9.87079906  1064666174
-9.97332382 1.89142883 -2.49513626  1071487168
-2.49513626 0.95904911 -10.05275822  1064666174
-10.07407188 1.24809194 -2.49513626  1061361560
-2.49513626 0.95904911 -10.13336658  1064666174
-10.14167976 0.43702251 -2.49513626  1049391387
-2.49513626 0.95904911 -10.15096283  1064666174
-10.14409447 -0.37686825 -2.49513626  3205111258
-2.49513626 0.95904911 -10.12678814  1064666174
-10.11423111 -0.86436844 -2.49513626  3213058957
-2.49513626 0.95904911 -10.03799629  1064666174
-9.95369339 -1.99215078 -2.49513626  3221861092
-2.49513626 0.95904911 -9.88467789  1064666174
-9.84634972 -2.46862197 -2.49513626  3224510301
-2.49513626 0.95904911 -9.61693287  1064666174
-9.26018906 -4.15855265 -2.49513626  3230256940
-2.49513626 0.95904911 -8.97451210  1064666174
-8.89727020 -4.88704824 -2.49513626  1089330133
-2.49513626 0.96036029 -6.73528099  1064688172
-6.84856606 7.00841331 -2.49513626  1088207274
-2.49513626 0.96036029 -7.06983566  1064688172
-7.17775059 6.67087936 -2.49513626  1087241665
-2.49513626 0.96036029 -7.68910313  1064688172
-7.78553915 5.95030212 -2.49513626  1084872361
-2.49513626 0.96036029 -8.40320396  1064688171
-8.70908833 4.49138165 -2.49513626  1082866770
-2.49513626 0.96036023 -8.84867001  1064688171
-8.97913456 3.92375398 -2.49513626  1079980066
-2.49513626 0.96036029 -9.21223164  1064688172
-9.31462002 3.04278898 -2.49513626  1076221656
-2.49513626 0.96036023 -9.74274540  1064688171
-9.78993225 0.42186648 -2.49513626  3204797315
-2.49513626 0.96036023 -9.74878883  1064688172
-9.71199131 -1.30305076 -2.49513626  3216684306
-2.49513626 0.96036023 -9.60846519  1064688171
-9.54184151 -2.23024750 -2.49513626  3222831897
-2.49513626 0.96036023 -9.42351913  1064688172
-9.37921906 -2.83742881 -2.49513626  3225367341
-2.49513626 0.96036023 -9.23187637  1064688172
-9.12175655 -3.57970452 -2.49513626  3228462949
-2.49513626 0.96036023 -8.80565929  1064688171
-8.73557758 -4.43964148 -2.49513626  1089011077
-2.49513626 0.96158755 -6.28463840  1064708762
-6.39743137 6.98130608 -2.49513626  1087944836
-2.49513626 0.96158755 -7.03865957  1064708762
-7.33519697 5.98837566 -2.49513626  1086052013
-2.49513626 0.96158755 -7.70405197  1064708762
-8.12037468 4.87086916 -2.49513626  1083682320
-2.49513626 0.96158755 -8.27241802  1064708762
-8.34526443 4.47463322 -2.49513626  1082559652
-2.49513626 0.96158749 -8.55084133  1064708762
-8.61498451 3.93036914 -2.49513626  1081256711
-2.49513626 0.96158755 -8.79406738  1064708762
-8.90216923 3.22757125 -2.49513626  1078290021
-2.49513626 0.96158755 -9.00111198  1064708762
-9.09078884 2.65016937 -2.49513626  1075855846
-2.49513626 0.96158755 -9.17110920  1064708762
-9.20773506 2.20983052 -2.49513626  1074001300
-2.49513626 0.96158755 -9.35517788  1064708762
-9.37747192 1.31483233 -2.49513626  1065465468
-2.49513626 0.96158755 -9.44248009  1064708762
-9.45266724 0.55935144 -2.49513626  1037372019
-2.49513626 0.96158755 -9.46907902  1064708762
-9.46709919 -0.19973618 -2.49513626  3199467179
-2.49513626 0.96158755 -9.44652843  1064708762
-9.42066479 -0.95752281 -2.49513626  3216272472
-2.49513626 0.96158755 -9.25406075  1064708762
-9.22068119 -2.15518188 -2.49513626  3222495482
-2.49513626 0.96158755 -9.14681530  1064708762
-9.10634327 -2.59620667 -2.49513626  3224337335
-2.49513626 0.96158749 -8.92115498  1064708761
-8.29960823 -4.55876684 -2.49513626  1088511762
-2.49513626 0.96273869 -5.96845388  1064728075
-6.07912445 6.85139751 -2.49513626  1087903918
-2.49513626 0.96273869 -6.60847282  1064728075
-6.80849171 6.12713861 -2.49513626  1086360692
-2.49513626 0.96273869 -7.00151539  1064728075
-7.09533262 5.79255104 -2.49513626  1085649458
-2.49513626 0.96273869 -7.36574936  1064728075
-7.45212364 5.32571316 -2.49513626  1084146006
-2.49513626 0.96273869 -7.77824736  1064728075
-7.85482931 4.71158695 -2.49513626  1083357262
-2.49513626 0.96273869 -8.00190639  1064728075
-8.20704174 4.06716871 -2.49513626  1081857859
-2.49513626 0.96273863 -8.33326912  1064728075
-8.39317513 3.66769838 -2.49513626  1080170039
-2.49513626 0.96273869 -8.61105919  1064728075
-8.66002941 2.98351598 -2.49513626  1076695512
-2.49513626 0.96273869 -8.79350948  1064728075
-8.83349800 2.42213774 -2.49513626  1074916821
-2.49513626 0.96273869 -8.93977737  1064728075
-8.99914837 1.70667768 -2.49513626  1070068633
-2.49513626 0.96273869 -9.07082176  1064728075
-9.10695457 0.98024338 -2.49513626  1062569058
-2.49513626 0.96273863 -9.13370419  1064728075
-9.14355755 0.54105991 -2.49513626  1053419090
-2.49513626 0.96273863 -9.15943623  1064728075
-9.15751553 -0.19320457 -2.49513626  3199081440
-2.49513626 0.96273869 -9.09657478  1064728075
-9.00911427 -1.65327775 -2.49513626  3219527292
-2.49513626 0.96273869 -8.91915894  1064728075
-8.84770584 -2.36970639 -2.49513626  3224549620
-2.49513626 0.96273869 -8.57906437  1064728074
-8.47172451 -3.48242736 -2.49513626  3228011256
-2.49513626 0.96273863 -8.35567284  1064728074
-8.02820206 -4.40969086 -2.49513626  1088042022
-2.49513626 0.96382046 -5.77863550  1064746223
-5.88578463 6.63349533 -2.49513626  1087453514
-2.49513626 0.96382040 -6.09552050  1064746224
-6.29898167 6.24247789 -2.49513626  1086619690
-2.49513626 0.96382046 -6.49595881  1064746224
-6.59195662 5.93227482 -2.49513626  1085732892
-2.49513626 0.96382046 -7.29688931  1064746224
-7.37678671 4.92226744 -2.49513626  1083815117
-2.49513626 0.96382040 -7.53086758  1064746224
-7.60501432 4.56174040 -2.49513626  1082792027
-2.49513626 0.96382046 -7.81563473  1064746224
-8.18214989 3.42025638 -2.49513626  1078590726
-2.49513626 0.96382040 -8.51384163  1064746224
-8.65545750 1.93100870 -2.49513626  1071996407
-2.49513626 0.96382046 -8.71294308  1064746223
-8.73832226 1.51243985 -2.49513626  1066111239
-2.49513626 0.96382040 -8.81731701  1064746223
-8.84322166 0.66577125 -2.49513626  1052998261
-2.49513626 0.96382040 -8.86500931  1064746223
-8.86770821 0.09742162 -2.49513626  3191835817
-2.49513626 0.96382040 -8.85571384  1064746223
-8.84700871 -0.61331546 -2.49513626  3211104686
-2.49513626 0.96382040 -8.76944447  1064746223
-8.72259045 -1.60069716 -2.49513626  3219047717
-2.49513626 0.96382040 -8.63549519  1064746223
-8.44603920 -2.70372701 -2.49513626  3224743858
-2.49513626 0.96382046 -8.20229340  1064746223
-8.14716148 -3.50279593 -2.49513626  3228617081
-2.49513626 0.96382040 -7.90581322  1064746224
-7.77287722 -4.26944590 -2.49513626  1087222519
-2.49513626 0.96483886 -5.80590439  1064763310
-5.90677834 6.24185276 -2.49513626  1086631582
-2.49513626 0.96483886 -6.29481792  1064763310
-6.38784361 5.74858713 -2.49513626  1085581058
-2.49513626 0.96483886 -6.65696192  1064763310
-6.82784653 5.21835947 -2.49513626  1084220614
-2.49513626 0.96483886 -7.14837265  1064763310
-7.63779163 3.93890119 -2.49513626  1081358214
-2.49513626 0.96483886 -7.81841278  1064763310
-7.98093653 3.18675876 -2.49513626  1077638910
-2.49513626 0.96483886 -8.21058464  1064763310
-8.28773499 2.27249098 -2.49513626  1074325961
-2.49513626 0.96483886 -8.35636044  1064763310
-8.41638470 1.73644471 -2.49513626  1069259026
-2.49513626 0.96483886 -8.49016857  1064763310
-8.51039982 1.19325840 -2.49513626  1065828022
-2.49513626 0.96483886 -8.56939793  1064763310
-8.57864094 0.50763100 -2.49513626  1052601596
-2.49513626 0.96483886 -8.59051132  1064763310
-8.59312820 0.09440517 -2.49513626  3174165575
-2.49513626 0.96483886 -8.59173775  1064763310
-8.58772278 -0.31904668 -2.49513626  3202996743
-2.49513626 0.96483886 -8.54959679  1064763310
-8.53456020 -1.00600564 -2.49513626  3214034452
-2.49513626 0.96483886 -8.49790573  1064763310
-8.47629070 -1.41535974 -2.49513626  3217460101
-2.49513626 0.96483886 -8.42653275  1064763310
-8.39840317 -1.82143974 -2.49513626  3220855587
-2.49513626 0.96483886 -8.30106831  1064763310
-8.26433849 -2.35615277 -2.49513626  3223273968
-2.49513626 0.96483886 -8.14144039  1064763310
-8.09627342 -2.88117456 -2.49513626  3226540800
-2.49513626 0.96483886 -7.89489126  1064763310
-7.83943224 -3.52052140 -2.49513626  3229901905
-2.49513626 0.96483886 -5.43073606  1064779423
-5.63071299 6.14460993 -2.49513626  1086436951
-2.49513626 0.96579927 -5.91975880  1064779423
-6.01309204 5.77095270 -2.49513626  1085433707
-2.49513626 0.96579927 -6.62181950  1064779423
-6.70214319 4.95403385 -2.49513626  1083443099
-2.49513626 0.96579927 -7.00597906  1064779423
-7.07747793 4.40119028 -2.49513626  1082732540
-2.49513626 0.96579927 -7.40732145  1064779423
-7.46764088 3.70074296 -2.49513626  1079350712
-2.49513626 0.96579927 -7.68954992  1064779423
-7.74011707 3.09059954 -2.49513626  1077793764
-2.49513626 0.96579927 -7.87981653  1064779422
-8.00127411 2.33255219 -2.49513626  1074055212
-2.49513626 0.96579927 -8.10420799  1064779423
-8.13436222 1.81475389 -2.49513626  1068888046
-2.49513626 0.96579927 -8.23397923  1064779423
-8.25360203 1.15725029 -2.49513626  1065560572
-2.49513626 0.96579927 -8.28647327  1064779423
-8.29971600 0.75890893 -2.49513626  1059073314
-2.49513626 0.96579927 -8.33423042  1064779423
-8.33248329 -0.17579809 -2.49513626  3198053437
-2.49513626 0.96579927 -8.27703190  1064779423
-8.14498043 -1.76647806 -2.49513626  3221337918
-2.49513626 0.96579927 -8.05058384  1064779423
-7.97728634 -2.41331148 -2.49513626  3223494379
-2.49513626 0.96579927 -7.75830841  1064779423
-7.65666294 -3.29191208 -2.49513626  3227157438
-2.49513626 0.96579927 -7.48945951  1064779423
-7.36833000 -3.89472222 -2.49513626  3229640097
-2.49513626 0.96579927 -5.17179871  1064794642
-5.36863136 6.05064440 -2.49513626  1086248733
-2.49513626 0.96670640 -5.65345526  1064794642
-5.83611250 5.60109711 -2.49513626  1085290373
-2.49513626 0.96670640 -6.01275444  1064794642
-6.26606989 5.11555147 -2.49513626  1083825399
-2.49513626 0.96670640 -6.58116198  1064794642
-6.65574932 4.59711885 -2.49513626  1083157563
-2.49513626 0.96670640 -6.79977465  1064794642
-6.86917114 4.27165318 -2.49513626  1082233467
-2.49513626 0.96670640 -7.35932398  1064794642
-7.51230192 2.99963522 -2.49513626  1075888504
-2.49513626 0.96670640 -7.72846651  1064794642
-7.86568165 1.88774145 -2.49513626  1070675643
-2.49513626 0.96670640 -7.94737720  1064794642
-7.99163198 1.25152981 -2.49513626  1065261925
-2.49513626 0.96670640 -8.04258251  1064794642
-8.06620884 0.60727298 -2.49513626  1051872628
-2.49513626 0.96670640 -8.08854771  1064794642
-8.08893394 -0.04088758 -2.49513626  3190732810
-2.49513626 0.96670640 -8.08345985  1064794642
-8.07760334 -0.42992195 -2.49513626  3205445268
-2.49513626 0.96670640 -8.05965805  1064794642
-8.03341961 -0.94693416 -2.49513626  3214549051
-2.49513626 0.96670640 -7.97857141  1064794642
-7.95617676 -1.46005154 -2.49513626  3217764964
-2.49513626 0.96670640 -7.90525389  1064794642
-7.87673855 -1.84105754 -2.49513626  3222661108
-2.49513626 0.96670640 -7.70393133  1064794642
-7.52996254 -2.95502710 -2.49513626  3225736116
-2.49513626 0.96670640 -7.43130779  1064794642
-7.15146399 -3.78009057 -2.49513626  1086240139
-2.49513626 0.96756452 -5.40017986  1064809038
-5.75493956 5.34854650 -2.49513626  1084565660
-2.49513626 0.96756452 -6.24225187  1064809038
-6.39206028 4.56813097 -2.49513626  1082887009
-2.49513626 0.96756452 -6.80143356  1064809038
-7.19924545 3.14597034 -2.49513626  1078062349
-2.49513626 0.96756452 -7.29644537  1064809039
-7.34223366 2.79604459 -2.49513626  1076585218
-2.49513626 0.96756452 -7.46822977  1064809039
-7.71901798 1.46390283 -2.49513626  1067161531
-2.49513626 0.96756452 -7.78049850  1064809039
-7.84932184 0.33824056 -2.49513626  1046045886
-2.49513626 0.96756452 -7.85613203  1064809039
-7.85650301 -0.03971271 -2.49513626  3190403796
-2.49513626 0.96756452 -7.85119104  1064809038
-7.84550285 -0.41756856 -2.49513626  3205176598
-2.49513626 0.96756452 -7.72756338  1064809039
-7.70382500 -1.54185772 -2.49513626  3218417154
-2.49513626 0.96756452 -7.58911991  1064809039
-7.55554247 -2.15407562 -2.49513626  3222378820
-2.49513626 0.96756446 -7.48256397  1064809039
-7.44318533 -2.51500964 -2.49513626  3224875010
-2.49513626 0.96756446 -7.26662111  1064809039
-7.11453152 -3.33311725 -2.49513626  3227293798
-2.49513626 0.96756452 -7.00396585  1064809039
-4.88216448 5.87140751 -2.49513626  1085720324
-2.49513626 0.96837741 -5.15893412  1064822677
-5.50927544 5.28742313 -2.49513626  1084643629
-2.49513626 0.96837741 -5.67602396  1064822677
-5.75722504 5.01630497 -2.49513626  1083466029
-2.49513626 0.96837741 -6.14059258  1064822677
-6.48447990 4.03242779 -2.49513626  1081828030
-2.49513626 0.96837741 -6.61048031  1064822677
-6.67093611 3.71585417 -2.49513626  1080033182
-2.49513626 0.96837741 -6.84195042  1064822677
-6.99712515 3.05764556 -2.49513626  1076269880
-2.49513626 0.96837741 -7.21958971  1064822677
-7.25855637 2.37114167 -2.49513626  1074808930
-2.49513626 0.96837741 -7.36420679  1064822677
-7.45281029 1.66270149 -2.49513626  1069907789
-2.49513626 0.96837741 -7.50230646  1064822677
-7.52415991 1.30229127 -2.49513626  1065858951
-2.49513626 0.96837741 -7.57809353  1064822677
-7.59217930 0.81719846 -2.49513626  1034669014
-2.49513626 0.96837741 -7.63433170  1064822677
