# .PCD v0.7 - Point Cloud Data file format
VERSION 0.7
FIELDS x y z intensity
SIZE 4 4 4 4
TYPE F F F F
COUNT 1 1 1 1
WIDTH 996
HEIGHT 1
VIEWPOINT 0 0 0 1 0 0 0
POINTS 996
DATA ascii
-2.64753628 0.77498055 -57.97476959  1061578016
-58.39235687 25.39193153 -2.64753628  1102836290
-2.64753628 0.77498055 -59.55337906  1061578016
-61.17675781 17.65853691 -2.64753628  1099258099
-2.64753628 0.77498055 -61.96004868  1061578016
-62.18893051 13.67319107 -2.64753628  1095413066
-2.64753628 0.77498055 -62.59798050  1061578016
-62.77806473 10.64583874 -2.64753628  1092229066
-2.64753628 0.77498055 -60.19606781  1061743288
-59.85740280 4.26303864 -2.49513626  1053300039
-2.49513626 0.78643626 -60.00624847  1061770212
-59.90786362 -3.48313379 -2.49513626  3232582849
-2.49513626 0.78643626 -59.55813980  1061770212
-59.29001999 -9.26171017 -2.49513626  3243318078
-2.49513626 0.78643632 -58.34995651  1061770212
-58.11610794 -14.95337200 -2.49513626  3246275728
-2.49513626 0.78643632 -57.02977753  1061770212
-56.72084427 -19.59156799 -2.49513626  3248780577
-2.50150895 0.78595394 -56.49652863  1061681661
-28.70661545 40.93175125 -2.49513626  1109260694
-2.49513626 0.81854403 -31.28859520  1062308891
-31.91411018 38.48335266 -2.49513626  1108859423
-2.49513626 0.81854403 -33.14003754  1062308891
-33.74011612 36.89285660 -2.49513626  1108434827
-2.49513626 0.81854409 -34.91374588  1062308890
-37.65446472 37.36676788 -2.64753628  1108542465
-2.64753628 0.80859447 -39.41963196  1062141964
-39.98770523 34.85865784 -2.64753628  1107702372
-2.64753628 0.80859447 -41.62871933  1062141964
-42.15422440 32.20490265 -2.64753628  1107044649
-2.64753628 0.80859447 -43.17204666  1062141964
-43.66414642 30.12600327 -2.64753628  1105942046
-2.64753628 0.80859447 -44.61410141  1062141964
-45.95149612 26.50646591 -2.64753628  1104025263
-2.64753628 0.80859447 -46.78340530  1062141964
-49.91183090 17.97060966 -2.64753628  1099517051
-2.64753628 0.80859447 -50.46605682  1062141964
-50.72346115 15.53268528 -2.64753628  1097556764
-2.64753628 0.80859447 -51.41608429  1062141964
-51.81090164 11.39142036 -2.64753628  1093196480
-2.64753628 0.80859447 -52.30171585  1062141964
-52.43810272 8.02362919 -2.64753628  1088790844
-2.64753628 0.80859447 -52.84663773  1062141964
-53.00847626 2.05805278 -2.64753628  3225751623
-2.64753628 0.80859447 -52.83194351  1062141964
-52.64981461 -6.49082327 -2.64753628  3236618665
-2.64753628 0.80859447 -52.12109756  1062141964
-51.95484924 -10.71573067 -2.64753628  3241728512
-2.64753628 0.80859447 -51.58177185  1062141964
-51.37504196 -13.21888542 -2.64753628  3244343096
-2.64753628 0.80859447 -50.92144012  1062141964
-50.67468262 -15.69107151 -2.64753628  3246657218
-2.64753628 0.80859447 -49.85545731  1062141964
-49.55629730 -18.92900276 -2.64753628  3249173374
-2.64753628 0.80859447 -24.59832191  1062707013
-25.16142845 34.67214966 -2.49513626  1107779037
-2.49513626 0.84227395 -27.34676170  1062707014
-28.13107300 32.82805252 -2.51799583  1107510956
-2.55295825 0.83893025 -31.12869835  1062566674
-32.26561737 32.01910019 -2.64753628  1107030937
-2.64753628 0.83348954 -33.28262329  1062559634
-34.26493454 29.86981583 -2.64753628  1104987279
-2.64753628 0.83348954 -36.56224823  1062559634
-38.22923660 24.59304237 -2.64753628  1103087572
-2.64753628 0.83348954 -39.00338364  1062559634
-39.37524414 22.71304321 -2.64753628  1101413627
-2.64753628 0.83348960 -40.75910950  1062559634
-41.68575287 18.12704659 -2.64753628  1098953424
-2.64753628 0.83348954 -44.39607239  1062559635
-44.54789352 9.04307175 -2.64753628  1090857321
-2.64753628 0.83348960 -44.93352509  1062559635
-45.21373749 4.69153404 -2.64753628  1078897532
-2.64753628 0.83348960 -45.38787079  1062559634
-45.45552063 0.29601800 -2.64753628  3214278314
-2.64753628 0.83348954 -45.41653061  1062559635
-45.33132553 -3.37081790 -2.64753628  3231360478
-2.64753628 0.83348960 -45.11493683  1062559634
-45.01925659 -6.28959131 -2.64753628  3235938446
-2.64753628 0.83348948 -44.79270554  1062559634
-44.51943207 -9.18216801 -2.64753628  3240744539
-2.64753628 0.83348960 -43.63391495  1062559632
-43.42247009 -13.44547367 -2.64753628  3244445985
-2.64753628 0.83348966 -42.96570587  1062559634
-42.72049332 -15.53228855 -2.64753628  3246865019
-2.64753628 0.83348954 -41.62892532  1062559635
-22.80820465 32.52141953 -2.64498138  1107343435
-2.64753628 0.85265976 -23.86940575  1062881257
-24.37972450 31.40918350 -2.64753628  1106777971
-2.64753628 0.85265976 -25.87202835  1062881256
-26.35613060 29.77015114 -2.64753628  1105672871
-2.64753628 0.85265976 -27.76671410  1062881257
-29.11219978 27.08112526 -2.64753628  1104469065
-2.64753628 0.85265970 -30.79939842  1062881257
-31.59525871 24.13809013 -2.64753628  1101225278
-2.64753628 0.85265976 -34.44138718  1062881257
-34.75765991 19.30834389 -2.64753628  1100346606
-2.64753628 0.85265970 -35.36298370  1062881257
-35.93142319 17.02470589 -2.64753628  1096885487
-2.64753628 0.85265976 -38.01803207  1062881257
-38.20104980 11.02665043 -2.64753628  1093044420
-2.64753628 0.85265976 -38.53717041  1062881256
-38.83309555 8.53805828 -2.64753628  1089008579
-2.64753628 0.85265970 -39.20096970  1062881257
-39.30318832 6.01383734 -2.64753628  1083685814
-2.64753628 0.85265976 -39.60939407  1062881257
-37.44367218 1.45374846 -2.49513626  1048174942
-2.49513626 0.86051911 -37.47014999  1063013115
-37.44097900 -1.57079279 -2.49527121  3221959471
-2.49513626 0.86051911 -37.31898499  1063013115
-37.25951385 -3.98386121 -2.49513626  3232098786
-2.49513626 0.86051911 -37.02290344  1063013115
-36.92469788 -6.38037586 -2.49513626  3235854670
-2.49513626 0.86051911 -36.28986359  1063013115
-35.79516220 -11.08372498 -2.49513626  3243634492
-2.49513626 0.86051911 -34.55518341  1063013115
-34.06917572 -15.60236549 -2.49513626  1105683822
-2.64753628 0.86787117 -20.74998283  1063136462
-21.20894051 28.25446701 -2.64753628  1105151047
-2.64753628 0.86787117 -22.11016846  1063136462
-23.41850090 26.45199966 -2.64753628  1103566131
-2.64753628 0.86787117 -25.47549248  1063136462
-25.86738014 24.06268501 -2.64753628  1102914205
-2.64753628 0.86787117 -25.52558708  1063249736
-25.86998940 21.12112999 -2.50275636  1101372158
-2.50275636 0.87462282 -26.53847122  1063249736
-28.32228279 18.87326050 -2.55053592  1100406625
-2.61225271 0.86951172 -30.01664925  1063136461
-30.31355858 18.14449883 -2.64753628  1099513860
-2.64753628 0.86787111 -31.15660095  1063136462
-31.42145348 16.15011597 -2.64753628  1098530862
-2.64753628 0.86787117 -32.16661453  1063136462
-32.62155533 13.56348228 -2.64753628  1094115344
-2.64753628 0.86787117 -33.94321060  1063136461
-34.24184799 8.69655609 -2.64753628  1087632728
-2.49513626 0.87497967 -32.91223907  1063255723
-33.16865540 2.90121412 -2.49513626  1067800320
-2.49513626 0.87497962 -33.28428650  1063255719
-33.23917389 -1.93257594 -2.49513626  3223192644
-2.49513626 0.87497967 -33.15943909  1063255722
-33.10665131 -3.53982830 -2.49513626  3229769072
-2.49513626 0.87497944 -32.97504425  1063255722
-32.89635849 -5.13875151 -2.49513626  3235330124
-2.49513626 0.87497962 -31.96033287  1063255722
-31.80546379 -9.84834385 -2.49513626  3240477938
-2.49513626 0.87497962 -31.10350990  1063255728
-30.70369720 -12.87867928 -2.49513626  3243636414
-2.49513626 0.87497962 -30.27185440  1063255722
-18.24902153 26.02063179 -2.64753628  1104005089
-2.64753628 0.88023299 -19.89040565  1063343859
-20.28804398 24.46417427 -2.64753628  1103171888
-2.64753628 0.88023299 -21.06738663  1063343859
-20.98119164 21.50433350 -2.50275636  1101614415
-2.50275636 0.88639504 -22.64712906  1063447241
-23.27275658 19.00067520 -2.50275636  1100421666
-2.53841567 0.88487333 -24.70747948  1063384773
-25.53558350 18.86357307 -2.64465141  1099759189
-2.64753628 0.88023299 -27.27021980  1063343859
-27.53022194 15.88040829 -2.64753628  1098313985
-2.64753628 0.88023299 -28.26688194  1063343859
-28.49777985 14.07041454 -2.64753628  1096399922
-2.64753628 0.88023299 -29.14567375  1063343858
-29.53969383 11.72632313 -2.64753628  1093924669
-2.64753628 0.88023299 -29.90290642  1063343859
-30.07285309 10.28221035 -2.64753628  1092401616
-2.64753628 0.88023299 -28.90811157  1063452702
-29.60801125 4.53037262 -2.49513626  1076299993
-2.49513626 0.88672054 -29.87692833  1063452702
-29.93005562 1.16202676 -2.49513626  1059961605
-2.49513626 0.88672054 -29.95196724  1063452702
-29.95121765 -0.28860235 -2.49513626  3209014273
-2.49513626 0.88672054 -29.92628288  1063452702
-29.87013817 -2.22113323 -2.49513626  3224174593
-2.49513626 0.88672054 -29.78284645  1063452702
-29.51522064 -5.10005951 -2.49513626  3235893838
-2.49513626 0.88672054 -29.00777817  1063452702
-28.88348389 -7.93114805 -2.49513626  3239387257
-2.49513626 0.88672054 -27.98086166  1063452702
-27.62118340 -11.58571911 -2.49513626  3242228637
-2.49513626 0.88672054 -27.23269653  1063452702
-17.08508682 21.29239655 -2.50275636  1101235556
-2.50275636 0.89614218 -18.42374802  1063610771
-18.74660301 19.84518051 -2.50275636  1100426411
-2.54353571 0.89454246 -20.97238541  1063555089
-22.07229996 18.62252808 -2.64753628  1099317545
-2.64753628 0.89047557 -23.77014160  1063515701
-24.03184700 16.01422501 -2.64753628  1098100163
-2.64753628 0.89047557 -25.01534653  1063515701
-25.24506378 14.02397060 -2.64753628  1093756146
-2.64753628 0.89047557 -27.00979424  1063515701
-27.47299767 8.90053082 -2.64753628  1088683241
-2.49513626 0.89644140 -26.58154678  1063615791
-26.67244148 5.41441441 -2.49513626  1083284637
-2.49513626 0.89644140 -27.11292839  1063615791
-27.14768410 1.93344665 -2.49513626  1065821991
-2.49513626 0.89644140 -27.21518326  1063615791
-27.17056656 -1.57973778 -2.49513626  3223138897
-2.49513626 0.89644140 -27.06219673  1063615791
-26.81901360 -4.63417149 -2.49513626  3231850902
-2.49513626 0.89644140 -26.56315613  1063615791
-26.24498749 -7.20664310 -2.49513626  3237225595
-2.49513626 0.89644140 -25.99860954  1063615791
-25.86524200 -8.46901131 -2.49513626  3238931249
-2.49513626 0.89644140 -25.57830811  1063615791
-25.26469994 -10.12076855 -2.49513626  3240652833
-2.49513626 0.89644140 -24.74500275  1063615791
-14.36130142 20.47726822 -2.50275636  1100877846
-2.50275636 0.90434456 -15.96594048  1063748383
-16.74121094 18.90976334 -2.52720475  1100419792
-2.64005709 0.89937001 -18.78036118  1063660392
-19.07883072 18.33119774 -2.64753628  1099967114
-2.64753628 0.89909983 -19.66074562  1063660392
-19.94407272 17.38587570 -2.64753628  1099464224
-2.64753628 0.89909983 -20.49504280  1063660392
-20.76254272 16.39974976 -2.64753628  1098940345
-2.64753628 0.89909983 -21.28123283  1063660392
-21.53228188 15.37516403 -2.64753628  1097885801
-2.64753628 0.89909983 -22.91852570  1063660394
-23.12898827 12.84845638 -2.64753628  1095209655
-2.64753628 0.89909995 -23.72403908  1063660392
-23.91007996 11.32885551 -2.64753628  1093603242
-2.64753628 0.89909983 -24.26340103  1063660392
-24.43058777 10.15781784 -2.64753628  1091528751
-2.64753628 0.89909983 -23.72133446  1063753029
-24.16789246 6.13803005 -2.49513626  1084970994
-2.49513626 0.90462136 -24.51366234  1063753029
-24.64829063 3.77147555 -2.49513626  1079500651
-2.49513626 0.90462142 -24.87216568  1063753028
-24.89752579 1.36956525 -2.49513626  1058054439
-2.49513626 0.90462142 -24.93463516  1063753029
-24.91320801 -1.04520488 -2.49513626  3219959334
-2.49513626 0.90462142 -24.83341026  1063753029
-24.79383659 -2.65100622 -2.49513626  3227307861
-2.49513626 0.90462142 -24.63638878  1063753029
-24.57103920 -4.24573469 -2.49513626  3230960274
-2.49513626 0.90462142 -24.42113686  1063753029
-24.33662796 -5.43053818 -2.49513626  3233436702
-2.49513626 0.90462142 -24.04512405  1063753029
-23.81940460 -7.37551498 -2.49513626  3237497557
-2.49513626 0.90462142 -23.56884193  1063753029
-23.43432808 -8.52023602 -2.49513626  3239336944
-2.49513626 0.90462142 -22.99428368  1063753029
-22.83555794 -10.01496887 -2.49513626  3240500796
-2.49513626 0.90462136 -13.27305031  1063863191
-13.72774887 18.91666031 -2.53517723  1100433275
-2.56465602 0.90925169 -15.16183090  1063795043
-15.58129883 18.78858185 -2.64753628  1100236476
-2.64753628 0.90646058 -16.17983437  1063783886
-16.76148987 17.74372864 -2.64753628  1099678768
-2.64753628 0.90646064 -17.32565880  1063783886
-17.60101318 16.91129494 -2.64753628  1099235278
-2.64753628 0.90646058 -18.90752220  1063783886
-19.15430450 15.12944698 -2.64753628  1096665418
-2.64753628 0.90646064 -20.52794456  1063783886
-20.73849297 12.87254238 -2.64753628  1095275397
-2.64753628 0.90646064 -21.33747673  1063783886
-21.52609062 11.50716686 -2.64753628  1093830566
-2.64753628 0.90646064 -21.88640976  1063783886
-22.05803680 10.45133781 -2.64753628  1092714572
-2.64753628 0.90646064 -22.38398361  1063783886
-21.88391495 7.08981371 -2.49513626  1087120658
-2.49513626 0.91159946 -22.20154572  1063870101
-22.29588127 5.66258430 -2.49513626  1084860626
-2.49513626 0.91159946 -22.54391479  1063870101
-22.73906136 3.47933650 -2.49513626  1078404825
-2.49513626 0.91159946 -22.83955574  1063870101
-22.94560051 1.63417566 -2.49513626  1067563433
-2.49513626 0.91159946 -22.99781609  1063870101
-23.00323486 0.14980516 -2.49513626  3206008850
-2.49513626 0.91159946 -22.96493530  1063870101
-22.87334442 -2.44566345 -2.49513626  3224642391
-2.49513626 0.91159946 -22.78245354  1063870101
-22.66780281 -3.91686606 -2.49513626  3230206231
-2.49513626 0.91159946 -22.52951431  1063870101
-22.18262863 -6.09115219 -2.49513626  3236237147
-2.49513626 0.91159946 -21.74323463  1063870101
-21.35407639 -8.55421448 -2.49513626  3239657527
-2.49513626 0.91159946 -13.30383015  1063890506
-13.59809208 18.11532402 -2.64753628  1099900338
-2.64753628 0.91281569 -14.17591190  1063890506
-14.45930481 17.43564224 -2.64753628  1099536737
-2.64753628 0.91281569 -15.55453300  1063890505
-15.81833839 16.21274948 -2.64753628  1098307614
-2.64753628 0.91281569 -16.83177567  1063890506
-17.07429314 14.88422775 -2.64753628  1097446561
-2.64753628 0.91281569 -17.54601860  1063890506
-17.99941063 13.75115681 -2.64753628  1095618775
-2.64753628 0.91281569 -19.04975319  1063890506
-19.24514198 11.94561100 -2.64753628  1093998200
-2.64753628 0.91281569 -19.97602463  1063890506
-20.14583206 10.35463524 -2.64753628  1092645552
-2.64753628 0.91281569 -20.46966743  1063890506
-19.71133232 8.19563198 -2.49513626  1090259596
-2.49513626 0.91762149 -19.96568108  1063971134
-20.08505630 7.23156548 -2.49513626  1088225410
-2.49513626 0.91762149 -20.41166496  1063971134
-20.50992584 5.92014456 -2.49513626  1084059976
-2.49513626 0.91762149 -20.84926224  1063971134
-20.98640060 3.90845442 -2.49513626  1077464998
-2.49513626 0.91762149 -21.33117867  1063971134
-21.34626198 -0.20568714 -2.49513626  3211072102
-2.49513626 0.91762149 -21.31126213  1063971134
-21.28847694 -1.58300340 -2.49513626  3220609076
-2.49513626 0.91762149 -21.18687630  1063971132
-21.14192390 -2.95371366 -2.49513626  3226655858
-2.49513626 0.91762143 -20.97409439  1063971134
-20.90719604 -4.31212568 -2.49513626  3230975426
-2.49513626 0.91762149 -20.75706482  1063971133
-20.67387199 -5.31942129 -2.49513626  3233775184
-2.49513626 0.91762149 -20.39204407  1063971134
-20.28743744 -6.64267683 -2.49513626  3235841333
-2.49513626 0.91762149 -20.06239510  1063971132
-19.68564606 -8.25715256 -2.49513626  3238604487
-2.49513626 0.91762149 -12.68302917  1063983485
-13.22196293 16.47795677 -2.64753628  1099045187
-2.64753628 0.91835767 -14.00435352  1063983485
-14.25794029 15.59021091 -2.64753628  1097986726
-2.64753628 0.91835767 -15.23444462  1063983485
-15.46879101 14.38957882 -2.64753628  1096415887
-2.64753628 0.91835767 -16.78816795  1063983485
-16.99305916 12.55306816 -2.64753628  1094711105
-2.64753628 0.91835767 -17.58096313  1063983485
-17.95007133 11.14174938 -2.64753628  1092257406
-2.64753628 0.91835767 -18.38489151  1064059206
-18.62212563 7.04651213 -2.49513626  1087886955
-2.49513626 0.92287099 -18.83993721  1064059206
-19.12974358 5.52175570 -2.49513626  1081966909
-2.49513626 0.92287099 -19.57415581  1064059206
-19.63046646 3.32890964 -2.49513626  1075312429
-2.49513626 0.92287099 -19.83498955  1064059206
-19.86041641 1.41445053 -2.49513626  1066138348
-2.49513626 0.92287099 -19.89572906  1064059206
-19.90560722 0.45111889 -2.49513626  3192156983
-2.49513626 0.92287099 -19.89322281  1064059206
-19.87715530 -1.15568805 -2.49513626  3219521561
-2.49513626 0.92287099 -19.71920776  1064059206
-19.67215347 -3.07299280 -2.49513626  3229660109
-2.49513626 0.92287099 -19.43279457  1064059206
-19.36024666 -4.64947987 -2.49513626  3232930671
-2.49513626 0.92287099 -19.01979256  1064059206
-18.71230888 -6.80340815 -2.49513626  3237996295
-2.49513626 0.92287099 -18.10268974  1064059206
-11.36451721 16.20426559 -2.64753628  1098917426
-2.64753628 0.92323279 -11.88179398  1064065275
-12.38667583 15.43697262 -2.64753628  1097669362
-2.64753628 0.92323279 -13.59128284  1064065275
-13.82180977 14.16644287 -2.64753628  1096018599
-2.64753628 0.92323279 -15.12732506  1064065275
-15.53150368 12.26790047 -2.64753628  1094729630
-2.64753628 0.92323279 -16.10734367  1064065275
-16.81608391 10.43787479 -2.64753628  1092789203
-2.64753628 0.92323279 -17.14433861  1064065276
-17.45471764 9.33073902 -2.64753628  1091617642
-2.64753628 0.92323273 -16.85649681  1064136655
-16.98324013 7.71357393 -2.49513626  1089341203
-2.49513626 0.92748737 -17.22344971  1064136656
-17.33680344 6.88215971 -2.49513626  1086993365
-2.49513626 0.92748731 -17.83537292  1064136657
-17.92123413 5.17292976 -2.49513626  1082757661
-2.49513626 0.92748737 -18.21775627  1064136655
-18.33756828 3.41513872 -2.49513626  1077186480
-2.49513626 0.92748743 -18.48142242  1064136657
-18.55326080 1.92514324 -2.49513626  1070598935
-2.49513626 0.92748731 -18.60574532  1064136657
-18.62471390 1.02450836 -2.49513626  1054368204
-2.49513626 0.92748743 -18.65249062  1064136656
-18.65202522 -0.17972614 -2.49513626  3203805938
-2.49513626 0.92748731 -18.62142563  1064136656
-18.60153198 -1.38320327 -2.49513626  3218569326
-2.49513626 0.92748731 -18.47345543  1064136657
-18.38049316 -3.17604280 -2.49513626  3228640443
-2.49513626 0.92748737 -18.20511436  1064136658
-17.98708153 -4.93909121 -2.49513626  3232191200
-2.49513626 0.92748737 -17.81822395  1064136657
-17.72683907 -5.80426502 -2.49513626  3235183731
-2.49513626 0.92748731 -17.31525421  1064136655
-17.20100403 -7.21496820 -2.49513626  3236936819
-2.49513626 0.92748731 -16.95906067  1064136656
-10.68780518 15.23936653 -2.64753628  1097927033
-2.64753628 0.92755431 -11.17428303  1064137779
-12.33842468 13.93667316 -2.64753628  1096533287
-2.64753628 0.92755431 -12.78198051  1064137779
-12.99877644 13.32288551 -2.64753628  1095878584
-2.64753628 0.92755431 -13.42218685  1064137779
-14.22655773 12.00302601 -2.64753628  1093979408
-2.64753628 0.92755431 -15.65420341  1064137779
-15.81476784 9.81634426 -2.64753628  1092154524
-2.64753628 0.92755431 -16.12347603  1064137779
-16.27154160 9.03905201 -2.64753628  1090539123
-2.49513626 0.93157834 -15.85275745  1064205291
-16.19786263 6.73479176 -2.49513626  1087315365
-2.49513626 0.93157834 -16.40687561  1064205291
-16.50497246 5.94256639 -2.49513626  1085643774
-2.49513626 0.93157834 -16.77336311  1064205291
-17.00240135 4.31817913 -2.49513626  1082220802
-2.49513626 0.93157834 -17.24565506  1064205291
-17.29526520 2.93291593 -2.49513626  1075306115
-2.49513626 0.93157834 -17.44850349  1064205291
-17.47546196 1.52855635 -2.49513626  1059993948
-2.49513626 0.93157834 -17.53767967  1064205291
-17.52676392 -0.73531514 -2.49513626  3215360482
-2.49513626 0.93157834 -17.33199501  1064205291
-17.28601837 -2.98692465 -2.49513626  3227699403
-2.49513626 0.93157834 -17.12110710  1064205291
-16.75723457 -5.18876314 -2.49513626  3232673080
-2.49513626 0.93157834 -16.48634148  1064205290
-16.28419685 -6.52327633 -2.49513626  3235455380
-2.49513626 0.93157834 -16.06508636  1064205291
-15.94923019 -7.30412960 -2.49513626  1097210035
-2.64753628 0.93141103 -10.31671715  1064202483
-11.21275520 13.52081013 -2.64753628  1096116332
-2.64753628 0.93141097 -12.06205750  1064202483
-12.26663780 12.57249451 -2.64753628  1095104238
-2.64753628 0.93141097 -12.66620731  1064202483
-13.05253029 11.75455379 -2.64753628  1093778786
-2.64753628 0.93141103 -13.95799541  1064202483
-14.12834835 10.43685532 -2.64753628  1092833648
-2.64753628 0.93141097 -14.45796108  1064202483
-14.77250481 9.50322533 -2.64753628  1091589932
-2.64753628 0.93141103 -14.47118759  1064266529
-14.59910583 7.80422020 -2.49513626  1089611995
-2.49513626 0.93522841 -14.84347534  1064266528
-15.18093395 6.60143280 -2.49513626  1087070200
-2.49513626 0.93522841 -15.38616943  1064266529
-15.57535744 5.60785770 -2.49513626  1084973406
-2.49513626 0.93522835 -16.04476357  1064266528
-16.10846519 3.81537247 -2.49513626  1080263054
-2.49513626 0.93522835 -16.32113647  1064266528
-16.46574211 1.70853591 -2.49513626  1069064857
-2.49513626 0.93522835 -16.52915573  1064266529
-16.55337524 -0.15950413 -2.49513626  3201990507
-2.49513626 0.93522841 -16.53959465  1064266529
-16.48659706 -1.49395776 -2.49513626  3219211957
-2.49513626 0.93522835 -16.42975998  1064266529
-16.39491653 -2.29051542 -2.49513626  3223553075
-2.49513626 0.93522835 -16.31240845  1064266529
-16.26477051 -3.08171034 -2.49513626  3226862293
-2.49513626 0.93522835 -16.15678787  1064266528
-15.96326542 -4.38337040 -2.49513626  3231494205
-2.49513626 0.93522835 -15.55776215  1064266528
-15.46440792 -5.90693426 -2.49513626  3234135250
-2.49513626 0.93522835 -15.26562023  1064266528
-15.05091190 -6.89273500 -2.49513626  1095550279
-2.64753628 0.93487388 -11.22074032  1064260581
-11.61102962 11.90053272 -2.64753628  1094410831
-2.64753628 0.93487388 -11.98923111  1064260581
-12.17366219 11.32434177 -2.64753628  1093372827
-2.64753628 0.93487388 -13.68522644  1064260581
-13.83590508 9.21989918 -2.64753628  1091562692
-2.64753628 0.93487388 -14.16031456  1064321500
-14.26679802 6.47980165 -2.49513626  1086357839
-2.49513626 0.93850493 -14.74289799  1064321500
-14.82668686 5.06939363 -2.49513626  1083363615
-2.49513626 0.93850493 -15.05476189  1064321500
-15.12296677 4.10187387 -2.49513626  1080500743
-2.49513626 0.93850493 -15.30384731  1064321500
-15.40451145 2.86889863 -2.49513626  1075293772
-2.49513626 0.93850493 -15.52535534  1064321500
-15.60978031 1.36536705 -2.49513626  1037105893
-2.49513626 0.93850493 -15.66865158  1064321500
-15.65560722 -0.65681273 -2.49513626  3216310675
-2.49513626 0.93850493 -15.58056927  1064321500
-15.55164051 -1.91725183 -2.49513626  3221930512
-2.49513626 0.93850493 -15.39547253  1064321500
-15.29326057 -3.41257739 -2.49513626  3229213856
-2.49513626 0.93850493 -15.04111862  1064321500
-14.72624874 -5.35415888 -2.49513626  1095522903
-2.64753628 0.93800002 -9.47363472  1064313029
-9.67617607 12.46613026 -2.64753628  1095036594
-2.64753628 0.93800002 -10.26846409  1064313029
-10.46060371 11.81560802 -2.64753628  1094341264
-2.64753628 0.93800008 -10.83665276  1064313029
-11.20139790 11.11580753 -2.64753628  1092595410
-2.64753628 0.93800002 -12.53998280  1064313029
-12.69303036 9.37655830 -2.64753628  1091527604
-2.64753628 0.93800002 -12.37623978  1064371117
-12.50778580 8.04631424 -2.49513626  1089760421
-2.49513626 0.94146234 -12.88273525  1064371117
-13.00102901 7.22224188 -2.49513626  1088445751
-2.49513626 0.94146234 -13.44007874  1064371117
-13.54113579 6.15021658 -2.49513626  1086179579
-2.49513626 0.94146234 -13.73266220  1064371117
-13.90986252 5.26342010 -2.49513626  1083832374
-2.49513626 0.94146234 -14.14840889  1064371117
-14.28901958 4.12449598 -2.49513626  1081682651
-2.49513626 0.94146234 -14.41475105  1064371117
-14.47198296 3.42776322 -2.49513626  1078748321
-2.49513626 0.94146234 -14.66304779  1064371117
-14.70127296 2.24946308 -2.49513626  1073791348
-2.49513626 0.94146234 -14.76625252  1064371117
-14.81581974 1.29592037 -2.49513626  1065827415
-2.49513626 0.94146234 -14.84993839  1064371117
-14.86118031 0.57698500 -2.49513626  1036409168
-2.49513626 0.94146234 -14.87169647  1064371117
-14.86744308 -0.38339901 -2.49513626  3206518653
-2.49513626 0.94146234 -14.84731293  1064371117
-14.83143902 -1.10286057 -2.49513626  3215707316
-2.49513626 0.94146228 -14.76063919  1064371117
-14.72933578 -2.05782223 -2.49513626  3222464399
-2.49513626 0.94146234 -14.46120739  1064371117
-14.40325069 -3.70598006 -2.49513626  3229354275
-2.49513626 0.94146234 -14.27608109  1064371117
-13.97722721 -5.08182955 -2.49513626  3232354722
-2.49513626 0.94146234 -13.80585766  1064371117
-13.71476364 -5.75266361 -2.49513626  3234212068
-2.49513626 0.94146234 -8.81881905  1064360612
-9.58476067 11.55770493 -2.64753628  1093918730
-2.64753628 0.94083619 -10.13317204  1064360612
-10.48563290 10.74707413 -2.64753628  1092666414
-2.64753628 0.94083619 -11.31820488  1064360612
-11.47603321 9.68239594 -2.64753628  1092087538
-2.64753628 0.94083619 -11.93141651  1064360612
-11.51611423 8.22309971 -2.49513626  1090198130
-2.49513626 0.94414485 -12.02284145  1064416122
-12.37009525 6.87175035 -2.49513626  1087307790
-2.49513626 0.94414485 -12.68833065  1064416122
-12.78783035 6.05901337 -2.49513626  1086013830
-2.49513626 0.94414485 -12.97679520  1064416122
-13.31394768 4.79364252 -2.49513626  1083342673
-2.49513626 0.94414485 -13.46177197  1064416123
-13.59557247 3.92433047 -2.49513626  1079963282
-2.49513626 0.94414485 -13.76965714  1064416122
-13.82052231 3.03865099 -2.49513626  1077160656
-2.49513626 0.94414485 -14.09680653  1064416122
-14.12926960 0.77722442 -2.49513626  1057786414
-2.49513626 0.94414490 -14.15032673  1064416122
-14.14997005 -0.13634554 -2.49513626  3199911447
-2.49513626 0.94414485 -14.13818932  1064416122
-14.11166382 -1.04933858 -2.49513626  3217068397
-2.49513626 0.94414485 -13.98107529  1064416122
-13.94398975 -2.40944099 -2.49513626  3226696537
-2.49513626 0.94414485 -13.70425892  1064416122
-13.64553547 -3.74694324 -2.49513626  3230003275
-2.49513626 0.94414485 -13.44809437  1064416122
-13.04918289 -5.47348642 -2.49513626  1094422332
-2.64753628 0.94342065 -8.40950775  1064403972
-8.77928162 11.31062984 -2.64753628  1093840307
-2.64753628 0.94342065 -9.49099827  1064403972
-9.99895954 10.24826717 -2.64753628  1090720278
-2.49513626 0.94658887 -10.85357761  1064457126
-10.98161221 7.84143972 -2.49513626  1089812522
-2.49513626 0.94658893 -11.22907066  1064457127
-11.34842396 7.30049372 -2.49513626  1088665801
-2.49513626 0.94658887 -11.90022945  1064457126
-12.00138855 6.16851616 -2.49513626  1086270076
-2.49513626 0.94658887 -12.28600311  1064457126
-12.62054253 4.77554655 -2.49513626  1083328235
-2.49513626 0.94658887 -13.17906570  1064457126
-13.22413158 2.68445420 -2.49513626  1074815834
-2.49513626 0.94658893 -13.42178726  1064457126
-13.44252491 1.17579997 -2.49513626  1050446011
-2.49513626 0.94658887 -13.48199177  1064457126
-13.47110081 -0.78323013 -2.49513626  3212842194
-2.49513626 0.94658887 -13.43878651  1064457126
-13.39245987 -1.65106153 -2.49513626  3221572012
-2.49513626 0.94658887 -13.25797081  1064457126
-13.01220036 -3.57303429 -2.49513626  3228702507
-2.49513626 0.94658887 -12.82392693  1064457126
-12.68167210 -4.61079264 -2.49513626  3231323140
-2.49513626 0.94658887 -12.52617741  1064457126
-12.44353008 -5.21944284 -2.49513626  3232591356
-2.49513626 0.94658887 -7.85557604  1064443645
-8.03540611 11.07269382 -2.64753628  1093603435
-2.64753628 0.94578534 -8.73330688  1064443645
-9.23299885 10.09573078 -2.64753628  1092398475
-2.64753628 0.94578534 -9.86535454  1064443645
-10.16625309 9.15530300 -2.64753628  1091557079
-2.64753628 0.94578534 -9.98762035  1064494639
-10.11797428 7.99190331 -2.49513626  1090157269
-2.49513626 0.94882482 -10.37074661  1064494639
-10.61270142 7.32220554 -2.49513626  1088736249
-2.49513626 0.94882482 -10.84358215  1064494639
-10.95480537 6.79973030 -2.49513626  1087629097
-2.49513626 0.94882482 -11.27120209  1064494639
-11.37083912 6.07849455 -2.49513626  1086102665
-2.49513626 0.94882482 -11.56117249  1064494639
-11.73945522 5.33191252 -2.49513626  1084122926
-2.49513626 0.94882482 -11.98386288  1064494639
-12.05910969 4.56310701 -2.49513626  1082901780
-2.49513626 0.94882482 -12.20015240  1064494639
-12.26591682 3.97383833 -2.49513626  1081187822
-2.49513626 0.94882482 -12.38782310  1064494639
-12.44394970 3.37523031 -2.49513626  1078665409
-2.49513626 0.94882482 -12.59278870  1064494639
-12.63584328 2.56503105 -2.49513626  1074394881
-2.49513626 0.94882482 -12.82471371  1064494639
-12.86099243 0.91595501 -2.49513626  1056968229
-2.49513626 0.94882482 -12.89025688  1064494639
-12.89297009 -0.12423338 -2.49513626  3198824080
-2.49513626 0.94882482 -12.88222885  1064494639
-12.85806751 -0.95612127 -2.49513626  3215947296
-2.49513626 0.94882482 -12.79668713  1064494639
-12.76954842 -1.78401899 -2.49513626  3221141379
-2.49513626 0.94882482 -12.58407593  1064494639
-12.37660408 -3.61439013 -2.49513626  3228832930
-2.49513626 0.94882482 -12.25344563  1064494639
-12.18706894 -4.20945311 -2.49513626  3230464843
-2.49513626 0.94882482 -12.04479980  1064494639
-11.88997173 -4.98725319 -2.49513626  3232085737
-2.49513626 0.94882482 -11.72274017  1064494639
-7.69211578 10.59964371 -2.64753628  1093113285
-2.64753628 0.94795698 -8.19634533  1064480079
-8.68134785 9.80588150 -2.64753628  1092264318
-2.64753628 0.94795704 -8.99343395  1064480079
-9.14597416 9.37401772 -2.64753628  1091803670
-2.64753628 0.94795698 -9.44388390  1064480079
-9.03717709 8.40668583 -2.49513626  1090791328
-2.49513626 0.95087790 -9.56092834  1064529084
-9.68571854 7.65047598 -2.49513626  1089121820
-2.49513626 0.95087790 -10.04480171  1064529084
-10.15929985 7.00939178 -2.49513626  1088095653
-2.49513626 0.95087790 -10.38032246  1064529084
-10.59052181 6.33906174 -2.49513626  1086675456
-2.49513626 0.95087790 -10.78967762  1064529084
-10.88505459 5.81880665 -2.49513626  1085574588
-2.49513626 0.95087790 -11.15404224  1064529084
-11.39686012 4.73861885 -2.49513626  1082101692
-2.49513626 0.95087790 -11.85859680  1064529084
-11.91231632 3.23103666 -2.49513626  1078096686
-2.49513626 0.95087790 -12.20072937  1064529084
-12.25464535 1.47193503 -2.49513626  1063286645
-2.49513626 0.95087790 -12.33343506  1064529084
-12.33955860 0.27965155 -2.49513626  3186855785
-2.49513626 0.95087790 -12.33862686  1064529084
-12.30874634 -0.91527385 -2.49513626  3215456033
-2.49513626 0.95087790 -12.24998474  1064529084
-12.22400761 -1.70780206 -2.49513626  3220428215
-2.49513626 0.95087790 -12.16249275  1064529084
-12.12697124 -2.29771495 -2.49513626  3223294187
-2.49513626 0.95087790 -12.00148773  1064529084
-11.95338726 -3.07562613 -2.49513626  3226544811
-2.49513626 0.95087790 -11.84784889  1064529084
-11.66640949 -4.02961588 -2.49513626  3230461735
-2.49513626 0.95087790 -11.38200569  1064529084
-11.30343819 -4.95733833 -2.49513626  3232003168
-2.49513626 0.95087790 -7.21087646  1064513653
-7.37594843 10.16396809 -2.64753628  1092661856
-2.64753628 0.94995815 -7.85945129  1064513653
-8.01657104 9.66671848 -2.64753628  1092129666
-2.64753628 0.94995815 -8.77004910  1064513653
-8.40093327 8.33673954 -2.49513626  1090728764
-2.49513626 0.95276952 -9.04589653  1064560820
-9.16794682 7.48502111 -2.49513626  1089126561
-2.49513626 0.95276958 -9.40484905  1064560820
-9.84897900 6.56311321 -2.49513626  1087170383
-2.49513626 0.95276952 -10.05575371  1064560820
-10.15522099 6.07851076 -2.49513626  1085795085
-2.49513626 0.95276958 -10.77600765  1064560820
-10.92841434 4.54384232 -2.49513626  1082899658
-2.49513626 0.95276952 -11.13561726  1064560820
-11.37117290 3.28226304 -2.49513626  1078348134
-2.49513626 0.95276952 -11.47122383  1064560820
-11.59883595 2.35452104 -2.49513626  1073563861
-2.49513626 0.95276952 -11.80550385  1064560820
-11.83236885 0.26815778 -2.49513626  1033755016
-2.49513626 0.95276952 -11.81545162  1064560820
-11.80282116 -0.87765336 -2.49513626  3213408185
-2.49513626 0.95276952 -11.72156620  1064560820
-11.69359589 -1.82665992 -2.49513626  3222078059
-2.49513626 0.95276952 -11.59142685  1064560820
-11.50818920 -2.76376128 -2.49513626  3225206743
-2.49513626 0.95276952 -11.41295624  1064560820
-11.36086750 -3.31776094 -2.49513626  3227520152
-2.49513626 0.95276952 -11.24781990  1064560820
-11.18688774 -3.86398745 -2.49513626  3229706578
-2.49513626 0.95276952 -11.05629539  1064560820
-10.98666191 -4.40114069 -2.49513626  3230826138
-2.49513626 0.95276952 -10.83883381  1064560820
-10.76066589 -4.92796803 -2.49513626  1092484523
-2.64753628 0.95180804 -7.08375549  1064544689
-7.24043703 9.64568233 -2.64753628  1092120758
-2.64753628 0.95180804 -7.69900084  1064544689
-7.93779564 8.13571644 -2.49513626  1090257253
-2.49513626 0.95451802 -8.44634724  1064590155
-8.56806850 7.46905279 -2.49513626  1089113390
-2.49513626 0.95451802 -8.80476379  1064590155
-9.03227425 6.90046120 -2.49513626  1087905429
-2.49513626 0.95451802 -9.45881653  1064590155
-9.55935192 6.14957619 -2.49513626  1086313044
-2.49513626 0.95451802 -9.93633175  1064590155
-10.27187920 4.86692810 -2.49513626  1083247655
-2.49513626 0.95451802 -10.49549389  1064590155
-10.56457996 4.19380283 -2.49513626  1081503461
-2.49513626 0.95451802 -10.75526714  1064590155
-10.81322956 3.50320244 -2.49513626  1078574652
-2.49513626 0.95451802 -10.97018623  1064590155
-11.06052876 2.61974239 -2.49513626  1075590714
-2.49513626 0.95451802 -11.17441463  1064590155
-11.23577690 1.71920192 -2.49513626  1069862674
-2.49513626 0.95451802 -11.34938526  1064590155
-11.35798645 0.44097355 -2.49513626  1048828782
-2.49513626 0.95451802 -11.36602497  1064590155
-11.36277580 -0.29302120 -2.49513626  3203658095
-2.49513626 0.95451802 -11.33525562  1064590155
-11.30213070 -1.20844626 -2.49513626  3221711974
-2.49513626 0.95451802 -11.13226509  1064590158
-11.05229950 -2.65427613 -2.49513626  3224716709
-2.49513626 0.95451802 -10.96082973  1064590155
-10.91081142 -3.18632960 -2.49513626  3226938480
-2.49513626 0.95451802 -10.74372578  1064590155
-10.68240833 -3.88390136 -2.49513626  3229731248
-2.49513626 0.95451802 -10.55143452  1064590155
-10.48181534 -4.39660168 -2.49513626  3230799530
-2.49513626 0.95451802 -10.33439064  1064590155
-7.11245298 9.16320133 -2.64753628  1091617076
-2.64753628 0.95352304 -7.24643850  1064617347
-7.88293505 7.57403231 -2.49513626  1089356738
-2.49513626 0.95613879 -8.24043846  1064617347
-8.79292393 6.49548244 -2.49513626  1087064339
-2.49513626 0.95613879 -9.09712696  1064617347
-9.64085102 5.15369272 -2.49513626  1083558223
-2.49513626 0.95613879 -9.95338345  1064617348
-10.02507591 4.35940361 -2.49513626  1081580417
-2.49513626 0.95613879 -10.28554630  1064617347
-10.55070210 2.86172080 -2.49513626  1069369477
-2.49513626 0.95613879 -10.87353706  1064617347
-10.89033699 0.95256400 -2.49513626  1054418241
-2.49513626 0.95613879 -10.93140697  1064617347
-10.92230225 -0.45823240 -2.49513626  3206705238
-2.49513626 0.95613879 -10.88730049  1064617347
-10.62968159 -2.55278134 -2.49513626  3224262452
-2.49513626 0.95613879 -10.54170513  1064617348
-10.49360085 -3.06448960 -2.49513626  3227806412
-2.49513626 0.95613879 -10.27392960  1064617347
-10.14796352 -4.06516600 -2.49513626  3230093248
-2.49513626 0.95613879 -9.93921947  1064617347
-6.56104374 9.04103756 -2.64753628  1090959088
-2.49513626 0.95764530 -6.45529270  1064642621
-6.58869696 8.21120644 -2.49513626  1090627835
-2.49513626 0.95764530 -6.85039091  1064642622
-6.97857094 7.88253593 -2.49513626  1090034236
-2.49513626 0.95764530 -7.35206604  1064642622
-7.47277927 7.41568422 -2.49513626  1089038575
-2.49513626 0.95764530 -7.82309008  1064642622
-7.93582678 6.91790962 -2.49513626  1087979118
-2.49513626 0.95764530 -8.15506172  1064642622
-8.36578560 6.39127922 -2.49513626  1086860297
-2.49513626 0.95764530 -8.66544247  1064642622
-8.94478035 5.55209541 -2.49513626  1085081012
-2.49513626 0.95764530 -9.11938381  1064642622
-9.20312881 5.11246014 -2.49513626  1083834656
-2.49513626 0.95764530 -9.43988991  1064642622
-9.72102737 4.04183292 -2.49513626  1081645336
-2.49513626 0.95764530 -9.90533638  1064642622
-10.01532555 3.24470353 -2.49513626  1077599064
-2.49513626 0.95764530 -10.20386410  1064642622
-10.24437714 2.42643237 -2.49513626  1074137737
-2.49513626 0.95764530 -10.37962723  1064642622
-10.43104744 1.42411232 -2.49513626  1067496482
-2.49513626 0.95764530 -10.47159195  1064642622
-10.48777103 0.91735202 -2.49513626  1032611942
-2.49513626 0.95764530 -10.51855946  1064642622
-10.51006413 -0.61107105 -2.49513626  3211999695
-2.49513626 0.95764530 -10.44870949  1064642622
-10.42654991 -1.45668149 -2.49513626  3220888684
-2.49513626 0.95764530 -10.27510834  1064642622
-10.23674870 -2.45841670 -2.49513626  3223840102
-2.49513626 0.95764530 -10.00514412  1064642622
-9.70835781 -4.07217741 -2.49513626  3230418379
-2.49513626 0.95764530 -5.82871389  1064666173
-5.96210718 8.21571255 -2.49513626  1090643168
-2.49513626 0.95904911 -6.60526037  1064666174
-6.72885418 7.60047245 -2.49513626  1089217225
-2.49513626 0.95904911 -7.08898401  1064666174
-7.31989241 7.03305340 -2.49513626  1088241426
-2.49513626 0.95904911 -7.65185595  1064666174
-7.86324453 6.41981697 -2.49513626  1086937147
-2.49513626 0.95904911 -8.06643200  1064666174
-8.26119900 5.89892244 -2.49513626  1085831420
-2.49513626 0.95904911 -8.53714275  1064666174
-8.62470531 5.35342216 -2.49513626  1084079773
-2.49513626 0.95904911 -9.02835083  1064666174
-9.17347717 4.34649372 -2.49513626  1081062354
-2.49513626 0.95904911 -9.49412441  1064666174
-9.60517216 3.28410578 -2.49513626  1078475504
-2.49513626 0.95904911 -9.70619869  1064666174
-9.87779903 2.33960700 -2.49513626  1071201596
-2.49513626 0.95904911 -10.14848614  1064666174
-10.14217091 -0.42550299 -2.49513626  3208688755
-2.49513626 0.95904911 -10.10966969  1064666174
-10.09355927 -1.07922351 -2.49513626  3214867351
-2.49513626 0.95904911 -10.02946186  1064666174
-10.00285721 -1.72843671 -2.49513626  3220300390
-2.49513626 0.95904911 -9.90742970  1064666174
-9.83088398 -2.52950239 -2.49513626  3224110763
-2.49513626 0.95904911 -9.74408531  1064666174
-9.59486580 -3.31409740 -2.49513626  3228669556
-2.49513626 0.95904911 -9.36095905  1064666174
-5.62651825 8.02265644 -2.49513626  1089346274
-2.49513626 0.96036023 -6.49547386  1064688172
-6.61309385 7.23102474 -2.49513626  1088680486
-2.49513626 0.96036029 -7.06601286  1064688172
-7.17470741 6.67414951 -2.49513626  1086738196
-2.49513626 0.96036029 -7.68959045  1064688172
-7.78665733 5.94883823 -2.49513626  1085952158
-2.49513626 0.96036029 -8.06557083  1064688172
-8.24104309 5.30150127 -2.49513626  1084579375
-2.49513626 0.96036029 -8.56603718  1064688171
-8.64175606 4.61960936 -2.49513626  1083135974
-2.49513626 0.96036023 -8.78640652  1064688172
-8.85530853 4.19574165 -2.49513626  1082239935
-2.49513626 0.96036023 -9.04808331  1064688172
-9.27203083 3.17019987 -2.49513626  1074825888
-2.49513626 0.96036023 -9.63337708  1064688171
-9.66108894 1.63831723 -2.49513626  1065448401
-2.49513626 0.96036023 -9.76174641  1064688171
-9.79881001 0.06381333 -2.49513626  3205602011
-2.49513626 0.96036023 -9.77203560  1064688172
-9.75903130 -0.88432926 -2.49513626  3213187442
-2.49513626 0.96036029 -9.72538948  1064688171
-9.62772560 -1.82417953 -2.49513626  3221787895
-2.49513626 0.96036023 -9.48991489  1064688171
-9.44925213 -2.59468079 -2.49513626  3224358237
-2.49513626 0.96036029 -9.26208019  1064688172
-8.97391415 -3.93568134 -2.49513626  1089429067
-2.49513626 0.96158755 -6.04465008  1064708762
-6.16156006 7.19034290 -2.49513626  1088177685
-2.49513626 0.96158755 -6.72136354  1064708762
-6.82818460 6.56061316 -2.49513626  1087267434
-2.49513626 0.96158755 -7.03644800  1064708762
-7.23738766 6.10622549 -2.49513626  1086300769
-2.49513626 0.96158755 -7.43077230  1064708762
-7.52457428 5.74861193 -2.49513626  1085541184
-2.49513626 0.96158755 -7.79410267  1064708762
-7.87991476 5.25097942 -2.49513626  1084485671
-2.49513626 0.96158755 -8.20239639  1064708762
-8.27772045 4.59838104 -2.49513626  1083103767
-2.49513626 0.96158755 -8.49067783  1064708762
-8.68370533 3.77611065 -2.49513626  1080601245
-2.49513626 0.96158755 -8.80110168  1064708762
-8.95995235 3.06349778 -2.49513626  1076982347
-2.49513626 0.96158755 -9.24830341  1064708762
-9.27993107 1.88379371 -2.49513626  1071508023
-2.49513626 0.96158755 -9.36026192  1064708762
-9.40162563 1.12925184 -2.49513626  1064972482
-2.49513626 0.96158755 -9.44527721  1064708762
-9.45490837 0.52009636 -2.49513626  1046196645
-2.49513626 0.96158755 -9.46899986  1064708762
-9.46876240 -0.09123858 -2.49513626  3205280834
-2.49513626 0.96158755 -9.44313431  1064708762
-9.35574532 -1.46146417 -2.49513626  3217973464
-2.49513626 0.96158755 -9.27400398  1064708762
-9.24190617 -2.06226277 -2.49513626  3222111366
-2.49513626 0.96158755 -9.13120747  1064708762
-9.08953381 -2.65445423 -2.49513626  3224584581
-2.49513626 0.96158755 -8.95033741  1064708762
-8.84585476 -3.37884784 -2.49513626  3228788699
-2.49513626 0.96158755 -5.25934267  1064728075
-5.49873161 7.32538986 -2.49513626  1088527882
-2.49513626 0.96273869 -6.07159233  1064728075
-6.18153429 6.75914192 -2.49513626  1087705619
-2.49513626 0.96273869 -6.60489845  1064728075
-6.80635357 6.12951422 -2.49513626  1086364189
-2.49513626 0.96273869 -7.00072050  1064728075
-7.45425892 5.32272625 -2.49513626  1084650530
-2.49513626 0.96273869 -7.62223434  1064728075
-7.70324993 4.95553589 -2.49513626  1083872134
-2.49513626 0.96273869 -7.85923910  1064728075
-8.00703430 4.44801283 -2.49513626  1082522930
-2.49513626 0.96273869 -8.66695499  1064728075
-8.80027103 2.54017949 -2.49513626  1075410126
-2.49513626 0.96273869 -8.87770748  1064728075
-8.94587803 1.96688843 -2.49513626  1069810954
-2.49513626 0.96273863 -9.07536221  1064728075
-9.15720081 0.20752944 -2.49513626  3182739214
-2.49513626 0.96273869 -9.15651226  1064728074
-9.15150166 -0.38394061 -2.49513626  3204979296
-2.49513626 0.96273869 -9.12217617  1064728075
-9.07145119 -1.26736212 -2.49513626  3216307003
-2.49513626 0.96273869 -9.02579594  1064728075
-8.93969059 -1.99482584 -2.49513626  3221808086
-2.49513626 0.96273869 -8.87062073  1064728075
-8.79230213 -2.56765223 -2.49513626  3224200425
-2.49513626 0.96273869 -8.55659389  1064728074
-8.44659996 -3.54292989 -2.49513626  3228267068
-2.49513626 0.96273869 -5.09207582  1064746224
-5.20864296 7.17744684 -2.49513626  1088615694
-2.49513626 0.96382046 -5.43767262  1064746224
-5.55007601 6.91681671 -2.49513626  1088057628
-2.49513626 0.96382040 -5.77052069  1064746223
-6.08982229 6.44669437 -2.49513626  1087053552
-2.49513626 0.96382046 -6.58988333  1064746224
-6.68484831 5.82739115 -2.49513626  1085269581
-2.49513626 0.96382046 -7.13304186  1064746223
-7.45825911 4.79793358 -2.49513626  1083034632
-2.49513626 0.96382046 -7.75237656  1064746224
-7.82090521 4.18080997 -2.49513626  1081279849
-2.49513626 0.96382040 -8.24254513  1064746224
-8.29430389 3.13852477 -2.49513626  1077953724
-2.49513626 0.96382040 -8.39131260  1064746223
-8.43654156 2.73321700 -2.49513626  1076244322
-2.49513626 0.96382046 -8.59536076  1064746224
-8.66137028 1.90433478 -2.49513626  1071764121
-2.49513626 0.96382040 -8.78673553  1064746223
-8.80496120 1.05758691 -2.49513626  1063931922
-2.49513626 0.96382040 -8.83451653  1064746223
-8.84583664 0.62999678 -2.49513626  1056531371
-2.49513626 0.96382040 -8.86156559  1064746224
-8.86597061 0.20092958 -2.49513626  1030524165
-2.49513626 0.96382040 -8.86044884  1064746223
-8.83205509 -0.80033010 -2.49513626  3211877819
-2.49513626 0.96382040 -8.76198387  1064746223
-8.73874187 -1.51000464 -2.49513626  3220649866
-2.49513626 0.96382046 -8.62306499  1064746223
-8.58850193 -2.20983577 -2.49513626  3222686016
-2.49513626 0.96382046 -8.51267147  1064746224
-8.47142124 -2.62311816 -2.49513626  3225546617
-2.49513626 0.96382040 -8.12151432  1064746224
-5.04736376 6.95520496 -2.49513626  1087978575
-2.49513626 0.96483886 -5.48574018  1064763310
-5.59183884 6.52549744 -2.49513626  1086641369
-2.49513626 0.96483886 -6.29215431  1064763310
-6.65681505 5.43485165 -2.49513626  1084912636
-2.49513626 0.96483886 -6.99371433  1064763310
-7.22731781 4.64936781 -2.49513626  1083246257
-2.49513626 0.96483886 -7.44397402  1064763310
-7.70559597 3.80454040 -2.49513626  1080786695
-2.49513626 0.96483886 -7.93508387  1064763310
-7.98732328 3.17071462 -2.49513626  1075349248
-2.49513626 0.96483886 -8.29397392  1064763310
-8.36228466 1.98064923 -2.49513626  1072444678
-2.49513626 0.96483886 -8.42187500  1064763310
-8.44838142 1.57340539 -2.49513626  1069017268
-2.49513626 0.96483886 -8.54775333  1064763310
-8.56096172 0.74881595 -2.49513626  1051374350
-2.49513626 0.96483886 -8.59144115  1064763310
-8.59346485 0.05596361 -2.49513626  3194149584
-2.49513626 0.96483886 -8.58609295  1064763310
-8.55857944 -0.77554870 -2.49513626  3211388021
-2.49513626 0.96483886 -8.52907848  1064763310
-8.51098633 -1.18906045 -2.49513626  3217868258
-2.49513626 0.96483886 -8.41649532  1064763310
-8.38736820 -1.87157941 -2.49513626  3222381049
-2.49513626 0.96483886 -8.24908543  1064763310
-8.20911217 -2.54189563 -2.49513626  3224052879
-2.49513626 0.96483886 -8.02793789  1064763310
-4.78551006 6.82349300 -2.49513626  1087720224
-2.49513626 0.96579927 -5.11030102  1064779423
-5.21593857 6.50039530 -2.49513626  1087013844
-2.49513626 0.96579927 -5.52458096  1064779423
-5.62461948 6.15018797 -2.49513626  1086447575
-2.49513626 0.96579921 -5.82025862  1064779423
-5.91582251 5.87062311 -2.49513626  1085851490
-2.49513626 0.96579927 -6.19314384  1064779423
-6.45594645 5.27085686 -2.49513626  1083898717
-2.49513626 0.96579927 -6.93551970  1064779423
-7.00923681 4.50907469 -2.49513626  1081833083
-2.49513626 0.96579927 -7.41253328  1064779423
-7.47308207 3.68974376 -2.49513626  1079808979
-2.49513626 0.96579927 -7.69564676  1064779423
-7.74630880 3.07503963 -2.49513626  1076662505
-2.49513626 0.96579927 -8.00742912  1064779423
-8.04370689 2.18173218 -2.49513626  1073958153
-2.49513626 0.96579921 -8.10995674  1064779422
-8.16774940 1.65802455 -2.49513626  1068653583
-2.49513626 0.96579927 -8.23845291  1064779423
-8.25773335 1.12739718 -2.49513626  1065251128
-2.49513626 0.96579927 -8.28983021  1064779423
-8.30263805 0.72622079 -2.49513626  1058509255
-2.49513626 0.96579927 -8.32175636  1064779423
-8.32806301 0.32333663 -2.49513626  1044471106
-2.49513626 0.96579927 -8.33395100  1064779423
-8.33157063 -0.21485302 -2.49513626  3199393286
-2.49513626 0.96579927 -8.32028580  1064779423
-8.28710461 -0.88607359 -2.49513626  3213002635
-2.49513626 0.96579921 -8.25417233  1064779423
-8.21263313 -1.41909575 -2.49513626  3217463311
-2.49513626 0.96579921 -8.16253090  1064779423
-8.07143784 -2.07679415 -2.49513626  3222093057
-2.49513626 0.96579927 -8.00017357  1064779423
-7.92056513 -2.59341645 -2.49513626  3224249433
-2.49513626 0.96579927 -7.78569746  1064779423
-7.73666477 -3.09922504 -2.49513626  3226358203
-2.49513626 0.96579921 -7.63256454  1064779423
-5.26349211 6.14232492 -2.49513626  1086073609
-2.49513626 0.96670640 -5.74170446  1064794642
-6.01086426 5.41313505 -2.49513626  1084681040
-2.49513626 0.96670640 -6.26593447  1064794642
-6.42784548 4.91073465 -2.49513626  1083599777
-2.49513626 0.96670640 -6.73139000  1064794642
-6.94069767 4.15442419 -2.49513626  1082218120
-2.49513626 0.96670640 -7.07121706  1064794642
-7.19436407 3.69778609 -2.49513626  1078378813
-2.49513626 0.96670640 -7.51831579  1064794642
-7.56552362 2.86275506 -2.49513626  1076846574
-2.49513626 0.96670640 -7.69526720  1064794642
-7.73451900 2.36848807 -2.49513626  1074762294
-2.49513626 0.96670640 -7.80696106  1064794642
-7.87125826 1.86434746 -2.49513626  1071535703
-2.49513626 0.96670640 -7.92735100  1064794642
-7.95230103 1.48101664 -2.49513626  1068309547
-2.49513626 0.96670640 -8.03131104  1064794642
-8.04583836 0.83486098 -2.49513626  1060401357
-2.49513626 0.96670640 -8.08695984  1064794642
-8.08634853 -0.20852929 -2.49513626  3199048270
-2.49513626 0.96670640 -8.02825642  1064794642
-8.01122952 -1.11924195 -2.49513626  3214921032
