# .PCD v0.7 - Point Cloud Data file format
VERSION 0.7
FIELDS x y z intensity
SIZE 4 4 4 4
TYPE F F F F
COUNT 1 1 1 1
WIDTH 1018
HEIGHT 1
VIEWPOINT 0 0 0 1 0 0 0
POINTS 1018
DATA ascii
70.19753265 -26.48245621 -2.49513626  3251295623
-2.49513626 0.74061602 71.38901520  1061001476
72.41558075 -19.62143707 -2.49513626  3247068114
-2.49513626 0.74061596 73.52380371  1061001467
73.75373077 -13.76278019 -2.49513626  3240312331
-2.49513626 0.74061596 74.73425293  1061001473
74.83071899 -5.42066145 -2.49513626  3230077133
-2.49513626 0.74061602 75.00472260  1061001475
75.02446747 0.58592832 -2.49513626  1077892768
-2.49513626 0.74061602 74.83287811  1061001475
74.62171936 7.78538275 -2.49513626  1092043168
-2.62667990 0.72898412 78.87417603  1060775665
78.48780060 13.31564808 -2.64753628  1097409853
-2.64753628 0.72715670 77.47371674  1060775665
72.64468384 19.65194702 -2.50275636  1101431279
-2.50275636 0.73993719 71.97766113  1060990086
75.35765076 25.66837502 -2.64753628  1104607998
-2.64753628 0.72715670 74.49647522  1060775665
73.06153870 31.61727715 -2.64753628  1107495007
-2.64545679 0.72733867 67.40560150  1060998090
65.08784485 37.31739044 -2.49513626  1108962324
-2.49513626 0.74061602 63.85864258  1061001475
46.61486053 -37.79077148 -2.49513626  3256100880
-2.49513626 0.78643596 47.80186462  1061770211
48.37700653 -35.50703430 -2.49513626  3254867840
-2.49513626 0.78643632 52.04745102  1061770211
52.51937866 -29.03102303 -2.49513626  3252780130
-2.49513626 0.78643632 53.85377502  1061770211
54.27104950 -25.60735321 -2.49513626  3250970666
-2.49513626 0.78643626 55.06372070  1061770212
55.43889618 -22.96982574 -2.49513626  3249578209
-2.49513626 0.78643626 56.47864532  1061770212
57.09943771 -18.45908356 -2.49513626  3246070319
-2.49513626 0.78643626 58.39365768  1061770211
58.60775757 -12.89245605 -2.49513626  3242146342
-2.49513626 0.78643626 58.99077606  1061770211
59.15957260 -10.06120682 -2.49513626  3239168669
-2.49513626 0.78643632 59.45159149  1061770212
59.68255234 -6.25118351 -2.49513626  3230317806
-2.49513626 0.78643632 59.99141312  1061770211
60.00701141 -0.49293983 -2.49513626  1055912638
-2.49513626 0.78643632 59.96138000  1061770211
59.85396194 4.31134367 -2.49513626  1084793520
-2.49513626 0.78643632 59.68508148  1061770211
59.57762909 7.18259430 -2.49513626  1090661981
-2.49513626 0.78643632 62.93989563  1061578016
62.59857941 11.65487289 -2.64753628  1096448460
-2.64753628 0.77498055 61.19063187  1061578016
60.90060043 18.58857918 -2.64753628  1100694294
-2.50275636 0.78585953 56.32650757  1061760534
55.97920227 22.12333488 -2.50275636  1104266781
-2.64753628 0.77498055 57.59687042  1061578016
55.73965836 30.78163719 -2.64753628  1107440934
-2.64753628 0.77498055 39.33532715  1062308891
40.77272797 -28.93204689 -2.49513626  3252126658
-2.49513626 0.81854409 42.54218292  1062308891
43.36181641 -24.88435555 -2.49513626  3250683298
-2.49513626 0.81854409 45.21434784  1062308890
45.87471008 -19.87440872 -2.49513626  3248035793
-2.49513626 0.81854409 46.77680969  1062308892
47.31822205 -16.13892174 -2.49513626  3244938414
-2.49513626 0.81854403 48.25479507  1062308891
48.45810318 -12.30002499 -2.49513626  3240054970
-2.49513626 0.81854409 49.14644241  1062308891
49.28707886 -8.38220310 -2.49513626  3237145728
-2.49513626 0.81854409 49.86412811  1062308891
49.91560364 -2.81258321 -2.49513626  3221277466
-2.49513626 0.81854409 49.98059464  1062308890
49.95507050 1.99217451 -2.49513626  1077065355
-2.49513626 0.81854403 49.72490311  1062308890
49.27189255 9.17365170 -2.50131655  1093186972
-2.64753628 0.80859447 51.81427765  1062141964
51.42315292 13.03049183 -2.64753628  1097514657
-2.64753628 0.80859447 50.21528625  1062141964
46.02290344 19.91634560 -2.50275636  1101728747
-2.50275636 0.81804365 45.59228897  1062141964
33.70593262 -26.44173813 -2.49513626  3251580834
-2.49513626 0.84227395 35.33037567  1062707012
35.71406174 -23.65926552 -2.49513626  3250105333
-2.49513626 0.84227395 36.45384216  1062707012
37.15618134 -21.32307625 -2.49513626  3248868537
-2.49513626 0.84227395 37.82034683  1062707012
38.13789749 -19.51301765 -2.49513626  3247911429
-2.49513626 0.84227389 39.03154755  1062707013
39.30947495 -17.02998161 -2.49513626  3246599922
-2.49513626 0.84227395 40.08242416  1062707013
40.96866989 -12.52291203 -2.49513626  3241361965
-2.49513626 0.84227395 41.52311325  1062707012
41.68667984 -9.87299824 -2.49513626  3238560695
-2.49513626 0.84227395 42.11296844  1062707012
42.23346710 -7.18258905 -2.49513626  3232014923
-2.49513626 0.84227401 42.67285919  1062707012
42.72790909 -3.09518528 -2.49513626  3199479507
-2.49513626 0.84227395 42.82771301  1062707012
42.80585480 1.70706856 -2.49513626  1078262544
-2.49513626 0.84227401 42.53190994  1062707012
42.44428635 5.80844021 -2.49513626  1087347739
-2.49513626 0.84227395 42.23637009  1062707012
42.11613083 7.84135914 -2.49513626  1091059272
-2.49513626 0.84227395 44.06382751  1062559634
43.87925339 11.87028408 -2.64753628  1096045220
-2.64753628 0.83348966 43.02882385  1062559634
42.53709412 16.02773666 -2.64753628  1099278459
-2.64753628 0.83348960 41.71775818  1062559634
41.42311859 18.71944427 -2.64753628  1100509131
-2.60297656 0.83604848 37.27830887  1062699607
36.93103790 21.96770477 -2.50275636  1103029345
-2.64753628 0.83348954 29.10806656  1063013115
30.20841408 -22.17192268 -2.49513626  3249113700
-2.49513626 0.86051911 31.56654930  1063013115
31.88604164 -19.68305779 -2.49513626  3248053694
-2.49513626 0.86051738 33.08132935  1063013115
33.35910416 -17.06788254 -2.49513626  3246381007
-2.49513626 0.86051911 34.14075089  1063013115
34.38385010 -14.89607716 -2.49513626  3244654031
-2.49513626 0.86051911 34.84350586  1063013115
35.26737976 -12.66310787 -2.49513626  3242298050
-2.49513626 0.86051911 35.65502930  1063013115
35.83465195 -10.95665741 -2.49513626  3240496339
-2.49513626 0.86051911 36.32012939  1063013114
36.46318436 -8.63590050 -2.49513626  3234401029
-2.49513626 0.86051911 37.03738022  1063013115
37.12380219 -5.09565067 -2.49513626  3230662948
-2.49513626 0.86051911 37.37396622  1063013114
37.46088409 -0.90818334 -2.49513626  1069490197
-2.49513626 0.86051911 37.41338730  1063013115
37.37504959 2.69215441 -2.49513626  1081662281
-2.49513626 0.86051911 37.20250320  1063013115
37.12585831 5.08061075 -2.49513626  1085642836
-2.49513626 0.86051917 36.60013199  1063013115
38.69401550 9.14772034 -2.64753628  1092371414
-2.64753628 0.85265976 38.20972443  1062881257
38.02861786 11.60740471 -2.64753628  1097454082
-2.64753628 0.85265982 36.23265076  1062881257
35.40396500 18.09603691 -2.64753628  1100302790
-2.64753628 0.85265976 26.19636345  1063255722
26.52229500 -20.12821770 -2.49513626  3248331506
-2.49513626 0.87497967 27.15363503  1063255722
27.45889664 -18.83046532 -2.49513626  3246932872
-2.49513626 0.87497962 28.87791443  1063255722
29.39411354 -15.63851929 -2.49513626  3245516272
-2.49513626 0.87497962 29.88012314  1063255723
30.11165619 -14.20793438 -2.49513626  3244004338
-2.49513626 0.87497967 30.55145454  1063255722
30.75961876 -12.74453545 -2.49513626  3241937327
-2.49513626 0.87497962 31.84099770  1063255722
31.99285889 -9.22139454 -2.49513626  3236226876
-2.49513626 0.87497962 32.62826920  1063255722
32.82400131 -5.58234262 -2.49513626  3231827975
-2.49513626 0.87497962 32.98601532  1063255722
33.05433273 -3.99855804 -2.49513626  3225156970
-2.49513626 0.87497962 33.24257660  1063255722
33.29418564 -0.27350190 -2.49513626  1061888448
-2.49513626 0.87497962 33.24332809  1063255722
33.20926285 2.39209509 -2.49513626  1082068245
-2.49513626 0.87497962 32.82625198  1063255722
32.73279953 6.09433413 -2.49513626  1091804202
-2.64753628 0.86787111 33.95090485  1063136462
33.44214630 11.39107990 -2.64753628  1094635202
-2.64753628 0.86787117 33.05997849  1063136461
32.85613251 12.98494816 -2.64753628  1097924930
-2.64753628 0.86787111 31.71146965  1063136462
31.45787048 16.07907295 -2.64753628  1099212299
-2.64753628 0.86787117 30.92649269  1063136462
30.64886093 17.57218361 -2.64753628  1100242091
-2.64753628 0.86787117 23.26711082  1063452702
23.56637192 -18.48742485 -2.49513626  3247496199
-2.49513626 0.88672054 24.14665794  1063452702
24.42753410 -17.33361626 -2.49513626  3246884114
-2.49513626 0.88672054 25.23226547  1063452702
25.48764610 -15.73336601 -2.49513626  3245681349
-2.49513626 0.88672054 26.21425629  1063452702
26.44307709 -14.06848621 -2.49513626  3243919764
-2.49513626 0.88672054 27.08858109  1063452702
27.28991127 -12.34582901 -2.49513626  3242099434
-2.49513626 0.88672054 28.91015053  1063452702
29.03195953 -7.36912346 -2.49513626  3234720805
-2.49513626 0.88672054 29.52861214  1063452702
29.60529137 -4.54810047 -2.49513626  3227924283
-2.49513626 0.88672054 29.78964806  1063452702
29.83581924 -2.64244652 -2.49513626  3218583561
-2.49513626 0.88672054 29.95169449  1063452702
29.94409561 0.71382308 -2.49513626  1070998361
-2.49513626 0.88672054 29.87520218  1063452702
29.83687973 2.63036513 -2.49513626  1078389625
-2.49513626 0.88672054 29.73727989  1063452702
29.60712624 4.53611326 -2.49513626  1084248442
-2.49513626 0.88672054 29.44657326  1063452702
29.25577736 6.42323160 -2.49513626  1089171365
-2.49513626 0.88672054 30.39761734  1063343859
30.24505043 9.76409149 -2.64753628  1094379183
-2.64753628 0.88023299 28.52779007  1063343859
28.06423569 14.91640949 -2.64753628  1098706341
-2.64753628 0.88023299 27.31500435  1063343859
27.05114746 16.68339348 -2.64753628  3246988760
-2.49513626 0.89644140 21.68001747  1063615791
23.15935516 -14.29613113 -2.49513626  3244213625
-2.49513626 0.89644140 23.81959152  1063615791
24.22926521 -12.39668655 -2.49513626  3242204178
-2.49513626 0.89644140 24.61405182  1063615791
25.30741692 -10.01348782 -2.49513626  3239687421
-2.49513626 0.89644140 25.89683533  1063615791
26.26922226 -7.11779356 -2.49513626  3235267911
-2.49513626 0.89644140 26.48381042  1063615791
26.58091545 -5.84723520 -2.49513626  3231695499
-2.49513626 0.89644140 26.90086174  1063615791
26.96363258 -3.70105553 -2.49513626  3224728373
-2.49513626 0.89644140 27.20845604  1063615791
27.21562004 0.21255250 -2.49513626  1059457939
-2.49513626 0.89644140 27.17396164  1063615791
27.11130142 2.39007354 -2.49513626  1082385723
-2.49513626 0.89644140 26.83303642  1063615791
26.67338753 5.40974712 -2.49513626  1086873491
-2.49513626 0.89644140 26.27209663  1063615791
26.15484810 7.52722692 -2.49513626  1090898034
-2.49513626 0.89644140 27.18377113  1063515701
27.02408600 10.18252277 -2.64753628  1093710091
-2.64753628 0.89047557 26.50355721  1063515701
25.92178726 12.72972584 -2.64753628  1095912339
-2.64753628 0.89047557 25.50057602  1063515701
25.05317497 14.36396313 -2.64753628  1097611152
-2.64753628 0.89047557 24.58004379  1063515701
19.36957169 -15.70292854 -2.49513626  3245752230
-2.49513626 0.90462142 19.86279106  1063753029
20.33560562 -14.43001461 -2.49513626  3243702892
-2.49513626 0.90462142 21.21813393  1063753029
21.82302856 -12.06306934 -2.49513626  3241523381
-2.49513626 0.90462142 22.37750244  1063753029
22.71849823 -10.27774715 -2.49513626  3240007977
-2.49513626 0.90462142 23.33016777  1063753029
23.60021400 -8.04937077 -2.49513626  3237311006
-2.49513626 0.90462142 23.84601212  1063753029
23.95974731 -6.90598726 -2.49513626  3234901381
-2.49513626 0.90462142 24.16873550  1063753029
24.35289764 -5.35711765 -2.49513626  3231640368
-2.49513626 0.90462142 24.51204872  1063753029
24.58219147 -4.18066788 -2.49513626  3228717488
-2.49513626 0.90462142 24.70352936  1063753029
24.75466347 -2.99455357 -2.49513626  3223731626
-2.49513626 0.90462142 24.83793831  1063753029
24.89567375 -1.40279067 -2.49513626  3212867846
-2.49513626 0.90462142 24.92783546  1063753029
24.91535759 0.99360663 -2.49513626  1068647527
-2.49513626 0.90462142 24.87072182  1063753029
24.83882713 2.18974853 -2.49513626  1076205879
-2.49513626 0.90462142 24.51389885  1063753029
24.43761826 4.95631742 -2.49513626  1084955840
-2.49513626 0.90462142 24.17121124  1063753029
24.06996727 6.51144314 -2.49513626  1088204399
-2.49513626 0.90462142 23.60346222  1063753029
24.75892258 9.32902241 -2.64753628  1092327360
-2.64753628 0.89909983 24.28202057  1063660392
24.11052895 10.89574528 -2.64753628  1093959063
-2.64753628 0.89909995 23.74901772  1063660392
23.36311150 12.41771984 -2.64753628  1096313556
-2.64753628 0.89909983 22.51973534  1063660392
18.09906387 -14.19841194 -2.49513626  3243886437
-2.49513626 0.91159946 19.57460594  1063870101
20.13265038 -11.12868023 -2.49513626  3240600901
-2.49513626 0.91159946 20.64417267  1063870101
20.80413437 -9.81625938 -2.49513626  3239556305
-2.49513626 0.91159946 21.10799599  1063870101
21.65038681 -7.77378941 -2.49513626  3233842062
-2.49513626 0.91159946 22.38448143  1063870101
22.73697662 -3.49295902 -2.49513626  3224424060
-2.49513626 0.91159946 22.87856674  1063870101
22.94360352 -1.66198516 -2.49513626  3205121554
-1.04139411 0.96210712 9.26034546  1064739601
9.25902939 0.07231189 -1.00432646  1046693600
-1.01017451 0.96322197 9.57409763  1064718258
22.87953377 2.38705611 -2.49513626  1078435073
-2.49513626 0.91159946 22.73839378  1063870101
22.67965317 3.84765792 -2.49513626  1083330857
-2.49513626 0.91159946 22.38662338  1063870101
22.20554161 6.00707579 -2.49513626  1087825296
-2.49513626 0.91159946 21.89122200  1063870101
21.77517319 7.41707087 -2.49513626  1090026275
-2.49513626 0.91159946 21.39359665  1063870101
22.07904243 10.40688896 -2.64753628  1093412414
-2.64753628 0.90646064 21.55343628  1063783886
20.77539062 12.81291199 -2.64753628  3243710548
-2.49513626 0.91762149 17.40952682  1063971134
17.79643440 -11.78949165 -2.49513626  3241675658
-2.49513626 0.91762149 18.16506577  1063971134
18.68292618 -10.32732010 -2.49513626  3240127757
-2.49513626 0.91762149 19.00424957  1063971134
19.30605888 -9.10940552 -2.49513626  3238840380
-2.49513626 0.91762149 19.97320175  1063971134
20.20438766 -6.89115047 -2.49513626  3234996466
-2.49513626 0.91762149 20.41482162  1063971134
20.69110870 -5.25198174 -2.49513626  3230843609
-2.49513626 0.91762149 20.98502159  1063971134
21.04507828 -3.57911420 -2.49513626  3223589683
-2.49513626 0.91762149 21.26401901  1063971134
9.00397587 -0.36272320 -1.05326760  3193858940
-1.04751050 0.96455145 8.93667221  1064760122
9.00267315 0.35902044 -1.05309808  1057073610
-1.05993664 0.96413851 21.26477432  1063971134
21.23200607 2.21516418 -2.49513626  1076070051
-2.49513626 0.91762149 21.15012741  1063971134
21.10103226 3.23289490 -2.49513626  1081741980
-2.49513626 0.91762149 20.92130280  1063971133
20.69322777 5.24361515 -2.49513626  1085432432
-2.49513626 0.91762149 20.51458168  1063971134
20.20717049 6.88298035 -2.49513626  1088853656
-2.49513626 0.91762149 19.85306931  1063971134
19.72480392 8.16316891 -2.49513626  1091020450
-2.49513626 0.91762149 20.48916245  1063890506
20.16918373 10.30908012 -2.64753628  1093277783
-2.64753628 0.91281569 19.27938271  1063890506
15.46660137 -12.53878593 -2.49513626  3242500394
-2.49513626 0.92287099 15.86043644  1064059206
16.05126762 -11.78107071 -2.49513626  3241421774
-2.49513626 0.92287099 16.59885406  1064059206
16.77295303 -10.72944069 -2.49513626  3240580727
-2.49513626 0.92287099 17.10808754  1064059206
17.86843491 -8.78384399 -2.49513626  3238219508
-2.49513626 0.92287099 18.26989174  1064059206
18.51413155 -7.32555962 -2.49513626  3235964170
-2.49513626 0.92287099 18.94533539  1064059206
19.04104042 -5.82028198 -2.49513626  3232790071
-2.49513626 0.92287099 19.37474251  1064059206
19.67985153 -3.02330875 -2.49513626  3224193271
-2.49513626 0.92287099 19.76662254  1064059206
19.80239868 -2.07411361 -2.49513626  3204355572
-1.10761940 0.96499640 8.77537251  1064769615
8.71296120 0.06804715 -1.09190857  1051928308
-1.10041559 0.96522003 19.83379745  1064059206
19.76758575 2.38315487 -2.49513626  1080639097
-2.49513626 0.92287099 19.21986580  1064059206
19.13408470 5.50668764 -2.49513626  1085931698
-2.49513626 0.92287099 18.84736633  1064059206
18.63197517 7.02042389 -2.49513626  1089088933
-2.49513626 0.92287099 18.39745522  1064059206
18.14403725 8.19943810 -2.49513626  1091031911
-2.49513626 0.92287099 18.65544319  1063983485
18.32813835 10.50823593 -2.64753628  1093455653
-2.64753628 0.91835767 14.48950577  1064136657
14.67586613 -11.51297188 -2.49513626  3240932873
-2.49513626 0.92748743 16.46734428  1064136655
16.73960686 -8.22893047 -2.49513626  3237349043
-2.49513626 0.92748743 17.34451103  1064136656
17.45226669 -6.58397675 -2.49513626  3233853205
-2.49513626 0.92748743 17.83815002  1064136655
18.00370598 -4.87820721 -2.49513626  3230240729
-2.49513626 0.92748737 18.21730614  1064136657
18.38883209 -3.12736940 -2.49513626  3223475847
-2.49513626 0.92748737 18.51787186  1064136657
18.55140877 -1.94308484 -2.49513626  3218252340
-2.49513626 0.92748731 8.75228310  1064769473
8.54305267 -0.20711356 -1.14311326  3180293594
-1.14045525 0.96617860 8.52495861  1064785819
8.54261112 0.20364282 -1.14304423  1051653093
-1.14708698 0.96598530 8.60762405  1064779549
18.58081055 1.63805246 -2.49513626  1073201373
-2.49513626 0.92748743 18.51879311  1064136656
18.48062706 2.52905059 -2.49513626  1077201488
-2.49513626 0.92748743 18.33774185  1064136657
18.28066063 3.70759726 -2.49513626  1084560635
-2.49513626 0.92748737 17.84033585  1064136657
17.75079155 5.73053598 -2.49513626  1086354576
-2.49513626 0.92748743 17.45490837  1064136657
17.23520660 7.13283873 -2.49513626  1089277720
-2.49513626 0.92748743 16.99779510  1064136657
16.87251282 7.95280933 -2.49513626  1091032201
-2.49513626 0.92748737 17.32581902  1064065275
17.01031494 10.11825275 -2.64753628  3241197904
-2.49513626 0.93157834 13.80199146  1064205291
14.30634403 -10.15168476 -2.49513626  3240017152
-2.49513626 0.93157834 14.62428665  1064205291
14.77764416 -9.45247936 -2.49513626  3238769647
-2.49513626 0.93157834 15.35276318  1064205291
15.48677731 -8.23941422 -2.49513626  3237982137
-2.49513626 0.93157834 16.20621490  1064205291
16.41305161 -6.19192982 -2.49513626  3232541837
-2.49513626 0.93157834 16.85596848  1064205291
17.00299454 -4.31583500 -2.49513626  3229703906
-2.49513626 0.93157834 17.19074059  1064205291
17.24451828 -3.21788168 -2.49513626  3225172938
-2.49513626 0.93157834 17.37922859  1064205291
17.41522217 -2.10670638 -2.49513626  3219777446
-2.49513626 0.93157834 8.40922260  1064792330
8.38517094 -0.20328613 -1.19302654  1032180833
-1.19015038 0.96675855 8.38473415  1064794226
8.50115967 0.61234617 -1.21230698  1074159814
-2.49513626 0.93157834 17.33984947  1064205291
17.29505348 2.93414903 -2.49513626  1079978036
-2.49513626 0.93157834 17.13407326  1064205291
17.07159996 4.03592634 -2.49513626  1083916415
-2.49513626 0.93157834 16.60531616  1064205291
16.51255608 5.92145920 -2.49513626  1086713310
-2.49513626 0.93157834 16.20893097  1064205291
15.86785603 7.47926426 -2.49513626  1089958187
-2.49513626 0.93157834 15.49011040  1064205291
15.35619354 8.48029613 -2.49513626  1091838356
-2.64753628 0.92755431 15.84290028  1064137779
12.85921955 -10.42497540 -2.49513626  3240328003
-2.49513626 0.93522841 13.18666267  1064266528
13.34532547 -9.79500389 -2.49513626  3239659341
-2.49513626 0.93522835 13.80059528  1064266528
13.94531727 -8.92008591 -2.49513626  3238731955
-2.49513626 0.93522835 14.35785484  1064266528
15.08253288 -6.82326746 -2.49513626  3234514025
-2.49513626 0.93522835 15.39299297  1064266528
15.48861027 -5.84317684 -2.49513626  3232432398
-2.49513626 0.93522835 15.75150490  1064266528
15.83107471 -4.83909178 -2.49513626  3230840495
-2.49513626 0.93522835 16.04532623  1064266528
16.22249985 -3.29700732 -2.49513626  3225573456
-2.49513626 0.93522835 16.40036964  1064266528
16.43433762 -1.98804939 -2.49513626  3218914050
-2.49513626 0.93522835 16.48960114  1064266528
8.35995007 -0.60557657 -1.26336145  3203385356
-1.25473583 0.96688604 8.25189018  1064802271
8.23781776 -0.06767109 -1.24169326  1055786755
-1.25457084 0.96689034 16.49019051  1064266528
16.46477699 1.71779203 -2.49513626  1073585757
-2.49513626 0.93522841 16.40127945  1064266529
16.16902351 3.54997897 -2.49513626  1081327681
-2.49513626 0.93522841 16.04696846  1064266529
15.97975445 4.32286835 -2.49513626  1084935458
-2.49513626 0.93522835 15.58251190  1064266528
15.49096966 5.83691216 -2.49513626  1086501696
-2.49513626 0.93522835 15.29598713  1064266528
15.19258785 6.57457256 -2.49513626  1088038456
-2.49513626 0.93522835 14.74027157  1064266528
14.36118889 8.23383141 -2.49513626  1091004420
-2.49513626 0.93522835 14.95057583  1064202483
12.32848930 -9.67149162 -2.49513626  3238906521
-2.49513626 0.93850493 13.06299686  1064321500
13.33358097 -8.23073769 -2.49513626  3238019495
-2.49513626 0.93850493 13.59047413  1064321500
14.06213474 -6.91272831 -2.49513626  3235248107
-2.49513626 0.93850493 14.27641678  1064321500
14.37807369 -6.22899628 -2.49513626  3233315730
-2.49513626 0.93850493 14.74753475  1064321500
14.83048916 -5.05826283 -2.49513626  3230831387
-2.49513626 0.93850493 15.18775272  1064321500
15.24757671 -3.61121869 -2.49513626  3226956736
-2.49513626 0.93850493 15.35546112  1064321500
15.48768425 -2.37928891 -2.49513626  3218140900
-2.49513626 0.93850493 8.63722229  1064774209
8.11605072 -0.06667098 -1.29241502  1044806249
-1.29509079 0.96759433 8.23216438  1064801626
8.57962894 0.75636560 -1.37148833  1075306385
-2.49513626 0.93850493 15.44863415  1064321500
15.40465450 2.86810684 -2.49513626  1082322999
-2.49513626 0.93850493 14.91158390  1064321500
14.74967384 5.28928566 -2.49513626  1085819719
-2.49513626 0.93850493 14.27902699  1064321500
14.17380238 6.68077850 -2.49513626  1088697702
-2.49513626 0.93850493 13.71676826  1064321500
13.46699715 8.01057816 -2.49513626  3239434928
-2.49513626 0.94146234 11.98954582  1064371117
12.12901974 -8.60667133 -2.49513626  3237608632
-2.49513626 0.94146234 12.89921761  1064371117
13.01617908 -7.19492865 -2.49513626  3235431892
-2.49513626 0.94146234 13.34689331  1064371117
13.82919788 -5.47185421 -2.49513626  3230819566
-2.49513626 0.94146234 14.41524792  1064371117
14.66186237 -2.49352741 -2.49513626  3221319575
-2.49513626 0.94146234 14.76475143  1064371116
14.79147339 -1.54926729 -2.49513626  3205896487
-1.36150849 0.96762079 8.03014851  1064814754
7.95274401 0.18958132 -1.33460891  1050863855
-1.33964074 0.96813244 8.29807854  1064795838
14.76547050 1.78010356 -2.49513626  1073810907
-2.49513626 0.94146234 14.70084953  1064371117
14.52639008 3.18932819 -2.49513626  1081642645
-2.49513626 0.94146234 14.29227352  1064371117
14.22452927 4.34172678 -2.49513626  1083798276
-2.49513626 0.94146234 13.83140755  1064371117
13.64915085 5.90665150 -2.49513626  1086586041
-2.49513626 0.94146234 13.34954548  1064371117
13.24278641 6.76878786 -2.49513626  1088380189
-2.49513626 0.94146234 13.01909256  1064371117
12.90221500 7.39734030 -2.49513626  1089686755
-2.49513626 0.94146234 12.65855312  1064371117
10.99217224 -8.91136360 -2.49513626  3238200855
-2.49513626 0.94414485 11.67013168  1064416122
11.79687023 -7.81499434 -2.49513626  3237216185
-2.49513626 0.94414485 12.15878296  1064416122
12.27320671 -7.04331398 -2.49513626  3235582058
-2.49513626 0.94414485 12.98448086  1064416122
13.15806484 -5.20630550 -2.49513626  3231700324
-2.49513626 0.94414485 13.39304733  1064416122
13.53254318 -4.13649750 -2.49513626  3229274873
-2.49513626 0.94414485 13.65814018  1064416122
13.91051388 -2.59574556 -2.49513626  3222787918
-2.49513626 0.94414485 13.98654556  1064416122
14.01917934 -1.92428660 -2.49513626  3218703861
-2.49513626 0.94414490 14.07364273  1064416122
7.76946449 0.18521222 -1.37035584  1050610039
-1.37449765 0.96883428 7.84573936  1064826194
7.92157316 0.57059789 -1.40040529  1069282306
-2.49513626 0.94414485 14.04889965  1064416122
13.98741436 2.14301467 -2.49513626  1075280598
-2.49513626 0.94414485 13.86827278  1064416122
13.71708870 3.47587681 -2.49513626  1080852125
-2.49513626 0.94414485 13.59866810  1064416122
13.24181652 4.98944330 -2.49513626  1084649080
-2.49513626 0.94414485 12.70169067  1064416122
12.49529648 6.64136934 -2.49513626  1088087897
-2.49513626 0.94414485 12.27607059  1064416122
12.04423332 7.42810154 -2.49513626  3238524624
-2.49513626 0.94658887 10.61680794  1064457126
10.87823009 -7.98424053 -2.49513626  3237230041
-2.49513626 0.94658887 11.24933720  1064457126
11.70357800 -6.71641445 -2.49513626  3234915718
-2.49513626 0.94658887 12.01280880  1064457127
12.10975456 -5.95296717 -2.49513626  3233301209
-2.49513626 0.94658893 12.54735470  1064457126
12.62529373 -4.76296997 -2.49513626  3230788611
-2.49513626 0.94658887 12.77143002  1064457126
12.83958817 -4.15077686 -2.49513626  3226761281
-2.49513626 0.94658887 13.13061047  1064457126
13.17875290 -2.89904451 -2.49513626  3223218893
-2.49513626 0.94658887 13.30284023  1064457126
13.36850071 -1.83497405 -2.49513626  3218042219
-2.49513626 0.94658887 7.97702312  1064815487
7.78868771 -0.56419557 -1.44397306  3191735484
-1.41574967 0.96933502 7.64073515  1064839768
7.65387917 0.18245679 -1.41567457  1054659106
-1.42783892 0.96907723 13.42100430  1064457126
13.33821011 2.04355049 -2.49513626  1075712718
-2.49513626 0.94658887 13.22460079  1064457126
13.17992496 2.89370632 -2.49513626  1081875790
-2.49513626 0.94658887 12.84126663  1064457126
12.70183659 4.55492544 -2.49513626  1083719794
-2.49513626 0.94658887 12.54936123  1064457126
12.29653645 5.55690622 -2.49513626  1085807205
-2.49513626 0.94658887 12.11216450  1064457126
12.01529980 6.14138222 -2.49513626  1087817231
-2.49513626 0.94658887 11.59724712  1064457126
11.48522091 7.08333826 -2.49513626  3238128234
-2.49513626 0.94882482 10.14451122  1064494639
10.39430428 -7.62905693 -2.49513626  3236873427
-2.49513626 0.94882482 10.63341618  1064494639
10.97155380 -6.77267313 -2.49513626  3235058286
-2.49513626 0.94882482 11.18293762  1064494639
11.47841358 -5.87282753 -2.49513626  3233154378
-2.49513626 0.94882482 11.66070175  1064494639
11.74736691 -5.31445408 -2.49513626  3231974505
-2.49513626 0.94882482 11.91162682  1064494639
12.26841164 -3.96612549 -2.49513626  3228645339
-2.49513626 0.94882482 12.38919163  1064494639
12.54648495 -2.97149611 -2.49513626  3223607612
-2.49513626 0.94882482 12.67477608  1064494639
12.74405956 -1.95780027 -2.49513626  3217437502
-2.49513626 0.94882482 8.31441975  1064791406
7.84763765 -0.69503576 -1.52460289  3198012335
-1.48169005 0.96928692 7.62359953  1064840106
7.64977932 0.30506802 -1.48154604  1054616715
-1.48993754 0.96911865 7.74012423  1064831075
12.77450752 1.74817336 -2.49513626  1073344555
-2.49513626 0.94882482 12.71192932  1064494639
12.59360600 2.76497865 -2.49513626  1079475274
-2.49513626 0.94882482 12.33191013  1064494639
12.20496082 4.15725660 -2.49513626  1082869242
-2.49513626 0.94882482 12.06548882  1064494639
11.99109459 4.73895311 -2.49513626  1085270466
-2.49513626 0.94882482 11.57334805  1064494639
11.48078918 5.86817741 -2.49513626  1086813474
-2.49513626 0.94882482 11.18553543  1064494639
11.08133507 6.59151459 -2.49513626  1087935835
-2.49513626 0.94882482 9.58780098  1064529084
9.83194160 -7.46162510 -2.49513626  3236541241
-2.49513626 0.95087790 10.06598377  1064529084
10.17914104 -6.98054314 -2.49513626  3235173194
-2.49513626 0.95087790 10.50282574  1064529084
10.70517921 -6.14345694 -2.49513626  3233747844
-2.49513626 0.95087790 10.98803234  1064529084
11.07670498 -5.44513702 -2.49513626  3232271067
-2.49513626 0.95087790 11.40273666  1064529084
11.47697639 -4.54114103 -2.49513626  3230362044
-2.49513626 0.95087790 11.61659241  1064529084
11.68193722 -3.98438096 -2.49513626  3227969966
-2.49513626 0.95087790 11.85990715  1064529084
11.91315746 -3.22793746 -2.49513626  3224767763
-2.49513626 0.95087790 12.05451298  1064529084
12.09545422 -2.45823836 -2.49513626  3218528014
-2.49513626 0.95087790 8.22053719  1064796745
7.81134129 -0.69182122 -1.58527815  3202164524
-1.55211997 0.96915293 7.63232422  1064838302
7.60847378 -0.06250136 -1.53813839  1030971982
-1.53809798 0.96942735 7.71337748  1064832008
12.25399590 1.47732401 -2.49513626  1074828980
-2.49513626 0.95087790 12.09644794  1064529084
12.01162243 2.83968735 -2.49513626  1079670940
-2.49513626 0.95087790 11.55002689  1064529084
11.47880936 4.53649473 -2.49513626  1083640054
-2.49513626 0.95087790 11.32755470  1064529084
11.24755192 5.08285952 -2.49513626  1085522529
-2.49513626 0.95087790 10.70766449  1064529084
10.60791874 6.30991220 -2.49513626  1087329438
-2.49513626 0.95087790 9.19371510  1064560820
9.54125500 -7.00294733 -2.49513626  3235589214
-2.49513626 0.95276952 9.76074982  1064560820
9.86675167 -6.53636360 -2.49513626  3234263142
-2.49513626 0.95276952 10.16945362  1064560820
10.26516533 -5.89094210 -2.49513626  3233233136
-2.49513626 0.95276952 10.44865990  1064560820
10.62142181 -5.22132635 -2.49513626  3231456013
-2.49513626 0.95276952 10.86005688  1064560820
10.93405151 -4.53027010 -2.49513626  3230357492
-2.49513626 0.95276952 11.07360077  1064560820
11.20177746 -3.82061076 -2.49513626  3227347950
-2.49513626 0.95276952 11.47162342  1064560820
11.51680756 -2.72762823 -2.49513626  3222723667
-2.49513626 0.95276952 11.72546196  1064560820
11.74974060 -1.42135704 -2.49513626  3205408253
-1.62595761 0.96896350 7.64326382  1064836309
7.59335804 -0.06237718 -1.60088325  1050375440
-1.60638511 0.96933132 7.64221621  1064836391
7.69099474 0.55398923 -1.62561393  1060072109
-1.64497769 0.96860623 8.15978050  1064799879
11.75032234 1.41660166 -2.49513626  1073570854
-2.49513626 0.95276952 11.51790237  1064560821
11.47280121 2.90717888 -2.49513626  1079082461
-2.49513626 0.95276952 11.26302624  1064560820
11.20331669 3.81607533 -2.49513626  1082109908
-2.49513626 0.95276952 11.00699711  1064560820
10.53857231 5.38658333 -2.49513626  1085390999
-2.49513626 0.95276952 10.17190170  1064560820
10.07364464 6.21277046 -2.49513626  3236237080
-2.49513626 0.95451802 8.94307518  1064590155
9.16328430 -6.72552681 -2.49513626  3235020194
-2.49513626 0.95451802 9.76659489  1064590155
9.94790554 -5.49888039 -2.49513626  3230701471
-2.49513626 0.95451802 10.50090599  1064590155
10.56927204 -4.18198729 -2.49513626  3228947899
-2.49513626 0.95451802 10.75802326  1064590155
10.97095776 -2.97264409 -2.49513626  3224566096
-2.49513626 0.95451802 11.06057739  1064590155
11.10112286 -2.44201016 -2.49513626  3222332008
-2.49513626 0.95451802 11.17367744  1064590155
8.13220119 -0.85177124 -1.79491091  3207559557
-1.70556593 0.96868217 7.67005491  1064833084
7.62084436 -0.42941001 -1.67554808  3197939132
-1.66884720 0.96934599 7.57807541  1064840532
7.59574270 0.30291301 -1.66870964  1054490232
-1.67528450 0.96922958 7.66866302  1064833192
8.11595058 0.84674793 -1.79124784  1068377172
-2.49513626 0.95451802 11.20642567  1064590155
11.17452240 2.08052039 -2.49513626  1074829444
-2.49513626 0.95451802 11.06163406  1064590155
10.92318916 3.14363456 -2.49513626  1079999852
-2.49513626 0.95451802 10.75950432  1064590155
10.69939899 3.83684015 -2.49513626  1082146771
-2.49513626 0.95451802 10.57096386  1064590155
10.28165531 4.84622812 -2.49513626  1085598250
-2.49513626 0.95451802 9.67458248  1064590155
8.91540813 -6.32631540 -2.49513626  3234191412
-2.49513626 0.95613879 9.20911312  1064617347
9.30231476 -5.74225998 -2.49513626  3232953734
-2.49513626 0.95613879 9.48153687  1064617347
9.56750870 -5.28860807 -2.49513626  3231993566
-2.49513626 0.95613879 9.73206615  1064617347
9.81059647 -4.82273722 -2.49513626  3231008520
-2.49513626 0.95613879 9.96010113  1064617347
10.03102303 -4.34572840 -2.49513626  3230000869
-2.49513626 0.95613879 10.16512108  1064617347
10.22826385 -3.85867667 -2.49513626  3228331837
-2.49513626 0.95613879 10.40187263  1064617347
10.59589863 -2.68953466 -2.49513626  3222687741
-2.49513626 0.95613885 10.71289730  1064617348
10.74640846 -2.00531363 -2.49513626  3218372809
-2.49513626 0.95613885 10.83035851  1064617347
8.08890343 -0.84723634 -1.85633755  3179182843
-1.72629547 0.96944493 7.56297207  1064840600
7.56977034 0.18045163 -1.72824001  1057816482
-1.74975777 0.96903616 10.85332584  1064617347
10.83096027 1.48220134 -2.49513626  1072303169
-2.49513626 0.95613879 10.74722862  1064617347
10.71377945 2.17291641 -2.49513626  1075185965
-2.49513626 0.95613879 10.29027176  1064617347
10.22981644 3.85453486 -2.49513626  1082168099
-2.49513626 0.95613879 10.10105324  1064617347
10.03277969 4.34167004 -2.49513626  1083516474
-2.49513626 0.95613885 9.73408031  1064617347
9.56965446 5.28473854 -2.49513626  3235129367
-2.49513626 0.95764530 8.28316402  1064642622
8.77665710 -5.81421661 -2.49513626  3232822725
-2.49513626 0.95764530 9.04591560  1064642622
9.29427624 -4.94482422 -2.49513626  3230965625
-2.49513626 0.95764530 9.59192181  1064642622
9.66022110 -4.18508768 -2.49513626  3229676491
-2.49513626 0.95764530 9.90845108  1064642622
10.01736259 -3.23840714 -2.49513626  3225744745
-2.49513626 0.95764530 10.11598682  1064642622
10.16140842 -2.75329161 -2.49513626  3223013402
-2.49513626 0.95764530 10.31689835  1064642622
10.34917259 -1.93118799 -2.49513626  3219255063
-2.49513626 0.95764530 10.43001652  1064642622
8.04945469 -0.84310430 -1.91819108  3207492765
-1.83074951 0.96874475 7.63639021  1064833394
7.55907965 -0.18325859 -1.79206049  3179157904
-1.78987825 0.96943176 7.56616116  1064839023
7.59101963 0.42464682 -1.80191660  1059953654
-1.83023489 0.96875340 8.03341007  1064805308
10.45213032 1.26009285 -2.49513626  1070339108
-2.49513626 0.95764530 10.34995365  1064642622
10.28289127 2.25765324 -2.49513626  1075512365
-2.49513626 0.95764530 10.11716366  1064642622
9.90988731 3.55372143 -2.49513626  1082184590
-2.49513626 0.95764530 9.44982910  1064642622
9.29627514 4.94106102 -2.49513626  1084415041
-2.49513626 0.95764530 9.13317585  1064642622
9.04809666 5.38208055 -2.49513626  3234365143
-2.49513626 0.95904911 8.46259975  1064666174
8.72222424 -5.19302416 -2.49513626  3231821531
-2.49513626 0.95904911 8.96169567  1064666174
9.10987186 -4.47827291 -2.49513626  3230000096
-2.49513626 0.95904911 9.31454659  1064666174
9.65890694 -3.12252712 -2.49513626  3225282858
-2.49513626 0.95904911 9.75400257  1064666174
9.79779911 -2.65476918 -2.49513626  3221316662
-2.49513626 0.95904911 9.97884464  1064666174
10.03338528 -1.54137433 -2.49513626  3216027938
-2.49513626 0.95904911 10.07762527  1064666174
7.70774984 -0.68264639 -1.90197933  3205343401
-1.88259232 0.96894437 7.59397936  1064835739
7.56706476 -0.30483750 -1.86149168  3191581765
-1.85872567 0.96933198 7.55833483  1064838917
7.55842400 0.05903038 -1.85791540  1043892333
-1.85866237 0.96933299 7.56681156  1064837963
7.70585489 0.67933500 -1.90144372  1062570745
-1.97588944 0.96743065 10.07811546  1064666174
10.05735397 1.37633514 -2.49513626  1071207596
-2.49513626 0.95904911 9.94854164  1064666174
9.91493416 2.17686653 -2.49513626  1075148835
-2.49513626 0.95904911 9.84008789  1064666174
9.66016865 3.11861992 -2.49513626  1079725239
-2.49513626 0.95904911 9.49914742  1064666174
9.31617641 4.03156328 -2.49513626  1082508598
-2.49513626 0.95904911 9.18221283  1064666174
9.11168385 4.47458458 -2.49513626  1084033119
-2.49513626 0.95904911 8.80635834  1064666174
8.72432613 5.18949080 -2.49513626  3233384815
-2.49513626 0.96036029 7.99148417  1064688172
8.08132267 -5.54192638 -2.49513626  3231454023
-2.49513626 0.96036023 8.57601166  1064688172
8.65087223 -4.60251474 -2.49513626  3230291355
-2.49513626 0.96036029 8.92791271  1064688172
8.99148464 -3.89537168 -2.49513626  3228568832
-2.49513626 0.96036029 9.11168575  1064688172
9.27440739 -3.16324067 -2.49513626  3225479447
-2.49513626 0.96036029 9.45797634  1064688172
9.49782562 -2.41081405 -2.49513626  3222308925
-2.49513626 0.96036029 9.60270405  1064688171
9.63274288 -1.79750025 -2.49513626  3218230058
-2.49513626 0.96036023 9.70799065  1064688172
9.72809696 -1.17680073 -2.49513626  3207549455
-1.97666466 0.96846569 7.56807184  1064836814
7.56830931 -0.06217143 -1.92719340  1030888326
-1.92720985 0.96924239 7.56746435  1064836863
7.59634495 0.42494479 -1.93729138  1060004112
-1.97507751 0.96849060 7.99238729  1064805865
9.72857189 1.17286277 -2.49513626  1068109705
-2.49513626 0.96036029 9.68599415  1064688172
9.66097069 1.63900805 -2.49513626  1072010412
-2.49513626 0.96036029 9.49880028  1064688172
9.05426407 3.74713349 -2.49513626  1081676330
-2.49513626 0.96036029 8.92954636  1064688171
8.86373997 4.17789793 -2.49513626  1082800241
-2.49513626 0.96036029 8.72531509  1064688172
8.57792950 4.73707104 -2.49513626  1083963157
-2.49513626 0.96036029 8.34038353  1064688171
7.45025921 -5.84460354 -2.49513626  3232717529
-2.49513626 0.96158755 7.80932188  1064708762
8.21289253 -4.71319103 -2.49513626  3230832496
-2.49513626 0.96158755 8.35970116  1064708762
8.42989254 -4.31307936 -2.49513626  3229986215
-2.49513626 0.96158755 8.56376934  1064708762
8.62741756 -3.90300369 -2.49513626  3224446808
-2.49513626 0.96158755 9.09878540  1064708762
9.13964081 -2.47643828 -2.49513626  3222608222
-2.49513626 0.96158755 9.24808407  1064708762
9.27949524 -1.88593256 -2.49513626  3219019265
-2.49513626 0.96158755 9.33516121  1064708762
8.06673717 -0.84491462 -2.13721466  3207614025
-2.05700827 0.96822405 7.66692924  1064828133
7.57548666 -0.30517673 -1.99776137  3191610217
-1.99718499 0.96913373 7.58098364  1064835246
7.58107996 0.05920712 -1.99767601  1050323304
-1.99752069 0.96912867 7.60614872  1064832771
8.05136681 0.84001011 -2.13305116  1066472142
-2.49513626 0.96158755 9.38176537  1064708761
9.35998154 1.43404555 -2.49513626  1070250841
-2.49513626 0.96158755 9.24890709  1064708762
9.14064026 2.47274041 -2.49513626  1076337627
-2.49513626 0.96158755 9.05671597  1064708762
8.96348572 3.05314660 -2.49513626  1080540844
-2.49513626 0.96158755 8.62899494  1064708762
8.56540394 4.03727722 -2.49513626  1082495355
-2.49513626 0.96158755 8.36149979  1064708762
8.28921318 4.57763004 -2.49513626  1083619126
-2.49513626 0.96158755 8.13827419  1064708762
8.05966187 4.97067642 -2.49513626  3233322332
-2.49513626 0.96273869 7.29629517  1064728075
7.55395269 -5.18027067 -2.49513626  3231834050
-2.49513626 0.96273869 7.94432545  1064728075
8.01635838 -4.43118572 -2.49513626  3229974872
-2.49513626 0.96273869 8.46198559  1064728074
8.51707649 -3.36998582 -2.49513626  3225819681
-2.49513626 0.96273869 8.84076786  1064728075
8.91298676 -2.11094284 -2.49513626  3219751273
-2.49513626 0.96273869 9.00412941  1064728075
9.05334377 -1.39081585 -2.49513626  3214896858
-2.49513626 0.96273869 8.09567642  1064796493
7.69038534 -0.55707473 -2.10041213  3191636229
-2.06905842 0.96900177 7.59011269  1064833495
7.59329939 0.18101297 -2.06906390  1050347160
-2.06990886 0.96898925 7.62677526  1064830237
7.68844938 0.55380613 -2.09982228  1060133469
-2.13688254 0.96800208 8.08021545  1064797562
9.05390453 1.38715148 -2.49513626  1069816371
-2.49513626 0.96273869 8.97678757  1064728075
8.94646072 1.96423447 -2.49513626  1074192027
-2.49513626 0.96273869 8.87892818  1064728075
8.80227470 2.53324842 -2.49513626  1077740292
-2.49513626 0.96273869 8.62193775  1064728075
8.51843834 3.36654019 -2.49513626  1080044199
-2.49513626 0.96273869 8.28531075  1064728075
8.15591908 4.16873932 -2.49513626  1082757254
-2.49513626 0.96273869 8.01815033  1064728075
7.87214804 4.68259335 -2.49513626  1083825207
-2.49513626 0.96273869 6.88882923  1064746224
7.14924002 -5.24729300 -2.49513626  3231988197
-2.49513626 0.96382040 7.31370592  1064746224
7.47066402 -4.77859020 -2.49513626  3230994569
-2.49513626 0.96382046 7.61995077  1064746223
7.95860720 -3.91232800 -2.49513626  3228709368
-2.49513626 0.96382046 8.07988548  1064746223
8.13741684 -3.52536297 -2.49513626  3227074516
-2.49513626 0.96382046 8.24619961  1064746224
8.34651661 -2.99690032 -2.49513626  3224844213
-2.49513626 0.96382040 8.43825817  1064746224
8.48089027 -2.59235597 -2.49513626  3222564594
-2.49513626 0.96382046 8.62951756  1064746224
8.66116047 -1.90526986 -2.49513626  3218094521
-2.49513626 0.96382046 8.74270821  1064746224
8.33208656 -0.73794162 -2.35346150  3202133980
-2.15567112 0.96866465 7.61170006  1064830457
7.60354280 -0.18433653 -2.13993335  3179261268
-2.13801694 0.96891725 7.59859180  1064831744
7.60342026 0.18125394 -2.13987827  1054544289
-2.15535045 0.96866924 7.71153355  1064822784
8.80449486 1.06145704 -2.49513626  1073910918
-2.49513626 0.96382046 8.59654236  1064746224
8.43936062 2.72450209 -2.49513626  1077346323
-2.49513626 0.96382046 8.29868793  1064746224
8.24752235 3.25947261 -2.49513626  1079576960
-2.49513626 0.96382046 8.08135986  1064746224
8.02180481 3.78105283 -2.49513626  3232120534
-2.49513626 0.96483886 7.08724594  1064763310
7.16421270 -4.74603033 -2.49513626  3230445131
-2.49513626 0.96483886 7.77193403  1064763310
7.93917656 -3.28941345 -2.49513626  3224472418
-2.49513626 0.96483886 8.17697525  1064763310
8.21828556 -2.51208615 -2.49513626  3222819632
-2.49513626 0.96483886 8.32950592  1064763310
8.42148113 -1.71155274 -2.49513626  3217671979
-2.49513626 0.96483886 8.47200012  1064763310
8.49399853 -1.30488694 -2.49513626  3214251309
-2.49513626 0.96483886 8.47356892  1064769171
8.57118893 -0.62087804 -2.49513626  3199277936
-2.49513626 0.96483886 8.59112263  1064763310
8.59335804 -0.07059190 -2.49513626  1032417977
-2.49513626 0.96483886 8.58682251  1064763310
8.58023453 0.47998416 -2.49513626  1061108493
-2.46974564 0.96519035 8.53186703  1064763310
8.51429081 1.16516852 -2.49513626  1067881949
-2.49513626 0.96483886 8.47258282  1064763310
8.42217350 1.70814347 -2.49513626  1072423791
-2.49513626 0.96483886 8.36311340  1064763310
8.29546738 2.24410224 -2.49513626  1075321981
-2.49513626 0.96483886 8.17804337  1064763310
8.08924770 2.90083241 -2.49513626  1078062290
-2.49513626 0.96483886 7.99214268  1064763310
7.94050455 3.28620267 -2.49513626  1080196659
-2.49513626 0.96483886 7.71370935  1064763310
7.31443787 4.51107216 -2.49513626  3232232484
-2.49513626 0.96579927 6.55736113  1064779423
6.63894749 -5.03840876 -2.49513626  3231110528
-2.49513626 0.96579927 7.02089691  1064779423
7.29413795 -4.03196335 -2.49513626  3229255745
-2.49513626 0.96579927 7.41958904  1064779423
7.47946501 -3.67678881 -2.49513626  3227753778
-2.49513626 0.96579927 7.59343863  1064779423
7.64750910 -3.31312156 -2.49513626  3225698163
-2.49513626 0.96579927 7.79788351  1064779423
7.88814259 -2.69042420 -2.49513626  3222518406
-2.49513626 0.96579927 8.07816601  1064779423
8.13971901 -1.79056454 -2.49513626  3217272960
-2.49513626 0.96579927 8.25691605  1064779423
8.27401733 -1.00090170 -2.49513626  3210625522
-2.49513626 0.96579927 8.30184078  1064779423
8.33408260 0.06508775 -2.49513626  1045128036
-2.49513626 0.96579927 8.28934383  1064779423
8.27442169 0.99755263 -2.49513626  1066443823
-2.49513626 0.96579927 8.23820782  1064779423
8.21692562 1.39402187 -2.49513626  1070861188
-2.49513626 0.96579927 8.11076069  1064779423
8.07899475 2.04719639 -2.49513626  1074481647
-2.49513626 0.96579927 8.00924778  1064779423
7.97128344 2.43305969 -2.49513626  1080762089
-2.49513626 0.96579927 7.42112589  1064779423
7.16292000 4.26072216 -2.49513626  1082916758
-2.49513626 0.96579927 6.28354359  1064794642
6.59692860 -4.68113708 -2.49513626  3230819584
-2.49513626 0.96670640 7.07945299  1064794642
7.14124870 -3.79935074 -2.49513626  3227804541
-2.49513626 0.96670640 7.42242336  1064794642
7.52164841 -2.97612143 -2.49513626  3224302320
-2.49513626 0.96670640 7.65597439  1064794642
7.69683266 -2.48822761 -2.49513626  3222233454
-2.49513626 0.96670640 7.80750895  1064794642
7.84040499 -1.99011445 -2.49513626  3220086526
-2.49513626 0.96670640 7.92698002  1064794642
7.95177794 -1.48382688 -2.49513626  3213675686
-2.49513626 0.96670640 8.03049278  1064794642
8.04502678 -0.84264058 -2.49513626  3208032242
-2.49513626 0.96670640 8.06789684  1064794642
8.07622528 -0.45506915 -2.49513626  3198596391
-2.49513626 0.96670640 8.08665943  1064794642
8.08876324 -0.06644680 -2.49513626  1051002928
-2.49513626 0.96670640 8.07640934  1064794642
8.06813335 0.58115482 -2.49513626  1064819562
-2.49513626 0.96670640 8.01434135  1064794642
7.99573755 1.22502899 -2.49513626  1069384842
-2.49513626 0.96670640 7.87204027  1064794642
7.84121037 1.98694205 -2.49513626  1074212973
-2.49513626 0.96670640 7.77351475  1064794642
7.65702820 2.60814333 -2.49513626  1077316025
-2.49513626 0.96670640 7.20270205  1064794642
7.14278603 3.79646254 -2.49513626  1082179480
-2.49513626 0.96670640 6.10299301  1064809038
6.18148851 -4.84927320 -2.49513626  3231186112
-2.49513626 0.96756446 6.47940302  1064809039
6.54976988 -4.33898401 -2.49513626  3230103717
-2.49513626 0.96756452 6.68544054  1064809038
6.75071049 -4.01922703 -2.49513626  3229238854
-2.49513626 0.96756452 6.87603092  1064809039
6.99429226 -3.57856655 -2.49513626  3227374456
-2.49513626 0.96756452 7.10536861  1064809039
7.15817690 -3.23832631 -2.49513626  3225936557
-2.49513626 0.96756452 7.30552292  1064809039
7.35090399 -2.77317429 -2.49513626  3223972874
-2.49513626 0.96756452 7.43598795  1064809039
7.47567081 -2.41673064 -2.49513626  3222469648
-2.49513626 0.96756452 7.54927301  1064809038
7.58316994 -2.05470300 -2.49513626  3218607623
-2.49513626 0.96756452 7.69920683  1064809039
7.72329283 -1.44119048 -2.49513626  3215498155
-2.49513626 0.96756452 7.76550531  1064809039
7.78362513 -1.06838799 -2.49513626  3211889442
-2.49513626 0.96756446 7.84416342  1064809039
7.85429859 -0.19041575 -2.49513626  1050692190
-2.49513626 0.96756452 7.84434271  1064809038
7.83630371 0.56445599 -2.49513626  1060151415
-2.49513626 0.96756446 7.81419277  1064809039
7.80012655 0.94037181 -2.49513626  1069027963
-2.49513626 0.96756452 7.69983673  1064809039
7.67382717 1.68482172 -2.49513626  1072127588
-2.49513626 0.96756452 7.58400059  1064809039
7.51436615 2.29359579 -2.49513626  1075477037
-2.49513626 0.96756452 7.30668974  1064809039
7.15948677 3.23543072 -2.49513626  1080350940
-2.49513626 0.96756446 6.93754578  1064809039
6.87757015 3.79806399 -2.49513626  1081743637
-2.49513626 0.96756452 6.68710899  1064809039
6.08269215 -4.61625767 -2.49513626  3230492747
-2.49513626 0.96837741 6.43263960  1064822677
6.62293386 -3.80074978 -2.49513626  3228331209
-2.49513626 0.96837741 6.74132061  1064822677
6.79792547 -3.47809768 -2.49513626  3226966316
-2.49513626 0.96837741 6.90588427  1064822677
7.00674868 -3.03552604 -2.49513626  3225096244
-2.49513626 0.96837741 7.18679619  1064822677
7.33732462 -2.11485815 -2.49513626  3217205897
-2.49513626 0.96837741 7.50645876  1064822677
7.52793980 -1.28026867 -2.49513626  3211445017
-2.49513626 0.96837741 7.59448671  1064822677
7.61607456 -0.55169177 -2.49513626  3197984546
-2.49513626 0.96837741 7.63378906  1064822677
7.63579702 0.05963469 -2.49513626  1044011246
-2.49513626 0.96837741 7.62996578  1064822677
7.60652924 0.67057860 -2.49513626  1063909876
-2.49513626 0.96837741 7.56551790  1064822677
7.54795694 1.15642452 -2.49513626  1068689282
-2.49513626 0.96837741 7.48366547  1064822677
7.45838404 1.63752055 -2.49513626  1074211122
-2.49513626 0.96837741 7.22821569  1064822677
7.10155392 2.80657983 -2.49513626  1077600632
-2.49513626 0.96837741 7.00797653  1064822677
6.95848274 3.14459467 -2.49513626  1079008572
-2.49513626 0.96837741 6.74277258  1064822677
6.68447971 3.69143510 -2.49513626  1081726647
-2.49513626 0.96837741 5.91570234  1064835614
6.05652046 -4.29766607 -2.49513626  3230033651
-2.49513626 0.96914852 6.25604343  1064835614
6.31936073 -3.90090346 -2.49513626  3228771626
-2.49513626 0.96914852 6.44111395  1064835614
6.55625057 -3.48811555 -2.49513626  3225675643
-2.49513626 0.96914852 6.81439447  1064835614
6.86082363 -2.84262300 -2.49513626  3222891999
-2.49513626 0.96914852 7.10202074  1064835614
7.16793489 -1.94219315 -2.49513626  3219774979
-2.49513626 0.96914852 7.25298405  1064835614
7.27761602 -1.47907794 -2.49513626  3215875842
-2.49513626 0.96914852 7.34028435  1064835614
7.41463852 -0.41779089 -2.49513626  3197701411
-2.49513626 0.96914852 7.42614889  1064835614
7.42617273 0.05799754 -2.49513626  1043675977
-2.49513626 0.96914852 7.42050171  1064835614
7.41480637 0.41478926 -2.49513626  1063488921
-2.49513626 0.96914852 7.35781956  1064835614
