# .PCD v0.7 - Point Cloud Data file format
VERSION 0.7
FIELDS x y z intensity
SIZE 4 4 4 4
TYPE F F F F
COUNT 1 1 1 1
WIDTH 997
HEIGHT 1
VIEWPOINT 0 0 0 1 0 0 0
POINTS 997
DATA ascii
-62.55008316 11.91244316 -2.64753628  1093565165
-2.64753628 0.77498055 -63.01804733  1061586854
-59.75683975 5.49531221 -2.49513626  1080330023
-2.49513626 0.78643620 -59.95236206  1061770213
-59.86576843 -4.14421797 -2.49513626  3233949432
-2.49513626 0.78643632 -59.47554398  1061770211
-59.33946991 -8.93937588 -2.49513626  3240983772
-2.49513626 0.78643632 -58.64208221  1061770212
-58.42970657 -13.67675591 -2.49513626  3244938615
-2.49513626 0.78643632 -57.95965195  1061770212
-57.70214844 -16.47867203 -2.49513626  3247127636
-2.49513626 0.78643632 -56.54936218  1061768761
-56.52311707 -22.22729683 -2.52538157  3250207646
-2.54129362 0.78294891 -56.47796631  1061644821
-55.77779770 -30.71248055 -2.64753628  3254573070
-2.64753628 0.77498055 -38.18973160  1062141964
-38.77688217 36.20064926 -2.64753628  1108232741
-2.64753628 0.80859447 -40.47758102  1062141964
-41.55932617 32.96902847 -2.64753628  1107094691
-2.64753628 0.80859447 -43.10092163  1062141964
-44.99978256 28.09188843 -2.64753628  1104865961
-2.64753628 0.80859452 -47.11079407  1062141964
-47.49686813 23.62586403 -2.64753628  1102503737
-2.64753628 0.80859447 -48.91736603  1062141964
-49.24108124 19.73447037 -2.64753628  1099184644
-2.64753628 0.80859447 -51.14625931  1062141964
-51.36604309 13.25382328 -2.64753628  1094288829
-2.64753628 0.80859441 -52.11177444  1062141965
-52.26464081 9.08518887 -2.64753628  1087486734
-2.64753628 0.80859447 -52.74057007  1062141964
-52.89680099 4.00774193 -2.64753628  1078592896
-2.64753628 0.80859447 -52.99832916  1062141964
-53.04502869 0.59908479 -2.64753628  3213734768
-2.64753628 0.80859447 -52.97382736  1062141964
-52.92176056 -3.66352129 -2.64753628  3236026997
-2.64753628 0.80859447 -52.32263565  1062141964
-52.17524719 -9.58527184 -2.64753628  3240543474
-2.64753628 0.80859447 -51.45115662  1062141964
-51.23674774 -13.74514389 -2.64753628  3246496206
-2.64753628 0.80859447 -50.24721146  1062141964
-49.96717072 -17.81614876 -2.64753628  3248181089
-2.64753628 0.80859447 -49.04983139  1062141965
-48.71856308 -20.99129677 -2.64753628  3250227183
-2.64753628 0.80859447 -46.46964264  1062141964
-46.05216217 -26.33119965 -2.64753628  1107060422
-2.64753628 0.83348960 -33.22740936  1062559634
-33.72192764 30.48152924 -2.64753628  1106213767
-2.64753628 0.83348960 -35.15271378  1062559635
-35.61163330 28.25073242 -2.64753628  1103783060
-2.64753628 0.83348960 -38.16763687  1062559635
-38.55972672 24.07155418 -2.64753628  1102482808
-2.64753628 0.83348954 -40.36862183  1062559635
-40.69944382 20.24468994 -2.64753628  1100788574
-2.64753628 0.83348954 -41.62841797  1062559634
-41.91664505 17.58654594 -2.64753628  1098430160
-2.64753628 0.83348954 -43.41595078  1062559635
-43.82655716 12.06338120 -2.64753628  1093295410
-2.64753628 0.83348954 -44.35734177  1062559634
-44.51136780 9.22118187 -2.64753628  1091047723
-2.64753628 0.83348960 -45.10822678  1062559634
-45.26549149 4.16261673 -2.64753628  1057188548
-2.64753628 0.83348954 -45.45595932  1062559635
-45.44658661 -0.94860649 -2.64753628  3218535288
-2.64753628 0.83348960 -45.39258194  1062559634
-45.34796906 -3.13922071 -2.64753628  3235426392
-2.64753628 0.83348954 -44.42104340  1062559634
-43.50265121 -13.18377304 -2.64753628  3244898040
-2.64753628 0.83348954 -42.03016663  1062559634
-41.74630356 -17.98718071 -2.64753628  3248820595
-2.64753628 0.83348954 -40.16666031  1062559634
-28.17632484 28.05356216 -2.64753628  1104744526
-2.64753628 0.85265976 -29.49645424  1062881257
-29.92138672 26.18431282 -2.64753628  1102007373
-2.50275636 0.86012447 -30.88666725  1063006493
-31.22707939 20.91891861 -2.50275636  1101221883
-2.50275636 0.86012441 -32.19960022  1063006493
-34.38771439 19.95976067 -2.64753628  1099803114
-2.64753628 0.85265970 -35.87981796  1062881257
-36.15069580 16.55399513 -2.64753628  1097640213
-2.64753628 0.85265976 -37.36352539  1062881257
-37.57735443 12.99423409 -2.64753628  1095120464
-2.64753628 0.85265976 -38.33492661  1062881257
-38.49966812 9.93395805 -2.64753628  1091243350
-2.64753628 0.85265976 -38.93394089  1062881257
-39.05861664 7.43857241 -2.64753628  1088022377
-2.64753628 0.85265976 -39.45600128  1062881257
-39.52989197 4.27725887 -2.64753628  1080624802
-2.64753628 0.85265976 -39.64699554  1062881257
-37.43650818 1.62791336 -2.49513626  1065568783
-2.49513626 0.86051911 -37.47145462  1063013115
-37.33597565 -3.18863082 -2.49513626  3228727497
-2.49513626 0.86051905 -37.21412659  1063013115
-37.13875961 -4.98551273 -2.49513626  3232931945
-2.49513626 0.86051911 -36.85511017  1063013115
-36.74146271 -7.36256838 -2.49513626  3237902954
-2.49513626 0.86051911 -36.34362793  1063013115
-36.19217300 -9.70918846 -2.49513626  3240403824
-2.49513626 0.86051911 -35.29539490  1063013115
-34.64741516 -14.27232170 -2.49513626  3245740248
-2.49513626 0.86051911 -33.91879654  1063013115
-33.11122894 -17.54390144 -2.49513626  3247478715
-2.49513626 0.86051911 -25.43342781  1063136461
-26.20880318 23.69034767 -2.64753628  1101620284
-2.50275636 0.87462282 -26.16394424  1063249737
-27.13447952 19.46994781 -2.50275636  1099817325
-2.64753628 0.86787117 -31.10941315  1063136462
-31.63179588 15.73427200 -2.64753628  1098093463
-2.64753628 0.86787117 -32.35375214  1063136462
-32.79335785 13.14267635 -2.64753628  1095356795
-2.64753628 0.86787111 -33.19902420  1063136462
-33.38906479 11.54592609 -2.64753628  1093672605
-2.64753628 0.86787117 -33.74303436  1063136462
-34.20852280 8.82672405 -2.64753628  1090097743
-2.49513626 0.87497967 -32.49020767  1063255723
-33.20014191 2.51541543 -2.49513626  1063865958
-2.49513626 0.87497962 -33.29317856  1063255722
-33.24849701 -1.76494193 -2.49513626  3222481124
-2.49513626 0.87497962 -33.17454147  1063255722
-32.99930191 -4.42983150 -2.49513626  3231627154
-2.49513626 0.87497962 -32.29281235  1063255722
-32.15822983 -8.62700176 -2.49513626  3239201210
-2.49513626 0.87497962 -31.70481873  1063255719
-31.53716469 -10.67635345 -2.49513626  3241339812
-2.49513626 0.87497920 -31.17752838  1063255722
-30.78564644 -12.68154240 -2.49513626  3243942839
-2.49513626 0.87497962 -30.13828278  1063255719
-29.66756821 -15.11333847 -2.49513626  3246422523
-2.49513626 0.87497962 -21.62883186  1063447241
-22.92456436 19.41934776 -2.50275636  1100409908
-2.63691306 0.88068366 -26.11701202  1063343859
-26.40485573 17.68853378 -2.64753628  1099569100
-2.64753628 0.88023299 -26.96003914  1063343859
-27.22719193 16.39451790 -2.64753628  1098394338
-2.64753628 0.88023299 -28.45606613  1063343859
-28.89653206 13.23218918 -2.64753628  1095023821
-2.64753628 0.88023299 -30.03691101  1063343859
-30.20005608 9.90237331 -2.64753628  1091490125
-2.64753628 0.88023299 -29.00268936  1063452702
-29.11928368 7.01609802 -2.49513626  1087471709
-2.49513626 0.88672054 -29.32984543  1063452703
-29.42376137 5.60364056 -2.49513626  1082503917
-2.49513626 0.88672054 -29.72312355  1063452702
-29.82675171 2.74284744 -2.49513626  1074844443
-2.49513626 0.88672054 -29.89953041  1063452702
-29.92432785 1.30124414 -2.49513626  1062330794
-2.49513626 0.88672054 -29.95226479  1063452702
-29.94608879 -0.62506455 -2.49513626  3221512884
-2.49513626 0.88672054 -29.84396362  1063452702
-29.79912567 -3.02838016 -2.49513626  3229551570
-2.49513626 0.88672054 -29.61840248  1063452702
-29.54282379 -4.93766785 -2.49513626  3233567552
-2.49513626 0.88672054 -29.16431046  1063452702
-28.92969513 -7.76089048 -2.49513626  3238238706
-2.49513626 0.88672054 -28.52175522  1063452702
-28.37097359 -9.60450363 -2.49513626  3240636568
-2.49513626 0.88672054 -27.87477303  1063452702
-27.50786018 -11.85227394 -2.49513626  3243418660
-2.49513626 0.88672054 -26.23805428  1063452702
-26.00233078 -14.86732483 -2.49513626  1100617620
-2.50275636 0.89614218 -19.65304947  1063610771
-20.89594460 18.88801384 -2.58230901  1100416380
-2.62798786 0.89123857 -22.03542137  1063515701
-22.33274841 18.30938148 -2.64753628  1099928893
-2.64753628 0.89047557 -22.90998077  1063515701
-23.18975449 17.21105003 -2.64753628  1099345908
-2.64753628 0.89047557 -23.99278259  1063515701
-24.24814796 15.68477917 -2.64753628  1098166104
-2.64753628 0.89047557 -24.97636986  1063515701
-25.20625687 14.09359932 -2.64753628  1095616777
-2.64753628 0.89047557 -26.06010246  1063515701
-26.25684547 12.02343845 -2.64753628  1092485758
-2.64753628 0.89047557 -27.29304886  1063515701
-26.35330772 6.79986572 -2.49513626  1087111605
-2.49513626 0.89644140 -26.65057755  1063615791
-26.73591042 5.09175396 -2.49513626  1082611410
-2.49513626 0.89644146 -26.95036507  1063615791
-27.05851173 2.92781854 -2.49513626  1073977422
-2.49513626 0.89644140 -27.16822243  1063615791
-27.20624924 0.74496394 -2.49513626  3205588525
-2.49513626 0.89644140 -27.15147400  1063615791
-27.11773300 -2.31595492 -2.49513626  3226203332
-2.49513626 0.89644140 -26.91277504  1063615791
-26.84409904 -4.48661804 -2.49513626  3231538686
-2.49513626 0.89644140 -26.17018318  1063615791
-25.77930069 -8.72712803 -2.49513626  3239198653
-2.49513626 0.89644140 -25.48532104  1063615791
-25.32842445 -9.96021461 -2.49513626  3240906799
-2.49513626 0.89644140 -24.81862068  1063615791
-24.44657326 -11.96245098 -2.49513626  3242568225
-2.49513626 0.89644140 -23.62703133  1063615791
-18.74955368 18.66786003 -2.64753628  1100147021
-2.64753628 0.89909995 -19.34017372  1063660392
-19.91077805 17.42399788 -2.64753628  1099485179
-2.64753628 0.89909983 -20.72792435  1063660392
-20.98964882 16.10800171 -2.64753628  1098304428
-2.64753628 0.89909983 -21.74207306  1063660392
-21.98170090 14.72546673 -2.64753628  1097198555
-2.64753628 0.89909983 -23.09346962  1063660392
-23.49675941 12.16294384 -2.64753628  1094486351
-2.64753628 0.89909983 -24.05598831  1063660392
-24.23002434 10.62736034 -2.64753628  1092451210
-2.64753628 0.89909995 -24.86306381  1063660392
-23.56595802 8.14909935 -2.49513626  1090034753
-2.49513626 0.90462136 -23.81582642  1063753029
-24.14434242 6.22989368 -2.49513626  1085990927
-2.49513626 0.90462142 -24.56675529  1063753029
-24.69137573 3.47823668 -2.49513626  1074930503
-2.49513626 0.90462142 -24.86390114  1063753029
-24.91161728 1.08327293 -2.49513626  1060026789
-2.49513626 0.90462142 -24.92973137  1063753029
-24.91813850 -0.92118299 -2.49513626  3218893587
-2.49513626 0.90462148 -24.84468460  1063753031
-24.80738449 -2.52108765 -2.49513626  3225082939
-2.49513626 0.90462142 -24.71348000  1063753029
-24.59401894 -4.11055183 -2.49513626  3230674231
-2.49513626 0.90462142 -24.44911003  1063753029
-24.18438148 -6.07271576 -2.49513626  3235585248
-2.49513626 0.90462142 -23.86338043  1063753029
-23.74399757 -7.61477423 -2.49513626  3237993501
-2.49513626 0.90462142 -23.48684120  1063753029
-23.34914017 -8.75099182 -2.49513626  3239960241
-2.49513626 0.90462136 -22.21831512  1063753029
-22.03342819 -11.67435169 -2.49513626  3242592157
-2.49513626 0.90462142 -17.29723930  1063783886
-17.57194519 16.94149399 -2.64753628  1098946633
-2.64753628 0.90646064 -18.62463760  1063783886
-19.12236977 15.16978836 -2.64753628  1096375184
-2.64753628 0.90646064 -20.49486923  1063783886
-20.91059494 12.59105396 -2.64753628  1094978795
-2.64753628 0.90646064 -21.30467796  1063783886
-22.02635956 10.51793671 -2.64753628  1092786455
-2.64753628 0.90646064 -22.35320091  1063783886
-22.65691757 9.08027363 -2.64753628  1090742505
-2.49513626 0.91159946 -21.61686897  1063870101
-21.97108650 6.81486845 -2.49513626  1087290827
-2.49513626 0.91159946 -22.17887688  1063870101
-22.27418137 5.74733925 -2.49513626  1085042123
-2.49513626 0.91159946 -22.44747925  1063870101
-22.52543449 4.66646338 -2.49513626  1081877391
-2.49513626 0.91159946 -22.72426796  1063870101
-22.77881241 3.20880842 -2.49513626  1074188671
-2.49513626 0.91159946 -22.96295929  1063870101
-22.99870872 -0.48005214 -2.49513626  3210317422
-2.49513626 0.91159946 -22.92028236  1063870101
-22.74704742 -3.42679954 -2.49513626  3229942333
-2.49513626 0.91159946 -22.55531502  1063870101
-22.47971535 -4.88194704 -2.49513626  3235217217
-2.49513626 0.91159946 -21.90482140  1063870101
-21.78902054 -7.37629080 -2.49513626  3237427498
-2.49513626 0.91159946 -21.26979256  1063870101
-20.97704315 -9.44112492 -2.49513626  3239866268
-2.49513626 0.91159946 -20.66258240  1063870101
-20.32674789 -10.77007198 -2.49513626  1098615683
-2.64753628 0.91281569 -16.55732727  1063890506
-17.04580116 14.91686726 -2.64753628  1097189013
-2.64753628 0.91281569 -17.74539566  1063890506
-17.96947861 13.79024982 -2.64753628  1096285689
-2.64753628 0.91281569 -18.40364075  1063890506
-18.61361885 12.90760803 -2.64753628  1095349440
-2.64753628 0.91281569 -19.01906586  1063890506
-19.40485001 11.68438911 -2.64753628  1093386857
-2.64753628 0.91281569 -20.11581802  1063890506
-20.28068733 10.08801079 -2.64753628  1092019129
-2.64753628 0.91281569 -20.74357414  1063890506
-19.81513977 7.94136477 -2.49513626  1087690368
-2.49513626 0.91762149 -20.67024612  1063971134
-20.75333977 5.00039101 -2.49513626  1082104103
-2.49513626 0.91762149 -21.08792114  1063971134
-21.13856888 2.97775054 -2.49513626  1076415438
-2.49513626 0.91762137 -21.25755501  1063971134
-21.34589386 0.24107806 -2.49513626  3184613394
-2.49513626 0.91762149 -21.33267975  1063971134
-21.31723785 -1.13159072 -2.49513626  3221889554
-2.49513626 0.91762149 -21.20042992  1063971132
-21.10906410 -3.18003988 -2.49513626  3230021693
-2.49513626 0.91762137 -20.78543663  1063971133
-20.61821938 -5.53119373 -2.49513626  3234209689
-2.49513626 0.91762149 -20.10733032  1063971134
-19.98944473 -7.49181604 -2.49513626  3238471537
-2.49513626 0.91762149 -19.17469597  1063971134
-18.86304665 -9.99453354 -2.49513626  1097760803
-2.64753628 0.91835755 -15.20928669  1063983485
-15.44312572 14.41711807 -2.64753628  1096985523
-2.64753628 0.91835767 -16.12043762  1063983485
-16.33795166 13.39458084 -2.64753628  1094754251
-2.64753628 0.91835767 -17.55238533  1063983485
-17.73920441 11.47450542 -2.64753628  1093861639
-2.64753628 0.91835767 -18.44013023  1063983485
-18.91591072 9.40914154 -2.64753628  1091676391
-2.64753628 0.91835767 -18.23396111  1064059206
-18.48171425 7.40696287 -2.49513626  1088020935
-2.49513626 0.92287099 -18.81741333  1064059206
-19.19678307 5.28396940 -2.49513626  1082868664
-2.49513626 0.92287105 -19.49674797  1064059206
-19.55918121 3.72497392 -2.49513626  1079655603
-2.49513626 0.92287099 -19.75817680  1064059206
-19.82706070 1.82329941 -2.49513626  1069583019
-2.49513626 0.92287099 -19.87544250  1064059206
-19.90326309 0.54499233 -2.49513626  3183690158
-2.49513626 0.92287099 -19.90638924  1064059206
-19.89713097 -0.73556453 -2.49513626  3215982866
-2.49513626 0.92287099 -19.83850861  1064059206
-19.80869293 -2.01308775 -2.49513626  3222615353
-2.49513626 0.92287099 -19.73371124  1064059206
-19.63831902 -3.28227496 -2.49513626  3229245435
-2.49513626 0.92287099 -19.38670921  1064059206
-19.31122589 -4.84906292 -2.49513626  3232044640
-2.49513626 0.92287099 -19.14530754  1064059206
-19.05490685 -5.77471924 -2.49513626  3235879680
-2.49513626 0.92287099 -18.15654564  1064059206
-17.88436890 -8.75136280 -2.49513626  3239388871
-2.49513626 0.92287099 -14.24843311  1064065278
-14.68283558 13.27193356 -2.64753628  1095544775
-2.64753628 0.92323273 -15.30582237  1064065275
-15.50562668 12.30062485 -2.64753628  1093956757
-2.64753628 0.92323273 -16.78925705  1064065276
-17.27520180 9.65909004 -2.64753628  1091966114
-2.64753628 0.92323273 -17.57687950  1064065275
-16.70085716 8.30732822 -2.49513626  1090558548
-2.49513626 0.92748743 -17.08205605  1064136655
-17.20033073 7.21657085 -2.49513626  1087708263
-2.49513626 0.92748737 -17.62865067  1064136655
-17.81554985 5.52592707 -2.49513626  1084728220
-2.49513626 0.92748737 -18.20182419  1064136658
-18.32354927 3.48965693 -2.49513626  1077510814
-2.49513626 0.92748743 -18.47052383  1064136656
-18.54464531 2.00658870 -2.49513626  1071293304
-2.49513626 0.92748737 -18.59957886  1064136656
-18.61983681 1.10991967 -2.49513626  1057141829
-2.49513626 0.92748737 -18.65166283  1064136658
-18.65267754 -0.08931712 -2.49513626  3200732336
-2.49513626 0.92748731 -18.64015388  1064136656
-18.62664795 -0.98876506 -2.49513626  3220268431
-2.49513626 0.92748743 -18.52458000  1064136655
-18.48706245 -2.48170590 -2.49513626  3224491431
-2.49513626 0.92748743 -18.34586716  1064136655
-18.28929329 -3.66496539 -2.49513626  3232570861
-2.49513626 0.92748737 -17.76183128  1064136656
-17.66793633 -5.98116922 -2.49513626  3234363113
-2.49513626 0.92748731 -17.46645927  1064136655
-16.75452805 -8.19849777 -2.49513626  3238492244
-2.49513626 0.92748737 -16.48222923  1064136655
-13.19053268 13.13306618 -2.64753628  1095449542
-2.64753628 0.92755431 -14.00746632  1064137779
-14.58234310 11.56818104 -2.64753628  1094013101
-2.64753628 0.92755431 -14.94680309  1064137779
-15.12326241 10.85147572 -2.64753628  1092993199
-2.64753628 0.92755431 -15.62898636  1064137779
-16.24652672 9.08393478 -2.64753628  1090126162
-2.49513626 0.93157834 -15.82998657  1064205291
-16.17611694 6.78685284 -2.49513626  1087427515
-2.49513626 0.93157834 -16.38599968  1064205291
-16.48460007 5.99885225 -2.49513626  1084640478
-2.49513626 0.93157834 -16.83612442  1064205291
-17.11800957 3.83431292 -2.49513626  1079118355
-2.49513626 0.93157834 -17.28300476  1064205291
-17.32908440 2.72600317 -2.49513626  1075616620
-2.49513626 0.93157828 -17.44038582  1064205291
-17.49204826 1.32529140 -2.49513626  1065720882
-2.49513626 0.93157834 -17.54106331  1064205291
-17.53836441 -0.36607832 -2.49513626  3206932344
-2.49513626 0.93157834 -17.51752090  1064205291
-17.34644890 -2.61320925 -2.49513626  3227293514
-2.49513626 0.93157828 -17.14258957  1064205291
-17.08050537 -3.99806666 -2.49513626  3230184983
-2.49513626 0.93157834 -16.86782074  1064205291
-16.78817177 -5.08777046 -2.49513626  3232460102
-2.49513626 0.93157828 -16.61587906  1064205291
-16.52327156 -5.89148855 -2.49513626  3234136436
-2.49513626 0.93157834 -16.32526779  1064205291
-16.11038208 -6.94145918 -2.49513626  3236861706
-2.49513626 0.93157834 -15.75687695  1064205291
-15.63084698 -7.96270895 -2.49513626  3238744313
-2.49513626 0.93157834 -12.83970070  1064202484
-13.03079796 11.77864361 -2.64753628  1094259915
-2.64753628 0.93141103 -13.40283298  1064202484
-13.76101494 10.91661930 -2.64753628  1093343822
-2.64753628 0.93141103 -14.10494614  1064202483
-14.43429375 10.00946045 -2.64753628  1092381374
-2.64753628 0.93141097 -14.74870491  1064202483
-15.04787445 9.06088543 -2.64753628  1090194917
-2.49513626 0.93522835 -14.82174492  1064266529
-14.93839073 7.13332081 -2.49513626  1085613755
-2.49513626 0.93522841 -15.88785458  1064266528
-16.02914810 4.13595343 -2.49513626  1079438223
-2.49513626 0.93522835 -16.26186562  1064266528
-16.30956650 2.83510685 -2.49513626  1076142923
-2.49513626 0.93522835 -16.39230156  1064266528
-16.42731667 2.04524970 -2.49513626  1069681111
-2.49513626 0.93522835 -16.50683594  1064266528
-16.52481079 0.98503554 -2.49513626  3199262734
-2.49513626 0.93522835 -16.51461983  1064266529
-16.49410248 -1.40865731 -2.49513626  3218488428
-2.49513626 0.93522841 -16.44027328  1064266528
-16.40697670 -2.20247483 -2.49513626  3223180120
-2.49513626 0.93522841 -16.23145866  1064266529
-15.76334667 -5.05535460 -2.49513626  3233409245
-2.49513626 0.93522841 -15.30636597  1064266528
-15.20298672 -6.55049181 -2.49513626  3237479360
-2.49513626 0.93522835 -14.37091541  1064266528
-11.78230953 11.73097897 -2.64753628  1094230990
-2.64753628 0.93487388 -12.15345955  1064260581
-13.02553082 10.33316231 -2.64753628  1092294247
-2.64753628 0.93487388 -13.66282845  1064260581
-13.96043587 9.03022766 -2.64753628  1090605985
-2.49513626 0.93850493 -13.79789639  1064321500
-14.34979725 6.29386282 -2.49513626  1085966428
-2.49513626 0.93850493 -14.63663197  1064321500
-14.72469902 5.35841608 -2.49513626  1083980381
-2.49513626 0.93850493 -14.96598339  1064321500
-15.03869820 4.40079594 -2.49513626  1081773496
-2.49513626 0.93850493 -15.34358692  1064321500
-15.39272022 2.93149471 -2.49513626  1075566246
-2.49513626 0.93850493 -15.51618481  1064321500
-15.54932785 1.93593764 -2.49513626  1069001454
-2.49513626 0.93850493 -15.64161301  1064321500
-15.66838074 0.17695911 -2.49513626  3205771576
-2.49513626 0.93850493 -15.64734840  1064321500
-15.63196754 -1.08212578 -2.49513626  3215633368
-2.49513626 0.93850493 -15.45500374  1064321500
-15.41146469 -2.83128691 -2.49513626  3226784696
-2.49513626 0.93850493 -15.25699043  1064321500
-15.19758797 -3.81612468 -2.49513626  3229739962
-2.49513626 0.93850493 -14.99586773  1064321500
-14.84196663 -5.02448797 -2.49513626  3232261762
-2.49513626 0.93850493 -14.39043808  1064321500
-14.18360519 -6.65994072 -2.49513626  3235668901
-2.49513626 0.93850493 -13.84591675  1064321500
-13.72615242 -7.55792236 -2.49513626  3237536446
-2.49513626 0.93850493 -11.18302822  1064313029
-11.53529644 10.76892471 -2.64753628  1093027666
-2.64753628 0.93800002 -12.20369625  1064313029
-12.36301517 9.80758476 -2.64753628  1092204630
-2.64753628 0.93800008 -12.67200375  1064313029
-12.35902405 8.27926922 -2.49572396  1090600363
-2.49513626 0.94146234 -12.86265945  1064371117
-12.98105335 7.25810719 -2.49513626  1088079855
-2.49513626 0.94146234 -13.42077637  1064371117
-13.52209854 6.19199038 -2.49513626  1085808715
-2.49513626 0.94146234 -13.80498409  1064371117
-14.13208199 4.63380384 -2.49513626  1082501535
-2.49513626 0.94146234 -14.45861530  1064371117
-14.51275826 3.25075650 -2.49513626  1078007294
-2.49513626 0.94146234 -14.60979843  1064371117
-14.65265083 2.54707980 -2.49513626  1075046759
-2.49513626 0.94146234 -14.72698498  1064371117
-14.80989838 1.36192012 -2.49513626  1066389975
-2.49513626 0.94146234 -14.84603500  1064371117
-14.85834312 0.64610976 -2.49513626  1053846866
-2.49513626 0.94146228 -14.87143040  1064371117
-14.86914730 -0.31036374 -2.49513626  3209286240
-2.49513626 0.94146234 -14.83686829  1064371117
-14.81843376 -1.26554918 -2.49513626  3219056386
-2.49513626 0.94146234 -14.74017048  1064371116
-14.70644283 -2.21549749 -2.49513626  3223120055
-2.49513626 0.94146234 -14.48096180  1064371117
-14.30065727 -4.08400488 -2.49513626  3230750262
-2.49513626 0.94146234 -14.08705902  1064371117
-14.00854683 -4.99484587 -2.49513626  3233567248
-2.49513626 0.94146234 -13.56208992  1064371117
-13.35878468 -6.53685713 -2.49513626  3235828102
-2.49513626 0.94146234 -13.02798939  1064371117
-10.80930233 10.42147446 -2.64753628  1092874461
-2.64753628 0.94083619 -11.61144829  1064360612
-11.76303577 9.33162117 -2.64753628  1091513644
-2.64753628 0.94083619 -11.49714088  1064416122
-11.88160610 7.68554926 -2.49513626  1089049940
-2.49513626 0.94414485 -12.46053791  1064416122
-12.56677341 6.50510931 -2.49513626  1086958459
-2.49513626 0.94414485 -12.95894337  1064416122
-13.44624996 4.40892172 -2.49513626  1082533366
-2.49513626 0.94414485 -13.58107662  1064416122
-13.70184326 3.53544641 -2.49513626  1079255868
-2.49513626 0.94414485 -13.80844975  1064416123
-13.90078259 2.64735413 -2.49513626  1075517990
-2.49513626 0.94414485 -14.04221249  1064416122
-14.06851196 1.52225733 -2.49513626  1065932571
-2.49513626 0.94414485 -14.14532471  1064416122
-14.14971161 0.15980421 -2.49513626  3179988228
-2.49513626 0.94414485 -14.14754772  1064416122
-14.14096642 -0.52276844 -2.49513626  3208644352
-2.49513626 0.94414485 -14.11684418  1064416122
-14.09929085 -1.20413160 -2.49513626  3218347476
-2.49513626 0.94414485 -14.02482605  1064416122
-13.99273682 -2.10797906 -2.49513626  3225432806
-2.49513626 0.94414485 -13.72456264  1064416122
-13.66736984 -3.66650748 -2.49513626  3229832425
-2.49513626 0.94414485 -13.40341187  1064416122
-13.25056458 -4.96616173 -2.49513626  3232085797
-2.49513626 0.94414485 -13.08401489  1064416122
-12.99564552 -5.59941721 -2.49513626  3233405012
-2.49513626 0.94414485 -12.71047783  1064416122
-12.60882378 -6.42322445 -2.49513626  3235539316
-2.49513626 0.94414485 -10.14646149  1064403972
-10.62184811 9.60117435 -2.64753628  1092017588
-2.64753628 0.94342065 -10.92510509  1064403972
-11.07252216 9.07774734 -2.64753628  1090924091
-2.49513626 0.94658887 -10.83559895  1064457126
-11.08861065 7.68939257 -2.49513626  1089111511
-2.49513626 0.94658887 -11.67040634  1064457127
-11.98350811 6.20318222 -2.49513626  1086345043
-2.49513626 0.94658887 -12.17679214  1064457126
-12.44304180 5.22059870 -2.49513626  1084269165
-2.49513626 0.94658887 -12.60448837  1064457126
-12.88811207 3.99756336 -2.49513626  1081248745
-2.49513626 0.94658893 -13.11843204  1064457126
-13.16755676 2.94944024 -2.49513626  1076834370
-2.49513626 0.94658887 -13.25559998  1064457126
-13.29448223 2.31098914 -2.49513626  1074148262
-2.49513626 0.94658893 -13.36193371  1064457126
-13.43715286 1.23568237 -2.49513626  1065516333
-2.49513626 0.94658887 -13.46994114  1064457126
-13.48111916 0.58622187 -2.49513626  1052580757
-2.49513626 0.94658887 -13.49298763  1064457126
-13.49369335 -0.06461369 -2.49513626  3204398096
-2.49513626 0.94658887 -13.47487926  1064457126
-13.46163273 -0.93188411 -2.49513626  3214080427
-2.49513626 0.94658893 -13.42470264  1064457126
-13.40102768 -1.58001018 -2.49513626  3219508430
-2.49513626 0.94658887 -13.27174568  1064457126
-13.23082638 -2.65130663 -2.49513626  3224848184
-2.49513626 0.94658887 -13.08755970  1064457126
-13.03302097 -3.49633288 -2.49513626  3229251815
-2.49513626 0.94658887 -12.30501080  1064457126
-12.21436882 -5.73528194 -2.49513626  3233663584
-2.49513626 0.94658887 -11.92355442  1064457126
-11.82042122 -6.50858450 -2.49513626  3235271840
-2.49513626 0.94658887 -10.00048828  1064443645
-10.14932823 9.17406178 -2.64753628  1091577753
-2.64753628 0.94578534 -9.83820724  1064494638
-10.10111141 8.01321697 -2.49513626  1089150282
-2.49513626 0.94882482 -10.71210194  1064494639
-10.82611561 7.00280857 -2.49513626  1088060770
-2.49513626 0.94882482 -11.04571247  1064494639
-11.15124130 6.47254944 -2.49513626  1086937926
-2.49513626 0.94882482 -11.63509846  1064494639
-11.88950539 4.98835945 -2.49513626  1083800848
-2.49513626 0.94882482 -12.04376411  1064494639
-12.37460327 3.62119985 -2.49513626  1078864642
-2.49513626 0.94882482 -12.66591740  1064494639
-12.73693657 2.00362086 -2.49513626  1072051829
-2.49513626 0.94882482 -12.79478264  1064494639
-12.83939171 1.18071210 -2.49513626  1064918612
-2.49513626 0.94882482 -12.88476753  1064494639
-12.87544155 -0.68347168 -2.49513626  3213651935
-2.49513626 0.94882482 -12.82749557  1064494639
-12.80487537 -1.50972235 -2.49513626  3220560411
-2.49513626 0.94882482 -12.71716881  1064494639
-12.64223862 -2.53336024 -2.49513626  3225162221
-2.49513626 0.94882482 -12.50535011  1064494639
-12.45324039 -3.34079695 -2.49513626  3228521587
-2.49513626 0.94882482 -12.27763748  1064494639
-12.21273041 -4.13440561 -2.49513626  3230715084
-2.49513626 0.94882482 -11.92170238  1064494639
-11.84118748 -5.10199738 -2.49513626  3232323056
-2.49513626 0.94882482 -11.48873234  1064494639
-11.39312553 -6.03661728 -2.49513626  1091819755
-2.64753628 0.94795704 -9.15646267  1064529084
-9.54496288 7.82538319 -2.49513626  1089828816
-2.49513626 0.95087790 -9.91124535  1064529084
-10.02825356 7.19562912 -2.49513626  1088492000
-2.49513626 0.95087790 -10.25445652  1064529084
-10.47006226 6.53610754 -2.49513626  1087094162
-2.49513626 0.95087790 -10.67483711  1064529084
-10.77309322 6.02356815 -2.49513626  1085641081
-2.49513626 0.95087790 -11.05105400  1064529084
-11.13802338 5.31858492 -2.49513626  1084138785
-2.49513626 0.95087790 -11.66498184  1064529084
-11.99933434 2.89116907 -2.49513626  1075854933
-2.49513626 0.95087790 -12.19278812  1064529084
-12.22205544 1.72169995 -2.49513626  1069756673
-2.49513626 0.95087790 -12.27110100  1064529084
-12.29086494 1.13026989 -2.49513626  1064220393
-2.49513626 0.95087790 -12.34194088  1064529084
-12.33430386 -0.45597899 -2.49513626  3207036517
-2.49513626 0.95087790 -12.31325912  1064529084
-12.29796028 -1.05029142 -2.49513626  3216571696
-2.49513626 0.95087790 -12.23299980  1064529084
-12.13956928 -2.23020005 -2.49513626  3223823531
-2.49513626 0.95087790 -12.01788902  1064529084
-11.48650455 -4.51698160 -2.49513626  3231084410
-2.49513626 0.95087790 -11.33530712  1064529084
-11.25530815 -5.06566906 -2.49513626  3232227166
-2.49513626 0.95087790 -11.08658028  1064529084
-10.99790668 -5.60258579 -2.49513626  3234073583
-2.49513626 0.95087790 -8.38716602  1064560819
-8.52034855 8.21465111 -2.49513626  1090087431
-2.49513626 0.95276952 -9.27212238  1064560820
-9.38920498 7.20553064 -2.49513626  1088534316
-2.49513626 0.95276952 -9.61606216  1064560820
-9.83296967 6.58707380 -2.49513626  1086885624
-2.49513626 0.95276958 -10.13920212  1064560820
-10.51068974 5.44078732 -2.49513626  1084437245
-2.49513626 0.95276952 -10.83869743  1064560820
-10.98596287 4.40287161 -2.49513626  1082229673
-2.49513626 0.95276952 -11.24627304  1064560820
-11.35903168 3.32401061 -2.49513626  1077755773
-2.49513626 0.95276958 -11.54921627  1064560821
-11.66054058 2.02695942 -2.49513626  1072392814
-2.49513626 0.95276952 -11.74472904  1064560820
-11.78567505 1.08381248 -2.49513626  1063577365
-2.49513626 0.95276952 -11.81443310  1064560820
-11.82423115 0.51417255 -2.49513626  1051057566
-2.49513626 0.95276952 -11.83465290  1064560820
-11.83527279 -0.05667242 -2.49513626  3206585334
-2.49513626 0.95276952 -11.79246998  1064560821
-11.73018742 -1.57466173 -2.49513626  3219238104
-2.49513626 0.95276952 -11.67348480  1064560820
-11.64059639 -2.13853240 -2.49513626  3222590507
-2.49513626 0.95276952 -11.38042450  1064560820
-11.27002144 -3.61433506 -2.49513626  3228754663
-2.49513626 0.95276952 -11.08260441  1064560820
-11.01437569 -4.33132124 -2.49513626  3231047026
-2.49513626 0.95276952 -10.79267406  1064560821
-10.27450275 -5.87464333 -2.49513626  1090539802
-2.49513626 0.95451802 -8.18281460  1064590155
-8.30862713 7.75662565 -2.49513626  1089726332
-2.49513626 0.95451802 -8.55376339  1064590155
-8.67303181 7.34690857 -2.49513626  1088556513
-2.49513626 0.95451802 -9.12737465  1064590155
-9.23512936 6.62653303 -2.49513626  1087008679
-2.49513626 0.95451802 -9.64199543  1064590155
-9.92105770 5.54716969 -2.49513626  1084699982
-2.49513626 0.95451802 -10.17703724  1064590155
-10.33456421 4.73236609 -2.49513626  1083316502
-2.49513626 0.95451802 -10.55075932  1064590155
-10.61738968 4.05824518 -2.49513626  1081656428
-2.49513626 0.95451802 -10.85631084  1064590155
-10.90904903 3.19232941 -2.49513626  1078005296
-2.49513626 0.95451802 -11.13022327  1064590155
-11.16586113 2.12649941 -2.49513626  1073294407
-2.49513626 0.95451802 -11.25542545  1064590155
-11.27946758 1.40432906 -2.49513626  1067221862
-2.49513626 0.95451802 -11.31879520  1064590155
-11.35582161 0.49380398 -2.49513626  1050626955
-2.49513626 0.95451802 -11.35879326  1064590155
-11.35057354 -0.60252666 -2.49513626  3212286977
-2.49513626 0.95451802 -11.30830383  1064590155
-11.28836250 -1.33092523 -2.49513626  3217134205
-2.49513626 0.95451802 -11.17946148  1064590155
-11.10763550 -2.41225791 -2.49513626  3223702492
-2.49513626 0.95451802 -10.92959595  1064590155
-10.82356548 -3.47115493 -2.49513626  3229568322
-2.49513626 0.95451802 -10.50978947  1064590155
-10.43880844 -4.49775648 -2.49513626  3231702716
-2.49513626 0.95451802 -9.95693779  1064590155
-7.86991644 7.58755732 -2.49513626  1088839640
-2.49513626 0.95613879 -8.45393848  1064617347
-8.56430912 6.79407072 -2.49513626  1087405088
-2.49513626 0.95613879 -8.98333073  1064617347
-9.17900753 5.93738890 -2.49513626  1085250579
-2.49513626 0.95613879 -9.54169464  1064617347
-9.70832539 5.02545118 -2.49513626  1083952192
-2.49513626 0.95613879 -9.86491203  1064617347
-9.93938732 4.55140781 -2.49513626  1082950384
-2.49513626 0.95613879 -10.14731503  1064617348
-10.27285004 3.73835754 -2.49513626  1080338109
-2.49513626 0.95613879 -10.44117737  1064617347
-10.53993034 2.90114498 -2.49513626  1076093563
-2.49513626 0.95613879 -10.70462227  1064617347
-10.90067387 0.82589370 -2.49513626  1059489460
-2.49513626 0.95613879 -10.92159367  1064617347
-10.92781925 0.29922667 -2.49513626  1039980207
-2.49513626 0.95613879 -10.93179131  1064617347
-10.92445183 -0.40385920 -2.49513626  3205781826
-2.49513626 0.95613879 -10.85671616  1064617347
-10.78235340 -1.80212200 -2.49513626  3224003617
-2.49513626 0.95613879 -10.55857277  1064617347
-10.40969086 -3.33842397 -2.49513626  3228928541
-2.49513626 0.95613879 -10.17356014  1064617347
-10.03964615 -4.32576942 -2.49513626  3232283471
-2.49513626 0.95613879 -9.49016953  1064617347
-7.57900763 7.30708456 -2.49513626  1088808313
-2.49513626 0.95764530 -7.81006575  1064642622
-8.03304577 6.80477715 -2.49513626  1087739712
-2.49513626 0.95764530 -8.24772549  1064642622
-8.45386124 6.27431631 -2.49513626  1086613218
-2.49513626 0.95764530 -8.65125847  1064642622
-8.74660778 5.85932302 -2.49513626  1085433487
-2.49513626 0.95764530 -9.10517597  1064642622
-9.27041817 4.98941040 -2.49513626  1082933984
-2.49513626 0.95764530 -9.64122200  1064642622
-9.70797729 4.07307911 -2.49513626  1081779964
-2.49513626 0.95764530 -9.94972420  1064642622
-10.23491478 2.46604705 -2.49513626  1075004876
-2.49513626 0.95764530 -10.30892181  1064642622
-10.34193325 1.96958506 -2.49513626  1072089420
-2.49513626 0.95764530 -10.44715309  1064642622
-10.46671867 1.13253188 -2.49513626  1061920002
-2.49513626 0.95764530 -10.50915718  1064642622
-10.51787376 0.45736662 -2.49513626  3176037363
-2.49513626 0.95764530 -10.52062607  1064642622
-10.51301289 -0.55806601 -2.49513626  3211089569
-2.49513626 0.95764530 -10.47386456  1064642622
-10.45539570 -1.23271585 -2.49513626  3216198104
-2.49513626 0.95764530 -10.41034508  1064642622
-10.38377953 -1.73550582 -2.49513626  3220405605
-2.49513626 0.95764530 -10.32259941  1064642622
-10.28800011 -2.23425698 -2.49513626  3222900721
-2.49513626 0.95764530 -10.21082783  1064642622
-10.16827774 -2.72781587 -2.49513626  3226996042
-2.49513626 0.95764530 -9.85818291  1064642622
-9.66852665 -4.16586590 -2.49513626  3230609436
-2.49513626 0.95764530 -9.45637512  1064642622
-9.38073826 -4.77876377 -2.49513626  1088762085
-2.49513626 0.95904911 -7.85011148  1064666174
-8.05301666 6.18009806 -2.49513626  1086429175
-2.49513626 0.95904911 -8.34168911  1064666174
-8.69627953 5.23635483 -2.49513626  1084428556
-2.49513626 0.95904911 -8.86017132  1064666174
-8.93869114 4.81087017 -2.49513626  1083528194
-2.49513626 0.95904911 -9.08877563  1064666174
-9.16030216 4.37419128 -2.49513626  1082605061
-2.49513626 0.95904911 -9.36059570  1064666174
-9.48204708 3.62428665 -2.49513626  1079913074
-2.49513626 0.95904911 -9.59369087  1064666174
-9.64579964 3.16278458 -2.49513626  1076652372
-2.49513626 0.95904911 -9.82915974  1064666174
-9.90563679 2.21879315 -2.49513626  1073990208
-2.49513626 0.95904911 -9.97186279  1064666174
-10.05184841 1.41598618 -2.49513626  1067485256
-2.49513626 0.95904911 -10.12208080  1064666174
-10.14728832 0.27785391 -2.49513626  1038796659
-2.49513626 0.95904911 -10.14888191  1064666174
-10.14416313 -0.37501314 -2.49513626  3213057766
-2.49513626 0.95904911 -10.08126926  1064666174
-10.03782749 -1.51217973 -2.49513626  3218485765
-2.49513626 0.95904911 -9.98400784  1064666174
-9.95322514 -1.99451339 -2.49513626  3221872687
-2.49513626 0.95904911 -9.88393307  1064666174
-9.84544945 -2.47219968 -2.49513626  3223868745
-2.49513626 0.95904911 -9.71477127  1064666174
-9.50542355 -3.56252432 -2.49513626  3228418387
-2.49513626 0.95904911 -9.38594437  1064666174
-9.25675869 -4.16618443 -2.49513626  3230273652
-2.49513626 0.95904911 -9.11799335  1064666174
-8.96979618 -4.75262260 -2.49513626  3231493648
-2.49513626 0.95904911 -7.05434513  1064688171
-7.16280365 6.68692446 -2.49513626  1087521953
-2.49513626 0.96036029 -7.37413120  1064688172
-7.47695255 6.33371019 -2.49513626  1086513451
-2.49513626 0.96036029 -7.86863565  1064688172
-8.05237007 5.58391142 -2.49513626  1084624118
-2.49513626 0.96036029 -8.39466286  1064688171
-8.47486305 4.91908979 -2.49513626  1083770763
-2.49513626 0.96036023 -8.90934753  1064688172
-9.09573364 3.64531922 -2.49513626  1080027334
-2.49513626 0.96036029 -9.20825100  1064688172
-9.44765759 2.60049534 -2.49513626  1075621815
-2.49513626 0.96036029 -9.52639294  1064688172
-9.56207466 2.14183760 -2.49513626  1073639468
-2.49513626 0.96036029 -9.62600517  1064688171
-9.65424061 1.67820215 -2.49513626  1069738251
-2.49513626 0.96036023 -9.70321560  1064688171
-9.74215317 1.05413187 -2.49513626  1063630757
-2.49513626 0.96036023 -9.78165340  1064688172
-9.79534531 0.26821709 -2.49513626  1038263086
-2.49513626 0.96036023 -9.79890442  1064688171
-9.79688072 -0.20449032 -2.49513626  3199817958
-2.49513626 0.96036023 -9.78523922  1064688172
-9.76347542 -0.83383697 -2.49513626  3212681449
-2.49513626 0.96036029 -9.71190071  1064688172
-9.60801125 -1.92533600 -2.49513626  3222204043
-2.49513626 0.96036029 -9.42231846  1064688172
-9.33091640 -2.99245691 -2.49513626  3226640183
-2.49513626 0.96036029 -9.17574215  1064688172
-9.11925316 -3.58607745 -2.49513626  3228491083
-2.49513626 0.96036023 -8.99921608  1064688171
-8.93570137 -4.02168560 -2.49513626  3230257828
-2.49513626 0.96036023 -8.58379841  1064688171
-6.71033812 6.68110132 -2.49513626  1087524996
-2.49513626 0.96158755 -6.92171717  1064708762
-7.02473307 6.34971476 -2.49513626  1086819525
-2.49513626 0.96158755 -7.22529221  1064708762
-7.41838408 5.88500881 -2.49513626  1085831810
-2.49513626 0.96158755 -7.60379267  1064708762
-7.69356203 5.52040434 -2.49513626  1085057993
-2.49513626 0.96158755 -8.03251362  1064708762
-8.11211300 4.88460875 -2.49513626  1083710684
-2.49513626 0.96158755 -8.26499462  1064708762
-8.33824158 4.48770332 -2.49513626  1082298954
-2.49513626 0.96158755 -8.78958893  1064708762
-8.99785042 2.95032740 -2.49513626  1077119315
-2.49513626 0.96158755 -9.08807182  1064708762
-9.12966442 2.51296496 -2.49513626  1074656478
-2.49513626 0.96158755 -9.27232265  1064708762
-9.39665604 1.16991186 -2.49513626  1060578221
-2.49513626 0.96158749 -9.46026516  1064708762
-9.46859646 0.10693710 -2.49513626  3192543653
-2.49513626 0.96158755 -9.46274185  1064708761
-9.45588684 -0.50195038 -2.49513626  3207030976
-2.49513626 0.96158755 -9.28462601  1064708761
-9.21998882 -2.15814066 -2.49513626  3222509480
-2.49513626 0.96158755 -9.14581680  1064708762
-9.01685810 -2.89173722 -2.49513626  3225572299
-2.49513626 0.96158755 -8.91920185  1064708761
-8.75545311 -3.60663700 -2.49513626  3229953817
-2.49513626 0.96158755 -8.43747044  1064708762
-8.36725712 -4.43336868 -2.49513626  3230803892
-2.49513626 0.96158755 -6.69537258  1064728075
-6.89291000 6.03201151 -2.49513626  1086157771
-2.49513626 0.96273869 -7.08332634  1064728075
-7.17579985 5.69256592 -2.49513626  1085436461
-2.49513626 0.96273869 -7.44197750  1064728075
-7.69083834 4.97477627 -2.49513626  1082572279
-2.49513626 0.96273863 -8.20100117  1064728075
-8.32793999 3.81349993 -2.49513626  1079069729
-2.49513626 0.96273869 -8.60734081  1064728074
-8.65660095 2.99345136 -2.49513626  1077323131
-2.49513626 0.96273869 -8.83111858  1064728075
-8.93807316 2.00206542 -2.49513626  1071339369
-2.49513626 0.96273869 -9.02422428  1064728075
-9.07000446 1.27767587 -2.49513626  1066457618
-2.49513626 0.96273863 -9.10639858  1064728075
-9.12106705 0.83877462 -2.49513626  1057720075
-2.49513626 0.96273869 -9.15090942  1064728074
-9.15612030 0.25071403 -2.49513626  1037293783
-2.49513626 0.96273869 -9.15755653  1064728075
-9.15330029 -0.33838260 -2.49513626  3203962935
-2.49513626 0.96273869 -9.11261463  1064728075
-9.05735207 -1.36447275 -2.49513626  3217114625
-2.49513626 0.96273869 -9.00879288  1064728074
-8.88376522 -2.23072004 -2.49513626  3223386557
-2.49513626 0.96273869 -8.76585007  1064728075
-8.35257721 -3.75923872 -2.49513626  3229165597
-2.49513626 0.96273869 -8.22736454  1064728075
-8.09364510 -4.28839302 -2.49513626  3230760070
-2.49513626 0.96273869 -6.38427591  1064746224
-6.48243332 6.05175686 -2.49513626  1085300325
-2.49513626 0.96382040 -7.03530884  1064746224
-7.20529747 5.17005682 -2.49513626  1083842880
-2.49513626 0.96382040 -7.59728193  1064746224
-7.66986799 4.45184422 -2.49513626  1082291433
-2.49513626 0.96382046 -7.94018030  1064746223
-8.00266361 3.82140017 -2.49513626  1080839493
-2.49513626 0.96382046 -8.12141609  1064746223
-8.23176193 3.29906416 -2.49513626  1078073072
-2.49513626 0.96382046 -8.51130295  1064746223
-8.55025768 2.35348296 -2.49513626  1074066074
-2.49513626 0.96382040 -8.65380573  1064746224
-8.68385887 1.79898453 -2.49513626  1069705191
-2.49513626 0.96382040 -8.80030251  1064746223
-8.81678009 0.95400345 -2.49513626  1057429275
-2.49513626 0.96382040 -8.85987568  1064746223
-8.86492538 0.24274051 -2.49513626  3203444793
-2.49513626 0.96382040 -8.84707069  1064746223
-8.83607674 -0.75463378 -2.49513626  3211102603
-2.49513626 0.96382046 -8.80724430  1064746223
-8.78940773 -1.17989123 -2.49513626  3216711768
-2.49513626 0.96382046 -8.72227669  1064746223
-8.66623688 -1.88205683 -2.49513626  3224764045
-2.49513626 0.96382046 -8.35314465  1064746224
-8.19979572 -3.37774467 -2.49513626  3228102791
-2.49513626 0.96382040 -8.02735996  1064746223
-7.76845217 -4.27748632 -2.49513626  3230456834
-2.49513626 0.96382046 -6.08987617  1064763310
-6.18659592 5.96462822 -2.49513626  1086040306
-2.49513626 0.96483886 -6.37520170  1064763310
-6.46704626 5.65933752 -2.49513626  1085390675
-2.49513626 0.96483886 -6.98218966  1064763310
-7.06185246 4.89704037 -2.49513626  1083772190
-2.49513626 0.96483886 -7.36203957  1064763310
-7.50078487 4.19392157 -2.49513626  1082283012
-2.49513626 0.96483886 -7.69431877  1064763310
-7.75486803 3.70307446 -2.49513626  1079298333
-2.49513626 0.96483886 -8.02725124  1064763310
-8.20787907 2.54587483 -2.49513626  1075476393
-2.49513626 0.96483886 -8.46667862  1064763310
-8.48925591 1.33542657 -2.49513626  1061778869
-2.49513626 0.96483886 -8.56909084  1064763310
-8.57841873 0.51135552 -2.49513626  1047584373
-2.49513626 0.96483886 -8.59177399  1064763310
-8.58777905 -0.31747618 -2.49513626  3206016532
-2.49513626 0.96483886 -8.54961014  1064763310
-8.51724911 -1.14335692 -2.49513626  3217473929
-2.49513626 0.96483886 -8.33489799  1064763310
-8.09450150 -2.88615012 -2.49513626  3226565470
-2.49513626 0.96483886 -7.83652830  1064763310
-7.77879810 -3.65254998 -2.49513626  3230170993
-2.49513626 0.96483886 -5.90611744  1064779423
-6.09216404 5.68741608 -2.49513626  1085462209
-2.49513626 0.96579927 -6.35935736  1064779423
-6.44516563 5.28403330 -2.49513626  1084604448
-2.49513626 0.96579927 -6.61175537  1064779423
-6.69249439 4.96705961 -2.49513626  1083931458
-2.49513626 0.96579927 -6.84876347  1064779423
-6.92424870 4.63853025 -2.49513626  1083234754
-2.49513626 0.96579927 -7.13989353  1064779423
-7.46214581 3.71181655 -2.49513626  1080416368
-2.49513626 0.96579927 -7.57764816  1064779423
-7.63246822 3.34762311 -2.49513626  1078357431
-2.49513626 0.96579927 -7.78503084  1064779423
-7.83187437 2.85007215 -2.49513626  1075709180
-2.49513626 0.96579927 -8.07002354  1064779423
-8.13281059 1.82169211 -2.49513626  1071147042
-2.49513626 0.96579927 -8.21120071  1064779423
-8.25285530 1.16256511 -2.49513626  1061380478
-2.49513626 0.96579927 -8.31051826  1064779423
-8.33380604 0.09412132 -2.49513626  3173217931
-2.49513626 0.96579927 -8.33252239  1064779423
-8.32262039 -0.44179261 -2.49513626  3207958075
-2.49513626 0.96579927 -8.29162979  1064779423
-8.26024342 -1.10885644 -2.49513626  3214863071
-2.49513626 0.96579927 -8.19715786  1064779422
-8.17188168 -1.63755167 -2.49513626  3220382348
-2.49513626 0.96579927 -8.04971027  1064779423
-7.89424706 -2.67246079 -2.49513626  3224576978
-2.49513626 0.96579927 -7.80422401  1064779423
-7.65408373 -3.29790545 -2.49513626  3227694501
-2.49513626 0.96579921 -7.48613453  1064779423
-7.42625666 -3.78310347 -2.49513626  3229655938
-2.49513626 0.96579927 -7.23516893  1064779423
-5.73228645 5.70731258 -2.49513626  1085516057
-2.49513626 0.96670640 -6.08730650  1064794642
-6.17218542 5.22844362 -2.49513626  1084497093
-2.49513626 0.96670640 -6.41715574  1064794642
-6.49551868 4.82086611 -2.49513626  1083631552
-2.49513626 0.96670640 -6.64718723  1064794642
-7.06034708 3.94765735 -2.49513626  1080463475
-2.49513626 0.96670640 -7.35461855  1064794642
-7.45911741 3.12954807 -2.49513626  1077974690
-2.49513626 0.96670640 -7.55589771  1064794642
-7.60136223 2.76618791 -2.49513626  1076441244
-2.49513626 0.96670640 -7.79898739  1064794642
-7.86398745 1.89478004 -2.49513626  1071796304
-2.49513626 0.96670640 -7.96952438  1064794642
-7.99077129 1.25701118 -2.49513626  1066429876
-2.49513626 0.96670640 -8.02706242  1064794642
-8.08139896 0.35141659 -2.49513626  1046657455
-2.49513626 0.96670640 -8.08852100  1064794642
-8.08894253 -0.03873339 -2.49513626  3190610789
-2.49513626 0.96670640 -8.07766342  1064794642
-8.05969715 -0.68832803 -2.49513626  3209780856
-2.49513626 0.96670640 -8.03339195  1064794642
-8.01712322 -1.07621980 -2.49513626  3214556537
-2.49513626 0.96670640 -7.93135834  1064794642
-7.90477657 -1.71669078 -2.49513626  3222676988
-2.49513626 0.96670640 -7.70261812  1064794642
-7.57452631 -2.83884668 -2.49513626  3225253213
-2.49513626 0.96670640 -7.47931862  1064794642
-7.37637472 -3.31988049 -2.49513626  3227257194
-2.49513626 0.96670640 -7.26579762  1064794642
-7.20768356 -3.67175722 -2.49513626  3229645721
-2.49513626 0.96670640 -5.65599585  1064809039
-5.91239357 5.17395973 -2.49513626  1084391605
-2.49513626 0.96756452 -6.07572269  1064809039
-6.38335657 4.58028603 -2.49513626  1082690606
-2.49513626 0.96756452 -6.66458321  1064809039
-6.79493332 3.94400239 -2.49513626  1081435128
-2.49513626 0.96756452 -6.91824818  1064809039
-6.97723007 3.61171770 -2.49513626  1080029290
-2.49513626 0.96756452 -7.14329147  1064809039
-7.19497061 3.15573359 -2.49513626  1078102323
-2.49513626 0.96756452 -7.29272938  1064809039
-7.33878469 2.80507684 -2.49513626  1076122640
-2.49513626 0.96756452 -7.46552706  1064809039
-7.57489300 2.08500981 -2.49513626  1069294544
-2.49513626 0.96756452 -7.76116419  1064809039
-7.77979374 1.09592617 -2.49513626  1062755699
-2.49513626 0.96756452 -7.82359552  1064809039
-7.85610533 0.08872578 -2.49513626  3190285281
-2.49513626 0.96756452 -7.84555769  1064809039
-7.81634665 -0.79434788 -2.49513626  3211493693
-2.49513626 0.96756452 -7.78675890  1064809039
-7.72728729 -1.41960537 -2.49513626  3217397629
-2.49513626 0.96756452 -7.67763948  1064809039
-7.64983177 -1.79061103 -2.49513626  3221885863
-2.49513626 0.96756446 -7.51890802  1064809039
-7.48129320 -2.39927602 -2.49513626  3223403462
-2.49513626 0.96756452 -7.26440859  1064809038
-7.21534729 -3.10886526 -2.49513626  3226842835
-2.49513626 0.96756446 -7.00057793  1064809039
-6.94232368 -3.67837119 -2.49513626  3229193469
-2.49513626 0.96756452 -5.49720287  1064822677
-5.66479349 5.12045622 -2.49513626  1084287773
-2.49513626 0.96837741 -5.98223734  1064822677
-6.05777931 4.64889956 -2.49513626  1083077702
-2.49513626 0.96837741 -6.47747421  1064822677
-6.60416222 3.83327651 -2.49513626  1080983628
-2.49513626 0.96837741 -6.72401667  1064822677
-6.78134251 3.51031971 -2.49513626  1079154286
-2.49513626 0.96837741 -6.94274139  1064822677
-7.04138851 2.95428777 -2.49513626  1077267858
-2.49513626 0.96837741 -7.13274956  1064822677
-7.17566681 2.61127615 -2.49513626  1075820281
-2.49513626 0.96837741 -7.32868576  1064822677
-7.39386129 1.90781641 -2.49513626  1071969044
-2.49513626 0.96837741 -7.45138693  1064822677
-7.47726488 1.54902172 -2.49513626  1068948394
-2.49513626 0.96837741 -7.52321196  1064822677
-7.54326820 1.18661487 -2.49513626  1064404035
-2.49513626 0.96837741 -7.63554287  1064822677
-7.62529516 -0.40477636 -2.49513626  3206961147
-2.49513626 0.96837741 -7.59690046  1064822677
-7.58350468 -0.89411324 -2.49513626  3212970654
-2.49513626 0.96837741 -7.55082941  1064822677
-7.53156042 -1.25879490 -2.49513626  3218042423
