# .PCD v0.7 - Point Cloud Data file format
VERSION 0.7
FIELDS x y z intensity
SIZE 4 4 4 4
TYPE F F F F
COUNT 1 1 1 1
WIDTH 1018
HEIGHT 1
VIEWPOINT 0 0 0 1 0 0 0
POINTS 1018
DATA ascii
-2.64753628 0.90646064 15.28741932  1063786326
14.31499386 18.98644447 -2.57914424  1100475628
-2.54920721 0.90977287 13.38732147  1063855672
12.98827839 19.07125473 -2.50275636  1100833988
-2.50275636 0.91134185 11.41789627  1063865779
10.10818481 20.74205208 -2.50275636  1101636288
-2.50275636 0.91134185 8.41314220  1063865779
7.36943293 21.86548996 -2.50275636  1102043376
-2.50275636 0.91134185 6.30863190  1063865779
2.22614861 -21.23085976 -2.49513626  3249113610
-2.49513626 0.91762149 2.90628982  1063971134
3.24528861 -21.09913063 -2.49513626  3248932784
-2.49513626 0.91762149 4.92598629  1063971134
5.58998299 -20.60235786 -2.49513626  3248755837
-2.49513626 0.91762149 6.24822664  1063971134
6.90003109 -20.20135498 -2.49513626  3248472476
-2.49513626 0.91762143 7.86421204  1063971134
8.18165588 -19.71714020 -2.49513626  3248269984
-2.49513626 0.91762149 9.12104321  1063971134
9.73569965 -18.99792862 -2.49513626  3247794147
-2.49513626 0.91762149 10.93430614  1063971134
11.22710514 -18.15646362 -2.49513626  3247328115
-2.49513626 0.91762149 12.36865044  1063971134
13.45923901 -16.56967545 -2.49513626  3246575612
-2.49513626 0.91762149 14.24105930  1063971134
14.98985481 -15.19899464 -2.49513626  3245297084
-2.49513626 0.91762149 15.46987057  1063971134
15.70392799 -14.46000671 -2.49513626  3243966474
-2.49513626 0.91762149 17.02133560  1063971134
17.22587967 -12.60849857 -2.49513626  3241950488
-2.49513626 0.91762149 17.99918365  1063971134
18.18104935 -11.18725586 -2.49513626  3241037332
-2.49513626 0.91762149 18.53068352  1063971134
18.69836426 -10.29933929 -2.49513626  3239457646
-2.49513626 0.91762149 19.46371841  1063971134
19.60190392 -8.45402527 -2.49513626  3238147799
-2.49513626 0.91762149 19.98603439  1063971134
20.10382652 -7.17923021 -2.49513626  3235602922
-2.49513626 0.91762149 20.52294159  1063971134
20.70089531 -5.21326780 -2.49513626  3230056617
-2.49513626 0.91762149 21.26793480  1063971134
8.93421364 -0.05354972 -1.04427850  1035473990
-1.04495370 0.96463639 9.06208992  1064750966
21.22666740 2.26578188 -2.49513626  1077708719
-2.49513626 0.91762149 21.09303093  1063971134
21.03760910 3.62273526 -2.49513626  1081962045
-2.49513626 0.91762149 20.91052437  1063971133
20.83889198 4.63095522 -2.49513626  1085545534
-2.49513626 0.91762149 20.49891281  1063971134
20.29716873 6.61288691 -2.49513626  1089642437
-2.49513626 0.91762149 19.83117867  1063971134
19.70182991 8.21845531 -2.49513626  1091973185
-2.64753628 0.91281569 20.30276108  1063890506
19.97001076 10.68979836 -2.64753628  1093674081
-2.64753628 0.91281569 19.61668587  1063890506
19.43243408 11.63845921 -2.64753628  1094659646
-2.64753628 0.91281569 19.04895020  1063890506
18.84982109 12.56014824 -2.64753628  1095616179
-2.64753628 0.91281569 18.43706894  1063890506
18.22354507 13.45271683 -2.64753628  1096541447
-2.64753628 0.91281569 17.78246498  1063890506
17.55503082 14.31412220 -2.64753628  1097722853
-2.64753628 0.91281569 16.60067368  1063890506
15.57794380 16.44386864 -2.64753628  1099398006
-2.64753628 0.91281569 14.49104309  1063890506
13.34446716 18.30296135 -2.64753628  1100226098
-2.64753628 0.91281569 12.75025654  1063890506
12.44819069 18.92394447 -2.64753628  1100467356
-2.60110068 0.91427732 11.21417427  1063928002
10.41082287 18.98455811 -2.53072834  1100688388
-2.50275636 0.91738057 7.16349983  1063967092
6.83876944 20.29098320 -2.50275636  1101213524
-2.50275636 0.91738057 6.18411732  1063967092
5.85435534 20.59658813 -2.50275636  1101365445
-2.50275636 0.91738057 2.07634330  1064059206
2.39384031 -19.76629257 -2.49513626  3248344443
-2.49513626 0.92287099 3.97045255  1064059206
4.28302622 -19.44460106 -2.49513626  3248159911
-2.49513626 0.92287099 5.21381664  1064059206
5.52150583 -19.12981224 -2.49513626  3247984475
-2.49513626 0.92287099 6.13252544  1064059206
6.43570662 -18.84193230 -2.49513626  3247767927
-2.49513626 0.92287099 7.33499861  1064059206
7.63109064 -18.39030647 -2.49513626  3247579063
-2.49513626 0.92287099 8.50725842  1064059206
9.36372948 -17.57149696 -2.49513626  3247052931
-2.49513626 0.92287099 10.47159672  1064059206
10.74199486 -16.76443863 -2.49513626  3246412718
-2.49513626 0.92287099 12.30390930  1064059206
12.55352306 -15.45463848 -2.49513626  3245606124
-2.49513626 0.92287099 13.51903915  1064059206
13.75190735 -14.39945412 -2.49513626  3244478903
-2.49513626 0.92287099 14.20683193  1064059206
14.42885113 -13.72024727 -2.49513626  3243000649
-2.49513626 0.92287099 15.87591171  1064059206
16.95758438 -10.43442440 -2.49513626  3239094951
-2.49513626 0.92287099 17.88217735  1064059206
18.15394211 -8.17748833 -2.49513626  3237144380
-2.49513626 0.92287099 18.52643776  1064059206
19.05148697 -5.78599215 -2.49513626  3232716878
-2.49513626 0.92287099 19.45395279  1064059206
19.58000755 -3.61390710 -2.49513626  3226674885
-2.49513626 0.92287099 19.68589211  1064059206
19.73123550 -2.66744328 -2.49513626  3221363490
-2.49513626 0.92287099 19.83674240  1064059206
8.95250320 -0.62935489 -1.12466168  1035172478
-1.09234512 0.96547067 8.73954391  1064772225
8.78114033 0.37033835 -1.10139740  1057207620
-1.10847604 0.96496981 19.85587311  1064059206
19.67361069 3.06364059 -2.49513626  1079525565
-2.49513626 0.92287099 19.50338173  1064059206
19.43657494 4.31932640 -2.49513626  1083453033
-2.49513626 0.92287099 19.28795815  1064059206
19.20618820 5.24968719 -2.49513626  1085396130
-2.49513626 0.92287099 19.02783966  1064059206
18.93129921 6.16788149 -2.49513626  1087312238
-2.49513626 0.92287099 18.72362900  1064059206
18.49666786 7.36954021 -2.49513626  1089817347
-2.49513626 0.92287099 18.25065804  1064059206
18.93652344 9.36759567 -2.64753628  1092270441
-2.64753628 0.91835767 17.94823074  1063983485
17.76708221 11.43129349 -2.64753628  1094708676
-2.64753628 0.91835767 17.19637108  1063983485
16.79368782 12.81856823 -2.64753628  1095852524
-2.64753628 0.91835767 15.93682575  1063983485
15.48355579 14.37368965 -2.64753628  1098693376
-2.64753628 0.91835767 13.77472305  1063983485
13.51589108 16.23774338 -2.64753628  1099144912
-2.64753628 0.91835767 12.98786259  1063983485
12.44646931 17.07128906 -2.64753628  1099869467
-2.64753628 0.91835767 11.03813744  1063983485
10.74764729 18.18877983 -2.64753628  1100231112
-2.64753628 0.91835767 9.85986137  1063983485
9.55875587 18.84074974 -2.64753628  1100461174
-2.62337279 0.91907179 8.50054359  1064004827
8.13862610 18.96790695 -2.58655453  1100465882
-2.55328465 0.92114633 6.73646307  1064045153
6.07405090 19.02545547 -2.50275636  1100550622
-2.50449109 0.92259336 5.15143490  1064055411
2.24260640 -18.51756477 -2.49513626  3247668504
-2.49513626 0.92748737 3.42582917  1064136654
4.30424404 -18.14946556 -2.49513626  3247306743
-2.49513626 0.92748743 6.02913237  1064136657
6.31161594 -17.55259895 -2.49513626  3247035389
-2.49513626 0.92748737 7.42453575  1064136657
8.50689888 -16.60009003 -2.49513626  3246633223
-2.49513626 0.92748737 9.03521347  1064136656
9.29590511 -16.17145157 -2.49513626  3246401890
-2.49513626 0.92748737 11.76046371  1064136656
11.99129200 -14.28772831 -2.49513626  3244392135
-2.49513626 0.92748743 12.44359970  1064136657
13.09788513 -13.28062630 -2.49513626  3243317628
-2.49513626 0.92748743 13.72182846  1064136657
14.12021732 -12.18806839 -2.49513626  3242154971
-2.49513626 0.92748731 14.50406075  1064136657
14.87297344 -11.25721931 -2.49513626  3240653933
-2.49513626 0.92748737 15.72738743  1064136657
16.04111481 -9.51904869 -2.49513626  3239050626
-2.49513626 0.92748743 17.24416161  1064136656
17.35605621 -6.83356810 -2.49513626  3234381086
-2.49513626 0.92748749 17.66478920  1064136657
17.75864029 -5.70616674 -2.49513626  3232593002
-2.49513626 0.92748749 18.08809471  1064136657
18.22495651 -3.97247982 -2.49513626  3228269877
-2.49513626 0.92748743 18.39503098  1064136655
18.48474121 -2.49893069 -2.49513626  3217924352
-2.49513626 0.92748731 8.56453323  1064782841
8.52292061 -0.05108453 -1.14010477  1034917702
-1.14074934 0.96617001 8.57408142  1064782124
8.89920712 0.66193330 -1.19370651  1071073534
-2.49513626 0.92748743 18.47442055  1064136657
18.43074226 2.87009907 -2.49513626  1078630215
-2.49513626 0.92748749 18.20867348  1064136657
18.14139557 4.33812475 -2.49513626  1083448883
-2.49513626 0.92748731 17.99286270  1064136655
17.64031792 6.06208181 -2.49513626  1088220519
-2.49513626 0.92748731 17.09767914  1064136657
17.29734039 9.61938667 -2.64753628  1092506827
-2.64753628 0.92323291 16.81435966  1064065276
16.64465141 10.70912933 -2.64753628  1093638393
-2.64753628 0.92323279 15.92344093  1064065275
15.73275280 12.00875950 -2.64753628  1094985638
-2.64753628 0.92323279 14.93003464  1064065275
14.71959686 13.23114872 -2.64753628  1096250195
-2.64753628 0.92323273 14.06583118  1064065275
13.84056759 14.14811897 -2.64753628  1097196770
-2.64753628 0.92323279 13.37944412  1064065275
12.66203022 15.21192932 -2.64753628  1098499145
-2.64753628 0.92323279 11.91530514  1064065276
11.40203667 16.17786980 -2.64753628  1099188372
-2.64753628 0.92323273 10.61027908  1064065276
10.06866360 17.03971481 -2.64753628  1099617555
-2.64753628 0.92323279 9.23696613  1064065276
8.95487976 17.65049362 -2.64753628  1099847128
-2.64753628 0.92323279 7.80423737  1064065275
7.51135254 18.31145668 -2.64753628  1100181483
-2.64753628 0.92323273 6.91988993  1064065275
6.62143803 18.65171432 -2.64753628  1100404274
-2.64753628 0.92323279 5.38667583  1064070921
5.05978203 18.95241737 -2.62399864  3247133130
-2.49513626 0.93157834 2.38825440  1064205291
2.94471121 -17.29325867 -2.49513626  3247015124
-2.49513626 0.93157834 4.32132387  1064205291
4.59359074 -16.93006325 -2.49513626  3246797062
-2.49513626 0.93157834 5.40301275  1064205291
5.67012739 -16.60053635 -2.49513626  3245847321
-2.49513626 0.93157834 8.98530769  1064205291
9.22591496 -14.92013836 -2.49513626  3244775300
-2.49513626 0.93157834 10.16398335  1064205291
10.84026241 -13.79191399 -2.49513626  3243891686
-2.49513626 0.93157834 11.91084099  1064205291
12.11596394 -12.68588066 -2.49513626  3242501650
-2.49513626 0.93157834 12.90475845  1064205291
13.09377766 -11.67395115 -2.49513626  3241180175
-2.49513626 0.93157834 13.81565762  1064205291
13.98734570 -10.58689594 -2.49513626  3240238877
-2.49513626 0.93157834 14.48061943  1064205291
14.63764572 -9.66786098 -2.49513626  3239503968
-2.49513626 0.93157834 14.94034386  1064205291
15.08594322 -8.95223331 -2.49513626  3237931563
-2.49513626 0.93157834 15.75495052  1064205291
16.21734238 -6.68774891 -2.49513626  3234152107
-2.49513626 0.93157834 16.61293602  1064205291
16.78515816 -5.09770298 -2.49513626  3231349883
-2.49513626 0.93157834 16.94010162  1064205291
17.01103783 -4.28402185 -2.49513626  3229636087
-2.49513626 0.93157834 17.13974953  1064205291
17.19749260 -3.46041918 -2.49513626  3226191552
-2.49513626 0.93157834 17.34409714  1064205291
17.38404655 -2.35012865 -2.49513626  3217121903
-2.49513626 0.93157834 8.44683743  1064789374
17.47072411 1.58176494 -2.49513626  1072583477
-2.49513626 0.93157834 17.37435913  1064205291
17.33327675 2.69919586 -2.49513626  1081314661
-2.49513626 0.93157834 17.06116295  1064205291
16.99349976 4.35305882 -2.49513626  1083441554
-2.49513626 0.93157834 16.76432419  1064205291
16.49630165 5.96659040 -2.49513626  1087358364
-2.49513626 0.93157834 16.07959557  1064205291
15.72349548 7.77816248 -2.49513626  1090549951
-2.49513626 0.93157834 16.26735497  1064137779
15.96866989 9.56394768 -2.64753628  1092426359
-2.64753628 0.92755431 15.48991203  1064137779
15.32228947 10.56858253 -2.64753628  1093722250
-2.64753628 0.92755431 14.61281109  1064137779
14.42591000 11.76268196 -2.64753628  1094705651
-2.64753628 0.92755431 13.84311962  1064137779
13.43669510 12.88110161 -2.64753628  1095861597
-2.64753628 0.92755431 13.01641941  1064137779
12.36102390 13.91663265 -2.64753628  1096929195
-2.64753628 0.92755431 11.67696095  1064137779
10.72309875 15.21455574 -2.64753628  1098262425
-2.64753628 0.92755431 10.22934628  1064137779
9.97848892 15.71296501 -2.64753628  1098772449
-2.64753628 0.92755431 9.46912956  1064137779
8.95000458 16.32069206 -2.64753628  1099149980
-2.64753628 0.92755431 8.15421104  1064137779
7.88465643 16.86118889 -2.64753628  1099424358
-2.64753628 0.92755431 7.33952188  1064137779
7.06408501 17.22109795 -2.64753628  1099662051
-2.64753628 0.92755431 5.08913755  1064137779
4.80118418 17.98377609 -2.64753628  3246634507
-2.49513626 0.93522835 1.99028373  1064266529
2.25373840 -16.40000916 -2.49513626  3246580950
-2.49513626 0.93522835 3.81995273  1064266529
4.33486319 -15.97650242 -2.49513626  3246128503
-2.49513626 0.93522841 5.60146093  1064266528
5.85070610 -15.48576736 -2.49513626  3245425111
-2.49513626 0.93522835 7.07309437  1064266528
7.31236029 -14.85157108 -2.49513626  3244663159
-2.49513626 0.93522835 8.47922325  1064266529
8.70627785 -14.07978630 -2.49513626  3244229413
-2.49513626 0.93522835 9.15361309  1064266528
9.37376976 -13.64449215 -2.49513626  3243431776
-2.49513626 0.93522841 10.22970104  1064266529
10.43723392 -12.84927464 -2.49513626  3242729382
-2.49513626 0.93522841 11.04350948  1064266528
11.23997784 -12.15329456 -2.49513626  3242166967
-2.49513626 0.93522841 11.62417793  1064266528
11.99641228 -11.40727139 -2.49513626  3240956246
-2.49513626 0.93522835 12.87213802  1064266528
13.03750992 -10.20112991 -2.49513626  3239640452
-2.49513626 0.93522835 13.66502190  1064266528
13.95782185 -8.90050507 -2.49513626  3238710871
-2.49513626 0.93522835 14.36998463  1064266528
14.74884129 -7.51740885 -2.49513626  3236492244
-2.49513626 0.93522835 15.09352398  1064266528
15.40322495 -6.06468439 -2.49513626  3233424033
-2.49513626 0.93522835 15.58990669  1064266528
15.67723751 -5.31638861 -2.49513626  3231845739
-2.49513626 0.93522835 15.91491795  1064266528
16.22886848 -3.26551843 -2.49513626  3225439370
-2.49513626 0.93522835 16.32530022  1064266528
16.36721611 -2.48072648 -2.49513626  3220841528
-2.49513626 0.93522835 16.46763420  1064266528
16.49263573 -1.42572200 -2.49513626  3205909197
-1.26183593 0.96670181 8.30663300  1064798037
8.26974964 -0.31513509 -1.24736905  3191487104
-1.24375594 0.96717101 8.23587227  1064803472
8.23942089 0.08284164 -1.24195588  1051903991
-1.24904132 0.96703380 16.15992737  1064266529
15.96838379 4.36468601 -2.49513626  1083965136
-2.49513626 0.93522835 15.73983479  1064266528
15.65551853 5.38000727 -2.49513626  1086591437
-2.49513626 0.93522841 15.27817440  1064266528
15.06578922 6.86015368 -2.49513626  1088633755
-2.49513626 0.93522835 14.83789349  1064266528
14.71819687 7.57723141 -2.49513626  1090566895
-2.49513626 0.93522835 14.33648682  1064266529
14.92249107 9.26592159 -2.64753628  1092096299
-2.64753628 0.93141103 14.61746407  1064202484
14.29738331 10.20406342 -2.64753628  1093305732
-2.64753628 0.93141103 13.61339092  1064202483
13.43351555 11.31719303 -2.64753628  1094221880
-2.64753628 0.93141103 13.06342697  1064202483
12.87331676 11.95055866 -2.64753628  1094876495
-2.64753628 0.93141103 12.48320293  1064202484
12.28328800 12.55623245 -2.64753628  1095501578
-2.64753628 0.93141103 11.45255947  1064202484
10.11913776 14.35761929 -2.64753628  1097353816
-2.64753628 0.93141103 9.65319347  1064202483
9.17731380 14.97715187 -2.64753628  1097987512
-2.64753628 0.93141103 8.69197273  1064202483
8.44590759 15.40145206 -2.64753628  1098420061
-2.64753628 0.93141097 7.94732428  1064202483
7.69494057 15.79006100 -2.64753628  1098814854
-2.64753628 0.93141103 6.66621208  1064202483
6.40457821 16.35602379 -2.64753628  1099292038
-2.64753628 0.93141103 4.53076172  1064202483
1.63404465 -15.58394337 -2.49513626  3245925431
-2.49513626 0.93850493 2.13328433  1064321500
2.38211751 -15.48725224 -2.49513626  3245714615
-2.49513626 0.93850493 3.85998130  1064321500
4.10317850 -15.12261105 -2.49513626  3245162640
-2.49513626 0.93850493 5.30208111  1064321500
5.77251387 -14.56734085 -2.49513626  3244789952
-2.49513626 0.93850493 6.69505882  1064321500
6.92153740 -14.05780029 -2.49513626  3244236391
-2.49513626 0.93850493 7.36908388  1064321500
7.59004068 -13.70841599 -2.49513626  3243858832
-2.49513626 0.93850493 8.87277031  1064321500
9.07887745 -12.77119350 -2.49513626  3242851164
-2.49513626 0.93850493 9.48401928  1064321500
10.45326900 -11.67298603 -2.49513626  3241676624
-2.49513626 0.93850493 10.82246590  1064321500
11.18052006 -10.97840405 -2.49513626  3239945379
-2.49513626 0.93850493 12.64419556  1064321500
13.07493019 -8.63571739 -2.49513626  3238448122
-2.49513626 0.93850493 13.72503471  1064321500
13.84458065 -7.33873415 -2.49513626  3235200825
-2.49513626 0.93850493 14.28682327  1064321500
14.38825321 -6.20545053 -2.49513626  3233753365
-2.49513626 0.93850493 14.67021370  1064321500
14.75667572 -5.26972198 -2.49513626  3231778853
-2.49513626 0.93850493 14.99317551  1064321500
15.06431484 -4.31229067 -2.49513626  3228887037
-2.49513626 0.93850493 15.25438976  1064321500
15.30991077 -3.33708882 -2.49513626  3225801395
-2.49513626 0.93850493 15.45276737  1064321500
15.52812672 -2.09922957 -2.49513626  3217868856
-2.49513626 0.93850493 8.18384647  1064805415
8.14665794 -0.31044441 -1.29818642  1034364889
-1.29271758 0.96765274 8.24173069  1064800903
15.55217171 1.91294825 -2.49513626  1074422428
-2.49513626 0.93850493 15.44209290  1064321500
15.34880924 3.15332961 -2.49513626  1079610603
-2.49513626 0.93850493 15.17927361  1064321500
15.04667854 4.37342072 -2.49513626  1083418734
-2.49513626 0.93850493 14.81877995  1064321500
14.55654240 5.79969549 -2.49513626  1086392970
-2.49513626 0.93850493 14.26057434  1064321500
14.15453815 6.72149849 -2.49513626  1089250030
-2.49513626 0.93850493 13.69422054  1064321500
13.57024860 7.83439493 -2.49513626  1090572669
-2.49513626 0.93850493 13.31185627  1064321500
13.17750454 8.47837257 -2.49513626  1092029283
-2.64753628 0.93487382 13.53323746  1064260580
13.21632862 10.08797932 -2.64753628  1092929469
-2.64753628 0.93487388 12.71553421  1064260580
12.00219250 11.50591278 -2.64753628  1094592905
-2.64753628 0.93487388 11.43457031  1064260581
11.23941898 12.25210762 -2.64753628  1095165166
-2.64753628 0.93487388 10.84045601  1064260581
10.63675976 12.77880859 -2.64753628  1095707239
-2.64753628 0.93487388 10.22121334  1064260581
10.00947285 13.27588940 -2.64753628  1096217838
-2.64753628 0.93487388 9.57830143  1064260580
9.13726139 13.89061642 -2.64753628  1096995744
-2.64753628 0.93487388 8.45820522  1064260581
7.99450254 14.57829571 -2.64753628  1097549435
-2.64753628 0.93487382 7.52256584  1064260581
7.04289007 15.06108761 -2.64753628  1098151978
-2.64753628 0.93487388 6.06227398  1064260581
5.81306458 15.57713318 -2.64753628  1098559947
-2.64753628 0.93487388 5.05669117  1064260580
4.54582167 15.99293995 -2.64753628  3245123879
-2.49513626 0.94146234 2.49654675  1064371117
3.19921708 -14.52421474 -2.49513626  3244728331
-2.49513626 0.94146234 4.12430811  1064371117
4.35306644 -14.22106457 -2.49513626  3244450780
-2.49513626 0.94146234 5.70006943  1064371117
6.56948757 -13.34277916 -2.49513626  3243376737
-2.49513626 0.94146234 7.82179499  1064371117
8.22368336 -12.39189053 -2.49513626  3242324514
-2.49513626 0.94146234 8.81050014  1064371117
9.19045162 -11.69288063 -2.49513626  3241396980
-2.49513626 0.94146234 9.92158508  1064371117
10.09809494 -10.91862488 -2.49513626  3240717414
-2.49513626 0.94146234 10.77767467  1064371117
10.94073963 -10.07411385 -2.49513626  3239992109
-2.49513626 0.94146234 11.25839233  1064371117
11.41288567 -9.53592873 -2.49513626  3239224049
-2.49513626 0.94146234 12.14048767  1064371117
12.27677345 -8.39456558 -2.49513626  3238208713
-2.49513626 0.94146234 13.02692604  1064371117
13.25048447 -6.75370550 -2.49513626  3234035307
-2.49513626 0.94146234 13.83838940  1064371117
13.92403984 -5.22579718 -2.49513626  3231714766
-2.49513626 0.94146234 14.15939522  1064371117
14.36193657 -3.86298633 -2.49513626  3227098023
-2.49513626 0.94146234 14.73831844  1064371117
8.02398682 -0.43481326 -1.34815705  1034122352
-1.33183420 0.96831518 8.03561306  1064814336
8.34116173 0.75519222 -1.40511811  1073961141
-2.49513626 0.94146234 14.61426353  1064371117
14.56812096 2.99293971 -2.49513626  1082926534
-2.49513626 0.94146234 14.14080143  1064371117
13.98568058 5.05851746 -2.49513626  1084819589
-2.49513626 0.94146234 13.81615353  1064371117
13.63239384 5.94522524 -2.49513626  1087120861
-2.49513626 0.94146234 13.33049202  1064371117
12.88002491 7.43591166 -2.49513626  1089767503
-2.49513626 0.94146234 12.63476753  1064371118
12.50725269 8.04713726 -2.49513626  1090984971
-2.49513626 0.94146246 12.84489250  1064313029
12.69613361 9.37235451 -2.64753628  1092170411
-2.64753628 0.93800008 12.38884163  1064313029
11.90406990 10.35982323 -2.64753628  1093192398
-2.64753628 0.93800002 11.56549740  1064313029
11.21501827 11.10207939 -2.64753628  1093959027
-2.64753628 0.93800002 10.09574318  1064313029
9.50035954 12.60063648 -2.64753628  1095501312
-2.64753628 0.93800002 8.88296032  1064313029
8.67251301 13.18409634 -2.64753628  1096099108
-2.64753628 0.93800002 8.24497890  1064313029
7.80894279 13.71325207 -2.64753628  1096765177
-2.64753628 0.93800002 7.13994741  1064313029
6.45442057 14.40046024 -2.64753628  1097337071
-2.64753628 0.93800002 5.04007196  1064313030
4.79949427 15.03321838 -2.64753628  1097972623
-2.64753628 0.93800008 4.07047367  1064313029
1.47566557 -14.07347107 -2.49513626  3244313935
-2.49513626 0.94414485 2.37538719  1064416122
2.59893394 -13.90991592 -2.49513626  3244154077
-2.49513626 0.94414485 3.04395866  1064416122
3.70547843 -13.65685272 -2.49513626  3243730753
-2.49513626 0.94414485 5.00123358  1064416122
5.42344189 -13.07006168 -2.49513626  3243129486
-2.49513626 0.94414485 6.04614162  1064416122
6.45358181 -12.59331226 -2.49513626  3242708834
-2.49513626 0.94414485 6.85437870  1064416122
7.44220209 -12.03552628 -2.49513626  3242107394
-2.49513626 0.94414485 8.01277828  1064416122
8.19890690 -11.53334904 -2.49513626  3241568149
-2.49513626 0.94414490 8.56478214  1064416122
8.74443722 -11.12542343 -2.49513626  3241131296
-2.49513626 0.94414485 9.09694576  1064416122
9.44008732 -10.54158306 -2.49513626  3240507467
-2.49513626 0.94414485 9.93644810  1064416122
10.25463867 -9.75103283 -2.49513626  3239664909
-2.49513626 0.94414485 10.56226444  1064416122
10.85901737 -9.07314777 -2.49513626  3238944022
-2.49513626 0.94414485 11.28307056  1064416122
11.41866016 -8.35789871 -2.49513626  3237975796
-2.49513626 0.94414485 11.93126678  1064416122
12.39473629 -6.82720852 -2.49513626  3235124194
-2.49513626 0.94414485 12.60743713  1064416122
13.24830627 -4.97218943 -2.49513626  3230755972
-2.49513626 0.94414485 13.60421085  1064416122
13.66494942 -3.67551589 -2.49513626  3226405925
-2.49513626 0.94414485 13.87257767  1064416122
13.91558552 -2.56841874 -2.49513626  3222671606
-2.49513626 0.94414485 13.99083710  1064416122
14.02306652 -1.89576197 -2.49513626  3218461367
-2.49513626 0.94414485 8.11829090  1064807027
7.90113926 -0.55544513 -1.39662170  3197622453
-1.37329590 0.96886110 7.77073765  1064831780
7.85247231 0.45750490 -1.38695002  1061026619
-1.45121348 0.96712375 14.07069397  1064416122
14.04478073 1.72753644 -2.49513626  1077297316
-2.49513626 0.94414485 13.76260757  1064416122
13.64991283 3.73096538 -2.49513626  1082934771
-2.49513626 0.94414485 13.22800636  1064416122
13.14565277 5.23756266 -2.49513626  1085166758
-2.49513626 0.94414485 12.97080994  1064416122
12.87837029 5.86411667 -2.49513626  1086471570
-2.49513626 0.94414485 12.58124256  1064416122
12.47568417 6.67814016 -2.49513626  1088164939
-2.49513626 0.94414485 12.02161026  1064416122
11.77587509 7.84658861 -2.49513626  1090555260
-2.49513626 0.94414485 11.51801968  1064416122
11.38461494 8.40419292 -2.49513626  1092274392
-2.64753628 0.94083619 11.32636452  1064360612
11.16672802 10.03754330 -2.64753628  1093384983
-2.64753628 0.94083619 9.97118092  1064360612
9.23052406 11.84253120 -2.64753628  1094701936
-2.64753628 0.94083619 8.84575558  1064360612
8.45186901 12.41023922 -2.64753628  1095421203
-2.64753628 0.94083619 7.84484959  1064360612
7.63839483 12.92683411 -2.64753628  1095935234
-2.64753628 0.94083625 7.00744390  1064360612
6.14117765 13.70160866 -2.64753628  1096790859
-2.64753628 0.94083619 5.24963188  1064360612
1.40717483 -13.42027569 -2.49513626  3243660772
-2.49513626 0.94658887 1.83710003  1064457126
2.47830987 -13.26430893 -2.49513626  3243479228
-2.49513626 0.94658887 2.90267777  1064457127
3.11377335 -13.12967491 -2.49513626  3243269679
-2.49513626 0.94658887 3.94958115  1064457126
4.36158991 -12.76951313 -2.49513626  3242928770
-2.49513626 0.94658887 4.97106075  1064457127
5.17172527 -12.46343517 -2.49513626  3242101063
-2.49513626 0.94658887 6.53624392  1064457126
6.72483873 -11.69874001 -2.49513626  3241648499
-2.49513626 0.94658887 7.46142197  1064457126
7.81836796 -10.99804878 -2.49513626  3240877357
-2.49513626 0.94658887 8.33857822  1064457126
8.50774670 -10.47388363 -2.49513626  3240304813
-2.49513626 0.94658887 9.16209126  1064457126
9.31987953 -9.75827026 -2.49513626  3239527492
-2.49513626 0.94658893 9.92663860  1064457126
10.07203484 -8.97987270 -2.49513626  3238859463
-2.49513626 0.94658893 10.49252033  1064457126
10.62732124 -8.31528759 -2.49513626  3238153350
-2.49513626 0.94658887 10.88868141  1064457126
11.01517296 -7.79422569 -2.49513626  3236440527
-2.49513626 0.94658893 11.49245453  1064457126
11.71346283 -6.69915962 -2.49513626  3234076181
-2.49513626 0.94658887 12.11906624  1064457126
12.39059448 -5.34388781 -2.49513626  3232013995
-2.49513626 0.94658893 12.63340664  1064457126
12.77905083 -4.33356953 -2.49513626  3229283856
-2.49513626 0.94658887 12.97279358  1064457126
13.08528137 -3.29536724 -2.49513626  3225776139
-2.49513626 0.94658887 13.22870731  1064457126
13.26971531 -2.44921017 -2.49513626  3222215142
-2.49513626 0.94658887 13.34147453  1064457126
13.37220669 -1.80777335 -2.49513626  3217810971
-2.49513626 0.94658887 7.95178986  1064817258
7.76439190 -0.54583192 -1.43925035  3197472634
-1.41845620 0.96927726 7.65241146  1064838887
7.64257908 0.07684079 -1.41325438  1055271710
-1.42915952 0.96904910 8.01308155  1064813003
13.41762829 1.43222702 -2.49513626  1074958054
-2.49513626 0.94658887 13.21778870  1064457126
13.17250919 2.92727995 -2.49513626  1079397729
-2.49513626 0.94658887 12.83007622  1064457126
12.68933201 4.58963823 -2.49513626  1083792786
-2.49513626 0.94658887 12.53552055  1064457126
12.36879444 5.39415932 -2.49513626  1085468983
-2.49513626 0.94658887 12.09487534  1064457126
11.89664650 6.36818552 -2.49513626  1087495517
-2.49513626 0.94658887 11.68616199  1064457127
10.98342991 7.83888912 -2.49513626  1090533853
-2.49513626 0.94658887 10.72623158  1064457126
10.59346867 8.35836792 -2.49513626  1091803577
-2.64753628 0.94342065 10.80067158  1064403972
10.64844608 9.57166576 -2.64753628  1092344931
-2.64753628 0.94342065 10.17548466  1064403972
10.01252651 10.23501396 -2.64753628  1093029711
-2.64753628 0.94342065 9.33537292  1064403972
8.98218918 11.15018082 -2.64753628  1093971874
-2.64753628 0.94342065 8.61986828  1064403968
8.05958462 11.83424282 -2.64753628  1094673551
-2.64753628 0.94342065 6.47813654  1064403972
6.27240753 12.87101936 -2.64753628  1095730479
-2.64753628 0.94342065 5.64573526  1064403972
5.00598001 13.41440773 -2.64753628  1096432773
-2.64753628 0.94342065 3.91468334  1064403972
3.69318414 13.83353233 -2.64753628  3243008079
-2.49513626 0.94882482 2.36805916  1064494639
2.77355552 -12.59171963 -2.49513626  3242769089
-2.49513626 0.94882482 3.37630582  1064494639
3.77387738 -12.32890606 -2.49513626  3242408224
-2.49513626 0.94882482 4.36282253  1064494639
4.55695343 -12.06143570 -2.49513626  3242183106
-2.49513626 0.94882482 4.94165468  1064494639
5.13212109 -11.82816219 -2.49513626  3241928853
-2.49513626 0.94882482 5.50903797  1064494639
6.06365967 -11.37875843 -2.49513626  3241442004
-2.49513626 0.94882482 6.42567921  1064494639
6.78107595 -10.96635342 -2.49513626  3240997560
-2.49513626 0.94882482 7.30097103  1064494639
7.47056389 -10.50879383 -2.49513626  3240506230
-2.49513626 0.94882482 7.80393648  1064494639
7.96763182 -10.13710690 -2.49513626  3240108171
-2.49513626 0.94882482 8.44624043  1064494639
8.60148525 -9.60513020 -2.49513626  3239240080
-2.49513626 0.94882482 9.19990540  1064494639
10.02575397 -8.10730076 -2.49513626  3237888129
-2.49513626 0.94882482 10.28074932  1064494639
10.40429020 -7.61543036 -2.49513626  3235763668
-2.49513626 0.94882482 11.29366016  1064494639
11.66943932 -5.48345375 -2.49513626  3232330916
-2.49513626 0.94882482 11.83939075  1064494639
11.99714661 -4.72361517 -2.49513626  3230726594
-2.49513626 0.94882482 12.27543926  1064494639
12.33714676 -3.74682856 -2.49513626  3227719819
-2.49513626 0.94882482 12.45103455  1064494639
12.50316620 -3.14876819 -2.49513626  3224354118
-2.49513626 0.94882482 12.67940426  1064494639
12.74797249 -1.93216920 -2.49513626  3207421037
-1.52161467 0.96847254 7.64769745  1064838158
7.63795042 0.19940832 -1.47858369  1051017819
-1.48236489 0.96927315 7.69327641  1064834642
7.75523901 0.57684362 -1.50492334  1068444530
-2.49513626 0.94882482 12.79712391  1064494639
12.77021790 1.77922404 -2.49513626  1074530772
-2.49513626 0.94882482 12.62978745  1064494639
12.58652210 2.79705811 -2.49513626  1077930555
-2.49513626 0.94882482 12.49028206  1064494639
12.43733120 3.39953089 -2.49513626  1080447137
-2.49513626 0.94882482 12.32183933  1064494639
12.25931644 3.99412584 -2.49513626  1082529600
-2.49513626 0.94882482 12.12484074  1064494639
12.05290413 4.57946491 -2.49513626  1084947283
-2.49513626 0.94882482 11.55682468  1064494639
11.16629601 6.44654083 -2.49513626  1087635233
-2.49513626 0.94882482 10.61366272  1064494639
10.24906921 7.82308197 -2.49513626  1090490814
-2.49513626 0.94882482 10.02667046  1064443645
9.87602043 9.46765518 -2.64753628  1092222885
-2.64753628 0.94578534 9.56711292  1064443645
9.40894890 9.93196297 -2.64753628  1092701814
-2.64753628 0.94578534 9.08539772  1064443645
8.92008305 10.37325382 -2.64753628  1093302127
-2.64753628 0.94578534 8.05994892  1064443645
7.88151217 11.18274975 -2.64753628  1093987502
-2.64753628 0.94578534 7.51860809  1064443645
7.33422327 11.54908752 -2.64753628  1094481076
-2.64753628 0.94578534 6.57828426  1064443645
5.99337769 12.29844379 -2.64753628  1095125465
-2.64753628 0.94578540 5.59563160  1064443645
5.39457703 12.57262325 -2.64753628  1095402855
-2.64753628 0.94578534 4.98834848  1064443645
4.78328800 12.81766129 -2.64753628  1095796524
-2.64753628 0.94578534 3.95122600  1064443645
3.52888846 13.21814060 -2.64753628  3242462485
-2.49513626 0.95087790 1.87638927  1064529084
2.65505910 -12.05377865 -2.49513626  3242207078
-2.49513626 0.95087790 3.23206234  1064529084
3.98951793 -11.68018150 -2.49513626  3241792932
-2.49513626 0.95087790 4.54699421  1064529084
5.09392977 -11.24254513 -2.49513626  3241035836
-2.49513626 0.95087790 6.15116072  1064529084
6.49137926 -10.49785137 -2.49513626  3240511232
-2.49513626 0.95087790 6.98905849  1064529084
7.47053862 -9.82517052 -2.49513626  3239789490
-2.49513626 0.95087790 7.93471193  1064529084
8.23401260 -9.19477844 -2.49513626  3238973479
-2.49513626 0.95087790 8.66695499  1064529084
8.80686474 -8.64765930 -2.49513626  3238532459
-2.49513626 0.95087790 9.21281910  1064529084
9.34344006 -8.06492615 -2.49513626  3236847091
-2.49513626 0.95087790 10.07549953  1064529084
10.29908562 -6.80233526 -2.49513626  3235142574
-2.49513626 0.95087790 10.61451054  1064529084
10.81117249 -5.95495510 -2.49513626  3233348481
-2.49513626 0.95087790 10.99669552  1064529084
11.41056633 -4.70551872 -2.49513626  3230708399
-2.49513626 0.95087790 11.55568790  1064529084
11.62379265 -4.15094519 -2.49513626  3227880816
-2.49513626 0.95087790 11.86612320  1064529084
11.91910267 -3.20592761 -2.49513626  3224672327
-2.49513626 0.95087790 12.05957508  1064529084
12.10020161 -2.43476033 -2.49513626  3221415107
-2.49513626 0.95087790 12.20335197  1064529084
7.79753590 -0.67406547 -1.58218503  3205149955
-1.56192780 0.96896112 7.62988567  1064838507
7.61690044 -0.16791220 -1.54016352  3174745271
-1.53791964 0.96943080 7.60926867  1064840217
7.62019014 0.19894463 -1.54097986  1055183378
-1.55329835 0.96912992 12.27300644  1064529084
12.19574165 1.89915955 -2.49513626  1082545896
-2.49513626 0.95087790 11.46614742  1064529084
11.39136219 4.75180578 -2.49513626  1084845204
-2.49513626 0.95087790 11.06309319  1064529084
10.97384834 5.64956427 -2.49513626  1086683622
-2.49513626 0.95087790 10.58884621  1064529084
10.48571587 6.51096487 -2.49513626  1088438752
-2.49513626 0.95087790 10.04646397  1064529084
9.93011475 7.33046484 -2.49513626  1089775266
-2.49513626 0.95087790 9.31061363  1064529084
8.85326385 9.65095234 -2.64753628  1093095790
-2.64753628 0.94795698 7.02089405  1064480079
6.66250706 11.27528667 -2.64753628  1094064011
-2.64753628 0.94795698 6.29724979  1064480079
6.11216307 11.58285618 -2.64753628  1094377218
-2.64753628 0.94795704 5.73732853  1064480079
5.54766655 11.86357880 -2.64753628  1094662043
-2.64753628 0.94795698 5.16410923  1064480079
4.97031116 12.11680984 -2.64753628  1094996526
-2.64753628 0.94795698 4.38145018  1064480079
3.98314261 12.47620487 -2.64753628  1095278018
-2.64753628 0.94795698 1.42295563  1064560820
1.61131346 -11.72520161 -2.49513626  3241813296
-2.49513626 0.95276952 2.36013031  1064560820
2.54593229 -11.55833244 -2.49513626  3241689470
-2.49513626 0.95276952 3.46416354  1064560820
3.64532042 -11.26003838 -2.49513626  3241358228
-2.49513626 0.95276952 4.00477171  1064560820
4.53610086 -10.93163395 -2.49513626  3240748015
-2.49513626 0.95276952 6.06223059  1064560820
6.22458410 -10.06695366 -2.49513626  3239843091
-2.49513626 0.95276952 7.01137257  1064560820
7.16347742 -9.42132568 -2.49513626  3239371252
-2.49513626 0.95276952 7.60857153  1064560820
7.89557028 -8.81684685 -2.49513626  3238588781
-2.49513626 0.95276952 8.44487858  1064560820
8.95939827 -7.73343658 -2.49513626  3236832361
-2.49513626 0.95276952 9.32118416  1064560820
9.55042362 -6.99044132 -2.49513626  3235235229
-2.49513626 0.95276952 10.07999134  1064560820
10.17822361 -6.03991699 -2.49513626  3233547934
-2.49513626 0.95276952 10.36680317  1064560820
10.62959099 -5.20467663 -2.49513626  3231055047
-2.49513626 0.95276952 10.94155884  1064560820
11.01255512 -4.33595228 -2.49513626  3228022807
-2.49513626 0.95276952 11.42919064  1064560820
11.47705173 -2.89035463 -2.49513626  3223408909
-2.49513626 0.95276952 11.60284805  1064560820
11.63881779 -2.14819336 -2.49513626  3217749159
-2.49513626 0.95276952 11.75264740  1064560820
7.76158810 -0.67095792 -1.64239788  3201558562
-1.61253917 0.96921569 7.61209774  1064838820
7.59414959 0.07635379 -1.60107672  1070664929
-2.49513626 0.95276952 11.69445992  1064560820
11.59327412 2.38177466 -2.49513626  1076122117
-2.49513626 0.95276952 11.51087284  1064560820
11.36507130 3.30333638 -2.49513626  1079971549
-2.49513626 0.95276952 11.25321388  1064560820
10.99485779 4.38063002 -2.49513626  1083663862
-2.49513626 0.95276952 10.69121170  1064560820
10.43450451 5.58551264 -2.49513626  1085805138
-2.49513626 0.95276952 10.05472374  1064560820
9.95323372 6.40388680 -2.49513626  1087834665
-2.49513626 0.95276952 9.52195740  1064560820
9.29149342 7.33109617 -2.49513626  1090036172
-2.49513626 0.95276952 8.67399597  1064560820
8.27643490 8.46034431 -2.49513626  1091975838
-2.64753628 0.94995815 8.03416634  1064513653
7.39847898 10.14758015 -2.64753628  1092894061
-2.64753628 0.94995815 6.56133413  1064513653
6.03840876 11.01127625 -2.64753628  1093967933
-2.64753628 0.94995815 5.31963873  1064513653
5.13640308 11.45984936 -2.64753628  1094392226
-2.64753628 0.94995815 4.20135880  1064513653
4.01090670 11.90056705 -2.64753628  1094674962
-2.64753628 0.94995815 3.62695575  1064513653
3.43355298 12.07979965 -2.64753628  3241446315
-2.49513626 0.95451802 1.90804327  1064590155
2.08760619 -11.17320156 -2.49513626  3241293394
-2.49513626 0.95451802 2.80002713  1064590155
3.15209413 -10.92075157 -2.49513626  3241010804
-2.49513626 0.95451802 3.50091147  1064590155
3.84612489 -10.69606590 -2.49513626  3240763558
-2.49513626 0.95451802 4.18737602  1064590155
4.69105721 -10.35338116 -2.49513626  3239649387
-2.49513626 0.95451802 6.28513479  1064590155
6.58580780 -9.26421261 -2.49513626  3239216239
-2.49513626 0.95451802 7.02400684  1064590155
7.71769524 -8.34480190 -2.49513626  3238100052
-2.49513626 0.95451802 8.36170387  1064590155
8.60447788 -7.42707825 -2.49513626  3236509611
-2.49513626 0.95451802 9.06317139  1064590155
9.38279057 -6.41572905 -2.49513626  3234362743
-2.49513626 0.95451802 9.68067741  1064590155
9.77501774 -5.80064917 -2.49513626  3233059786
-2.49513626 0.95451802 9.95612049  1064590155
10.12697983 -5.16166735 -2.49513626  3231708077
-2.49513626 0.95451802 10.28740215  1064590155
10.36364555 -4.66833067 -2.49513626  3230313194
-2.49513626 0.95451802 10.64175987  1064590155
10.76444435 -3.65038514 -2.49513626  3227421213
-2.49513626 0.95451802 10.92763996  1064590155
10.97643089 -2.95237327 -2.49513626  3223736263
-2.49513626 0.95451802 11.14320755  1064590155
11.23819351 -1.70333695 -2.49513626  3215704347
-2.49513626 0.95451802 8.04937077  1064806375
7.61717892 -0.41276857 -1.67454314  3190502366
-1.66524291 0.96941113 7.57903671  1064840458
7.58586407 0.19804849 -1.66578341  1060351123
-1.70864844 0.96862650 8.21263027  1064795237
11.28153133 1.38765109 -2.49513626  1070122200
-2.49513626 0.95451802 11.16928577  1064590155
11.13401508 2.28742313 -2.49513626  1075695513
-2.49513626 0.95451802 11.05487442  1064590155
11.01102924 2.82058382 -2.49513626  1082918950
-2.49513626 0.95451802 10.26768494  1064590155
10.02114582 5.36424494 -2.49513626  1085327255
-2.49513626 0.95451802 9.75138187  1064590155
9.35665989 6.45377684 -2.49513626  1087589514
-2.49513626 0.95451802 9.14475155  1064590155
8.92341518 7.04067659 -2.49513626  1089677214
-2.49513626 0.95451802 7.94856691  1064590155
7.81715870 8.25168896 -2.49513626  1090913376
-2.49513626 0.95451796 8.00939274  1064544689
7.86365700 9.14472485 -2.64753628  1091979038
-2.64753628 0.95180804 6.94808722  1064544689
6.62816143 10.07623959 -2.64753628  1092806302
-2.64753628 0.95180804 6.30141020  1064544689
5.62875700 10.66677856 -2.64753628  1093670928
-2.64753628 0.95180804 4.21679449  1064544689
3.29753232 11.60125828 -2.64753628  1094349158
-2.64753628 0.95180804 1.14000964  1064617347
1.31432915 -10.85261059 -2.49513626  3240943789
-2.49513626 0.95613879 1.83508134  1064617347
2.00777984 -10.74595642 -2.49513626  3240808672
-2.49513626 0.95613879 2.52259278  1064617347
2.69296026 -10.59503269 -2.49513626  3240575014
-2.49513626 0.95613879 3.36704278  1064617347
3.69905567 -10.28706646 -2.49513626  3240337222
-2.49513626 0.95613879 4.02725840  1064617347
4.82888746 -9.80757999 -2.49513626  3239815495
-2.49513626 0.95613879 5.14112425  1064617347
5.29527617 -9.56382751 -2.49513626  3239552089
-2.49513626 0.95613879 5.59945250  1064617347
6.33398056 -8.90996456 -2.49513626  3238738916
-2.49513626 0.95613879 6.75542116  1064617347
6.89246559 -8.48531151 -2.49513626  3238394459
-2.49513626 0.95613879 7.29283381  1064617347
7.55041313 -7.90557051 -2.49513626  3237287978
-2.49513626 0.95613885 8.04196739  1064617347
8.27545547 -7.14308071 -2.49513626  3235925173
-2.49513626 0.95613879 8.50041103  1064617347
8.60961819 -6.73654842 -2.49513626  3234766364
-2.49513626 0.95613879 8.92383862  1064617347
9.02400780 -6.17040014 -2.49513626  3233860409
-2.49513626 0.95613879 9.21736813  1064617347
9.40123844 -5.57908201 -2.49513626  3230641313
-2.49513626 0.95613879 10.03812313  1064617347
10.35282803 -3.51080132 -2.49513626  3226863541
-2.49513626 0.95613879 10.46014881  1064617347
10.50978661 -3.00851583 -2.49513626  3222601861
-2.49513626 0.95613879 10.75033379  1064617347
10.83336639 -1.46455026 -2.49513626  3209846724
-1.83704615 0.96751684 7.64050388  1064834184
7.59905863 -0.41178662 -1.73698008  3197358891
-1.73055840 0.96937060 7.56901360  1064840089
7.56392908 0.07604987 -1.72650337  1045063070
-1.72855616 0.96940553 7.58106422  1064838958
10.85014343 1.33458936 -2.49513626  1069619068
-2.49513626 0.95613879 10.80172443  1064617347
10.77333927 1.85519755 -2.49513626  1074580501
-2.49513626 0.95613879 10.67158413  1064617347
10.58998680 2.71273088 -2.49513626  1078150717
-2.49513626 0.95613879 10.44716930  1064617347
10.39416695 3.38645434 -2.49513626  1080254773
-2.49513626 0.95613879 10.02045250  1064617348
9.94904518 4.53026104 -2.49513626  1083576055
-2.49513626 0.95613879 9.79854679  1064617347
9.63795376 5.15912485 -2.49513626  1085204334
-2.49513626 0.95613879 9.37850094  1064617348
9.09732914 6.06179667 -2.49513626  1087060000
-2.49513626 0.95613879 8.79506683  1064617347
8.68975163 6.63285828 -2.49513626  1088792295
-2.49513626 0.95613879 8.13015079  1064617348
8.01184082 7.43755054 -2.49513626  1089607095
-2.49513626 0.95613879 7.64463043  1064617347
7.51824570 7.93615866 -2.49513626  1091602443
-2.64753628 0.95352304 6.98321390  1064573462
6.68240261 9.48138237 -2.64753628  1092292120
-2.64753628 0.95352304 6.06045532  1064573462
5.73994017 10.07989025 -2.64753628  1092887668
-2.64753628 0.95352304 5.24819851  1064573462
4.74429655 10.58502197 -2.64753628  1093383563
-2.64753628 0.95352304 3.88063431  1064573462
3.70471954 10.99209404 -2.64753628  1093717331
-2.64753628 0.95352304 3.35007763  1064573462
2.99199510 11.20710564 -2.64753628  3240593102
-2.49513626 0.95764530 1.26574516  1064642622
1.43329310 -10.42978954 -2.49513626  3240524979
-2.49513626 0.95764530 2.26465392  1064642622
2.75680971 -10.16045666 -2.49513626  3240220329
-2.49513626 0.95764530 3.08143401  1064642622
3.40288591 -9.96269035 -2.49513626  3240002113
-2.49513626 0.95764530 3.72082853  1064642622
3.87838912 -9.78738594 -2.49513626  3239810319
-2.49513626 0.95764530 4.65038586  1064642622
4.80135155 -9.36919594 -2.49513626  3239271778
-2.49513626 0.95764530 5.39246655  1064642622
5.53686523 -8.95421410 -2.49513626  3238812115
-2.49513626 0.95764530 5.96136475  1064642622
6.09984159 -8.58060551 -2.49513626  3238182679
-2.49513626 0.95764530 6.76796436  1064642622
7.02325630 -7.84274769 -2.49513626  3237434435
-2.49513626 0.95764530 7.27130795  1064642622
7.96955013 -6.87903309 -2.49513626  3234550036
-2.49513626 0.95764530 8.49527836  1064642622
8.59396458 -6.08100319 -2.49513626  3233687412
-2.49513626 0.95764530 8.87664890  1064642622
9.05371761 -5.37262058 -2.49513626  3231877575
-2.49513626 0.95764530 9.37970734  1064642622
9.52829170 -4.47733116 -2.49513626  3229969058
-2.49513626 0.95764530 9.73272038  1064642622
9.85650158 -3.69921899 -2.49513626  3227017902
-2.49513626 0.95764530 10.02310181  1064642622
10.16647720 -2.73451710 -2.49513626  3222240894
-2.49513626 0.95764530 10.35294628  1064642622
10.40893078 -1.57764828 -2.49513626  3216279657
-2.49513626 0.95764530 7.96781349  1064809801
7.58821869 -0.41119924 -1.80107856  3197344541
-1.79432321 0.96935701 7.55808496  1064839843
7.55083609 -0.04525805 -1.78961253  1033602241
-1.79010499 0.96942794 7.55992270  1064839670
7.59473562 0.44248846 -1.80303705  1058113813
-1.81643713 0.96898526 7.71250105  1064827537
8.12910748 0.86771894 -1.93757761  1067746126
-2.49513626 0.95764530 10.42709446  1064642622
10.40244102 1.61990106 -2.49513626  1077677660
-2.49513626 0.95764530 10.06098557  1064642622
9.95631981 3.42148089 -2.49513626  1081696957
-2.49513626 0.95764530 9.71634007  1064642622
9.65005016 4.20848608 -2.49513626  1083847649
-2.49513626 0.95764530 9.28168583  1064642622
9.20076275 5.11672020 -2.49513626  1085086023
-2.49513626 0.95764530 8.94386292  1064642622
8.76104450 5.83771849 -2.49513626  1086277665
-2.49513626 0.95764530 8.56920242  1064642622
8.05143738 6.78300810 -2.49513626  1088501339
-2.49513626 0.95764530 7.71568155  1064642622
7.59975243 7.28550577 -2.49513626  1089274425
-2.49513626 0.95764530 7.11676502  1064642622
6.99135399 7.87120104 -2.49513626  1090614987
-2.49513626 0.95764530 6.60445118  1064642622
6.13906860 9.33271122 -2.64753628  1092118016
-2.64753628 0.95511723 5.68282843  1064600208
5.52776527 9.70728874 -2.64753628  1092400965
-2.64753628 0.95511723 5.05419922  1064600208
4.89369059 10.04188347 -2.64753628  1092741097
-2.64753628 0.95511723 4.56892729  1064600208
4.23945904 10.33511829 -2.64753628  1093037524
-2.64753628 0.95511723 3.90563369  1064600208
3.73718762 10.52715778 -2.64753628  1093230422
-2.64753628 0.95511723 3.22624421  1064600208
3.05420899 10.74520588 -2.64753628  1093447536
-2.64753628 0.95511723 1.86437190  1064666174
2.18361378 -9.91344929 -2.49513626  3239930256
-2.49513626 0.95904911 2.65816188  1064666174
2.81503224 -9.75296211 -2.49513626  3239792086
-2.49513626 0.95904922 3.43484521  1064666174
3.73960543 -9.43716049 -2.49513626  3239378733
-2.49513626 0.95904911 4.33725977  1064666174
4.48397923 -9.10706234 -2.49513626  3239086849
-2.49513626 0.95904911 4.77391338  1064666174
4.91705561 -8.88072300 -2.49513626  3238842257
-2.49513626 0.95904911 5.61304379  1064666174
5.74804544 -8.36687565 -2.49513626  3238289538
-2.49513626 0.95904911 6.01357269  1064666174
6.52578354 -7.77552605 -2.49513626  3237084362
-2.49513626 0.95904911 7.01111603  1064666174
7.12800932 -7.22745848 -2.49513626  3236140708
-2.49513626 0.95904911 7.35626554  1064666174
7.46756649 -6.87605524 -2.49513626  3235392441
-2.49513626 0.95904911 7.68437290  1064666174
7.78982306 -6.50871372 -2.49513626  3234611323
-2.49513626 0.95904911 8.28644466  1064666174
8.64549255 -5.31978798 -2.49513626  3232089492
-2.49513626 0.95904911 8.89148712  1064666174
8.96893406 -4.75425100 -2.49513626  3230892750
-2.49513626 0.95904911 9.25543118  1064666174
9.44534111 -3.71889639 -2.49513626  3227797313
-2.49513626 0.95904911 9.55981445  1064666174
9.66444206 -3.10535645 -2.49513626  3223895849
-2.49513626 0.95904911 9.84373474  1064666174
9.91821671 -2.16186595 -2.49513626  3221235673
-2.49513626 0.95904911 10.05958366  1064666174
10.08011246 -1.19834459 -2.49513626  3205060715
-1.88050520 0.96897823 7.56600761  1064838052
7.57006836 0.31926236 -1.86237526  1055040436
-1.87065458 0.96913821 8.08954334  1064800317
10.07516098 1.23926508 -2.49513626  1071415567
-2.49513626 0.95904911 9.94341755  1064666174
9.90935612 2.20212150 -2.49513626  1075255348
-2.49513626 0.95904911 9.83358574  1064666174
9.79189777 2.67644620 -2.49513626  1077236642
-2.49513626 0.95904911 9.70097065  1064666174
9.60004807 3.29905033 -2.49513626  1079834779
-2.49513626 0.95904911 9.16973209  1064666174
9.09867764 4.50097084 -2.49513626  1084385616
-2.49513626 0.95904911 8.70863914  1064666174
8.53678226 5.49254465 -2.49513626  1085829090
-2.49513626 0.95904911 8.26256657  1064666174
8.16687679 6.02883053 -2.49513626  1086658405
-2.49513626 0.95904911 7.96920872  1064666174
7.54945278 6.78604698 -2.49513626  1088225420
-2.49513626 0.95904911 7.32780552  1064666174
7.21413660 7.14149094 -2.49513626  1089196399
-2.49513626 0.95904911 6.86210251  1064666174
6.49415779 7.80196047 -2.49513626  1090320161
-2.49513626 0.95904911 6.11117411  1064666174
5.84792566 8.29737568 -2.49513626  1090928140
-2.49513626 0.95904911 5.91939211  1064625134
5.77422667 9.09258366 -2.64753628  1091760627
-2.64753628 0.95660293 5.47947502  1064625134
4.40543556 9.82898521 -2.64753628  1092647232
-2.64753628 0.95660293 3.76587725  1064625134
2.94491887 10.36070633 -2.64753628  3239793424
-2.49513626 0.96036029 1.79970872  1064688172
2.56596708 -9.45708752 -2.49513626  3239486103
-2.49513626 0.96036029 3.46325135  1064688172
3.60990429 -9.10984707 -2.49513626  3239104476
-2.49513626 0.96036029 4.04412222  1064688172
4.18682766 -8.85952473 -2.49513626  3238832319
-2.49513626 0.96036029 4.46897221  1064688171
4.60833645 -8.64777088 -2.49513626  3238522191
-2.49513626 0.96036029 5.15357065  1064688172
5.67757416 -7.98660851 -2.49513626  3237781379
