# .PCD v0.7 - Point Cloud Data file format
VERSION 0.7
FIELDS x y z intensity
SIZE 4 4 4 4
TYPE F F F F
COUNT 1 1 1 1
WIDTH 1022
HEIGHT 1
VIEWPOINT 0 0 0 1 0 0 0
POINTS 1022
DATA ascii
-2.49513626 0.97602546 -5.11491251  1064950990
-5.00773191 -2.34546447 -2.49513626  3223010606
-2.49513626 0.97602546 -4.84677982  1064950990
-4.80338812 -2.73971725 -2.49513626  3224650246
-2.49513626 0.97602546 -4.71289682  1064950990
-4.66581964 -2.96794724 -2.49513626  3225598104
-2.49513626 0.97602546 -4.56806755  1064950990
-4.35852480 -3.40320921 -2.49513626  3227975105
-2.49513626 0.97602546 -4.01076555  1064950990
-3.94909549 -3.87081790 -2.49513626  3229336261
-2.49513626 0.97602546 -3.82270622  1064950990
-3.62576890 -4.17521095 -2.49513626  3230102541
-2.49513626 0.97602546 -3.27906632  1064950990
-3.20711541 -4.50477505 -2.49513626  3230779496
-2.49513626 0.97602546 -3.06074762  1064950990
-2.98636460 -4.65405273 -2.49513626  3231085072
-2.49513626 0.97602546 -2.75868487  1064950990
5.24937296 -1.30606353 -2.49513626  3214695509
-2.49513626 0.97645313 5.28862429  1064958165
5.33724737 -0.88064992 -2.49513626  3209394122
-2.49513626 0.97645313 5.36278200  1064958165
5.39722538 -0.36290023 -2.49513626  3191988152
-2.49513626 0.97645313 5.40844154  1064958165
5.40939140 -0.01556437 -2.49513626  1042416672
-2.49513626 0.97645313 5.40385962  1064958165
5.34222698 0.84992337 -2.49513626  1068374105
-2.49513626 0.97645313 5.16402531  1064958165
5.13748264 1.69351959 -2.49513626  1074162434
-2.49513626 0.97645313 4.91498899  1064958165
4.87806129 2.33800387 -2.49513626  1076453147
-2.49513626 0.97645313 4.67473269  1064958165
4.58488035 2.87064457 -2.49513626  1078005138
-2.49513626 0.97645313 4.44125986  1064958165
4.28732634 3.29857016 -2.49513626  1079758958
-2.49513626 0.97645313 4.06665611  1064958165
3.94996715 3.69587731 -2.49513626  1081118981
-2.49513626 0.97645313 3.76732779  1064958165
3.70448208 3.94189572 -2.49513626  1082253888
-2.49513626 0.97645313 3.44370317  1064958165
3.37624288 4.22642946 -2.49513626  1082828169
-2.49513626 0.97645313 3.09787488  1064958165
2.95381832 4.53174257 -2.49513626  1083439668
-2.49513626 0.97645313 2.65671134  1064958165
2.58067203 4.75414276 -2.49513626  1083880704
-2.49513626 0.97645313 2.27005267  1064958165
2.19088316 4.94588327 -2.49513626  1084256342
-2.49513626 0.97645313 1.86875939  1064958165
1.78697073 5.10572910 -2.49513626  1084508133
-2.49513626 0.97645313 1.62203169  1064958165
1.53892326 5.18589115 -2.49513626  1084667862
-2.49513626 0.97645313 1.37153363  1064958165
1.28729916 5.25400925 -2.49513626  1084802223
-2.49513626 0.97645313 1.03268516  1064958165
0.86157048 5.34035635 -2.49513626  1085015410
-2.49513626 0.97645313 0.43028975  1064958165
0.34361091 5.39848852 -2.49513626  1085080077
-2.49513626 0.97645313 -0.35112694  1064958165
-0.52435452 5.38393974 -2.49513626  1084966679
-2.49513626 0.97645313 -1.29461336  1064958165
-1.46266389 5.20791292 -2.49513626  1084559428
-2.49513626 0.97645313 -1.71186423  1064958165
-1.87582481 5.07375765 -2.49513626  1084317696
-2.49513626 0.97645313 -2.03784657  1064958165
-2.11807823 4.97749710 -2.49513626  1083790322
-2.49513626 0.97645313 -2.58728909  1064958165
-2.88701034 4.57459593 -2.49513626  1083136000
-2.49513626 0.97645313 -3.31386685  1064958165
-3.44950700 4.16685152 -2.49513626  1082243440
-2.49513626 0.97645313 -3.64624500  1064958165
-3.77272725 3.87663341 -2.49513626  1081096257
-2.49513626 0.97645313 -3.95510888  1064958165
-4.07161665 3.56141496 -2.49513626  1080014603
-2.49513626 0.97645313 -4.29191494  1064958165
-4.39546824 3.15302634 -2.49513626  1077978900
-2.49513626 0.97645313 -4.54226923  1064958165
-4.58887148 2.86426091 -2.49513626  1077056053
-2.49513626 0.97645313 -4.67851973  1064958165
-4.72153473 2.63985896 -2.49513626  1076106017
-2.49513626 0.97645313 -4.80390310  1064958165
-4.84323406 2.40932345 -2.49513626  1075131030
-2.49513626 0.97645313 -4.95368147  1064958165
-5.08301067 1.85060906 -2.49513626  1071801674
-2.49513626 0.97645313 -5.13983583  1064958165
-5.19135571 1.52038300 -2.49513626  1069017272
-2.49513626 0.97645313 -5.23751688  1064958165
-5.27827454 1.18387961 -2.49513626  1066183117
-2.49513626 0.97645313 -5.31358147  1064958165
-5.32917976 0.92821777 -2.49513626  1062710566
-2.49513626 0.97645313 -5.36770916  1064958165
-5.37778664 0.58408439 -2.49513626  1056884578
-2.49513626 0.97645313 -5.39377546  1064958165
-5.40731430 0.15069260 -2.49513626  1031974093
-2.49513626 0.97645313 -5.40936375  1064958165
-5.40829515 -0.10999004 -2.49513626  3192493198
-2.49513626 0.97645313 -5.39006662  1064958165
-5.38203192 -0.54358906 -2.49513626  3206628909
-2.49513626 0.97645313 -5.36179066  1064958165
-5.34959221 -0.80224490 -2.49513626  3210959136
-2.49513626 0.97645313 -5.30473328  1064958165
-5.22577572 -1.39749932 -2.49513626  3218269625
-2.49513626 0.97645313 -5.12524843  1064958165
-5.09679413 -1.81229997 -2.49513626  3220335792
-2.49513626 0.97645313 -4.96989775  1064958165
-4.89871931 -2.29440641 -2.49513626  3223439002
-2.49513626 0.97645313 -4.65516090  1064958165
-4.51702118 -2.97628498 -2.49513626  3225623067
-2.49513626 0.97645313 -4.36839151  1064958165
-4.15449953 -3.46437359 -2.49513626  3227919783
-2.49513626 0.97645313 -3.86312652  1064958165
-3.80179644 -3.84812975 -2.49513626  3229480990
-2.49513626 0.97645313 -3.61199665  1064958165
-3.48077226 -4.14077139 -2.49513626  3230025436
-2.49513626 0.97645313 -3.20768476  1064958165
-3.13730001 -4.40671110 -2.49513626  3230571510
-2.49513626 0.97645313 -2.84784436  1064958165
-2.77359557 -4.64423323 -2.49513626  3231057324
-2.49513626 0.97645313 5.09298754  1064965062
5.15656233 -1.19534647 -2.49513626  3213779370
-2.49513626 0.97686422 5.19229984  1064965062
5.20816231 -0.94553375 -2.49513626  3210517353
-2.49513626 0.97686422 5.24766731  1064965062
5.25813150 -0.60913557 -2.49513626  3202431845
-2.49513626 0.97686422 5.28137207  1064965062
5.28639460 -0.27022305 -2.49513626  3191715419
-2.49513626 0.97686422 5.29234648  1064965062
5.28786182 0.23979940 -2.49513626  1051082987
-2.49513626 0.97686422 5.27016973  1064965062
5.26154900 0.57886857 -2.49513626  1059704615
-2.49513626 0.97686422 5.22755194  1064965062
5.18141460 1.08255827 -2.49513626  1066742825
-2.49513626 0.97686422 5.14396429  1064965062
5.12324333 1.33092248 -2.49513626  1068818148
-2.49513626 0.97686422 5.05317640  1064965062
4.97137451 1.81780708 -2.49513626  1072881441
-2.49513626 0.97686422 4.87802744  1064965062
4.84438181 2.13329458 -2.49513626  1074626155
-2.49513626 0.97686422 4.77335119  1064965062
4.73598242 2.36420178 -2.49513626  1076214882
-2.49513626 0.97686422 4.57438803  1064965062
4.48646498 2.80902457 -2.49513626  1078028007
-2.49513626 0.97686422 4.24660730  1064965062
4.19529629 3.22776580 -2.49513626  1079449729
-2.49513626 0.97686422 4.03492308  1064965062
3.86517835 3.61654353 -2.49513626  1081035052
-2.49513626 0.97686422 3.62496448  1064965062
3.49918056 3.97174144 -2.49513626  1082525219
-2.49513626 0.97686422 3.16920924  1064965062
3.10069108 4.29006910 -2.49513626  1082842049
-2.49513626 0.97686422 2.81880426  1064965062
2.74646807 4.52502966 -2.49513626  1083663062
-2.49513626 0.97686422 2.29822302  1064965062
1.98727763 4.90608978 -2.49513626  1084159211
-2.49513626 0.97686422 1.74861264  1064965062
1.50588906 5.07457209 -2.49513626  1084523759
-2.49513626 0.97686422 1.17691171  1064965062
0.92691779 5.21150637 -2.49513626  1084700966
-2.49513626 0.97686422 0.67476887  1064965063
0.42105383 5.27652454 -2.49513626  1084830151
-2.49513626 0.97686422 0.16636004  1064965062
-0.00368332 5.29329443 -2.49513626  1084841112
-2.49513626 0.97686422 -0.17372590  1064965062
-0.25869000 5.28697252 -2.49513626  1084806254
-2.49513626 0.97686422 -0.59766585  1064965062
-0.68207741 5.24916840 -2.49513626  1084725728
-2.49513626 0.97686422 -0.85035270  1064965062
-1.01774836 5.19453478 -2.49513626  1084561363
-2.49513626 0.97686422 -1.51295161  1064965062
-1.91507959 4.93472052 -2.49513626  1084024829
-2.49513626 0.97686422 -2.07261205  1064965062
-2.15059090 4.83672953 -2.49513626  1083811419
-2.49513626 0.97686422 -2.30485702  1064965062
-2.38110781 4.72750568 -2.49513626  1083574625
-2.49513626 0.97686422 -2.67977715  1064965062
-2.75276399 4.52120495 -2.49513626  1083129511
-2.49513626 0.97686422 -3.03741264  1064965062
-3.17510772 4.23529005 -2.49513626  1082515759
-2.49513626 0.97686422 -3.30952120  1064965062
-3.44052887 4.02265501 -2.49513626  1081991461
-2.49513626 0.97686422 -3.56797600  1064965062
-3.63032961 3.85223341 -2.49513626  1081013159
-2.49513626 0.97686422 -3.81169963  1064965062
-3.87021112 3.61115813 -2.49513626  1079970231
-2.49513626 0.97686422 -4.03968906  1064965062
-4.09411621 3.35517669 -2.49513626  1079148167
-2.49513626 0.97686422 -4.19978619  1064965062
-4.25099993 3.15404391 -2.49513626  1078294096
-2.49513626 0.97686422 -4.35013008  1064965062
-4.39801550 2.94558287 -2.49513626  1077409962
-2.49513626 0.97686422 -4.49037027  1064965062
-4.66108656 2.50863910 -2.49513626  1075559794
-2.49513626 0.97686422 -4.73927021  1064965062
-4.84734726 2.12654972 -2.49513626  1073944857
-2.49513626 0.97686422 -4.91315937  1064965062
-5.00234938 1.73074937 -2.49513626  1070127691
-2.49513626 0.97686422 -5.07991982  1064965062
-5.10316467 1.40594816 -2.49513626  1067377303
-2.49513626 0.97686422 -5.16497231  1064965062
-5.22870493 0.82440197 -2.49513626  1060996165
-2.49513626 0.97686422 -5.27799416  1064965062
-5.28819036 0.23243740 -2.49513626  3196985213
-2.49513626 0.97686422 -5.27436829  1064965062
-5.22147560 -0.86901540 -2.49513626  3213141434
-2.49513626 0.97686422 -5.13491011  1064965062
-5.11360264 -1.36750162 -2.49513626  3216607301
-2.49513626 0.97686422 -5.06703329  1064965062
-5.04178381 -1.61226761 -2.49513626  3218650616
-2.49513626 0.97686422 -4.98738909  1064965062
-4.95825720 -1.85328758 -2.49513626  3220660910
-2.49513626 0.97686422 -4.89616060  1064965062
-4.86321402 -2.09000707 -2.49513626  3221929531
-2.49513626 0.97686422 -4.79356480  1064965062
-4.75687838 -2.32187247 -2.49513626  3222894761
-2.49513626 0.97686422 -4.67983389  1064965062
-4.63949633 -2.54834509 -2.49513626  3223836613
-2.49513626 0.97686428 -4.51133871  1064965062
-4.46627569 -2.84101796 -2.49513626  3225052344
-2.49513626 0.97686422 -4.32422066  1064965062
-4.27462149 -3.12195492 -2.49513626  3226217045
-2.49513626 0.97686452 -4.17212296  1064965062
-4.11925220 -3.32426572 -2.49513626  3227055594
-2.49513626 0.97686422 -3.95431638  1064965062
-3.83923602 -3.64407134 -2.49513626  3228630627
-2.49513626 0.97686422 -3.65922070  1064965062
-3.59730792 -3.88308716 -2.49513626  3229722893
-2.49513626 0.97686422 -3.34052539  1064965062
-2.92984581 -4.40851355 -2.49513626  3230568306
-2.49513626 0.97686422 -2.78671408  1064965062
-2.64070344 -4.58755636 -2.49513626  3213581773
-2.49513626 0.97725976 5.08234787  1064971698
5.09787369 -0.92551094 -2.49513626  3208831581
-2.49513626 0.97725976 5.13654232  1064971698
5.16328192 -0.43059063 -2.49513626  3199334245
-2.49513626 0.97725976 5.18027592  1064971698
5.18075418 0.06832764 -2.49513626  1047550643
-2.49513626 0.97725976 5.15012932  1064971698
5.14036322 0.64927077 -2.49513626  1060852953
-2.49513626 0.97725976 5.11685228  1064971698
5.10311460 0.89616120 -2.49513626  1064984517
-2.49513626 0.97725976 5.05401516  1064971698
5.03503370 1.22201204 -2.49513626  1067892774
-2.49513626 0.97725976 4.97031498  1064971698
4.94616985 1.54281795 -2.49513626  1071890565
-2.49513626 0.97725976 4.83688879  1064971698
4.74179745 2.08811903 -2.49513626  1075059414
-2.49513626 0.97725976 4.59791946  1064971698
4.55895996 2.46186209 -2.49513626  1076885630
-2.49513626 0.97725976 4.30086374  1064971698
4.20583105 3.02586532 -2.49513626  1078326359
-2.49513626 0.97725976 4.10645771  1064971698
4.05517340 3.22497225 -2.49513626  1079683447
-2.49513626 0.97725976 3.78332901  1064971698
3.72597623 3.60027575 -2.49513626  1080948117
-2.49513626 0.97725976 3.54820156  1064971698
3.42508149 3.88763499 -2.49513626  1081887814
-2.49513626 0.97725976 3.29842377  1064971698
3.10209870 4.14992285 -2.49513626  1082649339
-2.49513626 0.97725976 2.68830895  1064971698
2.47180104 4.55358028 -2.49513626  1083373412
-2.49513626 0.97725976 2.32424331  1064971698
2.24955606 4.66737366 -2.49513626  1083604542
-2.49513626 0.97725976 1.86779869  1064971698
1.78992212 4.86220694 -2.49513626  1083997597
-2.49513626 0.97725976 1.63280392  1064971698
1.55360377 4.94279146 -2.49513626  1084158613
-2.49513626 0.97725976 1.39401674  1064971698
1.31367373 5.01189947 -2.49513626  1084295439
-2.49513626 0.97725976 1.15198922  1064971698
0.82522416 5.11506224 -2.49513626  1084495303
-2.49513626 0.97725976 0.66048008  1064971698
0.49505293 5.15749979 -2.49513626  1084573167
-2.49513626 0.97725976 0.16283773  1064971698
-0.00360516 5.18120337 -2.49513626  1084606071
-2.49513626 0.97725976 -0.33631340  1064971698
-0.50223243 5.15680552 -2.49513626  1084493131
-2.49513626 0.97725976 -0.83234447  1064971698
-0.91438949 5.09987974 -2.49513626  1084332246
-2.49513626 0.97725976 -1.40095866  1064971698
-1.56048059 4.94062471 -2.49513626  1083992590
-2.49513626 0.97725976 -1.79668856  1064971698
-1.87452424 4.83022070 -2.49513626  1083740018
-2.49513626 0.97725976 -2.10504842  1064971698
-2.18083024 4.69987726 -2.49513626  1083366400
-2.49513626 0.97725976 -2.62303042  1064971698
-2.83524656 4.33661985 -2.49513626  1082640673
-2.49513626 0.97725976 -3.30398083  1064971698
-3.49241972 3.82725644 -2.49513626  1080681541
-2.49513626 0.97725976 -3.73098207  1064971698
-3.84454727 3.47337604 -2.49513626  1079396075
-2.49513626 0.97725976 -4.00741768  1064971698
-4.05965948 3.21932507 -2.49513626  1078580769
-2.49513626 0.97725976 -4.16097927  1064971698
-4.21003866 3.02000999 -2.49513626  1077154649
-2.49513626 0.97725976 -4.39528179  1064971698
-4.48114634 2.60081291 -2.49513626  1075652396
-2.49513626 0.97725976 -4.60123873  1064971698
-4.63890982 2.30768251 -2.49513626  1074718528
-2.49513626 0.97725976 -4.71064758  1064971698
-4.74469900 2.08151793 -2.49513626  1073138043
-2.49513626 0.97725976 -4.86857176  1064971698
-4.94831181 1.53593254 -2.49513626  1067834218
-2.49513626 0.97725976 -5.05559778  1064971698
-5.08941555 0.97094142 -2.49513626  1063491934
-2.49513626 0.97725976 -5.11797953  1064971698
-5.13028288 0.72462279 -2.49513626  1053397167
-2.49513626 0.97725976 -5.17919445  1064971698
-5.18084621 0.06111479 -2.49513626  3185033644
-2.49513626 0.97725976 -5.17777348  1064971698
-5.17407513 -0.27170575 -2.49513626  3210330565
-2.49513626 0.97725976 -5.08093977  1064971698
-5.06398964 -1.09585166 -2.49513626  3214322124
-2.49513626 0.97725976 -4.95973301  1064971698
-4.90902901 -1.65720069 -2.49513626  3219665545
-2.49513626 0.97725976 -4.79247904  1064971698
-4.61903620 -2.34721017 -2.49513626  3223603693
-2.49513626 0.97725976 -4.45877361  1064971698
-4.41580629 -2.71026659 -2.49513626  3224500609
-2.49513626 0.97725976 -4.32646036  1064971698
-4.28010607 -2.91985965 -2.49513626  3225654000
-2.49513626 0.97725976 -4.08377361  1064971698
-4.03202248 -3.25387096 -2.49513626  3226754492
-2.49513626 0.97725976 -3.92541122  1064971698
-3.81474900 -3.50607634 -2.49513626  3227797545
-2.49513626 0.97725976 -3.64140868  1064971698
-3.58173180 -3.74380636 -2.49513626  3228778826
-2.49513626 0.97725976 -3.39720821  1064971698
-3.33392835 -3.96608424 -2.49513626  3229870134
-2.49513626 0.97725976 -3.07236099  1064971698
-3.00494599 -4.22080374 -2.49513626  3230177232
-2.49513626 0.97725976 -2.86780286  1064971698
-2.79811144 -4.36067152 -2.49513626  3230463545
-2.49513626 0.97725976 4.90252447  1064978085
4.94187546 -1.14557958 -2.49513626  3212605893
-2.49513626 0.97764045 5.02918816  1064978085
5.06148863 -0.34032589 -2.49513626  3161400518
-2.49513626 0.97764045 5.06770849  1064978085
5.03292847 0.63570106 -2.49513626  1061948335
-2.49513626 0.97764045 4.98171854  1064978085
4.92979956 1.19647181 -2.49513626  1068981975
-2.49513626 0.97764045 4.84279203  1064978085
4.81790352 1.58817339 -2.49513626  1070934695
-2.49513626 0.97764045 4.76439667  1064978085
4.70597410 1.89427853 -2.49513626  1074549508
-2.49513626 0.97764045 4.42437792  1064978085
4.38393784 2.55255866 -2.49513626  1076353440
-2.49513626 0.97764045 4.25587368  1064978085
4.16498995 2.89609146 -2.49513626  1077779371
-2.49513626 0.97764045 3.86693454  1064978085
3.81368732 3.34518719 -2.49513626  1079639097
-2.49513626 0.97764045 3.59100485  1064978085
3.53297710 3.64040518 -2.49513626  1080858243
-2.49513626 0.97764045 3.41420984  1064978085
3.35349703 3.80638266 -2.49513626  1081542245
-2.49513626 0.97764045 3.22948623  1064978085
3.10214186 4.01387548 -2.49513626  1082364172
-2.49513626 0.97764045 2.90516973  1064978085
2.83798790 4.20479584 -2.49513626  1082923914
-2.49513626 0.97764045 2.49145007  1064978085
2.42014027 4.45840836 -2.49513626  1083172111
-2.49513626 0.97764045 2.12884402  1064978085
1.97982550 4.67062855 -2.49513626  1083602276
-2.49513626 0.97764045 1.75251257  1064978085
1.67581093 4.78812408 -2.49513626  1083838409
-2.49513626 0.97764045 1.52113318  1064978085
1.44319367 4.86329889 -2.49513626  1084114203
-2.49513626 0.97764045 0.96844780  1064978085
0.88832802 4.99453068 -2.49513626  1084270559
-2.49513626 0.97764045 0.40352485  1064978085
0.32223654 5.06267214 -2.49513626  1084368504
-2.49513626 0.97764045 0.15943369  1064978085
0.07796367 5.07231665 -2.49513626  1084380500
-2.49513626 0.97764045 -0.16649301  1064978085
-0.24791980 5.06685543 -2.49513626  1084358064
-2.49513626 0.97764045 -0.41056272  1064978085
-0.49173561 5.04902840 -2.49513626  1084312467
-2.49513626 0.97764045 -0.65367877  1064978085
-0.89527863 4.99329185 -2.49513626  1084182004
-2.49513626 0.97764045 -1.13479555  1064978085
-1.29304409 4.90535545 -2.49513626  1083984212
-2.49513626 0.97764045 -1.44996011  1064978085
-1.52786696 4.83736372 -2.49513626  1083659817
-2.49513626 0.97764045 -1.91107976  1064978085
-1.98632181 4.66786957 -2.49513626  1083462872
-2.49513626 0.97764045 -2.20889616  1064978085
-2.35446262 4.49343872 -2.49513626  1083084711
-2.49513626 0.97764045 -2.63815403  1064978085
-2.70742178 4.29002905 -2.49513626  1082646297
-2.49513626 0.97764045 -2.84383750  1064978085
-2.91095281 4.15461731 -2.49513626  1082254077
-2.49513626 0.97764045 -3.10772514  1064978085
-3.17173362 3.95911527 -2.49513626  1081743090
-2.49513626 0.97764045 -3.35879040  1064978085
-3.47918534 3.69185042 -2.49513626  1079617126
-2.49513626 0.97764045 -3.81833887  1064978085
-3.87150145 3.27810383 -2.49513626  1078839942
-2.49513626 0.97764045 -3.97481060  1064978085
-4.02493286 3.08778262 -2.49513626  1078031460
-2.49513626 0.97764045 -4.21490955  1064978085
-4.34601450 2.61661100 -2.49513626  1076033820
-2.49513626 0.97764045 -4.54195595  1064978085
-4.57766581 2.18619680 -2.49513626  1074213179
-2.49513626 0.97764045 -4.76681757  1064978085
-4.86842346 1.42580688 -2.49513626  1068267530
-2.49513626 0.97764045 -4.93146038  1064978085
-4.98304653 0.95064741 -2.49513626  1061831321
-2.49513626 0.97764045 -5.03380871  1064978085
-5.04325819 0.54775113 -2.49513626  1041282510
-2.49513626 0.97764045 -5.07287025  1064978085
-5.07186794 -0.10314804 -2.49513626  3191671412
-2.49513626 0.97764045 -5.06100941  1064978085
-5.05477667 -0.42862681 -2.49513626  3204612249
-2.49513626 0.97764045 -5.03839779  1064978085
-5.02825642 -0.67165405 -2.49513626  3208681830
-2.49513626 0.97764045 -4.94027472  1064978085
-4.92112494 -1.23167253 -2.49513626  3216101080
-2.49513626 0.97764045 -4.83187532  1064978085
-4.66074085 -2.00299168 -2.49513626  3221550961
-2.49513626 0.97764045 -4.59399176  1064978085
-4.55883312 -2.22520447 -2.49513626  3222779506
-2.49513626 0.97764045 -4.44633675  1064978085
-4.40653086 -2.51336098 -2.49513626  3223674230
-2.49513626 0.97764045 -4.28032684  1064978085
-4.14418554 -2.92578268 -2.49513626  3225660536
-2.49513626 0.97764045 -3.94775319  1064978085
-3.89606595 -3.24887085 -2.49513626  3227235061
-2.49513626 0.97764045 -3.67939448  1064978085
-3.62281847 -3.55100822 -2.49513626  3228675913
-2.49513626 0.97764045 -3.20144534  1064978085
-3.07337737 -4.03594351 -2.49513626  3229791903
-2.49513626 0.97764045 -2.94214368  1064978085
-2.87537408 -4.17931747 -2.49513626  3230085877
-2.49513626 0.97764045 -2.73962998  1064978085
-2.60106277 -4.35533762 -2.49513626  3215804779
-2.49513626 0.97800714 4.80134869  1064984237
4.83988857 -1.12193787 -2.49513626  3209629477
-2.49513626 0.97800714 4.91430569  1064984237
4.95103884 -0.41289079 -2.49513626  3198854816
-2.49513626 0.97800714 4.96733427  1064984237
4.96820498 -0.01429495 -2.49513626  1032203976
-2.49513626 0.97800714 4.95886850  1064984237
4.92906189 0.62258196 -2.49513626  1060348298
-2.49513626 0.97800714 4.90651798  1064984237
4.87890911 0.93782109 -2.49513626  1065488073
-2.49513626 0.97800714 4.84626389  1064984237
4.82806301 1.17178011 -2.49513626  1067443559
-2.49513626 0.97800714 4.66607285  1064984237
4.63806295 1.78090918 -2.49513626  1074056687
-2.49513626 0.97800714 4.40891600  1064984237
4.25275278 2.56853247 -2.49513626  1076411572
-2.49513626 0.97800714 4.03294563  1064984237
3.88848186 3.09240603 -2.49513626  1078840946
-2.49513626 0.97800714 3.73498464  1064984237
3.68187213 3.33572769 -2.49513626  1080072001
-2.49513626 0.97800714 3.28428936  1064984237
3.22397971 3.78010821 -2.49513626  1081634357
-2.49513626 0.97800714 2.91027331  1064984237
2.84521484 4.07283878 -2.49513626  1082560731
-2.49513626 0.97800714 2.57780290  1064984237
2.22870278 4.44028664 -2.49513626  1083127661
-2.49513626 0.97800714 1.86523545  1064984237
1.79102087 4.63416719 -2.49513626  1083519460
-2.49513626 0.97800714 1.64122748  1064984237
1.56568587 4.71507025 -2.49513626  1083681513
-2.49513626 0.97800714 1.41341019  1064984237
1.10463548 4.84386587 -2.49513626  1083936052
-2.49513626 0.97800714 0.94846159  1064984237
0.63332969 4.92769003 -2.49513626  1084095944
-2.49513626 0.97800714 0.39519751  1064984237
0.15614362 4.96577072 -2.49513626  1084159717
-2.49513626 0.97800714 -0.00345691  1064984237
-0.16305657 4.96554899 -2.49513626  1084138977
-2.49513626 0.97800714 -0.40208822  1064984237
-0.48158866 4.94482899 -2.49513626  1084074086
-2.49513626 0.97800714 -0.79812932  1064984237
-0.95524734 4.87552691 -2.49513626  1083933046
-2.49513626 0.97800714 -1.11137712  1064984237
-1.26635921 4.80412245 -2.49513626  1083772836
-2.49513626 0.97800714 -1.42003644  1064984237
-1.64774990 4.68702173 -2.49513626  1083514439
-2.49513626 0.97800714 -1.79747009  1064984237
-1.87164152 4.60219765 -2.49513626  1083193026
-2.49513626 0.97800714 -2.16331100  1064984237
-2.23487782 4.43718195 -2.49513626  1082970777
-2.49513626 0.97800708 -2.37627125  1064984237
-2.44605470 4.32435894 -2.49513626  1082727086
-2.49513626 0.97800714 -2.58371019  1064984237
-2.65154743 4.20149422 -2.49513626  1082462532
-2.49513626 0.97800714 -2.78515029  1064984237
-2.85088062 4.06887817 -2.49513626  1082026383
-2.49513626 0.97800714 -3.22923970  1064984237
-3.28947449 3.72325397 -2.49513626  1080746026
-2.49513626 0.97800714 -3.40738511  1064984236
-3.46502638 3.56045794 -2.49513626  1080051454
-2.49513626 0.97800714 -3.68651271  1064984237
-3.94186878 3.02405882 -2.49513626  1076949161
-2.49513626 0.97800714 -4.17180395  1064984237
-4.25632381 2.56261015 -2.49513626  1075229032
-2.49513626 0.97800714 -4.41210079  1064984237
-4.44822454 2.21282291 -2.49513626  1074333556
-2.49513626 0.97800714 -4.54966307  1064984237
-4.61143446 1.84877086 -2.49513626  1071849804
-2.49513626 0.97800714 -4.66844368  1064984237
-4.69514465 1.62446189 -2.49513626  1069957147
-2.49513626 0.97800714 -4.84778261  1064984237
-4.90759945 0.77377385 -2.49513626  1058906057
-2.49513626 0.97800714 -4.94715881  1064984237
-4.95386267 0.37749910 -2.49513626  1030752536
-2.49513626 0.97800714 -4.96818066  1064984237
-4.96493578 -0.18080039 -2.49513626  3199086434
-2.49513626 0.97800714 -4.95045996  1064984237
-4.94307709 -0.49925438 -2.49513626  3207095588
-2.49513626 0.97800708 -4.90081501  1064984237
-4.88707924 -0.89427215 -2.49513626  3212378277
-2.49513626 0.97800714 -4.85582924  1064984237
-4.83832312 -1.12867236 -2.49513626  3215215207
-2.49513626 0.97800714 -4.77832842  1064984237
-4.68110418 -1.66449034 -2.49513626  3219665258
-2.49513626 0.97800714 -4.56455708  1064984237
-4.49918318 -2.10728121 -2.49513626  3221977426
-2.49513626 0.97800714 -4.42916536  1064984237
-4.39243698 -2.32158709 -2.49513626  3222869000
-2.49513626 0.97800714 -4.31559134  1064984237
-4.23428869 -2.59885836 -2.49513626  3224021161
-2.49513626 0.97800714 -4.10416746  1064984237
-4.01210928 -2.93022966 -2.49513626  3225395890
-2.49513626 0.97800714 -3.81566024  1064984237
-3.76405287 -3.24271059 -2.49513626  3226689642
-2.49513626 0.97800714 -3.60346174  1064984237
-3.49172473 -3.53427839 -2.49513626  3227894050
-2.49513626 0.97800714 -3.37638903  1064984237
-3.31740570 -3.69838977 -2.49513626  3228570565
-2.49513626 0.97800714 -3.19688368  1064984236
-3.13537621 -3.85391784 -2.49513626  3229615115
-2.49513626 0.97800714 -2.88142538  1064984236
-2.81603479 -4.09306860 -2.49513626  3229903023
-2.49513626 0.97800714 -2.61557698  1064984237
-2.54738498 -4.26545334 -2.49513626  3215573266
-2.49513626 0.97836053 4.74122334  1064990166
4.75826693 -1.02275980 -2.49513626  3211934073
-2.49513626 0.97836053 4.78866673  1064990166
4.81412363 -0.71509266 -2.49513626  3205456099
-2.49513626 0.97836053 4.85010719  1064990166
4.86059761 -0.24845767 -2.49513626  3183266570
-2.49513626 0.97836053 4.86692333  1064990166
4.86651945 0.06418402 -2.49513626  1041351910
-2.49513626 0.97836053 4.84567928  1064990166
4.83775330 0.53224349 -2.49513626  1058808258
-2.49513626 0.97836053 4.80649424  1064990166
4.76407433 0.99536228 -2.49513626  1065955231
-2.49513626 0.97836053 4.72963953  1064990166
4.71058846 1.22372222 -2.49513626  1067863393
-2.49513626 0.97836053 4.66884613  1064990166
4.64616489 1.44923961 -2.49513626  1070985245
-2.49513626 0.97836053 4.54351234  1064990166
4.51490021 1.81736612 -2.49513626  1072816226
-2.49513626 0.97836053 4.31903696  1064990166
4.28244019 2.31253982 -2.49513626  1075340018
-2.49513626 0.97836053 4.16605663  1064990166
3.95073080 2.84233546 -2.49513626  1078314315
-2.49513626 0.97836053 3.70992780  1064990166
3.60681367 3.26772642 -2.49513626  1079300309
-2.49513626 0.97836053 3.38953018  1064990166
3.33298779 3.54659390 -2.49513626  1080670121
-2.49513626 0.97836053 2.97618747  1064990166
2.72275853 4.03407049 -2.49513626  1082380950
-2.49513626 0.97836053 2.52525139  1064990166
2.45808744 4.20058870 -2.49513626  1082632771
-2.49513626 0.97836053 2.25286388  1064990166
2.11311078 4.38427925 -2.49513626  1083262257
-2.49513626 0.97836053 1.68135595  1064990166
1.45937097 4.64299202 -2.49513626  1083526791
-2.49513626 0.97836053 1.30946362  1064990166
1.23399413 4.70790815 -2.49513626  1083728231
-2.49513626 0.97836053 0.46502608  1064990166
0.23108935 4.86145449 -2.49513626  1083948541
-2.49513626 0.97836053 -0.15973240  1064990166
-0.23785375 4.86112738 -2.49513626  1083927020
-2.49513626 0.97836053 -0.39389274  1064990166
-0.54952753 4.83582115 -2.49513626  1083863454
-2.49513626 0.97836053 -0.70458776  1064990166
-0.78185940 4.80373144 -2.49513626  1083788337
-2.49513626 0.97836053 -0.93577373  1064990166
-1.08872151 4.74360800 -2.49513626  1083611413
-2.49513626 0.97836053 -1.31598389  1064990166
-1.54019380 4.61681032 -2.49513626  1083370841
-2.49513626 0.97836053 -1.76082695  1064990166
-1.83348691 4.50837708 -2.49513626  1083068174
-2.49513626 0.97836053 -2.04855347  1064990166
-2.25886607 4.31099463 -2.49513626  1082705364
-2.49513626 0.97836053 -2.39619017  1064990166
-2.46393299 4.19716311 -2.49513626  1082459768
-2.49513626 0.97836053 -2.59749365  1064990166
-2.66327715 4.07358503 -2.49513626  1082193927
-2.49513626 0.97836053 -2.79276180  1064990166
-3.04295468 3.79836488 -2.49513626  1081077616
-2.49513626 0.97836053 -3.16340947  1064990166
-3.22241545 3.64735222 -2.49513626  1080432224
-2.49513626 0.97836053 -3.44998264  1064990166
-3.55848145 3.32029438 -2.49513626  1079037976
-2.49513626 0.97836053 -3.81342530  1064990166
-3.86151147 2.96241021 -2.49513626  1077516688
-2.49513626 0.97836053 -4.04377270  1064990166
-4.08675814 2.64301944 -2.49513626  1076162049
-2.49513626 0.97836053 -4.16955471  1064990166
-4.24804688 2.37512803 -2.49513626  1073366562
-2.49513626 0.97836053 -4.48774910  1064990166
-4.59943008 1.59134614 -2.49513626  1069692277
-2.49513626 0.97836053 -4.64817667  1064990166
-4.67075396 1.36791563 -2.49513626  1067808604
-2.49513626 0.97836053 -4.71228647  1064990166
-4.74895477 1.06515729 -2.49513626  1061293126
-2.49513626 0.97836053 -4.81911039  1064990166
-4.82942343 0.60316741 -2.49513626  1055210158
-2.49513626 0.97836053 -4.86224985  1064990166
-4.86505651 0.13558073 -2.49513626  3165272699
-2.49513626 0.97836053 -4.86593771  1064990166
-4.85552025 -0.33326983 -2.49513626  3201469410
-2.49513626 0.97836053 -4.84230757  1064990166
-4.83382607 -0.56680119 -2.49513626  3206870601
-2.49513626 0.97836053 -4.80090666  1064990166
-4.78745079 -0.87604171 -2.49513626  3213083353
-2.49513626 0.97836053 -4.72131443  1064990166
-4.70172262 -1.25735497 -2.49513626  3216257280
-2.49513626 0.97836053 -4.63568926  1064990166
-4.58567524 -1.63055611 -2.49513626  3218742551
-2.49513626 0.97836053 -4.53092861  1064990166
-4.50179625 -1.84958267 -2.49513626  3220568367
-2.49513626 0.97836047 -4.44005585  1064990166
-4.40746307 -2.06431746 -2.49513626  3221791103
-2.49513626 0.97836053 -4.33887243  1064990166
-4.26580715 -2.34304190 -2.49513626  3223234200
-2.49513626 0.97836053 -4.10653543  1064990166
-4.06404209 -2.67781615 -2.49513626  3224340823
-2.49513626 0.97836053 -3.97592187  1064990166
-3.93031788 -2.87049460 -2.49513626  3225139860
-2.49513626 0.97836053 -3.83607626  1064990166
-3.73787522 -3.11695790 -2.49513626  3226407234
-2.49513626 0.97836053 -3.30755997  1064990166
-3.19115376 -3.67473507 -2.49513626  3229077515
-2.49513626 0.97836053 -2.69386125  1064990166
-2.62839437 -4.09617949 -2.49513626  3214729412
-2.49513626 0.97870129 4.67790413  1064995883
4.69219446 -0.85186046 -2.49513626  3206542358
-2.49513626 0.97870129 4.73721313  1064995883
4.75239658 -0.39632502 -2.49513626  3190483691
-2.49513626 0.97870129 4.76803923  1064995883
4.76887465 -0.01372142 -2.49513626  1041159428
-2.49513626 0.97870129 4.76399755  1064995883
4.74029207 0.52152056 -2.49513626  1058602116
-2.49513626 0.97870129 4.72109079  1064995883
4.65182543 1.05017388 -2.49513626  1066399835
-2.49513626 0.97870129 4.61568880  1064995883
4.59583139 1.27306223 -2.49513626  1068876796
-2.49513626 0.97870129 4.52916336  1064995883
4.50459433 1.56555796 -2.49513626  1071902649
-2.49513626 0.97870129 4.33301544  1064995883
4.30045891 2.06116557 -2.49513626  1074857310
-2.49513626 0.97870129 4.12120724  1064995883
4.08212709 2.46547866 -2.49513626  1076507032
-2.49513626 0.97870129 3.91537905  1064995883
3.87113976 2.78507137 -2.49513626  1077293979
-2.49513626 0.97870129 3.77967286  1064995883
3.68430471 3.02790999 -2.49513626  1078782935
-2.49513626 0.97870129 3.48225904  1064995883
3.37579370 3.36843705 -2.49513626  1079929028
-2.49513626 0.97870129 3.20959568  1064995883
3.15251970 3.57826447 -2.49513626  1080778569
-2.49513626 0.97870129 2.60406375  1064995883
2.20747757 4.22722101 -2.49513626  1082680174
-2.49513626 0.97870129 2.07054090  1064995883
1.71916282 4.44823790 -2.49513626  1083282723
-2.49513626 0.97870129 0.83508903  1064995883
0.75955427 4.70801544 -2.49513626  1083680525
-2.49513626 0.97870129 0.37934059  1064995883
0.22643310 4.76351452 -2.49513626  1083741738
-2.49513626 0.97870129 -0.23306186  1064995883
-0.38595763 4.75325012 -2.49513626  1083695823
-2.49513626 0.97870129 -0.61450332  1064995883
-0.76610905 4.70695448 -2.49513626  1083556317
-2.49513626 0.97870129 -0.99198186  1064995883
-1.21555102 4.61137486 -2.49513626  1083228922
-2.49513626 0.97870129 -1.65371025  1064995883
-1.93753195 4.35755825 -2.49513626  1082813831
-2.49513626 0.97870129 -2.07651591  1064995883
-2.28093219 4.18804121 -2.49513626  1082366584
-2.49513626 0.97870129 -2.60962296  1064995883
-2.86055255 3.81570339 -2.49513626  1081162630
-2.49513626 0.97870129 -3.27067661  1064995883
-3.32600427 3.41760635 -2.49513626  1079461738
-2.49513626 0.97870129 -3.43407822  1064995883
-3.48679066 3.25340366 -2.49513626  1078762279
-2.49513626 0.97870129 -3.58950424  1064995883
-3.63947988 3.08164549 -2.49513626  1078031684
-2.49513626 0.97870129 -3.78371668  1064995883
-3.87501216 2.77968264 -2.49513626  1076749449
-2.49513626 0.97870129 -4.00442696  1064995883
-4.04551268 2.52510834 -2.49513626  1075670343
-2.49513626 0.97870129 -4.12454367  1064995883
-4.16246605 2.32727718 -2.49513626  1074832804
-2.49513626 0.97870129 -4.26975441  1064995883
-4.33578396 1.98578334 -2.49513626  1073036128
-2.49513626 0.97870129 -4.39733839  1064995883
-4.55453491 1.41370511 -2.49513626  1068208343
-2.49513626 0.97870129 -4.59759903  1064995883
-4.61735249 1.19264412 -2.49513626  1066345727
-2.49513626 0.97870129 -4.66944885  1064995883
-4.68440962 0.89367467 -2.49513626  1061036925
-2.49513626 0.97870129 -4.73212957  1064995883
-4.76031494 0.28591645 -2.49513626  1045852048
-2.49513626 0.97870129 -4.76704359  1064995883
-4.76790810 -0.09696632 -2.49513626  3190928935
-2.49513626 0.97870129 -4.75184059  1064995883
-4.74475431 -0.47922367 -2.49513626  3207925380
-2.49513626 0.97870129 -4.67660856  1064995883
-4.64420319 -1.08338869 -2.49513626  3214161071
-2.49513626 0.97870129 -4.60700178  1064995883
-4.58661604 -1.30587471 -2.49513626  3216019375
-2.49513626 0.97870129 -4.41110277  1064995883
-4.38142157 -1.88295472 -2.49513626  3220831983
-2.49513626 0.97870129 -4.31867075  1064995883
-4.25146151 -2.16042280 -2.49513626  3222183625
-2.49513626 0.97870129 -4.14244413  1064995883
-3.98216844 -2.62386894 -2.49513626  3224373040
-2.49513626 0.97870129 -3.85113788  1064995883
-3.75879383 -2.93493032 -2.49513626  3225646955
-2.49513626 0.97870129 -3.35163212  1064995883
-3.18430638 -3.55000663 -2.49513626  3227939306
-2.49513626 0.97870129 -3.06861997  1064995883
-2.94976521 -3.74716330 -2.49513626  3228750334
-2.49513626 0.97870129 -2.82786870  1064995883
-2.76581788 -3.88491964 -2.49513626  3229811881
-2.49513626 0.97870129 -2.37909102  1064995883
4.49703979 -1.27360415 -2.49513626  3214524637
-2.49513626 0.97903013 4.53563309  1065001400
4.55317593 -1.05547500 -2.49513626  3212538145
-2.49513626 0.97903013 4.58473301  1065001400
4.59873819 -0.83489376 -2.49513626  3207581075
-2.49513626 0.97903013 4.65774202  1065001400
4.66338110 -0.31355783 -2.49513626  3190260594
-2.49513626 0.97903013 4.67389107  1065001400
4.67191076 0.13670628 -2.49513626  1049808054
-2.49513626 0.97903013 4.65348911  1065001400
4.63706732 0.58570033 -2.49513626  1062138997
-2.49513626 0.97903013 4.57512045  1065001400
4.55917406 1.02925730 -2.49513626  1066822789
-2.49513626 0.97903013 4.48366880  1065001400
4.46188784 1.39175975 -2.49513626  1069239296
-2.49513626 0.97903013 4.41487551  1065001400
4.36330509 1.67540932 -2.49513626  1073340371
-2.49513626 0.97903013 4.18180943  1065001400
4.11259031 2.22082019 -2.49513626  1075488227
-2.49513626 0.97903013 3.96148849  1065001400
3.87976360 2.60631371 -2.49513626  1076544886
-2.49513626 0.97903013 3.79403639  1065001400
3.74969769 2.79019856 -2.49513626  1077307294
-2.49513626 0.97903013 3.56278443  1065001400
3.41290164 3.19336081 -2.49513626  1078975362
-2.49513626 0.97903013 3.30855608  1065001400
2.97547317 3.60444212 -2.49513626  1081602251
-2.49513626 0.97903013 2.55219722  1065001400
2.48896670 3.95606947 -2.49513626  1082111730
-2.49513626 0.97903013 2.29548740  1065001400
2.22978616 4.10773659 -2.49513626  1082502146
-2.49513626 0.97903013 1.89299536  1065001400
1.82410347 4.30326366 -2.49513626  1082884654
-2.49513626 0.97903013 1.54400218  1065001400
1.40148985 4.45884132 -2.49513626  1083182283
-2.49513626 0.97903013 1.18505037  1065001400
1.11226952 4.53963470 -2.49513626  1083332151
-2.49513626 0.97903013 0.81845778  1065001399
0.74442655 4.61424541 -2.49513626  1083442429
-2.49513626 0.97903013 0.52126592  1065001400
0.44658178 4.65252686 -2.49513626  1083512661
-2.49513626 0.97903013 0.14689378  1065001400
0.07183314 4.67335844 -2.49513626  1083543722
-2.49513626 0.97903013 -0.15339753  1065001400
-0.22841996 4.66832495 -2.49513626  1083523055
-2.49513626 0.97903013 -0.37826842  1065001400
-0.45305952 4.65190125 -2.49513626  1083481046
-2.49513626 0.97903007 -0.60226399  1065001399
-0.67664206 4.62467051 -2.49513626  1083258873
-2.49513626 0.97903013 -1.33591533  1065001400
-1.47910666 4.43369913 -2.49513626  1082988935
-2.49513626 0.97903013 -1.69098938  1065001400
-1.89894223 4.27076721 -2.49513626  1082565718
-2.49513626 0.97903013 -2.16927457  1065001400
-2.23550200 4.10462761 -2.49513626  1082273430
-2.49513626 0.97903007 -2.55764675  1065001399
-2.62015867 3.87042904 -2.49513626  1081408340
-2.49513626 0.97903007 -2.80357790  1065001400
-2.86329031 3.69418502 -2.49513626  1080453954
-2.49513626 0.97903013 -3.03794122  1065001400
-3.09460878 3.50269222 -2.49513626  1079620015
-2.49513626 0.97903013 -3.25976014  1065001400
-3.41734433 3.18860364 -2.49513626  1078495209
-2.49513626 0.97903013 -3.56699109  1065001400
-3.66217589 2.90411806 -2.49513626  1077285653
-2.49513626 0.97903013 -3.75357699  1065001400
-3.84110689 2.66295576 -2.49513626  1076262217
-2.49513626 0.97903013 -3.92466807  1065001400
-4.00418234 2.41080284 -2.49513626  1074920112
-2.49513626 0.97903007 -4.11567736  1065001400
-4.18471384 2.08173585 -2.49513626  1073801563
-2.49513626 0.97903013 -4.24942636  1065001400
-4.30975485 1.80871606 -2.49513626  1070968014
-2.49513626 0.97903013 -4.39188814  1065001400
-4.50602722 1.24143374 -2.49513626  1066769968
-2.49513626 0.97903013 -4.56060219  1065001400
-4.57644653 0.94951355 -2.49513626  1063270745
-2.49513626 0.97903013 -4.62797546  1065001400
-4.63787842 0.57924455 -2.49513626  1057042930
-2.49513626 0.97903013 -4.66039896  1065001400
-4.66550255 0.28022173 -2.49513626  1045572155
-2.49513626 0.97903013 -4.67358494  1065001400
-4.67386818 -0.01995568 -2.49513626  3190696969
-2.49513626 0.97903013 -4.66747999  1065001400
-4.66293955 -0.32005173 -2.49513626  3206441820
-2.49513626 0.97903013 -4.62222481  1065001400
-4.59757090 -0.84129584 -2.49513626  3213355369
-2.49513626 0.97903013 -4.53405857  1065001399
-4.49526310 -1.27986538 -2.49513626  3215788910
-2.49513626 0.97903013 -4.42838383  1065001400
-4.40379858 -1.56588542 -2.49513626  3218175604
-2.49513626 0.97903013 -4.35122252  1065001400
-4.29415512 -1.84544921 -2.49513626  3220505667
-2.49513626 0.97903007 -4.23265362  1065001400
-4.20026064 -2.05018282 -2.49513626  3222274697
-2.49513626 0.97903013 -3.94366193  1065001400
-3.81822801 -2.69565749 -2.49513626  3224901675
-2.49513626 0.97903013 -3.63724566  1065001400
-3.44124556 -3.16279435 -2.49513626  3226559399
-2.49513626 0.97903013 -3.23104334  1065001400
-3.12088346 -3.47930026 -2.49513626  3227638512
-2.49513626 0.97903007 -2.94963956  1065001400
-2.89101362 -3.67253017 -2.49513626  3228622151
-2.49513626 0.97903013 -2.71073079  1065001399
-2.64921522 -3.85059690 -2.49513626  3229163858
-2.49513626 0.97903013 -2.52414680  1065001400
-2.46063185 -3.97375488 -2.49513626  3229720513
-2.49513626 0.97903013 4.40845346  1065006725
4.46348381 -1.03468311 -2.49513626  3212213537
-2.49513626 0.97934753 4.50814772  1065006725
4.52071428 -0.74592137 -2.49513626  3207354114
-2.49513626 0.97934753 4.55928373  1065006725
4.56598997 -0.38077965 -2.49513626  3190044334
-2.49513626 0.97934753 4.58101797  1065006725
4.58182096 -0.01318321 -2.49513626  1031241423
-2.49513626 0.97934753 4.56182098  1065006725
4.54572153 0.57416302 -2.49513626  1059432751
-2.49513626 0.97934753 4.52493143  1065006725
4.51278210 0.79249299 -2.49513626  1063086361
-2.49513626 0.97934753 4.48499489  1065006725
4.43464422 1.15203691 -2.49513626  1067818648
-2.49513626 0.97934753 4.37399292  1065006725
4.32790804 1.50415051 -2.49513626  1070163920
-2.49513626 0.97934753 4.16305828  1065006725
4.13177824 1.98031855 -2.49513626  1074211703
-2.49513626 0.97934753 4.03157711  1065006725
3.95955801 2.30546188 -2.49513626  1075288572
-2.49513626 0.97934753 3.84388971  1065006725
3.80333710 2.55497026 -2.49513626  1077314971
-2.49513626 0.97934753 3.53979182  1065006725
3.44450855 3.02135968 -2.49513626  1078256171
-2.49513626 0.97934753 3.24338150  1065006725
3.08370256 3.38880920 -2.49513626  1079772856
-2.49513626 0.97934753 2.85972095  1065006725
2.80184293 3.62531734 -2.49513626  1080745721
-2.49513626 0.97934753 2.68393707  1065006725
2.62393880 3.75608778 -2.49513626  1082186675
-2.49513626 0.97934753 2.12089229  1065006725
1.92276347 4.15887451 -2.49513626  1082588651
-2.49513626 0.97934753 1.58286297  1065006725
1.37388206 4.37100744 -2.49513626  1082996319
-2.49513626 0.97934753 1.09035838  1065006725
0.94683498 4.48294067 -2.49513626  1083173914
-2.49513626 0.97934753 0.80233419  1065006725
0.72976172 4.52334881 -2.49513626  1083251333
-2.49513626 0.97934753 0.36446020  1065006725
0.14399990 4.57957506 -2.49513626  1083349503
-2.49513626 0.97934753 -0.00318820  1065006725
-0.07679128 4.58119726 -2.49513626  1083319117
-2.49513626 0.97934753 -0.44413298  1065006725
-0.51733649 4.55253935 -2.49513626  1083249415
-2.49513626 0.97934753 -0.80861229  1065006725
-0.88095647 4.49635172 -2.49513626  1083107142
-2.49513626 0.97934753 -1.09655333  1065006725
-1.30959857 4.39069462 -2.49513626  1082904470
-2.49513626 0.97934753 -1.44997001  1065006725
-1.51960397 4.32250452 -2.49513626  1082699719
-2.49513626 0.97934753 -2.12654018  1065006725
-2.25582170 3.98804617 -2.49513626  1081926142
-2.49513626 0.97934753 -2.62916231  1065006725
-2.74835014 3.66603589 -2.49513626  1080542533
-2.49513626 0.97934753 -2.97809720  1065006725
-3.03364730 3.43369079 -2.49513626  1079548902
-2.49513626 0.97934753 -3.19554567  1065006725
-3.24788451 3.23179531 -2.49513626  1078463736
-2.49513626 0.97934753 -3.39980745  1065006725
-3.59003496 2.84691167 -2.49513626  1076302442
-2.49513626 0.97934753 -3.80689073  1065006725
-3.88683224 2.42606449 -2.49513626  1075265666
-2.49513626 0.97934753 -3.99919820  1065006725
-4.03460264 2.17145944 -2.49513626  1073912647
-2.49513626 0.97934753 -4.13453197  1065006725
-4.16571760 1.90789390 -2.49513626  1072405737
-2.49513626 0.97934753 -4.22485685  1065006725
-4.27963495 1.63645148 -2.49513626  1069531791
-2.49513626 0.97934753 -4.35350513  1065006725
-4.39714336 1.28778338 -2.49513626  1066576812
-2.49513626 0.97934753 -4.48629618  1065006725
-4.51388073 0.78621298 -2.49513626  1060548158
-2.49513626 0.97934753 -4.57359743  1065006725
-4.58006239 0.12763885 -2.49513626  3183397848
-2.49513626 0.97934753 -4.57108450  1065006725
-4.56545544 -0.38713408 -2.49513626  3205011940
-2.49513626 0.97934753 -4.54150391  1065006725
-4.53117132 -0.67951143 -2.49513626  3213179908
-2.49513626 0.97934753 -4.44474220  1065006725
-4.42629719 -1.18370020 -2.49513626  3214973045
-2.49513626 0.97934753 -4.36413193  1065006725
-4.31704807 -1.53503859 -2.49513626  3217905195
-2.49513626 0.97934753 -4.23808146  1065006725
-4.20956516 -1.80909562 -2.49513626  3220750601
-2.49513626 0.97934753 -4.08470249  1065006725
-3.97996092 -2.27005792 -2.49513626  3223151342
-2.49513626 0.97934753 -3.65619254  1065006725
-3.56559539 -2.87746048 -2.49513626  3225144491
-2.49513626 0.97934753 -3.47131801  1065006725
-3.42282772 -3.04589939 -2.49513626  3225841266
-2.49513626 0.97934753 -3.27211595  1065006725
-3.16739440 -3.31071973 -2.49513626  3227547480
-2.49513626 0.97934753 -2.77586460  1065006725
-2.71694946 -3.68936825 -2.49513626  3228669291
-2.49513626 0.97934753 4.35962391  1065011869
4.40681791 -0.87340015 -2.49513626  3209523276
-2.49513626 0.97965413 4.43260050  1065011869
4.44377756 -0.66008127 -2.49513626  3204733239
-2.49513626 0.97965413 4.47699356  1065011869
4.48241377 -0.30138990 -2.49513626  3194673454
-2.49513626 0.97965413 4.48978281  1065011869
4.49251652 -0.01292626 -2.49513626  1030925327
-2.49513626 0.97965413 4.48407316  1065011869
4.47906828 0.34758994 -2.49513626  1054263421
-2.49513626 0.97965413 4.46559000  1065011869
4.45712090 0.56297213 -2.49513626  1059221136
-2.49513626 0.97965413 4.43673611  1065011869
4.41177034 0.84802788 -2.49513626  1063990743
-2.49513626 0.97965413 4.38225079  1065011869
4.34820700 1.12958264 -2.49513626  1067024961
-2.49513626 0.97965413 4.30967665  1065011869
4.28874016 1.33775139 -2.49513626  1068762963
-2.49513626 0.97965413 4.24355268  1065011869
4.19398451 1.61039305 -2.49513626  1071596779
-2.49513626 0.97965413 4.11153173  1065011869
4.08191633 1.87638819 -2.49513626  1073252937
-2.49513626 0.97965413 4.01953077  1065011869
3.98677731 2.07086253 -2.49513626  1074834552
-2.49513626 0.97965413 3.84556580  1065011869
3.80775952 2.38407946 -2.49513626  1075608048
-2.49513626 0.97965413 3.72920704  1065011869
3.68848133 2.56475520 -2.49513626  1076357716
-2.49513626 0.97965413 3.56063962  1065011869
3.42452669 2.90783238 -2.49513626  1077778715
-2.49513626 0.97965413 3.32934570  1065011869
3.28046131 3.06943750 -2.49513626  1078446734
-2.49513626 0.97965413 3.12877750  1065011869
3.02359796 3.32275891 -2.49513626  1079491801
-2.49513626 0.97965413 2.86000729  1065011869
2.80398226 3.51006484 -2.49513626  1080262523
-2.49513626 0.97965413 2.68977618  1065011869
2.57279539 3.68287873 -2.49513626  1081139009
-2.49513626 0.97965413 2.39237976  1065011869
2.14325690 3.94833159 -2.49513626  1082055989
-2.49513626 0.97965413 1.88528728  1065011869
1.75331736 4.13627148 -2.49513626  1082583285
-2.49513626 0.97965413 1.41577601  1065011869
1.27808070 4.30689907 -2.49513626  1082815936
-2.49513626 0.97965413 1.13906312  1065011869
0.99887043 4.38008308 -2.49513626  1082959990
-2.49513626 0.97965413 0.57269120  1065011869
0.35735717 4.47829819 -2.49513626  1083162237
-2.49513626 0.97965413 -0.14744489  1065011869
-0.21955581 4.48716736 -2.49513626  1083132447
-2.49513626 0.97965413 -0.43547806  1065011869
-0.65038466 4.44520664 -2.49513626  1083040985
-2.49513626 0.97965413 -0.79285300  1065011869
-0.86378628 4.40871191 -2.49513626  1082924599
-2.49513626 0.97965413 -1.14511049  1065011869
-1.21474707 4.32518768 -2.49513626  1082679140
-2.49513626 0.97965413 -1.48998427  1065011869
-1.55787706 4.21377277 -2.49513626  1082525124
-2.49513626 0.97965413 -1.82525194  1065011869
-2.02089548 4.01233625 -2.49513626  1081754273
-2.49513626 0.97965413 -2.27438474  1065011869
-2.33632922 3.83724117 -2.49513626  1081288281
-2.49513626 0.97965413 -2.45839477  1065011869
-2.63668871 3.63740659 -2.49513626  1080429979
-2.49513626 0.97965413 -2.80886245  1065011869
-2.86482549 3.46058321 -2.49513626  1079673045
-2.49513626 0.97965413 -2.97451878  1065011869
-3.02821922 3.31854844 -2.49513626  1078857008
-2.49513626 0.97965413 -3.18457913  1065011869
-3.28473067 3.06486630 -2.49513626  1077985218
-2.49513626 0.97965413 -3.38149095  1065011869
-3.42857051 2.90306211 -2.49513626  1077296960
-2.49513626 0.97965413 -3.56444836  1065011869
-3.60791588 2.67690444 -2.49513626  1076089033
-2.49513626 0.97965413 -3.73269105  1065011869
-3.84879541 2.31724977 -2.49513626  1074811873
-2.49513626 0.97965413 -3.95596385  1065011869
-4.02232265 2.00095248 -2.49513626  1073205614
-2.49513626 0.97965413 -4.08452272  1065011869
-4.16990376 1.67175639 -2.49513626  1069857368
-2.49513626 0.97965413 -4.24560070  1065011869
-4.31143808 1.26268363 -2.49513626  1066974386
-2.49513626 0.97965413 -4.39885378  1065011869
-4.41294718 0.84188694 -2.49513626  1060314812
-2.49513626 0.97965413 -4.44838190  1065011869
-4.45790148 0.55676633 -2.49513626  1056464108
-2.49513626 0.97965413 -4.47348642  1065011869
-4.48820162 0.19727457 -2.49513626  1029246402
-2.49513626 0.97965413 -4.49249601  1065011869
-4.48955965 -0.16348824 -2.49513626  3197993449
