# .PCD v0.7 - Point Cloud Data file format
VERSION 0.7
FIELDS x y z intensity
SIZE 4 4 4 4
TYPE F F F F
COUNT 1 1 1 1
WIDTH 1014
HEIGHT 1
VIEWPOINT 0 0 0 1 0 0 0
POINTS 1014
DATA ascii
4.59569073 -4.16966438 -2.49513626  1082140626
-2.49513626 0.97412860 -4.61115789  1064919166
-4.73546219 3.78039789 -2.49513626  1080560957
-2.49513626 0.97412860 -4.91264677  1064919166
-4.96917629 3.46745348 -2.49513626  1078872407
-2.49513626 0.97412860 -5.18224621  1064919166
-5.37378645 2.79971552 -2.49513626  1075992922
-2.49513626 0.97412860 -5.58172846  1064919166
-5.61900663 2.26776385 -2.49513626  1074483825
-2.49513626 0.97412860 -5.72204638  1064919166
-5.78332853 1.80807078 -2.49513626  1071347923
-2.49513626 0.97412860 -5.91011095  1064919166
-5.96780825 1.04941905 -2.49513626  1064566295
-2.49513626 0.97412860 -6.03291845  1064919166
-6.04124880 0.46828794 -2.49513626  1052631353
-2.49513626 0.97412860 -6.05320311  1064919166
-6.05934238 -0.01956365 -2.49513626  3193700331
-2.49513626 0.97412860 -6.05131531  1064919166
-6.04549408 -0.40989852 -2.49513626  3204570460
-2.49513626 0.97412860 -6.01861572  1064919166
-6.00652552 -0.79853463 -2.49513626  3211079252
-2.49513626 0.97412860 -5.96090698  1064919166
-5.87843323 -1.46970367 -2.49513626  3219146020
-2.49513626 0.97412860 -5.74103737  1064919166
-5.67559481 -2.12217760 -2.49513626  3223253083
-2.49513626 0.97412860 -5.48633289  1064919166
-5.44416666 -2.66026545 -2.49513626  3225442809
-2.49513626 0.97412860 -5.21234369  1064919166
-5.11004829 -3.25628448 -2.49513626  3226838375
-2.49513626 0.97412860 -5.00244522  1064919166
-4.94668484 -3.49946690 -2.49513626  3227847168
-2.49513626 0.97412860 -4.83133221  1064919166
-4.77176332 -3.73447156 -2.49513626  3229449429
-2.49513626 0.97412860 -4.52125025  1064919166
-4.45564270 -4.10648441 -2.49513626  3230134073
-2.49513626 0.97412860 -3.96499014  1064919166
-3.73888874 -4.76829958 -2.49513626  3231350406
-2.49513626 0.97412860 -3.50405002  1064919166
-3.34290457 -5.05380726 -2.49513626  3232044518
-2.49513626 0.97412860 -3.09472680  1064919166
-2.92521453 -5.30651426 -2.49513626  3232545975
-2.49513626 0.97412860 -2.66530704  1064919166
-2.57725978 -5.48395014 -2.49513626  3232811773
-2.49513626 0.97412860 -2.39917183  1064919166
-2.21859741 -5.63859987 -2.49513626  3233194285
-2.49513626 0.97412860 -1.75748587  1064919166
-1.66379797 -5.82647085 -2.49513626  3233499110
-2.49513626 0.97412860 -1.38023353  1064919166
-1.28496552 -5.92155695 -2.49513626  3233685696
-2.49513626 0.97412860 -0.90079075  1064919166
-0.61011779 -6.02857780 -2.49513626  3233887288
-2.49513626 0.97412860 -0.41549972  1064919166
-0.31801695 -6.05102110 -2.49513626  3233924481
-2.49513626 0.97412860 -0.12282990  1064919166
0.07248741 -6.05893707 -2.49513626  3233927885
-2.49513626 0.97412860 0.26772413  1064919166
0.46269110 -6.04168320 -2.49513626  3233834086
-2.49513626 0.97412860 0.94755292  1064919166
1.04388320 -5.96877432 -2.49513626  3233665843
-2.49513626 0.97412860 1.42626143  1064919166
1.52098966 -5.86536980 -2.49513626  3233473034
-2.49513626 0.97412860 1.70923638  1064919166
1.80271149 -5.78500032 -2.49513626  3233294992
-2.49513626 0.97412860 2.26255512  1064919166
2.35285783 -5.58390474 -2.49513626  3232854730
-2.49513626 0.97412860 2.61999822  1064919166
2.96655869 -5.28351068 -2.49513626  3232099530
-2.49513626 0.97412860 3.21846795  1064919166
3.30079651 -5.08141232 -2.49513626  3231769017
-2.49513626 0.97412860 3.46285152  1064919166
3.62131286 -4.85819960 -2.49513626  3231163799
-2.49513626 0.97412860 4.00065184  1064919166
4.07347679 -4.48583984 -2.49513626  3230494063
-2.49513626 0.97412860 -4.31358671  1064927629
-4.56576824 3.76699853 -2.49513626  1080842455
-2.49513626 0.97463304 -4.68480253  1064927629
-4.74250698 3.54191208 -2.49513626  1079886571
-2.49513626 0.97463304 -4.85419750  1064927629
-4.90815592 3.30855155 -2.49513626  1078219054
-2.49513626 0.97463304 -5.15856934  1064927629
-5.20468235 2.81918263 -2.49513626  1076108751
-2.49513626 0.97463304 -5.37549925  1064927629
-5.45257330 2.30346656 -2.49513626  1072542727
-2.49513626 0.97463304 -5.67723989  1064927629
-5.70349741 1.58323336 -2.49513626  1069472929
-2.49513626 0.97463304 -5.77335548  1064927629
-5.79364872 1.21249151 -2.49513626  1066351113
-2.49513626 0.97463304 -5.82971668  1064927629
-5.84548283 0.93104208 -2.49513626  1062613646
-2.49513626 0.97463304 -5.88365221  1064927629
-5.90806770 0.36227870 -2.49513626  1049146815
-2.49513626 0.97463304 -5.91867161  1064927629
-5.91913319 -0.01911096 -2.49513626  3193366709
-2.49513626 0.97463304 -5.91129160  1064927629
-5.90560532 -0.40041381 -2.49513626  3204298804
-2.49513626 0.97463304 -5.88963175  1064927629
-5.82297850 -1.06274915 -2.49513626  3214932942
-2.49513626 0.97463304 -5.76480532  1064927629
-5.74241018 -1.43569613 -2.49513626  3219570150
-2.49513626 0.97463304 -5.60820007  1064927629
-5.57695770 -1.98344362 -2.49513626  3221531956
-2.49513626 0.97463304 -5.51013422  1064927629
-5.31819630 -2.59871078 -2.49513626  3225151123
-2.49513626 0.97463304 -5.09173489  1064927629
-5.04242611 -3.10007215 -2.49513626  3226514397
-2.49513626 0.97463304 -4.88669109  1064927629
-4.83222580 -3.41849399 -2.49513626  3227499845
-2.49513626 0.97463304 -4.60194921  1064927629
-4.47957516 -3.86909819 -2.49513626  3229365749
-2.49513626 0.97463304 -4.15356970  1064927629
-4.01549625 -4.34882736 -2.49513626  3230612303
-2.49513626 0.97463304 -3.72697139  1064927629
-3.57682610 -4.71622944 -2.49513626  3231235732
-2.49513626 0.97463304 -3.26555324  1064927629
-3.18556023 -4.98885870 -2.49513626  3232096537
-2.49513626 0.97463304 -2.68897510  1064927629
-2.60363603 -5.31578541 -2.49513626  3232543675
-2.49513626 0.97463304 -2.34365678  1064927629
-1.80789232 -5.63631392 -2.49513626  3233161734
-2.49513626 0.97463304 -1.44101179  1064927629
-1.34829605 -5.76355934 -2.49513626  3233397380
-2.49513626 0.97463304 -0.97417074  1064927629
-0.87994772 -5.85339212 -2.49513626  3233554021
-2.49513626 0.97463304 -0.59600043  1064927629
-0.50100631 -5.89792395 -2.49513626  3233609642
-2.49513626 0.97463304 -0.31065878  1064927629
-0.21535325 -5.91524506 -2.49513626  3233636309
-2.49513626 0.97463304 -0.02459048  1064927629
0.07081004 -5.91874123 -2.49513626  3233602615
-2.49513626 0.97463304 0.73671508  1064927629
0.92562550 -5.84634256 -2.49513626  3233453263
-2.49513626 0.97463304 1.11356950  1064927629
1.20711982 -5.79477024 -2.49513626  3233335608
-2.49513626 0.97463304 1.39325881  1064927629
1.48579526 -5.72965240 -2.49513626  3233076774
-2.49513626 0.97463304 1.94221616  1064927629
2.03208017 -5.55942059 -2.49513626  3232814224
-2.49513626 0.97463304 2.21020222  1064927629
2.29841590 -5.45470333 -2.49513626  3232330510
-2.49513626 0.97463304 2.73006535  1064927629
3.22441816 -4.96383286 -2.49513626  3231525049
-2.49513626 0.97463304 3.38272357  1064927629
3.46057057 -4.80218267 -2.49513626  3231178103
-2.49513626 0.97463304 3.61354423  1064927629
3.68863249 -4.62930870 -2.49513626  3230807901
-2.49513626 0.97463304 4.04932737  1064927629
4.25327253 -4.11657429 -2.49513626  1081966977
-2.49513626 0.97511649 -4.27865314  1064935740
-4.40188837 3.75265431 -2.49513626  1080182192
-2.49513626 0.97511649 -4.63451338  1064935740
-5.04110146 2.83660269 -2.49513626  1076214904
-2.49513626 0.97511649 -5.21338081  1064935740
-5.29143810 2.33660102 -2.49513626  1074794663
-2.49513626 0.97511649 -5.43098259  1064935740
-5.46236324 1.90305066 -2.49513626  1072187987
-2.49513626 0.97511649 -5.52086115  1064935740
-5.57361937 1.54718196 -2.49513626  1068429666
-2.49513626 0.97511649 -5.64188910  1064935740
-5.66172123 1.18488157 -2.49513626  1066137366
-2.49513626 0.97511649 -5.71237230  1064935740
-5.75912476 0.53992730 -2.49513626  1055187408
-2.49513626 0.97511649 -5.77353144  1064935740
-5.77849102 0.26093239 -2.49513626  1033417147
-2.49513626 0.97511649 -5.78074074  1064935740
-5.77112675 -0.39129576 -2.49513626  3207296777
-2.49513626 0.97511649 -5.67290497  1064935740
-5.63353062 -1.31237590 -2.49513626  3216974629
-2.49513626 0.97511649 -5.56351471  1064935740
-5.44996262 -1.93827903 -2.49513626  3221699105
-2.49513626 0.97511649 -5.34990978  1064935740
-5.19709301 -2.53953576 -2.49513626  3223838378
-2.49513626 0.97511649 -5.06827354  1064935740
-5.02268219 -2.86909199 -2.49513626  3225208667
-2.49513626 0.97511649 -4.92760324  1064935740
-4.87813711 -3.10850310 -2.49513626  3226202937
-2.49513626 0.97511649 -4.77541590  1064935740
-4.72218847 -3.34065056 -2.49513626  3227165948
-2.49513626 0.97511649 -4.61207008  1064935740
-4.55520296 -3.56498742 -2.49513626  3228397531
-2.49513626 0.97511649 -4.18970156  1064935740
-4.12487841 -4.05516386 -2.49513626  3229868091
-2.49513626 0.97511649 -3.99203777  1064935740
-3.92405963 -4.24979925 -2.49513626  3230269426
-2.49513626 0.97511649 -3.78504682  1064935740
-3.71406007 -4.43449736 -2.49513626  3230649622
-2.49513626 0.97511649 -3.56920552  1064935740
-3.49537659 -4.60883427 -2.49513626  3231122130
-2.49513626 0.97511649 -3.26852965  1064935740
-3.19119215 -4.82445049 -2.49513626  3231654726
-2.49513626 0.97511649 -2.87374425  1064935740
-2.62774110 -5.15305614 -2.49513626  3232119626
-2.49513626 0.97511649 -2.37560058  1064935740
-2.20438552 -5.34786987 -2.49513626  3232651100
-2.49513626 0.97511649 -1.76672423  1064935740
-1.40819764 -5.61034584 -2.49513626  3233037294
-2.49513626 0.97511649 -1.22664773  1064935740
-0.67510664 -5.74484253 -2.49513626  3233294539
-2.49513626 0.97511649 -0.11725550  1064935740
0.06919804 -5.78396416 -2.49513626  3233351408
-2.49513626 0.97511649 0.25557542  1064935740
0.34867844 -5.77385902 -2.49513626  3233320774
-2.49513626 0.97511649 0.53458828  1064935740
0.62734580 -5.75025749 -2.49513626  3233261863
-2.49513626 0.97511649 0.81234986  1064935740
0.90454865 -5.71321344 -2.49513626  3233174823
-2.49513626 0.97511649 1.27074790  1064935740
1.36153305 -5.62185335 -2.49513626  3232917202
-2.49513626 0.97511649 1.80967987  1064935740
2.07310843 -5.40011644 -2.49513626  3232404329
-2.49513626 0.97511649 2.33169532  1064935740
2.50109243 -5.21570253 -2.49513626  3231988852
-2.49513626 0.97511649 2.91284943  1064935740
3.15099359 -4.85079908 -2.49513626  3231180078
-2.49513626 0.97511649 3.45696473  1064935740
3.53125906 -4.58139944 -2.49513626  3230712760
-2.49513626 0.97511649 3.67707968  1064935740
3.81908774 -4.34437513 -2.49513626  3230073421
-2.49513626 0.97511649 4.15641832  1064935740
4.22071266 -3.95532513 -2.49513626  3229139234
-2.49513626 0.97511649 -4.24351168  1064943521
-4.41919661 3.52791643 -2.49513626  1079849720
-2.49513626 0.97558028 -4.53060436  1064943521
-4.58454609 3.31019878 -2.49513626  1078610237
-2.49513626 0.97558028 -4.73918438  1064943521
-4.78828621 3.00795841 -2.49513626  1077644185
-2.49513626 0.97558028 -5.05634928  1064943521
-5.09649420 2.44974232 -2.49513626  1075282333
-2.49513626 0.97558028 -5.17279959  1064943521
-5.20894384 2.20054436 -2.49513626  1073874020
-2.49513626 0.97558028 -5.30921555  1064943521
-5.39707851 1.68731582 -2.49513626  1070387312
-2.49513626 0.97558028 -5.55272865  1064943521
-5.56923580 0.97933149 -2.49513626  1063498354
-2.49513626 0.97558028 -5.61006260  1064943521
-5.62999964 0.52782166 -2.49513626  1054851095
-2.49513626 0.97558028 -5.64408541  1064943521
-5.65421724 0.07288563 -2.49513626  3185575553
-2.49513626 0.97558028 -5.65113258  1064943521
-5.64716673 -0.29154861 -2.49513626  3200506373
-2.49513626 0.97558028 -5.63483620  1064943521
-5.62647486 -0.56415594 -2.49513626  3207044829
-2.49513626 0.97558028 -5.60536957  1064943521
-5.59263182 -0.83544856 -2.49513626  3211586602
-2.49513626 0.97558028 -5.56279898  1064943521
-5.54571295 -1.10479105 -2.49513626  3214464466
-2.49513626 0.97558028 -5.46301460  1064943521
-5.43877745 -1.54764128 -2.49513626  3219620812
-2.49513626 0.97558028 -5.22995949  1064943521
-5.19462776 -2.23412919 -2.49513626  3223591712
-2.49513626 0.97558028 -4.95463848  1064943521
-4.76876640 -3.03880858 -2.49513626  3226220589
-2.49513626 0.97558028 -4.61631441  1064943521
-4.56308365 -3.33972383 -2.49513626  3227151324
-2.49513626 0.97558028 -4.45307255  1064943521
-4.39632702 -3.55637455 -2.49513626  3228048645
-2.49513626 0.97558028 -4.15806770  1064943521
-4.09576464 -3.89874339 -2.49513626  3229674315
-2.49513626 0.97558028 -3.76861954  1064943521
-3.63078737 -4.33507204 -2.49513626  3230438327
-2.49513626 0.97558028 -3.48918033  1064943521
-3.34395099 -4.55998707 -2.49513626  3231009506
-2.49513626 0.97558028 -3.11964297  1064943521
-3.04322481 -4.76594877 -2.49513626  3231321953
-2.49513626 0.97558028 -2.80931258  1064943521
-2.72985029 -4.95211029 -2.49513626  3231789918
-2.49513626 0.97558028 -2.40513349  1064943521
-2.07042480 -5.26201773 -2.49513626  3232574442
-2.49513626 0.97558028 -1.55267823  1064943521
-1.46484280 -5.46165943 -2.49513626  3232727428
-2.49513626 0.97558028 -0.93064213  1064943521
-0.75039840 -5.60467625 -2.49513626  3233003163
-2.49513626 0.97558028 -0.56937021  1064943521
-0.47862044 -5.63439322 -2.49513626  3233056298
-2.49513626 0.97558028 -0.29677778  1064943521
-0.20572993 -5.65094280 -2.49513626  3233081774
-2.49513626 0.97558028 -0.02349040  1064943521
0.06764629 -5.65428257 -2.49513626  3233079534
-2.49513626 0.97558028 0.43178955  1064943521
0.79413617 -5.59864569 -2.49513626  3232938317
-2.49513626 0.97558028 0.97416794  1064943521
1.33100796 -5.49580717 -2.49513626  3232488906
-2.49513626 0.97558028 2.02662754  1064943521
2.19571900 -5.21097994 -2.49513626  3231999600
-2.49513626 0.97558028 2.44501758  1064943521
2.52687764 -5.05869389 -2.49513626  3231747533
-2.49513626 0.97558028 2.84754109  1064943521
2.92591095 -4.83885717 -2.49513626  3231273076
-2.49513626 0.97558028 3.08034658  1064943521
3.23157883 -4.64030027 -2.49513626  3230846397
-2.49513626 0.97558028 3.59463716  1064943521
3.66452527 -4.30659246 -2.49513626  3229875046
-2.49513626 0.97558028 4.12608194  1064943521
-4.02983141 3.78669190 -2.49513626  1080682738
-2.49513626 0.97602546 -4.26542282  1064950990
-4.48328638 3.23708558 -2.49513626  1078625691
-2.49513626 0.97602546 -4.58528757  1064950990
-4.72932482 2.86567068 -2.49513626  1076727140
-2.49513626 0.97602546 -4.86230850  1064950990
-4.90412474 2.55502248 -2.49513626  1075736857
-2.49513626 0.97602546 -5.16060209  1064950990
-5.19194889 1.90322006 -2.49513626  1072225938
-2.49513626 0.97602546 -5.25059271  1064950990
-5.32831001 1.47908652 -2.49513626  1067925060
-2.49513626 0.97602546 -5.43008471  1064950990
-5.46095514 0.86979628 -2.49513626  1058723324
-2.49513626 0.97602546 -5.50564814  1064950990
-5.51942348 0.33844677 -2.49513626  1048538898
-2.49513626 0.97602546 -5.50220060  1064950990
-5.49259472 -0.64030594 -2.49513626  3211243654
-2.49513626 0.97602546 -5.43993235  1064950990
-5.40510654 -1.16765296 -2.49513626  3214972738
-2.49513626 0.97602546 -5.36466360  1064950990
-5.34235144 -1.42753780 -2.49513626  3217144064
-2.49513626 0.97602546 -5.26710844  1064950990
-5.21009445 -1.85297024 -2.49513626  3220694483
-2.49513626 0.97602546 -5.11444378  1064950990
-5.04402018 -2.26637268 -2.49513626  3222682465
-2.49513626 0.97602546 -4.96835518  1064950990
-4.88752794 -2.58663082 -2.49513626  3224341067
-2.49513626 0.97602546 -4.75679111  1064950990
-4.71072578 -2.89614415 -2.49513626  3225301034
-2.49513626 0.97602546 -4.61493635  1064950990
-4.35471630 -3.40808010 -2.49513626  3227423910
-2.49513626 0.97602546 -4.24261141  1064950990
-4.18490028 -3.61457968 -2.49513626  3228278450
-2.49513626 0.97602546 -4.06622648  1064950990
-4.00530005 -3.81263041 -2.49513626  3229096869
-2.49513626 0.97602546 -3.88033938  1064950990
-3.81633782 -4.00176764 -2.49513626  3229871375
-2.49513626 0.97602546 -3.55059409  1064950990
-3.27009201 -4.45926952 -2.49513626  3230793405
-2.49513626 0.97602546 -3.05073857  1064950990
-2.90050602 -4.70804024 -2.49513626  3231289863
-2.49513626 0.97602546 -2.59115696  1064950990
-2.43236423 -4.96610308 -2.49513626  3231947150
-2.49513626 0.97602546 -1.77361047  1064950990
-1.68896556 -5.26554632 -2.49513626  3232323774
-2.49513626 0.97602546 -1.34621942  1064950990
-1.17265987 -5.40402079 -2.49513626  3232596687
-2.49513626 0.97602546 -0.99787891  1064950990
-0.82206130 -5.46834517 -2.49513626  3232780669
-2.49513626 0.97602546 -0.37918478  1064950990
-0.20118593 -5.52612972 -2.49513626  3232819901
-2.49513626 0.97602546 -0.02297156  1064950990
0.15525952 -5.52760935 -2.49513626  3232801193
-2.49513626 0.97602546 0.42225233  1064950990
0.51106024 -5.50612307 -2.49513626  3232753876
-2.49513626 0.97602546 0.68825245  1064950990
0.86473691 -5.46175909 -2.49513626  3232615214
-2.49513626 0.97602546 1.12771344  1064950990
1.55985177 -5.30522871 -2.49513626  3232240129
-2.49513626 0.97602546 1.81445336  1064950990
1.98186576 -5.16244030 -2.49513626  3231983503
-2.49513626 0.97602546 2.14722133  1064950990
2.22907233 -5.06061411 -2.49513626  3231682177
-2.49513626 0.97602546 2.55047774  1064950990
2.70728683 -4.82174110 -2.49513626  3231149152
-2.49513626 0.97602546 2.93718004  1064950990
3.01231003 -4.63730240 -2.49513626  3230847522
-2.49513626 0.97602546 3.16020203  1064950990
3.23292756 -4.48628616 -2.49513626  3230295200
-2.49513626 0.97602546 3.51524162  1064950990
3.58358574 -4.21147156 -2.49513626  3229935293
-2.49513626 0.97602546 3.78295588  1064950990
3.84746718 -3.97184896 -2.49513626  3228421723
-2.49513626 0.97602546 -3.94210744  1064958165
-4.05944729 3.57528043 -2.49513626  1079220928
-2.49513626 0.97645313 -4.33408546  1064958165
-4.43615723 3.09551835 -2.49513626  1077730341
-2.49513626 0.97645313 -4.62637138  1064958165
-4.67095518 2.72835636 -2.49513626  1076479529
-2.49513626 0.97645313 -4.79736614  1064958165
-4.83702803 2.42175746 -2.49513626  1075182496
-2.49513626 0.97645313 -4.94842815  1064958165
-4.98300266 2.10509729 -2.49513626  1073844632
-2.49513626 0.97645313 -5.04826164  1064958165
-5.18832207 1.53070557 -2.49513626  1066974427
-2.49513626 0.97645313 -5.29470825  1064958165
-5.36672306 0.67824537 -2.49513626  1057047266
-2.49513626 0.97645313 -5.39927006  1064958165
-5.40896368 0.06972420 -2.49513626  3163493140
-2.49513626 0.97645313 -5.40601254  1064958165
-5.40221930 -0.27890262 -2.49513626  3199949637
-2.49513626 0.97645313 -5.39042187  1064958165
-5.37302732 -0.62636727 -2.49513626  3208019783
-2.49513626 0.97645313 -5.35004759  1064958165
-5.28744030 -1.14223361 -2.49513626  3215454576
-2.49513626 0.97645313 -5.20286751  1064958165
-5.17833138 -1.56417143 -2.49513626  3218267873
-2.49513626 0.97645313 -5.12522507  1064958165
-5.09667444 -1.81263041 -2.49513626  3220340823
-2.49513626 0.97645313 -4.93421745  1064958165
-4.89784145 -2.29627323 -2.49513626  3223125220
-2.49513626 0.97645313 -4.78113127  1064958165
-4.73972940 -2.60705256 -2.49513626  3224090630
-2.49513626 0.97645313 -4.56191874  1064958165
-4.41607857 -3.12409592 -2.49513626  3226530424
-2.49513626 0.97645313 -4.25991917  1064958165
-4.20563841 -3.40202379 -2.49513626  3227667484
-2.49513626 0.97645313 -4.03627729  1064958165
-3.97770691 -3.66600060 -2.49513626  3228742895
-2.49513626 0.97645313 -3.79586935  1064958165
-3.73325944 -3.91465259 -2.49513626  3229683160
-2.49513626 0.97645313 -3.53968740  1064958165
-3.47330070 -4.14703655 -2.49513626  3230038715
-2.49513626 0.97645313 -3.33783436  1064958165
-3.26879454 -4.31007433 -2.49513626  3230585119
-2.49513626 0.97645313 -2.98432803  1064958165
-2.83736587 -4.60555315 -2.49513626  3231070770
-2.49513626 0.97645313 -2.53474832  1064958165
-2.45740223 -4.81901455 -2.49513626  3231642708
-2.49513626 0.97645313 -2.06148887  1064958165
-1.98061943 -5.03377628 -2.49513626  3231910449
-2.49513626 0.97645313 -0.97615689  1064958165
-0.89027578 -5.33564949 -2.49513626  3232443780
-2.49513626 0.97645313 -0.63134366  1064958165
-0.54467332 -5.38192081 -2.49513626  3232529121
-2.49513626 0.97645313 0.06471230  1064958165
0.23900674 -5.40412903 -2.49513626  3232549204
-2.49513626 0.97645313 0.49993446  1064958165
0.58667809 -5.37750340 -2.49513626  3232481620
-2.49513626 0.97645313 0.75968993  1064958165
0.84591144 -5.34286165 -2.49513626  3232331425
-2.49513626 0.97645313 1.18837321  1064958165
1.27327228 -5.25742435 -2.49513626  3232056157
-2.49513626 0.97645313 1.69236934  1064958165
2.01986098 -5.01815844 -2.49513626  3231607319
-2.49513626 0.97645313 2.33896351  1064958165
2.41727257 -4.83927059 -2.49513626  3231291138
-2.49513626 0.97645313 2.64835048  1064958165
2.72402787 -4.67348146 -2.49513626  3230933126
-2.49513626 0.97645313 2.87323856  1064958165
2.94673467 -4.53635263 -2.49513626  3230320996
-2.49513626 0.97645313 3.37097192  1064958165
3.43871856 -4.17575979 -2.49513626  3229623866
-2.49513626 0.97645313 3.70060205  1064958165
3.82584453 -3.82421899 -2.49513626  3228082459
-2.49513626 0.97645313 -3.85748649  1064965062
-3.91540551 3.56210566 -2.49513626  1080027136
-2.49513626 0.97686422 -4.02817678  1064965062
-4.08300352 3.36869144 -2.49513626  1079204684
-2.49513626 0.97686422 -4.18945265  1064965062
-4.24105358 3.16740513 -2.49513626  1078349872
-2.49513626 0.97686422 -4.38918734  1064965062
-4.43630362 2.88759351 -2.49513626  1075927448
-2.49513626 0.97686422 -4.73319769  1064965062
-4.80711555 2.21599245 -2.49513626  1072917086
-2.49513626 0.97686422 -4.96990442  1064965062
-4.99862099 1.74148631 -2.49513626  1070895559
-2.49513626 0.97686422 -5.05215120  1064965062
-5.10043287 1.41582990 -2.49513626  1066060274
-2.49513626 0.97686422 -5.21330738  1064965062
-5.22740459 0.83259779 -2.49513626  1056766265
-2.49513626 0.97686422 -5.28337288  1064965062
-5.29106903 0.15352191 -2.49513626  1032567595
-2.49513626 0.97686422 -5.29230595  1064965062
-5.28996897 -0.18768112 -2.49513626  3199686067
-2.49513626 0.97686422 -5.27471447  1064965062
-5.26688719 -0.52810079 -2.49513626  3206342766
-2.49513626 0.97686422 -5.24713135  1064965062
-5.22192144 -0.86633122 -2.49513626  3212004354
-2.49513626 0.97686422 -5.19128656  1064965062
-5.13523197 -1.28389156 -2.49513626  3215911172
-2.49513626 0.97686422 -5.09118509  1064965062
-5.06717539 -1.53059554 -2.49513626  3217971224
-2.49513626 0.97686422 -5.01521158  1064965062
-4.98727322 -1.77372265 -2.49513626  3219999678
-2.49513626 0.97686422 -4.92751551  1064965062
-4.86263895 -2.09134626 -2.49513626  3222584150
-2.49513626 0.97686422 -4.71780014  1064965062
-4.50926065 -2.77228427 -2.49513626  3224767977
-2.49513626 0.97686422 -4.41756773  1064965062
-4.36999416 -2.98699498 -2.49513626  3225949442
-2.49513626 0.97686422 -4.16847610  1064965062
-4.11535835 -3.32908678 -2.49513626  3227076454
-2.49513626 0.97686422 -3.89232516  1064965062
-3.71438885 -3.77124715 -2.49513626  3229619778
-2.49513626 0.97686422 -3.39874387  1064965062
-3.33289790 -4.11227226 -2.49513626  3229961060
-2.49513626 0.97686422 -2.99104095  1064965062
-2.92026758 -4.41486406 -2.49513626  3230581616
-2.49513626 0.97686422 -2.77645969  1064965062
-2.70346522 -4.55085325 -2.49513626  3231032185
-2.49513626 0.97686422 -2.17391753  1064965062
-2.01723742 -4.89384794 -2.49513626  3231555461
-2.49513626 0.97686422 -1.85846651  1064965062
-1.61673522 -5.04035282 -2.49513626  3231992336
-2.49513626 0.97686422 -1.20573390  1064965062
-1.03899217 -5.19031954 -2.49513626  3232174942
-2.49513626 0.97686428 -0.78690398  1064965062
-0.70244056 -5.24648046 -2.49513626  3232269906
-2.49513626 0.97686422 -0.44803199  1064965062
-0.36296812 -5.28083849 -2.49513626  3232311021
-2.49513626 0.97686422 -0.10730076  1064965062
0.40419409 -5.27784157 -2.49513626  3232189750
-2.49513626 0.97686422 0.91190869  1064965062
0.99582434 -5.19878101 -2.49513626  3232055133
-2.49513626 0.97686422 1.24594164  1064965062
1.32869315 -5.12382174 -2.49513626  3231924602
-2.49513626 0.97686422 1.57479751  1064965062
1.89710569 -4.94165850 -2.49513626  3231523409
-2.49513626 0.97686422 2.13373995  1064965062
2.21153450 -4.80916882 -2.49513626  3230904937
-2.49513626 0.97686422 2.73891592  1064965062
2.81156492 -4.48487282 -2.49513626  3230436015
-2.49513626 0.97686422 3.02504778  1064965062
3.16347528 -4.24398565 -2.49513626  3230017676
-2.49513626 0.97686422 3.49485493  1064965062
3.55847430 -3.91870451 -2.49513626  3229030420
-2.49513626 0.97686422 3.74372125  1064965062
3.92021751 -3.55680871 -2.49513626  1080234557
-2.49513626 0.97725976 -3.83249235  1064971698
-4.10073614 3.16683555 -2.49513626  1078074656
-2.49513626 0.97725976 -4.43119907  1064971698
-4.47389984 2.61325550 -2.49513626  1076010157
-2.49513626 0.97725976 -4.55579901  1064971698
-4.63296747 2.31959414 -2.49513626  1074450940
-2.49513626 0.97725976 -4.91960669  1064971698
-4.99242496 1.38584709 -2.49513626  1067913490
-2.49513626 0.97725976 -5.03449678  1064971698
-5.07134008 1.06132698 -2.49513626  1065008521
-2.49513626 0.97725976 -5.10290861  1064971698
-5.11670876 0.81496626 -2.49513626  1060863531
-2.49513626 0.97725976 -5.14031649  1064971698
-5.15011930 0.56670219 -2.49513626  1056415188
-2.49513626 0.97725976 -5.16570854  1064971698
-5.17902517 0.15027130 -2.49513626  3163097568
-2.49513626 0.97725976 -5.18023682  1064971698
-5.16933632 -0.35049301 -2.49513626  3204732086
-2.49513626 0.97725976 -5.14635372  1064971698
-5.13601542 -0.68280751 -2.49513626  3214309287
-2.49513626 0.97725976 -5.02648783  1064971698
-4.93508196 -1.57792616 -2.49513626  3219670357
-2.49513626 0.97725976 -4.75966644  1064971698
-4.72605562 -2.12350535 -2.49513626  3222061820
-2.49513626 0.97725976 -4.61789465  1064971698
-4.57942915 -2.42357802 -2.49513626  3223918579
-2.49513626 0.97725976 -4.27745390  1064971698
-4.13114071 -3.12706900 -2.49513626  3226230305
-2.49513626 0.97725976 -3.97516704  1064971698
-3.92109394 -3.38672471 -2.49513626  3227305048
-2.49513626 0.97725976 -3.80990076  1064971698
-3.75281453 -3.57229090 -2.49513626  3228319666
-2.49513626 0.97725976 -3.57576418  1064971698
-3.51487255 -3.80664659 -2.49513626  3229038633
-2.49513626 0.97725976 -3.39035702  1064971698
-3.32677150 -3.97208762 -2.49513626  3229776074
-2.49513626 0.97725976 -3.13089323  1064971698
-2.92770219 -4.27474499 -2.49513626  3230288054
-2.49513626 0.97725976 -2.78840685  1064971698
-2.64621615 -4.45448399 -2.49513626  3230741210
-2.49513626 0.97725976 -2.42781401  1064971698
-2.35373020 -4.61571598 -2.49513626  3231059391
-2.49513626 0.97725976 -2.12788272  1064971698
-2.05146718 -4.75777006 -2.49513626  3231399518
-2.49513626 0.97725976 -1.74068415  1064971698
-1.66180527 -4.90747213 -2.49513626  3231673605
-2.49513626 0.97725976 -1.26135635  1064971698
-1.09873772 -5.06336069 -2.49513626  3231879886
-2.49513626 0.97725970 -0.85271710  1064971698
-0.77024156 -5.12363291 -2.49513626  3231995146
-2.49513626 0.97725976 -0.43854323  1064971698
-0.35528183 -5.16900921 -2.49513626  3232076271
-2.49513626 0.97725976 -0.18850450  1064971698
-0.10502790 -5.18014050 -2.49513626  3232091151
-2.49513626 0.97725976 0.06198207  1064971698
0.14547189 -5.17916250 -2.49513626  3232071486
-2.49513626 0.97725976 0.39563492  1064971698
0.64486748 -5.14091730 -2.49513626  3231983558
-2.49513626 0.97725976 0.81022614  1064971698
0.97473782 -5.08869028 -2.49513626  3231862897
-2.49513626 0.97725976 1.13823891  1064971698
1.21955872 -5.03562927 -2.49513626  3231743360
-2.49513626 0.97725976 1.46152198  1064971698
1.54144943 -4.94659615 -2.49513626  3231430868
-2.49513626 0.97725976 1.85693359  1064971698
1.93464935 -4.80645514 -2.49513626  3231238644
-2.49513626 0.97725976 2.16470265  1064971698
2.46348357 -4.55808640 -2.49513626  3230612995
-2.49513626 0.97725976 2.68091607  1064971698
2.75202656 -4.38990116 -2.49513626  3230337550
-2.49513626 0.97725976 2.89208102  1064971698
2.96098900 -4.25175571 -2.49513626  3229831491
-2.49513626 0.97725976 3.35768414  1064971698
3.42084789 -3.89136076 -2.49513626  3228925047
-2.49513626 0.97725976 3.66444349  1064971698
3.72300434 -3.60334897 -2.49513626  3227439288
-2.49513626 0.97725976 -3.69688535  1064978085
-3.75239134 3.41380024 -2.49513626  1079416206
-2.49513626 0.97764045 -3.91301250  1064978085
-3.96453667 3.16495466 -2.49513626  1077246322
-2.49513626 0.97764045 -4.25160217  1064978085
-4.46058226 2.41613102 -2.49513626  1075184354
-2.49513626 0.97764045 -4.57215214  1064978085
-4.60697794 2.12373281 -2.49513626  1073948210
-2.49513626 0.97764045 -4.73423100  1064978085
-4.81678581 1.59155762 -2.49513626  1069662608
-2.49513626 0.97764045 -4.90931559  1064978085
-4.92927122 1.19863617 -2.49513626  1066351759
-2.49513626 0.97764045 -4.96534586  1064978085
-4.99625731 0.87857491 -2.49513626  1061963095
-2.49513626 0.97764045 -5.02197838  1064978085
-5.05774450 0.39205146 -2.49513626  1032186295
-2.49513626 0.97764045 -5.07289028  1064978085
-5.06972694 -0.17986724 -2.49513626  3196447311
-2.49513626 0.97764045 -5.06129694  1064978085
-5.05510759 -0.42469910 -2.49513626  3204550832
-2.49513626 0.97764045 -5.03879404  1064978085
-5.01724434 -0.74949533 -2.49513626  3209989144
-2.49513626 0.97764045 -4.95853281  1064978085
-4.92143345 -1.23043811 -2.49513626  3215433930
-2.49513626 0.97764045 -4.83193779  1064978085
-4.80640841 -1.62262428 -2.49513626  3219992670
-2.49513626 0.97764045 -4.66018867  1064978085
-4.59316969 -2.15343404 -2.49513626  3222178339
-2.49513626 0.97764045 -4.52138138  1064978085
-4.48371887 -2.37292194 -2.49513626  3224843629
-2.49513626 0.97764045 -4.09362125  1064978085
-3.99492788 -3.12650561 -2.49513626  3226483607
-2.49513626 0.97764045 -3.83914256  1064978085
-3.78519797 -3.37738848 -2.49513626  3227753458
-2.49513626 0.97764045 -3.55974483  1064978085
-3.50103092 -3.67114067 -2.49513626  3228700010
-2.49513626 0.97764045 -3.31949759  1064978085
-3.25724077 -3.88906884 -2.49513626  3229804589
-2.49513626 0.97764045 -2.86651111  1064978085
-2.73012877 -4.27561378 -2.49513626  3230283200
-2.49513626 0.97764045 -2.59090996  1064978085
-2.52028251 -4.40257454 -2.49513626  3230542329
-2.49513626 0.97764045 -2.37707281  1064978085
-2.08340979 -4.62535286 -2.49513626  3230994698
-2.49513626 0.97764045 -1.70430434  1064978085
-1.62707329 -4.80490541 -2.49513626  3231355776
-2.49513626 0.97764045 -1.23499382  1064978085
-1.15553367 -4.93955755 -2.49513626  3231657195
-2.49513626 0.97764045 -0.83489454  1064978085
-0.75414228 -5.01654768 -2.49513626  3231791440
-2.49513626 0.97764045 -0.42937857  1064978085
-0.34785628 -5.06097507 -2.49513626  3231849484
-2.49513626 0.97764045 -0.18456474  1064978085
-0.10283342 -5.07187462 -2.49513626  3231859956
-2.49513626 0.97764045 0.30579188  1064978085
0.46883628 -5.05120516 -2.49513626  3231781427
-2.49513626 0.97764045 0.79329133  1064978085
0.95436543 -4.98233509 -2.49513626  3231640573
-2.49513626 0.97764045 1.11444879  1064978085
1.19406796 -4.93038225 -2.49513626  3231523531
-2.49513626 0.97764045 1.35235095  1064978085
1.43097556 -4.86690807 -2.49513626  3231382423
-2.49513626 0.97764045 1.66454220  1064978085
2.19346666 -4.57418680 -2.49513626  3230742850
-2.49513626 0.97764045 2.33975649  1064978085
2.41199613 -4.46282244 -2.49513626  3230329255
-2.49513626 0.97764045 2.76343155  1064978085
3.16127729 -3.96746707 -2.49513626  3228356221
-2.49513626 0.97764045 3.75700402  1064978085
-3.62059140 3.40214372 -2.49513626  1079376245
-2.49513626 0.97800714 -3.93217063  1064984237
-4.07434893 2.84305167 -2.49513626  1076720877
-2.49513626 0.97800714 -4.28999519  1064984237
-4.32982397 2.43636870 -2.49513626  1075278070
-2.49513626 0.97800708 -4.40609837  1064984237
-4.44252682 2.22424293 -2.49513626  1074380830
-2.49513626 0.97800714 -4.54483795  1064984237
-4.57659435 1.93340492 -2.49513626  1071308642
-2.49513626 0.97800714 -4.71738005  1064984237
-4.74189186 1.48248148 -2.49513626  1068757837
-2.49513626 0.97800714 -4.78720522  1064984237
-4.80800056 1.25155652 -2.49513626  1066811997
-2.49513626 0.97800714 -4.86287594  1064984237
-4.87864542 0.93919301 -2.49513626  1060358437
-2.49513626 0.97800714 -4.93841791  1064984237
-4.95891142 0.30407679 -2.49513626  1046838880
-2.49513626 0.97800714 -4.96613598  1064984237
-4.96729898 -0.09610817 -2.49513626  3191104011
-2.49513626 0.97800714 -4.96161795  1064984237
-4.95684528 -0.33608565 -2.49513626  3201627484
-2.49513626 0.97800714 -4.94343948  1064984236
-4.93480778 -0.57528138 -2.49513626  3207044362
-2.49513626 0.97800714 -4.88749218  1064984237
-4.87247992 -0.97067267 -2.49513626  3213248531
-2.49513626 0.97800714 -4.83866501  1064984237
-4.77852631 -1.35976255 -2.49513626  3217140754
-2.49513626 0.97800714 -4.70721865  1064984237
-4.59505892 -1.88909948 -2.49513626  3220914360
-2.49513626 0.97800714 -4.53178644  1064984237
-4.49837971 -2.10899234 -2.49513626  3221985570
-2.49513626 0.97800708 -4.42807245  1064984237
-4.39118624 -2.32394743 -2.49513626  3222879788
-2.49513626 0.97800714 -4.18985271  1064984237
-4.14627695 -2.73708797 -2.49513626  3225144176
-2.49513626 0.97800714 -3.86262631  1064984237
-3.75991297 -3.24750996 -2.49513626  3227683228
-2.49513626 0.97800714 -3.19002080  1064984237
-3.06560612 -3.90964460 -2.49513626  3229440213
-2.49513626 0.97800714 -2.80735397  1064984237
-2.74092817 -4.14373970 -2.49513626  3230007039
-2.49513626 0.97800714 -2.60595250  1064984237
-2.46827054 -4.31171703 -2.49513626  3230350054
-2.49513626 0.97800714 -2.25697756  1064984237
-2.04041386 -4.52989817 -2.49513626  3230921077
-2.49513626 0.97800714 -1.51744676  1064984237
-1.44100511 -4.75465727 -2.49513626  3231244121
-2.49513626 0.97800714 -1.28701460  1064984237
-1.05357325 -4.85522747 -2.49513626  3231441913
-2.49513626 0.97800714 -0.89654166  1064984237
-0.81766522 -4.90047789 -2.49513626  3231528824
-2.49513626 0.97800714 -0.65930229  1064984237
-0.42051750 -4.95039701 -2.49513626  3231620071
-2.49513626 0.97800714 -0.26074982  1064984237
-0.02063873 -4.96818256 -2.49513626  3231643852
-2.49513626 0.97800714 0.21951403  1064984237
0.29948220 -4.95919132 -2.49513626  3231563581
-2.49513626 0.97800714 0.69773048  1064984237
0.77692074 -4.90710306 -2.49513626  3231425634
-2.49513626 0.97800714 1.09145045  1064984237
1.24709654 -4.80915928 -2.49513626  3231267550
-2.49513626 0.97800714 1.55434096  1064984237
1.70561779 -4.66627741 -2.49513626  3230827036
-2.49513626 0.97800714 2.00270343  1064984237
2.14820051 -4.47978687 -2.49513626  3230546440
-2.49513626 0.97800714 2.29146886  1064984237
2.50185800 -4.29231453 -2.49513626  3230053327
-2.49513626 0.97800714 2.77319908  1064984237
2.90461516 -4.03069115 -2.49513626  3229544265
-2.49513626 0.97800714 3.21966267  1064984237
3.33994293 -3.67804885 -2.49513626  3228035946
-2.49513626 0.97800714 3.45674682  1064984237
3.51381278 -3.51231885 -2.49513626  3227329147
-2.49513626 0.97800714 3.62518811  1064984237
3.67946982 -3.33837819 -2.49513626  1079331941
-2.49513626 0.97836053 -3.60003591  1064990166
-3.65235567 3.21674442 -2.49513626  1078596571
-2.49513626 0.97836053 -3.75413322  1064990166
-3.89945459 2.91228294 -2.49513626  1076763430
-2.49513626 0.97836053 -4.07897854  1064990166
-4.16242838 2.52216649 -2.49513626  1075075742
-2.49513626 0.97836053 -4.31627607  1064990166
-4.35196018 2.17890024 -2.49513626  1073899126
-2.49513626 0.97836053 -4.51323795  1064990166
-4.56959963 1.67508483 -2.49513626  1069773479
-2.49513626 0.97836053 -4.64522409  1064990165
-4.66802454 1.37720287 -2.49513626  1067884814
-2.49513626 0.97836053 -4.70998573  1064990166
-4.72913408 1.14996922 -2.49513626  1065970617
-2.49513626 0.97836053 -4.76374149  1064990166
-4.77918959 0.92004675 -2.49513626  1060118240
-2.49513626 0.97836053 -4.83774424  1064990166
-4.85781908 0.29787788 -2.49513626  1046532293
-2.49513626 0.97836053 -4.86489630  1064990166
-4.86691904 -0.01571370 -2.49513626  3203963890
-2.49513626 0.97836053 -4.82449532  1064990166
-4.81353188 -0.71906370 -2.49513626  3209423568
-2.49513626 0.97836053 -4.78785563  1064990166
-4.77314949 -0.95088452 -2.49513626  3213069131
-2.49513626 0.97836053 -4.72161007  1064990166
-4.68111181 -1.33204222 -2.49513626  3216253636
-2.49513626 0.97836053 -4.63574934  1064990166
-4.58556938 -1.63085639 -2.49513626  3219361533
-2.49513626 0.97836053 -4.50138426  1064990166
-4.47097349 -1.92289817 -2.49513626  3221181066
-2.49513626 0.97836053 -4.40667629  1064990166
-4.30166817 -2.27657533 -2.49513626  3222675072
-2.49513626 0.97836053 -4.22605753  1064990166
-4.14605808 -2.54898787 -2.49513626  3224356128
-2.49513626 0.97836053 -3.88056993  1064990166
-3.83272386 -2.99956083 -2.49513626  3225675389
-2.49513626 0.97836053 -3.68326354  1064990166
-3.57881427 -3.29836726 -2.49513626  3226911342
-2.49513626 0.97836053 -3.47065187  1064990166
-3.35888004 -3.52208304 -2.49513626  3228055929
-2.49513626 0.97836053 -3.12499046  1064990166
-3.06444550 -3.78104615 -2.49513626  3229101739
-2.49513626 0.97836053 -2.87811232  1064990166
-2.75012469 -4.01546478 -2.49513626  3230000585
-2.49513626 0.97836053 -2.34955978  1064990166
-1.92703736 -4.46919203 -2.49513626  3230661961
-2.49513626 0.97836053 -1.78199708  1064990166
-1.70877421 -4.55710745 -2.49513626  3230838933
-2.49513626 0.97836053 -1.56101024  1064990166
-1.48651254 -4.63437366 -2.49513626  3231083776
-2.49513626 0.97836053 -1.10861683  1064990166
-1.03209496 -4.75625181 -2.49513626  3231264626
-2.49513626 0.97836053 -0.56803107  1064990166
-0.49005231 -4.84220886 -2.49513626  3231395566
-2.49513626 0.97836053 -0.25543451  1064990166
0.13664901 -4.86502409 -2.49513626  3231402392
-2.49513626 0.97836053 0.44979966  1064990166
0.60575253 -4.82909918 -2.49513626  3231331035
-2.49513626 0.97836053 0.91561401  1064990166
1.06919992 -4.74804783 -2.49513626  3231017702
-2.49513626 0.97836053 1.44795382  1064990166
1.52265441 -4.62262535 -2.49513626  3230754152
-2.49513626 0.97836053 1.81730461  1064990166
2.10440683 -4.38846445 -2.49513626  3230356424
-2.49513626 0.97836053 2.24475503  1064990166
2.31406307 -4.28161716 -2.49513626  3230125295
-2.49513626 0.97836053 2.45085526  1064990166
2.51830769 -4.16476727 -2.49513626  3229784864
-2.49513626 0.97836053 2.71666408  1064990166
2.84540153 -3.94852257 -2.49513626  3229004923
-2.49513626 0.97836053 3.03292251  1064990166
3.15402675 -3.70665026 -2.49513626  3227949231
-2.49513626 0.97836053 3.38627672  1064990166
3.44218040 -3.44071651 -2.49513626  1079050322
-2.49513626 0.97870129 -3.72693968  1064995883
-3.77440715 2.91482377 -2.49513626  1077322132
-2.49513626 0.97870129 -3.91088223  1064995883
-3.99680281 2.60152149 -2.49513626  1075993193
-2.49513626 0.97870129 -4.07857275  1064995883
-4.11787510 2.40529633 -2.49513626  1075162093
-2.49513626 0.97870129 -4.22932005  1064995883
-4.33088017 1.99645591 -2.49513626  1072532473
-2.49513626 0.97870129 -4.45050573  1064995883
-4.47754002 1.64133799 -2.49513626  1070125989
-2.49513626 0.97870129 -4.55163908  1064995883
-4.59513712 1.27556527 -2.49513626  1066416907
-2.49513626 0.97870129 -4.66776991  1064995883
-4.70953083 0.75011283 -2.49513626  1059885711
-2.49513626 0.97870129 -4.73126078  1064995883
-4.75995398 0.29187700 -2.49513626  3183275698
-2.49513626 0.97870129 -4.76255131  1064995883
-4.74510098 -0.47578239 -2.49513626  3207880499
-2.49513626 0.97870129 -4.70458984  1064995883
-4.69139910 -0.85622531 -2.49513626  3211691452
-2.49513626 0.97870129 -4.66136599  1064995883
-4.64453125 -1.08198047 -2.49513626  3214775552
-2.49513626 0.97870129 -4.58680630  1064995883
-4.56517506 -1.37895942 -2.49513626  3216631515
-2.49513626 0.97870129 -4.51835823  1064995883
-4.46684933 -1.67021191 -2.49513626  3219659389
-2.49513626 0.97870129 -4.38090181  1064995883
-4.31789923 -2.02437687 -2.49513626  3221617975
-2.49513626 0.97870147 -4.25041151  1064995883
-4.21500635 -2.23071170 -2.49513626  3223312703
-2.49513626 0.97870129 -4.02175140  1064995883
-3.93706203 -2.69107628 -2.49513626  3224650389
-2.49513626 0.97870129 -3.80239177  1064995883
-3.75550985 -2.93913269 -2.49513626  3225911415
-2.49513626 0.97870129 -3.55835056  1064995883
-3.45417285 -3.28801441 -2.49513626  3226859499
-2.49513626 0.97870129 -3.34640765  1064995883
-3.29121232 -3.45112634 -2.49513626  3227532533
-2.49513626 0.97870129 -2.82012963  1064995883
-2.75778341 -3.89062715 -2.49513626  3229339641
-2.49513626 0.97870129 -2.56651139  1064995883
-2.50139832 -4.06021643 -2.49513626  3229983965
-2.49513626 0.97870129 -2.23461533  1064995883
-2.09767151 -4.28277016 -2.49513626  3230344210
-2.49513626 0.97870129 -1.88821483  1064995883
-1.60216415 -4.49170637 -2.49513626  3230796653
-2.49513626 0.97870129 -1.23537803  1064995883
-1.01130319 -4.66043854 -2.49513626  3231115438
-2.49513626 0.97870129 -0.55658752  1064995883
-0.48017904 -4.74465752 -2.49513626  3231190676
-2.49513626 0.97870129 -0.32700858  1064995883
0.05704972 -4.76855326 -2.49513626  3231208381
-2.49513626 0.97870129 0.59354919  1064995883
0.66973656 -4.72163057 -2.49513626  3231103526
-2.49513626 0.97870129 0.82156652  1064995883
0.89716983 -4.68374157 -2.49513626  3230982247
-2.49513626 0.97870129 1.12250865  1064995883
1.19706047 -4.61621046 -2.49513626  3230820427
-2.49513626 0.97870129 1.41878355  1064995883
1.49197924 -4.52949715 -2.49513626  3230672854
-2.49513626 0.97870129 1.63718605  1064995883
1.78069377 -4.42396593 -2.49513626  3230311858
-2.49513626 0.97870129 2.13104916  1064995883
2.19953251 -4.23136044 -2.49513626  3229783666
-2.49513626 0.97870129 2.59781766  1064995883
2.72535920 -3.91340899 -2.49513626  3228873943
-2.49513626 0.97870129 2.91132522  1064995883
2.97182131 -3.72969604 -2.49513626  3227859575
-2.49513626 0.97870129 3.20594025  1064995883
3.31805778 -3.42532396 -2.49513626  3226747696
-2.49513626 0.97870129 3.53184462  1064995883
-3.40610933 3.20060301 -2.49513626  1078071315
-2.49513626 0.97903013 -3.60523677  1065001400
-3.65270925 2.91601777 -2.49513626  1077335371
-2.49513626 0.97903013 -3.74479365  1065001400
-3.83298731 2.67463040 -2.49513626  1075512378
-2.49513626 0.97903013 -4.07332659  1065001400
-4.17935085 2.09247971 -2.49513626  1072802533
-2.49513626 0.97903013 -4.30547905  1065001400
-4.33423376 1.74924636 -2.49513626  1071050436
-2.49513626 0.97903013 -4.46098328  1065001400
-4.48288059 1.32257998 -2.49513626  1066228642
-2.49513626 0.97903013 -4.55877590  1065001400
-4.58963728 0.88355583 -2.49513626  1062156682
-2.49513626 0.97903007 -4.66514778  1065001400
-4.66915226 0.21083902 -2.49513626  1040895937
-2.49513626 0.97903013 -4.67352295  1065001400
-4.67097187 -0.16571991 -2.49513626  3200800710
-2.49513626 0.97903013 -4.63314676  1065001400
-4.62261724 -0.69054437 -2.49513626  3208893533
-2.49513626 0.97903013 -4.59795952  1065001400
-4.58383703 -0.91316986 -2.49513626  3213343787
-2.49513626 0.97903013 -4.53434229  1065001400
-4.51548243 -1.20659006 -2.49513626  3215785412
-2.49513626 0.97903013 -4.45188570  1065001400
-4.40369654 -1.56617224 -2.49513626  3221443589
-2.49513626 0.97903013 -4.13105440  1065001400
-4.09528255 -2.25257874 -2.49513626  3222560492
-2.49513626 0.97903007 -4.02055311  1065001400
-3.90065455 -2.57494450 -2.49513626  3223899248
-2.49513626 0.97903007 -3.68070984  1065001400
-3.58595657 -2.99772596 -2.49513626  3225888461
-2.49513626 0.97903013 -3.38537502  1065001400
-3.22565913 -3.38238978 -2.49513626  3227239835
-2.49513626 0.97903013 -3.05840516  1065001400
-2.94290376 -3.63108206 -2.49513626  3228263681
-2.49513626 0.97903013 -2.70285583  1065001400
-2.64104795 -3.85620284 -2.49513626  3229652548
-2.49513626 0.97903013 -2.32205153  1065001400
-2.19010758 -4.12902689 -2.49513626  3230096546
-2.49513626 0.97903013 -1.91954017  1065001400
-1.71131945 -4.34934759 -2.49513626  3230457645
-2.49513626 0.97903013 -1.42755413  1065001399
-1.21077204 -4.51436234 -2.49513626  3230769698
-2.49513626 0.97903007 -0.99116069  1065001400
-0.76922715 -4.61017704 -2.49513626  3230918457
-2.49513626 0.97903013 -0.62024444  1065001400
-0.54550266 -4.64196825 -2.49513626  3230992198
-2.49513626 0.97903013 -0.32049552  1065001399
-0.17004710 -4.67081594 -2.49513626  3231023509
-2.49513626 0.97903013 0.20650962  1065001400
0.35689726 -4.66026306 -2.49513626  3230969554
-2.49513626 0.97903013 0.58172739  1065001400
0.73089558 -4.61640882 -2.49513626  3230852353
-2.49513626 0.97903013 1.02679360  1065001400
1.10015011 -4.54258776 -2.49513626  3230672662
-2.49513626 0.97903013 1.31842339  1065001400
1.53361917 -4.41513824 -2.49513626  3230431651
-2.49513626 0.97903013 1.67512047  1065001399
1.74522674 -4.33585453 -2.49513626  3230258247
-2.49513626 0.97903013 2.02094173  1065001399
2.08860326 -4.18128920 -2.49513626  3229922538
-2.49513626 0.97903007 2.35364962  1065001400
2.41842628 -3.99958062 -2.49513626  3229446653
-2.49513626 0.97903013 2.60891628  1065001400
2.73254704 -3.79191637 -2.49513626  3228554526
-2.49513626 0.97903013 2.85333920  1065001400
2.91262984 -3.65541029 -2.49513626  3227969886
-2.49513626 0.97903013 3.02893186  1065001400
3.25197005 -3.35710073 -2.49513626  3226695896
-2.49513626 0.97903013 3.41043377  1065001400
-3.33901310 3.13755393 -2.49513626  1078285651
-2.49513626 0.97934753 -3.43840265  1065006725
-3.53421807 2.91591477 -2.49513626  1076350442
-2.49513626 0.97934753 -3.84003282  1065006725
-3.87981844 2.43726563 -2.49513626  1075046050
-2.49513626 0.97934753 -4.09702253  1065006725
-4.12955046 1.98495936 -2.49513626  1072490543
-2.49513626 0.97934753 -4.22066545  1065006725
-4.24885416 1.71478677 -2.49513626  1070193099
-2.49513626 0.97934753 -4.41489744  1065006725
-4.43407536 1.15422082 -2.49513626  1065443048
-2.49513626 0.97934753 -4.51260233  1065006725
-4.52480507 0.72069031 -2.49513626  1058214215
-2.49513626 0.97934753 -4.55435038  1065006725
-4.56183577 0.42767966 -2.49513626  1052069001
-2.49513626 0.97934753 -4.57324934  1065006725
-4.57991219 0.13288777 -2.49513626  3182789808
-2.49513626 0.97934753 -4.57574558  1065006725
-4.57134342 -0.30994776 -2.49513626  3200542071
-2.49513626 0.97934753 -4.55898046  1065006725
-4.55102110 -0.53054070 -2.49513626  3208640720
-2.49513626 0.97934753 -4.47852850  1065006725
-4.46235514 -1.03954077 -2.49513626  3213770744
-2.49513626 0.97934753 -4.42653275  1065006725
-4.40689325 -1.25401151 -2.49513626  3216742168
-2.49513626 0.97934753 -4.31694841  1065006725
-4.29164267 -1.60469997 -2.49513626  3219062750
-2.49513626 0.97934753 -4.20906544  1065006725
-4.17934322 -1.87785697 -2.49513626  3221274045
-2.49513626 0.97934753 -4.01460981  1065006725
-3.97849727 -2.27262449 -2.49513626  3222636640
-2.49513626 0.97934753 -3.86400199  1065006725
-3.78263545 -2.58552313 -2.49513626  3223935617
-2.49513626 0.97934753 -3.69734263  1065006725
-3.65324640 -2.76532865 -2.49513626  3224923311
-2.49513626 0.97934753 -3.46749830  1065006725
-3.36916924 -3.10514927 -2.49513626  3226086862
-2.49513626 0.97934753 -3.26734161  1065006725
-3.21514797 -3.26436496 -2.49513626  3226744170
-2.49513626 0.97934753 -2.99815726  1065006725
-2.94192886 -3.51259232 -2.49513626  3227766715
-2.49513626 0.97934753 -2.76870894  1065006725
-2.58902192 -3.78024006 -2.49513626  3229034086
-2.49513626 0.97934753 -2.34010005  1065006725
-2.21192336 -4.01256132 -2.49513626  3229714093
-2.49513626 0.97934753 -2.01539302  1065006725
-1.88172746 -4.17760134 -2.49513626  3230109176
-2.49513626 0.97934753 -1.67760932  1065006725
-1.60867381 -4.29015398 -2.49513626  3230275781
-2.49513626 0.97934753 -1.46956742  1065006725
-1.39943254 -4.36289406 -2.49513626  3230421235
-2.49513626 0.97934753 -1.25809371  1065006725
-1.18692255 -4.42543364 -2.49513626  3230545183
-2.49513626 0.97934753 -1.04367387  1065006725
-0.97163594 -4.47762918 -2.49513626  3230647369
-2.49513626 0.97934753 -0.82681715  1065006725
-0.75407422 -4.51936102 -2.49513626  3230727517
-2.49513626 0.97934753 -0.60802680  1065006725
-0.24047120 -4.57552481 -2.49513626  3230834206
-2.49513626 0.97934753 0.20244157  1065006725
0.27618960 -4.57350731 -2.49513626  3230793161
-2.49513626 0.97934753 0.57026750  1065006725
0.64346719 -4.53642893 -2.49513626  3230690621
-2.49513626 0.97934753 0.86197829  1065006725
0.93439376 -4.48554993 -2.49513626  3230444076
-2.49513626 0.97934753 1.36313307  1065006725
1.43345809 -4.35183430 -2.49513626  3230302292
-2.49513626 0.97934753 1.57296968  1065006725
