# .PCD v0.7 - Point Cloud Data file format
VERSION 0.7
FIELDS x y z intensity
SIZE 4 4 4 4
TYPE F F F F
COUNT 1 1 1 1
WIDTH 1023
HEIGHT 1
VIEWPOINT 0 0 0 1 0 0 0
POINTS 1023
DATA ascii
11.17581177 17.92888069 -2.64753628  1100011561
-2.64753628 0.91835767 10.59594440  1063983485
10.30189800 18.44490051 -2.64753628  1100274733
-2.64753628 0.91835767 9.70595646  1063983485
8.31759167 18.96677589 -2.59535003  1100465361
-2.56128716 0.92090923 7.25516844  1064034123
6.90965843 18.97485352 -2.53060699  1100471743
-2.50381732 0.92261332 5.31073236  1064055411
4.69149733 19.41267014 -2.50275636  1100734955
-2.50275636 0.92264479 4.06745243  1064055411
3.43921781 19.67317200 -2.50275636  1100885900
-2.50275636 0.92264479 2.17284751  1064055411
-0.06161966 19.97143173 -2.50275636  1100987963
-2.50275636 0.92264479 -0.70111394  1064055411
-1.33990693 19.92653084 -2.50275636  1100953692
-2.50275636 0.92264479 -1.97732008  1064055411
-2.29531240 19.83919144 -2.50275636  1100899885
-2.50275636 0.92264479 -2.92943192  1064055411
-4.18802309 19.52748108 -2.50275636  1100681499
-2.50275636 0.92264479 -5.73649836  1064055411
-6.04209328 19.03563118 -2.50275636  1100453178
-2.50426745 0.92259997 -6.68641758  1064048318
-7.02815342 18.93601990 -2.53116608  1100442969
-2.56190658 0.92089087 -8.07782173  1064017722
-8.43670177 18.92009163 -2.59603548  1100436301
-2.61443329 0.91933614 -9.16956615  1063990316
-9.82157040 18.70508575 -2.64753628  1100155972
-2.64753628 0.91835767 -10.70852375  1063983485
-11.85235691 17.48900414 -2.64753628  1098608107
-2.64753628 0.92323285 11.26431370  1064065276
10.46979427 16.79624748 -2.64753628  1099411877
-2.64753628 0.92323279 9.92654991  1064065276
9.65108204 17.27965546 -2.64753628  1099658422
-2.64753628 0.92323279 9.09278679  1064065276
8.81011772 17.72321320 -2.64753628  1099954249
-2.64753628 0.92323279 7.36430216  1064065276
6.47356653 18.70355225 -2.64753628  1100454574
-2.64163661 0.92339718 4.90291166  1064078741
4.58064032 18.95397568 -2.60840178  1100457248
-2.58991456 0.92483908 3.62764215  1064096056
3.31398129 18.95678139 -2.57424617  1100458059
-2.56744146 0.92546642 2.38264155  1064108181
2.07485080 18.95763206 -2.55104613  1100458149
-2.54339600 0.92613798 -0.36208260  1064117447
-0.96980721 18.95190811 -2.53845453  1100453707
-2.54352069 0.92613453 -3.43127108  1064099434
-4.06059694 18.93332672 -2.59024382  1100444227
-2.59915638 0.92458135 -4.69820166  1064083395
-5.67331409 18.91923904 -2.64210415  1100409558
-2.64753628 0.92323285 -6.58885717  1064065276
-6.88686895 18.55534935 -2.64753628  1099996306
-2.64753628 0.92323279 -8.63522053  1064065278
-9.20110512 17.52342033 -2.64753628  1099627922
-2.64753628 0.92323279 -9.75752831  1064065275
-10.03201580 17.06131554 -2.64753628  1099378709
-2.64753628 0.92323279 -10.57323265  1064065275
-10.83980846 16.55986214 -2.64753628  1098178910
-2.64753628 0.92755431 9.84636116  1064137779
9.33547115 16.10330200 -2.64753628  1099114217
-2.64753628 0.92755431 8.55135155  1064137779
8.01753616 16.79841232 -2.64753628  1099456335
-2.64753628 0.92755431 7.20156479  1064137779
6.92579269 17.27717972 -2.64753628  1099634242
-2.64753628 0.92755431 6.08809662  1064137779
5.80564737 17.68511391 -2.64753628  1099838667
-2.64753628 0.92755431 5.23634958  1064137779
4.37251377 18.09277916 -2.64753628  1100157836
-2.64753628 0.92755431 2.32115054  1064137779
1.43155229 18.55850601 -2.64753628  1100268086
-2.64753628 0.92755431 -0.05742913  1064137779
-0.65344751 18.60216331 -2.64753628  1100265194
-2.64753628 0.92755431 -1.54602778  1064137779
-2.13925290 18.49029922 -2.64753628  1100194079
-2.64753628 0.92755431 -3.02474976  1064137779
-3.61132717 18.25995064 -2.64753628  1100026973
-2.64753628 0.92755431 -4.48407602  1064137779
-5.63128328 17.74137115 -2.64753628  1099772155
-2.64753628 0.92755431 -6.47678566  1064137779
-7.03227091 17.23411369 -2.64753628  1099494481
-2.64753628 0.92755431 -7.85180140  1064137779
-8.38820171 16.61642838 -2.64753628  1099159291
-2.64753628 0.92755431 -8.91601086  1064137779
-10.19434166 15.57378864 -2.64753628  1098287463
-2.64753628 0.92755431 11.33640194  1064202484
10.45428276 14.11545658 -2.64753628  1097105200
-2.64753628 0.93141103 9.76435280  1064202483
9.29177856 14.90640736 -2.64753628  1098064919
-2.64753628 0.93141103 8.56519413  1064202483
7.81884384 15.72907448 -2.64753628  1098752736
-2.64753628 0.93141103 6.79595327  1064202483
6.53571033 16.30406952 -2.64753628  1099120843
-2.64753628 0.93141097 5.74519205  1064202484
4.67086840 16.93284225 -2.64753628  1099470591
-2.64753628 0.93141103 3.85229731  1064202484
3.30153465 17.25218773 -2.64753628  1099614944
-2.64753628 0.93141103 2.46920824  1064202484
0.78941399 17.54750443 -2.64753628  1099727522
-2.64753628 0.93141097 -0.05419534  1064202483
-0.33546722 17.56204987 -2.64753628  1099722614
-2.64753628 0.93141103 -1.17847323  1064202483
-1.73908734 17.47895050 -2.64753628  1099649148
-2.64753628 0.93141097 -2.57647943  1064202484
-3.13156366 17.28384781 -2.64753628  1099553301
-2.64753628 0.93141103 -3.95798206  1064202484
-4.23151731 17.04794312 -2.64753628  1099296729
-2.64753628 0.93141103 -5.58152771  1064202483
-5.84751463 16.56335449 -2.64753628  1099152802
-2.64753628 0.93141103 -6.37490892  1064202483
-6.63618755 16.26343155 -2.64753628  1098988951
-2.64753628 0.93141103 -7.15358639  1064202483
-7.66363811 15.80527782 -2.64753628  1098572661
-2.64753628 0.93141103 -8.16583729  1064202484
-8.65965366 15.28229427 -2.64753628  1098007616
-2.64753628 0.93141097 -9.14459419  1064202484
-9.38357925 14.84879208 -2.64753628  1097540961
-2.64753628 0.93141097 10.73050880  1064260581
10.31831169 13.03729725 -2.64753628  1095972535
-2.64753628 0.93487382 9.89553642  1064260580
9.68031311 13.51777554 -2.64753628  1096465574
-2.64753628 0.93487388 9.24247742  1064260581
9.01997471 13.96706104 -2.64753628  1097213271
-2.64753628 0.93487388 7.87392187  1064260580
7.63841057 14.76798344 -2.64753628  1097742055
-2.64753628 0.93487388 7.16158628  1064260581
6.67741442 15.22664738 -2.64753628  1098312757
-2.64753628 0.93487388 5.93847418  1064260581
5.43813324 15.71194935 -2.64753628  1098779762
-2.64753628 0.93487382 4.67731571  1064260581
4.42122602 16.02783012 -2.64753628  1098992160
-2.64753628 0.93487388 3.64640808  1064260580
3.38618302 16.27797508 -2.64753628  1099105862
-2.64753628 0.93487382 1.54400980  1064260580
1.27871966 16.57720184 -2.64753628  1099232434
-2.64753628 0.93487388 -0.05129781  1064260581
-1.91086590 16.51627159 -2.64753628  1099141803
-2.64753628 0.93487382 -2.70182824  1064260581
-4.00535583 16.13678360 -2.64753628  1098944649
-2.64753628 0.93487388 -4.52004528  1064260581
-4.77567482 15.92581654 -2.64753628  1098660938
-2.64753628 0.93487388 -7.96413612  1064260581
-8.65584469 14.19560051 -2.64753628  1096562537
-2.64753628 0.93487388 8.98131084  1064313029
8.56119156 13.25664997 -2.64753628  1096173007
-2.64753628 0.93800002 8.13228989  1064313029
7.91467953 13.65249729 -2.64753628  1097489664
-2.64753628 0.93800008 5.63642073  1064313031
5.16152382 14.91279411 -2.64753628  1097852294
-2.64753628 0.93800008 4.43941498  1064313029
4.19634867 15.21260834 -2.64753628  1098150427
-2.64753628 0.93800002 3.46094036  1064313029
2.96612453 15.49950123 -2.64753628  1098474112
-2.64753628 0.93800002 1.96788585  1064313029
1.71690452 15.68709946 -2.64753628  1098606267
-2.64753628 0.93800002 1.21367717  1064313029
0.96156228 15.75145340 -2.64753628  1098661059
-2.64753628 0.93800002 0.20402050  1064313029
-0.30138546 15.77789402 -2.64753628  1098640487
-2.64753628 0.93800002 -1.31074500  1064313029
-1.56240845 15.70323849 -2.64753628  1098457829
-2.64753628 0.93800002 -3.06170893  1064313029
-3.30922484 15.42989826 -2.64753628  1098190439
-2.64753628 0.93800002 -4.04640913  1064313029
-4.29014015 15.18641186 -2.64753628  1097733934
-2.64753628 0.93800002 -5.49106264  1064313030
-5.72727299 14.70479965 -2.64753628  1097451390
-2.64753628 0.93800002 -6.19521666  1064313030
-6.42684317 14.41279030 -2.64753628  1097133487
-2.64753628 0.93800002 -7.11157322  1064313029
-7.55905485 13.85256672 -2.64753628  1096527106
-2.64753628 0.93800008 -8.21558475  1064313029
-8.85316277 13.06347656 -2.64753628  1094156787
-2.64753628 0.94083613 9.50554848  1064360612
9.31821060 11.77366161 -2.64753628  1094630890
-2.64753628 0.94083619 8.54543781  1064360613
8.34665298 12.48124981 -2.64753628  1095356429
-2.64753628 0.94083625 7.73762798  1064360612
7.32160187 13.10886097 -2.64753628  1096114869
-2.64753628 0.94083619 6.68361473  1064360612
6.24963284 13.65248108 -2.64753628  1096744290
-2.64753628 0.94083619 5.13762522  1064360612
4.91104126 14.18907547 -2.64753628  1097166025
-2.64753628 0.94083619 4.22396946  1064360612
3.99269938 14.47434044 -2.64753628  1097372975
-2.64753628 0.94083619 3.52714419  1064360612
3.29298091 14.64938545 -2.64753628  1097594105
-2.64753628 0.94083625 2.34848523  1064360612
2.11070418 14.86583328 -2.64753628  1097751831
-2.64753628 0.94083619 1.63358319  1064360612
1.39435792 14.95004559 -2.64753628  1097873426
-2.64753628 0.94083613 -0.04632401  1064360612
-0.76734006 14.99530983 -2.64753628  1097839239
-2.64753628 0.94083625 -1.24713647  1064360612
-1.48660183 14.94115734 -2.64753628  1097739419
-2.64753628 0.94083625 -2.20239472  1064360612
-2.43995547 14.81535721 -2.64753628  1097575561
-2.64753628 0.94083619 -3.14862514  1064360612
-3.61713672 14.57272816 -2.64753628  1097348350
-2.64753628 0.94083619 -4.31279087  1064360613
-5.89456177 13.80948734 -2.64753628  1096509906
-2.64753628 0.94083619 -6.33375788  1064360612
-6.55093861 13.51047802 -2.64753628  1096185390
-2.64753628 0.94083619 -6.98022985  1064360612
-7.19221497 13.18029594 -2.64753628  1095163709
-2.64753628 0.94083619 8.33630085  1064403972
8.14882278 11.77297306 -2.64753628  1094742580
-2.64753628 0.94342065 7.57404423  1064403972
7.37849903 12.27045155 -2.64753628  1095119178
-2.64753628 0.94342065 6.98177862  1064403972
6.78070831 12.61063671 -2.64753628  1096395017
-2.64753628 0.94342065 4.24742460  1064403972
4.02792215 13.73979950 -2.64753628  1096603440
-2.64753628 0.94342065 3.36343813  1064403972
3.14014339 13.96945667 -2.64753628  1096829316
-2.64753628 0.94342065 2.69119596  1064403972
2.46565390 14.10413647 -2.64753628  1097026791
-2.64753628 0.94342065 1.32964432  1064403972
0.64347905 14.30357361 -2.64753628  1097137694
-2.64753628 0.94342065 -0.04417678  1064403972
-0.27344906 14.31542778 -2.64753628  1097134727
-2.64753628 0.94342065 -1.41758525  1064403972
-1.87310433 14.19499016 -2.64753628  1096981596
-2.64753628 0.94342065 -2.32670760  1064403972
-3.22628164 13.94981289 -2.64753628  1096701821
-2.64753628 0.94342065 -3.67134213  1064403972
-3.89248466 13.77878189 -2.64753628  1096511319
-2.64753628 0.94342065 -4.33171511  1064403972
-4.54969549 13.57595158 -2.64753628  1096120322
-2.64753628 0.94342065 -5.40938425  1064403972
-6.03978491 12.98180294 -2.64753628  1095639682
-2.64753628 0.94342065 -6.45239782  1064403972
-6.65625238 12.67677116 -2.64753628  1095309518
-2.64753628 0.94342065 -7.25735521  1064403972
-7.64887381 12.10375786 -2.64753628  1093235297
-2.64753628 0.94578534 8.49043655  1064443645
8.31755733 10.86234379 -2.64753628  1093926117
-2.64753628 0.94578534 7.23711109  1064443645
7.05026150 11.72459412 -2.64753628  1094541369
-2.64753628 0.94578534 6.47906780  1064443645
6.28527641 12.15185356 -2.64753628  1094976478
-2.64753628 0.94578534 5.89291811  1064443645
5.69445181 12.43966293 -2.64753628  1095610176
-2.64753628 0.94578534 4.26716948  1064443645
3.84873462 13.12856770 -2.64753628  1096018912
-2.64753628 0.94578534 3.00045156  1064443645
2.35596728 13.47670650 -2.64753628  1096299532
-2.64753628 0.94578534 1.92320168  1064443645
1.70605433 13.57430172 -2.64753628  1096390935
-2.64753628 0.94578534 0.83362472  1064443645
-0.04221130 13.68102551 -2.64753628  1096352809
-2.64753628 0.94578534 -2.43908906  1064443645
-3.92967272 13.10456848 -2.64753628  1095803831
-2.64753628 0.94578534 -4.34729958  1064443645
-5.96899080 12.31028938 -2.64753628  1094936830
-2.64753628 0.94578534 -6.55329704  1064443645
-6.74476814 11.90295887 -2.64753628  1094133266
-2.64753628 0.94578516 -7.67521572  1064443645
8.45239544 10.00390625 -2.64753628  1092760872
-2.64753628 0.94795698 7.62515974  1064480079
6.92792892 11.11417580 -2.64753628  1093899326
-2.64753628 0.94795698 6.38618660  1064480079
5.64116240 11.81940746 -2.64753628  1094877205
-2.64753628 0.94795698 4.08486700  1064480079
3.88508725 12.50708580 -2.64753628  1095368789
-2.64753628 0.94795698 3.07651472  1064480079
2.87226558 12.77776432 -2.64753628  1095575394
-2.64753628 0.94795704 2.04843998  1064480079
1.63316798 12.99438095 -2.64753628  1095781703
-2.64753628 0.94795698 0.79801160  1064480079
0.58859009 13.08337784 -2.64753628  1095862075
-2.64753628 0.94795698 -0.66930389  1064480079
-1.08779824 13.05135345 -2.64753628  1095643214
-2.64753628 0.94795698 -2.54094267  1064480079
-2.95105839 12.75979424 -2.64753628  1095458777
-2.64753628 0.94795698 -3.35814953  1064480080
-3.56042433 12.60335255 -2.64753628  1095284523
-2.64753628 0.94795704 -3.96218681  1064480079
-4.94792604 12.12596989 -2.64753628  1094760720
-2.64753628 0.94795698 -5.33369637  1064480079
-5.52454805 11.87436104 -2.64753628  1094487243
-2.64753628 0.94795704 -6.45661736  1064480079
-6.81818485 11.18183708 -2.64753628  1093739448
-2.64753628 0.94795698 -7.17276096  1064480079
-7.34731817 10.84149647 -2.64753628  1092189124
-2.64753628 0.94995815 7.79363489  1064513653
7.31173944 10.21025658 -2.64753628  1092958061
-2.64753628 0.94995815 6.98103619  1064513653
6.64316750 10.65735245 -2.64753628  1093522813
-2.64753628 0.94995815 6.12369251  1064513653
5.76944971 11.15456390 -2.64753628  1094014569
-2.64753628 0.94995815 5.22718048  1064513651
5.04358864 11.50100231 -2.64753628  1094353277
-2.64753628 0.94995815 3.91696978  1064513653
3.72539902 11.99300861 -2.64753628  1094978169
-2.64753628 0.94995815 1.96424329  1064513653
1.76536632 12.43359566 -2.64753628  1095220595
-2.64753628 0.94995815 1.16622627  1064513653
0.96584183 12.52110195 -2.64753628  1095274295
-2.64753628 0.94995815 0.36342382  1064513652
-0.03874481 12.55823803 -2.64753628  1095296361
-2.64753628 0.94995815 -0.44087014  1064513653
-0.64179122 12.54188538 -2.64753628  1095269094
-2.64753628 0.94995815 -1.04308736  1064513653
-1.44331610 12.47508430 -2.64753628  1095156334
-2.64753628 0.94995815 -2.43649983  1064513653
-2.82975888 12.23533058 -2.64753628  1094910948
-2.64753628 0.94995815 -3.22011995  1064513653
-3.41408443 12.08531666 -2.64753628  1094743846
-2.64753628 0.94995815 -3.79932952  1064513653
-3.99052048 11.90741825 -2.64753628  1094547658
-2.64753628 0.94995815 -4.36977196  1064513653
-4.93014097 11.55008984 -2.64753628  1094069825
-2.64753628 0.94995815 -5.65937042  1064513653
-5.83817387 11.11874962 -2.64753628  1093481844
-2.64753628 0.94995815 -6.53793812  1064513653
-6.87793922 10.50737000 -2.64753628  1091790650
-2.64753628 0.95180804 7.48489380  1064544689
7.33249187 9.57588863 -2.64753628  1092293312
-2.64753628 0.95180804 6.70448494  1064544689
6.54307652 10.13168526 -2.64753628  1092862782
-2.64753628 0.95180804 6.04897022  1064544689
5.88110781 10.52975178 -2.64753628  1093363489
-2.64753628 0.95180804 5.36864042  1064544689
5.19500637 10.88462162 -2.64753628  1093629543
-2.64753628 0.95180804 4.66629744  1064544689
4.12682104 11.33280373 -2.64753628  1094146215
-2.64753628 0.95180792 3.57781816  1064544689
3.20715356 11.62657452 -2.64753628  1094423218
-2.64753628 0.95180804 2.64510179  1064544689
2.45633483 11.80802727 -2.64753628  1094551698
-2.64753628 0.95180804 1.88642943  1064544689
1.31218290 11.98921585 -2.64753628  1094739650
-2.64753628 0.95180804 -0.23033990  1064544689
-0.61636597 12.04504013 -2.64753628  1094748601
-2.64753628 0.95180809 -1.19410527  1064544689
-1.57781029 11.95715904 -2.64753628  1094640318
-2.64753628 0.95180804 -2.15022063  1064544689
-2.52914810 11.79264736 -2.64753628  1094300789
-2.64753628 0.95180804 -3.46426773  1064544690
-3.64882255 11.49561214 -2.64753628  1094055748
-2.64753628 0.95180804 -4.19666386  1064544689
-4.37719345 11.23846245 -2.64753628  1093839805
-2.64753628 0.95180809 -4.91185856  1064544689
-5.26206636 10.85235214 -2.64753628  1093420141
-2.64753628 0.95180804 -5.60689878  1064544689
-6.44303560 10.19560623 -2.64753628  1092711742
-2.64753628 0.95180804 -6.76622581  1064544689
6.90372992 9.32147026 -2.64753628  1092019364
-2.64753628 0.95352304 6.60168791  1064573462
6.29288149 9.74426746 -2.64753628  1092653143
-2.64753628 0.95352304 5.65622044  1064573462
5.16335487 10.38705921 -2.64753628  1093269496
-2.64753628 0.95352304 4.48786402  1064573462
4.31600618 10.76676369 -2.64753628  1093624519
-2.64753628 0.95352304 2.72485662  1064573462
2.54395676 11.31722355 -2.64753628  1094038599
-2.64753628 0.95352298 1.63060176  1064573462
1.07719612 11.54949760 -2.64753628  1094257485
-2.64753628 0.95352304 0.33567664  1064573462
-0.03578712 11.59956741 -2.64753628  1094291293
-2.64753628 0.95352304 -0.59279996  1064573462
-1.70138061 11.47416401 -2.64753628  1094131850
-2.64753628 0.95352304 -2.06799912  1064573462
-2.25050139 11.37921333 -2.64753628  1094023076
-2.64753628 0.95352304 -2.61373997  1064573462
-2.97430038 11.21180534 -2.64753628  1093835413
-2.64753628 0.95352304 -3.50929594  1064573462
-3.68589234 10.99842834 -2.64753628  1093599749
-2.64753628 0.95352304 -4.55378056  1064573462
-4.72403288 10.59408283 -2.64753628  1093158395
-2.64753628 0.95352304 -5.06085634  1064573462
-5.71860409 10.09201717 -2.64753628  1092307129
-2.64753628 0.95352304 6.79452372  1064642622
6.26582193 8.46015930 -2.49513626  1091867323
-2.64753628 0.95511723 5.90922117  1064600208
5.60261345 9.66428185 -2.64753628  1092447095
-2.64753628 0.95511723 4.97248793  1064600208
4.81166697 10.08144379 -2.64753628  1092931693
-2.64753628 0.95511723 3.98989058  1064600208
3.82229996 10.49655533 -2.64753628  1093199638
-2.64753628 0.95511723 3.48421574  1064600208
3.31381226 10.66800308 -2.64753628  1093370853
-2.64753628 0.95511723 2.97049880  1064600208
2.79767513 10.81483364 -2.64753628  1093558731
-2.64753628 0.95511729 2.09965301  1064600209
1.39301801 11.08364010 -2.64753628  1093832069
-2.64753628 0.95511723 0.32326576  1064600209
-0.57088476 11.15624237 -2.64753628  1093817513
-2.64753628 0.95511723 -1.10599077  1064600209
-1.28385556 11.09681892 -2.64753628  1093688215
-2.64753628 0.95511723 -1.99155498  1064600208
-2.34252167 10.92246437 -2.64753628  1093498935
-2.64753628 0.95511723 -2.86435652  1064600208
-3.03688979 10.75011349 -2.64753628  1093350306
-2.64753628 0.95511723 -3.71879792  1064600208
-3.88699341 10.47277069 -2.64753628  1092975778
-2.64753628 0.95511723 -4.54940796  1064600209
-4.71220207 10.12831688 -2.64753628  1092587070
-2.64753628 0.95511723 -5.81561613  1064600208
-6.11805725 9.34649849 -2.64753628  1091826956
-2.64753628 0.95511723 6.42638397  1064666174
6.29973078 7.95977831 -2.49513626  1091618239
-2.64753628 0.95660293 5.69776773  1064625134
5.40213490 9.31846046 -2.64753628  1091991001
-2.64753628 0.95660293 4.94839287  1064625134
4.79455614 9.64515400 -2.64753628  1092323320
-2.64753628 0.95660293 4.32582903  1064625134
4.16731548 9.93228531 -2.64753628  1092679776
-2.64753628 0.95660293 3.68552613  1064625134
3.35953975 10.23377991 -2.64753628  1092968633
-2.64753628 0.95660293 2.86420250  1064625134
2.69756365 10.42784405 -2.64753628  1093108713
-2.64753628 0.95660293 1.51413453  1064625134
1.17186701 10.70717049 -2.64753628  1093375952
-2.64753628 0.95660293 -0.03323099  1064625134
-0.20570913 10.76914501 -2.64753628  1093417796
-2.64753628 0.95660293 -0.55045891  1064625134
-0.89464349 10.73389149 -2.64753628  1093369271
-2.64753628 0.95660293 -1.23791862  1064625134
-1.40909040 10.67854214 -2.64753628  1093302598
-2.64753628 0.95660293 -1.75032556  1064625134
-1.92029405 10.59854984 -2.64753628  1093210153
-2.64753628 0.95660293 -2.42705584  1064625134
-2.59479189 10.45389271 -2.64753628  1092948822
-2.64753628 0.95660293 -3.25864315  1064625134
-3.42262483 10.21285725 -2.64753628  1092780544
-2.64753628 0.95660293 -3.90912700  1064625134
-4.22852516 9.90637970 -2.64753628  1092370697
-2.64753628 0.95660299 -4.69938278  1064625134
-4.85398197 9.61538696 -2.64753628  1092044733
-2.64753628 0.95660293 -5.31014776  1064625134
-5.60751677 9.19633293 -2.64753628  1091678094
-2.64753628 0.95660293 -5.89913130  1064625134
6.20349407 7.58534145 -2.49513626  1089855726
-2.49513626 0.96036023 5.95741081  1064688172
5.18970013 8.32564831 -2.49810815  1090936043
-2.49513626 0.96036023 5.21476841  1064648417
5.07005501 9.07761669 -2.64753628  1091732915
-2.64753628 0.95799071 4.47857428  1064648417
4.32774115 9.45406151 -2.64753628  1092115129
-2.64753628 0.95799071 4.02277708  1064648416
3.71368837 9.71169949 -2.64753628  1092433363
-2.64753628 0.95799071 3.08440971  1064648417
2.60400343 10.06616879 -2.64753628  1092727948
-2.64753628 0.95799065 1.46161890  1064648417
1.29658854 10.31636810 -2.64753628  1093000738
-2.64753628 0.95799071 0.63354880  1064648416
0.46728292 10.38702202 -2.64753628  1093028464
-2.64753628 0.95799071 0.13442160  1064648417
-0.03208013 10.39747906 -2.64753628  1093018785
-2.64753628 0.95799071 -0.86361462  1064648417
-1.02943063 10.34644413 -2.64753628  1092960788
-2.64753628 0.95799065 -1.36021721  1064648417
-1.52511716 10.28506851 -2.64753628  1092858366
-2.64753628 0.95799071 -2.18035936  1064648417
-2.34287524 10.13012886 -2.64753628  1092711942
-2.64753628 0.95799065 -2.66607070  1064648417
-2.82666063 10.00592709 -2.64753628  1092573600
-2.64753628 0.95799071 -3.61791611  1064648417
-3.77354670 9.68859863 -2.64753628  1092157744
-2.64753628 0.95799071 -4.38599443  1064648416
-4.53639078 9.35573483 -2.64753628  1091863201
-2.64753628 0.95799071 -5.12597322  1064648417
-5.27017498 8.96291542 -2.64753628  1090727405
-2.49513626 0.96036029 6.11130762  1064708762
5.99469519 7.33003330 -2.49513626  1089313359
-2.49513626 0.96158755 5.63576937  1064708762
5.38920450 7.78602886 -2.49513626  1090249195
-2.49513626 0.96158755 5.13711452  1064708762
4.61738300 8.26713562 -2.49513626  1090875571
-2.49513626 0.96158755 4.35027647  1064708762
4.18207550 9.13585472 -2.64753628  1091779063
-2.64753628 0.95928973 3.73851514  1064670211
3.58869433 9.38482189 -2.64753628  1092140489
-2.64753628 0.95928973 2.82656002  1064670211
2.67180181 9.68581867 -2.64753628  1092409575
-2.64753628 0.95928973 2.04631329  1064670211
1.57153976 9.92390347 -2.64753628  1092561453
-2.64753628 0.95928973 0.93306488  1064670211
0.77274632 10.01780701 -2.64753628  1092646493
-2.64753628 0.95928973 0.45155752  1064670211
0.29076087 10.04336071 -2.64753628  1092665191
-2.64753628 0.95928973 -0.03100052  1064670211
-0.67410141 10.02492905 -2.64753628  1092614307
-2.64753628 0.95928973 -1.47378111  1064670211
-1.63274944 9.91402245 -2.64753628  1092497283
-2.64753628 0.95928973 -1.94938076  1064670211
-2.26401734 9.78916931 -2.64753628  1092313833
-2.64753628 0.95928973 -2.88600087  1064670211
-3.03974581 9.57671928 -2.64753628  1092120022
-2.64753628 0.95928973 -3.34485841  1064670211
-3.64653611 9.36249924 -2.64753628  1091885237
-2.64753628 0.95928973 -3.94447899  1064670211
-4.23837042 9.10987377 -2.64753628  1091610439
-2.64753628 0.95928973 -4.40209675  1064708762
-4.79963350 8.16267300 -2.49513626  1088414697
-2.49513626 0.96273869 5.68438482  1064728075
5.56864262 7.27238607 -2.49513626  1089536355
-2.49513626 0.96273869 5.09170628  1064728075
4.96912766 7.69448900 -2.49513626  1090043139
-2.49513626 0.96273869 4.72018242  1064728075
4.46639252 7.99679422 -2.49513626  1090661354
-2.49513626 0.96273869 3.81245899  1064728075
3.47134137 9.07793236 -2.64753628  1091761014
-2.64753628 0.96050829 2.88312840  1064690655
2.73413038 9.32650089 -2.64753628  1091954631
-2.64753628 0.96050835 2.43406987  1064690655
2.13151193 9.48239136 -2.64753628  1092139913
-2.64753628 0.96050829 1.21197665  1064690656
0.90255451 9.67700672 -2.64753628  1092291364
-2.64753628 0.96050829 0.43679136  1064690655
0.12564945 9.71819592 -2.64753628  1092315268
-2.64753628 0.96050829 -0.49669081  1064690655
-0.65205771 9.69710922 -2.64753628  1092271478
-2.64753628 0.96050829 -1.11700141  1064690655
-1.27145290 9.63548088 -2.64753628  1092211322
-2.64753628 0.96050829 -1.73272276  1064690655
-2.03807282 9.50291157 -2.64753628  1091843973
-2.64753628 0.96050835 -3.67186022  1064690655
-3.73029995 8.36554146 -2.49513626  1090838576
-2.49513626 0.96273869 -4.12773466  1064728075
-4.64268494 7.89575195 -2.49513626  1089980133
-2.49513626 0.96273869 5.72345829  1064746223
5.61424732 6.86483431 -2.49513626  1088687236
-2.49513626 0.96382046 4.92976999  1064746224
4.69118166 7.52586412 -2.49513626  1089978953
-2.49513626 0.96382046 4.07419109  1064746223
3.81985974 8.00339890 -2.49513626  1090585667
-2.49513626 0.96382046 3.56161404  1064746223
3.43110061 8.17760944 -2.49513626  1090816087
-2.49513626 0.96382046 3.03442764  1064746223
2.76603103 8.42584610 -2.49513626  1091598948
-2.64753628 0.96165353 2.50223994  1064709869
2.06372166 9.18081474 -2.64753628  1091790631
-2.64753628 0.96165353 1.62044692  1064709869
1.47180247 9.29408932 -2.64753628  1091899461
-2.64753628 0.96165353 1.17343307  1064709869
0.72370136 9.38203430 -2.64753628  1091979098
-2.64753628 0.96165353 0.27230871  1064709869
0.12165400 9.40911865 -2.64753628  1091997390
-2.64753628 0.96165353 -0.33034325  1064709869
-0.93164605 9.36367321 -2.64753628  1091912635
-2.64753628 0.96165353 -1.38024735  1064709869
-1.52912796 9.28483486 -2.64753628  1091839358
-2.64753628 0.96165353 -2.12033296  1064709869
-2.26687288 9.13278103 -2.64753628  1091667548
-2.64753628 0.96165353 -2.84682965  1064709869
-2.95225787 8.36240864 -2.49513626  1090795427
-2.49513626 0.96382046 -3.35044098  1064746224
-3.48149610 8.15627956 -2.49513626  1090623357
-2.49513626 0.96382046 -3.86917162  1064746223
-4.12271881 7.85168123 -2.49513626  1090067427
-2.49513626 0.96382046 -4.37203741  1064746223
-4.61686993 7.57167196 -2.49513626  1089463695
-2.49513626 0.96382040 -4.85696745  1064746224
-4.97516727 7.34121370 -2.49513626  1087508157
-2.49513626 0.96483886 5.44040632  1064763310
5.33318758 6.73853874 -2.49513626  1088050854
-2.49513626 0.96483886 5.00342560  1064763310
4.89090109 7.06610584 -2.49513626  1088722864
-2.49513626 0.96483886 4.54592228  1064763310
4.42855597 7.36468983 -2.49513626  1089333442
-2.49513626 0.96483886 4.19044781  1064763310
4.06976509 7.56886816 -2.49513626  1089749533
-2.49513626 0.96483886 3.82530332  1064763310
3.57691646 7.81386137 -2.49513626  1090360492
-2.49513626 0.96483886 3.19754028  1064763310
3.06939697 8.02680302 -2.49513626  1090597606
-2.49513626 0.96483886 2.54929256  1064763310
2.41754675 8.24658966 -2.49513626  1090890997
-2.49560022 0.96483243 1.88520157  1064763157
1.75080180 8.41640854 -2.49598837  1091549069
-2.64753628 0.96273178 1.42623150  1064727959
1.28182650 9.02799320 -2.64753628  1091635152
-2.64753628 0.96273178 0.84679341  1064727959
0.70129567 9.09153271 -2.64753628  1091682249
-2.64753628 0.96273178 -0.17414865  1064727959
-0.75738019 9.08702660 -2.64753628  1091644935
-2.64753628 0.96273178 -1.19289708  1064727959
-1.33751035 9.01991272 -2.64753628  1091564823
-2.64753628 0.96273178 -2.07023263  1064763310
-2.46838450 8.23151398 -2.49513626  1090719247
-2.49513626 0.96483886 -2.86084342  1064763310
-2.99023652 8.05662727 -2.49513626  1090317144
-2.49513626 0.96483886 -3.74936485  1064763310
-3.87270832 7.67156458 -2.49513626  1089421657
-2.49513626 0.96483886 -4.35584402  1064763310
-4.47391176 7.33722401 -2.49513626  1088820754
-2.49513626 0.96483886 -4.82111549  1064763310
5.27624559 6.45154142 -2.49513626  1087952239
-2.49513626 0.96579927 4.74331999  1064779423
4.63297701 6.92796516 -2.49513626  1088424544
-2.49513626 0.96579927 4.40875006  1064779423
4.29492521 7.14246321 -2.49513626  1088862972
-2.49513626 0.96579927 3.94696093  1064779423
3.82890701 7.40274477 -2.49513626  1089515678
-2.49513626 0.96579927 3.46898270  1064779423
3.34718776 7.63265896 -2.49513626  1089859027
-2.49513626 0.96579927 2.97677779  1064779423
2.72597313 7.87592840 -2.49513626  1090514324
-2.49513626 0.96579927 2.08728814  1064779423
1.56650734 8.18579292 -2.49513626  1090739062
-2.49513626 0.96579927 0.64161390  1064778867
0.50837255 8.32768822 -2.49778700  1090869910
-2.49774384 0.96576411 -0.42607886  1064779220
-0.55938643 8.31895161 -2.49615407  1090843793
-2.49638939 0.96578234 -0.82515824  1064779423
-0.95785969 8.27910995 -2.49513626  1090775095
-2.49513626 0.96579927 -1.35434508  1064779423
-1.48585963 8.20081615 -2.49513626  1090675309
-2.49513626 0.96579927 -2.00776458  1064779423
-2.26576233 8.02044201 -2.49513626  1090127965
-2.49513626 0.96579927 -3.02475476  1064779423
-3.14872956 7.71664953 -2.49513626  1089468926
-2.49513626 0.96579927 -3.75585079  1064779423
-3.99218130 7.31598473 -2.49513626  1088664791
-2.49513626 0.96579927 -4.45230675  1064779423
-4.56455994 6.97323036 -2.49513626  1088210587
-2.49513626 0.96579927 5.12095261  1064794642
5.02002811 6.34285736 -2.49513626  1087533990
-2.49513626 0.96670640 4.38836575  1064794642
4.16851521 6.93224287 -2.49513626  1088809574
-2.49513626 0.96670640 3.60068178  1064794642
3.48422837 7.30018091 -2.49513626  1089166457
-2.49513626 0.96670640 3.24867153  1064794642
3.12962890 7.45908356 -2.49513626  1089487753
-2.49513626 0.96670640 2.76780796  1064794642
2.64573932 7.64411974 -2.49513626  1090020665
-2.49513626 0.96670640 2.15099835  1064794642
1.90018868 7.86268282 -2.49513626  1090452336
-2.49513626 0.96670640 1.13710535  1064794642
0.88006461 8.04101944 -2.49513626  1090575748
-2.49513626 0.96670640 0.36353782  1064794642
-0.28397271 8.08404922 -2.49513626  1090601316
-2.49513626 0.96670640 -0.54270089  1064794642
-0.67187226 8.06108379 -2.49513626  1090570727
-2.49513626 0.96670640 -1.18650222  1064794642
-1.44212735 7.95944548 -2.49513626  1090383420
-2.49513626 0.96670640 -1.82270217  1064794642
-1.94866979 7.85080719 -2.49513626  1090066853
-2.49513626 0.96670640 -2.44721889  1064794642
-2.57036924 7.66979027 -2.49513626  1089343859
-2.49513626 0.96670640 -3.29432034  1064794642
-3.41220140 7.33412457 -2.49513626  1089006036
-2.49513626 0.96670640 -3.64530730  1064794642
-3.98788691 7.03770256 -2.49513626  1087935332
-2.49513626 0.96670640 -4.53802443  1064794642
5.07055807 6.00130463 -2.49513626  1086496148
-2.49513626 0.96756452 4.87578154  1064809039
4.67600441 6.31357670 -2.49513626  1087289584
-2.49513626 0.96756452 4.36741161  1064809038
4.26226902 6.59994841 -2.49513626  1087724279
-2.49513626 0.96756452 4.04873753  1064809039
3.94039750 6.79702377 -2.49513626  1088253523
-2.49513626 0.96756452 3.60943198  1064809039
3.27013874 7.14370060 -2.49513626  1088935177
-2.49513626 0.96756452 2.80614614  1064809039
2.56971669 7.42447376 -2.49513626  1089552912
-2.49513626 0.96756452 1.72306144  1064809039
1.60009623 7.69194078 -2.49513626  1089924660
-2.49513626 0.96756452 1.35295713  1064809039
1.22885132 7.75990725 -2.49513626  1090120517
-2.49513626 0.96756452 0.72960150  1064809039
0.47872373 7.84200478 -2.49513626  1090201671
-2.49513626 0.96756452 0.10157112  1064809039
-0.02423924 7.85656881 -2.49513626  1090215320
-2.49513626 0.96756446 -0.65256643  1064809039
-0.77785856 7.81800652 -2.49513626  1090040112
-2.49513626 0.96756446 -1.52430201  1064809039
-1.64752698 7.68192053 -2.49513626  1089597763
-2.49513626 0.96756452 -2.37690187  1064809039
-2.61548185 7.40847445 -2.49513626  1089094912
-2.49513626 0.96756452 -3.08434796  1064809039
-3.19966245 7.17554283 -2.49513626  1088680649
-2.49513626 0.96756446 -3.42779803  1064809039
-3.54056501 7.01360750 -2.49513626  1088329632
-2.49513626 0.96756452 -3.76334500  1064809039
4.92820168 5.83282042 -2.49513626  1086138068
-2.49513626 0.96837741 4.54472303  1064822677
4.44587851 6.20831156 -2.49513626  1087053486
-2.49513626 0.96837741 3.82976985  1064822677
3.61625767 6.72544718 -2.49513626  1088081732
-2.49513626 0.96837741 3.28910184  1064822677
2.95436001 7.04135656 -2.49513626  1088789121
-2.49513626 0.96837741 2.49757171  1064822677
2.26521707 7.29230881 -2.49513626  1089109012
-2.49513626 0.96837741 2.03053713  1064822677
1.91240048 7.39267731 -2.49513626  1089307628
-2.49513626 0.96837741 1.67468655  1064822677
1.31497097 7.52195501 -2.49513626  1089558643
-2.49513626 0.96837741 0.83077741  1064822677
0.70911765 7.60303259 -2.49513626  1089708309
-2.49513626 0.96837741 0.09872039  1064822677
-0.14583458 7.63463736 -2.49513626  1089745867
-2.49513626 0.96837741 -0.39023864  1064822677
-0.51230878 7.61882448 -2.49513626  1089700403
-2.49513626 0.96837741 -0.99895531  1064822677
-1.12005615 7.55343962 -2.49513626  1089451453
-2.49513626 0.96837741 -1.60127282  1064822677
-1.72062802 7.43965054 -2.49513626  1089284120
-2.49513626 0.96837741 -1.95798302  1064822677
-2.07592154 7.34843683 -2.49513626  1089080920
-2.49513626 0.96837741 -2.54205155  1064822677
-2.77132368 7.11538744 -2.49513626  1088568893
-2.49513626 0.96837741 -2.99775481  1064822677
-3.10983205 6.97408867 -2.49513626  1088261239
-2.49513626 0.96837741 -3.44116569  1064822677
-3.76455522 6.64357424 -2.49513626  1087279192
-2.49513626 0.96837741 -4.18210793  1064822677
4.70145416 5.74871635 -2.49513626  1085954094
-2.49513626 0.96914852 4.51495361  1064835614
4.12826157 6.17323494 -2.49513626  1087088866
-2.49513626 0.96914852 3.72463036  1064835614
3.62127042 6.48365641 -2.49513626  1087458908
-2.49513626 0.96914852 3.41178775  1064835614
3.30572128 6.65008402 -2.49513626  1088004898
-2.49513626 0.96914852 2.76322699  1064835614
2.54107428 6.97813272 -2.49513626  1088459480
-2.49513626 0.96914852 1.51247847  1064835614
0.45250991 7.41259623 -2.49513626  1089300377
-2.49513626 0.96914852 0.09601086  1064835614
-0.02291324 7.42636395 -2.49513626  1089212911
-2.49513626 0.96914852 -0.97153068  1064835614
-1.08930695 7.34607458 -2.49513626  1089109103
-2.49513626 0.96914852 -1.32399035  1064835614
-1.55731177 7.26127958 -2.49513626  1088857440
-2.49513626 0.96914852 -2.47226501  1064835614
-2.69524193 6.92004681 -2.49513626  1087862638
-2.49513626 0.96914852 -3.24010038  1064835614
-3.45242667 6.57511711 -2.49513626  1087413131
-2.49513626 0.96914852 -4.16627693  1064835614
4.48498154 5.66681910 -2.49513626  1085921102
-2.49513626 0.96988094 4.20766640  1064847902
4.11303711 5.94229126 -2.49513626  1086340233
-2.49513626 0.96988094 3.82292533  1064847902
3.62456989 6.25222969 -2.49513626  1087090393
-2.49513626 0.96988094 3.32012892  1064847902
3.11287069 6.52211046 -2.49513626  1087621712
-2.49513626 0.96988094 2.79606462  1064847902
2.68899298 6.70799589 -2.49513626  1087982877
-2.49513626 0.96988094 2.14384532  1064847902
1.92174113 6.96669340 -2.49513626  1088473598
-2.49513626 0.96988094 1.58495557  1064847902
1.13035810 7.13793945 -2.49513626  1088779401
-2.49513626 0.96988094 0.20913562  1064847902
0.09343060 7.22628355 -2.49513626  1088888362
-2.49513626 0.96988094 -0.60026056  1064847902
-0.71551198 7.19138098 -2.49513626  1088797278
-2.49513626 0.96988094 -1.06004226  1064847901
-1.28842139 7.11110878 -2.49513626  1088609719
-2.49513626 0.96988094 -1.74097610  1064847902
-2.29641318 6.85232592 -2.49513626  1088033232
-2.49513626 0.96988094 -2.83713245  1064847902
-3.35967636 6.39847326 -2.49513626  1087045847
-2.49513626 0.96988094 -3.56284904  1064847902
-3.66307759 6.22974920 -2.49513626  1085014139
-2.49513626 0.97057742 4.45478201  1064859587
4.36698484 5.51773357 -2.49513626  1085600682
-2.49513626 0.97057742 4.09696722  1064859587
3.62624311 6.03044748 -2.49513626  1086739209
-2.49513626 0.97057742 3.13227940  1064859587
3.03097367 6.35052109 -2.49513626  1087159910
-2.49513626 0.97057742 2.82606006  1064859587
2.72250319 6.48875475 -2.49513626  1087762796
-2.49513626 0.97057742 1.97956550  1064859587
1.43312347 6.88927412 -2.49513626  1088235955
-2.49513626 0.97057742 1.10061860  1064859587
0.42876768 7.02367973 -2.49513626  1088497739
-2.49513626 0.97057742 -0.02170969  1064859587
-0.13438939 7.03547335 -2.49513626  1088465720
-2.49513626 0.97057742 -0.58446807  1064859587
-0.80872953 6.99012804 -2.49513626  1088339356
-2.49513626 0.97057742 -1.25452590  1064859587
-1.58559155 6.85578775 -2.49513626  1088064361
-2.49513626 0.97057742 -1.80432093  1064859587
-2.34255147 6.63538790 -2.49513626  1087576787
-2.49513626 0.97057742 -2.86577153  1064859587
-3.07010221 6.33169603 -2.49513626  1086915553
-2.49513626 0.97057742 -3.37063551  1064859587
-3.46911454 6.12218809 -2.49513626  1086341423
-2.49513626 0.97057742 -3.85389948  1064859587
-3.94768572 5.82509375 -2.49513626  1084723515
-2.49513626 0.97124052 4.33992767  1064870711
4.08007812 5.50895262 -2.49513626  1085563005
-2.49513626 0.97124052 3.71906972  1064870712
3.43821812 5.93078661 -2.49513626  1086293454
-2.49513626 0.97124052 3.14943027  1064870712
3.05152369 6.13871336 -2.49513626  1086998882
-2.49513626 0.97124046 2.55074334  1064870712
2.44852185 6.40314674 -2.49513626  1087401305
-2.49513626 0.97124046 2.03362370  1064870712
1.92852700 6.57847500 -2.49513626  1087600885
-2.49513626 0.97124046 1.61038041  1064870711
1.18052971 6.75291729 -2.49513626  1087975740
-2.49513626 0.97124052 0.85487145  1064870711
0.74584150 6.81464100 -2.49513626  1088056375
-2.49513626 0.97124046 0.52723473  1064870712
0.30809173 6.84840584 -2.49513626  1088117301
-2.49513626 0.97124046 -0.02115009  1064870711
-0.13092551 6.85408068 -2.49513626  1088109639
-2.49513626 0.97124046 -0.35034254  1064870712
-0.45993057 6.83988857 -2.49513626  1088068821
-2.49513626 0.97124046 -0.67872566  1064870711
-0.78787869 6.80990839 -2.49513626  1087994940
-2.49513626 0.97124052 -1.00554264  1064870711
-1.11400425 6.76421356 -2.49513626  1087798848
-2.49513626 0.97124046 -1.65146804  1064870711
-1.75779891 6.62613678 -2.49513626  1087512668
-2.49513626 0.97124052 -2.17834854  1064870711
-2.58995867 6.34726000 -2.49513626  1086872235
-2.49513626 0.97124046 -2.89178634  1064870711
-2.99094701 6.16845083 -2.49513626  1086575902
-2.49513626 0.97124052 -3.18694568  1064870711
-3.56893492 5.85305834 -2.49513626  1085770603
-2.49513626 0.97124052 4.31248760  1064881315
4.23020077 5.17249012 -2.49513626  1084729991
-2.49513626 0.97187251 3.97692132  1064881315
3.89042473 5.43266392 -2.49513626  1085751018
-2.49513626 0.97187251 3.35129023  1064881315
3.16445398 5.88519096 -2.49513626  1086388426
-2.49513626 0.97187251 2.68358850  1064881315
2.48625398 6.20224190 -2.49513626  1086830693
-2.49513626 0.97187251 2.18553305  1064881315
2.08413815 6.34867048 -2.49513626  1087124235
-2.49513626 0.97187251 1.67347169  1064881315
1.36087489 6.54196167 -2.49513626  1087615864
-2.49513626 0.97187251 0.83325720  1064881315
0.72698390 6.64234400 -2.49513626  1087728975
-2.49513626 0.97187251 0.30030188  1064881315
0.08638632 6.68144989 -2.49513626  1087723438
-2.49513626 0.97187251 -0.55500466  1064881315
-0.66156608 6.64917850 -2.49513626  1087662158
-2.49513626 0.97187251 -0.98011953  1064881315
-1.29641175 6.55504084 -2.49513626  1087394628
-2.49513626 0.97187251 -1.71335900  1064881315
-2.12327242 6.33568811 -2.49513626  1086879324
-2.49513626 0.97187251 -2.42508316  1064881315
-2.52447629 6.18678141 -2.49513626  1086630002
-2.49513626 0.97187251 -2.81867576  1064881315
-2.91532803 6.01249695 -2.49513626  1086251422
-2.49513626 0.97187251 -3.10636997  1064881315
-3.20071006 5.86555290 -2.49513626  1085821524
-2.49513626 0.97187251 -3.47869968  1064881315
-3.56961274 5.64863682 -2.49513626  1085466483
-2.49513626 0.97187251 -3.74866939  1064881315
4.04395294 5.10957527 -2.49513626  1084723462
-2.49513626 0.97247547 3.79390788  1064891431
3.62231183 5.41665840 -2.49513626  1085564354
-2.49513626 0.97247547 3.17745471  1064891431
3.08594751 5.73918629 -2.49513626  1086074680
-2.49513626 0.97247547 2.71223903  1064891431
2.61701202 5.96762753 -2.49513626  1086426176
-2.49513626 0.97247547 2.13131213  1064891431
2.03243232 6.19116735 -2.49513626  1086792231
-2.49513626 0.97247547 1.83313394  1064891431
1.63195503 6.30856943 -2.49513626  1087024965
-2.49513626 0.97247547 1.42910004  1064891431
1.01920402 6.43603516 -2.49513626  1087300692
-2.49513626 0.97247547 0.70894825  1064891431
0.60513014 6.48807716 -2.49513626  1087381967
-2.49513626 0.97247547 0.29285201  1064891431
-0.33301315 6.50772095 -2.49513626  1087360140
-2.49513626 0.97247547 -0.64515340  1064891431
-0.95580381 6.44575596 -2.49513626  1087188434
-2.49513626 0.97247547 -1.56977868  1064891431
-1.67085207 6.29837799 -2.49513626  1086766969
-2.49513626 0.97247547 -2.16927028  1064891431
-2.26738358 6.10903358 -2.49513626  1086475609
-2.49513626 0.97247547 -2.55814576  1064891431
-2.65378690 5.95136595 -2.49513626  1086132023
-2.49513626 0.97247547 -2.93652987  1064891431
-3.02930474 5.76928520 -2.49513626  1085409412
-2.49513626 0.97247547 4.10305548  1064901093
3.94544291 4.98511171 -2.49513626  1084581650
-2.49513626 0.97305131 3.36303210  1064901092
3.27620506 5.44833279 -2.49513626  1085381967
-2.49513626 0.97305131 2.64616990  1064901092
2.55326247 5.82225895 -2.49513626  1086036164
-2.49513626 0.97305131 2.27071142  1064901092
2.17533302 5.97375774 -2.49513626  1086341150
-2.49513626 0.97305131 1.88594401  1064901092
1.69055843 6.12861013 -2.49513626  1086649581
-2.49513626 0.97305131 1.39428782  1064901092
1.09480083 6.26252794 -2.49513626  1086970405
-2.49513626 0.97305131 0.59038854  1064901092
0.48894760 6.33867359 -2.49513626  1087049700
-2.49513626 0.97305137 0.28571767  1064901092
0.08219092 6.35697269 -2.49513626  1087074411
-2.49513626 0.97305131 -0.12141785  1064901092
-0.32489944 6.34919643 -2.49513626  1087044432
-2.49513626 0.97305137 -0.62943709  1064901093
-0.73066360 6.31537580 -2.49513626  1086959892
-2.49513626 0.97305137 -0.93252182  1064901092
-1.33316648 6.21614933 -2.49513626  1086681819
-2.49513626 0.97305131 -1.63015103  1064901093
-1.82608902 6.08960056 -2.49513626  1086449680
-2.49513626 0.97305137 -2.02015781  1064901092
-2.21215129 5.96022129 -2.49513626  1086165423
-2.49513626 0.97305131 -2.40187693  1064901092
-2.58914113 5.80639219 -2.49513626  1085643905
-2.49513626 0.97305137 -2.95551229  1064901092
-3.04527068 5.58069754 -2.49513626  1085234886
-2.49513626 0.97305131 -3.30976272  1064901092
-3.48188281 5.31924295 -2.49513626  1083815531
-2.49513626 0.97360182 3.77261090  1064910328
3.61290693 5.04513264 -2.49513626  1084442207
-2.49513626 0.97360182 3.44949818  1064910328
3.36645436 5.21281719 -2.49513626  1084785540
-2.49513626 0.97360182 3.19780016  1064910328
3.11223149 5.36847019 -2.49513626  1085103396
-2.49513626 0.97360182 2.93872285  1064910328
2.85082388 5.51173878 -2.49513626  1085395031
-2.49513626 0.97360182 2.58284211  1064910328
2.49215937 5.68292284 -2.49513626  1085741939
-2.49513626 0.97360182 2.21637106  1064910328
1.93546903 5.89579821 -2.49513626  1086229845
-2.49513626 0.97360182 1.55409706  1064910328
1.45769584 6.03171682 -2.49513626  1086438574
-2.49513626 0.97360188 0.87231046  1064910328
0.57626051 6.17854309 -2.49513626  1086716856
-2.49513626 0.97360182 0.37810913  1064910328
0.27887997 6.19908857 -2.49513626  1086749952
-2.49513626 0.97360182 0.08022431  1064910328
-0.01914576 6.20532942 -2.49513626  1086753029
-2.49513626 0.97360182 -0.31712571  1064910328
-0.51541418 6.18391609 -2.49513626  1086691465
-2.49513626 0.97360182 -0.71317750  1064910328
-0.91020465 6.13824224 -2.49513626  1086508125
-2.49513626 0.97360182 -1.49488783  1064910328
-1.59113884 5.99789429 -2.49513626  1086080925
-2.49513626 0.97360182 -2.15921116  1064910328
-2.25209308 5.78225994 -2.49513626  1085790919
-2.49513626 0.97360182 -2.43610096  1064910328
-2.61760855 5.62624121 -2.49513626  1085451489
-2.49513626 0.97360182 -3.23055267  1064910328
-3.31498003 5.24570179 -2.49513626  1084630121
-2.49513626 0.97360182 3.83602524  1064919166
3.60634637 4.86931801 -2.49513626  1084073324
-2.49513626 0.97412860 3.44856930  1064919166
3.28725457 5.09017849 -2.49513626  1084525726
-2.49513626 0.97412860 3.12256885  1064919166
3.03901291 5.24217272 -2.49513626  1084933907
-2.49513626 0.97412860 2.43352985  1064919166
2.34435558 5.58748388 -2.49513626  1085536850
-2.49513626 0.97412860 2.16422749  1064919166
2.07332206 5.69362307 -2.49513626  1085815324
-2.49513626 0.97412860 1.79750359  1064919166
1.70460975 5.81466055 -2.49513626  1086044274
-2.49513626 0.97412860 1.32890153  1064919166
1.23406625 5.93237209 -2.49513626  1086222754
-2.49513626 0.97412860 1.04346001  1064919166
0.94774586 5.98479223 -2.49513626  1086323061
-2.49513626 0.97412860 0.75561255  1064919166
0.56270111 6.03318691 -2.49513626  1086425628
-2.49513626 0.97412860 0.17534892  1064919166
0.07833662 6.05886841 -2.49513626  1086449189
-2.49513626 0.97412860 -0.30966488  1064919166
-0.50328863 6.03843260 -2.49513626  1086340038
-2.49513626 0.97412860 -0.98465919  1064919166
-1.27064657 5.92464685 -2.49513626  1086122442
-2.49513626 0.97412860 -1.55370545  1064919166
-1.64729249 5.83115768 -2.49513626  1085913753
-2.49513626 0.97412860 -1.92542303  1064919166
-2.10841298 5.68071699 -2.49513626  1085507453
-2.49513626 0.97412860 -2.55602765  1064919166
-2.64367366 5.45224190 -2.49513626  1084992608
-2.49513626 0.97412860 -3.07130146  1064919166
-3.15455127 5.17347097 -2.49513626  1084261150
-2.49513626 0.97412860 3.74726319  1064927629
3.67341113 4.64139557 -2.49513626  1083597652
-2.49513626 0.97463304 3.21119189  1064927629
3.13115525 5.02318239 -2.49513626  1084579394
-2.49513626 0.97463304 2.80318618  1064927629
2.71934342 5.25753450 -2.49513626  1084857586
-2.49513626 0.97463304 2.54958892  1064927629
2.37721968 5.42082405 -2.49513626  1085188491
-2.49513626 0.97463304 2.20241308  1064927629
2.11415052 5.52873135 -2.49513626  1085535956
-2.49513626 0.97463304 1.75591063  1064927629
1.57399619 5.70605278 -2.49513626  1085759609
-2.49513626 0.97463304 1.39046597  1064927629
1.20551217 5.79510593 -2.49513626  1085933965
-2.49513626 0.97463304 1.01931667  1064927629
0.83207774 5.86038828 -2.49513626  1086142666
-2.49513626 0.97463304 -0.11304625  1064927629
-0.20779739 5.91551638 -2.49513626  1086138990
-2.49513626 0.97463304 -0.77435231  1064927629
-0.86822575 5.85514307 -2.49513626  1085835969
-2.49513626 0.97463304 -1.42594266  1064927629
-1.51775491 5.72126961 -2.49513626  1085687687
-2.49513626 0.97463304 -1.70018351  1064927629
-1.88087118 5.61238098 -2.49513626  1085379495
-2.49513626 0.97463304 -2.14822578  1064927629
-2.23627210 5.48047400 -2.49513626  1084996727
-2.49513626 0.97463304 -2.66745877  1064927629
-2.75173450 5.24065399 -2.49513626  1084638454
-2.49513626 0.97463304 -3.00023556  1064927629
-3.16209149 5.00376749 -2.49513626  1084127948
-2.49513626 0.97463304 3.73316669  1064935740
3.66193390 4.47763824 -2.49513626  1083373218
-2.49513626 0.97511649 3.44267869  1064935740
3.29206109 4.75619030 -2.49513626  1084137757
-2.49513626 0.97511649 2.73935413  1064935740
2.65741992 5.13781309 -2.49513626  1084851247
-2.49513626 0.97511649 2.23796129  1064935740
1.71592724 5.52400494 -2.49513626  1085382642
-2.49513626 0.97511649 1.35880291  1064935740
1.26859355 5.64355326 -2.49513626  1085618297
-2.49513626 0.97511649 0.99610639  1064935740
0.72132099 5.73922729 -2.49513626  1085836614
-2.49513626 0.97511649 0.35245773  1064935740
0.25996050 5.77853155 -2.49513626  1085871531
-2.49513626 0.97511649 -0.11047121  1064935740
-0.20306554 5.78081369 -2.49513626  1085845209
-2.49513626 0.97511649 -0.48044670  1064935740
-0.75671911 5.73466587 -2.49513626  1085741340
-2.49513626 0.97511649 -0.93997192  1064935740
-1.03124857 5.69170809 -2.49513626  1085602826
-2.49513626 0.97511649 -1.30339289  1064935740
-1.74997962 5.51331186 -2.49513626  1085243824
-2.49513626 0.97511649 -1.92563200  1064935740
-2.09930682 5.38998175 -2.49513626  1084570939
-2.49513626 0.97511649 -2.77074027  1064935740
-2.93191552 4.98627043 -2.49513626  1084098989
