# .PCD v0.7 - Point Cloud Data file format
VERSION 0.7
FIELDS x y z intensity
SIZE 4 4 4 4
TYPE F F F F
COUNT 1 1 1 1
WIDTH 1007
HEIGHT 1
VIEWPOINT 0 0 0 1 0 0 0
POINTS 1007
DATA ascii
-2.64546776 0.86796719 -14.27220631  1063136462
-14.79057598 32.08384705 -2.64753628  1107213202
-2.64753628 0.86787117 -15.81571579  1063136462
-16.82444191 31.06560516 -2.64753628  1106513984
-2.64753628 0.86787117 -18.78858185  1063136462
-19.26773453 29.61230087 -2.64753628  1105711196
-2.64753628 0.86787111 -21.13325882  1063136461
-21.58623314 27.96728897 -2.64753628  1104997868
-2.64753628 0.86787117 -22.47531891  1063136461
-23.76498795 26.14114952 -2.64753628  1104022188
-2.64753628 0.86787117 -24.59414482  1063136462
-24.99923325 24.96341705 -2.64753628  1103178370
-2.64753628 0.86787117 -26.17518806  1063136462
-25.79775810 21.20929718 -2.50275636  1101197672
-2.50275636 0.87462282 -26.79155922  1063249736
-27.10904694 19.50534630 -2.50275636  1100515352
-2.50275636 0.87462282 -29.08053207  1063175454
-29.94553185 18.74565315 -2.64753628  1099577779
-2.64753628 0.86787111 -31.08974266  1063136459
-31.61373520 15.77041245 -2.64753628  1098131159
-2.64753628 0.86787117 -32.10500717  1063136462
-32.56299210 13.70348644 -2.64753628  1095948066
-2.64753628 0.86787111 -32.98723602  1063136461
-0.42647347 31.77921295 -2.64753628  1107174743
-2.64753628 0.88023299 -1.96011257  1063343859
-2.47049069 31.68591690 -2.64753628  1107049687
-2.64753628 0.88023299 -5.01009703  1063343859
-5.51466560 31.29998016 -2.64753628  1106827672
-2.64753628 0.88023299 -7.01923084  1063343859
-7.51728630 30.88026619 -2.64753628  1106643651
-2.64753628 0.88023299 -9.48875141  1063343859
-10.94196796 29.83912849 -2.64753628  1105970563
-2.64753628 0.88023299 -12.83934689  1063343859
-13.76858139 28.64483643 -2.64753628  1105419040
-2.64753628 0.88023299 -15.13533688  1063343859
-15.58325005 27.69950104 -2.64753628  1104908162
-2.64753628 0.88023299 -16.46681595  1063343859
-17.75991249 26.35689545 -2.64753628  1104030757
-2.64753628 0.88023299 -19.01156425  1063343859
-19.41907501 25.15948677 -2.64753628  1103544261
-2.64753628 0.88023299 -20.99776840  1063343859
-20.20997810 22.23068619 -2.50275636  1101827206
-2.50275636 0.88639504 -21.25959396  1063447241
-22.58156204 19.81715965 -2.50275636  1099810527
-2.64753628 0.88023299 -27.20710373  1063343859
-27.46802711 15.98774242 -2.64753628  1097484832
-2.64753628 0.88023299 -28.43985558  1063343859
-28.66454315 13.72748947 -2.64753628  1095549757
-2.64753628 0.88023299 -0.38750830  1063515701
-0.85227948 28.86622047 -2.64753628  1105644100
-2.64753628 0.89047557 -2.24481082  1063515701
-2.70797014 28.75155640 -2.64753628  1105568329
-2.64753628 0.89047557 -3.63208652  1063515701
-4.55243111 28.51771927 -2.64753628  1105430181
-2.64753628 0.89047557 -5.46807003  1063515701
-5.92380714 28.26470184 -2.64753628  1105285971
-2.64753628 0.89047557 -6.83058500  1063515701
-7.73028994 27.82494736 -2.64753628  1104969301
-2.64753628 0.89047557 -9.94242859  1063515701
-10.37759590 26.94977570 -2.64753628  1104559073
-2.64753628 0.89047557 -11.66648006  1063515701
-12.09020329 26.22616959 -2.64753628  1104057931
-2.64753628 0.89047557 -13.75273800  1063515701
-14.15973091 25.16916656 -2.64753628  1103209886
-2.64753628 0.89047557 -16.13755226  1063515701
-16.52095985 23.68634033 -2.64753628  1102125079
-2.50275636 0.89614218 -16.33019257  1063610771
-17.70405006 20.78059578 -2.50275636  1101263232
-2.50275636 0.89614218 -18.36380577  1063610771
-19.31754112 19.28986549 -2.50275636  1100468142
-2.50275636 0.89614218 -20.83747482  1063561031
-22.30765343 18.33994865 -2.64753628  1099944943
-2.64753628 0.89047557 -22.88645172  1063515701
-23.16699600 17.24167061 -2.64753628  1099162974
-2.64753628 0.89047557 -24.22842216  1063515701
-24.47825432 15.32318592 -2.64753628  1096082219
-2.64753628 0.89047557 -25.84189224  1063515701
-26.04605484 12.47349739 -2.64753628  1094768501
-2.64753628 0.89047557 -26.43408203  1063515701
-26.61783791 11.20158768 -2.64753628  1093425337
-2.64753628 0.89047557 -0.35503608  1063660394
-1.63177168 26.40780449 -2.64753628  1104306892
-2.64753628 0.89909983 -3.32763934  1063660392
-3.74972606 26.19111061 -2.64753628  1104180326
-2.64753628 0.89909983 -5.00973940  1063660392
-5.42727566 25.89555168 -2.64753628  1103997136
-2.64753628 0.89909983 -7.08232784  1063660392
-7.49177313 25.37534332 -2.64753628  1103617903
-2.64753628 0.89909983 -9.10905075  1063660392
-10.68859100 24.20307541 -2.64753628  1103116571
-2.64753628 0.89909983 -11.55537605  1063748383
-11.91095161 21.99306297 -2.50275636  1101947726
-2.50275636 0.90434450 -12.61273766  1063748383
-12.95877457 21.39242935 -2.50275636  1101393752
-2.50275636 0.90434468 -14.30843353  1063748386
-14.63682079 20.28125381 -2.50275636  1101027352
-2.50275636 0.90434450 -15.28209114  1063748384
-15.59882641 19.55101967 -2.50275636  1100500832
-2.50275636 0.90434450 -17.18488503  1063715746
-17.74107552 18.89470673 -2.59350896  1100420694
-2.63242865 0.89964569 -18.72215843  1063660392
-19.31425667 18.08298302 -2.64753628  1099835480
-2.64753628 0.89909995 -19.88631821  1063660394
-20.43781853 16.80269051 -2.64753628  1099154863
-2.64753628 0.89909983 -21.47666740  1063660392
-21.72260857 15.10506535 -2.64753628  1097600527
-2.64753628 0.89909983 -22.19758797  1063660392
-22.42648125 14.03878593 -2.64753628  1096470725
-2.64753628 0.89909983 -22.86677361  1063660392
-23.28337097 12.56660652 -2.64753628  1094912779
-2.64753628 0.89909983 -23.67581749  1063660392
-23.86286545 11.42795849 -2.64753628  1093709176
-2.64753628 0.89909983 -24.38672829  1063660392
-0.72036266 24.39812660 -2.64753628  1103302948
-2.64753628 0.90646064 -1.50537193  1063783886
-1.89734340 24.33490181 -2.64753628  1103214643
-2.64753628 0.90646064 -4.23528481  1063783886
-5.39079618 23.80602264 -2.64753628  1101942461
-2.50275636 0.91134185 -7.94393110  1063865779
-8.29163170 21.53269196 -2.50275636  1101736934
-2.50275636 0.91134185 -9.32144070  1063865779
-9.65999222 20.95453835 -2.50275636  1101422299
-2.50275636 0.91134185 -10.98834419  1063865779
-11.31353378 20.11000252 -2.50275636  1100965627
-2.50275636 0.91134185 -11.95500660  1063865779
-12.27115250 19.54039001 -2.50275636  1100551426
-2.50275636 0.91134185 -13.20328140  1063865441
-14.59090519 18.90407372 -2.59019303  1100426413
-2.62211561 0.90731573 -15.52818298  1063783885
-15.82933903 18.58008575 -2.64753628  1100125506
-2.64753628 0.90646064 -16.41922379  1063783886
-16.70782471 17.79426765 -2.64753628  1099706151
-2.64753628 0.90646064 -17.27196693  1063783886
-17.54736328 16.96695328 -2.64753628  1099265373
-2.64753628 0.90646058 -18.34597015  1063783883
-19.34395027 14.88620949 -2.64753628  1097411224
-2.64753628 0.90646058 -20.68935966  1063783886
-21.09554672 12.27865410 -2.64753628  1094647781
-2.64753628 0.90646058 -21.66369820  1063783886
-21.84192276 10.89577579 -2.64753628  1093185323
-2.64753628 0.90646064 -22.18134499  1063783886
-22.64726257 9.10434818 -2.64753628  1090766093
-2.49513626 0.91159946 -0.28732061  1063967092
-0.63192886 21.40311813 -2.50275636  1101733652
-2.50275636 0.91738057 -2.00785375  1063967092
-3.03463316 21.19631767 -2.50275636  1101575040
-2.50275636 0.91738057 -4.05435371  1063967092
-4.39226294 20.95712280 -2.50275636  1101468114
-2.50275636 0.91738057 -5.39885235  1063967092
-5.73168564 20.63105583 -2.50275636  1101177979
-2.50275636 0.91738057 -7.69456911  1063967092
-8.33379555 19.72411346 -2.50275636  1100788484
-2.50275636 0.91738057 -8.96440315  1063967092
-9.27626705 19.29880142 -2.50275636  1100557574
-2.50275636 0.91738057 -9.89268112  1063967092
-10.25197220 18.92982864 -2.51622605  1100429127
-2.63583541 0.91318381 -12.65750694  1063890507
-13.54956722 18.15164948 -2.64753628  1099802129
-2.64753628 0.91281569 -14.68948364  1063890506
-16.02823448 16.00527191 -2.64753628  1098363467
-2.64753628 0.91281569 -16.78219604  1063890506
-17.72631836 14.10144424 -2.64753628  1096002342
-2.64753628 0.91281557 -18.80271339  1063890506
-20.10372543 10.43615532 -2.64753628  1092389277
-2.64753628 0.91281569 -20.73361969  1063890505
-19.67594719 8.28022957 -2.49513626  1090440230
-2.49513626 0.91762149 -0.91067421  1064055411
-1.23171365 19.93350983 -2.50275636  1100943736
-2.50275636 0.92264479 -2.19256091  1064055411
-2.83042264 19.76994324 -2.50275636  1100831042
-2.50275636 0.92264479 -4.09668922  1064055411
-4.72378731 19.40484047 -2.50275636  1100561345
-2.50275636 0.92264479 -6.26867914  1064055411
-6.60154772 18.94046021 -2.51358652  1100447435
-2.52762389 0.92190701 -8.35593700  1064011015
-8.72053528 18.91665649 -2.61033297  1100434411
-2.62955475 0.91888905 -10.06107330  1063983485
-10.35870361 18.41299248 -2.64753628  1100084082
-2.64753628 0.91835767 -10.94616890  1063983485
-11.52217960 17.70827484 -2.64753628  1099704832
-2.64753628 0.91835767 -12.36359882  1063983485
-12.63776588 16.93016624 -2.64753628  1099177437
-2.64753628 0.91835767 -13.70097828  1063983485
-13.95806980 15.85925388 -2.64753628  1098280306
-2.64753628 0.91835767 -14.70739746  1063983485
-15.65286446 14.18913174 -2.64753628  1096199119
-2.64753628 0.91835767 -16.53345680  1063983485
-17.53741264 11.78061390 -2.64753628  1093884943
-2.64753628 0.91835767 -18.42782974  1063983485
-18.59176445 10.03443432 -2.64753628  1092337134
-2.64753628 0.91835767 -19.05449486  1063983485
-18.59097672 7.12827635 -2.49513626  1100457494
-2.53592634 0.92634678 -0.86511528  1064116611
-1.47744489 18.94934845 -2.54248810  1100451449
-2.55443692 0.92582953 -2.71199059  1064106355
-3.33675051 18.93864632 -2.57238317  1100447174
-2.57972765 0.92512333 -4.60792446  1064084697
-5.25720263 18.92316437 -2.62716341  1100317719
-2.64753628 0.92323273 -7.40870476  1064065276
-7.70317841 18.23159218 -2.64753628  1099871538
-2.64753628 0.92323279 -8.86035824  1064065276
-9.14410305 17.55321312 -2.64753628  1099643620
-2.64753628 0.92323273 -9.70441532  1064065275
-9.98082066 17.09131813 -2.64753628  1099394418
-2.64753628 0.92323279 -10.52583027  1064065276
-10.79427147 16.58955956 -2.64753628  1098933408
-2.64753628 0.92323279 -11.83939266  1064065275
-12.34379768 15.47128105 -2.64753628  1098142813
-2.64753628 0.92323273 -14.00520325  1064065276
-14.44812393 13.52706909 -2.64753628  1096068882
-2.64753628 0.92323279 -15.08431244  1064065275
-15.48897266 12.32161427 -2.64753628  1094787460
-2.64753628 0.92323279 -15.87758350  1064065275
-16.06574249 11.55952168 -2.64753628  1093978733
-2.64753628 0.92323273 -16.42949486  1064065276
-16.77625847 10.50179863 -2.64753628  1092857758
-2.64753628 0.92323279 -17.10562515  1064065275
-17.41725540 9.40052509 -2.64753628  1091692327
-2.64753628 0.92323279 -16.82320976  1064136656
-17.19253159 7.23512745 -2.49513626  1100277069
-2.64753628 0.92755431 -0.54932821  1064137779
-1.14796555 18.57820511 -2.64753628  1100234949
-2.64753628 0.92755431 -2.04346657  1064137779
-3.22974491 18.33129311 -2.64753628  1100070427
-2.64753628 0.92755431 -4.11091471  1064137779
-4.40260887 18.08547974 -2.64753628  1099962655
-2.64753628 0.92755431 -4.98250341  1064137779
-6.12618923 17.57661247 -2.64753628  1099568450
-2.64753628 0.92755431 -7.24449158  1064137779
-7.51955128 17.02715492 -2.64753628  1099314634
-2.64753628 0.92755431 -8.33276749  1064137779
-8.59961224 16.50800705 -2.64753628  1099100288
-2.64753628 0.92755431 -9.12655544  1064137779
-9.64403439 15.92043304 -2.64753628  1098659261
-2.64753628 0.92755431 -10.40135193  1064137779
-10.89284992 15.09348488 -2.64753628  1097387253
-2.64753628 0.92755431 -12.07113838  1064137779
-12.52096939 13.77289963 -2.64753628  1096359147
-2.64753628 0.92755431 -13.38127518  1064137779
-13.58780575 12.72159863 -2.64753628  1095238912
-2.64753628 0.92755431 -14.18609810  1064137779
-14.56666851 11.58791256 -2.64753628  1094033792
-2.64753628 0.92755431 -15.10908890  1064137779
-15.77730083 9.87645626 -2.64753628  1090605328
-2.49513626 0.93157834 -15.69744015  1064205291
-16.16878319 6.80430794 -2.49513626  1087463803
-2.49513626 0.93157834 -16.37943268  1064205291
-0.23570226 17.56367111 -2.64753628  1099700428
-2.64753628 0.93141097 -2.48939776  1064202484
-2.76897049 17.34563065 -2.64753628  1099588598
-2.64753628 0.93141103 -3.32590413  1064202484
-3.60310173 17.19173431 -2.64753628  1099500884
-2.64753628 0.93141103 -4.70187378  1064202483
-4.97369385 16.84637833 -2.64753628  1099308275
-2.64753628 0.93141103 -5.51339769  1064202483
-5.78113890 16.58663940 -2.64753628  1099165299
-2.64753628 0.93141097 -6.31207466  1064202483
-6.83645630 16.18026733 -2.64753628  1098943364
-2.64753628 0.93141097 -7.35375118  1064202483
-7.60959005 15.83136845 -2.64753628  1098600235
-2.64753628 0.93141103 -9.57975483  1064202484
-10.04871941 14.40699387 -2.64753628  1097065685
-2.64753628 0.93141103 -10.73249626  1064202483
-10.95493793 13.73053074 -2.64753628  1095956618
-2.64753628 0.93141097 -12.02344131  1064202483
-12.22800159 12.61007786 -2.64753628  1094718663
-2.64753628 0.93141103 -13.38709068  1064202484
-13.74622250 10.93523979 -2.64753628  1093126936
-2.64753628 0.93141097 -14.25809383  1064202483
-14.42137814 10.02806091 -2.64753628  1092400833
-2.64753628 0.93141103 -14.73670578  1064202483
-15.03676891 9.07930470 -2.64753628  1090862389
-2.49513626 0.93522841 -14.43930626  1064266529
-14.56775761 7.86257792 -2.49513626  1088230822
-2.49513626 0.93522841 -15.15276432  1064266529
-15.45688725 5.92658377 -2.49513626  1099235301
-2.64753628 0.93487388 -0.49068290  1064260581
-0.75814301 16.60914993 -2.64753628  1099219490
-2.64753628 0.93487388 -1.29241025  1064260581
-1.55906618 16.55318832 -2.64753628  1099166868
-2.64753628 0.93487388 -2.62097740  1064260581
-3.41052938 16.27289009 -2.64753628  1098988741
-2.64753628 0.93487388 -4.19212723  1064260581
-5.72417545 15.61001587 -2.64753628  1098399975
-2.64753628 0.93487388 -6.47106600  1064260580
-7.44315910 14.86734962 -2.64753628  1097592320
-2.64753628 0.93487388 -8.38440514  1064260581
-8.84224129 14.08024979 -2.64753628  1096429844
-2.64753628 0.93487388 -9.72992802  1064260581
-10.57728863 12.82808113 -2.64753628  1095401367
-2.64753628 0.93487382 -11.38082409  1064260581
-11.57445240 11.93610859 -2.64753628  1093417586
-2.64753628 0.93487382 -13.33798313  1064260580
-13.49604225 9.71059132 -2.64753628  1091851915
-2.64753628 0.93487382 -13.28166866  1064321501
-13.41379929 8.09934616 -2.49513626  1090272347
-2.49513626 0.93850493 -13.78915596  1064321500
-14.02157688 6.99462080 -2.49513626  1087935358
-2.49513626 0.93850493 -14.23947334  1064321500
-14.34289551 6.30957699 -2.49513626  1098676272
-2.64753628 0.93800008 -1.22667360  1064313030
-2.73819995 15.54139709 -2.64753628  1098378438
-2.64753628 0.93800002 -3.23705745  1064313029
-3.73256683 15.33299446 -2.64753628  1098073923
-2.64753628 0.93800002 -4.46841002  1064313029
-4.95328426 14.98325253 -2.64753628  1097474740
-2.64753628 0.93800002 -6.37512875  1064313029
-7.06457853 14.11114883 -2.64753628  1096805881
-2.64753628 0.93800002 -7.73756170  1064313029
-7.95794916 13.62731934 -2.64753628  1095853153
-2.64753628 0.93800002 -9.02784824  1064313030
-9.64216328 12.49245834 -2.64753628  1095065275
-2.64753628 0.93800002 -10.03929520  1064313029
-10.23399544 12.01241875 -2.64753628  1094551996
-2.64753628 0.93800002 -10.61537075  1064313029
-10.80195999 11.50436974 -2.64753628  1094009751
-2.64753628 0.93800002 -11.34473896  1064313029
-11.51984310 10.78545666 -2.64753628  1093243886
-2.64753628 0.93800008 -12.18998241  1064313029
-12.50626850 9.62424564 -2.64753628  1091794824
-2.64753628 0.93800002 -12.95629025  1064313029
-12.73153400 7.68738985 -2.49513626  1089431555
-2.49513626 0.94146234 -13.08779907  1064371117
-13.19980812 6.85222435 -2.49513626  1087213433
-2.49513626 0.94146234 -13.51520920  1064371117
-13.61337471 5.98865032 -2.49513626  1097867870
-2.64753628 0.94083619 -0.92602521  1064360612
-1.40796030 14.94877434 -2.64753628  1097779561
-2.64753628 0.94083619 -2.12795925  1064360612
-2.84300828 14.74331665 -2.64753628  1097539931
-2.64753628 0.94083619 -3.31612110  1064360612
-3.78580403 14.52982521 -2.64753628  1097300180
-2.64753628 0.94083619 -4.94177008  1064360612
-5.16936016 14.09701633 -2.64753628  1096823054
-2.64753628 0.94083619 -5.84385920  1064360612
-6.28605032 13.63575077 -2.64753628  1096320591
-2.64753628 0.94083619 -7.15045071  1064360612
-7.36205864 13.08618546 -2.64753628  1095726247
-2.64753628 0.94083619 -8.18885803  1064360612
-8.39038467 12.45189190 -2.64753628  1095043877
-2.64753628 0.94083619 -8.98170948  1064360612
-9.55208683 11.58472252 -2.64753628  1094115082
-2.64753628 0.94083613 -10.27773857  1064360612
-10.45260429 10.77920341 -2.64753628  1093255344
-2.64753628 0.94083619 -11.28543663  1064360612
-11.59840107 9.53547287 -2.64753628  1091732431
-2.64753628 0.94083619 -12.04520035  1064360612
-11.61791134 8.07863522 -2.49513626  1090289560
-2.49513626 0.94414485 -12.11366749  1064416122
-12.22984028 7.11837101 -2.49513626  1086988838
-2.49513626 0.94414485 -12.85931396  1064416122
-12.95271301 5.69801950 -2.49513626  1085252637
-2.49513626 0.94414485 -1.11297274  1064403972
-1.34260619 14.25495052 -2.64753628  1097053232
-2.64753628 0.94342065 -2.48439384  1064403972
-2.71105576 14.05903149 -2.64753628  1096824725
-2.64753628 0.94342065 -3.16220760  1064403972
-3.38658857 13.91176605 -2.64753628  1096658923
-2.64753628 0.94342065 -3.83265591  1064403972
-4.27475119 13.66501713 -2.64753628  1096307531
-2.64753628 0.94342065 -5.14518547  1064403972
-5.35960007 13.27708054 -2.64753628  1095960192
-2.64753628 0.94342065 -6.40975380  1064403972
-7.02035570 12.47881603 -2.64753628  1094844791
-2.64753628 0.94342065 -8.00095844  1064403972
-8.37903023 11.61025715 -2.64753628  1094161660
-2.64753628 0.94342065 -8.74842358  1064403972
-9.10874748 11.04703236 -2.64753628  1093239498
-2.64753628 0.94342065 -9.80071545  1064403972
-10.60821724 9.61621952 -2.64753628  1092033411
-2.64753628 0.94342065 -10.91227245  1064403972
-11.06007671 9.09290218 -2.64753628  1090939090
-2.49513626 0.94658887 -10.69388199  1064457126
-11.20125294 7.52434921 -2.49513626  1088757184
-2.49513626 0.94658887 -11.66221333  1064457126
-11.87467670 6.40905523 -2.49513626  1086779989
-2.49513626 0.94658887 -12.07483006  1064457127
-12.17022705 5.82833672 -2.49513626  1085552298
-2.49513626 0.94658887 -12.35153580  1064457127
-12.43739796 5.23402596 -2.49513626  1084297088
-2.49513626 0.94658887 -12.59943676  1064457126
-0.40376028 13.67513180 -2.64753628  1096432691
-2.64753628 0.94578534 -1.28287947  1064443645
-1.93892193 13.54299259 -2.64753628  1096258489
-2.64753628 0.94578534 -2.59045219  1064443645
-3.44949722 13.23907948 -2.64753628  1095821815
-2.64753628 0.94578534 -4.71014261  1064443645
-5.52689505 12.51501942 -2.64753628  1095158393
-2.64753628 0.94578534 -5.92689753  1064443645
-6.51524210 12.03012180 -2.64753628  1094400425
-2.64753628 0.94578534 -7.27584839  1064443645
-8.35924149 10.83029556 -2.64753628  1093198784
-2.64753628 0.94578534 -8.87233257  1064443645
-9.03881359 10.26996040 -2.64753628  1092745304
-2.64753628 0.94578534 -9.36472130  1064443645
-9.52405167 9.82164097 -2.64753628  1092102349
-2.64753628 0.94578540 -10.28290367  1064443645
-10.21815014 7.86341619 -2.49513626  1089885531
-2.49513626 0.94882482 -10.81730366  1064494639
-10.92885017 6.84137058 -2.49513626  1087718418
-2.49513626 0.94882482 -11.14341164  1064494639
-11.34642696 6.12394476 -2.49513626  1086199977
-2.49513626 0.94882482 -11.53767300  1064494639
-11.62882805 5.56906366 -2.49513626  1084230079
-2.49513626 0.94882482 -0.38651070  1064480079
-0.59718728 13.08298588 -2.64753628  1095821669
-2.64753628 0.94795698 -1.22806990  1064480079
-2.06453633 12.93285847 -2.64753628  1095654912
-2.64753628 0.94795698 -2.47978210  1064480079
-2.89245105 12.77320671 -2.64753628  1095301191
-2.64753628 0.94795698 -4.11077309  1064480080
-4.31040287 12.36695385 -2.64753628  1094945908
-2.64753628 0.94795698 -4.90239048  1064480079
-5.67369175 11.80382633 -2.64753628  1094410276
-2.64753628 0.94795698 -6.23690224  1064480079
-7.66423798 10.61982059 -2.64753628  1093135310
-2.64753628 0.94795698 -8.16797256  1064480079
-8.33170033 10.10464382 -2.64753628  1092583911
-2.64753628 0.94795704 -9.26733589  1064480079
-9.53423595 7.83844757 -2.49513626  1089856253
-2.49513626 0.95087790 -10.01885509  1064529084
-10.13359451 7.04650116 -2.49513626  1087121305
-2.49513626 0.95087790 -11.13201714  1064529084
-11.29786110 4.97003794 -2.49513626  1083396649
-2.49513626 0.95087790 -0.57264113  1064513653
-0.97618282 12.52029419 -2.64753628  1095240737
-2.64753628 0.94995815 -2.17905211  1064513653
-3.16639876 12.15256214 -2.64753628  1094818221
-2.64753628 0.94995815 -3.55594850  1064513653
-3.94180942 11.92363167 -2.64753628  1094565111
-2.64753628 0.94995815 -4.32358503  1064513653
-4.70088482 11.64527893 -2.64753628  1094089200
-2.64753628 0.94995815 -5.44048214  1064513653
-5.62197208 11.22961617 -2.64753628  1093501805
-2.64753628 0.94995815 -6.50666189  1064513653
-6.67872810 10.63510323 -2.64753628  1093167972
-2.64753628 0.94995815 -7.18433619  1064513653
-7.34921598 10.18331242 -2.64753628  1092423944
-2.64753628 0.94995815 -7.98924398  1064513653
-8.29700947 9.42711735 -2.64753628  1091730299
-2.64753628 0.94995815 -8.74242592  1064513653
-8.37488461 8.36289310 -2.49513626  1090757065
-2.49513626 0.95276952 -8.76884174  1064560820
-8.89566135 7.80666780 -2.49513626  1089811169
-2.49513626 0.95276952 -9.14235115  1064560820
-9.37956333 7.21807718 -2.49513626  1088560632
-2.49513626 0.95276952 -9.60705280  1064560820
-9.71707344 6.75687361 -2.49513626  1087582148
-2.49513626 0.95276952 -9.92954159  1064560820
-10.13172054 6.11760378 -2.49513626  1086227664
-2.49513626 0.95276952 -10.32339668  1064560820
-10.50436974 5.45297956 -2.49513626  1084821459
-2.49513626 0.95276952 -10.67446136  1064560820
-10.83348656 4.76575422 -2.49513626  1083369317
-2.49513626 0.95276952 -0.35594198  1064544689
-1.13094449 12.00766563 -2.64753628  1094676683
-2.64753628 0.95180804 -2.28365874  1064544689
-2.66368961 11.76298714 -2.64753628  1094418258
-2.64753628 0.95180804 -3.04096556  1064544689
-3.22844267 11.62068176 -2.64753628  1094200313
-2.64753628 0.95180804 -3.78565574  1064544689
-4.33405161 11.25518131 -2.64753628  1093857665
-2.64753628 0.95180804 -4.69410896  1064544689
-5.04929781 10.95297623 -2.64753628  1093439072
-2.64753628 0.95180804 -5.91360092  1064544689
-6.08203983 10.41498375 -2.64753628  1092840377
-2.64753628 0.95180804 -6.57773542  1064544689
-6.73960447 10.00203228 -2.64753628  1092503206
-2.64753628 0.95180804 -7.05808210  1064544689
-7.36923313 9.54763412 -2.64753628  1092016172
-2.64753628 0.95180804 -7.67276096  1064544689
-7.82155848 9.18075752 -2.64753628  1091623889
-2.64753628 0.95180804 -7.91279268  1064590155
-8.04312515 8.03160286 -2.49513626  1090311598
-2.49513626 0.95451802 -8.29749203  1064590155
-8.42146492 7.63395548 -2.49513626  1089174587
-2.49513626 0.95451802 -8.78018284  1064590155
-9.00799084 6.93213367 -2.49513626  1087973595
-2.49513626 0.95451802 -9.22647476  1064590155
-9.43537903 6.33813572 -2.49513626  1086713628
-2.49513626 0.95451802 -9.63452053  1064590155
-9.91444206 5.55898905 -2.49513626  1085063666
-2.49513626 0.95451802 -10.17123985  1064590155
-10.25159931 4.90950680 -2.49513626  1083340409
-2.49513626 0.95451802 -10.47665024  1064590155
-10.54626560 4.23966980 -2.49513626  1082275897
-2.49513626 0.95451802 -0.15565147  1064573462
-0.52892685 11.58755684 -2.64753628  1094270356
-2.64753628 0.95352304 -0.90166378  1064573462
-1.45888329 11.50750732 -2.64753628  1094034876
-2.64753628 0.95352304 -2.56183434  1064573462
-2.74360919 11.27047920 -2.64753628  1093900544
-2.64753628 0.95352304 -3.64089894  1064573462
-3.81770658 10.95336914 -2.64753628  1093481052
-2.64753628 0.95352304 -4.68602276  1064573462
-4.85622072 10.53415394 -2.64753628  1093092887
-2.64753628 0.95352304 -5.19280195  1064573462
-5.35909176 10.28742981 -2.64753628  1092633737
-2.64753628 0.95352304 -6.32621336  1064573462
-6.63590145 9.51398563 -2.64753628  1091759039
-2.64753628 0.95352304 -7.23434258  1064573462
-7.22249031 8.20624161 -2.49513626  1090612267
-2.49513626 0.95613885 -7.48290920  1064617347
-7.61022186 7.84801054 -2.49513626  1089678000
-2.49513626 0.95613879 -8.09944153  1064617348
-8.44444370 6.94248962 -2.49513626  1087131573
-2.49513626 0.95613879 -9.17153835  1064617347
-9.44803238 5.49922276 -2.49513626  1084954082
-2.49513626 0.95613879 -9.78230953  1064617347
-9.85959435 4.72177553 -2.49513626  1093842850
-2.64753628 0.95511723 -0.32967436  1064600208
-0.86833316 11.13704109 -2.64753628  1093792297
-2.64753628 0.95511723 -1.40495324  1064600208
-1.58315814 11.05808544 -2.64753628  1093666227
-2.64753628 0.95511723 -2.11514831  1064600208
-2.46713567 10.89499378 -2.64753628  1093511538
-2.64753628 0.95511723 -2.81656957  1064600208
-3.16308141 10.71366024 -2.64753628  1093127822
-2.64753628 0.95511723 -4.67671156  1064600208
-4.83941412 10.06815147 -2.64753628  1092604606
-2.64753628 0.95511723 -5.63324594  1064600208
-5.78779793 9.55453110 -2.64753628  1091948527
-2.64753628 0.95511723 -6.24229717  1064600208
-6.69750404 8.12269878 -2.49513626  1090533544
-2.49513626 0.95764530 -6.95550823  1064642622
-7.08182287 7.78990412 -2.49513626  1089591901
-2.49513626 0.95764530 -7.56840277  1064642622
-8.13229084 6.68585634 -2.49513626  1087206828
-2.49513626 0.95764530 -8.44556332  1064642622
-8.54565144 6.14871645 -2.49513626  1086346469
-2.49513626 0.95764530 -8.73914433  1064642622
-8.92358875 5.58609200 -2.49513626  1085153939
-2.49513626 0.95764530 -9.09878254  1064642622
-9.18285465 5.14878941 -2.49513626  1083914116
-2.49513626 0.95764530 -9.42070293  1064642622
-9.56709862 4.39379740 -2.49513626  1081161891
-2.49513626 0.95764530 -0.14453529  1064625134
-0.49114785 10.75990486 -2.64753628  1093403259
-2.64753628 0.95660293 -1.52651441  1064625134
-2.03946185 10.57626820 -2.64753628  1093145863
-2.64753628 0.95660293 -2.88321280  1064625134
-3.04989743 10.33028984 -2.64753628  1092853969
-2.64753628 0.95660293 -3.87059951  1064625134
-4.03189707 9.98802185 -2.64753628  1092462116
-2.64753628 0.95660293 -4.50936079  1064625134
-4.66624308 9.70788193 -2.64753628  1092229805
-2.64753628 0.95660293 -5.12944698  1064625134
-6.07223272 8.13465691 -2.49513626  1090556641
-2.49513626 0.95904911 -6.45784950  1064666174
-6.70661736 7.62010193 -2.49513626  1089493857
-2.49513626 0.95904911 -6.94843483  1064666174
-7.18304873 7.17275810 -2.49513626  1088291492
-2.49513626 0.95904911 -7.52093601  1064666174
-8.04474354 6.19086361 -2.49513626  1086451746
-2.49513626 0.95904911 -8.23986053  1064666174
-8.51645279 5.52401304 -2.49513626  1084745579
-2.49513626 0.95904911 -8.77319908  1064666174
-8.85426044 4.96454859 -2.49513626  1082936827
-2.49513626 0.95904911 -9.29176235  1064666174
-9.35634995 3.93743372 -2.49513626  1081234156
-2.49513626 0.95904911 -0.13952129  1064648417
-0.47411299 10.38671494 -2.64753628  1092984994
-2.64753628 0.95799065 -1.30769670  1064648417
-1.47356796 10.29258060 -2.64753628  1092835810
-2.64753628 0.95799065 -2.29634595  1064648417
-2.45928669 10.10250092 -2.64753628  1092586833
-2.64753628 0.95799065 -3.10425282  1064648417
-3.26358676 9.87206364 -2.64753628  1092425611
-2.64753628 0.95799071 -3.57967472  1064648417
-3.73635530 9.70300293 -2.64753628  1091956823
-2.64753628 0.95799071 -5.07703400  1064688171
-5.34419680 8.21342182 -2.49513626  1090557981
-2.49513626 0.96036029 -5.86162519  1064688172
-6.35476255 7.45906925 -2.49513626  1088262466
-2.49513626 0.96036029 -7.15320587  1064688171
-7.36507988 6.46345854 -2.49513626  1087046288
-2.49513626 0.96036029 -7.86091423  1064688172
-7.95407104 5.72306442 -2.49513626  1085473898
-2.49513626 0.96036029 -8.30584621  1064688171
-8.38846588 5.06501436 -2.49513626  1083502294
-2.49513626 0.96036023 -8.69699860  1064688172
-8.90480995 4.08963156 -2.49513626  1081902951
-2.49513626 0.96036023 -9.09185314  1064688172
-0.13482630 10.04666233 -2.64753628  1092655112
-2.64753628 0.95928973 -0.61967033  1064670211
-0.78101963 10.01716614 -2.64753628  1092559728
-2.64753628 0.95928973 -1.90246105  1064670211
-2.06102157 9.83391190 -2.64753628  1092405910
-2.64753628 0.95928973 -2.53335404  1064670211
-2.68953753 9.68091106 -2.64753628  1092185558
-2.64753628 0.95928973 -3.15373898  1064670211
-3.30689144 9.48778629 -2.64753628  1091962319
-2.64753628 0.95928973 -4.20644665  1064670211
-4.35279131 9.05576134 -2.64753628  1091551389
-2.64753628 0.95928973 -4.37482882  1064708762
-4.50944710 8.32650185 -2.49513626  1090704665
-2.49513626 0.96158755 -5.29141521  1064708762
-5.41713285 7.76662350 -2.49513626  1089655474
-2.49513626 0.96158755 -6.25610638  1064708762
-6.48168278 6.90316010 -2.49513626  1087545712
-2.49513626 0.96158755 -6.91243839  1064708762
-7.01572227 6.35966778 -2.49513626  1086353194
-2.49513626 0.96158755 -7.59633589  1064708761
-7.77438164 5.40599823 -2.49513626  1084815108
-2.49513626 0.96158755 -7.94436693  1064708762
-8.02628803 5.02438879 -2.49513626  1083731424
-2.49513626 0.96158755 -8.25948238  1064708762
-8.33296394 4.49750614 -2.49513626  1082606352
-2.49513626 0.96158755 -8.54035950  1064708762
-8.60509205 3.95198274 -2.49513626  1081345911
-2.49513626 0.96158755 -8.72784996  1064708762
-8.78583908 3.53196430 -2.49513626  1092320630
-2.64753628 0.96050835 -0.75547987  1064690656
-0.91135406 9.67618465 -2.64753628  1092240626
-2.64753628 0.96050829 -1.53209698  1064690655
-1.68639076 9.57158279 -2.64753628  1092137198
-2.64753628 0.96050829 -1.99362755  1064690655
-2.14649129 9.47901154 -2.64753628  1091949653
-2.64753628 0.96050829 -2.90167737  1064690655
-3.19875479 9.17752934 -2.64753628  1090916306
-2.49513626 0.96273863 -3.83467579  1064728075
-3.96808529 8.25540161 -2.49513626  1090718751
-2.49513626 0.96273869 -4.74571514  1064728075
-4.87121868 7.75684452 -2.49513626  1089318057
-2.49513626 0.96273869 -5.47910833  1064728075
-5.71254492 7.15990400 -2.49513626  1088562439
-2.49513626 0.96273869 -5.94006538  1064728075
-6.05152750 6.87578535 -2.49513626  1087955233
-2.49513626 0.96273869 -6.26972437  1064728075
-6.78630733 6.15169954 -2.49513626  1086178066
-2.49513626 0.96273869 -7.07536793  1064728075
-7.16808653 5.70227957 -2.49513626  1085210267
-2.49513626 0.96273869 -7.43500662  1064728074
-7.60335302 5.10748720 -2.49513626  1084194943
-2.49513626 0.96273869 -7.76382303  1064728075
-7.84105062 4.73448181 -2.49513626  1082865343
-2.49513626 0.96273869 -8.19633102  1064728074
-8.38416100 3.68826985 -2.49513626  1079682924
-2.49513626 0.96273863 -0.12626654  1064709869
-0.58034146 9.39199162 -2.64753628  1091967576
-2.64753628 0.96165353 -1.18348277  1064709869
-1.33359790 9.31492329 -2.64753628  1091874063
-2.64753628 0.96165353 -1.63275826  1064709869
-2.07822418 9.17754173 -2.64753628  1091637364
-2.64753628 0.96165353 -2.66446471  1064709869
-3.05316830 8.32609653 -2.49513626  1090808309
-2.49513626 0.96382046 -3.31960511  1064746224
-3.45154929 8.16899872 -2.49513626  1090636880
-2.49513626 0.96382040 -3.97004652  1064746223
-4.34824133 7.72907591 -2.49513626  1089491745
-2.49513626 0.96382046 -5.07333803  1064746224
-5.41855764 7.02032328 -2.49513626  1088091092
-2.49513626 0.96382046 -5.75114679  1064746224
-5.85906458 6.65710783 -2.49513626  1087300027
-2.49513626 0.96382040 -6.17360210  1064746224
-6.47374725 6.06105375 -2.49513626  1086232574
-2.49513626 0.96382046 -6.66549730  1064746224
-6.75879622 5.74146271 -2.49513626  1084359520
-2.49513626 0.96382040 -7.36153412  1064746224
-7.44018602 4.82591343 -2.49513626  1083610016
-2.49513626 0.96382040 -7.73529911  1064746223
-7.93565369 3.95867705 -2.49513626  1081419173
-2.49513626 0.96382040 -8.05897331  1064746224
-8.11751080 3.57097101 -2.49513626  1079227192
-2.49513626 0.96382046 -0.12235916  1064727959
-0.26911086 9.11456394 -2.64753628  1091662978
-2.64753628 0.96273178 -0.85504776  1064727959
-1.00107300 9.06341743 -2.64753628  1091615986
-2.64753628 0.96273178 -1.43743813  1064727959
-1.89794874 8.38144302 -2.49513626  1090885835
-2.49513626 0.96483886 -2.56569171  1064763310
-2.69738054 8.15934563 -2.49513626  1090639487
-2.49513626 0.96483886 -2.95863080  1064763310
-3.34467530 7.91605282 -2.49513626  1090227931
-2.49513626 0.96483886 -3.59775829  1064763310
-3.72292542 7.74535894 -2.49513626  1089857237
-2.49513626 0.96483886 -4.21359921  1064763310
-4.33361483 7.42094994 -2.49513626  1089156376
-2.49513626 0.96483886 -4.57025623  1064763310
-4.68681097 7.20309305 -2.49513626  1088687630
-2.49513626 0.96483886 -4.91624689  1064763310
-5.02906990 6.96844482 -2.49513626  1088184047
-2.49513626 0.96483886 -5.25077868  1064763310
-5.57306910 6.54153442 -2.49513626  1087077083
-2.49513626 0.96483886 -5.98244333  1064763310
-6.17793894 5.97359467 -2.49513626  1085845817
-2.49513626 0.96483886 -6.45910740  1064763310
-6.72521973 5.34997368 -2.49513626  1084733042
-2.49513626 0.96483886 -7.13359261  1064763310
-7.20980406 4.67648172 -2.49513626  1083304458
-2.49513626 0.96483886 -7.35660648  1064763310
-7.49578333 4.20285606 -2.49513626  1080921714
-2.49513626 0.96483886 -7.80943632  1064763310
-7.86615753 3.46039820 -2.49513626  1078257538
-2.49513626 0.96483886 -0.11188386  1064779180
-1.04820919 8.26815796 -2.49513626  1090760350
-2.49513626 0.96579927 -1.44613290  1064779423
-1.57806849 8.18357372 -2.49513626  1090653817
-2.49513626 0.96579927 -1.97128689  1064779423
-2.10138750 8.06507015 -2.49513626  1090550704
-2.49513626 0.96579927 -2.35991144  1064779423
-2.61598754 7.91313744 -2.49513626  1090246416
-2.49513626 0.96579927 -3.36690950  1064779423
-4.08645439 7.26374912 -2.49513626  1088691247
-2.49513626 0.96579927 -4.43234968  1064779423
-4.76790285 6.83580685 -2.49513626  1087748261
-2.49513626 0.96579921 -5.19788265  1064779423
-5.30207634 6.43033075 -2.49513626  1086674697
-2.49513626 0.96579927 -5.89748764  1064779423
-5.99152231 5.79334354 -2.49513626  1085687512
-2.49513626 0.96579927 -6.60496378  1064779423
-6.68592739 4.97589636 -2.49513626  1083949981
-2.49513626 0.96579921 -7.26960135  1064779423
-7.45789337 3.72034788 -2.49513626  1079942457
-2.49513626 0.96579927 -7.62880039  1064779422
-0.10854403 8.08830643 -2.49513626  1090608706
-2.49513626 0.96670640 -0.62877816  1064794642
-1.27514887 7.98789740 -2.49513626  1090448439
-2.49513626 0.96670640 -1.53162169  1064794642
-1.65927553 7.91702700 -2.49513626  1090286866
-2.49513626 0.96670640 -2.03953767  1064794642
-2.41503739 7.72010899 -2.49513626  1089668701
-2.49513626 0.96670640 -3.02792907  1064794642
-3.26781368 7.39958763 -2.49513626  1088658631
-2.49513626 0.96670640 -3.96618009  1064794642
-4.30189419 6.85027027 -2.49513626  1087960800
-2.49513626 0.96670640 -4.52017546  1064794642
-4.62757015 6.63461208 -2.49513626  1087497596
-2.49513626 0.96670640 -4.83874083  1064794642
-4.94245720 6.40348482 -2.49513626  1086830295
-2.49513626 0.96670640 -5.44131231  1064794642
-5.53695536 5.89700222 -2.49513626  1085533756
-2.49513626 0.96670640 -5.90493011  1064794642
-6.16493559 5.23699188 -2.49513626  1084515047
-2.49513626 0.96670640 -6.41056299  1064794642
-6.48914433 4.82944345 -2.49513626  1083201142
-2.49513626 0.96670640 -6.85643053  1064794642
-6.92463350 4.18114328 -2.49513626  1081946167
-2.49513626 0.96670640 -7.11840582  1064794642
-7.17932606 3.72689843 -2.49513626  1080498206
-2.49513626 0.96670640 -7.35087252  1064794642
-7.45573521 3.13759780 -2.49513626  1077499800
-2.49513626 0.96670640 -0.10542506  1064809039
-0.35825118 7.84843540 -2.49513626  1090186959
-2.49513626 0.96756446 -0.61071080  1064809038
-0.86253190 7.80911827 -2.49513626  1090087489
-2.49513626 0.96756452 -1.23850763  1064809038
-1.36323762 7.73742962 -2.49513626  1089867956
-2.49513626 0.96756452 -1.85829198  1064809039
-2.10305762 7.56990099 -2.49513626  1089544003
-2.49513626 0.96756452 -2.58579516  1064809039
-2.70488191 7.37630415 -2.49513626  1089020437
-2.49513626 0.96756452 -3.28919339  1064809039
-3.40362549 7.08107233 -2.49513626  1088354446
-2.49513626 0.96756452 -3.85221672  1064809039
-3.96193933 6.78448963 -2.49513626  1087695090
-2.49513626 0.96756452 -4.49459982  1064809039
-4.69970703 6.29595184 -2.49513626  1086785033
-2.49513626 0.96756452 -4.89993620  1064809039
-4.99815702 6.06173897 -2.49513626  1086283833
-2.49513626 0.96756452 -5.19069862  1064809039
-5.28496218 5.81338358 -2.49513626  1085753383
-2.49513626 0.96756452 -5.46935558  1064809039
-5.82095194 5.27662325 -2.49513626  1084609769
-2.49513626 0.96756452 -5.98779297  1064809039
-6.06889772 4.98946381 -2.49513626  1083364836
-2.49513626 0.96756452 -6.59145021  1064809039
-6.85290432 3.84239268 -2.49513626  1081004622
-2.49513626 0.96756452 -6.97303772  1064809038
-7.13965321 3.27896357 -2.49513626  1078622384
-2.49513626 0.96756452 -7.28961897  1064809039
-7.33584690 2.81275940 -2.49513626  1089754299
-2.49513626 0.96837741 -0.34819251  1064822677
-0.59356552 7.61292458 -2.49513626  1089658944
-2.49513626 0.96837741 -1.08220017  1064822677
-1.20373774 7.54055643 -2.49513626  1089415210
-2.49513626 0.96837741 -2.04401588  1064822677
-2.39680433 7.25012302 -2.49513626  1088863556
-2.49513626 0.96837741 -2.62894273  1064822677
-2.74400806 7.12596560 -2.49513626  1088493075
-2.49513626 0.96837741 -3.08480835  1064822677
-3.19684863 6.93463182 -2.49513626  1088174991
-2.49513626 0.96837741 -3.63645053  1064822677
-3.85070705 6.59401226 -2.49513626  1087303347
-2.49513626 0.96837741 -4.16454554  1064822677
-4.46866703 6.19192791 -2.49513626  1086259698
-2.49513626 0.96837741 -4.85783529  1064822677
-5.04496765 5.73212576 -2.49513626  1085591096
-2.49513626 0.96837741 -5.31580067  1064822677
-5.40335703 5.39561749 -2.49513626  1084304650
-2.49513626 0.96837741 -5.81968451  1064822677
-5.89851046 4.84938574 -2.49513626  1083711282
-2.49513626 0.96837741 -6.12573576  1064822677
-6.26931143 4.35943699 -2.49513626  1082456263
-2.49513626 0.96837741 -6.53683710  1064822677
-6.66050529 3.73451829 -2.49513626  1080109548
-2.49513626 0.96837741 -6.93920565  1064822677
-6.98960543 3.07479453 -2.49513626  1077776266
-2.49513626 0.96837741 -7.08496284  1064822677
-0.09965253 7.42572737 -2.49513626  1089299913
-2.49513626 0.96914852 -0.57726991  1064835614
-0.93401802 7.36742926 -2.49513626  1089158913
-2.49513626 0.96914852 -1.52335107  1064835614
-1.64015603 7.24301624 -2.49513626  1088874195
-2.49513626 0.96914852 -1.87246382  1064835614
-1.98789954 7.15539169 -2.49513626  1088605792
-2.49513626 0.96914852 -2.44420409  1064835614
-2.55676913 6.97239685 -2.49513626  1088183819
-2.49513626 0.96914852 -3.10908604  1064835614
-3.32457519 6.64067793 -2.49513626  1087554299
-2.49513626 0.96914852 -3.53661776  1064835614
-3.74499249 6.41298676 -2.49513626  1087062667
-2.49513626 0.96914852 -3.94949031  1064835614
-4.24848700 6.09111786 -2.49513626  1086222402
-2.49513626 0.96914852 -4.63162756  1064835614
-4.72447443 5.72981262 -2.49513626  1085597062
-2.49513626 0.96914852 -5.25501823  1064835614
-5.50221109 4.98768902 -2.49513626  1084014666
-2.49513626 0.96914852 -5.73657990  1064835614
-5.88542175 4.52914953 -2.49513626  1083040232
-2.49513626 0.96914852 -6.09720135  1064835614
-6.16465855 4.14105797 -2.49513626  1081022277
-2.49513626 0.96914852 -6.53528070  1064835614
-6.59120893 3.42159748 -2.49513626  1079257566
-2.49513626 0.96914852 -6.79772186  1064835614
-6.84497738 2.88057280 -2.49513626  1088896340
-2.49513626 0.96988094 -0.32953605  1064847902
-0.44570747 7.21313047 -2.49513626  1088851849
-2.49513626 0.96988094 -0.67766708  1064847901
-0.90892357 7.16950130 -2.49513626  1088744729
-2.49513626 0.96988094 -1.25397241  1064847902
-1.36837745 7.09615707 -2.49513626  1088575420
-2.49513626 0.96988094 -1.70934546  1064847902
-1.93449461 6.96316195 -2.49513626  1088277436
-2.49513626 0.96988094 -2.48808026  1064847902
-2.70520353 6.70147467 -2.49513626  1087605931
-2.49513626 0.96988094 -3.02555943  1064847902
-3.13082004 6.51351357 -2.49513626  1086704802
-2.49513626 0.96988094 -3.84338856  1064847902
-3.94140697 6.05749130 -2.49513626  1086310602
-2.49513626 0.96988094 -4.41567802  1064847902
-4.50719881 5.64916372 -2.49513626  1085435293
-2.49513626 0.96988094 -4.68671083  1064847902
-4.77465487 5.42499399 -2.49513626  1084622214
-2.49513626 0.96988094 -5.11384296  1064847902
-5.35439587 4.85369444 -2.49513626  1083554020
-2.49513626 0.96988094 -5.58246517  1064847902
-5.65562057 4.49909544 -2.49513626  1082984967
-2.49513626 0.96988094 -5.79751635  1064847902
-5.99904585 4.02980661 -2.49513626  1081436739
-2.49513626 0.96988094 -6.18658972  1064847902
-6.35970879 3.43249178 -2.49513626  1079318894
-2.49513626 0.96988094 -6.74786711  1064847902
-0.32086638 7.02943659 -2.49513626  1088433948
-2.49513626 0.97057742 -0.88501263  1064859587
-1.22098124 6.93001747 -2.49513626  1088080239
-2.49513626 0.97057742 -1.99249399  1064859587
-2.10087085 6.71582222 -2.49513626  1087676805
-2.49513626 0.97057742 -2.42262268  1064859587
-2.63403368 6.52516603 -2.49513626  1086829595
-2.49513626 0.97057742 -3.35106230  1064859587
-3.45023084 6.13285017 -2.49513626  1086485203
-2.49513626 0.97057742 -3.93215847  1064859587
-4.02558136 5.77153492 -2.49513626  1085708147
-2.49513626 0.97057742 -4.29950666  1064859587
-4.38861942 5.50054169 -2.49513626  1085127654
-2.49513626 0.97057742 -4.89861822  1064859587
-5.05869675 4.89137363 -2.49513626  1083295875
-2.49513626 0.97057742 -5.43559694  1064859587
-5.57663059 4.29151821 -2.49513626  1082552370
-2.49513626 0.97057742 -5.71188450  1064859587
-6.02382803 3.63722873 -2.49513626  1079787646
-2.49513626 0.97057742 -6.34651470  1064859587
-6.39461756 2.93680072 -2.49513626  1077237721
-2.49513626 0.97057742 -6.52893400  1064859587
-6.57033920 2.51924396 -2.49513626  1088117199
-2.49513626 0.97124052 -0.31259361  1064870712
-0.53287953 6.83458853 -2.49513626  1087973388
-2.49513626 0.97124046 -1.08066916  1064870711
-1.40621042 6.70955753 -2.49513626  1087763492
-2.49513626 0.97124046 -1.72847593  1064870711
-1.83503616 6.60516691 -2.49513626  1087462805
-2.49513626 0.97124046 -2.25625086  1064870712
-2.36016107 6.43624306 -2.49513626  1087158180
-2.49513626 0.97124046 -2.66811728  1064870712
-2.87000751 6.22564459 -2.49513626  1086699362
-2.49513626 0.97124046 -3.36127687  1064870711
-3.64578819 5.80550051 -2.49513626  1085792181
-2.49513626 0.97124052 -4.10075903  1064870711
-4.27546978 5.35872412 -2.49513626  1084834102
-2.49513626 0.97124046 -4.44575310  1064870712
-4.61142874 5.07250595 -2.49513626  1084222592
-2.49513626 0.97124046 -4.92827082  1064870712
-5.00433779 4.68531418 -2.49513626  1083397429
-2.49513626 0.97124052 -5.22468853  1064870711
-5.56462193 4.00382376 -2.49513626  1081768604
-2.49513626 0.97124046 -5.75141287  1064870711
-5.97954130 3.35270715 -2.49513626  1079009954
-2.49513626 0.97124046 -6.18288851  1064870711
-6.27499914 2.76043296 -2.49513626  1076506148
-2.49513626 0.97124046 -0.08966213  1064881315
-0.30469042 6.67505836 -2.49513626  1087643741
-2.49513626 0.97187251 -0.94699323  1064881315
-1.15942883 6.58065176 -2.49513626  1087457029
-2.49513626 0.97187251 -1.47575343  1064881315
-1.58046746 6.49240685 -2.49513626  1087302272
-2.49513626 0.97187251 -1.78864074  1064881315
-2.09735441 6.34431553 -2.49513626  1086898337
-2.49513626 0.97187251 -2.50124359  1064881315
-2.60065937 6.15514517 -2.49513626  1086063968
-2.49513626 0.97187251 -3.27629304  1064881315
-3.36961269 5.77017832 -2.49513626  1085727445
-2.49513626 0.97187251 -3.64424086  1064881315
-3.73392534 5.54139519 -2.49513626  1084835015
-2.49513626 0.97187251 -4.16737461  1064881315
-4.33335209 5.08638477 -2.49513626  1084110687
-2.49513626 0.97187251 -4.57384396  1064881315
-4.72828007 4.72150612 -2.49513626  1083482638
-2.49513626 0.97187251 -4.87781525  1064881315
-4.95069599 4.48774576 -2.49513626  1082984965
-2.49513626 0.97187251 -5.29549408  1064881315
-5.36040640 3.98939848 -2.49513626  1081353574
-2.49513626 0.97187251 -5.54674101  1064881315
-5.60599947 3.63620996 -2.49513626  1079451691
-2.49513626 0.97187251 -5.88021231  1064881315
-6.11634922 2.69064164 -2.49513626  1075806922
-2.49513626 0.97187251 -0.29713148  1064891431
-0.40188003 6.50383234 -2.49513626  1087324759
-2.49513626 0.97247547 -0.92349958  1064891431
-1.13066363 6.41739321 -2.49513626  1087160158
-2.49513626 0.97247547 -1.54126000  1064891431
-1.64297831 6.30570793 -2.49513626  1086848088
-2.49513626 0.97247547 -1.94546628  1064891431
-2.04532385 6.18691921 -2.49513626  1086646012
-2.49513626 0.97247547 -2.24341679  1064891431
-2.43919063 6.04248953 -2.49513626  1086329858
-2.49513626 0.97247547 -2.63243270  1064891431
-2.72804379 5.91769600 -2.49513626  1086058421
-2.49513626 0.97247547 -2.91712308  1064891431
-3.01053953 5.77909946 -2.49513626  1085651955
-2.49513626 0.97247547 -3.28601551  1064891431
-3.37616944 5.57340240 -2.49513626  1085314605
-2.49513626 0.97247547 -3.72780323  1064891431
-3.81335282 5.28390503 -2.49513626  1084285424
-2.49513626 0.97247547 -4.30514240  1064891431
-4.38332558 4.82159615 -2.49513626  1083704161
-2.49513626 0.97247547 -4.53625965  1064891431
-4.61097670 4.60437059 -2.49513626  1083240980
-2.49513626 0.97247547 -4.75679970  1064891431
-4.96624947 4.21873093 -2.49513626  1082420346
-2.49513626 0.97247547 -5.16411877  1064891431
-5.22742033 3.89042711 -2.49513626  1081315796
-2.49513626 0.97247547 -5.40913248  1064891431
-5.46691990 3.54599905 -2.49513626  1079855182
-2.49513626 0.97247547 -5.78340769  1064891431
-5.87705326 2.81452990 -2.49513626  1076759878
-2.49513626 0.97247547 -5.96460724  1064891431
-0.08530904 6.35693121 -2.49513626  1087060609
-2.49513626 0.97305131 -0.39209044  1064901093
-0.59614480 6.32949162 -2.49513626  1086993884
-2.49513626 0.97305131 -1.00219119  1064901092
-1.10312021 6.26106787 -2.49513626  1086833295
-2.49513626 0.97305131 -1.30409324  1064901093
-1.50371420 6.17710972 -2.49513626  1086643719
-2.49513626 0.97305137 -1.70177758  1064901092
-1.80015957 6.09731531 -2.49513626  1086466397
-2.49513626 0.97305131 -1.99549901  1064901092
-2.09240484 6.00330687 -2.49513626  1086259403
-2.49513626 0.97305137 -2.28456759  1064901093
-2.47436047 5.85622597 -2.49513626  1085938103
-2.49513626 0.97305131 -2.75418639  1064901093
-2.84606194 5.68487167 -2.49513626  1085255095
-2.49513626 0.97305131 -3.29392791  1064901092
-3.80296445 5.09463596 -2.49513626  1084296286
-2.49513626 0.97305137 -4.12290716  1064901092
-4.27654982 4.70414495 -2.49513626  1083313321
-2.49513626 0.97305131 -4.57038498  1064901092
-4.64092636 4.34507179 -2.49513626  1082696244
-2.49513626 0.97305131 -4.84527493  1064901092
-4.91090298 4.03743505 -2.49513626  1081953707
-2.49513626 0.97305131 -5.10008335  1064901092
-5.49454498 3.19809818 -2.49513626  1078018206
-2.49513626 0.97305131 -5.64252615  1064901092
-5.68894434 2.83791447 -2.49513626  1076870640
-2.49513626 0.97305131 -5.77735090  1064901092
-5.81931496 2.55997348 -2.49513626  1074899717
-2.49513626 0.97305131 -0.08326618  1064910328
-0.18313423 6.20265532 -2.49513626  1086698066
-2.49513626 0.97360182 -0.78044760  1064910328
-1.07672226 6.11123133 -2.49513626  1086519996
-2.49513626 0.97360182 -1.37048292  1064910328
-1.66105127 5.97890997 -2.49513626  1086161877
-2.49513626 0.97360182 -1.94774258  1064910328
-2.04233003 5.85963774 -2.49513626  1085959837
-2.49513626 0.97360182 -2.32282138  1064910328
-2.68827534 5.59282160 -2.49513626  1084979565
-2.49513626 0.97360182 -3.21509886  1064910328
-3.30012083 5.25506163 -2.49513626  1084415540
-2.49513626 0.97360182 -3.63142467  1064910328
-3.71195364 4.97271299 -2.49513626  1083782407
-2.49513626 0.97360182 -4.02423668  1064910328
-4.31984282 4.45482159 -2.49513626  1082937217
-2.49513626 0.97360182 -4.59754705  1064910328
-4.66403580 4.09307241 -2.49513626  1082167055
-2.49513626 0.97360182 -4.79337692  1064910328
-4.85619211 3.86314511 -2.49513626  1081226447
-2.49513626 0.97360182 -4.97803020  1064910328
