# .PCD v0.7 - Point Cloud Data file format
VERSION 0.7
FIELDS x y z intensity
SIZE 4 4 4 4
TYPE F F F F
COUNT 1 1 1 1
WIDTH 1023
HEIGHT 1
VIEWPOINT 0 0 0 1 0 0 0
POINTS 1023
DATA ascii
11.53366566 -5.76356077 -2.49513626  3232137427
-2.49513626 0.94882482 11.95756912  1064494639
12.03324223 -4.63089895 -2.49513626  3230531978
-2.49513626 0.94882482 -2.51615238  1064529084
-2.32240200 -12.12226772 -2.49513626  3242362551
-2.49513626 0.95087790 -1.34571886  1064529084
-0.95228618 -12.30594063 -2.49513626  3242550845
-2.49513626 0.95087790 0.82441670  1064529084
1.21821368 -12.28246307 -2.49513626  3242471078
-2.49513626 0.95087790 1.61075997  1064529084
2.19636798 -12.14573193 -2.49513626  3242311310
-2.49513626 0.95087790 2.77690458  1064529084
2.96905899 -11.98030090 -2.49513626  3242124889
-2.49513626 0.95087790 3.35103774  1064529084
3.72958040 -11.76576138 -2.49513626  3241749412
-2.49513626 0.95087790 5.02186537  1064529084
5.20170403 -11.19308662 -2.49513626  3241170269
-2.49513626 0.95087790 5.73304558  1064529084
5.90728188 -10.83729553 -2.49513626  3240773799
-2.49513626 0.95087761 6.75487661  1064529084
7.08209229 -10.10875225 -2.49513626  3239845159
-2.49513626 0.95087790 7.71442223  1064529084
8.16806412 -9.25341129 -2.49513626  3239178638
-2.49513626 0.95087790 8.88177681  1064529084
9.15157604 -8.28200436 -2.49513626  3238143661
-2.49513626 0.95087790 9.66278458  1064529084
10.35470772 -6.71736050 -2.49513626  3234610443
-2.49513626 0.95087790 10.66524792  1064529084
10.76332855 -6.04100084 -2.49513626  3233531420
-2.49513626 0.95087790 11.04092407  1064529084
11.21188164 -5.16106844 -2.49513626  3231671247
-2.49513626 0.95087790 11.44671726  1064529084
11.51915359 -4.43305588 -2.49513626  3241838552
-2.49513626 0.95276952 -1.85370326  1064560820
-0.53494126 -11.82330990 -2.49513626  3242019108
-2.49513626 0.95276952 -0.15618835  1064560820
0.03326379 -11.83535862 -2.49513626  3242022204
-2.49513626 0.95276952 0.60139692  1064560820
0.97946048 -11.79480553 -2.49513626  3241963806
-2.49513626 0.95276952 1.35652125  1064560820
1.73219323 -11.70795727 -2.49513626  3241860120
-2.49513626 0.95276952 2.10609055  1064560820
2.66276383 -11.53197384 -2.49513626  3241659991
-2.49513626 0.95276952 3.03055191  1064560820
3.39522815 -11.33795643 -2.49513626  3241444275
-2.49513626 0.95276952 3.75642538  1064560820
3.93560314 -11.16189098 -2.49513626  3241250615
-2.49513626 0.95276952 4.29088259  1064560820
4.64177036 -10.88718605 -2.49513626  3240950748
-2.49513626 0.95276952 4.98789883  1064560820
5.32891703 -10.56785011 -2.49513626  3240604407
-2.49513626 0.95276952 5.66447544  1064560820
5.99422884 -10.20519543 -2.49513626  3240108320
-2.49513626 0.95276952 6.94529200  1064560820
7.24849892 -9.35607052 -2.49513626  3239176300
-2.49513626 0.95276952 7.83233213  1064560820
7.97336817 -8.74655533 -2.49513626  3238650502
-2.49513626 0.95276952 8.38406086  1064560820
8.64717102 -8.08104324 -2.49513626  3237880189
-2.49513626 0.95276952 9.02514362  1064560820
9.26561546 -7.36377716 -2.49513626  3236038500
-2.49513626 0.95276952 9.71782303  1064560820
9.82472229 -6.59936857 -2.49513626  3232674547
-2.49513626 0.95276952 10.58710957  1064560820
10.82888412 -4.77620268 -2.49513626  3230509804
-2.49513626 0.95276952 11.04568481  1064560820
11.11231327 -4.07349062 -2.49513626  3241354278
-2.49513626 0.95451802 -1.78027189  1064590155
-1.60033774 -11.25332832 -2.49513626  3241439402
-2.49513626 0.95451802 -1.05826604  1064590155
-0.69545043 -11.34525585 -2.49513626  3241527579
-2.49513626 0.95451844 -0.15000378  1064590155
0.03194607 -11.36650753 -2.49513626  3241491882
-2.49513626 0.95451802 1.30278397  1064590155
1.48336911 -11.26934528 -2.49513626  3241374999
-2.49513626 0.95451802 2.02265573  1064590155
2.55728030 -11.07514668 -2.49513626  3241182799
-2.49513626 0.95451802 3.43461180  1064590155
3.60761642 -10.77884960 -2.49513626  3240789642
-2.49513626 0.95451802 4.62469149  1064590155
4.79030704 -10.30783558 -2.49513626  3239986407
-2.49513626 0.95451802 5.75677109  1064590155
5.91292095 -9.70751667 -2.49513626  3239692587
-2.49513626 0.95451802 6.22063971  1064590155
6.37212467 -9.41246700 -2.49513626  3239375540
-2.49513626 0.95451802 6.67015934  1064590155
6.81662941 -9.09571838 -2.49513626  3238674706
-2.49513626 0.95451802 7.52205372  1064590155
8.17932034 -7.89285040 -2.49513626  3236646444
-2.49513626 0.95451802 8.78421688  1064590155
9.01062870 -6.92871428 -2.49513626  3235143691
-2.49513626 0.95451802 9.43552017  1064590155
9.53576469 -6.18608999 -2.49513626  3233876864
-2.49513626 0.95451802 9.72889519  1064590155
9.99984932 -5.40384197 -2.49513626  3232221002
-2.49513626 0.95451802 10.16770744  1064590155
10.39990330 -4.58699656 -2.49513626  3230494738
-2.49513626 0.95451802 10.54140854  1064590155
10.60811615 -4.08245039 -2.49513626  3240872279
-2.49513626 0.95613879 -1.88481092  1064617348
-1.53914535 -10.82302094 -2.49513626  3240987214
-2.49513626 0.95613879 -1.19190145  1064617347
-1.01779926 -10.88442326 -2.49513626  3241042854
-2.49513626 0.95613879 -0.66885710  1064617347
-0.49410543 -10.92074299 -2.49513626  3241070072
-2.49513626 0.95613879 0.90468979  1064617347
1.42664719 -10.83841801 -2.49513626  3240953590
-2.49513626 0.95613879 1.77286530  1064617347
1.94531322 -10.75743389 -2.49513626  3240822998
-2.49513626 0.95613879 2.45949602  1064617347
2.62968469 -10.61090946 -2.49513626  3240646461
-2.49513626 0.95613879 3.13604331  1064617348
3.30327606 -10.42089176 -2.49513626  3240484338
-2.49513626 0.95613879 4.28742695  1064617347
4.60713339 -9.91368103 -2.49513626  3239765428
-2.49513626 0.95613879 5.23206186  1064617347
5.38504314 -9.51357269 -2.49513626  3239498117
-2.49513626 0.95613879 5.98276901  1064617348
6.12845993 -9.05254745 -2.49513626  3239002280
-2.49513626 0.95613879 6.41510344  1064617347
6.55597258 -8.74791241 -2.49513626  3238562169
-2.49513626 0.95613879 7.10231066  1064617347
7.23442936 -8.19571877 -2.49513626  3237918674
-2.49513626 0.95613879 7.61952925  1064617347
7.98705959 -7.46414614 -2.49513626  3236056764
-2.49513626 0.95613879 8.66607857  1064617347
8.87494183 -6.38294649 -2.49513626  3234311849
-2.49513626 0.95613879 9.17113304  1064617347
9.26519585 -5.80197477 -2.49513626  3233080491
-2.49513626 0.95613879 9.44617558  1064617347
9.61747265 -5.19720936 -2.49513626  3231800550
-2.49513626 0.95613879 9.85587597  1064617348
9.93032169 -4.57113934 -2.49513626  3230140297
-2.49513626 0.95613879 10.13832188  1064617347
10.26402187 -3.76252890 -2.49513626  3240421474
-2.49513626 0.95764530 -1.98090851  1064642622
-1.48224819 -10.42294407 -2.49513626  3240566809
-2.49513626 0.95764530 -1.14784241  1064642622
-0.64413291 -10.50808907 -2.49513626  3240642007
-2.49513626 0.95764530 -0.13893494  1064642622
0.02959005 -10.52777100 -2.49513626  3240646597
-2.49513626 0.95764530 0.53495312  1064642622
0.70319152 -10.50430298 -2.49513626  3240599389
-2.49513626 0.95764530 1.54081666  1064642622
1.70733154 -10.38844967 -2.49513626  3240477106
-2.49513626 0.95764530 2.03900075  1064642622
2.36858034 -10.25790787 -2.49513626  3240285256
-2.49513626 0.95764530 2.85829210  1064642622
3.02012014 -10.08532047 -2.49513626  3240137260
-2.49513626 0.95764530 3.34140897  1064642622
3.50079226 -9.92870903 -2.49513626  3239698254
-2.49513626 0.95764530 4.74017000  1064642622
5.03865623 -9.24374294 -2.49513626  3239221029
-2.49513626 0.95764530 5.47660637  1064642622
5.76161671 -8.81127834 -2.49513626  3238755485
-2.49513626 0.95764530 6.31362820  1064642622
6.44767332 -8.32240009 -2.49513626  3238119853
-2.49513626 0.95764530 6.96700525  1064642622
7.57577181 -7.31043863 -2.49513626  3236300294
-2.49513626 0.95764530 8.02803230  1064642622
8.34573269 -6.41744375 -2.49513626  3233828101
-2.49513626 0.95764530 8.83211803  1064642622
9.01100349 -5.44395351 -2.49513626  3232338306
-2.49513626 0.95764530 9.18065357  1064642622
9.34089184 -4.85618925 -2.49513626  3230777346
-2.49513626 0.95764530 9.63249302  1064642622
9.88460732 -3.62344599 -2.49513626  3240034750
-2.49513626 0.95904911 -1.75018942  1064666174
-1.58990383 -10.02580929 -2.49513626  3240152245
-2.49513626 0.95904911 -1.26815331  1064666174
-1.10676885 -10.09057617 -2.49513626  3240226541
-2.49513626 0.95904911 -0.13396341  1064666174
0.02852872 -10.15105247 -2.49513626  3240256386
-2.49513626 0.95904911 0.35346061  1064666174
0.67802894 -10.12842369 -2.49513626  3240167241
-2.49513626 0.95904911 1.48568237  1064666174
2.28382158 -9.89084625 -2.49513626  3239945719
-2.49513626 0.95904911 2.91204834  1064666174
3.06733799 -9.67657471 -2.49513626  3239652546
-2.49513626 0.95904911 3.83120799  1064666174
3.98119092 -9.33781528 -2.49513626  3239266838
-2.49513626 0.95904911 4.42487526  1064666174
4.57055140 -9.06392574 -2.49513626  3238877259
-2.49513626 0.95904911 5.14118147  1064666174
5.69073296 -8.40596390 -2.49513626  3238331726
-2.49513626 0.95904911 6.21695423  1064666174
6.34461164 -7.92404938 -2.49513626  3237408966
-2.49513626 0.95904911 6.71770239  1064666174
6.83866739 -7.50182056 -2.49513626  3236726345
-2.49513626 0.95904911 7.30468416  1064666174
7.52657747 -6.81141090 -2.49513626  3234997433
-2.49513626 0.95904911 7.84489441  1064666174
8.14511299 -6.05819893 -2.49513626  3233655379
-2.49513626 0.95904911 8.42655087  1064666174
8.77147388 -5.10939550 -2.49513626  3231644817
-2.49513626 0.95904911 8.93053436  1064666174
9.08044434 -4.53764629 -2.49513626  3230127137
-2.49513626 0.95904911 9.41418266  1064666174
9.53090286 -3.49378705 -2.49513626  3239673324
-2.49513626 0.96036029 -1.84377897  1064688172
-1.68948472 -9.65227222 -2.49513626  3239762281
-2.49513626 0.96036029 -1.37964129  1064688172
-1.22416937 -9.72224808 -2.49513626  3239827836
-2.49513626 0.96036029 -0.91232300  1064688172
-0.44290024 -9.78900146 -2.49513626  3239889053
-2.49513626 0.96036029 0.18439344  1064688172
0.34120095 -9.79307365 -2.49513626  3239875819
-2.49513626 0.96036029 0.81093419  1064688171
1.74371552 -9.64262390 -2.49513626  3239694537
-2.49513626 0.96036029 2.66042256  1064688172
2.81104779 -9.38715744 -2.49513626  3239190041
-2.49513626 0.96036029 3.98690701  1064688172
4.27140474 -8.81906128 -2.49513626  3238788655
-2.49513626 0.96036023 5.09748173  1064688172
5.49335480 -8.11441612 -2.49513626  3238029368
-2.49513626 0.96036023 5.75029039  1064688171
5.87656260 -7.84134817 -2.49513626  3237267041
-2.49513626 0.96036029 6.24621916  1064688172
6.36628056 -7.44924164 -2.49513626  3236631942
-2.49513626 0.96036029 6.60147762  1064688172
7.15934610 -6.69062567 -2.49513626  3234267223
-2.49513626 0.96036029 7.86261272  1064688172
8.13428783 -5.46388912 -2.49513626  3230704631
-2.49513626 0.96036029 8.96567535  1064688172
9.08766365 -3.66539216 -2.49513626  3226982604
-2.49513626 0.96036029 -0.88161701  1064708762
-0.73058307 -9.44097519 -2.49513626  3239524654
-2.49513626 0.96158755 -0.42799324  1064708762
-0.12496621 -9.46837521 -2.49513626  3239530428
-2.49513626 0.96158755 0.78364098  1064708762
0.93459862 -9.42296410 -2.49513626  3239436337
-2.49513626 0.96158755 1.68502676  1064708762
1.83396912 -9.28990459 -2.49513626  3239323221
-2.49513626 0.96158755 2.13040829  1064708762
2.27782822 -9.19115162 -2.49513626  3239212230
-2.49513626 0.96158755 2.57087851  1064708762
2.71643305 -9.07120609 -2.49513626  3238550284
-2.49513626 0.96158755 4.26352787  1064708762
4.39832830 -8.38572979 -2.49513626  3238332203
-2.49513626 0.96158755 4.66451216  1064708762
4.79582500 -8.16491413 -2.49513626  3238094016
-2.49513626 0.96158755 5.18226480  1064708762
5.79933405 -7.48554802 -2.49513626  3236526442
-2.49513626 0.96158755 6.15200567  1064708762
6.26644659 -7.09911299 -2.49513626  3235901116
-2.49513626 0.96158755 6.49048376  1064708762
6.70786858 -6.68358040 -2.49513626  3233580983
-2.49513626 0.96158755 7.59797335  1064708762
8.25750256 -4.63458729 -2.49513626  3230666454
-2.49513626 0.96158755 8.40163040  1064708762
8.47047615 -4.23283434 -2.49513626  3229816870
-2.49513626 0.96158755 8.60162926  1064708762
8.72396851 -3.68213797 -2.49513626  3239016879
-2.49513626 0.96273869 -1.72345877  1064728075
-1.57923377 -9.02238464 -2.49513626  3239122897
-2.49513626 0.96273869 -0.70669264  1064728075
-0.56041741 -9.14239216 -2.49513626  3239217730
-2.49513626 0.96273869 0.02574214  1064728075
0.17236027 -9.15792942 -2.49513626  3239206159
-2.49513626 0.96273869 0.75801426  1064728075
1.04982698 -9.09919071 -2.49513626  3239065279
-2.49513626 0.96273863 1.77399850  1064728075
2.06074262 -8.92472553 -2.49513626  3238936543
-2.49513626 0.96273869 2.34537625  1064728075
2.62760401 -8.77456951 -2.49513626  3238769599
-2.49513626 0.96273869 2.90713620  1064728075
3.18369102 -8.58845234 -2.49513626  3238565131
-2.49513626 0.96273869 3.59231663  1064728075
4.25449800 -8.11151218 -2.49513626  3238047117
-2.49513626 0.96273869 4.63899994  1064728075
5.01280022 -7.66610813 -2.49513626  3237132128
-2.49513626 0.96273869 5.25562859  1064728075
5.37503815 -7.41662693 -2.49513626  3236596833
-2.49513626 0.96273869 5.60969400  1064728075
5.83860350 -7.05748892 -2.49513626  3235626549
-2.49513626 0.96273869 6.17067957  1064728075
6.27824163 -6.66941404 -2.49513626  3234783607
-2.49513626 0.96273869 6.59117556  1064728075
6.79139471 -6.14608335 -2.49513626  3233176949
-2.49513626 0.96273869 7.34951544  1064728075
7.43607664 -5.34809971 -2.49513626  3231936309
-2.49513626 0.96273869 7.68424129  1064728075
7.83987856 -4.73642635 -2.49513626  3230894012
-2.49513626 0.96273869 7.98747778  1064728075
8.05821705 -4.35459948 -2.49513626  3230086040
-2.49513626 0.96273869 8.25797558  1064728074
8.43868923 -3.56172991 -2.49513626  3227207362
-2.49513626 0.96273869 8.59994411  1064728074
-1.52900815 -8.73543739 -2.49513626  3238840261
-2.49513626 0.96382040 -0.68421787  1064746225
-0.54259390 -8.85162926 -2.49513626  3238912301
-2.49513626 0.96382040 0.02492458  1064746224
0.30879176 -8.86286449 -2.49513626  3238901092
-2.49513626 0.96382046 0.59234250  1064746224
0.87528592 -8.82493973 -2.49513626  3238640051
-2.49513626 0.96382046 2.54403639  1064746224
2.81468105 -8.40971565 -2.49513626  3238108623
-2.49513626 0.96382040 3.99294543  1064746224
4.11918831 -7.85353565 -2.49513626  3237261829
-2.49513626 0.96382046 4.61329079  1064746224
4.73394012 -7.49903679 -2.49513626  3236791156
-2.49513626 0.96382046 4.97156334  1064746224
5.20409107 -7.18074894 -2.49513626  3236107965
-2.49513626 0.96382046 5.54280853  1064746224
5.76157045 -6.74166346 -2.49513626  3235168533
-2.49513626 0.96382046 5.97442722  1064746223
6.18115234 -6.35917282 -2.49513626  3234352408
-2.49513626 0.96382040 6.38155079  1064746224
6.47930670 -6.05510473 -2.49513626  3233028437
-2.49513626 0.96382040 6.94270849  1064746223
7.11577129 -5.29259062 -2.49513626  3232084541
-2.49513626 0.96382046 7.59053802  1064746224
7.73344564 -4.34045458 -2.49513626  3229804239
-2.49513626 0.96382046 7.93290138  1064746223
8.22446060 -3.31722736 -2.49513626  3225638958
-2.49513626 0.96382046 -1.75187588  1064763310
-1.61697674 -8.44015217 -2.49513626  3238490228
-2.49513626 0.96483886 -0.25094691  1064763310
-0.11340991 -8.59290028 -2.49513626  3238625135
-2.49513626 0.96483886 0.16171239  1064763310
0.29923069 -8.58843422 -2.49513626  3238594261
-2.49513626 0.96483886 0.84818250  1064763310
1.25774038 -8.50110912 -2.49513626  3238505883
-2.49513626 0.96483886 1.52922380  1064763310
1.66439521 -8.43092728 -2.49513626  3238425478
-2.49513626 0.96483886 1.93342352  1064763310
2.46526313 -8.23244953 -2.49513626  3238203947
-2.49513626 0.96483886 3.24339986  1064763310
3.74598193 -7.73423433 -2.49513626  3237317504
-2.49513626 0.96483886 4.11295319  1064763310
4.23321724 -7.47868109 -2.49513626  3236309179
-2.49513626 0.96483886 5.04295206  1064763310
5.15369177 -6.87678862 -2.49513626  3235293776
-2.49513626 0.96483886 5.47787714  1064763310
5.68702984 -6.44270515 -2.49513626  3234544164
-2.49513626 0.96483886 5.89035082  1064763310
6.27868080 -5.86761713 -2.49513626  3233102946
-2.49513626 0.96483886 6.55312490  1064763310
6.64127922 -5.45382214 -2.49513626  3232438553
-2.49513626 0.96483886 6.89543867  1064763310
6.97665262 -5.01767731 -2.49513626  3231512755
-2.49513626 0.96483886 7.13369751  1064763310
7.28342772 -4.56096840 -2.49513626  3230544784
-2.49513626 0.96483886 7.42570066  1064763310
7.56035757 -4.08555937 -2.49513626  3228949081
-2.49513626 0.96483886 7.74776983  1064763310
7.86281395 -3.46798396 -2.49513626  3226852862
-2.49513626 0.96483886 7.96979761  1064763310
-1.69901335 -8.15932274 -2.49513626  3238197171
-2.49513626 0.96579927 -1.30535662  1064779423
-1.17342293 -8.25132275 -2.49513626  3238315306
-2.49513626 0.96579927 -0.64302427  1064779423
-0.10998778 -8.33361053 -2.49513626  3238341975
-2.49513626 0.96579927 1.08765399  1064779423
1.48307991 -8.20131969 -2.49513626  3238159600
-2.49513626 0.96579927 2.51837206  1064779423
2.64522505 -7.90341473 -2.49513626  3237514713
-2.49513626 0.96579927 3.14553165  1064779423
3.26867342 -7.66661167 -2.49513626  3237075852
-2.49513626 0.96579927 3.63294864  1064779423
3.98884702 -7.31780434 -2.49513626  3236436142
-2.49513626 0.96579927 4.33555126  1064779423
4.56118107 -6.97544193 -2.49513626  3235699042
-2.49513626 0.96579927 4.99817991  1064779423
5.20910835 -6.50587225 -2.49513626  3234692652
-2.49513626 0.96579927 5.41469955  1064779423
5.61474085 -6.15920877 -2.49513626  3233159451
-2.49513626 0.96579927 6.17953539  1064779423
6.52472496 -5.18547392 -2.49513626  3231879770
-2.49513626 0.96579927 6.68737221  1064779423
6.76613522 -4.86627102 -2.49513626  3230971334
-2.49513626 0.96579927 6.99194241  1064779423
7.13355684 -4.30970478 -2.49513626  3230022939
-2.49513626 0.96579927 7.26785994  1064779423
7.39471197 -3.84439969 -2.49513626  3227960339
-2.49513626 0.96579927 7.57074118  1064779423
7.67841959 -3.24084139 -2.49513626  3225912673
-2.49513626 0.96579927 7.82514429  1064779423
-1.64900732 -7.91917086 -2.49513626  3237935370
-2.49513626 0.96670640 -1.26693308  1064794642
-1.13888419 -8.00845909 -2.49513626  3238029600
-2.49513626 0.96670640 -0.88194180  1064794642
-0.10675056 -8.08833218 -2.49513626  3238096015
-2.49513626 0.96670640 0.92713028  1064794642
2.44424868 -7.71091032 -2.49513626  3237312295
-2.49513626 0.96670640 2.81159925  1064794642
2.93265033 -7.53870344 -2.49513626  3236721807
-2.49513626 0.96670640 3.40903354  1064794642
3.75725627 -7.16348553 -2.49513626  3236120329
-2.49513626 0.96670640 3.98464561  1064794642
4.53473854 -6.69840622 -2.49513626  3234635728
-2.49513626 0.96670640 5.05579042  1064794642
5.35309267 -6.06439638 -2.49513626  3233577552
-2.49513626 0.96670640 5.63804674  1064794642
5.73017740 -5.70942688 -2.49513626  3232405518
-2.49513626 0.96670640 6.41243553  1064794642
6.49054670 -4.82755899 -2.49513626  3230908692
-2.49513626 0.96670640 7.05394888  1064794642
7.11641836 -3.84565854 -2.49513626  3228486855
-2.49513626 0.96670640 7.45242357  1064794642
7.50181913 -3.02575946 -2.49513626  3225022517
-2.49513626 0.96670640 7.59483099  1064794642
-1.47829628 -7.71627474 -2.49513626  3237498617
-2.49513626 0.96756452 -0.98150772  1064809039
-0.85660213 -7.80976772 -2.49513626  3237630406
-2.49513626 0.96756446 -0.48069710  1064809039
-0.35510588 -7.84857702 -2.49513626  3237700536
-2.49513626 0.96756446 0.02208046  1064809038
0.14784312 -7.85521412 -2.49513626  3237691979
-2.49513626 0.96756452 0.39922005  1064809038
0.52477080 -7.83906126 -2.49513626  3237645452
-2.49513626 0.96756452 0.77543747  1064809038
1.02531064 -7.78941584 -2.49513626  3237524550
-2.49513626 0.96756446 1.39806867  1064809038
1.52164817 -7.70784330 -2.49513626  3237218156
-2.49513626 0.96756452 2.25382710  1064809039
2.49359870 -7.45038509 -2.49513626  3236764347
-2.49513626 0.96756452 2.73081112  1064809038
2.84838986 -7.32220364 -2.49513626  3236276533
-2.49513626 0.96756452 3.42470551  1064809039
3.53745389 -7.01517677 -2.49513626  3235816719
-2.49513626 0.96756452 3.76020336  1064809038
3.87015104 -6.83726501 -2.49513626  3235432498
-2.49513626 0.96756452 4.08703470  1064809039
4.71168184 -6.28699589 -2.49513626  3234250398
-2.49513626 0.96756452 5.00806332  1064809039
5.10432577 -5.97261524 -2.49513626  3233401869
-2.49513626 0.96756452 5.38516140  1064809039
5.74018621 -5.36437368 -2.49513626  3232281249
-2.49513626 0.96756446 6.22818232  1064809039
6.30404711 -4.68884468 -2.49513626  3230845803
-2.49513626 0.96756452 6.52186775  1064809039
6.72465563 -4.06266832 -2.49513626  3228965314
-2.49513626 0.96756452 7.02795935  1064809039
7.08327818 -3.39903402 -2.49513626  3226135114
-2.49513626 0.96756452 7.23828650  1064809039
-1.43679225 -7.49963903 -2.49513626  3236999573
-2.49513626 0.96837741 -1.19598329  1064822677
-1.07510567 -7.55996370 -2.49513626  3237143922
-2.49513626 0.96837741 -0.71094221  1064822677
-0.58914739 -7.61326838 -2.49513626  3237209390
-2.49513626 0.96837741 -0.10077364  1064822677
0.02145953 -7.63599968 -2.49513626  3237236553
-2.49513626 0.96837741 0.63193262  1064822677
0.87520778 -7.58570766 -2.49513626  3237066947
-2.49513626 0.96837741 1.23836076  1064822677
1.95526671 -7.38145494 -2.49513626  3236637881
-2.49513626 0.96837741 2.19055009  1064822677
2.30736470 -7.27907991 -2.49513626  3236149893
-2.49513626 0.96837741 2.88197803  1064822677
3.21811938 -6.92478800 -2.49513626  3235637912
-2.49513626 0.96837741 3.65463638  1064822677
3.86738729 -6.58424425 -2.49513626  3234902031
-2.49513626 0.96837741 4.17901373  1064822677
4.96102047 -5.80493259 -2.49513626  3233231193
-2.49513626 0.96837741 5.14430046  1064822677
5.23397207 -5.56008244 -2.49513626  3232708612
-2.49513626 0.96837741 5.40927219  1064822677
5.49485636 -5.30240583 -2.49513626  3232159543
-2.49513626 0.96837741 5.66177177  1064822677
5.74306679 -5.03250647 -2.49513626  3231585251
-2.49513626 0.96837741 5.90122080  1064822677
5.97803926 -4.75100136 -2.49513626  3230987080
-2.49513626 0.96837741 6.47181320  1064822677
6.59822989 -3.84347749 -2.49513626  3228512504
-2.49513626 0.96837741 6.77513361  1064822677
7.03506994 -2.96930242 -2.49513626  3224817097
-2.49513626 0.96837741 -1.51392424  1064835614
-1.39734769 -7.29375362 -2.49513626  3236566524
-2.49513626 0.96914852 -1.04559100  1064835614
-0.80969715 -7.38212633 -2.49513626  3236770584
-2.49513626 0.96914852 -0.33566168  1064835614
-0.21686372 -7.42323065 -2.49513626  3236799692
-2.49513626 0.96914852 0.13974661  1064835614
0.25858641 -7.42189550 -2.49513626  3236779640
-2.49513626 0.96914852 0.49603668  1064835614
0.73297703 -7.39013577 -2.49513626  3236666561
-2.49513626 0.96914852 1.08690429  1064835614
1.32151365 -7.30787039 -2.49513626  3236504859
-2.49513626 0.96914852 1.90159035  1064835614
2.01625991 -7.14745140 -2.49513626  3236145163
-2.49513626 0.96914852 2.35705447  1064835614
2.46948504 -7.00378609 -2.49513626  3235647928
-2.49513626 0.96914852 2.91258550  1064835614
3.23717666 -6.68371630 -2.49513626  3234900170
-2.49513626 0.96914852 3.86323929  1064835614
4.35798407 -6.01326609 -2.49513626  3233688289
-2.49513626 0.96914852 4.64162874  1064835614
4.73383284 -5.72207975 -2.49513626  3233065088
-2.49513626 0.96914852 4.91457748  1064835614
5.00307322 -5.48822641 -2.49513626  3232565693
-2.49513626 0.96914852 5.34400702  1064835614
5.50634003 -4.98313379 -2.49513626  3231109449
-2.49513626 0.96914852 5.88714266  1064835614
5.95885181 -4.43209410 -2.49513626  3229701562
-2.49513626 0.96914852 6.29414177  1064835614
6.35642910 -3.84020615 -2.49513626  3228515019
-2.49513626 0.96914852 6.47610283  1064835614
6.53345442 -3.53062892 -2.49513626  3226312792
-2.49513626 0.96914852 6.79483318  1064835614
6.93087006 -2.66729116 -2.49513626  3223557534
-2.49513626 0.96914852 -1.47325206  1064847902
-1.35980761 -7.09780502 -2.49513626  3236194301
-2.49513626 0.96988094 -1.01749933  1064847902
-0.90283889 -7.17027044 -2.49513626  3236291000
-2.49513626 0.96988094 -0.67284864  1064847902
-0.55758047 -7.20534515 -2.49513626  3236365863
-2.49513626 0.96988094 -0.21103556  1064847902
-0.09537411 -7.22625780 -2.49513626  3236372164
-2.49513626 0.96988094 0.36722213  1064847902
0.71328598 -7.19160080 -2.49513626  3236139465
-2.49513626 0.96988094 1.51300025  1064847902
1.62592840 -7.04160833 -2.49513626  3235876074
-2.49513626 0.96988094 1.96209240  1064847901
2.07318115 -6.92313910 -2.49513626  3235672883
-2.49513626 0.96988094 2.51193261  1064847902
2.62008142 -6.73521090 -2.49513626  3234865682
-2.49513626 0.96988094 3.25392175  1064847902
3.35680127 -6.39998293 -2.49513626  3234414981
-2.49513626 0.96988094 3.85777187  1064847902
3.95510030 -6.04855967 -2.49513626  3233353477
-2.49513626 0.96988094 4.51693201  1064847902
4.60665894 -5.56835604 -2.49513626  3232747015
-2.49513626 0.96988094 4.86866570  1064847902
5.03712988 -5.18220186 -2.49513626  3231922843
-2.49513626 0.96988094 5.20043993  1064847902
5.35841131 -4.84926033 -2.49513626  3231213920
-2.49513626 0.96988094 5.58502960  1064847902
5.65773296 -4.49643898 -2.49513626  3230270536
-2.49513626 0.96988094 5.86706543  1064847902
5.99913216 -4.02968025 -2.49513626  3228924446
-2.49513626 0.96988094 6.35793400  1064847902
6.41211700 -3.33356309 -2.49513626  3225950762
-2.49513626 0.96988094 6.56475687  1064847902
6.74467087 -2.59563375 -2.49513626  3223269520
-2.49513626 0.96988094 -1.32403266  1064859587
-1.21323311 -6.93137789 -2.49513626  3235867009
-2.49513626 0.97057742 -0.76721424  1064859587
-0.65514672 -7.00619125 -2.49513626  3235954971
-2.49513626 0.97057742 -0.31805038  1064859587
-0.20548347 -7.03375578 -2.49513626  3235982561
-2.49513626 0.97057742 0.24501927  1064859587
0.47001144 -7.02104092 -2.49513626  3235931998
-2.49513626 0.97057742 0.69451946  1064859587
0.80652195 -6.99038267 -2.49513626  3235856414
-2.49513626 0.97057742 1.25217783  1064859587
1.36286080 -6.90351677 -2.49513626  3235655588
-2.49513626 0.97057742 1.69270182  1064859587
1.91047251 -6.77244473 -2.49513626  3235062503
-2.49513626 0.97057742 2.75977039  1064859587
2.96556234 -6.38132906 -2.49513626  3234402149
-2.49513626 0.97057742 3.56387663  1064859587
3.85104656 -5.88942957 -2.49513626  3233311646
-2.49513626 0.97057742 4.12933207  1064859587
4.30960417 -5.56266451 -2.49513626  3232595933
-2.49513626 0.97057742 4.57168055  1064859587
4.74057722 -5.20027637 -2.49513626  3231641408
-2.49513626 0.97057742 5.06362104  1064859587
5.21743679 -4.72168207 -2.49513626  3230772223
-2.49513626 0.97057742 5.71270847  1064859587
5.84130096 -3.92366266 -2.49513626  3225178165
-2.49513626 0.97057742 6.43832731  1064859587
6.48295879 -2.73627162 -2.49513626  3223876888
-2.49513626 0.97057742 6.56722498  1064859587
-1.28989637 -6.73288727 -2.49513626  3235386853
-2.49513626 0.97124046 -0.74743384  1064870711
-0.52891380 -6.83489895 -2.49513626  3235575215
-2.49513626 0.97124046 -0.30985039  1064870711
-0.20018557 -6.85240698 -2.49513626  3235600898
-2.49513626 0.97124046 0.01926726  1064870711
0.23870227 -6.85117722 -2.49513626  3235570041
-2.49513626 0.97124046 1.00332582  1064870711
1.21989357 -6.74591923 -2.49513626  3235329925
-2.49513626 0.97124052 1.43521297  1064870711
1.54233408 -6.67958069 -2.49513626  3234997886
-2.49513626 0.97124046 2.38278747  1064870711
2.48537612 -6.38893795 -2.49513626  3234538889
-2.49513626 0.97124046 2.68861771  1064870711
2.78921890 -6.26225710 -2.49513626  3234263059
-2.49513626 0.97124046 2.98824906  1064870712
3.56616926 -5.85474491 -2.49513626  3233000034
-2.49513626 0.97124052 4.02287054  1064870711
4.11120892 -5.48575974 -2.49513626  3232590457
-2.49513626 0.97124046 4.28470230  1064870712
4.45381021 -5.21144199 -2.49513626  3231850068
-2.49513626 0.97124046 4.77815771  1064870711
4.85623837 -4.83865261 -2.49513626  3231208532
-2.49513626 0.97124052 5.08292103  1064870711
5.15590429 -4.51799250 -2.49513626  3230526082
-2.49513626 0.97124052 5.29788923  1064870711
5.43444252 -4.17880869 -2.49513626  3229619755
-2.49513626 0.97124052 5.62878323  1064870711
5.69069672 -3.82250047 -2.49513626  3228485484
-2.49513626 0.97124046 5.92363644  1064870711
5.97810984 -3.35525990 -2.49513626  3226506674
-2.49513626 0.97124046 6.13229036  1064870712
6.18056059 -2.96585011 -2.49513626  3224859973
-2.49513626 0.97124052 6.27233076  1064870712
6.31581450 -2.66572452 -2.49513626  3223592249
-2.49513626 0.97124052 6.39790869  1064870711
6.43650293 -2.35945821 -2.49513626  3235177797
-2.49513626 0.97187245 -0.51554114  1064881315
-0.30201653 -6.67518282 -2.49513626  3235232687
-2.49513626 0.97187251 -0.08818211  1064881315
0.01878014 -6.68198204 -2.49513626  3235236180
-2.49513626 0.97187251 0.23266734  1064881315
0.44631591 -6.66708803 -2.49513626  3235170238
-2.49513626 0.97187251 0.87202018  1064881315
1.29415429 -6.55548620 -2.49513626  3234928123
-2.49513626 0.97187245 1.60736573  1064881315
1.71098292 -6.45924044 -2.49513626  3234649676
-2.49513626 0.97187251 2.01908970  1064881314
2.42253804 -6.22740459 -2.49513626  3234202278
-2.49513626 0.97187251 2.62064075  1064881315
2.71869874 -6.10392666 -2.49513626  3233933428
-2.49513626 0.97187251 3.00858974  1064881315
3.19803667 -5.86701059 -2.49513626  3233420545
-2.49513626 0.97187251 3.38421011  1064881315
3.47600484 -5.70671844 -2.49513626  3232953845
-2.49513626 0.97187251 3.83404779  1064881315
4.25933504 -5.14852476 -2.49513626  3231878340
-2.49513626 0.97187251 4.42196274  1064881315
4.65735149 -4.79148531 -2.49513626  3231116304
-2.49513626 0.97187251 4.80834723  1064881315
5.09539795 -4.32275057 -2.49513626  3230118722
-2.49513626 0.97187251 5.36156464  1064881315
5.54682112 -3.72585845 -2.49513626  3228089835
-2.49513626 0.97187251 5.71928883  1064881315
5.97725534 -2.98712111 -2.49513626  3224962027
-2.49513626 0.97187251 6.06980085  1064881315
6.15613079 -2.59832692 -2.49513626  3223320321
-2.49513626 0.97187251 6.23614979  1064881315
6.27376747 -2.29980373 -2.49513626  3234604043
-2.49513626 0.97247547 -1.02059734  1064891431
-0.81405842 -6.46518469 -2.49513626  3234809541
-2.49513626 0.97247547 -0.39868894  1064891431
-0.29452372 -6.50957632 -2.49513626  3234885182
-2.49513626 0.97247547 -0.08599441  1064891431
0.12261961 -6.51508236 -2.49513626  3234882724
-2.49513626 0.97247547 0.33111152  1064891431
0.43524337 -6.50168371 -2.49513626  3234774140
-2.49513626 0.97247547 0.95369595  1064891431
1.05675995 -6.42997551 -2.49513626  3234672906
-2.49513626 0.97247547 1.26204765  1064891431
1.36422026 -6.37183046 -2.49513626  3234489738
-2.49513626 0.97247547 1.66853416  1064891431
1.76915121 -6.27147770 -2.49513626  3234316637
-2.49513626 0.97247547 1.96899974  1064891431
2.16683054 -6.14542103 -2.49513626  3233708763
-2.49513626 0.97247547 2.74619460  1064891431
2.93394947 -5.81835604 -2.49513626  3233327393
-2.49513626 0.97247547 3.11869812  1064891431
3.20988679 -5.67079878 -2.49513626  3232896418
-2.49513626 0.97247547 3.56617785  1064891431
3.65302205 -5.39599514 -2.49513626  3232417615
-2.49513626 0.97247547 4.23350573  1064891431
4.38990927 -4.81560326 -2.49513626  3230556100
-2.49513626 0.97247547 4.83149576  1064891431
5.03583002 -4.13542652 -2.49513626  3228794994
-2.49513626 0.97247547 5.35035563  1064891431
5.46667910 -3.54637194 -2.49513626  3226213732
-2.49513626 0.97247547 5.73272991  1064891431
5.82896042 -2.91282606 -2.49513626  3223464666
-2.49513626 0.97247547 6.04319525  1064891431
-1.29602289 -6.22399950 -2.49513626  3234319988
-2.49513626 0.97305131 -0.99573708  1064901092
-0.89509565 -6.29417610 -2.49513626  3234453674
-2.49513626 0.97305131 -0.49050453  1064901092
-0.38897705 -6.34559298 -2.49513626  3234544499
-2.49513626 0.97305131 0.01786718  1064901092
0.11963329 -6.35637808 -2.49513626  3234528349
-2.49513626 0.97305131 0.52612686  1064901092
0.72866881 -6.31560755 -2.49513626  3234414557
-2.49513626 0.97305131 1.03101802  1064901092
1.13130629 -6.25603724 -2.49513626  3234305674
-2.49513626 0.97305131 1.43032968  1064901092
1.62789059 -6.14555407 -2.49513626  3233997743
-2.49513626 0.97305131 1.92103541  1064901092
2.11404729 -5.99572134 -2.49513626  3233726834
-2.49513626 0.97305131 2.30488968  1064901093
2.39943862 -5.88732243 -2.49513626  3233404676
-2.49513626 0.97305131 2.77124691  1064901090
2.95298147 -5.63007689 -2.49513626  3232931954
-2.49513626 0.97305131 3.13169551  1064901092
3.21985888 -5.48182106 -2.49513626  3232612120
-2.49513626 0.97305131 3.47930717  1064901092
3.64785028 -5.20682669 -2.49513626  3231633084
-2.49513626 0.97305131 4.13038015  1064901092
4.20721436 -4.76625633 -2.49513626  3230785952
-2.49513626 0.97305131 4.57483339  1064901092
4.91315889 -4.03468990 -2.49513626  3228750787
-2.49513626 0.97305131 5.22002316  1064901092
5.27744436 -3.54491544 -2.49513626  3227349092
-2.49513626 0.97305131 5.59308386  1064901092
5.81684017 -2.56558490 -2.49513626  3223205780
-2.49513626 0.97305131 5.93329716  1064901092
5.96908808 -2.18811560 -2.49513626  3234006608
-2.49513626 0.97360182 -0.97190738  1064910329
-0.77522147 -6.15674448 -2.49513626  3234161473
-2.49513626 0.97360182 -0.57774079  1064910328
-0.37966818 -6.19373274 -2.49513626  3234225753
-2.49513626 0.97360182 -0.18120615  1064910328
-0.08189028 -6.20481682 -2.49513626  3234222238
-2.49513626 0.97360182 0.51353484  1064910328
0.61246145 -6.17505884 -2.49513626  3234153291
-2.49513626 0.97360182 1.00634432  1064910328
1.10423219 -6.10631943 -2.49513626  3233905418
-2.49513626 0.97360182 1.49270701  1064910328
1.78013396 -5.94454193 -2.49513626  3233566191
-2.49513626 0.97360182 2.15686774  1064910328
2.52476406 -5.66851234 -2.49513626  3233026923
-2.49513626 0.97360182 2.70492458  1064910328
2.79397607 -5.54077387 -2.49513626  3232446561
-2.49513626 0.97360182 3.31247067  1064910328
3.39604139 -5.19359016 -2.49513626  3232001819
-2.49513626 0.97360182 3.56055188  1064910328
3.72141171 -4.96563768 -2.49513626  3231512909
-2.49513626 0.97360182 4.10652876  1064910328
4.32512617 -4.44969273 -2.49513626  3230262011
-2.49513626 0.97360182 4.53375196  1064910328
4.60099363 -4.16381121 -2.49513626  3229802040
-2.49513626 0.97360182 4.79557896  1064910328
4.97910547 -3.70337462 -2.49513626  3228033659
-2.49513626 0.97360182 5.15114689  1064910328
5.20587397 -3.37718081 -2.49513626  3225210596
-2.49513626 0.97360182 5.50575733  1064910328
5.55087090 -2.77386045 -2.49513626  3224097097
-2.49513626 0.97360182 5.63682032  1064910328
5.71699286 -2.41298079 -2.49513626  3222184877
-2.49513626 0.97360182 -1.23524618  1064919166
-0.75698394 -6.01190472 -2.49513626  3233877698
-2.49513626 0.97412860 -0.46750244  1064919166
-0.27387419 -6.05318117 -2.49513626  3233932838
-2.49513626 0.97412860 0.11402268  1064919166
0.21098711 -6.05569696 -2.49513626  3233916478
-2.49513626 0.97412860 0.40472779  1064919166
0.79076630 -6.00755119 -2.49513626  3233764678
-2.49513626 0.97412860 1.07825398  1064919166
1.26857269 -5.92509222 -2.49513626  3233509252
-2.49513626 0.97412860 1.73825431  1064919166
2.01491022 -5.71455193 -2.49513626  3232993089
-2.49513626 0.97412860 2.55365419  1064919166
2.90003991 -5.32031155 -2.49513626  3232182574
-2.49513626 0.97412860 3.15210509  1064919166
3.31614685 -5.07140493 -2.49513626  3231632913
-2.49513626 0.97412860 3.55577946  1064919166
3.71101284 -4.79002714 -2.49513626  3231016610
-2.49513626 0.97412860 3.93668723  1064919166
4.00991917 -4.54274416 -2.49513626  3230616457
-2.49513626 0.97412860 4.15327883  1064919166
4.22337341 -4.34500885 -2.49513626  3229901916
-2.49513626 0.97412860 4.62060070  1064919166
4.74371624 -3.77003193 -2.49513626  3228329008
-2.49513626 0.97412860 4.86196709  1064919166
4.91922855 -3.53795743 -2.49513626  3227343963
-2.49513626 0.97412860 5.02996206  1064919166
5.08340311 -3.29773116 -2.49513626  3225978931
-2.49513626 0.97412860 5.33080053  1064919166
5.37622929 -2.79502058 -2.49513626  3224197569
-2.49513626 0.97412860 5.46294737  1064919166
5.50420713 -2.53370452 -2.49513626  3222343458
-2.49513626 0.97412860 5.65506029  1064919166
5.68917036 -2.08550525 -2.49513626  3233378185
-2.49513626 0.97463304 -1.11374772  1064927629
-0.92708266 -5.84611082 -2.49513626  3233541614
-2.49513626 0.97463304 -0.64536405  1064927629
-0.55109578 -5.89345407 -2.49513626  3233615603
-2.49513626 0.97463304 -0.26753703  1064927629
-0.07811595 -5.91864920 -2.49513626  3233636660
-2.49513626 0.97463304 0.20610516  1064927629
0.30077225 -5.91151762 -2.49513626  3233611138
-2.49513626 0.97463304 0.48985046  1064927629
0.58421445 -5.89026308 -2.49513626  3233557057
-2.49513626 0.97463304 0.95993084  1064927629
1.14640856 -5.80708647 -2.49513626  3233363769
-2.49513626 0.97463304 1.42386246  1064927629
1.51564920 -5.72182989 -2.49513626  3233058589
-2.49513626 0.97463304 1.96828759  1064927629
2.14597130 -5.51646090 -2.49513626  3232720797
-2.49513626 0.97463304 2.32145762  1064927629
2.40832019 -5.40708065 -2.49513626  3232309405
-2.49513626 0.97463304 2.74938250  1064927624
3.07917070 -5.05521727 -2.49513626  3231722304
-2.49513626 0.97463304 3.23941517  1064927629
3.31830168 -4.90156984 -2.49513626  3231276777
-2.49513626 0.97463304 3.62514448  1064927629
3.69958186 -4.62056303 -2.49513626  3230790056
-2.49513626 0.97463304 4.12564850  1064927629
4.19306517 -4.17788363 -2.49513626  3229701153
-2.49513626 0.97463304 4.38879442  1064927629
4.63395214 -3.68279743 -2.49513626  3227653551
-2.49513626 0.97463304 4.80540466  1064927629
5.01670742 -3.14152122 -2.49513626  3225674846
-2.49513626 0.97463304 5.25182962  1064927629
5.29486275 -2.64592910 -2.49513626  3222855763
-2.49513626 0.97463304 5.48946714  1064927629
5.55752993 -2.03724885 -2.49513626  3233101450
-2.49513626 0.97511649 -0.99730557  1064935740
-0.72262937 -5.73906279 -2.49513626  3233283877
-2.49513626 0.97511649 -0.44628555  1064935740
-0.35391021 -5.77353907 -2.49513626  3233343795
-2.49513626 0.97511649 -0.16891283  1064935740
0.01625785 -5.78435373 -2.49513626  3233354041
-2.49513626 0.97511649 0.75487715  1064935740
0.84658390 -5.72208977 -2.49513626  3233195607
-2.49513626 0.97511649 1.12030327  1064935740
1.21100080 -5.65619087 -2.49513626  3233045191
-2.49513626 0.97511649 1.48113739  1064935740
1.83589625 -5.48529720 -2.49513626  3232459037
-2.49513626 0.97511649 2.26859522  1064935740
2.35348058 -5.28395367 -2.49513626  3231876613
-2.49513626 0.97511649 2.84937429  1064935740
2.92959046 -4.98763800 -2.49513626  3231483274
-2.49513626 0.97511649 3.39440703  1064935740
3.46894646 -4.62876177 -2.49513626  3230814992
-2.49513626 0.97511649 3.61533737  1064935740
3.68715405 -4.45689392 -2.49513626  3230447278
-2.49513626 0.97511649 3.82793450  1064935740
3.96479201 -4.21182346 -2.49513626  3229924076
-2.49513626 0.97511649 4.16241407  1064935740
4.22617531 -3.94948792 -2.49513626  3229116349
-2.49513626 0.97511649 4.35043859  1064935740
4.41090393 -3.74205089 -2.49513626  3228234000
-2.49513626 0.97511649 4.64131594  1064935740
4.74943972 -3.30179095 -2.49513626  3226364930
-2.49513626 0.97511649 4.85269785  1064935740
5.04419613 -2.83109307 -2.49513626  3224371146
-2.49513626 0.97511649 5.25440979  1064935740
5.39841175 -2.07753682 -2.49513626  3221148787
-2.49513626 0.97511649 -1.15274799  1064943521
-1.06398380 -5.55368519 -2.49513626  3232906629
-2.49513626 0.97558028 -0.43627959  1064943521
-0.34597602 -5.64409351 -2.49513626  3233079151
-2.49513626 0.97558028 -0.07462326  1064943521
0.01589338 -5.65466499 -2.49513626  3233082110
-2.49513626 0.97558028 0.28733361  1064943521
0.37769759 -5.64205933 -2.49513626  3233026306
-2.49513626 0.97558028 0.91703993  1064943521
1.18384910 -5.52937603 -2.49513626  3232780185
-2.49513626 0.97558028 1.36024213  1064943521
1.44792783 -5.46616697 -2.49513626  3232638779
-2.49513626 0.97558028 1.70866680  1064943521
1.88034129 -5.33289766 -2.49513626  3232344811
-2.49513626 0.97558028 2.13418245  1064943521
2.30071354 -5.16548347 -2.49513626  3231898278
-2.49513626 0.97558028 2.70635748  1064943521
2.86390591 -4.87581158 -2.49513626  3231150672
-2.49513626 0.97558028 3.17003512  1064943521
3.24458408 -4.63121605 -2.49513626  3230827670
-2.49513626 0.97558028 3.39116931  1064943521
3.46316743 -4.47011852 -2.49513626  3230116036
-2.49513626 0.97558028 3.80949426  1064943521
3.87589741 -4.11739111 -2.49513626  3229577205
-2.49513626 0.97558028 4.19269609  1064943521
4.25289774 -3.72670889 -2.49513626  3228180265
-2.49513626 0.97558028 4.37001371  1064943521
4.42690039 -3.51824522 -2.49513626  3227294338
-2.49513626 0.97558028 4.59069252  1064943521
4.64295530 -3.22776389 -2.49513626  3225744775
-2.49513626 0.97558028 4.79255295  1064943521
4.83998108 -2.92405152 -2.49513626  3224774689
-2.49513626 0.97558028 4.93110228  1064943521
4.97477341 -2.68832994 -2.49513626  3223777081
-2.49513626 0.97558028 5.20966005  1064943521
5.24418974 -2.11517429 -2.49513626  3221355317
-2.49513626 0.97558028 -1.12728691  1064950990
-1.04048288 -5.43102026 -2.49513626  3232648615
-2.49513626 0.97602546 -0.86609632  1064950990
-0.77855897 -5.47470713 -2.49513626  3232771913
-2.49513626 0.97602546 -0.33833435  1064950990
0.01554166 -5.52976847 -2.49513626  3232807302
-2.49513626 0.97602546 0.36935499  1064950990
0.45762733 -5.51082182 -2.49513626  3232765660
-2.49513626 0.97602546 0.72165412  1064950990
0.80932307 -5.47024441 -2.49513626  3232668768
-2.49513626 0.97602546 1.07099617  1064950990
1.15770113 -5.40724707 -2.49513626  3232481757
-2.49513626 0.97602546 1.41594779  1064950990
1.75509334 -5.24387503 -2.49513626  3232162352
-2.49513626 0.97602546 1.92205262  1064950990
2.00480485 -5.15357590 -2.49513626  3231964614
-2.49513626 0.97602546 2.16874790  1064950990
2.24989676 -5.05138922 -2.49513626  3231662540
-2.49513626 0.97602546 2.48980045  1064950990
2.64658022 -4.85532713 -2.49513626  3231224939
-2.49513626 0.97602546 2.95184684  1064950990
3.02632070 -4.62817144 -2.49513626  3230828614
-2.49513626 0.97602546 3.31626725  1064950990
3.45621657 -4.31661320 -2.49513626  3230041400
-2.49513626 0.97602546 3.65945697  1064950990
3.79029012 -4.02644825 -2.49513626  3229468375
-2.49513626 0.97602546 3.91723847  1064950990
4.04017115 -3.77565932 -2.49513626  3228122565
-2.49513626 0.97602546 4.27349281  1064950990
4.32912207 -3.44053650 -2.49513626  3226975012
-2.49513626 0.97602546 4.43703794  1064950990
4.48929644 -3.22874594 -2.49513626  3226076064
-2.49513626 0.97602546 4.59034967  1064950990
4.63911772 -3.00951266 -2.49513626  3225146583
-2.49513626 0.97602546 4.73307896  1064950990
4.77824593 -2.78333449 -2.49513626  3224188704
-2.49513626 0.97602546 4.94655609  1064950990
4.98549128 -2.39237523 -2.49513626  3222535196
-2.49513626 0.97602546 5.09459305  1064950990
5.12835979 -2.06845593 -2.49513626  3221108862
-2.49513626 0.97602546 -1.10274720  1064958165
-1.01783288 -5.31279039 -2.49513626  3232429822
-2.49513626 0.97645313 -0.76161152  1064958165
-0.67578566 -5.36703348 -2.49513626  3232520560
-2.49513626 0.97645313 -0.41735566  1064958165
-0.24449703 -5.40388489 -2.49513626  3232564993
-2.49513626 0.97645313 0.10179271  1064958165
0.18835534 -5.40613079 -2.49513626  3232555179
-2.49513626 0.97645313 0.36131468  1064958165
0.44766524 -5.39085484 -2.49513626  3232447671
-2.49513626 0.97645313 0.96259505  1064958165
1.04768097 -5.30698538 -2.49513626  3232318429
-2.49513626 0.97645313 1.21702552  1064958165
1.30124092 -5.25057125 -2.49513626  3231924262
-2.49513626 0.97645313 1.88021159  1064958165
1.96116209 -5.04138517 -2.49513626  3231730834
-2.49513626 0.97645313 2.12153482  1064958165
2.20091939 -4.94142675 -2.49513626  3231354870
-2.49513626 0.97645313 2.51260424  1064958165
2.58896732 -4.74963379 -2.49513626  3231007264
-2.49513626 0.97645313 3.10384822  1064958165
3.24407625 -4.32870865 -2.49513626  3230080996
-2.49513626 0.97645313 3.44814014  1064958165
3.51441789 -4.11225080 -2.49513626  3229730402
-2.49513626 0.97645313 3.64425588  1064958165
3.70777965 -3.93879724 -2.49513626  3228591754
-2.49513626 0.97645313 4.28821516  1064958165
4.34044647 -3.22835159 -2.49513626  3226084403
-2.49513626 0.97645313 4.44156504  1064958165
4.53813028 -2.94399905 -2.49513626  3224878611
-2.49513626 0.97645313 4.63004351  1064958165
4.67422915 -2.72274446 -2.49513626  3223941588
-2.49513626 0.97645313 4.79954863  1064958165
4.83887577 -2.41806459 -2.49513626  3222324073
-2.49513626 0.97645313 4.94937754  1064958165
-1.07907581 -5.18214035 -2.49513626  3232128033
-2.49513626 0.97686428 -0.91263783  1064965062
-0.82905197 -5.22806835 -2.49513626  3232215740
-2.49513626 0.97686428 -0.57712561  1064965062
-0.40839636 -5.27751780 -2.49513626  3232311978
-2.49513626 0.97686422 0.35355827  1064965062
0.60669416 -5.25841284 -2.49513626  3232231384
-2.49513626 0.97686422 0.77470982  1064965062
0.94193256 -5.20881557 -2.49513626  3232080318
-2.49513626 0.97686422 1.27330923  1064965062
1.35539079 -5.11682558 -2.49513626  3231909357
-2.49513626 0.97686422 1.51848984  1064965062
1.59946609 -5.04585838 -2.49513626  3231694606
-2.49513626 0.97686422 1.99778712  1064965062
2.07599616 -4.86921263 -2.49513626  3231365945
-2.49513626 0.97686428 2.38331819  1064965062
2.45867062 -4.68763685 -2.49513626  3230886059
-2.49513626 0.97686422 2.75359154  1064965062
2.82560396 -4.47604179 -2.49513626  3230516352
-2.49513626 0.97686422 2.96743798  1064965062
3.03722286 -4.33523560 -2.49513626  3230108567
-2.49513626 0.97686422 3.30840349  1064965062
3.43897963 -4.02397966 -2.49513626  3229481597
-2.49513626 0.97686422 3.86738372  1064965062
4.14397669 -3.29339433 -2.49513626  3226370363
-2.49513626 0.97686422 4.24727821  1064965062
4.29730177 -3.09066153 -2.49513626  3225509858
-2.49513626 0.97686422 4.48626137  1064965062
4.61595631 -2.59074068 -2.49513626  3223391910
-2.49513626 0.97686422 4.73500538  1064965062
4.77227545 -2.29005980 -2.49513626  3221796405
-2.49513626 0.97686422 4.90903378  1064965062
4.96989965 -1.82183874 -2.49513626  3231863083
-2.49513626 0.97725970 -0.97489291  1064971698
-0.81149960 -5.11725998 -2.49513626  3232006121
-2.49513626 0.97725976 -0.48238686  1064971698
-0.31700587 -5.17149687 -2.49513626  3232089322
-2.49513626 0.97725976 0.26327452  1064971698
0.42878014 -5.16343212 -2.49513626  3232038191
-2.49513626 0.97725976 0.67616260  1064971698
0.75830519 -5.12541294 -2.49513626  3231947408
-2.49513626 0.97725976 0.92198628  1064971698
1.24634624 -5.02906513 -2.49513626  3231683114
-2.49513626 0.97725976 1.56559479  1064971698
1.64445627 -4.91331387 -2.49513626  3231413762
-2.49513626 0.97725976 1.87842619  1064971698
1.95548165 -4.79801941 -2.49513626  3231151214
-2.49513626 0.97725976 2.18356061  1064971698
2.33284903 -4.62630510 -2.49513626  3230847978
-2.49513626 0.97725976 2.55225301  1064971698
2.69528103 -4.42496777 -2.49513626  3230413632
-2.49513626 0.97725976 2.90459919  1064971698
2.97290611 -4.24343204 -2.49513626  3230023654
-2.49513626 0.97725976 3.10721731  1064971698
3.17318749 -4.09582329 -2.49513626  3229707410
-2.49513626 0.97725976 3.30267262  1064971698
3.42877340 -3.88437867 -2.49513626  3228660422
-2.49513626 0.97725976 3.61129260  1064971698
3.72837424 -3.59779286 -2.49513626  3227674849
-2.49513626 0.97725976 3.84163070  1064971698
3.89679098 -3.41466093 -2.49513626  3226895521
-2.49513626 0.97725976 4.05622435  1064971698
4.20630169 -3.02521348 -2.49513626  3224663960
-2.49513626 0.97725976 4.39126015  1064971698
4.43471527 -2.67921281 -2.49513626  3223775104
-2.49513626 0.97725976 4.51820803  1064971698
4.55822277 -2.46322846 -2.49513626  3222551096
-2.49513626 0.97725976 4.74057865  1064971698
-1.03414989 -4.96639109 -2.49513626  3231704823
-2.49513626 0.97764045 -0.79454011  1064978085
-0.63374788 -5.03317547 -2.49513626  3231800728
-2.49513626 0.97764045 -0.39139381  1064978085
-0.31038100 -5.06341314 -2.49513626  3231853277
-2.49513626 0.97764045 -0.14813709  1064978085
-0.06694700 -5.07247448 -2.49513626  3231862265
-2.49513626 0.97764045 0.25777167  1064978085
0.50069070 -5.04814529 -2.49513626  3231749586
-2.49513626 0.97764045 0.82269204  1064978085
0.98251021 -4.97686243 -2.49513626  3231591403
-2.49513626 0.97764045 1.22029686  1064978085
1.37729156 -4.88237000 -2.49513626  3231366841
-2.49513626 0.97764045 1.68688643  1064978085
1.76325274 -4.75661707 -2.49513626  3231011808
