# .PCD v0.7 - Point Cloud Data file format
VERSION 0.7
FIELDS x y z intensity
SIZE 4 4 4 4
TYPE F F F F
COUNT 1 1 1 1
WIDTH 1033
HEIGHT 1
VIEWPOINT 0 0 0 1 0 0 0
POINTS 1033
DATA ascii
5.57444000 10.69526672 -2.64753628  1093526953
-2.64753628 0.95180804 5.05349970  1064544689
4.69963169 11.10749817 -2.64753628  1093855035
-2.64753628 0.95180804 3.97771573  1064544690
3.42544937 11.56414413 -2.64753628  1094312370
-2.64753628 0.95180804 2.48794246  1064544689
1.53443551 11.96280003 -2.64753628  1094719494
-2.64753628 0.95180804 0.57106686  1064544689
0.37775078 12.05489063 -2.64753628  1094775634
-2.64753628 0.95180804 -0.00911396  1064544689
-0.39597502 12.05430794 -2.64753628  1094762003
-2.64753628 0.95180804 -1.74416578  1064544689
-1.93536353 11.90451431 -2.64753628  1094501148
-2.64753628 0.95180804 -2.69469070  1064544689
-3.07039046 11.66343880 -2.64753628  1094250872
-2.64753628 0.95180804 9.16193485  1064617347
9.06509876 6.10988855 -2.49513626  1086858474
-2.49513626 0.95613879 8.86445427  1064617347
8.76069641 6.53887844 -2.49513626  1088037103
-2.49513626 0.95613879 8.09178829  1064617347
6.95011759 8.43815613 -2.49513626  1091762118
-2.64753628 0.95352304 6.93539190  1064573461
6.78535891 9.40798378 -2.64753628  1092326245
-2.64753628 0.95352304 6.16817141  1064573462
5.68846560 10.10903549 -2.64753628  1093091169
-2.64753628 0.95352304 4.00081205  1064573462
3.64951992 11.01055241 -2.64753628  1093735731
-2.64753628 0.95352304 2.93602157  1064573462
2.57455492 11.31030369 -2.64753628  1094031908
-2.64753628 0.95352304 2.21044135  1064573462
1.84405494 11.45210457 -2.64753628  1094194681
-2.64753628 0.95352304 1.10595369  1064573461
0.36330879 11.59393311 -2.64753628  1094291795
-2.64753628 0.95352304 -1.30844688  1064573462
-1.86133575 11.44930649 -2.64753628  1093986046
-2.64753628 0.95352304 -2.77267408  1064573462
-2.95298433 11.21744633 -2.64753628  1093841591
-2.64753628 0.95352304 9.17336178  1064642622
8.91424942 5.60098171 -2.49513626  1085786290
-2.49513626 0.95764530 8.63450146  1064642622
8.53677845 6.16102695 -2.49513626  1086947938
-2.49513626 0.95764530 8.23052788  1064642622
8.12417221 6.69572020 -2.49513626  1088055250
-2.49513626 0.95764530 7.90521526  1064642622
7.44313765 7.44543791 -2.49513626  1089604408
-2.49513626 0.95764530 6.82269621  1064642622
6.69320869 8.12624168 -2.49513626  1090762892
-2.49513626 0.95764530 6.38837147  1064600208
6.24056244 9.26515007 -2.64753628  1091949358
-2.64753628 0.95511723 5.78764582  1064600208
5.63364124 9.64622784 -2.64753628  1092338687
-2.64753628 0.95511723 5.16309977  1064600208
5.00353670 9.98760509 -2.64753628  1092686002
-2.64753628 0.95511723 4.68060160  1064600208
4.51730490 10.21673107 -2.64753628  1092989875
-2.64753628 0.95511723 3.85292220  1064600208
3.34407902 10.65855312 -2.64753628  1093413459
-2.64753628 0.95511723 2.82749200  1064600208
2.65377855 10.85104084 -2.64753628  1093551745
-2.64753628 0.95511723 2.30435634  1064600209
1.95256042 10.99886799 -2.64753628  1093694940
-2.64753628 0.95511723 1.42120910  1064600208
1.06507099 11.11994743 -2.64753628  1093806955
-2.64753628 0.95511729 0.34987304  1064600208
0.17074026 11.16953373 -2.64753628  1093843901
-2.64753628 0.95511723 -0.36675596  1064600208
-0.72469091 11.14730644 -2.64753628  1093805538
-2.64753628 0.95511723 -1.43795586  1064600208
-2.14530396 10.96290779 -2.64753628  1093547801
-2.64753628 0.95511723 -2.67018270  1064600208
-2.84382582 10.80279064 -2.64753628  1093408691
-2.64753628 0.95511723 -3.18887043  1064600208
8.59526730 5.40056181 -2.49513626  1085355298
-2.49513626 0.95904911 8.41761589  1064666174
8.23130226 5.94056559 -2.49513626  1086475381
-2.49513626 0.95904911 8.03651714  1064666174
7.93601227 6.32964420 -2.49513626  1087281299
-2.49513626 0.95904911 7.51382494  1064666174
7.40337753 6.94511890 -2.49513626  1088553953
-2.49513626 0.95904911 7.06071949  1064666174
6.82315397 7.51593304 -2.49513626  1089731374
-2.49513626 0.95904911 6.57855511  1064666174
6.19905138 8.03843594 -2.49513626  1090763503
-2.49513626 0.95904911 5.80681372  1064665987
5.67088223 8.41936779 -2.49513626  1091598005
-2.64753628 0.95660293 5.58054352  1064625134
5.13091373 9.47050858 -2.64753628  1092146000
-2.64753628 0.95660293 4.66940355  1064625134
4.35565805 9.85114384 -2.64753628  1092601289
-2.64753628 0.95660293 3.71505189  1064625134
2.05255818 10.57373047 -2.64753628  1093250887
-2.64753628 0.95660293 1.54154503  1064625134
1.37035346 10.68358135 -2.64753628  1093354587
-2.64753628 0.95660293 1.02695990  1064625134
0.68251044 10.74946404 -2.64753628  1093423439
-2.64753628 0.95660293 -0.35363212  1064625134
-0.87107539 10.73583031 -2.64753628  1093371664
-2.64753628 0.95660293 -1.21499181  1064625134
-1.38650405 10.68149853 -2.64753628  1093306036
-2.64753628 0.95660293 -1.72840738  1064625134
-1.89872003 10.60243797 -2.64753628  1093139250
-2.64753628 0.95660293 -2.57463646  1064625134
-2.74206495 10.41622925 -2.64753628  1084111037
-2.49513626 0.96036023 7.94581270  1064688171
7.85280752 5.86124134 -2.49513626  1086555652
-2.49513626 0.96036029 7.25321865  1064688172
6.22986555 7.56369591 -2.49513626  1090014959
-2.49513626 0.96036023 5.60385323  1064688172
5.47419596 8.12735367 -2.49513626  1090743556
-2.49513626 0.96036023 5.07690001  1064688172
5.09895945 9.06141186 -2.64753628  1091798624
-2.64753628 0.95799071 4.65716076  1064648417
4.35658216 9.44080353 -2.64753628  1092364004
-2.64753628 0.95799071 3.11258078  1064648417
2.95305181 9.96935558 -2.64753628  1092678006
-2.64753628 0.95799065 2.30774927  1064648417
2.14483428 10.17390156 -2.64753628  1092833244
-2.64753628 0.95799071 1.81739104  1064648417
1.65295005 10.26529789 -2.64753628  1092920793
-2.64753628 0.95799071 0.65883863  1064648417
0.15891960 10.39631462 -2.64753628  1093033029
-2.64753628 0.95799065 -0.50801277  1064648416
-0.84086376 10.36347389 -2.64753628  1092981780
-2.64753628 0.95799065 -1.17284918  1064648417
-1.50363123 10.28823090 -2.64753628  1092862300
-2.64753628 0.95799071 -2.32307410  1064648417
-2.80790043 10.01120853 -2.64753628  1083762027
-2.49513626 0.96158755 8.09766293  1064708762
8.01788616 5.03778315 -2.49513626  1085103437
-2.49513626 0.96158755 7.58849716  1064708762
7.49667120 5.78495359 -2.49513626  1086856855
-2.49513626 0.96158755 6.90606117  1064708762
6.80125761 6.58852386 -2.49513626  1087785968
-2.49513626 0.96158755 6.58642054  1064708762
6.47644997 6.90806484 -2.49513626  1088657289
-2.49513626 0.96158755 6.02018070  1064708762
5.41523981 7.76794338 -2.49513626  1090212448
-2.49513626 0.96158755 5.16328955  1064708762
4.90602303 8.09918118 -2.49513626  1090783679
-2.49513626 0.96158755 4.51112795  1064708707
4.06307077 9.18939972 -2.64753628  1091897915
-2.64753628 0.95928973 3.46549582  1064670211
3.31377530 9.48538113 -2.64753628  1092232211
-2.64753628 0.95928973 2.69876528  1064670211
2.38692975 9.75992680 -2.64753628  1092403287
-2.64753628 0.95928973 1.91467941  1064670211
1.75622129 9.89289284 -2.64753628  1092618073
-2.64753628 0.95928973 0.31469372  1064670211
0.15357310 10.04639339 -2.64753628  1092666066
-2.64753628 0.95928973 -0.49091360  1064670211
-0.65182227 10.02640343 -2.64753628  1092631563
-2.64753628 0.95928973 -1.45302141  1064670211
-1.61230040 9.91736126 -2.64753628  1092501086
-2.64753628 0.95928973 -2.40168643  1064670211
-2.55786967 9.71652889 -2.64753628  1092274619
-2.64753628 0.95928973 7.83286285  1064728075
7.75569582 4.87304688 -2.49513626  1084477793
-2.49513626 0.96273869 7.51230717  1064728075
7.42728376 5.36030388 -2.49513626  1085231594
-2.49513626 0.96273869 7.25152493  1064728075
7.16083717 5.71137619 -2.49513626  1085958790
-2.49513626 0.96273869 6.97395086  1064728075
6.87780237 6.04923391 -2.49513626  1086884116
-2.49513626 0.96273869 6.57885361  1064728074
6.47578049 6.47778559 -2.49513626  1087542809
-2.49513626 0.96273869 6.15667915  1064728075
5.93597317 6.97578716 -2.49513626  1089499668
-2.49513626 0.96273869 5.11696148  1064728075
4.99444675 7.67807770 -2.49513626  1090009856
-2.49513626 0.96273869 4.74559307  1064728074
4.36323643 8.05354404 -2.49513626  1090647485
-2.49513626 0.96273869 3.70397115  1064728075
3.56912231 8.43556595 -2.49513626  1091696183
-2.64753628 0.96050829 2.76034141  1064690655
2.61051416 9.36185265 -2.64753628  1092029798
-2.64753628 0.96050835 2.15715003  1064690656
1.54508185 9.59540558 -2.64753628  1092216637
-2.64753628 0.96050829 1.23650134  1064690656
0.92664939 9.67473030 -2.64753628  1092289402
-2.64753628 0.96050835 0.46018553  1064690655
0.14855054 9.71787071 -2.64753628  1092320114
-2.64753628 0.96050829 -0.31909281  1064690655
-0.63050735 9.69853497 -2.64753628  1092288167
-2.64753628 0.96050835 -1.09631145  1064690655
-1.40550959 9.61684227 -2.64753628  1092189484
-2.64753628 0.96050829 -1.71325648  1064690655
-1.86648583 9.53809834 -2.64753628  1092026126
-2.64753628 0.96050835 -2.47422552  1064690655
-2.62466335 9.35789680 -2.64753628  1091897492
-2.64753628 0.96050829 7.43238974  1064746224
7.10689545 5.30450249 -2.49513626  1085338520
-2.49513626 0.96382040 6.84350204  1064746224
6.75215197 5.74927759 -2.49513626  1086024519
-2.49513626 0.96382040 6.56426048  1064746223
6.26982594 6.27176332 -2.49513626  1087511938
-2.49513626 0.96382046 5.85478258  1064746224
5.63811350 6.84524727 -2.49513626  1088285159
-2.49513626 0.96382040 5.30230474  1064746224
5.18760347 7.19267464 -2.49513626  1088998507
-2.49513626 0.96382046 4.95422220  1064746224
4.34899569 7.72864628 -2.49513626  1090094176
-2.49513626 0.96382046 4.09885263  1064746224
3.97218108 7.92890263 -2.49513626  1090501424
-2.49513626 0.96382040 3.19186234  1064746224
3.05873561 8.32405090 -2.49513626  1090957222
-2.49513626 0.96382040 2.81692839  1064709869
2.52749181 9.06411457 -2.64753628  1091676127
-2.64753628 0.96165353 2.08854437  1064709869
1.94110656 9.20751953 -2.64753628  1091871954
-2.64753628 0.96165353 1.04730713  1064709869
0.74681228 9.38022232 -2.64753628  1091996039
-2.64753628 0.96165353 -0.61045152  1064709869
-0.76099283 9.37908268 -2.64753628  1091915342
-2.64753628 0.96165353 -1.36080658  1064709869
-1.50998092 9.28796291 -2.64753628  1091842917
-2.64753628 0.96165353 -1.80712402  1064709869
-2.10241365 9.17203617 -2.64753628  1082584776
-2.49513626 0.96483886 7.41943216  1064763310
7.27652502 4.57197428 -2.49513626  1083573486
-2.49513626 0.96483886 7.12613201  1064763310
6.88683939 5.14025497 -2.49513626  1085203983
-2.49513626 0.96483886 6.54307652  1064763310
6.36100388 5.77826786 -2.49513626  1086072144
-2.49513626 0.96483886 6.17239237  1064763310
6.07568789 6.07756519 -2.49513626  1086690150
-2.49513626 0.96483886 5.87761545  1064763310
5.67349768 6.45462370 -2.49513626  1088187905
-2.49513626 0.96483886 5.02697182  1064763310
4.91452885 7.04969358 -2.49513626  1089156524
-2.49513626 0.96483886 4.33392334  1064763310
4.21433401 7.48933554 -2.49513626  1089587842
-2.49513626 0.96483886 3.97193599  1064763310
3.84918571 7.68339205 -2.49513626  1089982471
-2.49513626 0.96483886 3.60075498  1064763310
3.47513151 7.85965824 -2.49513626  1090339507
-2.49513626 0.96483886 2.83426023  1064763310
2.44072223 8.23976040 -2.49513626  1090810384
-2.49513626 0.96483886 1.63781142  1064763235
1.44962180 9.00257206 -2.64753628  1091593480
-2.64753628 0.96273178 1.16010630  1064727959
0.43175361 9.10831070 -2.64753628  1091690560
-2.64753628 0.96273178 -0.44552124  1064727959
-0.59155041 9.09932995 -2.64753628  1091630886
-2.64753628 0.96273178 -2.05415273  1064763310
-2.18773580 8.31050968 -2.49513626  1090806717
-2.49513626 0.96483886 -2.45317507  1064763310
7.12717342 4.32024956 -2.49513626  1083040631
-2.49513626 0.96579927 6.98492908  1064779423
6.91110229 4.65809298 -2.49513626  1083741774
-2.49513626 0.96579927 6.75813484  1064779423
6.43149567 5.30066204 -2.49513626  1085285043
-2.49513626 0.96579927 6.07838488  1064779423
5.89235592 5.89417648 -2.49513626  1086299431
-2.49513626 0.96579927 5.70026255  1064779423
5.50230265 6.25985909 -2.49513626  1087917817
-2.49513626 0.96579927 4.76623535  1064779423
4.31804609 7.12851000 -2.49513626  1088974168
-2.49513626 0.96579927 3.73303771  1064779423
3.61303711 7.51046753 -2.49513626  1089611928
-2.49513626 0.96579927 3.37026930  1064779423
2.99969840 7.77579451 -2.49513626  1090147653
-2.49513626 0.96579927 2.62218475  1064779423
2.36707449 7.99112892 -2.49513626  1090585039
-2.49513626 0.96579927 1.97993040  1064779423
1.71923256 8.15508366 -2.49513626  1090709473
-2.49513626 0.96579927 1.06033516  1064779423
0.92759812 8.28255463 -2.49513626  1090861218
-2.49775767 0.96576393 0.39507514  1064778811
0.26126647 8.33729839 -2.49724817  1090868069
-2.49603963 0.96578705 -0.40735427  1064779221
-0.54089421 8.32009602 -2.49613070  1090828535
-2.49513626 0.96579927 -1.46916699  1064779423
-1.86210310 8.12365341 -2.49513626  1090492908
-2.49513626 0.96579927 7.04834318  1064794642
6.98377037 4.08159924 -2.49513626  1082535380
-2.49513626 0.96670640 6.70769024  1064794642
6.24220037 5.14465094 -2.49513626  1084739534
-2.49513626 0.96670640 6.07396603  1064794642
5.98749304 5.43897200 -2.49513626  1085545067
-2.49513626 0.96670640 5.62643194  1064794642
5.43712282 5.98917341 -2.49513626  1086483312
-2.49513626 0.96670640 5.24221420  1064794642
5.14272308 6.24379015 -2.49513626  1087339643
-2.49513626 0.96670640 4.51892185  1064794642
4.30139542 6.85058403 -2.49513626  1088390498
-2.49513626 0.96670640 3.96687245  1064794642
3.85328674 7.11229181 -2.49513626  1088785076
-2.49513626 0.96670640 3.62316632  1064794642
3.27107477 7.39814520 -2.49513626  1089364901
-2.49513626 0.96670640 3.03208852  1064794642
2.91141009 7.54693222 -2.49513626  1089664787
-2.49513626 0.96670640 2.42151570  1064794642
2.29740667 7.75592899 -2.49513626  1090082374
-2.49513626 0.96670640 1.41388786  1064794642
1.28595757 7.98616362 -2.49513626  1090573760
-2.49513626 0.96670640 0.51256299  1064794642
0.38300705 8.07996273 -2.49513626  1090608240
-2.49513626 0.96670640 -0.13586003  1064794642
-0.39522162 8.07937527 -2.49513626  1090594534
-2.49513626 0.96670640 -0.65417266  1064794642
-0.91245055 8.03740978 -2.49513626  1090541834
-2.49513626 0.96670640 -1.29802394  1064794642
-1.42592537 7.96236420 -2.49513626  1090276930
-2.49513626 0.96670640 -1.93353438  1064794642
-2.30912662 7.75244665 -2.49513626  1081980765
-2.49513626 0.96756452 6.58454704  1064809039
6.21999550 4.79978275 -2.49513626  1084220925
-2.49513626 0.96756452 5.81544924  1064809039
5.72996807 5.37528896 -2.49513626  1085579622
-2.49513626 0.96756446 5.18690586  1064809039
4.69744873 6.29763651 -2.49513626  1087834470
-2.49513626 0.96756452 3.96222186  1064809039
3.63127851 6.96706963 -2.49513626  1088473100
-2.49513626 0.96756452 3.29193163  1064809039
3.17708397 7.18556929 -2.49513626  1089114115
-2.49513626 0.96756452 2.59117675  1064809039
2.47187781 7.45761967 -2.49513626  1089462725
-2.49513626 0.96756452 2.23139334  1064809038
1.86643994 7.63168812 -2.49513626  1089863952
-2.49513626 0.96756446 1.37326288  1064809039
0.99955547 7.79276180 -2.49513626  1090115954
-2.49513626 0.96756452 0.74908024  1064809039
0.49783286 7.84081793 -2.49513626  1090199841
-2.49513626 0.96756452 0.24607278  1064809039
0.12008477 7.85568762 -2.49513626  1090218315
-2.49513626 0.96756452 -0.50968504  1064809039
-0.63537711 7.83087158 -2.49513626  1090140866
-2.49513626 0.96756452 -1.01133454  1064809038
-1.13617671 7.77401829 -2.49513626  1089911627
-2.49513626 0.96756452 -1.63230371  1064809039
-1.87797546 7.62885618 -2.49513626  1089532724
-2.49513626 0.96756452 6.59266233  1064822677
6.53001070 3.95827103 -2.49513626  1082261515
-2.49513626 0.96837741 6.39968443  1064822677
6.11941719 4.56746197 -2.49513626  1083525097
-2.49513626 0.96837741 5.81396246  1064822677
5.73380804 5.04305553 -2.49513626  1084698140
-2.49513626 0.96837741 5.48458433  1064822677
5.39865589 5.40032339 -2.49513626  1085247273
-2.49513626 0.96837741 5.13262987  1064822677
5.04128218 5.73536587 -2.49513626  1086102697
-2.49513626 0.96837741 4.56556797  1064822677
4.36688662 6.26412582 -2.49513626  1087303973
-2.49513626 0.96837741 3.95624971  1064822677
3.74471784 6.65477514 -2.49513626  1088059520
-2.49513626 0.96837741 3.31031251  1064822677
3.19951081 6.93340254 -2.49513626  1088489973
-2.49513626 0.96837741 2.74836302  1064822677
2.63373470 7.16745424 -2.49513626  1088942493
-2.49513626 0.96837741 1.93278074  1064822677
1.69482994 7.44556999 -2.49513626  1089411319
-2.49513626 0.96837741 1.45513368  1064822677
1.09285784 7.55742025 -2.49513626  1089656244
-2.49513626 0.96837741 0.48385656  1064822677
0.23916347 7.63228369 -2.49513626  1089753479
-2.49513626 0.96837741 -0.61753875  1064822677
-0.73953980 7.60013485 -2.49513626  1089622514
-2.49513626 0.96837741 -1.70608544  1064822677
-1.94394958 7.38444424 -2.49513626  1080636898
-2.49513626 0.96914852 6.35074377  1064835614
6.28817797 3.95097780 -2.49513626  1082238080
-2.49513626 0.96914852 6.15820932  1064835614
6.09084082 4.24888611 -2.49513626  1082856119
-2.49513626 0.96914852 5.95141935  1064835614
5.87940359 4.53695679 -2.49513626  1084027529
-2.49513626 0.96914852 5.16552544  1064835614
4.99172592 5.49855280 -2.49513626  1085439559
-2.49513626 0.96914852 4.72143984  1064835614
4.53514099 5.88080549 -2.49513626  1086373499
-2.49513626 0.96914852 4.24700260  1064835614
4.14873838 6.15949440 -2.49513626  1086797107
-2.49513626 0.96914852 3.94903159  1064835614
3.84763813 6.35193205 -2.49513626  1087190511
-2.49513626 0.96914852 3.32636261  1064835614
3.11167502 6.74306059 -2.49513626  1088085090
-2.49513626 0.96914852 2.67291284  1064835614
2.56143141 6.97068644 -2.49513626  1088525193
-2.49513626 0.96914852 1.99472225  1064835614
1.87972343 7.18456697 -2.49513626  1088981148
-2.49513626 0.96914852 1.41518581  1064835614
1.18061411 7.33195305 -2.49513626  1089189552
-2.49513626 0.96914852 0.82654572  1064835614
0.70806235 7.39256763 -2.49513626  1089266979
-2.49513626 0.96914852 0.47057357  1064835614
0.35163230 7.41806984 -2.49513626  1089316108
-2.49513626 0.96914852 -0.12473030  1064835614
-0.36284643 7.41752672 -2.49513626  1089283303
-2.49513626 0.96914852 -0.60058361  1064835614
-0.83770424 7.37899923 -2.49513626  1089186539
-2.49513626 0.96914852 -1.07396448  1064835614
-1.19169283 7.33016205 -2.49513626  1089072224
-2.49513626 0.96914852 -1.65924573  1064835614
-1.77514291 7.21111870 -2.49513626  1080226301
-2.49513626 0.96988094 6.23942423  1064847902
5.99276829 4.03913641 -2.49513626  1082611265
-2.49513626 0.96988094 5.64990234  1064847902
5.57689238 4.59632111 -2.49513626  1083751204
-2.49513626 0.96988094 5.34933329  1064847902
5.27070284 4.94445086 -2.49513626  1084798489
-2.49513626 0.96988094 4.85762119  1064847902
4.59459877 5.57831240 -2.49513626  1085593442
-2.49513626 0.96988094 4.41330433  1064847902
4.32094288 5.79287100 -2.49513626  1086034140
-2.49513626 0.96988094 3.84294128  1064847902
3.64464450 6.24054861 -2.49513626  1087181734
-2.49513626 0.96988094 3.13294363  1064847902
2.60110474 6.74256134 -2.49513626  1088202668
-2.49513626 0.96988094 1.94113326  1064847902
1.82922363 6.99155426 -2.49513626  1088463826
-2.49513626 0.96988094 1.60401988  1064847902
1.14889741 7.13497829 -2.49513626  1088774547
-2.49513626 0.96988094 0.80434090  1064847902
0.45793274 7.21236372 -2.49513626  1088880706
-2.49513626 0.96988094 0.22635101  1064847902
-0.00545912 7.22688580 -2.49513626  1088865780
-2.49513626 0.96988094 -0.58444923  1064847902
-0.69991475 7.19291353 -2.49513626  1088800975
-2.49513626 0.96988094 -1.04511094  1064847902
-1.38788581 7.09236622 -2.49513626  1088458360
-2.49513626 0.96988094 -1.83979011  1064847902
6.13144398 3.45272827 -2.49513626  1080245662
-2.49513626 0.97057742 6.01753759  1064859587
5.95825434 3.74368024 -2.49513626  1081454191
-2.49513626 0.97057742 5.70595407  1064859587
5.57092905 4.29891634 -2.49513626  1082943543
-2.49513626 0.97057742 5.43016958  1064859587
5.35768414 4.56192493 -2.49513626  1083487867
-2.49513626 0.97057742 5.20859861  1064859587
5.13203526 4.81436920 -2.49513626  1084009619
-2.49513626 0.97057742 4.97496986  1064859587
4.81278229 5.13352489 -2.49513626  1084825810
-2.49513626 0.97057742 4.56026649  1064859587
4.47371864 5.43155384 -2.49513626  1085281641
-2.49513626 0.97057742 4.29719400  1064859587
4.20726252 5.64046717 -2.49513626  1085847672
-2.49513626 0.97057742 3.83694601  1064859587
3.64576507 6.01866388 -2.49513626  1086717053
-2.49513626 0.97057742 3.25234818  1064859587
3.15183735 6.29141045 -2.49513626  1087141097
-2.49513626 0.97057742 2.53267241  1064859587
2.42703986 6.60495329 -2.49513626  1087673276
-2.49513626 0.97057742 1.99854279  1064859587
1.78109705 6.80761480 -2.49513626  1088130887
-2.49513626 0.97057742 1.45156455  1064859587
1.22995949 6.92842865 -2.49513626  1088379051
-2.49513626 0.97057742 0.78317946  1064859587
0.10755458 7.03593445 -2.49513626  1088496891
-2.49513626 0.97057742 -0.34380752  1064859587
-0.56907308 7.01370668 -2.49513626  1088376197
-2.49513626 0.97057742 -1.01761651  1064859587
-1.46196973 6.88320827 -2.49513626  1088012760
-2.49513626 0.97057742 -1.90030837  1064859587
5.97336292 3.36370850 -2.49513626  1080258022
-2.49513626 0.97124052 5.80463839  1064870711
5.68466520 3.83147264 -2.49513626  1081803947
-2.49513626 0.97124046 5.55884266  1064870711
5.42729855 4.18808174 -2.49513626  1082706303
-2.49513626 0.97124046 5.21954966  1064870712
5.07430792 4.60944653 -2.49513626  1083577981
-2.49513626 0.97124046 4.92384624  1064870712
4.76831388 4.92532110 -2.49513626  1084230036
-2.49513626 0.97124052 4.60787725  1064870711
4.52586842 5.14899302 -2.49513626  1084838940
-2.49513626 0.97124046 4.18640232  1064870712
3.92042446 5.62368965 -2.49513626  1085917392
-2.49513626 0.97124052 3.45726037  1064870711
3.36186242 5.97440052 -2.49513626  1086490748
-2.49513626 0.97124052 2.87239718  1064870711
2.67125750 6.31347752 -2.49513626  1087155018
-2.49513626 0.97124046 2.36446595  1064870711
2.15685368 6.50719452 -2.49513626  1087459198
-2.49513626 0.97124046 1.94701672  1064870711
1.84133482 6.60341358 -2.49513626  1087706930
-2.49513626 0.97124046 1.41414094  1064870711
1.30636287 6.72971153 -2.49513626  1087897173
-2.49513626 0.97124052 0.98112553  1064870711
0.76298720 6.81273842 -2.49513626  1088053007
-2.49513626 0.97124046 0.54406935  1064870712
0.43438926 6.84155750 -2.49513626  1088102378
-2.49513626 0.97124046 0.10478164  1064870711
-0.11513914 6.85436392 -2.49513626  1088110749
-2.49513626 0.97124046 -0.44473022  1064870712
-0.77328765 6.81158066 -2.49513626  1087998891
-2.49513626 0.97124046 -1.10005450  1064870711
-1.20845008 6.74798203 -2.49513626  1087850891
-2.49513626 0.97124052 -1.42427886  1064870711
-1.85131311 6.60062122 -2.49513626  1087520279
-2.49513626 0.97124046 5.82233763  1064881315
5.65788031 3.55494714 -2.49513626  1081017267
-2.49513626 0.97187251 5.48032475  1064881315
5.35487652 3.99681640 -2.49513626  1082302804
-2.49513626 0.97187251 4.94601440  1064881315
4.87331247 4.57166052 -2.49513626  1083491983
-2.49513626 0.97187251 4.64775467  1064881315
4.57015419 4.87472439 -2.49513626  1085107357
-2.49513626 0.97187251 3.82130241  1064881315
3.73288870 5.54209232 -2.49513626  1085488509
-2.49513626 0.97187251 3.55319786  1064881315
3.46197009 5.71524477 -2.49513626  1085842475
-2.49513626 0.97187251 3.27686429  1064881315
3.18303609 5.87516165 -2.49513626  1086168420
-2.49513626 0.97187251 2.89673209  1064881315
2.79977298 6.06716776 -2.49513626  1086558139
-2.49513626 0.97187251 2.50467896  1064881315
2.30468464 6.27197504 -2.49513626  1087240062
-2.49513626 0.97187245 1.69130778  1064881315
1.48308253 6.51534176 -2.49513626  1087453618
-2.49513626 0.97187251 1.27333367  1064881315
0.95631939 6.61322069 -2.49513626  1087641139
-2.49513626 0.97187251 0.63708889  1064881315
0.20928413 6.67873049 -2.49513626  1087747458
-2.49513626 0.97187251 -0.32647589  1064881315
-0.64714408 6.65059805 -2.49513626  1087665575
-2.49513626 0.97187251 -0.86013573  1064881315
-0.96631241 6.61176872 -2.49513626  1087494173
-2.49513626 0.97187251 -1.49293053  1064881315
-1.80450726 6.43373966 -2.49513626  1087171916
-2.49513626 0.97187251 5.62587595  1064891431
5.57241201 3.37780476 -2.49513626  1079893831
-2.49513626 0.97247547 5.46119738  1064891431
5.34436321 3.72815228 -2.49513626  1081347755
-2.49513626 0.97247547 5.09432125  1064891431
5.02849245 4.14434576 -2.49513626  1082766940
-2.49513626 0.97247547 4.82330990  1064891431
4.68029213 4.53389597 -2.49513626  1084825386
-2.49513626 0.97247547 3.72650027  1064891431
3.46504760 5.51858377 -2.49513626  1085542267
-2.49513626 0.97247547 2.82486725  1064891431
2.63505888 5.95968056 -2.49513626  1086327213
-2.49513626 0.97247547 2.14911079  1064891431
2.05016494 6.18531704 -2.49513626  1086905180
-2.49513626 0.97247547 1.54801714  1064891431
1.44628978 6.35370541 -2.49513626  1087156941
-2.49513626 0.97247547 0.93259418  1064891431
0.62128395 6.48655081 -2.49513626  1087379899
-2.49513626 0.97247547 -0.00492392  1064891431
-0.21393807 6.51272392 -2.49513626  1087391041
-2.49513626 0.97247547 -0.52697784  1064891431
-0.83879644 6.46202421 -2.49513626  1087263713
-2.49513626 0.97247547 -1.14867556  1064891431
-1.25140882 6.39494371 -2.49513626  1087061909
-2.49513626 0.97247547 -1.75973940  1064891431
-1.86014938 6.24509287 -2.49513626  1078808096
-2.49513626 0.97305131 5.32816505  1064901092
5.21417713 3.63733602 -2.49513626  1080958132
-2.49513626 0.97305131 5.03317165  1064901092
4.97022581 3.96417713 -2.49513626  1082221430
-2.49513626 0.97305131 4.77377701  1064901093
4.70581579 4.27471066 -2.49513626  1082863683
-2.49513626 0.97305131 4.56628084  1064901092
4.42204094 4.56764698 -2.49513626  1083755885
-2.49513626 0.97305131 3.96264148  1064901092
3.88238907 5.03437328 -2.49513626  1084428903
-2.49513626 0.97305137 3.71890926  1064901092
3.55160427 5.27294683 -2.49513626  1084918039
-2.49513626 0.97305137 3.38064146  1064901093
3.29384136 5.43768930 -2.49513626  1085254817
-2.49513626 0.97305131 2.93840194  1064901092
2.75605345 5.72905016 -2.49513626  1085847678
-2.49513626 0.97305131 2.28819585  1064901092
2.19276023 5.96738338 -2.49513626  1086328484
-2.49513626 0.97305131 2.00022340  1064901092
1.90316844 6.06595469 -2.49513626  1086692789
-2.49513626 0.97305131 1.41105890  1064901092
1.11123240 6.25963306 -2.49513626  1086937222
-2.49513626 0.97305131 0.70757973  1064901093
0.50456077 6.33745050 -2.49513626  1087059522
-2.49513626 0.97305131 -0.20872670  1064901092
-0.41243330 6.34411192 -2.49513626  1087030803
-2.49513626 0.97305137 -0.91938579  1064901092
-1.02016938 6.27511787 -2.49513626  1086865691
-2.49513626 0.97305131 -1.32084835  1064901093
-1.42042994 6.19679260 -2.49513626  1086519695
-2.49513626 0.97305137 5.40701056  1064910328
5.30656195 3.21665692 -2.49513626  1079200130
-2.49513626 0.97360182 5.20065308  1064910328
5.14568472 3.46819949 -2.49513626  1080921258
-2.49513626 0.97360182 4.85128021  1064910328
4.65953302 4.09819794 -2.49513626  1082492002
-2.49513626 0.97360182 4.52568150  1064910328
4.45700264 4.31759167 -2.49513626  1083235616
-2.49513626 0.97360182 4.17098999  1064910328
4.09675646 4.66079998 -2.49513626  1083786785
-2.49513626 0.97360182 3.78947806  1064910328
3.71017146 4.97404051 -2.49513626  1084417353
-2.49513626 0.97360182 3.29973722  1064910328
3.21501541 5.30755520 -2.49513626  1085281989
-2.49513626 0.97360182 2.69009829  1064910328
2.50934529 5.67535448 -2.49513626  1085726786
-2.49513626 0.97360182 2.14028358  1064910328
1.95235515 5.89022684 -2.49513626  1086219503
-2.49513626 0.97360182 1.57066071  1064910328
1.37728989 6.05058098 -2.49513626  1086475512
-2.49513626 0.97360182 1.18250215  1064910329
0.29381770 6.19839811 -2.49513626  1086749016
-2.49513626 0.97360182 0.09484504  1064910328
-0.00469000 6.20535707 -2.49513626  1086753568
-2.49513626 0.97360182 -0.20373215  1064910328
-0.30318710 6.19794703 -2.49513626  1086712778
-2.49513626 0.97360182 -0.60098088  1064910328
-0.69997013 6.16575432 -2.49513626  1086647138
-2.49513626 0.97360182 -0.89738315  1064910328
-0.99575597 6.12494373 -2.49513626  1086551616
-2.49513626 0.97360182 -1.28923845  1064910328
-1.38643610 6.04849291 -2.49513626  1086378165
-2.49513626 0.97360182 -1.67578638  1064910328
5.13067150 3.22369337 -2.49513626  1079217808
-2.49513626 0.97412860 5.02462721  1064919166
4.91341400 3.54603028 -2.49513626  1080555001
-2.49513626 0.97412860 4.79714203  1064919166
4.73714972 3.77827883 -2.49513626  1081517134
-2.49513626 0.97412860 4.54991293  1064919166
4.35214806 4.21601725 -2.49513626  1082728717
-2.49513626 0.97412860 4.14429998  1064919166
4.07286406 4.48639631 -2.49513626  1083678795
-2.49513626 0.97412860 3.70032454  1064919166
3.62288713 4.85702276 -2.49513626  1084048298
-2.49513626 0.97412860 3.46522737  1064919166
3.38505435 5.02567434 -2.49513626  1084393938
-2.49513626 0.97412860 3.22210622  1064919166
3.13937831 5.18268967 -2.49513626  1084816301
-2.49513626 0.97412860 2.80060911  1064919166
2.62680960 5.46038866 -2.49513626  1085279981
-2.49513626 0.97412860 2.36110187  1064919166
2.27128911 5.61758232 -2.49513626  1085738235
-2.49513626 0.97412860 1.53370798  1064919166
1.43948281 5.88590384 -2.49513626  1086132289
-2.49513626 0.97412860 1.15468144  1064919166
1.05912006 5.96608686 -2.49513626  1086287644
-2.49513626 0.97412860 0.86720783  1064919166
0.48089826 6.04025459 -2.49513626  1086449244
-2.49513626 0.97412860 -0.29605493  1064919166
-0.39309210 6.04660749 -2.49513626  1086407622
-2.49513626 0.97412860 -0.58684349  1064919166
-0.77998787 6.00895882 -2.49513626  1086284573
-2.49513626 0.97412860 -1.06813884  1064919166
-1.25890791 5.92715216 -2.49513626  1086080879
-2.49513626 0.97412860 5.11038542  1064927629
5.06182098 3.06830192 -2.49513626  1078561508
-2.49513626 0.97463304 4.90836287  1064927629
4.85466814 3.38654590 -2.49513626  1079882206
-2.49513626 0.97463304 4.74354267  1064927629
4.68614244 3.61615419 -2.49513626  1080833778
-2.49513626 0.97463304 4.56773949  1064927629
4.31695509 4.04974127 -2.49513626  1082520771
-2.49513626 0.97463304 4.11714888  1064927629
4.04840708 4.31820631 -2.49513626  1083195688
-2.49513626 0.97463304 3.76319337  1064927629
3.61470509 4.68726206 -2.49513626  1083692050
-2.49513626 0.97463304 3.38504696  1064927629
2.90276432 5.15853214 -2.49513626  1084656302
-2.49513626 0.97463304 2.73580432  1064927629
2.65125537 5.29219675 -2.49513626  1084928121
-2.49513626 0.97463304 2.39361238  1064927629
2.04157281 5.55594158 -2.49513626  1085585945
-2.49513626 0.97463304 1.49821973  1064927629
1.40617490 5.74971104 -2.49513626  1085888229
-2.49513626 0.97463304 1.12796474  1064927629
1.03461468 5.82804251 -2.49513626  1085997344
-2.49513626 0.97463304 0.84714210  1064927629
0.75306439 5.87106371 -2.49513626  1086116052
-2.49513626 0.97463304 0.37506735  1064927629
0.28026626 5.91252613 -2.49513626  1086149120
-2.49513626 0.97463304 -0.28920451  1064927629
-0.38399649 5.90669584 -2.49513626  1086114552
-2.49513626 0.97463304 -0.57326454  1064927629
-0.66768736 5.88138676 -2.49513626  1086051936
-2.49513626 0.97463304 -0.94983047  1064927629
-1.13674569 5.80898666 -2.49513626  1085841413
-2.49513626 0.97463304 -1.50687623  1064927629
4.99401665 2.91870260 -2.49513626  1077929557
-2.49513626 0.97511649 4.89782333  1064935740
4.84783125 3.15555716 -2.49513626  1078913029
-2.49513626 0.97511649 4.74412155  1064935740
4.63552570 3.45990038 -2.49513626  1080175086
-2.49513626 0.97511649 4.46372509  1064935740
4.34342146 3.82016802 -2.49513626  1082182188
-2.49513626 0.97511649 4.08953953  1064935740
4.02339697 4.15587616 -2.49513626  1082591545
-2.49513626 0.97511649 3.81882596  1064935740
3.74864483 4.40529966 -2.49513626  1083105319
-2.49513626 0.97511649 3.53239274  1064935740
3.38365173 4.69147301 -2.49513626  1083693111
-2.49513626 0.97511649 3.23142743  1064935740
3.07587600 4.89877319 -2.49513626  1084313705
-2.49513626 0.97511649 2.67350578  1064935740
2.50759840 5.21257877 -2.49513626  1084913711
-2.49513626 0.97511649 1.81990433  1064935740
1.73159909 5.51911163 -2.49513626  1085426765
-2.49513626 0.97511649 1.28385174  1064935740
1.19321978 5.65996790 -2.49513626  1085685793
-2.49513626 0.97511649 0.91957366  1064935740
0.82785183 5.72482824 -2.49513626  1085773970
-2.49513626 0.97511649 0.36652663  1064935740
-0.09715144 5.78356075 -2.49513626  1085832805
-2.49513626 0.97511649 -1.11086023  1064935740
-1.20177436 5.65815973 -2.49513626  1085421822
-2.49513626 0.97511649 4.92718506  1064943521
4.88204527 2.85326338 -2.49513626  1077971335
-2.49513626 0.97558028 4.58526468  1064943521
4.53159428 3.38232708 -2.49513626  1080437605
-2.49513626 0.97558028 4.30539656  1064943521
4.24603987 3.73451829 -2.49513626  1081300569
-2.49513626 0.97558028 4.12406683  1064943521
4.06148291 3.93444395 -2.49513626  1082126598
-2.49513626 0.97558028 3.93318820  1064943521
3.86751795 4.12526226 -2.49513626  1082773271
-2.49513626 0.97558028 3.52457452  1064943521
3.45319486 4.47782755 -2.49513626  1083682518
-2.49513626 0.97558028 3.00691342  1064943521
2.92971087 4.83655596 -2.49513626  1084076678
-2.49513626 0.97558028 2.61356401  1064943521
2.28666306 5.17171764 -2.49513626  1084735941
-2.49513626 0.97558028 1.86496496  1064943521
1.77910066 5.36752224 -2.49513626  1085056733
-2.49513626 0.97558028 1.51884294  1064943521
1.43127835 5.47055054 -2.49513626  1085383248
-2.49513626 0.97558028 0.89895469  1064943521
0.80928952 5.59647322 -2.49513626  1085594744
-2.49513626 0.97558028 0.08642939  1064943521
-0.00427374 5.65468550 -2.49513626  1085598890
-2.49513626 0.97558028 -0.45730400  1064943521
-0.81774938 5.59524632 -2.49513626  1085414858
-2.49513626 0.97558028 -1.08595359  1064943521
-1.17483056 5.53129864 -2.49513626  1085300788
-2.49513626 0.97558028 -1.35164917  1064943521
-1.52707410 5.44458723 -2.49513626  1085107114
-2.49513626 0.97558028 4.81835699  1064950990
4.63446522 3.01667356 -2.49513626  1078316219
-2.49513626 0.97602546 4.53531790  1064950990
4.48398876 3.23611188 -2.49513626  1079226380
-2.49513626 0.97602546 4.32312965  1064950990
4.26726484 3.51696372 -2.49513626  1080670949
-2.49513626 0.97602546 3.90954852  1064950990
3.78209472 4.03414679 -2.49513626  1082452101
-2.49513626 0.97602546 3.58365679  1064950990
3.51564455 4.26835155 -2.49513626  1082810319
-2.49513626 0.97602546 3.30625153  1064950990
3.23472714 4.48498821 -2.49513626  1083255125
-2.49513626 0.97602546 3.08920407  1064950990
3.01523972 4.63539743 -2.49513626  1083755885
-2.49513626 0.97602546 2.71181536  1064950990
2.47685242 4.94406509 -2.49513626  1084348146
-2.49513626 0.97602546 2.15474653  1064950990
2.07278228 5.12661314 -2.49513626  1084561451
-2.49513626 0.97602546 1.82377350  1064950990
1.73980570 5.24896765 -2.49513626  1084806816
-2.49513626 0.97602546 1.48529553  1064950990
1.39966547 5.34972239 -2.49513626  1085006642
-2.49513626 0.97602546 1.22734666  1064950990
1.05376542 5.42845774 -2.49513626  1085266584
-2.49513626 0.97602546 0.43886900  1064950990
0.26182958 5.52358913 -2.49513626  1085337280
-2.49513626 0.97602546 -0.09287588  1064950990
-0.18155217 5.52680969 -2.49513626  1085324784
-2.49513626 0.97602546 -0.35873556  1064950990
-0.62376457 5.49449682 -2.49513626  1085242155
-2.49513626 0.97602546 -1.06196785  1064950990
-1.14888096 5.40912724 -2.49513626  1085045481
-2.49513626 0.97602546 -1.32179415  1064950990
4.67028522 2.72950244 -2.49513626  1077114311
-2.49513626 0.97645313 4.33503485  1064958165
4.28257704 3.30473661 -2.49513626  1080062308
-2.49513626 0.97645313 4.06186533  1064958165
3.88531327 3.76378512 -2.49513626  1082141265
-2.49513626 0.97645313 3.37169385  1064958165
3.30341053 4.28359890 -2.49513626  1082942771
-2.49513626 0.97645313 3.09353137  1064958165
3.02195477 4.48659611 -2.49513626  1083349338
-2.49513626 0.97645313 2.72805738  1064958165
2.65278220 4.71428776 -2.49513626  1083716361
-2.49513626 0.97645313 2.10783815  1064958165
2.02766013 5.01501226 -2.49513626  1084390053
-2.49513626 0.97645313 1.53635406  1064958165
1.45296216 5.21062851 -2.49513626  1084842194
-2.49513626 0.97645313 1.03082526  1064958165
0.94551617 5.32613897 -2.49513626  1084941916
-2.49513626 0.97645313 -0.09085513  1064958165
-0.35092956 5.39801741 -2.49513626  1084966935
-2.49513626 0.97645313 -1.03885078  1064958165
-1.29302001 5.25260162 -2.49513626  1084712418
-2.49513626 0.97645313 -1.46083736  1064958165
4.61228800 2.59726477 -2.49513626  1076861860
-2.49513626 0.97686422 4.43626165  1064965062
4.38937378 2.95844316 -2.49513626  1078055535
-2.49513626 0.97686422 4.19064903  1064965062
4.13824034 3.30059838 -2.49513626  1079473556
-2.49513626 0.97686422 4.03023911  1064965062
3.91808987 3.55915213 -2.49513626  1080543054
-2.49513626 0.97686422 3.68181849  1064965062
3.62034512 3.86161923 -2.49513626  1082422484
-2.49513626 0.97686422 3.23250151  1064965062
3.16485143 4.24295998 -2.49513626  1082848269
-2.49513626 0.97686422 2.81474185  1064965062
2.66949844 4.57085943 -2.49513626  1083416176
-2.49513626 0.97686422 2.52150965  1064965062
2.37092304 4.73262215 -2.49513626  1083745326
-2.49513626 0.97686422 2.21790075  1064965062
2.14052153 4.84119272 -2.49513626  1083965243
-2.49513626 0.97686422 1.90516531  1064965062
1.74577475 4.99712372 -2.49513626  1084278931
-2.49513626 0.97686422 1.58458948  1064965062
1.50337434 5.07531738 -2.49513626  1084434738
-2.49513626 0.97686422 1.17485535  1064965063
0.84150213 5.22597599 -2.49513626  1084728390
-2.49513626 0.97686428 0.67343861  1064965063
0.58913517 5.26040888 -2.49513626  1084792100
-2.49513626 0.97686422 0.33540937  1064965062
0.25063151 5.28735971 -2.49513626  1084841374
-2.49513626 0.97686422 -0.00400066  1064965062
-0.08890405 5.29254913 -2.49513626  1084836685
-2.49513626 0.97686422 -0.34339544  1064965062
-0.42807853 5.27595854 -2.49513626  1084790488
-2.49513626 0.97686422 -0.68137538  1064965062
-0.76548719 5.23765421 -2.49513626  1084698818
-2.49513626 0.97686422 -0.93309611  1064965062
-1.18265712 5.15948725 -2.49513626  1084520878
-2.49513626 0.97686422 -1.51104462  1064965062
4.47325802 2.61435270 -2.49513626  1076618144
-2.49513626 0.97725976 4.38709784  1064971698
4.34231901 2.82650876 -2.49513626  1077499063
-2.49513626 0.97725976 4.24942207  1064971698
4.20132780 3.03211641 -2.49513626  1078351851
-2.49513626 0.97725976 4.10190773  1064971698
4.05060863 3.23070407 -2.49513626  1079174543
-2.49513626 0.97725976 3.94489408  1064971698
3.89050722 3.42181683 -2.49513626  1079965257
-2.49513626 0.97725976 3.66309953  1064971698
3.60385227 3.72251678 -2.49513626  1081207022
-2.49513626 0.97725976 3.48259640  1064971698
2.96302366 4.25033903 -2.49513626  1083035516
-2.49513626 0.97725976 2.54086852  1064971698
2.46811366 4.55557871 -2.49513626  1083607787
-2.49513626 0.97725976 2.01891494  1064971698
1.78704369 4.86326504 -2.49513626  1083999634
-2.49513626 0.97725976 1.63013208  1064971698
1.55103385 4.94359922 -2.49513626  1084440322
-2.49513626 0.97725976 0.74152571  1064971698
0.57665879 5.14901495 -2.49513626  1084585762
-2.49513626 0.97725976 0.24532512  1064971698
0.16227752 5.17866278 -2.49513626  1084606328
-2.49513626 0.97725976 -0.17010698  1064971698
-0.33612198 5.17029142 -2.49513626  1084572009
-2.49513626 0.97725976 -0.50179303  1064971698
-0.74927711 5.12674046 -2.49513626  1084437443
-2.49513626 0.97725976 -1.07645905  1064971698
-1.15761256 5.05022860 -2.49513626  1084292617
-2.49513626 0.97725976 -1.31900895  1064971698
4.42026091 2.48913121 -2.49513626  1076382706
-2.49513626 0.97764045 3.91470218  1064978085
3.80919528 3.35029960 -2.49513626  1080157662
-2.49513626 0.97764045 3.58654022  1064978085
3.52853060 3.64471698 -2.49513626  1080875681
-2.49513626 0.97764045 3.16195607  1064978085
3.03308678 4.06630850 -2.49513626  1082370426
-2.49513626 0.97764045 2.90109634  1064978085
2.83397269 4.20750237 -2.49513626  1082751694
-2.49513626 0.97764045 2.62829375  1064978085
2.55835795 4.38055706 -2.49513626  1083013400
-2.49513626 0.97764045 2.41652989  1064978085
2.34467316 4.49855471 -2.49513626  1083328845
-2.49513626 0.97764045 2.12556124  1064978085
2.05140448 4.63963556 -2.49513626  1083539601
-2.49513626 0.97764045 1.82584655  1064978085
1.51861691 4.84027719 -2.49513626  1084034066
-2.49513626 0.97764045 1.20513737  1064978085
0.40260941 5.05691338 -2.49513626  1084368571
-2.49513626 0.97764045 0.15888605  1064978085
-0.00383351 5.07291508 -2.49513626  1084378998
-2.49513626 0.97764045 -0.24785765  1064978085
-0.32909775 5.06222963 -2.49513626  1084330488
-2.49513626 0.97764045 -0.57222950  1064978085
-0.65300727 5.03071165 -2.49513626  1084268667
-2.49513626 0.97764045 -0.81403655  1064978085
-1.05396020 4.96222258 -2.49513626  1084072104
-2.49513626 0.97764045 4.28938055  1064984237
4.16382360 2.71032190 -2.49513626  1077548061
-2.49513626 0.97800714 3.67747283  1064984237
3.62341738 3.39913392 -2.49513626  1079852147
-2.49513626 0.97800714 3.51252365  1064984237
3.45571136 3.56949997 -2.49513626  1080555343
-2.49513626 0.97800714 3.21972752  1064984237
3.15862083 3.83488846 -2.49513626  1082192353
-2.49513626 0.97800714 2.64188337  1064984237
2.50556135 4.29015446 -2.49513626  1082822059
-2.49513626 0.97800714 2.36665940  1064984237
2.15378451 4.47710466 -2.49513626  1083202239
-2.49513626 0.97800714 2.00906897  1064984237
1.86228502 4.60599184 -2.49513626  1083462690
-2.49513626 0.97800714 1.63856459  1064984237
1.56312406 4.71592140 -2.49513626  1083683136
-2.49513626 0.97800714 1.41105020  1064984237
1.33445978 4.78565359 -2.49513626  1083936856
-2.49513626 0.97800714 0.86839938  1064984237
0.78982580 4.90504122 -2.49513626  1084096212
-2.49513626 0.97800714 0.47368965  1064984237
0.39430061 4.95255375 -2.49513626  1084149266
-2.49513626 0.97800708 0.15560865  1064984237
-0.32230589 4.95775986 -2.49513626  1084126821
-2.49513626 0.97800714 -0.56041974  1064984237
-0.63953018 4.92689276 -2.49513626  1084025927
-2.49513626 0.97800714 -0.95412326  1064984237
-1.03220928 4.85981560 -2.49513626  1083897563
-2.49513626 0.97800714 -1.18756175  1064984237
-1.26478946 4.80453587 -2.49513626  1083773824
-2.49513626 0.97800714 -1.41824841  1064984237
4.12100267 2.58930016 -2.49513626  1076762368
-2.49513626 0.97836053 3.99167752  1064990166
3.94650006 2.84820580 -2.49513626  1077563429
-2.49513626 0.97836053 3.75575495  1064990166
3.60250449 3.27247524 -2.49513626  1079789925
-2.49513626 0.97836053 3.15408993  1064990166
3.09422970 3.75671220 -2.49513626  1081909724
-2.49513626 0.97836053 2.78330398  1064990166
2.71890593 4.03666973 -2.49513626  1082385872
-2.49513626 0.97836053 2.52157831  1064990166
2.38675427 4.24152613 -2.49513626  1082716091
-2.49513626 0.97836053 1.96811163  1064990166
1.82432044 4.51209402 -2.49513626  1083322220
-2.49513626 0.97836053 1.15620613  1064990166
1.08022630 4.74554968 -2.49513626  1083761506
-2.49513626 0.97836053 0.85069549  1064990166
0.69655037 4.81684208 -2.49513626  1083865605
-2.49513626 0.97836053 0.54168242  1064990166
0.46403366 4.84477139 -2.49513626  1083916344
-2.49513626 0.97836053 0.30839416  1064990166
0.23044519 4.86148691 -2.49513626  1083947351
-2.49513626 0.97836053 -0.00367779  1064990166
-0.15978929 4.86431980 -2.49513626  1083927044
-2.49513626 0.97836053 -0.54899549  1064990166
-0.70382947 4.81578302 -2.49513626  1083816279
-2.49513626 0.97836053 -0.85793906  1064990166
-0.93467140 4.77635050 -2.49513626  1083725828
-2.49513626 0.97836053 -1.08739996  1064990166
-1.23900688 4.70659161 -2.49513626  1083569312
-2.49513626 0.97836053 4.15535307  1064995883
4.07815838 2.47203851 -2.49513626  1076797122
-2.49513626 0.97870129 3.86699367  1064995883
3.82173109 2.85249376 -2.49513626  1077573015
-2.49513626 0.97870129 3.68009210  1064995883
3.63096666 3.09167099 -2.49513626  1078563241
-2.49513626 0.97870129 3.42526078  1064995883
3.37159681 3.37263656 -2.49513626  1079945408
-2.49513626 0.97870129 3.20545745  1064995883
3.14840817 3.58188152 -2.49513626  1081192526
-2.49513626 0.97870129 2.85131240  1064995883
2.78963041 3.86785507 -2.49513626  1081761763
-2.49513626 0.97870129 2.66413164  1064995883
2.60034442 3.99756980 -2.49513626  1082211730
-2.49513626 0.97870129 2.47077870  1064995883
2.33867097 4.15607643 -2.49513626  1082535298
-2.49513626 0.97870129 2.20415592  1064995883
2.13603902 4.26376486 -2.49513626  1082754290
-2.49513626 0.97870129 1.99817491  1064995883
1.92846262 4.36158085 -2.49513626  1083129215
-2.49513626 0.97870129 1.57282305  1064995883
1.35443711 4.57251120 -2.49513626  1083417250
-2.49513626 0.97870129 0.98374236  1064995883
0.60672295 4.73014021 -2.49513626  1083697357
-2.49513626 0.97870129 0.22580150  1064995883
0.07289022 4.76833630 -2.49513626  1083742916
-2.49513626 0.97870129 -0.08009594  1064995883
-0.23300327 4.76319885 -2.49513626  1083721852
-2.49513626 0.97870129 -0.38566771  1064995883
-0.53793550 4.73845768 -2.49513626  1083556761
-2.49513626 0.97870129 -0.99079639  1064995883
-1.13991547 4.63065195 -2.49513626  1083413410
-2.49513626 0.97870129 4.07258940  1065001400
3.99693131 2.42280436 -2.49513626  1076309863
-2.49513626 0.97903013 3.70028806  1065001400
3.55864811 3.03009295 -2.49513626  1078300137
-2.49513626 0.97903013 3.45962143  1065001400
3.40876889 3.19777060 -2.49513626  1078993236
-2.49513626 0.97903013 3.30444288  1065001400
3.25099635 3.35804462 -2.49513626  1079654776
-2.49513626 0.97903013 3.14161301  1065001400
3.08569980 3.51054072 -2.49513626  1080485062
-2.49513626 0.97903013 2.91325521  1065001400
2.79452181 3.74647641 -2.49513626  1081955627
-2.49513626 0.97903013 1.82124281  1065001400
1.75196481 4.33313513 -2.49513626  1082942240
-2.49513626 0.97903013 1.47052515  1065001400
1.25540781 4.50215483 -2.49513626  1083224537
-2.49513626 0.97903013 1.11034858  1065001400
0.96414930 4.57338524 -2.49513626  1083364107
-2.49513626 0.97903013 0.81695509  1065001400
0.66892302 4.62579393 -2.49513626  1083499073
-2.49513626 0.97903013 0.37094146  1065001400
0.29616132 4.66451597 -2.49513626  1083532732
-2.49513626 0.97903013 -0.00353188  1065001400
-0.15345196 4.67139101 -2.49513626  1083511620
-2.49513626 0.97903013 -0.45266226  1065001400
-0.52722150 4.64407921 -2.49513626  1083462178
-2.49513626 0.97903013 -0.67591405  1065001400
-0.82391143 4.60071611 -2.49513626  1083361275
-2.49513626 0.97903013 -0.97106230  1065001400
-1.04427111 4.55575895 -2.49513626  1083135861
-2.49513626 0.97903013 3.99236369  1065006725
3.95578885 2.31192279 -2.49513626  1075577335
-2.49513626 0.97934753 3.83999634  1065006725
3.75784588 2.62142062 -2.49513626  1076599649
-2.49513626 0.97934753 3.67182803  1065006725
3.62739682 2.79915118 -2.49513626  1077575689
-2.49513626 0.97934753 3.44045091  1065006725
3.39147139 3.08077550 -2.49513626  1078724544
-2.49513626 0.97934753 3.23934889  1065006725
3.07972646 3.39242339 -2.49513626  1079787435
-2.49513626 0.97934753 2.91297054  1065006725
2.73947263 3.67267418 -2.49513626  1080939855
-2.49513626 0.97934753 2.55963302  1065006725
2.49834871 3.84076834 -2.49513626  1082262715
-2.49513626 0.97934753 2.05225515  1065006725
1.91979837 4.16024351 -2.49513626  1082591139
-2.49513626 0.97934753 1.71745312  1065006725
1.37160921 4.37172127 -2.49513626  1082954946
-2.49513626 0.97934753 1.23067749  1065006725
1.15972579 4.43263817 -2.49513626  1083075558
-2.49513626 0.97934753 1.01694691  1065006725
0.87312239 4.49787855 -2.49513626  1083202712
-2.49513626 0.97934753 0.58292341  1065006725
0.43685049 4.56096601 -2.49513626  1083345922
-2.49513626 0.97934753 0.07003206  1065006725
-0.07695442 4.58119297 -2.49513626  1083345459
-2.49513626 0.97934753 -0.37054023  1065006725
-0.58979332 4.54371977 -2.49513626  1083249634
-2.49513626 0.97934753 -1.09520328  1065006725
-1.23734665 4.41160059 -2.49513626  1082950809
-2.49513626 0.97934753 3.91454959  1065011869
3.87868643 2.26686025 -2.49513626  1075378055
-2.49513626 0.97965413 3.76515126  1065011869
3.72535539 2.51089501 -2.49513626  1076380443
-2.49513626 0.97965413 3.55669427  1065011869
3.46682882 2.85726476 -2.49513626  1078891306
