# .PCD v0.7 - Point Cloud Data file format
VERSION 0.7
FIELDS x y z intensity
SIZE 4 4 4 4
TYPE F F F F
COUNT 1 1 1 1
WIDTH 1021
HEIGHT 1
VIEWPOINT 0 0 0 1 0 0 0
POINTS 1021
DATA ascii
11.22181606 -18.15973663 -2.49513626  3247329772
-2.49513626 0.91762149 13.18811035  1063971134
14.23848629 -15.90505695 -2.49513626  3246049827
-2.49513626 0.91762149 14.74189949  1063971134
14.98793316 -15.20088959 -2.49513626  3245298922
-2.49513626 0.91762149 15.70261097  1063971134
16.15891838 -13.94971275 -2.49513626  3243123559
-2.49513626 0.91762149 17.22576904  1063971134
17.42602348 -12.33040524 -2.49513626  3241648455
-2.49513626 0.91762149 18.69924545  1063971134
18.86220360 -9.99612427 -2.49513626  3239776806
-2.49513626 0.91762149 19.17348671  1063971134
19.98747063 -7.49708319 -2.49513626  3235593824
-2.49513626 0.91762149 20.52441406  1063971133
20.85887718 -4.54009438 -2.49513626  3227643892
-2.49513626 0.91762149 21.23651886  1063971134
21.26865196 -1.83020103 -2.49513626  3248198466
-2.49513626 0.92287099 4.58429050  1064059206
4.89484978 -19.29967117 -2.49513626  3248078757
-2.49513626 0.92287099 5.81863165  1064059206
6.12366152 -18.94564819 -2.49513626  3247882827
-2.49513626 0.92287099 6.72889900  1064059206
7.62356329 -18.39342880 -2.49513626  3247580712
-2.49513626 0.92287099 8.50053120  1064059206
8.78857327 -17.86610985 -2.49513626  3247294473
-2.49513626 0.92287099 9.91733837  1064059206
10.19331551 -17.10360146 -2.49513626  3246702121
-2.49513626 0.92287099 11.27022552  1064059206
11.53235722 -16.23088264 -2.49513626  3246414155
-2.49513626 0.92287099 12.04762936  1064059206
12.79708576 -15.25357533 -2.49513626  3245169437
-2.49513626 0.92287099 13.74992847  1064059160
13.97934628 -14.17796993 -2.49513626  3243509121
-2.49513626 0.92287099 15.07152939  1064059206
15.48158741 -12.52027893 -2.49513626  3242480162
-2.49513626 0.92287099 15.87566757  1064059206
16.06658936 -11.76016808 -2.49513626  3240839287
-2.49513626 0.92286962 17.44090843  1064059206
17.59290314 -9.32344913 -2.49513626  3239092918
-2.49513626 0.92287099 17.88323784  1064059206
18.02150345 -8.46536064 -2.49513626  3237137902
-2.49513626 0.92287099 18.52775002  1064059206
18.75233078 -6.69230986 -2.49513626  3233350046
-2.49513626 0.92287099 19.22870255  1064059206
19.30919266 -4.85716200 -2.49513626  3230106026
-2.49513626 0.92287099 19.52070427  1064059206
19.58116341 -3.60762286 -2.49513626  3226647479
-2.49513626 0.92287099 19.68691635  1064059206
19.83741379 -1.70704055 -2.49513626  3247554354
-2.49513626 0.92748743 4.29468060  1064136657
4.58562040 -18.08042336 -2.49513626  3247442207
-2.49513626 0.92748743 5.45103979  1064136657
6.30380249 -17.55538940 -2.49513626  3247152514
-2.49513626 0.92748737 6.86431074  1064136657
7.41773605 -17.11452293 -2.49513626  3246912015
-2.49513626 0.92748743 7.96352148  1064136656
8.50107670 -16.60305595 -2.49513626  3246634777
-2.49513626 0.92748737 9.29082108  1064136656
9.54935551 -16.02309227 -2.49513626  3246252555
-2.49513626 0.92748737 10.05899620  1064136656
10.30994987 -15.54461956 -2.49513626  3245738087
-2.49513626 0.92748737 11.04659081  1064136656
11.52355194 -14.66756153 -2.49513626  3244798110
-2.49513626 0.92748737 11.98864460  1064136655
12.21657181 -14.09556866 -2.49513626  3243975360
-2.49513626 0.92748743 12.88123608  1064136655
13.51599216 -12.85486507 -2.49513626  3242864056
-2.49513626 0.92748743 14.11940670  1064136655
14.69003105 -11.49489307 -2.49513626  3241418448
-2.49513626 0.92748737 15.05160236  1064136655
15.56471634 -10.27958488 -2.49513626  3239863321
-2.49513626 0.92748743 16.04170609  1064136656
16.19248199 -9.25921822 -2.49513626  3238772819
-2.49513626 0.92748737 16.75347328  1064136656
17.00819206 -7.65843678 -2.49513626  3236711499
-2.49513626 0.92748743 17.24532127  1064136658
17.56765938 -6.26952696 -2.49513626  3233780297
-2.49513626 0.92748737 17.75993347  1064136657
18.01395798 -4.84022188 -2.49513626  3230768170
-2.49513626 0.92748737 18.22613907  1064136656
18.48560905 -2.49234700 -2.49513626  3222044079
-2.49513626 0.92748737 18.55612946  1064136656
18.58419228 -1.59919918 -2.49513626  3246985597
-2.49513626 0.93157834 4.03895235  1064205291
4.31256866 -17.00381851 -2.49513626  3246840380
-2.49513626 0.93157834 5.39520311  1064205291
6.19280767 -16.41271400 -2.49513626  3246498975
-2.49513626 0.93157834 6.97604847  1064205291
7.23361874 -15.98132896 -2.49513626  3245986981
-2.49513626 0.93157834 8.24459743  1064205291
8.98073864 -15.06899166 -2.49513626  3245261798
-2.49513626 0.93157834 9.69603252  1064205291
10.16049004 -14.30008984 -2.49513626  3244435792
-2.49513626 0.93157834 11.05749702  1064205291
11.70052814 -13.07003403 -2.49513626  3243120217
-2.49513626 0.93157834 12.11420727  1064205291
12.31638813 -12.49138546 -2.49513626  3242075082
-2.49513626 0.93157834 13.09285355  1064205291
13.27864933 -11.46322632 -2.49513626  3240478589
-2.49513626 0.93157834 14.31989861  1064205291
14.48076630 -9.90129280 -2.49513626  3239000201
-2.49513626 0.93157834 15.36617565  1064205291
15.50008488 -8.21435070 -2.49513626  3235244994
-2.49513626 0.93157834 16.32372856  1064205291
16.42477417 -6.16075659 -2.49513626  3233032717
-2.49513626 0.93157834 16.78637695  1064205291
16.86601067 -4.82347393 -2.49513626  3230771720
-2.49513626 0.93157834 17.19856071  1064205291
17.30064583 -2.90101194 -2.49513626  3221495826
-2.49513626 0.93157834 17.47759247  1064205291
8.48915958 -0.59334278 -1.21041298  3246479648
-2.49513626 0.93522841 4.32682323  1064266529
4.58286381 -15.90714073 -2.49513626  3246214603
-2.49513626 0.93522841 5.34361458  1064266528
5.84400749 -15.48829651 -2.49513626  3245649574
-2.49513626 0.93522835 6.82619619  1064266529
7.06750107 -14.96964359 -2.49513626  3245189858
-2.49513626 0.93522835 7.54457951  1064266528
8.47491169 -14.22025204 -2.49513626  3244380467
-2.49513626 0.93522835 8.92719936  1064266528
9.37027359 -13.64689159 -2.49513626  3243764297
-2.49513626 0.93522829 10.22697926  1064266528
10.63973331 -12.68210506 -2.49513626  3242731355
-2.49513626 0.93522835 11.23815441  1064266529
11.43189335 -11.97295094 -2.49513626  3241974511
-2.49513626 0.93522841 11.81049156  1064266529
11.99523926 -11.40850163 -2.49513626  3241166676
-2.49513626 0.93522841 12.87167740  1064266528
13.35806370 -9.77762508 -2.49513626  3239640411
-2.49513626 0.93522835 13.81343937  1064266528
13.95816422 -8.89996910 -2.49513626  3238710128
-2.49513626 0.93522835 14.50069809  1064266528
14.74966049 -7.51579618 -2.49513626  3234969092
-2.49513626 0.93522841 15.40431690  1064266528
15.76167679 -5.06056595 -2.49513626  3229694475
-2.49513626 0.93522835 16.17542648  1064266528
16.22987556 -3.26049471 -2.49513626  3225417440
-2.49513626 0.93522835 16.32621002  1064266529
16.36806870 -2.47509050 -2.49513626  3222114332
-2.49513626 0.93522835 16.43910980  1064266528
16.49319649 -1.41926515 -2.49513626  3245540367
-2.49513626 0.93850493 4.09556770  1064321500
4.57915783 -14.98534966 -2.49513626  3245248229
-2.49513626 0.93850493 5.53166437  1064321500
5.76637793 -14.56977177 -2.49513626  3244792526
-2.49513626 0.93850493 6.23128605  1064321500
6.91644812 -14.06030464 -2.49513626  3244116875
-2.49513626 0.93850493 7.58556318  1064321500
8.02195454 -13.46022415 -2.49513626  3243591248
-2.49513626 0.93850493 8.45007038  1064321500
8.86946297 -12.91751099 -2.49513626  3243007977
-2.49513626 0.93850493 9.27970791  1064321500
9.68037987 -12.32151222 -2.49513626  3242369450
-2.49513626 0.93850493 10.26255131  1064321500
10.45137882 -11.67467880 -2.49513626  3241497625
-2.49513626 0.93850493 11.17926121  1064321500
11.52608109 -10.61503029 -2.49513626  3240549227
-2.49513626 0.93850493 11.86102390  1064321500
12.18372917 -9.85323143 -2.49513626  3238887927
-2.49513626 0.93850493 13.07515621  1064321500
13.21214199 -8.42428970 -2.49513626  3238224603
-2.49513626 0.93850362 13.60252762  1064321500
13.72568130 -7.55877829 -2.49513626  3236613086
-2.49513626 0.93850493 14.07378292  1064321500
14.18259525 -6.66208649 -2.49513626  3232766167
-2.49513626 0.93850493 14.99426460  1064321500
15.06539440 -4.30852032 -2.49513626  3228869586
-2.49513626 0.93850493 15.31090164  1064321500
15.41002274 -2.83913159 -2.49513626  3223705563
-2.49513626 0.93850493 15.49324703  1064321500
15.58810043 -1.59394050 -2.49513626  3208325936
-1.35793495 0.96604884 8.22347355  1064802281
3.19139671 -14.52593803 -2.49513626  3244789926
-2.49513626 0.94146234 3.65622592  1064371117
3.88725567 -14.35538578 -2.49513626  3244599393
-2.49513626 0.94146234 4.57409191  1064371117
5.25030708 -13.91481781 -2.49513626  3244020501
-2.49513626 0.94146234 5.91434336  1064371117
6.13271046 -13.54908657 -2.49513626  3243716555
-2.49513626 0.94146127 6.56465578  1064371117
7.61393356 -12.77559948 -2.49513626  3242880329
-2.49513626 0.94146234 8.41833496  1064371117
8.80771351 -11.98382568 -2.49513626  3242030100
-2.49513626 0.94146234 9.18800640  1064371117
9.37462425 -11.54574776 -2.49513626  3241233213
-2.49513626 0.94146234 10.61065006  1064371117
10.77662086 -10.24948692 -2.49513626  3240178608
-2.49513626 0.94146234 11.41235447  1064371117
11.85838795 -8.97588634 -2.49513626  3238621819
-2.49513626 0.94146234 12.54013443  1064371117
12.91065598 -7.38260031 -2.49513626  3236271102
-2.49513626 0.94146234 13.14107990  1064371117
13.25122261 -6.75225687 -2.49513626  3233572856
-2.49513626 0.94146234 13.75012684  1064371117
13.83936977 -5.44607592 -2.49513626  3231708810
-2.49513626 0.94146234 14.08558941  1064371117
14.23160934 -4.31847334 -2.49513626  3229801514
-2.49513626 0.94146234 14.36295033  1064371117
14.42306995 -3.62807536 -2.49513626  3226103580
-2.49513626 0.94146234 14.62622166  1064371117
14.66760921 -2.45949864 -2.49513626  3222163497
-2.49513626 0.94146234 14.73902512  1064371117
14.79524136 -1.51286781 -2.49513626  3207991748
-1.39172614 0.96691418 3.91747189  1064416122
4.35210848 -13.46474552 -2.49513626  3243579050
-2.49513626 0.94414490 4.99550819  1064416122
5.20747280 -13.15760136 -2.49513626  3243131845
-2.49513626 0.94414485 6.04135990  1064416122
6.24607182 -12.69751167 -2.49513626  3242597515
-2.49513626 0.94414485 7.04828882  1064416122
8.74211025 -11.12724972 -2.49513626  3241133135
-2.49513626 0.94414485 9.09493637  1064416122
9.26785564 -10.69331741 -2.49513626  3240508978
-2.49513626 0.94414485 9.77208328  1064416122
10.40891838 -9.58617210 -2.49513626  3239489339
-2.49513626 0.94414485 10.71139526  1064416122
11.00282478 -8.89821053 -2.49513626  3238378077
-2.49513626 0.94414485 11.80784988  1064416122
11.93155766 -7.60777044 -2.49513626  3236368343
-2.49513626 0.94414485 12.28410149  1064416122
12.50334167 -6.62621117 -2.49513626  3234698770
-2.49513626 0.94414485 12.70968342  1064416122
12.99454594 -5.60195923 -2.49513626  3231647590
-2.49513626 0.94414485 13.32735348  1064416122
13.47321892 -4.32581615 -2.49513626  3229842454
-2.49513626 0.94414485 13.60518551  1064416122
13.72311783 -3.45200396 -2.49513626  3226389428
-2.49513626 0.94414485 13.91641045  1064416122
13.95578861 -2.34013891 -2.49513626  3221710866
-2.49513626 0.94414490 7.89713240  1064822341
3.31732464 -13.07972908 -2.49513626  3243271541
-2.49513626 0.94658887 3.73564863  1064457127
4.35576296 -12.77150345 -2.49513626  3242770473
-2.49513626 0.94658887 5.36613703  1064457126
5.56426477 -12.29320431 -2.49513626  3242409083
-2.49513626 0.94658887 5.95617056  1064457126
6.14984560 -12.01097393 -2.49513626  3241994913
-2.49513626 0.94658887 7.27686644  1064457126
7.45841026 -11.24527073 -2.49513626  3241278489
-2.49513626 0.94658887 7.99131823  1064457126
8.50568199 -10.47555923 -2.49513626  3240453857
-2.49513626 0.94658887 9.16060448  1064457126
9.31852818 -9.75955772 -2.49513626  3239689492
-2.49513626 0.94658887 9.77773285  1064457126
10.07132435 -8.98066902 -2.49513626  3238860190
-2.49513626 0.94658893 10.35453224  1064457126
10.62705326 -8.31562901 -2.49513626  3238153581
-2.49513626 0.94658887 10.88861275  1064457126
11.01519489 -7.79419279 -2.49513626  3237198016
-2.49513626 0.94658887 11.49280834  1064457127
11.71395588 -6.69829893 -2.49513626  3234476676
-2.49513626 0.94658893 12.11978626  1064457126
12.21348953 -5.73712587 -2.49513626  3232009609
-2.49513626 0.94658893 12.55658531  1064457126
12.77998066 -4.33083105 -2.49513626  3229876311
-2.49513626 0.94658887 13.03163338  1064457126
13.08618259 -3.29178524 -2.49513626  3225760409
-2.49513626 0.94658887 13.18514252  1064457126
13.27050304 -2.44494796 -2.49513626  3221299001
-2.49513626 0.94658887 13.40008068  1064457126
8.23954964 -0.84252465 -1.53151274  3207532943
-1.47492445 0.96807396 7.76177359  1064830525
2.96864486 -12.54716015 -2.49513626  3242478656
-2.49513626 0.94882482 4.16199207  1064494639
4.35742378 -12.13494015 -2.49513626  3242018946
-2.49513626 0.94882482 5.50468063  1064494639
5.87626457 -11.47665596 -2.49513626  3241115211
-2.49513626 0.94882482 7.12661791  1064494639
7.29824686 -10.62918758 -2.49513626  3240508086
-2.49513626 0.94882482 7.80167150  1064494639
7.96551275 -10.13877010 -2.49513626  3239830763
-2.49513626 0.94882482 8.59992409  1064494639
9.05259037 -9.18121433 -2.49513626  3238931481
-2.49513626 0.94882482 9.48424911  1064494639
9.62329388 -8.58115864 -2.49513626  3238115666
-2.49513626 0.94882482 10.40422630  1064494639
10.52517509 -7.44746399 -2.49513626  3236127059
-2.49513626 0.94882482 10.87162685  1064494639
11.08862877 -6.57923985 -2.49513626  3234269235
-2.49513626 0.94882482 11.48810387  1064494639
11.58062935 -5.66860723 -2.49513626  3232721861
-2.49513626 0.94882482 12.07227039  1064494639
12.14342880 -4.33373308 -2.49513626  3229903835
-2.49513626 0.94882482 12.27633476  1064494639
12.33804798 -3.74388599 -2.49513626  3227706807
-2.49513626 0.94882482 12.45191288  1064494639
12.50403500 -3.14534855 -2.49513626  3223488329
-2.49513626 0.94882482 12.68015575  1064494639
12.71603775 -2.13225436 -2.49513626  3220619632
-2.49513626 0.94882482 12.77794933  1064494639
8.16331482 -0.83472931 -1.58798504  3207365465
-1.52106059 0.96848381 3.03433442  1064529084
3.22606874 -11.91366386 -2.49513626  3241929054
-2.49513626 0.95087790 4.17126846  1064529084
4.35727692 -11.54803276 -2.49513626  3241648139
-2.49513626 0.95087790 4.72587109  1064529084
5.26950932 -11.16132450 -2.49513626  3241227338
-2.49513626 0.95087790 5.62521839  1064529084
6.14779329 -10.70269012 -2.49513626  3240731695
-2.49513626 0.95087790 6.48832035  1064529084
6.65609789 -10.39419556 -2.49513626  3240399699
-2.49513626 0.95087790 7.14894772  1064529084
7.30960131 -9.94548416 -2.49513626  3239918247
-2.49513626 0.95087790 7.62520933  1064529084
7.78008652 -9.58191776 -2.49513626  3239529147
-2.49513626 0.95087790 8.08378506  1064529084
8.23252296 -9.19611263 -2.49513626  3239117035
-2.49513626 0.95087790 8.52359104  1064529084
8.94362164 -8.50614643 -2.49513626  3238071430
-2.49513626 0.95087790 9.47121716  1064529084
9.95973682 -7.29017115 -2.49513626  3236176682
-2.49513626 0.95087790 10.40717030  1064529084
10.81168079 -5.95403004 -2.49513626  3233346256
-2.49513626 0.95087790 10.99730968  1064529084
11.08588028 -5.42643356 -2.49513626  3229452079
-2.49513626 0.95087790 11.81094074  1064529084
11.91994095 -3.20280337 -2.49513626  3224657939
-2.49513626 0.95087790 12.06035614  1064529084
12.10095310 -2.43101597 -2.49513626  3222216907
-2.49513626 0.95087790 12.23204899  1064529084
8.12021923 -0.83032250 -1.65009701  3207313296
-1.58161139 0.96857613 2.53970504  1064560820
2.72501159 -11.51742744 -2.49513626  3241643533
-2.49513626 0.95276952 3.45873165  1064560820
3.99981689 -11.13903427 -2.49513626  3241225357
-2.49513626 0.95276952 4.35546637  1064560820
4.53162670 -10.93348980 -2.49513626  3240750000
-2.49513626 0.95276952 5.89510059  1064560820
6.05914736 -10.16678619 -2.49513626  3240065198
-2.49513626 0.95276952 6.85510731  1064560820
7.16139507 -9.42290783 -2.49513626  3239248473
-2.49513626 0.95276952 7.60688925  1064560820
8.57601357 -8.15651989 -2.49513626  3237744554
-2.49513626 0.95276952 9.08191967  1064560820
9.32094765 -7.29360771 -2.49513626  3236206235
-2.49513626 0.95276862 9.76992226  1064560820
9.87593651 -6.52247858 -2.49513626  3233890777
-2.49513626 0.95276952 10.45763779  1064560820
10.63021851 -5.20338964 -2.49513626  3231778366
-2.49513626 0.95276952 10.86847782  1064560820
10.94231510 -4.51027250 -2.49513626  3229522090
-2.49513626 0.95276952 11.26882744  1064560820
11.32547665 -3.43662858 -2.49513626  3224172056
-2.49513626 0.95276952 11.60356998  1064560820
11.63950634 -2.14445496 -2.49513626  3219292472
-2.49513626 0.95276952 11.72927856  1064560820
11.75316143 -1.39285362 -2.49513626  3209916656
-1.71175003 0.96735293 7.75904942  1064827515
2.79435205 -11.01771545 -2.49513626  3241118451
-2.49513626 0.95451802 3.14672732  1064590155
3.66908073 -10.75808334 -2.49513626  3240831503
-2.49513626 0.95451802 4.35210705  1064590155
4.68706417 -10.35519123 -2.49513626  3240308855
-2.49513626 0.95451802 5.18032598  1064590155
5.34213257 -10.03295231 -2.49513626  3240043080
-2.49513626 0.95451802 5.66156960  1064590155
5.81911802 -9.76403618 -2.49513626  3239753107
-2.49513626 0.95451802 6.28259611  1064590155
6.43390131 -9.37034798 -2.49513626  3238866811
-2.49513626 0.95451802 7.30554247  1064590155
7.58142138 -8.46880054 -2.49513626  3238365454
-2.49513626 0.95451802 8.10942745  1064590155
8.72214413 -7.28853321 -2.49513626  3236214922
-2.49513626 0.95451802 9.27865696  1064590155
9.38288498 -6.41559172 -2.49513626  3234362229
-2.49513626 0.95451802 9.58407593  1064590155
9.68097496 -5.95627594 -2.49513626  3232387634
-2.49513626 0.95451802 10.12754250  1064590155
10.20910835 -4.99726105 -2.49513626  3231360312
-2.49513626 0.95451802 10.43792725  1064590155
10.50884151 -4.33160067 -2.49513626  3229580074
-2.49513626 0.95451802 10.76521873  1064590155
10.82241344 -3.47472644 -2.49513626  3226680117
-2.49513626 0.95451802 10.92842388  1064590155
10.97720337 -2.94949675 -2.49513626  3224466986
-2.49513626 0.95451802 11.06625843  1064590155
11.10651112 -2.41741729 -2.49513626  3221475048
-2.49513626 0.95451802 11.21004581  1064590155
11.23878384 -1.69946802 -2.49513626  3217188596
-2.49513626 0.95451802 11.28756523  1064590155
8.03443909 -0.82155102 -1.77288139  3240809990
-2.49513626 0.95613879 3.19470048  1064617347
3.36217380 -10.40203667 -2.49513626  3240463388
-2.49513626 0.95613879 3.85922670  1064617347
4.02297688 -10.16476250 -2.49513626  3240203490
-2.49513626 0.95613879 4.34732533  1064617347
4.50783873 -9.95922565 -2.49513626  3239979831
-2.49513626 0.95613879 4.82533264  1064617347
4.98223877 -9.73057365 -2.49513626  3239732113
-2.49513626 0.95613879 5.29215193  1064617347
5.44508171 -9.47933769 -2.49513626  3239365404
-2.49513626 0.95613879 6.04236317  1064617347
6.18788195 -9.01211357 -2.49513626  3238850649
-2.49513626 0.95613879 6.61470509  1064617348
6.75362492 -8.59623718 -2.49513626  3238276371
-2.49513626 0.95613879 7.29152012  1064617347
7.42137861 -8.02682495 -2.49513626  3237806845
-2.49513626 0.95613879 7.92133713  1064617347
8.04129219 -7.40568829 -2.49513626  3236206772
-2.49513626 0.95613879 8.38862801  1064617347
8.50010681 -6.87421179 -2.49513626  3235061863
-2.49513626 0.95613879 8.82130623  1064617347
8.92385578 -6.31439304 -2.49513626  3234165464
-2.49513626 0.95613885 9.12202644  1064617347
9.31079102 -5.72851896 -2.49513626  3232924393
-2.49513626 0.95613837 9.74028301  1064617347
10.10699558 -4.16596413 -2.49513626  3228939854
-2.49513626 0.95613879 10.46091270  1064617347
10.51053238 -3.00588393 -2.49513626  3224734901
-2.49513626 0.95613879 10.60164642  1064617347
10.68181705 -2.32497907 -2.49513626  3221867796
-2.49513626 0.95613879 10.75097179  1064617347
10.78138733 -1.80784774 -2.49513626  3218159284
-2.49513626 0.95613885 10.85594845  1064617347
7.99179745 -0.81719077 -1.83358526  3205017519
-1.74783385 0.96906966 2.75169706  1064642622
3.55791068 -9.90838432 -2.49513626  3239942523
-2.49513626 0.95764530 3.87426758  1064642622
4.49466515 -9.52012825 -2.49513626  3239358098
-2.49513626 0.95764530 5.09652567  1064642622
5.24380159 -9.12893105 -2.49513626  3238910544
-2.49513626 0.95764530 6.37019444  1064642622
6.89511824 -7.95563745 -2.49513626  3237675294
-2.49513626 0.95764530 7.14704323  1064642622
7.39159107 -7.49661255 -2.49513626  3236182232
-2.49513626 0.95764530 7.85757971  1064642622
7.96908569 -6.87957191 -2.49513626  3234831371
-2.49513626 0.95764530 8.39427280  1064642622
8.59398270 -6.08097839 -2.49513626  3233687146
-2.49513626 0.95764530 8.96661377  1064642622
9.13915062 -5.22597027 -2.49513626  3230290352
-2.49513626 0.95764530 9.79656506  1064642622
10.02383137 -3.21832848 -2.49513626  3224978418
-2.49513626 0.95764530 10.28695869  1064642622
10.32158947 -2.07355118 -2.49513626  3220449799
-2.49513626 0.95764530 10.38285637  1064642622
10.40947533 -1.57406402 -2.49513626  3214841481
-2.49513626 0.95764530 7.95310116  1064810809
7.68322325 -0.66115332 -1.82768607  3205004121
-1.81220865 0.96905637 2.81023645  1064666174
2.96651459 -9.70795727 -2.49513626  3239688471
-2.49513626 0.95904911 3.43059707  1064666174
3.58357716 -9.49750710 -2.49513626  3239311181
-2.49513626 0.95904911 4.33382940  1064666174
4.48068094 -9.10868645 -2.49513626  3239088551
-2.49513626 0.95904911 4.91415310  1064666174
5.33622265 -8.63535786 -2.49513626  3238388932
-2.49513626 0.95904911 6.39861488  1064666174
6.52434301 -7.77673578 -2.49513626  3237086666
-2.49513626 0.95904911 6.89129829  1064666174
7.01010036 -7.34187746 -2.49513626  3236384443
-2.49513626 0.95904911 7.24225998  1064666174
7.46693993 -6.87673426 -2.49513626  3234876143
-2.49513626 0.95904911 8.28646088  1064666174
8.55922031 -5.45750904 -2.49513626  3232380966
-2.49513626 0.95904911 8.81212044  1064666174
8.96939659 -4.75337934 -2.49513626  3230890674
-2.49513626 0.95904911 9.11741638  1064666174
9.18790913 -4.31589746 -2.49513626  3229653136
-2.49513626 0.95904911 9.38510036  1064666174
9.44600964 -3.71719933 -2.49513626  3227789680
-2.49513626 0.95904911 9.75981331  1064666174
9.98307323 -1.83927453 -2.49513626  3218530395
-2.49513626 0.95904911 10.03698921  1064666174
10.06006908 -1.35636151 -2.49513626  3214469578
-2.49513626 0.95904911 7.93499231  1064810955
7.63033915 -0.53331637 -1.88011110  3239531911
-2.49513626 0.96036023 2.71276855  1064688171
2.86362553 -9.37125301 -2.49513626  3239339057
-2.49513626 0.96036023 3.31161165  1064688171
3.60606718 -9.11136723 -2.49513626  3239106086
-2.49513626 0.96036029 3.89680195  1064688171
4.04067993 -8.92712688 -2.49513626  3238833962
-2.49513626 0.96036029 4.60541010  1064688172
4.74371433 -8.57425594 -2.49513626  3238440468
-2.49513626 0.96036023 5.15114260  1064688172
5.28434324 -8.25205708 -2.49513626  3237586643
-2.49513626 0.96036023 6.05373096  1064688171
6.17668915 -7.60718250 -2.49513626  3236968815
-2.49513626 0.96036029 6.41779852  1064688171
6.65228319 -7.19498777 -2.49513626  3235858676
-2.49513626 0.96036023 7.10043144  1064688172
7.31363201 -6.52161837 -2.49513626  3234654227
-2.49513626 0.96036029 7.51929283  1064688172
7.71719456 -6.03867769 -2.49513626  3233627969
-2.49513626 0.96036029 8.17669010  1064688172
8.26235676 -5.26822329 -2.49513626  3231994054
-2.49513626 0.96036029 8.58350182  1064688172
8.86924076 -4.16620874 -2.49513626  3229662831
-2.49513626 0.96036029 8.99845600  1064688171
9.17483616 -3.44137907 -2.49513626  3226027854
-2.49513626 0.96036029 9.37682438  1064688172
9.46336174 -2.54273820 -2.49513626  3221577947
-2.49513626 0.96036023 9.63682461  1064688172
9.66409492 -1.62049770 -2.49513626  3209671099
-2.03083944 0.96761554 2.03195190  1064708762
2.18021059 -9.21479321 -2.49513626  3239238534
-2.49513626 0.96158755 2.76724148  1064708762
2.91230679 -9.01022816 -2.49513626  3238903960
-2.49513626 0.96158755 3.90467858  1064708762
4.04270792 -8.56284142 -2.49513626  3238223918
-2.49513626 0.96158755 5.10648298  1064708762
5.23387909 -7.89127779 -2.49513626  3237596284
-2.49513626 0.96158755 5.48459196  1064708762
5.84997416 -7.44604111 -2.49513626  3236231998
-2.49513626 0.96158755 6.31589842  1064708762
6.53920221 -6.84869289 -2.49513626  3235366150
-2.49513626 0.96158755 6.86144495  1064708762
6.96535444 -6.41479588 -2.49513626  3234441961
-2.49513626 0.96158755 7.16776705  1064708762
7.26621008 -6.07190037 -2.49513626  3233712820
-2.49513626 0.96158755 7.45744848  1064708762
7.64099598 -5.59293699 -2.49513626  3231901876
-2.49513626 0.96158755 8.06498528  1064708762
8.22017479 -4.70047808 -2.49513626  3230524400
-2.49513626 0.96158755 8.43701363  1064708762
8.50496197 -4.16309786 -2.49513626  3229143611
-2.49513626 0.96158755 8.75466251  1064708762
8.81148529 -3.46749926 -2.49513626  3226186282
-2.49513626 0.96158755 8.96824932  1064708762
9.06122017 -2.74955773 -2.49513626  3223142912
-2.49513626 0.96158755 9.18312263  1064708762
9.21903324 -2.16221666 -2.49513626  3220093413
-2.49513626 0.96158755 9.31246853  1064708762
9.33882046 -1.56595469 -2.49513626  3215061936
-2.49513626 0.96158755 7.73920345  1064822703
2.10891676 -8.91346455 -2.49513626  3238923808
-2.49513626 0.96273869 2.81707430  1064728075
2.95666957 -8.66922665 -2.49513626  3238653464
-2.49513626 0.96273869 3.37074280  1064728075
3.50707531 -8.46154976 -2.49513626  3238299258
-2.49513626 0.96273869 4.17448092  1064728075
4.30487061 -8.08489132 -2.49513626  3237882058
-2.49513626 0.96273869 4.68924189  1064728075
4.81499004 -7.79187107 -2.49513626  3237401947
-2.49513626 0.96273869 5.18465376  1064728075
5.42446136 -7.38055563 -2.49513626  3235537390
-2.49513626 0.96273863 6.73758364  1064728075
6.93337250 -5.98545933 -2.49513626  3233542770
-2.49513626 0.96273869 7.12201023  1064728075
7.21358633 -5.64460421 -2.49513626  3232571159
-2.49513626 0.96273869 7.47705555  1064728075
7.56104946 -5.16990471 -2.49513626  3231811513
-2.49513626 0.96273869 7.72317314  1064728075
7.80125713 -4.79976940 -2.49513626  3230760739
-2.49513626 0.96273869 8.16111565  1064728075
8.22684383 -4.02696228 -2.49513626  3228045790
-2.49513626 0.96273869 8.46838093  1064728074
8.52334213 -3.35411024 -2.49513626  3226329118
-2.49513626 0.96273863 8.67498207  1064728075
8.88282967 -2.23444581 -2.49513626  3221609297
-2.49513626 0.96273869 8.95000267  1064728075
9.00794601 -1.65961790 -2.49513626  3217154880
-2.49513626 0.96273863 9.05659389  1064728075
1.90299511 -8.66165829 -2.49513626  3238663272
-2.49513626 0.96382046 2.31792998  1064746223
2.59162140 -8.48110867 -2.49513626  3238365978
-2.49513626 0.96382046 3.39553761  1064746223
3.52665925 -8.13685513 -2.49513626  3238023036
-2.49513626 0.96382046 3.91443300  1064746224
4.04171610 -7.89368534 -2.49513626  3237498991
-2.49513626 0.96382046 4.41718578  1064746223
4.54010534 -7.61795044 -2.49513626  3237046520
-2.49513626 0.96382040 4.90171719  1064746223
5.01976585 -7.31079674 -2.49513626  3236386288
-2.49513626 0.96382046 5.47870779  1064746224
5.91506338 -6.60740328 -2.49513626  3234881205
-2.49513626 0.96382046 6.22640467  1064746224
6.32701826 -6.21406794 -2.49513626  3234042557
-2.49513626 0.96382046 6.52330112  1064746224
7.07102728 -5.35222387 -2.49513626  3232210322
-2.49513626 0.96382040 7.40001631  1064746224
7.55314684 -4.64711666 -2.49513626  3230197019
-2.49513626 0.96382046 8.02678108  1064746224
8.08629513 -3.64109111 -2.49513626  3226457602
-2.49513626 0.96382040 8.30335522  1064746223
8.35229874 -2.98075891 -2.49513626  3222488847
-2.49513626 0.96382046 8.63395596  1064746223
8.78872585 -1.18495119 -2.49513626  3208088119
-2.35282826 0.96584821 7.70132208  1064823553
1.84407067 -8.39345932 -2.49513626  3238383074
-2.49513626 0.96483886 2.11266112  1064763310
2.77399802 -8.13361549 -2.49513626  3238044987
-2.49513626 0.96483886 3.16248798  1064763310
3.29039669 -7.93876743 -2.49513626  3237761315
-2.49513626 0.96483886 3.54363966  1064763310
3.79322624 -7.71117353 -2.49513626  3237267143
-2.49513626 0.96483886 4.39952564  1064763310
4.51750660 -7.31046677 -2.49513626  3236402511
-2.49513626 0.96483886 4.74993849  1064763310
4.86433029 -7.08442259 -2.49513626  3235574063
-2.49513626 0.96483886 5.30906582  1064763310
5.62834930 -6.49403143 -2.49513626  3234458378
-2.49513626 0.96483886 5.93456602  1064763310
6.13110590 -6.02165270 -2.49513626  3233645689
-2.49513626 0.96483886 6.32131338  1064763310
6.59435034 -5.51047182 -2.49513626  3232331704
-2.49513626 0.96483886 6.85207987  1064763310
6.93448400 -5.07579422 -2.49513626  3231397693
-2.49513626 0.96483886 7.17088127  1064763310
7.31927109 -4.50322437 -2.49513626  3230421705
-2.49513626 0.96483886 7.46011019  1064763310
7.59325409 -4.02408457 -2.49513626  3229201473
-2.49513626 0.96483886 7.71856356  1064763310
7.94517660 -3.27489305 -2.49513626  3225495522
-2.49513626 0.96483886 8.22339058  1064763310
8.29928017 -2.22995758 -2.49513626  3221629785
-2.49513626 0.96483886 8.36661243  1064763310
8.39704227 -1.82768059 -2.49513626  3217509999
-2.49513626 0.96483886 8.47532272  1064763310
8.51658630 -1.14825976 -2.49513626  3208290958
-2.46894693 0.96520138 2.04891229  1064779423
2.17837954 -8.04461575 -2.49513626  3237675465
-2.49513626 0.96579927 2.94221973  1064779423
3.06706119 -7.74947262 -2.49513626  3237371905
-2.49513626 0.96579927 3.31433916  1064779423
3.55819750 -7.53660250 -2.49513626  3236519256
-2.49513626 0.96579927 4.15125275  1064779423
4.26677179 -7.15931797 -2.49513626  3236094020
-2.49513626 0.96579927 4.60660982  1064779423
4.71755123 -6.87065458 -2.49513626  3235309140
-2.49513626 0.96579927 5.14886761  1064779423
5.25344706 -6.47012186 -2.49513626  3234615625
-2.49513626 0.96579927 5.55894995  1064779423
5.65795279 -6.11953592 -2.49513626  3233866880
-2.49513626 0.96579927 5.94610214  1064779423
6.03911495 -5.74371433 -2.49513626  3232646998
-2.49513626 0.96579927 6.80342150  1064779423
6.87984991 -4.70413065 -2.49513626  3230857782
-2.49513626 0.96579927 7.09841537  1064779423
7.48566103 -3.66415954 -2.49513626  3227189280
-2.49513626 0.96579927 7.65343809  1064779423
7.80345392 -2.92699122 -2.49513626  3224586381
-2.49513626 0.96579927 7.89342213  1064779423
7.93536043 -2.54778814 -2.49513626  3222448720
-2.49513626 0.96579927 8.11415195  1064779423
8.14366722 -1.77253127 -2.49513626  3218218373
-2.49513626 0.96579927 8.25960350  1064779423
8.31405354 -0.58110392 -2.49513626  3237668796
-2.49513626 0.96670640 2.36390734  1064794642
2.73371840 -7.61310101 -2.49513626  3237097176
-2.49513626 0.96670640 3.09718895  1064794642
3.57049227 -7.25838137 -2.49513626  3236325194
-2.49513626 0.96670640 3.91591096  1064794642
4.02907085 -7.01420689 -2.49513626  3235656398
-2.49513626 0.96670640 4.36219692  1064794642
4.57870245 -6.66843176 -2.49513626  3234731527
-2.49513626 0.96670640 4.99732256  1064794642
5.09882450 -6.27968836 -2.49513626  3233864681
-2.49513626 0.96670640 5.49142456  1064794642
5.58609343 -5.85047483 -2.49513626  3230345757
-2.49513626 0.96670640 6.88948965  1064794642
6.95667267 -4.12761688 -2.49513626  3229203392
-2.49513626 0.96670640 7.14738512  1064794642
7.20729160 -3.67252707 -2.49513626  3227753122
-2.49513626 0.96670640 7.37579489  1064794642
7.42817736 -3.20229387 -2.49513626  3225766201
-2.49513626 0.96670640 7.52718115  1064794642
7.61842108 -2.71885395 -2.49513626  3222165819
-2.49513626 0.96670640 7.90397787  1064794642
7.95514679 -1.46565092 -2.49513626  3214593697
-2.49513626 0.96670640 8.05925179  1064794642
1.80892324 -7.64552784 -2.49513626  3237196316
-2.49513626 0.96756446 2.05351257  1064809039
2.17502975 -7.54953718 -2.49513626  3236982709
-2.49513626 0.96756452 2.41634631  1064809038
2.53608227 -7.43602705 -2.49513626  3236732537
-2.49513626 0.96756452 2.89125323  1064809039
3.00819302 -7.25789118 -2.49513626  3236343109
-2.49513626 0.96756452 3.23971653  1064809039
3.35423946 -7.10459948 -2.49513626  3235379026
-2.49513626 0.96756452 4.13005781  1064809039
4.23685408 -6.61629248 -2.49513626  3234956367
-2.49513626 0.96756452 4.44713831  1064809039
4.65283298 -6.33067226 -2.49513626  3234343444
-2.49513626 0.96756452 5.04962444  1064809038
5.14563036 -5.93706465 -2.49513626  3233501506
-2.49513626 0.96756446 5.33363438  1064809039
5.51613331 -5.59450912 -2.49513626  3232387274
-2.49513626 0.96756452 6.02878284  1064809038
6.10890675 -4.94039774 -2.49513626  3231379170
-2.49513626 0.96756452 6.26440668  1064809039
6.33974361 -4.64046478 -2.49513626  3230742475
-2.49513626 0.96756452 6.48549128  1064809039
6.55586576 -4.32976675 -2.49513626  3230083695
-2.49513626 0.96756452 6.82028866  1064809038
6.88203764 -3.78996181 -2.49513626  3227797950
-2.49513626 0.96756452 7.05657625  1064809039
7.11113214 -3.34036088 -2.49513626  3226366585
-2.49513626 0.96756452 7.31089687  1064809038
7.35615396 -2.75921345 -2.49513626  3223912889
-2.49513626 0.96756452 7.44096708  1064809038
7.51810455 -2.28131056 -2.49513626  3221387807
-2.49513626 0.96756446 7.61924744  1064809038
7.64904261 -1.79399359 -2.49513626  3217429054
-2.49513626 0.96756452 7.72656536  1064809038
7.74842930 -1.29927456 -2.49513626  3213254439
-2.49513626 0.96756452 7.80201149  1064809038
7.81585121 -0.79919976 -2.49513626  3207360513
-2.49513626 0.96756452 7.83748579  1064809039
1.75813746 -7.43087387 -2.49513626  3236613499
-2.49513626 0.96837741 2.23152161  1064822677
2.34850621 -7.26591349 -2.49513626  3236382140
-2.49513626 0.96837741 2.69570088  1064822677
2.81008244 -7.10016966 -2.49513626  3236019047
-2.49513626 0.96837741 3.03664088  1064822677
3.14875937 -6.95660019 -2.49513626  3235594935
-2.49513626 0.96837741 3.48013401  1064822677
3.90927362 -6.55946207 -2.49513626  3234848229
-2.49513626 0.96837741 4.11790371  1064822677
4.22063732 -6.36358213 -2.49513626  3234427009
-2.49513626 0.96837741 4.42281389  1064822677
4.52220392 -6.15293550 -2.49513626  3233817909
-2.49513626 0.96837741 5.09318495  1064822677
5.36126709 -5.43744183 -2.49513626  3232446580
-2.49513626 0.96837741 5.53311777  1064822677
5.61691141 -5.17293739 -2.49513626  3231494007
-2.49513626 0.96837741 5.93739653  1064822677
6.08853197 -4.60855103 -2.49513626  3230475283
-2.49513626 0.96837741 6.30340862  1064822677
6.43856478 -4.10534239 -2.49513626  3229179804
-2.49513626 0.96837741 6.62880659  1064822677
6.68882322 -3.68355846 -2.49513626  3227834306
-2.49513626 0.96837741 6.80366564  1064822677
6.96273184 -3.13517451 -2.49513626  3224084930
-2.49513626 0.96837741 7.19177151  1064822677
7.23205853 -2.45077038 -2.49513626  3222136739
-2.49513626 0.96837741 7.34169579  1064822677
7.37446690 -1.98146677 -2.49513626  3216054492
-2.49513626 0.96837741 7.53088903  1064822677
7.56755781 -1.02030611 -2.49513626  3211136475
-2.49513626 0.96837741 7.60791492  1064822677
7.61744785 -0.53241527 -2.49513626  3236321783
-2.49513626 0.96914852 2.17026114  1064835614
2.39721203 -7.02884817 -2.49513626  3235883404
-2.49513626 0.96914852 2.73293614  1064835614
2.95327759 -6.81392384 -2.49513626  3235414004
-2.49513626 0.96914852 3.17057180  1064835614
3.27800488 -6.66379023 -2.49513626  3235088254
-2.49513626 0.96914852 3.49031019  1064835614
3.59512782 -6.49818945 -2.49513626  3234730331
-2.49513626 0.96914852 3.80195284  1064835614
4.20362425 -6.12216854 -2.49513626  3233921363
-2.49513626 0.96914852 4.39805555  1064835614
4.58795166 -5.83969879 -2.49513626  3233316116
-2.49513626 0.96914852 4.77311993  1064835614
5.04157686 -5.45287704 -2.49513626  3232315562
-2.49513626 0.96914852 5.29833746  1064835614
5.38121700 -5.11799622 -2.49513626  3231776082
-2.49513626 0.96914852 5.69866085  1064835614
5.84864283 -4.57654142 -2.49513626  3230624976
-2.49513626 0.96914852 5.99259615  1064835614
6.13036060 -4.19166374 -2.49513626  3229808445
-2.49513626 0.96914852 6.56188631  1064835614
6.61688423 -3.37168217 -2.49513626  3226080175
-2.49513626 0.96914852 6.77158308  1064835614
6.91057062 -2.71945143 -2.49513626  3222833941
-2.49513626 0.96914852 7.07088566  1064835614
7.17201662 -1.92706966 -2.49513626  3219645465
-2.49513626 0.96914852 7.30347681  1064835614
7.39905643 -0.63670033 -2.49513626  3204746868
-2.49513626 0.96914852 1.88892019  1064847902
2.11195731 -6.91140652 -2.49513626  3235570036
-2.49513626 0.96988094 2.65951681  1064847902
2.76708341 -6.67616272 -2.49513626  3234825010
-2.49513626 0.96988094 3.29366589  1064847902
3.39654326 -6.37897921 -2.49513626  3234367518
-2.49513626 0.96988094 3.89726400  1064847902
3.99449396 -6.02261686 -2.49513626  3233719664
-2.49513626 0.96988094 4.37286234  1064847902
4.55537939 -5.61038446 -2.49513626  3232836368
-2.49513626 0.96988094 4.82028913  1064847902
5.23665094 -4.98050117 -2.49513626  3231492641
-2.49513626 0.96988094 5.39388847  1064847902
5.47043276 -4.72252846 -2.49513626  3230943820
-2.49513626 0.96988094 5.76230526  1064847902
5.83160400 -4.26852179 -2.49513626  3229979673
-2.49513626 0.96988094 5.96566868  1064847902
6.03040314 -3.98272943 -2.49513626  3229133310
-2.49513626 0.96988094 6.15519142  1064847902
6.21521282 -3.68768573 -2.49513626  3227459010
-2.49513626 0.96988094 6.38559961  1064847902
6.43912077 -3.28110027 -2.49513626  3225282159
-2.49513626 0.96988094 6.68155193  1064847902
6.72491693 -2.64639235 -2.49513626  3223482251
-2.49513626 0.96988094 6.80643129  1064847902
7.00855255 -1.76297772 -2.49513626  3217341554
-2.49513626 0.96988094 7.08532381  1064847902
7.10726833 -1.30943847 -2.49513626  3214473780
-2.49513626 0.96988094 7.14565229  1064847902
7.16208363 -0.96563703 -2.49513626  3210328647
-2.49513626 0.96988094 7.18939924  1064847902
7.20027828 -0.61959511 -2.49513626  3204513486
-2.49513626 0.96988094 1.50998497  1064859587
1.83922529 -6.79213953 -2.49513626  3235338407
-2.49513626 0.97057742 2.16419649  1064859587
2.69428468 -6.50052071 -2.49513626  3234669572
-2.49513626 0.97057742 3.00421953  1064859587
3.30718446 -6.21115541 -2.49513626  3234138154
-2.49513626 0.97057742 3.50494003  1064859587
3.60247421 -6.04467773 -2.49513626  3233390957
-2.49513626 0.97057742 4.07571268  1064859587
4.25781775 -5.60240364 -2.49513626  3232829656
-2.49513626 0.97057742 4.69347095  1064859587
4.85941458 -5.08940220 -2.49513626  3231565948
-2.49513626 0.97057742 5.17609692  1064859587
5.32651186 -4.59828424 -2.49513626  3230505076
-2.49513626 0.97057742 5.67817974  1064859586
5.80871868 -3.97174096 -2.49513626  3227487657
-2.49513626 0.97057742 6.16388559  1064859587
6.26971483 -3.19477892 -2.49513626  3224954738
-2.49513626 0.97057742 6.54799128  1064859587
6.62736273 -2.36516571 -2.49513626  3221406886
-2.49513626 0.97057742 6.79571962  1064859587
6.82416534 -1.71659613 -2.49513626  3217926967
-2.49513626 0.97057742 6.89891768  1064859587
6.95765734 -1.05209911 -2.49513626  3211834130
-2.49513626 0.97057742 7.01084709  1064859587
1.57838893 -6.67115259 -2.49513626  3235040245
-2.49513626 0.97124046 2.21287560  1064870711
2.31678319 -6.45198107 -2.49513626  3234676494
-2.49513626 0.97124046 2.72618008  1064870711
2.92676353 -6.19916534 -2.49513626  3234022251
-2.49513626 0.97124046 3.22191739  1064870711
3.31867456 -5.99850035 -2.49513626  3233455461
-2.49513626 0.97124046 3.69689536  1064870711
3.78912640 -5.71297836 -2.49513626  3233077305
-2.49513626 0.97124046 4.32117414  1064870712
4.48985386 -5.18042612 -2.49513626  3231462774
-2.49513626 0.97124046 4.89091349  1064870711
5.04264641 -4.64406252 -2.49513626  3230444173
-2.49513626 0.97124046 5.39890480  1064870711
5.89566994 -3.49809074 -2.49513626  3226707247
-2.49513626 0.97124046 6.15726233  1064870711
6.29526663 -2.71389484 -2.49513626  3223794281
-2.49513626 0.97124046 6.41866064  1064870711
6.45649290 -2.30418563 -2.49513626  3221626695
-2.49513626 0.97124052 6.55997181  1064870711
6.62051153 -1.77888429 -2.49513626  3218476848
-2.49513626 0.97124046 6.69849920  1064870711
6.72104645 -1.35022163 -2.49513626  3213958342
-2.49513626 0.97124046 6.79385900  1064870712
6.80769539 -0.80677211 -2.49513626  3234912230
-2.49513626 0.97187251 1.53848112  1064881315
1.64270425 -6.47694159 -2.49513626  3234751527
-2.49513626 0.97187251 1.84985328  1064881315
2.15692663 -6.32431221 -2.49513626  3234414167
-2.49513626 0.97187251 2.85276699  1064881315
2.94943261 -5.99584055 -2.49513626  3233698711
-2.49513626 0.97187251 3.14045811  1064881315
3.23476839 -5.84683895 -2.49513626  3233263006
-2.49513626 0.97187251 3.51259637  1064881315
3.60342550 -5.62712812 -2.49513626  3232516974
-2.49513626 0.97187251 4.12807655  1064881315
4.29468298 -5.11907721 -2.49513626  3231814932
-2.49513626 0.97187251 4.45685911  1064881315
4.53623295 -4.90630627 -2.49513626  3231360648
-2.49513626 0.97187251 4.76725578  1064881315
4.84182835 -4.60499239 -2.49513626  3230551782
-2.49513626 0.97187251 5.12745285  1064881315
5.19559813 -4.20178699 -2.49513626  3229682810
-2.49513626 0.97187251 5.45460701  1064881315
5.63415194 -3.59243393 -2.49513626  3226749057
-2.49513626 0.97187251 5.85314322  1064881315
5.90415096 -3.12893581 -2.49513626  3225561202
-2.49513626 0.97187251 6.00158739  1064881315
6.09283066 -2.74347568 -2.49513626  3223931969
-2.49513626 0.97187251 6.17779016  1064881315
6.25637722 -2.34669900 -2.49513626  3222256975
-2.49513626 0.97187251 6.32850933  1064881315
6.42444801 -1.83731377 -2.49513626  3218993336
-2.49513626 0.97187251 6.52914095  1064881315
6.55112028 -1.31608462 -2.49513626  3212821084
-2.49513626 0.97187251 6.62209129  1064881315
6.64734793 -0.67971587 -2.49513626  3205670984
-2.49513626 0.97187251 6.66574669  1064881315
1.50031328 -6.34116507 -2.49513626  3234471620
-2.49513626 0.97247547 1.70317483  1064891431
1.80396020 -6.26155567 -2.49513626  3234294455
-2.49513626 0.97247547 2.00410748  1064891431
2.10341644 -6.16741371 -2.49513626  3234086964
-2.49513626 0.97247547 2.30038691  1064891431
2.39799452 -6.05895901 -2.49513626  3233849624
-2.49513626 0.97247547 2.59133029  1064891431
2.78199363 -5.89255619 -2.49513626  3233182983
-2.49513626 0.97247547 3.24567318  1064891431
3.33599353 -5.59754276 -2.49513626  3232733647
-2.49513626 0.97247547 3.68843675  1064891431
3.77422547 -5.31192493 -2.49513626  3232236846
-2.49513626 0.97247547 3.94285917  1064891431
4.10742903 -5.05869055 -2.49513626  3231407161
-2.49513626 0.97247547 4.72170830  1064891431
4.79321241 -4.41434431 -2.49513626  3230155442
-2.49513626 0.97247547 5.00024652  1064891431
5.06670141 -4.09754515 -2.49513626  3228979829
-2.49513626 0.97247547 5.31928396  1064891431
5.37903929 -3.67794371 -2.49513626  3227898985
-2.49513626 0.97247547 5.49437428  1064891431
5.54992485 -3.41462421 -2.49513626  3225634982
-2.49513626 0.97247547 5.85269451  1064891431
5.94167423 -2.67541313 -2.49513626  3223656713
-2.49513626 0.97247547 6.02452755  1064891431
6.17150688 -2.09137464 -2.49513626  3221158351
-2.49513626 0.97247547 6.26506472  1064891431
6.29302979 -1.69089246 -2.49513626  3216073700
-2.49513626 0.97247547 6.42651415  1064891431
6.44298935 -0.97427422 -2.49513626  3210667270
-2.49513626 0.97247547 1.36422622  1064901092
1.46376634 -6.18669987 -2.49513626  3234094648
-2.49513626 0.97305131 1.76001680  1064901092
1.85789120 -6.07997561 -2.49513626  3233911890
-2.49513626 0.97305131 2.24435043  1064901093
2.43420768 -5.87302828 -2.49513626  3233458541
-2.49513626 0.97305137 2.80619502  1064901092
3.07767391 -5.56289244 -2.49513626  3232786551
-2.49513626 0.97305131 3.42842913  1064901092
3.51396275 -5.29810619 -2.49513626  3231968614
-2.49513626 0.97305131 3.92760038  1064901092
4.00737429 -4.93546391 -2.49513626  3231300665
-2.49513626 0.97305137 4.24041605  1064901092
4.31593513 -4.66803598 -2.49513626  3230719348
-2.49513626 0.97305131 4.67645216  1064901092
4.74501133 -4.23116064 -2.49513626  3229937912
-2.49513626 0.97305131 4.94327831  1064901092
5.00683928 -3.91783381 -2.49513626  3227887500
-2.49513626 0.97305131 5.30495453  1064901092
5.36053467 -3.41797090 -2.49513626  3226443451
-2.49513626 0.97305131 5.51892281  1064901092
5.56889105 -3.06680727 -2.49513626  3224943261
-2.49513626 0.97305131 5.75427437  1064901092
5.79693842 -2.61023831 -2.49513626  3222998561
-2.49513626 0.97305131 5.91591978  1064901092
5.98762751 -2.13685846 -2.49513626  3221395047
-2.49513626 0.97305131 6.05316210  1064901092
6.08359051 -1.84601891 -2.49513626  3218286968
-2.49513626 0.97305131 6.25227547  1064901092
6.26996708 -1.05136263 -2.49513626  3212007081
-2.49513626 0.97305131 6.30049562  1064901092
6.31332493 -0.74818498 -2.49513626  3206909578
-2.49513626 0.97305131 6.34203196  1064901092
1.33157921 -6.06080532 -2.49513626  3233786669
-2.49513626 0.97360182 1.81342876  1064910328
1.90849495 -5.90458298 -2.49513626  3233401158
-2.49513626 0.97360188 2.37595320  1064910328
2.46770239 -5.69358635 -2.49513626  3233081143
-2.49513626 0.97360182 2.64926934  1064910328
2.73903799 -5.56813574 -2.49513626  3232808948
-2.49513626 0.97360182 2.91643786  1064910328
3.00402069 -5.42976379 -2.49513626  3232295897
-2.49513626 0.97360182 3.42986751  1064910328
3.51246881 -5.11556816 -2.49513626  3231833920
-2.49513626 0.97360182 3.67493272  1064910328
3.75475335 -4.94047499 -2.49513626  3231458614
-2.49513626 0.97360182 3.91147137  1064910328
3.98832774 -4.75391579 -2.49513626  3230921410
-2.49513626 0.97360182 4.35678959  1064910328
4.63145638 -4.12990189 -2.49513626  3229526160
-2.49513626 0.97360182 4.82497787  1064910328
5.00729942 -3.66516376 -2.49513626  3227870428
-2.49513626 0.97360182 5.38684607  1064910328
5.43561840 -2.99341393 -2.49513626  3225024414
-2.49513626 0.97360182 5.52894402  1064910328
5.57347345 -2.72816229 -2.49513626  3223902727
-2.49513626 0.97360182 5.65820837  1064910328
5.69839334 -2.45658207 -2.49513626  3221585006
-2.49513626 0.97360182 5.90829945  1064910328
5.96616936 -1.70625162 -2.49513626  3217955783
-2.49513626 0.97360182 6.04141903  1064910328
6.06339407 -1.31974435 -2.49513626  3214700845
-2.49513626 0.97360182 6.17317009  1064910328
6.18251038 -0.53201467 -2.49513626  3202188796
-2.49513626 0.97360182 1.30025256  1064919166
1.39512360 -5.89657640 -2.49513626  3233542905
-2.49513626 0.97412860 1.58376229  1064919166
1.67748153 -5.82254505 -2.49513626  3233378169
-2.49513626 0.97412860 1.86359620  1064919166
2.13910246 -5.66923523 -2.49513626  3233041150
-2.49513626 0.97412860 2.32005453  1064919166
2.49861622 -5.52022409 -2.49513626  3232716591
-2.49513626 0.97412860 2.67459822  1064919166
2.76156926 -5.39348793 -2.49513626  3232441975
-2.49513626 0.97412860 3.01811481  1064919166
3.26765442 -5.10278511 -2.49513626  3231815363
-2.49513626 0.97412860 3.42983460  1064919166
3.66641784 -4.82424450 -2.49513626  3231217871
-2.49513626 0.97412860 3.81945062  1064919166
4.04156160 -4.51461220 -2.49513626  3230555978
-2.49513626 0.97412860 4.18445587  1064919166
4.25429106 -4.31473780 -2.49513626  3230129691
-2.49513626 0.97412860 4.39065838  1064919166
4.45714998 -4.10484600 -2.49513626  3229444610
-2.49513626 0.97412860 4.64967012  1064919166
4.83139706 -3.65699553 -2.49513626  3227181706
-2.49513626 0.97412860 5.10915279  1064919166
5.16080761 -3.17521787 -2.49513626  3225805368
-2.49513626 0.97412860 5.30774212  1064919166
5.35399580 -2.83737779 -2.49513626  3224010409
-2.49513626 0.97412860 5.48442984  1064919166
5.52509212 -2.48783422 -2.49513626  3222898112
-2.49513626 0.97412860 5.60213661  1064919166
5.67339754 -2.12803030 -2.49513626  3219986767
-2.49513626 0.97412860 5.82580853  1064919166
5.85181618 -1.57234132 -2.49513626  3215258617
-2.49513626 0.97412860 5.94067478  1064919166
5.95907927 -1.09789681 -2.49513626  3212854141
-2.49513626 0.97412860 1.27016616  1064927629
1.45516634 -5.73750782 -2.49513626  3233207342
-2.49513626 0.97463304 1.72979271  1064927629
1.82047307 -5.63226128 -2.49513626  3232908491
-2.49513626 0.97463304 2.08960605  1064927629
2.17826939 -5.50378275 -2.49513626  3232692893
-2.49513626 0.97463304 2.35389042  1064927629
2.44080114 -5.39249420 -2.49513626  3232450692
-2.49513626 0.97463304 2.69766903  1064927629
2.78193045 -5.22468853 -2.49513626  3231785325
-2.49513626 0.97463304 3.19204426  1064927629
3.35047174 -4.87963533 -2.49513626  3231227893
-2.49513626 0.97463304 3.58158207  1064927629
3.73107290 -4.59517193 -2.49513626  3230605997
-2.49513626 0.97463304 4.08763218  1064927629
4.28906536 -4.07926846 -2.49513626  3228756445
