# .PCD v0.7 - Point Cloud Data file format
VERSION 0.7
FIELDS x y z intensity
SIZE 4 4 4 4
TYPE F F F F
COUNT 1 1 1 1
WIDTH 1016
HEIGHT 1
VIEWPOINT 0 0 0 1 0 0 0
POINTS 1016
DATA ascii
51.27774429 -31.17174530 -2.49513626  3253909321
-2.49513626 0.78643632 53.18323517  1061770212
54.46714401 -25.18759918 -2.49513626  3250745314
-2.49513626 0.78643632 55.97963333  1061770211
56.32147980 -20.71172333 -2.49513626  3247418632
-2.49513626 0.78643626 57.54113770  1061770211
57.80871582 -16.10085297 -2.49513626  3245515837
-2.49513626 0.78643626 58.72758484  1061770212
58.91914368 -11.38501358 -2.49513626  3239550537
-2.49513626 0.78643632 59.40142441  1061770212
59.64554596 -6.59493923 -2.49513626  3233034049
-2.49513626 0.78643626 59.82742691  1061770212
59.98317337 -1.76190090 -2.49513626  1043630684
-2.49513626 0.78643632 59.99810410  1061770212
59.97177505 2.11431384 -2.49513626  1086286415
-2.49513626 0.78643632 59.60576630  1061770212
59.48582840 7.90706396 -2.49513626  1091995806
-2.64753628 0.77498055 62.81523895  1061578016
24.30788994 -43.68757629 -2.49513626  3257631958
-2.49513626 0.81854403 26.39538574  1062308891
30.37965584 -39.70624542 -2.49513626  3256537302
-2.49513626 0.81854403 32.26719666  1062308891
32.87974930 -37.66165543 -2.49513626  3256123577
-2.49513626 0.81854409 34.07896805  1062308891
35.24259186 -35.46038818 -2.49513626  3255383786
-2.49513626 0.81854409 37.98829651  1062308891
38.50827789 -31.88402367 -2.49513626  3254390850
-2.49513626 0.81854403 40.00738907  1062308890
40.48638153 -29.33139992 -2.49513626  3252334638
-2.49513626 0.81854409 43.13440323  1062308889
43.53702927 -24.57652283 -2.49513626  3250517528
-2.49513626 0.81854409 44.30805969  1062308889
44.67629242 -22.43899918 -2.49513626  3249004537
-2.49513626 0.81854403 46.03179169  1062308891
46.34086227 -18.76163673 -2.49513626  3247445561
-2.49513626 0.81854415 46.92261124  1062308890
47.19517136 -16.49529457 -2.49513626  3243679634
-2.49513626 0.81854409 48.37201691  1062308890
48.56975937 -11.85147476 -2.49513626  3240389912
-2.49513626 0.81854409 49.08676529  1062308891
49.23356247 -8.69106102 -2.49513626  3236107763
-2.49513626 0.81854409 49.59672928  1062308891
49.69195175 -5.49438095 -2.49513626  3231063442
-2.49513626 0.81854409 49.84347916  1062308891
49.89975357 -3.08109307 -2.49513626  3222377988
-2.49513626 0.81854409 49.97322464  1062308891
49.99042511 -0.66058898 -2.49513626  1064586483
-2.49513626 0.81854409 49.92878342  1062308890
49.88079453 3.37425947 -2.49513626  1084192994
-2.49513626 0.81854403 49.44603348  1062308890
20.82912064 -37.43532181 -2.49513626  3256023270
-2.49513626 0.84227395 22.61786079  1062707013
24.35350227 -35.24432373 -2.49513626  3255419378
-2.49513626 0.84227395 26.03195763  1062707012
26.57806015 -33.59853745 -2.49513626  3255085275
-2.49513626 0.84227395 29.20180130  1062707045
31.63520241 -28.88718033 -2.49513626  3251760544
-2.49513626 0.84227395 35.48589706  1062707012
36.24250793 -22.84152985 -2.49513626  3249669779
-2.49513626 0.84227401 36.96132660  1062707012
37.30631638 -21.05929565 -2.49513626  3248726889
-2.49513626 0.84227324 38.28255844  1062707013
38.58806992 -18.60691643 -2.49513626  3246766663
-2.49513626 0.84227395 39.70883942  1062707012
39.96329880 -15.43343830 -2.49513626  3245118223
-2.49513626 0.84227395 40.44093323  1062707013
40.87631989 -12.82115364 -2.49513626  3242364092
-2.49513626 0.84227395 41.26910400  1062707012
41.44932938 -10.82627869 -2.49513626  3239556475
-2.49513626 0.84227395 42.18761063  1062707012
42.49880600 -5.39509630 -2.49513626  3226805221
-2.49513626 0.84227395 42.75845718  1062707012
42.79549408 -1.94929588 -2.49513626  3205557536
-2.49513626 0.84227407 42.83969116  1062707013
42.83206940 0.81773251 -2.49513626  1074583462
-2.49513626 0.84227401 42.68991470  1062707013
42.46636581 5.64478540 -2.49513626  1087016621
-2.49513626 0.84227395 42.14311981  1062707012
21.79702759 -30.48002434 -2.49513626  3253009044
-2.49513626 0.86051911 25.54272842  1063013115
25.98219109 -27.00125885 -2.49513626  3251937273
-2.49513626 0.86051911 27.25950813  1063013115
28.07567787 -24.81731224 -2.49513626  3250531902
-2.49513626 0.86051911 29.61933708  1063013115
30.69628906 -21.49140358 -2.49513626  3249008976
-2.49513626 0.86051911 31.37438393  1063013115
31.70119858 -19.97940445 -2.49513626  3248207851
-2.49513626 0.86051911 32.32993698  1063013115
33.48560333 -16.81834412 -2.49513626  3246106160
-2.49513626 0.86051911 34.26090240  1063013115
34.50154877 -14.62140942 -2.49513626  3243769327
-2.49513626 0.86051911 35.56859589  1063013115
35.93083954 -10.63566399 -2.49513626  3238928443
-2.49513626 0.86051911 36.67171097  1063013114
36.90134811 -6.51408863 -2.49513626  3233634862
-2.49513626 0.86051911 37.09247589  1063013115
37.17353821 -4.71911716 -2.49513626  3229861810
-2.49513626 0.86051911 37.30656815  1063013115
37.43307877 -1.70498490 -2.49513626  3204284574
-2.49513626 0.86051911 37.47172546  1063013115
37.46505737 0.71526754 -2.49513626  1073111932
-2.49513626 0.86051911 37.28525162  1063013115
37.06057358 5.53673887 -2.49513626  3253391864
-2.49513626 0.87497962 16.18845177  1063255722
17.11970139 -28.55684090 -2.49513626  3252522388
-2.49513626 0.87497962 18.92762756  1063255722
19.36754990 -27.08275032 -2.49513626  3252036002
-2.49513626 0.87497962 21.07561302  1063255722
21.48916245 -25.43212509 -2.49513626  3250965614
-2.49513626 0.87497962 22.69575691  1063255722
23.08623695 -23.99172783 -2.49513626  3250384138
-2.49513626 0.87497962 23.84907150  1063255722
24.22118568 -22.84538078 -2.49513626  3249563865
-2.49513626 0.87497962 25.29927635  1063255722
25.64557076 -21.23397827 -2.49513626  3248471167
-2.49513626 0.87497938 26.96294403  1063255722
27.27490616 -19.09598923 -2.49513626  3247782228
-2.49513626 0.87497962 28.16780663  1063255722
28.72647476 -16.83350945 -2.49513626  3246583898
-2.49513626 0.87497962 29.75333214  1063255722
29.99079704 -14.46130085 -2.49513626  3243754270
-2.49513626 0.87497962 30.65603638  1063255722
30.86186028 -12.49491787 -2.49513626  3242191594
-2.49513626 0.87497962 31.24931335  1063255722
31.43082619 -10.98546505 -2.49513626  3240062733
-2.49513626 0.87497962 31.92601776  1063255722
32.07447815 -8.93336582 -2.49513626  3238436980
-2.49513626 0.87497962 32.46952820  1063255722
32.58430481 -6.84398890 -2.49513626  3234472845
-2.49513626 0.87497962 32.78835297  1063255722
32.87755966 -5.25772572 -2.49513626  3231136713
-2.49513626 0.87497962 33.03021240  1063255722
33.09362793 -3.65912366 -2.49513626  3225940560
-2.49513626 0.87497962 33.23202133  1063255722
33.28095245 -0.97756976 -2.49513626  1066805299
-2.49513626 0.87497962 33.17875671  1063255722
33.07155228 3.85350299 -2.49513626  1082942319
-2.49513626 0.87497962 32.92984390  1063255722
32.84609222 5.45081091 -2.49513626  1086284051
-2.49513626 0.87497962 14.13858223  1063452702
14.56321335 -26.17386818 -2.49513626  3251600230
-2.49513626 0.88672054 15.40095901  1063452702
17.02737808 -24.64197159 -2.49513626  3250776838
-2.49513626 0.88671756 18.20091629  1063452702
18.58273697 -23.49128532 -2.49513626  3250159927
-2.49513626 0.88672054 19.33174515  1063452702
19.69874191 -22.56365204 -2.49513626  3248777752
-2.49513626 0.88672054 22.44188118  1063452702
23.67579079 -18.34709358 -2.49513626  3247420119
-2.49513626 0.88672054 25.33988762  1063452702
25.84246254 -15.14350414 -2.49513626  3244609726
-2.49513626 0.88672054 26.54561424  1063452702
26.97985840 -13.00945282 -2.49513626  3241869220
-2.49513626 0.88672054 27.76346779  1063452702
27.94138908 -10.79061985 -2.49513626  3239976708
-2.49513626 0.88672054 28.72079086  1063452702
28.98038101 -7.56942892 -2.49513626  3234137395
-2.49513626 0.88672054 29.40860748  1063452702
29.57679558 -4.72987413 -2.49513626  3228658444
-2.49513626 0.88672054 29.77117538  1063452702
29.89566803 -1.84592819 -2.49513626  3215880710
-2.49513626 0.88672054 29.93969154  1063452702
29.95247650 0.08800098 -2.49513626  1065817341
-2.49513626 0.88672054 29.91305542  1063452702
29.88430595 2.02156210 -2.49513626  1079893356
-2.49513626 0.88672054 29.54849815  1063452702
12.84702969 -23.99352074 -2.49513626  3250121104
-2.49513626 0.89644140 15.47193813  1063615791
16.18701363 -21.87957191 -2.49513626  3249193808
-2.49513626 0.89644140 17.56580353  1063615791
18.22807121 -20.21070480 -2.49513626  3248123607
-2.49513626 0.89644140 19.49485588  1063615791
19.79903221 -18.67440605 -2.49513626  3247624531
-2.49513626 0.89644140 20.68029213  1063615791
21.24095726 -17.01637077 -2.49513626  3246743143
-2.49513626 0.89644140 22.04021454  1063615791
22.54441643 -15.24744129 -2.49513626  3244830359
-2.49513626 0.89644140 23.25646400  1063615791
24.12068558 -12.60665035 -2.49513626  3241592551
-2.49513626 0.89644140 25.05904007  1063615791
25.22728920 -10.21367168 -2.49513626  3239895269
-2.49513626 0.89644140 25.69237709  1063615791
25.96899796 -8.14533329 -2.49513626  3236539645
-2.49513626 0.89644140 26.33303642  1063615791
26.63526344 -5.59445620 -2.49513626  3232054221
-2.49513626 0.89644140 26.80205536  1063615791
26.99975586 -3.42757368 -2.49513626  3223548166
-2.49513626 0.89644140 27.13408852  1063615791
27.18826675 -1.23835862 -2.49513626  3199737725
-2.49513626 0.89644140 27.21633530  1063615791
27.21149063 0.51951325 -2.49513626  1064664066
-2.49513626 0.89644140 27.18051529  1063615791
27.15439415 1.83689296 -2.49513626  1074896151
-2.49513626 0.89644140 26.91771507  1063615791
26.84925461 4.45563602 -2.49513626  3249426617
-2.49513626 0.90462142 12.47401810  1063753029
13.16483688 -21.17662239 -2.49513626  3248992414
-2.49513626 0.90462142 14.17507458  1063753028
14.50453663 -20.28251839 -2.49513626  3248255766
-2.49513626 0.90462142 17.28949738  1063753029
17.86079025 -17.39984131 -2.49513626  3246660959
-2.49513626 0.90462142 18.94686127  1063753029
19.20620346 -15.90232372 -2.49513626  3245961438
-2.49513626 0.90462142 19.95389748  1063753029
20.19278717 -14.62892342 -2.49513626  3244609936
-2.49513626 0.90462142 20.87765884  1063753029
21.09512901 -13.29502773 -2.49513626  3243195858
-2.49513626 0.90462142 21.51351738  1063753029
21.71432304 -12.25766945 -2.49513626  3240203803
-2.49513626 0.90462142 22.95858765  1063753029
23.11273384 -9.35756207 -2.49513626  3239033498
-2.49513626 0.90462142 23.40289688  1063753029
23.90968895 -7.07735872 -2.49513626  3233621707
-2.49513626 0.90462142 24.31672478  1063753029
24.62230492 -3.93756008 -2.49513626  3227682107
-2.49513626 0.90462142 24.73662949  1063753029
24.85969734 -1.93846273 -2.49513626  3213965627
-2.49513626 0.90462142 24.93062019  1063753029
24.87830544 1.68292463 -2.49513626  1075778366
-2.49513626 0.90462142 24.71775627  1063753028
24.59874535 4.08216715 -2.49513626  3248635067
-2.49513626 0.91159946 11.50779724  1063870101
11.82799530 -19.72991562 -2.49513626  3248141165
-2.49513626 0.91159946 13.07709312  1063870101
13.68148804 -18.49291420 -2.49513626  3247581357
-2.49513626 0.91159850 14.56113529  1063870101
14.84685898 -17.57105064 -2.49513626  3246958768
-2.49513626 0.91159946 15.95027924  1063870101
16.73441505 -15.78386784 -2.49513626  3245879110
-2.49513626 0.91159946 17.95314980  1063870101
18.18309593 -14.09063721 -2.49513626  3243765696
-2.49513626 0.91159946 18.84422684  1063870101
19.26050186 -12.57791996 -2.49513626  3242475086
-2.49513626 0.91159946 19.65668488  1063870101
19.84711075 -11.63026810 -2.49513626  3241471594
-2.49513626 0.91159946 20.55656624  1063870101
20.72063446 -9.99131012 -2.49513626  3239383535
-2.49513626 0.91159946 21.18024635  1063870101
21.45909309 -8.28724098 -2.49513626  3237875977
-2.49513626 0.91159946 21.71555328  1063870101
21.83530045 -7.23814678 -2.49513626  3235663416
-2.49513626 0.91159946 22.05767822  1063870101
22.25704765 -5.81335020 -2.49513626  3228072934
-2.49513626 0.91159946 22.82056427  1063870101
22.86437607 -2.52808905 -2.49513626  3221890211
-2.49513626 0.91159946 9.27653503  1064738516
9.24122810 0.02715080 -1.00236940  1056610327
-1.03345609 0.96239048 22.95126343  1063870101
22.92319298 1.92304182 -2.49513626  1074970840
-2.49513626 0.91159946 22.69335938  1063870101
22.62957764 4.13199377 -2.49513626  3247693668
-2.49513626 0.91762149 11.27055645  1063971134
11.56188774 -17.94513512 -2.49513626  3247210423
-2.49513626 0.91762149 12.41748524  1063971134
12.69630146 -17.16126633 -2.49513626  3246891454
-2.49513626 0.91762149 13.24393177  1063971134
13.77775478 -16.30578423 -2.49513626  3246236413
-2.49513626 0.91762143 14.55136204  1063971134
15.04822063 -15.14121056 -2.49513626  3245233861
-2.49513626 0.91762149 15.52939320  1063971134
16.44263458 -13.61414623 -2.49513626  3243609225
-2.49513626 0.91762149 16.87375641  1063971134
17.48727989 -12.24337578 -2.49513626  3242154364
-2.49513626 0.91762149 18.05976105  1063971134
18.24123573 -11.08884621 -2.49513626  3240931137
-2.49513626 0.91762149 18.58985710  1063971134
18.91908646 -9.88803959 -2.49513626  3239009408
-2.49513626 0.91762149 19.51799583  1063971134
19.78705215 -8.01110458 -2.49513626  3236676994
-2.49513626 0.91762149 20.15184593  1063971134
20.26296997 -6.71693945 -2.49513626  3231838015
-2.49513626 0.91762149 20.89139557  1063971134
21.02221870 -3.71099234 -2.49513626  3224112920
-2.49513626 0.91762149 21.25307083  1063971134
21.28264999 -1.65953851 -2.49513626  3196510764
-1.04876029 0.96450990 8.94393444  1064759616
8.95173931 0.17090300 -1.04649901  1050819655
-1.05117571 0.96442962 9.03976440  1064752643
21.27252960 1.78456640 -2.49513626  1074278287
-2.49513626 0.91762149 21.20379257  1063971134
21.16112518 2.81281209 -2.49513626  1078582989
-2.49513626 0.91762149 21.05924225  1063971134
9.39849377 -17.55292511 -2.49513626  3246956007
-2.49513626 0.92287099 10.51212025  1064059206
10.78384590 -16.73754692 -2.49513626  3246685527
-2.49513626 0.92287099 11.58187103  1064059206
12.09889221 -15.81308556 -2.49513626  3245988244
-2.49513626 0.92287099 12.60329819  1064059206
12.85060406 -15.20851326 -2.49513626  3245341651
-2.49513626 0.92287099 13.33509827  1064059206
13.57215309 -14.56823730 -2.49513626  3244658151
-2.49513626 0.92287099 14.26184177  1064059206
14.48437023 -13.66162300 -2.49513626  3243692174
-2.49513626 0.92287099 15.33615208  1064059206
15.53923512 -12.44865608 -2.49513626  3242402578
-2.49513626 0.92287099 16.31049919  1064059206
16.49280548 -11.15456009 -2.49513626  3241029650
-2.49513626 0.92287099 17.17854881  1064059206
17.33888626 -9.78774452 -2.49513626  3239582299
-2.49513626 0.92287099 17.64595604  1064059206
17.93461800 -8.64791489 -2.49513626  3238069970
-2.49513626 0.92287099 18.33242798  1064059206
18.45551300 -7.47200966 -2.49513626  3234363988
-2.49513626 0.92287099 18.99812126  1064059206
19.18066406 -5.34218884 -2.49513626  3230467414
-2.49513626 0.92287099 19.79011726  1064059206
19.82287788 -1.86826277 -2.49513626  3205224199
-1.11075509 0.96489906 8.72090721  1064773586
8.70637131 0.02557938 -1.09105408  1050550232
-1.09845757 0.96528083 8.80957222  1064767087
19.84102821 1.66447508 -2.49513626  1073613559
-2.49513626 0.92287099 19.69217300  1064059206
19.64209366 3.25960970 -2.49513626  3246470503
-2.49513626 0.92748743 9.59088993  1064136656
9.84802341 -15.84127617 -2.49513626  3246055916
-2.49513626 0.92748743 10.35450745  1064136657
10.85019112 -15.17243958 -2.49513626  3245147805
-2.49513626 0.92748737 11.57232761  1064136657
12.26732635 -14.05144024 -2.49513626  3244138396
-2.49513626 0.92748743 12.71473598  1064136657
12.93349552 -13.44077206 -2.49513626  3243034352
-2.49513626 0.92748737 13.77426720  1064136655
14.17329407 -12.12630558 -2.49513626  3241842814
-2.49513626 0.92748737 14.74400806  1064136656
14.92662430 -11.18597794 -2.49513626  3240831815
-2.49513626 0.92748737 15.45089531  1064136655
15.61763668 -10.19897175 -2.49513626  3238393031
-2.49513626 0.92748672 16.80162239  1064136655
17.05449867 -7.55471420 -2.49513626  3236489154
-2.49513626 0.92748743 17.28959274  1064136657
17.60836029 -6.15433884 -2.49513626  3232932672
-2.49513626 0.92748737 17.88576317  1064136657
18.19025040 -4.12849665 -2.49513626  3227679908
-2.49513626 0.92748731 18.41883659  1064136657
18.46402740 -2.64765429 -2.49513626  3222689702
-2.49513626 0.92748731 18.57057381  1064136657
18.59642029 -1.45007682 -2.49513626  1050311533
-1.14552319 0.96603096 8.59667873  1064780402
18.55998802 1.85932767 -2.49513626  1074408018
-2.49513626 0.92748737 18.34949112  1064136657
8.52915955 -15.32910824 -2.49513626  3245390579
-2.49513626 0.93157834 9.26162052  1064205291
9.50102139 -14.74647999 -2.49513626  3244747058
-2.49513626 0.93157834 10.65963268  1064205291
10.88325310 -13.75801563 -2.49513626  3243664304
-2.49513626 0.93157834 11.53685474  1064205291
11.95763683 -12.83522511 -2.49513626  3242868537
-2.49513626 0.93157834 12.36592865  1064205291
12.95406055 -11.82879257 -2.49513626  3241114640
-2.49513626 0.93157834 13.86607170  1064205291
14.03780460 -10.51989746 -2.49513626  3240163843
-2.49513626 0.93157834 14.84067822  1064205291
14.98979950 -9.11230278 -2.49513626  3238913912
-2.49513626 0.93157834 15.27628613  1064205291
15.41356945 -8.37556839 -2.49513626  3238134319
-2.49513626 0.93157834 15.67603588  1064205291
15.80114841 -7.61917639 -2.49513626  3236666761
-2.49513626 0.93157834 16.15163994  1064205291
16.36428261 -6.31968880 -2.49513626  3232801057
-2.49513626 0.93157834 16.73814392  1064205291
16.89897346 -4.70669174 -2.49513626  3229946368
-2.49513626 0.93157834 17.10710716  1064205291
17.22358131 -3.32813168 -2.49513626  3223280667
-2.49513626 0.93157834 17.40251732  1064205291
17.43592644 -1.92786968 -2.49513626  3204817393
-1.20476639 0.96635723 8.42028713  1064791480
8.37959003 0.15997972 -1.19209969  1050122660
-1.19532955 0.96661633 8.47740459  1064787041
17.45481110 1.74861193 -2.49513626  1073868848
-2.49513626 0.93157834 17.38923454  1064205291
17.34963417 2.59199286 -2.49513626  1078569391
-2.49513626 0.93157834 7.81408310  1064266528
8.28134632 -14.33384228 -2.49513626  3244501995
-2.49513626 0.93522835 9.18947029  1064266529
9.41065693 -13.61907482 -2.49513626  3243227867
-2.49513626 0.93522835 10.47861767  1064266528
10.88705826 -12.47043228 -2.49513626  3242504193
-2.49513626 0.93522835 11.28414059  1064266529
11.66943741 -11.74154663 -2.49513626  3241524365
-2.49513626 0.93522835 12.22444153  1064266529
12.40313053 -10.96366882 -2.49513626  3240684272
-2.49513626 0.93522835 12.91960812  1064266529
13.08508492 -10.14003372 -2.49513626  3240023693
-2.49513626 0.93522835 13.40574837  1064266528
13.71242523 -9.27411079 -2.49513626  3238390116
-2.49513626 0.93522835 14.41587257  1064266528
14.54542160 -7.90382719 -2.49513626  3237306171
-2.49513626 0.93522835 14.79310226  1064266529
15.13561344 -6.70469761 -2.49513626  3234771763
-2.49513626 0.93522835 15.53689575  1064266528
15.62714291 -5.46187973 -2.49513626  3231079090
-2.49513626 0.93522835 15.94716549  1064266528
16.01681900 -4.18345642 -2.49513626  3229296275
-2.49513626 0.93522835 16.14357376  1064266528
16.20064735 -3.40277481 -2.49513626  3222692437
-2.49513626 0.93522841 16.45387077  1064266529
16.48110771 -1.55330849 -2.49513626  3204682097
-1.25694978 0.96682858 8.28731441  1064799541
8.24215889 -0.10891455 -1.24241436  1049962156
-1.24620795 0.96710736 8.30048847  1064798520
8.34018517 0.56418240 -1.25995386  1061092581
-1.34512484 0.96454334 16.47169685  1064266529
16.44289970 1.91593075 -2.49513626  1074502041
-2.49513626 0.93522835 16.37244034  1064266529
16.33080101 2.71009922 -2.49513626  1077824992
-2.49513626 0.93522835 7.61858082  1064321500
8.48669338 -13.17214489 -2.49513626  3243280555
-2.49513626 0.93850493 9.31938171  1064321500
9.52160931 -12.44461155 -2.49513626  3242333935
-2.49513626 0.93850493 10.30517960  1064321500
10.86480522 -11.29094315 -2.49513626  3241267951
-2.49513626 0.93850493 11.22380924  1064321500
11.74022388 -10.37769508 -2.49513626  3239678397
-2.49513626 0.93850493 12.53912735  1064321500
12.68925285 -9.19305325 -2.49513626  3239037549
-2.49513626 0.93850493 12.97954082  1064321500
13.25628471 -8.35465908 -2.49513626  3238148936
-2.49513626 0.93850493 13.64538956  1064321500
13.88704967 -7.25804996 -2.49513626  3235974363
-2.49513626 0.93850493 14.11421680  1064321500
14.22229576 -6.57690716 -2.49513626  3234047754
-2.49513626 0.93850493 14.52415657  1064321500
14.87349224 -4.93038845 -2.49513626  3231060124
-2.49513626 0.93850493 15.22274780  1064321500
15.28075123 -3.46815109 -2.49513626  3225305776
-2.49513626 0.93850493 8.27675247  1064798447
8.16389465 -0.37184539 -1.30133760  3185296889
-1.29324532 0.96763974 8.11095333  1064810994
8.12638378 0.15514557 -1.29425240  1049818278
-1.29719758 0.96754247 15.59133720  1064321500
15.49738598 2.31526732 -2.49513626  1076112683
-2.49513626 0.93850493 15.41452312  1064321500
7.02023983 -13.11122131 -2.49513626  3243241510
-2.49513626 0.94146234 7.44003296  1064371117
8.05502701 -12.50216293 -2.49513626  3242443925
-2.49513626 0.94146234 8.65112019  1064371117
8.84536934 -11.95605659 -2.49513626  3241844821
-2.49513626 0.94146234 9.41407967  1064371117
9.78102684 -11.20354366 -2.49513626  3241024473
-2.49513626 0.94146234 10.31219006  1064371117
10.48392296 -10.54870701 -2.49513626  3240314378
-2.49513626 0.94146234 11.14308167  1064371117
11.30070496 -9.66859055 -2.49513626  3239559636
-2.49513626 0.94146234 11.90135002  1064371117
12.04384041 -8.72546768 -2.49513626  3238558243
-2.49513626 0.94146234 12.45232010  1064371117
12.58202744 -7.92971468 -2.49513626  3237426965
-2.49513626 0.94146234 13.06772900  1064371117
13.29025078 -6.67510843 -2.49513626  3234772219
-2.49513626 0.94146234 13.49890614  1064371117
13.59796524 -6.02355766 -2.49513626  3232930181
-2.49513626 0.94146234 13.87375450  1064371117
14.03956127 -4.90699863 -2.49513626  3231039334
-2.49513626 0.94146234 14.19071770  1064371117
14.26075363 -4.22123623 -2.49513626  3229573675
-2.49513626 0.94146234 14.55479813  1064371117
14.60227489 -2.82161307 -2.49513626  3222687302
-2.49513626 0.94146234 14.72179890  1064371117
8.13931751 -0.63467240 -1.36967623  3184976300
-1.33222055 0.96830612 7.93341064  1064821964
14.79831409 1.48248565 -2.49513626  1071403835
-2.49513626 0.94146234 14.63049412  1064371117
6.67954493 -12.47493267 -2.49513626  3242580167
-2.49513626 0.94414485 7.07896709  1064416122
7.47100496 -12.01766682 -2.49513626  3242087352
-2.49513626 0.94414485 8.23127937  1064416122
8.59872818 -11.23842144 -2.49513626  3241251264
-2.49513626 0.94414485 9.13297367  1064416122
9.30635071 -10.65983582 -2.49513626  3240632663
-2.49513626 0.94414485 9.64578056  1064416122
9.81173801 -10.19657040 -2.49513626  3239795091
-2.49513626 0.94414485 10.44956303  1064416122
10.60230732 -9.37183762 -2.49513626  3239076975
-2.49513626 0.94414485 11.04379368  1064416122
11.45935059 -8.30202103 -2.49513626  3238124180
-2.49513626 0.94414485 11.72150135  1064416122
11.84800625 -7.73724699 -2.49513626  3237048244
-2.49513626 0.94414485 12.09171486  1064416122
12.32281113 -6.95618534 -2.49513626  3234544836
-2.49513626 0.94414485 12.74619961  1064416122
12.93805122 -5.73123360 -2.49513626  3232804956
-2.49513626 0.94414485 13.11640739  1064416122
13.20045948 -5.09785748 -2.49513626  3231467952
-2.49513626 0.94414485 13.63177299  1064416122
13.69131565 -3.57605410 -2.49513626  3225036923
-2.49513626 0.94414485 13.89362431  1064416122
13.97308445 -2.23455358 -2.49513626  3209111379
-1.46189368 0.96688581 7.99247980  1064815720
7.86190796 -0.48543876 -1.38890588  3199605751
-1.37836909 0.96874791 7.77271891  1064831603
7.75692225 0.02278995 -1.36775994  1053701322
-1.38243675 0.96865714 7.88337755  1064823331
8.06912899 0.67692465 -1.42780244  1068797079
-2.49513626 0.94414485 13.92047596  1064416122
6.75040865 -11.68400478 -2.49513626  3241630644
-2.49513626 0.94658887 7.49065161  1064457126
7.67094851 -11.10137558 -2.49513626  3241123289
-2.49513626 0.94658893 8.37164688  1064457126
8.54147911 -10.44639111 -2.49513626  3240121251
-2.49513626 0.94658887 9.35634041  1064457127
9.81631184 -9.25872517 -2.49513626  3238637770
-2.49513626 0.94658887 10.53121471  1064457126
10.66610050 -8.26548767 -2.49513626  3238099311
-2.49513626 0.94658887 10.92748547  1064457126
11.05391598 -7.73918009 -2.49513626  3237079192
-2.49513626 0.94658887 11.41578865  1064457126
11.64220333 -6.82224846 -2.49513626  3233516555
-2.49513626 0.94658887 12.50763035  1064457126
12.80846024 -4.24585629 -2.49513626  3229694690
-2.49513626 0.94658887 13.15918064  1064457126
13.20569897 -2.77371693 -2.49513626  3223574597
-2.49513626 0.94658887 13.28839207  1064457126
13.35722160 -1.91536236 -2.49513626  3216888243
-2.49513626 0.94658887 8.08349228  1064808152
7.85243464 -0.61230248 -1.45639467  3203676171
-1.43115807 0.96900648 7.68251896  1064836492
7.63672972 0.02243676 -1.41210723  1049252710
-1.41787791 0.96928960 7.69795370  1064835325
7.92157316 0.66454571 -1.46991670  1071879639
-2.49513626 0.94658887 13.31179428  1064457126
13.27437973 2.42380762 -2.49513626  3241532952
-2.49513626 0.94882482 6.45011282  1064494639
6.98328638 -10.83871651 -2.49513626  3240859556
-2.49513626 0.94882482 7.66846371  1064494639
7.83486700 -10.24006462 -2.49513626  3239941047
-2.49513626 0.94882482 8.47962952  1064494639
8.63539696 -9.57465649 -2.49513626  3239048299
-2.49513626 0.94882482 9.66045856  1064494639
9.79711437 -8.38215828 -2.49513626  3238236346
-2.49513626 0.94882482 10.06272793  1064494639
10.56217384 -7.39489889 -2.49513626  3236373932
-2.49513626 0.94882482 10.90794945  1064494639
11.01755428 -6.69757414 -2.49513626  3234896297
-2.49513626 0.94882482 11.42697620  1064494639
11.61390018 -5.60012197 -2.49513626  3232574872
-2.49513626 0.94882482 11.87151241  1064494639
12.02780533 -4.64499331 -2.49513626  3229733568
-2.49513626 0.94882482 12.36331367  1064494639
12.42080498 -3.45943475 -2.49513626  3226503498
-2.49513626 0.94882482 12.52604866  1064494639
12.65939331 -2.44618487 -2.49513626  3222238016
-2.49513626 0.94882482 12.76301575  1064494639
12.79091167 -1.62378478 -2.49513626  3216334840
-2.49513626 0.94882482 7.90285158  1064819311
7.77846432 -0.60653460 -1.50984156  3194343641
-1.47923231 0.96933711 7.62744141  1064839824
7.62130499 0.02239150 -1.47486556  1041577319
-1.47724342 0.96937764 8.07820892  1064807353
12.80692196 1.49226737 -2.49513626  3241023763
-2.49513626 0.95087790 6.00113916  1064529084
6.34635496 -10.58615780 -2.49513626  3240605545
-2.49513626 0.95087790 6.68494654  1064529084
6.85164785 -10.26634598 -2.49513626  3240141470
-2.49513626 0.95087790 7.34085083  1064529084
7.65748453 -9.68017769 -2.49513626  3239499857
-2.49513626 0.95087790 8.11736298  1064529084
8.26647472 -9.16560555 -2.49513626  3239083666
-2.49513626 0.95087790 8.55817890  1064529084
8.70070267 -8.75446701 -2.49513626  3238494352
-2.49513626 0.95087790 9.75620651  1064529084
9.87703800 -7.40182972 -2.49513626  3236411675
-2.49513626 0.95087790 10.22394943  1064529084
10.33429432 -6.74872589 -2.49513626  3235026709
-2.49513626 0.95087790 10.64904118  1064529084
11.02970028 -5.53973246 -2.49513626  3232090006
-2.49513626 0.95087790 11.28507328  1064529084
11.36433887 -4.81609344 -2.49513626  3230550561
-2.49513626 0.95087790 11.65155888  1064529084
11.71580887 -3.88365412 -2.49513626  3228330322
-2.49513626 0.95087790 11.83512783  1064529084
11.94209766 -3.11917353 -2.49513626  3225108961
-2.49513626 0.95087790 12.03660774  1064529084
12.15479851 -2.14565134 -2.49513626  3220798188
-2.49513626 0.95087790 12.24445915  1064529084
12.26796341 -1.35645461 -2.49513626  3208469912
-1.59365129 0.96834075 7.74283409  1064829821
7.64032698 -0.34799820 -1.54612672  1041554602
-1.53958583 0.96939820 7.69822741  1064833172
7.78095770 0.65274960 -1.57847989  1062082374
-1.63264680 0.96757877 12.25978374  1064529084
12.20725060 1.82372963 -2.49513626  1073828408
-2.49513626 0.95087790 5.58668709  1064560820
6.41017389 -9.94919395 -2.49513626  3239936644
-2.49513626 0.95276958 6.72816038  1064560820
7.34274101 -9.28229141 -2.49513626  3239093522
-2.49513626 0.95276952 7.78371620  1064560820
8.06760883 -8.65970421 -2.49513626  3238416491
-2.49513626 0.95276952 8.47757435  1064560820
8.86763191 -7.83848715 -2.49513626  3236743931
-2.49513626 0.95276952 9.35519791  1064560820
9.47106266 -7.09759188 -2.49513626  3235787477
-2.49513626 0.95276952 9.80371666  1064560820
10.30664444 -5.81806850 -2.49513626  3233076165
-2.49513626 0.95276952 10.48917294  1064560820
10.57634830 -5.31203365 -2.49513626  3231643440
-2.49513626 0.95276952 10.89723110  1064560820
10.97039604 -4.44154024 -2.49513626  3230167271
-2.49513626 0.95276952 11.17264652  1064560820
11.23425388 -3.72402406 -2.49513626  3226926574
-2.49513626 0.95276952 11.40144157  1064560820
11.49805546 -2.80563235 -2.49513626  3223040836
-2.49513626 0.95276952 11.62044907  1064560820
11.65520000 -2.05745864 -2.49513626  3218540759
-2.49513626 0.95276952 11.74117565  1064560820
7.59550571 -0.10036936 -1.60142195  1049189538
-1.60529494 0.96935183 7.63115072  1064837250
7.67593956 0.51924860 -1.62193739  1059476951
-1.63856947 0.96872658 7.99411869  1064811153
11.75586987 1.36979806 -2.49513626  1071634340
-2.49513626 0.95276958 11.64291000  1064560820
5.52651596 -9.93257999 -2.49513626  3239934193
-2.49513626 0.95451802 5.84442759  1064590155
6.76027107 -9.13768387 -2.49513626  3238717993
-2.49513626 0.95451802 7.61268091  1064590155
7.74801683 -8.31665707 -2.49513626  3238067789
-2.49513626 0.95451802 8.26877689  1064590155
8.39365673 -7.66453171 -2.49513626  3236722252
-2.49513626 0.95451802 8.75504112  1064590155
9.20476723 -6.66863155 -2.49513626  3234897025
-2.49513626 0.95451802 9.71272278  1064590155
9.98730278 -5.42699575 -2.49513626  3232266941
-2.49513626 0.95451802 10.15737152  1064590155
10.31684017 -4.77088261 -2.49513626  3230526739
-2.49513626 0.95451802 10.53580952  1064590155
10.73004723 -3.75028372 -2.49513626  3226368417
-2.49513626 0.95451802 10.94978142  1064590155
11.08464241 -2.51579380 -2.49513626  3221881800
-2.49513626 0.95451802 11.22393894  1064590155
11.25146484 -1.61340690 -2.49513626  3214927085
-2.49513626 0.95451802 7.80546379  1064823107
7.68902683 -0.59956044 -1.69298553  3184338357
-1.66415906 0.96943074 7.57598305  1064840685
7.59205294 0.26765892 -1.66761100  1061942030
-1.75443864 0.96779937 11.24179173  1064590155
11.21319962 1.86083245 -2.49513626  1073916697
-2.49513626 0.95451802 5.16020870  1064617347
5.31519079 -9.55277538 -2.49513626  3239445656
-2.49513626 0.95613879 5.77164412  1064617347
5.92083073 -9.18968964 -2.49513626  3239148644
-2.49513626 0.95613879 6.50176430  1064617348
6.64285088 -8.68211555 -2.49513626  3238604259
-2.49513626 0.95613879 7.18952179  1064617347
7.32158470 -8.11794281 -2.49513626  3237745267
-2.49513626 0.95613879 7.83041477  1064617347
7.95259237 -7.50086832 -2.49513626  3236684532
-2.49513626 0.95613879 8.19069195  1064617347
8.30656528 -7.10687971 -2.49513626  3235559284
-2.49513626 0.95613879 8.64103413  1064617347
9.05531979 -6.12437344 -2.49513626  3233760836
-2.49513626 0.95613879 9.34132576  1064617347
9.43182278 -5.52697992 -2.49513626  3232495416
-2.49513626 0.95613879 9.68844700  1064617347
9.84693336 -4.74810457 -2.49513626  3230848152
-2.49513626 0.95613879 9.99514771  1064617347
10.48233604 -3.10281038 -2.49513626  3224424226
-2.49513626 0.95613879 10.69847107  1064617347
10.73336887 -2.07402039 -2.49513626  3220389940
-2.49513626 0.95613879 10.79475403  1064617347
7.78759623 -0.73396367 -1.78534329  3203442410
-1.74075425 0.96919298 7.58611488  1064838546
7.56088829 0.02221364 -1.72572935  1041494705
-1.72760737 0.96942204 7.57455730  1064839528
7.63151360 0.51624334 -1.74582255  1059394844
-1.76063073 0.96884674 7.92448568  1064813866
10.85845089 1.26523018 -2.49513626  1069047883
-2.49513626 0.95613879 5.70196867  1064642622
5.84415770 -8.75674820 -2.49513626  3238696026
-2.49513626 0.95764530 6.12392378  1064642622
6.39729977 -8.36118317 -2.49513626  3238271933
-2.49513626 0.95764530 6.79476929  1064642622
6.92375898 -7.93072367 -2.49513626  3237620723
-2.49513626 0.95764530 7.29975653  1064642622
7.42132235 -7.46718121 -2.49513626  3236631869
-2.49513626 0.95764530 7.65862083  1064642622
7.88792515 -6.97248030 -2.49513626  3235578743
-2.49513626 0.95764530 8.10900593  1064642622
8.21638584 -6.58223867 -2.49513626  3233888199
-2.49513626 0.95764530 8.72058678  1064642622
8.90652275 -5.61325932 -2.49513626  3231766880
-2.49513626 0.95764530 9.33031559  1064642622
9.62567902 -4.26393414 -2.49513626  3229840402
-2.49513626 0.95764530 9.75837040  1064642622
9.88087940 -3.63360429 -2.49513626  3226052114
-2.49513626 0.95764530 10.09485149  1064642622
10.22773361 -2.49566150 -2.49513626  3222610232
-2.49513626 0.95764530 10.36751556  1064642622
10.42121601 -1.49435329 -2.49513626  3206074577
-1.81986344 0.96892768 7.60105562  1064836125
7.56140137 -0.22210288 -1.79285717  3184291726
-1.79050899 0.96942115 7.54958963  1064840531
7.56406498 0.26667228 -1.79382932  1053276708
-1.79977441 0.96926534 7.67574978  1064830299
10.41225719 1.55556262 -2.49513626  1072827768
-2.49513626 0.95764530 4.79163790  1064666174
5.07816648 -8.78958988 -2.49513626  3238653846
-2.49513626 0.95904911 5.49793339  1064666174
5.77066565 -8.35129261 -2.49513626  3237706075
-2.49513626 0.95904911 6.91949558  1064666174
7.03854656 -7.31460905 -2.49513626  3236080576
-2.49513626 0.95904911 7.38456964  1064666174
7.49609613 -6.84494066 -2.49513626  3235065136
-2.49513626 0.95904911 7.81883812  1064666174
8.22047806 -5.95553780 -2.49513626  3232865483
-2.49513626 0.95904911 8.58781815  1064666174
8.67411137 -5.27299404 -2.49513626  3231988500
-2.49513626 0.95904911 8.91933060  1064666174
9.07121277 -4.55607033 -2.49513626  3230471752
-2.49513626 0.95904911 9.21362782  1064666174
9.28124046 -4.11135674 -2.49513626  3229450186
-2.49513626 0.95904911 9.40918350  1064666174
9.52730751 -3.50358248 -2.49513626  3226884656
-2.49513626 0.95904911 9.63549137  1064666174
9.68582153 -3.03801608 -2.49513626  3224921446
-2.49513626 0.95904911 9.77888775  1064666174
9.82159996 -2.56531763 -2.49513626  3221588695
-2.49513626 0.95904911 9.99653149  1064666174
10.02372932 -1.60297883 -2.49513626  3216535236
-2.49513626 0.95904911 10.07027245  1064666174
10.08960438 -1.11559570 -2.49513626  3208428478
-1.93125427 0.96815455 7.65887260  1064830644
7.57543755 -0.34504268 -1.86397147  1066820044
-2.49513626 0.95904911 9.98599052  1064666174
4.90203762 -8.48473454 -2.49513626  3238340314
-2.49513626 0.96036029 5.30724525  1064688172
5.43959045 -8.15055752 -2.49513626  3237745840
-2.49513626 0.96036029 5.95444012  1064688172
6.07935333 -7.68519211 -2.49513626  3237134471
-2.49513626 0.96036029 6.32439518  1064688171
6.90757561 -6.95026064 -2.49513626  3235565350
-2.49513626 0.96036029 7.23610497  1064688172
7.44573450 -6.37037992 -2.49513626  3233813134
-2.49513626 0.96036023 8.11689568  1064688172
8.20449829 -5.35788393 -2.49513626  3231900201
-2.49513626 0.96036029 8.75659084  1064688172
8.95933247 -3.96876097 -2.49513626  3228260695
-2.49513626 0.96036029 9.39602661  1064688172
9.48095131 -2.47634363 -2.49513626  3222579804
-2.49513626 0.96036029 9.55598450  1064688171
9.62104511 -1.85908544 -2.49513626  3217428637
-2.49513626 0.96036029 9.69979954  1064688171
9.73966122 -1.07690322 -2.49513626  3206096490
-1.95949137 0.96873534 7.56370449  1064837300
7.56720877 -0.09999547 -1.92701638  1018572533
-1.92743444 0.96923888 7.56592512  1064837278
7.58785200 0.39029923 -1.93465877  1059412580
-1.96740377 0.96861106 7.90542746  1064811946
9.73316574 1.13411224 -2.49513626  1069110291
-2.49513626 0.96036029 9.63963985  1064688172
4.73704433 -8.19915676 -2.49513626  3238130174
-2.49513626 0.96158755 5.12861395  1064708762
5.25650501 -7.87622499 -2.49513626  3237562917
-2.49513626 0.96158755 5.50814009  1064708762
5.63181829 -7.61238432 -2.49513626  3236996962
-2.49513626 0.96158755 5.87473536  1064708762
5.99391365 -7.33067417 -2.49513626  3236393984
-2.49513626 0.96158755 6.22754860  1064708762
6.45468426 -6.92840576 -2.49513626  3235310633
-2.49513626 0.96158755 6.88851786  1064708762
6.99255133 -6.38513660 -2.49513626  3234377487
-2.49513626 0.96158755 7.19512606  1064708762
7.29361439 -6.03895426 -2.49513626  3233641391
-2.49513626 0.96158755 7.48484945  1064708762
7.57755089 -5.67859888 -2.49513626  3232876155
-2.49513626 0.96158755 7.84369802  1064708762
8.01093960 -5.04882717 -2.49513626  3231265501
-2.49513626 0.96158755 8.24607754  1064708762
8.32018089 -4.52109861 -2.49513626  3230423853
-2.49513626 0.96158755 8.46186161  1064708762
8.52939701 -4.11280060 -2.49513626  3228334197
-2.49513626 0.96158755 8.88731861  1064708762
8.98823929 -2.97949648 -2.49513626  3224109682
-2.49513626 0.96158755 9.12199783  1064708762
9.16184616 -2.39299750 -2.49513626  3222251889
-2.49513626 0.96158755 9.26699257  1064708762
9.29722214 -1.79651213 -2.49513626  3216991740
-2.49513626 0.96158755 9.41184330  1064708762
7.86059570 -0.74084377 -2.08044720  3206124716
-2.03344488 0.96858227 7.58575201  1064834413
7.57979536 -0.10016182 -1.99745190  1049148013
-1.99717569 0.96913391 7.59729052  1064833491
7.64393663 0.51708370 -2.01878190  1059444505
-2.04192686 0.96845329 9.40556622  1064708762
9.38664246 1.24770677 -2.49513626  1068701490
-2.49513626 0.96158755 9.34144497  1064708762
9.31519032 1.70088577 -2.49513626  3238006891
-2.49513626 0.96273869 4.58214092  1064728075
4.70963669 -7.85599899 -2.49513626  3237202976
-2.49513626 0.96273869 5.20699692  1064728075
5.56586695 -7.27451134 -2.49513626  3236290726
-2.49513626 0.96273869 6.02390385  1064728075
6.13455963 -6.80180693 -2.49513626  3235280256
-2.49513626 0.96273869 6.45680285  1064728074
6.66325808 -6.28477144 -2.49513626  3234178192
-2.49513626 0.96273869 7.05510712  1064728075
7.14853144 -5.72676945 -2.49513626  3231986894
-2.49513626 0.96273869 7.74897575  1064728075
7.82684183 -4.75793648 -2.49513626  3230937186
-2.49513626 0.96273869 7.97642612  1064728075
8.04810810 -4.37325716 -2.49513626  3229523110
-2.49513626 0.96273869 8.31365967  1064728075
8.37466431 -3.70976686 -2.49513626  3226677181
-2.49513626 0.96273869 8.59669876  1064728075
8.69431496 -2.88206387 -2.49513626  3224334579
-2.49513626 0.96273869 8.78286076  1064728075
8.89847183 -2.17131042 -2.49513626  3221340025
-2.49513626 0.96273869 8.96395683  1064728075
8.99319744 -1.73776543 -2.49513626  3217805359
-2.49513626 0.96273869 9.06680965  1064728075
7.71684170 -0.60172915 -2.10851145  3184358473
-2.06822872 0.96901399 7.58866310  1064833606
7.59349489 0.14497192 -2.06890655  1049166928
-2.06904912 0.96900189 7.61616850  1064831076
7.66733313 0.51866633 -2.09341741  1059485421
-2.11890244 0.96826696 9.09799767  1064728075
9.05901241 1.35339212 -2.49513626  1069543508
-2.49513626 0.96273869 9.01057529  1064728075
4.18609238 -7.81808043 -2.49513626  3237329086
-2.49513626 0.96382040 4.55985165  1064746224
5.27439880 -7.12926674 -2.49513626  3235996033
-2.49513626 0.96382046 6.04504204  1064746224
6.14904594 -6.39022207 -2.49513626  3234416724
-2.49513626 0.96382046 6.64449835  1064746224
6.73849249 -5.76527882 -2.49513626  3232136749
-2.49513626 0.96382046 7.34590244  1064746223
7.42518425 -4.84895611 -2.49513626  3231141652
-2.49513626 0.96382046 7.65133286  1064746223
7.72274542 -4.35946512 -2.49513626  3229840082
-2.49513626 0.96382046 8.16526985  1064746224
8.27276802 -3.19484282 -2.49513626  3223968903
-2.49513626 0.96382046 8.50353622  1064746223
8.58038998 -2.24112463 -2.49513626  3220913711
-2.49513626 0.96382046 8.67886734  1064746224
8.73321724 -1.54164946 -2.49513626  3212410921
-2.49513626 0.96382046 8.33308506  1064779735
7.74010706 -0.60354418 -2.18433857  3203546546
-2.16000080 0.96860272 7.60021114  1064831605
7.59713840 0.02232045 -2.13751221  1053370117
-2.15182400 0.96871972 7.69061136  1064824358
8.33131027 0.69891876 -2.35229945  1062583532
-2.35661554 0.96579421 8.80864620  1064746224
8.72400475 1.59293938 -2.49513626  3236974027
-2.49513626 0.96483886 4.29904175  1064763310
4.53712654 -7.29830408 -2.49513626  3236375453
-2.49513626 0.96483886 4.77047157  1064763310
4.99883890 -6.99016142 -2.49513626  3235713680
-2.49513626 0.96483886 5.22199011  1064763310
5.43969727 -6.65285444 -2.49513626  3234608592
-2.49513626 0.96483886 5.85786247  1064763310
5.95864630 -6.19235849 -2.49513626  3234008274
-2.49513626 0.96483886 6.25158119  1064763310
6.34599733 -5.79474545 -2.49513626  3233161409
-2.49513626 0.96483886 6.52984095  1064763310
6.61922169 -5.48057175 -2.49513626  3232493367
-2.49513626 0.96483886 6.87690496  1064763310
7.19527006 -4.69881296 -2.49513626  3230337167
-2.49513626 0.96483886 7.55087090  1064763310
7.61615324 -3.98057342 -2.49513626  3227435417
-2.49513626 0.96483886 7.91244173  1064763310
7.96556520 -3.22498608 -2.49513626  3225277336
-2.49513626 0.96483886 8.15715218  1064763310
8.24023056 -2.43913937 -2.49513626  3222507823
-2.49513626 0.96483886 8.31470585  1064763310
8.38050938 -1.90205824 -2.49513626  3219266396
-2.49513626 0.96483886 8.48582363  1064763310
8.50663280 -1.21981120 -2.49513626  3213526935
-2.49513626 0.96483886 8.54159164  1064763310
8.55573368 -0.80635905 -2.49513626  3200791294
-2.49513626 0.96483886 8.58994198  1064763310
8.59289551 -0.11354918 -2.49513626  1020188339
-2.49513626 0.96483886 8.59208012  1064763310
8.58830929 0.30278200 -2.49513626  1055000036
-2.49513626 0.96483886 8.47094536  1064769578
8.55084610 0.85661805 -2.49513626  1065262711
-2.49513626 0.96483886 8.49932098  1064763310
8.47770405 1.40687633 -2.49513626  1069913392
-2.49513626 0.96483886 3.93407226  1064779423
4.05222416 -7.28290033 -2.49513626  3236359576
-2.49513626 0.96579927 4.40021801  1064779423
4.51395941 -7.00609159 -2.49513626  3235763509
-2.49513626 0.96579927 4.73788166  1064779423
4.84800148 -6.77923489 -2.49513626  3235276505
-2.49513626 0.96579927 5.48119020  1064779423
5.58187628 -6.18900824 -2.49513626  3233819928
-2.49513626 0.96579927 5.87508535  1064779423
5.96979713 -5.81572723 -2.49513626  3233011238
-2.49513626 0.96579927 6.24447203  1064779423
6.41948938 -5.31519747 -2.49513626  3231479844
-2.49513626 0.96579927 6.82733679  1064779423
6.90364838 -4.66913605 -2.49513626  3230544657
-2.49513626 0.96579927 7.12169409  1064779423
7.25780296 -4.09700632 -2.49513626  3228526346
-2.49513626 0.96579927 7.56465244  1064779423
7.62016344 -3.37554121 -2.49513626  3225955279
-2.49513626 0.96579927 7.95233583  1064779423
7.99158287 -2.36553907 -2.49513626  3222216004
-2.49513626 0.96579927 8.09677887  1064779423
8.12763214 -1.84466422 -2.49513626  3214372011
-2.49513626 0.96579927 8.26798058  1064779423
8.28385258 -0.91593605 -2.49513626  3209179892
-2.49513626 0.96579927 8.30911255  1064779423
8.31849480 -0.51363093 -2.49513626  3200395398
-2.49513626 0.96579927 8.33360863  1064779423
8.30516338 0.69672555 -2.49513626  1064759201
-2.49513626 0.96579927 8.22189045  1064779423
3.81828237 -7.13114405 -2.49513626  3235914144
-2.49513626 0.96670640 4.15920115  1064794642
4.27071047 -6.86975384 -2.49513626  3235024116
-2.49513626 0.96670640 4.91535950  1064794642
5.41758823 -6.00685024 -2.49513626  3233449243
-2.49513626 0.96670640 5.70216703  1064794642
5.79409027 -5.64455414 -2.49513626  3232865180
-2.49513626 0.96670640 5.97336578  1064794642
6.14641523 -5.25871515 -2.49513626  3232044173
-2.49513626 0.96670640 6.31305170  1064794642
6.39391088 -4.95483685 -2.49513626  3231398603
-2.49513626 0.96670640 6.62639046  1064794642
6.77277136 -4.42290354 -2.49513626  3230270370
-2.49513626 0.96670640 6.91208363  1064794642
6.97904778 -4.08967161 -2.49513626  3229035829
-2.49513626 0.96670640 7.22851849  1064794642
7.28621197 -3.51334810 -2.49513626  3227077413
-2.49513626 0.96670640 7.39588261  1064794642
7.44783068 -3.15631580 -2.49513626  3225059604
-2.49513626 0.96670640 7.59196568  1064794642
7.67817307 -2.54522514 -2.49513626  3222466628
-2.49513626 0.96670640 7.79243803  1064794642
7.82647562 -2.04420853 -2.49513626  3220533747
-2.49513626 0.96670640 7.88841391  1064794642
7.94212246 -1.53466523 -2.49513626  3216244256
-2.49513626 0.96670640 7.98754501  1064794642
8.00713253 -1.14818513 -2.49513626  3210974219
-2.49513626 0.96670640 8.07365990  1064794642
8.08065796 -0.36805412 -2.49513626  3195220710
-2.49513626 0.96670640 8.08833027  1064794642
8.08401394 0.28500333 -2.49513626  1057735435
-2.49513626 0.96670640 8.06072140  1064794642
8.04874802 0.80631840 -2.49513626  1064282883
-2.49513626 0.96670640 8.01850796  1064794642
7.97990036 1.32426584 -2.49513626  3235750849
-2.49513626 0.96756452 3.81994891  1064809039
3.93033099 -6.80284977 -2.49513626  3235357095
-2.49513626 0.96756452 4.14799595  1064809039
4.57010984 -6.39064503 -2.49513626  3234311097
-2.49513626 0.96756452 4.87427425  1064809039
4.97315741 -6.08226681 -2.49513626  3233810803
-2.49513626 0.96756452 5.16700506  1064809038
5.44759893 -5.66126347 -2.49513626  3232722826
-2.49513626 0.96756446 5.71541071  1064809038
6.13165283 -4.91213655 -2.49513626  3231106286
-2.49513626 0.96756452 6.50792599  1064809038
6.57816410 -4.29581642 -2.49513626  3230010475
-2.49513626 0.96756446 6.96294928  1064809038
7.07685089 -3.41239643 -2.49513626  3226668225
-2.49513626 0.96756452 7.18336964  1064809039
7.23382568 -3.06562209 -2.49513626  3225203316
-2.49513626 0.96756452 7.32906055  1064809039
7.37381744 -2.71165562 -2.49513626  3223205562
-2.49513626 0.96756452 7.60159063  1064809038
7.63266277 -1.86244071 -2.49513626  3217995506
-2.49513626 0.96756452 7.73698235  1064809038
7.75803089 -1.24065185 -2.49513626  3213803175
-2.49513626 0.96756452 7.79405355  1064809039
7.83282995 -0.61077374 -2.49513626  3199666029
-2.49513626 0.96756446 7.85657215  1064809039
7.85172606 0.27681404 -2.49513626  1057472262
-2.49513626 0.96756452 7.82910585  1064809038
7.81747675 0.78314984 -2.49513626  1065648680
-2.49513626 0.96756446 7.77036810  1064809039
7.75060654 1.28621483 -2.49513626  1068802831
-2.49513626 0.96756446 3.60444689  1064822677
3.71270347 -6.67268944 -2.49513626  3235091545
-2.49513626 0.96837741 4.13575077  1064822677
4.23888206 -6.35144234 -2.49513626  3234400102
-2.49513626 0.96837741 4.54153728  1064822677
4.64008760 -6.06453133 -2.49513626  3233457465
-2.49513626 0.96837741 5.11418867  1064822677
5.29465675 -5.50232458 -2.49513626  3232583846
-2.49513626 0.96837741 5.46960735  1064822677
5.55494928 -5.23941708 -2.49513626  3231636185
-2.49513626 0.96837741 5.88162088  1064822677
5.95950556 -4.77422857 -2.49513626  3230620666
-2.49513626 0.96837741 6.25529718  1064822677
6.32521391 -4.27792454 -2.49513626  3229981523
-2.49513626 0.96837741 6.46007633  1064822677
6.58820248 -3.86064029 -2.49513626  3228581161
-2.49513626 0.96837741 6.87816572  1064822677
6.93083525 -3.20507169 -2.49513626  3225808654
-2.49513626 0.96837741 7.16679716  1064822677
7.20842695 -2.51943421 -2.49513626  3222914461
-2.49513626 0.96837741 7.32199526  1064822677
7.41837692 -1.81015265 -2.49513626  3218625892
-2.49513626 0.96837741 7.47296810  1064822677
7.49734497 -1.44872022 -2.49513626  3214563411
-2.49513626 0.96837741 7.60234165  1064822677
7.61292076 -0.59362602 -2.49513626  3203461606
-2.49513626 0.96837741 7.62812138  1064822677
7.63273907 -0.22419837 -2.49513626  3184435863
-2.49513626 0.96837741 7.63599777  1064822677
7.63463974 0.14575665 -2.49513626  1049214955
-2.49513626 0.96837741 7.61861992  1064822677
7.60930157 0.63834882 -2.49513626  1061346194
-2.49513626 0.96837741 7.58471584  1064822677
7.55221558 1.12828040 -2.49513626  1068470473
-2.49513626 0.96837741 3.71511555  1064835614
3.92086196 -6.30699682 -2.49513626  3234179739
-2.49513626 0.96914852 4.41685963  1064835614
4.51270485 -5.89804173 -2.49513626  3232957765
-2.49513626 0.96914852 5.06220675  1064835614
5.23505592 -5.26740599 -2.49513626  3231911678
-2.49513626 0.96914852 5.48404121  1064835614
5.56420088 -4.91843939 -2.49513626  3231350379
-2.49513626 0.96914852 5.72015429  1064835614
5.87013435 -4.54894686 -2.49513626  3230565240
-2.49513626 0.96914852 6.01398706  1064835614
6.08357000 -4.25929070 -2.49513626  3229950633
-2.49513626 0.96914852 6.21795988  1064835614
