# .PCD v0.7 - Point Cloud Data file format
VERSION 0.7
FIELDS x y z intensity
SIZE 4 4 4 4
TYPE F F F F
COUNT 1 1 1 1
WIDTH 1015
HEIGHT 1
VIEWPOINT 0 0 0 1 0 0 0
POINTS 1015
DATA ascii
51.29560089 13.52386475 -2.64753628  1097174153
-2.64753628 0.80859447 50.32042313  1062141964
50.04393387 17.59937096 -2.64753628  1100166812
-2.64753628 0.80859441 49.12902069  1062160815
46.91230392 19.08655930 -2.52765822  1101589975
-2.50275636 0.81804365 47.37310791  1062141964
15.95237541 -39.75898361 -2.49513626  3256745297
-2.49513626 0.84227395 17.22238922  1062707012
17.85080147 -38.94360352 -2.49513626  3256444404
-2.49513626 0.84227395 19.70772362  1062707012
20.31670952 -37.71586227 -2.49513626  3256191381
-2.49513626 0.84227395 21.51880074  1062707012
22.11156654 -36.69242096 -2.49513626  3255915559
-2.49513626 0.84227395 23.27980995  1062707013
24.42397690 -35.19552231 -2.49513626  3255298162
-2.49513626 0.84227395 26.63539696  1062707012
27.17119026 -33.12866211 -2.49513626  3254958010
-2.49513626 0.84227395 28.22218895  1062707012
28.73672295 -31.77194023 -2.49513626  3254415753
-2.49513626 0.84227496 30.23516273  1062707012
33.87831879 -26.22051239 -2.49513626  3251171629
-2.49513626 0.84227395 35.49338150  1062707013
36.24629211 -22.83553505 -2.49513626  3249668010
-2.49513626 0.84227395 37.30516434  1062707012
37.63869858 -20.46011543 -2.49513626  3248089019
-2.49513626 0.84227401 38.58161545  1062707014
41.25577927 -11.54194069 -2.49513626  3238911472
-2.49513626 0.84227395 42.17564774  1062707013
42.29101562 -6.83558989 -2.49513626  3234133056
-2.49513626 0.84227401 42.70335388  1062707012
42.75276184 -2.73047328 -2.49513626  1079877949
-2.49513626 0.84227395 42.56628418  1062707012
42.28370667 6.88069010 -2.49513626  1092045435
-2.64753628 0.83348954 44.30437469  1062559634
43.76254272 12.29359913 -2.64753628  1095757322
-2.64753628 0.83348942 43.34466553  1062559635
43.11891174 14.38929176 -2.64753628  1099500564
-2.64753628 0.83348930 41.53249741  1062559634
41.03512955 19.05034447 -2.63501740  1100512894
-2.54866409 0.83917809 38.37354660  1062699607
13.95348740 -34.77703857 -2.49513626  3255447903
-2.49513626 0.86051911 16.15966606  1063013115
16.70112228 -33.54421997 -2.49513626  3255113189
-2.49513626 0.86051911 18.29904938  1063013115
19.85441780 -31.77962875 -2.49513626  3253774658
-2.49513626 0.86051911 22.82301903  1063013115
24.22941399 -28.58457756 -2.49513626  3252783068
-2.49513626 0.86051911 25.57945061  1063013115
26.44658661 -26.54657364 -2.49513626  3251696005
-2.49513626 0.86051911 27.69576645  1063013115
29.26067543 -23.40844727 -2.49513626  3249775895
-2.49513626 0.86051911 30.35527802  1063013115
31.04593468 -20.98313904 -2.49513626  3248474900
-2.49513626 0.86051911 32.33028412  1063013115
32.92264938 -17.89529228 -2.49513626  3247106251
-2.49513626 0.86051911 33.48097229  1063013115
33.74719238 -16.28709984 -2.49513626  3244966318
-2.49513626 0.86051911 34.72414780  1063013115
35.15902328 -12.96092987 -2.49513626  3242012303
-2.49513626 0.86051911 35.91929626  1063013115
36.53106689 -8.34407616 -2.49513626  3236252119
-2.49513626 0.86051905 36.89089584  1063013114
36.99180222 -5.97906685 -2.49513626  3232515621
-2.49513626 0.86051911 37.16490555  1063013115
37.23706055 -4.18854380 -2.49513626  3225374455
-2.49513626 0.86051911 37.39570618  1063013115
37.42926788 -1.78674710 -2.49513626  1059018552
-2.49513626 0.86051911 37.39312744  1063013115
37.29573059 3.62908888 -2.49513626  1082609058
-2.49513626 0.86051911 36.88385773  1063013115
36.77278519 7.20447969 -2.49513626  1090920669
-2.49513626 0.86051911 38.60486603  1062881256
38.27893829 10.75316620 -2.64753628  1094690573
-2.64753628 0.85265970 37.71595764  1062881257
37.50873184 13.19100761 -2.64753628  1096592754
-2.64753628 0.85265976 36.82904434  1062881260
36.58344650 15.57431221 -2.64753628  3253986260
-2.49513626 0.87497962 15.31690121  1063255722
15.79021835 -29.31290054 -2.49513626  3253096985
-2.49513626 0.87497962 17.18518829  1063255722
18.54017258 -27.65572929 -2.49513626  3252182247
-2.49513626 0.87497962 20.27918625  1063255722
21.93438339 -25.04915237 -2.49513626  3250949072
-2.49513626 0.87497962 23.11661148  1063255722
24.96621513 -22.02873993 -2.49513626  3249340155
-2.49513626 0.87497962 25.66155434  1063255722
25.99930573 -20.79936028 -2.49513626  3248465422
-2.49513626 0.87497258 26.97191048  1063255722
27.28227234 -19.08546448 -2.49513626  3247543929
-2.49513626 0.87497962 28.17074585  1063255722
28.45244598 -17.29265594 -2.49513626  3246828018
-2.49513626 0.87497962 29.50498009  1063255722
29.98575211 -14.47175598 -2.49513626  3243255172
-2.49513626 0.87497962 30.85382271  1063255722
31.42133904 -11.01257133 -2.49513626  3240630409
-2.49513626 0.87497962 32.33595657  1063255722
32.45934677 -7.41405058 -2.49513626  3234577264
-2.49513626 0.87497962 33.02253342  1063255723
33.08665085 -3.72169232 -2.49513626  3226213606
-2.49513626 0.87497962 33.27751541  1063255722
33.22533035 2.15751410 -2.49513626  1076641808
-2.49513626 0.87497962 33.13879013  1063255722
32.77281570 5.87534428 -2.49513626  1092149190
-2.64753628 0.86787117 33.85439682  1063136461
33.68763351 10.64319420 -2.64753628  1093857093
-2.64753628 0.86787117 33.13529587  1063136461
32.93397903 12.78620052 -2.64753628  1096641054
-2.64753628 0.86787117 32.04417038  1063136462
11.15351868 -27.79851723 -2.49513626  3252481222
-2.49513626 0.88672054 12.04147530  1063452702
13.34979630 -26.81308556 -2.49513626  3251946126
-2.49513626 0.88672054 16.67882347  1063452702
17.07665062 -24.60785103 -2.49513626  3250758917
-2.49513626 0.88671923 18.62282372  1063452702
18.99757957 -23.15708351 -2.49513626  3249981967
-2.49513626 0.88672054 19.73227310  1063452702
20.09201622 -22.21417427 -2.49513626  3249478758
-2.49513626 0.88671899 21.13969612  1063452702
22.13821030 -20.17568970 -2.49513626  3247812742
-2.49513626 0.88672054 23.97857285  1063452702
24.26405525 -17.56173325 -2.49513626  3247004383
-2.49513626 0.88672054 24.81611824  1063452702
25.08256340 -16.37143326 -2.49513626  3246355701
-2.49513626 0.88672054 25.84274292  1063452702
26.08287048 -14.72558212 -2.49513626  3244613268
-2.49513626 0.88672054 26.54281616  1063452702
26.76252937 -13.45086670 -2.49513626  3242808824
-2.49513626 0.88672054 27.75624275  1063452702
28.10384941 -10.36013317 -2.49513626  3240002280
-2.49513626 0.88672054 28.42240143  1063452702
28.57067490 -8.99305725 -2.49513626  3238561122
-2.49513626 0.88672054 28.84503365  1063452702
28.97104836 -7.60506964 -2.49513626  3235212875
-2.49513626 0.88672054 29.30402946  1063452702
29.39991379 -5.72744846 -2.49513626  3232244002
-2.49513626 0.88672054 29.56884956  1063452702
29.70722008 -3.82615185 -2.49513626  3226879609
-2.49513626 0.88672054 29.81488228  1063452702
29.85715294 -2.38936949 -2.49513626  1015208061
-2.49513626 0.88672054 29.94847107  1063452702
29.88965797 1.94090998 -2.49513626  1075508519
-2.49513626 0.88672054 29.56373978  1063452702
29.48257446 5.28548384 -2.49513626  1085818896
-2.49513626 0.88672054 29.19344711  1063452702
29.08193970 7.16932487 -2.49513626  1091658007
-2.64753628 0.88023299 29.43880844  1063343859
29.24244499 12.44909859 -2.64753628  1096647498
-2.64753628 0.88023299 10.13464737  1063615791
10.94150162 -24.92024803 -2.49513626  3250974159
-2.49513626 0.89644140 12.52043343  1063615791
12.90733528 -23.96113205 -2.49513626  3250104340
-2.49513626 0.89644140 15.51671124  1063615791
16.22755814 -21.84952164 -2.49513626  3249319867
-2.49513626 0.89644140 19.20859337  1063615791
19.51611328 -18.96988297 -2.49513626  3247443470
-2.49513626 0.89644140 20.69490242  1063615791
20.97642136 -17.34142113 -2.49513626  3246916600
-2.49513626 0.89644140 21.78814316  1063615791
22.30124283 -15.60095882 -2.49513626  3245594798
-2.49513626 0.89644140 23.48201942  1063615791
23.70020676 -13.38040829 -2.49513626  3242429920
-2.49513626 0.89644140 24.51113892  1063615791
24.69815445 -11.43399239 -2.49513626  3241185573
-2.49513626 0.89644140 25.05299568  1063615791
25.68462372 -9.00196362 -2.49513626  3237484938
-2.49513626 0.89644140 26.32456017  1063615791
26.43225479 -6.48622894 -2.49513626  3233935132
-2.49513626 0.89644140 26.62712669  1063615791
26.79446411 -4.77408981 -2.49513626  3229237305
-2.49513626 0.89644140 26.99348259  1063615791
27.04589081 -3.04220843 -2.49513626  3218999527
-2.49513626 0.89644140 27.20284081  1063615791
27.21316338 -0.42305920 -2.49513626  1063499631
-2.49513626 0.89644140 27.18409157  1063615791
27.15925026 1.76360834 -2.49513626  1074580808
-2.49513626 0.89644140 26.98975945  1063615791
26.86310959 4.37134075 -2.49513626  1083813712
-2.49513626 0.89644140 26.70867920  1063615791
26.62110138 5.66145563 -2.49513626  1086510823
-2.49513626 0.89644140 26.42531967  1063615791
26.31717491 6.93840981 -2.49513626  1090727942
-2.49513626 0.89644140 27.08565140  1063515701
26.92109489 10.45177555 -2.64753628  1093991797
-2.64753628 0.89047557 26.38585854  1063515701
25.78924561 12.99615097 -2.64753628  3250135714
-2.49513626 0.90462142 10.02438164  1063753029
11.47096634 -22.13998985 -2.49513626  3249411062
-2.49513626 0.90462142 12.87012863  1063753031
13.55012512 -20.93218422 -2.49513626  3248861546
-2.49513626 0.90462142 14.21609592  1063753029
14.86735916 -20.01808929 -2.49513626  3248241902
-2.49513626 0.90462142 16.12313843  1063753029
16.72632599 -18.49299622 -2.49513626  3247556116
-2.49513626 0.90462142 18.15736961  1063753029
19.21817207 -15.88785934 -2.49513626  3245947567
-2.49513626 0.90462142 20.19953156  1063753008
20.43194389 -14.29328060 -2.49513626  3244255292
-2.49513626 0.90462142 21.09732819  1063753029
21.30829239 -12.95063114 -2.49513626  3242832827
-2.49513626 0.90462142 22.45660782  1063753029
22.79344749 -10.11044407 -2.49513626  3239830019
-2.49513626 0.90462142 23.25440598  1063753029
23.53170395 -8.24740791 -2.49513626  3237725934
-2.49513626 0.90462142 23.90200806  1063753029
24.01312256 -6.71805382 -2.49513626  3231224754
-2.49513626 0.90462142 24.61569214  1063753029
24.67647934 -3.58241868 -2.49513626  3226196656
-2.49513626 0.90462142 24.82050705  1063753029
24.93172264 0.41418368 -2.49513626  1062248748
-2.49513626 0.90462142 24.88275528  1063753029
24.85356140 2.01562285 -2.49513626  1077154415
-2.49513626 0.90462142 24.72747231  1063753029
24.61143494 4.00493670 -2.49513626  1082969506
-2.49513626 0.90462136 24.38971329  1063753029
24.30317116 5.57836962 -2.49513626  1086258407
-2.49513626 0.90462142 24.11126328  1063753029
23.89442253 7.12873316 -2.49513626  1089495554
-2.49513626 0.90462142 23.65287971  1063753029
23.52292633 8.27250195 -2.49513626  1091754186
-2.64753628 0.89909983 24.17419052  1063660392
23.99817657 11.14102840 -2.64753628  1094215698
-2.64753628 0.89909959 8.56594563  1063870101
8.90807152 -21.20889282 -2.49513626  3249045734
-2.49513626 0.91159946 9.58533764  1063870101
10.25269604 -20.59255600 -2.49513626  3248711302
-2.49513626 0.91159946 10.90945911  1063870101
11.87324238 -19.70271873 -2.49513626  3248231171
-2.49513626 0.91159946 12.50055408  1063870101
12.80939865 -19.10733223 -2.49513626  3247911168
-2.49513626 0.91159946 13.71575451  1063870101
14.30239964 -18.01700211 -2.49513626  3247327012
-2.49513626 0.91159946 14.87426376  1063870101
15.15446091 -17.30645561 -2.49513626  3246682620
-2.49513626 0.91159946 16.23536491  1063870101
16.49528503 -16.03361130 -2.49513626  3245280187
-2.49513626 0.91159946 17.72956276  1063870101
18.19162941 -14.07961750 -2.49513626  3243756725
-2.49513626 0.91159946 18.84931755  1063870101
19.65778542 -11.94748974 -2.49513626  3241472747
-2.49513626 0.91159946 20.55372429  1063870101
20.71714973 -9.99853230 -2.49513626  3239747694
-2.49513626 0.91159946 21.58386421  1063870101
21.70899773 -7.60858393 -2.49513626  3234968201
-2.49513626 0.91159946 22.15310287  1063870101
22.34090233 -5.48225069 -2.49513626  3231210327
-2.49513626 0.91159946 22.64705086  1063870101
22.70899582 -3.67050552 -2.49513626  3226698743
-2.49513626 0.91159946 22.89794350  1063870101
22.93040657 -1.83504665 -2.49513626  3202868112
-1.03026533 0.96250439 9.28404903  1064738007
9.37017822 0.30641064 -1.01689494  1072563189
-2.49513626 0.91159946 22.89557838  1063870101
22.85680389 2.59568548 -2.49513626  1077780211
-2.49513626 0.91159946 22.50052261  1063870101
22.42067909 5.14627695 -2.49513626  1085288892
-2.49513626 0.91159946 22.24363518  1063870101
22.14647675 6.22130156 -2.49513626  1088275292
-2.49513626 0.91159946 21.82075882  1063870101
21.57536507 7.97962999 -2.49513626  1090860324
-2.49513626 0.91159946 22.45830727  1063783886
21.79742432 10.98452759 -2.64753628  3248321551
-2.49513626 0.91762149 8.89511204  1063971134
11.60040760 -17.92025757 -2.49513626  3247299071
-2.49513626 0.91762149 12.17054462  1063971134
13.00197887 -16.93085098 -2.49513626  3245971659
-2.49513626 0.91762149 14.82119465  1063971134
15.30748177 -14.87905502 -2.49513626  3244955827
-2.49513626 0.91762149 16.23206902  1063971134
16.45287895 -13.60176277 -2.49513626  3243315091
-2.49513626 0.91762018 17.29301262  1063971134
17.49200249 -12.23662853 -2.49513626  3241239819
-2.49513626 0.91762149 18.91708755  1063971134
19.07367897 -9.58644772 -2.49513626  3239343348
-2.49513626 0.91762149 19.78190231  1063971134
20.02964211 -7.38367367 -2.49513626  3233978605
-2.49513626 0.91762149 20.73216820  1063971134
20.88500977 -4.41830635 -2.49513626  3228542699
-2.49513626 0.91762149 21.07375145  1063971134
21.12578964 -3.06694579 -2.49513626  3222845142
-2.49513626 0.91762149 21.27922249  1063971134
9.17207336 -0.58577526 -1.07424569  3202131713
-1.05641222 0.96425563 8.97613335  1064757275
8.92676640 0.00475944 -1.04338956  1041775075
-1.04606926 0.96459931 21.24689865  1063971134
21.21091270 2.40877461 -2.49513626  1082349180
-2.49513626 0.91762149 20.88029099  1063971134
20.72672844 5.10959101 -2.49513626  1085154857
-2.49513626 0.91762149 20.45626450  1063971134
20.24947739 6.75749540 -2.49513626  1089271302
-2.49513626 0.91762149 19.77332878  1063971134
19.65420341 8.36719227 -2.49675798  1091784049
-2.64753628 0.91281569 20.54508972  1063890506
20.38908958 9.86702251 -2.64753628  1092819143
-2.64753628 0.91281569 8.00446224  1064059206
8.29653072 -18.09984589 -2.49513626  3247421061
-2.49513626 0.92287099 9.15956688  1064059206
10.00130367 -17.21658325 -2.49513626  3246578912
-2.49513626 0.92287099 11.61306763  1064059206
11.87158298 -15.98444176 -2.49513626  3246172682
-2.49513626 0.92287099 12.37935162  1064059206
13.59166241 -14.55003548 -2.49513626  3244165996
-2.49513626 0.92287099 14.92989826  1064059206
15.74565029 -12.18652821 -2.49513626  3241305084
-2.49513626 0.92287099 16.67340469  1064059206
17.01467323 -10.34107399 -2.49513626  3239878272
-2.49513626 0.92287099 17.49348068  1064059206
17.64409637 -9.22620010 -2.49513626  3238989755
-2.49513626 0.92287099 17.93160057  1064059206
18.06841850 -8.36475945 -2.49513626  3238079430
-2.49513626 0.92287099 18.32800674  1064059206
18.56864357 -7.18626261 -2.49513626  3235668140
-2.49513626 0.92287099 19.17447853  1064059206
19.25824356 -5.05540133 -2.49513626  3231176725
-2.49513626 0.92287099 19.47959137  1064059206
19.54332924 -3.80726767 -2.49513626  3220446946
-2.49513626 0.92287099 8.86229610  1064763228
8.74899101 -0.27675840 -1.09693873  3188384340
-1.09342980 0.96543700 8.70324421  1064774789
8.75225067 0.28620398 -1.09738505  1058239527
-1.11391580 0.96480095 19.84556580  1064059206
19.81712151 1.92832756 -2.49513626  1077439415
-2.49513626 0.92287099 19.65222549  1064059206
19.59827423 3.51348042 -2.49513626  1083736316
-2.49513626 0.92287099 19.25284195  1064059206
19.07969475 5.69229794 -2.49513626  1086321179
-2.49513626 0.92287099 18.88682556  1064059206
18.67442322 6.90672064 -2.49513626  1090921716
-2.49513626 0.92287105 19.01703835  1063983485
6.94580984 -17.31142235 -2.49513626  3247019140
-2.49513626 0.92748743 7.49878216  1064136656
8.31354618 -16.69776154 -2.49513626  3246685915
-2.49513626 0.92748737 8.84607887  1064136657
9.88319778 -15.81937313 -2.49513626  3245860126
-2.49513626 0.92748743 10.63441849  1064136657
11.59730244 -14.60934162 -2.49513626  3244735584
-2.49513626 0.92748743 12.73302746  1064136655
12.95051384 -13.42437553 -2.49513626  3243470434
-2.49513626 0.92748731 13.37542248  1064136657
13.58270931 -12.78435135 -2.49513626  3242317149
-2.49513626 0.92748743 14.37626171  1064136656
14.75092506 -11.41664791 -2.49513626  3241081842
-2.49513626 0.92748731 15.28421974  1064136657
15.45414257 -10.44505310 -2.49513626  3238115350
-2.49513626 0.92748743 16.92695236  1064136657
17.17014313 -7.28805971 -2.49513626  3235928759
-2.49513626 0.92748743 17.50158310  1064136655
17.79228401 -5.60039282 -2.49513626  3231764651
-2.49513626 0.92748743 18.04162407  1064136656
18.11542130 -4.44535589 -2.49513626  3229936073
-2.49513626 0.92748737 18.24898911  1064136656
18.36366081 -3.27193618 -2.49513626  3224076965
-2.49513626 0.92748731 18.50006104  1064136657
18.56710625 -1.78670681 -2.49513626  3216930263
-2.49513626 0.92748737 8.58766079  1064781095
8.55127907 -0.27050394 -1.14444900  3188185340
-1.14164460 0.96614397 8.51675320  1064786373
8.53472900 0.14178513 -1.14182055  1049571787
-1.14467072 0.96605581 18.56518555  1064136657
18.53374481 2.10474515 -2.49513626  1075429811
-2.49513626 0.92748743 18.41070557  1064136657
18.30488586 3.58627558 -2.49513626  1081627547
-2.49513626 0.92748737 18.18012238  1064136656
18.11068535 4.46468019 -2.49513626  1084321184
-2.49513626 0.92748731 17.69365501  1064136657
17.49468994 6.47039652 -2.49513626  1087899323
-2.49513626 0.92748737 17.27760887  1064136657
16.91860008 7.85437536 -2.49513626  3246423897
-2.49513626 0.93157834 7.56502771  1064205291
7.81850433 -15.70347404 -2.49513626  3245946430
-2.49513626 0.93157834 9.05430126  1064205291
9.53267670 -14.72603893 -2.49513626  3244892752
-2.49513626 0.93157834 10.90672970  1064205291
11.12621021 -13.56228733 -2.49513626  3243645760
-2.49513626 0.93157834 11.55649471  1064205291
11.97482491 -12.81919384 -2.49513626  3241784068
-2.49513626 0.93157834 13.33875942  1064205291
13.69816780 -10.95848656 -2.49513626  3240158028
-2.49513626 0.93157834 14.84222603  1064205291
15.13518238 -8.86873436 -2.49513626  3238657266
-2.49513626 0.93157834 15.41249275  1064205291
15.54518890 -8.12866879 -2.49513626  3237215590
-2.49513626 0.93157834 16.14774132  1064205291
16.25585175 -6.59359837 -2.49513626  3233950069
-2.49513626 0.93157834 16.73283768  1064205291
16.81534958 -4.99722195 -2.49513626  3229992944
-2.49513626 0.93157834 17.16233635  1064205291
17.31743240 -2.79905438 -2.49513626  3220896933
-2.49513626 0.93157834 8.96569538  1064754484
8.42487621 -0.40217516 -1.19968843  3196579722
-1.19439650 0.96664196 8.37688351  1064794820
8.39419651 0.27449545 -1.19459808  1053987965
-1.20006895 0.96648622 17.45971870  1064205291
17.39607430 2.25939322 -2.49513626  1076001645
-2.49513626 0.93157834 17.26690102  1064205291
17.21490479 3.37272668 -2.49513626  1080658470
-2.49513626 0.93157834 17.09756851  1064205291
17.03226662 4.19881964 -2.49513626  1083120509
-2.49513626 0.93157834 16.81001091  1064205291
16.72720718 5.28475523 -2.49513626  1085387300
-2.49513626 0.93157834 16.45295334  1064205291
16.14042854 6.87130499 -2.49513626  1088694332
-2.49513626 0.93157834 15.66545582  1064205291
6.16430092 -15.36363029 -2.49513626  3245618118
-2.49513626 0.93522805 6.65506220  1064266528
7.13893795 -14.93570805 -2.49513626  3245026540
-2.49513626 0.93522835 8.31526947  1064266528
8.54433250 -14.17865086 -2.49513626  3244335507
-2.49513626 0.93522841 9.21801758  1064266529
10.70394993 -12.62795162 -2.49513626  3242673285
-2.49513626 0.93522835 11.10441399  1064266528
12.23530006 -11.15065861 -2.49513626  3241098614
-2.49513626 0.93522835 12.58747387  1064266529
12.92663765 -10.34126568 -2.49513626  3240238363
-2.49513626 0.93522835 13.41020489  1064266528
13.86257935 -9.04813004 -2.49513626  3238866806
-2.49513626 0.93522835 14.54440594  1064266528
14.90866375 -7.19523621 -2.49513626  3235301972
-2.49513626 0.93522835 15.23824596  1064266528
15.34026432 -6.22222328 -2.49513626  3233233380
-2.49513626 0.93522835 15.62242794  1064266528
15.70843601 -5.22348928 -2.49513626  3231115137
-2.49513626 0.93522835 15.94201660  1064266528
16.01165962 -4.20315456 -2.49513626  3229384180
-2.49513626 0.93522835 16.38240814  1064266528
16.45040512 -1.85039437 -2.49513626  3217749867
-2.49513626 0.93522835 8.29221535  1064799163
8.25892830 -0.26125628 -1.24545610  999279989
-1.24063122 0.96725214 8.25993633  1064801612
8.29460526 0.40482196 -1.25169909  1060215074
-1.29356706 0.96587890 16.47632790  1064266528
16.44842148 1.86792934 -2.49513626  1075401900
-2.49513626 0.93522835 16.29437065  1064266528
16.24529839 3.18275928 -2.49513626  1079796428
-2.49513626 0.93522841 16.07294846  1064266529
16.00716972 4.22022343 -2.49513626  1083130837
-2.49513626 0.93522841 15.86321163  1064266528
15.61657810 5.49201393 -2.49513626  1085784461
-2.49513626 0.93522835 15.33362007  1064266528
15.12512302 6.72833252 -2.49513626  3244762653
-2.49513626 0.93850493 6.29937124  1064321500
6.75738430 -14.13744068 -2.49513626  3244322428
-2.49513626 0.93850493 7.20841312  1064321500
7.43116426 -13.79518795 -2.49513626  3243952238
-2.49513626 0.93850493 8.30239010  1064321500
8.72534561 -13.01529121 -2.49513626  3243112743
-2.49513626 0.93850493 9.13927364  1064321500
9.34272194 -12.57946587 -2.49513626  3242316925
-2.49513626 0.93850493 10.13186073  1064321500
10.69639301 -11.45061588 -2.49513626  3241439050
-2.49513626 0.93850493 11.23604679  1064321500
12.23574924 -9.78855515 -2.49513626  3239247587
-2.49513626 0.93850493 12.83953571  1064321500
13.64496899 -7.70352888 -2.49513626  3235030844
-2.49513626 0.93850493 14.52037430  1064321500
14.78745651 -5.18271732 -2.49513626  3230586568
-2.49513626 0.93850493 15.08996391  1064321500
15.15588951 -3.97850847 -2.49513626  3228499776
-2.49513626 0.93850493 15.33008766  1064321500
15.38024521 -2.99625278 -2.49513626  3217038935
-2.49513626 0.93850493 8.30919266  1064796221
8.13800526 -0.25743109 -1.29651535  1040855972
-1.29382348 0.96762550 8.13897896  1064808868
15.59571743 1.51755762 -2.49513626  1073818077
-2.49513626 0.93850493 15.50441265  1064321500
15.46594906 2.51671720 -2.49513626  1079024478
-2.49513626 0.93850493 15.21390057  1064321500
15.08545208 4.23774529 -2.49513626  1083641546
-2.49513626 0.93850493 14.86358738  1064321500
14.69643307 5.43546391 -2.49513626  1086613568
-2.49513626 0.93850493 14.31673145  1064321500
14.10457611 6.82571745 -2.49513626  1088530090
-2.49513626 0.93850493 5.75925446  1064371117
6.19711924 -13.51974583 -2.49513626  3243684258
-2.49513626 0.94146234 6.62858343  1064371117
7.05319405 -13.09352303 -2.49513626  3243098757
-2.49513626 0.94146234 7.67629576  1064371117
7.88010406 -12.61315918 -2.49513626  3242705385
-2.49513626 0.94146234 8.47908020  1064371117
8.67442322 -12.08065605 -2.49513626  3242133696
-2.49513626 0.94146234 9.05833149  1064371117
9.24680138 -11.64836788 -2.49513626  3241010217
-2.49513626 0.94146234 10.82982159  1064371117
10.99230003 -10.01784515 -2.49513626  3239550590
-2.49513626 0.94146234 12.04784489  1064371117
12.18647671 -8.52511597 -2.49513626  3238346720
-2.49513626 0.94146234 12.45425987  1064371117
12.58334160 -7.92763615 -2.49513626  3237424512
-2.49513626 0.94146234 12.83171082  1064371117
13.06681728 -7.10254240 -2.49513626  3235231861
-2.49513626 0.94146234 13.69017029  1064371117
13.86991501 -5.36780453 -2.49513626  3232013478
-2.49513626 0.94146234 14.25617123  1064371117
14.38501072 -3.77615023 -2.49513626  3226727204
-2.49513626 0.94146234 14.55035019  1064371117
14.59795761 -2.84385371 -2.49513626  3223778939
-2.49513626 0.94146234 14.75054646  1064371117
14.77918434 -1.66240990 -2.49513626  3216398539
-2.49513626 0.94146234 7.94268227  1064821292
8.00858021 0.39086235 -1.34519660  1057351024
-1.35416412 0.96779257 8.18794346  1064803434
14.80247402 1.44036984 -2.49513626  1071042072
-2.49513626 0.94146234 14.71580982  1064371117
14.59491825 2.85941672 -2.49513626  1082176990
-2.49513626 0.94146234 14.03005791  1064371117
13.94892693 5.15899706 -2.49513626  1085958864
-2.49513626 0.94146234 13.48959827  1064371117
5.26929903 -13.13296509 -2.49513626  3243001427
-2.49513626 0.94414485 6.30690527  1064416111
6.50973845 -12.56437874 -2.49513626  3242444345
-2.49513626 0.94414485 8.61872768  1064416122
9.32219505 -10.64598465 -2.49513626  3240292918
-2.49513626 0.94414485 9.98710728  1064416122
10.30425072 -9.69859314 -2.49513626  3238695809
-2.49513626 0.94414485 11.32829189  1064416122
11.46316147 -8.29675961 -2.49513626  3237843156
-2.49513626 0.94414485 11.84985352  1064416122
11.97266960 -7.54290533 -2.49513626  3236638369
-2.49513626 0.94414485 12.32242775  1064416122
12.53972530 -6.55709648 -2.49513626  3234552130
-2.49513626 0.94414485 12.74405575  1064416122
12.84129238 -5.94486856 -2.49513626  3233258185
-2.49513626 0.94414485 13.02578449  1064416122
13.11299038 -5.31881094 -2.49513626  3231040950
-2.49513626 0.94414485 13.62737560  1064416122
13.74290085 -3.37238097 -2.49513626  3225121136
-2.49513626 0.94414485 13.88950634  1064416123
13.93122292 -2.48218918 -2.49513626  3222307159
-2.49513626 0.94414485 14.00382614  1064416122
14.03468800 -1.80760252 -2.49513626  3217716795
-2.49513626 0.94414485 7.86763763  1064824501
7.81676626 -0.37314609 -1.37987542  3187095317
-1.36928570 0.96895063 7.75538254  1064832969
7.77642918 0.25429410 -1.37192655  1052994615
-1.38061333 0.96869785 8.03020477  1064813094
8.34283066 0.81180769 -1.47801363  1070358890
-2.49513626 0.94414485 14.03276825  1064416122
14.00165272 2.04794312 -2.49513626  1074885981
-2.49513626 0.94414485 13.88662434  1064416122
13.84109020 2.94355607 -2.49513626  1078631154
-2.49513626 0.94414485 13.68306732  1064416122
13.56001091 4.04553699 -2.49513626  1082682005
-2.49513626 0.94414490 13.27198315  1064416122
13.19135380 5.12137318 -2.49513626  1084925485
-2.49513626 0.94414490 12.83494568  1064416122
12.63674450 6.36812019 -2.49513626  3242745837
-2.49513626 0.94658887 5.22542524  1064457126
5.42476511 -12.35539913 -2.49513626  3242476527
-2.49513626 0.94658893 5.81919098  1064457126
6.01417542 -12.07947636 -2.49513626  3242177300
-2.49513626 0.94658887 6.58959627  1064457126
6.77806139 -11.66798401 -2.49513626  3241732999
-2.49513626 0.94658887 7.14969206  1064457126
7.33275318 -11.32760811 -2.49513626  3241366788
-2.49513626 0.94658887 7.87038136  1064457126
8.55853558 -10.43242073 -2.49513626  3240407570
-2.49513626 0.94658887 8.88952065  1064457127
9.21131039 -9.86081982 -2.49513626  3239311780
-2.49513626 0.94658887 10.11825466  1064457126
10.26048088 -8.76393127 -2.49513626  3238453071
-2.49513626 0.94658887 10.67110538  1064457126
10.93111801 -7.91167784 -2.49513626  3237446768
-2.49513626 0.94658887 11.17982483  1064457127
11.29986191 -7.37543917 -2.49513626  3236309897
-2.49513626 0.94658887 11.53114319  1064457126
11.85564137 -6.44420052 -2.49513626  3234338460
-2.49513626 0.94658887 12.05669689  1064457126
12.33484364 -5.47134066 -2.49513626  3232282332
-2.49513626 0.94658893 12.50437260  1064457126
12.58429909 -4.87026072 -2.49513626  3231013528
-2.49513626 0.94658887 12.87128162  1064457126
12.93475151 -3.84397793 -2.49513626  3228085362
-2.49513626 0.94658887 13.15505314  1064457126
13.20166492 -2.79286313 -2.49513626  3222764706
-2.49513626 0.94658887 13.35385990  1064457126
8.12159443 -0.78153861 -1.50869453  3195544128
-1.41715920 0.96930492 7.64796066  1064839235
7.66112423 0.25052351 -1.41736901  1057001219
-1.43300915 0.96896702 7.88881207  1064821667
8.14243126 0.79230773 -1.51272142  1069737197
-2.49513626 0.94658887 13.38145828  1064457126
13.31866264 2.16730070 -2.49513626  1076234832
-2.49513626 0.94658887 13.19867611  1064457126
13.15184212 3.01877689 -2.49513626  1079781812
-2.49513626 0.94658887 12.99099731  1064457126
12.93064499 3.85777092 -2.49513626  1082267080
-2.49513626 0.94658893 12.79993343  1064457126
12.72960567 4.47672844 -2.49513626  1083558186
-2.49513626 0.94658887 12.57909775  1064457126
12.23923683 5.68200445 -2.49513626  1086476896
-2.49513626 0.94658887 4.99296761  1064494639
5.18344545 -11.80576038 -2.49513626  3241904335
-2.49513626 0.94882482 5.74662876  1064494639
5.93145514 -11.44822693 -2.49513626  3241516874
-2.49513626 0.94882482 6.47653532  1064494639
7.17966032 -10.70964813 -2.49513626  3240596116
-2.49513626 0.94882482 7.85309124  1064494639
8.33701420 -9.83556271 -2.49513626  3239785534
-2.49513626 0.94882482 8.64891911  1064494639
8.80154037 -9.42215443 -2.49513626  3238880370
-2.49513626 0.94882482 9.52973843  1064494639
9.66813850 -8.53060150 -2.49513626  3238059863
-2.49513626 0.94882482 10.19639492  1064494639
10.32195187 -7.72666836 -2.49513626  3236725153
-2.49513626 0.94882482 10.79717827  1064494639
10.90908813 -6.87283754 -2.49513626  3235269177
-2.49513626 0.94882482 11.12441254  1064494639
11.22777653 -6.33885813 -2.49513626  3233368267
-2.49513626 0.94882482 11.70054150  1064494639
11.78612137 -5.22794533 -2.49513626  3231388934
-2.49513626 0.94882482 12.02447891  1064494639
12.09774113 -4.45967960 -2.49513626  3230168998
-2.49513626 0.94882482 12.29869556  1064494639
12.41679668 -3.47379804 -2.49513626  3226567847
-2.49513626 0.94882482 12.78793812  1064494639
7.79176998 -0.62354970 -1.51266778  3204188855
-1.49466670 0.96902215 7.62025690  1064840344
7.63021469 0.12675868 -1.47678697  1048572038
-1.47990799 0.96932328 7.96320677  1064815146
12.78617573 1.66066051 -2.49513626  1074039139
-2.49513626 0.94882482 12.46754169  1064494639
12.29455662 3.88431168 -2.49513626  1082301289
-2.49513626 0.94882482 12.16332340  1064494639
12.01950073 4.66641521 -2.49513626  1083932000
-2.49513626 0.94882482 11.86326981  1064494639
11.78054047 5.24050903 -2.49513626  1085127751
-2.49513626 0.94882482 11.60596752  1064494639
11.51416492 5.80241251 -2.49513626  3241546569
-2.49513626 0.95087790 5.14304686  1064529084
5.32277441 -11.13602352 -2.49513626  3241199803
-2.49513626 0.95087790 5.67804813  1064529084
5.85350800 -10.86643124 -2.49513626  3240805135
-2.49513626 0.95087790 6.37063074  1064529084
6.70721769 -10.36128235 -2.49513626  3240246942
-2.49513626 0.95087790 7.35923815  1064529084
7.67400265 -9.66708565 -2.49513626  3239620075
-2.49513626 0.95087790 7.98083830  1064529084
8.27942276 -9.15391064 -2.49513626  3238928576
-2.49513626 0.95087790 8.71114445  1064529084
9.12260818 -8.31389904 -2.49513626  3238019785
-2.49513626 0.95087790 9.76078415  1064529084
10.11366940 -7.07507133 -2.49513626  3235373404
-2.49513626 0.95087790 10.44302845  1064529084
11.28259373 -5.00459671 -2.49513626  3230954735
-2.49513626 0.95087790 11.58090210  1064529084
11.64804077 -4.08241224 -2.49513626  3227584286
-2.49513626 0.95087790 11.93825150  1064529084
11.98709488 -2.94152117 -2.49513626  3224364587
-2.49513626 0.95087790 12.11497688  1064529084
12.15135574 -2.16506147 -2.49513626  3217674261
-2.49513626 0.95087790 12.26537704  1064529084
7.88710022 -0.75897312 -1.60177684  3206473068
-1.57292426 0.96874601 7.68530178  1064834158
7.62465906 -0.24119222 -1.54212904  3186775992
-1.53891122 0.96941143 7.60514498  1064840516
7.61249495 0.12646423 -1.53911126  1052709077
-1.54754877 0.96924239 7.68888712  1064833885
7.76292658 0.62957293 -1.57446182  1061509200
-1.60907388 0.96803933 12.26389885  1064529084
12.14904022 2.17801714 -2.49513626  1077744446
-2.49513626 0.95087790 11.93490219  1064529084
11.64367867 4.09482908 -2.49513626  1082720773
-2.49513626 0.95087790 11.43270493  1064529084
11.35644722 4.83466673 -2.49513626  1084641313
-2.49513626 0.95087790 4.75804186  1064560820
4.93165350 -10.75897789 -2.49513626  3240811090
-2.49513626 0.95276952 5.27501106  1064560820
5.44466400 -10.50868511 -2.49513626  3240540023
-2.49513626 0.95276952 5.94501162  1064560820
6.43153191 -9.93540287 -2.49513626  3239809899
-2.49513626 0.95276952 7.05675077  1064560820
7.35858154 -9.26974201 -2.49513626  3239081010
-2.49513626 0.95276952 7.79696560  1064560820
8.07920742 -8.64888668 -2.49513626  3238406043
-2.49513626 0.95276952 8.48681927  1064560820
8.61834621 -8.11177731 -2.49513626  3237944334
-2.49513626 0.95276952 8.87468433  1064560820
8.99943066 -7.68681383 -2.49513626  3236730752
-2.49513626 0.95276958 9.35958862  1064560820
9.58764172 -6.93930340 -2.49513626  3235453107
-2.49513626 0.95276952 9.80578518  1064560820
9.91106701 -6.46897125 -2.49513626  3233773950
-2.49513626 0.95276952 10.39853764  1064560820
10.48806953 -5.48427153 -2.49513626  3232371719
-2.49513626 0.95276952 10.81884766  1064560820
10.96753979 -4.44858551 -2.49513626  3229810539
-2.49513626 0.95276952 11.16927052  1064560820
11.23076248 -3.73453951 -2.49513626  3227741307
-2.49513626 0.95276952 11.34502411  1064560820
11.39776325 -3.18870497 -2.49513626  3225440957
-2.49513626 0.95276952 11.65190029  1064560820
11.68376923 -1.88847363 -2.49513626  3218712119
-2.49513626 0.95276952 11.73844719  1064560820
7.86898375 -0.75722975 -1.66659951  3206425339
-1.63282943 0.96883440 7.66299534  1064834766
7.60689974 -0.24063049 -1.60448635  3186744422
-1.60168624 0.96941966 7.59004259  1064840654
7.59696150 0.12620617 -1.60180962  1048494016
-1.60472190 0.96936256 7.62716675  1064837582
7.89399052 0.76813269 -1.67206848  1068167415
-2.49513626 0.95276952 11.73682880  1064560820
11.68175030 1.90093100 -2.49513626  1074112991
-2.49513626 0.95276958 11.53543282  1064560820
11.49137402 2.83287144 -2.49513626  1078778570
-2.49513626 0.95276952 11.34142017  1064560820
11.22677326 3.74650741 -2.49513626  1083464115
-2.49513626 0.95276952 10.81372452  1064560820
4.56955814 -10.40757656 -2.49513626  3240448770
-2.49513626 0.95451802 4.90180159  1064590155
5.06604433 -10.17515087 -2.49513626  3240107196
-2.49513626 0.95451802 5.55074692  1064590155
5.86678028 -9.73546219 -2.49513626  3239722234
-2.49513626 0.95451802 6.17674923  1064590155
6.32935715 -9.44127941 -2.49513626  3239295488
-2.49513626 0.95451802 6.77720213  1064590155
6.92303324 -9.01499271 -2.49513626  3238828711
-2.49513626 0.95451802 7.75915432  1064590155
8.27693558 -7.79043436 -2.49513626  3237282027
-2.49513626 0.95451802 8.64292240  1064590155
8.76049709 -7.24239016 -2.49513626  3236116522
-2.49513626 0.95451802 8.98881245  1064590155
9.31378746 -6.51551056 -2.49513626  3234573298
-2.49513626 0.95451844 9.80692196  1064590155
9.89803886 -5.58812857 -2.49513626  3232609396
-2.49513626 0.95451802 10.07258987  1064590155
10.23672009 -4.94045448 -2.49513626  3230890796
-2.49513626 0.95451802 10.53306007  1064590155
10.60039330 -4.10246420 -2.49513626  3229326808
-2.49513626 0.95451802 10.84213257  1064590155
10.99406815 -2.88600636 -2.49513626  3224198726
-2.49513626 0.95451802 11.08116817  1064590155
11.12042713 -2.35256958 -2.49513626  3221953094
-2.49513626 0.95451802 11.22092247  1064590155
11.27342510 -1.45196474 -2.49513626  3215106267
-2.49513626 0.95451802 7.85088730  1064819974
7.64083862 -0.48798266 -1.68070090  3195393207
-1.66677272 0.96938348 7.58138180  1064840266
7.59001255 0.24819812 -1.66701734  1056843828
-1.68161666 0.96911508 11.24688721  1064590155
11.21898651 1.82562709 -2.49513626  1075270335
-2.49513626 0.95451802 11.07846451  1064590155
11.03614998 2.72064924 -2.49513626  1078246734
-2.49513626 0.95451802 10.89213753  1064590155
10.83847904 3.42428255 -2.49513626  1081890849
-2.49513626 0.95451802 10.59600925  1064590155
10.38533688 4.61986208 -2.49513626  1083779291
-2.49513626 0.95451802 10.23144531  1064590155
10.15051842 5.11522055 -2.49513626  3240252648
-2.49513626 0.95613879 4.39482546  1064617347
4.55517912 -9.93765068 -2.49513626  3239792055
-2.49513626 0.95613879 5.18443489  1064617347
5.33849669 -9.53976250 -2.49513626  3239432103
-2.49513626 0.95613879 5.94055796  1064617347
6.08733273 -9.08026123 -2.49513626  3238925281
-2.49513626 0.95613885 7.06860399  1064617347
7.20176125 -8.22443867 -2.49513626  3238115499
-2.49513626 0.95613885 7.46245670  1064617347
7.71543360 -7.74460077 -2.49513626  3236668047
-2.49513626 0.95613879 8.19720364  1064617348
8.31242752 -7.10000944 -2.49513626  3235833089
-2.49513626 0.95613879 8.53640652  1064617347
8.64509583 -6.69097090 -2.49513626  3234964165
-2.49513626 0.95613879 8.85574245  1064617347
8.95764351 -6.26637077 -2.49513626  3233756247
-2.49513626 0.95613879 9.24935818  1064617347
9.34184742 -5.67773199 -2.49513626  3232816016
-2.49513626 0.95613879 9.51956272  1064617347
9.68743134 -5.06561327 -2.49513626  3231520837
-2.49513626 0.95613879 9.84528446  1064617347
9.92039680 -4.59263945 -2.49513626  3230183080
-2.49513626 0.95613879 10.19505119  1064617347
10.31662655 -3.61577749 -2.49513626  3226603524
-2.49513626 0.95613879 10.47896862  1064617347
10.52768135 -2.94528627 -2.49513626  3224478785
-2.49513626 0.95613879 10.61692238  1064617347
10.69520092 -2.26261187 -2.49513626  3221604498
-2.49513626 0.95613879 10.79185486  1064617347
10.81849861 -1.57058012 -2.49513626  3214698722
-2.49513626 0.95613879 7.67361546  1064831597
7.61872864 -0.48657069 -1.74246776  3195358995
-1.72936213 0.96939147 7.56626463  1064840335
7.59099340 0.37048176 -1.73465574  1056795607
-1.74341333 0.96914667 7.67728233  1064831308
7.85758114 0.76458997 -1.80191088  1067312215
-2.49513626 0.95613879 10.84085751  1064617347
10.81682491 1.58211637 -2.49513626  1071693478
-2.49513626 0.95613879 10.76036072  1064617347
10.57070637 2.78692126 -2.49513626  1078461801
-2.49513626 0.95613879 10.42403221  1064617348
10.31276989 3.62677550 -2.49513626  1081947806
-2.49513626 0.95613885 10.12590408  1064617348
9.98821831 4.44320679 -2.49513626  3239649276
-2.49513626 0.95764530 4.54009628  1064642622
4.69221973 -9.42432594 -2.49513626  3239332907
-2.49513626 0.95764530 5.28819895  1064642622
5.57814312 -8.92855835 -2.49513626  3238881108
-2.49513626 0.95764530 5.86231184  1064642622
6.00214243 -8.64923000 -2.49513626  3238581096
-2.49513626 0.95764530 6.67731380  1064642622
6.93554544 -7.92041969 -2.49513626  3237599803
-2.49513626 0.95764530 7.89419603  1064642622
8.11405849 -6.70797205 -2.49513626  3234738759
-2.49513626 0.95764530 8.52838421  1064642622
8.62652111 -6.03472996 -2.49513626  3233293048
-2.49513626 0.95764530 8.99652195  1064642622
9.24969387 -5.02772617 -2.49513626  3231456137
-2.49513626 0.95764530 9.40655613  1064642622
9.48134995 -4.57589817 -2.49513626  3230177595
-2.49513626 0.95764530 9.69094944  1064642622
9.75582981 -3.95709872 -2.49513626  3228774136
-2.49513626 0.95764530 9.98997211  1064642622
10.09160995 -2.99904537 -2.49513626  3224733638
-2.49513626 0.95764530 10.29984951  1064642622
10.33355045 -2.01309681 -2.49513626  3208732407
-1.86895931 0.96810293 7.66242409  1064831354
7.56242418 -0.23922351 -1.79322338  3186658131
-1.79081869 0.96941596 7.61083174  1064835368
7.66612101 0.62172198 -1.82286859  1066929712
-2.49513626 0.95764530 10.44012642  1064642622
10.41697598 1.52363276 -2.49513626  1071149020
-2.49513626 0.95764530 10.36260605  1064642622
10.33139992 2.02411532 -2.49513626  1074538556
-2.49513626 0.95764530 10.08840275  1064642622
10.03871250 3.17160630 -2.49513626  1079331097
-2.49513626 0.95764530 9.75160217  1064642622
9.68655777 4.12376451 -2.49513626  3239427778
-2.49513626 0.95904911 4.08091688  1064666174
4.52431440 -9.08709240 -2.49513626  3239065083
-2.49513626 0.95904911 4.81413221  1064666174
4.95719194 -8.85838223 -2.49513626  3238817997
-2.49513626 0.95904911 5.37853575  1064666174
5.65253830 -8.43169498 -2.49513626  3238260224
-2.49513626 0.95904911 6.05249453  1064666174
6.31136990 -7.95055342 -2.49513626  3237464828
-2.49513626 0.95904911 6.68736792  1064666174
6.92944336 -7.41805267 -2.49513626  3234255206
-2.49513626 0.95904911 8.22321129  1064666174
8.41030884 -5.68430901 -2.49513626  3232573115
-2.49513626 0.95904911 8.91870785  1064666174
9.06995773 -4.55856752 -2.49513626  3230169004
-2.49513626 0.95904911 9.27920151  1064666174
9.40673351 -3.81550193 -2.49513626  3227563495
-2.49513626 0.95904911 9.57975674  1064666174
9.73049641 -2.89172959 -2.49513626  3221649108
-2.49513626 0.95904911 9.96378231  1064666174
9.99370193 -1.78062272 -2.49513626  3215325784
-2.49513626 0.95904911 7.60981655  1064834447
7.57892561 -0.36179242 -1.86501980  3195337835
-1.85993195 0.96931237 7.55649376  1064838987
7.56355715 0.24733292 -1.86011446  1052601726
-1.86553514 0.96922135 7.67322111  1064829553
9.96170712 1.95168638 -2.49513626  1074209875
-2.49513626 0.95904911 9.85601902  1064666174
9.81568241 2.58786106 -2.49513626  1077525517
-2.49513626 0.95904911 9.62907505  1064666174
9.57616901 3.36773276 -2.49513626  1080762543
-2.49513626 0.95904911 9.40265751  1064666174
9.33993912 3.97620273 -2.49513626  1082705951
-2.49513626 0.95904911 9.13736534  1064666174
9.06509304 4.56823492 -2.49513626  3239150150
-2.49513626 0.96036029 3.79461813  1064688172
3.93937755 -8.97229195 -2.49513626  3238954582
-2.49513626 0.96036029 4.22580338  1064688172
4.36739540 -8.77191830 -2.49513626  3238498773
-2.49513626 0.96036023 5.19198895  1064688172
5.71534348 -7.95962286 -2.49513626  3237320693
-2.49513626 0.96036029 6.57311678  1064688172
6.80336428 -7.05230141 -2.49513626  3235548857
-2.49513626 0.96036029 7.34771490  1064688171
7.45099545 -6.36422586 -2.49513626  3233540393
-2.49513626 0.96036029 7.93800163  1064688171
8.02934361 -5.61697054 -2.49513626  3232732874
-2.49513626 0.96036029 8.20577717  1064688172
8.29082584 -5.22330570 -2.49513626  3231614873
-2.49513626 0.96036029 8.75537968  1064688172
8.82499504 -4.25912809 -2.49513626  3229858814
-2.49513626 0.96036029 9.08047390  1064688172
9.19419384 -3.38932300 -2.49513626  3226430892
-2.49513626 0.96036023 9.29840755  1064688172
9.39301014 -2.79143453 -2.49513626  3223910077
-2.49513626 0.96036029 9.47789860  1064688172
9.55298901 -2.18200183 -2.49513626  3221343469
-2.49513626 0.96036029 9.64708424  1064688171
9.67347145 -1.56354487 -2.49513626  3216257893
-2.49513626 0.96036023 9.73760796  1064688171
7.84576273 -0.75499547 -2.00700521  3206373115
-1.96222007 0.96869248 7.56372595  1064837264
7.56669855 -0.11763283 -1.92695129  998523129
-1.92756283 0.96923685 7.56646538  1064837264
7.61608744 0.49455687 -1.94337857  1059034519
-1.96365464 0.96866995 7.86193037  1064815025
9.73643303 1.10569811 -2.49513626  1068860985
-2.49513626 0.96036023 9.67179871  1064688171
9.61619949 1.88399374 -2.49513626  1077103346
-2.49513626 0.96036023 9.34377289  1064688172
9.29510689 3.10188961 -2.49513626  1078988597
-2.49513626 0.96036023 9.19057560  1064688171
9.13474083 3.54644561 -2.49513626  1080842137
-2.49513626 0.96036023 8.95312405  1064688171
8.82044888 4.26853609 -2.49513626  3238829184
-2.49513626 0.96158755 3.66689944  1064708762
3.80678797 -8.67030048 -2.49513626  3238502518
-2.49513626 0.96158755 4.49074554  1064708762
4.75644922 -8.18791485 -2.49513626  3236975447
-2.49513626 0.96158755 5.88740873  1064708762
6.00588226 -7.32086754 -2.49513626  3236373916
-2.49513626 0.96158761 6.35187912  1064708762
6.46396399 -6.91975021 -2.49513626  3235517424
-2.49513626 0.96158755 6.79008389  1064708762
6.99876165 -6.37832975 -2.49513626  3233878557
-2.49513626 0.96158755 7.39421511  1064708762
7.58057213 -5.67456579 -2.49513626  3232868770
-2.49513626 0.96158755 7.75909042  1064708762
7.84535456 -5.30247068 -2.49513626  3231810846
-2.49513626 0.96158755 8.09188843  1064708762
8.31960106 -4.52216721 -2.49513626  3230427407
-2.49513626 0.96158755 8.46069050  1064708762
8.59303188 -3.97813845 -2.49513626  3228354996
-2.49513626 0.96158755 8.83092976  1064708762
8.88473511 -3.27524590 -2.49513626  3225973342
-2.49513626 0.96158755 9.03231907  1064708762
9.11905384 -2.55120230 -2.49513626  3222921074
-2.49513626 0.96158755 9.19636440  1064708762
9.26416588 -1.95986998 -2.49513626  3217122762
-2.49513626 0.96158755 9.37096500  1064708762
9.39162731 -1.20959759 -2.49513626  3213327188
-2.49513626 0.96158755 7.88429689  1064812430
7.70360374 -0.61649418 -2.03639078  3204013017
-2.01352024 0.96888530 7.59003401  1064834073
7.57528067 0.24771644 -1.99715507  1052620557
-2.00290847 0.96904671 7.70873642  1064824972
7.89545774 0.76827580 -2.09028101  1067195457
-2.49513626 0.96158755 9.29253674  1064708762
9.26206493 1.96974671 -2.49513626  1075478370
-2.49513626 0.96158755 9.07398129  1064708762
8.88123608 3.28471851 -2.49513626  1079727430
-2.49513626 0.96158755 8.77104187  1064708762
8.58878422 3.98729825 -2.49513626  1082678559
-2.49513626 0.96158755 3.41076183  1064728075
3.54699063 -8.44489384 -2.49513626  3238408256
-2.49513626 0.96273869 3.81666160  1064728075
3.95003533 -8.26405525 -2.49513626  3238069787
-2.49513626 0.96273869 4.47298288  1064728075
4.72765207 -7.84517002 -2.49513626  3237516458
-2.49513626 0.96273869 4.97743320  1064728075
5.22206736 -7.52511835 -2.49513626  3236828683
-2.49513626 0.96273869 5.80948591  1064728075
5.92258978 -6.98715639 -2.49513626  3234614140
-2.49513626 0.96273869 6.66983271  1064728075
6.96475887 -5.94890928 -2.49513626  3233464796
-2.49513626 0.96273869 7.33268309  1064728075
7.58880520 -5.12907648 -2.49513626  3231464697
-2.49513626 0.96273869 7.82727909  1064728075
7.90275002 -4.63076019 -2.49513626  3230669170
-2.49513626 0.96273869 8.04754639  1064728075
8.18402195 -4.11329603 -2.49513626  3227847547
-2.49513626 0.96273869 8.54215336  1064728075
8.59419918 -3.16814375 -2.49513626  3224959247
-2.49513626 0.96273869 8.73695564  1064728075
8.82085514 -2.46777439 -2.49513626  3221992639
-2.49513626 0.96273869 8.92958164  1064728074
8.96121788 -1.89578080 -2.49513626  3219140590
-2.49513626 0.96273869 9.08451366  1064728075
7.89712286 -0.75993782 -2.16117740  3204062903
-2.08794379 0.96872330 7.59150743  1064833161
7.58795023 0.00404563 -2.06701922  1052649898
-2.07550454 0.96890670 7.65431118  1064828098
7.73185396 0.62705308 -2.11313510  1061486530
-2.16446567 0.96759582 9.08326149  1064728075
8.98866463 1.76104879 -2.49513626  1075147273
-2.49513626 0.96273869 8.77725124  1064728075
8.73401546 2.75940824 -2.49513626  1079831358
-2.49513626 0.96273869 8.36886120  1064728075
8.17963123 4.12201691 -2.49513626  3238067362
-2.49513626 0.96382046 4.20574236  1064746224
4.57729435 -7.59566259 -2.49513626  3236673377
-2.49513626 0.96382046 5.17246437  1064746224
5.28760815 -7.11947393 -2.49513626  3235791863
-2.49513626 0.96382046 5.62472391  1064746223
5.73422956 -6.76493216 -2.49513626  3234188330
-2.49513626 0.96382040 6.45770836  1064746223
6.74325323 -5.75970936 -2.49513626  3233075538
-2.49513626 0.96382046 7.18399906  1064746224
7.26666498 -5.08343458 -2.49513626  3231639828
-2.49513626 0.96382046 7.42634010  1064746224
7.65141201 -4.48348379 -2.49513626  3230368821
-2.49513626 0.96382046 7.79160261  1064746223
7.85868502 -4.10935307 -2.49513626  3229540579
-2.49513626 0.96382040 8.10653591  1064746224
8.16329956 -3.46500421 -2.49513626  3226817802
-2.49513626 0.96382046 8.27047920  1064746224
8.32087421 -3.06738496 -2.49513626  3225139641
-2.49513626 0.96382046 8.45908642  1064746224
8.61271858 -2.11348128 -2.49513626  3221013583
-2.49513626 0.96382040 8.75462627  1064746223
8.77624035 -1.27409470 -2.49513626  3213951133
-2.49513626 0.96382046 8.81267071  1064746223
8.33344841 -0.80192542 -2.35549927  3206465019
-2.18748760 0.96820962 7.60091305  1064831541
7.59642458 0.00405015 -2.13730121  1040273106
-2.13894916 0.96890390 7.60612154  1064830976
7.67774153 0.49856055 -2.16473079  1059127990
-2.18914294 0.96818596 8.33364868  1064779534
8.81161022 1.00067198 -2.49513626  1066546155
-2.49513626 0.96382046 8.70279026  1064746224
8.67425251 1.84473813 -2.49513626  1073607261
-2.49513626 0.96382046 8.61045837  1064746224
8.53776932 2.39839602 -2.49513626  1075987242
-2.49513626 0.96382040 8.41220093  1064746223
8.26706123 3.20958114 -2.49513626  1079370903
-2.49513626 0.96382046 8.15960121  1064746223
8.04370117 3.73424482 -2.49513626  1081556155
-2.49513626 0.96382046 3.20003510  1064763310
3.45479941 -7.86861610 -2.49513626  3237485685
-2.49513626 0.96483886 3.83016539  1064763310
4.19662762 -7.49927187 -2.49513626  3236661497
