# .PCD v0.7 - Point Cloud Data file format
VERSION 0.7
FIELDS x y z intensity
SIZE 4 4 4 4
TYPE F F F F
COUNT 1 1 1 1
WIDTH 992
HEIGHT 1
VIEWPOINT 0 0 0 1 0 0 0
POINTS 992
DATA ascii
-31.64363289 -38.70606995 -2.49513626  3256798576
-2.49513626 0.81854409 -29.09815025  1062308891
-28.44266129 -41.11560822 -2.49513626  3257287648
-2.49513626 0.81854409 -27.10997581  1062308891
-26.43307114 -42.43549728 -2.49513626  3257625163
-2.49513626 0.81854409 -22.23519516  1062308891
-21.51448631 -45.12876511 -2.49513626  3258310425
-2.49513626 0.81854403 -20.05669975  1062308891
-18.57823753 -46.41474152 -2.49513626  3258635152
-2.49513626 0.81854403 -17.08076096  1062308891
-45.10432434 5.64733887 -2.64753628  1073815394
-2.64753628 0.83348954 -45.43819809  1062559635
-45.45616913 -0.16809130 -2.64753628  3211105312
-2.64753628 0.83348954 -45.42744064  1062559633
-45.35196686 -3.08075857 -2.64753628  3228806270
-2.64753628 0.83348954 -45.15141678  1062559634
-45.06132889 -5.98074102 -2.64753628  3240394428
-2.64753628 0.83348960 -43.73311996  1062559635
-43.52874374 -13.09735966 -2.64753628  3244077582
-2.64753628 0.83348954 -43.08650970  1062559634
-42.84872818 -15.17492294 -2.64753628  3246244393
-2.64753628 0.83348960 -42.06961823  1062559634
-41.49602509 -18.55725479 -2.64753628  3248424485
-2.64753628 0.83348942 -40.55585480  1062559634
-40.22152328 -21.17832756 -2.64753628  3249410461
-2.49513626 0.84227395 -36.18630219  1062707012
-35.81404877 -23.50764847 -2.49513626  3250626893
-2.49513626 0.84227395 -35.04203415  1062707012
-34.64245605 -25.20228386 -2.49513626  3251791410
-2.49513626 0.84227395 -33.39076233  1062707012
-32.95621490 -27.37047768 -2.49513626  3253690182
-2.49513626 0.84227395 -30.17507935  1062707013
-29.18470955 -31.36093140 -2.49513626  3254688019
-2.49513626 0.84227401 -28.16433334  1062707013
-27.11500931 -33.16672516 -2.49513626  3255198592
-2.49513626 0.84227395 -26.03778458  1062707012
-25.48908424 -34.43199539 -2.49513626  3255523391
-2.49513626 0.84227395 -23.23018456  1062707013
-22.65015030 -36.36242676 -2.49513626  3256108940
-2.49513626 0.84227395 -20.87574005  1062707012
-18.43547249 -38.67025375 -2.49513626  3256604642
-2.49513626 0.84227395 -17.18632317  1062707012
-39.64445496 3.03721642 -2.64753628  1070916134
-2.49513626 0.86051911 -37.46903610  1063013115
-37.46459579 -0.73926687 -2.49513626  3215687126
-2.49513626 0.86051911 -37.28510284  1063013114
-37.22039795 -4.33405733 -2.49513626  3231564852
-2.49513626 0.86051911 -37.06232834  1063013115
-36.86614990 -6.71038914 -2.49513626  3236535792
-2.49513626 0.86051911 -36.63207245  1063013115
-36.36034775 -9.05913448 -2.49513626  3240330639
-2.49513626 0.86051911 -35.88276672  1063013114
-35.70507050 -11.37059402 -2.49513626  3242135684
-2.49513626 0.86051911 -35.32219696  1063013115
-34.90300369 -13.63533783 -2.49513626  3244496642
-2.49513626 0.86051911 -34.44793701  1063013115
-33.95746231 -15.84402752 -2.49513626  3247155853
-2.49513626 0.86051911 -32.87231827  1063013115
-32.57971954 -18.51224709 -2.49513626  3247981026
-2.49513626 0.86051911 -30.99275780  1063013115
-30.65114212 -21.55573845 -2.49513626  3249813464
-2.49513626 0.86051911 -29.57936478  1063013115
-27.23319054 -25.73898888 -2.49513626  3252384581
-2.49513626 0.86051911 -25.08475304  1063013115
-24.63524055 -28.23556137 -2.49513626  3253011411
-2.49513626 0.86051911 -22.77515793  1063013115
-22.29521751 -30.11753273 -2.49513626  3254336670
-2.49513626 0.86051911 -20.31936073  1063013115
-19.81200600 -31.80607796 -2.49513626  3254811259
-2.49513626 0.86051911 -18.25994682  1063013115
-17.20151711 -33.29039001 -2.49513626  3255189340
-2.49513626 0.86051911 -16.12546349  1063013115
-15.58113575 -34.07888412 -2.49513626  3255451222
-2.49513626 0.86051911 -12.80229473  1063013115
-33.03733063 4.13645172 -2.49513626  1078251559
-2.49513626 0.87497973 -33.26248550  1063255723
-33.29277420 0.41066539 -2.49513626  3218907865
-2.49513626 0.87497967 -33.07184982  1063255722
-33.00586700 -4.38068533 -2.49513626  3231520912
-2.49513626 0.87497962 -32.43259048  1063255719
-32.30765152 -8.04941845 -2.49513626  3239136182
-2.49513626 0.87497962 -31.88329506  1063255722
-31.72540855 -10.10323715 -2.49513626  3240740036
-2.49513626 0.87497962 -31.20298958  1063255714
-31.01274681 -12.11546993 -2.49513626  3243866900
-2.49513626 0.87497962 -30.17259789  1063255722
-29.94303322 -14.55994701 -2.49513626  3245382691
-2.49513626 0.87497962 -29.20840263  1063255722
-28.68100357 -16.91085815 -2.49513626  3247108791
-2.49513626 0.87497944 -28.12412262  1063255722
-27.23479271 -19.15315628 -2.49513626  3248938857
-2.49513626 0.87497962 -25.61368561  1063255722
-24.91855240 -22.08264542 -2.49513626  3250393784
-2.49513626 0.87497962 -21.88943100  1063255722
-21.07387733 -25.77729416 -2.49513626  3251692807
-2.49513626 0.87497962 -19.81020737  1063255722
-19.37865639 -27.07480431 -2.49513626  3252358739
-2.49513626 0.87497962 -17.60378265  1063255722
-16.68872643 -28.81082916 -2.49513626  3253246187
-2.49513626 0.87497962 -15.75650501  1063255722
-13.35727119 -30.49852943 -2.49513626  3254310901
-2.49513626 0.87497962 -11.37535858  1063255722
-29.77639008 3.24425936 -2.49513626  1076956802
-2.49513626 0.88672054 -29.86508942  1063452702
-29.92308998 1.32941699 -2.49513626  1062828459
-2.49513626 0.88672054 -29.95240211  1063452702
-29.93345833 -1.07093191 -2.49513626  3221351311
-2.49513626 0.88672054 -29.80329704  1063452702
-29.69222641 -3.94088364 -2.49513626  3231482108
-2.49513626 0.88672054 -29.46842194  1063452702
-29.37864685 -5.83557129 -2.49513626  3235432445
-2.49513626 0.88672054 -28.94428444  1063452702
-28.68235588 -8.63023376 -2.49513626  3239623043
-2.49513626 0.88672054 -28.23427963  1063452702
-28.07034874 -10.45055485 -2.49513626  3241042725
-2.49513626 0.88672054 -27.72089958  1063452702
-27.34294891 -12.22791862 -2.49513626  3242893968
-2.49513626 0.88672054 -26.72344017  1063452702
-26.50313377 -13.95501328 -2.49513626  3245130384
-2.49513626 0.88672054 -25.30058479  1063452702
-25.04031181 -16.43597794 -2.49513626  3246829228
-2.49513626 0.88672054 -23.64382744  1063452702
-23.04218674 -19.13677597 -2.49513626  3248228256
-2.49513626 0.88672054 -21.76845360  1063452702
-21.43584442 -20.92040253 -2.49513626  3249149778
-2.49513626 0.88672054 -20.05112457  1063452702
-19.69183350 -22.56968117 -2.49513626  3250318381
-2.49513626 0.88672054 -18.20499420  1063452702
-17.43312645 -24.35661507 -2.49513626  3250917456
-2.49513626 0.88672054 -15.83643627  1063452702
-15.42682743 -25.67433929 -2.49513626  3251591367
-2.49513626 0.88672054 -14.59581184  1063452702
-14.17462158 -26.38633728 -2.49513626  3252067861
-2.49513626 0.88672054 -12.88963795  1063452702
-12.01626301 -27.43661499 -2.49513626  3252673632
-2.49513626 0.88672054 -10.23332596  1063452702
-27.05632782 2.94789338 -2.49513626  1075896733
-2.49513626 0.89644140 -27.18962860  1063615791
-27.20550156 0.77192235 -2.49513626  1051451259
-2.49513626 0.89644140 -27.19904709  1063615791
-27.03379059 -3.14790058 -2.49513626  3230545166
-2.49513626 0.89644140 -26.77649117  1063615791
-26.60647583 -5.72978115 -2.49513626  3234134645
-2.49513626 0.89644140 -26.40911293  1063615791
-26.30023956 -7.00231791 -2.49513626  3237671055
-2.49513626 0.89644140 -25.93317795  1063615791
-25.50613785 -9.49590111 -2.49513626  3239998727
-2.49513626 0.89644140 -25.18860817  1063615791
-24.84518051 -11.11090183 -2.49513626  3241680856
-2.49513626 0.89644140 -24.28226471  1063615791
-23.87571144 -13.06467152 -2.49513626  3244108944
-2.49513626 0.89644140 -23.21998024  1063615791
-22.75289345 -14.93455505 -2.49513626  3245654558
-2.49513626 0.89644140 -22.26243019  1063615791
-22.00857544 -16.01117325 -2.49513626  3246762756
-2.49513626 0.89644140 -21.21336365  1063615791
-20.65583992 -17.72206306 -2.49513626  3247804070
-2.49513626 0.89644140 -17.56191063  1063615791
-16.54197502 -21.61245537 -2.49513626  3249606046
-2.49513626 0.89644140 -15.48377991  1063615791
-15.12298298 -22.62808800 -2.49513626  3249991906
-2.49513626 0.89644140 -14.38978767  1063615791
-12.49374580 -24.17935562 -2.49513626  3250883106
-2.49513626 0.89644140 -10.91858292  1063615791
-9.70736694 -25.42640495 -2.49513626  3251413323
-2.49513626 0.89644140 -24.74197960  1063753029
-24.88961601 1.50590813 -2.49513626  1066248447
-2.49513626 0.90462154 -24.92513084  1063753029
-24.93498993 -0.09220681 -2.49513626  3211017140
-2.49513626 0.90462154 -24.84753799  1063753029
-24.81086922 -2.48662138 -2.49513626  3224933401
-2.49513626 0.90462142 -24.71839714  1063753029
-24.66262627 -3.67657518 -2.49513626  3229763978
-2.49513626 0.90462154 -24.45734787  1063753029
-24.37631798 -5.24950933 -2.49513626  3233052594
-2.49513626 0.90462142 -24.09574699  1063753029
-23.98980904 -6.80083227 -2.49513626  3236292582
-2.49513626 0.90462142 -23.50467491  1063753029
-23.22573471 -9.07344913 -2.49513626  3239904142
-2.49513626 0.90462142 -22.76264763  1063753029
-22.42461586 -10.90407658 -2.49513626  3241795776
-2.49513626 0.90462142 -21.47944069  1063753031
-21.27367592 -13.00742054 -2.49513626  3243609207
-2.49513626 0.90462142 -20.62371254  1063753029
-20.39638710 -14.34397411 -2.49513626  3245332727
-2.49513626 0.90462142 -19.43525124  1063753029
-18.66173553 -16.53789711 -2.49513626  3246829048
-2.49513626 0.90462142 -16.69230461  1063753029
-16.08987236 -19.04936218 -2.49513626  3248123991
-2.49513626 0.90462142 -15.47090816  1063753029
-14.83604431 -20.04130745 -2.49513626  3248633435
-2.49513626 0.90462154 -14.18592453  1063753029
-13.52122688 -20.95082474 -2.49513626  3249099205
-2.49513626 0.90462142 -12.84263611  1063753029
-12.49833584 -21.57669830 -2.49513626  3249418684
-2.49513626 0.90462142 -11.80018902  1063753029
-11.08992863 -22.33328247 -2.49513626  3249892144
-2.49513626 0.90462136 -10.00337410  1063753031
-9.63592052 -22.99807358 -2.49513626  3250216059
-2.49513626 0.90462142 -8.51911068  1063753028
-22.86838722 2.49160957 -2.49513626  1071705049
-2.49513626 0.91159946 -22.99446678  1063870101
-22.95082474 -1.55904961 -2.49513626  3222458643
-2.49513626 0.91159946 -22.80374527  1063870101
-22.63186073 -4.11945915 -2.49513626  3230624366
-2.49513626 0.91159946 -22.48816299  1063870101
-22.40763664 -5.20277643 -2.49513626  3232888450
-2.49513626 0.91159946 -22.22932243  1063870101
-21.91907883 -6.98032379 -2.49513626  3238030021
-2.49513626 0.91159946 -20.99949265  1063870101
-20.68763542 -10.05946350 -2.49513626  3241530661
-2.49513626 0.91159946 -19.43095016  1063870101
-19.23105621 -12.62289810 -2.49513626  3243171714
-2.49513626 0.91159946 -18.38261986  1063870101
-18.15855217 -14.12225151 -2.49513626  3244725674
-2.49513626 0.91159946 -16.96941566  1063870101
-16.71825790 -15.80097580 -2.49513626  3246426399
-2.49513626 0.91159946 -16.20310211  1063870101
-15.93925858 -16.58647156 -2.49513626  3246962203
-2.49513626 0.91159946 -14.84357262  1063870101
-14.55993938 -17.80952644 -2.49513626  3247461190
-2.49513626 0.91159946 -13.68687248  1063870101
-13.38870907 -18.70597267 -2.49513626  3248239683
-2.49513626 0.91159946 -11.53023243  1063870101
-9.22853851 -21.07142830 -2.49513626  3249126336
-2.49513626 0.91159946 -8.20480061  1063870101
-7.85923576 -21.61951828 -2.49513626  1076476926
-2.49513626 0.91762149 -21.25600243  1063971134
-21.28487778 1.63066328 -2.49513626  1064472001
-2.49513626 0.91762149 -21.34312057  1063971132
-21.29816818 -1.44678438 -2.49513626  3219447343
-2.49513626 0.91762143 -21.16170311  1063971132
-21.06076050 -3.48563862 -2.49513626  3228870941
-2.49513626 0.91762143 -20.86882210  1063971134
-20.79409599 -4.82813168 -2.49513626  3232048627
-2.49513626 0.91762137 -20.62862587  1063971133
-20.44194412 -6.15077543 -2.49513626  3236170698
-2.49513626 0.91762149 -20.00578880  1063971132
-19.88379288 -7.76787567 -2.49513626  3238092479
-2.49513626 0.91762149 -19.62457275  1063971132
-19.48734856 -8.71484566 -2.49513626  3239078671
-2.49513626 0.91762143 -19.19794846  1063971134
-19.04583931 -9.64168835 -2.49513626  3240042958
-2.49513626 0.91762149 -18.38879776  1063971134
-17.84625626 -11.71394062 -2.49513626  3242195447
-2.49513626 0.91762149 -17.46155930  1063971134
-17.26245117 -12.55838203 -2.49513626  3243915397
-2.49513626 0.91762149 -15.97650433  1063971134
-15.51440048 -14.66317081 -2.49513626  3245248336
-2.49513626 0.91762149 -15.03633976  1063971134
-14.29045963 -15.85837078 -2.49513626  3246436089
-2.49513626 0.91762149 -13.77471256  1063971134
-13.51149750 -16.52708626 -2.49513626  3246890285
-2.49513626 0.91762149 -12.70129490  1063971134
-12.42461395 -17.35897636 -2.49513626  3247207055
-2.49513626 0.91762149 -11.86172676  1063971134
-11.57567692 -17.93624306 -2.49513626  3247687355
-2.49513626 0.91762149 -10.40244961  1063971134
-9.79948997 -18.96510506 -2.49513626  3248105462
-2.49513626 0.91762149 -8.24941635  1063971134
-7.93271732 -19.81860924 -2.49513626  3248521334
-2.49513626 0.91762149 -19.75646591  1064059206
-19.89109802 0.88371468 -2.49513626  1048279214
-2.49513626 0.92287099 -19.91058540  1064059206
-19.88402367 -1.03079116 -2.49513626  3215768055
-2.49513626 0.92287099 -19.84075546  1064059206
-19.81147194 -1.98557138 -2.49513626  3223824541
-2.49513626 0.92287099 -19.69310188  1064059206
-19.52918816 -3.87914395 -2.49513626  3231968517
-2.49513626 0.92287099 -19.15585709  1064059206
-19.06633949 -5.73686886 -2.49513626  3233895993
-2.49513626 0.92287099 -18.87262726  1064059206
-18.65950966 -6.94691038 -2.49513626  3237041199
-2.49513626 0.92287099 -18.17597580  1064059206
-18.04332924 -8.41873741 -2.49513626  3239341164
-2.49513626 0.92287099 -17.31126976  1064059206
-17.15135384 -10.11276150 -2.49513626  3240505035
-2.49513626 0.92287099 -16.64531898  1064059206
-16.46803093 -11.19110584 -2.49513626  3241624120
-2.49513626 0.92287099 -15.71702194  1064059206
-15.11117649 -12.96492195 -2.49513626  3243461057
-2.49513626 0.92287099 -14.24928093  1064059206
-14.02449512 -14.13331032 -2.49513626  3244897746
-2.49513626 0.92287099 -13.32880211  1064059206
-13.08995914 -15.00299168 -2.49513626  3245563879
-2.49513626 0.92287099 -12.35351658  1064059206
-11.58851433 -16.19083595 -2.49513626  3246773635
-2.49513626 0.92287099 -10.25484371  1064059206
-9.97992134 -17.22898865 -2.49513626  3247276755
-2.49513626 0.92287099 -8.85529804  1064059206
-8.56826973 -17.97280312 -2.49513626  3247496415
-2.49513626 0.92287099 -6.80250454  1064059206
-18.50837898 2.31736088 -2.49513626  1071416654
-2.49513626 0.92748749 -18.59837151  1064136657
-18.61880493 1.12650263 -2.49513626  1057451786
-2.49513626 0.92748743 -18.65146637  1064136656
-18.65276146 -0.06897583 -2.49513626  3200018901
-2.49513626 0.92748731 -18.62787819  1064136655
-18.58732605 -1.56235123 -2.49513626  3220052203
-2.49513626 0.92748737 -18.52770424  1064136655
-18.44901657 -2.75028753 -2.49513626  3225611415
-2.49513626 0.92748749 -18.35136414  1064136655
-18.29543686 -3.63407969 -2.49513626  3229307567
-2.49513626 0.92748743 -18.16954803  1064136655
-17.77339745 -5.66009521 -2.49513626  3234284372
-2.49513626 0.92748731 -17.37414169  1064136656
-17.26310158 -7.06509924 -2.49513626  3237195068
-2.49513626 0.92748731 -16.50470734  1064136658
-16.21763992 -9.21508503 -2.49513626  3239548165
-2.49513626 0.92748749 -15.91389465  1064136655
-15.59374332 -10.23543453 -2.49513626  3240865398
-2.49513626 0.92748731 -15.08364010  1064136657
-14.53865242 -11.68579769 -2.49513626  3242110334
-2.49513626 0.92748737 -14.15653515  1064136657
-13.96000481 -12.37125874 -2.49513626  3242819288
-2.49513626 0.92748737 -12.26301098  1064136657
-11.57310009 -14.62851906 -2.49513626  3245145753
-2.49513626 0.92748743 -11.09818172  1064136657
-10.11463451 -15.67238903 -2.49513626  3246379337
-2.49513626 0.92748743 -8.82718945  1064136657
-8.56263065 -16.57139206 -2.49513626  3246830312
-2.49513626 0.92748749 -7.75603199  1064136655
-7.48308229 -17.08604813 -2.49513626  3247022452
-2.49513626 0.92748737 -6.37276459  1064136656
-17.40627861 2.17937303 -2.49513626  1072903366
-2.49513626 0.93157834 -17.49092484  1064205291
-17.53512383 0.49753669 -2.49513626  1046318867
-2.49513626 0.93157834 -17.48053741  1064205291
-17.45473671 -1.74937177 -2.49513626  3224850762
-2.49513626 0.93157834 -17.20603561  1064205291
-17.14903069 -3.69309235 -2.49513626  3229477911
-2.49513626 0.93157834 -16.71507454  1064205290
-16.62757301 -5.59034300 -2.49513626  3233506767
-2.49513626 0.93157834 -16.43981361  1064205291
-16.33959389 -6.38328552 -2.49513626  3236780596
-2.49513626 0.93157834 -15.77598381  1064205291
-15.65097141 -7.92308378 -2.49513626  3238443873
-2.49513626 0.93157834 -15.25195312  1064205291
-15.11106300 -8.90976620 -2.49513626  3239459821
-2.49513626 0.93157834 -14.66522408  1064205291
-14.34910107 -10.09115791 -2.49513626  3240435280
-2.49513626 0.93157834 -13.84735584  1064205291
-13.49499512 -11.20773506 -2.49513626  3241591589
-2.49513626 0.93157834 -13.12875366  1064205291
-12.74901581 -12.04951382 -2.49513626  3242670989
-2.49513626 0.93157834 -12.15496445  1064205291
-11.95062923 -12.84175110 -2.49513626  3243666523
-2.49513626 0.93157834 -11.10312366  1064205291
-10.43733501 -14.09929752 -2.49513626  3244571815
-2.49513626 0.93157834 -9.97996998  1064205291
-9.27484322 -14.88977718 -2.49513626  3245381045
-2.49513626 0.93157834 -8.79272842  1064205291
-8.54825020 -15.31846905 -2.49513626  3246089033
-2.49513626 0.93157834 -7.54900694  1064205291
-7.29419184 -15.95377541 -2.49513626  3246541248
-2.49513626 0.93157834 -6.25681925  1064205291
-16.48338318 1.52897692 -2.49513626  1065349088
-2.49513626 0.93522841 -16.53783035  1064266529
-16.55288696 0.20418020 -2.49513626  3178937487
-2.49513626 0.93522841 -16.55092239  1064266529
-16.54356194 -0.59187645 -2.49513626  3210438043
-2.49513626 0.93522835 -16.47162628  1064266528
-16.44304466 -1.91467857 -2.49513626  3223074475
-2.49513626 0.93522835 -16.33197594  1064266529
-16.23692894 -3.22519183 -2.49513626  3227454369
-2.49513626 0.93522835 -16.06309319  1064266528
-15.99686718 -4.25909281 -2.49513626  3230694088
-2.49513626 0.93522841 -15.85210800  1064266528
-15.77360821 -5.02324486 -2.49513626  3232288935
-2.49513626 0.93522841 -15.51386356  1064266528
-15.21824074 -6.51497364 -2.49513626  3237890406
-2.49513626 0.93522841 -14.25995350  1064266529
-13.83922672 -9.08380318 -2.49513626  3239370547
-2.49513626 0.93522841 -13.54090786  1064266529
-12.90282440 -10.37096310 -2.49513626  3240704316
-2.49513626 0.93522835 -12.56371403  1064266528
-12.38929462 -10.97930527 -2.49513626  3241333504
-2.49513626 0.93522835 -11.66022682  1064266528
-11.47035503 -11.93610668 -2.49513626  3242509136
-2.49513626 0.93522835 -10.68186951  1064266529
-10.47775650 -12.81625175 -2.49513626  3243565570
-2.49513626 0.93522835 -9.63490772  1064266528
-9.41786289 -13.61409760 -2.49513626  3244045967
-2.49513626 0.93522835 -8.52606964  1064266529
-8.29749107 -14.32450294 -2.49513626  3245514278
-2.49513626 0.93522841 -6.15158176  1064266528
-5.65573311 -15.55803299 -2.49513626  1073294738
-2.49513626 0.93850493 -15.57719421  1064321500
-15.60239983 1.44725776 -2.49513626  1055099681
-2.49513626 0.93850493 -15.66633034  1064321500
-15.64836884 -0.81121421 -2.49513626  3213356734
-2.49513626 0.93850493 -15.61431599  1064321500
-15.59126949 -1.56260872 -2.49513626  3219651310
-2.49513626 0.93850493 -15.53316402  1064321500
-15.49811840 -2.31038213 -2.49513626  3223568158
-2.49513626 0.93850493 -15.31819916  1064321500
-15.26334667 -3.54396057 -2.49513626  3228725740
-2.49513626 0.93850493 -15.07531357  1064321500
-14.93056011 -4.75476837 -2.49513626  3232195616
-2.49513626 0.93850493 -14.68469810  1064321500
-14.50188541 -5.93504524 -2.49513626  3234640749
-2.49513626 0.93850493 -14.09174156  1064321500
-13.86482716 -7.30041504 -2.49513626  3236999721
-2.49513626 0.93850493 -13.62365723  1064321500
-13.36848354 -8.17392826 -2.49513626  3238408689
-2.49513626 0.93850493 -12.52163696  1064321500
-12.36901188 -9.61961365 -2.49513626  3239907600
-2.49513626 0.93850493 -11.38792896  1064321500
-11.21392822 -10.94427967 -2.49513626  3241461060
-2.49513626 0.93850493 -10.67477989  1064321500
-10.48952770 -11.64041519 -2.49513626  3241994703
-2.49513626 0.93850493 -10.11095428  1064321500
-9.52374268 -12.44298172 -2.49513626  3242974930
-2.49513626 0.93850493 -8.91450691  1064321500
-8.70677662 -13.02771854 -2.49513626  3243419233
-2.49513626 0.93850493 -8.28466034  1064321500
-8.07037640 -13.43124962 -2.49513626  3243961819
-2.49513626 0.93850493 -7.41529846  1064321500
-7.19305229 -13.92082500 -2.49513626  3244445420
-2.49513626 0.93850493 -6.51546383  1064321500
-6.28617716 -14.35316467 -2.49513626  3244768203
-2.49513626 0.93850493 -5.82279730  1064321500
-5.58884096 -14.63879395 -2.49513626  1063645093
-2.49513626 0.94146234 -14.87125778  1064371116
-14.87228394 -0.05499607 -2.49513626  3197516278
-2.49513626 0.94146234 -14.86286736  1064371117
-14.85244370 -0.76995331 -2.49513626  3212903623
-2.49513626 0.94146234 -14.82012653  1064371117
-14.79825115 -1.48312986 -2.49513626  3222034423
-2.49513626 0.94146234 -14.67277908  1064371117
-14.63197327 -2.66331625 -2.49513626  3224990027
-2.49513626 0.94146234 -14.53907108  1064371117
-14.48700809 -3.36370373 -2.49513626  3227917569
-2.49513626 0.94146234 -14.30853939  1064371117
-14.17114639 -4.51292658 -2.49513626  3231637641
-2.49513626 0.94146234 -13.93778896  1064371117
-13.85281372 -5.41178989 -2.49513626  3233039085
-2.49513626 0.94146234 -13.67219830  1064371117
-13.57660961 -6.07153606 -2.49513626  3234413214
-2.49513626 0.94146234 -13.37499142  1064371117
-13.15961075 -6.92908812 -2.49513626  3236197392
-2.49513626 0.94146234 -12.93071747  1064371117
-12.43327332 -8.16096210 -2.49513626  3238379375
-2.49513626 0.94146234 -12.16526794  1064371117
-12.02654266 -8.74927521 -2.49513626  3238989348
-2.49513626 0.94146234 -11.73988628  1064371117
-10.97108364 -10.04107666 -2.49513626  3240506291
-2.49513626 0.94146234 -10.47564888  1064371117
-10.30506611 -10.72350121 -2.49513626  3241199105
-2.49513626 0.94146234 -9.41330051  1064371117
-9.22750378 -11.66366577 -2.49513626  3241997848
-2.49513626 0.94146234 -8.84884834  1064371117
-8.65607738 -12.09379864 -2.49513626  3242579810
-2.49513626 0.94146234 -7.86327600  1064371117
-7.24727106 -12.98710537 -2.49513626  3244183227
-2.49513626 0.94146228 -5.08115530  1064371117
-14.04099941 1.75801933 -2.49513626  1069821812
-2.49513626 0.94414485 -14.10928059  1064416122
-14.12478447 0.85459816 -2.49513626  1043511639
-2.49513626 0.94414485 -14.15052795  1064416122
-14.14787102 -0.27917171 -2.49513626  3208350423
-2.49513626 0.94414485 -14.11808968  1064416122
-14.08008862 -1.41115308 -2.49513626  3218177755
-2.49513626 0.94414485 -14.02761459  1064416122
-13.99596310 -2.08644533 -2.49513626  3222528022
-2.49513626 0.94414485 -13.87946701  1064416122
-13.78395081 -3.20046258 -2.49513626  3227185716
-2.49513626 0.94414485 -13.67426395  1064416122
-13.55051804 -4.07721519 -2.49513626  3230230461
-2.49513626 0.94414485 -13.41284752  1064416122
-13.33883190 -4.72396088 -2.49513626  3231579522
-2.49513626 0.94414485 -13.18053150  1064416122
-13.00868511 -5.56905603 -2.49513626  3233340468
-2.49513626 0.94414485 -12.82346535  1064416122
-12.52096748 -6.59281826 -2.49513626  3235470803
-2.49513626 0.94414485 -12.18952370  1064416123
-12.07274532 -7.38167238 -2.49513626  3237109857
-2.49513626 0.94414485 -11.44289017  1064416123
-11.30797958 -8.50704288 -2.49513626  3239275890
-2.49513626 0.94414485 -10.59047604  1064416122
-10.28415775 -9.71989632 -2.49513626  3239977692
-2.49513626 0.94414485 -9.96726131  1064416122
-9.64013100 -10.35896301 -2.49513626  3240949665
-2.49513626 0.94414485 -8.77969265  1064416122
-8.60066128 -11.23694420 -2.49513626  3241539932
-2.49513626 0.94414485 -7.86288023  1064416122
-7.67326450 -11.88954449 -2.49513626  3242453589
-2.49513626 0.94414485 -6.89555883  1064416122
-6.69657135 -12.46579933 -2.49513626  3242796308
-2.49513626 0.94414485 -6.08949900  1064416123
-5.88395357 -12.86931705 -2.49513626  3243299393
-2.49513626 0.94414485 -5.25842476  1064416122
-4.83456945 -13.29914188 -2.49513626  1071027470
-2.49513626 0.94658887 -13.41446114  1064457127
-13.48842144 0.38271698 -2.49513626  3196603721
-2.49513626 0.94658887 -13.48522091  1064457126
-13.47576523 -0.69858593 -2.49513626  3211402907
-2.49513626 0.94658887 -13.40328789  1064457126
-13.37654400 -1.77539444 -2.49513626  3222972194
-2.49513626 0.94658887 -13.23527718  1064457126
-13.19142628 -2.84081149 -2.49513626  3227398365
-2.49513626 0.94658887 -12.98226452  1064457126
-12.79031181 -4.30021667 -2.49513626  3231098957
-2.49513626 0.94658887 -12.40490818  1064457126
-12.31818199 -5.50875616 -2.49513626  3233600395
-2.49513626 0.94658887 -12.03908539  1064457126
-11.93983936 -6.28682852 -2.49513626  3234809629
-2.49513626 0.94658887 -11.28082848  1064457126
-11.16067886 -7.58440971 -2.49513626  3237504306
-2.49513626 0.94658887 -10.91179943  1064457126
-10.78314018 -8.11220264 -2.49513626  3238300516
-2.49513626 0.94658887 -10.24111462  1064457126
-10.09893703 -8.94960690 -2.49513626  3239166983
-2.49513626 0.94658887 -9.80683422  1064457126
-9.34987736 -9.72952938 -2.49513626  3239972093
-2.49513626 0.94658887 -9.03316498  1064457126
-8.87129784 -10.16779327 -2.49513626  3240423540
-2.49513626 0.94658887 -8.54077721  1064457126
-8.37219810 -10.58254623 -2.49513626  3240986418
-2.49513626 0.94658887 -7.85374022  1064457126
-7.67682028 -11.09731007 -2.49513626  3241502532
-2.49513626 0.94658887 -7.13442230  1064457126
-6.19437170 -11.98806286 -2.49513626  3242286990
-2.49513626 0.94658887 -5.01436186  1064457126
-4.61018324 -12.68188477 -2.49513626  1070401874
-2.49513626 0.94882482 -12.83845139  1064494639
-12.85589600 0.98490840 -2.49513626  1058177052
-2.49513626 0.94882482 -12.88838005  1064494639
-12.89258671 0.15903068 -2.49513626  3175303856
-2.49513626 0.94882482 -12.89105892  1064494639
-12.88531590 -0.46099913 -2.49513626  3207258580
-2.49513626 0.94882482 -12.86392021  1064494639
-12.82929611 -1.28579462 -2.49513626  3216958107
-2.49513626 0.94882482 -12.72052193  1064494639
-12.68514156 -2.30895376 -2.49513626  3223373010
-2.49513626 0.94882482 -12.60460091  1064494639
-12.55946636 -2.91615224 -2.49513626  3225911046
-2.49513626 0.94882482 -12.34677124  1064494639
-12.22133160 -4.10891914 -2.49513626  3231064751
-2.49513626 0.94882482 -11.85307026  1064494639
-11.68430233 -5.45171452 -2.49513626  3233049892
-2.49513626 0.94882482 -11.31091976  1064494639
-11.21024609 -6.36981249 -2.49513626  3235330763
-2.49513626 0.94882482 -10.89103222  1064494639
-10.77898693 -7.07512140 -2.49513626  3236423559
-2.49513626 0.94882482 -10.54664040  1064494639
-10.42638016 -7.58516026 -2.49513626  3237481190
-2.49513626 0.94882482 -10.04965305  1064494639
-9.64967918 -8.55147839 -2.49513626  3239210955
-2.49513626 0.94882482 -8.93393898  1064494639
-8.78375530 -9.43873215 -2.49513626  3239801491
-2.49513626 0.94882482 -8.16083145  1064494639
-7.67147923 -10.36303425 -2.49513626  3240732807
-2.49513626 0.94882482 -6.99161530  1064494639
-6.64071941 -11.05192089 -2.49513626  3241313002
-2.49513626 0.94882482 -5.73441744  1064494639
-5.17258549 -11.81051350 -2.49513626  3242083672
-2.49513626 0.94882482 -4.79129505  1064494639
-4.59878540 -12.04554939 -2.49513626  1069827805
-2.49513626 0.95087790 -12.28996754  1064529084
-12.33056450 0.54781938 -2.49513626  1042015236
-2.49513626 0.95087790 -12.34264374  1064529084
-12.34032726 -0.24350439 -2.49513626  3210094017
-2.49513626 0.95087790 -12.29935646  1064529084
-12.28120136 -1.23086262 -2.49513626  3216423659
-2.49513626 0.95087790 -12.23543072  1064529084
-12.10621166 -2.40469480 -2.49513626  3225352477
-2.49513626 0.95087790 -11.92722416  1064529084
-11.87478638 -3.36636400 -2.49513626  3227753089
-2.49513626 0.95087790 -11.76076221  1064529084
-11.69920731 -3.93337727 -2.49513626  3229866624
-2.49513626 0.95087790 -11.56709576  1064529084
-11.49657345 -4.49129343 -2.49513626  3231412487
-2.49513626 0.95087790 -10.82769489  1064529084
-10.63218498 -6.26893520 -2.49513626  3234728153
-2.49513626 0.95087790 -10.20859051  1064529084
-10.09606457 -7.10016870 -2.49513626  3236453121
-2.49513626 0.95087790 -9.86325932  1064529084
-9.36747074 -8.03699970 -2.49513626  3238197872
-2.49513626 0.95087790 -9.10500145  1064529084
-8.97024250 -8.47807121 -2.49513626  3238653625
-2.49513626 0.95087790 -8.69383430  1064529084
-8.55226707 -8.89953136 -2.49513626  3239088479
-2.49513626 0.95087790 -7.81218624  1064529084
-7.65799046 -9.67977428 -2.49513626  3239891494
-2.49513626 0.95087790 -7.18376064  1064529084
-6.85830975 -10.26189423 -2.49513626  3240599474
-2.49513626 0.95087790 -6.18658733  1064529084
-5.48943090 -11.05482197 -2.49513626  3241296686
-2.49513626 0.95087790 -5.13221312  1064529084
-4.76971149 -11.38388252 -2.49513626  3241705145
-2.49513626 0.95087790 -11.74371338  1064560820
-11.76577377 1.28192914 -2.49513626  1066134562
-2.49513626 0.95276952 -11.80082417  1064560820
-11.81379986 0.71477616 -2.49513626  1057389110
-2.49513626 0.95276952 -11.83450699  1064560820
-11.83532333 -0.04376571 -2.49513626  3194952061
-2.49513626 0.95276952 -11.81953430  1064560820
-11.79381561 -0.99132514 -2.49513626  3214349085
-2.49513626 0.95276952 -11.75597668  1064560820
-11.60861206 -2.30585456 -2.49513626  3224838062
-2.49513626 0.95276952 -11.43697834  1064560820
-11.38669777 -3.22799635 -2.49513626  3229408815
-2.49513626 0.95276952 -11.09165668  1064560820
-11.02403164 -4.30668783 -2.49513626  3230626716
-2.49513626 0.95276952 -10.88030052  1064560820
-10.80422974 -4.83171177 -2.49513626  3231720245
-2.49513626 0.95276952 -10.55943966  1064560820
-10.38264656 -5.68133163 -2.49513626  3233487625
-2.49513626 0.95276952 -10.09749222  1064560820
-9.99721622 -6.33501959 -2.49513626  3234845367
-2.49513626 0.95276958 -9.78898811  1064560820
-9.68108654 -6.80833101 -2.49513626  3236147093
-2.49513626 0.95276952 -8.98244095  1064560820
-8.85774040 -7.84966707 -2.49513626  3237983102
-2.49513626 0.95276952 -8.47010899  1064560820
-8.20073795 -8.53372860 -2.49513626  3238699054
-2.49513626 0.95276952 -7.78098249  1064560820
-7.49108505 -9.16299629 -2.49513626  3239346873
-2.49513626 0.95276952 -6.88848639  1064560820
-6.25757504 -10.04587364 -2.49513626  3240451223
-2.49513626 0.95276952 -5.60092783  1064560820
-5.26379919 -10.60043716 -2.49513626  3241060303
-2.49513626 0.95276952 -4.39807987  1064560820
-4.22136593 -11.05698490 -2.49513626  1067292222
-2.49513626 0.95451802 -11.31796741  1064590155
-11.33334160 0.86826253 -2.49513626  1060092888
-2.49513626 0.95451802 -11.36198139  1064590155
-11.36434078 -0.22424589 -2.49513626  3201307534
-2.49513626 0.95451802 -11.35130978  1064590155
-11.34041691 -0.77035445 -2.49513626  3213956868
-2.49513626 0.95451802 -11.29026699  1064590155
-11.11180782 -2.39295888 -2.49513626  3225102754
-2.49513626 0.95451802 -10.88451290  1064590155
-10.77392769 -3.62228990 -2.49513626  3229470736
-2.49513626 0.95451802 -10.51965427  1064590155
-10.37622643 -4.64030457 -2.49513626  3231649490
-2.49513626 0.95451802 -10.05752373  1064590155
-9.97133541 -5.45626497 -2.49513626  3233001860
-2.49513626 0.95451802 -9.79129028  1064590155
-9.60118389 -6.08406115 -2.49513626  3234305824
-2.49513626 0.95451802 -9.40120316  1064590155
-9.29757690 -6.53862047 -2.49513626  3235248769
-2.49513626 0.95451802 -9.08318424  1064590155
-8.85945034 -7.12099981 -2.49513626  3236455224
-2.49513626 0.95451802 -8.62660885  1064590155
-8.50684643 -7.53870773 -2.49513626  3237319259
-2.49513626 0.95451802 -8.26079369  1064590155
-8.13457298 -7.93897009 -2.49513626  3238074372
-2.49513626 0.95451802 -7.87587070  1064590155
-7.74347687 -8.32087898 -2.49513626  3238841552
-2.49513626 0.95451802 -6.61559868  1064590155
-6.31588745 -9.45029354 -2.49513626  3239628318
-2.49513626 0.95451802 -6.00968027  1064590155
-5.85424376 -9.74301624 -2.49513626  3240021917
-2.49513626 0.95451802 -5.37905025  1064590155
-4.89141703 -10.26023293 -2.49513626  3240748865
-2.49513626 0.95451802 -3.88338637  1064590155
-10.88517952 1.00969577 -2.49513626  1062586027
-2.49513626 0.95613879 -10.92751789  1064617347
-10.93108463 0.13483581 -2.49513626  3193755874
-2.49513626 0.95613879 -10.92491817  1064617347
-10.85854721 -1.26440263 -2.49513626  3216513752
-2.49513626 0.95613879 -10.81243134  1064617347
-10.64864349 -2.47248316 -2.49513626  3223921915
-2.49513626 0.95613879 -10.51745987  1064617347
-10.46830750 -3.14980865 -2.49513626  3226750281
-2.49513626 0.95613879 -10.24494076  1064617347
-10.04971981 -4.30231428 -2.49513626  3230919089
-2.49513626 0.95613879 -9.75335407  1064617347
-9.67294121 -5.09321165 -2.49513626  3232230551
-2.49513626 0.95613879 -9.50469017  1064617347
-9.41688538 -5.55237293 -2.49513626  3233184757
-2.49513626 0.95613879 -9.23405266  1064617347
-9.13905144 -5.99869776 -2.49513626  3234413610
-2.49513626 0.95613879 -8.84008503  1064617347
-8.73585796 -6.57202673 -2.49513626  3235299941
-2.49513626 0.95613879 -8.52067947  1064617347
-8.29673958 -7.11834717 -2.49513626  3236703860
-2.49513626 0.95613879 -7.82351780  1064617347
-7.31812954 -8.12105942 -2.49513626  3238251558
-2.49513626 0.95613879 -6.78265476  1064617347
-6.21930265 -8.99038601 -2.49513626  3239144507
-2.49513626 0.95613879 -5.92789364  1064617347
-5.63038683 -9.37046051 -2.49513626  3239623939
-2.49513626 0.95613879 -5.01830912  1064617347
-4.86197567 -9.79121685 -2.49513626  3239961322
-2.49513626 0.95613879 -4.38561678  1064617348
-3.89911389 -10.21290874 -2.49513626  1064889694
-2.49513626 0.95764530 -10.49705315  1064642622
-10.51743889 0.46726653 -2.49513626  1050206510
-2.49513626 0.95764530 -10.52701187  1064642622
-10.52576351 -0.20769870 -2.49513626  3208030357
-2.49513626 0.95764530 -10.43629265  1064642622
-10.41274738 -1.55228043 -2.49513626  3220263294
-2.49513626 0.95764530 -10.32607651  1064642622
-10.21552086 -2.54518700 -2.49513626  3224197651
-2.49513626 0.95764530 -10.08134556  1064642622
-9.97891808 -3.35500073 -2.49513626  3227577922
-2.49513626 0.95764530 -9.80608082  1064642622
-9.74340725 -3.98758936 -2.49513626  3230238816
-2.49513626 0.95764530 -9.46784115  1064642622
-9.15334988 -5.20105934 -2.49513626  3232439219
-2.49513626 0.95764530 -8.98190689  1064642622
-8.61150837 -6.05613565 -2.49513626  3234498529
-2.49513626 0.95764530 -7.76617241  1064642622
-7.29471254 -7.59091473 -2.49513626  3237387980
-2.49513626 0.95764530 -6.66345882  1064642622
-6.53193235 -8.25643539 -2.49513626  3238486701
-2.49513626 0.95764530 -6.12743711  1064642622
-5.98940611 -8.65805149 -2.49513626  3238889372
-2.49513626 0.95764530 -5.56622601  1064642622
-5.13017035 -9.19326782 -2.49513626  3239338922
-2.49513626 0.95764530 -4.53048182  1064642622
-4.22350502 -9.64348698 -2.49513626  3239795710
-2.49513626 0.95764530 -3.91217065  1064642622
-10.09137154 1.09949529 -2.49513626  1064305940
-2.49513626 0.95904911 -10.12143326  1064666174
-10.14108849 0.45054621 -2.49513626  1049848006
-2.49513626 0.95904911 -10.14460087  1064666174
-10.13748455 -0.52552915 -2.49513626  3207602008
-2.49513626 0.95904911 -10.10049152  1064666174
-10.08296585 -1.17409122 -2.49513626  3217003777
-2.49513626 0.95904911 -10.01485634  1064666174
-9.98699951 -1.81783688 -2.49513626  3222466496
-2.49513626 0.95904911 -9.84997463  1064666174
-9.80936813 -2.61169910 -2.49513626  3224449281
-2.49513626 0.95904911 -9.72060013  1064666174
-9.67246246 -3.08028126 -2.49513626  3226405218
-2.49513626 0.95904911 -9.56874275  1064666174
-9.51318550 -3.54174614 -2.49513626  3229593193
-2.49513626 0.95904911 -9.05671024  1064666174
-8.90507507 -4.87281322 -2.49513626  3231742582
-2.49513626 0.95904911 -8.66050339  1064666174
-8.48628998 -5.57023811 -2.49513626  3233471640
-2.49513626 0.95904911 -8.20867825  1064666174
-8.01301479 -6.23187304 -2.49513626  3234826658
-2.49513626 0.95904911 -7.48827267  1064666174
-7.37744188 -6.97266293 -2.49513626  3236094348
-2.49513626 0.95904911 -6.79543066  1064666174
-6.55018091 -7.75498390 -2.49513626  3237706985
-2.49513626 0.95904911 -6.16976500  1064666174
-5.90817595 -8.25458241 -2.49513626  3238367842
-2.49513626 0.95904911 -5.36705017  1064666174
-5.22823095 -8.70116520 -2.49513626  3238908974
-2.49513626 0.95904911 -4.51470137  1064666174
-4.07237339 -9.29840946 -2.49513626  3239431376
-2.49513626 0.95904911 -3.62062120  1064666174
-9.75713158 0.90505910 -2.49513626  1039632083
-2.49513626 0.96036023 -9.79711246  1064688171
-9.78587723 -0.50730157 -2.49513626  3212454247
-2.49513626 0.96036029 -9.73325443  1064688171
-9.69191551 -1.44482267 -2.49513626  3221489510
-2.49513626 0.96036023 -9.54510021  1064688172
-9.38345337 -2.82338667 -2.49513626  3225308400
-2.49513626 0.96036023 -9.28812027  1064688171
-9.23686600 -3.27124524 -2.49513626  3227176793
-2.49513626 0.96036029 -9.06891251  1064688171
-8.94526577 -4.00037050 -2.49513626  3229914522
-2.49513626 0.96036023 -8.81242275  1064688171
-8.74259186 -4.42581320 -2.49513626  3230799796
-2.49513626 0.96036023 -8.44099998  1064688171
-8.19195652 -5.37704277 -2.49513626  3232775906
-2.49513626 0.96036029 -8.01536942  1064688172
-7.83054304 -5.89095068 -2.49513626  3233841372
-2.49513626 0.96036029 -7.63766479  1064688171
-7.22855330 -6.61579561 -2.49513626  3235578640
-2.49513626 0.96036029 -6.90212345  1064688172
-6.67559004 -7.17336702 -2.49513626  3237341821
-2.49513626 0.96036029 -5.95577908  1064688171
-5.83026886 -7.87582922 -2.49513626  3238064230
-2.49513626 0.96036029 -5.44488192  1064688172
-5.31357574 -8.23326302 -2.49513626  3238335495
-2.49513626 0.96036029 -5.04689693  1064688172
-4.91159582 -8.47920799 -2.49513626  3238665713
-2.49513626 0.96036023 -4.35811472  1064688172
-4.21685553 -8.84527302 -2.49513626  3238958711
-2.49513626 0.96036029 -3.78672242  1064688172
-9.39584064 1.17641711 -2.49513626  1065568286
-2.49513626 0.96158755 -9.45191765  1064708762
-9.46848106 0.11679381 -2.49513626  3204120329
-2.49513626 0.96158749 -9.42200279  1064708762
-9.38688850 -1.24586952 -2.49513626  3218673031
-2.49513626 0.96158755 -9.25697994  1064708762
-9.22383118 -2.14165926 -2.49513626  3222438706
-2.49513626 0.96158749 -9.15043163  1064708762
-9.11020565 -2.58263826 -2.49513626  3224280423
-2.49513626 0.96158755 -9.02272701  1064708762
-8.97550011 -3.01764274 -2.49513626  3226694149
-2.49513626 0.96158749 -8.82004452  1064708762
-8.70504951 -3.72665763 -2.49513626  3229050900
-2.49513626 0.96158755 -8.58110046  1064708762
-8.51581383 -4.14085627 -2.49513626  3230477542
-2.49513626 0.96158755 -8.30688381  1064708762
-8.15689182 -4.80945635 -2.49513626  3232387146
-2.49513626 0.96158755 -7.74559164  1064708762
-7.65726662 -5.57063913 -2.49513626  3233666477
-2.49513626 0.96158755 -7.28454447  1064708762
-7.18661928 -6.16589594 -2.49513626  3235095541
-2.49513626 0.96158755 -6.45090485  1064708762
-6.33895063 -7.03444672 -2.49513626  3236396376
-2.49513626 0.96158755 -5.87512398  1064708762
-5.75531960 -7.51944447 -2.49513626  3237186363
-2.49513626 0.96158755 -5.51129913  1064708762
-5.26161861 -7.87280846 -2.49513626  3237910722
-2.49513626 0.96158755 -4.74627972  1064708762
-4.61431360 -8.26884651 -2.49513626  3238361051
-2.49513626 0.96158755 -4.21142864  1064708762
-4.07492781 -8.54755688 -2.49513626  3238644190
-2.49513626 0.96158755 -3.79881525  1064708762
-3.65927243 -8.73358727 -2.49513626  3238832241
-2.49513626 0.96158755 -3.23515868  1064708762
-9.08859158 1.13794756 -2.49513626  1062769459
-2.49513626 0.96273869 -9.14283276  1064728075
-9.15586758 0.25978667 -2.49513626  1038573362
-2.49513626 0.96273863 -9.15949345  1064728074
-9.15777588 -0.18070500 -2.49513626  3203582423
-2.49513626 0.96273869 -9.13849068  1064728075
-9.09808064 -1.05940831 -2.49513626  3214557609
-2.49513626 0.96273863 -9.03662491  1064728075
-9.01148605 -1.64027357 -2.49513626  3219417952
-2.49513626 0.96273869 -8.92220688  1064728075
-8.88784790 -2.21439624 -2.49513626  3222721133
-2.49513626 0.96273869 -8.72768021  1064728074
-8.63408566 -3.05777073 -2.49513626  3226241002
-2.49513626 0.96273869 -8.47709274  1064728075
-8.42039013 -3.60479307 -2.49513626  3228520692
-2.49513626 0.96273869 -8.23734093  1064728075
-8.10469818 -4.26746464 -2.49513626  3230446326
-2.49513626 0.96273869 -7.96372461  1064728075
-7.89015102 -4.65218067 -2.49513626  3231245834
-2.49513626 0.96273863 -7.73695850  1064728075
-7.57580805 -5.14825678 -2.49513626  3233018084
-2.49513626 0.96273869 -6.95161200  1064728075
-6.75683212 -6.18406248 -2.49513626  3234860655
-2.49513626 0.96273869 -6.23995399  1064728075
-6.02178860 -6.90184212 -2.49513626  3235900281
-2.49513626 0.96273869 -5.79743385  1064728075
-5.68300152 -7.18337584 -2.49513626  3236479228
-2.49513626 0.96273869 -5.44979620  1064728075
-5.21098423 -7.53279781 -2.49513626  3237365106
-2.49513626 0.96273869 -4.84280682  1064728075
-4.59107447 -7.92587519 -2.49513626  3237999444
-2.49513626 0.96273869 -4.33462048  1064728075
-4.20470715 -8.13743496 -2.49513626  3238216383
-2.49513626 0.96273869 -3.94167662  1064728075
-3.26696348 -8.55712128 -2.49513626  3238640637
-2.49513626 0.96273869 -8.81606960  1064746223
-8.84233665 0.67742354 -2.49513626  1057561558
-2.49513626 0.96382040 -8.86467934  1064746223
-8.86757374 0.10938200 -2.49513626  3198310380
-2.49513626 0.96382040 -8.84785271  1064746223
-8.83708477 -0.74279797 -2.49513626  3210896990
-2.49513626 0.96382040 -8.80872917  1064746223
-8.74922371 -1.44803178 -2.49513626  3218941862
-2.49513626 0.96382040 -8.60518456  1064746223
-8.56970692 -2.28164554 -2.49513626  3223554169
-2.49513626 0.96382040 -8.20749187  1064746223
-8.03650570 -3.74970818 -2.49513626  3229102617
-2.49513626 0.96382046 -7.91216803  1064746223
-7.84693670 -4.13174391 -2.49513626  3231180265
-2.49513626 0.96382046 -7.33486557  1064746224
-7.25402164 -5.10146761 -2.49513626  3232406218
-2.49513626 0.96382040 -7.00036669  1064746224
-6.91218853 -5.55584097 -2.49513626  3233560371
-2.49513626 0.96382040 -6.44511700  1064746223
-6.34663296 -6.19402647 -2.49513626  3234427010
-2.49513626 0.96382040 -6.04150248  1064746223
-5.93665266 -6.58801079 -2.49513626  3235433572
-2.49513626 0.96382040 -5.61305237  1064746224
-5.27647161 -7.12773323 -2.49513626  3236348883
-2.49513626 0.96382046 -5.04525328  1064746224
-4.92768717 -7.37316751 -2.49513626  3236851803
-2.49513626 0.96382046 -4.68878651  1064746223
-4.56751060 -7.60155058 -2.49513626  3237318594
-2.49513626 0.96382040 -4.19676208  1064746224
-3.68749285 -8.06524181 -2.49513626  3238247217
-2.49513626 0.96382046 -3.02983952  1064746223
-8.52707195 1.06764162 -2.49513626  1064192311
-2.49513626 0.96483886 -8.57796001  1064763310
-8.58517838 0.38142085 -2.49513626  1048155557
-2.49513626 0.96483886 -8.59359074  1064763310
-8.58212471 -0.44489893 -2.49513626  3205831103
-2.49513626 0.96483886 -8.56344986  1064763310
-8.55081177 -0.85699064 -2.49513626  3212735443
-2.49513626 0.96483886 -8.49972057  1064763310
-8.33873177 -2.07758617 -2.49513626  3222110451
-2.49513626 0.96483886 -8.14559746  1064763310
-8.10064793 -2.86885214 -2.49513626  3225412853
-2.49513626 0.96483886 -7.90014744  1064763310
-7.84491491 -3.50829101 -2.49513626  3228598968
-2.49513626 0.96483886 -7.66717958  1064763312
-7.53880215 -4.12519455 -2.49513626  3230128975
-2.49513626 0.96483886 -7.33175564  1064763310
-7.25894499 -4.59983587 -2.49513626  3231114835
-2.49513626 0.96483886 -6.94924927  1064763310
-6.86731529 -5.16631269 -2.49513626  3232289500
-2.49513626 0.96483886 -6.69816017  1064763310
-6.61099100 -5.49049711 -2.49513626  3232960665
-2.49513626 0.96483886 -6.43157578  1064763310
-6.33937359 -5.80199146 -2.49513626  3233604692
-2.49513626 0.96483886 -5.95453119  1064763310
-5.85443211 -6.29097843 -2.49513626  3234613730
-2.49513626 0.96483886 -5.64974594  1064763310
-5.43924904 -6.65321922 -2.49513626  3235880603
-2.49513626 0.96483886 -4.77510738  1064763310
-4.65995741 -7.22049427 -2.49513626  3236673456
-2.49513626 0.96483886 -4.30742311  1064763310
-4.18765879 -7.50428247 -2.49513626  3237236554
-2.49513626 0.96483886 -3.82202721  1064763310
-3.57331252 -7.81551075 -2.49513626  3238032506
-2.49513626 0.96483886 -2.93602538  1064763310
-8.26977158 1.03542602 -2.49513626  1057020576
-2.49513626 0.96579927 -8.32612514  1064779422
-8.33098507 0.23638085 -2.49513626  3170662561
-2.49513626 0.96579927 -8.33271790  1064779422
-8.32900906 -0.29798567 -2.49513626  3202148914
-2.49513626 0.96579921 -8.30504894  1064779423
-8.29279041 -0.83113110 -2.49513626  3214756681
-2.49513626 0.96579927 -8.22248459  1064779423
-8.19961071 -1.49249601 -2.49513626  3219166887
-2.49513626 0.96579927 -8.08711147  1064779423
-8.05377102 -2.14427972 -2.49513626  3222370991
-2.49513626 0.96579927 -7.98088837  1064779423
-7.94136763 -2.52899766 -2.49513626  3224506631
-2.49513626 0.96579927 -7.81059837  1064779423
-7.76297998 -3.03271413 -2.49513626  3226077327
-2.49513626 0.96579927 -7.66176367  1064779423
-7.60819674 -3.40242815 -2.49513626  3227617426
-2.49513626 0.96579927 -7.43582153  1064779422
-7.37451839 -3.88299489 -2.49513626  3229860320
-2.49513626 0.96579927 -7.17930460  1064779423
-7.11052132 -4.34760523 -2.49513626  3230816430
-2.49513626 0.96579927 -6.81729555  1064779423
-6.73955917 -4.90300941 -2.49513626  3232175449
-2.49513626 0.96579927 -6.41150665  1064779423
-6.23750401 -5.52763176 -2.49513626  3233231155
-2.49513626 0.96579927 -5.77485657  1064779423
-5.67777443 -6.10115051 -2.49513626  3234209744
-2.49513626 0.96579927 -5.17100048  1064779423
-5.06555700 -6.61825562 -2.49513626  3235438391
-2.49513626 0.96579927 -4.74150944  1064779423
-4.63102436 -6.92927122 -2.49513626  3236061092
-2.49513626 0.96579921 -4.17744780  1064779423
-3.94409966 -7.34201908 -2.49513626  3236753422
-2.49513626 0.96579927 -3.70669913  1064779423
-3.46549034 -7.57967997 -2.49513626  3237235678
-2.49513626 0.96579927 -3.22071505  1064779423
-3.09706974 -7.73752785 -2.49513626  3237554279
-2.49513626 0.96579927 -2.84742880  1064779423
-8.04144669 0.87614846 -2.49513626  1058942670
-2.49513626 0.96670640 -8.08106518  1064794642
-8.08842087 0.09977035 -2.49513626  3197375490
-2.49513626 0.96670640 -8.06061172  1064794642
-8.04871464 -0.80666894 -2.49513626  3211756252
-2.49513626 0.96670640 -8.01871777  1064794642
-8.00062370 -1.19269347 -2.49513626  3216599733
-2.49513626 0.96670640 -7.90774584  1064794642
-7.78236198 -2.20620942 -2.49513626  3224163143
-2.49513626 0.96670640 -7.43625879  1064794642
-7.38426685 -3.30228639 -2.49513626  3227182395
-2.49513626 0.96670640 -7.27460718  1064794642
-7.15746737 -3.76870799 -2.49513626  3229123211
-2.49513626 0.96670640 -7.03296804  1064794642
-6.83270597 -4.32973671 -2.49513626  3230760295
-2.49513626 0.96670640 -6.54119730  1064794642
-6.46407080 -4.86295080 -2.49513626  3231639831
-2.49513626 0.96670640 -6.30485106  1064794642
-6.22279835 -5.16810179 -2.49513626  3232271588
-2.49513626 0.96670640 -5.87881327  1064794642
-5.69766569 -5.74187374 -2.49513626  3233457054
-2.49513626 0.96670640 -5.11986160  1064794642
-5.01880503 -6.34382248 -2.49513626  3235020068
-2.49513626 0.96670640 -4.60195446  1064794642
-4.27680731 -6.86596107 -2.49513626  3235904574
-2.49513626 0.96670640 -3.94176364  1064794642
-3.24512601 -7.40956402 -2.49513626  3236871563
-2.49513626 0.96670640 -3.00591373  1064794642
-2.76362371 -7.60229492 -2.49513626  1064951810
-2.49513626 0.96756452 -7.81038427  1064809039
-7.82302332 0.72565335 -2.49513626  1058644784
-2.49513626 0.96756452 -7.84886169  1064809039
-7.85344648 0.22283085 -2.49513626  3169714139
-2.49513626 0.96756452 -7.85507727  1064809039
-7.85158014 -0.28090477 -2.49513626  3204993047
-2.49513626 0.96756446 -7.82899809  1064809039
-7.80387926 -0.90870750 -2.49513626  3215209566
-2.49513626 0.96756452 -7.70605564  1064809039
-7.65302277 -1.77693725 -2.49513626  3220381582
-2.49513626 0.96756446 -7.59212255  1064809039
-7.52341890 -2.26372123 -2.49513626  3223338316
-2.49513626 0.96756452 -7.40588713  1064809039
