# .PCD v0.7 - Point Cloud Data file format
VERSION 0.7
FIELDS x y z intensity
SIZE 4 4 4 4
TYPE F F F F
COUNT 1 1 1 1
WIDTH 997
HEIGHT 1
VIEWPOINT 0 0 0 1 0 0 0
POINTS 997
DATA ascii
-2.64753628 0.65391070 -106.02354431  1059546801
-105.45494080 -12.24167919 -2.64753628  3245997516
-2.64753628 0.65391076 -98.43819427  1059818364
-98.13784790 -19.47749710 -2.49513626  3249040110
-2.49513626 0.67009717 -97.46119690  1059818364
-97.08506012 -24.18475723 -2.49513626  3251498832
-2.49513626 0.67009711 -96.25766754  1059818365
-46.62060928 64.53030396 -2.64753628  1115625282
-2.64753628 0.72715670 -49.67649460  1060775665
-51.65010071 60.57976532 -2.64753628  1114568610
-2.64753628 0.72715676 -53.57036591  1060775665
-54.50979233 58.02003860 -2.64753628  1113885646
-2.64753628 0.72715676 -56.22756577  1060783853
-56.35899734 54.47124481 -2.60666060  1112737678
-2.56766844 0.73417950 -56.39981461  1061001363
-57.95903015 47.64204407 -2.49513626  1110901991
-2.49513626 0.74061608 -60.18780136  1061001475
-62.27687454 41.84049606 -2.49513626  1109076309
-2.49513626 0.74061608 -64.83597565  1061001475
-66.01579285 35.65008545 -2.49513626  1107973780
-2.49513626 0.74061602 -67.12742615  1061001475
-71.12252045 32.69279861 -2.60321641  1107317911
-2.64753628 0.72715676 -73.36458588  1060775665
-74.76894379 27.33583641 -2.64753628  1104219056
-2.64753628 0.72715670 -75.60881042  1060775665
-72.19428253 21.24700356 -2.50275636  1100359515
-2.64753628 0.72715670 -77.65673828  1060775665
-78.17977142 15.01873302 -2.64753628  1096559220
-2.64753628 0.72715676 -78.62207031  1060775665
-78.81275940 11.23330784 -2.64753628  1092579791
-2.64753628 0.72715670 -74.69999695  1061001475
-74.80276489 5.79317617 -2.49513626  1083368268
-2.49513626 0.74061602 -74.95030212  1061001475
-75.02041626 0.97573256 -2.49513626  3194723288
-2.49513626 0.74061596 -75.01302338  1061001475
-74.98023224 -2.64111900 -2.49513626  3228967270
-2.49513626 0.74061608 -74.52629089  1061001475
-74.02272034 -12.23319340 -2.49513626  3244929308
-2.49513626 0.74061608 -73.34709930  1061001475
-73.08393097 -16.96325874 -2.49513626  3247510767
-2.49513626 0.74061805 -72.50102997  1061001475
-72.18144989 -20.46589279 -2.49513626  3249339501
-2.49513626 0.74061602 -35.91956329  1061770211
-39.73302460 49.75646210 -2.64753628  1111781936
-2.64753628 0.77498055 -41.31158066  1061578016
-44.33898926 45.69979477 -2.64753628  1110699238
-2.64753628 0.77498055 -45.78478241  1061578016
-46.48999405 43.50976562 -2.64753628  1109915911
-2.64753628 0.77498055 -49.83257675  1061578016
-51.08068085 38.01555634 -2.64753628  1108656707
-2.64753628 0.77498055 -52.27602386  1061578016
-52.85350418 35.50953293 -2.64753628  1107992401
-2.64753628 0.77498049 -53.96739960  1061578016
-54.50350571 32.92092514 -2.64753628  1107306935
-2.64753628 0.77498055 -56.02682114  1061578016
-56.97023773 28.43958282 -2.64753628  1104947653
-2.64753628 0.77498055 -58.67956924  1061578016
-59.06927490 23.77475929 -2.64753628  1102484533
-2.64753628 0.77498055 -59.80282593  1061578016
-60.14646912 20.90026093 -2.64753628  1100968603
-2.64753628 0.77498055 -60.78707504  1061578017
-61.08388138 17.97718048 -2.64753628  1099428365
-2.64753628 0.77498055 -61.63007355  1061578016
-61.87931442 15.01227379 -2.64753628  1096827151
-2.64753628 0.77498055 -62.88470078  1061578016
-63.03727341 8.98475170 -2.64753628  1083459160
-2.49513626 0.78643632 -59.98367691  1061770211
-59.97183990 -2.11244655 -2.49513626  3237744149
-2.49513626 0.78643626 -59.20596695  1061770212
-59.04107666 -10.73473930 -2.49513626  3242854093
-2.49513626 0.78643632 -58.22949219  1061770212
-57.73325729 -16.36934662 -2.49513626  1109531070
-2.49513626 0.81854409 -29.92533684  1062308891
-31.19693375 39.06698608 -2.49513626  1108880712
-2.49513626 0.81854409 -33.64229202  1062308891
-34.81336212 35.88186264 -2.49513626  1108731470
-2.64753628 0.80859447 -38.14427567  1062141964
-39.30932617 35.62176514 -2.64753628  1107738173
-2.64753628 0.80859447 -41.51657104  1062141964
-42.04191208 32.35137558 -2.64753628  1106398435
-2.64753628 0.80859447 -44.50309372  1062141964
-45.84291840 26.69382477 -2.64753628  1104126217
-2.64753628 0.80859447 -46.67712784  1062141964
-47.83773422 22.92781448 -2.64753628  1102135190
-2.64753628 0.80859447 -48.54988480  1062141964
-48.88717270 20.59557152 -2.64753628  1100487743
-2.64753628 0.80859447 -49.82298660  1062141964
-50.10928726 17.41244316 -2.64753628  1099224788
-2.64753628 0.80859447 -51.74730301  1062141964
-51.92827606 10.84381104 -2.64753628  1092624457
-2.64753628 0.80859447 -52.24993896  1062141964
-52.63115692 6.64046240 -2.64753628  1084113461
-2.64753628 0.80859447 -52.89002991  1062141964
-52.99435043 2.39426970 -2.64753628  1060150626
-2.64753628 0.80859447 -53.04815674  1062141964
-53.03869629 -1.01515710 -2.64753628  3220113291
-2.64753628 0.80859447 -52.97867966  1062141964
-52.78605270 -5.26935863 -2.64753628  3237598666
-2.64753628 0.80859447 -52.33849335  1062141964
-52.19273758 -9.48958397 -2.64753628  3240442861
-2.64753628 0.80859447 -50.79745865  1062141964
-25.08778572 34.72546768 -2.49513626  1107683177
-2.49513626 0.84227401 -28.90629387  1062656417
-29.85873222 32.82295227 -2.58438230  1107541869
-2.63217878 0.83437073 -31.65317535  1062559635
-32.17340088 32.11175156 -2.64753628  1106522316
-2.64753628 0.83348954 -36.02515793  1062559634
-36.89745712 26.54942131 -2.64753628  1103809697
-2.64753628 0.83348954 -38.52680969  1062559635
-38.90952682 23.50193214 -2.64753628  1102511389
-2.64753628 0.83348954 -39.64473343  1062559634
-39.99701691 21.59933281 -2.64753628  1100819487
-2.64753628 0.83348954 -41.89078522  1062559635
-42.16900253 16.97257042 -2.64753628  1099061089
-2.64753628 0.83348954 -42.69266891  1062559634
-42.93799210 14.92049694 -2.64753628  1097050114
-2.64753628 0.83348954 -43.39532089  1062559635
-43.80780792 12.13127518 -2.64753628  1092622280
-2.64753628 0.83348960 -44.64023972  1062559634
-44.77229691 7.85709381 -2.64753628  1085674885
-2.64753628 0.83348954 -45.32077408  1062559634
-45.37133026 2.78109431 -2.64753628  1068050701
-2.64753628 0.83348954 -45.45264435  1062559634
-45.42831802 -1.60016584 -2.64753628  3222609769
-2.64753628 0.83348954 -45.35341644  1062559635
-45.23167419 -4.51524305 -2.64753628  3232217899
-2.64753628 0.83348954 -45.06321335  1062559634
-44.84817886 -7.41173029 -2.64753628  3241135655
-2.64753628 0.83348954 -43.73259354  1062559635
-23.28452873 32.22946548 -2.64753628  1107218190
-2.64753628 0.85265976 -24.30827141  1062881257
-24.81078720 31.06979942 -2.64753628  1105711819
-2.64753628 0.85265976 -28.58973885  1062881257
-29.03009224 27.16912270 -2.64753628  1104266988
-2.64753628 0.85265976 -30.71553230  1062881256
-31.11732864 24.75115204 -2.64753628  1103231909
-2.64753628 0.85265970 -31.89668655  1062881257
-31.19889641 20.96092796 -2.50275636  1100977238
-2.50275636 0.86012441 -34.36000443  1062881257
-34.98524475 18.89285660 -2.64753628  1100128285
-2.64753628 0.85265970 -35.57435226  1062881257
-36.12669754 16.60630989 -2.64753628  1097697431
-2.64753628 0.85265976 -37.11889648  1062881257
-37.34312820 13.65279388 -2.64753628  1095180624
-2.64753628 0.85265976 -37.95773697  1062881256
-38.14305496 11.22562599 -2.64753628  1092609883
-2.64753628 0.85265976 -38.63976288  1062881257
-38.78542709 8.75203800 -2.64753628  1088154689
-2.64753628 0.85265976 -39.26755905  1062881257
-39.36280441 5.61043739 -2.64753628  1084179626
-2.64753628 0.85265976 -39.58745956  1062881257
-37.43370819 1.69123018 -2.49513626  1066103386
-2.49513626 0.86051911 -37.46871567  1063013115
-37.47171021 -0.11491779 -2.49513626  3208090237
-2.49513626 0.86051911 -37.42263412  1063013114
-37.38692474 -2.52192783 -2.49513626  3225933299
-2.49513626 0.86051905 -37.06384659  1063013115
-36.75498199 -7.29478979 -2.49513626  3238497874
-2.49513626 0.86051911 -36.21041870  1063013115
-35.88189697 -10.79966736 -2.49513626  1105533179
-2.64753628 0.86787111 -21.14681625  1063136462
-22.04539680 27.60678673 -2.64753628  1104419064
-2.64753628 0.86787111 -23.77341080  1063136461
-24.19030380 25.74807549 -2.64753628  1103175812
-2.64753628 0.86787117 -26.17904663  1063136462
-25.45540047 21.61900139 -2.50275636  1101637677
-2.50275636 0.87462282 -26.79166412  1063249736
-27.10864639 19.50590134 -2.50275636  1100408440
-2.59717989 0.87021333 -29.94317818  1063136461
-30.53027344 17.77742195 -2.64753628  1099581094
-2.64753628 0.86787111 -32.10004425  1063136461
-32.33303070 14.23759270 -2.64753628  1096512857
-2.64753628 0.86787117 -33.18088913  1063136462
-33.37155914 11.59626102 -2.64753628  1092016900
-2.64753628 0.86787117 -34.33300781  1063136462
-32.47866440 7.32888126 -2.49513626  1088015028
-2.49513626 0.87497967 -32.69742966  1063255722
-32.79415512 5.75505543 -2.49513626  1083594568
-2.49513626 0.87497962 -33.03341293  1063255722
-33.09615707 3.63642454 -2.49513626  1076136345
-2.49513626 0.87497944 -33.23293304  1063255722
-33.26137543 1.50272644 -2.49513626  1064816347
-2.49513626 0.87497967 -33.29248810  1063255722
-33.27466965 -1.17206645 -2.49513626  3218764887
-2.49513626 0.87497962 -33.21981049  1063255722
-33.13063812 -3.30725884 -2.49513626  3228939960
-2.49513626 0.87497962 -33.00724411  1063255722
-32.84973145 -5.42883587 -2.49513626  3234818625
-2.49513626 0.87497962 -32.43317795  1063255719
-32.30799866 -8.04821301 -2.49513626  3239137602
-2.49513626 0.87497962 -19.43045807  1063343859
-21.00606728 23.85048485 -2.64753628  1102170910
-2.50275636 0.88639504 -20.92089462  1063447241
-21.60309029 20.87949181 -2.50275636  1101096272
-2.50275636 0.88639504 -22.58428192  1063447241
-22.89978981 19.44855690 -2.50275636  1100422928
-2.52786207 0.88532341 -24.53345108  1063392891
-25.79783821 18.56268311 -2.64753628  1100032620
-2.64753628 0.88023299 -26.38102722  1063343859
-26.93701935 16.86705971 -2.64753628  1098899951
-2.64753628 0.88023299 -27.71863937  1063343859
-27.96494293 15.10172653 -2.64753628  1097015168
-2.64753628 0.88023299 -28.66028595  1063343859
-28.87734604 13.27401066 -2.64753628  1095560798
-2.64753628 0.88023299 -29.48353958  1063343859
-29.67044640 11.39144135 -2.64753628  1093069225
-2.64753628 0.88023299 -30.18498039  1063343859
-30.48909569 8.97304058 -2.64753628  1090505724
-2.49513626 0.88672054 -28.99098778  1063452702
-29.10823441 7.06179905 -2.49513626  1087568636
-2.49513626 0.88672054 -29.41476250  1063452702
-29.50176620 5.17730522 -2.49513626  1083603592
-2.49513626 0.88672054 -29.65291405  1063452702
-29.77342987 3.27132750 -2.49513626  1077065573
-2.49513626 0.88672054 -29.86317825  1063452702
-29.95247078 -0.09185786 -2.49513626  3221292020
-2.49513626 0.88672054 -29.84844017  1063452702
-29.80447769 -2.97522521 -2.49513626  3227323314
-2.49513626 0.88672054 -29.69346046  1063452702
-29.55177689 -4.88379860 -2.49513626  3232462189
-2.49513626 0.88672054 -29.37955475  1063452702
-29.28204727 -6.30240631 -2.49513626  3235427735
-2.49513626 0.88672054 -29.06437874  1063452702
-16.69001007 21.60347176 -2.50275636  1101703393
-2.50275636 0.89614218 -17.37566185  1063610771
-17.71182251 20.77396965 -2.50275636  1101106518
-2.50275636 0.89614218 -18.69245720  1063610771
-19.32221222 19.28518295 -2.50275636  1100465917
-2.50275636 0.89614218 -20.19310188  1063589190
-22.88701630 17.61162567 -2.64753628  1099558577
-2.64753628 0.89047557 -23.70922852  1063515701
-24.22685051 15.71765423 -2.64753628  1098201179
-2.64753628 0.89047557 -24.71946907  1063515701
-24.95623970 14.53173161 -2.64753628  1096945538
-2.64753628 0.89047557 -25.62760925  1063515701
-26.04218292 12.48157692 -2.64753628  1094333945
-2.64753628 0.89047557 -26.79023361  1063515701
-26.96006584 10.35083675 -2.64753628  1092528372
-2.64753628 0.89047557 -27.27878380  1063515701
-26.22932816 7.26343632 -2.49513626  1088088345
-2.49513626 0.89644140 -26.44920921  1063615791
-26.54891777 5.99083710 -2.49513626  1085409135
-2.49513626 0.89644140 -26.72773170  1063615791
-26.80679131 4.70432949 -2.49513626  1082702743
-2.49513626 0.89644140 -27.13519478  1063615791
-27.18871307 1.22836816 -2.49513626  1052064158
-2.49513626 0.89644140 -27.21632195  1063615791
-27.18067360 -1.39508080 -2.49513626  3222349019
-2.49513626 0.89644140 -27.08185005  1063615791
-27.03490257 -3.13833022 -2.49513626  3227820601
-2.49513626 0.89644140 -26.92008209  1063615791
-26.85223579 -4.43767262 -2.49513626  3231435721
-2.49513626 0.89644140 -26.69574356  1063615791
-26.60714531 -5.72668314 -2.49513626  3234130360
-2.49513626 0.89644140 -26.40935898  1063615791
-26.06160164 -7.84397554 -2.49513626  1101148378
-2.50275636 0.90434450 -14.97099972  1063748383
-15.60715771 19.54437065 -2.50275636  1100633096
-2.50275636 0.90434450 -17.19585609  1063715304
-17.75141335 18.89454842 -2.59420586  1100420615
-2.63309383 0.89962167 -18.72668457  1063660392
-19.02472687 18.38742256 -2.64753628  1099667426
-2.64753628 0.89909983 -20.96862030  1063660392
-21.22521973 15.79635811 -2.64753628  1097970296
-2.64753628 0.89909983 -22.19614983  1063660392
-22.42469025 14.04158020 -2.64753628  1096474337
-2.64753628 0.89909983 -22.86439896  1063660392
-23.28045654 12.57199574 -2.64753628  1094521783
-2.64753628 0.89909983 -24.38273621  1063660392
-24.54467010 9.87897110 -2.64753628  1091656815
-2.64753628 0.89909983 -23.55364037  1063753029
-23.68213272 7.80505514 -2.49513626  1089309906
-2.49513626 0.90462154 -24.23223114  1063753029
-24.32355499 5.48868227 -2.49513626  1083607156
-2.49513626 0.90462142 -24.68567276  1063753029
-24.78600121 2.72333980 -2.49513626  1073115737
-2.49513626 0.90462142 -24.88845253  1063753028
-24.93305397 0.32428494 -2.49513626  3203682226
-2.49513626 0.90462142 -24.90237999  1063753029
-24.53295898 -4.46053553 -2.49513626  3231405508
-2.49513626 0.90462136 -24.28946495  1063753029
-24.19572258 -6.02737188 -2.49513626  3234679612
-2.49513626 0.90462142 -23.87711334  1063753029
-14.13039017 18.91083908 -2.56056643  1100430114
-2.59107113 0.90836120 -15.08989239  1063797744
-15.53572273 18.82628250 -2.64753628  1100122562
-2.64753628 0.90646064 -16.71307373  1063783886
-16.99679565 17.51845741 -2.64753628  1099559359
-2.64753628 0.90646064 -17.82136345  1063783886
-18.08710289 16.39037132 -2.64753628  1098958800
-2.64753628 0.90646064 -18.60451508  1063783886
-18.85604095 15.49957943 -2.64753628  1098063072
-2.64753628 0.90646058 -19.34442329  1063783886
-19.81281853 14.25621796 -2.64753628  1096743358
-2.64753628 0.90646064 -20.26072884  1063783886
-20.89324188 12.61982155 -2.64753628  1095009483
-2.64753628 0.90646058 -21.47718620  1063783886
-21.83883476 10.90196037 -2.64753628  1092820132
-2.64753628 0.90646064 -22.33888817  1063783886
-21.60506058 7.89889574 -2.49513626  1089576723
-2.49513626 0.91159946 -21.84774780  1063870101
-22.06786728 6.49464417 -2.49513626  1086616564
-2.49513626 0.91159946 -22.26519203  1063870101
-22.65747452 3.97616601 -2.49513626  1078967739
-2.49513626 0.91159946 -22.82277870  1063870101
-22.86610794 2.51239085 -2.49513626  1050225838
-2.49513626 0.91159946 -22.99950409  1063870101
-22.95156288 -1.54819322 -2.49513626  3220527869
-2.49513626 0.91159946 -22.88995552  1063870101
-22.85027313 -2.65256190 -2.49513626  3225501327
-2.49513626 0.91159946 -22.75322151  1063870101
-22.63267326 -4.11502934 -2.49513626  3230616977
-2.49513626 0.91159946 -22.48872757  1063870101
-22.22931290 -5.91850376 -2.49513626  3234385070
-2.49513626 0.91159946 -13.26489449  1063890506
-13.84811211 17.92492294 -2.64753628  1099174172
-2.64753628 0.91281569 -15.77288151  1063890506
-16.03210831 16.00139236 -2.64753628  1098636763
-2.64753628 0.91281569 -16.53807068  1063890506
-16.78466988 15.21012306 -2.64753628  1097794480
-2.64753628 0.91281569 -17.95145416  1063890506
-18.17113304 13.52342510 -2.64753628  1095691100
-2.64753628 0.91281569 -18.80178642  1063890506
-19.19803619 12.02116680 -2.64753628  1094410395
-2.64753628 0.91281569 -19.75510025  1063890506
-20.10103989 10.44132805 -2.64753628  1092395926
-2.64753628 0.91281569 -20.58090973  1063890506
-20.73029327 9.12841892 -2.64753628  1090457490
-2.49513626 0.91762149 -20.16451263  1063971134
-20.37928581 6.35529041 -2.49513626  1084994533
-2.49513626 0.91762149 -20.74546432  1063971134
-20.82367134 4.69891977 -2.49513626  1082893092
-2.49513626 0.91762149 -20.96392441  1063971134
-21.02593613 3.68984699 -2.49513626  1077987362
-2.49513626 0.91762149 -21.17933846  1063971134
-21.25428009 1.99015510 -2.49513626  1070791751
-2.49513626 0.91762149 -21.34545135  1063971133
-21.34715271 -0.06546717 -2.49513626  3201378384
-2.49513626 0.91762149 -21.33402061  1063971134
-21.24168015 -2.12044549 -2.49513626  3228853697
-2.49513626 0.91762143 -20.86934471  1063971134
-20.71422958 -5.16010237 -2.49513626  3232743694
-2.49513626 0.91762149 -20.53767776  1063971134
-20.44145012 -6.15243149 -2.49513626  1099284452
-2.64753628 0.91835767 -13.44683933  1063983485
-13.96359253 15.85439587 -2.64753628  1098517510
-2.64753628 0.91835767 -14.46589565  1063983485
-14.95327473 14.92460251 -2.64753628  1097006137
-2.64753628 0.91835767 -16.10301781  1063983485
-16.32072830 13.41556644 -2.64753628  1095920827
-2.64753628 0.91835767 -16.74344254  1063983485
-17.34494209 12.06219292 -2.64753628  1094187541
-2.64753628 0.91835767 -17.90613174  1063983485
-18.08401108 10.92300987 -2.64753628  1092968708
-2.64753628 0.91835767 -18.58943558  1063983485
-18.74837112 9.73869324 -2.64753628  1090850240
-2.49513626 0.92287099 -18.22228813  1064059206
-19.00789833 5.92761946 -2.49513626  1085530741
-2.49513626 0.92287099 -19.18857765  1064059206
-19.27149391 5.00463247 -2.49513626  1083586441
-2.49513626 0.92287099 -19.49029922  1064059206
-19.66381264 3.12592316 -2.49513626  1077137165
-2.49513626 0.92287099 -19.75411415  1064059206
-19.79161263 2.17458510 -2.49513626  1069861275
-2.49513626 0.92287099 -19.89043427  1064059206
-19.90903473 0.25893971 -2.49513626  3221038858
-2.49513626 0.92287099 -19.73846054  1064059206
-19.69391060 -2.93034053 -2.49513626  3226453524
-2.49513626 0.92287099 -19.58955956  1064059206
-19.52979088 -3.87609386 -2.49513626  3230666297
-2.49513626 0.92287099 -19.24044228  1064059206
-19.15563011 -5.43127298 -2.49513626  3233259799
-2.49513626 0.92287099 -11.59065437  1064065275
-12.59734058 15.26554680 -2.64753628  1097025532
-2.64753628 0.92323279 -14.00860691  1064065275
-14.45070267 13.52433777 -2.64753628  1095817419
-2.64753628 0.92323279 -15.08573437  1064065275
-15.87764645 11.81655407 -2.64753628  1094251809
-2.64753628 0.92323279 -16.24920082  1064065275
-16.60395813 10.77214909 -2.64753628  1093144567
-2.64753628 0.92323279 -16.94157600  1064065275
-17.10382843 9.95936584 -2.64753628  1091697076
-2.64753628 0.92323273 -16.68898201  1064136656
-17.07110405 7.51712084 -2.49513626  1088347708
-2.49513626 0.92748731 -17.41353989  1064136658
-17.51876640 6.40493155 -2.49513626  1086581758
-2.49513626 0.92748743 -18.05404282  1064136656
-18.12705803 4.39772701 -2.49513626  1082352397
-2.49513626 0.92748737 -18.31792831  1064136657
-18.42157555 2.92844653 -2.49513626  1076392726
-2.49513626 0.92748749 -18.50617218  1064136656
-18.54130363 2.03720856 -2.49513626  1066537770
-2.49513626 0.92748743 -18.64500427  1064136655
-18.64947510 -0.35695019 -2.49513626  3212100737
-2.49513626 0.92748731 -18.52842903  1064136658
-18.29600716 -3.63122272 -2.49513626  3229298665
-2.49513626 0.92748743 -18.16987228  1064136655
-18.09974861 -4.50881004 -2.49513626  3231289918
-2.49513626 0.92748731 -17.94548416  1064136656
-11.14153576 14.91084957 -2.64753628  1097382066
-2.64753628 0.92755431 -11.84722996  1064137779
-12.30251217 13.96838570 -2.64753628  1096568133
-2.64753628 0.92755431 -12.74506474  1064137779
-12.96142769 13.35922909 -2.64753628  1095467291
-2.64753628 0.92755431 -13.99196529  1064137779
-14.75167465 11.35145855 -2.64753628  1093783179
-2.64753628 0.92755431 -15.10886955  1064137779
-15.28162956 10.62729836 -2.64753628  1093015015
-2.64753628 0.92755431 -15.61526108  1064137779
-16.23382568 9.10661221 -2.64753628  1090173144
-2.49513626 0.93157834 -15.81910229  1064205291
-16.37666512 6.28752899 -2.49513626  1086374108
-2.49513626 0.93157834 -16.57026863  1064205291
-16.90594101 4.68160009 -2.49513626  1081548917
-2.49513626 0.93157834 -17.17177582  1064205291
-17.22718430 3.30943108 -2.49513626  1076904624
-2.49513626 0.93157834 -17.36666489  1064205291
-17.48980904 1.35451746 -2.49513626  1057132507
-2.49513626 0.93157834 -17.54209709  1064205291
-17.53897095 -0.33569518 -2.49513626  3206419955
-2.49513626 0.93157834 -17.51912117  1064205291
-17.45542717 -1.74248445 -2.49513626  3222493274
-2.49513626 0.93157828 -17.30742455  1064205291
-17.25922585 -3.13803959 -2.49513626  3227160417
-2.49513626 0.93157834 -16.87696648  1064205292
-16.79783249 -5.05578423 -2.49513626  1097060239
-2.64753628 0.93141097 -10.51401138  1064202484
-10.73878670 13.90023613 -2.64753628  1096523040
-2.64753628 0.93141103 -11.39624882  1064202483
-11.60959244 13.18163776 -2.64753628  1095754951
-2.64753628 0.93141097 -12.02721405  1064202483
-12.23139000 12.60679150 -2.64753628  1095141787
-2.64753628 0.93141103 -12.63023281  1064202484
-13.20388985 11.58427715 -2.64753628  1094053351
-2.64753628 0.93141103 -13.56936646  1064202483
-14.25788307 10.25918770 -2.64753628  1092646320
-2.64753628 0.93141097 -14.58021164  1064202483
-15.03538418 9.08159256 -2.64753628  1089744870
-2.49513626 0.93522841 -14.81120968  1064266529
-15.04117489 6.91395664 -2.49513626  1085137076
-2.49513626 0.93522841 -15.88067818  1064266528
-16.08748055 3.90291834 -2.49513626  1079546283
-2.49513626 0.93522835 -16.30497932  1064266528
-16.34885979 2.59894824 -2.49513626  1075150620
-2.49513626 0.93522835 -16.42393875  1064266528
-16.45512009 1.80799043 -2.49513626  1069910790
-2.49513626 0.93522835 -16.50472260  1064266529
-16.55274582 0.21528977 -2.49513626  3176133097
-2.49513626 0.93522841 -16.51660919  1064266529
-16.49657440 -1.37941325 -2.49513626  3218241991
-2.49513626 0.93522835 -16.44372177  1064266528
-16.41092110 -2.17287898 -2.49513626  3223055614
-2.49513626 0.93522835 -16.33261108  1064266529
-16.23743057 -3.22265649 -2.49513626  3227446470
-2.49513626 0.93522841 -16.12547493  1064266529
-9.73673916 13.47718620 -2.64753628  1095926873
-2.64753628 0.93487388 -10.58242035  1064260580
-10.78715324 12.65211678 -2.64753628  1095026765
-2.64753628 0.93487382 -11.38439560  1064260581
-12.13932800 11.36113739 -2.64753628  1093628210
-2.64753628 0.93487382 -12.84412003  1064260581
-13.17678165 10.13957882 -2.64753628  1092084279
-2.64753628 0.93487382 -13.80094719  1064260581
-13.28064156 8.31589317 -2.49513626  1090277426
-2.49513626 0.93850493 -13.78743267  1064321500
-14.01959610 6.99859190 -2.49513626  1087466483
-2.49513626 0.93850493 -14.34060764  1064321500
-14.44023991 6.08349371 -2.49513626  1086011512
-2.49513626 0.93850493 -14.80122280  1064321500
-14.88197136 4.90473557 -2.49513626  1083524896
-2.49513626 0.93850493 -15.03190804  1064321500
-15.16631889 3.93855715 -2.49513626  1079819858
-2.49513626 0.93850493 -15.38801003  1064321500
-15.43353081 2.70843744 -2.49513626  1071320528
-2.49513626 0.93850493 -15.60113716  1064321500
-15.62259769 1.20990789 -2.49513626  1060441020
-2.49513626 0.93850493 -15.66275501  1064321500
-15.65966797 -0.55159569 -2.49513626  3219605112
-2.49513626 0.93850493 -15.49875069  1064321500
-15.41662884 -2.80302262 -2.49513626  3227696382
-2.49513626 0.93850493 -15.20471287  1064321500
-9.84725761 12.33142567 -2.64753628  1094893268
-2.64753628 0.93800002 -10.98878479  1064313029
-11.16938686 11.14798641 -2.64753628  1093241897
-2.64753628 0.93800002 -11.86248779  1064313029
-12.35029888 9.82359409 -2.64753628  1092221767
-2.64753628 0.93800002 -12.65961933  1064313029
-12.80940247 9.21694469 -2.64753628  1091577995
-2.64753628 0.93800002 -12.47666740  1064371117
-12.73036194 7.68932867 -2.49513626  1089436373
-2.49513626 0.94146234 -13.19804573  1064371117
-13.51311874 6.21155930 -2.49513626  1086311271
-2.49513626 0.94146234 -13.70576668  1064371117
-14.12502766 4.65526533 -2.49513626  1083027299
-2.49513626 0.94146234 -14.33297443  1064371117
-14.45313072 3.50641203 -2.49513626  1078104382
-2.49513626 0.94146234 -14.64853382  1064371117
-14.75540638 1.86168623 -2.49513626  1066597818
-2.49513626 0.94146234 -14.84452629  1064371117
-14.85723209 0.67123932 -2.49513626  1054695916
-2.49513626 0.94146234 -14.86316872  1064371117
-14.82065392 -1.23927581 -2.49513626  3216840658
-2.49513626 0.94146234 -14.77316952  1064371117
-14.74371433 -1.95213294 -2.49513626  3222017477
-2.49513626 0.94146234 -14.67335892  1064371117
-14.48726654 -3.36258793 -2.49513626  3229733427
-2.49513626 0.94146234 -8.79300976  1064360612
-9.55672073 11.58090019 -2.64753628  1094111262
-2.64753628 0.94083631 -9.92397785  1064360612
-11.12619209 10.08245850 -2.64753628  1092513789
-2.64753628 0.94083619 -11.59920597  1064360612
-11.75093269 9.34685421 -2.64753628  1091732032
-2.64753628 0.94083619 -12.04524899  1064360612
-11.48619747 8.26483822 -2.49513626  1090602066
-2.49513626 0.94414485 -11.74585629  1064416123
-11.87117195 7.70165920 -2.49513626  1089084925
-2.49513626 0.94414485 -12.22856808  1064416122
-12.55753994 6.52291346 -2.49513626  1086996361
-2.49513626 0.94414485 -12.85732555  1064416122
-12.95064831 5.70271301 -2.49513626  1085263274
-2.49513626 0.94414485 -13.12723160  1064416122
-13.21043587 5.07191372 -2.49513626  1083482586
-2.49513626 0.94414485 -13.63739395  1064416122
-13.69632626 3.55681086 -2.49513626  1077485559
-2.49513626 0.94414485 -13.89653015  1064416122
-13.93763351 2.44592214 -2.49513626  1074671311
-2.49513626 0.94414485 -14.00903988  1064416122
-14.03932381 1.77133882 -2.49513626  1069929084
-2.49513626 0.94414485 -14.10837936  1064416122
-14.12411690 0.86575651 -2.49513626  1053991851
-2.49513626 0.94414485 -14.15056038  1064416122
-14.14185715 -0.49813238 -2.49513626  3212037659
-2.49513626 0.94414485 -14.10140228  1064416123
-14.02819824 -1.85739577 -2.49513626  3221571940
-2.49513626 0.94414485 -13.96126080  1064416122
-13.92237759 -2.53134036 -2.49513626  3224391143
-2.49513626 0.94414485 -13.83383274  1064416122
-13.73099899 -3.42051530 -2.49513626  3229026987
-2.49513626 0.94414485 -13.55018902  1064416122
-8.93450832 11.18842030 -2.64753628  1093710267
-2.64753628 0.94342065 -9.28946877  1064403972
-9.63483524 10.59132385 -2.64753628  1092736430
-2.64753628 0.94342065 -10.29533386  1064403972
-10.45391655 9.78376865 -2.64753628  1092031863
-2.64753628 0.94342065 -11.06084919  1064403972
-10.56051254 8.39997673 -2.49513626  1090578025
-2.49513626 0.94658887 -11.07832623  1064457126
-11.20070076 7.52517176 -2.49513626  1089143727
-2.49513626 0.94658887 -11.43675995  1064457127
-11.55037117 6.97659302 -2.49513626  1086786455
-2.49513626 0.94658887 -12.07312202  1064457127
-12.26057243 5.63580370 -2.49513626  1085146200
-2.49513626 0.94658887 -12.43536472  1064457126
-12.51795101 5.03833866 -2.49513626  1082599702
-2.49513626 0.94658887 -12.88198853  1064457126
-12.94488335 3.80972123 -2.49513626  1078696967
-2.49513626 0.94658887 -13.20892143  1064457126
-13.25154495 2.54568362 -2.49513626  1075135993
-2.49513626 0.94658893 -13.35883522  1064457127
-13.38771248 1.68912482 -2.49513626  1069327358
-2.49513626 0.94658887 -13.43508053  1064457126
-13.45356274 1.04192460 -2.49513626  1058793689
-2.49513626 0.94658887 -13.48814392  1064457127
-13.49378586 -0.04138258 -2.49513626  3196335613
-2.49513626 0.94658887 -13.46325684  1064457126
-13.37710190 -1.77118802 -2.49513626  3221107561
-2.49513626 0.94658887 -13.31326962  1064457126
-13.23568726 -2.62689734 -2.49513626  3227398483
-2.49513626 0.94658893 -12.98210812  1064457127
-8.70775795 10.55212021 -2.64753628  1093046958
-2.64753628 0.94578534 -9.04238892  1064443645
-9.20622444 10.12016678 -2.64753628  1092585693
-2.64753628 0.94578534 -9.68326473  1064443645
-9.83733845 9.50784016 -2.64753628  1091591393
-2.64753628 0.94578534 -9.82756996  1064494638
-10.09072018 8.02629757 -2.49513626  1090231925
-2.49513626 0.94882482 -10.34345150  1064494639
-10.46583080 7.53063440 -2.49513626  1088821212
-2.49513626 0.94882482 -10.81660366  1064494639
-11.03654480 6.66623640 -2.49513626  1086970872
-2.49513626 0.94882482 -11.53604507  1064494639
-11.62709808 5.57266998 -2.49513626  1084638872
-2.49513626 0.94882482 -11.88216877  1064494639
-12.03690243 4.62135172 -2.49513626  1082205657
-2.49513626 0.94882482 -12.36902237  1064494639
-12.57732296 2.83810782 -2.49513626  1075555602
-2.49513626 0.94882482 -12.76455402  1064494639
-12.81643772 1.40819407 -2.49513626  1065278959
-2.49513626 0.94882482 -12.88811779  1064494639
-12.89247608 0.16768254 -2.49513626  3195840683
-2.49513626 0.94882482 -12.87662125  1064494639
-12.84872055 -1.07438648 -2.49513626  3218645098
-2.49513626 0.94882482 -12.72102356  1064494639
-12.55968857 -2.91518497 -2.49513626  1093262054
-2.64753628 0.94795704 -7.83922577  1064480079
-8.17233372 10.23396778 -2.64753628  1092722425
-2.64753628 0.94795698 -8.65607929  1064480079
-8.81291008 9.68781376 -2.64753628  1091831663
-2.64753628 0.94795698 -9.41706562  1064480080
-9.56211376 8.94913864 -2.64753628  1090665864
-2.49513626 0.95087790 -9.65962505  1064529084
-10.01870823 7.20891285 -2.49513626  1088520407
-2.49513626 0.95087790 -10.24520206  1064529084
-10.35449696 6.71768618 -2.49513626  1086766873
-2.49513626 0.95087790 -10.76467037  1064529084
-11.21466064 5.15503025 -2.49513626  1084173323
-2.49513626 0.95087790 -11.37453747  1064529084
-11.45007992 4.60853529 -2.49513626  1082629935
-2.49513626 0.95087790 -11.78306293  1064529084
-11.84059334 3.48472309 -2.49513626  1076748557
-2.49513626 0.95087790 -12.08210564  1064529084
-12.12109375 2.32852268 -2.49513626  1071574428
-2.49513626 0.95087790 -12.24564171  1064529084
-12.28897285 1.15068412 -2.49513626  1057922053
-2.49513626 0.95087790 -12.33751106  1064529084
-12.34168434 0.16051976 -2.49513626  3195133278
-2.49513626 0.95087790 -12.33507824  1064529084
-12.32650280 -0.63267267 -2.49513626  3214732829
-2.49513626 0.95087790 -12.26039505  1064529084
-12.23593998 -1.62009287 -2.49513626  3222097608
-2.49513626 0.95087790 -12.02311420  1064529084
-11.97671223 -2.98350668 -2.49513626  1092679202
-2.64753628 0.94995815 -7.83642197  1064513653
-8.14775753 9.55640316 -2.64753628  1092012453
-2.64753628 0.94995815 -8.45067883  1064513653
-8.59887028 9.15261364 -2.64753628  1090111031
-2.49513626 0.95276952 -9.02102470  1064560820
-9.37979126 7.21778059 -2.49513626  1088560530
-2.49513626 0.95276952 -9.60691166  1064560820
-9.71675777 6.75732660 -2.49513626  1087583659
-2.49513626 0.95276952 -10.03113461  1064560821
-10.13078785 6.11914730 -2.49513626  1085183218
-2.49513626 0.95276952 -10.58929062  1064560820
-10.67287254 5.11532688 -2.49513626  1084108338
-2.49513626 0.95276952 -10.83175850  1064560820
-10.90701103 4.59498739 -2.49513626  1083009369
-2.49513626 0.95276952 -11.17967129  1064560820
-11.24065781 3.70464563 -2.49513626  1078601316
-2.49513626 0.95276952 -11.45543289  1064560820
-11.62287903 2.23281384 -2.49513626  1073933655
-2.49513626 0.95276952 -11.68863487  1064560820
-11.74231339 1.48152518 -2.49513626  1067807932
-2.49513626 0.95276952 -11.80006790  1064560820
-11.82334614 0.53417069 -2.49513626  1051733270
-2.49513626 0.95276952 -11.83440685  1064560820
-11.82807255 -0.41663155 -2.49513626  3206237848
-2.49513626 0.95276952 -11.80857182  1064560820
-11.77686501 -1.17562294 -2.49513626  3215896535
-2.49513626 0.95276958 -11.70652485  1064560820
-11.67702103 -1.92977583 -2.49513626  3221716965
-2.49513626 0.95276952 -11.60897160  1064560820
-11.57044506 -2.49031878 -2.49513626  3224836247
-2.49513626 0.95276952 -11.33320522  1064560820
-7.21922112 9.66156769 -2.64753628  1091620974
-2.64753628 0.95180804 -7.78900051  1064589567
-7.91498470 8.15790844 -2.49513626  1090307902
-2.49513626 0.95451802 -8.29896545  1064590155
-8.42270947 7.63258410 -2.49513626  1089462562
-2.49513626 0.95451802 -8.78079319  1064590155
-9.00821781 6.93184996 -2.49513626  1087351582
-2.49513626 0.95451802 -9.43491268  1064590155
-9.63375759 6.03233671 -2.49513626  1086066240
-2.49513626 0.95451802 -9.82265091  1064590155
-9.91329575 5.56101990 -2.49513626  1084729975
-2.49513626 0.95451802 -10.25007439  1064590155
-10.32770252 4.74732399 -2.49513626  1083348312
-2.49513626 0.95451802 -10.47493744  1064590155
-10.54450321 4.24405193 -2.49513626  1082285698
-2.49513626 0.95451802 -10.85115051  1064590155
-11.00163460 2.85702419 -2.49513626  1075847304
-2.49513626 0.95451802 -11.27714920  1064590155
-11.34525967 0.69542247 -2.49513626  1057182878
-2.49513626 0.95451802 -11.36559010  1064590155
-11.36447144 -0.21751553 -2.49513626  3201097075
-2.49513626 0.95451802 -11.34078121  1064590155
-11.29072762 -1.31067789 -2.49513626  3221365184
-2.49513626 0.95451802 -11.14909077  1064590155
-11.11208820 -2.39166641 -2.49513626  3225102853
-2.49513626 0.95451802 -10.93548965  1064590155
-10.88424778 -3.27592278 -2.49513626  1091873933
-2.64753628 0.95352304 -7.09160137  1064573462
-7.23820591 9.06418514 -2.64753628  1090971711
-2.49513626 0.95613879 -7.22534227  1064617347
-7.35625362 8.08654118 -2.49513626  1090450437
-2.49513626 0.95613879 -7.61232519  1064617348
-7.73743820 7.72261524 -2.49513626  1089674446
-2.49513626 0.95613879 -8.10064220  1064617347
-8.21757412 7.20959330 -2.49513626  1088299776
-2.49513626 0.95613879 -8.76977921  1064617347
-8.87353516 6.38490629 -2.49513626  1086527001
-2.49513626 0.95613879 -9.26537800  1064617347
-9.44704342 5.50090790 -2.49513626  1084958171
-2.49513626 0.95613879 -9.70119286  1064617347
-9.85812855 4.72483397 -2.49513626  1082980971
-2.49513626 0.95613879 -10.20558357  1064617347
-10.38256931 3.42184043 -2.49513626  1079003744
-2.49513626 0.95613879 -10.66378307  1064617347
-10.70108414 2.23463011 -2.49513626  1074003399
-2.49513626 0.95613885 -10.76737022  1064617347
-10.82252884 1.54255271 -2.49513626  1068443822
-2.49513626 0.95613879 -10.92077732  1064617347
-10.92729568 0.31782717 -2.49513626  1041339775
-2.49513626 0.95613879 -10.93186474  1064617347
-10.91754532 -0.56035626 -2.49513626  3213557264
-2.49513626 0.95613879 -10.85898495  1064617348
-10.83733463 -1.43491149 -2.49513626  3217944636
-2.49513626 0.95613879 -10.78561974  1064617347
-10.75557709 -1.95555854 -2.49513626  3221762999
-2.49513626 0.95613879 -10.68717957  1064617347
-10.64883423 -2.47166324 -2.49513626  3225344368
-2.49513626 0.95613879 -6.30162334  1064642622
-6.43634033 8.33116817 -2.49513626  1090644888
-2.49513626 0.95764530 -6.95825624  1064642622
-7.08433151 7.78762293 -2.49513626  1089832797
-2.49513626 0.95764530 -7.33093596  1064642622
-7.56998634 7.31642914 -2.49513626  1088828389
-2.49513626 0.95764530 -8.02436733  1064642622
-8.34349728 6.42034912 -2.49513626  1086923330
-2.49513626 0.95764530 -8.73871326  1064642622
-8.83193684 5.72989559 -2.49513626  1085156816
-2.49513626 0.95764530 -9.18179798  1064642622
-9.49371910 4.55017996 -2.49513626  1082963039
-2.49513626 0.95764530 -9.76642227  1064642622
-9.82833576 3.77341604 -2.49513626  1080515554
-2.49513626 0.95764530 -9.94452572  1064642622
-9.99877262 3.29535413 -2.49513626  1078499155
-2.49513626 0.95764530 -10.09951305  1064642622
-10.18981934 2.64620423 -2.49513626  1075072954
-2.49513626 0.95764530 -10.33876896  1064642622
-10.36935043 1.81972015 -2.49513626  1070829600
-2.49513626 0.95764530 -10.44500542  1064642622
-10.46483517 1.14981377 -2.49513626  1065042571
-2.49513626 0.95764530 -10.49638176  1064642622
-10.52336311 0.30607757 -2.49513626  1040987051
-2.49513626 0.95764530 -10.52776432  1064642622
-10.52588367 -0.20146500 -2.49513626  3200106365
-2.49513626 0.95764530 -10.45758724  1064642622
-10.43672943 -1.38186908 -2.49513626  3218847900
-2.49513626 0.95764530 -10.35799885  1064642622
-10.32639599 -2.04948807 -2.49513626  3222128023
-2.49513626 0.95764530 -10.25519753  1064642622
-10.12855625 -2.87179065 -2.49513626  1090758479
-2.49513626 0.95904911 -6.20602512  1064666174
-6.33432055 7.93227816 -2.49513626  1090161387
-2.49513626 0.95904911 -6.58597660  1064666174
-7.06861258 7.28555822 -2.49513626  1088780540
-2.49513626 0.95904911 -7.29910564  1064666174
-7.41152859 6.93641901 -2.49513626  1086724467
-2.49513626 0.95904911 -8.23973751  1064666174
-8.33395290 5.79567957 -2.49513626  1085613810
-2.49513626 0.95904911 -8.51590157  1064666174
-8.68906212 5.24832249 -2.49513626  1084454081
-2.49513626 0.95904911 -9.00827599  1064666174
-9.22332954 4.23967934 -2.49513626  1081250548
-2.49513626 0.95904911 -9.58867550  1064666174
-9.64098454 3.17743421 -2.49513626  1076715958
-2.49513626 0.95904911 -9.93674850  1064666174
-10.04952717 1.43237460 -2.49513626  1064453337
-2.49513626 0.95904911 -10.12078667  1064666174
-10.14074802 0.45815215 -2.49513626  1040658288
-2.49513626 0.95904911 -10.15104485  1064666174
-10.14923286 -0.19425590 -2.49513626  3204789375
-2.49513626 0.95904911 -10.12807560  1064666174
-10.06326866 -1.33242142 -2.49513626  3216980645
-2.49513626 0.95904911 -10.01524544  1064666174
-9.95688057 -1.97615087 -2.49513626  3223128597
-2.49513626 0.95904911 -9.72036171  1064666174
-5.86538744 7.84971094 -2.49513626  1089591899
-2.49513626 0.96036029 -6.47656727  1064688172
-6.59391212 7.24851990 -2.49513626  1088718882
-2.49513626 0.96036029 -6.82344818  1064688171
-7.15447330 6.69583654 -2.49513626  1087541074
-2.49513626 0.96036029 -7.46887255  1064688172
-7.66887188 6.09992599 -2.49513626  1086274180
-2.49513626 0.96036029 -7.95395327  1064688172
-8.04490185 5.59466457 -2.49513626  1084926432
-2.49513626 0.96036029 -8.38769436  1064688172
-8.46803188 4.93083906 -2.49513626  1083795808
-2.49513626 0.96036023 -8.62212181  1064688172
-9.09033298 3.65876174 -2.49513626  1075683868
-2.49513626 0.96036029 -9.52277851  1064688172
-9.59210682 2.00305009 -2.49513626  1072472108
-2.49513626 0.96036023 -9.74039936  1064688171
-9.76976204 0.75662965 -2.49513626  1055027252
-2.49513626 0.96036023 -9.79722309  1064688171
-9.79294491 -0.34494635 -2.49513626  3204486596
-2.49513626 0.96036029 -9.77679825  1064688172
-9.76493740 -0.81652617 -2.49513626  3212389701
-2.49513626 0.96036023 -9.73365498  1064688171
-9.69231129 -1.44216061 -2.49513626  3217851073
-2.49513626 0.96036029 -9.64095688  1064688172
-9.57964230 -2.06183672 -2.49513626  3222129426
-2.49513626 0.96036029 -9.46914005  1064688171
-6.02696848 7.30352020 -2.49513626  1088853300
-2.49513626 0.96158755 -6.25857973  1064708762
-6.48371506 6.90124512 -2.49513626  1087994400
-2.49513626 0.96158755 -6.70215511  1064708762
-6.80879450 6.58073425 -2.49513626  1087311384
-2.49513626 0.96158755 -7.01675940  1064708762
-7.31506491 6.01294947 -2.49513626  1086103727
-2.49513626 0.96158755 -7.59636164  1064708762
-7.68623924 5.53059483 -2.49513626  1085079789
-2.49513626 0.96158755 -7.94385529  1064708762
-8.02565575 5.02539778 -2.49513626  1083734495
-2.49513626 0.96158755 -8.25853539  1064708762
-8.33191872 4.49943256 -2.49513626  1082611385
-2.49513626 0.96158755 -8.53909397  1064708762
-8.66620922 3.81609488 -2.49513626  1080772871
-2.49513626 0.96158755 -8.78437042  1064708762
-8.89345837 3.25148368 -2.49513626  1078389707
-2.49513626 0.96158755 -8.99335861  1064708762
-9.08396626 2.67344022 -2.49513626  1075952678
-2.49513626 0.96158755 -9.16519451  1064708762
-9.26925945 1.93563247 -2.49513626  1071950155
-2.49513626 0.96158755 -9.32667446  1064708762
-9.35177994 1.48663521 -2.49513626  1065640070
-2.49513626 0.96158755 -9.44093513  1064708761
-9.45146275 0.57934052 -2.49513626  1054527781
-2.49513626 0.96158749 -9.46520233  1064708762
-9.46915722 -0.02903989 -2.49513626  3198855947
-2.49513626 0.96158755 -9.44773102  1064708762
-9.38727474 -1.24291694 -2.49513626  3216138791
-2.49513626 0.96158755 -9.28803730  1064708762
-9.25721073 -1.99243951 -2.49513626  3222437263
-2.49513626 0.96158749 -9.15043163  1064708761
-9.06740475 -2.72909212 -2.49513626  1089312376
-2.49513626 0.96273869 -5.48262024  1064728075
-5.71559668 7.15746832 -2.49513626  1088557555
-2.49513626 0.96273869 -5.94267273  1064728075
-6.05392122 6.87367821 -2.49513626  1087951070
-2.49513626 0.96273869 -6.58614445  1064728075
-6.68758631 6.25887966 -2.49513626  1086640563
-2.49513626 0.96273869 -6.98147058  1064728075
-7.16841793 5.70185852 -2.49513626  1085456347
-2.49513626 0.96273869 -7.34795761  1064728075
-7.43489599 5.34974051 -2.49513626  1084709028
-2.49513626 0.96273869 -7.60297585  1064728075
-7.68408346 4.98520327 -2.49513626  1083407727
-2.49513626 0.96273869 -8.05946064  1064728075
-8.19517231 4.09103489 -2.49513626  1081957665
-2.49513626 0.96273869 -8.55097866  1064728075
-8.74422264 2.72688890 -2.49513626  1076199758
-2.49513626 0.96273869 -8.90134239  1064728075
-8.93489742 2.01618505 -2.49513626  1071460120
-2.49513626 0.96273869 -9.02168655  1064728075
-9.04596615 1.43802309 -2.49513626  1062902473
-2.49513626 0.96273863 -9.13220692  1064728075
-9.15021896 0.41340119 -2.49513626  1039398409
-2.49513626 0.96273869 -9.15787411  1064728075
-9.13878536 -0.61645496 -2.49513626  3211324021
-2.49513626 0.96273869 -9.09845448  1064728075
-9.08030605 -1.20227301 -2.49513626  3218193075
-2.49513626 0.96273869 -8.98431301  1064728075
-8.95449543 -1.92728555 -2.49513626  3221523010
-2.49513626 0.96273869 -8.85120678  1064728074
-8.77089500 -2.63984990 -2.49513626  1088274739
-2.49513626 0.96382046 -5.64446926  1064746224
-5.86138010 6.65506935 -2.49513626  1087499159
-2.49513626 0.96382040 -6.07222939  1064746224
-6.17531157 6.36484289 -2.49513626  1086880024
-2.49513626 0.96382040 -6.37667751  1064746224
-6.47489834 6.05982590 -2.49513626  1086230332
-2.49513626 0.96382046 -6.66630030  1064746224
-6.75943470 5.74071836 -2.49513626  1085551603
-2.49513626 0.96382046 -6.94043541  1064746223
-7.11426735 5.29462004 -2.49513626  1084360228
-2.49513626 0.96382040 -7.36117029  1064746224
-7.59097958 4.58506536 -2.49513626  1083100316
-2.49513626 0.96382046 -7.73441029  1064746223
-7.80313683 4.21387768 -2.49513626  1081966530
-2.49513626 0.96382046 -8.05772591  1064746224
-8.22688103 3.31123233 -2.49513626  1077562347
-2.49513626 0.96382046 -8.42260075  1064746223
-8.46612358 2.64016485 -2.49513626  1075279981
-2.49513626 0.96382046 -8.61824512  1064746223
-8.70899868 1.67304254 -2.49513626  1068643973
-2.49513626 0.96382040 -8.81519222  1064746224
-8.84177017 0.68475991 -2.49513626  1048838703
-2.49513626 0.96382040 -8.86749744  1064746223
-8.86662483 -0.16970678 -2.49513626  3198146105
-2.49513626 0.96382040 -8.83740234  1064746223
-8.80908775 -1.02259815 -2.49513626  3215396857
-2.49513626 0.96382040 -8.63860416  1064746223
-8.60526562 -2.14364862 -2.49513626  3222406855
-2.49513626 0.96382040 -8.49194908  1064746223
-5.36246681 6.71525812 -2.49513626  1087456039
-2.49513626 0.96483886 -5.78280020  1064763310
-5.98409891 6.16776276 -2.49513626  1086473212
-2.49513626 0.96483886 -6.27440786  1064763310
-6.63868999 5.45697212 -2.49513626  1084960705
-2.49513626 0.96483886 -6.81063318  1064763310
-6.97554302 5.01921940 -2.49513626  1084031442
-2.49513626 0.96483886 -7.13324022  1064763310
-7.28357506 4.56073189 -2.49513626  1083059665
-2.49513626 0.96483886 -7.62617064  1064763310
-7.86490154 3.46324587 -2.49513626  1079347111
-2.49513626 0.96483886 -7.97213793  1064763310
-8.02267742 3.08016539 -2.49513626  1077729944
-2.49513626 0.96483886 -8.11752033  1064763310
-8.16180420 2.68993068 -2.49513626  1074972615
-2.49513626 0.96483886 -8.35138988  1064763310
-8.38287258 1.89161873 -2.49513626  1069425063
-2.49513626 0.96483886 -8.56799316  1064763310
-8.59001637 0.24984510 -2.49513626  1038410502
-2.49513626 0.96483886 -8.59207249  1064763310
-8.58235264 -0.44049966 -2.49513626  3205763059
-2.49513626 0.96483886 -8.56375980  1064763310
-8.51929951 -1.12799287 -2.49513626  3215057847
-2.49513626 0.96483886 -8.47864342  1064763310
-8.45503044 -1.53727770 -2.49513626  3218482036
-2.49513626 0.96483886 -8.30435085  1064763310
-4.88073444 6.75570965 -2.49513626  1087743250
-2.49513626 0.96579927 -5.09532404  1064779423
-5.30464840 6.42820930 -2.49513626  1086480233
-2.49513626 0.96579927 -5.80353260  1064779423
-5.89891291 5.88761377 -2.49513626  1085685102
-2.49513626 0.96579927 -6.17581511  1064779423
-6.35248518 5.39509869 -2.49513626  1084622178
-2.49513626 0.96579927 -6.99179840  1064779423
-7.13396692 4.30902243 -2.49513626  1082536893
-2.49513626 0.96579927 -7.26876450  1064779423
-7.39605522 3.84182215 -2.49513626  1080461706
-2.49513626 0.96579927 -7.57261705  1064779423
-7.62758112 3.35874438 -2.49513626  1078924852
-2.49513626 0.96579927 -7.73158169  1064779423
-7.78059530 2.98722196 -2.49513626  1077356480
-2.49513626 0.96579927 -7.95642614  1064779423
-7.99527502 2.35303497 -2.49513626  1074682353
-2.49513626 0.96579921 -8.09939003  1064779423
-8.12992287 1.83454037 -2.49513626  1067940819
-2.49513626 0.96579927 -8.25094795  1064779423
-8.28448105 0.91024929 -2.49513626  1061611748
-2.49513626 0.96579927 -8.30945873  1064779422
-8.32338333 -0.42720789 -2.49513626  3212183115
-2.49513626 0.96579927 -8.22280502  1064779422
-8.19990349 -1.49089110 -2.49513626  3218058570
-2.49513626 0.96579927 -8.11851883  1064779423
-8.08718967 -2.01459193 -2.49513626  3221830698
-2.49513626 0.96579927 -8.01826668  1064779423
-7.98069572 -2.40201378 -2.49513626  1087331150
-2.49513626 0.96670640 -4.94535637  1064794642
-5.14851904 6.23901129 -2.49513626  1086290374
-2.49513626 0.96670640 -5.81639338  1064794642
-5.99404526 5.43175268 -2.49513626  1084723160
-2.49513626 0.96670640 -6.33061457  1064794642
-6.41071987 4.93306923 -2.49513626  1083869824
-2.49513626 0.96670640 -6.56594610  1064794642
-6.64102411 4.61836720 -2.49513626  1081474552
-2.49513626 0.96670640 -7.17836714  1064794642
-7.29449129 3.49612522 -2.49513626  1079523439
-2.49513626 0.96670640 -7.40308285  1064794642
-7.45451689 3.14049339 -2.49513626  1078021229
-2.49513626 0.96670640 -7.64086723  1064794642
-7.68254995 2.53198409 -2.49513626  1074407773
-2.49513626 0.96670640 -7.86100245  1064794642
-7.89063835 1.78054488 -2.49513626  1070835236
-2.49513626 0.96670640 -7.94378328  1064794642
-7.96728182 1.39818037 -2.49513626  1067617761
-2.49513626 0.96670640 -8.00810146  1064794642
-8.04064846 0.88345832 -2.49513626  1052437600
-2.49513626 0.96670640 -8.08561707  1064794642
-8.08835220 0.10519888 -2.49513626  3167434895
-2.49513626 0.96670640 -8.08755493  1064794642
-8.07840157 -0.41463387 -2.49513626  3205193285
-2.49513626 0.96670640 -8.06090355  1064794642
-8.04903126 -0.80349272 -2.49513626  3211708560
-2.49513626 0.96670640 -7.95855808  1064794642
-7.90794468 -1.70203793 -2.49513626  3219790174
-2.49513626 0.96670640 -7.84916115  1064794642
-7.74580908 -2.33118534 -2.49513626  1087097464
-2.49513626 0.96756452 -4.80325508  1064809039
-5.00058174 6.05974007 -2.49513626  1086106421
-2.49513626 0.96756452 -5.28683233  1064809039
-5.47086859 5.63878059 -2.49513626  1085381285
-2.49513626 0.96756452 -5.64926481  1064809039
-5.73627853 5.36855507 -2.49513626  1084805718
-2.49513626 0.96756452 -5.98835564  1064809039
-6.14871073 4.89076853 -2.49513626  1083789958
-2.49513626 0.96756452 -6.45020008  1064809039
-6.52145386 4.38142776 -2.49513626  1082709364
-2.49513626 0.96756452 -6.65889502  1064809039
-6.91300154 3.73318362 -2.49513626  1080543325
-2.49513626 0.96756452 -7.13854837  1064809039
-7.28840208 2.93350577 -2.49513626  1073530320
-2.49513626 0.96756452 -7.63512564  1064809039
-7.79480886 0.98346937 -2.49513626  1060864526
-2.49513626 0.96756446 -7.84188843  1064809039
-7.85594177 0.10217614 -2.49513626  3196951168
-2.49513626 0.96756446 -7.84627914  1064809038
-7.83879328 -0.52876419 -2.49513626  3213099005
-2.49513626 0.96756446 -7.72987938  1064809038
-7.70629311 -1.52947450 -2.49513626  3218315704
-2.49513626 0.96756452 -7.62362289  1064809039
-7.59211874 -2.02138448 -2.49513626  3221825825
-2.49513626 0.96756452 -4.86018896  1064822677
-5.04696274 5.73036861 -2.49513626  1085412923
-2.49513626 0.96837741 -5.40466309  1064822677
