# .PCD v0.7 - Point Cloud Data file format
VERSION 0.7
FIELDS x y z intensity
SIZE 4 4 4 4
TYPE F F F F
COUNT 1 1 1 1
WIDTH 1027
HEIGHT 1
VIEWPOINT 0 0 0 1 0 0 0
POINTS 1027
DATA ascii
3.00868058 28.72164536 -2.64753628  1105600920
-2.64753628 0.89047557 2.08141160  1063515701
1.61691499 28.83351898 -2.64753628  1105659401
-2.64753628 0.89047557 -0.70951396  1063515701
-1.17474115 28.85489464 -2.64753628  1105619600
-2.64753628 0.89047557 -3.03134942  1063515701
-3.95541191 28.60663795 -2.64753628  1105481784
-2.64753628 0.89047557 24.17211342  1063660392
23.99557877 11.14661980 -2.64753628  1094222523
-2.64753628 0.89909995 23.62384415  1063660392
23.42875099 12.29343224 -2.64753628  1096193403
-2.64753628 0.89909983 22.36305428  1063660392
22.13225365 14.49822140 -2.64753628  1098796512
-2.64753628 0.89909983 20.89327812  1063660392
20.62893486 16.56749725 -2.64753628  1099378370
-2.64753628 0.89909983 20.08423424  1063660392
19.80401993 17.54524803 -2.64753628  1099883955
-2.64753628 0.89909983 18.93282127  1063660392
18.63247490 18.78471947 -2.64753628  1100476717
-2.59523988 0.90099072 17.10383797  1063714769
16.12686539 19.11778831 -2.50275636  1100677241
-2.50275636 0.90434450 15.50230885  1063748383
15.18395519 19.87493896 -2.50275636  1101430473
-2.50275636 0.90434450 13.19394779  1063748383
12.84976768 21.45808029 -2.50275636  1101980548
-2.50275636 0.90434450 11.79755592  1063748384
11.08059502 22.42285538 -2.50275636  1103052589
-2.64753628 0.89909983 10.95100975  1063660392
10.16902828 24.42592430 -2.64753628  1103409524
-2.64753628 0.89909983 9.37649059  1063660392
8.97652435 24.88889313 -2.64753628  1103642144
-2.64753628 0.89909983 8.16967678  1063660392
7.76302099 25.29368401 -2.64753628  1103844073
-2.64753628 0.89909995 6.94376898  1063660392
6.53137922 25.63933945 -2.64753628  1104014886
-2.64753628 0.89909983 5.70161486  1063660392
4.86593151 26.00687027 -2.64753628  1104193477
-2.64753628 0.89909983 4.02517557  1063660394
2.75648952 26.31415749 -2.64753628  1104336755
-2.64753628 0.89909983 1.90694332  1063660392
1.48137367 26.41666985 -2.64753628  1104379700
-2.64753628 0.89909983 0.20279339  1063660392
-0.22366779 26.45718956 -2.64753628  1104386555
-2.64753628 0.89909983 -1.07627988  1063660392
-1.50222206 26.41548729 -2.64753628  1104353853
-2.64753628 0.89909995 -2.35282540  1063660392
-2.77726364 26.31200600 -2.64753628  1104288848
-2.64753628 0.89909983 22.29977226  1063783886
21.96829796 10.63866901 -2.64753628  1094386279
-2.64753628 0.90646064 21.04054832  1063783886
20.83839989 12.71017456 -2.64753628  1095808463
-2.64753628 0.90646058 20.19969368  1063783885
19.97622108 14.02633286 -2.64753628  1097173797
-2.64753628 0.90646064 19.27491570  1063783886
19.03104782 15.28420162 -2.64753628  1098476631
-2.64753628 0.90646058 18.27002335  1063783886
18.00677490 16.47858047 -2.64753628  1099309595
-2.64753628 0.90646064 17.46631622  1063783886
17.18922997 17.32968140 -2.64753628  1099890521
-2.64753628 0.90646064 15.73835182  1063783886
15.43559933 18.90845871 -2.64753628  1100470093
-2.62339592 0.90727270 14.50383663  1063815599
13.56368828 18.99317741 -2.53151560  1100692118
-2.50275636 0.91134185 11.53383541  1063865779
10.88373280 20.34582520 -2.50275636  1101276694
-2.50275636 0.91134185 9.88758659  1063865779
9.55029011 21.00476074 -2.50275636  1101687246
-2.50275636 0.91134185 8.17716980  1063865779
7.12471247 21.94644737 -2.50275636  1102192400
-2.50275636 0.91134185 5.64345551  1063783885
5.25998211 23.83526993 -2.64753628  1103058407
-2.64753628 0.90646064 4.10173464  1063783886
3.71339321 24.12463760 -2.64753628  1103223476
-2.64753628 0.90646064 2.54297805  1063783886
2.15138984 24.31375885 -2.64753628  1103306073
-2.64753628 0.90646064 -0.20634933  1063783886
-0.59969336 24.40139580 -2.64753628  1103295616
-2.64753628 0.90646064 -2.56213856  1063783885
-2.95303273 24.22946739 -2.64753628  1103132576
-2.64753628 0.90646064 20.69399834  1063890506
20.38639069 9.87259197 -2.64753628  1092825793
-2.64753628 0.91281569 20.05760002  1063890506
19.88536644 10.84644222 -2.64753628  1094169898
-2.64753628 0.91281569 18.53776360  1063890506
17.42974663 14.46640873 -2.64753628  1097592161
-2.64753628 0.91281569 16.71013260  1063890506
16.20859146 15.82259846 -2.64753628  1098950531
-2.64753628 0.91281569 15.69019127  1063890506
15.42485714 16.58755302 -2.64753628  1099344907
-2.64753628 0.91281569 14.88221741  1063890506
14.32410526 17.54688454 -2.64753628  1100070902
-2.64753628 0.91281569 13.16384983  1063890506
12.86504459 18.64306259 -2.64753628  1100400811
-2.64753628 0.91281569 11.78155327  1063910084
9.17559814 19.34686661 -2.50275636  1100738587
-2.50275636 0.91738057 8.54727364  1063967092
8.22973633 19.76775742 -2.50275636  1100951234
-2.50275636 0.91738057 7.58834457  1063967092
7.26464844 20.14243507 -2.50275636  1101139492
-2.50275636 0.91738057 6.61167336  1063967092
6.28256559 20.47002983 -2.50275636  1101302927
-2.50275636 0.91738057 5.61955023  1063967092
4.95068789 20.83226967 -2.50275636  1101481564
-2.50275636 0.91738057 4.27668762  1063967092
3.93796992 21.04721451 -2.50275636  1101614652
-2.50275636 0.91738057 2.91603446  1063967092
2.57376122 21.25720215 -2.50275636  1101701637
-2.50275636 0.91738057 1.54328287  1063967092
0.85413837 21.39540482 -2.50275636  1101742154
-2.50275636 0.91738057 -0.18101814  1063967092
-1.21574569 21.37790489 -2.50275636  1101639531
-2.50275636 0.91738057 -3.61487913  1063967092
18.19038010 8.09610367 -2.49513626  1090926130
-2.49513626 0.92287099 18.70785522  1063983485
18.54721069 10.11654854 -2.64753628  1093050479
-2.64753628 0.91835767 18.03654480  1063983485
17.85689354 11.29048634 -2.64753628  1094269614
-2.64753628 0.91835767 17.29029655  1063983485
17.09238052 12.41749763 -2.64753628  1095438292
-2.64753628 0.91835767 16.68328285  1063983485
16.03725624 13.75318241 -2.64753628  1096820853
-2.64753628 0.91835767 15.35374832  1063983485
15.11785889 14.75784492 -2.64753628  1098108044
-2.64753628 0.91835767 14.38686657  1063983485
13.88074207 15.92697716 -2.64753628  1098985577
-2.64753628 0.91835767 13.36018753  1063983485
13.09467411 16.57929993 -2.64753628  1099320889
-2.64753628 0.91835767 12.27801228  1063983485
11.43264580 17.76620865 -2.64753628  1099929047
-2.64753628 0.91835767 10.26408768  1063983490
9.35969543 18.94042015 -2.64753628  1100460715
-2.62998104 0.91887641 8.62277126  1064001745
7.54180527 18.97146225 -2.55840087  1100468368
-2.51376224 0.92231822 5.55131388  1064055411
5.24139404 19.27147675 -2.50275636  1100706164
-2.50275636 0.92264479 4.30377150  1064055411
3.67296982 19.63087654 -2.50275636  1100840974
-2.50275636 0.92264479 2.08069444  1064055411
1.43943024 19.91959190 -2.50275636  1100989568
-2.50275636 0.92264479 -0.81241012  1064055411
-1.13392830 19.93931198 -2.50275636  1100962040
-2.50275636 0.92264479 -1.77598405  1064055411
-2.41620588 19.82482910 -2.50275636  1100839581
-2.50275636 0.92264479 17.52599335  1064065276
17.37551689 9.47744942 -2.64753628  1092937285
-2.64753628 0.92323279 16.19798470  1064065276
16.01257133 11.63302994 -2.64753628  1094597584
-2.64753628 0.92323273 15.62933445  1064065275
15.43158913 12.39340878 -2.64753628  1095384966
-2.64753628 0.92323279 14.81449699  1064065276
14.38378143 13.59546757 -2.64753628  1097098671
-2.64753628 0.92323279 13.24264240  1064065275
13.00383186 14.92079830 -2.64753628  1098963589
-2.64753628 0.92323279 10.97724819  1064065277
10.71040344 16.64385414 -2.64753628  1099334575
-2.64753628 0.92323279 10.16838741  1064065276
9.89338017 17.14207649 -2.64753628  1099588861
-2.64753628 0.92323279 9.33574486  1064065276
9.05325603 17.60026169 -2.64753628  1099821937
-2.64753628 0.92323285 8.19196701  1064065275
7.60698795 18.27193451 -2.64753628  1100161830
-2.64753628 0.92323279 6.71493959  1064065275
6.41398239 18.72406578 -2.64753628  1100388775
-2.64753628 0.92323273 5.80717325  1064065275
5.15452480 18.95207787 -2.62725019  1100455979
-2.61627769 0.92410380 4.18301105  1064089113
3.54677677 18.95641136 -2.57974505  1100457914
-2.57238340 0.92532837 2.91800261  1064103557
2.60598850 18.95750046 -2.55973363  1100457358
-2.53637815 0.92633402 0.14528829  1064117653
-0.46584028 18.95492744 -2.53630710  1100454936
-2.53914142 0.92625690 -1.38437891  1064114856
-1.99985349 18.94677734 -2.54852819  1100451726
-2.55297613 0.92587030 16.02649307  1064205291
15.90944386 7.39038229 -2.49513626  1089776315
-2.49513626 0.93157834 15.66298199  1064205291
15.53362846 8.15073681 -2.49513626  1090938512
-2.49513626 0.93157834 16.04510880  1064137779
15.40388870 10.44929790 -2.64753628  1094105179
-2.64753628 0.92755443 14.51270103  1064137779
13.73161125 12.56624126 -2.64753628  1095764312
-2.64753628 0.92755431 12.89347458  1064137779
12.67543316 13.63088131 -2.64753628  1096635805
-2.64753628 0.92755431 12.22951508  1064137779
11.30003357 14.79110336 -2.64753628  1097828987
-2.64753628 0.92755431 10.81744576  1064137779
10.57189941 15.32000256 -2.64753628  1098371197
-2.64753628 0.92755431 10.07263851  1064137779
9.81905174 15.81308842 -2.64753628  1098971270
-2.64753628 0.92755431 9.04323578  1064137779
7.70416403 16.94442177 -2.64753628  1099466743
-2.64753628 0.92755431 7.15403366  1064137779
6.87614489 17.29699707 -2.64753628  1099848434
-2.64753628 0.92755431 5.17387295  1064137779
4.88501930 17.96118546 -2.64753628  1099975929
-2.64753628 0.92755431 4.30358553  1064137779
4.01115513 18.17630959 -2.64753628  1100081316
-2.64753628 0.92755431 3.42323971  1064137779
3.12790298 18.34894562 -2.64753628  1100164351
-2.64753628 0.92755431 2.53488207  1064137779
2.23734689 18.47868538 -2.64753628  1100239967
-2.64753628 0.92755431 1.04216409  1064137779
-0.45730513 18.60802078 -2.64753628  1100252007
-2.64753628 0.92755431 -1.65520942  1064137779
-2.25192475 18.47691536 -2.64753628  1100137874
-2.64753628 0.92755431 15.12382317  1064266528
14.89901257 7.21520042 -2.49513626  1090929248
-2.49513626 0.93522847 14.99591923  1064202484
14.84655285 9.38712025 -2.64753628  1092956075
-2.64753628 0.93141103 13.87079048  1064202483
13.69529533 10.99895573 -2.64753628  1094120531
-2.64753628 0.93141103 13.14764404  1064202483
12.76539421 12.06577206 -2.64753628  1095207163
-2.64753628 0.93141103 11.75263500  1064202484
10.88715458 13.78433800 -2.64753628  1096766474
-2.64753628 0.93141103 9.74214745  1064202483
9.50531197 14.77116013 -2.64753628  1097777747
-2.64753628 0.93141097 7.78182602  1064202483
7.52701378 15.87079525 -2.64753628  1098897214
-2.64753628 0.93141103 7.01157713  1064202484
6.75109291 16.21606827 -2.64753628  1099076873
-2.64753628 0.93141103 6.22494125  1064202483
5.95940399 16.52342606 -2.64753628  1099322971
-2.64753628 0.93141097 4.88246059  1064202484
4.06119299 17.08931923 -2.64753628  1099511919
-2.64753628 0.93141097 3.23043108  1064202484
2.95172882 17.31546783 -2.64753628  1099642493
-2.64753628 0.93141103 1.54820585  1064202483
1.26599562 17.51956940 -2.64753628  1099720962
-2.64753628 0.93141097 -0.14849247  1064202484
-0.43155813 17.55994797 -2.64753628  1099720669
-2.64753628 0.93141097 -1.27982616  1064202483
-1.56201184 17.49566078 -2.64753628  1099660647
-2.64753628 0.93141097 -2.40583897  1064202483
-2.68596339 17.35867691 -2.64753628  1099596107
-2.64753628 0.93141103 14.31550407  1064321500
14.21094894 6.60138607 -2.49513626  1089010273
-2.49513626 0.93850493 13.63339329  1064321500
13.50713062 7.94272089 -2.49513626  1091683750
-2.64753628 0.93487388 13.60714912  1064260581
13.45139217 9.77234459 -2.64753628  1092603478
-2.64753628 0.93487388 13.12944031  1064260581
12.62103462 10.82350445 -2.64753628  1093900349
-2.64753628 0.93487382 12.08324909  1064260575
11.89748096 11.61415482 -2.64753628  1094508254
-2.64753628 0.93487388 11.32220268  1064260581
11.12449360 12.35654926 -2.64753628  1095456454
-2.64753628 0.93487388 10.51422501  1064260581
10.30527115 13.04760742 -2.64753628  1095984225
-2.64753628 0.93487388 9.22146320  1064260580
8.99728584 13.98168755 -2.64753628  1096941445
-2.64753628 0.93487388 8.54197216  1064260581
8.07777786 14.53231812 -2.64753628  1097760265
-2.64753628 0.93487394 6.88166571  1064260581
6.63683462 15.24438000 -2.64753628  1098225414
-2.64753628 0.93487388 5.38807774  1064260581
4.62151194 15.97123337 -2.64753628  1098966310
-2.64753628 0.93487388 3.84413481  1064260581
3.05777526 16.34284973 -2.64753628  1099112126
-2.64753628 0.93487388 1.99848855  1064260580
1.73219323 16.53596687 -2.64753628  1099213421
-2.64753628 0.93487382 0.93090385  1064260580
-0.14055470 16.62585258 -2.64753628  1099233455
-2.64753628 0.93487388 -0.94400358  1064260581
-1.21142054 16.58225441 -2.64753628  1099187929
-2.64753628 0.93487388 13.58737278  1064371117
13.48812962 6.26561499 -2.49513626  1088676929
-2.49513626 0.94146234 12.82011795  1064371117
12.57047939 7.94801426 -2.49513626  1090675892
-2.49513626 0.94146234 12.30775642  1064371118
12.91504765 9.06831837 -2.64753628  1092070786
-2.64753628 0.93800002 12.46163559  1064313029
12.30397224 9.88155651 -2.64753628  1093103495
-2.64753628 0.93800002 11.46854210  1064313029
11.11319828 11.20400238 -2.64753628  1094064960
-2.64753628 0.93800008 10.55867195  1064313029
10.17516613 12.06227303 -2.64753628  1094948974
-2.64753628 0.93800002 9.58024788  1064313029
9.37688923 12.69277287 -2.64753628  1095596518
-2.64753628 0.93800002 8.53965664  1064313029
7.66691351 13.79314518 -2.64753628  1096721289
-2.64753628 0.93800008 6.99126101  1064313029
6.76233196 14.25846004 -2.64753628  1097193854
-2.64753628 0.93800002 6.06524229  1064313029
5.82964325 14.66452026 -2.64753628  1097603817
-2.64753628 0.93800002 4.38644123  1064313030
4.14155436 15.22761917 -2.64753628  1098229420
-2.64753628 0.93800002 3.40068555  1064313029
3.15187788 15.46280956 -2.64753628  1098395515
-2.64753628 0.93800008 1.89683652  1064313030
1.64408767 15.69488621 -2.64753628  1098651817
-2.64753628 0.93800002 0.62949377  1064313029
0.12095889 15.78031921 -2.64753628  1098672778
-2.64753628 0.93800002 -0.64193749  1064313029
-0.89598858 15.75531578 -2.64753628  1098633779
-2.64753628 0.93800008 -2.41309285  1064313029
12.92797565 5.75393057 -2.49513626  1087105051
-2.49513626 0.94414485 12.53040123  1064416122
12.31197834 6.97533846 -2.49513626  1089194779
-2.49513626 0.94414485 11.96043110  1064416122
11.71047783 7.94385910 -2.49513626  1090656996
-2.49513626 0.94414485 11.85687256  1064360612
11.55379963 9.58946609 -2.64753628  1092379674
-2.64753628 0.94083619 11.23871803  1064360612
11.07678223 10.13671684 -2.64753628  1092945368
-2.64753628 0.94083619 10.22480106  1064360612
10.04625607 11.15889359 -2.64753628  1093999644
-2.64753628 0.94083619 9.49513435  1064360612
9.30642605 11.78296375 -2.64753628  1094793860
-2.64753628 0.94083625 8.12522793  1064360612
7.92066336 12.75583076 -2.64753628  1095638017
-2.64753628 0.94083619 7.29484558  1064360612
7.08237410 13.23964119 -2.64753628  1096245348
-2.64753628 0.94083619 6.43415594  1064360612
6.21466398 13.66843319 -2.64753628  1096665410
-2.64753628 0.94083619 5.54673147  1064360612
5.32112885 14.04043293 -2.64753628  1097025063
-2.64753628 0.94083625 4.63626909  1064360612
4.40549135 14.35408783 -2.64753628  1097254269
-2.64753628 0.94083625 3.94056535  1064360612
3.70653868 14.55024719 -2.64753628  1097557501
-2.64753628 0.94083619 2.76139760  1064360613
2.28427720 14.84014416 -2.64753628  1097760568
-2.64753628 0.94083619 1.56429923  1064360613
0.84067506 14.99137783 -2.64753628  1097874281
-2.64753628 0.94083613 -0.12692852  1064360612
-0.61078489 15.00250435 -2.64753628  1097849328
-2.64753628 0.94083619 -1.09400320  1064360613
-1.57609260 14.93198299 -2.64753628  1097759081
-2.64753628 0.94083619 -2.53484201  1064360612
12.32794380 5.48687315 -2.49513626  1086484829
-2.49513626 0.94658887 11.94882679  1064457126
11.84622192 6.46150494 -2.49513626  1087691230
-2.49513626 0.94658887 11.63180733  1064457126
11.40530872 7.21130371 -2.49513626  1092086390
-2.64753628 0.94342065 10.08310509  1064403972
9.75023460 10.48518753 -2.64753628  1093448755
-2.64753628 0.94342065 9.23202705  1064403970
8.87449169 11.23608494 -2.64753628  1094060769
-2.64753628 0.94342065 8.50774193  1064403972
8.32102585 11.65189838 -2.64753628  1094487376
-2.64753628 0.94342065 7.74810553  1064403972
7.35600805 12.28394604 -2.64753628  1095253001
-2.64753628 0.94342065 6.34323549  1064403972
5.92621994 13.03403854 -2.64753628  1095895997
-2.64753628 0.94342059 5.28929186  1064403972
4.85771513 13.46880913 -2.64753628  1096483200
-2.64753628 0.94342065 3.97986484  1064403972
3.75767136 13.81615543 -2.64753628  1096791237
-2.64753628 0.94342065 2.17825556  1064403972
1.94988930 14.18464565 -2.64753628  1097085548
-2.64753628 0.94342065 1.03195632  1064403972
0.80165333 14.29557705 -2.64753628  1097139735
-2.64753628 0.94342065 -0.12103976  1064403972
-0.35177687 14.31371689 -2.64753628  1097131558
-2.64753628 0.94342065 -0.81293869  1064403972
-1.73223579 14.21286678 -2.64753628  1097002493
-2.64753628 0.94342065 -2.18942356  1064403972
-2.41718960 14.11252689 -2.64753628  1085917939
-2.49513626 0.94882482 11.31923294  1064494639
11.21825409 6.35569429 -2.49513626  1087448138
-2.49513626 0.94882482 11.00757885  1064494639
10.43135929 7.57831144 -2.49513626  1090596273
-2.49513626 0.94882482 10.24033642  1064443645
10.09278584 9.23622990 -2.64753628  1092151383
-2.64753628 0.94578534 9.63455296  1064443645
9.47675037 9.86729431 -2.64753628  1092791934
-2.64753628 0.94578534 8.82133675  1064443645
8.65164661 10.59817696 -2.64753628  1093388198
-2.64753628 0.94578534 8.30556488  1064443645
8.12926388 11.00396252 -2.64753628  1093804813
-2.64753628 0.94578534 7.77037954  1064443645
7.40342760 11.50484562 -2.64753628  1094317692
-2.64753628 0.94578534 6.83867741  1064443645
6.64680958 11.95793438 -2.64753628  1094779937
-2.64753628 0.94578534 6.25794601  1064443645
6.06105042 12.26523304 -2.64753628  1095189618
-2.64753628 0.94578534 5.05399323  1064443645
4.84843493 12.79316139 -2.64753628  1095844711
-2.64753628 0.94578534 2.73251104  1064443645
2.08135319 13.52183533 -2.64753628  1096372082
-2.64753628 0.94578534 1.42533743  1064443645
1.20584929 13.62783527 -2.64753628  1096438789
-2.64753628 0.94578534 0.54573518  1064443645
0.32534170 13.67722034 -2.64753628  1096475673
-2.64753628 0.94578534 -0.33612707  1064443645
-0.55652618 13.66977024 -2.64753628  1096437959
-2.64753628 0.94578540 -1.21660829  1064443645
-1.87384140 13.55215931 -2.64753628  1096307388
-2.64753628 0.94578534 -2.30966330  1064443645
11.27628136 5.01879883 -2.49513626  1085023731
-2.49513626 0.95087790 10.73898697  1064529084
10.63953018 6.25645924 -2.49513626  1087220492
-2.49513626 0.95087790 10.10133553  1064529084
9.98570919 7.25455046 -2.49513626  1089291260
-2.49513626 0.95087790 9.62338924  1064529084
9.36928654 8.03488541 -2.49513626  1090712870
-2.49513626 0.95087790 9.51784325  1064480079
8.91847229 9.59072304 -2.64753628  1092907242
-2.64753628 0.94795698 7.61118698  1064480079
7.43841982 10.77919579 -2.64753628  1093557479
-2.64753628 0.94795698 6.90871620  1064480079
6.17752266 11.54813194 -2.64753628  1094342355
-2.64753628 0.94795698 5.42067289  1064480079
4.44331646 12.31982422 -2.64753628  1095122119
-2.64753628 0.94795698 3.64035177  1064480079
3.23298645 12.69129276 -2.64753628  1095540565
-2.64753628 0.94795698 2.61577201  1064480079
2.40860105 12.87321663 -2.64753628  1095667933
-2.64753628 0.94795698 1.99243462  1064480079
1.78354943 12.97459030 -2.64753628  1095763655
-2.64753628 0.94795698 1.36444414  1064480079
1.15433967 13.04563427 -2.64753628  1095827507
-2.64753628 0.94795698 -0.53274947  1064480080
-0.95423299 13.06179619 -2.64753628  1095808811
-2.64753628 0.94795704 -2.21098638  1064480079
10.81279564 4.81251526 -2.49513626  1084198566
-2.49513626 0.95276952 10.65206623  1064560820
10.48026848 5.49915981 -2.49513626  1085627138
-2.49513626 0.95276952 10.29758358  1064560820
10.20221710 5.99930048 -2.49513626  1086666483
-2.49513626 0.95276952 9.90031052  1064560820
9.68614101 6.80113888 -2.49513626  1088970008
-2.49513626 0.95276952 9.22784042  1064560820
9.10719490 7.55882263 -2.49513626  1090498469
-2.49513626 0.95276952 8.60127735  1064560820
8.69900417 9.05749512 -2.64753628  1092057693
-2.64753628 0.94995815 8.09737778  1064513653
7.78378391 9.85512733 -2.64753628  1092721966
-2.64753628 0.94995815 7.13267756  1064513653
6.10131407 10.97655582 -2.64753628  1094444111
-2.64753628 0.94995815 4.26068449  1064513653
4.06972790 11.88057995 -2.64753628  1094655284
-2.64753628 0.94995815 3.68469667  1064513653
3.49072289 12.06340408 -2.64753628  1094941962
-2.64753628 0.94995815 2.70625663  1064513653
2.30960059 12.34409142 -2.64753628  1095145481
-2.64753628 0.94995815 1.50950050  1064513653
1.10689163 12.50942135 -2.64753628  1095264518
-2.64753628 0.94995815 0.70313138  1064513653
0.29864243 12.55474663 -2.64753628  1095294786
-2.64753628 0.94995815 -0.91501117  1064513653
-1.11676240 12.50854588 -2.64753628  1095226013
-2.64753628 0.94995815 -1.51933253  1064513653
-1.72005641 12.43994808 -2.64753628  1083784327
-2.49513626 0.95451802 10.23009014  1064590155
9.88964939 5.60297346 -2.49513626  1086154479
-2.49513626 0.95451802 9.50811672  1064590155
9.40648746 6.38093424 -2.49513626  1087439819
-2.49513626 0.95451802 9.08708191  1064590155
8.74641895 7.25938416 -2.49513626  1089259516
-2.49513626 0.95451802 8.13362885  1064590155
8.00459957 8.07000256 -2.49513626  1090858563
-2.49513626 0.95451802 7.92418385  1064544689
7.77660465 9.21886635 -2.64753628  1091927289
-2.64753628 0.95180804 7.47542906  1064544689
7.32191372 9.58397102 -2.64753628  1092653725
-2.64753628 0.95180804 6.19634008  1064544689
5.68894815 10.63479996 -2.64753628  1093468297
-2.64753628 0.95180804 5.16826296  1064544689
4.81435394 11.05825806 -2.64753628  1093805715
-2.64753628 0.95180804 4.45543194  1064544689
4.27422094 11.27803707 -2.64753628  1094027010
-2.64753628 0.95180804 3.72410154  1064544689
3.35244012 11.58551884 -2.64753628  1094434442
-2.64753628 0.95180804 1.83485556  1064544689
1.44970167 11.97335815 -2.64753628  1094708277
-2.64753628 0.95180804 1.06304193  1064544689
0.86927426 12.02944279 -2.64753628  1094757269
-2.64753628 0.95180804 -0.10195872  1064544690
-0.29631957 12.05716801 -2.64753628  1094756705
-2.64753628 0.95180804 -0.87876165  1064544689
-1.07251823 12.01302719 -2.64753628  1094657922
-2.64753628 0.95180804 -1.84426332  1064544689
-2.03612232 11.88769531 -2.64753628  1083063947
-2.49513626 0.95613879 9.91441917  1064617348
9.83890915 4.76472473 -2.49513626  1085993743
-2.49513626 0.95613879 9.14453697  1064617347
8.52340508 6.84531307 -2.49513626  1088383716
-2.49513626 0.95613879 8.29834843  1064617347
7.82261467 7.63632488 -2.49513626  1090649536
-2.49513626 0.95613879 7.04871178  1064617347
6.91311502 8.46849918 -2.49513626  1091795684
-2.64753628 0.95352298 6.74120140  1064573462
6.58818293 9.54710007 -2.64753628  1092251331
-2.64753628 0.95352304 6.11902380  1064573462
5.95940256 9.95172310 -2.64753628  1092761549
-2.64753628 0.95352304 5.47140980  1064573462
5.30584955 10.31499863 -2.64753628  1093034750
-2.64753628 0.95352304 4.97063351  1064573462
4.80107021 10.55940151 -2.64753628  1093572107
-2.64753628 0.95352298 3.75905180  1064573462
3.58169508 11.03279400 -2.64753628  1093867172
-2.64753628 0.95352304 2.13328910  1064573462
1.94921064 11.43466854 -2.64753628  1094151929
-2.64753628 0.95352304 1.57968438  1064573462
1.39426744 11.51551628 -2.64753628  1094274441
-2.64753628 0.95352304 0.27584502  1064573462
0.08890861 11.59928322 -2.64753628  1094293076
-2.64753628 0.95352304 -0.28498739  1064573462
-0.47185454 11.59002209 -2.64753628  1094245322
-2.64753628 0.95352304 -1.40334928  1064573461
-1.95822287 11.43312931 -2.64753628  1082719359
-2.49513626 0.95764530 9.54793549  1064642622
9.47521019 4.58859539 -2.49513626  1083683828
-2.49513626 0.95764530 9.15989208  1064642622
9.07506180 5.33648872 -2.49513626  1085540847
-2.49513626 0.95764530 8.80650997  1064642622
8.61600304 6.04973793 -2.49513626  1086718619
-2.49513626 0.95764530 8.41654491  1064642622
8.31352139 6.45911741 -2.49513626  1087566821
-2.49513626 0.95764530 8.10101795  1064642622
7.88009930 6.98132229 -2.49513626  1089909986
-2.49513626 0.95764530 6.78815413  1064642622
6.52526522 8.26170444 -2.49513626  1090902608
-2.49513626 0.95764530 6.49200869  1064600208
6.34464836 9.19418716 -2.64753628  1091980649
-2.64753628 0.95511723 5.89283228  1064600208
5.26915932 9.85005569 -2.64753628  1092713949
-2.64753628 0.95511723 4.45909929  1064600208
4.29344320 10.31280613 -2.64753628  1093211780
-2.64753628 0.95511723 3.27760696  1064600208
3.10506272 10.73061943 -2.64753628  1093526526
-2.64753628 0.95511723 2.40726566  1064600208
2.23114085 10.94575787 -2.64753628  1093758981
-2.64753628 0.95511723 1.16380835  1064600209
0.80513221 11.14178467 -2.64753628  1093834580
-2.64753628 0.95511729 -0.99338019  1064600208
-1.53002465 11.06556416 -2.64753628  1093706150
-2.64753628 0.95511723 -1.88587475  1064600208
9.13615608 4.42439890 -2.49513626  1083633182
-2.49513626 0.95904911 8.83212090  1064666174
8.57993603 5.42488718 -2.49513626  1085975054
-2.49513626 0.95904911 8.21260071  1064666174
8.01603603 6.22798872 -2.49513626  1087337906
-2.49513626 0.95904911 7.70563173  1064666174
7.59812164 6.73150826 -2.49513626  1088113804
-2.49513626 0.95904911 7.37721586  1064666174
7.14864254 7.20705175 -2.49513626  1089331436
-2.49513626 0.95904911 6.79193783  1064666174
6.66946220 7.65264225 -2.49513626  1090588710
-2.49513626 0.95904911 5.76546669  1064666174
5.82871103 9.05775547 -2.64753628  1091725451
-2.64753628 0.95660293 5.53374481  1064625134
5.38408518 9.32890129 -2.64753628  1092002217
-2.64753628 0.95660293 4.92687416  1064625134
4.61560345 9.73205948 -2.64753628  1092485923
-2.64753628 0.95660293 3.81716490  1064625134
3.32587218 10.24477196 -2.64753628  1092927668
-2.64753628 0.95660293 2.82680178  1064625134
2.49034595 10.47926235 -2.64753628  1093264147
-2.64753628 0.95660293 1.46685374  1064625134
1.29468131 10.69301510 -2.64753628  1093363296
-2.64753628 0.95660293 0.94936812  1064625134
0.60306656 10.75421238 -2.64753628  1093424425
-2.64753628 0.95660293 -0.09105793  1064625134
-0.26463190 10.76785755 -2.64753628  1093406538
-2.64753628 0.95660293 -0.78479469  1064625134
-0.95783430 10.72843647 -2.64753628  1093262647
-2.64753628 0.95660293 8.95235538  1064688171
8.88697147 4.12824869 -2.49513626  1082698646
-2.49513626 0.96036029 8.74930000  1064688172
8.67704391 4.55297947 -2.49513626  1083582164
-2.49513626 0.96036023 8.44683266  1064688171
8.36567688 5.10256386 -2.49513626  1084724051
-2.49513626 0.96036029 8.10926628  1064688171
8.01955318 5.63094091 -2.49513626  1085820289
-2.49513626 0.96036029 7.73800945  1064688172
7.64010715 6.13591766 -2.49513626  1087615335
-2.49513626 0.96036029 7.01193810  1064688172
6.55636930 7.28249598 -2.49513626  1089233952
-2.49513626 0.96036029 6.19669676  1064688171
6.07354641 7.68978310 -2.49513626  1090071658
-2.49513626 0.96036023 5.69476557  1064688172
5.43479061 8.15375710 -2.49513626  1090771005
-2.49513626 0.96036029 5.03432465  1064688172
5.19734621 9.00534344 -2.64753628  1091743962
-2.64753628 0.95799071 4.75599432  1064648417
4.30352688 9.46510792 -2.64753628  1092126758
-2.64753628 0.95799071 3.99622250  1064648416
3.84099579 9.66205692 -2.64753628  1092325430
-2.64753628 0.95799071 3.21051812  1064648417
3.05071068 9.93990803 -2.64753628  1092603383
-2.64753628 0.95799071 2.40397143  1064648417
1.91221213 10.22017765 -2.64753628  1092953985
-2.64753628 0.95799071 1.08324587  1064648417
0.91643906 10.35706139 -2.64753628  1093004677
-2.64753628 0.95799071 0.58215004  1064648417
0.41475424 10.38925362 -2.64753628  1093029948
-2.64753628 0.95799071 -0.08789991  1064648416
-0.25545534 10.39439106 -2.64753628  1093024006
-2.64753628 0.95799071 -0.92461270  1064648416
-1.09140670 10.34008980 -2.64753628  1092930283
-2.64753628 0.95799065 -1.58992219  1064648417
-1.75532699 10.24828911 -2.64753628  1082085554
-2.49513626 0.96158755 8.45481396  1064708762
8.38499165 4.39973593 -2.49513626  1083530706
-2.49513626 0.96158755 8.08410549  1064708762
7.92098188 5.18881512 -2.49513626  1084889878
-2.49513626 0.96158755 7.74963045  1064708762
7.57022762 5.68835878 -2.49513626  1086669240
-2.49513626 0.96158755 7.08772373  1064708762
6.98559761 6.39274454 -2.49513626  1087382754
-2.49513626 0.96158755 6.77592993  1064708762
6.66843653 6.72292662 -2.49513626  1088500279
-2.49513626 0.96158755 6.22144556  1064708762
6.10557842 7.23793316 -2.49513626  1089325670
-2.49513626 0.96158755 5.74859524  1064708762
4.86488008 8.12395954 -2.49513626  1090730135
-2.49513626 0.96158755 4.60051012  1064708762
4.33136082 8.42051506 -2.49513626  1091575734
-2.64753628 0.95928973 4.30555391  1064670211
4.01072025 9.21236801 -2.64753628  1091982285
-2.64753628 0.95928973 3.40886211  1064670211
2.94802999 9.60534954 -2.64753628  1092250884
-2.64753628 0.95928973 2.32305861  1064670211
2.16520476 9.81149864 -2.64753628  1092486363
-2.64753628 0.95928973 1.68842912  1064670211
1.36831880 9.95396042 -2.64753628  1092589686
-2.64753628 0.95928973 0.88559347  1064670211
0.07701017 10.04727459 -2.64753628  1092657351
-2.64753628 0.95928973 -0.57047325  1064670211
-0.73207676 10.02086163 -2.64753628  1092607868
-2.64753628 0.95928973 -1.21557987  1064670211
-1.53641140 9.92940521 -2.64753628  1092514848
-2.64753628 0.95928973 8.36814117  1064728075
8.17833614 4.12458372 -2.49513626  1082667014
-2.49513626 0.96273869 8.04115009  1064728075
7.96941376 4.51506758 -2.49513626  1083478747
-2.49513626 0.96273869 7.74186182  1064728075
7.49621201 5.26347637 -2.49513626  1085032078
-2.49513626 0.96273869 7.23304319  1064728075
7.14152861 5.73550034 -2.49513626  1086009867
-2.49513626 0.96273869 6.65662336  1064728074
6.55435371 6.39827013 -2.49513626  1087808676
-2.49513626 0.96273869 5.67720032  1064728075
5.56061316 7.27852774 -2.49513626  1089191969
-2.49513626 0.96273869 5.20230722  1064728075
4.70579576 7.85830069 -2.49513626  1090378798
-2.49513626 0.96273869 4.45006990  1064728075
4.05789948 8.21162987 -2.49513626  1090873614
-2.49513626 0.96273869 3.65624785  1064728075
3.44431186 9.08822346 -2.64753628  1091717095
-2.64753628 0.96050835 3.00100589  1064690656
2.70150900 9.33600140 -2.64753628  1092045420
-2.64753628 0.96050829 2.09440231  1064690655
1.94116604 9.52318096 -2.64753628  1092147719
-2.64753628 0.96050829 1.32357633  1064690656
1.16821778 9.64854240 -2.64753628  1092295046
-2.64753628 0.96050829 0.54416025  1064690655
0.38768753 9.71127319 -2.64753628  1092318667
-2.64753628 0.96050829 -0.08216323  1064690655
-0.23878488 9.71607304 -2.64753628  1092305108
-2.64753628 0.96050835 -0.86427486  1064690655
-1.02018571 9.66531372 -2.64753628  1092175272
-2.64753628 0.96050829 7.85284185  1064746224
7.78541136 4.24654007 -2.49513626  1084182370
-2.49513626 0.96382046 6.82399893  1064746224
6.73183107 5.77306318 -2.49513626  1086733213
-2.49513626 0.96382046 6.14293909  1064746224
6.03906012 6.49427032 -2.49513626  1088148965
-2.49513626 0.96382046 5.49664402  1064746224
5.38376522 7.04704094 -2.49513626  1088700597
-2.49513626 0.96382046 5.15384197  1064746224
4.91856098 7.37926006 -2.49513626  1089697746
-2.49513626 0.96382040 4.30853987  1064746224
3.92884278 7.95046616 -2.49513626  1090532414
-2.49513626 0.96382046 3.53996515  1064746224
3.40845156 8.18707275 -2.49513626  1090825931
-2.49513626 0.96382046 2.87390161  1064746224
2.76093435 8.99575138 -2.64753628  1091608595
-2.64753628 0.96165353 2.46956682  1064709869
2.02779245 9.18881607 -2.64753628  1091857119
-2.64753628 0.96165353 1.43156397  1064709869
1.28147852 9.32223701 -2.64753628  1091943737
-2.64753628 0.96165353 0.82939017  1064709869
0.67820716 9.38543701 -2.64753628  1091989579
-2.64753628 0.96165353 -0.38277993  1064709869
-0.53426796 9.39472389 -2.64753628  1091958341
-2.64753628 0.96165353 -0.98773956  1064709869
-1.13843453 9.34079075 -2.64753628  1091881391
-2.64753628 0.96165353 -1.58859324  1064709869
7.85113287 3.49434876 -2.49513626  1080538429
-2.49513626 0.96483886 7.67305326  1064763310
7.60968494 3.99291921 -2.49513626  1082371707
-2.49513626 0.96483886 7.40779257  1064763310
7.26354742 4.59256935 -2.49513626  1083617399
-2.49513626 0.96483886 7.11175013  1064763310
7.03307247 4.93828201 -2.49513626  1084568150
-2.49513626 0.96483886 6.61270189  1064763310
6.52338314 5.59430122 -2.49513626  1085908763
-2.49513626 0.96483886 6.14940548  1064763310
6.05185127 6.10130167 -2.49513626  1086740065
-2.49513626 0.96483886 5.43444633  1064763310
5.10632420 6.91203499 -2.49513626  1088408123
-2.49513626 0.96483886 4.88089323  1064763310
4.76626253 7.15076876 -2.49513626  1088897227
-2.49513626 0.96483886 4.53331423  1064763310
4.41505623 7.37279034 -2.49513626  1089350912
-2.49513626 0.96483886 4.17513132  1064763310
4.05352640 7.57757807 -2.49513626  1089898886
-2.49513626 0.96483886 3.68252492  1064763310
3.55690265 7.82299185 -2.49513626  1090265925
-2.49513626 0.96483886 3.17461848  1064763310
2.78491426 8.12988472 -2.49513626  1090701190
-2.49513626 0.96483886 2.52143884  1064763310
2.38870072 8.25498962 -2.49513626  1090863750
-2.49545169 0.96483451 1.71678305  1064763174
1.58098114 8.44993305 -2.49598384  1091602833
-2.64753628 0.96273178 1.09604156  1064727959
0.94999677 9.06891441 -2.64753628  1091667045
-2.64753628 0.96273178 0.51053864  1064727959
-0.22403160 9.11578369 -2.64753628  1091683995
-2.64753628 0.96273178 -0.66438806  1064727959
-1.10318363 9.05155945 -2.64753628  1091601801
-2.64753628 0.96273178 7.61422777  1064779423
7.55861807 3.51119065 -2.49513626  1080589273
-2.49513626 0.96579927 7.44152403  1064779423
7.38006830 3.87243605 -2.49513626  1083082515
-2.49513626 0.96579927 6.89715624  1064779423
6.82085180 4.78927135 -2.49513626  1084686378
-2.49513626 0.96579927 6.23827553  1064779423
6.05690527 5.72495031 -2.49513626  1086151079
-2.49513626 0.96579927 5.77310944  1064779423
5.47581911 6.28303814 -2.49513626  1087281596
-2.49513626 0.96579927 5.16572237  1064779423
5.05963945 6.62277937 -2.49513626  1087800014
-2.49513626 0.96579927 4.84355831  1064779423
4.62244272 6.93499756 -2.49513626  1088590453
-2.49513626 0.96579927 4.28183413  1064779423
3.93121457 7.34892750 -2.49513626  1089284515
-2.49513626 0.96579927 3.69231081  1064779423
3.32684445 7.64154768 -2.49513626  1089877683
-2.49513626 0.96579927 2.95360136  1064779423
1.79601157 8.13851833 -2.49513626  1090693533
-2.49513626 0.96579927 1.26793361  1064779423
1.13500404 8.25668907 -2.49513626  1090835604
-2.49513626 0.96579927 0.60129553  1064778854
0.19834362 8.33823586 -2.49700975  1090874439
-2.49658656 0.96577972 -0.07048852  1064779164
-0.33914825 8.33038521 -2.49601889  1090850196
-2.49622583 0.96578455 -1.00830853  1064779423
-1.14151955 8.25579262 -2.49513626  1079148981
-2.49513626 0.96670640 7.22250032  1064794642
6.90582275 4.21213961 -2.49513626  1082807597
-2.49513626 0.96670640 6.62009668  1064794642
5.87863493 5.55644989 -2.49513626  1085591728
-2.49513626 0.96670640 5.69649410  1064794642
5.41224957 6.01166058 -2.49513626  1086708475
-2.49513626 0.96670640 5.11534214  1064794642
4.91072083 6.42785501 -2.49513626  1087546935
-2.49513626 0.96670640 4.59429169  1064794642
4.37732649 6.80231667 -2.49513626  1088434361
-2.49513626 0.96670640 3.46629119  1064794642
2.98820639 7.51685715 -2.49513626  1089604768
-2.49513626 0.96670640 2.74438691  1064794642
2.62138724 7.65250492 -2.49513626  1090111129
-2.49513626 0.96670640 1.74315119  1064794642
1.35931015 7.97400618 -2.49513626  1090533378
-2.49513626 0.96670640 0.84274000  1064794642
0.45290077 8.07634640 -2.49513626  1090610002
-2.49513626 0.96670640 0.06200092  1064794642
-0.32904938 8.08233929 -2.49513626  1090578797
-2.49513626 0.96670640 -0.84909004  1064794642
-0.97863168 8.02961922 -2.49513626  1090532465
-2.49513626 0.96670640 -1.36560297  1064794642
7.17777395 3.19465518 -2.49513626  1079236059
-2.49513626 0.96756446 7.07107973  1064809039
6.89729786 3.76212025 -2.49513626  1081596912
-2.49513626 0.96756452 6.77245760  1064809039
6.64058113 4.19868231 -2.49513626  1083639622
-2.49513626 0.96756452 6.04555893  1064809039
5.79595709 5.30406809 -2.49513626  1085251234
-2.49513626 0.96756446 5.53281069  1064809039
5.44218731 5.66646481 -2.49513626  1085807664
-2.49513626 0.96756446 5.06580496  1064809039
4.96835852 6.08618784 -2.49513626  1086671760
-2.49513626 0.96756452 4.46228027  1064809038
4.25154829 6.60686016 -2.49513626  1087739317
-2.49513626 0.96756452 4.03639650  1064809038
3.92723227 6.80464029 -2.49513626  1088143077
-2.49513626 0.96756452 3.36668968  1064809039
3.25184035 7.15204716 -2.49513626  1088848716
-2.49513626 0.96756452 3.01963854  1064809039
2.90234280 7.30086708 -2.49513626  1089329155
-2.49513626 0.96756452 2.42594004  1064809039
2.30518603 7.51081848 -2.49513626  1089569019
-2.49513626 0.96756452 2.06191301  1064809039
1.93945646 7.61345863 -2.49513626  1089886338
-2.49513626 0.96756452 1.32025266  1064809039
1.19525409 7.76515341 -2.49513626  1090064818
-2.49513626 0.96756452 0.94435912  1064809039
0.81852490 7.81385183 -2.49513626  1090192476
-2.49513626 0.96756452 0.31339741  1064809039
0.18683335 7.85438395 -2.49513626  1090217835
-2.49513626 0.96756452 -0.06641895  1064809039
-0.19302636 7.85423517 -2.49513626  1090204687
-2.49513626 0.96756446 -0.44607618  1064809039
-0.57244062 7.83572388 -2.49513626  1090127301
-2.49513626 0.96756446 -1.07608712  1064809038
-1.32636333 7.74383593 -2.49513626  1079775486
-2.49513626 0.96837741 6.70365381  1064822677
6.64385033 3.76407003 -2.49513626  1081587951
-2.49513626 0.96837741 6.51907921  1064822677
6.45414591 4.08080292 -2.49513626  1082944118
-2.49513626 0.96837741 6.17782259  1064822677
5.95366621 4.78150749 -2.49513626  1083969305
-2.49513626 0.96837741 5.63323593  1064822677
5.54941750 5.24527597 -2.49513626  1085111352
-2.49513626 0.96837741 4.92358255  1064822677
4.82886982 5.91531706 -2.49513626  1086467091
-2.49513626 0.96837741 4.43773222  1064822677
4.33699989 6.28485537 -2.49513626  1087480724
-2.49513626 0.96837741 3.70988393  1064822677
3.60183048 6.73318529 -2.49513626  1088098459
-2.49513626 0.96837741 3.16054678  1064822677
2.93485928 7.04950809 -2.49513626  1088622990
-2.49513626 0.96837741 2.35783124  1064822677
2.24046731 7.29995060 -2.49513626  1089194414
-2.49513626 0.96837741 1.88500488  1064822677
1.76549780 7.42913055 -2.49513626  1089379490
-2.49513626 0.96837741 1.03990591  1064822677
0.79554451 7.59447575 -2.49513626  1089742994
-2.49513626 0.96837741 0.05852746  1064822677
-0.06455441 7.63575745 -2.49513626  1089750907
-2.49513626 0.96837741 -0.43355399  1064822677
-0.80153972 7.59384584 -2.49513626  1089567411
-2.49513626 0.96837741 -1.28912687  1064822677
6.73518419 3.12868309 -2.49513626  1078929470
-2.49513626 0.96914852 6.63084745  1064835614
6.57608795 3.45057583 -2.49513626  1080707447
-2.49513626 0.96914852 6.34011221  1064835614
6.27696133 3.96877289 -2.49513626  1082484894
-2.49513626 0.96914852 6.07779121  1064835614
5.93709326 4.46120214 -2.49513626  1083494084
-2.49513626 0.96914852 5.71452141  1064835614
5.55868196 4.92467833 -2.49513626  1084256169
-2.49513626 0.96914852 5.31415081  1064835614
5.14418936 5.35618258 -2.49513626  1085146971
-2.49513626 0.96914852 4.96888971  1064835614
4.60296965 5.82786798 -2.49513626  1086268522
-2.49513626 0.96914852 4.01874495  1064835614
3.81537414 6.37136745 -2.49513626  1087230780
-2.49513626 0.96914852 3.39695358  1064835614
3.29007125 6.65783596 -2.49513626  1087813707
-2.49513626 0.96914852 2.96441960  1064835614
2.74341822 6.90109253 -2.49513626  1088305301
-2.49513626 0.96914852 2.40664840  1064835614
2.29310083 7.06350279 -2.49513626  1088702359
-2.49513626 0.96914852 1.94900846  1064835614
1.83325660 7.19656467 -2.49513626  1089002305
-2.49513626 0.96914852 1.36579084  1064835614
0.65456444 7.39749241 -2.49513626  1089275608
-2.49513626 0.96914852 0.41579819  1064835614
0.17660157 7.42429924 -2.49513626  1089315653
-2.49513626 0.96914852 -0.06278218  1064835614
-0.30209431 7.42025185 -2.49513626  1089274709
-2.49513626 0.96914852 -0.66040146  1064835614
-0.77953517 7.38537216 -2.49513626  1089201715
-2.49513626 0.96914852 -1.25373566  1064835614
6.55424356 3.04463196 -2.49513626  1079002724
-2.49513626 0.96988094 6.16978359  1064847902
6.04528666 3.96010065 -2.49513626  1082451054
-2.49513626 0.96988094 5.70687199  1064847902
5.56099939 4.61553669 -2.49513626  1083608018
-2.49513626 0.96988094 5.25207806  1064847902
5.08934879 5.13092899 -2.49513626  1084672786
-2.49513626 0.96988094 4.92133427  1064847902
4.57013702 5.59837008 -2.49513626  1085635405
-2.49513626 0.96988094 4.38732672  1064847902
4.19995642 5.88117838 -2.49513626  1086215909
-2.49513626 0.96988094 3.91078067  1064847902
3.61245942 6.25923491 -2.49513626  1086988792
-2.49513626 0.96988094 3.30569172  1064847902
3.20168400 6.47897387 -2.49513626  1087538569
-2.49513626 0.96988094 2.77760792  1064847902
2.66971636 6.71569157 -2.49513626  1087914057
-2.49513626 0.96988094 2.45188403  1064847902
2.34199333 6.83688259 -2.49513626  1088157100
-2.49513626 0.96988094 2.12042141  1064847902
1.89664817 6.97356606 -2.49513626  1088487050
-2.49513626 0.96988094 1.44341886  1064847902
1.21443260 7.12411737 -2.49513626  1088815230
-2.49513626 0.96988094 0.63698018  1064847902
0.17185913 7.22484350 -2.49513626  1088897164
-2.49513626 0.96988094 -0.29397839  1064847902
-0.52655870 7.20767927 -2.49513626  1088786380
-2.49513626 0.96988094 -0.98983634  1064847902
-1.10508788 7.14189672 -2.49513626  1088680167
-2.49513626 0.96988094 6.42876101  1064859587
6.23105764 3.26953292 -2.49513626  1079901854
-2.49513626 0.97057742 6.06574106  1064859587
5.62559080 4.22713423 -2.49513626  1082982409
-2.49513626 0.97057742 5.34155798  1064859587
5.19114017 4.75057840 -2.49513626  1084050209
-2.49513626 0.97057742 4.87428808  1064859587
4.79185915 5.15305901 -2.49513626  1084866850
-2.49513626 0.97057742 4.44990206  1064859587
4.36146641 5.52209663 -2.49513626  1085751065
-2.49513626 0.97057742 3.90276980  1064859587
3.80789185 5.91742182 -2.49513626  1086278656
-2.49513626 0.97057742 3.51741672  1064859587
3.41873193 6.15046310 -2.49513626  1087175588
-2.49513626 0.97057742 2.59947848  1064859587
2.49375200 6.58005524 -2.49513626  1087702589
-2.49513626 0.97057742 2.17279029  1064859587
1.95594597 6.75945234 -2.49513626  1088099119
-2.49513626 0.97057742 1.51638973  1064859587
1.40544295 6.89497280 -2.49513626  1088289115
-2.49513626 0.97057742 1.07052851  1064859587
0.95829421 6.97119808 -2.49513626  1088391975
-2.49513626 0.97057742 0.73311138  1064859587
0.50716865 7.01845455 -2.49513626  1088475822
-2.49513626 0.97057742 0.28069544  1064859587
0.16733721 7.03476524 -2.49513626  1088498535
-2.49513626 0.97057742 -0.62575191  1064859587
-1.07601464 6.95400190 -2.49513626  1077044919
-2.49513626 0.97124046 6.21726990  1064870712
6.16991806 2.98793054 -2.49513626  1078300965
-2.49513626 0.97124046 6.07040739  1064870711
6.01828241 3.28266263 -2.49513626  1079526763
-2.49513626 0.97124052 5.79428339  1064870711
5.73448420 3.75650024 -2.49513626  1081876144
-2.49513626 0.97124046 5.41346598  1064870711
5.34497309 4.29265118 -2.49513626  1083275446
-2.49513626 0.97124052 4.66831398  1064870711
4.58679724 5.09479094 -2.49513626  1084730861
-2.49513626 0.97124046 4.33517170  1064870712
3.80214643 5.70431852 -2.49513626  1085831607
-2.49513626 0.97124052 3.52198386  1064870711
3.33058858 5.99188948 -2.49513626  1086630649
-2.49513626 0.97124052 2.93762636  1064870712
2.73646641 6.28548670 -2.49513626  1087101557
-2.49513626 0.97124052 2.42945695  1064870712
2.32582402 6.44872904 -2.49513626  1087614560
-2.49513626 0.97124046 1.58499539  1064870711
1.36920834 6.71720362 -2.49513626  1087873271
-2.49513626 0.97124052 1.15199459  1064870711
0.93358749 6.79146528 -2.49513626  1088014259
-2.49513626 0.97124052 0.49409246  1064870711
0.38382497 6.84457970 -2.49513626  1088117982
-2.49513626 0.97124052 -0.16842631  1064870711
-0.27886409 6.84965706 -2.49513626  1088080283
-2.49513626 0.97124052 -0.60961884  1064870712
-0.71959066 6.81746197 -2.49513626  1088012900
-2.49513626 0.97124046 -1.04827261  1064870711
6.10466433 2.71704054 -2.49513626  1077160512
-2.49513626 0.97187251 6.01392221  1064881315
5.96620035 3.00893736 -2.49513626  1078375298
-2.49513626 0.97187251 5.70460796  1064881315
5.52975750 3.75113702 -2.49513626  1082159855
-2.49513626 0.97187251 5.20983458  1064881315
5.14172173 4.26754522 -2.49513626  1082864150
-2.49513626 0.97187251 5.00150299  1064881315
4.92943716 4.51108551 -2.49513626  1083530529
-2.49513626 0.97187251 4.55028486  1064881315
4.47082806 4.96597719 -2.49513626  1084453025
-2.49513626 0.97187251 4.22556639  1064881315
4.14158964 5.24370909 -2.49513626  1085275415
-2.49513626 0.97187251 3.70601726  1064881315
3.61592269 5.61910439 -2.49513626  1085646637
-2.49513626 0.97187245 3.43293691  1064881315
3.34009171 5.78731680 -2.49513626  1085990025
-2.49513626 0.97187251 3.15182877  1064881315
3.05645585 5.94199610 -2.49513626  1086304782
-2.49513626 0.97187251 2.86335540  1064881315
2.76567674 6.08278561 -2.49513626  1086590173
-2.49513626 0.97187251 2.56818700  1064881315
2.36803341 6.24833298 -2.49513626  1086923867
-2.49513626 0.97187251 2.16541743  1064881315
2.06325150 6.35548925 -2.49513626  1087138255
-2.49513626 0.97187251 1.85734081  1064881315
1.64949942 6.47521353 -2.49513626  1087425770
-2.49513626 0.97187251 1.22888994  1064881315
1.12286890 6.58698845 -2.49513626  1087653414
-2.49513626 0.97187251 0.69615179  1064881315
0.58895397 6.65600395 -2.49513626  1087718571
-2.49513626 0.97187251 0.37412062  1064881315
0.05121544 6.68181133 -2.49513626  1087754511
-2.49513626 0.97187251 -0.16416880  1064881315
-0.37938598 6.67122889 -2.49513626  1087699495
-2.49513626 0.97187251 -1.02176917  1064881315
5.81818533 2.93428922 -2.49513626  1078440646
-2.49513626 0.97247547 5.61704922  1064891431
5.33291292 3.74451256 -2.49513626  1082121624
-2.49513626 0.97247547 5.01416254  1064891431
4.94643450 4.24194765 -2.49513626  1083128838
-2.49513626 0.97247547 4.58888912  1064891431
4.35991240 4.84277773 -2.49513626  1084187290
-2.49513626 0.97247547 4.12073469  1064891431
3.87193012 5.24113369 -2.49513626  1084989276
-2.49513626 0.97247547 3.07363582  1064891431
2.98062921 5.79458094 -2.49513626  1086089099
-2.49513626 0.97247547 2.69706345  1064891431
2.60110617 5.97457695 -2.49513626  1086440727
-2.49513626 0.97247547 2.11169505  1064891431
1.81126213 6.25944567 -2.49513626  1086928347
-2.49513626 0.97247547 1.40421867  1064891431
1.30148089 6.38494015 -2.49513626  1087213030
-2.49513626 0.97247547 0.99133992  1064891431
0.88740730 6.45552635 -2.49513626  1087308283
-2.49513626 0.97247547 0.15495943  1064891431
-0.26506951 6.51084280 -2.49513626  1087371040
-2.49513626 0.97247547 -0.57946396  1064891431
-0.99642193 6.43960428 -2.49513626  1087211216
-2.49513626 0.97247547 5.76578045  1064901092
5.72186279 2.77094603 -2.49513626  1078497482
-2.49513626 0.97305131 5.48022079  1064901092
5.26121092 3.56896591 -2.49513626  1080676259
-2.49513626 0.97305131 5.14344978  1064901092
5.08255672 3.81909227 -2.49513626  1082256879
-2.49513626 0.97305131 4.62026024  1064901092
4.54927588 4.44093943 -2.49513626  1083357814
-2.49513626 0.97305131 4.25370598  1064901092
4.09921026 4.85945892 -2.49513626  1084070078
-2.49513626 0.97305131 3.94045687  1064901092
3.85953546 5.05191565 -2.49513626  1084591826
-2.49513626 0.97305131 3.61084032  1064901092
3.35370469 5.40097380 -2.49513626  1085289289
-2.49513626 0.97305131 3.08872485  1064901092
2.99876356 5.60582638 -2.49513626  1085597922
-2.49513626 0.97305137 2.53774428  1064901093
2.34855413 5.90780401 -2.49513626  1086209161
-2.49513626 0.97305131 2.06025553  1064901092
1.96305168 6.04684114 -2.49513626  1086487675
-2.49513626 0.97305131 1.66848242  1064901092
1.37001359 6.20813227 -2.49513626  1086805837
