# .PCD v0.7 - Point Cloud Data file format
VERSION 0.7
FIELDS x y z intensity
SIZE 4 4 4 4
TYPE F F F F
COUNT 1 1 1 1
WIDTH 1016
HEIGHT 1
VIEWPOINT 0 0 0 1 0 0 0
POINTS 1016
DATA ascii
-2.49513626 0.74061602 71.63842773  1061001475
72.63212585 -18.80400848 -2.49513626  3246629031
-2.49513626 0.74061596 73.45605469  1061001475
73.69259644 -14.08572769 -2.49513626  3243137039
-2.49513626 0.74061567 74.28726196  1061001478
74.70832062 -6.90492821 -2.49513626  3226620359
-2.49513626 0.74061596 74.99801636  1061001473
75.02597809 0.34035546 -2.49513626  1076921523
-2.49513626 0.74061602 74.84820557  1061001475
74.75512695 6.37856865 -2.49513626  1091770347
-2.61127853 0.73033649 78.05488586  1060775665
76.18489838 19.15219116 -2.61248612  1100753981
-2.50275636 0.73993719 72.35575867  1060990086
75.79627991 24.34266281 -2.64753628  1103920377
-2.64753628 0.72715670 72.54125977  1060777419
67.51625061 33.09872437 -2.50066137  1107848591
-2.49513626 0.74061602 65.09954834  1061001475
63.86371994 39.37563705 -2.49513626  1109498189
-2.49513626 0.74061602 62.56154633  1061001475
61.88602066 42.41621399 -2.49513626  1110543854
-2.49513626 0.74061608 59.76369858  1061001475
59.02494049 46.31489944 -2.49513626  3256772574
-2.49513626 0.78643614 45.71915054  1061770209
46.33966827 -38.12763214 -2.49513626  3256189206
-2.49513626 0.78643608 47.54437256  1061770212
48.12827682 -35.84346771 -2.49513626  3255375965
-2.49513626 0.78643632 50.33739471  1061770212
51.36408234 -31.02927399 -2.49513626  3253834844
-2.49513626 0.78643632 52.80374908  1061770212
53.25638580 -27.65566063 -2.49513626  3252050427
-2.49513626 0.78643632 54.11999893  1061770212
54.53077698 -25.04952431 -2.49513626  3250673396
-2.49513626 0.78643626 55.30973816  1061770212
56.37020874 -20.57872581 -2.49513626  3247833794
-2.49513626 0.78643632 57.29892349  1061770212
57.57883072 -16.90450478 -2.49513626  3246366617
-2.49513626 0.78643441 58.09372330  1061770211
58.32856369 -14.10188580 -2.49513626  3243413374
-2.49513626 0.78643626 58.75273895  1061770211
58.94196320 -11.26631832 -2.49513626  3240430084
-2.49513626 0.78643632 59.41759109  1061770212
59.54532242 -7.44573212 -2.49513626  3234825785
-2.49513626 0.78643632 59.83560562  1061770211
60.00841141 0.27222776 -2.49513626  1074605931
-2.49513626 0.78643632 59.79176712  1061770212
59.70178604 6.06475067 -2.49513626  1090488974
-2.49513626 0.78643626 62.96326065  1061578015
62.80213547 10.50285244 -2.64753628  1096313365
-2.64753628 0.77498055 61.75288773  1061578016
61.22051620 17.50620651 -2.64753628  1100213425
-2.64753628 0.77498055 56.68635559  1061760534
58.04724121 26.17129898 -2.64753628  1104729020
-2.64753628 0.77498055 56.24065399  1061578016
55.24920654 31.65349007 -2.64753628  1107437759
-2.64753628 0.77498049 54.09127808  1061584689
53.08866501 33.92500305 -2.61960173  1108122794
-2.58537865 0.77963257 49.45274353  1061661140
38.08959961 -32.38303757 -2.49513626  3254656693
-2.49513626 0.81854403 39.11346817  1062308890
40.09667206 -29.86196518 -2.49513626  3253318124
-2.49513626 0.81854403 41.49306870  1062308891
44.36896515 -23.04081535 -2.49513626  3249706154
-2.49513626 0.81854409 45.08852005  1062308891
46.07971191 -19.39429283 -2.49513626  3247780183
-2.49513626 0.81854409 46.68080521  1062308891
46.96320724 -17.14456940 -2.49513626  3246593402
-2.49513626 0.81854409 47.49134064  1062308891
48.59474945 -11.74857807 -2.49513626  3239456228
-2.49513626 0.81854409 49.25066757  1062308891
49.60845566 -6.20319462 -2.49513626  3230874893
-2.49513626 0.81854409 49.85029221  1062308891
49.94680405 -2.18975997 -2.49513626  3216062471
-2.49513626 0.81854409 49.99143600  1062308891
49.99427032 0.22678989 -2.49513626  1079811288
-2.49513626 0.81854403 49.73882294  1062308890
49.65092850 5.85360384 -2.49513626  1089367096
-2.49513626 0.81854403 49.30998993  1062308890
51.83772278 11.26870537 -2.64753628  1095692157
-2.64753628 0.80859447 51.23250961  1062141965
51.00408554 14.58478642 -2.64753628  1098283625
-2.64753628 0.80859447 50.50756836  1062141964
49.95856476 17.84028435 -2.64753628  1100521277
-2.59805942 0.81181127 46.35632324  1062300495
46.04203415 19.87206459 -2.50275636  1101325415
-2.50275636 0.81804365 45.37767792  1062300496
45.02778625 22.07413101 -2.50275636  1103162610
-2.64753628 0.80859447 44.70093536  1062141964
44.23476028 29.28172302 -2.64753628  1106242857
-2.64753628 0.80859447 43.26810455  1062141964
42.76785660 31.38541222 -2.64753628  1107314753
-2.64753628 0.80859447 41.73416519  1062141964
32.18703842 -28.27100372 -2.49513626  3252274000
-2.49513626 0.84227163 33.51582336  1062707012
33.94147873 -26.13870239 -2.49513626  3251126286
-2.49513626 0.84227395 35.16511917  1062707012
35.55487061 -23.89783478 -2.49513626  3250229990
-2.49513626 0.84227395 37.02056503  1062707013
37.69608307 -20.35340500 -2.49513626  3248353871
-2.49513626 0.84227389 38.63575745  1062707013
38.92902756 -17.88253212 -2.49513626  3247048171
-2.49513626 0.84227401 39.48511505  1062707013
39.74779510 -15.98023891 -2.49513626  3245696736
-2.49513626 0.84227395 40.24213409  1062707012
40.47368622 -14.04050636 -2.49513626  3243650762
-2.49513626 0.84227395 41.79705429  1062707012
41.94301987 -8.71998501 -2.49513626  3236668340
-2.49513626 0.84227401 42.31544876  1062707013
42.41766357 -5.99977589 -2.49513626  3229374310
-2.49513626 0.84227401 42.71607971  1062707012
42.83700943 -0.49607238 -2.49513626  1044840683
-2.49513626 0.84227401 42.77998352  1062707012
42.73793411 2.95374990 -2.49513626  1085697440
-2.49513626 0.84227395 42.25309372  1062707012
42.13371658 7.74632311 -2.49513626  1094494770
-2.64753628 0.83348954 43.49766922  1062559633
42.80884171 15.28711033 -2.64753628  1098881463
-2.64753628 0.83348954 42.29393387  1062559634
42.01998520 17.33823013 -2.64753628  1099963129
-2.64753628 0.83348954 41.43934631  1062559636
40.50614548 19.05402756 -2.60719562  1100514695
-2.52262545 0.84068269 37.95409012  1062699607
37.28501511 21.36141396 -2.50275636  1103352036
-2.64753628 0.83348960 37.90419388  1062559634
37.49490738 25.69873428 -2.64753628  1104307632
-2.64753628 0.83348954 36.64722061  1062559634
35.76146317 28.06082153 -2.64753628  3250727996
-2.49513626 0.86051911 29.31616211  1063013115
29.68848610 -22.86343002 -2.49513626  3249737304
-2.49513626 0.86051911 30.75879860  1063013115
31.75723076 -19.89021873 -2.49513626  3248161207
-2.49513626 0.86051911 32.38175201  1063013115
32.97263718 -17.80302238 -2.49513626  3247056786
-2.49513626 0.86051911 33.79455566  1063013115
34.05105972 -15.64185905 -2.49513626  3244856544
-2.49513626 0.86051911 34.98800278  1063013115
35.59551620 -11.70904255 -2.49513626  3241290976
-2.49513626 0.86051816 36.11982346  1063013115
37.10257339 -5.24801970 -2.49513626  3230975957
-2.49513626 0.86051911 37.36359406  1063013114
37.45751572 -1.03772163 -2.49513626  3202231417
-2.49513626 0.86051911 37.46389389  1063013115
37.44655609 1.37752068 -2.49513626  1073581089
-2.49513626 0.86051911 37.33621597  1063013115
37.28002548 3.78704429 -2.49513626  1082942790
-2.49513626 0.86051911 37.05342484  1063013115
36.85420990 6.77567434 -2.49513626  1090434932
-2.49513626 0.86051911 38.39958954  1062881257
38.04723358 11.54620457 -2.64753628  1094878885
-2.64753628 0.85265976 37.65537643  1062881256
37.44473648 13.37158012 -2.64753628  1098032806
-2.64753628 0.85265970 36.50553513  1062881257
35.97878265 16.92436790 -2.64753628  1099695130
-2.64753628 0.85265976 35.11877441  1062881256
33.24057388 19.04426003 -2.55091190  1100589517
-2.50275636 0.86012441 31.99394989  1063006493
31.34160423 20.74695015 -2.50275636  1101659818
-2.50275636 0.86012441 30.65669823  1063006493
31.67192650 24.03739929 -2.64753628  3249093838
-2.49513626 0.87497962 26.04860687  1063255723
26.70339966 -19.88732529 -2.49513626  3247972761
-2.49513626 0.87497962 27.92911148  1063255722
28.77251434 -16.75469589 -2.49513626  3246201202
-2.49513626 0.87497962 30.02784348  1063255722
30.47581291 -13.40902805 -2.49513626  3242113552
-2.49513626 0.87497962 31.45629311  1063255722
31.62807274 -10.40396500 -2.49513626  3239987534
-2.49513626 0.87497962 31.94693947  1063255722
32.36291504 -7.82426453 -2.49513626  3236538224
-2.49513626 0.87497962 32.70324707  1063255722
32.79974365 -5.72312498 -2.49513626  3232117606
-2.49513626 0.87497962 33.03802109  1063255722
33.10030746 -3.59819937 -2.49513626  3225689423
-2.49513626 0.87497967 33.19907761  1063255722
33.23553085 -1.99420846 -2.49513626  3211529214
-2.49513626 0.87497962 33.29496002  1063255722
33.28820419 0.68760169 -2.49513626  1071729034
-2.49513626 0.87497962 33.17475510  1063255723
33.06629944 3.89834332 -2.49513626  1088574338
-2.49513626 0.87497962 32.29059219  1063255722
34.11960220 9.16443443 -2.64753628  1092315369
-2.64753628 0.86787111 33.63680267  1063136462
33.27117920 11.88119507 -2.64753628  1095706634
-2.64753628 0.86787117 32.43666077  1063136462
32.20682907 14.52083111 -2.64753628  1098437095
-2.64753628 0.86787117 31.46736908  1063136462
31.20445824 16.56550789 -2.64753628  1099466672
-2.64753628 0.86787117 30.65437508  1063136461
30.36734772 18.05430984 -2.64753628  1100498452
-2.52307749 0.87367201 27.23973083  1063249736
26.92479515 19.75889969 -2.50275636  1101327949
-2.50275636 0.87462282 22.82003784  1063452702
23.73105812 -18.27554703 -2.49513626  3247382582
-2.49513626 0.88672054 24.85910606  1063452702
25.12515640 -16.30599213 -2.49513626  3246285350
-2.49513626 0.88672054 25.63760757  1063452702
25.88388062 -15.07259941 -2.49513626  3244979380
-2.49513626 0.88672054 26.35619736  1063452702
26.80112648 -13.37378788 -2.49513626  3242724521
-2.49513626 0.88672054 27.60702324  1063452702
27.79070091 -11.17299271 -2.49513626  3240858665
-2.49513626 0.88672054 28.13634491  1063452702
28.29822731 -9.81678391 -2.49513626  3236968862
-2.49513626 0.88672054 29.11382484  1063452702
29.22348404 -6.56863213 -2.49513626  3234011420
-2.49513626 0.88672054 29.41999626  1063452702
29.58594131 -4.67234230 -2.49513626  3228424681
-2.49513626 0.88672054 29.77718163  1063452702
29.82548332 -2.75664830 -2.49513626  3199309665
-2.49513626 0.88672054 29.95229340  1063452702
29.94622040 0.61857235 -2.49513626  1066201314
-2.49513626 0.88672054 29.91072655  1063452702
29.79925156 3.02713180 -2.49513626  1080062524
-2.49513626 0.88672054 29.61812019  1063452702
29.54232788 4.94056749 -2.49513626  1085100078
-2.49513626 0.88672054 29.26902008  1063452702
28.79832649 8.23497581 -2.49513626  1094343643
-2.64753628 0.88023299 29.37935257  1063343859
27.57680893 15.79936504 -2.64753628  1099264118
-2.64753628 0.88023299 26.78097916  1063343859
26.50169945 17.54310799 -2.64753628  1099939410
-2.64753628 0.88023299 25.92255783  1063343859
25.04623985 19.00883102 -2.61927366  1100489117
-2.56615973 0.88369119 20.44863319  1063615791
20.73543930 -17.62886047 -2.49513626  3246709060
-2.49513626 0.89644140 22.08720589  1063615791
22.82998085 -14.81645012 -2.49513626  3244762432
-2.49513626 0.89644140 23.51939964  1063615791
23.73707199 -13.31490421 -2.49513626  3242766359
-2.49513626 0.89644140 24.35285759  1063615791
24.54553986 -11.75804329 -2.49513626  3240259583
-2.49513626 0.89644140 25.71319580  1063615791
25.85361099 -8.50447273 -2.49513626  3238093612
-2.49513626 0.89644140 26.11425400  1063615791
26.23442841 -7.24500227 -2.49513626  3233742514
-2.49513626 0.89644140 26.73248672  1063615791
26.81136322 -4.67823172 -2.49513626  3230128985
-2.49513626 0.89644140 27.00613785  1063615791
27.10094261 -2.50482917 -2.49513626  3218122676
-2.49513626 0.89644140 27.19033432  1063615791
27.21616554 0.12346543 -2.49513626  1078718873
-2.49513626 0.89644140 26.97438812  1063615791
26.68503189 5.35202503 -2.49513626  1085866313
-2.49513626 0.89644140 26.49868393  1063615791
26.28480148 7.06002235 -2.49513626  1089434213
-2.49513626 0.89644140 25.91286850  1063615791
27.34971619 9.27243042 -2.64753628  1094576724
-2.64753628 0.89047557 26.13198662  1063515701
25.28579330 13.95040226 -2.64753628  1097183897
-2.64753628 0.89047551 24.82306862  1063515700
24.58199692 15.15620708 -2.64753628  1098436207
-2.64753628 0.89047557 24.08077431  1063515701
22.71948433 17.82722282 -2.64753628  3246226615
-2.49513626 0.90462142 19.50804520  1063753029
19.99842453 -14.89380360 -2.49513626  3244891390
-2.49513626 0.90462142 20.46802902  1063753029
20.69488144 -13.90985584 -2.49513626  3243492697
-2.49513626 0.90462142 21.94119644  1063753029
22.12926865 -11.49163818 -2.49513626  3241288411
-2.49513626 0.90462142 22.48812675  1063753029
22.82361794 -10.04214191 -2.49513626  3238183409
-2.49513626 0.90462142 23.68655396  1063753029
23.80904961 -7.40888453 -2.49513626  3234331643
-2.49513626 0.90462142 24.32817078  1063753029
24.62991333 -3.88966537 -2.49513626  3222462253
-2.49513626 0.90462148 24.86309433  1063753029
24.89039421 -1.49348140 -2.49513626  3213609912
-2.49513626 0.90462142 24.92984390  1063753029
24.91830444 0.91665220 -2.49513626  1068021824
-2.49513626 0.90462142 24.76365662  1063753029
24.65670395 3.71608043 -2.49513626  1082367330
-2.49513626 0.90462142 24.36608505  1063753029
24.27755547 5.68880033 -2.49513626  1086491076
-2.49513626 0.90462142 23.97423744  1063753029
23.86064148 7.24099493 -2.49513626  1090923524
-2.49513626 0.90462148 24.77046013  1063660392
24.45793343 10.09179974 -2.64753628  1093124386
-2.64753628 0.89909983 23.94159889  1063660392
23.16633034 12.78107548 -2.64753628  1096308260
-2.64753628 0.89909983 22.29482651  1063660391
22.06232643 14.60441494 -2.64753628  1098181866
-2.64753628 0.89909983 21.33068848  1063660392
21.07565308 15.99536133 -2.64753628  1099082205
-2.64753628 0.89909983 18.22554588  1063870101
18.66841125 -13.44103622 -2.49513626  3243069843
-2.49513626 0.91159946 19.49553108  1063870101
19.87892342 -11.57581425 -2.49513626  3241414878
-2.49513626 0.91159916 20.41516876  1063870101
20.58337021 -10.27112007 -2.49513626  3240034891
-2.49513626 0.91159946 20.90369606  1063870101
21.34336662 -8.58089924 -2.49513626  3236300000
-2.49513626 0.91159946 22.17369843  1063870101
22.26950645 -5.76543093 -2.49513626  3232562218
-2.49513626 0.91159946 22.52212906  1063870101
22.72211647 -3.58837676 -2.49513626  3221716691
-2.49513626 0.91159946 9.33065796  1064734817
9.27125740 -0.10737021 -1.00568986  1044691061
-1.00900209 0.96326387 9.40261650  1064729958
9.52650166 0.50429505 -1.03475451  1076650035
-2.49513626 0.91159946 22.79912567  1063870101
22.68862724 3.79438090 -2.49513626  1083228533
-2.49513626 0.91159946 22.39705276  1063870101
22.30956268 5.60842228 -2.49513626  1086256019
-2.49513626 0.91159946 22.01242828  1063870101
21.78570938 7.38605404 -2.49513626  1089965806
-2.49513626 0.91159946 21.40329552  1063870100
22.56345177 9.31010437 -2.64753628  1092650208
-2.64753628 0.90646064 22.08711433  1063783886
21.91680527 10.74435139 -2.64753628  1094131494
-2.64753628 0.90646064 21.17910194  1063783885
20.98079491 12.47372055 -2.64753628  1096600192
-2.64753628 0.90646064 19.90862274  1063783886
19.44316292 14.75638390 -2.64753628  1097930182
-2.64753628 0.90646064 16.70104408  1063971134
17.12086105 -12.75073719 -2.49513626  3242100912
-2.49513626 0.91762149 18.27194786  1063971134
18.61819649 -10.44355774 -2.49513626  3240248897
-2.49513626 0.91762149 19.53953743  1063971134
19.67555428 -8.28117085 -2.49513626  3237254851
-2.49513626 0.91762054 20.05279732  1063971134
20.27830696 -6.67049122 -2.49513626  3233836708
-2.49513626 0.91762149 20.66591072  1063971134
21.08592796 -3.32998323 -2.49513626  3223946315
-2.49513626 0.91762149 21.28555679  1063971134
9.07889748 -0.54475492 -1.06307971  3195949271
-1.04821455 0.96452802 8.94174767  1064759770
8.95394802 0.18495290 -1.04678988  1051287506
-1.05180979 0.96440852 9.04456425  1064752284
21.29644966 1.47186279 -2.49513626  1072188966
-2.49513626 0.91762149 21.23795128  1063971134
21.20042419 2.49942231 -2.49513626  1077268284
-2.49513626 0.91762149 21.10886383  1063971133
20.61651802 5.53754616 -2.49513626  1086050181
-2.49513626 0.91762149 20.32478905  1063971134
20.21695328 6.85419559 -2.49513626  1088797542
-2.49513626 0.91762149 19.86205673  1063971134
19.73339272 8.14237404 -2.49513626  1092927777
-2.64753628 0.91281569 20.00670624  1063890506
19.83294106 10.94201279 -2.64753628  1093937632
-2.64753628 0.91281569 18.68383217  1063890506
18.47503090 13.10520267 -2.64753628  1096182654
-2.64753628 0.91281569 14.95959282  1064059206
15.77500534 -12.14850426 -2.49513626  3242084477
-2.49513626 0.92287099 16.15832329  1064059206
16.34371948 -11.37188530 -2.49513626  3240979867
-2.49513626 0.92287099 16.87423515  1064059206
17.36531639 -9.74077511 -2.49513626  3239533242
-2.49513626 0.92287099 17.81580544  1064059206
18.22465706 -8.01865101 -2.49513626  3237423667
-2.49513626 0.92287099 18.70337677  1064059206
18.91371346 -6.22161102 -2.49513626  3232988053
-2.49513626 0.92287099 19.27523232  1064059206
19.42604256 -4.36643839 -2.49513626  3229724820
-2.49513626 0.92287099 19.55667114  1064059206
19.61437988 -3.42245102 -2.49513626  3219820016
-2.49513626 0.92287099 19.85317802  1064059206
8.83577156 -0.53016680 -1.10925674  3195535052
-1.09591198 0.96535987 8.91124725  1064759825
19.77377510 2.33123016 -2.49513626  1076466483
-2.49513626 0.92287099 19.68837357  1064059206
19.58251762 3.60026336 -2.49513626  1081775553
-2.49513626 0.92287099 19.45631981  1064059206
19.05272293 5.78193903 -2.49513626  1088416299
-2.49513626 0.92287099 18.40546989  1064059206
18.28068733 7.89007616 -2.49513626  1091881882
-2.64753628 0.91835767 18.49831581  1063983485
18.33143234 10.50248528 -2.64753628  1093451437
-2.64753628 0.91835767 17.98343658  1063983485
17.80241394 11.37619495 -2.64753628  1094358529
-2.64753628 0.91835767 17.42653465  1063983485
16.62088203 13.04185390 -2.64753628  3242521476
-2.49513626 0.92748743 14.40397072  1064136656
14.59309387 -11.61771584 -2.49513626  3241547954
-2.49513626 0.92748737 14.95992184  1064136656
15.48092842 -10.40534401 -2.49513626  3239996059
-2.49513626 0.92748731 16.11908913  1064136657
16.26826859 -9.12541103 -2.49513626  3238906613
-2.49513626 0.92748731 16.55390930  1064136657
16.82235718 -8.05840683 -2.49513626  3235230512
-2.49513626 0.92748743 17.62262726  1064136655
17.71884537 -5.82856369 -2.49513626  3232848417
-2.49513626 0.92748743 17.89748383  1064136656
17.97983932 -4.96538448 -2.49513626  3230418032
-2.49513626 0.92748731 18.26237297  1064136656
18.32118988 -3.50195861 -2.49513626  3226284809
-2.49513626 0.92748737 18.46904945  1064136655
18.50873375 -2.31438923 -2.49513626  3221291753
-2.49513626 0.92748743 18.57370758  1064136657
9.04077244 -0.68885314 -1.21285975  3204734613
-1.15480530 0.96576047 8.54691601  1064784185
8.52916336 -0.09877630 -1.14099622  1043635781
-1.14249885 0.96611905 8.56163025  1064783058
8.60032177 0.45526674 -1.15204883  1058626649
-1.16224349 0.96554375 18.58533859  1064136657
18.55738640 1.88513219 -2.49513626  1077012693
-2.49513626 0.92748743 18.39737701  1064136656
18.22718620 3.96230984 -2.49513626  1083889138
-2.49513626 0.92748737 17.84907341  1064136657
17.66523552 5.98908091 -2.49513626  1086897255
-2.49513626 0.92748743 17.46304321  1064136657
17.24273109 7.11467266 -2.49513626  1089243186
-2.49513626 0.92748743 17.48152351  1064065276
17.32968903 9.56094646 -2.64753628  1092447363
-2.64753628 0.92323285 17.01257515  1064065275
16.84735298 10.38735676 -2.64753628  1093305637
-2.64753628 0.92323279 16.14318848  1064065275
15.95653057 11.70977974 -2.64753628  1094677072
-2.64753628 0.92323279 13.18002987  1064205291
13.36488724 -11.36256599 -2.49513626  3241301381
-2.49513626 0.93157792 13.72414303  1064205291
13.89844227 -10.70334053 -2.49513626  3240601022
-2.49513626 0.93157834 14.23616409  1064205291
14.39950371 -10.01910686 -2.49513626  3239875179
-2.49513626 0.93157834 14.86690807  1064205291
15.01504040 -9.07065392 -2.49513626  3237118883
-2.49513626 0.93157834 15.94074821  1064205291
16.37937164 -6.28047180 -2.49513626  3233282721
-2.49513626 0.93157834 16.83177376  1064205291
16.90922546 -4.66971874 -2.49513626  3228972414
-2.49513626 0.93157834 17.17493629  1064205291
17.23024940 -3.29343367 -2.49513626  3224314264
-2.49513626 0.93157834 17.36929131  1064205291
17.40662956 -2.17657852 -2.49513626  3220351134
-2.49513626 0.93157834 8.45044994  1064789080
8.37134552 -0.09694852 -1.19078958  1043416946
-1.19237864 0.96669734 8.40184307  1064792888
8.48507309 0.58642930 -1.20976496  1069475280
-2.49513626 0.93157834 17.42152786  1064205291
17.38616371 2.33441520 -2.49513626  1076318410
-2.49513626 0.93157834 17.30189896  1064205291
17.25301933 3.17198277 -2.49513626  1080982732
-2.49513626 0.93157834 16.94169807  1064205291
16.86616135 4.82293367 -2.49513626  1084424980
-2.49513626 0.93157834 16.42320442  1064205291
16.21599007 6.69102240 -2.49513626  1088862613
-2.49513626 0.93157834 15.62476444  1064205291
15.18192577 10.76924896 -2.64753628  1093929980
-2.64753628 0.92755431 14.64369678  1064137779
12.78329945 -10.51793671 -2.49513626  3240205213
-2.49513626 0.93522841 14.16934013  1064266528
14.30545425 -8.33029366 -2.49513626  3238106144
-2.49513626 0.93522835 14.81239319  1064266528
14.92958927 -7.15171671 -2.49513626  3234692955
-2.49513626 0.93522835 15.35930729  1064266528
15.55033684 -5.67686701 -2.49513626  3232603613
-2.49513626 0.93522841 15.72521114  1064266528
15.88374996 -4.66329145 -2.49513626  3230467003
-2.49513626 0.93522835 16.15117455  1064266528
16.20758438 -3.36957717 -2.49513626  3225872491
-2.49513626 0.93522841 16.30775642  1064266528
16.35149765 -2.58230066 -2.49513626  3222561125
-2.49513626 0.93522835 16.42622566  1064266528
16.48388672 -1.52353859 -2.49513626  3199856766
-1.24973238 0.96701592 8.24074650  1064803125
8.26658535 0.30409756 -1.24683022  1054936981
-1.25335443 0.96692187 16.46938896  1064266528
16.40691566 2.20293236 -2.49513626  1075700828
-2.49513626 0.93522841 16.28126907  1064266529
16.11756897 3.77672529 -2.49513626  1082205895
-2.49513626 0.93522841 15.98748302  1064266528
15.67763042 5.31522083 -2.49513626  1085942457
-2.49513626 0.93522835 15.40242004  1064266528
15.09121037 6.80405378 -2.49513626  1089523900
-2.49513626 0.93522841 14.62152767  1064266528
14.22928333 8.45974255 -2.49513626  1092297101
-2.64753628 0.93141097 14.16118336  1064202484
13.99186516 10.61912346 -2.64753628  1093500395
-2.64753628 0.93141097 11.93805313  1064321500
12.10007191 -9.95578575 -2.49513626  3239214413
-2.49513626 0.93850493 12.86220837  1064321500
13.14394855 -8.53029823 -2.49513626  3238335470
-2.49513626 0.93850493 13.41203594  1064321500
13.54086971 -7.88506651 -2.49513626  3237301851
-2.49513626 0.93850493 13.78795719  1064321500
14.02071762 -6.99635124 -2.49513626  3235422100
-2.49513626 0.93850493 14.23891449  1064321500
14.34247684 -6.31053209 -2.49513626  3233973159
-2.49513626 0.93850493 14.63070965  1064321500
14.96172428 -4.65577936 -2.49513626  3230482411
-2.49513626 0.93850493 15.10399628  1064321500
15.34133911 -3.18948102 -2.49513626  3225175778
-2.49513626 0.93850493 15.43616009  1064321500
15.47756100 -2.44428468 -2.49513626  3220757447
-2.49513626 0.93850493 8.24911690  1064800343
8.19711971 -0.49184614 -1.30762768  3199675051
-1.30060935 0.96745849 8.13439846  1064809250
8.11250305 0.03680205 -1.29181957  1043065625
-1.29452634 0.96760821 8.22033405  1064802517
15.56160355 1.83463645 -2.49513626  1074099147
-2.49513626 0.93850493 15.45474815  1064321500
15.36342335 3.08134270 -2.49513626  1080347317
-2.49513626 0.93850493 15.19654369  1064321500
15.06553078 4.30803728 -2.49513626  1083284447
-2.49513626 0.93850493 14.66986084  1064321500
14.57921124 5.74247932 -2.49513626  1086275849
-2.49513626 0.93850493 14.06965160  1064321500
13.84005451 7.34726715 -2.49513626  1089615931
-2.49513626 0.93850493 13.59607410  1064321500
13.46877384 8.00759602 -2.49513626  1092445087
-2.64753628 0.93487388 11.17412186  1064371117
11.33083820 -9.63325882 -2.49513626  3239522496
-2.49513626 0.94146234 11.78319836  1064371117
12.34330559 -8.29642582 -2.49513626  3238103798
-2.49513626 0.94146234 12.72985840  1064371117
12.97108269 -7.27590752 -2.49513626  3236043785
-2.49513626 0.94146234 13.19883633  1064371117
13.61297417 -5.98956060 -2.49513626  3233324775
-2.49513626 0.94146234 13.97055531  1064371117
14.05093479 -4.87433481 -2.49513626  3230971472
-2.49513626 0.94146234 14.27009583  1064371117
14.39770317 -3.72747254 -2.49513626  3226516699
-2.49513626 0.94146234 14.56103134  1064371117
14.60792828 -2.79219627 -2.49513626  3209211305
-1.42898560 0.96604359 8.11836529  1064808234
8.04057026 -0.48245287 -1.35139036  3199430043
-1.34233880 0.96806931 7.96799183  1064819332
8.25354958 0.70424384 -1.38972712  1069573193
-2.49513626 0.94146234 14.77009487  1064371117
14.74011421 1.97913373 -2.49513626  1075642463
-2.49513626 0.94146234 14.58199310  1064371117
14.48016167 3.39303946 -2.49513626  1081534585
-2.49513626 0.94146234 14.23149776  1064371117
14.16004562 4.54762936 -2.49513626  1084230969
-2.49513626 0.94146234 13.92370701  1064371117
13.83766651 5.45039845 -2.49513626  1086101433
-2.49513626 0.94146234 13.35402679  1064371117
13.24677849 6.76094961 -2.49513626  1089246685
-2.49513626 0.94146234 12.78370953  1064371117
12.65956116 7.80534267 -2.49513626  1090738485
-2.49513626 0.94146234 12.72252750  1064313029
12.57041454 9.54031086 -2.64753628  1092345302
-2.64753628 0.93800002 10.92727661  1064416122
11.07075500 -8.81354809 -2.49513626  3238667472
-2.49513626 0.94414485 11.34904480  1064416122
11.61554432 -8.08203983 -2.49513626  3237779970
-2.49513626 0.94414485 12.34159374  1064416122
12.55829048 -6.52146912 -2.49513626  3234475767
-2.49513626 0.94414485 12.76193237  1064416123
13.29256439 -4.85263395 -2.49513626  3230498496
-2.49513626 0.94414485 13.80616379  1064416122
13.85438347 -2.88034225 -2.49513626  3223979832
-2.49513626 0.94414485 14.01115894  1064416122
14.06774139 -1.52924681 -2.49513626  3203490261
-1.38792527 0.96853465 7.80299520  1064829331
7.76229429 -0.08989518 -1.36879289  1049791739
-1.37291574 0.96886963 7.83513403  1064826980
8.09667683 0.69085854 -1.43284953  1068961295
-2.49513626 0.94414485 14.05329895  1064416122
13.91737175 2.55871797 -2.49513626  1077960956
-2.49513626 0.94414485 13.77743721  1064416122
13.72362137 3.44999170 -2.49513626  1080749317
-2.49513626 0.94414485 13.47285843  1064416122
13.40136528 4.54348946 -2.49513626  1085060988
-2.49513626 0.94414485 12.99215698  1064416122
12.90009594 5.81616259 -2.49513626  1086804741
-2.49513626 0.94414485 11.67217827  1064416122
11.54173756 8.18709373 -2.49513626  1090909147
-2.49513626 0.94414496 11.81252384  1064360612
10.13838100 -8.90489483 -2.49513626  3237760332
-2.49513626 0.94658893 11.07642555  1064457126
11.31904888 -7.34595823 -2.49513626  3234267205
-2.49513626 0.94658887 12.16961861  1064457126
12.26198864 -5.63272715 -2.49513626  3230929844
-2.49513626 0.94658893 12.74853897  1064457126
12.88444424 -4.00937605 -2.49513626  3228780283
-2.49513626 0.94658887 13.00696468  1064457126
13.06316471 -3.38196850 -2.49513626  3223462649
-2.49513626 0.94658887 13.36085701  1064457126
13.38957882 -1.67427421 -2.49513626  3208540466
-1.49463391 0.96765429 7.67805767  1064836826
7.63804436 0.03464964 -1.41235888  1042404992
-1.41509223 0.96934903 7.75673056  1064830887
7.93852234 0.67736375 -1.47323930  1062595998
-1.52894151 0.96692425 13.40104008  1064457126
13.34315968 2.01098514 -2.49513626  1075587162
-2.49513626 0.94658887 13.03194141  1064457127
12.97383881 3.70990968 -2.49513626  1082394890
-2.49513626 0.94658887 12.77937222  1064457126
12.63310432 4.74221659 -2.49513626  1085373083
-2.49513626 0.94658887 12.01892948  1064457126
11.91850758 6.32717752 -2.49513626  1087809523
-2.49513626 0.94658887 11.59877491  1064457126
11.37051105 7.26604462 -2.49513626  1089362150
-2.49513626 0.94658887 11.13043690  1064457126
11.00604725 7.80710316 -2.49513626  1090484362
-2.49513626 0.94658887 10.74872780  1064457126
10.61585999 8.32991219 -2.49513626  3238536156
-2.49513626 0.94882482 9.95656013  1064494639
10.46363163 -7.53369141 -2.49513626  3235578288
-2.49513626 0.94882482 11.03610897  1064494639
11.14212132 -6.48823833 -2.49513626  3234453940
-2.49513626 0.94882482 11.34543705  1064494639
11.44268608 -5.94213867 -2.49513626  3232907183
-2.49513626 0.94882482 11.80171680  1064494639
12.24793339 -4.02892256 -2.49513626  3228071031
-2.49513626 0.94882482 12.42833996  1064494639
12.48204231 -3.23151970 -2.49513626  3225545339
-2.49513626 0.94882482 12.57970142  1064494639
12.62364006 -2.62446594 -2.49513626  3222132590
-2.49513626 0.94882482 12.76648903  1064494639
12.81804943 -1.39339781 -2.49513626  3205988311
-1.50739789 0.96876246 7.69783068  1064834288
7.63351202 0.15767792 -1.47753632  1062441537
-1.58249474 0.96723199 12.80488586  1064494639
12.77889347 1.71580124 -2.49513626  1074273442
-2.49513626 0.94882482 12.68103409  1064494639
12.59930801 2.73888993 -2.49513626  1078538068
-2.49513626 0.94882482 12.39668941  1064494639
12.27600574 3.94254971 -2.49513626  1082423768
-2.49513626 0.94882482 12.07111073  1064494639
11.99652195 4.72520494 -2.49513626  1084055452
-2.49513626 0.94882482 11.83800888  1064494639
11.75412464 5.29948330 -2.49513626  1085251472
-2.49513626 0.94882482 11.57722855  1064494639
11.48425388 5.86138582 -2.49513626  1087183708
-2.49513626 0.94882482 11.08279514  1064494639
10.86468601 6.94281101 -2.49513626  1089028700
-2.49513626 0.94882482 10.51643658  1064494639
10.14361000 7.95935202 -2.49513626  3238154985
-2.49513626 0.95087790 9.40357018  1064529084
9.65634537 -7.68751860 -2.49513626  3237018915
-2.49513626 0.95087790 10.01660538  1064529084
10.46039677 -6.55156708 -2.49513626  3234250976
-2.49513626 0.95087790 10.86073875  1064529084
11.13146496 -5.33230162 -2.49513626  3231649974
-2.49513626 0.95087790 11.52457047  1064529084
11.72467613 -3.85679865 -2.49513626  3228218818
-2.49513626 0.95087790 11.99708748  1064529084
12.08433056 -2.51234627 -2.49513626  3222556193
-2.49513626 0.95087790 12.15902233  1064529084
12.22107887 -1.72862577 -2.49513626  3217294960
-2.49513626 0.95087790 12.27044201  1064529084
7.83658791 -0.72430372 -1.59095252  3205942904
-1.56746972 0.96885270 7.63773298  1064837867
7.60992718 -0.08813062 -1.53848326  1024284844
-1.53778040 0.96943355 7.61577415  1064839703
7.62882042 0.28063616 -1.54324245  1057508151
-1.56096828 0.96897984 7.79026270  1064826357
8.09283829 0.82210249 -1.64442229  1070742900
-2.49513626 0.95087790 12.13927174  1064529084
12.10172749 2.42715836 -2.49513626  1076350168
-2.49513626 0.95087790 11.97027302  1064529084
11.92022514 3.20173812 -2.49513626  1081183000
-2.49513626 0.95087790 11.62381458  1064529084
11.55540848 4.33767128 -2.49513626  1083999167
-2.49513626 0.95087790 11.25196362  1064529084
11.16874504 5.25375986 -2.49513626  1085508894
-2.49513626 0.95087790 10.70959187  1064529084
10.50628376 6.47772455 -2.49513626  1088375613
-2.49513626 0.95087790 10.06715202  1064529084
9.95075989 7.30241680 -2.49513626  1089390415
-2.49513626 0.95087790 9.71025181  1064529084
9.01705837 -7.66612577 -2.49513626  3235728133
-2.49513626 0.95276952 9.71509457  1064560820
10.32235527 -5.79014826 -2.49513626  3233017844
-2.49513626 0.95276952 10.50358963  1064560821
10.59013748 -5.28448820 -2.49513626  3231948478
-2.49513626 0.95276952 10.75494480  1064560820
10.83316994 -4.76647568 -2.49513626  3230854064
-2.49513626 0.95276952 10.98115349  1064560820
11.18169689 -3.87898254 -2.49513626  3227586576
-2.49513626 0.95276952 11.35610294  1064560820
11.50397110 -2.78127337 -2.49513626  3223723239
-2.49513626 0.95276952 11.62494946  1064560820
11.65924931 -2.03438616 -2.49513626  3219935457
-2.49513626 0.95276952 11.71875572  1064560820
11.74394894 -1.46849930 -2.49513626  3215177651
-2.49513626 0.95276952 7.70533562  1064831505
7.65270805 -0.45918018 -1.61624277  3193419164
-1.60363305 0.96938306 7.59177303  1064840533
7.59868813 0.15695851 -1.60229456  1049582028
-1.60564160 0.96934527 11.75400162  1064560820
11.73014164 1.57498896 -2.49513626  1071760665
-2.49513626 0.95276952 11.67329216  1064560820
11.64031219 2.14008117 -2.49513626  1075115035
-2.49513626 0.95276952 11.52327251  1064560821
11.47826099 2.88552856 -2.49513626  1080532358
-2.49513626 0.95276952 11.08045101  1064560820
10.78947639 4.86456108 -2.49513626  1084667480
-2.49513626 0.95276952 10.54174900  1064560821
10.36288166 5.71729708 -2.49513626  1087442355
-2.49513626 0.95276952 9.65336418  1064560820
9.42767048 7.15512753 -2.49513626  1089063904
-2.49513626 0.95276952 8.77738285  1064590155
9.11616993 -6.78925562 -2.49513626  3233878452
-2.49513626 0.95451802 9.72907448  1064590155
9.91344070 -5.56077433 -2.49513626  3232550697
-2.49513626 0.95451802 10.25108719  1064590155
10.32889462 -4.74473095 -2.49513626  3230825510
-2.49513626 0.95451802 10.90624046  1064590155
11.04824638 -2.67109466 -2.49513626  3223291981
-2.49513626 0.95451802 11.12858963  1064590155
11.16443348 -2.13399816 -2.49513626  3205880904
-1.69140840 0.96893805 7.60159779  1064838494
7.58653784 -0.21017711 -1.66600275  1049560103
-1.66796994 0.96936184 7.61529112  1064837359
7.65870237 0.52931607 -1.68521523  1062224249
-1.76696014 0.96757334 11.28837395  1064590155
11.26545906 1.51259673 -2.49513626  1071174520
-2.49513626 0.95451802 11.21085930  1064590155
10.87673759 3.30076480 -2.49513626  1080660667
-2.49513626 0.95451802 10.64150333  1064590155
10.57573795 4.16558456 -2.49513626  1083539423
-2.49513626 0.95451802 10.20611095  1064590155
10.12415123 5.16721058 -2.49513626  1086252188
-2.49513626 0.95451802 9.57795811  1064590155
9.47806835 6.27412081 -2.49513626  1088152783
-2.49513626 0.95451802 8.21350956  1064617347
8.32871342 -7.08090973 -2.49513626  3235791792
-2.49513626 0.95613879 8.55259418  1064617347
8.76758385 -6.52964544 -2.49513626  3233394620
-2.49513626 0.95613879 9.35705376  1064617347
9.44693661 -5.50110388 -2.49513626  3232441334
-2.49513626 0.95613879 9.78170776  1064617347
9.85909653 -4.72279930 -2.49513626  3230795399
-2.49513626 0.95613879 10.00618553  1064617347
10.14287567 -4.07784796 -2.49513626  3228560682
-2.49513626 0.95613879 10.48920345  1064617347
10.53746414 -2.91006804 -2.49513626  3224328706
-2.49513626 0.95613879 10.84743404  1064617347
7.74649096 -0.71597648 -1.77562141  3202988149
-1.73955202 0.96921390 7.58356047  1064838755
7.56457949 -0.08760542 -1.72668135  1024229609
-1.72589612 0.96945184 7.56842756  1064840143
7.57553148 0.27867588 -1.73023498  1059587019
-1.76197100 0.96882343 7.96614361  1064811002
10.83468819 1.45475769 -2.49513626  1070631156
-2.49513626 0.95613879 10.71846199  1064617347
10.64360428 2.49404263 -2.49513626  1076532092
-2.49513626 0.95613879 10.55770588  1064617347
10.51063251 3.00554657 -2.49513626  1078668230
-2.49513626 0.95613879 10.40831184  1064617347
10.35308075 3.51002312 -2.49513626  1080773243
-2.49513626 0.95613879 10.17133904  1064617348
10.10546017 4.16970253 -2.49513626  1084491613
-2.49513626 0.95613879 9.57179451  1064617348
9.48544502 5.43442059 -2.49513626  1085457746
-2.49513626 0.95613879 9.30538082  1064617347
9.21171284 5.88651705 -2.49513626  1086396485
-2.49513626 0.95613879 8.91644287  1064617347
8.60034084 6.74839878 -2.49513626  3235526288
-2.49513626 0.95764530 8.12969685  1064642622
8.23644447 -6.55712128 -2.49513626  3234412942
-2.49513626 0.95764530 8.54372883  1064642622
8.64175606 -6.01289558 -2.49513626  3233244811
-2.49513626 0.95764530 9.18192577  1064642622
9.26373863 -5.00180006 -2.49513626  3230441650
-2.49513626 0.95764530 9.76794147  1064642622
9.82996082 -3.76917934 -2.49513626  3227308998
-2.49513626 0.95764530 10.00064182  1064642622
10.19179630 -2.63858962 -2.49513626  3223213548
-2.49513626 0.95764530 10.34060764  1064642622
10.39893627 -1.64224577 -2.49513626  3216816779
-2.49513626 0.95764530 10.44646072  1064642622
7.64925385 -0.58282781 -1.81816053  3202967934
-1.80394042 0.96919531 7.57171726  1064838568
7.55017948 0.03425083 -1.78944290  1049524909
-1.79409242 0.96936089 7.68071270  1064829904
10.45540142 1.23264062 -2.49513626  1068716897
-2.49513626 0.95764530 10.41024780  1064642622
10.35427570 1.90364146 -2.49513626  1074733152
-2.49513626 0.95764530 10.25016785  1064642622
10.16743565 2.73094225 -2.49513626  1077493401
-2.49513626 0.95764530 10.07414150  1064642622
9.97038174 3.38027549 -2.49513626  1080203253
-2.49513626 0.95764530 9.85626411  1064642622
9.73190784 4.01556778 -2.49513626  1083139648
-2.49513626 0.95764530 9.37708855  1064642622
9.29874134 4.93642092 -2.49513626  1085928696
-2.49513626 0.95764530 8.48756981  1064642622
8.38608837 6.36461735 -2.49513626  3235274159
-2.49513626 0.95904911 7.73382711  1064666174
7.83878994 -6.44965506 -2.49513626  3234484687
-2.49513626 0.95904911 8.14134884  1064666174
8.23800564 -5.93126822 -2.49513626  3233101006
-2.49513626 0.95904911 8.60299587  1064666174
8.77217960 -5.10818195 -2.49513626  3231640232
-2.49513626 0.95904911 8.93225002  1064666174
9.15490627 -4.38547134 -2.49513626  3229353534
-2.49513626 0.95904911 9.59041309  1064666174
9.64278507 -3.17196655 -2.49513626  3223507897
-2.49513626 0.95904911 9.90398884  1064666174
9.97058487 -1.90580308 -2.49513626  3216374195
-2.49513626 0.95904911 10.07265091  1064666174
8.16802979 -0.88791358 -2.01952863  3208148905
-1.92448485 0.96826434 7.60088444  1064835168
7.55759430 -0.08752453 -1.85777962  1057420473
-1.87935281 0.96899694 7.69272566  1064828062
7.92544556 0.80509800 -1.95809877  1068296363
-2.49513626 0.95904911 10.03773308  1064666174
10.01204872 1.67438579 -2.49513626  1072362092
-2.49513626 0.95904911 9.95288658  1064666174
9.88338280 2.31590819 -2.49513626  1075733646
-2.49513626 0.95904911 9.80361080  1064666174
9.66488838 3.10396791 -2.49513626  1079023805
-2.49513626 0.95904911 9.50357246  1064666174
9.44484615 3.72015071 -2.49513626  1081593051
-2.49513626 0.95904911 9.32005119  1064666174
9.25401211 4.17228317 -2.49513626  1082803363
-2.49513626 0.95904911 9.04154491  1064666174
8.96600246 4.75977898 -2.49513626  1084025544
-2.49513626 0.95904911 8.80794430  1064666174
8.55375862 5.46606779 -2.49513626  1085492612
-2.49513626 0.95904911 8.37315655  1064666174
8.08600521 6.13686991 -2.49513626  1086883393
-2.49513626 0.95904911 7.36233091  1064688171
7.56691265 -6.22595835 -2.49513626  3233764047
-2.49513626 0.96036029 7.95228195  1064688171
8.69635773 -4.51598167 -2.49513626  3230401024
-2.49513626 0.96036023 8.83738136  1064688172
9.30833912 -3.06195164 -2.49513626  3224414718
-2.49513626 0.96036023 9.48626041  1064688171
9.52460766 -2.30273032 -2.49513626  3221850140
-2.49513626 0.96036023 9.59387112  1064688172
9.65316963 -1.68435144 -2.49513626  3217270748
-2.49513626 0.96036023 8.25874615  1064787678
7.78916502 -0.71992087 -1.99181867  3205856635
-1.95713234 0.96877235 7.60402346  1064833896
7.57373047 -0.33204645 -1.93036127  3193345399
-1.92678618 0.96924901 7.56756735  1064837226
7.56558514 0.15627486 -1.92684579  1049526512
-1.92785919 0.96923220 7.59067631  1064834996
7.92686987 0.80524284 -2.02881670  1066588947
-2.49513626 0.96036023 9.71186256  1064688172
9.68958759 1.46034527 -2.49513626  1071828056
-2.49513626 0.96036023 9.57537937  1064688172
9.50332165 2.38904738 -2.49513626  1077288385
-2.49513626 0.96036029 9.22826481  1064688172
9.11726856 3.59112167 -2.49513626  1081640048
-2.49513626 0.96036029 8.93305016  1064688172
8.86698151 4.17101574 -2.49513626  1082787622
-2.49513626 0.96036029 8.65502834  1064688172
8.57985497 4.73358393 -2.49513626  1083957559
-2.49513626 0.96036029 8.42284489  1064688171
8.34104538 5.14273119 -2.49513626  1085085053
-2.49513626 0.96036023 7.99241543  1064688172
7.70906925 6.04904842 -2.49513626  3234088288
-2.49513626 0.96158755 7.68462276  1064708762
7.77279425 -5.40827513 -2.49513626  3232303274
-2.49513626 0.96158755 7.94305277  1064708762
8.10505867 -4.89630318 -2.49513626  3230092194
-2.49513626 0.96158755 8.66733646  1064708762
8.84151936 -3.39017439 -2.49513626  3226456800
-2.49513626 0.96158755 9.16697025  1064708762
9.20402718 -2.22522545 -2.49513626  3220616825
-2.49513626 0.96158755 9.30081844  1064708762
9.32826805 -1.62766027 -2.49513626  3211130981
-2.19033360 0.96619970 7.68506098  1064826767
7.58241987 -0.33242747 -1.99988747  3193368373
-1.99715436 0.96913421 7.58018255  1064835283
7.57804966 0.15653245 -1.99724364  1049536764
-1.99719477 0.96913362 7.60023499  1064833253
7.72902060 0.65948790 -2.04399872  1066265005
-2.49513626 0.96158755 9.33949661  1064708762
9.31311131 1.71222353 -2.49513626  1072584970
-2.49513626 0.96158755 9.25309372  1064708762
9.21947384 2.16033888 -2.49513626  1075655846
-2.49513626 0.96158755 9.10428619  1064708762
9.06114674 2.74978995 -2.49513626  1078105488
-2.49513626 0.96158755 8.86517906  1064708762
8.81039810 3.47025132 -2.49513626  1080502150
-2.49513626 0.96158755 8.63238049  1064708762
8.56853580 4.03062725 -2.49513626  1082769390
-2.49513626 0.96158755 8.21627712  1064708762
8.13934708 4.83908892 -2.49513626  1084163908
-2.49513626 0.96158755 7.81069517  1064708762
7.72340679 5.47857237 -2.49513626  1085490765
-2.49513626 0.96158755 7.54283381  1064708762
7.44959784 5.84544897 -2.49513626  3233901906
-2.49513626 0.96273869 6.97840214  1064728075
7.07311058 -5.81966400 -2.49513626  3232699014
-2.49513626 0.96273869 7.43333244  1064728075
7.60195160 -5.10957241 -2.49513626  3231421670
-2.49513626 0.96273869 7.84001827  1064728075
7.91533041 -4.60922432 -2.49513626  3230622939
-2.49513626 0.96273863 8.05976582  1064728075
8.12885189 -4.22127819 -2.49513626  3229434172
-2.49513626 0.96273869 8.32337093  1064728075
8.44226933 -3.55323577 -2.49513626  3226011419
-2.49513626 0.96273869 8.65363979  1064728075
8.70089531 -2.86213470 -2.49513626  3224251831
-2.49513626 0.96273869 8.86719990  1064728075
8.93658543 -2.00869775 -2.49513626  1024263216
-2.06736398 0.96902674 7.59033918  1064833150
7.67440033 0.53040105 -2.09555602  1059702235
-2.12491274 0.96817845 7.97794151  1064804630
9.09655094 1.07243884 -2.49513626  1067189499
-2.49513626 0.96273869 9.03409004  1064728075
9.00856590 1.65623260 -2.49513626  1074118030
-2.49513626 0.96273869 8.88315582  1064728075
8.84601307 2.37601495 -2.49513626  1079432544
-2.49513626 0.96273869 8.22443008  1064728075
8.15838242 4.16391516 -2.49513626  1082748786
-2.49513626 0.96273869 8.01994991  1064728075
7.94760036 4.55335665 -2.49513626  1083558276
-2.49513626 0.96273869 7.79672527  1064728075
6.66300869 -5.85235214 -2.49513626  3233042034
-2.49513626 0.96382046 7.02619267  1064746224
7.11248159 -5.29701138 -2.49513626  3232092290
-2.49513626 0.96382040 7.27949667  1064746224
7.36017942 -4.94706821 -2.49513626  3231097390
-2.49513626 0.96382046 7.59067535  1064746223
7.73451662 -4.33854532 -2.49513626  3229796582
-2.49513626 0.96382040 8.05865479  1064746224
8.11726856 -3.57150960 -2.49513626  3226153857
-2.49513626 0.96382046 8.33049107  1064746223
8.37841988 -2.90651274 -2.49513626  3223314980
-2.49513626 0.96382046 8.61989975  1064746223
8.65236473 -1.94481277 -2.49513626  3219590693
-2.49513626 0.96382040 8.71054745  1064746224
8.75968170 -1.38336718 -2.49513626  3214867046
-2.49513626 0.96382046 7.73151731  1064821270
7.62004185 -0.33407700 -2.14600682  3193420754
-2.14042211 0.96888286 7.60245514  1064831389
8.33446598 0.84664780 -2.35702252  1066864306
-2.49513626 0.96382046 8.72206020  1064746224
8.63436413 2.02323365 -2.49513626  1074421814
-2.49513626 0.96382046 8.56467533  1064746224
8.48608780 2.57527399 -2.49513626  1077296178
-2.49513626 0.96382046 8.25125122  1064746224
8.19780254 3.38256645 -2.49513626  1080093022
-2.49513626 0.96382046 8.08453369  1064746223
8.02473831 3.77482414 -2.49513626  1082196459
-2.49513626 0.96382046 7.69483423  1064746224
7.54875851 4.65424109 -2.49513626  1083756334
-2.49513626 0.96382046 7.23324347  1064746224
7.14961529 5.24678326 -2.49513626  3232898948
-2.49513626 0.96483886 6.63611269  1064763310
6.72324705 -5.35244942 -2.49513626  3232221684
-2.49513626 0.96483886 7.05409765  1064763310
7.13227844 -4.79388762 -2.49513626  3231036623
-2.49513626 0.96483886 7.35563898  1064763310
7.42629671 -4.32445192 -2.49513626  3228930613
-2.49513626 0.96483886 7.75030136  1064763310
7.86592531 -3.46092176 -2.49513626  3226819436
-2.49513626 0.96483886 7.97337675  1064763310
8.07254601 -2.94699454 -2.49513626  3224099841
-2.49513626 0.96483886 8.31936264  1064763310
8.41373730 -1.74922538 -2.49513626  3217982457
-2.49513626 0.96483886 8.48844624  1064763310
8.50895023 -1.20355916 -2.49513626  3207013368
-2.49513626 0.96483886 8.57822227  1064763310
8.58540344 -0.37639999 -2.49513626  3195253452
-2.49513626 0.96483886 8.59307003  1064763310
8.58783817 0.31591576 -2.49513626  1055430410
-2.49513626 0.96483886 8.47173595  1064769455
8.54964638 0.86850661 -2.49513626  1065405057
-2.49513626 0.96483886 8.51721668  1064763310
8.47593784 1.41749144 -2.49513626  1069999709
-2.49513626 0.96483886 8.42584991  1064763310
8.39752102 1.82548928 -2.49513626  1073411193
-2.49513626 0.96483886 8.26247692  1064763310
8.22332478 2.49553347 -2.49513626  1076926372
-2.49513626 0.96483886 8.09310532  1064763310
8.04547501 3.02011204 -2.49513626  1079636615
-2.49513626 0.96483886 7.83420134  1064763310
7.71630192 3.78279161 -2.49513626  1082192306
-2.49513626 0.96483886 7.52445126  1064763310
7.38675642 4.39165401 -2.49513626  1083200251
-2.49513626 0.96483886 7.08849096  1064763310
6.76077986 5.30495739 -2.49513626  3232546704
-2.49513626 0.96579927 6.52037621  1064779423
6.60318518 -5.08518553 -2.49513626  3231665325
-2.49513626 0.96579927 6.76363754  1064779423
6.91706514 -4.64923477 -2.49513626  3230020852
-2.49513626 0.96579927 7.33363390  1064779423
7.45743561 -3.72126698 -2.49513626  3226915004
-2.49513626 0.96579927 7.73278475  1064779423
7.78188276 -2.98386955 -2.49513626  3224824480
-2.49513626 0.96579927 7.95794439  1064779423
7.99681997 -2.34777665 -2.49513626  3219780341
-2.49513626 0.96579927 8.15985584  1064779423
8.25219440 -1.16724181 -2.49513626  3213122899
-2.49513626 0.96579927 8.29896450  1064779423
8.31937313 -0.49918160 -2.49513626  3199919824
-2.49513626 0.96579927 8.33425045  1064779423
8.33255863 0.17211704 -2.49513626  1050467855
-2.49513626 0.96579927 8.31450367  1064779423
8.30416203 0.70856243 -2.49513626  1064947531
-2.49513626 0.96579927 8.26021194  1064779423
8.24126530 1.24206436 -2.49513626  1070712894
-2.49513626 0.96579927 8.08284092  1064779423
7.97518921 2.42023206 -2.49513626  1076042175
-2.49513626 0.96579927 7.89304733  1064779423
7.84889698 2.80285335 -2.49513626  1078164091
-2.49513626 0.96579927 7.65202808  1064779423
7.59780741 3.42556143 -2.49513626  1080232778
-2.49513626 0.96579927 7.48346376  1064779423
7.42336702 3.78877187 -2.49513626  1081744202
-2.49513626 0.96579927 7.29740477  1064779423
7.02287960 4.48779869 -2.49513626  1083389559
-2.49513626 0.96579927 6.79777193  1064779423
6.71917820 4.93090343 -2.49513626  1084308422
-2.49513626 0.96579927 6.55677700  1064779423
6.16280603 -5.23949718 -2.49513626  3232003774
-2.49513626 0.96670640 6.40883636  1064794642
6.48754501 -4.83158970 -2.49513626  3231137474
-2.49513626 0.96670640 6.63988495  1064794642
6.78532839 -4.40361547 -2.49513626  3230229996
-2.49513626 0.96670640 6.92372179  1064794642
6.99023199 -4.07052374 -2.49513626  3229435151
-2.49513626 0.96670640 7.17879629  1064794642
7.35058403 -3.37659955 -2.49513626  3226500647
-2.49513626 0.96670640 7.45558500  1064794642
7.59853363 -2.77394962 -2.49513626  3222917714
-2.49513626 0.96670640 7.79716730  1064794642
7.83085680 -2.02735829 -2.49513626  3220394089
-2.49513626 0.96670640 7.89212704  1064794642
7.96864080 -1.39042342 -2.49513626  3215033154
-2.49513626 0.96670640 8.00931168  1064794642
8.04166126 -0.87417608 -2.49513626  3208549671
-2.49513626 0.96670640 8.06565666  1064794642
8.08127213 -0.35429797 -2.49513626  1043009405
-2.49513626 0.96670640 8.07772732  1064794642
8.06978512 0.55772823 -2.49513626  1060113817
-2.49513626 0.96670640 8.01709175  1064794642
7.99870396 1.20550692 -2.49513626  1068157172
