# .PCD v0.7 - Point Cloud Data file format
VERSION 0.7
FIELDS x y z intensity
SIZE 4 4 4 4
TYPE F F F F
COUNT 1 1 1 1
WIDTH 1030
HEIGHT 1
VIEWPOINT 0 0 0 1 0 0 0
POINTS 1030
DATA ascii
22.81562042 2.93574786 -2.49513626  1079208911
-2.49513626 0.91159946 22.50485039  1063870101
22.33941078 5.48833036 -2.49513626  1086757157
-2.49513626 0.91159946 21.82449913  1063870101
21.57856941 7.97097111 -2.49513626  1090852557
-2.49513626 0.91159946 22.30344391  1063783886
22.14054871 10.27538204 -2.64753628  1094015605
-2.64753628 0.90646064 21.04373932  1063783886
20.63378525 13.03972626 -2.64753628  1096150858
-2.64753628 0.90646064 20.20235062  1063783886
19.74988365 14.34327126 -2.64753628  1097502590
-2.64753628 0.90646064 19.03278542  1063783886
18.78376007 15.58710670 -2.64753628  1098790341
-2.64753628 0.90646058 18.00759697  1063783885
17.73941994 16.76605034 -2.64753628  1099604768
-2.64753628 0.90646058 16.90744591  1063783885
16.33068275 18.14101219 -2.64753628  1100167049
-2.64753628 0.90646064 15.43382263  1063783885
14.02416515 18.98908806 -2.56050801  1100476955
-2.53123498 0.91037959 13.10805035  1063865113
12.79377937 19.20227051 -2.50275636  1100998189
-2.50275636 0.91134185 9.20275784  1063865779
8.86018848 21.30504990 -2.50275636  1101833076
-2.50275636 0.91134179 7.81902075  1063865779
7.11457157 21.94973755 -2.50275636  1102085706
-2.50275636 0.91134185 6.40271664  1063865779
5.24667406 23.83820534 -2.64753628  1103135577
-2.64753628 0.90646064 3.69838071  1063783886
2.91806364 24.23369980 -2.64753628  1103247509
-2.64753628 0.90646064 1.74215066  1063783886
21.17269707 2.72434664 -2.49513626  1081063260
-2.49513626 0.91762149 20.95292664  1063971133
20.88430595 4.42164564 -2.49513626  1083720083
-2.49513626 0.91762149 20.46007919  1063971134
20.35916328 6.41947794 -2.49513626  1087891525
-2.49513626 0.91762149 20.02472496  1063971134
19.77565956 8.03918362 -2.49513626  1090893572
-2.49513626 0.91762149 20.38973045  1063890506
20.22790909 10.19337463 -2.64753628  1093159769
-2.64753628 0.91281569 19.71102715  1063890506
19.34070778 11.79025936 -2.64753628  1095141268
-2.64753628 0.91281569 18.54007339  1063890506
18.32772636 13.31043434 -2.64753628  1096700179
-2.64753628 0.91281569 17.19552994  1063890506
16.95542145 15.01954937 -2.64753628  1098950517
-2.64753628 0.91281569 15.42436028  1063890506
15.15473747 16.83469963 -2.64753628  1099472310
-2.64753628 0.91281569 14.60370159  1063890506
14.03747559 17.77701950 -2.64753628  1100071905
-2.64753628 0.91281569 13.16093731  1063890506
12.86180592 18.64529800 -2.64753628  1100402063
-2.64753628 0.91281569 12.20174503  1063896415
11.77574921 18.97365379 -2.61010504  1100471886
-2.53821921 0.91626036 10.14959717  1063959865
9.48012066 19.19948196 -2.50275636  1100740215
-2.50275636 0.91738057 8.54008579  1063967092
8.22218037 19.77089882 -2.50275636  1101198350
-2.50275636 0.91738057 6.27277946  1063967092
5.60900784 20.66474724 -2.50275636  1101442557
-2.50275636 0.91738057 4.60261488  1063967092
3.92555308 21.04953384 -2.50275636  1101615713
-2.50275636 0.91738057 1.87266183  1063967092
19.74791527 2.54102445 -2.49513626  1078677743
-2.49513626 0.92287099 19.60184288  1064059206
19.54293251 3.80930805 -2.49513626  1082390694
-2.49513626 0.92287099 19.25657845  1064059206
18.98912621 5.98748779 -2.49513626  1088210547
-2.49513626 0.92287099 18.32151413  1064059206
18.06049347 8.38183975 -2.49513626  1092099692
-2.64753628 0.91835767 18.55014610  1063983485
18.38460350 10.40913105 -2.64753628  1094563146
-2.64753628 0.91835767 17.29245186  1063983485
17.09438896 12.41472912 -2.64753628  1095719730
-2.64753628 0.91835767 16.47370720  1063983485
16.03838158 13.75187588 -2.64753628  1096819762
-2.64753628 0.91835767 15.58636189  1063983485
15.35423946 14.51175499 -2.64753628  1097858620
-2.64753628 0.91835773 14.63412952  1063983485
14.13492012 15.70183563 -2.64753628  1099321737
-2.64753628 0.91835767 11.99629211  1063983485
10.55589294 18.30072784 -2.64753628  1100287451
-2.64753628 0.91835767 9.35367680  1063983485
8.98545074 18.96229362 -2.62957215  1100462074
-2.61030817 0.91945815 7.53308010  1064027925
6.15796804 18.99845695 -2.50275636  1100530493
-2.50275636 0.92264479 4.91991568  1064055411
4.60700226 19.43289566 -2.50275636  1100745117
-2.50275636 0.92264479 3.97765231  1064055411
3.34415245 19.68955231 -2.50275636  1100868980
-2.50275636 0.92264479 2.70717573  1064055411
1.74664414 19.89500427 -2.50275636  1100963169
-2.50275636 0.92264479 18.45953751  1064136656
18.41393089 2.97612691 -2.49513626  1079080427
-2.49513626 0.92748731 18.30831337  1064136657
18.18363380 4.15746641 -2.49513626  1083074747
-2.49513626 0.92748749 18.04006958  1064136655
17.96120262 5.03237724 -2.49513626  1084901811
-2.49513626 0.92748743 17.78951263  1064136655
17.69668770 5.89549971 -2.49513626  1087296492
-2.49513626 0.92748743 17.39073372  1064136656
17.27965736 7.02451134 -2.49513626  1089056009
-2.49513626 0.92748731 17.04401970  1064136656
16.65739250 8.39410019 -2.49513626  1092062974
-2.64753628 0.92323273 17.22316170  1064065276
17.06359863 10.02814102 -2.64753628  1093217483
-2.64753628 0.92323279 16.38134766  1064065276
15.82473850 11.88728523 -2.64753628  1095124010
-2.64753628 0.92323279 14.60169601  1064065277
14.16305637 13.82528019 -2.64753628  1097328842
-2.64753628 0.92323279 13.24195004  1064065276
13.00290871 14.92160130 -2.64753628  1098623628
-2.64753628 0.92323273 11.75818920  1064065276
11.23842907 16.29194832 -2.64753628  1099154667
-2.64753628 0.92323273 10.70696068  1064065276
10.43702412 16.81663322 -2.64753628  1099422925
-2.64753628 0.92323279 9.88902950  1064065276
9.33074856 17.45471191 -2.64753628  1099748070
-2.64753628 0.92323279 8.76276016  1064065276
7.89386034 18.14984322 -2.64753628  1100100317
-2.64753628 0.92323285 7.00646400  1064065276
6.40562916 18.72692490 -2.64753628  1100455995
-2.61593175 0.92411345 4.49352455  1064084827
4.17192268 18.95508957 -2.59625053  1100457351
-2.58749771 0.92490655 3.21971703  1064100557
2.90593004 18.95727158 -2.56547260  1100458226
-2.54563761 0.92607534 1.35650849  1064114514
17.27004433 3.07793212 -2.49513626  1080593245
-2.49513626 0.93157834 17.10090256  1064205291
16.96585464 4.45958710 -2.49513626  1084804774
-2.49513626 0.93157834 16.64293098  1064205291
16.45539093 6.07850456 -2.49513626  1087044462
-2.49513626 0.93157834 16.25072289  1064205291
16.02912903 7.12707758 -2.49513626  1090297305
-2.49513626 0.93157834 15.57244110  1064137779
15.40591717 10.44630241 -2.64753628  1093343375
-2.64753628 0.92755431 15.06087399  1064137779
14.88245201 11.17945194 -2.64753628  1095072345
-2.64753628 0.92755431 13.73223877  1064137779
13.31970310 13.00204086 -2.64753628  1095987626
-2.64753628 0.92755431 12.89328194  1064137779
12.45345879 13.83397388 -2.64753628  1097050160
-2.64753628 0.92755431 11.53534985  1064137779
10.81504822 15.14933109 -2.64753628  1098972509
-2.64753628 0.92755431 9.03884220  1064137779
8.50916862 16.55480385 -2.64753628  1099269372
-2.64753628 0.92755431 7.97064018  1064137779
6.86926031 17.29973412 -2.64753628  1099700553
-2.64753628 0.92755431 5.73928452  1064137779
5.45286846 17.79701614 -2.64753628  1099894710
-2.64753628 0.92755431 4.87585640  1064137779
4.58541059 18.04000092 -2.64753628  1100014750
-2.64753628 0.92755431 2.22525573  1064137779
1.62788749 18.54231644 -2.64753628  1076431483
-2.49513626 0.93522841 16.24835396  1064266529
16.19514656 3.42884994 -2.49513626  1081918887
-2.49513626 0.93522841 16.01027679  1064266529
15.78791332 4.97810698 -2.49513626  1085244427
-2.49513626 0.93522835 15.12631226  1064266528
15.01583576 6.96881819 -2.49513626  1088862638
-2.49513626 0.93522835 14.78318977  1064266528
14.66107273 7.68717337 -2.49513626  1090925390
-2.49513626 0.93522841 14.69534588  1064202484
14.37726784 10.09120083 -2.64753628  1092953662
-2.64753628 0.93141097 14.04421806  1064202484
13.87219238 10.77499104 -2.64753628  1093662038
-2.64753628 0.93141097 13.51734352  1064202483
13.14841366 11.64720535 -2.64753628  1094564258
-2.64753628 0.93141097 12.76580334  1064202483
12.16708851 12.66885948 -2.64753628  1095618790
-2.64753628 0.93141103 11.75203419  1064202484
11.53988361 13.24269867 -2.64753628  1096209830
-2.64753628 0.93141103 11.10662556  1064202484
10.43521786 14.12955570 -2.64753628  1097120947
-2.64753628 0.93141103 9.97393894  1064202484
9.50226784 14.77311993 -2.64753628  1097934562
-2.64753628 0.93141103 8.77636814  1064202483
8.28090954 15.49079227 -2.64753628  1098645391
-2.64753628 0.93141103 7.00568104  1064202484
6.74489355 16.21864891 -2.64753628  1099078226
-2.64753628 0.93141103 5.41602707  1064202484
5.14574289 16.79462624 -2.64753628  1099366640
-2.64753628 0.93141103 4.60123062  1064202484
4.32714367 17.02392387 -2.64753628  1099513025
-2.64753628 0.93141103 3.22024274  1064202483
2.94123030 17.31725121 -2.64753628  1099678816
-2.64753628 0.93141103 1.53619790  1064202483
15.50696850 2.25020599 -2.49513626  1076884766
-2.49513626 0.93850493 15.37993240  1064321500
15.15458012 3.98348022 -2.49513626  1084629647
-2.49513626 0.93850493 14.41870499  1064321500
14.21328735 6.59635592 -2.49513626  1088054478
-2.49513626 0.93850493 13.75829220  1064321500
13.63550949 7.72025108 -2.49513626  1091680685
-2.64753628 0.93487382 13.76118088  1064260581
13.60884571 9.55185699 -2.64753628  1092375193
-2.64753628 0.93487388 13.13076878  1064260581
12.96451283 10.40961742 -2.64753628  1093478615
-2.64753628 0.93487382 12.44567585  1064260580
12.26618481 11.22405624 -2.64753628  1094508230
-2.64753628 0.93487388 11.51679802  1064260581
11.12392521 12.35706043 -2.64753628  1095457330
-2.64753628 0.93487388 10.51301384  1064260581
10.09197426 13.21327877 -2.64753628  1096319749
-2.64753628 0.93487388 9.44086552  1064260580
8.76763058 14.12682915 -2.64753628  1097370955
-2.64753628 0.93487388 7.60073090  1064260581
7.36114359 14.90811157 -2.64753628  1098227973
-2.64753628 0.93487388 6.13589907  1064260580
5.88579464 15.54979610 -2.64753628  1098715083
-2.64753628 0.93487388 4.87071991  1064260580
4.35531139 16.04586792 -2.64753628  1098967442
-2.64753628 0.93487388 3.83536553  1064260581
3.04813123 16.34465027 -2.64753628  1099113012
-2.64753628 0.93487388 2.51921558  1064260581
1.98768950 16.50720215 -2.64753628  1099202685
-2.64753628 0.93487388 1.18669999  1064260580
14.75077820 1.89802253 -2.49513626  1075306029
-2.49513626 0.94146234 14.49826527  1064371117
14.32090187 4.01243448 -2.49513626  1082639947
-2.49513626 0.94146234 14.10999584  1064371117
13.86604214 5.37780523 -2.49513626  1086871764
-2.49513626 0.94146234 13.28134346  1064371117
12.94195747 7.32757187 -2.49513626  1089544751
-2.49513626 0.94146234 12.76871586  1064313029
12.61744022 9.47801208 -2.64753628  1092281010
-2.64753628 0.93800002 11.97992897  1064313029
11.64228821 10.65316868 -2.64753628  1093496582
-2.64753628 0.93800002 11.29253960  1064313029
11.11321259 11.20397282 -2.64753628  1094605706
-2.64753628 0.93800008 9.97829056  1064313029
9.16906834 12.84370327 -2.64753628  1095901208
-2.64753628 0.93800002 8.32168770  1064313029
8.10427856 13.54081059 -2.64753628  1096464253
-2.64753628 0.93800002 7.66319180  1064313029
7.43963861 13.91706181 -2.64753628  1096847489
-2.64753628 0.93800002 6.75756836  1064313029
6.29396534 14.47130966 -2.64753628  1097509725
-2.64753628 0.93800002 5.58642197  1064313030
5.10730124 14.93143272 -2.64753628  1097871539
-2.64753628 0.93800002 4.13378572  1064313029
3.39208388 15.41189766 -2.64753628  1098444134
-2.64753628 0.93800008 1.88658845  1064313029
1.38013160 15.72030735 -2.64753628  1098635570
-2.64753628 0.93800002 14.00395966  1064416122
13.96934891 2.25777483 -2.49513626  1075767040
-2.49513626 0.94414485 13.88923645  1064416122
13.79466152 3.15397787 -2.49513626  1080441748
-2.49513626 0.94414485 13.62590694  1064416122
13.56254005 4.03704691 -2.49513626  1083121346
-2.49513626 0.94414485 13.35133362  1064416122
12.93010235 5.74914217 -2.49513626  1087096508
-2.49513626 0.94414485 12.42476940  1064416122
11.96213818 7.55959558 -2.49513626  1090396537
-2.49513626 0.94414485 11.58236217  1064416123
12.00511932 9.01805019 -2.64753628  1091788400
-2.64753628 0.94083619 11.70792675  1064360612
11.55473995 9.58833313 -2.64753628  1092758974
-2.64753628 0.94083619 10.91231918  1064360612
10.74451256 10.48826313 -2.64753628  1093308514
-2.64753628 0.94083619 10.40053463  1064360612
9.86439705 11.31997681 -2.64753628  1094165621
-2.64753628 0.94083619 9.49404240  1064360612
9.30513668 11.78399658 -2.64753628  1094642652
-2.64753628 0.94083619 8.92011547  1064360612
8.52581120 12.35956001 -2.64753628  1095232912
-2.64753628 0.94083619 8.12262058  1064360612
7.91783142 12.75759125 -2.64753628  1095768631
-2.64753628 0.94083619 6.64769411  1064360612
6.42962217 13.56864357 -2.64753628  1096465103
-2.64753628 0.94083619 5.98851871  1064360612
5.54117584 13.95505428 -2.64753628  1096855191
-2.64753628 0.94083625 5.08807373  1064360612
4.85950041 14.20681000 -2.64753628  1097107621
-2.64753628 0.94083619 3.93317223  1064360612
3.46362138 14.60998058 -2.64753628  1097559302
-2.64753628 0.94083619 2.75269127  1064360612
2.51419067 14.80293941 -2.64753628  1097729413
-2.64753628 0.94083619 1.79503310  1064360612
1.31315637 14.95739746 -2.64753628  1097834572
-2.64753628 0.94083619 13.28451633  1064457126
13.24458981 2.58162904 -2.49513626  1077076192
-2.49513626 0.94658887 13.15440559  1064457126
13.05052471 3.43041921 -2.49513626  1080622649
-2.49513626 0.94658887 12.86926651  1064457126
12.80212498 4.26492262 -2.49513626  1083974518
-2.49513626 0.94658887 12.32997417  1064457126
12.23992252 5.68052149 -2.49513626  1086067312
-2.49513626 0.94658887 12.05028248  1064457126
11.95074272 6.26607656 -2.49513626  1087285369
-2.49513626 0.94658887 11.52175236  1064457126
11.16842842 7.57298946 -2.49513626  1089999342
-2.49513626 0.94658887 10.78894520  1064457127
10.52186012 8.44833851 -2.49513626  1091903037
-2.64753628 0.94342065 10.71772099  1064403972
10.56315327 9.66571426 -2.64753628  1092443041
-2.64753628 0.94342065 10.24582100  1064403972
9.74991894 10.48547935 -2.64753628  1093913345
-2.64753628 0.94342065 8.50610256  1064403972
8.31918240 11.65321636 -2.64753628  1094624784
-2.64753628 0.94342065 7.35308409  1064403972
7.15391588 12.40272999 -2.64753628  1095254969
-2.64753628 0.94342065 6.75004625  1064403972
6.54544926 12.73433685 -2.64753628  1095898188
-2.64753628 0.94342065 5.49799728  1064403972
4.85192156 13.47089767 -2.64753628  1096335933
-2.64753628 0.94342065 4.19447517  1064403972
3.75062299 13.81806850 -2.64753628  1096681294
-2.64753628 0.94342065 3.30286527  1064403972
2.39749813 14.11588383 -2.64753628  1097005412
-2.64753628 0.94342065 1.71171689  1064403972
1.48215759 14.24111557 -2.64753628  1097086455
-2.64753628 0.94342065 1.02193499  1064403972
12.78813839 1.64548361 -2.49513626  1073981764
-2.49513626 0.94882482 12.69354820  1064494639
12.65539742 2.46678376 -2.49513626  1078255764
-2.49513626 0.94882482 12.29677105  1064494639
12.23261452 4.07519102 -2.49513626  1082700880
-2.49513626 0.94882482 12.09476948  1064494639
12.02112007 4.66227055 -2.49513626  1083924761
-2.49513626 0.94882482 11.86444664  1064494639
11.69542313 5.42782021 -2.49513626  1085519009
-2.49513626 0.94882482 11.51421738  1064494639
11.41910744 5.98732662 -2.49513626  1087064233
-2.49513626 0.94882482 11.11604595  1064494639
11.00919914 6.71130228 -2.49513626  1089276116
-2.49513626 0.94882482 10.30898666  1064494639
10.18271637 7.90925407 -2.49513626  1090764049
-2.49513626 0.94882482 9.78811455  1064494639
10.24093246 9.07168102 -2.64753628  1091814797
-2.64753628 0.94578534 9.94292927  1064443645
9.47661018 9.86742496 -2.64753628  1092636137
-2.64753628 0.94578540 8.98809814  1064443645
7.94909954 11.13481426 -2.64753628  1093939085
-2.64753628 0.94578534 7.58573341  1064443645
7.21445847 11.62427998 -2.64753628  1094557085
-2.64753628 0.94578540 6.25427294  1064443645
5.65822697 12.45619106 -2.64753628  1095463461
-2.64753628 0.94578534 4.42781067  1064443645
4.21839476 13.01450634 -2.64753628  1095912737
-2.64753628 0.94578534 3.37029386  1064443645
2.72481251 13.40699768 -2.64753628  1096273554
-2.64753628 0.94578534 1.85449600  1064443645
1.19650877 13.62867641 -2.64753628  1096439508
-2.64753628 0.94578534 12.24180412  1064529084
12.21479797 1.77248073 -2.49513626  1074436570
-2.49513626 0.95087790 12.11473083  1064529084
12.03223896 2.75102162 -2.49513626  1077704516
-2.49513626 0.95087790 11.93721867  1064529084
11.88504505 3.32995272 -2.49513626  1080921051
-2.49513626 0.95087790 11.71001053  1064529084
11.57805920 4.27685261 -2.49513626  1083101593
-2.49513626 0.95087790 11.35757446  1064529084
11.19576645 5.19592714 -2.49513626  1085390308
-2.49513626 0.95087790 10.93125820  1064529084
10.83736801 5.90714836 -2.49513626  1086495074
-2.49513626 0.95087790 10.64114475  1064529084
10.43384361 6.59376955 -2.49513626  1087921185
-2.49513626 0.95087790 9.98688507  1064529084
9.86857224 7.41310883 -2.49513626  1089947850
-2.49513626 0.95087790 9.36994648  1064529084
9.11202908 8.33784103 -2.49681425  1091563302
-2.64753628 0.94795698 9.37178040  1064480079
9.22296238 9.29828453 -2.64753628  1092035144
-2.64753628 0.94795698 8.76229000  1064480079
8.60411358 9.87372208 -2.64753628  1092627992
-2.64753628 0.94795698 7.60950279  1064480079
6.35975742 11.44877911 -2.64753628  1094241376
-2.64753628 0.94795698 5.98707867  1064480079
5.79837513 11.74307919 -2.64753628  1094810420
-2.64753628 0.94795698 4.83323145  1064480079
4.63622618 12.24853039 -2.64753628  1095050709
-2.64753628 0.94795698 4.23864698  1064480079
4.03817606 12.45850086 -2.64753628  1095260732
-2.64753628 0.94795698 3.43066549  1064480079
2.60840273 12.83422661 -2.64753628  1095704668
-2.64753628 0.94795698 1.56569946  1064480079
1.14538777 13.04642582 -2.64753628  1072805437
-2.49513626 0.95276952 11.65180016  1064560820
11.61677456 2.26433659 -2.49513626  1075635382
-2.49513626 0.95276952 11.53767204  1064560821
11.49362183 2.82374525 -2.49513626  1078745982
-2.49513626 0.95276952 11.34353638  1064560820
11.22869682 3.74074364 -2.49513626  1081800807
-2.49513626 0.95276952 11.10216808  1064560820
11.03455830 4.27964067 -2.49513626  1083826015
-2.49513626 0.95276952 10.73558903  1064560820
10.65380859 5.15491581 -2.49513626  1085267673
-2.49513626 0.95276952 10.39192009  1064560820
10.00498295 6.32274818 -2.49513626  1087671611
-2.49513626 0.95276952 9.68734932  1064560820
9.57639408 6.95481777 -2.49513626  1088649239
-2.49513626 0.95276952 9.22868538  1064560820
8.73158741 7.98975563 -2.49513626  1090941471
-2.49513626 0.95276952 8.55161762  1064513653
7.62267733 9.98026180 -2.64753628  1092723086
-2.64753628 0.94995815 7.29672575  1064513653
7.13088131 10.33737755 -2.64753628  1093089181
-2.64753628 0.94995815 6.79365778  1064513653
6.62237644 10.67028618 -2.64753628  1093429614
-2.64753628 0.94995815 6.27467346  1064513653
5.92044401 11.07516098 -2.64753628  1094657163
-2.64753628 0.94995815 3.48475933  1064513653
2.89693236 12.21960068 -2.64753628  1095075579
-2.64753628 0.94995815 11.27360916  1064590155
11.15659142 2.17463756 -2.49513626  1075979247
-2.49513626 0.95451802 11.03830528  1064590155
10.94506931 3.06659293 -2.49513626  1079689812
-2.49513626 0.95451802 10.78387642  1064590155
10.72451591 3.76606631 -2.49513626  1081872898
-2.49513626 0.95451802 10.59743023  1064590155
10.52974224 4.28054094 -2.49513626  1083426527
-2.49513626 0.95451802 10.31030369  1064590155
10.15056133 5.11513472 -2.49513626  1084811083
-2.49513626 0.95451802 9.98024845  1064590155
9.89118671 5.60026407 -2.49513626  1086149551
-2.49513626 0.95451802 9.30359077  1064590155
9.19703293 6.67930508 -2.49513626  1088364306
-2.49513626 0.95451802 8.74712849  1064590155
8.62888718 7.39870405 -2.49513626  1089547966
-2.49513626 0.95451802 8.38568497  1064590155
8.00461483 8.06998634 -2.49513626  1091664945
-2.64753628 0.95180804 7.16512299  1064544689
7.00766993 9.81609154 -2.64753628  1092540553
-2.64753628 0.95180804 6.52452612  1064544689
6.19387197 10.34886074 -2.64753628  1093185892
-2.64753628 0.95180804 5.33979034  1064544689
5.16462374 10.89907074 -2.64753628  1093727704
-2.64753628 0.95180804 4.63123703  1064544689
4.45097637 11.20945644 -2.64753628  1093958163
-2.64753628 0.95180804 4.08701420  1064544689
3.90341616 11.41168022 -2.64753628  1094335499
-2.64753628 0.95180804 2.97114229  1064544689
2.78217053 11.73552799 -2.64753628  1094562763
-2.64753628 0.95180804 2.01953506  1064544689
1.82743740 11.92155170 -2.64753628  1094728641
-2.64753628 0.95180804 10.76232624  1064617347
10.69484234 2.26432085 -2.49513626  1075572921
-2.49513626 0.95613885 10.61621761  1064617347
10.47759247 3.11877322 -2.49513626  1079845296
-2.49513626 0.95613885 10.25464916  1064617347
10.19220161 3.95293999 -2.49513626  1082717021
-2.49513626 0.95613879 9.98900414  1064617348
9.84051895 4.76140022 -2.49513626  1084058843
-2.49513626 0.95613879 9.33423901  1064617347
9.24121666 5.84007788 -2.49513626  1086300434
-2.49513626 0.95613879 8.63350105  1064617347
7.82275200 7.63618469 -2.49513626  1090277019
-2.49513626 0.95613879 7.44412279  1064617347
7.04804468 8.35652351 -2.49513626  1091010978
-2.49513626 0.95613879 7.18858576  1064573461
7.04077816 9.21839046 -2.64753628  1092029767
-2.64753628 0.95352304 6.27503967  1064573462
5.79567862 10.04797363 -2.64753628  1092763145
-2.64753628 0.95352304 4.79737091  1064573462
4.45414686 10.71035385 -2.64753628  1093434946
-2.64753628 0.95352304 4.10628700  1064573462
3.57659817 11.03445625 -2.64753628  1093759890
-2.64753628 0.95352304 3.21873951  1064573462
3.03853106 11.19457817 -2.64753628  1094009195
-2.64753628 0.95352304 2.31025386  1064573462
2.12656355 11.40302181 -2.64753628  1094121780
-2.64753628 0.95352310 1.75755942  1064573462
1.57234824 11.49255466 -2.64753628  1094206279
-2.64753628 0.95352304 10.44172668  1064642622
10.36449432 1.84719789 -2.49513626  1073801261
-2.49513626 0.95764530 10.29950333  1064642622
10.22378731 2.51176977 -2.49513626  1076578795
-2.49513626 0.95764530 10.13742924  1064642622
10.09028435 3.00348806 -2.49513626  1078631908
-2.49513626 0.95764530 9.87558270  1064642622
9.61976147 4.27726412 -2.49513626  1083036203
-2.49513626 0.95764530 9.47676182  1064642622
9.40154934 4.73768806 -2.49513626  1084619791
-2.49513626 0.95764530 9.07643795  1064642622
8.80772209 5.76705027 -2.49513626  1086132624
-2.49513626 0.95764530 8.61707783  1064642622
8.51838207 6.18643856 -2.49513626  1087002244
-2.49513626 0.95764530 8.20908642  1064642622
8.10167789 6.72291803 -2.49513626  1088646359
-2.49513626 0.95764530 7.65124178  1064642622
7.53358078 7.35390854 -2.49513626  1089416987
-2.49513626 0.95764530 7.29240036  1064642622
7.04363441 7.82445097 -2.49513626  1090682710
-2.49513626 0.95764530 5.89072609  1064600208
5.73682642 9.58522034 -2.64753628  1092277008
-2.64753628 0.95511723 5.26634312  1064600208
4.78352165 10.09482765 -2.64753628  1092871940
-2.64753628 0.95511723 3.78543448  1064600208
3.61538410 10.56960773 -2.64753628  1093273191
-2.64753628 0.95511723 3.09975743  1064600208
2.92621160 10.78076553 -2.64753628  1093570099
-2.64753628 0.95511729 1.69259179  1064600209
1.51422787 11.06773281 -2.64753628  1093780976
-2.64753628 0.95511723 0.79729962  1064600209
10.06808662 1.29548800 -2.49513626  1069193107
-2.49513626 0.95904911 10.02105045  1064666174
9.99361515 1.78109860 -2.49513626  1075511363
-2.49513626 0.95904911 9.81759262  1064666174
9.46421432 3.67060137 -2.49513626  1082021487
-2.49513626 0.95904911 9.27553368  1064666174
9.13765144 4.42131233 -2.49513626  1083321945
-2.49513626 0.95904911 8.99025154  1064666174
8.91303158 4.85824442 -2.49513626  1085114571
-2.49513626 0.95904911 8.30873203  1064666174
8.11626053 6.09680080 -2.49513626  1087070226
-2.49513626 0.95904911 7.81177187  1064666174
7.59856749 6.73100710 -2.49513626  1088113026
-2.49513626 0.95904911 7.37745428  1064666174
7.14865637 7.20703840 -2.49513626  1089331872
-2.49513626 0.95904911 6.66898727  1064666174
6.54464722 7.75965738 -2.49513626  1090449340
-2.49513626 0.95904911 6.16154337  1064666174
6.03059196 8.16557503 -2.49513626  1090892210
-2.49513626 0.95904911 5.62845850  1064666174
5.82684231 9.05895710 -2.64753628  1091726772
-2.64753628 0.95660293 5.53154469  1064625134
5.38171482 9.33026981 -2.64753628  1092090897
-2.64753628 0.95660293 4.61235142  1064625134
4.13600731 9.94536209 -2.64753628  1092693389
-2.64753628 0.95660293 3.64997864  1064625134
3.15539789 10.29855537 -2.64753628  1092981223
-2.64753628 0.95660293 2.48466444  1064625134
1.97467065 10.58855343 -2.64753628  1093294356
-2.64753628 0.95660293 1.11499107  1064625134
0.76877707 10.74363899 -2.64753628  1068768975
-2.49513626 0.96036029 9.67348385  1064688172
9.61800861 1.87473738 -2.49513626  1073866246
-2.49513626 0.96036029 9.47708130  1064688172
9.34545422 2.94672728 -2.49513626  1078343463
-2.49513626 0.96036029 9.13596344  1064688171
9.07760811 3.69022179 -2.49513626  1082392791
-2.49513626 0.96036023 8.67843628  1064688172
8.60389614 4.68974304 -2.49513626  1084153947
-2.49513626 0.96036029 8.36691189  1064688172
8.28353405 5.23486233 -2.49513626  1084998962
-2.49513626 0.96036023 8.02055359  1064688172
7.92869043 5.75817680 -2.49513626  1086084281
-2.49513626 0.96036029 7.73879051  1064688172
7.43889618 6.37836647 -2.49513626  1088563442
-2.49513626 0.96036023 6.55603266  1064688172
6.43768215 7.38762140 -2.49513626  1089662306
-2.49513626 0.96036023 6.07270145  1064688172
5.94783974 7.78742027 -2.49513626  1090272345
-2.49513626 0.96036023 5.69350529  1064688172
5.56410027 8.06607246 -2.49513626  1090681348
-2.49513626 0.96036029 5.19505835  1064648417
5.04907227 9.08930492 -2.64753628  1091827106
-2.64753628 0.95799071 4.30021143  1064648417
3.99255443 9.60042381 -2.64753628  1092263435
-2.64753628 0.95799071 3.36510420  1064648417
3.20594835 9.89092922 -2.64753628  1092604880
-2.64753628 0.95799071 2.56139612  1064648417
2.39848757 10.11710739 -2.64753628  1092778182
-2.64753628 0.95799071 2.07083678  1064648417
1.90618193 10.22130585 -2.64753628  1092879099
-2.64753628 0.95799071 1.57542086  1064648417
1.40940332 10.30156326 -2.64753628  1092974459
-2.64753628 0.95799071 0.74211341  1064648417
9.37105274 1.35982847 -2.49513626  1069638448
-2.49513626 0.96158755 9.29428387  1064708762
9.26384830 1.96134973 -2.49513626  1074205517
-2.49513626 0.96158755 9.19574642  1064708762
9.07566738 2.70147848 -2.49513626  1077296690
-2.49513626 0.96158755 8.98378849  1064708762
8.82846355 3.42403102 -2.49513626  1081489409
-2.49513626 0.96158755 8.58926582  1064708762
8.52383614 4.12431431 -2.49513626  1082678406
-2.49513626 0.96158755 8.31430626  1064708762
8.24010754 4.66544437 -2.49513626  1084078405
-2.49513626 0.96158755 7.83735418  1064708762
7.75059652 5.44003630 -2.49513626  1085411150
-2.49513626 0.96158755 7.47831869  1064708762
7.28702116 6.04690456 -2.49513626  1086668005
-2.49513626 0.96158755 7.08813906  1064708762
6.77604866 6.61444759 -2.49513626  1087840793
-2.49513626 0.96158755 6.55911922  1064708762
6.44808531 6.93454742 -2.49513626  1089327022
-2.49513626 0.96158755 5.74764776  1064708762
5.37682199 7.79458475 -2.49513626  1090731394
-2.49513626 0.96158755 4.59827423  1064708762
4.32881784 8.42182255 -2.49513626  1091651243
-2.64753628 0.95928973 4.15547419  1064670211
4.00734282 9.21383762 -2.64753628  1092042718
-2.64753628 0.95928973 2.78806448  1064670211
2.63196778 9.69671822 -2.64753628  1092341380
-2.64753628 0.95928973 2.31775928  1064670211
2.15972948 9.81270504 -2.64753628  1092454997
-2.64753628 0.95928973 1.84202373  1064670211
1.68242443 9.90570831 -2.64753628  1092544430
-2.64753628 0.95928973 1.36196530  1064670211
1.04008937 9.99358940 -2.64753628  1092625702
-2.64753628 0.95928973 9.08465481  1064728075
9.06461430 1.31536019 -2.49513626  1069224005
-2.49513626 0.96273869 9.01745796  1064728075
8.96091366 1.89721298 -2.49513626  1073916043
-2.49513626 0.96273869 8.85862446  1064728075
8.77888966 2.61313796 -2.49513626  1076906131
-2.49513626 0.96273869 8.64217663  1064728075
8.42846775 3.58585072 -2.49513626  1082086169
-2.49513626 0.96273869 8.17966461  1064728075
8.11209965 4.25338125 -2.49513626  1083206025
-2.49513626 0.96273869 7.82090330  1064728075
7.66301537 5.01752949 -2.49513626  1084522247
-2.49513626 0.96273869 7.32347870  1064728075
7.23377323 5.61871004 -2.49513626  1085768336
-2.49513626 0.96273869 7.04873276  1064728075
6.95344734 5.96212769 -2.49513626  1086478954
-2.49513626 0.96273869 6.55446863  1064728074
6.45038700 6.50306940 -2.49513626  1087596212
-2.49513626 0.96273869 5.90537643  1064728075
5.79164600 7.09607267 -2.49513626  1088817382
-2.49513626 0.96273869 5.55969572  1064728075
5.32195807 7.45480919 -2.49513626  1089727626
-2.49513626 0.96273869 4.95503902  1064728075
4.83011150 7.78250790 -2.49513626  1090224225
-2.49513626 0.96273869 4.57651281  1064728075
4.31814861 8.07780838 -2.49513626  1090672576
-2.49513626 0.96273869 3.78820801  1064728075
3.51718354 8.45735264 -2.49513626  1091718582
-2.64753628 0.96050835 3.14550567  1064690656
2.54590058 9.37963009 -2.64753628  1092007476
-2.64753628 0.96050835 2.24196672  1064690656
1.62740839 9.58178616 -2.64753628  1092203886
-2.64753628 0.96050835 1.31743014  1064690655
1.16190791 9.64930248 -2.64753628  1092266799
-2.64753628 0.96050829 0.84999388  1064690656
8.75463295 1.41495454 -2.49513626  1070017378
-2.49513626 0.96382046 8.67592239  1064746223
8.64515686 1.97660840 -2.49513626  1074227631
-2.49513626 0.96382046 8.57688522  1064746224
8.53940296 2.39257264 -2.49513626  1075964936
-2.49513626 0.96382046 8.31882858  1064746223
8.26816940 3.20672655 -2.49513626  1079360929
-2.49513626 0.96382046 8.16041088  1064746223
8.04415131 3.73327446 -2.49513626  1082092073
-2.49513626 0.96382046 7.85410213  1064746224
7.78664160 4.24428225 -2.49513626  1083164935
-2.49513626 0.96382046 7.57217169  1064746223
7.41930103 4.85795116 -2.49513626  1084426367
-2.49513626 0.96382046 7.09056139  1064746224
6.91503286 5.55230141 -2.49513626  1085618290
-2.49513626 0.96382046 6.44512320  1064746223
6.24524117 6.29624510 -2.49513626  1087155588
-2.49513626 0.96382040 5.93329859  1064746224
5.82618999 6.68589830 -2.49513626  1088337927
-2.49513626 0.96382040 5.38287544  1064746224
5.03558397 7.29990482 -2.49513626  1089219220
-2.49513626 0.96382040 4.67649603  1064746224
4.18081617 7.82090187 -2.49513626  1090533746
-2.49513626 0.96382046 3.66772890  1064746224
2.87016010 8.39094067 -2.49513626  1090976381
-2.49513626 0.96382046 2.31809950  1064709869
2.17066503 9.15612411 -2.64753628  1091766790
-2.64753628 0.96165353 1.87413633  1064709869
1.42577517 9.30125999 -2.64753628  1091926668
-2.64753628 0.96165353 8.50457478  1064763310
8.48355484 1.37114143 -2.49513626  1069613211
-2.49513626 0.96483886 8.40728092  1064763310
8.37747002 1.91540444 -2.49513626  1073952843
-2.49513626 0.96483886 8.27498627  1064763310
8.23650265 2.45168829 -2.49513626  1076192363
-2.49513626 0.96483886 8.06124401  1064763310
7.90773106 3.36430240 -2.49513626  1080526845
-2.49513626 0.96483886 7.73569393  1064763310
7.61090803 3.99059367 -2.49513626  1082367119
-2.49513626 0.96483886 7.47819948  1064763310
7.33770227 4.47312593 -2.49513626  1083369689
-2.49513626 0.96483886 7.18956995  1064763310
7.11268711 4.82291031 -2.49513626  1084797101
-2.49513626 0.96483886 6.70091486  1064763310
6.61323881 5.48778629 -2.49513626  1085472806
-2.49513626 0.96483886 6.33997440  1064763310
6.24555731 5.90286255 -2.49513626  1086537156
-2.49513626 0.96483886 5.85187292  1064763310
5.54052544 6.56912088 -2.49513626  1088064317
-2.49513626 0.96483886 4.87966347  1064763310
4.53169298 7.30168009 -2.49513626  1089901426
-2.49513626 0.96483886 3.67993116  1064763310
3.55416059 7.82423830 -2.49513626  1090491854
-2.49513626 0.96483886 3.04216909  1064763310
2.78128958 8.13112450 -2.49513626  1090702475
-2.49513626 0.96483886 2.51750994  1064763310
2.38462186 8.25617123 -2.49513626  1090864944
-2.49545813 0.96483439 1.98278117  1064763190
1.71190894 8.42323589 -2.49565697  1090991969
-2.49602890 0.96482646 1.52686393  1064727959
1.38162899 9.01325703 -2.64753628  1091640543
-2.64753628 0.96273178 0.65082937  1064727959
8.22756863 1.32976818 -2.49513626  1069231549
-2.49513626 0.96579927 8.15359402  1064779423
8.12468147 1.85760820 -2.49513626  1073644887
-2.49513626 0.96579927 8.02528954  1064779423
7.98797035 2.37771010 -2.49513626  1075865289
-2.49513626 0.96579927 7.90710115  1064779423
7.77039099 3.01366663 -2.49513626  1078517618
-2.49513626 0.96579927 7.66911745  1064779423
7.61547947 3.38609314 -2.49513626  1080068999
-2.49513626 0.96579927 7.44273138  1064779423
7.38125181 3.87017655 -2.49513626  1082083279
-2.49513626 0.96579927 7.11629152  1064779423
7.04537582 4.45239687 -2.49513626  1083316335
-2.49513626 0.96579927 6.89806366  1064779423
6.82170343 4.78806067 -2.49513626  1084239428
-2.49513626 0.96579927 6.49871874  1064779423
6.41368771 5.32219696 -2.49513626  1085747488
-2.49513626 0.96579927 5.96395540  1064779423
5.86924982 5.91718435 -2.49513626  1086348019
-2.49513626 0.96579927 5.57608986  1064779423
5.47542953 6.28337812 -2.49513626  1087459172
-2.49513626 0.96579927 4.95128870  1064779423
4.84248590 6.78317738 -2.49513626  1088129167
-2.49513626 0.96579927 4.62112617  1064779423
4.39494991 7.08135414 -2.49513626  1089155993
-2.49513626 0.96579927 3.81001830  1064779423
3.68993449 7.47298813 -2.49513626  1089536619
-2.49513626 0.96579927 3.32404613  1064779423
2.82423639 7.84122705 -2.49513626  1090453377
-2.49513626 0.96579927 2.18318582  1064779423
1.92255259 8.10956001 -2.49513626  1090746230
-2.49513626 0.96579927 1.26280808  1064779423
0.86274397 8.28956127 -2.49513626  1090836132
-2.49513626 0.96579927 8.02289200  1064794642
7.96354914 1.41929293 -2.49513626  1069946706
-2.49513626 0.96670640 7.88555241  1064794642
7.85543728 1.92991877 -2.49513626  1074506647
-2.49513626 0.96670640 7.71462202  1064794642
7.63213015 2.68013263 -2.49513626  1077109492
-2.49513626 0.96670640 7.49351740  1064794642
7.44339657 3.16675496 -2.49513626  1080130521
-2.49513626 0.96670640 7.16400337  1064794642
7.10246944 3.87135792 -2.49513626  1082804356
-2.49513626 0.96670640 6.76740456  1064794642
6.46755219 4.85831690 -2.49513626  1084147954
-2.49513626 0.96670640 6.30744362  1064794642
6.22491693 5.16554928 -2.49513626  1084783973
-2.49513626 0.96670640 5.96769762  1064794642
5.87882376 5.55625057 -2.49513626  1085591508
-2.49513626 0.96670640 5.41197205  1064794642
5.01298475 6.34842396 -2.49513626  1087223314
-2.49513626 0.96670640 4.80556059  1064794642
4.59313488 6.65850067 -2.49513626  1088009209
-2.49513626 0.96670640 4.26559544  1064794642
4.15415716 6.94085789 -2.49513626  1088436513
-2.49513626 0.96670640 3.92806244  1064794642
3.69788027 7.19431639 -2.49513626  1088952548
-2.49513626 0.96670640 3.46384859  1064794642
3.10611606 7.46890497 -2.49513626  1089702073
-2.49513626 0.96670640 2.49415421  1064794642
2.24459887 7.77137566 -2.49513626  1090182963
-2.49513626 0.96670640 1.73874283  1064794642
1.61106324 7.92697859 -2.49513626  1090418243
-2.49513626 0.96670640 1.22563982  1064794642
1.09648383 8.01437569 -2.49513626  1090551570
-2.49513626 0.96670640 0.70744038  1064794642
0.57734722 8.06840706 -2.49513626  1065375567
-2.49513626 0.96756452 7.77517033  1064809039
7.71147871 1.50311852 -2.49513626  1070615673
-2.49513626 0.96756452 7.62972021  1064809039
7.59848738 1.99731302 -2.49513626  1075768472
-2.49513626 0.96756452 7.36986637  1064809039
7.27819920 2.95872712 -2.49513626  1078741438
-2.49513626 0.96756452 7.12652349  1064809039
7.07223701 3.42194867 -2.49513626  1081124299
-2.49513626 0.96756452 6.83682680  1064809039
6.70837927 4.08948565 -2.49513626  1082988729
-2.49513626 0.96756452 5.96431923  1064809039
5.88103390 5.20956945 -2.49513626  1084864655
-2.49513626 0.96756452 5.62209845  1064809039
5.44211054 5.66654158 -2.49513626  1086163695
-2.49513626 0.96756452 4.96778440  1064809039
4.86894178 6.16600943 -2.49513626  1086995580
-2.49513626 0.96756452 4.25018597  1064809038
4.14302874 6.67544603 -2.49513626  1088395870
-2.49513626 0.96756452 3.36431932  1064809039
3.24933624 7.15318537 -2.49513626  1089055274
-2.49513626 0.96756446 2.78125358  1064809039
2.66234899 7.39176273 -2.49513626  1089642979
-2.49513626 0.96756452 1.93544960  1064809039
1.81235087 7.64471340 -2.49513626  1089939067
-2.49513626 0.96756452 1.06497669  1064809039
0.93925589 7.80025864 -2.49513626  1090155188
-2.49513626 0.96756452 0.56075734  1064809039
7.53820848 1.21835136 -2.49513626  1069219678
-2.49513626 0.96837741 7.44394159  1064822677
7.41551495 1.82183874 -2.49513626  1075476063
-2.49513626 0.96837741 7.20471001  1064822677
7.16295433 2.64594603 -2.49513626  1076934384
-2.49513626 0.96837741 7.07386255  1064822677
7.02654791 2.98941064 -2.49513626  1079302959
-2.49513626 0.96837741 6.81912994  1064822677
6.76280117 3.54591084 -2.49513626  1081133231
-2.49513626 0.96837741 6.52004051  1064822677
6.32009745 4.28547859 -2.49513626  1083152055
-2.49513626 0.96837741 5.87630653  1064822677
5.79686928 4.97044039 -2.49513626  1084741570
-2.49513626 0.96837741 5.37748575  1064822677
5.19978189 5.59206820 -2.49513626  1085643641
-2.49513626 0.96837741 4.82831383  1064822677
4.63494205 6.06846523 -2.49513626  1086775288
-2.49513626 0.96837741 4.33590794  1064822677
4.13086033 6.42222261 -2.49513626  1087348212
-2.49513626 0.96837741 3.92151332  1064822677
3.70807981 6.67526054 -2.49513626  1087864496
-2.49513626 0.96837741 3.15810895  1064822677
2.70316887 7.14155769 -2.49513626  1088893851
-2.49513626 0.96837741 2.35447502  1064822677
2.11889577 7.33615971 -2.49513626  1089196554
-2.49513626 0.96837741 1.88111067  1064822677
1.76146889 7.43008757 -2.49513626  1089381414
-2.49513626 0.96837741 1.52083969  1064822677
1.27862203 7.52821779 -2.49513626  1089607933
-2.49513626 0.96837741 0.91288555  1064822677
7.34942627 1.06646979 -2.49513626  1068883237
-2.49513626 0.96914852 7.21193457  1064835614
7.18241358 1.88794565 -2.49513626  1073756818
-2.49513626 0.96914852 7.08265781  1064835614
7.00691795 2.46057987 -2.49513626  1076146448
-2.49513626 0.96914852 6.92388678  1064835614
6.87966251 2.79671311 -2.49513626  1077547488
-2.49513626 0.96914852 6.73629189  1064835614
6.68497992 3.23457217 -2.49513626  1079370593
-2.49513626 0.96914852 6.57714224  1064835614
6.52065086 3.55422640 -2.49513626  1081566535
-2.49513626 0.96914852 6.27785826  1064835614
6.14658976 4.16782856 -2.49513626  1082689219
-2.49513626 0.96914852 6.00892830  1064835614
5.93774223 4.46033525 -2.49513626  1083492697
-2.49513626 0.96914852 5.71498299  1064835614
5.63772821 4.83398247 -2.49513626  1084439591
-2.49513626 0.96914852 5.14411449  1064835614
5.05703115 5.43854809 -2.49513626  1085316900
-2.49513626 0.96914852 4.87894106  1064835614
4.78797245 5.67685604 -2.49513626  1085807503
-2.49513626 0.96914852 4.60233021  1064835614
4.41189718 5.97382355 -2.49513626  1086840452
-2.49513626 0.96914852 3.91616750  1064835614
3.71055341 6.43297720 -2.49513626  1087356545
-2.49513626 0.96914852 3.50107741  1064835614
3.39495730 6.60497284 -2.49513626  1087706512
-2.49513626 0.96914852 3.18009782  1064835614
3.07141137 6.76149654 -2.49513626  1088023777
-2.49513626 0.96914852 2.62895918  1064835614
2.51656485 6.98700809 -2.49513626  1088477881
-2.49513626 0.96914852 2.28983736  1064835614
2.17556453 7.10058355 -2.49513626  1088704503
-2.49513626 0.96914852 1.71311140  1064835614
1.59630752 7.25280762 -2.49513626  1089004092
-2.49513626 0.96914852 0.88782543  1064835614
0.76875812 7.38650131 -2.49513626  1089256430
-2.49513626 0.96914852 7.15198088  1064847902
7.13430643 1.15307093 -2.49513626  1067601542
-2.49513626 0.96988094 7.09339094  1064847902
7.07016277 1.49690092 -2.49513626  1070476746
-2.49513626 0.96988094 7.01818752  1064847902
6.95890713 1.94974840 -2.49513626  1074000889
-2.49513626 0.96988094 6.89238024  1064847902
6.85642147 2.28415847 -2.49513626  1075856484
-2.49513626 0.96988094 6.73787642  1064847902
6.69484043 2.72158051 -2.49513626  1077219895
-2.49513626 0.96988094 6.55532169  1064847902
6.50538635 3.14767337 -2.49513626  1078994004
-2.49513626 0.96988094 6.28884459  1064847902
6.17069387 3.76170635 -2.49513626  1081546467
-2.49513626 0.96988094 5.91525078  1064847902
5.77822733 4.34050703 -2.49513626  1083038839
-2.49513626 0.96988094 5.63518286  1064847902
5.48627186 4.70411777 -2.49513626  1083791414
-2.49513626 0.96988094 5.25224733  1064847902
5.17147827 5.04813957 -2.49513626  1084502144
-2.49513626 0.96988094 4.83515167  1064847902
4.74786711 5.44845581 -2.49513626  1085327218
-2.49513626 0.96988094 4.47868824  1064847902
4.19902754 5.88184309 -2.49513626  1086217406
-2.49513626 0.96988094 4.00708008  1064847902
3.90952659 6.07811642 -2.49513626  1086990777
-2.49513626 0.96988094 3.40702105  1064847902
3.19962335 6.47999144 -2.49513626  1087640091
-2.49513626 0.96988094 2.77505875  1064847902
2.33894444 6.83792782 -2.49513626  1088159265
-2.49513626 0.96988094 2.00536394  1064847902
1.89308906 6.97453213 -2.49513626  1088594068
-2.49513626 0.96988094 1.32490802  1064847902
0.97961819 7.16018343 -2.49513626  1088789007
-2.49513626 0.96988094 0.74810225  1064847902
0.63203990 7.19919586 -2.49513626  1088859051
-2.49513626 0.96988094 6.96382046  1064859587
6.90677214 1.34626567 -2.49513626  1070121262
-2.49513626 0.97057742 6.83354712  1064859587
6.74431562 2.00752306 -2.49513626  1075132157
-2.49513626 0.97057742 6.51870584  1064859587
6.38285828 2.96227145 -2.49513626  1078208178
-2.49513626 0.97057742 6.28396463  1064859587
6.12339258 3.46698809 -2.49513626  1080307278
-2.49513626 0.97057742 6.00834990  1064859587
5.69365788 4.13499546 -2.49513626  1082605046
-2.49513626 0.97057742 5.34193230  1064859587
5.26734066 4.66594696 -2.49513626  1083878310
-2.49513626 0.97057742 5.03542042  1064859587
4.95545959 4.99593067 -2.49513626  1085022423
-2.49513626 0.97057742 4.44938946  1064859587
4.08855391 5.72709942 -2.49513626  1085889189
-2.49513626 0.97057742 3.71069622  1064859587
3.61375260 6.03793812 -2.49513626  1086642217
-2.49513626 0.97057742 3.31738615  1064859587
3.21683311 6.25842714 -2.49513626  1087274447
-2.49513626 0.97057742 2.70204949  1064859587
2.49102616 6.58108854 -2.49513626  1087625848
-2.49513626 0.97057742 2.06141806  1064859587
1.95260525 6.76041794 -2.49513626  1087983667
-2.49513626 0.97057742 1.62322867  1064859587
1.51255310 6.87227106 -2.49513626  1088248855
-2.49513626 0.97057742 1.06620049  1064859587
0.84124297 6.98628902 -2.49513626  1088419689
-2.49513626 0.97057742 0.61541098  1064859587
0.50224096 7.01880980 -2.49513626  1068875927
-2.49513626 0.97124052 6.63010979  1064870711
6.57042837 1.95576441 -2.49513626  1073999827
-2.49513626 0.97124046 6.43062496  1064870711
6.35064077 2.58165789 -2.49513626  1076609796
-2.49513626 0.97124052 6.26404142  1064870712
6.21829224 2.88589835 -2.49513626  1077876751
-2.49513626 0.97124046 6.07138062  1064870712
5.96551561 3.37760115 -2.49513626  1080319783
-2.49513626 0.97124046 5.79511166  1064870711
5.73527098 3.75529408 -2.49513626  1081490117
-2.49513626 0.97124046 5.61112881  1064870712
5.48115158 4.11735058 -2.49513626  1082560854
-2.49513626 0.97124052 5.34546185  1064870711
5.20420408 4.46226549 -2.49513626  1083274736
-2.49513626 0.97124052 4.98221064  1064870712
4.82769823 4.86712694 -2.49513626  1084110934
-2.49513626 0.97124052 4.58656073  1064870712
4.50376463 5.16833401 -2.49513626  1084731582
-2.49513626 0.97124052 4.33467245  1064870712
4.07263708 5.51445246 -2.49513626  1085442763
-2.49513626 0.97124046 3.89261031  1064870711
3.80106497 5.70504093 -2.49513626  1086077833
-2.49513626 0.97124052 3.42522311  1064870711
3.23185730 6.04571581 -2.49513626  1086528312
-2.49513626 0.97124046 3.03512192  1064870711
2.83522964 6.24155807 -2.49513626  1087103676
-2.49513626 0.97124046 2.42680097  1064870712
2.11375785 6.52132082 -2.49513626  1087675435
-2.49513626 0.97124046 1.58137798  1064870712
1.47355711 6.69509029 -2.49513626  1087830474
-2.49513626 0.97124046 1.25679076  1064870712
1.14789855 6.75854349 -2.49513626  1088041267
-2.49513626 0.97124046 0.59954411  1064870712
0.48929220 6.83784914 -2.49513626  1065907993
-2.49513626 0.97187251 6.57834959  1064881315
6.51391935 1.48932695 -2.49513626  1071214387
-2.49513626 0.97187251 6.30457735  1064881315
6.22986794 2.41619229 -2.49513626  1075907705
-2.49513626 0.97187251 5.96716928  1064881315
5.86704826 3.19796634 -2.49513626  1079161732
-2.49513626 0.97187251 5.76082039  1064881315
5.64859247 3.56968498 -2.49513626  1081082115
-2.49513626 0.97187251 5.46926498  1064881315
5.40662098 3.92653561 -2.49513626  1082337884
-2.49513626 0.97187251 5.21031189  1064881315
5.14214039 4.26704121 -2.49513626  1082863277
-2.49513626 0.97187251 4.85624790  1064881315
4.78156900 4.66753101 -2.49513626  1084156665
-2.49513626 0.97187251 4.30804777  1064881315
4.14101362 5.24416447 -2.49513626  1084878310
-2.49513626 0.97187251 3.96966815  1064881315
3.79419374 5.50030279 -2.49513626  1085527506
-2.49513626 0.97187251 3.52362847  1064881315
3.15014553 5.89286184 -2.49513626  1086205025
-2.49513626 0.97187251 2.95838499  1064881315
2.86133814 6.03837633 -2.49513626  1086592220
-2.49513626 0.97187251 2.46596003  1064881315
2.26431632 6.28666162 -2.49513626  1087000804
-2.49513626 0.97187251 2.06031489  1064881315
1.85416770 6.41960335 -2.49513626  1087265688
-2.49513626 0.97187251 1.54139817  1064881314
1.22501540 6.56875706 -2.49513626  1087557161
-2.49513626 0.97187251 1.01244986  1064881315
0.79883337 6.63408613 -2.49513626  1087701317
-2.49513626 0.97187251 6.46295404  1064891431
6.44869614 0.93576580 -2.49513626  1069148041
-2.49513626 0.97247547 6.32805872  1064891431
6.27460718 1.75802100 -2.49513626  1072559223
-2.49513626 0.97247547 6.11253595  1064891431
6.07531214 2.35624957 -2.49513626  1075645858
-2.49513626 0.97247547 5.99613142  1064891431
5.77106380 3.02591419 -2.49513626  1080324956
-2.49513626 0.97247547 5.39328098  1064891431
5.33357906 3.74356365 -2.49513626  1081413723
-2.49513626 0.97247547 5.21002865  1064891431
5.14621019 3.99723101 -2.49513626  1082297654
-2.49513626 0.97247547 5.01456976  1064891431
4.80736303 4.39893198 -2.49513626  1083128500
-2.49513626 0.97247547 4.35968876  1064891431
4.20116997 4.98111391 -2.49513626  1084466789
-2.49513626 0.97247547 3.95524716  1064891431
3.87118483 5.24168587 -2.49513626  1085352886
-2.49513626 0.97247547 3.07199335  1064891431
2.30676031 6.09427500 -2.49513626  1086671861
-2.49513626 0.97247547 2.00920057  1064891431
1.90893233 6.23035336 -2.49513626  1086870708
-2.49513626 0.97247547 1.60525370  1064891431
1.50315607 6.34049225 -2.49513626  1087133575
-2.49513626 0.97247547 1.19462371  1064891431
1.09111786 6.42423391 -2.49513626  1087333947
-2.49513626 0.97247547 0.56988800  1064891431
0.46509108 6.49961615 -2.49513626  1065473666
-2.49513626 0.97305131 6.21963167  1064901092
6.19757748 1.41699898 -2.49513626  1069688458
-2.49513626 0.97305131 6.12175989  1064901093
5.99840212 2.10642409 -2.49513626  1076186862
-2.49513626 0.97305131 5.37427521  1064901092
5.08311415 3.81835055 -2.49513626  1081710415
-2.49513626 0.97305131 4.89241743  1064901092
4.69025755 4.29177570 -2.49513626  1082899847
-2.49513626 0.97305131 4.32916451  1064901092
4.17670488 4.79301500 -2.49513626  1083933518
-2.49513626 0.97305131 3.77688479  1064901092
3.69388914 5.17426634 -2.49513626  1084716615
-2.49513626 0.97305131 3.52503419  1064901092
3.35250592 5.40171909 -2.49513626  1085396955
-2.49513626 0.97305131 2.81471372  1064901092
2.62933683 5.78830147 -2.49513626  1086211115
-2.49513626 0.97305131 1.96025574  1064901093
1.86243176 6.07858515 -2.49513626  1086608916
-2.49513626 0.97305131 1.36654830  1064901092
1.26620042 6.23013496 -2.49513626  1086848501
-2.49513626 0.97305137 1.06453943  1064901092
0.76003826 6.31190777 -2.49513626  1087040471
-2.49513626 0.97305131 6.15461779  1064910328
