# .PCD v0.7 - Point Cloud Data file format
VERSION 0.7
FIELDS x y z intensity
SIZE 4 4 4 4
TYPE F F F F
COUNT 1 1 1 1
WIDTH 1016
HEIGHT 1
VIEWPOINT 0 0 0 1 0 0 0
POINTS 1016
DATA ascii
-2.49513626 0.93850493 6.65635157  1064321500
7.77553988 -13.60405731 -2.49513626  3243468658
-2.49513626 0.93850493 9.25621796  1064321500
9.45857430 -12.49258900 -2.49513626  3241873497
-2.49513626 0.93850493 10.80357552  1064321500
11.16338730 -10.99582481 -2.49513626  3240954084
-2.49513626 0.93850493 11.68128014  1064321500
-8.49321365 -12.20873547 -2.49513626  3242830940
-2.49513626 0.94146234 -7.68987083  1064371117
-7.27602196 -12.97101879 -2.49513626  3243336256
-2.49513626 0.94146228 -6.64124489  1064371117
-5.99097776 -13.61234856 -2.49513626  3244082517
-2.49513626 0.94146234 -5.10248804  1064371117
-4.87691259 -14.05003643 -2.49513626  3244503620
-2.49513626 0.94146234 -4.19283676  1064371117
-3.96256399 -14.33478355 -2.49513626  3244710139
-2.49513626 0.94146234 -3.49898672  1064371117
-2.08842015 -14.72502136 -2.49513626  3245087644
-2.49513626 0.94146234 -1.61324871  1064371117
-1.37500322 -14.80868626 -2.49513626  3245163319
-2.49513626 0.94146228 -0.89750868  1064371116
-0.65838468 -14.85779285 -2.49513626  3245202703
-2.49513626 0.94146234 -0.17967710  1064371117
0.29921576 -14.86937714 -2.49513626  3245198679
-2.49513626 0.94146234 0.77779096  1064371117
1.25556445 -14.81929207 -2.49513626  3245036288
-2.49513626 0.94146234 2.91429067  1064371117
3.38232565 -14.48266983 -2.49513626  3244741188
-2.49513626 0.94146234 4.30740261  1064371117
4.76347494 -14.08890343 -2.49513626  3244305031
-2.49513626 0.94146234 5.66033983  1064371117
5.88103437 -13.66020679 -2.49513626  3243836702
-2.49513626 0.94146234 6.31778955  1064371117
6.53374195 -13.36031914 -2.49513626  3243395548
-2.49513626 0.94146234 7.17120934  1064371117
7.38005066 -12.91211605 -2.49513626  3242897240
-2.49513626 0.94146234 8.19576740  1064371117
8.39451027 -12.27681160 -2.49513626  3242197180
-2.49513626 0.94146234 8.97748375  1064371117
9.53952694 -11.41019535 -2.49513626  3241415599
-2.49513626 0.94146234 9.90193367  1064371117
10.07930946 -10.93596649 -2.49513626  3240735059
-2.49513626 0.94146234 10.59558487  1064371117
10.92610073 -10.09000683 -2.49513626  3240008388
-2.49513626 0.94146234 -7.89296865  1064416122
-7.70285082 -11.87038040 -2.49513626  3242189520
-2.49513626 0.94414485 -7.31667662  1064416123
-7.12071943 -12.22846317 -2.49513626  3242670314
-2.49513626 0.94414485 -6.52197266  1064416123
-6.31894684 -12.66140366 -2.49513626  3242995484
-2.49513626 0.94414485 -5.90802050  1064416122
-5.70023298 -12.95174026 -2.49513626  3243289437
-2.49513626 0.94414485 -3.98936129  1064416122
-2.88464808 -13.85348511 -2.49513626  3244187317
-2.49513626 0.94414490 -2.43712163  1064416122
-1.53496182 -14.06713200 -2.49513626  3244408704
-2.49513626 0.94414485 -0.62643200  1064416122
-0.17096192 -14.14951897 -2.49513626  3244451969
-2.49513626 0.94414485 0.28469241  1064416122
0.51243317 -14.14134216 -2.49513626  3244399116
-2.49513626 0.94414485 1.64798248  1064416122
1.87404609 -14.02598381 -2.49513626  3244287844
-2.49513626 0.94414485 2.54908586  1064416122
3.21818113 -13.77982235 -2.49513626  3244007067
-2.49513626 0.94414485 3.87977266  1064416122
4.31589222 -13.47639751 -2.49513626  3243592076
-2.49513626 0.94414485 5.17426252  1064416122
5.80415869 -12.90550137 -2.49513626  3242726733
-2.49513626 0.94414485 6.82319021  1064416122
7.02189493 -12.28548813 -2.49513626  3242376120
-2.49513626 0.94414490 7.60690117  1064416122
7.79802513 -11.80809307 -2.49513626  3241862511
-2.49513626 0.94414485 8.17415237  1064416122
8.35906124 -11.41780758 -2.49513626  3241298113
-2.49513626 0.94414485 9.07656574  1064416122
9.42139149 -10.55829811 -2.49513626  3240361454
-2.49513626 0.94414485 10.23994637  1064416122
10.69956017 -9.26065063 -2.49513626  3239142680
-2.49513626 0.94414485 -7.70596886  1064457126
-7.52662945 -11.19972038 -2.49513626  3241483381
-2.49513626 0.94658887 -7.16213846  1064457126
-6.60159874 -11.76872444 -2.49513626  3242064330
-2.49513626 0.94658887 -6.02566290  1064457127
-5.83048868 -12.16919613 -2.49513626  3242471186
-2.49513626 0.94658887 -5.43566561  1064457127
-5.23611641 -12.43652058 -2.49513626  3242741424
-2.49513626 0.94658887 -4.83299589  1064457126
-4.62953186 -12.67483616 -2.49513626  3242981042
-2.49513626 0.94658887 -4.21905184  1064457126
-3.59526944 -13.00607491 -2.49513626  3243310868
-2.49513626 0.94658887 -2.96309257  1064457126
-2.53771424 -13.25307369 -2.49513626  3243623210
-2.49513626 0.94658887 -1.24755251  1064457127
-1.03106880 -13.45439434 -2.49513626  3243737620
-2.49513626 0.94658887 -0.59735882  1064457127
0.05423287 -13.49374008 -2.49513626  3243760542
-2.49513626 0.94658887 0.48865241  1064457126
1.13918734 -13.44567871 -2.49513626  3243691835
-2.49513626 0.94658887 1.78706539  1064457126
2.00217366 -13.34448433 -2.49513626  3243571173
-2.49513626 0.94658887 2.43077612  1064457126
2.85686159 -13.18796253 -2.49513626  3243339042
-2.49513626 0.94658887 3.49028778  1064457126
4.32194328 -12.78298664 -2.49513626  3242865154
-2.49513626 0.94658893 5.13568020  1064457126
5.53476715 -12.30651474 -2.49513626  3242423283
-2.49513626 0.94658887 5.92812014  1064457126
6.50650358 -11.82156467 -2.49513626  3241666012
-2.49513626 0.94658887 7.25383902  1064457126
7.43609238 -11.26004219 -2.49513626  3241294022
-2.49513626 0.94658887 7.79476404  1064457126
7.97108889 -10.88786888 -2.49513626  3240894790
-2.49513626 0.94658887 8.31750011  1064457126
8.48749542 -10.49029922 -2.49513626  3240469240
-2.49513626 0.94658887 9.45976067  1064457126
10.05945873 -8.99395752 -2.49513626  3238873873
-2.49513626 0.94658893 10.34381580  1064457126
-7.36316490 -10.58432102 -2.49513626  3240955364
-2.49513626 0.94882482 -6.84352684  1064494639
-6.66670990 -11.03625965 -2.49513626  3241297479
-2.49513626 0.94882482 -6.12605953  1064494639
-5.75760412 -11.53663445 -2.49513626  3241806756
-2.49513626 0.94882482 -5.19385672  1064494639
-5.00318623 -11.88327599 -2.49513626  3242456125
-2.49513626 0.94882482 -3.23480320  1064494639
-2.83127761 -12.57886982 -2.49513626  3242892728
-2.49513626 0.94882482 -2.22062182  1064494639
-0.77809292 -12.87006664 -2.49513626  3243120701
-2.49513626 0.94882482 -0.36332533  1064494639
0.05182046 -12.89346123 -2.49513626  3243131228
-2.49513626 0.94882482 0.46691152  1064494639
0.67430329 -12.87592030 -2.49513626  3243102328
-2.49513626 0.94882482 1.08850980  1064494639
1.29521179 -12.82834053 -2.49513626  3242950279
-2.49513626 0.94882482 2.32264137  1064494639
2.72976995 -12.60128498 -2.49513626  3242779690
-2.49513626 0.94882482 3.93249416  1064494639
4.32579708 -12.14625549 -2.49513626  3242116481
-2.49513626 0.94882482 5.09854460  1064494639
5.28855133 -11.75905228 -2.49513626  3241853460
-2.49513626 0.94882482 5.85015535  1064494639
6.21705675 -11.29567814 -2.49513626  3241351961
-2.49513626 0.94882482 6.57751226  1064494639
6.75520325 -10.98231220 -2.49513626  3240774433
-2.49513626 0.94882482 7.44800758  1064494639
7.61649036 -10.40351677 -2.49513626  3240392960
-2.49513626 0.94882482 7.94749117  1064494639
8.42844105 -9.75731945 -2.49513626  3239555526
-2.49513626 0.94882482 8.88973522  1064494639
9.18580818 -9.04792786 -2.49513626  3238945218
-2.49513626 0.94882482 9.47234154  1064494641
9.61195564 -8.59385586 -2.49513626  3240356014
-2.49513626 0.95087790 -6.71873140  1064529084
-6.38189363 -10.56476784 -2.49513626  3240798349
-2.49513626 0.95087790 -5.68872070  1064529084
-5.33310652 -11.13107777 -2.49513626  3241374384
-2.49513626 0.95087790 -4.23459959  1064529084
-4.04739237 -11.66025448 -2.49513626  3241971044
-2.49513626 0.95087790 -3.47967625  1064529084
-2.90383935 -11.99627686 -2.49513626  3242240480
-2.49513626 0.95087790 -2.51610231  1064529084
-2.32122636 -12.12249088 -2.49513626  3242397211
-2.49513626 0.95087790 -1.73319650  1064529084
-1.33884776 -12.26989841 -2.49513626  3242500941
-2.49513626 0.95087790 -0.94311291  1064529084
-0.74485052 -12.32023048 -2.49513626  3242543451
-2.49513626 0.95087874 -0.34780341  1064529084
0.64549565 -12.32583714 -2.49513626  3242526086
-2.49513626 0.95087790 1.04200423  1064529084
1.23988032 -12.28029251 -2.49513626  3242413108
-2.49513626 0.95087790 2.02765775  1064529084
2.41859770 -12.10344124 -2.49513626  3242217226
-2.49513626 0.95087790 3.00017595  1064529084
3.57475400 -11.81372452 -2.49513626  3241874562
-2.49513626 0.95087790 4.32765484  1064529084
4.69756746 -11.41384029 -2.49513626  3241417565
-2.49513626 0.95087790 5.60022497  1064529084
5.77658701 -10.90751553 -2.49513626  3240637894
-2.49513626 0.95087790 7.29109859  1064529084
7.76345205 -9.59540081 -2.49513626  3239408274
-2.49513626 0.95087790 8.21770573  1064529084
8.65277576 -8.80184174 -2.49513626  3238240408
-2.49513626 0.95087790 9.46142101  1064529075
-6.75887489 -9.71568108 -2.49513626  3239914489
-2.49513626 0.95276952 -6.44257164  1064560820
-6.28188467 -10.03068924 -2.49513626  3240534150
-2.49513626 0.95276952 -5.11390066  1064560820
-4.94139147 -10.75450897 -2.49513626  3240972958
-2.49513626 0.95276952 -4.41636229  1064560820
-4.23900127 -11.05023575 -2.49513626  3241271154
-2.49513626 0.95276952 -3.88103437  1064560820
-3.51903820 -11.30014133 -2.49513626  3241521010
-2.49513626 0.95276952 -2.78448319  1064560820
-2.22581625 -11.62422466 -2.49513626  3241838955
-2.49513626 0.95276952 -1.85040879  1064560820
-0.52394086 -11.82379341 -2.49513626  3242023497
-2.49513626 0.95276952 0.23811334  1064560820
0.61896390 -11.81920910 -2.49513626  3241995364
-2.49513626 0.95276952 1.37835157  1064560820
1.94431603 -11.67461014 -2.49513626  3241821381
-2.49513626 0.95276952 2.50574255  1064560820
2.69164872 -11.52526855 -2.49513626  3241652190
-2.49513626 0.95276958 3.24499416  1064560820
3.60975814 -11.27149010 -2.49513626  3241305102
-2.49513626 0.95276952 4.14977551  1064560820
4.50448608 -10.94469833 -2.49513626  3240848984
-2.49513626 0.95276952 5.19953442  1064560820
5.37004280 -10.54701233 -2.49513626  3240581335
-2.49513626 0.95276952 5.70683193  1064560820
6.20081329 -10.08100891 -2.49513626  3240078730
-2.49513626 0.95276952 6.68032408  1064560821
6.83675909 -9.66103172 -2.49513626  3239627677
-2.49513626 0.95276952 7.14425755  1064560820
7.44435167 -9.20100021 -2.49513626  3239005705
-2.49513626 0.95276952 8.02108765  1064560820
8.43193913 -8.30537224 -2.49513626  3238179418
-2.49513626 0.95276952 8.69495964  1064560820
8.94897652 -7.74549103 -2.49513626  3237164674
-2.49513626 0.95276952 -6.49112797  1064590155
-6.34005976 -9.43409348 -2.49513626  3239612188
-2.49513626 0.95451802 -5.71974897  1064590155
-5.56086159 -9.91339302 -2.49513626  3240191371
-2.49513626 0.95451802 -4.41064644  1064590155
-4.24141264 -10.54556465 -2.49513626  3240742078
-2.49513626 0.95451802 -3.55392194  1064590155
-3.20447159 -10.90549946 -2.49513626  3241101939
-2.49513626 0.95451802 -2.85169601  1064590155
-2.31710458 -11.12786388 -2.49513626  3241320098
-2.49513626 0.95451802 -1.77710593  1064590155
-1.59611940 -11.25392818 -2.49513626  3241440087
-2.49513626 0.95451802 -1.23295939  1064590155
-0.86852169 -11.33332539 -2.49513626  3241531896
-2.49513626 0.95451802 0.04568297  1064590155
0.22868244 -11.36425114 -2.49513626  3241516463
-2.49513626 0.95451802 0.77712083  1064590155
0.95959491 -11.32597637 -2.49513626  3241472486
-2.49513626 0.95451802 1.50533569  1064590155
1.68653238 -11.24073505 -2.49513626  3241370845
-2.49513626 0.95451802 2.22731161  1064590155
2.40647721 -11.10887814 -2.49513626  3241175310
-2.49513626 0.95451802 2.94004869  1064590155
3.11644411 -10.93097878 -2.49513626  3241021935
-2.49513626 0.95451802 3.64059401  1064590155
3.98538375 -10.64496040 -2.49513626  3240635792
-2.49513626 0.95451802 4.82851219  1064590155
5.15731001 -10.12919998 -2.49513626  3240146873
-2.49513626 0.95451802 5.48075962  1064590155
5.79852152 -9.77628040 -2.49513626  3239766030
-2.49513626 0.95451802 6.26379728  1064590155
6.56592512 -9.27831554 -2.49513626  3239230994
-2.49513626 0.95451802 6.86124229  1064590155
7.00625038 -8.95047188 -2.49513626  3238879831
-2.49513626 0.95451802 7.29079247  1064590155
7.56777430 -8.48099709 -2.49513626  3237953111
-2.49513626 0.95451802 8.22528076  1064590155
8.35050869 -7.71150684 -2.49513626  3237113633
-2.49513626 0.95451802 8.59446239  1064590155
8.71312141 -7.29931879 -2.49513626  3239229878
-2.49513626 0.95613879 -5.80233860  1064617347
-5.03847837 -9.70156479 -2.49513626  3239870653
-2.49513626 0.95613879 -4.72351408  1064617347
-4.56417799 -9.93352985 -2.49513626  3240105839
-2.49513626 0.95613879 -4.24199009  1064617347
-3.75057101 -10.26839828 -2.49513626  3240502314
-2.49513626 0.95613879 -2.91267347  1064617347
-2.57192111 -10.62506485 -2.49513626  3240836311
-2.49513626 0.95613885 -1.88277030  1064617347
-1.70915198 -10.79748058 -2.49513626  3241009385
-2.49513626 0.95613879 -1.01069343  1064617347
-0.83530879 -10.89995575 -2.49513626  3241056129
-2.49513626 0.95613879 -0.30804834  1064617347
-0.13207130 -10.93111038 -2.49513626  3241076930
-2.49513626 0.95613879 0.21993801  1064617347
0.74740452 -10.90632915 -2.49513626  3241036102
-2.49513626 0.95613879 1.44777322  1064617347
1.62204218 -10.81090927 -2.49513626  3240854791
-2.49513626 0.95613879 2.31446004  1064617347
2.65724611 -10.60404968 -2.49513626  3240585718
-2.49513626 0.95613885 3.66766095  1064617347
3.83298993 -10.23791695 -2.49513626  3240214339
-2.49513626 0.95613885 4.32284212  1064617347
4.48394346 -9.97000504 -2.49513626  3239991329
-2.49513626 0.95613879 5.57679367  1064617347
5.72745275 -9.31144047 -2.49513626  3239279881
-2.49513626 0.95613879 6.59887886  1064617347
6.73834467 -8.60822201 -2.49513626  3238525519
-2.49513626 0.95613885 7.01200438  1064617347
7.14612055 -8.27282047 -2.49513626  3238166998
-2.49513626 0.95613879 7.40877104  1064617347
7.53722811 -7.91813087 -2.49513626  3237574373
-2.49513626 0.95613879 7.78826380  1064617347
7.91076088 -7.54497433 -2.49513626  3236228940
-2.49513626 0.95613879 8.37994576  1064617347
-5.00202465 -9.26361656 -2.49513626  3239410872
-2.49513626 0.95764530 -4.70118237  1064642622
-4.24087143 -9.63586426 -2.49513626  3239788297
-2.49513626 0.95764530 -3.92843747  1064642622
-3.61193013 -9.88882160 -2.49513626  3240099824
-2.49513626 0.95764530 -3.13025045  1064642622
-2.80500507 -10.14725494 -2.49513626  3240300224
-2.49513626 0.95764530 -2.47684669  1064642622
-1.97990489 -10.33996201 -2.49513626  3240517534
-2.49513626 0.95764530 -1.47834146  1064642622
-0.97333103 -10.48272419 -2.49513626  3240633172
-2.49513626 0.95764530 -0.46605355  1064642622
-0.29665872 -10.52363110 -2.49513626  3240652486
-2.49513626 0.95764530 0.21180835  1064642622
0.38124344 -10.52090645 -2.49513626  3240613883
-2.49513626 0.95764530 1.05756438  1064642622
1.22607064 -10.45617390 -2.49513626  3240556054
-2.49513626 0.95764530 1.89647758  1064642622
2.06295896 -10.32371235 -2.49513626  3240364016
-2.49513626 0.95764530 2.55901980  1064642622
2.88648129 -10.12437820 -2.49513626  3240180155
-2.49513626 0.95764530 3.37195182  1064642622
3.69130182 -9.85946846 -2.49513626  3239888827
-2.49513626 0.95764530 4.00682402  1064642622
4.31819248 -9.60145950 -2.49513626  3239607736
-2.49513626 0.95764530 4.62508059  1064642622
5.37064886 -9.05488682 -2.49513626  3238726694
-2.49513626 0.95764530 6.08142376  1064642622
6.21899176 -8.49464417 -2.49513626  3238196109
-2.49513626 0.95764530 6.88196564  1064642622
7.13490725 -7.74131346 -2.49513626  3237217177
-2.49513626 0.95764530 7.38044214  1064642622
7.50036669 -7.38778257 -2.49513626  3236463527
-2.49513626 0.95764530 7.73432922  1064642622
7.84832335 -7.01702642 -2.49513626  3235674341
-2.49513626 0.95764530 8.07017899  1064642622
-5.79701042 -8.33302689 -2.49513626  3238448624
-2.49513626 0.95904911 -5.52572155  1064666174
-5.38790083 -8.60320759 -2.49513626  3238812413
-2.49513626 0.95904911 -4.96622086  1064666174
-4.67860365 -9.00862408 -2.49513626  3239286165
-2.49513626 0.95904911 -4.08911848  1064666174
-3.93900323 -9.35568810 -2.49513626  3239489459
-2.49513626 0.95904911 -3.63574719  1064666174
-3.48268366 -9.53496552 -2.49513626  3239669716
-2.49513626 0.95904911 -3.17388940  1064666174
-3.01823926 -9.69200230 -2.49513626  3239826517
-2.49513626 0.95904911 -2.38821936  1064666174
-2.22906351 -9.90332890 -2.49513626  3240175504
-2.49513626 0.95904911 -1.10111690  1064666174
-0.93850315 -10.10761452 -2.49513626  3240227152
-2.49513626 0.95904911 -0.12263981  1064666174
0.20422693 -10.14903831 -2.49513626  3240251291
-2.49513626 0.95904911 0.53087819  1064666174
1.01971960 -10.09974289 -2.49513626  3240084142
-2.49513626 0.95904911 1.98913860  1064666174
2.14914513 -9.92097569 -2.49513626  3239979351
-2.49513626 0.95904911 2.46744919  1064666174
2.62566042 -9.80564022 -2.49513626  3239850379
-2.49513626 0.95904911 3.09604883  1064666174
3.25129199 -9.61632824 -2.49513626  3239641335
-2.49513626 0.95904911 3.71180797  1064666174
3.86344528 -9.38714314 -2.49513626  3239390712
-2.49513626 0.95904911 5.59398985  1064666174
5.72964096 -8.37949276 -2.49513626  3238302746
-2.49513626 0.95904911 5.99645376  1064666174
6.12754822 -8.09307384 -2.49513626  3237988786
-2.49513626 0.95904911 6.38493538  1064666174
6.51116514 -7.78777266 -2.49513626  3236644939
-2.49513626 0.95904911 7.11634445  1064666174
7.23197699 -7.12342405 -2.49513626  3235668339
-2.49513626 0.95904911 7.56748343  1064666174
-5.59595251 -8.04400539 -2.49513626  3238233376
-2.49513626 0.96036029 -4.79397631  1064688172
-4.65575933 -8.62233162 -2.49513626  3238880425
-2.49513626 0.96036029 -4.09118032  1064688172
-3.94729519 -8.96881390 -2.49513626  3239146945
-2.49513626 0.96036029 -3.06380939  1064688172
-2.76254988 -9.40154362 -2.49513626  3239517673
-2.49513626 0.96036029 -2.30538797  1064688172
-1.84284437 -9.62417030 -2.49513626  3239809202
-2.49513626 0.96036023 -1.06292474  1064688171
-0.90595257 -9.75704575 -2.49513626  3239878898
-2.49513626 0.96036071 -0.11838450  1064688172
0.03938311 -9.79893684 -2.49513626  3239882352
-2.49513626 0.96036029 0.66994894  1064688172
0.82725799 -9.76403427 -2.49513626  3239837118
-2.49513626 0.96036029 1.14119363  1064688172
1.29773831 -9.71270370 -2.49513626  3239775359
-2.49513626 0.96036023 1.60977888  1064688172
1.76518929 -9.63871384 -2.49513626  3239689896
-2.49513626 0.96036023 2.07460546  1064688172
2.22852635 -9.54224205 -2.49513626  3239580926
-2.49513626 0.96036029 2.53459120  1064688172
2.68666220 -9.42351151 -2.49513626  3239347800
-2.49513626 0.96036029 3.28757262  1064688172
3.58306980 -9.12043476 -2.49513626  3239051627
-2.49513626 0.96036023 4.16262245  1064688171
4.30490541 -8.80275536 -2.49513626  3238694318
-2.49513626 0.96036029 4.72491789  1064688172
4.86251783 -8.50744534 -2.49513626  3238451536
-2.49513626 0.96036029 5.39997053  1064688172
5.53091717 -8.08886147 -2.49513626  3238000096
-2.49513626 0.96036029 6.04003382  1064688172
6.16348171 -7.61788750 -2.49513626  3236991157
-2.49513626 0.96036029 6.40555716  1064688171
6.64098692 -7.20541573 -2.49513626  3235646241
-2.49513626 0.96036029 7.09095144  1064688172
7.30501652 -6.53126717 -2.49513626  3234422189
-2.49513626 0.96036029 -5.28175163  1064708762
-5.15453529 -7.94333172 -2.49513626  3238029211
-2.49513626 0.96158755 -4.89611769  1064708762
-4.76498795 -8.18295002 -2.49513626  3238350943
-2.49513626 0.96158755 -4.22846079  1064708762
-3.95348048 -8.60440254 -2.49513626  3238702023
-2.49513626 0.96158755 -3.67440605  1064708761
-3.53342056 -8.78525448 -2.49513626  3238884546
-2.49513626 0.96158755 -3.24873710  1064708762
-3.10511518 -8.94561291 -2.49513626  3239140505
-2.49513626 0.96158755 -2.22779298  1064708762
-1.78082085 -9.30023861 -2.49513626  3239394887
-2.49513626 0.96158755 -1.48046672  1064708762
-1.02714920 -9.41333389 -2.49513626  3239500722
-2.49513626 0.96158755 -0.72354549  1064708762
-0.57144141 -9.45194149 -2.49513626  3239539313
-2.49513626 0.96158755 -0.11440162  1064708762
0.79941368 -9.43539429 -2.49513626  3239475690
-2.49513626 0.96158755 1.25405884  1064708762
1.85551965 -9.28562260 -2.49513626  3239318176
-2.49513626 0.96158755 2.44928169  1064708762
2.59623432 -9.10633469 -2.49513626  3239117696
-2.49513626 0.96158755 3.03288913  1064708762
3.32012725 -8.86806107 -2.49513626  3238733977
-2.49513626 0.96158755 4.02251911  1064708762
4.29642963 -8.43839073 -2.49513626  3238312738
-2.49513626 0.96158755 4.69885540  1064708762
4.83060837 -8.14438343 -2.49513626  3238071426
-2.49513626 0.96158755 5.09032297  1064708762
5.59364796 -7.64047575 -2.49513626  3237057769
-2.49513626 0.96158755 5.95603132  1064708762
6.07378244 -7.26463413 -2.49513626  3235609148
-2.49513626 0.96158755 6.85228300  1064708762
6.95661306 -6.42427349 -2.49513626  3236994108
-2.49513626 0.96273869 -4.86162138  1064728075
-4.73601198 -7.84012747 -2.49513626  3237825186
-2.49513626 0.96273869 -4.22160625  1064728075
-4.09018755 -8.19559574 -2.49513626  3238275721
-2.49513626 0.96273869 -3.82419944  1064728075
-3.28061199 -8.55190086 -2.49513626  3238635617
-2.49513626 0.96273869 -2.86387014  1064728075
-2.44044924 -8.82845497 -2.49513626  3238984146
-2.49513626 0.96273869 -1.86720216  1064728075
-1.57752347 -9.02268314 -2.49513626  3239177430
-2.49513626 0.96273869 -0.69988519  1064728075
-0.55275494 -9.14285851 -2.49513626  3239218489
-2.49513626 0.96273869 0.47902304  1064728075
0.62622899 -9.13811970 -2.49513626  3239184278
-2.49513626 0.96273869 1.06672156  1064728075
1.21305048 -9.07887077 -2.49513626  3239112254
-2.49513626 0.96273869 1.93922055  1064728075
2.08309698 -8.91953373 -2.49513626  3238760948
-2.49513626 0.96273863 2.93371058  1064728076
3.07303238 -8.62866497 -2.49513626  3238553456
-2.49513626 0.96273869 3.48607206  1064728075
3.75697112 -8.35359573 -2.49513626  3238308898
-2.49513626 0.96273869 4.41657877  1064728075
4.54519939 -7.95226669 -2.49513626  3237587043
-2.49513626 0.96273869 4.92386627  1064728075
5.04758024 -7.64325380 -2.49513626  3236351381
-2.49513626 0.96273863 5.76126623  1064728075
5.87516594 -7.02707815 -2.49513626  3235762045
-2.49513626 0.96273863 6.09836769  1064728075
6.42123318 -6.53185797 -2.49513626  3234483093
-2.49513626 0.96273869 6.72912693  1064728075
6.82830572 -6.10505009 -2.49513626  3233796477
-2.49513626 0.96273869 7.02132607  1064728075
-5.06441164 -7.27993536 -2.49513626  3236661619
-2.49513626 0.96382046 -4.70700264  1064746223
-4.58538771 -7.59078121 -2.49513626  3237445854
-2.49513626 0.96382040 -4.08734179  1064746224
-3.96010303 -7.93494081 -2.49513626  3238125262
-2.49513626 0.96382046 -3.44121003  1064746223
-2.77278733 -8.42362022 -2.49513626  3238492555
-2.49513626 0.96382040 -2.50014353  1064746223
-1.80781579 -8.68202209 -2.49513626  3238747181
-2.49513626 0.96382046 -1.10377610  1064746223
-0.67762524 -8.84231949 -2.49513626  3238896159
-2.49513626 0.96382040 -0.24989648  1064746224
-0.10713853 -8.86759472 -2.49513626  3238913031
-2.49513626 0.96382046 0.17841928  1064746224
0.32114547 -8.86242580 -2.49513626  3238900380
-2.49513626 0.96382046 0.60631263  1064746224
0.74868125 -8.83658409 -2.49513626  3238866068
-2.49513626 0.96382046 1.03279674  1064746224
1.31584275 -8.77008438 -2.49513626  3238786769
-2.49513626 0.96382040 1.59752131  1064746224
1.73776197 -8.69631481 -2.49513626  3238702306
-2.49513626 0.96382046 2.01684880  1064746223
2.56845737 -8.48815250 -2.49513626  3238322769
-2.49513626 0.96382046 3.63748646  1064746224
3.89599776 -7.96661425 -2.49513626  3237798955
-2.49513626 0.96382046 4.15047407  1064746224
4.76726913 -7.47789240 -2.49513626  3236744750
-2.49513626 0.96382046 5.00555515  1064746223
5.12276793 -7.23898888 -2.49513626  3236231812
-2.49513626 0.96382040 5.46631336  1064746224
5.68831491 -6.80358791 -2.49513626  3235299719
-2.49513626 0.96382040 5.90441656  1064746223
6.11439180 -6.42339039 -2.49513626  3234276463
-2.49513626 0.96382046 6.41740608  1064746224
6.51511335 -6.01656055 -2.49513626  3233621497
-2.49513626 0.96382046 -4.90759373  1064763310
-4.79338312 -7.13261700 -2.49513626  3236499561
-2.49513626 0.96483886 -4.44340611  1064763310
-3.96078062 -7.62649536 -2.49513626  3237350987
-2.49513626 0.96483886 -3.46174073  1064763310
-3.33465600 -7.92028046 -2.49513626  3237945943
-2.49513626 0.96483886 -3.07792592  1064763310
-2.68693161 -8.16279507 -2.49513626  3238336970
-2.49513626 0.96483886 -2.02180338  1064763310
-1.88706589 -8.38390064 -2.49513626  3238464384
-2.49513626 0.96483886 -1.20674133  1064763310
-0.65664303 -8.56852245 -2.49513626  3238621592
-2.49513626 0.96483886 0.03453958  1064763310
0.58753890 -8.57353783 -2.49513626  3238593001
-2.49513626 0.96483886 1.00081730  1064763310
1.27509761 -8.49852276 -2.49513626  3238420901
-2.49513626 0.96483886 2.08887744  1064763310
2.35617757 -8.26432991 -2.49513626  3238195824
-2.49513626 0.96483886 2.75245810  1064763310
2.88317132 -8.09555912 -2.49513626  3238053114
-2.49513626 0.96483886 3.14231873  1064763310
3.27069139 -7.94690657 -2.49513626  3237778754
-2.49513626 0.96483886 3.65058064  1064763310
3.77536368 -7.71993876 -2.49513626  3237285779
-2.49513626 0.96483886 4.02195835  1064763310
4.50238943 -7.31978416 -2.49513626  3236102368
-2.49513626 0.96483886 5.29705429  1064763310
5.51218081 -6.59292078 -2.49513626  3234863924
-2.49513626 0.96483886 5.72159290  1064763310
5.82408333 -6.31908178 -2.49513626  3234279193
-2.49513626 0.96483886 6.02451229  1064763310
6.12240219 -6.03050518 -2.49513626  3233663996
-2.49513626 0.96483886 6.31338072  1064763310
6.40643120 -5.72785950 -2.49513626  3235573459
-2.49513626 0.96579927 -4.64874411  1064779423
-4.30932808 -7.13378334 -2.49513626  3236329657
-2.49513626 0.96579927 -4.07740927  1064779423
-3.95985365 -7.33353567 -2.49513626  3236736718
-2.49513626 0.96579927 -3.72168899  1064779423
-3.60114026 -7.51617908 -2.49513626  3237107589
-2.49513626 0.96579927 -3.35728455  1064779423
-3.23403454 -7.68128777 -2.49513626  3237544312
-2.49513626 0.96579927 -2.85938287  1064779423
-2.73297262 -7.87350225 -2.49513626  3237827540
-2.49513626 0.96579927 -2.34962583  1064779423
-2.09096026 -8.06777859 -2.49513626  3238107962
-2.49513626 0.96579927 -1.83012366  1064779423
-1.69897950 -8.15932751 -2.49513626  3238222678
-2.49513626 0.96579927 -1.30303454  1064779423
-1.17032945 -8.25175858 -2.49513626  3238327716
-2.49513626 0.96579927 -0.50295341  1064779423
-0.23485166 -8.33102608 -2.49513626  3238352628
-2.49513626 0.96579927 0.03349645  1064779423
0.30181122 -8.32886982 -2.49513626  3238332816
-2.49513626 0.96579927 0.83721852  1064779423
0.97061700 -8.27762413 -2.49513626  3238276287
-2.49513626 0.96579927 1.23662007  1064779423
1.36916077 -8.22110558 -2.49513626  3238124265
-2.49513626 0.96579927 2.02584648  1064779423
2.41382551 -7.97712994 -2.49513626  3237690798
-2.49513626 0.96579927 3.17199826  1064779423
3.41849470 -7.60099125 -2.49513626  3237048418
-2.49513626 0.96579927 3.78151178  1064779423
4.01867580 -7.30146599 -2.49513626  3236258480
-2.49513626 0.96579927 4.48025799  1064779423
4.59282494 -6.95464659 -2.49513626  3235492759
-2.49513626 0.96579927 4.92326164  1064779423
5.03089237 -6.64464474 -2.49513626  3234813391
-2.49513626 0.96579927 5.34585190  1064779423
5.44810390 -6.30708551 -2.49513626  3233689642
-2.49513626 0.96579927 6.12287712  1064779423
6.30175209 -5.45427418 -2.49513626  3232449650
-2.49513626 0.96579927 -4.61942816  1064794642
-4.40324593 -6.78556871 -2.49513626  3235885107
-2.49513626 0.96670640 -3.95740104  1064794642
-3.84330106 -7.11769199 -2.49513626  3236640137
-2.49513626 0.96670640 -3.13884687  1064794642
-3.01841140 -7.50477743 -2.49513626  3237422205
-2.49513626 0.96670640 -2.15522361  1064794642
-2.02941775 -7.83032322 -2.49513626  3237713246
-2.49513626 0.96670640 -1.77625847  1064794642
-1.26468408 -7.98956060 -2.49513626  3238012005
-2.49513626 0.96670640 -1.00679135  1064794642
-0.87743872 -8.04130554 -2.49513626  3238059723
-2.49513626 0.96670640 -0.22793940  1064794642
-0.09772579 -8.08844566 -2.49513626  3238095979
-2.49513626 0.96670640 0.16274258  1064794642
0.29292792 -8.08372974 -2.49513626  3238084441
-2.49513626 0.96670640 0.68289822  1064794642
0.81257886 -8.04811764 -2.49513626  3238038332
-2.49513626 0.96670640 1.07127702  1064794642
1.20022476 -7.99949884 -2.49513626  3237860535
-2.49513626 0.96670640 1.96622062  1064794642
2.09229279 -7.81375647 -2.49513626  3237539342
-2.49513626 0.96670640 2.59083819  1064794642
2.95780516 -7.52887058 -2.49513626  3236696739
-2.49513626 0.96670640 3.67021322  1064794642
3.78579330 -7.14844418 -2.49513626  3235953459
-2.49513626 0.96670640 4.88282013  1064794642
5.08792210 -6.28852463 -2.49513626  3234239960
-2.49513626 0.96670640 5.28775311  1064794642
5.48210001 -5.94803190 -2.49513626  3233512685
-2.49513626 0.96670640 5.67075682  1064794642
5.85354185 -5.58287954 -2.49513626  3232532322
-2.49513626 0.96670640 6.11627626  1064794642
6.20071459 -5.19457865 -2.49513626  3234751018
-2.49513626 0.96756452 -4.38227606  1064809039
-4.27672243 -6.59058952 -2.49513626  3235595522
-2.49513626 0.96756452 -3.73287225  1064809039
-3.50835896 -7.02977037 -2.49513626  3236197214
-2.49513626 0.96756452 -3.04865718  1064809038
-2.93168116 -7.28913689 -2.49513626  3236608903
-2.49513626 0.96756452 -2.57631779  1064809039
-2.33601689 -7.50128508 -2.49513626  3237239486
-2.49513626 0.96756452 -1.72521949  1064809039
-1.47754920 -7.71641874 -2.49513626  3237573847
-2.49513626 0.96756452 -0.85222787  1064809038
-0.72638029 -7.82267427 -2.49513626  3237653794
-2.49513626 0.96756452 -0.34780371  1064809039
-0.22138979 -7.85348606 -2.49513626  3237701835
-2.49513626 0.96756452 0.15806471  1064809039
0.28451115 -7.85145330 -2.49513626  3237679421
-2.49513626 0.96756452 0.53714830  1064809039
0.66327453 -7.82855892 -2.49513626  3237589853
-2.49513626 0.96756452 1.53952754  1064809039
1.66336763 -7.67850494 -2.49513626  3237270217
-2.49513626 0.96756452 1.90972304  1064809039
2.03217173 -7.58923674 -2.49513626  3236995794
-2.49513626 0.96756452 2.39623785  1064809039
2.51639342 -7.44271898 -2.49513626  3236655980
-2.49513626 0.96756452 2.87281585  1064809038
3.10676312 -7.21625185 -2.49513626  3236252187
-2.49513626 0.96756452 3.45156574  1064809039
3.56475234 -7.00134325 -2.49513626  3235786090
-2.49513626 0.96756446 3.78832245  1064809038
4.11623859 -6.69199800 -2.49513626  3235118805
-2.49513626 0.96756452 4.32956123  1064809039
4.53839350 -6.41320848 -2.49513626  3234361546
-2.49513626 0.96756452 4.84274912  1064809038
5.13581467 -5.94555855 -2.49513626  3233159625
-2.49513626 0.96756452 5.50781441  1064809038
5.59730959 -5.51329279 -2.49513626  3232597206
-2.49513626 0.96756446 5.77190971  1064809039
5.85697937 -5.23660707 -2.49513626  3232008251
-2.49513626 0.96756452 6.02254391  1064809039
-4.05298042 -6.47165489 -2.49513626  3235316409
-2.49513626 0.96837741 -3.51942229  1064822677
-3.29941440 -6.88642311 -2.49513626  3235776876
-2.49513626 0.96837741 -3.07598972  1064822677
-2.84937334 -7.08449221 -2.49513626  3236177010
-2.49513626 0.96837741 -2.61980486  1064822677
-2.50398564 -7.21380711 -2.49513626  3236436508
-2.49513626 0.96837741 -2.15275884  1064822677
-1.91576624 -7.39180517 -2.49513626  3236789889
-2.49513626 0.96837741 -1.67678499  1064822677
-1.31513023 -7.52192736 -2.49513626  3237114867
-2.49513626 0.96837741 -0.70597708  1064822677
-0.58347219 -7.61370516 -2.49513626  3237223687
-2.49513626 0.96837741 0.03068963  1064822677
0.15362699 -7.63448429 -2.49513626  3237228884
-2.49513626 0.96837741 0.76707059  1064822677
1.13300955 -7.55150700 -2.49513626  3237021820
-2.49513626 0.96837741 1.37555122  1064822677
1.73661208 -7.43593407 -2.49513626  3236759100
-2.49513626 0.96837741 1.97511947  1064822677
2.21157885 -7.30875206 -2.49513626  3236476381
-2.49513626 0.96837741 2.44574308  1064822677
2.56189060 -7.19344759 -2.49513626  3236130428
-2.49513626 0.96837741 3.13206863  1064822677
3.24378562 -6.91280174 -2.49513626  3235611264
-2.49513626 0.96837741 3.46467161  1064822677
3.57378078 -6.74811363 -2.49513626  3235254794
-2.49513626 0.96837741 3.89543700  1064822677
4.00067377 -6.50411797 -2.49513626  3234588400
-2.49513626 0.96837741 4.51075745  1064822677
4.60937071 -6.08791113 -2.49513626  3233835461
-2.49513626 0.96837741 4.80298710  1064822677
5.08401775 -5.69751978 -2.49513626  3233000829
-2.49513626 0.96837741 5.26481819  1064822677
5.35318184 -5.44540310 -2.49513626  3231899109
-2.49513626 0.96837741 5.77374887  1064822677
-4.24101257 -6.09632683 -2.49513626  3234151927
-2.49513626 0.96914852 -4.04254580  1064835619
-3.83987045 -6.35663080 -2.49513626  3234808655
-2.49513626 0.96914852 -3.52846980  1064835614
-3.20883393 -6.69737148 -2.49513626  3235480249
-2.49513626 0.96914852 -2.88172150  1064835614
-2.43524504 -7.01576662 -2.49513626  3236095402
-2.49513626 0.96914852 -2.09365940  1064835614
-1.97867215 -7.15795135 -2.49513626  3236472719
-2.49513626 0.96914852 -1.39664185  1064835614
-1.04283464 -7.35281706 -2.49513626  3236678649
-2.49513626 0.96914852 -0.20926531  1064835614
0.02984741 -7.42633915 -2.49513626  3236763314
-2.49513626 0.96914852 0.62695694  1064835614
0.86487859 -7.37586451 -2.49513626  3236662571
-2.49513626 0.96914852 1.10190499  1064835614
1.22000515 -7.32550383 -2.49513626  3236544974
-2.49513626 0.96914852 1.45522702  1064835614
1.57228601 -7.25805330 -2.49513626  3236269755
-2.49513626 0.96914852 2.03614569  1064835614
2.15086412 -7.10810471 -2.49513626  3235897074
-2.49513626 0.96914852 2.60387135  1064835614
2.82644153 -6.86749125 -2.49513626  3235530374
-2.49513626 0.96914852 3.04608321  1064835614
3.26256680 -6.67136097 -2.49513626  3235104358
-2.49513626 0.96914852 3.58088470  1064835614
3.68516374 -6.44755220 -2.49513626  3234491136
-2.49513626 0.96914852 3.99218202  1064835614
4.09248447 -6.19701052 -2.49513626  3233791997
-2.49513626 0.96914852 4.48283005  1064835614
4.76347828 -5.69742727 -2.49513626  3232846013
-2.49513626 0.96914852 5.20622015  1064835614
5.29081535 -5.21139860 -2.49513626  3231974512
-2.49513626 0.96914852 -3.83581901  1064847902
-3.73671317 -6.18585968 -2.49513626  3234322652
-2.49513626 0.96988094 -3.53561115  1064847902
-3.43367290 -6.35907173 -2.49513626  3234675616
-2.49513626 0.96988094 -3.22715783  1064847902
-3.12262893 -6.51744366 -2.49513626  3235286668
-2.49513626 0.96988094 -2.58840299  1064847902
-1.92551434 -6.96565056 -2.49513626  3236063104
-2.49513626 0.96988094 -1.35911894  1064847902
-1.24466562 -7.11889696 -2.49513626  3236263503
-2.49513626 0.96988094 -0.78391916  1064847902
-0.55220860 -7.20575905 -2.49513626  3236366496
-2.49513626 0.96988094 0.14539689  1064847902
0.26170710 -7.22214699 -2.49513626  3236360612
-2.49513626 0.96988094 0.49409568  1064847902
0.84164554 -7.17771149 -2.49513626  3236213592
-2.49513626 0.96988094 1.18723047  1064847902
1.30184984 -7.10866308 -2.49513626  3235984206
-2.49513626 0.96988094 1.86929190  1064847902
1.98144388 -6.94994879 -2.49513626  3235582933
-2.49513626 0.96988094 2.42462349  1064847902
2.64255524 -6.72642708 -2.49513626  3235240754
-2.49513626 0.96988094 3.27903223  1064847902
3.58616304 -6.27433968 -2.49513626  3234134754
-2.49513626 0.96988094 3.88493180  1064847902
4.26906872 -5.83120537 -2.49513626  3233159810
-2.49513626 0.96988094 4.81161308  1064847902
4.89780569 -5.31407595 -2.49513626  3232203085
-2.49513626 0.96988094 5.22965765  1064847902
-4.01849890 -5.77646971 -2.49513626  3233473717
-2.49513626 0.97057742 -3.73490310  1064859587
-3.63840199 -6.02311802 -2.49513626  3234095987
-2.49513626 0.97057742 -3.34334040  1064859587
-3.24321675 -6.24479580 -2.49513626  3234634886
-2.49513626 0.97057742 -2.83458519  1064859587
-2.62575483 -6.52850246 -2.49513626  3235166645
-2.49513626 0.97057742 -1.98381042  1064859587
-1.54518938 -6.86500740 -2.49513626  3235719301
-2.49513626 0.97057742 -1.21191919  1064859587
-1.10016286 -6.95022154 -2.49513626  3235836395
-2.49513626 0.97057742 -0.65057212  1064859587
-0.53768057 -7.01618338 -2.49513626  3235968149
-2.49513626 0.97057742 -0.19828574  1064859587
0.25482202 -7.03214073 -2.49513626  3235948088
-2.49513626 0.97057742 0.59406233  1064859587
0.81950301 -6.98887396 -2.49513626  3235819270
-2.49513626 0.97057742 1.26759803  1064859587
1.48979247 -6.87724113 -2.49513626  3235540025
-2.49513626 0.97057742 1.92931473  1064859586
2.03801656 -6.73516178 -2.49513626  3235279492
-2.49513626 0.97057742 2.25380158  1064859587
2.36083412 -6.62890673 -2.49513626  3235045780
-2.49513626 0.97057742 2.57303238  1064859587
2.78256679 -6.46322393 -2.49513626  3234684124
-2.49513626 0.97057742 2.98921466  1064859587
3.29331040 -6.21852350 -2.49513626  3234037536
-2.49513626 0.97057742 3.68670225  1064859587
3.78272367 -5.93354368 -2.49513626  3233539677
-2.49513626 0.97057742 4.06480408  1064859587
4.42605019 -5.47046757 -2.49513626  3232546941
-2.49513626 0.97057742 4.59988356  1064859587
4.93306494 -5.01804876 -2.49513626  3231581145
-2.49513626 0.97057742 5.09207106  1064859587
5.16960049 -4.77400923 -2.49513626  3231061447
-2.49513626 0.97057742 5.32062721  1064859587
5.39408207 -4.51883078 -2.49513626  3233027273
-2.49513626 0.97124052 -3.63860917  1064870711
-3.35383558 -5.97890806 -2.49513626  3234289163
-2.49513626 0.97124046 -2.76150298  1064870712
-2.66012454 -6.31817484 -2.49513626  3234563739
-2.49513626 0.97124052 -2.45532584  1064870711
-2.35195971 -6.43924522 -2.49513626  3234807211
-2.49513626 0.97124046 -2.14342165  1064870711
-1.82651913 -6.60752869 -2.49513626  3235300261
-2.49513626 0.97124046 -1.28924298  1064870712
-1.18067336 -6.75289297 -2.49513626  3235425349
-2.49513626 0.97124046 -0.96264285  1064870711
-0.74361581 -6.81488371 -2.49513626  3235560119
-2.49513626 0.97124046 -0.41369972  1064870711
-0.30347836 -6.84860992 -2.49513626  3235596439
-2.49513626 0.97124046 0.02755266  1064870711
0.13792042 -6.85394573 -2.49513626  3235592719
-2.49513626 0.97124046 0.35851806  1064870711
0.46869209 -6.83929014 -2.49513626  3235550825
-2.49513626 0.97124046 0.68864769  1064870712
0.90788990 -6.79495001 -2.49513626  3235406825
-2.49513626 0.97124046 1.23491907  1064870711
1.66634154 -6.64972782 -2.49513626  3235112889
-2.49513626 0.97124052 1.98547041  1064870712
2.09085298 -6.52870178 -2.49513626  3234844772
-2.49513626 0.97124052 2.60909796  1064870712
2.71082664 -6.29658747 -2.49513626  3234337133
-2.49513626 0.97124046 3.11044884  1064870711
3.20840240 -6.05819750 -2.49513626  3233707209
-2.49513626 0.97124052 3.49717379  1064870711
3.59164977 -5.83914518 -2.49513626  3233093080
-2.49513626 0.97124052 3.96000552  1064870711
4.04958344 -5.53140688 -2.49513626  3232687439
-2.49513626 0.97124046 4.22557211  1064870711
4.39718390 -5.25931311 -2.49513626  3232105148
-2.49513626 0.97124052 4.56423521  1064870711
4.64599276 -5.04086399 -2.49513626  3231477762
-2.49513626 0.97124046 4.88396931  1064870711
5.18344831 -4.48636103 -2.49513626  3230457817
-2.49513626 0.97124046 -3.81591296  1064881315
-3.63733554 -5.60526848 -2.49513626  3233101867
-2.49513626 0.97187251 -3.45497847  1064881315
-3.26904082 -5.82774544 -2.49513626  3233555934
-2.49513626 0.97187251 -3.07971501  1064881315
-2.98384333 -5.97879028 -2.49513626  3233863027
-2.49513626 0.97187251 -2.78980064  1064881315
-2.69168425 -6.11588669 -2.49513626  3234226511
-2.49513626 0.97187251 -2.19114661  1064881314
-2.08922935 -6.34699678 -2.49513626  3234604903
-2.49513626 0.97187251 -1.78033841  1064881315
-1.67641497 -6.46829796 -2.49513626  3234845321
-2.49513626 0.97187251 -1.46729231  1064881314
-1.36214781 -6.54169798 -2.49513626  3234988619
-2.49513626 0.97187251 -1.15082216  1064881315
-1.04470003 -6.59983635 -2.49513626  3235129689
-2.49513626 0.97187251 -0.72481495  1064881314
-0.51057512 -6.66247416 -2.49513626  3235224923
-2.49513626 0.97187251 0.02685617  1064881315
0.24197535 -6.67762661 -2.49513626  3235219484
-2.49513626 0.97187251 0.56411225  1064881315
0.88493645 -6.62315130 -2.49513626  3235083548
-2.49513626 0.97187251 1.30936217  1064881315
1.72835433 -6.45461416 -2.49513626  3234701669
-2.49513626 0.97187251 1.93527198  1064881315
2.03799009 -6.36363316 -2.49513626  3234500443
-2.49513626 0.97187245 2.24181628  1064881315
2.34287143 -6.25781012 -2.49513626  3234268243
-2.49513626 0.97187251 2.54313231  1064881315
2.64228821 -6.13738680 -2.49513626  3233911434
-2.49513626 0.97187251 2.93554139  1064881315
3.12728214 -5.90502834 -2.49513626  3233391636
-2.49513626 0.97187251 3.50084281  1064881315
3.68227386 -5.57585049 -2.49513626  3232664190
-2.49513626 0.97187251 3.94719768  1064881315
4.20291662 -5.19468307 -2.49513626  3231830080
-2.49513626 0.97187251 4.60704899  1064881315
4.68437243 -4.76507139 -2.49513626  3231059083
-2.49513626 0.97187251 4.83536339  1064881315
4.98133564 -4.45371151 -2.49513626  3230396178
-2.49513626 0.97187251 -3.54709625  1064891431
-3.45862746 -5.52261019 -2.49513626  3232922503
-2.49513626 0.97247547 -3.27902937  1064891431
-3.18794060 -5.68316507 -2.49513626  3233250029
-2.49513626 0.97247547 -2.81556749  1064891431
-2.72058892 -5.92112541 -2.49513626  3233733218
-2.49513626 0.97247547 -2.33387351  1064891431
-2.23561954 -6.12072992 -2.49513626  3234272974
-2.49513626 0.97247547 -1.83706415  1064891431
-1.53305721 -6.33333063 -2.49513626  3234557469
-2.49513626 0.97247547 -1.22547162  1064891431
-1.12227166 -6.41886711 -2.49513626  3234755604
-2.49513626 0.97247547 -0.81103718  1064891431
-0.28846705 -6.50984859 -2.49513626  3234885582
-2.49513626 0.97247547 -0.07872553  1064891431
0.13109821 -6.51491690 -2.49513626  3234882045
-2.49513626 0.97247547 0.34078377  1064891431
0.44550917 -6.50098848 -2.49513626  3234842223
-2.49513626 0.97247547 0.65458405  1064891431
0.75888175 -6.47189426 -2.49513626  3234770638
-2.49513626 0.97247547 0.96685791  1064891431
1.17383158 -6.40963793 -2.49513626  3234481153
-2.49513626 0.97247547 1.68547606  1064891431
1.78660011 -6.26653004 -2.49513626  3233944676
-2.49513626 0.97247547 2.67276263  1064891431
2.86271405 -5.85373449 -2.49513626  3233301981
-2.49513626 0.97247547 3.14201784  1064891431
3.50290942 -5.49462986 -2.49513626  3232380409
-2.49513626 0.97247547 4.01655531  1064891431
4.17967701 -4.99916267 -2.49513626  3231123609
-2.49513626 0.97247547 4.56815720  1064891431
4.64238453 -4.57270050 -2.49513626  3230657133
-2.49513626 0.97247547 4.92705154  1064891431
4.99507284 -4.18456507 -2.49513626  3232170238
-2.49513626 0.97305131 -3.54610276  1064901092
-3.37437606 -5.38808298 -2.49513626  3232853605
-2.49513626 0.97305131 -3.02061081  1064901092
-2.83893633 -5.68843508 -2.49513626  3233249296
-2.49513626 0.97305131 -2.65431666  1064901092
-2.46694827 -5.85935593 -2.49513626  3233595129
-2.49513626 0.97305131 -1.39603496  1064901092
-1.29599512 -6.22400570 -2.49513626  3234426017
-2.49513626 0.97305137 -0.58777291  1064901092
-0.38365829 -6.34591722 -2.49513626  3234557150
-2.49513626 0.97305131 0.12790586  1064901092
0.33248228 -6.34880400 -2.49513626  3234490683
-2.49513626 0.97305131 1.04440773  1064901092
1.14523935 -6.25350189 -2.49513626  3234299648
-2.49513626 0.97305131 1.54533303  1064901092
1.93901634 -6.05459166 -2.49513626  3233711716
-2.49513626 0.97305137 2.32465935  1064901092
2.51396823 -5.83933210 -2.49513626  3233106743
-2.49513626 0.97305131 2.97540951  1064901092
3.15475273 -5.51954556 -2.49513626  3232351000
-2.49513626 0.97305131 3.58840394  1064901092
3.67243099 -5.18951941 -2.49513626  3231983275
-2.49513626 0.97305131 3.83760786  1064901092
3.99880600 -4.94240904 -2.49513626  3231454091
-2.49513626 0.97305131 4.30860567  1064901092
4.45687962 -4.53366089 -2.49513626  3230581523
-2.49513626 0.97305131 4.67058325  1064901092
4.80703068 -4.16056681 -2.49513626  3229787370
-2.49513626 0.97305131 -3.46123862  1064910328
-3.12259293 -5.36245108 -2.49513626  3232774422
-2.49513626 0.97360182 -2.68124175  1064910328
-2.59079528 -5.63863897 -2.49513626  3233136499
-2.49513626 0.97360182 -2.22252965  1064910328
-2.03484511 -5.86224174 -2.49513626  3233711189
-2.49513626 0.97360182 -1.45991743  1064910328
-1.36262488 -6.05390263 -2.49513626  3234006844
-2.49513626 0.97360182 -0.87137288  1064910329
-0.67311138 -6.16874313 -2.49513626  3234183315
-2.49513626 0.97360182 -0.17485958  1064910328
-0.07496858 -6.20490503 -2.49513626  3234238945
-2.49513626 0.97360182 0.12484384  1064910328
0.32452658 -6.19686651 -2.49513626  3234208601
-2.49513626 0.97360182 0.52387220  1064910328
0.62335402 -6.17396975 -2.49513626  3234124422
-2.49513626 0.97360182 0.92072934  1064910328
1.01941383 -6.12105131 -2.49513626  3234026164
-2.49513626 0.97360182 1.21596003  1064910328
1.31377292 -6.06469059 -2.49513626  3233898040
-2.49513626 0.97360182 1.70136476  1064910328
1.98751307 -5.87845755 -2.49513626  3233484784
-2.49513626 0.97360182 2.17574620  1064910328
2.26902676 -5.77563763 -2.49513626  3233259680
-2.49513626 0.97360182 2.45380473  1064910328
2.54524994 -5.65934515 -2.49513626  3233006503
-2.49513626 0.97360182 2.72613859  1064910328
2.81553698 -5.52984858 -2.49513626  3232626285
-2.49513626 0.97360182 3.07925439  1064910328
3.33579135 -5.23249149 -2.49513626  3232084747
-2.49513626 0.97360182 3.58454514  1064910328
3.74576783 -4.94729137 -2.49513626  3231472878
-2.49513626 0.97360182 3.98027253  1064910328
4.05640411 -4.69596148 -2.49513626  3230651387
-2.49513626 0.97360182 4.42090464  1064910328
4.49043894 -4.28280544 -2.49513626  3229899318
-2.49513626 0.97360182 4.75676632  1064910328
-3.46034193 -4.97413445 -2.49513626  3231885214
-2.49513626 0.97412860 -3.21613574  1064919166
-3.13303924 -5.18652201 -2.49513626  3232308308
-2.49513626 0.97412860 -2.87896085  1064919166
-2.52984500 -5.50598764 -2.49513626  3232856280
-2.49513626 0.97412860 -2.35126257  1064919166
-2.26104593 -5.62171268 -2.49513626  3233576207
-2.49513626 0.97412860 -1.33056808  1064919166
-0.94735426 -5.98485661 -2.49513626  3233806986
-2.49513626 0.97412860 -0.75417316  1064919166
-0.17074582 -6.05696535 -2.49513626  3233931966
-2.49513626 0.97412860 0.02435316  1064919166
0.12190696 -6.05814457 -2.49513626  3233924559
-2.49513626 0.97412860 0.70567447  1064919166
0.89907008 -5.99230194 -2.49513626  3233599914
-2.49513626 0.97412860 1.47286415  1064919166
1.56730425 -5.85316324 -2.49513626  3233445936
-2.49513626 0.97412860 1.75494063  1064919166
1.84808743 -5.77066231 -2.49513626  3233263465
-2.49513626 0.97412860 2.12455988  1064919166
2.48536944 -5.52619743 -2.49513626  3232729337
-2.49513626 0.97412860 2.74930573  1064919158
2.83587885 -5.35478973 -2.49513626  3232358076
-2.49513626 0.97412860 3.00681210  1064919166
3.17463017 -5.16117287 -2.49513626  3231715154
-2.49513626 0.97412860 3.65764523  1064919166
3.81128407 -4.71063662 -2.49513626  3230841927
-2.49513626 0.97412860 4.03428936  1064919166
4.17775869 -4.38888597 -2.49513626  3229995860
-2.49513626 0.97412860 4.45155621  1064919166
4.51716900 -4.03870869 -2.49513626  3229469202
-2.49513626 0.97412860 -3.38027453  1064927629
-3.22208071 -4.96534777 -2.49513626  3231746010
-2.49513626 0.97463304 -2.89583421  1064927629
-2.72812271 -5.25298595 -2.49513626  3232332464
-2.49513626 0.97463304 -2.55758214  1064927629
-2.38439012 -5.41767406 -2.49513626  3232666191
-2.49513626 0.97463304 -2.03077459  1064927629
-1.94099653 -5.59187317 -2.49513626  3233016495
-2.49513626 0.97463304 -1.75995398  1064927629
-1.48502970 -5.72985077 -2.49513626  3233417367
-2.49513626 0.97463304 -1.01944041  1064927629
-0.92543471 -5.84637213 -2.49513626  3233565614
-2.49513626 0.97463304 -0.54724699  1064927629
-0.45228577 -5.90185976 -2.49513626  3233616235
-2.49513626 0.97463304 -0.16679502  1064927629
-0.07151207 -5.91873264 -2.49513626  3233630716
-2.49513626 0.97463304 0.40468720  1064927629
0.49971098 -5.89803219 -2.49513626  3233576068
-2.49513626 0.97463304 0.68934602  1064927629
0.87826496 -5.85364485 -2.49513626  3233435790
-2.49513626 0.97463304 1.15987957  1064927629
1.25317979 -5.78498411 -2.49513626  3233106822
-2.49513626 0.97463304 1.80532479  1064927629
1.89584756 -5.60734034 -2.49513626  3232850812
