# .PCD v0.7 - Point Cloud Data file format
VERSION 0.7
FIELDS x y z intensity
SIZE 4 4 4 4
TYPE F F F F
COUNT 1 1 1 1
WIDTH 1030
HEIGHT 1
VIEWPOINT 0 0 0 1 0 0 0
POINTS 1030
DATA ascii
-3.04681969 11.19232368 -2.64753628  1093757194
-2.64753628 0.95352304 -3.76265001  1064573462
-3.93926883 10.91024113 -2.64753628  1093200381
-2.64753628 0.95352304 8.22354984  1064642622
8.11637592 6.70516634 -2.49513626  1088076504
-2.49513626 0.95764530 7.78227139  1064642622
7.66680956 7.21490526 -2.49513626  1089130128
-2.49513626 0.95764530 7.30856133  1064642622
6.93317842 7.92249203 -2.49513626  1090668109
-2.49513626 0.95764530 6.54153299  1064642622
6.40753603 8.35334587 -2.49513626  1091649827
-2.64753628 0.95511723 6.36186028  1064600208
6.21281481 9.28378201 -2.64753628  1092070393
-2.64753628 0.95511723 5.60083342  1064600208
4.63991165 10.16163635 -2.64753628  1092862823
-2.64753628 0.95511723 4.14256907  1064600208
3.97457242 10.43984699 -2.64753628  1093323506
-2.64753628 0.95511723 2.94638777  1064600208
2.59703374 10.86476135 -2.64753628  1093565432
-2.64753628 0.95511723 2.06804943  1064600208
1.89057779 11.00969124 -2.64753628  1093732906
-2.64753628 0.95511723 1.35539353  1064600208
0.99676955 11.12627792 -2.64753628  1093812531
-2.64753628 0.95511723 0.63709921  1064600209
-0.26414564 11.16771412 -2.64753628  1093834635
-2.64753628 0.95511723 -0.80444378  1064600208
-1.16367424 11.11006165 -2.64753628  1093758963
-2.64753628 0.95511723 -1.70012581  1064600208
-1.87812173 11.01182461 -2.64753628  1093643876
-2.64753628 0.95511723 -2.23259377  1064600208
-2.40898085 10.90799904 -2.64753628  1093526032
-2.64753628 0.95511723 -2.93419433  1064600208
-3.28059125 10.67826557 -2.64753628  1093147759
-2.64753628 0.95511723 -3.96275902  1064600208
-4.13083172 10.37901115 -2.64753628  1092942279
-2.64753628 0.95511723 -4.46370697  1064600208
-4.62841749 10.16687870 -2.64753628  1092711445
-2.64753628 0.95511723 7.82594395  1064666174
7.61317205 6.71448183 -2.49513626  1088331151
-2.49513626 0.95904911 7.16405582  1064666174
7.04703712 7.30643177 -2.49513626  1089533570
-2.49513626 0.95904911 6.68508577  1064666174
6.56090546 7.74591351 -2.49513626  1090206164
-2.49513626 0.95904911 6.30745602  1064666174
6.04743147 8.15311146 -2.49513626  1090879821
-2.49513626 0.95904911 5.55014372  1064625134
5.40042019 9.31945515 -2.64753628  1091992726
-2.64753628 0.95660293 5.09677553  1064625134
4.94294405 9.56995869 -2.64753628  1092247617
-2.64753628 0.95660293 4.63145590  1064625134
3.99433494 10.00310326 -2.64753628  1092809899
-2.64753628 0.95660293 2.84095502  1064625134
2.67287827 10.43419743 -2.64753628  1093156242
-2.64753628 0.95660299 2.16463852  1064625134
1.65133035 10.64377213 -2.64753628  1093361974
-2.64753628 0.95660293 0.96110356  1064625134
0.78780746 10.74225903 -2.64753628  1093406374
-2.64753628 0.95660293 0.26686823  1064625134
0.09302322 10.77070618 -2.64753628  1093424440
-2.64753628 0.95660293 -0.25469357  1064625134
-0.42847174 10.76258373 -2.64753628  1093395434
-2.64753628 0.95660293 -1.46723688  1064625134
-1.63929105 10.64563370 -2.64753628  1093263987
-2.64753628 0.95660293 -2.15270448  1064625134
-2.32278061 10.51767540 -2.64753628  1093118262
-2.64753628 0.95660293 -2.66107297  1064625134
-2.99659061 10.34587955 -2.64753628  1092871792
-2.64753628 0.95660293 -3.49390435  1064625134
-3.65790343 10.13096714 -2.64753628  1092690224
-2.64753628 0.95660293 -3.98301935  1064625134
-4.14404106 9.94201756 -2.64753628  1092409700
-2.64753628 0.95660293 -4.62045574  1064625134
7.55451298 6.24099827 -2.49513626  1088300873
-2.49513626 0.96036023 6.80261898  1064688172
6.57141352 7.26892185 -2.49513626  1089422768
-2.49513626 0.96036029 6.21182775  1064688171
6.08868694 7.67780018 -2.49513626  1090047342
-2.49513626 0.96036029 5.19066334  1064687367
5.21311188 8.99622536 -2.64753628  1091896718
-2.64753628 0.95799071 4.47082233  1064648417
4.31871223 9.45818806 -2.64753628  1092119865
-2.64753628 0.95799071 4.01116180  1064648417
3.69942951 9.71714115 -2.64753628  1092495428
-2.64753628 0.95799071 3.06472778  1064648417
2.90395308 9.98376846 -2.64753628  1092646961
-2.64753628 0.95799071 2.58017325  1064648417
2.25370002 10.15034199 -2.64753628  1092810596
-2.64753628 0.95799071 1.92488456  1064648416
1.42799783 10.29900169 -2.64753628  1092952481
-2.64753628 0.95799071 1.09481227  1064648417
0.92776901 10.35605335 -2.64753628  1093003831
-2.64753628 0.95799065 0.59299743  1064648417
0.25761461 10.39433670 -2.64753628  1093032626
-2.64753628 0.95799065 -0.07804024  1064648417
-0.24586000 10.39462090 -2.64753628  1093024403
-2.64753628 0.95799065 -0.74875563  1064648417
-0.91605771 10.35709667 -2.64753628  1092973716
-2.64753628 0.95799065 -1.24989223  1064648417
-1.41634774 10.30061054 -2.64753628  1092877837
-2.64753628 0.95799065 -2.24221945  1064648417
-2.73107243 10.03243923 -2.64753628  1092552286
-2.64753628 0.95799071 -3.21352601  1064648416
-3.37272477 9.83530998 -2.64753628  1092385077
-2.64753628 0.95799065 -3.68843365  1064648416
-4.00030899 9.59719372 -2.64753628  1092124800
-2.64753628 0.95799071 7.49111271  1064708762
7.30024338 6.03093815 -2.49513626  1087115913
-2.49513626 0.96158755 6.89587975  1064708762
6.68281603 6.70863008 -2.49513626  1088255892
-2.49513626 0.96158755 6.12018156  1064708762
5.51770020 7.69550037 -2.49513626  1090245563
-2.49513626 0.96158755 5.00965834  1064708762
4.87929678 8.11530876 -2.49513626  1090721426
-2.49513626 0.96158755 4.61479473  1064708762
4.48072672 8.34199333 -2.49513626  1091568003
-2.64753628 0.95928973 4.02527714  1064670211
3.72601748 9.33115196 -2.64753628  1092035869
-2.64753628 0.95928973 3.26994801  1064670211
2.96157527 9.60118103 -2.64753628  1092246816
-2.64753628 0.95928973 2.65011644  1064670211
2.49332857 9.73328972 -2.64753628  1092377396
-2.64753628 0.95928973 2.17784524  1064670211
1.86009681 9.87388802 -2.64753628  1092514089
-2.64753628 0.95928973 1.54040337  1064670211
1.37993407 9.95235634 -2.64753628  1092607502
-2.64753628 0.95928973 0.73488790  1064670211
0.57303947 10.03121281 -2.64753628  1092657251
-2.64753628 0.95928973 0.08677685  1064670211
-0.23758572 10.04475975 -2.64753628  1092657732
-2.64753628 0.95928973 -0.56169659  1064670211
-0.72355396 10.02148151 -2.64753628  1092567865
-2.64753628 0.95928973 -1.68926966  1064670211
-1.84892333 9.87598610 -2.64753628  1092453510
-2.64753628 0.95928973 -2.16675091  1064670211
-2.48231840 9.73610306 -2.64753628  1092201507
-2.64753628 0.95928973 -3.10536504  1064670211
-3.41218829 9.45042992 -2.64753628  1091855104
-2.64753628 0.95928973 -4.01486397  1064670211
-4.31007957 9.07616806 -2.64753628  1085491629
-2.49513626 0.96273869 7.06152105  1064728075
6.86953115 6.05862617 -2.49513626  1086906095
-2.49513626 0.96273869 6.35869455  1064728075
6.14257717 6.79456902 -2.49513626  1088197150
-2.49513626 0.96273869 5.92004871  1064728074
5.57476854 7.26769161 -2.49513626  1089170005
-2.49513626 0.96273869 5.21641970  1064728075
4.97067261 7.69349146 -2.49513626  1090042409
-2.49513626 0.96273869 4.59241486  1064728075
4.33420324 8.06920528 -2.49513626  1090733899
-2.49513626 0.96273869 3.93850660  1064728075
3.45801163 9.08302021 -2.64753628  1091711956
-2.64753628 0.96050835 3.16301894  1064690656
3.01426840 9.23976612 -2.64753628  1091868786
-2.64753628 0.96050829 2.71444702  1064690655
2.56345606 9.37484741 -2.64753628  1092002782
-2.64753628 0.96050829 2.25950503  1064690655
1.95320034 9.52071953 -2.64753628  1092145387
-2.64753628 0.96050829 1.64486611  1064690656
1.33481097 9.62690926 -2.64753628  1092246254
-2.64753628 0.96050835 0.86722624  1064690655
0.71085852 9.69297314 -2.64753628  1092318422
-2.64753628 0.96050829 -0.07294612  1064690655
-0.38661888 9.71131420 -2.64753628  1092305613
-2.64753628 0.96050829 -0.69989330  1064690655
-0.85627663 9.68121338 -2.64753628  1092266104
-2.64753628 0.96050829 -1.32392061  1064690656
-1.63403165 9.58065987 -2.64753628  1092147517
-2.64753628 0.96050829 -2.24881387  1064690655
-2.40114760 9.41772842 -2.64753628  1091537102
-2.64753628 0.96050829 -3.66002536  1064728075
-3.92914939 8.27400494 -2.49513626  1085117936
-2.49513626 0.96382046 6.83694077  1064746223
6.65105200 5.86593723 -2.49513626  1086267137
-2.49513626 0.96382040 6.25869513  1064746224
5.84025383 6.67361546 -2.49513626  1088313906
-2.49513626 0.96382046 5.39747000  1064746224
5.16752434 7.20710945 -2.49513626  1089029186
-2.49513626 0.96382040 4.81258535  1064746224
4.69172335 7.52551985 -2.49513626  1089833369
-2.49513626 0.96382040 3.94198775  1064746224
3.81324577 8.00655174 -2.49513626  1090650601
-2.49513626 0.96382046 3.15531373  1064746223
3.02111912 8.33777905 -2.49513626  1091559068
-2.64753628 0.96165353 2.48192835  1064709869
2.33509111 9.11557293 -2.64753628  1091727079
-2.64753628 0.96165353 1.74205077  1064709869
1.59255397 9.27416134 -2.64753628  1091903932
-2.64753628 0.96165353 0.99082112  1064709869
0.83964157 9.37236881 -2.64753628  1091981371
-2.64753628 0.96165353 0.38496298  1064709869
0.08127096 9.40955257 -2.64753628  1091989621
-2.64753628 0.96165353 -0.82904363  1064709869
-0.98023784 9.35870934 -2.64753628  1091925880
-2.64753628 0.96165353 -1.58206201  1064709869
-1.73158181 9.24921227 -2.64753628  1091798361
-2.64753628 0.96165353 -2.02923799  1064709869
-2.47165608 9.07949543 -2.64753628  1090974183
-2.49513626 0.96382046 -2.87665606  1064746223
-3.27936006 8.23962784 -2.49513626  1090713680
-2.49513626 0.96382046 -3.67438078  1064746223
-3.80418658 8.01085949 -2.49513626  1084765684
-2.49513626 0.96483886 6.35251379  1064763310
6.25826502 5.88938665 -2.49513626  1086302996
-2.49513626 0.96483886 5.96583605  1064763310
5.86521578 6.28092289 -2.49513626  1088041614
-2.49513626 0.96483886 4.77947283  1064763310
4.30868292 7.43545628 -2.49513626  1089478933
-2.49513626 0.96483886 3.81992888  1064763310
3.69517326 7.75863695 -2.49513626  1090135835
-2.49513626 0.96483886 3.44280601  1064763310
3.31525922 7.92841864 -2.49513626  1090822432
-2.49513626 0.96483886 2.13279104  1064763240
1.72751153 8.42076969 -2.49586320  1090988429
-2.49588871 0.96482843 1.54324245  1064727959
1.39797437 9.01073933 -2.64753628  1091601303
-2.64753628 0.96273178 0.52005500  1064727959
0.07875405 9.11819839 -2.64753628  1091691639
-2.64753628 0.96273178 -0.21561530  1064727959
-0.36273384 9.11131859 -2.64753628  1091654729
-2.64753628 0.96273178 -0.94988620  1064727959
-1.09614444 9.05241108 -2.64753628  1091602787
-2.64753628 0.96273178 -1.38778090  1064727959
-1.85321271 8.39144421 -2.49513626  1090896987
-2.49513626 0.96483886 -2.12311864  1064763310
-2.25725436 8.29189777 -2.49513626  1090785778
-2.49513626 0.96483886 -2.52373457  1064763310
-2.78758287 8.12896919 -2.49513626  1090555485
-2.49513626 0.96483886 -3.17781854  1064763310
-3.30628848 7.93216228 -2.49513626  1090262685
-2.49513626 0.96483886 -3.56060719  1064763310
-3.68639421 7.76281166 -2.49513626  1085089867
-2.49513626 0.96579927 5.68823719  1064779423
5.38669252 6.35961580 -2.49513626  1087259517
-2.49513626 0.96579927 5.17860079  1064779422
5.07251978 6.61291981 -2.49513626  1087946276
-2.49513626 0.96579927 4.74645519  1064779423
4.52284861 7.00035763 -2.49513626  1088573831
-2.49513626 0.96579927 4.29452372  1064779423
4.17867041 7.21109343 -2.49513626  1089398523
-2.49513626 0.96579927 3.46174741  1064779423
3.21522260 7.68918085 -2.49513626  1089973944
-2.49513626 0.96579927 2.32771850  1064779423
2.19823885 8.03920841 -2.49513626  1090596264
-2.49513626 0.96579927 1.67492688  1064779423
1.54292953 8.19026852 -2.49513626  1090743549
-2.49513626 0.96579927 1.14463997  1064779423
1.01123345 8.27275944 -2.49513626  1090834757
-2.49513626 0.96579927 0.47584328  1064778813
-0.06258272 8.33797264 -2.49629521  1090870544
-2.49609900 0.96578628 -0.33165503  1064779223
-0.46609175 8.32437801 -2.49605846  1090788156
-2.49513626 0.96579927 -1.26843095  1064779422
-1.40122759 8.21569824 -2.49513626  1090720378
-2.49513626 0.96579927 -1.66569471  1064779423
-2.18914199 8.04169083 -2.49513626  1090524606
-2.49513626 0.96579927 -2.57586050  1064779423
-2.83036637 7.83901548 -2.49513626  1089981267
-2.49513626 0.96579927 -3.20652246  1064779423
-3.33028078 7.64005089 -2.49513626  1089649354
-2.49513626 0.96579927 -3.57515931  1064779423
6.31855869 5.05057764 -2.49513626  1084546162
-2.49513626 0.96670640 6.06665897  1064794642
5.97949982 5.44775820 -2.49513626  1085367526
-2.49513626 0.96670640 5.80054045  1064794642
5.52081776 5.91211224 -2.49513626  1086325691
-2.49513626 0.96670640 5.32710123  1064794642
5.02618122 6.33798075 -2.49513626  1087528203
-2.49513626 0.96670640 4.60675573  1064794642
4.49882793 6.72257805 -2.49513626  1088137290
-2.49513626 0.96670640 3.82764888  1064794642
3.71212029 7.18697882 -2.49513626  1088937705
-2.49513626 0.96670640 3.47819519  1064794642
3.35985780 7.35825014 -2.49513626  1089284917
-2.49513626 0.96670640 3.12059164  1064794642
2.99972105 7.51226854 -2.49513626  1089595683
-2.49513626 0.96670640 2.63255024  1064794642
2.38428831 7.72966242 -2.49513626  1090105049
-2.49513626 0.96670640 1.88056707  1064794642
1.62563026 7.92400265 -2.49513626  1090532024
-2.49513626 0.96670640 0.98147124  1064794642
0.85173911 8.04406738 -2.49513626  1090589682
-2.49513626 0.96670640 0.46133795  1064794642
0.33092597 8.08226395 -2.49513626  1090609796
-2.49513626 0.96670640 0.06986257  1064794642
-0.19127180 8.08677292 -2.49513626  1090605687
-2.49513626 0.96670640 -0.45220572  1064794642
-0.58251458 8.06803322 -2.49513626  1090579418
-2.49513626 0.96670640 -0.84264171  1064794642
-0.97238785 8.03037739 -2.49513626  1090533336
-2.49513626 0.96670640 -1.23109615  1064794642
-1.35998511 7.97389030 -2.49513626  1090363508
-2.49513626 0.96670640 -1.99844778  1064794642
-2.12471008 7.80500555 -2.49513626  1090036048
-2.49513626 0.96670640 -2.62389946  1064794642
-2.86951566 7.56296062 -2.49513626  1089399987
-2.49513626 0.96670640 -3.35153198  1064794642
-3.46993303 7.30698776 -2.49513626  1083820216
-2.49513626 0.96756452 6.13700008  1064809039
5.97545767 5.10099649 -2.49513626  1084838324
-2.49513626 0.96756452 5.54474115  1064809039
5.45417166 5.65493345 -2.49513626  1086314416
-2.49513626 0.96756452 4.68051100  1064809039
4.36955833 6.52941275 -2.49513626  1087997739
-2.49513626 0.96756446 3.60545731  1064809039
3.49230862 7.03775787 -2.49513626  1088729792
-2.49513626 0.96756452 3.14753175  1064809039
2.91352725 7.29641199 -2.49513626  1089140140
-2.49513626 0.96756452 2.19429374  1064809038
1.94963586 7.61085987 -2.49513626  1089766872
-2.49513626 0.96756452 1.70294619  1064809039
1.45448697 7.72079754 -2.49513626  1090062187
-2.49513626 0.96756452 0.95326996  1064809039
0.70104271 7.82526588 -2.49513626  1090204527
-2.49513626 0.96756452 -0.05896795  1064809039
-0.18577570 7.85440969 -2.49513626  1090175543
-2.49513626 0.96756452 -1.07022524  1064809039
-1.19572282 7.76508331 -2.49513626  1089983781
-2.49513626 0.96756452 -1.81788635  1064809038
-1.94102657 7.61305952 -2.49513626  1089567850
-2.49513626 0.96756452 -2.30728507  1064809039
-2.54850483 7.43178129 -2.49513626  1089146762
-2.49513626 0.96756452 -2.90527058  1064809039
-3.02272367 7.25185490 -2.49513626  1088845762
-2.49513626 0.96756452 -3.25522971  1064809038
-3.37022853 7.09702921 -2.49513626  1083537266
-2.49513626 0.96837741 5.88696623  1064822677
5.80769444 4.95778561 -2.49513626  1084334300
-2.49513626 0.96837741 5.64463472  1064822677
5.56088734 5.23311520 -2.49513626  1084903268
-2.49513626 0.96837741 5.38907051  1064822677
5.12087440 5.66441631 -2.49513626  1086126917
-2.49513626 0.96837741 4.54910374  1064822677
4.44951248 6.20570660 -2.49513626  1086905060
-2.49513626 0.96837741 4.24688148  1064822677
3.50423336 6.78449059 -2.49513626  1088086706
-2.49513626 0.96837741 3.05916047  1064822677
2.83172750 7.09156227 -2.49513626  1088707829
-2.49513626 0.96837741 2.36825061  1064822677
2.01405597 7.36563110 -2.49513626  1089254840
-2.49513626 0.96837741 1.77524805  1064822677
1.17068970 7.54575586 -2.49513626  1089603988
-2.49513626 0.96837741 0.92650622  1064822677
0.80404043 7.59358072 -2.49513626  1089729674
-2.49513626 0.96837741 0.31239164  1064822677
0.18919556 7.63368559 -2.49513626  1089751260
-2.49513626 0.96837741 -0.30375916  1064822677
-0.54989326 7.61620331 -2.49513626  1089639612
-2.49513626 0.96837741 -1.04017937  1064822677
-1.28382611 7.52733374 -2.49513626  1089482270
-2.49513626 0.96837741 -1.64670467  1064822677
-1.88653195 7.39932156 -2.49513626  1089193443
-2.49513626 0.96837741 -2.12439036  1064822677
-2.24250722 7.29932308 -2.49513626  1088971708
-2.49513626 0.96837741 -2.47695494  1064822677
-2.59322143 7.18221092 -2.49513626  1088620615
-2.49513626 0.96837741 -2.93785882  1064822677
-3.05124831 6.99991846 -2.49513626  1088207515
-2.49513626 0.96837741 5.80095339  1064835614
5.72535467 4.72987604 -2.49513626  1083853615
-2.49513626 0.96914852 5.56968927  1064835614
5.40822744 5.08944941 -2.49513626  1084596852
-2.49513626 0.96914852 5.06856298  1064835614
4.70777130 5.74354410 -2.49513626  1085944709
-2.49513626 0.96914852 4.42421770  1064835614
4.13029146 6.17187738 -2.49513626  1087341413
-2.49513626 0.96914852 3.40802979  1064835614
2.75398922 6.89687586 -2.49513626  1088296967
-2.49513626 0.96914852 2.30323434  1064835614
1.95876384 7.16342163 -2.49513626  1088889376
-2.49513626 0.96914852 1.60969782  1064835614
1.25685835 7.31926727 -2.49513626  1089131989
-2.49513626 0.96914852 0.42354697  1064835614
0.30381727 7.42018223 -2.49513626  1089311329
-2.49513626 0.96914852 -0.29542008  1064835614
-0.53479606 7.40711784 -2.49513626  1089255550
-2.49513626 0.96914852 -0.77361488  1064835614
-1.01162171 7.35717535 -2.49513626  1089094414
-2.49513626 0.96914852 -1.48423326  1064835614
-1.60149634 7.25166082 -2.49513626  1088893465
-2.49513626 0.96914852 -1.95065773  1064835614
-2.18094397 7.09893370 -2.49513626  1088390511
-2.49513626 0.96914852 -2.63445044  1064835614
-2.74618769 6.89998960 -2.49513626  1088117295
-2.49513626 0.96914852 -2.96748161  1064835614
-3.18568254 6.70841312 -2.49513626  1083012416
-2.49513626 0.96988094 5.64511108  1064847902
5.57154226 4.60280609 -2.49513626  1084128430
-2.49513626 0.96988094 5.18230629  1064847902
5.10032177 5.12002087 -2.49513626  1084818949
-2.49513626 0.96988094 4.84649515  1064847902
4.75932693 5.43844652 -2.49513626  1085463315
-2.49513626 0.96988094 4.39849424  1064847902
4.30536032 5.80446148 -2.49513626  1086058816
-2.49513626 0.96988094 4.11575699  1064847902
3.92186189 6.07016420 -2.49513626  1086602981
-2.49513626 0.96988094 3.72387600  1064847902
3.62341857 6.25289774 -2.49513626  1086976052
-2.49513626 0.96988094 3.41968775  1064847902
3.10748124 6.52467918 -2.49513626  1087528484
-2.49513626 0.96988094 2.57131910  1064847902
2.46196294 6.79460335 -2.49513626  1088072624
-2.49513626 0.96988094 2.24135804  1064847902
2.13016391 6.90581608 -2.49513626  1088294590
-2.49513626 0.96988094 1.68013024  1064847902
1.56645322 7.05507803 -2.49513626  1088588492
-2.49513626 0.96988094 1.33790815  1064847902
0.87686360 7.17349339 -2.49513626  1088837248
-2.49513626 0.96988094 0.41216865  1064847902
0.17905863 7.22466803 -2.49513626  1088897277
-2.49513626 0.96988094 -0.17088564  1064847902
-0.40400863 7.21558571 -2.49513626  1088858355
-2.49513626 0.96988094 -0.63671070  1064847901
-0.75283086 7.18756866 -2.49513626  1088787799
-2.49513626 0.96988094 -1.21503580  1064847902
-1.78544998 7.00286055 -2.49513626  1088365536
-2.49513626 0.96988094 -2.01056314  1064847902
-2.12235141 6.90822077 -2.49513626  1088155680
-2.49513626 0.96988094 -2.34423757  1064847902
-2.45427394 6.79738379 -2.49513626  1087912034
-2.49513626 0.96988094 -2.78044629  1064847902
-2.88775945 6.62485695 -2.49513626  1082955791
-2.49513626 0.97057742 5.20164537  1064859587
5.12447071 4.82242060 -2.49513626  1084196800
-2.49513626 0.97057742 4.88501835  1064859587
4.80262947 5.14302349 -2.49513626  1085002445
-2.49513626 0.97057742 4.46076775  1064859587
4.37233925 5.51349163 -2.49513626  1085872011
-2.49513626 0.97057742 3.81868100  1064859587
3.72277975 5.97133541 -2.49513626  1086627876
-2.49513626 0.97057742 3.22922206  1064859587
3.02572680 6.35302305 -2.49513626  1087165769
-2.49513626 0.97057742 2.81908107  1064859587
1.96531534 6.75673485 -2.49513626  1087976408
-2.49513626 0.97057742 1.74618936  1064859587
1.30270898 6.91511965 -2.49513626  1088286090
-2.49513626 0.97057742 0.85379416  1064859587
0.17434753 7.03459597 -2.49513626  1088498420
-2.49513626 0.97057742 -0.50673681  1064859587
-0.84589261 6.98572636 -2.49513626  1088361414
-2.49513626 0.97057742 -1.29488218  1064859587
-1.51746929 6.87118578 -2.49513626  1088041514
-2.49513626 0.97057742 -1.84831131  1064859587
-2.28256392 6.65626287 -2.49513626  1087621934
-2.49513626 0.97057742 -2.49622869  1064859587
-3.01853848 6.35644102 -2.49513626  1082535792
-2.49513626 0.97124046 5.35487986  1064870711
5.21392632 4.45090818 -2.49513626  1083424147
-2.49513626 0.97124046 4.91586733  1064870712
4.83809996 4.85678816 -2.49513626  1084406454
-2.49513626 0.97124052 4.51463747  1064870711
4.43077421 5.23104620 -2.49513626  1084860683
-2.49513626 0.97124046 3.81268740  1064870711
3.72022820 5.75808048 -2.49513626  1086295650
-2.49513626 0.97124046 3.24387288  1064870711
3.14596343 6.09085178 -2.49513626  1086620098
-2.49513626 0.97124052 2.84742618  1064870712
2.64465261 6.32466745 -2.49513626  1087177728
-2.49513626 0.97124046 2.23104572  1064870711
2.12612295 6.51729679 -2.49513626  1087479782
-2.49513626 0.97124046 1.91464567  1064870711
1.80814171 6.61257744 -2.49513626  1087668812
-2.49513626 0.97124046 1.59375024  1064870712
1.48591721 6.69235659 -2.49513626  1087869986
-2.49513626 0.97124046 1.16021240  1064870711
0.83178127 6.80468130 -2.49513626  1088079993
-2.49513626 0.97124046 -0.16209993  1064870711
-0.49367201 6.83753395 -2.49513626  1088062597
-2.49513626 0.97124046 -0.93383133  1064870711
-1.15256727 6.75774956 -2.49513626  1087872990
-2.49513626 0.97124046 -1.37010074  1064870711
-1.47834563 6.69402981 -2.49513626  1087728349
-2.49513626 0.97124052 -1.80065763  1064870712
-1.90719545 6.58469391 -2.49513626  1087414626
-2.49513626 0.97124046 -2.22371268  1064870712
-2.32809377 6.44791174 -2.49513626  1087099429
-2.49513626 0.97124052 -2.84037113  1064870711
-2.94071364 6.19255686 -2.49513626  1082313451
-2.49513626 0.97187251 5.08210087  1064881315
5.01140928 4.41984320 -2.49513626  1083345323
-2.49513626 0.97187251 4.63874769  1064881315
4.48108864 4.95672226 -2.49513626  1084287166
-2.49513626 0.97187251 4.15191412  1064881315
3.80544496 5.49252558 -2.49513626  1085512088
-2.49513626 0.97187251 3.44311023  1064881315
3.35022545 5.78145504 -2.49513626  1085978249
-2.49513626 0.97187251 3.06642485  1064881315
2.97019434 5.98558092 -2.49513626  1086489024
-2.49513626 0.97187251 2.47794056  1064881315
2.37745142 6.24475431 -2.49513626  1086992142
-2.49513626 0.97187251 2.07236886  1064881315
1.96955836 6.38514614 -2.49513626  1087258794
-2.49513626 0.97187251 1.55345392  1064881315
1.34286404 6.54568100 -2.49513626  1087589348
-2.49513626 0.97187251 0.70358586  1064881315
0.59623414 6.65535450 -2.49513626  1087717479
-2.49513626 0.97187251 0.27336332  1064881315
-0.15800145 6.68014097 -2.49513626  1087733099
-2.49513626 0.97187251 -0.58870703  1064881315
-0.69607055 6.64565516 -2.49513626  1087653396
-2.49513626 0.97187251 -0.91022176  1064881315
-1.12342834 6.58689356 -2.49513626  1087472290
-2.49513626 0.97187251 -1.44097006  1064881315
-1.54610300 6.50067663 -2.49513626  1087320618
-2.49513626 0.97187251 -2.16749263  1064881315
-2.26923275 6.28488922 -2.49513626  1086761709
-2.49513626 0.97187251 -2.76855826  1064881315
-2.86636472 6.03599310 -2.49513626  1082071171
-2.49513626 0.97247547 5.09000349  1064891431
4.95602083 4.23074436 -2.49513626  1082780953
-2.49513626 0.97247547 4.67270660  1064891431
4.52366638 4.69017792 -2.49513626  1083729688
-2.49513626 0.97247547 4.36991692  1064891431
4.29132080 4.90366173 -2.49513626  1084584813
-2.49513626 0.97247547 3.79700851  1064891431
3.62409329 5.41546631 -2.49513626  1085674677
-2.49513626 0.97247547 3.08341599  1064891431
2.99035025 5.78957081 -2.49513626  1085983082
-2.49513626 0.97247547 2.61054707  1064891431
2.41646600 6.05161238 -2.49513626  1086513121
-2.49513626 0.97247547 2.21986747  1064891431
2.02095413 6.19492340 -2.49513626  1086863553
-2.49513626 0.97247547 1.71870267  1064891431
1.61701977 6.31241465 -2.49513626  1087171140
-2.49513626 0.97247547 1.10282171  1064891431
0.99901158 6.43919945 -2.49513626  1087277866
-2.49513626 0.97247547 0.79063839  1064891431
0.58144212 6.49024296 -2.49513626  1087406852
-2.49513626 0.97247547 -0.15408164  1064891431
-0.25921467 6.51107836 -2.49513626  1087371879
-2.49513626 0.97247547 -0.57410181  1064891431
-0.67880219 6.48078346 -2.49513626  1087248170
-2.49513626 0.97247547 -1.19909739  1064891431
-1.30233002 6.38476849 -2.49513626  1086804786
-2.49513626 0.97247547 -2.11371875  1064891431
-2.21293616 6.12896776 -2.49513626  1086355475
-2.49513626 0.97247547 -2.60379386  1064891431
-2.79525352 5.88624620 -2.49513626  1082002313
-2.49513626 0.97305131 4.69953489  1064901092
4.48675966 4.50408983 -2.49513626  1083486390
-2.49513626 0.97305131 4.26346827  1064901092
4.10901451 4.85117102 -2.49513626  1084053238
-2.49513626 0.97305131 3.78743148  1064901092
3.62063599 5.22578621 -2.49513626  1084822227
-2.49513626 0.97305137 3.45006657  1064901092
3.27589893 5.44851875 -2.49513626  1085277596
-2.49513626 0.97305131 2.91750669  1064901092
2.82594943 5.69489813 -2.49513626  1085869971
-2.49513626 0.97305131 2.54695773  1064901092
2.45259786 5.86537457 -2.49513626  1086202023
-2.49513626 0.97305131 2.16579199  1064901092
2.06902862 6.01140308 -2.49513626  1086417049
-2.49513626 0.97305131 1.57763016  1064901092
1.37801087 6.20636177 -2.49513626  1086802459
-2.49513626 0.97305137 0.77137810  1064901092
0.66941702 6.32216120 -2.49513626  1087021293
-2.49513626 0.97305131 0.46499342  1064901092
-0.04771547 6.35732460 -2.49513626  1087070748
-2.49513626 0.97305131 -0.25289965  1064901092
-0.35540748 6.34756088 -2.49513626  1087039859
-2.49513626 0.97305131 -0.56011701  1064901092
-0.66226709 6.32291365 -2.49513626  1086950197
-2.49513626 0.97305131 -0.96756953  1064901092
-1.06886995 6.26700687 -2.49513626  1086846794
-2.49513626 0.97305131 -1.27060485  1064901092
-1.47101831 6.18497801 -2.49513626  1086353547
-2.49513626 0.97305137 -2.44596362  1064901092
-2.54036641 5.82789660 -2.49513626  1085876226
-2.49513626 0.97305131 -2.72716141  1064901092
4.90907669 3.79571152 -2.49513626  1081929930
-2.49513626 0.97360182 4.71957684  1064910328
4.58706617 4.17914772 -2.49513626  1082660272
-2.49513626 0.97360182 4.30785036  1064910328
4.16143656 4.60314178 -2.49513626  1083671994
-2.49513626 0.97360182 3.93372416  1064910328
3.85574365 4.86206913 -2.49513626  1084194014
-2.49513626 0.97360182 3.36750126  1064910328
3.28293014 5.26581669 -2.49513626  1084894742
-2.49513626 0.97360182 3.11124206  1064910328
3.02416992 5.41856575 -2.49513626  1085304178
-2.49513626 0.97360182 2.75831962  1064910328
2.66823506 5.60240793 -2.49513626  1085903828
-2.49513626 0.97360182 2.11396194  1064910328
1.73311043 5.95842028 -2.49513626  1086294581
-2.49513626 0.97360182 1.53987503  1064910328
1.34503412 6.05783176 -2.49513626  1086489901
-2.49513626 0.97360182 1.14879251  1064910329
0.95135033 6.13199711 -2.49513626  1086632084
-2.49513626 0.97360182 0.75291824  1064910328
0.55370283 6.18060541 -2.49513626  1086744509
-2.49513626 0.97360182 -0.04657437  1064910328
-0.14673080 6.20362234 -2.49513626  1086745103
-2.49513626 0.97360182 -0.34690139  1064910328
-0.44686538 6.18924665 -2.49513626  1086704800
-2.49513626 0.97360182 -0.74594963  1064910328
-0.94441426 6.13307095 -2.49513626  1086570160
-2.49513626 0.97360182 -1.24019706  1064910328
-1.33818126 6.05935097 -2.49513626  1086402249
-2.49513626 0.97360182 -1.53307521  1064910328
-1.72636759 5.96037912 -2.49513626  1086118264
-2.49513626 0.97360182 -2.01287723  1064910328
-2.10735917 5.83656597 -2.49513626  1085909058
-2.49513626 0.97360182 -2.29466009  1064910328
-2.38742900 5.72770929 -2.49513626  1085671319
-2.49513626 0.97360182 4.79358673  1064919166
4.73313189 3.78330731 -2.49513626  1081854113
-2.49513626 0.97412860 4.47914886  1064919166
4.34509516 4.22328472 -2.49513626  1083168205
-2.49513626 0.97412860 3.99044847  1064919166
3.68790817 4.80783892 -2.49513626  1083948119
-2.49513626 0.97412860 3.53079367  1064919166
3.45084882 4.98072481 -2.49513626  1084525241
-2.49513626 0.97412860 3.12227726  1064919166
2.86723137 5.33806753 -2.49513626  1085214519
-2.49513626 0.97412860 2.33758545  1064919166
2.24704456 5.62732458 -2.49513626  1085689139
-2.49513626 0.97412860 1.87926209  1064919166
1.69233751 5.81824398 -2.49513626  1085999265
-2.49513626 0.97412860 1.02550006  1064919166
0.92897034 5.98773813 -2.49513626  1086415205
-2.49513626 0.97412860 0.15013112  1064919166
-0.04547852 6.05920172 -2.49513626  1086445694
-2.49513626 0.97412860 -0.63121003  1064919166
-0.72840178 6.01543093 -2.49513626  1086330795
-2.49513626 0.97412860 -1.49700737  1064919166
-2.05778193 5.69925642 -2.49513626  1085548498
-2.49513626 0.97412860 -2.51057982  1064919166
-2.59927249 5.47355080 -2.49513626  1080539333
-2.49513626 0.97463304 4.56335592  1064927629
4.43928719 3.91525650 -2.49513626  1082393756
-2.49513626 0.97463304 4.17740631  1064927629
3.96950817 4.39084291 -2.49513626  1083083268
-2.49513626 0.97463304 3.82570481  1064927629
3.75229883 4.57785463 -2.49513626  1083468055
-2.49513626 0.97463304 3.52629375  1064927629
3.13151789 5.02295876 -2.49513626  1084482223
-2.49513626 0.97463304 2.88469291  1064927629
2.71634984 5.25908184 -2.49513626  1084861438
-2.49513626 0.97463304 2.28349519  1064927629
2.10603237 5.53183031 -2.49513626  1085479430
-2.49513626 0.97463304 1.83577895  1064927629
1.65317881 5.68361616 -2.49513626  1085715643
-2.49513626 0.97463304 1.46885490  1064927629
1.37610602 5.75698185 -2.49513626  1085860101
-2.49513626 0.97463304 1.18955684  1064927629
1.00177276 5.83377743 -2.49513626  1086008457
-2.49513626 0.97463304 0.71819341  1064927629
0.62326211 5.88625860 -2.49513626  1086105693
-2.49513626 0.97463304 0.43293250  1064927629
0.33758491 5.90952921 -2.49513626  1086151398
-2.49513626 0.97463304 -0.23546274  1064927629
-0.42625654 5.90379667 -2.49513626  1086087677
-2.49513626 0.97463304 -0.80630660  1064927629
-0.99517232 5.83490705 -2.49513626  1085943230
-2.49513626 0.97463304 -1.27646327  1064927629
-1.46236861 5.73567629 -2.49513626  1085665148
-2.49513626 0.97463304 -1.73830712  1064927629
-2.09977221 5.53420782 -2.49513626  1085199708
-2.49513626 0.97463304 -2.36521244  1064927629
-2.45248795 5.38718987 -2.49513626  1084955083
-2.49513626 0.97463304 4.57603884  1064935740
4.45944357 3.68407249 -2.49513626  1081105243
-2.49513626 0.97511649 4.33819771  1064935740
4.27587223 3.89562869 -2.49513626  1082607921
-2.49513626 0.97511649 3.87911701  1064935740
3.80934858 4.35291576 -2.49513626  1082998314
-2.49513626 0.97511649 3.66685319  1064935740
3.59416366 4.53221798 -2.49513626  1083367002
-2.49513626 0.97511649 3.44599533  1064935740
3.29423690 4.75468349 -2.49513626  1084035858
-2.49513626 0.97511649 2.90017033  1064935740
2.81900501 5.05096149 -2.49513626  1084693848
-2.49513626 0.97511649 2.31734991  1064935740
2.23149872 5.33661175 -2.49513626  1085078742
-2.49513626 0.97511649 1.79397559  1064935740
1.70497620 5.52739191 -2.49513626  1085442981
-2.49513626 0.97511649 1.43540788  1064935740
1.25378335 5.64685917 -2.49513626  1085662849
-2.49513626 0.97511649 0.88680977  1064935740
0.79442883 5.72956467 -2.49513626  1085782914
-2.49513626 0.97511649 0.60906965  1064935740
0.51613861 5.76130152 -2.49513626  1085869148
-2.49513626 0.97511649 -0.32336700  1064935740
-0.41654935 5.76936007 -2.49513626  1085825371
-2.49513626 0.97511649 -0.60256362  1064935740
-0.88034332 5.71699429 -2.49513626  1085699865
-2.49513626 0.97511649 -1.06442356  1064935740
-1.15606010 5.66767454 -2.49513626  1085543348
-2.49513626 0.97511649 -1.42906904  1064935740
-1.51935470 5.58127069 -2.49513626  1085337642
-2.49513626 0.97511649 -1.87632024  1064935740
-1.96439278 5.44060278 -2.49513626  1084938795
-2.49513626 0.97511649 4.47343969  1064943521
4.30075502 3.67137408 -2.49513626  1081041240
-2.49513626 0.97558028 4.11798859  1064943521
3.99075198 4.00616741 -2.49513626  1082277364
-2.49513626 0.97558028 3.85935879  1064943521
3.72394156 4.25532055 -2.49513626  1082790779
-2.49513626 0.97558028 3.51358128  1064943521
3.22037864 4.64808035 -2.49513626  1083597298
-2.49513626 0.97558028 3.06866574  1064943521
2.99159908 4.79852200 -2.49513626  1083905014
-2.49513626 0.97558028 2.83514667  1064943521
2.75580144 4.93771648 -2.49513626  1084188906
-2.49513626 0.97558028 2.59497929  1064943521
2.51354194 5.06533241 -2.49513626  1084448299
-2.49513626 0.97558028 2.34872746  1064943521
1.66674972 5.40346479 -2.49513626  1085180632
-2.49513626 0.97558028 1.40322495  1064943521
1.31461942 5.49975109 -2.49513626  1085429490
-2.49513626 0.97558028 0.77661598  1064943521
0.50456643 5.63213062 -2.49513626  1085568798
-2.49513626 0.97558028 0.04883694  1064943521
-0.31611681 5.64584541 -2.49513626  1085569774
-2.49513626 0.97558028 -0.49819663  1064943521
-0.58905363 5.62392187 -2.49513626  1085514567
-2.49513626 0.97558028 -0.77028030  1064943521
-0.86060447 5.58881569 -2.49513626  1085431757
-2.49513626 0.97558028 -1.13014090  1064943521
-1.21942830 5.52163744 -2.49513626  1085184165
-2.49513626 0.97558028 -1.57316887  1064943521
-1.66063643 5.40534544 -2.49513626  1085019964
-2.49513626 0.97558028 -2.25953078  1064943521
-2.42567658 5.10799170 -2.49513626  1079540356
-2.49513626 0.97602546 4.26317024  1064950990
4.20576429 3.59028244 -2.49513626  1080694730
-2.49513626 0.97602546 4.08767986  1064950990
4.02703238 3.78966761 -2.49513626  1081785171
-2.49513626 0.97602546 3.83886194  1064950990
3.64168930 4.16133308 -2.49513626  1082590910
-2.49513626 0.97602546 3.43597507  1064950990
3.29432893 4.44139385 -2.49513626  1083274254
-2.49513626 0.97602546 3.07546830  1064950990
2.92552114 4.69253731 -2.49513626  1084045401
-2.49513626 0.97602546 2.37774849  1064950990
2.29685068 5.03021431 -2.49513626  1084367326
-2.49513626 0.97602546 2.13328433  1064950990
2.05065584 5.13550425 -2.49513626  1084579771
-2.49513626 0.97602546 1.62993622  1064950990
1.54443085 5.30973816 -2.49513626  1084927982
-2.49513626 0.97602546 1.37223184  1064950990
1.19860351 5.39832735 -2.49513626  1085102032
-2.49513626 0.97602546 0.49342230  1064950990
0.31537867 5.52078962 -2.49513626  1085335073
-2.49513626 0.97602546 0.04775993  1064950990
-0.04150213 5.52963591 -2.49513626  1085335393
-2.49513626 0.97602546 -0.39821610  1064950990
-0.57604307 5.49970436 -2.49513626  1085254538
-2.49513626 0.97602546 -0.84159750  1064950990
-1.01757622 5.43535805 -2.49513626  1085065774
-2.49513626 0.97602546 -1.45248497  1064950990
-1.53842139 5.31148243 -2.49513626  1084827279
-2.49513626 0.97602546 -1.70907104  1064950990
-1.87793422 5.20114803 -2.49513626  1084584431
-2.49513626 0.97602546 -2.12751222  1064950990
-2.37210011 4.99517012 -2.49513626  1080633475
-2.49513626 0.97645313 3.93936729  1064958165
3.69195819 3.95363212 -2.49513626  1082157081
-2.49513626 0.97645313 3.56241274  1064958165
3.49624014 4.12771845 -2.49513626  1082515499
-2.49513626 0.97645313 3.36117601  1064958165
3.29232526 4.29212713 -2.49513626  1082961245
-2.49513626 0.97645313 3.08069181  1064958165
2.93555927 4.54359007 -2.49513626  1083368562
-2.49513626 0.97645313 2.71216917  1064958165
2.63626766 4.72354174 -2.49513626  1083735756
-2.49513626 0.97645313 2.48241973  1064958165
2.16712928 4.95633793 -2.49513626  1084208025
-2.49513626 0.97645313 2.00601459  1064958165
1.84280813 5.08584166 -2.49513626  1084468601
-2.49513626 0.97645313 1.67768335  1064958165
1.51080835 5.19414949 -2.49513626  1084775351
-2.49513626 0.97645313 1.17250872  1064958165
1.08711267 5.29904652 -2.49513626  1085002366
-2.49513626 0.97645313 0.56958687  1064958165
0.48267937 5.38783312 -2.49513626  1085076686
-2.49513626 0.97645313 0.13402683  1064958165
-0.04060114 5.40926027 -2.49513626  1085083010
-2.49513626 0.97645313 -0.21518560  1064958165
-0.30240533 5.40095282 -2.49513626  1085042070
-2.49513626 0.97645313 -0.73686981  1064958165
-0.82327759 5.34639645 -2.49513626  1084924697
-2.49513626 0.97645313 -0.99542439  1064958165
-1.08112097 5.30027533 -2.49513626  1084778327
-2.49513626 0.97645313 -1.33643126  1064958165
-1.50493193 5.19585609 -2.49513626  1084585962
-2.49513626 0.97645313 -1.75469053  1064958165
-1.91894293 5.05760956 -2.49513626  1084282055
-2.49513626 0.97645313 -2.08119726  1064958165
-2.16152287 4.95878506 -2.49513626  1084066626
-2.49513626 0.97645313 3.91286039  1064965062
3.85480738 3.62759566 -2.49513626  1081333294
-2.49513626 0.97686422 3.61270714  1064965062
3.54978895 3.92657375 -2.49513626  1082060652
-2.49513626 0.97686422 3.42119074  1064965062
3.35554600 4.09381247 -2.49513626  1082657757
-2.49513626 0.97686422 3.08440280  1064965062
3.01456380 4.35102272 -2.49513626  1082967433
-2.49513626 0.97686428 2.65395260  1064965062
2.57967734 4.62214851 -2.49513626  1083521235
-2.49513626 0.97686422 2.35290265  1064965062
2.27605748 4.77896976 -2.49513626  1083912901
-2.49513626 0.97686422 1.47837877  1064965062
1.39614379 5.10585546 -2.49513626  1084538511
-2.49513626 0.97686422 1.06377804  1064965062
0.89584845 5.21693611 -2.49513626  1084760654
-2.49513626 0.97686422 0.38715583  1064965062
0.21654953 5.28886461 -2.49513626  1084839262
-2.49513626 0.97686422 0.04571607  1064965062
-0.12516519 5.29181623 -2.49513626  1084833888
-2.49513626 0.97686422 -0.38118514  1064965062
-0.46635681 5.27271414 -2.49513626  1084782277
-2.49513626 0.97686422 -0.63631028  1064965062
-0.72105247 5.24395609 -2.49513626  1084618710
-2.49513626 0.97686422 -1.14149523  1064965062
-1.47262800 5.08432531 -2.49513626  1084299181
-2.49513626 0.97686422 -1.79762208  1064965062
-2.03652406 4.88585234 -2.49513626  1083917925
-2.49513626 0.97686422 -2.19317269  1064965062
4.09886694 3.16925478 -2.49513626  1079194048
-2.49513626 0.97725976 3.94064164  1064971698
3.88582850 3.42713046 -2.49513626  1079988861
-2.49513626 0.97725976 3.77317762  1064971698
3.71537352 3.61121583 -2.49513626  1080994892
-2.49513626 0.97725976 3.47461915  1064971698
3.41212559 3.89901018 -2.49513626  1081935735
-2.49513626 0.97725976 3.08666110  1064971698
3.01908708 4.21070004 -2.49513626  1082673352
-2.49513626 0.97725976 2.66977501  1064971698
2.45169187 4.56443739 -2.49513626  1083395888
-2.49513626 0.97725976 2.30307698  1064971698
2.15206242 4.71312141 -2.49513626  1083697518
-2.49513626 0.97725976 1.99880707  1064971698
1.92138731 4.81177282 -2.49513626  1083896568
-2.49513626 0.97725976 1.76506650  1064971698
1.44707227 4.97502327 -2.49513626  1084222832
-2.49513626 0.97725976 1.28572845  1064971698
0.87687850 5.10646248 -2.49513626  1084479141
-2.49513626 0.97725976 0.71158749  1064971698
0.54555786 5.15240097 -2.49513626  1084564254
-2.49513626 0.97725976 0.37895691  1064971698
0.29549733 5.17277145 -2.49513626  1084604262
-2.49513626 0.97725976 0.04474798  1064971698
-0.12251470 5.17975569 -2.49513626  1084599000
-2.49513626 0.97725976 -0.28964806  1064971698
-0.53973013 5.15301704 -2.49513626  1084528804
-2.49513626 0.97725976 -0.78854495  1064971698
-1.03551114 5.07667208 -2.49513626  1084312730
-2.49513626 0.97725976 -1.36092210  1064971698
-1.44144189 4.97665739 -2.49513626  1084128475
-2.49513626 0.97725976 -1.60133529  1064971698
-1.75955331 4.87327862 -2.49513626  1083837393
-2.49513626 0.97725976 -2.07033372  1064971698
-2.22256780 4.68028498 -2.49513626  1078638222
-2.49513626 0.97764045 3.91094494  1064978085
3.85828209 3.29365158 -2.49513626  1079682973
-2.49513626 0.97764045 3.69431782  1064978085
3.58017302 3.59400225 -2.49513626  1080667979
-2.49513626 0.97764045 3.46229720  1064978085
3.34081149 3.81752086 -2.49513626  1081589159
-2.49513626 0.97764045 3.21584249  1064978085
3.15209365 3.97476888 -2.49513626  1082183134
-2.49513626 0.97764045 2.95598817  1064978085
2.68381500 4.30483580 -2.49513626  1082859397
-2.49513626 0.97764045 2.54345894  1064978085
2.47227669 4.42971134 -2.49513626  1083114080
-2.49513626 0.97764045 2.32800078  1064978085
2.18129802 4.58000183 -2.49513626  1083489442
-2.49513626 0.97764045 1.88122880  1064978085
1.80493820 4.74095726 -2.49513626  1083744137
-2.49513626 0.97764045 1.65096414  1064978085
1.41682899 4.87104464 -2.49513626  1084127580
-2.49513626 0.97764045 1.01948917  1064978085
0.93914455 4.98522472 -2.49513626  1084254726
-2.49513626 0.97764045 0.61551452  1064978085
0.53415602 5.04471540 -2.49513626  1084352006
-2.49513626 0.97764045 -0.03807488  1064978085
-0.52845001 5.04531717 -2.49513626  1084303351
-2.49513626 0.97764045 -0.69103169  1064978085
-0.77206421 5.01382160 -2.49513626  1084229060
-2.49513626 0.97764045 -0.93350345  1064978085
-1.01386857 4.97056818 -2.49513626  1084130180
-2.49513626 0.97764045 -1.17378664  1064978085
-1.25329721 4.91566086 -2.49513626  1083960501
-2.49513626 0.97764045 -1.48978579  1064978085
-1.64553785 4.79861164 -2.49513626  1083626391
-2.49513626 0.97764045 -2.10186195  1064978085
-2.17611575 4.58246660 -2.49513626  1078364057
-2.49513626 0.97800714 3.83023429  1064984237
3.56264853 3.46277356 -2.49513626  1080583475
-2.49513626 0.97800714 3.27186608  1064984237
3.02380610 3.94206405 -2.49513626  1082306208
-2.49513626 0.97800714 2.76314592  1064984237
2.49096870 4.29864454 -2.49513626  1082839883
-2.49513626 0.97800714 2.27995634  1064984237
2.13628149 4.48548317 -2.49513626  1083219657
-2.49513626 0.97800714 1.91664362  1064984237
1.84240675 4.61397886 -2.49513626  1083479147
-2.49513626 0.97800714 1.61689281  1064984237
1.38758969 4.77051878 -2.49513626  1083835049
-2.49513626 0.97800714 1.15502954  1064984237
1.07687998 4.85011244 -2.49513626  1083948377
-2.49513626 0.97800714 0.76168430  1064984237
0.68233722 4.92114592 -2.49513626  1084119384
-2.49513626 0.97800714 0.12309613  1064984237
0.04290829 4.96803999 -2.49513626  1084158035
-2.49513626 0.97800714 -0.27774158  1064984237
-0.35777602 4.95532656 -2.49513626  1084104262
-2.49513626 0.97800714 -0.59723431  1064984237
-0.83529425 4.89750433 -2.49513626  1083983021
-2.49513626 0.97800714 -1.07139385  1064984237
-1.22743225 4.81421471 -2.49513626  1083701521
-2.49513626 0.97800714 -1.61157835  1064984237
-1.68722510 4.67295742 -2.49513626  1083422403
-2.49513626 0.97800714 -1.91145790  1064984237
-2.05848527 4.52171373 -2.49513626  1078098818
-2.49513626 0.97836053 3.75215101  1064990166
3.70162582 3.15992141 -2.49513626  1078855776
-2.49513626 0.97836053 3.59769559  1064990166
3.49002004 3.39218283 -2.49513626  1080272989
-2.49513626 0.97836053 3.26386929  1064990166
3.14562798 3.71378064 -2.49513626  1081140882
-2.49513626 0.97836053 3.02411032  1064990166
2.96216273 3.86170077 -2.49513626  1081748802
-2.49513626 0.97836053 2.50784206  1064990166
2.44018817 4.21101236 -2.49513626  1082654411
-2.49513626 0.97836053 2.23347712  1064990166
2.09273124 4.39404249 -2.49513626  1083026442
-2.49513626 0.97836053 1.73165381  1064990166
1.43455827 4.65071774 -2.49513626  1083542379
-2.49513626 0.97836053 1.20774448  1064990166
0.90101331 4.78281403 -2.49513626  1083851822
-2.49513626 0.97836053 0.59052372  1064990166
0.43427575 4.84752846 -2.49513626  1083931931
-2.49513626 0.97836053 0.12058743  1064990166
-0.03652843 4.86680603 -2.49513626  1083945691
-2.49513626 0.97836053 -0.19360569  1064990166
-0.27207962 4.85933208 -2.49513626  1083922045
-2.49513626 0.97836053 -0.42879379  1064990166
-0.50699383 4.84046412 -2.49513626  1083874529
-2.49513626 0.97836053 -0.66297400  1064990166
-0.81826597 4.79766321 -2.49513626  1083774246
-2.49513626 0.97836053 -1.12612772  1064990166
-1.20241046 4.71607304 -2.49513626  1083545597
-2.49513626 0.97836053 -1.42929733  1064990166
-1.50420678 4.62866068 -2.49513626  1083396644
-2.49513626 0.97836053 -1.65282953  1064990166
-1.72650635 4.55041885 -2.49513626  1083225055
-2.49513626 0.97836053 -1.87249076  1064990166
-2.01652193 4.42953444 -2.49513626  1082961759
-2.49513626 0.97836053 3.36561036  1064995883
3.25479937 3.48548913 -2.49513626  1080405460
-2.49513626 0.97870129 3.08225608  1064995883
2.96318650 3.73655868 -2.49513626  1081794755
-2.49513626 0.97870129 2.45731902  1064995883
2.39102817 4.12617540 -2.49513626  1082627639
-2.49513626 0.97870129 2.11980271  1064995883
2.05057168 4.30552006 -2.49513626  1082905263
-2.49513626 0.97870129 1.83974528  1064995883
1.69676805 4.45682955 -2.49513626  1083298599
-2.49513626 0.97870129 1.33191729  1064995883
1.25782943 4.60002375 -2.49513626  1083538878
-2.49513626 0.97870129 0.88286102  1064995883
0.80709767 4.70009947 -2.49513626  1083624682
-2.49513626 0.97870129 0.65496075  1064995883
0.57862580 4.73365831 -2.49513626  1083687321
-2.49513626 0.97870129 0.27198267  1064995883
0.11815696 4.76742887 -2.49513626  1083742544
-2.49513626 0.97870129 -0.11276565  1064995883
-0.18970513 4.76512003 -2.49513626  1083727279
-2.49513626 0.97870129 -0.42015517  1064995883
-0.57327157 4.73431158 -2.49513626  1083649694
-2.49513626 0.97870129 -0.72579366  1064995883
-0.80178130 4.70101118 -2.49513626  1083572130
-2.49513626 0.97870129 -0.95310718  1064995883
-1.10344148 4.63947868 -2.49513626  1083432895
-2.49513626 0.97870129 -1.25262260  1064995883
-1.76347542 4.43085766 -2.49513626  1082973099
-2.49513626 0.97870129 -1.97589707  1064995883
3.69754457 2.85895109 -2.49513626  1077838886
-2.49513626 0.97903013 3.45500398  1065001400
3.24469662 3.36413360 -2.49513626  1080105662
-2.49513626 0.97903013 3.02086592  1065001400
2.96290302 3.61478257 -2.49513626  1080907950
-2.49513626 0.97903013 2.78444457  1065001400
2.72348666 3.79842949 -2.49513626  1081645403
-2.49513626 0.97903013 2.47272110  1065001400
2.34340501 4.04399443 -2.49513626  1082300921
-2.49513626 0.97903013 2.14489317  1065001400
2.00972962 4.21976662 -2.49513626  1082658198
-2.49513626 0.97903007 1.87247109  1065001400
1.80310249 4.31210661 -2.49513626  1082902310
-2.49513626 0.97903013 1.59224808  1065001400
1.52111053 4.41946507 -2.49513626  1083060394
-2.49513626 0.97903013 1.30538881  1065001400
1.23277640 4.50840235 -2.49513626  1083275156
-2.49513626 0.97903013 1.01308632  1065001400
0.79102284 4.60648632 -2.49513626  1083427848
-2.49513626 0.97903007 0.56710094  1065001400
0.41705146 4.65526628 -2.49513626  1083517465
-2.49513626 0.97903013 0.26656389  1065001400
0.11580445 4.67247486 -2.49513626  1083543360
-2.49513626 0.97903013 -0.03507991  1065001400
-0.11051825 4.67260408 -2.49513626  1083535968
-2.49513626 0.97903013 -0.33658150  1065001400
-0.63667852 4.63034391 -2.49513626  1083404198
-2.49513626 0.97903013 -0.93412369  1065001400
-1.08146393 4.54707289 -2.49513626  1083156758
-2.49513626 0.97903013 -1.37260771  1065001400
-1.44454658 4.44507837 -2.49513626  1082961186
-2.49513626 0.97903013 -1.72835159  1065001400
-1.86762738 4.28455400 -2.49513626  1077108312
-2.49513626 0.97934753 3.57899499  1065006725
3.48478627 2.97481418 -2.49513626  1078295800
-2.49513626 0.97934753 3.23359823  1065006725
3.07267165 3.39881516 -2.49513626  1079815056
-2.49513626 0.97934753 2.96135807  1065006725
2.84695911 3.58999681 -2.49513626  1080601537
-2.49513626 0.97934753 2.42401123  1065006725
2.29724264 3.96433330 -2.49513626  1082132317
-2.49513626 0.97934753 2.10264134  1065006725
1.97014034 4.13664150 -2.49513626  1082482554
-2.49513626 0.97934753 1.76758313  1065006725
1.63021433 4.28201628 -2.49513626  1082775878
-2.49513626 0.97934753 1.42101908  1065006725
1.35052192 4.37828112 -2.49513626  1082968265
-2.49513626 0.97934753 1.20849228  1065006725
1.06520152 4.45629883 -2.49513626  1083154599
-2.49513626 0.97934753 0.84823233  1065006725
0.70244724 4.52767086 -2.49513626  1083259584
-2.49513626 0.97934753 0.55592978  1065006725
