# .PCD v0.7 - Point Cloud Data file format
VERSION 0.7
FIELDS x y z intensity
SIZE 4 4 4 4
TYPE F F F F
COUNT 1 1 1 1
WIDTH 1020
HEIGHT 1
VIEWPOINT 0 0 0 1 0 0 0
POINTS 1020
DATA ascii
-3.58724236 -11.27867603 -2.49513626  3241608778
-2.49513626 0.95276952 -2.85236168  1064560820
-2.66666508 -11.53107643 -2.49513626  3241748830
-2.49513626 0.95276952 -2.10559940  1064560820
-1.91741943 -11.67905235 -2.49513626  3241943397
-2.49513626 0.95276952 -1.16018915  1064560821
-0.77956200 -11.80970478 -2.49513626  3242009026
-2.49513626 0.95276952 0.55640596  1064560820
0.74707627 -11.81180477 -2.49513626  3241985405
-2.49513626 0.95276952 1.31772494  1064560820
2.07355714 -11.65234566 -2.49513626  3241795778
-2.49513626 0.95276952 2.44843388  1064560820
2.63493800 -11.53836727 -2.49513626  3241565077
-2.49513626 0.95276952 3.37361526  1064560820
4.45433998 -10.96520138 -2.49513626  3240786753
-2.49513626 0.95276952 5.32350445  1064560820
5.82873869 -10.30061340 -2.49513626  3240315042
-2.49513626 0.95276952 6.15804434  1064560820
6.48094225 -9.90324211 -2.49513626  3239538475
-2.49513626 0.95276952 7.40781498  1064560820
7.70177698 -8.98662663 -2.49513626  3238635446
-2.49513626 0.95276952 8.66553402  1064560820
8.79446316 -7.92049313 -2.49513626  3237536219
-2.49513626 0.95276952 9.16741085  1064560820
9.40415668 -7.18600368 -2.49513626  3240972128
-2.49513626 0.95451802 -3.26992464  1064590155
-3.09386349 -10.93739510 -2.49513626  3241181464
-2.49513626 0.95451802 -2.02218914  1064590155
-1.66025341 -11.24464703 -2.49513626  3241431498
-2.49513626 0.95451802 -1.29658747  1064590155
-1.11422622 -11.31181335 -2.49513626  3241492670
-2.49513626 0.95451802 -0.74867755  1064590155
-0.56559134 -11.35247326 -2.49513626  3241526027
-2.49513626 0.95451802 1.08311069  1064590155
1.26552546 -11.29588127 -2.49513626  3241435717
-2.49513626 0.95451802 1.81060243  1064590155
1.99141395 -11.19074726 -2.49513626  3241274948
-2.49513626 0.95451802 2.70901370  1064590155
2.88676882 -10.99386692 -2.49513626  3241091677
-2.49513626 0.95451790 3.41532850  1064590155
3.58980155 -10.78479671 -2.49513626  3240795424
-2.49513626 0.95451802 4.10742235  1064590155
4.78241253 -10.31149864 -2.49513626  3240344154
-2.49513626 0.95451802 5.11261272  1064590155
5.27574396 -10.06802082 -2.49513626  3239987178
-2.49513626 0.95451802 6.06993818  1064590155
6.22420216 -9.51093102 -2.49513626  3239371245
-2.49513626 0.95451802 6.67710066  1064590155
7.11435699 -8.86478615 -2.49513626  3238787909
-2.49513626 0.95451802 7.53495550  1064590155
7.67128468 -8.38748646 -2.49513626  3238278069
-2.49513626 0.95451802 8.32225323  1064590155
8.44607639 -7.60672712 -2.49513626  3236598128
-2.49513626 0.95451802 8.80424976  1064590155
8.91909122 -7.04615545 -2.49513626  3235698625
-2.49513626 0.95451802 9.14177990  1064590155
-4.14214659 -10.11678123 -2.49513626  3240356783
-2.49513626 0.95613921 -3.64779234  1064617347
-3.31340027 -10.41768646 -2.49513626  3240644226
-2.49513626 0.95613879 -2.80545163  1064617347
-2.63461781 -10.60969353 -2.49513626  3240782272
-2.49513626 0.95613879 -2.29093385  1064617347
-1.94486237 -10.75751972 -2.49513626  3240925586
-2.49513626 0.95613879 -1.42207086  1064617348
-0.89595526 -10.89513683 -2.49513626  3241062817
-2.49513626 0.95613879 -0.36773598  1064617349
-0.19140790 -10.93023014 -2.49513626  3241077005
-2.49513626 0.95613879 0.16134456  1064617348
0.33768073 -10.92669773 -2.49513626  3241054157
-2.49513626 0.95613879 1.04169297  1064617347
1.39225471 -10.84289265 -2.49513626  3240958640
-2.49513626 0.95613879 1.91526496  1064617347
2.08866763 -10.73052788 -2.49513626  3240601474
-2.49513626 0.95613879 4.11430168  1064617347
4.43893766 -9.99012470 -2.49513626  3240013024
-2.49513626 0.95613879 4.91711617  1064617347
5.22957516 -9.59990597 -2.49513626  3239498151
-2.49513626 0.95613879 5.98620033  1064617347
6.27820349 -8.94934368 -2.49513626  3238780870
-2.49513626 0.95613879 6.70386505  1064617348
7.37794733 -8.06676292 -2.49513626  3237890859
-2.49513626 0.95613879 7.63436794  1064617347
8.00402355 -7.44596291 -2.49513626  3236567931
-2.49513626 0.95613879 8.46759033  1064617347
-3.67261219 -9.86644650 -2.49513626  3240078660
-2.49513626 0.95764530 -3.02863884  1064642622
-2.86556721 -10.13031864 -2.49513626  3240283586
-2.49513626 0.95764530 -2.20624900  1064642622
-1.87296951 -10.35986519 -2.49513626  3240507458
-2.49513626 0.95764530 -1.53774273  1064642622
-1.36950433 -10.43835545 -2.49513626  3240581234
-2.49513626 0.95764530 -0.69343495  1064642622
-0.52385437 -10.51476860 -2.49513626  3240603059
-2.49513626 0.95764530 1.17214084  1064642622
1.50909114 -10.41909122 -2.49513626  3240512339
-2.49513626 0.95764530 1.84446740  1064642622
2.01145911 -10.33387184 -2.49513626  3240291339
-2.49513626 0.95764530 4.11907339  1064642622
4.27485275 -9.62083435 -2.49513626  3239473552
-2.49513626 0.95764530 4.88644505  1064642622
5.03626251 -9.24504662 -2.49513626  3239221747
-2.49513626 0.95764530 5.47769451  1064642622
6.04613161 -8.61853409 -2.49513626  3238547805
-2.49513626 0.95764530 6.45605898  1064642622
6.58938837 -8.21065140 -2.49513626  3237989624
-2.49513626 0.95764530 7.10521889  1064642622
7.35216331 -7.53528690 -2.49513626  3236777285
-2.49513626 0.95764530 7.70815229  1064642622
7.93549585 -6.91828966 -2.49513626  3235463776
-2.49513626 0.95764530 -3.69422531  1064666174
-3.54119396 -9.51339149 -2.49513626  3239648205
-2.49513626 0.95904911 -2.92026114  1064666174
-2.12730360 -9.92568684 -2.49513626  3240088467
-2.49513626 0.95904911 -1.15794063  1064666174
-0.99507850 -10.10220146 -2.49513626  3240235154
-2.49513626 0.95904911 -0.17773651  1064666174
-0.01396219 -10.15108109 -2.49513626  3240257112
-2.49513626 0.95904911 0.31356156  1064666174
0.64075828 -10.13084984 -2.49513626  3240209837
-2.49513626 0.95904911 1.29281151  1064666174
1.45508850 -10.04626083 -2.49513626  3240122359
-2.49513626 0.95904911 1.77846539  1064666174
1.93947887 -9.96409035 -2.49513626  3239864314
-2.49513626 0.95904911 2.89351010  1064666174
3.05011654 -9.68201637 -2.49513626  3239539003
-2.49513626 0.95904911 3.82043600  1064666174
4.12188196 -9.27657127 -2.49513626  3239270270
-2.49513626 0.95904911 4.56590796  1064666174
4.71159220 -8.99141598 -2.49513626  3238961325
-2.49513626 0.95904911 5.14113283  1064666174
5.28168392 -8.66882229 -2.49513626  3238613458
-2.49513626 0.95904911 5.55862761  1064666174
5.82978058 -8.31013393 -2.49513626  3238228125
-2.49513626 0.95904911 6.22503901  1064666174
6.35359669 -7.91684723 -2.49513626  3237164131
-2.49513626 0.95904911 6.97093248  1064666174
7.20538330 -7.15032291 -2.49513626  3235725450
-2.49513626 0.95904911 7.75817060  1064666174
7.86278296 -6.42038393 -2.49513626  3239122944
-2.49513626 0.96036029 -3.56609678  1064688172
-3.41837335 -9.18343258 -2.49513626  3239300184
-2.49513626 0.96036029 -3.12030196  1064688172
-2.81897736 -9.38477898 -2.49513626  3239586230
-2.49513626 0.96036029 -2.20784140  1064688172
-2.05352116 -9.58142757 -2.49513626  3239725178
-2.49513626 0.96036029 -1.27470315  1064688172
-1.11777914 -9.73504734 -2.49513626  3239854526
-2.49513626 0.96036029 -0.64543104  1064688171
-0.48759001 -9.78687954 -2.49513626  3239887517
-2.49513626 0.96036029 0.30268452  1064688172
0.46066999 -9.78818130 -2.49513626  3239868604
-2.49513626 0.96036023 0.77623725  1064688172
0.93374008 -9.75442886 -2.49513626  3239825211
-2.49513626 0.96036023 1.24797189  1064688171
1.40462089 -9.69782162 -2.49513626  3239699807
-2.49513626 0.96036029 2.02715826  1064688171
2.18157220 -9.55308628 -2.49513626  3239593007
-2.49513626 0.96036023 2.48865819  1064688171
2.94432759 -9.34621048 -2.49513626  3239363206
-2.49513626 0.96036023 3.24434233  1064688171
3.39309978 -9.19280052 -2.49513626  3239194772
-2.49513626 0.96036029 3.68792868  1064688172
3.83392477 -9.01785660 -2.49513626  3238715261
-2.49513626 0.96036023 4.68762493  1064688172
4.82584810 -8.52830029 -2.49513626  3238388727
-2.49513626 0.96036029 5.62758207  1064688171
5.75627470 -7.93007040 -2.49513626  3237457891
-2.49513626 0.96036029 6.25573635  1064688172
6.49583054 -7.33654594 -2.49513626  3235463471
-2.49513626 0.96036029 7.17455006  1064688172
7.28129673 -6.55770016 -2.49513626  3234478121
-2.49513626 0.96036029 7.68907928  1064688172
7.78608513 -5.94958735 -2.49513626  3233437596
-2.49513626 0.96036029 -3.58792043  1064708762
-3.15970969 -8.92647839 -2.49513626  3239026405
-2.49513626 0.96158755 -2.72409582  1064708762
-2.57742310 -9.11167812 -2.49513626  3239250589
-2.49513626 0.96158755 -2.13353133  1064708762
-1.98440468 -9.25893497 -2.49513626  3239355085
-2.49513626 0.96158755 -1.68463874  1064708762
-1.53407788 -9.34410763 -2.49513626  3239436764
-2.49513626 0.96158755 -1.23179924  1064708762
-0.77607441 -9.43734455 -2.49513626  3239521694
-2.49513626 0.96158755 -0.47118056  1064708762
-0.31853077 -9.46384525 -2.49513626  3239541732
-2.49513626 0.96158755 -0.01302429  1064708762
0.44516471 -9.45872879 -2.49513626  3239498076
-2.49513626 0.96158755 1.05427742  1064708762
1.20596778 -9.39209175 -2.49513626  3239328463
-2.49513626 0.96158755 2.10814524  1064708762
2.25681233 -9.19633389 -2.49513626  3238983248
-2.49513626 0.96158755 3.84499836  1064708762
3.98411250 -8.59026146 -2.49513626  3238482146
-2.49513626 0.96158755 4.52984858  1064708762
4.92689085 -8.08650112 -2.49513626  3237841898
-2.49513626 0.96158755 5.31239319  1064708762
5.43816900 -7.75190830 -2.49513626  3237105975
-2.49513626 0.96158755 6.39076233  1064708762
6.50266647 -6.88339424 -2.49513626  3235439099
-2.49513626 0.96158755 7.13755131  1064708762
7.23702145 -6.10665751 -2.49513626  3233535721
-2.49513626 0.96158755 -3.33337998  1064728075
-3.19529629 -8.58414173 -2.49513626  3238718617
-2.49513626 0.96273869 -2.77620697  1064728074
-2.49313998 -8.81372070 -2.49513626  3238935471
-2.49513626 0.96273869 -2.06376243  1064728075
-1.91951323 -8.95616531 -2.49513626  3239036549
-2.49513626 0.96273869 -1.48391294  1064728075
-1.19151628 -9.08172226 -2.49513626  3239172311
-2.49513626 0.96273863 -0.60331285  1064728075
-0.16037554 -9.15814781 -2.49513626  3239207946
-2.49513626 0.96273869 1.16653109  1064728075
1.45904386 -9.04259872 -2.49513626  3239041632
-2.49513626 0.96273869 1.89486885  1064728075
2.03920794 -8.92967224 -2.49513626  3238903654
-2.49513626 0.96273869 2.46888685  1064728075
2.75218678 -8.73629475 -2.49513626  3238676870
-2.49513626 0.96273869 3.30989981  1064728075
3.44726276 -8.48609257 -2.49513626  3238391135
-2.49513626 0.96273869 3.98739457  1064728075
4.38172007 -8.04350185 -2.49513626  3237466144
-2.49513626 0.96273869 5.01567221  1064728075
5.13867426 -7.58231020 -2.49513626  3236950789
-2.49513626 0.96273869 5.49952745  1064728075
6.07192612 -6.85777855 -2.49513626  3235399954
-2.49513626 0.96273869 6.39662838  1064728075
6.70635223 -6.23876858 -2.49513626  3234080505
-2.49513626 0.96273869 6.90414953  1064728075
-3.36021328 -8.20699024 -2.49513626  3238275459
-2.49513626 0.96382046 -3.09367394  1064746223
-2.82391262 -8.40661812 -2.49513626  3238475685
-2.49513626 0.96382046 -2.55121398  1064746224
-2.41384673 -8.53340816 -2.49513626  3238639017
-2.49513626 0.96382040 -1.85846281  1064746224
-1.43671775 -8.75108910 -2.49513626  3238813374
-2.49513626 0.96382046 -0.86932600  1064746224
-0.72682124 -8.83840656 -2.49513626  3238901587
-2.49513626 0.96382046 -0.29831538  1064746223
0.13088678 -8.86727524 -2.49513626  3238894561
-2.49513626 0.96382046 0.84504849  1064746224
1.27120304 -8.77666187 -2.49513626  3238794371
-2.49513626 0.96382046 1.69437742  1064746224
1.97435284 -8.64567280 -2.49513626  3238645139
-2.49513626 0.96382046 2.25226998  1064746224
2.52784109 -8.50033760 -2.49513626  3238483405
-2.49513626 0.96382046 2.93617487  1064746224
3.73126292 -8.04508495 -2.49513626  3237835987
-2.49513626 0.96382046 4.36746073  1064746224
4.49142122 -7.64676046 -2.49513626  3237107822
-2.49513626 0.96382046 4.97524500  1064746224
5.55065823 -6.91635036 -2.49513626  3234949153
-2.49513626 0.96382040 6.08998203  1064746217
6.19319201 -6.34744978 -2.49513626  3234325747
-2.49513626 0.96382046 6.49306297  1064746224
6.58967209 -5.93480682 -2.49513626  3233219297
-2.49513626 0.96382046 6.86912012  1064746224
6.95872116 -5.49744606 -2.49513626  3232517501
-2.49513626 0.96382040 -3.25616956  1064763310
-3.12743378 -8.00436783 -2.49513626  3238059088
-2.49513626 0.96483886 -2.86755300  1064763310
-2.73647451 -8.14631557 -2.49513626  3238201294
-2.49513626 0.96483886 -2.20538473  1064763310
-2.07108951 -8.34034443 -2.49513626  3238393465
-2.49513626 0.96483886 -1.80091929  1064763310
-1.66511071 -8.43078613 -2.49513626  3238481421
-2.49513626 0.96483886 -1.39223123  1064763310
-1.25522912 -8.50147820 -2.49513626  3238581773
-2.49513626 0.96483886 -0.70431709  1064763310
-0.15046600 -8.59232807 -2.49513626  3238624189
-2.49513626 0.96483886 0.26545143  1064763310
0.40400344 -8.58414364 -2.49513626  3238569146
-2.49513626 0.96483886 1.23183906  1064763310
1.64191222 -8.43533611 -2.49513626  3238430242
-2.49513626 0.96483886 1.91321957  1064763310
2.18253231 -8.31187630 -2.49513626  3238208775
-2.49513626 0.96483886 2.71405816  1064763310
2.97571826 -8.06200314 -2.49513626  3238016258
-2.49513626 0.96483886 3.23427939  1064763310
3.98870897 -7.61189413 -2.49513626  3237051731
-2.49513626 0.96483886 4.47133398  1064763310
4.70578957 -7.19071293 -2.49513626  3236144299
-2.49513626 0.96483886 5.15975046  1064763310
5.26995420 -6.78810215 -2.49513626  3234718725
-2.49513626 0.96483886 5.79984951  1064763310
6.09988594 -6.05327559 -2.49513626  3233286282
-2.49513626 0.96483886 6.47758961  1064763310
6.65642452 -5.43532562 -2.49513626  3232397472
-2.49513626 0.96483886 -3.15791488  1064779423
-2.78102469 -7.85665798 -2.49513626  3237881670
-2.49513626 0.96579927 -2.39761829  1064779423
-2.26852441 -8.01966095 -2.49513626  3238060590
-2.49513626 0.96579927 -2.00859547  1064779423
-1.87783051 -8.12003136 -2.49513626  3238159213
-2.49513626 0.96579921 -0.95070219  1064779422
-0.81698889 -8.29420185 -2.49513626  3238323865
-2.49513626 0.96579927 -0.54895729  1064779423
-0.41471052 -8.32401180 -2.49513626  3238348318
-2.49513626 0.96579927 0.12300611  1064779423
0.25744149 -8.33035851 -2.49513626  3238343602
-2.49513626 0.96579927 0.79417282  1064779423
0.92792445 -8.28251743 -2.49513626  3238282102
-2.49513626 0.96579927 1.32759392  1064779423
1.46017158 -8.20543003 -2.49513626  3238164219
-2.49513626 0.96579921 2.11667371  1064779423
2.24645615 -8.02587032 -2.49513626  3237896181
-2.49513626 0.96579927 2.63216186  1064779422
3.01169968 -7.77115393 -2.49513626  3237418739
-2.49513626 0.96579927 3.26086044  1064779423
3.50662470 -7.56073713 -2.49513626  3236437281
-2.49513626 0.96579927 4.22101688  1064779423
4.33641338 -7.11734962 -2.49513626  3236002963
-2.49513626 0.96579927 4.56379271  1064779423
4.67571449 -6.89919376 -2.49513626  3235370229
-2.49513626 0.96579927 5.00405598  1064779423
5.11093569 -6.58327293 -2.49513626  3234856871
-2.49513626 0.96579927 5.42349005  1064779423
5.52488470 -6.23993635 -2.49513626  3234122926
-2.49513626 0.96579927 5.72333431  1064779423
5.82033396 -5.96530628 -2.49513626  3233537058
-2.49513626 0.96579927 6.00977230  1064779423
6.10215569 -5.67669678 -2.49513626  3232922352
-2.49513626 0.96579927 6.28212976  1064779423
-2.82184839 -7.58087492 -2.49513626  3237217130
-2.49513626 0.96670640 -2.45173979  1064794642
-2.32705259 -7.74708462 -2.49513626  3237812724
-2.49513626 0.96670640 -1.43909454  1064794642
-1.05225885 -8.02030182 -2.49513626  3238040686
-2.49513626 0.96670640 -0.53279871  1064794642
-0.40250304 -8.07901573 -2.49513626  3238091248
-2.49513626 0.96670640 -0.14163175  1064794642
-0.01112596 -8.08902740 -2.49513626  3238095124
-2.49513626 0.96670640 0.38028076  1064794642
0.51059747 -8.07290459 -2.49513626  3238069393
-2.49513626 0.96670640 1.15950704  1064794642
1.54550076 -7.94002104 -2.49513626  3237822439
-2.49513626 0.96670640 1.92787468  1064794642
2.05437446 -7.82381248 -2.49513626  3237561555
-2.49513626 0.96670640 2.30573297  1064794642
2.43052721 -7.71524715 -2.49513626  3237321177
-2.49513626 0.96670640 2.92305779  1064794642
3.04436636 -7.49428701 -2.49513626  3236837075
-2.49513626 0.96670640 3.28457928  1064794642
3.40341687 -7.33820581 -2.49513626  3236497641
-2.49513626 0.96670640 3.86961055  1064794642
3.98371196 -7.04006624 -2.49513626  3235852846
-2.49513626 0.96670640 4.20878172  1064794642
4.31968927 -6.83906364 -2.49513626  3235420004
-2.49513626 0.96670640 4.53809595  1064794642
4.75177622 -6.54623175 -2.49513626  3234791344
-2.49513626 0.96670640 5.26386213  1064794642
5.36227417 -6.05627966 -2.49513626  3233743320
-2.49513626 0.96670640 5.55488205  1064794642
5.92255306 -5.50961781 -2.49513626  3232578084
-2.49513626 0.96670640 6.09723139  1064794642
6.18220425 -5.21659470 -2.49513626  3231954857
-2.49513626 0.96670640 6.34729528  1064794642
6.42737293 -4.91135311 -2.49513626  3231306515
-2.49513626 0.96670640 -2.97690082  1064809039
-2.62161279 -7.40630770 -2.49513626  3236844309
-2.49513626 0.96756452 -2.13849115  1064809039
-1.89346159 -7.62502909 -2.49513626  3237439125
-2.49513626 0.96756452 -1.27282667  1064809039
-1.14757371 -7.77234364 -2.49513626  3237594421
-2.49513626 0.96756452 -0.64390981  1064809039
-0.51749063 -7.83954525 -2.49513626  3237681560
-2.49513626 0.96756452 -0.26428524  1064809039
0.11595515 -7.85575008 -2.49513626  3237567801
-2.49513626 0.96756452 1.12619233  1064809039
1.37647367 -7.73508692 -2.49513626  3237345547
-2.49513626 0.96756446 1.74913049  1064809039
1.99534452 -7.59900379 -2.49513626  3237018434
-2.49513626 0.96756446 2.36068869  1064809038
2.48128414 -7.45449638 -2.49513626  3236588588
-2.49513626 0.96756452 2.95689011  1064809039
3.19020033 -7.17975521 -2.49513626  3235941159
-2.49513626 0.96756452 3.64661551  1064809038
3.97906518 -6.77445889 -2.49513626  3235296057
-2.49513626 0.96756452 4.19556761  1064809039
4.40769815 -6.50372744 -2.49513626  3233907445
-2.49513626 0.96756452 5.11261129  1064809039
5.20819521 -5.88225985 -2.49513626  3233202642
-2.49513626 0.96756446 5.48670864  1064809039
5.75237465 -5.35130596 -2.49513626  3232052909
-2.49513626 0.96756446 6.08553219  1064809039
6.16491270 -4.87033129 -2.49513626  3231229371
-2.49513626 0.96756446 -2.89332509  1064822677
-2.77893424 -7.11241674 -2.49513626  3236233378
-2.49513626 0.96837741 -2.19672990  1064822677
-2.07845402 -7.34771967 -2.49513626  3236827613
-2.49513626 0.96837741 -1.60023773  1064822677
-1.47956133 -7.49131823 -2.49513626  3236983922
-2.49513626 0.96837741 -1.11535704  1064822677
-0.99332976 -7.57114601 -2.49513626  3237162255
-2.49513626 0.96837741 -0.62583363  1064822677
-0.37996191 -7.62656975 -2.49513626  3237230323
-2.49513626 0.96837741 0.11270046  1064822677
0.35898498 -7.62758827 -2.49513626  3237189063
-2.49513626 0.96837741 0.72763050  1064822677
1.09457183 -7.55717373 -2.49513626  3237034914
-2.49513626 0.96837741 1.33782911  1064822677
1.45895088 -7.49535799 -2.49513626  3236837477
-2.49513626 0.96837741 1.93932402  1064822677
2.29441166 -7.28317547 -2.49513626  3236419782
-2.49513626 0.96837741 2.64412403  1064822677
2.87387419 -7.07458782 -2.49513626  3235859781
-2.49513626 0.96837741 3.32416582  1064822677
3.54423475 -6.76368046 -2.49513626  3235288167
-2.49513626 0.96837741 3.76061416  1064822677
3.97307920 -6.52101135 -2.49513626  3234481847
-2.49513626 0.96837741 4.48566437  1064822677
4.58478212 -6.10644817 -2.49513626  3233874829
-2.49513626 0.96837741 4.77941322  1064822677
4.96907377 -5.79804087 -2.49513626  3233215127
-2.49513626 0.96837741 5.33266735  1064822677
5.50623322 -5.29059172 -2.49513626  3232132896
-2.49513626 0.96837741 5.75577211  1064822677
5.83598566 -4.92445374 -2.49513626  3231353984
-2.49513626 0.96837741 5.99183083  1064822677
-2.47806168 -7.00075865 -2.49513626  3236067155
-2.49513626 0.96914852 -2.02139258  1064835614
-1.90583384 -7.17768860 -2.49513626  3236340701
-2.49513626 0.96914852 -1.43894541  1064835614
-1.32120836 -7.30792809 -2.49513626  3236594012
-2.49513626 0.96914852 -1.08473516  1064835614
-0.96605992 -7.36329508 -2.49513626  3236698100
-2.49513626 0.96914852 -0.72798765  1064835614
-0.60865098 -7.40141726 -2.49513626  3236798057
-2.49513626 0.96914852 0.22939730  1064835614
0.34912986 -7.41818905 -2.49513626  3236750817
-2.49513626 0.96914852 0.82683593  1064835614
0.94580239 -7.36592531 -2.49513626  3236638927
-2.49513626 0.96914852 1.18296695  1064835614
1.30110085 -7.31153202 -2.49513626  3236408885
-2.49513626 0.96914852 1.76994824  1064835614
2.23142314 -7.08323145 -2.49513626  3236002647
-2.49513626 0.96914852 2.45879459  1064835614
2.57153535 -6.96696472 -2.49513626  3235747347
-2.49513626 0.96914852 3.12461472  1064835614
3.34035492 -6.63275194 -2.49513626  3234902100
-2.49513626 0.96914852 3.76118207  1064835614
3.86400771 -6.34199142 -2.49513626  3234393115
-2.49513626 0.96914852 4.06661510  1064835614
4.36251831 -6.00997543 -2.49513626  3233680057
-2.49513626 0.96914852 4.83265591  1064835614
5.01207495 -5.48000956 -2.49513626  3232546798
-2.49513626 0.96914852 5.18627024  1064835614
5.27135849 -5.23107767 -2.49513626  3232016046
-2.49513626 0.96914852 5.43738985  1064835614
5.51828861 -4.96989536 -2.49513626  3230880011
-2.49513626 0.96914852 5.90085459  1064835614
5.97283316 -4.41323423 -2.49513626  3235251270
-2.49513626 0.96988094 -2.63003540  1064847902
-2.41148758 -6.81268120 -2.49513626  3235592435
-2.49513626 0.96988094 -1.85463178  1064847902
-1.62830651 -7.04105997 -2.49513626  3236044815
-2.49513626 0.96988094 -1.40028536  1064847902
-1.28571153 -7.11159945 -2.49513626  3236181139
-2.49513626 0.96988094 -1.05559421  1064847902
-0.82437408 -7.17971563 -2.49513626  3236333725
-2.49513626 0.96988094 0.68864399  1064847902
0.80462468 -7.18195486 -2.49513626  3236257938
-2.49513626 0.96988094 1.15118599  1064847902
1.26614702 -7.11510849 -2.49513626  3236053495
-2.49513626 0.96988094 1.60893488  1064847901
1.83541441 -6.98993111 -2.49513626  3235820420
-2.49513626 0.96988088 2.05998302  1064847902
2.28240657 -6.85700464 -2.49513626  3235443737
-2.49513626 0.96988094 2.61151123  1064847902
2.82756615 -6.65081406 -2.49513626  3234974571
-2.49513626 0.96988094 3.25061607  1064847902
3.35433245 -6.40127754 -2.49513626  3234534679
-2.49513626 0.96988094 3.66013622  1064847902
3.95736575 -6.04707766 -2.49513626  3233771562
-2.49513626 0.96988094 4.15040731  1064847902
4.43180513 -5.70850229 -2.49513626  3233045557
-2.49513626 0.96988094 4.61367846  1064847902
4.70282745 -5.48737764 -2.49513626  3232409139
-2.49513626 0.96988094 4.96282959  1064847902
5.04694033 -5.17264891 -2.49513626  3231901118
-2.49513626 0.96988094 5.21120644  1064847902
5.37003946 -4.83637905 -2.49513626  3231185070
-2.49513626 0.96988094 5.59776735  1064847902
5.67078543 -4.47996664 -2.49513626  3230232044
-2.49513626 0.96988094 -2.56084156  1064859587
-2.45476127 -6.59470129 -2.49513626  3235425442
-2.49513626 0.97057742 -1.80583870  1064859587
-1.47465146 -6.88050413 -2.49513626  3235702953
-2.49513626 0.97057742 -1.14000475  1064859587
-1.02782249 -6.96128511 -2.49513626  3235886290
-2.49513626 0.97057742 -0.68979114  1064859587
-0.57671678 -7.01308155 -2.49513626  3235974267
-2.49513626 0.97057742 0.10385602  1064859587
0.21736169 -7.03339767 -2.49513626  3235966301
-2.49513626 0.97057742 0.55742270  1064859587
0.67052746 -7.00473547 -2.49513626  3235890868
-2.49513626 0.97057742 0.89617956  1064859587
1.00866997 -6.96408796 -2.49513626  3235612253
-2.49513626 0.97057742 1.67708457  1064859587
2.11434674 -6.71159220 -2.49513626  3235227329
-2.49513626 0.97057742 2.32978988  1064859587
2.43661499 -6.60143042 -2.49513626  3234985424
-2.49513626 0.97057742 2.75317430  1064859587
2.85729766 -6.43053532 -2.49513626  3234510927
-2.49513626 0.97057742 3.16509581  1064859587
3.26608419 -6.23286629 -2.49513626  3234184530
-2.49513626 0.97057742 3.46548176  1064859587
3.56384301 -6.06753302 -2.49513626  3233827768
-2.49513626 0.97057742 3.75775290  1064859587
3.85325193 -5.88798571 -2.49513626  3233168019
-2.49513626 0.97057742 4.22497129  1064859587
4.31520844 -5.55831718 -2.49513626  3232734587
-2.49513626 0.97057742 4.49229860  1064859587
4.57910156 -5.34301138 -2.49513626  3231952800
-2.49513626 0.97057742 4.91416073  1064859587
4.99478483 -4.95661831 -2.49513626  3231276882
-2.49513626 0.97057742 5.30405998  1064859587
5.37797976 -4.53798294 -2.49513626  3229995102
-2.49513626 0.97057742 -2.28750706  1064870711
-2.18294239 -6.49848938 -2.49513626  3235282908
-2.49513626 0.97124052 -1.21961069  1064870711
-1.00132263 -6.78180885 -2.49513626  3235532900
-2.49513626 0.97124052 -0.45153967  1064870712
0.43272337 -6.84165955 -2.49513626  3235556967
-2.49513626 0.97124046 0.76325613  1064870711
0.98266590 -6.78453970 -2.49513626  3235418579
-2.49513626 0.97124046 1.20105052  1064870712
1.30978835 -6.72904444 -2.49513626  3235241332
-2.49513626 0.97124046 1.63384426  1064870711
1.74105012 -6.63055706 -2.49513626  3235070039
-2.49513626 0.97124052 2.37379384  1064870711
2.58005238 -6.35129023 -2.49513626  3234456062
-2.49513626 0.97124052 2.88434148  1064870712
3.18187642 -6.07216835 -2.49513626  3233502855
-2.49513626 0.97124046 3.66087055  1064870711
3.75390530 -5.73618031 -2.49513626  3232860109
-2.49513626 0.97124052 4.11604166  1064870711
4.20395231 -5.41500950 -2.49513626  3232437856
-2.49513626 0.97124046 4.37647724  1064870711
4.46104288 -5.20525551 -2.49513626  3231834151
-2.49513626 0.97124052 4.70767784  1064870711
4.86600590 -4.82882452 -2.49513626  3231186290
-2.49513626 0.97124046 5.16731071  1064870711
5.37923527 -4.24963951 -2.49513626  3229954440
-2.49513626 0.97124046 -2.53184104  1064881315
-2.43174314 -6.22381592 -2.49513626  3234709574
-2.49513626 0.97187251 -1.71480095  1064881315
-1.61038077 -6.48505402 -2.49513626  3234878333
-2.49513626 0.97187251 -1.18877506  1064881315
-1.08253336 -6.59373379 -2.49513626  3235088364
-2.49513626 0.97187251 -0.86922646  1064881315
-0.76222038 -6.63839293 -2.49513626  3235171169
-2.49513626 0.97187251 -0.54764253  1064881315
-0.44012350 -6.66749811 -2.49513626  3235221301
-2.49513626 0.97187251 -0.00919068  1064881315
0.20640355 -6.67882061 -2.49513626  3235223168
-2.49513626 0.97187251 0.52932191  1064881315
0.63672394 -6.65160370 -2.49513626  3235151536
-2.49513626 0.97187251 1.06439126  1064881315
1.27667260 -6.55891466 -2.49513626  3234886967
-2.49513626 0.97187251 1.59253550  1064881315
1.69703138 -6.46292019 -2.49513626  3234720014
-2.49513626 0.97187251 1.90466821  1064881315
2.11032200 -6.34001493 -2.49513626  3234448313
-2.49513626 0.97187251 2.61437702  1064881315
2.71325159 -6.10635042 -2.49513626  3233531216
-2.49513626 0.97187251 3.56831169  1064881315
3.65899587 -5.59115362 -2.49513626  3232825641
-2.49513626 0.97187251 3.83748412  1064881315
3.92524028 -5.40756226 -2.49513626  3232431664
-2.49513626 0.97187251 4.09766483  1064881315
4.18228912 -5.21130562 -2.49513626  3232011434
-2.49513626 0.97187251 4.42954683  1064881315
4.50968695 -4.93071747 -2.49513626  3231412000
-2.49513626 0.97187251 4.66642141  1064881315
4.81830311 -4.62960148 -2.49513626  3230603383
-2.49513626 0.97187251 5.03666449  1064881315
5.24323130 -4.14219522 -2.49513626  3233872052
-2.49513626 0.97247547 -2.27318025  1064891431
-2.17435598 -6.14276028 -2.49513626  3234179668
-2.49513626 0.97247547 -1.97503448  1064891431
-1.46818995 -6.34868050 -2.49513626  3234587566
-2.49513626 0.97247547 -1.15928268  1064891431
-1.05567753 -6.43015623 -2.49513626  3234774887
-2.49513626 0.97247547 -0.74330980  1064891431
-0.53405607 -6.49431372 -2.49513626  3234861333
-2.49513626 0.97247547 -0.32424316  1064891431
-0.21919703 -6.51254797 -2.49513626  3234888915
-2.49513626 0.97247547 0.41131842  1064891431
0.62092763 -6.48658419 -2.49513626  3234806045
-2.49513626 0.97247547 0.82988739  1064891431
0.93405861 -6.44894314 -2.49513626  3234716521
-2.49513626 0.97247547 1.45072126  1064891431
1.55302644 -6.32846260 -2.49513626  3234324087
-2.49513626 0.97247547 1.95794404  1064891431
2.25637484 -6.11310768 -2.49513626  3233886249
-2.49513626 0.97247547 2.54951692  1064891431
2.83668947 -5.86638975 -2.49513626  3233225926
-2.49513626 0.97247547 3.30021954  1064891431
3.39044309 -5.56473017 -2.49513626  3232779316
-2.49513626 0.97247547 3.56822014  1064891431
3.65572619 -5.39416361 -2.49513626  3232412687
-2.49513626 0.97247547 4.15999508  1064891431
4.24037838 -4.94777966 -2.49513626  3231456889
-2.49513626 0.97247547 4.77099466  1064891431
4.91171026 -4.28210592 -2.49513626  3229868679
-2.49513626 0.97247547 -2.31364775  1064901092
-2.12139010 -5.99312592 -2.49513626  3233864111
-2.49513626 0.97305131 -1.92692363  1064901092
-1.63152432 -6.14459133 -2.49513626  3234165138
-2.49513626 0.97305131 -1.43242431  1064901092
-1.33230221 -6.21633530 -2.49513626  3234415131
-2.49513626 0.97305131 -0.82701218  1064901093
-0.72520381 -6.31600332 -2.49513626  3234493909
-2.49513626 0.97305137 -0.52104682  1064901092
-0.41874939 -6.34369755 -2.49513626  3234541607
-2.49513626 0.97305131 -0.21385752  1064901093
0.19637981 -6.35446930 -2.49513626  3234516226
-2.49513626 0.97305131 0.60580087  1064901092
0.70782888 -6.31797647 -2.49513626  3234449556
-2.49513626 0.97305131 0.91130513  1064901092
1.01269972 -6.27632856 -2.49513626  3233942032
-2.49513626 0.97305131 2.20140910  1064901092
2.29735017 -5.92790699 -2.49513626  3233409508
-2.49513626 0.97305131 2.67488360  1064901092
2.95081162 -5.63121319 -2.49513626  3232721723
-2.49513626 0.97305131 3.39501953  1064901092
3.89866590 -5.02177763 -2.49513626  3231623622
-2.49513626 0.97305131 4.13708448  1064901092
4.21442986 -4.75987768 -2.49513626  3230306628
-2.49513626 0.97305131 4.79206419  1064901092
4.85884666 -4.09993505 -2.49513626  3229658135
-2.49513626 0.97305131 4.98859739  1064901092
5.11315441 -3.77802992 -2.49513626  3233268705
-2.49513626 0.97360182 -2.25827837  1064910328
-1.97597206 -5.88234711 -2.49513626  3233626900
-2.49513626 0.97360182 -1.78515470  1064910328
-1.68903756 -5.97106552 -2.49513626  3233855470
-2.49513626 0.97360182 -1.39814603  1064910328
-1.30041993 -6.06756783 -2.49513626  3234031442
-2.49513626 0.97360188 -0.90638447  1064910328
-0.80722028 -6.15262938 -2.49513626  3234154107
-2.49513626 0.97360182 -0.60829252  1064910328
-0.50857729 -6.18448162 -2.49513626  3234210791
-2.49513626 0.97360182 -0.30877298  1064910328
-0.10864951 -6.20440578 -2.49513626  3234232839
-2.49513626 0.97360182 0.29172543  1064910328
0.49156258 -6.18585825 -2.49513626  3234158141
-2.49513626 0.97360182 0.88949621  1064910328
1.18560457 -6.09104300 -2.49513626  3233957537
-2.49513626 0.97360182 1.47893548  1064910328
1.57597649 -6.00189829 -2.49513626  3233757400
-2.49513626 0.97360182 1.76880205  1064910328
1.86453497 -5.91861248 -2.49513626  3233433970
-2.49513626 0.97360182 2.24237156  1064910328
2.42788482 -5.71067715 -2.49513626  3233117925
-2.49513626 0.97360182 2.88019371  1064910328
2.96850085 -5.44926310 -2.49513626  3232551476
-2.49513626 0.97360182 3.22869110  1064910328
3.39798832 -5.19231606 -2.49513626  3231998159
-2.49513626 0.97360182 3.64523911  1064910328
3.72578669 -4.96235657 -2.49513626  3231106687
-2.49513626 0.97360182 4.33354902  1064910328
4.54337931 -4.22660351 -2.49513626  3229777270
-2.49513626 0.97360182 4.99078846  1064910328
-2.20514894 -5.64386988 -2.49513626  3233134603
-2.49513626 0.97412860 -2.02190828  1064919166
-1.83656061 -5.77434254 -2.49513626  3233453107
-2.49513626 0.97412860 -1.55501509  1064919166
-1.17406809 -5.94453669 -2.49513626  3233765006
-2.49513626 0.97412860 -0.88506109  1064919166
-0.59398198 -6.03018522 -2.49513626  3233890144
-2.49513626 0.97412860 -0.20382881  1064919166
0.28486222 -6.05267143 -2.49513626  3233907553
-2.49513626 0.97412860 0.77170306  1064919166
0.86856854 -5.99679661 -2.49513626  3233698800
-2.49513626 0.97412860 1.25352430  1064919166
1.34900832 -5.90729618 -2.49513626  3233566712
-2.49513626 0.97412860 1.53890002  1064919166
1.72718883 -5.80799341 -2.49513626  3233282510
-2.49513626 0.97412860 2.00618887  1064919166
2.28048611 -5.61385489 -2.49513626  3232919885
-2.49513626 0.97412860 2.63780260  1064919166
2.81243443 -5.36713982 -2.49513626  3232285017
-2.49513626 0.97412860 3.06883574  1064919166
3.15273309 -5.17457771 -2.49513626  3231969253
-2.49513626 0.97412860 3.31804800  1064919166
3.39941692 -5.01596880 -2.49513626  3231509235
-2.49513626 0.97412860 3.63813400  1064919166
3.79257846 -4.72570992 -2.49513626  3231006384
-2.49513626 0.97412860 4.01679611  1064919166
4.08946848 -4.47126722 -2.49513626  3230462807
-2.49513626 0.97412860 4.23159885  1064919166
4.43649244 -4.12716866 -2.49513626  3229729536
-2.49513626 0.97412860 4.63099527  1064919166
4.69343710 -3.83244324 -2.49513626  3228591595
-2.49513626 0.97412860 -2.06489277  1064927629
-1.97512376 -5.57991076 -2.49513626  3233054941
-2.49513626 0.97463304 -1.70282423  1064927629
-1.51903307 -5.72093105 -2.49513626  3233272970
-2.49513626 0.97463304 -1.33366191  1064927629
-1.05305970 -5.82473660 -2.49513626  3233474872
-2.49513626 0.97463304 -0.86458319  1064927629
-0.76999205 -5.86886597 -2.49513626  3233557830
-2.49513626 0.97463304 -0.58023703  1064927629
-0.48512289 -5.89925146 -2.49513626  3233611904
-2.49513626 0.97463304 -0.19911237  1064927629
-0.00814003 -5.91915894 -2.49513626  3233637505
-2.49513626 0.97463304 0.18283969  1064927629
0.27827057 -5.91262007 -2.49513626  3233561680
-2.49513626 0.97463304 1.31779397  1064927629
1.50329125 -5.72508526 -2.49513626  3233179421
-2.49513626 0.97463304 1.68722332  1064927629
1.77854133 -5.64564562 -2.49513626  3233003526
-2.49513626 0.97463304 1.95976722  1064927629
2.13895178 -5.51918268 -2.49513626  3232726167
-2.49513626 0.97463304 2.40349436  1064927629
2.66240907 -5.28659391 -2.49513626  3232220824
-2.49513626 0.97463286 2.83159208  1064927629
2.91508746 -5.15157986 -2.49513626  3231826249
-2.49513626 0.97463304 3.16093922  1064927629
3.47711897 -4.79021358 -2.49513626  3231030781
-2.49513626 0.97463304 3.70482206  1064927629
4.06479359 -4.30278492 -2.49513626  3230110361
-2.49513626 0.97463304 4.20150232  1064927629
4.33383608 -4.03167152 -2.49513626  3229451447
-2.49513626 0.97463304 4.46165895  1064927629
4.52383757 -3.81725097 -2.49513626  3228227050
-2.49513626 0.97463304 4.70323944  1064927629
4.76061106 -3.51754093 -2.49513626  3232451672
-2.49513626 0.97511649 -2.10507226  1064935740
-1.75321269 -5.51228428 -2.49513626  3232843383
-2.49513626 0.97511649 -1.39404917  1064935740
-1.21219742 -5.65593290 -2.49513626  3233162674
-2.49513626 0.97511649 -0.93711025  1064935740
-0.84489423 -5.72233915 -2.49513626  3233253115
-2.49513626 0.97511649 -0.47407517  1064935740
-0.38099921 -5.77181482 -2.49513626  3233341165
-2.49513626 0.97511649 -0.10127859  1064935740
-0.00795466 -5.78437042 -2.49513626  3233332001
-2.49513626 0.97511649 0.45821449  1064935740
0.55118924 -5.75805712 -2.49513626  3233280770
-2.49513626 0.97511649 0.82915157  1064935740
0.92140555 -5.71051931 -2.49513626  3233168563
-2.49513626 0.97511649 1.55913520  1064935740
1.64880276 -5.54440784 -2.49513626  3232795638
-2.49513626 0.97511649 1.82683074  1064935740
2.00295424 -5.42652750 -2.49513626  3232536473
-2.49513626 0.97511649 2.17699099  1064935740
2.26317286 -5.32325935 -2.49513626  3232311119
-2.49513626 0.97511649 2.43374467  1064935740
2.60178185 -5.16621017 -2.49513626  3231685342
-2.49513626 0.97511649 3.08896017  1064935740
3.24514031 -4.78832674 -2.49513626  3231156214
-2.49513626 0.97511649 3.69277239  1064935740
3.76412678 -4.39207888 -2.49513626  3229908043
-2.49513626 0.97511649 4.17103338  1064935740
4.23514938 -3.93986297 -2.49513626  3228780126
-2.49513626 0.97511649 4.48043585  1064935740
4.53887892 -3.58575106 -2.49513626  3232199973
-2.49513626 0.97558028 -1.80062282  1064943521
-1.71390402 -5.38869381 -2.49513626  3232582902
-2.49513626 0.97558028 -1.53914976  1064943521
-1.36279464 -5.48801184 -2.49513626  3232895040
-2.49513626 0.97558028 -0.73558897  1064943521
-0.64503312 -5.61777687 -2.49513626  3233027096
-2.49513626 0.97558028 -0.37245697  1064943521
-0.28137204 -5.64768171 -2.49513626  3233077499
-2.49513626 0.97558028 -0.00777632  1064943521
0.17467022 -5.65198851 -2.49513626  3233060560
-2.49513626 0.97558028 0.53883046  1064943521
0.62957913 -5.61952925 -2.49513626  3232961747
-2.49513626 0.97558028 0.90074706  1064943521
0.99069792 -5.56722355 -2.49513626  3232827680
-2.49513626 0.97558028 1.25891304  1064943521
1.34769213 -5.49174023 -2.49513626  3232592244
-2.49513626 0.97558028 1.69907391  1064943521
2.21243072 -5.20390368 -2.49513626  3231983474
-2.49513626 0.97558028 2.46163344  1064943521
2.54344773 -5.05037880 -2.49513626  3231729453
-2.49513626 0.97558028 2.70507288  1064943521
2.86387873 -4.87582731 -2.49513626  3231352590
-2.49513626 0.97558028 3.09644580  1064943521
3.17238212 -4.68097067 -2.49513626  3230822413
-2.49513626 0.97558028 3.39515591  1064943521
3.67973351 -4.29360485 -2.49513626  3230104135
-2.49513626 0.97558028 4.01377344  1064943521
4.14019489 -3.85152984 -2.49513626  3228709084
-2.49513626 0.97558028 4.26230526  1064943521
4.32170582 -3.64669061 -2.49513626  3227837744
-2.49513626 0.97558028 4.43711281  1064943521
4.54789925 -3.36037183 -2.49513626  3232027076
-2.49513626 0.97602546 -1.92905951  1064950990
-1.84519637 -5.21285248 -2.49513626  3232218628
-2.49513626 0.97602546 -1.50515473  1064950990
-1.07145500 -5.42499113 -2.49513626  3232637280
-2.49513626 0.97602546 -0.89586568  1064950990
-0.80770773 -5.47048283 -2.49513626  3232723745
-2.49513626 0.97602546 -0.45320922  1064950990
-0.36423048 -5.51778269 -2.49513626  3232815719
-2.49513626 0.97602546 -0.09682103  1064950990
0.08161381 -5.52918768 -2.49513626  3232799156
-2.49513626 0.97602546 0.43804708  1064950990
0.52692968 -5.50462818 -2.49513626  3232750181
-2.49513626 0.97602546 0.70425695  1064950990
0.88085204 -5.45918274 -2.49513626  3232571417
-2.49513626 0.97602546 1.31792605  1064950990
1.40440226 -5.34847879 -2.49513626  3232393067
-2.49513626 0.97602546 1.57623470  1064950990
1.74642646 -5.24676800 -2.49513626  3232038639
-2.49513626 0.97602546 2.08117580  1064950990
2.16356444 -5.08896494 -2.49513626  3231823212
-2.49513626 0.97602546 2.32662773  1064950990
2.48727083 -4.93883371 -2.49513626  3231497446
-2.49513626 0.97602546 2.64532518  1064950990
2.95300722 -4.67529011 -2.49513626  3230929072
-2.49513626 0.97602546 3.17576337  1064950990
3.24838710 -4.47510481 -2.49513626  3230385767
-2.49513626 0.97602546 3.46111178  1064950990
3.53024435 -4.25628424 -2.49513626  3229782868
-2.49513626 0.97602546 3.92511988  1064950990
3.98745441 -3.83129120 -2.49513626  3228634543
-2.49513626 0.97602546 4.10898924  1064950990
4.16816282 -3.63386965 -2.49513626  3227794359
-2.49513626 0.97602546 4.28323746  1064950990
4.39385223 -3.35747743 -2.49513626  3226619979
-2.49513626 0.97602546 -2.04964828  1064958165
-1.88706625 -5.06958961 -2.49513626  3231919638
-2.49513626 0.97645313 -1.55617702  1064958165
-1.47238946 -5.20517302 -2.49513626  3232189912
-2.49513626 0.97645313 -1.21880853  1064958165
-1.13361824 -5.28929567 -2.49513626  3232388861
-2.49513626 0.97645313 -0.87636310  1064958165
-0.79012495 -5.35139704 -2.49513626  3232495786
-2.49513626 0.97645313 -0.18196504  1064958165
-0.00744030 -5.40940619 -2.49513626  3232568591
-2.49513626 0.97645313 0.16709286  1064958165
0.25430736 -5.40343237 -2.49513626  3232534181
-2.49513626 0.97645313 0.51545864  1064958165
0.68892616 -5.36536407 -2.49513626  3232424979
-2.49513626 0.97645313 0.94772559  1064958165
1.03352809 -5.30975962 -2.49513626  3232285121
-2.49513626 0.97645313 1.45806479  1064958165
1.54192197 -5.18500042 -2.49513626  3231989213
-2.49513626 0.97645313 1.87311447  1064958165
1.95474768 -5.04388046 -2.49513626  3231735730
-2.49513626 0.97645313 2.11646461  1064958165
2.19650769 -4.94338751 -2.49513626  3231516841
-2.49513626 0.97645313 2.43312526  1064958165
2.58773685 -4.75029898 -2.49513626  3231098714
-2.49513626 0.97645313 2.73965764  1064958165
2.81455588 -4.61952686 -2.49513626  3230816825
-2.49513626 0.97645313 2.96213698  1064958165
3.03477716 -4.47793007 -2.49513626  3230512468
-2.49513626 0.97645313 3.17767215  1064958165
3.31725955 -4.27288246 -2.49513626  3230072951
-2.49513626 0.97645313 3.52012229  1064958165
3.58593345 -4.05003881 -2.49513626  3229579087
-2.49513626 0.97645313 3.71473908  1064958165
3.83967376 -3.81033397 -2.49513626  3228556651
-2.49513626 0.97645313 3.96061158  1064958165
4.01954031 -3.62008810 -2.49513626  3227746626
-2.49513626 0.97645313 4.13425016  1064958165
4.18999672 -3.42135668 -2.49513626  3226901668
-2.49513626 0.97645313 4.29820156  1064958165
-1.76628244 -4.98991251 -2.49513626  3231748479
-2.49513626 0.97686422 -1.52277482  1064965062
-1.44078362 -5.09344053 -2.49513626  3231954549
-2.49513626 0.97686422 -1.27569938  1064965062
-0.85755199 -5.22336674 -2.49513626  3232231993
-2.49513626 0.97686422 -0.43382743  1064965062
-0.26339054 -5.28673935 -2.49513626  3232320036
-2.49513626 0.97686422 -0.00727933  1064965062
0.07812355 -5.29271984 -2.49513626  3232304182
-2.49513626 0.97686422 0.41931280  1064965062
0.58934265 -5.26038551 -2.49513626  3232235924
-2.49513626 0.97686422 0.92738295  1064965062
1.09504366 -5.17879057 -2.49513626  3232047717
-2.49513626 0.97686422 1.42676723  1064965062
1.59048510 -5.04869843 -2.49513626  3231758162
-2.49513626 0.97686422 1.75255001  1064965062
1.91278803 -4.93560696 -2.49513626  3231369978
-2.49513626 0.97686422 2.30431032  1064965062
2.38089705 -4.72760963 -2.49513626  3230973737
-2.49513626 0.97686422 2.60685825  1064965062
2.68084836 -4.56421328 -2.49513626  3230610941
-2.49513626 0.97686422 2.96963501  1064965062
3.37926483 -4.07425547 -2.49513626  3229459323
-2.49513626 0.97686422 3.69660521  1064965062
3.75725341 -3.72854304 -2.49513626  3228219212
-2.49513626 0.97686422 3.87559533  1064965062
3.93325877 -3.54238081 -2.49513626  3227426575
-2.49513626 0.97686422 4.04550600  1064965062
4.10005522 -3.34791517 -2.49513626  3226599753
-2.49513626 0.97686422 4.20593786  1064965062
-1.96318030 -4.79487371 -2.49513626  3231346166
-2.49513626 0.97725976 -1.72887874  1064971698
-1.32965052 -5.00768566 -2.49513626  3231770973
-2.49513626 0.97725976 -1.08579409  1064971698
-1.00391388 -5.08301210 -2.49513626  3231917908
-2.49513626 0.97725976 -0.75679177  1064971698
-0.67399490 -5.13717937 -2.49513626  3232020322
-2.49513626 0.97725976 -0.17428842  1064971698
-0.00712518 -5.18119907 -2.49513626  3232069578
-2.49513626 0.97725976 0.57686275  1064971698
0.74268979 -5.12769890 -2.49513626  3231952507
-2.49513626 0.97725976 0.98992735  1064971698
1.15350091 -5.05116987 -2.49513626  3231778135
-2.49513626 0.97725976 1.31587195  1064971698
1.39655375 -4.98944092 -2.49513626  3231535124
-2.49513626 0.97725976 1.71543694  1064971698
1.79409266 -4.86067057 -2.49513626  3231357008
-2.49513626 0.97725976 1.94998312  1064971698
2.25551534 -4.66449594 -2.49513626  3230849930
-2.49513626 0.97725970 2.47856951  1064971698
2.62407804 -4.46756077 -2.49513626  3230018840
-2.49513626 0.97725976 3.11087084  1064971698
3.24293113 -4.04082680 -2.49513626  3229563657
-2.49513626 0.97725976 3.37161922  1064971698
3.43465471 -3.87917972 -2.49513626  3228872779
-2.49513626 0.97725976 3.55802441  1064971698
3.67768931 -3.64958763 -2.49513626  3227638690
-2.49513626 0.97725976 3.90541101  1064971698
4.01323271 -3.27701926 -2.49513626  3226308308
-2.49513626 0.97725976 4.11687279  1064971698
4.16709137 -3.07899952 -2.49513626  3231070886
-2.49513626 0.97764045 -1.76968002  1064978085
-1.69274545 -4.78216505 -2.49513626  3231363710
-2.49513626 0.97764045 -1.45937502  1064978085
-1.38079691 -4.88138103 -2.49513626  3231507859
-2.49513626 0.97764045 -1.14299166  1064978085
-1.06309962 -4.96027040 -2.49513626  3231662540
-2.49513626 0.97764039 -0.65990812  1064978085
-0.57867026 -5.03980350 -2.49513626  3231850972
-2.49513626 0.97764045 0.07487150  1064978085
0.32021347 -5.06279850 -2.49513626  3231777518
-2.49513626 0.97764045 0.88877267  1064978085
0.96923888 -4.97946405 -2.49513626  3231634007
-2.49513626 0.97764045 1.12939262  1064978085
1.20903862 -4.92673397 -2.49513626  3231515329
-2.49513626 0.97764045 1.36736536  1064978085
1.52426851 -4.83850002 -2.49513626  3231319648
-2.49513626 0.97764045 1.83315122  1064978084
1.98480999 -4.66851377 -2.49513626  3230876659
-2.49513626 0.97764045 2.28177190  1064978085
2.35457611 -4.49338341 -2.49513626  3230567869
-2.49513626 0.97764045 2.70902801  1064978085
2.77787447 -4.24474955 -2.49513626  3229934763
-2.49513626 0.97764045 2.98000336  1064978085
3.11090684 -4.00708532 -2.49513626  3229431092
-2.49513626 0.97764045 3.30115080  1064978085
3.36286926 -3.79810405 -2.49513626  3228537623
-2.49513626 0.97764045 3.60082388  1064978085
3.65800929 -3.51474810 -2.49513626  3227076098
-2.49513626 0.97764045 3.87707591  1064978085
4.03082895 -3.08008122 -2.49513626  3225481207
-2.49513626 0.97764045 -1.88248205  1064984237
-1.65781188 -4.68347359 -2.49513626  3231154486
-2.49513626 0.97800714 -1.42925823  1064984237
-1.35230231 -4.78064251 -2.49513626  3231295657
-2.49513626 0.97800714 -1.19735420  1064984237
-1.11940348 -4.84047413 -2.49513626  3231413246
-2.49513626 0.97800708 -0.96264595  1064984237
-0.88388115 -4.88896990 -2.49513626  3231506954
-2.49513626 0.97800714 -0.72568297  1064984237
-0.64628798 -4.92601061 -2.49513626  3231594415
-2.49513626 0.97800714 -0.32724181  1064984237
-0.24721433 -4.96207094 -2.49513626  3231642998
-2.49513626 0.97800714 0.15346566  1064984237
0.23356546 -4.96273232 -2.49513626  3231623819
-2.49513626 0.97800714 0.39356199  1064984237
0.47341803 -4.94561863 -2.49513626  3231579818
-2.49513626 0.97800714 0.63273716  1064984237
0.87043059 -4.89138174 -2.49513626  3231452657
-2.49513626 0.97800714 1.10608494  1064984237
1.18408632 -4.82506037 -2.49513626  3231258970
-2.49513626 0.97800714 1.72034562  1064984237
1.79531980 -4.63250446 -2.49513626  3230878527
-2.49513626 0.97800714 2.09035277  1064984237
2.16279817 -4.47275829 -2.49513626  3230454295
-2.49513626 0.97800714 2.37668538  1064984237
2.51621270 -4.28391886 -2.49513626  3229850459
-2.49513626 0.97800714 2.85325623  1064984237
2.98299456 -3.97303486 -2.49513626  3229088633
-2.49513626 0.97800714 3.17173791  1064984237
3.23302507 -3.77237487 -2.49513626  3227751850
-2.49513626 0.97800714 3.52651381  1064984237
3.58251786 -3.44221330 -2.49513626  3227030245
-2.49513626 0.97800714 3.69171047  1064984237
3.74487424 -3.26484084 -2.49513626  3226016681
-2.49513626 0.97800714 3.89846087  1064984237
3.99579787 -2.95243335 -2.49513626  3230732304
-2.49513626 0.97836053 -1.69782639  1064990166
-1.54978156 -4.61360168 -2.49513626  3230952074
-2.49513626 0.97836053 -1.40012157  1064990166
-1.32473397 -4.68318510 -2.49513626  3231169743
-2.49513626 0.97836053 -1.01993549  1064990166
-0.78847969 -4.80264902 -2.49513626  3231322724
-2.49513626 0.97836053 -0.55517477  1064990166
-0.47709119 -4.84350348 -2.49513626  3231419549
-2.49513626 0.97836053 -0.16371712  1064990166
-0.00669301 -4.86693859 -2.49513626  3231400117
-2.49513626 0.97836053 0.46376693  1064990166
0.77526557 -4.80480051 -2.49513626  3231211396
-2.49513626 0.97836053 1.08353662  1064990166
1.15994763 -4.72669649 -2.49513626  3231054427
-2.49513626 0.97836053 1.53708506  1064990166
1.68527365 -4.56585217 -2.49513626  3230742484
-2.49513626 0.97836053 1.83170843  1064990166
1.97623789 -4.44765425 -2.49513626  3230341422
-2.49513626 0.97836053 2.32823372  1064990166
2.39688706 -4.23581076 -2.49513626  3230026345
-2.49513626 0.97836053 2.53230476  1064990166
2.59903479 -4.11487007 -2.49513626  3229674633
-2.49513626 0.97836053 2.98459673  1064990166
3.04623365 -3.79573417 -2.49513626  3228549108
-2.49513626 0.97836053 3.16711640  1064990166
3.39885950 -3.48351765 -2.49513626  3226980230
-2.49513626 0.97836053 3.61645103  1064990166
3.66853142 -3.19828391 -2.49513626  3226001428
-2.49513626 0.97836053 3.81898665  1064990166
