# .PCD v0.7 - Point Cloud Data file format
VERSION 0.7
FIELDS x y z intensity
SIZE 4 4 4 4
TYPE F F F F
COUNT 1 1 1 1
WIDTH 1013
HEIGHT 1
VIEWPOINT 0 0 0 1 0 0 0
POINTS 1013
DATA ascii
-2.49513626 0.88672054 17.14818382  1063452702
17.54222679 -24.27815628 -2.49513626  3250428032
-2.49513626 0.88672054 18.69653702  1063452702
19.07170296 -23.09608078 -2.49513626  3249782717
-2.49513626 0.88672054 20.16704369  1063452702
-12.75477409 -24.04269028 -2.49513626  3250817203
-2.49513626 0.89644140 -11.57633972  1063615791
-11.17737007 -24.81534386 -2.49513626  3251105944
-2.49513626 0.89644140 -10.37079430  1063615791
-9.96340656 -25.32717514 -2.49513626  3251363982
-2.49513626 0.89644140 -9.14096165  1063615791
-8.72610950 -25.77964592 -2.49513626  3251590711
-2.49513626 0.89644140 -7.88969898  1063615791
-7.04507017 -26.28882027 -2.49513626  3251843408
-2.49513626 0.89644140 -6.19310236  1063615791
-5.76464510 -26.59894753 -2.49513626  3252038457
-2.49513626 0.89644146 -3.60207367  1063615791
-3.16629601 -27.03164482 -2.49513626  3252238782
-2.49513626 0.89644140 -1.41607440  1063615791
-0.97731048 -27.19889832 -2.49513626  3252271847
-2.49513626 0.89644146 0.77914083  1063615791
2.53235745 -27.09837914 -2.49513626  3252159804
-2.49513626 0.89644140 3.84073877  1063615791
4.70818758 -26.80612183 -2.49513626  3251920894
-2.49513626 0.89644140 6.42746305  1063615791
6.85337830 -26.33944702 -2.49513626  3251400114
-2.49513626 0.89644140 9.77865982  1063615760
10.59314823 -25.07030869 -2.49513626  3250862590
-2.49513626 0.89644140 12.18819714  1063615791
12.96710682 -23.92883682 -2.49513626  3250436955
-2.49513626 0.89644140 14.10988331  1063615791
14.48360062 -23.04257965 -2.49513626  3249959533
-2.49513626 0.89644140 15.21960449  1063615791
16.98861313 -21.26316643 -2.49513626  3249005533
-2.49513626 0.89644140 17.66590118  1063615791
17.99769783 -20.41612244 -2.49513626  3248237456
-2.49513626 0.89644140 19.27712059  1063615791
19.88703537 -18.58066177 -2.49513626  3249648759
-2.49513626 0.90462142 -10.96877861  1063753029
-9.50151062 -23.05392456 -2.49513626  3250168394
-2.49513626 0.90462142 -8.75265694  1063753029
-7.99468470 -23.61878777 -2.49513626  3250514525
-2.49513626 0.90462154 -6.84235811  1063753029
-6.45454884 -24.08528519 -2.49513626  3250683275
-2.49513626 0.90462142 -4.88753080  1063753029
-4.49234104 -24.52714729 -2.49513626  3250960889
-2.49513626 0.90462142 -2.90089679  1063753029
-2.10022712 -24.84655190 -2.49513626  3251045509
-2.49513626 0.90462142 -0.89539349  1063753029
-0.49317464 -24.93025017 -2.49513626  3251074864
-2.49513626 0.90462148 0.71383232  1063753031
1.11594129 -24.91018105 -2.49513626  3251037115
-2.49513626 0.90462142 2.72040653  1063753029
3.12000704 -24.73919296 -2.49513626  3250878795
-2.49513626 0.90462142 5.88870430  1063753031
6.66750479 -24.02723503 -2.49513626  3250541816
-2.49513626 0.90462142 7.43935108  1063753029
7.82241631 -23.67640495 -2.49513626  3250348148
-2.49513626 0.90462142 8.58234215  1063753029
9.33332443 -23.12252235 -2.49513626  3249961341
-2.49513626 0.90462142 10.44133377  1063753029
10.80535984 -22.47234726 -2.49513626  3249595727
-2.49513626 0.90462142 11.88019753  1063753028
12.23240566 -21.72856903 -2.49513626  3249289741
-2.49513626 0.90462142 13.94388962  1063753029
14.27563953 -20.44427299 -2.49513626  3248599206
-2.49513626 0.90462142 15.24824810  1063753029
15.56462383 -19.48088264 -2.49513626  3248083273
-2.49513626 0.90462142 16.48912239  1063753028
16.78880501 -18.43633461 -2.49513626  3247525346
-2.49513626 0.90462142 17.37496376  1063753029
17.94304276 -17.31500626 -2.49513626  3246927763
-2.49513626 0.90462142 -10.78050995  1063870101
-10.45119572 -20.49252892 -2.49513626  3248917892
-2.49513626 0.91159946 -9.44726753  1063870101
-8.42121220 -21.40687370 -2.49513626  3249295837
-2.49513626 0.91159946 -4.50894928  1063870101
-3.41205597 -22.74925804 -2.49513626  3249957156
-2.49513626 0.91159952 -2.67619753  1063870101
-2.30716610 -22.88772964 -2.49513626  3250020405
-2.49513626 0.91159946 -1.56742048  1063870101
-0.82603770 -22.98888206 -2.49513626  3250063178
-2.49513626 0.91159946 0.28741339  1063870101
0.65854049 -22.99429131 -2.49513626  3250040900
-2.49513626 0.91159946 2.50968862  1063870101
3.97942185 -22.65690422 -2.49513626  3249807922
-2.49513626 0.91159946 5.07117462  1063870101
5.79256868 -22.26246071 -2.49513626  3249624101
-2.49513626 0.91159946 6.50792456  1063870101
6.86310577 -21.95606232 -2.49513626  3249326375
-2.49513626 0.91159946 8.26505184  1063870101
8.61037731 -21.33148384 -2.49513626  3249112230
-2.49513626 0.91159946 9.63256645  1063870101
10.95996952 -20.22498703 -2.49513626  3248512304
-2.49513626 0.91159946 11.60690117  1063870101
12.24173927 -19.47590828 -2.49513626  3248108777
-2.49513626 0.91159946 13.16986752  1063870101
13.47249699 -18.64572334 -2.49513626  3247663168
-2.49513626 0.91159946 14.35900974  1063870101
14.64714050 -17.73788071 -2.49513626  3247049797
-2.49513626 0.91159946 15.76079464  1063870101
16.02912140 -16.49964523 -2.49513626  3246081580
-2.49513626 0.91159946 -9.69862080  1063971134
-8.13434696 -19.73670578 -2.49513626  3248417876
-2.49513626 0.91762149 -6.84433317  1063971134
-6.51716423 -20.32810211 -2.49513626  3248714216
-2.49513626 0.91762149 -5.85781336  1063971134
-5.52581120 -20.61966515 -2.49513626  3248940864
-2.49513626 0.91762149 -3.84594011  1063971134
-3.16636658 -21.11098671 -2.49513626  3249096339
-2.49513626 0.91762149 -2.48348784  1063971134
-2.14103198 -21.23961067 -2.49513626  3249179636
-2.49513626 0.91762149 -0.07775228  1063971134
0.61111873 -21.33850479 -2.49513626  3249183584
-2.49513626 0.91762143 1.64302504  1063971134
2.32896829 -21.21982574 -2.49513626  3249106838
-2.49513626 0.91762149 3.01248741  1063971134
3.35311270 -21.08226013 -2.49513626  3248957843
-2.49513626 0.91762149 5.37545347  1063971134
6.03930283 -20.47515488 -2.49513626  3248571764
-2.49513626 0.91762149 7.34743595  1063971134
7.99035454 -19.79543495 -2.49513626  3248312247
-2.49513626 0.91762149 8.93893623  1063971134
9.55982304 -19.08703613 -2.49513626  3247755520
-2.49513626 0.91762149 10.77110291  1063971134
11.36022472 -18.07347298 -2.49513626  3247281266
-2.49513626 0.91762149 12.50235653  1063971134
12.77993298 -17.09907722 -2.49513626  3246516954
-2.49513626 0.91761982 14.37306976  1063971134
15.12002754 -15.06950283 -2.49513626  3245157708
-2.49513626 0.91762149 -9.33100224  1064059206
-9.04596519 -17.73717499 -2.49513626  3247377397
-2.49513626 0.92287099 -8.46889400  1064059206
-8.17702293 -18.15415192 -2.49513626  3247588631
-2.49513626 0.92287099 -7.28892660  1064059206
-6.38375473 -18.85960007 -2.49513626  3247943270
-2.49513626 0.92287099 -5.77186346  1064059206
-3.27063489 -19.64023590 -2.49513626  3248326169
-2.49513626 0.92287099 -1.99695444  1064059206
-1.35666621 -19.86445045 -2.49513626  3248434908
-2.49513626 0.92287099 -0.07251767  1064059206
1.21192276 -19.87380600 -2.49513626  3248396355
-2.49513626 0.92287099 2.49132752  1064059206
3.12747073 -19.66356468 -2.49513626  3248284258
-2.49513626 0.92287099 3.76035905  1064059206
4.07536936 -19.48918152 -2.49513626  3248184824
-2.49513626 0.92287099 4.70213652  1064059206
5.63289642 -19.09731483 -2.49513626  3247966221
-2.49513626 0.92287099 6.55045652  1064059206
7.15376282 -18.58118820 -2.49513626  3247618481
-2.49513626 0.92287099 8.04455090  1064059206
8.33740807 -18.08105469 -2.49513626  3247410599
-2.49513626 0.92287099 9.20262146  1064059206
9.48633862 -17.50560570 -2.49513626  3247015396
-2.49513626 0.92287099 10.32236099  1064059206
10.86639023 -16.68407440 -2.49513626  3246561558
-2.49513626 0.92287099 11.91993046  1064059206
12.17572498 -15.75400352 -2.49513626  3245925185
-2.49513626 0.92287099 13.64165783  1064059206
14.10255432 -14.05542183 -2.49513626  3243867424
-2.49513626 0.92287099 -7.93388844  1064136656
-7.66044092 -17.00726891 -2.49513626  3246983040
-2.49513626 0.92748743 -6.82845736  1064136656
-5.69459343 -17.76237297 -2.49513626  3247525612
-2.49513626 0.92748743 -3.06401277  1064136657
-2.76671147 -18.44653893 -2.49513626  3247696145
-2.49513626 0.92748737 -2.17003059  1064136656
-1.87079811 -18.55883598 -2.49513626  3247759435
-2.49513626 0.92748743 -0.66980362  1064136657
-0.06793862 -18.65274620 -2.49513626  3247764032
-2.49513626 0.92748743 1.73556006  1064136655
2.03501344 -18.54152870 -2.49513626  3247684308
-2.49513626 0.92748731 3.52280474  1064136656
3.81790996 -18.25796127 -2.49513626  3247505542
-2.49513626 0.92748743 4.69698238  1064136657
4.98766851 -17.97368431 -2.49513626  3247382646
-2.49513626 0.92748737 5.56504202  1064136657
5.85159969 -17.71126556 -2.49513626  3247237768
-2.49513626 0.92748743 6.42005968  1064136657
6.98183870 -17.29692459 -2.49513626  3246948417
-2.49513626 0.92748743 8.08301067  1064136655
8.35321426 -16.67793274 -2.49513626  3246674919
-2.49513626 0.92748743 8.88704300  1064136657
9.15051460 -16.25415993 -2.49513626  3245829015
-2.49513626 0.92748743 10.67897034  1064136656
10.92436123 -15.11914253 -2.49513626  3245089767
-2.49513626 0.92748731 11.64319420  1064136656
11.87682724 -14.38299656 -2.49513626  3244286021
-2.49513626 0.92748743 12.55894852  1064136657
12.99742794 -13.37895870 -2.49513626  3245863398
-2.49513626 0.93157834 -7.46145201  1064205291
-7.20429850 -15.99456882 -2.49513626  3246448305
-2.49513626 0.93157834 -6.68442678  1064205291
-4.81368017 -16.86880684 -2.49513626  3246923632
-2.49513626 0.93157834 -3.71556115  1064205291
-3.16041517 -17.25514030 -2.49513626  3247098108
-2.49513626 0.93157834 -2.04081511  1064205291
-1.47753441 -17.47984505 -2.49513626  3247178468
-2.49513626 0.93157834 -0.91271698  1064205291
-0.34695694 -17.53869629 -2.49513626  3247199126
-2.49513626 0.93157834 0.50219339  1064205291
1.06775486 -17.50965500 -2.49513626  3247172562
-2.49513626 0.93157834 1.63221407  1064205291
2.47552276 -17.36663628 -2.49513626  3247085676
-2.49513626 0.93157834 3.03463101  1064205291
3.31303501 -17.22648430 -2.49513626  3246973576
-2.49513626 0.93157834 5.50316095  1064205291
5.77122307 -16.56566048 -2.49513626  3246637909
-2.49513626 0.93157834 6.56610346  1064205291
6.82774115 -16.15890312 -2.49513626  3246191607
-2.49513626 0.93157834 8.35786247  1064205291
9.09443188 -15.00064564 -2.49513626  3245027338
-2.49513626 0.93157881 10.04308224  1064205291
10.27386189 -14.21885967 -2.49513626  3243606860
-2.49513626 0.93157834 11.81112385  1064205291
12.01887226 -12.77790737 -2.49513626  3242807582
-2.49513626 0.93157834 12.42494011  1064205291
12.62314510 -12.18131351 -2.49513626  3242171872
-2.49513626 0.93157834 -7.52098417  1064266528
-7.04120159 -14.98202705 -2.49513626  3245440969
-2.49513626 0.93522841 -6.30793810  1064266529
-6.06015015 -15.40501022 -2.49513626  3245964041
-2.49513626 0.93522835 -5.30757475  1064266529
-5.05386257 -15.76382732 -2.49513626  3246227006
-2.49513626 0.93522841 -4.02652073  1064266529
-3.50628996 -16.17855644 -2.49513626  3246585822
-2.49513626 0.93522841 -2.19092679  1064266529
-0.59444082 -16.54346848 -2.49513626  3246681149
-2.49513626 0.93522841 0.47390494  1064266528
1.00761318 -16.52345085 -2.49513626  3246656083
-2.49513626 0.93522835 1.54028237  1064266529
1.80604422 -16.45532990 -2.49513626  3246594973
-2.49513626 0.93522841 2.60023427  1064266529
4.16850233 -16.02071571 -2.49513626  3246096093
-2.49513626 0.93522835 5.94776964  1064266529
6.68839073 -15.14282703 -2.49513626  3245257908
-2.49513626 0.93522835 7.88711309  1064266529
8.12094307 -14.42532539 -2.49513626  3244600751
-2.49513626 0.93522835 8.58220196  1064266528
8.80951118 -14.01542950 -2.49513626  3244004594
-2.49513626 0.93522835 9.69519997  1064266529
10.12312412 -13.09817123 -2.49513626  3243175436
-2.49513626 0.93522835 10.74511433  1064266528
10.94692135 -12.41791630 -2.49513626  3242064478
-2.49513626 0.93522841 11.72512341  1064266528
11.91216564 -11.49521923 -2.49513626  3241464577
-2.49513626 0.93522835 -7.11902523  1064321515
-6.89283562 -14.07189465 -2.49513626  3244484239
-2.49513626 0.93850493 -6.43516827  1064321500
-5.73624992 -14.58166218 -2.49513626  3245177218
-2.49513626 0.93850493 -4.29977608  1064321500
-4.05607176 -15.13531494 -2.49513626  3245551169
-2.49513626 0.93850493 -3.56556940  1064321500
-2.82300591 -15.41298389 -2.49513626  3245900073
-2.49513626 0.93850493 -1.57157004  1064321500
-1.31979275 -15.61369610 -2.49513626  3246022361
-2.49513626 0.93850493 -0.56266981  1064321500
-0.30991200 -15.66631031 -2.49513626  3246037881
-2.49513626 0.93850493 0.95376134  1064321500
1.20601928 -15.62289524 -2.49513626  3245973337
-2.49513626 0.93850493 1.70951653  1064321500
1.96062958 -15.54623604 -2.49513626  3245880190
-2.49513626 0.93850493 2.46126294  1064321500
2.95933557 -15.38738632 -2.49513626  3245640393
-2.49513626 0.93850493 3.94570851  1064321500
4.18989754 -15.09881306 -2.49513626  3245373379
-2.49513626 0.93850493 4.67492342  1064321500
5.62987947 -14.62305641 -2.49513626  3244534754
-2.49513626 0.93850493 7.01713562  1064321500
7.24229527 -13.89527321 -2.49513626  3244059888
-2.49513626 0.93850493 8.12350845  1064321500
8.55165195 -13.13006592 -2.49513626  3243235467
-2.49513626 0.93850493 9.38076782  1064321500
9.58207703 -12.39811230 -2.49513626  3241939268
-2.49513626 0.93850493 10.55016804  1064321500
10.73573685 -11.41373634 -2.49513626  3241023463
-2.49513626 0.93850493 -6.96982527  1064371117
-6.54224062 -13.35614491 -2.49513626  3244032350
-2.49513626 0.94146234 -5.44449186  1064371117
-4.31131077 -14.23376846 -2.49513626  3244610273
-2.49513626 0.94146234 -3.84976840  1064371116
-3.61745954 -14.42572498 -2.49513626  3244997058
-2.49513626 0.94146234 -1.96834779  1064371117
-1.73021770 -14.77139950 -2.49513626  3245130270
-2.49513626 0.94146234 -1.25266397  1064371117
-0.53405064 -14.86279488 -2.49513626  3245205854
-2.49513626 0.94146234 0.42575896  1064371117
0.66559470 -14.85748577 -2.49513626  3245179991
-2.49513626 0.94146234 1.14467490  1064371117
1.38380289 -14.80786610 -2.49513626  3245052850
-2.49513626 0.94146228 2.80881500  1064371117
3.04411030 -14.55750370 -2.49513626  3244825246
-2.49513626 0.94146234 3.51227784  1064371117
3.97678494 -14.33084202 -2.49513626  3244571812
-2.49513626 0.94146234 5.11886930  1064371117
5.34352303 -13.87927628 -2.49513626  3243879362
-2.49513626 0.94146234 6.87392616  1064371117
7.29592705 -12.95983505 -2.49513626  3243078235
-2.49513626 0.94146234 7.71032286  1064371117
8.31672668 -12.32963753 -2.49513626  3242254506
-2.49513626 0.94146234 9.09470177  1064371117
9.28340054 -11.61922169 -2.49513626  3241639059
-2.49513626 0.94146234 9.65350246  1064371117
10.01355457 -10.99620724 -2.49513626  3240973514
-2.49513626 0.94146234 10.70199108  1064371117
-6.42900276 -12.60587788 -2.49513626  3243422078
-2.49513626 0.94414485 -4.53695965  1064416122
-4.32008362 -13.47505474 -2.49513626  3243882515
-2.49513626 0.94414485 -2.77365804  1064416122
-2.54938889 -13.91908073 -2.49513626  3244250530
-2.49513626 0.94414485 -2.09891224  1064416122
-1.64625013 -14.05454063 -2.49513626  3244399360
-2.49513626 0.94414485 -0.73625517  1064416122
-0.50813568 -14.14149857 -2.49513626  3244449172
-2.49513626 0.94414490 -0.05154027  1064416122
0.17680095 -14.14952278 -2.49513626  3244446005
-2.49513626 0.94414485 0.63329071  1064416122
0.86131805 -14.12438965 -2.49513626  3244408071
-2.49513626 0.94414485 1.77059793  1064416122
1.99691224 -14.00901699 -2.49513626  3244267900
-2.49513626 0.94414485 2.44792414  1064416122
2.67250013 -13.89596748 -2.49513626  3244137944
-2.49513626 0.94414485 3.11951184  1064416122
3.34182644 -13.75035858 -2.49513626  3243973957
-2.49513626 0.94414485 4.22180748  1064416122
4.65543032 -13.36290455 -2.49513626  3243461286
-2.49513626 0.94414485 5.92542458  1064416122
6.33700132 -12.65237808 -2.49513626  3242659735
-2.49513626 0.94414485 7.33613920  1064416122
7.91311455 -11.73127556 -2.49513626  3241641062
-2.49513626 0.94414485 8.47153854  1064416122
8.83287430 -11.05534172 -2.49513626  3241055483
-2.49513626 0.94414485 9.86023808  1064416122
10.02273750 -9.98924351 -2.49513626  3239917611
-2.49513626 0.94414485 -6.32378578  1064457126
-6.13061380 -12.02079582 -2.49513626  3242419672
-2.49513626 0.94658887 -4.93983650  1064457126
-4.73656702 -12.63522148 -2.49513626  3243016439
-2.49513626 0.94658887 -4.11957550  1064457126
-3.91169572 -12.91443443 -2.49513626  3243220271
-2.49513626 0.94658887 -3.49293089  1064457126
-3.07052779 -13.13985538 -2.49513626  3243442378
-2.49513626 0.94658887 -2.64492393  1064457126
-2.43106079 -13.27305031 -2.49513626  3243638936
-2.49513626 0.94658887 -1.56984270  1064457127
-1.13655329 -13.44589806 -2.49513626  3243744242
-2.49513626 0.94658887 -0.48454824  1064457127
0.60390013 -13.48032951 -2.49513626  3243737175
-2.49513626 0.94658887 1.47216809  1064457126
1.90423203 -13.35881519 -2.49513626  3243587771
-2.49513626 0.94658887 2.33430958  1064457126
2.54846239 -13.25101280 -2.49513626  3243307466
-2.49513626 0.94658893 3.60817313  1064457127
4.02586031 -12.87930107 -2.49513626  3242975755
-2.49513626 0.94658887 5.65040684  1064457126
6.23678017 -11.96605778 -2.49513626  3241713435
-2.49513626 0.94658887 7.18093348  1064457126
8.07834530 -10.80852795 -2.49513626  3240809479
-2.49513626 0.94658887 8.75871086  1064457126
9.08538818 -9.97695637 -2.49513626  3239920594
-2.49513626 0.94658887 9.40258980  1064457126
9.71001244 -9.37014484 -2.49513626  3239273820
-2.49513626 0.94658887 -6.04246616  1064494639
-5.85788441 -11.48604012 -2.49513626  3242029199
-2.49513626 0.94882482 -4.91307735  1064494639
-4.52585840 -12.07313728 -2.49513626  3242348614
-2.49513626 0.94882482 -4.13392162  1064494639
-3.93631411 -12.27801132 -2.49513626  3242553426
-2.49513626 0.94882482 -3.33754539  1064494639
-2.52726293 -12.64345837 -2.49513626  3242912740
-2.49513626 0.94882482 -2.11796069  1064494639
-1.50000811 -12.80601692 -2.49513626  3243102543
-2.49513626 0.94882482 -0.46299285  1064494639
1.19968331 -12.83763885 -2.49513626  3242998670
-2.49513626 0.94882482 2.02525496  1064494639
2.23046494 -12.69917965 -2.49513626  3242890660
-2.49513626 0.94882482 2.84239006  1064494639
3.04495668 -12.52885151 -2.49513626  3242641669
-2.49513626 0.94882482 3.64768791  1064494639
3.84676719 -12.30635834 -2.49513626  3242451465
-2.49513626 0.94882482 4.43779182  1064494639
4.63255548 -12.03260231 -2.49513626  3242151152
-2.49513626 0.94882482 5.01841307  1064494639
5.39904547 -11.70873260 -2.49513626  3241603223
-2.49513626 0.94882482 6.14305449  1064494639
6.32517815 -11.23548794 -2.49513626  3241060578
-2.49513626 0.94882482 7.03673744  1064494639
7.55132294 -10.45091248 -2.49513626  3240176646
-2.49513626 0.94882482 8.20971107  1064494639
8.36907482 -9.80829525 -2.49513626  3239462100
-2.49513626 0.94882482 9.13237572  1064494639
9.27805710 -8.95331001 -2.49513626  3241047143
-2.49513626 0.95087790 -4.88671064  1064529084
-4.33250332 -11.55734921 -2.49513626  3241873122
-2.49513626 0.95087790 -3.57799816  1064529084
-3.19495702 -11.92204666 -2.49513626  3242167681
-2.49513626 0.95087790 -2.80858994  1064529084
-2.61427951 -12.06268883 -2.49513626  3242442514
-2.49513626 0.95087790 -1.03959703  1064529084
-0.84100223 -12.31404495 -2.49513626  3242548019
-2.49513626 0.95087790 -0.04495396  1064529084
0.15421337 -12.34176350 -2.49513626  3242551064
-2.49513626 0.95087790 0.94997603  1064529084
1.54438305 -12.24572754 -2.49513626  3242395712
-2.49513626 0.95087790 2.13517594  1064529084
2.33106065 -12.12060642 -2.49513626  3242237965
-2.49513626 0.95087790 3.10802484  1064529083
3.30037141 -11.89329433 -2.49513626  3241903026
-2.49513626 0.95087790 4.80401707  1064529084
5.16838837 -11.20851040 -2.49513626  3241186057
-2.49513626 0.95087790 5.88061380  1064529084
6.39886808 -10.55449772 -2.49513626  3240571561
-2.49513626 0.95087790 7.06633997  1064529084
8.16199970 -9.25876236 -2.49513626  3238449774
-2.49513626 0.95087790 -5.54656982  1064560820
-5.37713671 -10.54339695 -2.49513626  3240759181
-2.49513626 0.95276952 -4.86061573  1064560820
-4.68585205 -10.86828232 -2.49513626  3241303503
-2.49513626 0.95276952 -3.79465532  1064560820
-2.87876558 -11.47996330 -2.49513626  3241783663
-2.49513626 0.95276958 -2.13227439  1064560820
-1.56640589 -11.73128986 -2.49513626  3241940132
-2.49513626 0.95276952 -0.61579430  1064560820
-0.42499548 -11.82777119 -2.49513626  3242023433
-2.49513626 0.95276952 0.91093075  1064560820
1.48090553 -11.74238873 -2.49513626  3241900207
-2.49513626 0.95276952 2.23524737  1064560820
2.60912013 -11.54423237 -2.49513626  3241673362
-2.49513626 0.95276952 2.98027539  1064560820
3.34832811 -11.35189629 -2.49513626  3241459200
-2.49513626 0.95276952 4.78187418  1064560820
4.95595264 -10.74780750 -2.49513626  3240710415
-2.49513626 0.95276952 5.47025681  1064560820
5.63890409 -10.40574932 -2.49513626  3240428467
-2.49513626 0.95276952 6.13585567  1064560820
6.61843109 -9.81189060 -2.49513626  3239789270
-2.49513626 0.95276952 6.93159533  1064560820
7.53594828 -9.12613297 -2.49513626  3239054765
-2.49513626 0.95276952 7.82651520  1064560820
8.10892487 -8.62103176 -2.49513626  3238374804
-2.49513626 0.95276952 8.51661682  1064560820
-5.16412020 -10.12572098 -2.49513626  3240317668
-2.49513626 0.95451802 -4.83468914  1064590155
-4.66806555 -10.36376476 -2.49513626  3240558846
-2.49513626 0.95451802 -4.33120966  1064590155
-4.16107178 -10.57752323 -2.49513626  3240774377
-2.49513626 0.95451802 -3.47012782  1064590155
-3.11904836 -10.93022919 -2.49513626  3241174830
-2.49513626 0.95451802 -2.04780507  1064590155
-1.86712456 -11.21214294 -2.49513626  3241400933
-2.49513626 0.95451802 -1.32235622  1064590155
-1.14001310 -11.30924129 -2.49513626  3241505075
-2.49513626 0.95451802 -0.22480974  1064590155
0.14201817 -11.36566544 -2.49513626  3241527881
-2.49513626 0.95451802 0.69185770  1064590155
0.87484527 -11.33283424 -2.49513626  3241461629
-2.49513626 0.95451802 1.42224061  1064590155
1.78539801 -11.22545528 -2.49513626  3241318283
-2.49513626 0.95451802 2.32653117  1064590155
3.21568584 -10.90219688 -2.49513626  3240989963
-2.49513626 0.95451802 4.08391094  1064590155
4.42407179 -10.47024918 -2.49513626  3240516647
-2.49513626 0.95451802 4.75962353  1064590155
4.92556620 -10.24389267 -2.49513626  3240093056
-2.49513626 0.95451802 5.57607365  1064590155
6.04886341 -9.62339687 -2.49513626  3239495021
-2.49513626 0.95451802 6.50747252  1064590155
6.80479956 -9.10457134 -2.49513626  3238426416
-2.49513626 0.95451802 7.78769493  1064590155
7.92027950 -8.15277386 -2.49513626  3238027746
-2.49513626 0.95451802 -4.64982176  1064617347
-4.48956633 -9.96747303 -2.49513626  3240212200
-2.49513626 0.95613879 -4.00196028  1064617347
-3.16901970 -10.46250057 -2.49513626  3240636999
-2.49513626 0.95613879 -2.82976198  1064617347
-2.31545854 -10.68388653 -2.49513626  3240950217
-2.49513626 0.95613885 -1.27179170  1064617348
-0.92076796 -10.89306736 -2.49513626  3241050386
-2.49513626 0.95613879 -0.56878585  1064617347
-0.39255217 -10.92486191 -2.49513626  3241072316
-2.49513626 0.95613885 0.66540152  1064617347
1.54269588 -10.82251644 -2.49513626  3240904202
-2.49513626 0.95613879 2.23756671  1064617347
3.59650683 -10.32336617 -2.49513626  3240376651
-2.49513626 0.95613879 4.09185648  1064617347
4.25490236 -10.06988430 -2.49513626  3240099746
-2.49513626 0.95613879 4.73721838  1064617347
5.20844221 -9.61139488 -2.49513626  3239602919
-2.49513626 0.95613879 5.66745281  1064617348
6.25863647 -8.96304893 -2.49513626  3238905397
-2.49513626 0.95613879 6.54459620  1064617347
6.82374382 -8.54068375 -2.49513626  3238453012
-2.49513626 0.95613879 7.09578800  1064617347
7.22905827 -8.20045662 -2.49513626  3238089447
-2.49513626 0.95613879 7.48990631  1064617347
7.74295330 -7.71707678 -2.49513626  3236876958
-2.49513626 0.95613879 -4.63110113  1064642622
-4.32360840 -9.59902477 -2.49513626  3239751230
-2.49513626 0.95764530 -4.01160860  1064642622
-3.85402560 -9.79700565 -2.49513626  3240179277
-2.49513626 0.95764530 -2.72516036  1064642622
-2.06355214 -10.32359314 -2.49513626  3240503337
-2.49513626 0.95764530 -1.56155097  1064642622
-1.39334679 -10.43519974 -2.49513626  3240578336
-2.49513626 0.95764530 -0.88672954  1064642622
-0.71733844 -10.50334358 -2.49513626  3240646172
-2.49513626 0.95764530 0.13153730  1064642622
0.30138555 -10.52349663 -2.49513626  3240642230
-2.49513626 0.95764530 0.64080548  1064642622
0.81029058 -10.49658203 -2.49513626  3240605403
-2.49513626 0.95764530 1.48566949  1064642622
1.65365446 -10.39712715 -2.49513626  3240454626
-2.49513626 0.95764530 2.48626018  1064642622
2.65101075 -10.18857098 -2.49513626  3240096017
-2.49513626 0.95764530 3.46356034  1064642622
4.09762096 -9.69764709 -2.49513626  3239712145
-2.49513626 0.95764530 4.40841198  1064642622
4.71461487 -9.41314220 -2.49513626  3239145035
-2.49513626 0.95764530 5.88721609  1064642622
6.16578579 -8.53343487 -2.49513626  3238456450
-2.49513626 0.95764530 6.43792629  1064642622
6.83348799 -8.00863647 -2.49513626  3237549615
-2.49513626 0.95764530 7.21303892  1064642622
7.33584023 -7.55117846 -2.49513626  3236811122
-2.49513626 0.95764530 -4.75722885  1064666174
-4.61190891 -9.04295349 -2.49513626  3239247410
-2.49513626 0.95904911 -4.16889524  1064666174
-3.86805987 -9.38526440 -2.49513626  3239696346
-2.49513626 0.95904911 -3.09905553  1064666174
-2.94267273 -9.71521187 -2.49513626  3239849682
-2.49513626 0.95904911 -2.30988288  1064666174
-2.15007639 -9.92077827 -2.49513626  3240084103
-2.49513626 0.95904911 -1.66746843  1064666174
-1.34348810 -10.06179333 -2.49513626  3240185994
-2.49513626 0.95904911 -1.01810801  1064666174
-0.69167095 -10.12749767 -2.49513626  3240243854
-2.49513626 0.95904911 -0.36451429  1064666174
-0.20077147 -10.14910603 -2.49513626  3240253909
-2.49513626 0.95904911 0.61787510  1064666174
1.10747612 -10.09049797 -2.49513626  3240174620
-2.49513626 0.95904911 1.43250382  1064666174
1.91714561 -9.96841145 -2.49513626  3239996406
-2.49513626 0.95904911 2.39729238  1064666174
2.87182307 -9.73639297 -2.49513626  3239773506
-2.49513626 0.95904911 3.49386501  1064666174
3.64720392 -9.47325611 -2.49513626  3239484504
-2.49513626 0.95904911 3.95099139  1064666174
4.10135841 -9.28566170 -2.49513626  3239206959
-2.49513626 0.95904911 4.69177675  1064666174
5.12189770 -8.76417923 -2.49513626  3238716128
-2.49513626 0.95904911 5.40203905  1064666174
5.67655039 -8.41554737 -2.49513626  3238341223
-2.49513626 0.95904911 6.07714176  1064666174
6.33634996 -7.93065786 -2.49513626  3237640678
-2.49513626 0.95904911 6.58896399  1064666174
6.83471346 -7.50542212 -2.49513626  3236732146
-2.49513626 0.95904911 7.30460501  1064666174
7.41739321 -6.93014812 -2.49513626  3238690902
-2.49513626 0.96036029 -4.45195150  1064688172
-4.02430534 -8.93452263 -2.49513626  3239049343
-2.49513626 0.96036071 -3.58722901  1064688171
-3.29111409 -9.22980404 -2.49513626  3239346656
-2.49513626 0.96036029 -2.99156976  1064688172
-2.84060907 -9.37825489 -2.49513626  3239494675
-2.49513626 0.96036029 -2.53650999  1064688172
-2.38345003 -9.50472927 -2.49513626  3239689779
-2.49513626 0.96036023 -1.76539969  1064688172
-1.60963452 -9.66590786 -2.49513626  3239798704
-2.49513626 0.96036029 -0.82534790  1064688172
-0.66768253 -9.77624130 -2.49513626  3239875174
-2.49513626 0.96036029 -0.35187164  1064688171
-0.19380797 -9.79710102 -2.49513626  3239889026
-2.49513626 0.96036023 0.43854073  1064688172
0.75419569 -9.76994896 -2.49513626  3239844520
-2.49513626 0.96036023 1.06906486  1064688171
1.22610128 -9.72200584 -2.49513626  3239761545
-2.49513626 0.96036029 1.69513655  1064688172
1.85065210 -9.62267208 -2.49513626  3239557999
-2.49513626 0.96036023 3.37268782  1064688172
3.52070451 -9.14468956 -2.49513626  3239013099
-2.49513626 0.96036029 4.24628925  1064688171
4.80709076 -8.53888702 -2.49513626  3238485250
-2.49513626 0.96036029 5.21467876  1064688172
5.34786892 -8.21103001 -2.49513626  3237882354
-2.49513626 0.96036023 5.86636448  1064688172
6.36043501 -7.45423365 -2.49513626  3236419563
-2.49513626 0.96036029 6.71370888  1064688172
6.94053841 -6.91734505 -2.49513626  3238459343
-2.49513626 0.96158755 -4.02766228  1064708762
-3.60822845 -8.75479698 -2.49513626  3238966482
-2.49513626 0.96158755 -2.89087939  1064708762
-2.74500084 -9.06259918 -2.49513626  3239204838
-2.49513626 0.96158755 -2.15471816  1064708762
-1.85605407 -9.28551579 -2.49513626  3239380790
-2.49513626 0.96158755 -1.55545700  1064708762
-1.40453291 -9.36445522 -2.49513626  3239475828
-2.49513626 0.96158755 -0.94971764  1064708762
-0.79756832 -9.43554878 -2.49513626  3239520180
-2.49513626 0.96158755 -0.03448930  1064708762
0.88106316 -9.42812634 -2.49513626  3239483987
-2.49513626 0.96158755 1.18483293  1064708762
1.33627641 -9.37444115 -2.49513626  3239420002
-2.49513626 0.96158755 1.63808191  1064708762
1.78836298 -9.29879379 -2.49513626  3239298981
-2.49513626 0.96158755 2.23625684  1064708762
2.38443899 -9.16407204 -2.49513626  3239137621
-2.49513626 0.96158755 2.97058463  1064708762
3.40220642 -8.83689594 -2.49513626  3238821465
-2.49513626 0.96158755 3.68558669  1064708762
3.82585359 -8.66190434 -2.49513626  3238630829
-2.49513626 0.96158755 4.10336733  1064708762
4.24054098 -8.46661568 -2.49513626  3238419062
-2.49513626 0.96158755 4.51153994  1064708762
4.77783918 -8.17545128 -2.49513626  3238020534
-2.49513626 0.96158755 5.16787052  1064708762
5.42121649 -7.76377296 -2.49513626  3236938035
-2.49513626 0.96158755 5.91071177  1064708762
6.48774052 -6.89746284 -2.49513626  3235469072
-2.49513626 0.96158755 6.91913700  1064708762
-4.29255199 -8.09144306 -2.49513626  3238170097
-2.49513626 0.96273869 -3.89595819  1064728075
-3.62643385 -8.41108704 -2.49513626  3238493956
-2.49513626 0.96273869 -3.35313416  1064728075
-1.94006145 -8.95173550 -2.49513626  3239032258
-2.49513626 0.96273869 -1.65019035  1064728075
-1.50459290 -9.03513145 -2.49513626  3239112325
-2.49513626 0.96273869 -1.21225941  1064728075
-0.91866279 -9.11336708 -2.49513626  3239196244
-2.49513626 0.96273869 -0.18116045  1064728075
0.40992400 -9.15037537 -2.49513626  3239176902
-2.49513626 0.96273869 0.99930006  1064728075
1.29258037 -9.06788921 -2.49513626  3239099343
-2.49513626 0.96273869 1.58451533  1064728075
1.72988248 -8.99471569 -2.49513626  3238982279
-2.49513626 0.96273869 2.16313028  1064728075
2.44920874 -8.82602596 -2.49513626  3238781150
-2.49513626 0.96273869 2.87344503  1064728075
3.15259147 -8.59991550 -2.49513626  3238461211
-2.49513626 0.96273869 3.70074534  1064728075
3.83546519 -8.31784821 -2.49513626  3237651424
-2.49513626 0.96273869 4.99887753  1064728075
5.36443901 -7.42429686 -2.49513626  3236232705
-2.49513626 0.96273869 5.83215427  1064728074
5.94536543 -6.96778440 -2.49513626  3235428029
-2.49513626 0.96273869 6.59110403  1064728075
6.69287348 -6.25322437 -2.49513626  3237654771
-2.49513626 0.96382046 -3.77205062  1064746223
-3.24649048 -8.25263786 -2.49513626  3238372937
-2.49513626 0.96382046 -2.70740938  1064746224
-2.57078815 -8.48744869 -2.49513626  3238556153
-2.49513626 0.96382046 -2.15705395  1064746224
-2.01796937 -8.63559628 -2.49513626  3238702125
-2.49513626 0.96382046 -1.73826051  1064746224
-0.88944256 -8.82353210 -2.49513626  3238891492
-2.49513626 0.96382046 -0.46141538  1064746224
-0.31844813 -8.86252213 -2.49513626  3238913043
-2.49513626 0.96382046 0.25387621  1064746224
0.39688721 -8.85935497 -2.49513626  3238857599
-2.49513626 0.96382046 1.53412414  1064746224
1.67486596 -8.70864677 -2.49513626  3238716230
-2.49513626 0.96382046 1.95500791  1064746224
2.23311329 -8.58247566 -2.49513626  3238574505
-2.49513626 0.96382040 2.50889421  1064746224
2.64582109 -8.46435833 -2.49513626  3238344948
-2.49513626 0.96382046 3.18628836  1064746224
3.31941700 -8.22357368 -2.49513626  3238179841
-2.49513626 0.96382040 3.84294963  1064746224
3.97141767 -7.92928410 -2.49513626  3237576972
-2.49513626 0.96382046 4.35048103  1064746224
4.71935511 -7.50822353 -2.49513626  3236643791
-2.49513626 0.96382046 5.42307234  1064746224
5.64666939 -6.83818817 -2.49513626  3235373244
-2.49513626 0.96382040 6.07599878  1064746223
6.28128099 -6.26029062 -2.49513626  3234139983
-2.49513626 0.96382046 6.48001671  1064746224
-3.90432024 -7.65552330 -2.49513626  3237410304
-2.49513626 0.96483886 -3.65525436  1064763310
-3.40238094 -7.89142179 -2.49513626  3237887978
-2.49513626 0.96483886 -2.88627720  1064763310
-2.62357903 -8.18337345 -2.49513626  3238238243
-2.49513626 0.96483886 -2.35814786  1064763310
-2.22449660 -8.30074692 -2.49513626  3238354548
-2.49513626 0.96483886 -1.95548570  1064763310
-1.82019758 -8.39866829 -2.49513626  3238502767
-2.49513626 0.96483886 -1.13736188  1064763310
-0.99976408 -8.53529263 -2.49513626  3238593156
-2.49513626 0.96483886 -0.16996679  1064763310
-0.03130030 -8.59358883 -2.49513626  3238624471
-2.49513626 0.96483886 0.38459778  1064763310
0.79959792 -8.55636787 -2.49513626  3238571382
-2.49513626 0.96483886 1.34984589  1064763310
2.02948499 -8.35056782 -2.49513626  3238170281
-2.49513626 0.96483886 2.82723689  1064763310
3.08762813 -8.01980782 -2.49513626  3237826529
-2.49513626 0.96483886 3.47210288  1064763310
3.59849834 -7.80394554 -2.49513626  3237207161
-2.49513626 0.96483886 4.21577311  1064763310
4.33606386 -7.41952085 -2.49513626  3236636578
-2.49513626 0.96483886 4.91995239  1064763310
5.25515413 -6.79957151 -2.49513626  3235305510
-2.49513626 0.96483886 5.47182655  1064763310
5.98810244 -6.16387796 -2.49513626  3233948170
-2.49513626 0.96483827 6.18388605  1064763310
-3.90582085 -7.36245489 -2.49513626  3237161856
-2.49513626 0.96579927 -3.17579031  1064779423
-2.92549229 -7.80401611 -2.49513626  3237869400
-2.49513626 0.96579927 -2.28699160  1064779423
-1.89647973 -8.11569691 -2.49513626  3238183743
-2.49513626 0.96579927 -0.83589584  1064779423
-0.43363616 -8.32304668 -2.49513626  3238352582
-2.49513626 0.96579927 0.23859182  1064779423
0.50729328 -8.31888199 -2.49513626  3238327343
-2.49513626 0.96579927 1.17612720  1064779422
1.44176209 -8.20868301 -2.49513626  3238195993
-2.49513626 0.96579927 1.70589006  1064779423
1.96824515 -8.09859180 -2.49513626  3238071661
-2.49513626 0.96579927 2.35784841  1064779423
2.61456633 -7.91360760 -2.49513626  3237730873
-2.49513626 0.96579927 2.99445987  1064779423
3.11957240 -7.72848177 -2.49513626  3237325595
-2.49513626 0.96579927 3.48991489  1064779423
3.73232222 -7.45190716 -2.49513626  3236724917
-2.49513626 0.96579927 4.32078791  1064779423
4.43522978 -7.05619621 -2.49513626  3235871371
-2.49513626 0.96579927 4.66061068  1064779423
4.88113832 -6.75541592 -2.49513626  3235225589
-2.49513626 0.96579927 5.09658051  1064779423
5.51132917 -6.25191355 -2.49513626  3234148469
-2.49513626 0.96579927 6.08989143  1064779423
-3.79086328 -7.14575720 -2.49513626  3236803212
-2.49513626 0.96670640 -2.96123838  1064794642
-2.34490752 -7.74169827 -2.49513626  3237538231
-2.49513626 0.96670640 -1.71331787  1064794642
-1.58552873 -7.93212509 -2.49513626  3238001758
-2.49513626 0.96670640 -1.07057679  1064794642
-0.81129324 -8.04824924 -2.49513626  3238065910
-2.49513626 0.96670640 -0.42087126  1064794642
-0.15998748 -8.08745384 -2.49513626  3238095992
-2.49513626 0.96670640 0.49236211  1064794642
0.62258595 -8.06503963 -2.49513626  3238029389
-2.49513626 0.96670640 1.14151132  1064794642
1.78323209 -7.89003086 -2.49513626  3237642777
-2.49513626 0.96670640 2.41334677  1064794642
3.02775669 -7.50101233 -2.49513626  3236743152
-2.49513626 0.96670640 3.38719964  1064794642
3.50528860 -7.29009247 -2.49513626  3236140249
-2.49513626 0.96670640 4.41463709  1064794642
4.52343750 -6.70604420 -2.49513626  3234975632
-2.49513626 0.96670640 5.15052605  1064794642
5.34911871 -6.06790257 -2.49513626  3233768115
-2.49513626 0.96670640 5.54213238  1064794642
5.72937870 -5.71023130 -2.49513626  3232806748
-2.49513626 0.96670640 -3.68193555  1064809039
-3.22658539 -7.16347647 -2.49513626  3236355604
-2.49513626 0.96756452 -2.99374986  1064809039
-2.87614918 -7.31122684 -2.49513626  3236832146
-2.49513626 0.96756452 -2.39856601  1064809038
-2.27752852 -7.51924658 -2.49513626  3237069496
-2.49513626 0.96756452 -2.03370905  1064809039
-1.78777075 -7.65049839 -2.49513626  3237328140
-2.49513626 0.96756452 -1.29056489  1064809039
-1.16534126 -7.76969576 -2.49513626  3237557025
-2.49513626 0.96756452 -0.66174096  1064809039
-0.53533006 -7.83834648 -2.49513626  3237698743
-2.49513626 0.96756452 0.35161230  1064809039
0.47821486 -7.84203863 -2.49513626  3237653095
-2.49513626 0.96756452 0.85715002  1064809039
0.98305827 -7.79486132 -2.49513626  3237537086
-2.49513626 0.96756452 1.23407388  1064809039
1.35911822 -7.73815584 -2.49513626  3237353138
-2.49513626 0.96756452 1.73199260  1064809039
1.85542381 -7.63437319 -2.49513626  3237171042
-2.49513626 0.96756452 2.22269464  1064809038
2.34400010 -7.49879217 -2.49513626  3236870215
-2.49513626 0.96756452 2.70413661  1064809039
2.82281542 -7.33198357 -2.49513626  3236504229
-2.49513626 0.96756452 3.05793595  1064809038
3.17431569 -7.18679190 -2.49513626  3236187886
-2.49513626 0.96756446 3.40457034  1064809038
3.63127828 -6.96707153 -2.49513626  3235711695
-2.49513626 0.96756452 3.85420442  1064809039
3.96417904 -6.78318119 -2.49513626  3235175161
-2.49513626 0.96756452 4.28778696  1064809039
4.39346170 -6.51335335 -2.49513626  3234734507
-2.49513626 0.96756452 4.60134792  1064809039
4.80444098 -6.21639824 -2.49513626  3234097926
-2.49513626 0.96756452 5.09963846  1064809039
5.19541597 -5.89354897 -2.49513626  3233407714
-2.49513626 0.96756446 5.74081326  1064809039
-3.57856631 -6.74557829 -2.49513626  3235930823
-2.49513626 0.96837741 -2.56464958  1064822677
-2.33122778 -7.27147436 -2.49513626  3236758453
-2.49513626 0.96837741 -1.61736929  1064822677
-1.49673533 -7.48790741 -2.49513626  3237062242
-2.49513626 0.96837741 -1.01062191  1064822677
-0.76585877 -7.59752846 -2.49513626  3237202172
-2.49513626 0.96837741 -0.39730331  1064822677
-0.27420124 -7.63110495 -2.49513626  3237236254
-2.49513626 0.96837741 -0.02781287  1064822677
0.09540653 -7.63543463 -2.49513626  3237232825
-2.49513626 0.96837741 0.34174079  1064822677
0.83308506 -7.59044886 -2.49513626  3236997958
-2.49513626 0.96837741 1.44214845  1064822677
1.56295907 -7.47436571 -2.49513626  3236723369
-2.49513626 0.96837741 2.27819228  1064822677
2.51218581 -7.21095514 -2.49513626  3236170062
-2.49513626 0.96837741 2.85819387  1064822677
3.08519483 -6.98502111 -2.49513626  3235767814
-2.49513626 0.96837741 3.41960168  1064822677
3.63813615 -6.71363831 -2.49513626  3234783520
-2.49513626 0.96837741 4.16740704  1064822677
4.27011395 -6.33048916 -2.49513626  3234205588
-2.49513626 0.96837741 4.57145309  1064822677
4.66955423 -6.04187250 -2.49513626  3233573601
-2.49513626 0.96837741 4.95646334  1064822677
5.14132738 -5.64585876 -2.49513626  3232890173
-2.49513626 0.96837741 5.57963991  1064822677
-3.37400746 -6.61569643 -2.49513626  3235211966
-2.49513626 0.96914852 -3.15877199  1064835614
-3.04990506 -6.77122164 -2.49513626  3235527119
-2.49513626 0.96914852 -2.82982016  1064835614
-2.71865892 -6.91088343 -2.49513626  3235895065
-2.49513626 0.96914852 -2.26722670  1064835614
-2.03784990 -7.14132595 -2.49513626  3236446401
-2.49513626 0.96914852 -1.45564544  1064835614
-1.10153139 -7.34425211 -2.49513626  3236694008
-2.49513626 0.96914852 -0.62550712  1064835614
-0.38639450 -7.41634035 -2.49513626  3236796707
-2.49513626 0.96914852 -0.02704800  1064835614
0.33235922 -7.41895819 -2.49513626  3236770877
-2.49513626 0.96914852 0.57158345  1064835614
0.81021458 -7.38207006 -2.49513626  3236643904
-2.49513626 0.96914852 1.16649950  1064835614
1.52005076 -7.26916742 -2.49513626  3236359220
-2.49513626 0.96914852 1.87004197  1064835614
1.98577404 -7.15598202 -2.49513626  3235932780
-2.49513626 0.96914852 2.77972913  1064835614
3.10972595 -6.74396086 -2.49513626  3235261509
-2.49513626 0.96914852 3.32572532  1064835614
3.43243837 -6.58557129 -2.49513626  3234918464
-2.49513626 0.96914852 3.64315748  1064835614
3.85008287 -6.35045052 -2.49513626  3234275853
-2.49513626 0.96914852 4.15288734  1064835614
4.34938908 -6.01948595 -2.49513626  3233393065
-2.49513626 0.96914852 4.72860289  1064835614
4.91092825 -5.57083130 -2.49513626  3232740645
-2.49513626 0.96914852 5.17475462  1064835614
5.26003790 -5.24246025 -2.49513626  3234942028
-2.49513626 0.96988094 -2.96796918  1064847902
-2.75379705 -6.68165398 -2.49513626  3235500969
-2.49513626 0.96988094 -1.53070807  1064847902
-1.30200040 -7.10863590 -2.49513626  3236175480
-2.49513626 0.96988094 -0.95647240  1064847901
-0.84075695 -7.17781544 -2.49513626  3236304934
-2.49513626 0.96988094 -0.14293477  1064847902
-0.02632221 -7.22684002 -2.49513626  3236375142
-2.49513626 0.96988094 0.43988502  1064847902
0.55622900 -7.20545006 -2.49513626  3236262245
-2.49513626 0.96988094 1.01984584  1064847902
1.13516223 -7.13717842 -2.49513626  3236108605
-2.49513626 0.96988094 1.47921610  1064847902
1.81980348 -6.99401236 -2.49513626  3235829487
-2.49513626 0.96988094 2.04454207  1064847902
2.15612626 -6.89775372 -2.49513626  3235616262
-2.49513626 0.96988094 2.91988850  1064847902
3.54528427 -6.29752874 -2.49513626  3234310649
-2.49513626 0.96988094 3.84588528  1064847902
3.94411516 -6.05572844 -2.49513626  3233790133
-2.49513626 0.96988094 4.23254251  1064847902
4.32651186 -5.78871250 -2.49513626  3232594492
-2.49513626 0.96988094 4.95143890  1064847902
5.03573561 -5.18355751 -2.49513626  3231924347
-2.49513626 0.96988094 5.20038176  1064847902
-3.29771900 -6.21618462 -2.49513626  3234581162
-2.49513626 0.97057742 -2.78598046  1064859587
-2.68134832 -6.50586843 -2.49513626  3235043611
-2.49513626 0.97057742 -2.36337614  1064859587
-2.14827037 -6.70081091 -2.49513626  3235348958
-2.49513626 0.97057742 -1.93092787  1064859587
-1.82148850 -6.79691935 -2.49513626  3235539429
-2.49513626 0.97057742 -1.60121346  1064859587
-1.37926984 -6.90025759 -2.49513626  3235782155
-2.49513626 0.97057742 -0.81863922  1064859587
-0.47946760 -7.02040291 -2.49513626  3235962629
-2.49513626 0.97057742 -0.25268152  1064859587
-0.13917431 -7.03537893 -2.49513626  3235955256
-2.49513626 0.97057742 0.54159558  1064859587
0.88047451 -6.98145437 -2.49513626  3235799435
-2.49513626 0.97057742 1.21729290  1064859587
1.32896936 -6.91012001 -2.49513626  3235565193
-2.49513626 0.97057742 1.77192640  1064859587
1.99075294 -6.74928331 -2.49513626  3235310534
-2.49513626 0.97057742 2.52824903  1064859587
2.73883486 -6.48187685 -2.49513626  3234311796
-2.49513626 0.97057742 3.55051041  1064859587
3.64807940 -6.01726007 -2.49513626  3233591138
-2.49513626 0.97057742 4.02861691  1064859587
4.12118959 -5.70365953 -2.49513626  3232901798
-2.49513626 0.97057742 4.48050833  1064859587
4.65326691 -5.27854586 -2.49513626  3232136477
-2.49513626 0.97057742 4.90325260  1064859587
5.06356621 -4.88633204 -2.49513626  3231300174
-2.49513626 0.97057742 -2.81537843  1064870711
-2.71415257 -6.29515553 -2.49513626  3234687343
-2.49513626 0.97124052 -2.30244374  1064870711
-2.19795084 -6.49342823 -2.49513626  3234915785
-2.49513626 0.97124046 -1.98727226  1064870712
-1.88114440 -6.59218168 -2.49513626  3235112143
-2.49513626 0.97124046 -1.66744590  1064870712
-1.55993140 -6.67549372 -2.49513626  3235275964
-2.49513626 0.97124046 -1.23506188  1064870711
-0.90729731 -6.79502726 -2.49513626  3235504513
-2.49513626 0.97124052 -0.68755949  1064870712
-0.57740635 -6.83097267 -2.49513626  3235568737
-2.49513626 0.97124046 -0.35668358  1064870711
-0.24616678 -6.85090923 -2.49513626  3235599330
-2.49513626 0.97124052 -0.02496891  1064870711
0.08565325 -6.85479784 -2.49513626  3235587742
-2.49513626 0.97124046 0.63785619  1064870711
0.96741283 -6.78673029 -2.49513626  3235343422
-2.49513626 0.97124046 1.51126182  1064870711
1.61896205 -6.66142130 -2.49513626  3235138876
-2.49513626 0.97124052 1.83307433  1064870711
1.93942666 -6.57527256 -2.49513626  3234947389
-2.49513626 0.97124052 2.15058875  1064870711
2.46306658 -6.39757252 -2.49513626  3234182182
-2.49513626 0.97124046 3.06998777  1064870711
3.36301160 -5.97375536 -2.49513626  3233637906
-2.49513626 0.97124046 3.55402660  1064870711
3.74133778 -5.74438763 -2.49513626  3233144147
-2.49513626 0.97124052 3.92475080  1064870711
4.10407352 -5.49109745 -2.49513626  3232457415
-2.49513626 0.97124046 4.36498880  1064870712
4.44972324 -5.21493626 -2.49513626  3232009975
-2.49513626 0.97124052 4.77683592  1064870711
4.85555792 -4.83933067 -2.49513626  3231208653
-2.49513626 0.97124046 -3.13147068  1064881315
-3.03581285 -5.95256948 -2.49513626  3233907855
-2.49513626 0.97187251 -2.74419641  1064881315
-2.54617143 -6.17788553 -2.49513626  3234265911
-2.49513626 0.97187251 -2.34549665  1064881315
-2.24423051 -6.29386044 -2.49513626  3234636947
-2.49513626 0.97187251 -1.72965968  1064881315
-1.62528825 -6.48133326 -2.49513626  3234871044
-2.49513626 0.97187251 -1.30973780  1064881315
-0.88435811 -6.62322807 -2.49513626  3235219678
-2.49513626 0.97187251 -0.13215885  1064881315
-0.02433762 -6.68196440 -2.49513626  3235232917
-2.49513626 0.97187251 0.29904482  1064881315
0.72900254 -6.64212322 -2.49513626  3235098429
-2.49513626 0.97187251 1.26197147  1064881315
1.36768830 -6.54054070 -2.49513626  3234728405
-2.49513626 0.97187251 1.89039195  1064881315
2.19832373 -6.31004000 -2.49513626  3234382475
-2.49513626 0.97187251 2.79802155  1064881315
2.89557147 -6.02203608 -2.49513626  3233754965
-2.49513626 0.97187251 3.18360138  1064881315
3.55592155 -5.65726662 -2.49513626  3232967744
-2.49513626 0.97187251 3.82552052  1064881315
3.91342521 -5.41611862 -2.49513626  3232030867
-2.49513626 0.97187251 4.49898672  1064881315
4.65606260 -4.79273748 -2.49513626  3230956247
-2.49513626 0.97187251 4.88253784  1064881315
-2.96049762 -5.80489349 -2.49513626  3233497812
-2.49513626 0.97247547 -2.57989645  1064891431
-2.38546824 -6.06389856 -2.49513626  3234169581
-2.49513626 0.97247547 -1.98936057  1064891431
-1.88897336 -6.23643351 -2.49513626  3234532510
-2.49513626 0.97247547 -1.38018715  1064891431
-1.27724493 -6.38983393 -2.49513626  3234667399
-2.49513626 0.97247547 -0.96652889  1064891431
-0.65354866 -6.48337889 -2.49513626  3234842448
-2.49513626 0.97247547 -0.44399977  1064891431
-0.23399034 -6.51203346 -2.49513626  3234885408
-2.49513626 0.97247547 0.39662933  1064891431
0.60630453 -6.48796797 -2.49513626  3234809437
-2.49513626 0.97247547 0.81534332  1064891431
0.91956013 -6.45102501 -2.49513626  3234721377
-2.49513626 0.97247547 1.12724698  1064891431
1.23066270 -6.39896965 -2.49513626  3234601687
-2.49513626 0.97247547 1.53888059  1064891431
1.64085460 -6.30625963 -2.49513626  3234332737
-2.49513626 0.97247547 2.04421020  1064891431
2.14378572 -6.15349483 -2.49513626  3234056061
-2.49513626 0.97247547 2.34123135  1064891431
2.43905258 -6.04254675 -2.49513626  3233725958
-2.49513626 0.97247547 2.72860551  1064891431
2.82373476 -5.87263584 -2.49513626  3233133656
-2.49513626 0.97247547 3.55627370  1064891431
3.81633830 -5.28175116 -2.49513626  3232171521
-2.49513626 0.97247547 4.14907837  1064891431
4.22961807 -4.95698071 -2.49513626  3231179591
-2.49513626 0.97247547 4.54055023  1064891431
-2.97939420 -5.61614370 -2.49513626  3233102670
-2.49513626 0.97305131 -2.79661584  1064901092
-2.61092710 -5.79662895 -2.49513626  3233468655
-2.49513626 0.97305131 -2.42251992  1064901092
-2.23159027 -5.95297098 -2.49513626  3233783648
-2.49513626 0.97305131 -2.03833604  1064901092
-1.84295976 -6.08451748 -2.49513626  3234046336
-2.49513626 0.97305131 -1.34656584  1064901092
-1.24613023 -6.23418093 -2.49513626  3234339957
-2.49513626 0.97305137 -0.94298470  1064901092
-0.84141022 -6.30157566 -2.49513626  3234467589
-2.49513626 0.97305137 -0.63762814  1064901092
-0.53547674 -6.33491325 -2.49513626  3234549525
-2.49513626 0.97305131 -0.12574069  1064901092
0.07943233 -6.35700750 -2.49513626  3234552659
-2.49513626 0.97305131 0.28452191  1064901092
0.38696739 -6.34571600 -2.49513626  3234518574
-2.49513626 0.97305131 1.09978783  1064901092
1.20068491 -6.24309254 -2.49513626  3234275850
-2.49513626 0.97305131 1.40151501  1064901093
