# .PCD v0.7 - Point Cloud Data file format
VERSION 0.7
FIELDS x y z intensity
SIZE 4 4 4 4
TYPE F F F F
COUNT 1 1 1 1
WIDTH 1004
HEIGHT 1
VIEWPOINT 0 0 0 1 0 0 0
POINTS 1004
DATA ascii
-20.56718445 74.43511963 -2.56822014  1117052118
-2.57986665 0.73310250 -23.16168976  1060857049
-24.47784042 74.42321777 -2.60549855  1117050493
-2.61951900 0.72961253 -27.15246201  1060795010
-28.43898582 74.21719360 -2.64321446  1116780219
-2.64753628 0.72715670 -36.64394379  1060775665
-37.77400970 70.07686615 -2.64753628  1116400687
-2.64753628 0.72715670 -42.19405746  1060775666
-44.33991241 66.11816406 -2.64753628  1115868059
-2.64753628 0.72715670 -47.47225952  1060775666
-50.49453354 61.54628754 -2.64753628  1114385506
-2.64753628 0.72715676 -54.34080887  1060775665
-56.35673141 54.79163361 -2.61402178  1112381382
-2.53722930 0.73687392 -57.03956985  1061001476
-57.81481934 47.81694794 -2.49513626  1110443956
-2.49513626 0.74061602 -61.46348572  1061001476
-62.14633560 42.03374481 -2.49513626  1109663512
-2.49513626 0.74061614 -63.46406937  1061001475
-64.09842682 38.99239731 -2.49513626  1108858138
-2.49513626 0.74061602 -65.31738281  1061001476
-66.46898651 34.79793930 -2.49513626  1107748721
-2.49513626 0.74061608 -67.71150970  1060992672
-72.71933746 32.30499268 -2.64629889  1106230570
-2.64753628 0.72715670 5.97516870  1061770211
5.01562309 59.79906082 -2.49513626  1114602704
-2.49513626 0.78643632 2.13029838  1061770211
1.16704762 59.99768829 -2.49513626  1114638565
-2.49513626 0.78643632 -1.72337484  1061770212
-3.64856076 59.89801025 -2.49513626  1114570748
-2.49513626 0.78643626 -12.23670006  1061770212
-13.17840099 58.54412460 -2.49513626  1114197187
-2.49513626 0.78643632 -18.74897003  1061770212
-19.66185570 56.69653320 -2.49513626  1113685628
-2.49513626 0.78643626 -21.47218895  1061770212
-22.36916542 55.68398666 -2.49513626  1113309056
-2.49513626 0.78643626 -25.02460480  1061770212
-25.89714050 54.13337326 -2.49513626  1112873086
-2.49513626 0.78643626 -28.47383881  1061770211
-30.15526772 51.88201904 -2.49513626  1112247366
-2.49513626 0.78643632 -32.61862183  1061770211
-33.42316437 49.83951187 -2.49513626  1111830400
-2.49513626 0.78643632 -35.00625992  1061770212
-35.78432083 48.17226028 -2.49513626  1111383469
-2.49513626 0.78643626 -40.38729477  1061578016
-41.94711685 47.90466690 -2.64753628  1111106029
-2.64753628 0.77498043 -44.20523834  1061578016
-44.93542862 45.11346436 -2.64753628  1110349550
-2.64753628 0.77498055 -47.05563736  1061578016
-47.73835373 42.13631439 -2.64753628  1109545892
-2.64753628 0.77498055 -50.34448624  1061578013
-51.57030487 37.34865952 -2.64753628  1107582611
-2.64753628 0.77498066 -57.33064270  1061578016
-57.76810837 26.78179169 -2.64753628  1104072281
-2.64753628 0.77498055 -58.99073410  1061578016
5.77616882 49.65999222 -2.49513626  1111948353
-2.49513626 0.81854403 2.57680321  1062308891
-2.23803067 49.94466782 -2.49513626  1111974752
-2.49513626 0.81854409 -4.64042854  1062308891
-6.23642445 49.60429001 -2.49513626  1111883189
-2.49513626 0.81854409 -7.82595396  1062308890
-9.40744495 49.10171890 -2.49513626  1111738113
-2.49513626 0.81854403 -10.97920609  1062308890
-11.76097775 48.59175110 -2.49513626  1111594539
-2.49513626 0.81854409 -13.31513309  1062308890
-14.08715057 47.96905518 -2.49513626  1111421531
-2.49513626 0.81854409 -15.62014961  1062308891
-17.13701057 46.96596146 -2.49513626  1111145770
-2.49513626 0.81854409 -18.63621902  1062308890
-20.84853554 45.44026184 -2.49513626  1110730250
-2.49513626 0.81854409 -22.29681015  1062308890
-23.72214317 44.00840378 -2.49513626  1110021252
-2.49513626 0.81854403 -27.84554672  1062308891
-28.50868607 41.06986237 -2.49513626  1109301516
-2.49513626 0.81854409 -32.93535233  1062308891
-33.53510666 37.07931137 -2.49513626  1108193180
-2.49513507 0.81854415 -38.03530502  1062141964
-39.20303726 35.73870850 -2.64753628  1107941513
-2.64753628 0.80859447 -41.41613770  1062141964
-42.96430969 31.11595345 -2.64753628  1106101079
-2.64753628 0.80859447 -44.41279602  1062141964
-45.32139969 27.56996727 -2.64753628  1104203210
-2.64753628 0.80859447 -46.99756622  1062141964
-47.38656616 23.84632492 -2.64753628  1102620846
-2.64753628 0.80859447 4.94951963  1062707012
4.26562786 42.62698746 -2.49513626  1110112199
-2.49513626 0.84227395 2.20802951  1062707013
1.52079749 42.81288147 -2.49513626  1110135739
-2.49513626 0.84227401 -0.54256326  1062707013
-2.60467243 42.76063538 -2.49513626  1110089387
-2.49513626 0.84227395 -4.66073036  1062707013
-5.34391594 42.50526810 -2.49513626  1109999422
-2.49513626 0.84227401 -7.38450527  1062707013
-8.06111717 42.07462692 -2.49513626  1109778878
-2.49513626 0.84227401 -11.40956402  1062707013
-12.07110596 41.10405731 -2.49513626  1109630629
-2.49513626 0.84227401 -14.68447685  1062707012
-15.32879353 40.00353241 -2.49513626  1109259904
-2.49513626 0.84227395 -17.23730278  1062707013
-17.86482811 38.93717194 -2.49513626  1109038282
-2.49513626 0.84227395 -19.71907806  1062707012
-21.52755737 37.03807449 -2.49513626  1108234719
-2.49513626 0.84227395 -24.99062729  1062707013
-27.17242813 33.11968994 -2.49513626  1107511765
-2.54096603 0.83962262 -29.68181992  1062627382
-31.53959465 32.69828415 -2.64601827  1107350285
-2.64753628 0.83348960 -32.59195328  1062559635
-33.09652328 31.15947533 -2.64753628  1106574853
-2.64753628 0.83348960 -34.07995605  1062559634
-34.55860138 29.52957726 -2.64753628  1105708120
-2.64753628 0.83348960 -37.65267563  1062559635
-38.05675125 24.85912514 -2.64753628  1102904996
-2.64753628 0.83348960 -39.57387543  1062559634
-40.27160263 21.08295822 -2.64753628  1100888917
-2.64753628 0.83348954 -41.24008560  1062559635
4.32932901 37.22094727 -2.49513626  1108724487
-2.49513626 0.86051911 -0.47458503  1063013115
-1.07613993 37.45642471 -2.49513626  1108712505
-2.49513626 0.86051911 -6.45920134  1063013115
-7.64105225 36.68455124 -2.49513626  1108455009
-2.49513626 0.86051911 -9.97990227  1063013115
-11.13450050 35.77939606 -2.49513626  1108238927
-2.49513626 0.86051911 -14.52465534  1063013115
-15.62630844 34.05820084 -2.49513626  1107768877
-2.49513626 0.86051911 -16.71182060  1063013115
-17.78011513 32.98497391 -2.49513507  1107519319
-2.53008986 0.85871011 -19.80243301  1062962247
-20.52454758 32.83796692 -2.57854581  1107456756
-2.64344954 0.85286951 -23.19434738  1062881256
-24.21931076 31.53304291 -2.64753628  1106635189
-2.64753628 0.85265976 -25.70967293  1062881256
-26.19336128 29.91346359 -2.64753628  1105979779
-2.64753628 0.85265976 -27.14035416  1062881257
-27.60340500 28.61746597 -2.64753628  1105050398
-2.64753628 0.85265976 -28.94941902  1062881256
-29.38330460 26.78673553 -2.64753628  1104313836
-2.64753628 0.85265976 -30.22827721  1062881257
-31.04205322 24.84549713 -2.64753628  1103015943
-2.64753628 0.85265970 -31.13364220  1063006493
-31.46775246 20.55511093 -2.50275636  1101029541
-2.50275636 0.86012441 -34.29655075  1062881257
-34.92477798 19.00439644 -2.64753628  1100187529
-2.64753628 0.85265970 -35.51698685  1062881257
-35.79939651 17.30059814 -2.64753628  1098982191
-2.64753628 0.85265970 -36.59095764  1062881257
3.31524825 33.12983704 -2.49513626  1107630311
-2.49513626 0.87497962 0.11293481  1063255723
-0.42168808 33.29263687 -2.49513626  1107632212
-2.49513626 0.87497962 -2.02436090  1063255723
-2.55771995 33.19692230 -2.49513626  1107584004
-2.49513626 0.87497962 -4.68307972  1063255724
-5.21444559 32.90093994 -2.49635744  1107530436
-2.50247025 0.87463623 -7.40229225  1063231500
-7.95836830 32.88090897 -2.53522921  1107525359
-2.55587459 0.87213963 -10.22798061  1063189581
-10.80846214 32.86238861 -2.59247589  1107520090
-2.62083197 0.86911255 -12.58740425  1063145255
-13.14249229 32.71585464 -2.64214110  1107437155
-2.64513874 0.86798251 -14.21516228  1063136462
-14.73266888 32.11048126 -2.64753628  1107227984
-2.64753628 0.86787117 -15.75610161  1063136462
-16.76331902 31.09863663 -2.64753628  1106680462
-2.64753628 0.86787117 -17.75322151  1063136462
-18.24138069 30.25535011 -2.64753628  1105902625
-2.64753628 0.86787117 -20.60913277  1063136462
-21.06719589 28.36030769 -2.64753628  1105208745
-2.64753628 0.86787117 -21.96695518  1063136462
-22.40841293 27.31295395 -2.64753628  1104648402
-2.64753628 0.86787111 -23.27387428  1063136462
-24.52675247 25.42779541 -2.64753628  1103430748
-2.64753628 0.86787117 -25.72273827  1063136462
-26.10825920 23.80110550 -2.64753628  1102105997
-2.50275636 0.87462282 -25.39028358  1063249736
-26.40553093 20.44765663 -2.50275636  1100398299
-2.64753628 0.86787117 -30.47389984  1063136461
-30.75695801 17.38229752 -2.64753628  1099372264
-2.64753628 0.86787117 -31.29922867  1063136462
-31.55829430 15.88106060 -2.64753628  1097170142
-2.64753628 0.86787117 -32.51256561  1063136462
-32.73031616 13.29889011 -2.64753628  1107070415
-2.64753628 0.88023299 2.65638232  1063343859
1.63809395 31.73983383 -2.64753628  1107171499
-2.64753628 0.88023299 0.61810118  1063343859
-0.40252113 31.77952766 -2.64753628  1107175128
-2.64753628 0.88023299 -1.42273390  1063343859
-1.93235099 31.72327614 -2.64753628  1107110069
-2.64753628 0.88023299 -3.45771384  1063343859
-3.96454763 31.53383446 -2.64753628  1107016347
-2.64753628 0.88023299 -4.97502136  1063343859
-5.47842264 31.30633926 -2.64753628  1106831893
-2.64753628 0.88023299 -8.46452713  1063343859
-8.95530987 30.49430847 -2.64753628  1106347837
-2.64753628 0.88023299 -10.41333103  1063343859
-11.84719181 29.49143219 -2.64753628  1105879314
-2.64753628 0.88023299 -12.78802109  1063343859
-13.25356865 28.88673210 -2.64753628  1105433084
-2.64753628 0.88023299 -14.62921143  1063343859
-15.52761364 27.73073196 -2.64753628  1104925340
-2.64753628 0.88023299 -16.41001129  1063343859
-17.70152664 26.39607048 -2.64753628  1103733965
-2.64753628 0.88023299 -19.76157188  1063343859
-20.15870094 24.57085800 -2.64753628  1102030390
-2.50275636 0.88639504 -20.85778809  1063447241
-21.54138184 20.94314957 -2.50275636  1101316534
-2.50275636 0.88639504 -22.20271873  1063447241
-22.52485466 19.88158798 -2.50275636  1100751737
-2.50275636 0.88639504 -23.15164757  1063447241
-23.60410500 18.89229774 -2.51854682  1099854466
-2.64753628 0.88023299 -26.60835838  1063343859
-26.88401031 16.95141411 -2.64753628  1098527205
-2.64753628 0.88023299 -28.15692329  1063343859
-28.38998413 14.28667355 -2.64753628  1096147509
-2.64753628 0.88023299 -29.04500580  1063343859
-29.24844933 12.43498135 -2.64753628  1105558455
-2.64753628 0.89047557 2.41372681  1063515701
1.48845232 28.84041405 -2.64753628  1105650306
-2.64753628 0.89047557 0.09795608  1063515701
-0.82935500 28.86688423 -2.64753628  1105644669
-2.64753628 0.89047557 -2.21844745  1063515701
-2.68048525 28.75413322 -2.64753628  1105569976
-2.64753628 0.89047557 -3.60238767  1063515701
-4.52055359 28.52279282 -2.64753628  1105433213
-2.64753628 0.89047557 -5.43408060  1063515701
-5.88879251 28.27202415 -2.64753628  1105175858
-2.64753628 0.89047551 -8.13724995  1063515701
-9.46208191 27.28468132 -2.64753628  1104742575
-2.64753628 0.89047557 -10.33329678  1063515701
-11.19384575 26.62109756 -2.64753628  1104380132
-2.64753628 0.89047557 -12.87944794  1063515701
-13.70277405 25.42084122 -2.64753628  1103729810
-2.64753628 0.89047557 -14.51194668  1063515701
-15.30617046 24.48889351 -2.64753628  1103227769
-2.64753628 0.89047557 -16.08459091  1063515701
-15.92519474 22.17328644 -2.50275636  1101287145
-2.50275636 0.89614218 -19.26548576  1063610771
-20.72181892 18.89065552 -2.57065201  1100168763
-2.64753628 0.89047605 -23.11416054  1063515701
-23.38915443 16.93908119 -2.64753628  1099201959
-2.64753628 0.89047557 -24.42817116  1063515701
-25.14153481 14.20873260 -2.64753628  1093978340
-2.64753628 0.89047557 -26.75461578  1063515701
3.05685663 26.28098488 -2.64753628  1104372304
-2.64753628 0.89909983 0.51455641  1063660392
0.08974397 26.45801544 -2.64753628  1104389629
-2.64753628 0.89909983 -0.75984162  1063660392
-1.18441224 26.43164444 -2.64753628  1104308403
-2.64753628 0.89909983 -3.30043173  1063660394
-4.14163780 26.13200378 -2.64753628  1104142948
-2.64753628 0.89909983 -5.39519405  1063660392
-5.81039667 25.81228638 -2.64753628  1104001454
-2.64753628 0.89909983 -6.63621998  1063660392
-7.86185408 25.26313591 -2.64753628  1103696306
-2.64753628 0.89909983 -9.06922913  1063660392
-9.86263275 24.55123711 -2.64753628  1103306255
-2.64753628 0.89909995 -10.64585304  1063660394
-11.03343105 24.04783440 -2.64753628  1102934788
-2.64753628 0.89909983 -11.86768055  1063748383
-12.56848621 21.62403488 -2.50275636  1101748994
-2.50275636 0.90434456 -13.59518909  1063748383
-13.93052864 20.77272415 -2.50275636  1101291238
-2.50275636 0.90434462 -14.59032440  1063748386
-14.91463375 20.07783318 -2.50275636  1100918696
-2.50275636 0.90434450 -15.55162334  1063748383
-16.17259789 19.07911873 -2.50275636  1100430413
-2.55057979 0.90260875 -17.64968681  1063696903
-18.21810341 18.88738441 -2.62588620  1100347197
-2.64753628 0.89909983 -18.97031212  1063660392
-19.26399040 18.13652229 -2.64753628  1099864407
-2.64753628 0.89909983 -19.83640099  1063660392
-20.11499786 17.18783569 -2.64753628  1099187144
-2.64753628 0.89909983 -20.91929436  1063660393
-21.67509079 15.17317486 -2.64753628  1095780539
-2.64753628 0.89909983 -23.82222366  1063660392
-24.00400543 11.12846184 -2.64753628  1093393811
-2.64753628 0.89909983 -24.34893036  1063660394
-24.51203728 9.95966053 -2.64753628  1103230560
-2.64753628 0.90646064 2.43040562  1063783886
2.04011202 24.32334900 -2.64753628  1103287012
-2.64753628 0.90646064 1.25806260  1063783886
0.86650121 24.39337921 -2.64753628  1103316185
-2.64753628 0.90646064 -0.30913773  1063783886
-0.70098519 24.39869118 -2.64753628  1103303431
-2.64753628 0.90646064 -1.48404777  1063783886
-2.65553117 24.26387596 -2.64753628  1103216303
-2.64753628 0.90646064 -3.43325210  1063783885
-4.20745039 24.04339790 -2.64753628  1103087659
-2.64753628 0.90646064 -4.97729540  1063783886
-5.36033154 23.81290054 -2.64753628  1102957122
-2.64753628 0.90646064 -5.78739834  1063865779
-6.85626411 22.03178978 -2.50275636  1101883552
-2.50275636 0.91134185 -8.60113144  1063865779
-9.62217331 20.97193336 -2.50275636  1101431954
-2.50275636 0.91134185 -10.29059315  1063865779
-10.94842529 20.31108093 -2.50275636  1100673231
-2.50275636 0.91134185 -13.15754318  1063865779
-14.04862595 18.91202927 -2.55537128  1100430767
-2.58561063 0.90854520 -15.48196888  1063783885
-15.78298187 18.61948395 -2.64753628  1100010274
-2.64753628 0.90646064 -16.94552040  1063783886
-17.50089836 17.01487923 -2.64753628  1099291263
-2.64753628 0.90646058 -18.03819466  1063783886
-18.80912781 15.55648136 -2.64753628  1097473941
-2.64753628 0.90646064 -19.76883698  1063783886
-20.64701843 13.01875973 -2.64753628  1095432196
-2.64753628 0.90646064 -21.05440903  1063783886
-21.80361557 10.97222614 -2.64753628  1093267055
-2.64753628 0.90646058 -22.30668449  1063783885
-22.46292686 9.55010796 -2.64753628  1091764957
-2.64753628 0.90646058 2.13205981  1063967092
1.78967309 21.33752060 -2.50275636  1101730406
-2.50275636 0.91738057 0.76013482  1063967092
-0.27119029 21.41072464 -2.50275636  1101740697
-2.50275636 0.91738057 -0.95853436  1063967092
-1.30187762 21.37283134 -2.50275636  1101696865
-2.50275636 0.91738057 -2.32955503  1063967092
-3.01180172 21.19957542 -2.50275636  1101577290
-2.50275636 0.91738057 -4.02914953  1063967092
-4.36630440 20.96254921 -2.50275636  1101430279
-2.50275636 0.91738057 -5.37066174  1063967092
-5.70278931 20.63905907 -2.50275636  1101238270
-2.50275636 0.91738057 -6.69001150  1063967092
-7.33967400 20.11522293 -2.50275636  1101002060
-2.50275636 0.91738057 -8.29977798  1063967092
-8.61563683 19.60264397 -2.50275636  1100567036
-2.50275636 0.91738057 -9.85608959  1063967092
-10.20420837 18.93044090 -2.51363516  1100435704
-2.58152485 0.91489422 -11.81846809  1063912276
-12.24114990 18.90281868 -2.63224173  1099937331
-2.64753628 0.91281569 -14.92201519  1063890506
-15.19372845 16.79951668 -2.64753628  1098933039
-2.64753628 0.91281563 -16.24068069  1063890506
-16.49210930 15.52686405 -2.64753628  1098131756
-2.64753628 0.91281569 -17.22066307  1063890506
-17.45470619 14.43628025 -2.64753628  1096369079
-2.64753628 0.91281569 -18.34531593  1063890506
-18.55627251 12.98991585 -2.64753628  1095119545
-2.64753628 0.91281569 -19.16026115  1063890506
-19.35177422 11.77208424 -2.64753628  1093816432
-2.64753628 0.91281569 -19.89619637  1063890506
-20.39447784 9.85593891 -2.64753628  1091773129
-2.64753628 0.91281569 -19.64547539  1063971134
-19.77705193 8.03575516 -2.49513626  1100919754
-2.50275636 0.92264479 1.98858857  1064055411
1.02936149 19.94498444 -2.50275636  1100987893
-2.50275636 0.92264479 -0.57355362  1064055411
-0.89403135 19.95150757 -2.50275636  1100970502
-2.50275636 0.92264479 -1.85372734  1064055411
-2.17278743 19.85298347 -2.50275636  1100908088
-2.50275636 0.92264479 -2.80912733  1064055411
-3.12625170 19.72532463 -2.50275636  1100833138
-2.50275636 0.92264479 -3.75801110  1064055411
-5.62742805 19.16230774 -2.50275636  1100465693
-2.50275636 0.92264479 -6.56850147  1064050676
-7.60438347 18.92973518 -2.55645537  1100441566
-2.57284021 0.92056704 -8.31627941  1064011983
-8.67941284 18.91715813 -2.60823631  1100434692
-2.62730241 0.91895556 -9.42144108  1063983592
-9.72462845 18.75567055 -2.64753628  1100183635
-2.64753628 0.91835797 -10.90841198  1063983485
-11.19752693 17.91533089 -2.64753628  1099718486
-2.64753628 0.91835767 -12.04722977  1063983485
-12.32433891 17.15966988 -2.64753628  1099410744
-2.64753628 0.91835767 -13.40031338  1063983485
-14.42105198 15.43945885 -2.64753628  1098075000
-2.64753628 0.91835767 -14.90935802  1063983485
-15.14778805 14.72712040 -2.64753628  1096521593
-2.64753628 0.91835767 -16.28012085  1063983485
-16.49422073 13.20167732 -2.64753628  1095693904
-2.64753628 0.91835767 -16.90961266  1063983485
-17.11079025 12.39211559 -2.64753628  1094834750
-2.64753628 0.91835767 -17.49986267  1063983485
-18.39278030 10.39467525 -2.64753628  1090911801
-2.49513626 0.92287099 -18.44618797  1064059206
1.89705563 18.95759773 -2.54856658  1100458059
-2.54164839 0.92618680 0.97836393  1064116001
0.67336559 18.95628166 -2.53732133  1100457264
-2.53611851 0.92634135 0.06429893  1064117694
-0.84927273 18.95265770 -2.53778195  1100448426
-2.57188082 0.92534244 -3.94382405  1064093529
-5.55637312 18.92036438 -2.63779569  1100376371
-2.64753628 0.92323273 -6.48487329  1064065275
-7.37779808 18.36569405 -2.64753628  1100018777
-2.64753628 0.92323279 -9.11028481  1064065276
-9.66976643 17.26920700 -2.64753628  1099490513
-2.64753628 0.92323273 -10.21927738  1064065276
-10.75827503 16.61294556 -2.64753628  1099137316
-2.64753628 0.92323279 -11.54574394  1064065278
-11.80238819 15.88817692 -2.64753628  1098589537
-2.64753628 0.92323273 -12.30644226  1064065276
-12.79783630 15.09785366 -2.64753628  1097522635
-2.64753628 0.92323273 -13.51002312  1064065275
-13.74051571 14.24530888 -2.64753628  1096356591
-2.64753628 0.92323273 -14.62651062  1064065276
-14.83873463 13.09742069 -2.64753628  1095357355
-2.64753628 0.92323279 -15.64878273  1064065278
-15.84135723 11.86513042 -2.64753628  1094032156
-2.64753628 0.92323279 -16.57026863  1064065275
-16.74193001 10.55643749 -2.64753628  1092916358
-2.64753628 0.92323273 -17.07226372  1064065275
-17.23083878 9.73800468 -2.64753628  1091756058
-2.64753628 0.92323273 -16.66205597  1064136657
-16.92271233 7.84551430 -2.49513626  1089623081
-2.49513626 0.92748737 -17.28085709  1064136657
2.15053153 18.48899078 -2.64753628  1100243800
-2.64753628 0.92755431 1.25772452  1064137779
0.66077626 18.60190582 -2.64753628  1100276098
-2.64753628 0.92755431 -0.23573907  1064137779
-0.83324939 18.59498215 -2.64753628  1100249111
-2.64753628 0.92755431 -1.72768748  1064137779
-2.61816216 18.42859268 -2.64753628  1100131871
-2.64753628 0.92755431 -3.50250053  1064137779
-3.79558635 18.22253990 -2.64753628  1100039716
-2.64753628 0.92755431 -4.66865873  1064137779
-4.95738077 17.94134331 -2.64753628  1099837167
-2.64753628 0.92755431 -5.81556511  1064137779
-6.09872246 17.58616257 -2.64753628  1099686727
-2.64753628 0.92755431 -7.76215124  1064137779
-8.03279209 16.79112434 -2.64753628  1099182656
-2.64753628 0.92755431 -8.83202839  1064137779
-9.09397507 16.24090958 -2.64753628  1098956300
-2.64753628 0.92755431 -9.61076641  1064137779
-9.86549377 15.78415203 -2.64753628  1098340623
-2.64753628 0.92755431 -10.61411476  1064137779
-11.09960175 14.94209957 -2.64753628  1097609463
-2.64753628 0.92755431 -11.57365608  1064137779
-11.80623913 14.39028263 -2.64753628  1097019008
-2.64753628 0.92755431 -12.26222706  1064137779
-12.48550415 13.80506229 -2.64753628  1096178259
-2.64753628 0.92755431 -13.34584332  1064137779
-13.55244732 12.75925636 -2.64753628  1095279582
-2.64753628 0.92755431 -14.15114212  1064137779
-14.89807701 11.15861893 -2.64753628  1093578756
-2.64753628 0.92755431 -15.58357716  1064137779
-15.74501801 9.92784405 -2.64753628  1092274097
-2.64753628 0.92755431 -16.20481491  1064137779
-15.66991329 7.88556004 -2.49513626  1089749237
-2.49513626 0.93157834 -16.25186539  1064205291
1.46812272 17.50379372 -2.64753628  1099707243
-2.64753628 0.93141103 0.05957563  1064202483
-1.06797290 17.53275681 -2.64753628  1099656362
-2.64753628 0.93141097 -2.47067261  1064202484
-2.74958491 17.34871483 -2.64753628  1099563783
-2.64753628 0.93141103 -3.58180666  1064202484
-3.85745192 17.13645744 -2.64753628  1099469846
-2.64753628 0.93141103 -4.94940376  1064202483
-5.21938753 16.77188492 -2.64753628  1099219939
-2.64753628 0.93141097 -6.02094889  1064202483
-6.28513050 16.40229607 -2.64753628  1098949916
-2.64753628 0.93141103 -7.32496071  1064202483
-7.83380175 15.72163010 -2.64753628  1098343494
-2.64753628 0.93141103 -8.58177376  1064202483
-9.06945324 15.04270935 -2.64753628  1097749113
-2.64753628 0.93141103 -9.54779816  1064202484
-10.01629257 14.42955303 -2.64753628  1096555605
-2.64753628 0.93141097 -11.57157326  1064202484
-11.98993111 12.83665276 -2.64753628  1095387038
-2.64753628 0.93141097 -12.78912830  1064202484
-13.53559685 11.19489765 -2.64753628  1092449398
-2.64753628 0.93141097 -14.70585155  1064202483
-15.00671577 9.12889290 -2.64753628  1090912467
-2.49513626 0.93522835 -14.41184139  1064266529
-14.66593456 7.67789459 -2.49513626  1089347608
-2.49513626 0.93522841 -15.12850475  1064266529
-15.23446846 6.47693157 -2.49513626  1099192765
-2.64753628 0.93487388 1.38965726  1064260581
1.12344944 16.58844757 -2.64753628  1099224500
-2.64753628 0.93487388 0.59023285  1064260580
-1.54324067 16.55467033 -2.64753628  1099184344
-2.64753628 0.93487388 -2.33862114  1064260581
-2.60262752 16.42147827 -2.64753628  1099105604
-2.64753628 0.93487388 -3.12857389  1064260581
-3.65128446 16.22056770 -2.64753628  1098921240
-2.64753628 0.93487388 -4.94042778  1064260581
-5.44762325 15.70866585 -2.64753628  1098508316
-2.64753628 0.93487388 -6.19772768  1064260581
-6.44465446 15.32661438 -2.64753628  1098090978
-2.64753628 0.93487382 -7.65311146  1064260581
-7.88912439 14.63558674 -2.64753628  1097060815
-2.64753628 0.93487388 -8.81225109  1064260581
-9.69903183 13.50434875 -2.64753628  1095956921
-2.64753628 0.93487382 -10.75084686  1064260581
-10.95310688 12.50872517 -2.64753628  1095060667
-2.64753628 0.93487388 -11.34910774  1064260581
-11.73339462 11.77990437 -2.64753628  1094081135
-2.64753628 0.93487382 -12.46529388  1064260581
-12.81216431 10.59656334 -2.64753628  1092804639
-2.64753628 0.93487388 -13.30756187  1064260581
-13.46588516 9.75236893 -2.64753628  1092128497
-2.64753628 0.93487382 -13.77207851  1064260581
-13.91987419 9.09262657 -2.64753628  1090893887
-2.49513626 0.93850493 -13.64157581  1064321500
-13.76360607 7.48949766 -2.49513626  1088513528
-2.49513626 0.93850493 -14.10828304  1064321500
-14.21594048 6.59063196 -2.49513626  1087082891
-2.49513626 0.93850493 -14.42023754  1064321500
-14.51681519 5.89843082 -2.49513626  1098619873
-2.64753628 0.93800002 1.06630564  1064313029
0.81336510 15.75980473 -2.64753628  1098667348
-2.64753628 0.93800002 0.30690485  1064313030
0.05352796 15.78067303 -2.64753628  1098676448
-2.64753628 0.93800002 -0.95947117  1064313029
-1.21226704 15.73414135 -2.64753628  1098548526
-2.64753628 0.93800002 -2.47025013  1064313029
-2.72020388 15.54456139 -2.64753628  1098273824
-2.64753628 0.93800002 -3.71233058  1064313030
-3.95812273 15.27632427 -2.64753628  1098007294
-2.64753628 0.93800002 -4.68914175  1064313029
-5.40927172 14.82472992 -2.64753628  1097485144
-2.64753628 0.93800002 -6.11686134  1064313029
-6.58080673 14.34314823 -2.64753628  1096820576
-2.64753628 0.93800002 -7.48785925  1064313029
-7.70993567 13.76915741 -2.64753628  1096436772
-2.64753628 0.93800002 -8.36403275  1064313030
-8.78940487 13.10645676 -2.64753628  1095570517
-2.64753628 0.93800008 -9.41032124  1064313029
-10.00941181 12.20018387 -2.64753628  1094579640
-2.64753628 0.93800002 -10.58529663  1064313029
-11.31469440 11.00047684 -2.64753628  1093473285
-2.64753628 0.93800002 -11.83127308  1064313029
-12.32041931 9.86103916 -2.64753628  1092261708
-2.64753628 0.93800008 -12.45135021  1064371117
-12.70608902 7.72937584 -2.49513626  1089087527
-2.49513626 0.94146234 -13.17600155  1064371117
-13.28505993 6.68543386 -2.49513626  1087313031
-2.49513626 0.94146234 -13.49287701  1064371117
-13.68677807 5.81893253 -2.49513626  1085482561
-2.49513626 0.94146234 1.25496221  1064360612
0.53302377 15.00546837 -2.64753628  1097871756
-2.64753628 0.94083619 -0.67215139  1064360612
-0.91291058 14.98715305 -2.64753628  1097828206
-2.64753628 0.94083619 -1.39366388  1064360612
-1.63354123 14.92580700 -2.64753628  1097718204
-2.64753628 0.94083619 -2.35036516  1064360612
-3.29738283 14.64839172 -2.64753628  1097432884
-2.64753628 0.94083619 -3.76603651  1064360612
-3.99893093 14.47261810 -2.64753628  1097236791
-2.64753628 0.94083619 -4.69119883  1064360612
-4.91961384 14.18610573 -2.64753628  1096544002
-2.64753628 0.94083619 -6.26143742  1064360612
-7.12447071 13.21703720 -2.64753628  1095206593
-2.64753628 0.94083619 -8.56200695  1064360613
-8.75895500 12.19544315 -2.64753628  1094302414
-2.64753628 0.94083619 -10.24909782  1064360612
-10.76559162 10.46662045 -2.64753628  1092922813
-2.64753628 0.94083619 -11.09610653  1064360612
-11.25709915 9.93608856 -2.64753628  1091968678
-2.64753628 0.94083619 -11.46069813  1064416122
-11.84708500 7.73865747 -2.49513626  1089164842
-2.49513626 0.94414485 -12.20598984  1064416122
-12.53656578 6.56313515 -2.49513626  1087081783
-2.49513626 0.94414485 -12.93197632  1064416122
1.65423870 14.22215462 -2.64753628  1097069373
-2.64753628 0.94342065 1.19671535  1064403972
0.73797059 14.29900646 -2.64753628  1097143897
-2.64753628 0.94342065 -0.41119635  1064403972
-0.64095122 14.30368614 -2.64753628  1097116207
-2.64753628 0.94342065 -1.09990084  1064403972
-1.55772305 14.23305130 -2.64753628  1096919255
-2.64753628 0.94342065 -2.69420433  1064403972
-4.25450134 13.67133617 -2.64753628  1096149968
-2.64753628 0.94342065 -5.33723879  1064403972
-5.54988003 13.19867516 -2.64753628  1095776252
-2.64753628 0.94342065 -6.17900801  1064403972
-6.38559723 12.81523800 -2.64753628  1095230168
-2.64753628 0.94342065 -7.19498539  1064403972
-7.39282131 12.26182747 -2.64753628  1094861753
-2.64753628 0.94342065 -7.78273582  1064403972
-7.97470140 11.89160728 -2.64753628  1094324755
-2.64753628 0.94342065 -8.90272045  1064403972
-9.43238163 10.77201843 -2.64753628  1093265438
-2.64753628 0.94342065 -10.88538074  1064403972
-11.03332615 9.12534428 -2.64753628  1089596140
-2.49513626 0.94658893 -11.29722023  1064457127
-11.74758244 6.63914108 -2.49513626  1087267740
-2.49513626 0.94658893 -12.05365562  1064457127
-12.14949512 5.87142754 -2.49513626  1085644400
-2.49513626 0.94658893 -12.41813850  1064457126
-12.50130939 5.07949114 -2.49513626  1096380029
-2.64753628 0.94578534 1.36223960  1064443646
1.14347875 13.63321877 -2.64753628  1096476010
-2.64753628 0.94578534 -0.17327242  1064443645
-0.39290008 13.67544746 -2.64753628  1096461716
-2.64753628 0.94578534 -0.83181065  1064443645
-1.05097127 13.64066601 -2.64753628  1096414165
-2.64753628 0.94578534 -1.70660079  1064443645
-2.35827231 13.47630787 -2.64753628  1096219828
-2.64753628 0.94578540 -2.78977036  1064443645
-3.21839523 13.29714966 -2.64753628  1095894828
-2.64753628 0.94578534 -4.27446032  1064443645
-4.68954945 12.85225391 -2.64753628  1095526299
-2.64753628 0.94578534 -5.70520973  1064443645
-6.29736853 12.14559460 -2.64753628  1094171745
-2.64753628 0.94578534 -8.50667572  1064443645
-8.84634590 10.43621063 -2.64753628  1092923233
-2.64753628 0.94578534 -9.33862686  1064443645
-9.65483665 9.69310856 -2.64753628  1092130521
-2.64753628 0.94578534 -10.11039448  1064443645
-10.25708389 9.05342674 -2.64753628  1090747087
-2.49513626 0.94882482 -10.44259834  1064494639
-10.56268120 7.39417601 -2.49513626  1088890852
-2.49513626 0.94882482 -10.90648460  1064494639
-11.01549816 6.70095491 -2.49513626  1085507325
-2.49513626 0.94882482 -11.86570168  1064494639
-11.94517994 4.85353279 -2.49513626  1095771256
-2.64753628 0.94795698 1.30404782  1064480079
1.09462953 13.05078220 -2.64753628  1095831836
-2.64753628 0.94795698 0.67502213  1064480079
0.25470090 13.09413052 -2.64753628  1095849452
-2.64753628 0.94795698 -0.79627389  1064480079
-1.42483413 13.01886940 -2.64753628  1095693927
-2.64753628 0.94795698 -2.46436858  1064480079
-2.67058516 12.82143116 -2.64753628  1095527981
-2.64753628 0.94795698 -3.48802471  1064480079
-3.69026613 12.56594849 -2.64753628  1095175740
-2.64753628 0.94795698 -4.48920107  1064480079
-4.68617678 12.22950745 -2.64753628  1094702511
-2.64753628 0.94795698 -5.65189362  1064480079
-6.21424103 11.52841377 -2.64753628  1094112665
-2.64753628 0.94795692 -6.58120298  1064480079
-6.94138670 11.10577583 -2.64753628  1093657312
-2.64753628 0.94795698 -7.29440355  1064480079
-7.46811914 10.75863838 -2.64753628  1093284491
-2.64753628 0.94795698 -7.80971050  1064480079
-8.14325428 10.25711918 -2.64753628  1092462144
-2.64753628 0.94795698 -9.39017105  1064480079
-9.53554249 8.97744751 -2.64753628  1090238891
-2.49513626 0.95087790 -10.11142254  1064529084
-10.33348846 6.74995756 -2.49513626  1087547722
-2.49513626 0.95087790 -10.74543095  1064529084
-11.02539158 5.54830360 -2.49513626  1085004690
-2.49513626 0.95087790 -11.19785881  1064529084
-11.43485737 4.64617729 -2.49513626  1095210580
-2.64753628 0.94995815 1.25044739  1064513653
1.04963863 12.51435757 -2.64753628  1095268668
-2.64753628 0.94995815 0.64727962  1064513652
0.44581771 12.55038834 -2.64753628  1095297705
-2.64753628 0.94995815 -0.56217581  1064513653
-0.76354486 12.53506565 -2.64753628  1095241915
-2.64753628 0.94995815 -1.36627007  1064513653
-1.56653976 12.46020889 -2.64753628  1095167850
-2.64753628 0.94995815 -1.96581757  1064513653
-2.36307645 12.33396912 -2.64753628  1094977301
-2.64753628 0.94995815 -3.14986563  1064513653
-3.73160601 11.99107647 -2.64753628  1094426916
-2.64753628 0.94995815 -4.68127203  1064513653
-5.05302954 11.49685764 -2.64753628  1094099129
-2.64753628 0.94995815 -5.78055000  1064513653
-6.13554621 10.95745850 -2.64753628  1093297030
-2.64753628 0.94995815 -6.82620907  1064513653
-6.99458075 10.43008614 -2.64753628  1092947990
-2.64753628 0.94995815 -7.32588100  1064513653
-7.80854368 9.83552074 -2.64753628  1092175495
-2.64753628 0.94995815 -8.42375183  1064513653
-8.71846771 9.03876305 -2.64753628  1090923195
-2.49513626 0.95276952 -8.99794579  1064560820
-9.12023926 7.54308224 -2.49513626  1089251669
-2.49513626 0.95276952 -9.35772991  1064560821
-9.69581318 6.78734398 -2.49513626  1087647591
-2.49513626 0.95276952 -10.01140022  1064560820
-10.11147213 6.15101719 -2.49513626  1085605355
-2.49513626 0.95276952 -10.65628052  1064560820
-10.73759365 4.97803974 -2.49513626  1083818611
-2.49513626 0.95276952 -10.96485233  1064560820
1.20090806 12.00086498 -2.64753628  1094748205
-2.64753628 0.95180804 -0.34636796  1064544689
-0.73329741 12.03849316 -2.64753628  1094739737
-2.64753628 0.95180804 -1.50448442  1064544689
-1.69643354 11.94090557 -2.64753628  1094621203
-2.64753628 0.95180804 -2.07897615  1064544689
-2.45937133 11.80739594 -2.64753628  1094468381
-2.64753628 0.95180804 -2.83722949  1064544689
-3.58378196 11.51605701 -2.64753628  1094078999
-2.64753628 0.95180804 -4.31555128  1064544689
-4.49582529 11.19154549 -2.64753628  1093708194
-2.64753628 0.95180804 -5.02952623  1064544689
-5.20489120 10.87989807 -2.64753628  1093357705
-2.64753628 0.95180804 -5.89248657  1064544689
-6.39239979 10.22743034 -2.64753628  1092745661
-2.64753628 0.95180804 -6.71749544  1064544689
-6.87746859 9.90774250 -2.64753628  1092282551
-2.64753628 0.95180804 -7.49921227  1064544689
-7.64991617 9.32426357 -2.64753628  1090574876
-2.49513626 0.95451802 -8.14973450  1064590155
-8.52181149 7.52178574 -2.49513626  1088934155
-2.49513626 0.95451802 -8.87413406  1064590155
-8.98702908 6.95928574 -2.49513626  1087723827
-2.49513626 0.95451802 -9.31171894  1064590155
-9.51622200 6.21611071 -2.49513626  1085135387
-2.49513626 0.95451802 -10.15340328  1064590155
-10.23413658 4.94580317 -2.49513626  1083419419
-2.49513626 0.95451802 -10.53048515  1064590155
0.96951139 11.55903530 -2.64753628  1094291213
-2.64753628 0.95352304 -0.14690951  1064573462
-0.89107430 11.56534672 -2.64753628  1094241011
-2.64753628 0.95352304 -1.26197219  1064573462
-1.63156068 11.48429775 -2.64753628  1094143567
-2.64753628 0.95352298 -2.36532736  1064573462
-2.90940762 11.22882652 -2.64753628  1093744150
-2.64753628 0.95352304 -3.62413359  1064573462
-3.80059266 10.95932102 -2.64753628  1093185463
-2.64753628 0.95352298 -5.33926630  1064573462
-5.66717148 10.12099075 -2.64753628  1092646274
-2.64753628 0.95352304 -5.98922491  1064573462
-6.91703796 9.31159878 -2.64753628  1091776635
-2.64753628 0.95352304 -7.21245766  1064573462
-7.35739660 8.96771717 -2.64753628  1090874587
-2.49513626 0.95613879 -7.20168686  1064617347
-7.33281851 8.10780525 -2.49513626  1090496020
-2.49513626 0.95613879 -7.58936548  1064617347
-7.83809853 7.62043095 -2.49513626  1089457035
-2.49513626 0.95613879 -8.42401314  1064617347
-8.64338017 6.69317675 -2.49513626  1086889307
-2.49513626 0.95613879 -9.33958149  1064617347
-9.60233212 5.22513056 -2.49513626  1084047468
-2.49513626 0.95613879 -9.99045849  1064617347
-10.06043053 4.27719116 -2.49513626  1093765463
-2.64753628 0.95511729 1.11228883  1064600209
0.93367076 11.13175011 -2.64753628  1093828335
-2.64753628 0.95511723 0.39655623  1064600208
0.03788228 11.17077255 -2.64753628  1093842965
-2.64753628 0.95511723 -0.32081085  1064600208
-0.50006592 11.15963840 -2.64753628  1093809293
-2.64753628 0.95511723 -1.03685772  1064600208
-1.21532559 11.10453129 -2.64753628  1093752414
-2.64753628 0.95511723 -1.74863064  1064600208
-2.10199881 10.97129154 -2.64753628  1093597793
-2.64753628 0.95511723 -2.45319438  1064600208
-3.82909513 10.49407768 -2.64753628  1093068380
-2.64753628 0.95511723 -4.16407824  1064600208
-4.32997990 10.29752064 -2.64753628  1092697003
-2.64753628 0.95511723 -4.98200369  1064600208
-5.45768309 9.74686146 -2.64753628  1092257551
-2.64753628 0.95511723 -5.92070341  1064600208
-6.07204008 9.37645912 -2.64753628  1091644363
-2.64753628 0.95511723 -6.41282845  1064642621
-6.54602051 8.24526691 -2.49513626  1090664893
-2.49513626 0.95764530 -6.80739784  1064642622
-6.93547392 7.92048264 -2.49513626  1090116592
-2.49513626 0.95764530 -7.18621731  1064642622
-7.42954779 7.45899630 -2.49513626  1088876115
-2.49513626 0.95764530 -7.78010654  1064642622
-7.89298439 6.96675110 -2.49513626  1088084472
-2.49513626 0.95764530 -8.21930981  1064642622
-8.32387829 6.44576359 -2.49513626  1086692092
-2.49513626 0.95764530 -8.72043419  1064642622
-8.81401825 5.75742245 -2.49513626  1085216275
-2.49513626 0.95764530 -9.16538811  1064642622
-9.24737740 5.03198147 -2.49513626  1083981908
-2.49513626 0.95764530 -9.40418148  1064642622
-9.47895718 4.58084583 -2.49513626  1083028144
-2.49513626 0.95764530 -9.62115860  1064642622
-9.75343800 3.96298933 -2.49513626  1093385240
-2.64753628 0.95660293 0.72780228  1064625134
0.55515844 10.75679302 -2.64753628  1093417641
-2.64753628 0.95660293 0.03652866  1064625134
-0.30933100 10.76666451 -2.64753628  1093413436
-2.64753628 0.95660293 -0.82742852  1064625134
-0.99975562 10.72461033 -2.64753628  1093357720
-2.64753628 0.95660293 -1.34360623  1064625134
-1.51502788 10.66402721 -2.64753628  1093149047
-2.64753628 0.95660293 -3.20055771  1064625134
-3.36527920 10.23189449 -2.64753628  1092801308
-2.64753628 0.95660293 -3.85407591  1064625134
-4.01507330 9.99479485 -2.64753628  1092541784
-2.64753628 0.95660293 -4.95791292  1064625134
-5.11081171 9.48137093 -2.64753628  1091985040
-2.64753628 0.95660293 -5.41261339  1064625134
-5.56144190 9.22426987 -2.64753628  1091707894
-2.64753628 0.95660293 -5.85476542  1064625134
-5.65384150 8.43082047 -2.49513626  1090874454
-2.49513626 0.95904905 -5.92163754  1064666174
-6.05325365 8.14878941 -2.49513626  1090572039
-2.49513626 0.95904911 -6.31178141  1064666174
-6.43862295 7.84785080 -2.49513626  1089064009
-2.49513626 0.95904911 -7.16369390  1064666174
-7.39093113 6.95836067 -2.49513626  1088083805
-2.49513626 0.95904911 -7.71743441  1064666174
-8.02602291 6.21511269 -2.49513626  1086503917
-2.49513626 0.95904911 -8.31598759  1064666174
-8.58666611 5.41422701 -2.49513626  1084805679
-2.49513626 0.95904911 -8.83742046  1064666174
-8.91647720 4.85192108 -2.49513626  1083615483
-2.49513626 0.95904911 -9.06766987  1064666174
-9.13977623 4.41693306 -2.49513626  1082384570
-2.49513626 0.95904911 -9.34185791  1064666174
1.20128131 10.32789993 -2.64753628  1092978849
-2.64753628 0.95799071 0.86903745  1064648417
0.70255965 10.37376404 -2.64753628  1093026160
-2.64753628 0.95799065 0.20221066  1064648417
0.03526694 10.39746761 -2.64753628  1093032157
-2.64753628 0.95799071 -0.29860237  1064648417
-0.63216996 10.37829304 -2.64753628  1093000815
-2.64753628 0.95799065 -0.96508360  1064648416
-1.13119507 10.33581257 -2.64753628  1092947874
-2.64753628 0.95799071 -1.62758160  1064648416
-1.79227042 10.24189472 -2.64753628  1092838274
-2.64753628 0.95799071 -2.12020183  1064648417
-2.28336859 10.14370918 -2.64753628  1092727063
-2.64753628 0.95799071 -2.60790133  1064648417
-2.76917934 10.02198792 -2.64753628  1092487235
-2.64753628 0.95799071 -4.18361139  1064648417
-4.33591700 9.45031452 -2.64753628  1091809375
-2.64753628 0.95799071 -5.05947447  1064688173
-5.19365788 8.30945587 -2.49513626  1090571180
-2.49513626 0.96036029 -6.21531057  1064688172
-6.33615398 7.47488213 -2.49513626  1088066854
-2.49513626 0.96036029 -7.34658670  1064688172
-7.55101728 6.24522638 -2.49513626  1086583061
-2.49513626 0.96036029 -7.74765062  1064688172
-8.02756119 5.61951876 -2.49513626  1084980170
-2.49513626 0.96036023 -8.28884888  1064688172
-8.37170029 5.09267759 -2.49513626  1084138650
-2.49513626 0.96036023 -8.53090763  1064688171
-8.68131447 4.54483318 -2.49513626  1082683527
-2.49513626 0.96036023 -9.01784992  1064688172
-9.07824898 3.68864870 -2.49513626  1092595516
-2.64753628 0.95928973 1.00044811  1064670211
0.51786625 10.03421402 -2.64753628  1092659431
-2.64753628 0.95928973 -1.09311974  1064670211
-1.25334942 9.96909046 -2.64753628  1092477869
-2.64753628 0.95928973 -2.04883957  1064670211
-2.20651650 9.80229187 -2.64753628  1092285542
-2.64753628 0.95928973 -2.83112788  1064670211
-3.29206634 9.49294186 -2.64753628  1091968529
-2.64753628 0.95928973 -4.18997765  1064670211
-4.48104239 8.99298954 -2.64753628  1090945206
-2.49513626 0.96158755 -4.49306488  1064708762
-4.62632275 8.26213646 -2.49513626  1090714900
-2.49513626 0.96158755 -4.88922453  1064708762
-5.14709330 7.94815636 -2.49513626  1090234845
-2.49513626 0.96158755 -5.52385616  1064708762
-5.64663744 7.60140228 -2.49513626  1089490926
-2.49513626 0.96158755 -6.00611639  1064708762
-6.12289190 7.22329330 -2.49513626  1088682045
-2.49513626 0.96158755 -6.57389307  1064708762
-6.68248177 6.70897007 -2.49513626  1086883036
-2.49513626 0.96158755 -7.19902325  1064708762
-7.39282513 5.91708279 -2.49513626  1085900309
-2.49513626 0.96158755 -7.75736761  1064708762
-7.84356022 5.30512094 -2.49513626  1084601908
-2.49513626 0.96158755 -8.00986576  1064708762
-8.08992863 4.92127085 -2.49513626  1083788714
-2.49513626 0.96158755 -8.31751919  1064708762
-8.59087372 3.98280239 -2.49513626  1081477565
-2.49513626 0.96158755 -8.71432781  1064708762
-8.77269554 3.56449699 -2.49513626  1092253302
-2.64753628 0.96050835 0.81232792  1064690656
0.65671402 9.69679356 -2.64753628  1092319623
-2.64753628 0.96050829 -0.59091872  1064690656
-0.90210414 9.67704964 -2.64753628  1092241949
-2.64753628 0.96050829 -1.52136898  1064690655
-1.67531121 9.57352734 -2.64753628  1092139501
-2.64753628 0.96050835 -1.98184276  1064690655
-2.13436317 9.48174953 -2.64753628  1092035550
-2.64753628 0.96050829 -2.43771672  1064690655
-2.88793445 9.28002739 -2.64753628  1091758997
-2.64753628 0.96050835 -3.62288928  1064690655
-4.34613609 8.06278229 -2.49513626  1090349331
-2.49513626 0.96273869 -4.97878218  1064728075
-5.10158682 7.60731268 -2.49513626  1089343754
-2.49513626 0.96273869 -5.46198654  1064728075
-5.80971003 7.08128881 -2.49513626  1088394808
-2.49513626 0.96273869 -6.35892248  1064728075
-6.46395731 6.48958015 -2.49513626  1086909170
-2.49513626 0.96273869 -6.76895380  1064728075
-6.86716366 6.06130886 -2.49513626  1085502721
-2.49513626 0.96273869 -7.33117008  1064728075
-7.50369740 5.25280142 -2.49513626  1084503649
-2.49513626 0.96273869 -7.66849279  1064728075
-7.82537937 4.76033974 -2.49513626  1083460175
-2.49513626 0.96273869 -8.11478901  1064728075
-8.30994892 3.85256338 -2.49513626  1080950290
-2.49513626 0.96273869 0.93695736  1064709869
0.78649092 9.37697887 -2.64753628  1091997376
-2.64753628 0.96165353 -0.11917669  1064709869
-0.42123747 9.40046978 -2.64753628  1091979177
-2.64753628 0.96165353 -0.72286248  1064709869
-0.87341094 9.36928082 -2.64753628  1091875794
-2.64753628 0.96165353 -1.62202847  1064709869
-1.91881347 9.21219540 -2.64753628  1091756567
-2.64753628 0.96165353 -2.36018753  1064709869
-2.79608488 8.98488808 -2.64753628  1090866102
-2.49513626 0.96382040 -3.17320037  1064746223
-3.43746090 8.17493725 -2.49513626  1090582321
-2.49513626 0.96382040 -3.95508289  1064746224
-4.08202791 7.87291431 -2.49513626  1090112939
-2.49513626 0.96382046 -4.33271503  1064746224
-4.57893372 7.59467220 -2.49513626  1089352464
-2.49513626 0.96382040 -5.05696630  1064746223
-5.28827238 7.11898613 -2.49513626  1088307614
-2.49513626 0.96382046 -5.73430490  1064746224
-5.84218979 6.67192745 -2.49513626  1087127667
-2.49513626 0.96382040 -6.25838041  1064746223
-6.35846710 6.18188524 -2.49513626  1086490395
-2.49513626 0.96382046 -6.64876318  1064746223
-6.74214172 5.76101732 -2.49513626  1085363314
-2.49513626 0.96382046 -7.34577274  1064746224
-7.42460442 4.84984255 -2.49513626  1083661355
-2.49513626 0.96382040 -7.64953232  1064746224
-7.72058868 4.36328888 -2.49513626  1082073609
-2.49513626 0.96382046 -7.98472929  1064746223
-8.04565811 3.73003674 -2.49513626  1079906468
-2.49513626 0.96382040 1.05351400  1064727959
0.90794295 9.07322216 -2.64753628  1091658454
-2.64753628 0.96273178 0.61614072  1064727959
0.46998426 9.10641861 -2.64753628  1091685886
-2.64753628 0.96273178 0.03093123  1064727959
-0.26187181 9.11477661 -2.64753628  1091663657
-2.64753628 0.96273178 -1.28258395  1064727959
-1.42737472 9.00612545 -2.64753628  1091548789
-2.64753628 0.96273178 -2.02160168  1064763310
-2.42145300 8.24544430 -2.49513626  1090690421
-2.49513626 0.96483886 -2.94569492  1064763310
-3.07494473 8.02468204 -2.49513626  1090240754
-2.49513626 0.96483886 -3.58367276  1064763310
-3.70862246 7.75221825 -2.49513626  1089872426
-2.49513626 0.96483886 -3.95563102  1064763310
-4.07761812 7.56463957 -2.49513626  1089466671
-2.49513626 0.96483886 -4.31841135  1064763310
-5.12452698 6.89855099 -2.49513626  1087856599
-2.49513626 0.96483886 -5.76437235  1064763310
-5.96605206 6.18522739 -2.49513626  1086304746
-2.49513626 0.96483886 -6.44288731  1064763310
-6.87822866 5.15177298 -2.49513626  1084077149
-2.49513626 0.96483886 -7.11832094  1064763310
-7.34190416 4.46623325 -2.49513626  1082355895
-2.49513626 0.96483886 -7.61343384  1064763310
-7.73748827 3.73925853 -2.49513626  1079986657
-2.49513626 0.96483886 -7.90857077  1064763310
0.82985908 8.29291821 -2.49513626  1090839037
-2.49513626 0.96579927 0.43003967  1064778798
0.02826880 8.33882332 -2.49649382  1090872710
-2.49621964 0.96578467 -0.37322113  1064779223
-0.50692219 8.32210922 -2.49609327  1090847801
-2.49628377 0.96578377 -0.77358013  1064779423
-0.90672767 8.28486443 -2.49513626  1090801357
-2.49513626 0.96579927 -1.30461895  1064779423
-1.69948864 8.15922165 -2.49513626  1090624364
-2.49513626 0.96579927 -2.34838581  1064779423
-2.47648621 7.95789862 -2.49513626  1090161307
-2.49513626 0.96579927 -2.98215914  1064779423
-3.23051119 7.68276978 -2.49513626  1089742904
-2.49513626 0.96579927 -3.71697068  1064779423
-3.83627248 7.39893150 -2.49513626  1088992184
-2.49513626 0.96579927 -4.30326176  1064779423
-4.41731596 7.06742430 -2.49513626  1087772588
-2.49513626 0.96579927 -5.07667637  1064779423
-5.28629398 6.44331026 -2.49513626  1087074671
-2.49513626 0.96579927 -5.59043694  1064779423
-5.68896532 6.09071875 -2.49513626  1086321776
-2.49513626 0.96579927 -5.88159704  1064779423
-5.97565794 5.80970621 -2.49513626  1085517002
-2.49513626 0.96579927 -6.24847651  1064779423
-6.33623648 5.41417837 -2.49513626  1084881349
-2.49513626 0.96579927 -6.50681067  1064779423
-6.67067814 4.99632025 -2.49513626  1083993896
-2.49513626 0.96579927 -6.90352726  1064779423
-7.04989862 4.44523525 -2.49513626  1082341403
-2.49513626 0.96579927 -7.32068157  1064779423
-7.61658430 3.38360739 -2.49513626  1090570249
-2.49513626 0.96670640 0.67609161  1064794642
0.54657727 8.07054901 -2.49513626  1090601127
-2.49513626 0.96670640 0.28715798  1064794642
0.02743696 8.08898830 -2.49513626  1090611721
-2.49513626 0.96670640 -0.23230475  1064794642
-0.62139362 8.06513405 -2.49513626  1090575785
-2.49513626 0.96670640 -0.88004029  1064794642
-1.00903857 8.02585506 -2.49513626  1090528077
-2.49513626 0.96670640 -1.26622057  1064794642
-1.39434266 7.96795416 -2.49513626  1090291644
-2.49513626 0.96670640 -2.02888536  1064794642
-2.15435576 7.79687405 -2.49513626  1090018405
-2.49513626 0.96670640 -2.40359735  1064794642
-2.52730322 7.68408966 -2.49513626  1089769347
-2.49513626 0.96670640 -2.89438653  1064794642
-3.01529431 7.50603056 -2.49513626  1089379547
-2.49513626 0.96670640 -3.25475240  1064794642
-3.37324047 7.35212612 -2.49513626  1088925253
-2.49513626 0.96670640 -3.72336054  1064794642
-3.95202112 7.05790567 -2.49513626  1088408339
-2.49513626 0.96670640 -4.17660522  1064794642
-4.28730345 6.85941267 -2.49513626  1087830940
-2.49513626 0.96670640 -4.61263704  1064794642
-5.02962971 6.33524513 -2.49513626  1086504458
-2.49513626 0.96670640 -5.88956594  1064794642
-6.06456900 5.35289860 -2.49513626  1084761986
-2.49513626 0.96670640 -6.31529903  1064794642
-6.39564562 4.95259714 -2.49513626  1083692149
-2.49513626 0.96670640 -6.77224493  1064794642
-6.84239960 4.31440210 -2.49513626  1082558207
-2.49513626 0.96670640 -6.97740841  1064794642
-7.22569513 3.63618183 -2.49513626  1079623484
-2.49513626 0.96670640 -7.39241076  1064794642
-7.44418907 3.16489553 -2.49513626  1090136439
-2.49513626 0.96756452 0.65666479  1064809039
0.40494192 7.84616327 -2.49513626  1090207937
-2.49513626 0.96756452 0.02664757  1064809039
-0.22563049 7.85336542 -2.49513626  1090187837
-2.49513626 0.96756452 -0.85475510  1064809038
-1.22983444 7.75975132 -2.49513626  1089923997
-2.49513626 0.96756452 -1.60207176  1064809039
-1.72536516 7.66481352 -2.49513626  1089623218
-2.49513626 0.96756452 -2.21377468  1064809039
-2.69305515 7.38063049 -2.49513626  1089127445
-2.49513626 0.96756452 -3.04533505  1064809039
