# .PCD v0.7 - Point Cloud Data file format
VERSION 0.7
FIELDS x y z intensity
SIZE 4 4 4 4
TYPE F F F F
COUNT 1 1 1 1
WIDTH 997
HEIGHT 1
VIEWPOINT 0 0 0 1 0 0 0
POINTS 997
DATA ascii
-2.49513626 0.74061608 -62.88031769  1061001475
-63.53040314 39.91117096 -2.49513626  1108829118
-2.49513626 0.74061602 -65.96477509  1061001475
-66.53107452 34.67890167 -2.49513626  1107484639
-2.51027203 0.73926818 -72.81427002  1060775665
-74.28166962 28.63344193 -2.64753628  1104902942
-2.64753628 0.72715670 -75.16410828  1060775665
-75.96877289 23.79890251 -2.64753628  1101097218
-2.50275636 0.73993719 -72.81591797  1060990086
-77.34157562 18.86587143 -2.64753628  1099101009
-2.64753628 0.72715676 -78.39441681  1060775666
-78.79944611 11.32640457 -2.64753628  1086069278
-2.49513626 0.74061608 -74.99258423  1061001475
-74.98296356 -2.56179357 -2.49513626  3238607378
-2.49513626 0.74061602 -74.38734436  1061001475
-74.22052765 -10.96929169 -2.49513626  3244856364
-2.49513626 0.74061602 -72.81832886  1061001478
-72.51837158 -19.23795319 -2.49513626  3248699049
-2.49513626 0.74061608 -71.86216736  1061001475
-71.50613403 -22.71310806 -2.49513626  1112372016
-2.49513626 0.78643632 -31.85391045  1061770212
-32.66767502 50.33792877 -2.49513626  1111964005
-2.49513626 0.78643632 -35.05743408  1061770212
-35.83612823 48.13372421 -2.49513626  1111372903
-2.49513626 0.78643632 -37.36556625  1061770212
-42.00469971 47.85419464 -2.64753628  1111273628
-2.64753628 0.77498055 -43.52199173  1061578016
-44.26381302 45.77261734 -2.64753628  1110718552
-2.64753628 0.77498049 -45.71297836  1061578016
-46.41991043 43.58452606 -2.64753628  1110135896
-2.64753628 0.77498055 -51.02240753  1061578016
-51.62845612 37.26823807 -2.64753628  1108458379
-2.64753628 0.77498055 -52.80026627  1061578016
-54.97893524 32.12063980 -2.64753628  1105949682
-2.64753628 0.77498055 -56.93014908  1061578016
-58.23941803 25.74081421 -2.64753628  1103521851
-2.64753628 0.77498055 -59.03711700  1061578016
-60.11888885 20.97947311 -2.64753628  1101009985
-2.64753628 0.77498055 -60.76248550  1061578016
-61.06076431 18.05553246 -2.64753628  1099469281
-2.64753628 0.77498055 -61.60985184  1061578016
-61.86051559 15.08958340 -2.64753628  1094806131
-2.64753628 0.77498055 -62.70262527  1061578016
-62.87271500 10.07171440 -2.64753628  1091629725
-2.64753628 0.77498049 -63.06210709  1061583370
-59.74121857 5.66310310 -2.49513626  1081035276
-2.49513626 0.78643626 -59.94481659  1061770212
-60.00307465 0.84592825 -2.49513626  3186887910
-2.49513626 0.78643632 -59.99924088  1061770212
-59.97403717 -2.04898882 -2.49513626  3229516443
-2.49513626 0.78643632 -59.80542755  1061770212
-59.71825409 -5.90032530 -2.49513626  3235611782
-2.49513626 0.78643626 -59.49761581  1061770212
-59.05131531 -10.67825890 -2.49513626  3241805395
-2.49513626 0.78643632 -58.67737198  1061770212
-57.47787476 -17.24460983 -2.49513626  3248008282
-2.49513626 0.78643632 -25.85330963  1062308891
-27.21612167 41.93758774 -2.49513626  1109419940
-2.49513626 0.81854409 -30.49688148  1062308891
-31.13003922 39.12031555 -2.49513626  1109030243
-2.49513626 0.81854403 -32.37204361  1062308890
-32.98060989 37.57337570 -2.49513626  1108474146
-2.49513626 0.81854409 -34.75431824  1062308891
-37.48562241 37.53614807 -2.64753628  1108426407
-2.64753628 0.80859447 -39.82115555  1062141963
-40.37965393 34.40373230 -2.64753628  1107581284
-2.64753628 0.80859447 -42.50783920  1062141964
-43.01275253 31.04895401 -2.64753628  1106063988
-2.64753628 0.80859447 -44.91980743  1062141964
-45.36780167 27.49354935 -2.64753628  1104161161
-2.64753628 0.80859452 -46.64103317  1062141964
-48.16931534 22.22274590 -2.64753628  1101762506
-2.64753628 0.80859447 -48.85907745  1062141964
-49.18506241 19.87369919 -2.64753628  1100522537
-2.64753628 0.80859441 -49.79874420  1062141964
-50.36093140 16.67063904 -2.64753628  1098759401
-2.64753628 0.80859447 -51.32844925  1062141964
-51.73279572 11.74099922 -2.64753628  1089569987
-2.64753628 0.80859447 -52.88534164  1062141964
-52.94533920 3.30522180 -2.64753628  1075643248
-2.64753628 0.80859447 -53.04830933  1062141964
-53.01748276 -1.81132305 -2.64753628  3224009435
-2.64753628 0.80859447 -52.93180466  1062141964
-52.34684372 -8.59893799 -2.64753628  3243877205
-2.64753628 0.80859447 -23.32114220  1062707013
-25.58307076 34.36220932 -2.49513626  1107806476
-2.49513626 0.84227401 -27.21056557  1062707012
-28.80948257 32.82142639 -2.54359365  1107536930
-2.62659168 0.83469141 -32.12092590  1062559635
-32.63405991 31.64348984 -2.64753628  1106264851
-2.64753628 0.83348960 -35.53100586  1062559634
-36.42441177 27.19475555 -2.64753628  1104155390
-2.64753628 0.83348960 -37.69360352  1062559635
-38.09731674 24.79690933 -2.64753628  1102208788
-2.64753628 0.83348954 -40.96408463  1062559634
-41.27560806 19.04238319 -2.64753628  1100153419
-2.64753628 0.83348954 -41.86669922  1062559635
-42.67189407 15.66530228 -2.64753628  1097109204
-2.64753628 0.83348954 -43.98268890  1062559634
-44.32917023 10.06070995 -2.64753628  1091930955
-2.64753628 0.83348954 -44.88423157  1062559635
-44.99406815 6.46731758 -2.64753628  1085785569
-2.64753628 0.83348960 -45.17878342  1062559634
-45.25362778 4.28976870 -2.64753628  1059326647
-2.64753628 0.83348954 -45.45640564  1062559634
-45.42998123 -1.55209696 -2.64753628  3222410473
-2.64753628 0.83348954 -45.35656738  1062559634
-45.30226135 -3.74137044 -2.64753628  3238095714
-2.64753628 0.83348954 -44.59516525  1062559634
-44.44776154 -9.52307034 -2.64753628  3241835965
-2.64753628 0.83348960 -43.32345200  1062559634
-43.09654999 -14.45614243 -2.64753628  1107517556
-2.55515814 0.85741514 -21.30604935  1062916993
-22.05962372 32.82355499 -2.63335133  1107367045
-2.64753628 0.85265970 -23.74421120  1062881256
-25.25472069 30.71003914 -2.64753628  1106185787
-2.64753628 0.85265976 -26.70649147  1062881256
-27.17676544 29.02293968 -2.64753628  1105504316
-2.64753628 0.85265970 -28.98632050  1062881257
-29.42026520 26.74613380 -2.64753628  1103781461
-2.64753628 0.85265976 -31.47365189  1062881256
-30.82561493 21.50613022 -2.50275636  1101533083
-2.50275636 0.86012441 -31.50129318  1063006493
-31.82697105 19.99438858 -2.50275636  1100154511
-2.64753628 0.85265970 -35.54932785  1062881257
-35.83113098 17.23476982 -2.64753628  1099251742
-2.64753628 0.85265970 -36.36686325  1062881257
-36.62065125 15.48661232 -2.64753628  1097749662
-2.64753628 0.85265976 -37.09975815  1062881257
-37.32494736 13.70238972 -2.64753628  1095232309
-2.64753628 0.85265976 -38.12862396  1062881257
-38.47149277 10.04249477 -2.64753628  1092010647
-2.64753628 0.85265976 -38.77455902  1062881257
-39.03751373 7.54851723 -2.64753628  1086931146
-2.64753628 0.85265970 -39.35614777  1062881257
-39.44202805 5.02329922 -2.64753628  1081091271
-2.64753628 0.85265976 -37.43179703  1063013115
-37.45003510 -1.27945948 -2.49513626  3220232193
-2.49513626 0.86051911 -37.38951874  1063013115
-37.34475327 -3.08418512 -2.49513626  3231463212
-2.49513626 0.86051911 -37.06922150  1063013115
-36.76184845 -7.26004934 -2.49513626  3238462555
-2.49513626 0.86051911 -36.36891174  1063013115
-36.21908188 -9.60832977 -2.49513626  3240298612
-2.49513626 0.86051911 -35.71352768  1063013115
-35.52647781 -11.91686153 -2.49513626  1106056472
-2.64753628 0.86787117 -19.70646286  1063136462
-21.09770203 28.33762550 -2.64753628  1104634288
-2.64753628 0.86787117 -23.30581665  1063136461
-24.55925751 25.39640045 -2.64753628  1103197556
-2.64753628 0.86787117 -26.14109993  1063136462
-25.06967926 22.06513405 -2.50275636  1101658826
-2.50275636 0.87462282 -26.43632698  1063249737
-26.76109886 19.98004913 -2.50275636  1100409133
-2.59143424 0.87048119 -29.91548729  1063136462
-30.50441360 17.82176018 -2.64753628  1099343593
-2.64753628 0.86787117 -31.32846069  1063136462
-31.83742332 15.31380081 -2.64753628  1097649154
-2.64753628 0.86787117 -32.75604248  1063136462
-33.35625839 11.64021111 -2.64753628  1093771987
-2.64753628 0.86787111 -34.03556442  1063136462
-34.32257462 8.37227726 -2.64753628  1089195982
-2.49513626 0.87497962 -32.58388519  1063255722
-32.78720856 5.79455471 -2.49513626  1084786460
-2.49513626 0.87497967 -32.95664597  1063255719
-33.09191895 3.67478204 -2.49513626  1078532164
-2.49513626 0.87497962 -33.19295502  1063255722
-33.25967026 1.53979671 -2.49513626  3206152371
-2.49513626 0.87497962 -33.22211456  1063255722
-33.01155090 -4.33762074 -2.49513626  3231434279
-2.49513626 0.87497962 -32.85497284  1063255722
-32.66440964 -6.45085144 -2.49513626  3235853780
-2.49513626 0.87497962 -32.31527328  1063255722
-32.18213654 -8.53740120 -2.49513626  3239107725
-2.49513626 0.87497962 -16.43515015  1063343859
-18.14993477 26.08985138 -2.64753628  1104042831
-2.64753628 0.88023299 -19.78960609  1063343859
-20.18699455 24.54762077 -2.64753628  1103042025
-2.64753628 0.88023299 -20.18005371  1063447241
-20.53540421 21.93043137 -2.50275636  1101842276
-2.50275636 0.88639504 -21.56920433  1063447241
-22.23065186 20.21001816 -2.50275636  1100540442
-2.50275636 0.88639504 -24.45681190  1063396460
-25.27103043 18.86755180 -2.62715626  1100271782
-2.64753628 0.88023293 -26.06538582  1063343859
-26.63672638 17.33739853 -2.64753628  1099383055
-2.64753628 0.88023299 -27.18052101  1063343859
-27.44190788 16.03253365 -2.64753628  1097057124
-2.64753628 0.88023299 -28.85894203  1063343859
-29.46748734 11.90662289 -2.64753628  1092603227
-2.64753628 0.88023299 -28.85605621  1063452702
-29.09938812 7.09814739 -2.49513626  1087644471
-2.49513626 0.88672054 -29.31260872  1063452702
-29.40787315 5.68638229 -2.49513626  1084673817
-2.49513626 0.88672054 -29.71260262  1063452702
-29.81892967 2.82665348 -2.49513626  1075196086
-2.49513626 0.88672054 -29.92055321  1063452702
-29.95254517 -0.05947950 -2.49513626  3205139106
-2.49513626 0.88672054 -29.93514061  1063452702
-29.91482353 -1.50402319 -2.49513626  3221098978
-2.49513626 0.88672054 -29.85097885  1063452702
-29.80747032 -2.94505882 -2.49513626  3227198286
-2.49513626 0.88672054 -29.69734383  1063452702
-29.63074684 -4.37921906 -2.49513626  3232403067
-2.49513626 0.88672054 -29.28792953  1063452702
-29.18322182 -6.74524212 -2.49513626  3236353710
-2.49513626 0.88672054 -28.95120049  1063452702
-28.82394218 -8.14487934 -2.49513626  3238639579
-2.49513626 0.88672054 -28.54708481  1063452702
-28.39757347 -9.52556896 -2.49513626  1103350654
-2.64753628 0.89047557 -15.72101974  1063515701
-16.10856819 23.96870804 -2.64753628  1102948102
-2.64753628 0.89047557 -16.65277290  1063610771
-16.99850845 21.36157990 -2.50275636  1101573893
-2.50275636 0.89614218 -18.00899124  1063610771
-18.33662033 20.22460938 -2.50275636  1100807897
-2.50275636 0.89614218 -19.59886551  1063610771
-20.12909317 18.89958763 -2.53132010  1100422735
-2.57443786 0.89333212 -21.45032501  1063533919
-22.28039932 18.37294579 -2.64753628  1099380872
-2.64753628 0.89047557 -25.39071465  1063515701
-25.60869789 13.34839249 -2.64753628  1093925006
-2.64753628 0.89047557 -26.94616699  1063515701
-27.10972786 9.95226955 -2.64753628  1091646542
-2.64753628 0.89047557 -25.97183990  1063615791
-26.09933090 7.71751451 -2.49513626  1084577828
-2.49513626 0.89644140 -26.80110741  1063615792
-27.05017471 3.00383997 -2.49513626  1076126006
-2.49513626 0.89644140 -27.13278198  1063615792
-27.16357040 1.69573724 -2.49513626  1067523129
-2.49513626 0.89644140 -27.20405769  1063615791
-27.21200562 -0.49174163 -2.49513626  3211650663
-2.49513626 0.89644140 -27.18211555  1063615791
-27.15662575 -1.80359888 -2.49513626  3227708541
-2.49513626 0.89644140 -26.70074081  1063615791
-26.41534615 -6.55473518 -2.49513626  3238253645
-2.49513626 0.89644140 -25.80346107  1063615791
-13.27646828 21.19672012 -2.50275636  1101402622
-2.50275636 0.90434450 -14.28332710  1063748383
-14.61165524 20.29935455 -2.50275636  1100779906
-2.50275636 0.90434456 -15.88641357  1063748383
-16.20580101 19.07272339 -2.50442123  1100434298
-2.51802754 0.90378988 -17.13911819  1063717588
-18.69614410 18.72135162 -2.64753628  1100175506
-2.64753628 0.89909977 -19.28855896  1063660392
-19.86100578 17.48070717 -2.64753628  1099515317
-2.64753628 0.89909983 -20.68099594  1063660392
-20.94371605 16.16773605 -2.64753628  1098368500
-2.64753628 0.89909983 -21.93975067  1063660392
-22.17472839 14.43315792 -2.64753628  1096888792
-2.64753628 0.89909983 -22.62743759  1063660392
-23.26245880 12.60526562 -2.64753628  1094954021
-2.64753628 0.89909983 -23.84334373  1063660392
-24.02470207 11.08371162 -2.64753628  1092524035
-2.64753628 0.89909983 -24.68753624  1063660392
-24.83738708 9.11806965 -2.64753628  1090175038
-2.49513626 0.90462142 -23.79487801  1063753029
-24.02229691 6.68517399 -2.49513626  1086134221
-2.49513626 0.90462136 -24.48166847  1063753029
-24.55463600 4.33957863 -2.49513626  1081896082
-2.49513626 0.90462142 -24.78282356  1063753029
-24.82387733 2.35315394 -2.49513626  1073352756
-2.49513626 0.90462142 -24.90848160  1063753029
-24.93268204 0.35150459 -2.49513626  3175797043
-2.49513626 0.90462142 -24.93105888  1063753031
-24.92059517 -0.85140187 -2.49513626  3218309769
-2.49513626 0.90462142 -24.85055923  1063753029
-24.77169800 -2.85046077 -2.49513626  3226461994
-2.49513626 0.90462142 -24.66721535  1063753029
-24.60539818 -4.04188967 -2.49513626  3232180746
-2.49513626 0.90462142 -24.10150146  1063753029
-23.88340950 -7.16554022 -2.49513626  3237855705
-2.49513626 0.90462142 -12.24809265  1063865779
-12.56099129 19.35535049 -2.50275636  1100449780
-2.50275636 0.91134185 -14.55306244  1063817658
-15.03762913 18.89740372 -2.61951351  1100403268
-2.64753628 0.90646058 -15.80488586  1063783886
-16.39491653 18.08298111 -2.64753628  1099860263
-2.64753628 0.90646064 -16.96798134  1063783886
-17.52350044 16.99159431 -2.64753628  1098974063
-2.64753628 0.90646064 -18.83177376  1063783885
-19.07907486 15.22420502 -2.64753628  1096775049
-2.64753628 0.90646064 -21.07549095  1063783886
-21.82346916 10.93269062 -2.64753628  1092099369
-2.64753628 0.90646064 -21.71924210  1063870101
-21.83832932 7.22900295 -2.49513626  1088163673
-2.49513626 0.91159946 -22.16156387  1063870101
-22.25788498 5.81013584 -2.49513626  1085174314
-2.49513626 0.91159946 -22.43322182  1063870101
-22.51219940 4.72989130 -2.49513626  1080614704
-2.49513626 0.91159946 -22.81938934  1063870101
-22.97910881 1.06384647 -2.49513626  1060222055
-2.49513626 0.91159946 -22.99996376  1063870101
-22.99030495 -0.78545457 -2.49513626  3217236075
-2.49513626 0.91159946 -22.92566872  1063870101
-22.85292244 -2.62966847 -2.49513626  3225406612
-2.49513626 0.91159946 -22.75652695  1063870101
-22.56783485 -4.45689201 -2.49513626  3231332167
-2.49513626 0.91159946 -22.41282463  1063870101
-22.23463249 -5.89848566 -2.49513626  3234343787
-2.49513626 0.91159946 -22.03343391  1063870101
-11.42747879 18.91421127 -2.58292055  1100429366
-2.63385320 0.91324615 -13.23283863  1063890506
-13.81721115 17.94875336 -2.64753628  1099691519
-2.64753628 0.91281569 -14.66679859  1063890506
-16.00596237 16.02754402 -2.64753628  1098107503
-2.64753628 0.91281569 -17.24169350  1063890506
-17.70521736 14.12793064 -2.64753628  1096339932
-2.64753628 0.91281569 -18.57682419  1063890506
-18.98402023 12.35637665 -2.64753628  1094765214
-2.64753628 0.91281569 -19.37158775  1063890506
-19.73910904 11.11038303 -2.64753628  1091732118
-2.64753628 0.91281569 -19.66142082  1063971134
-19.79259872 7.99739122 -2.49513626  1089843883
-2.49513626 0.91762149 -20.03954697  1063971134
-20.26577759 6.70845270 -2.49513626  1087125176
-2.49513626 0.91762149 -20.56573677  1063971134
-20.65512466 5.39175510 -2.49513626  1083650244
-2.49513626 0.91762149 -20.89112473  1063971134
-21.02148056 3.71516538 -2.49513626  1076665172
-2.49513626 0.91762149 -21.21683311  1063971134
-21.25197983 2.01455879 -2.49513626  1070994656
-2.49513626 0.91762149 -21.30577660  1063971134
-21.33753395 0.64417171 -2.49513626  3173884486
-2.49513626 0.91762149 -21.34376907  1063971134
-21.27482224 -1.75702024 -2.49513626  3221640482
-2.49513626 0.91762149 -21.11786270  1063971134
-21.06493568 -3.46030426 -2.49513626  3228769427
-2.49513626 0.91762143 -20.94278336  1063971132
-20.79891396 -4.80734158 -2.49513626  3232007369
-2.49513626 0.91762149 -20.54285049  1063971134
-20.44683647 -6.13449430 -2.49513626  3234778378
-2.49513626 0.91762149 -20.23897934  1063971134
-11.78453541 17.53477478 -2.64753628  1099611762
-2.64753628 0.91835767 -13.15496063  1063983485
-14.19051266 15.65161324 -2.64753628  1098300894
-2.64753628 0.91835773 -14.68652916  1063983485
-14.92887020 14.94899750 -2.64753628  1097551803
-2.64753628 0.91835767 -15.40191364  1063983485
-15.63248348 14.21157932 -2.64753628  1096497487
-2.64753628 0.91835767 -16.29972076  1063983485
-16.72355270 12.90993500 -2.64753628  1095383727
-2.64753628 0.91835767 -17.32672501  1063983485
-17.70651627 11.52487659 -2.64753628  1093611778
-2.64753628 0.91835767 -18.41079712  1063983485
-18.88916588 9.46271420 -2.64753628  1091732989
-2.64753628 0.91835767 -18.07944679  1064059206
-18.46068573 7.45921898 -2.49513626  1085582136
-2.49513626 0.92287099 -19.18180084  1064059206
-19.34355354 4.71845245 -2.49513626  1082327410
-2.49513626 0.92287099 -19.60687637  1064059206
-19.66006660 3.14938712 -2.49513626  1077234840
-2.49513626 0.92287099 -19.78908157  1064059206
-19.82186127 1.87899196 -2.49513626  1070050526
-2.49513626 0.92287099 -19.87203598  1064059206
-19.88941574 0.92080402 -2.49513626  1058656130
-2.49513626 0.92287099 -19.90745354  1064059207
-19.89911652 -0.67984533 -2.49513626  3212833269
-2.49513626 0.92287099 -19.86695480  1064059206
-19.59296227 -3.54299712 -2.49513626  3231281828
-2.49513626 0.92287099 -19.24504471  1064059206
-19.07090187 -5.72168303 -2.49513626  1098777056
-2.64753628 0.92323279 -12.07324409  1064065276
-12.81558895 15.08276081 -2.64753628  1097727728
-2.64753628 0.92323273 -13.29404640  1064065275
-13.52813053 14.44713020 -2.64753628  1096577582
-2.64753628 0.92323273 -14.64492130  1064065275
-14.85712719 13.07653618 -2.64753628  1095334048
-2.64753628 0.92323279 -15.66705132  1064065276
-15.85953331 11.84085464 -2.64753628  1093729967
-2.64753628 0.92323273 -17.55099678  1064065276
-16.67724037 8.35463333 -2.49513626  1090128878
-2.49513626 0.92748743 -17.06076431  1064136657
-17.17983437 7.26522827 -2.49513626  1084834139
-2.49513626 0.92748731 -17.96999931  1064136657
-18.04810333 4.71122837 -2.49513626  1083012024
-2.49513626 0.92748731 -18.25433731  1064136655
-18.31365585 3.54123473 -2.49513626  1078968967
-2.49513626 0.92748743 -18.46313477  1064136656
-18.53891754 2.05869341 -2.49513626  1071730971
-2.49513626 0.92748743 -18.61663628  1064136656
-18.64439201 0.56286716 -2.49513626  3172448243
-2.49513626 0.92748731 -18.62936211  1064136655
-18.45243454 -2.72714162 -2.49513626  3225518575
-2.49513626 0.92748743 -18.35520172  1064136655
-18.23894691 -3.90775108 -2.49513626  3230646531
-2.49513626 0.92748731 -17.95000076  1064136657
-17.86610031 -5.36021757 -2.49513626  3233665822
-2.49513626 0.92748731 -9.62548733  1064137779
-10.38267422 15.44886971 -2.64753628  1098152569
-2.64753628 0.92755431 -10.87413597  1064137779
-11.35434437 14.74945545 -2.64753628  1097205467
-2.64753628 0.92755431 -12.27905655  1064137779
-12.50244617 13.78972340 -2.64753628  1096377296
-2.64753628 0.92755431 -12.93945312  1064137779
-13.15296364 13.17069340 -2.64753628  1094788412
-2.64753628 0.92755431 -14.36073589  1064137779
-14.54932785 11.60967827 -2.64753628  1094057138
-2.64753628 0.92755431 -14.91515732  1064137779
-15.26557827 10.65034389 -2.64753628  1093039260
-2.64753628 0.92755431 -15.91867542  1064137779
-15.42336178 8.35748768 -2.49513626  1090632668
-2.49513626 0.93157834 -15.68417645  1064205291
-15.92875195 7.34867477 -2.49513626  1087524070
-2.49513626 0.93157834 -16.56266594  1064205291
-16.73997879 5.24417019 -2.49513626  1084173636
-2.49513626 0.93157834 -16.97342300  1064205291
-17.10713387 3.88254261 -2.49513626  1080481735
-2.49513626 0.93157834 -17.27448082  1064205291
-17.32134628 2.77474356 -2.49513626  1073205861
-2.49513626 0.93157834 -17.48825836  1064205291
-17.52341270 0.81126881 -2.49513626  1057457033
-2.49513626 0.93157834 -17.54214478  1064205291
-17.53195190 -0.59897214 -2.49513626  3210837913
-2.49513626 0.93157834 -17.50362206  1064205291
-17.45718002 -1.72481668 -2.49513626  3223594221
-2.49513626 0.93157834 -17.31018829  1064205291
-17.26222038 -3.12152886 -2.49513626  3227092202
-2.49513626 0.93157834 -17.02583885  1064205291
-16.88116455 -4.77016830 -2.49513626  3231797307
-2.49513626 0.93157834 -16.63145256  1064205291
-9.56216049 14.73442364 -2.64753628  1097417344
-2.64753628 0.93141103 -10.71482658  1064202483
-11.15690804 13.56693077 -2.64753628  1096166400
-2.64753628 0.93141097 -11.58745670  1064202483
-11.79826069 13.01304150 -2.64753628  1095370672
-2.64753628 0.93141103 -12.61042500  1064202483
-12.80543423 12.02326298 -2.64753628  1094299392
-2.64753628 0.93141103 -13.55189037  1064202483
-13.72985840 10.95578194 -2.64753628  1093385378
-2.64753628 0.93141097 -14.24227142  1064202483
-14.40576267 10.05048084 -2.64753628  1092177885
-2.64753628 0.93141103 -15.02207565  1064202484
-14.29350758 8.35077095 -2.49513626  1090644674
-2.49513626 0.93522835 -14.55467606  1064266529
-14.67962933 7.65167522 -2.49513626  1089291385
-2.49513626 0.93522841 -14.91811848  1064266529
-15.03159046 6.93477154 -2.49513626  1087776248
-2.49513626 0.93522841 -15.44630718  1064266529
-15.71549511 5.20220137 -2.49513626  1084120208
-2.49513626 0.93522835 -15.87466621  1064266529
-16.01742363 4.18114519 -2.49513626  1081807525
-2.49513626 0.93522835 -16.25308228  1064266528
-16.30152321 2.88100123 -2.49513626  1075231812
-2.49513626 0.93522841 -16.42149925  1064266529
-16.53643608 0.76557595 -2.49513626  3220322738
-2.49513626 0.93522841 -16.37626266  1064266528
-16.24047089 -3.20730853 -2.49513626  3227382991
-2.49513626 0.93522835 -16.12892342  1064266528
-16.06688118 -3.98685527 -2.49513626  3230127296
-2.49513626 0.93522841 -15.93035507  1064266529
-15.85590076 -4.75711393 -2.49513626  1097052492
-2.64753628 0.93487388 -9.27421951  1064260581
-9.49493790 13.64861774 -2.64753628  1096280078
-2.64753628 0.93487388 -9.92896366  1064260581
-10.14215279 13.17480469 -2.64753628  1095772400
-2.64753628 0.93487382 -10.76577282  1064260580
-11.16767693 12.31753635 -2.64753628  1094856307
-2.64753628 0.93487388 -11.93643379  1064260581
-12.12102890 11.38065910 -2.64753628  1093649003
-2.64753628 0.93487382 -12.99604225  1064260581
-13.16113472 10.15988541 -2.64753628  1092560534
-2.64753628 0.93487388 -13.78704929  1064260580
-13.52956390 7.90445042 -2.49513626  1089397570
-2.49513626 0.93850493 -13.89505196  1064321500
-14.00973225 7.01832008 -2.49513626  1087507801
-2.49513626 0.93850493 -14.43193817  1064321500
-14.62075043 5.63587379 -2.49513626  1084068537
-2.49513626 0.93850493 -15.02621937  1064321500
-15.09573078 4.20099640 -2.49513626  1081952910
-2.49513626 0.93850493 -15.22302723  1064321500
-15.28077984 3.46804309 -2.49513626  1077830512
-2.49513626 0.93850493 -15.43025970  1064321500
-15.50997734 2.22935915 -2.49513626  1073571081
-2.49513626 0.93850493 -15.57365036  1064321500
-15.59944630 1.47873259 -2.49513626  1064955425
-2.49513626 0.93850493 -15.66224480  1064321500
-15.66934872 -0.03111605 -2.49513626  3197170681
-2.49513626 0.93850493 -15.63493633  1064321500
-15.61621380 -1.28969371 -2.49513626  3221398964
-2.49513626 0.93850493 -15.50100327  1064321500
-15.46215343 -2.53994346 -2.49513626  3224531735
-2.49513626 0.93850493 -15.32166004  1064321500
-15.26688290 -3.52870083 -2.49513626  3229651523
-2.49513626 0.93850493 -14.93409729  1064321500
-14.85587978 -4.98319769 -2.49513626  1096154062
-2.64753628 0.93800002 -8.59072590  1064313029
-8.80250263 13.09766579 -2.64753628  1095714117
-2.64753628 0.93800002 -9.42394638  1064313029
-9.62629318 12.50469303 -2.64753628  1094911155
-2.64753628 0.93800002 -10.21819115  1064313029
-10.41026878 11.85998344 -2.64753628  1094389364
-2.64753628 0.93800002 -10.78629780  1064313030
-11.15117264 11.16620731 -2.64753628  1093649481
-2.64753628 0.93800002 -11.50451469  1064313029
-11.67674065 10.61539268 -2.64753628  1092861955
-2.64753628 0.93800002 -12.64517784  1064313029
-12.79537773 9.23640347 -2.64753628  1089906565
-2.49513626 0.94146234 -12.84140968  1064371117
-12.96040821 7.29491138 -2.49513626  1088601275
-2.49513626 0.94146234 -13.18830681  1064371117
-13.29715347 6.66134644 -2.49513626  1086807622
-2.49513626 0.94146234 -13.78927803  1064371117
-14.11893749 4.67370272 -2.49513626  1083065855
-2.49513626 0.94146234 -14.26193905  1064371117
-14.32791710 3.98732066 -2.49513626  1081108599
-2.49513626 0.94146234 -14.44873714  1064371117
-14.60190964 2.82350469 -2.49513626  1074228226
-2.49513626 0.94146234 -14.78151703  1064371117
-14.80601311 1.40351975 -2.49513626  1066739182
-2.49513626 0.94146234 -14.84349060  1064371117
-14.85647202 0.68779904 -2.49513626  1055246186
-2.49513626 0.94146234 -14.87235641  1064371117
-14.86994839 -0.26871121 -2.49513626  3204579334
-2.49513626 0.94146234 -14.83969402  1064371117
-14.80032158 -1.46231198 -2.49513626  3221957021
-2.49513626 0.94146234 -14.67569923  1064371117
-14.63503170 -2.64645433 -2.49513626  3224922640
-2.49513626 0.94146234 -14.54235077  1064371117
-14.43462467 -3.58182144 -2.49513626  3228831817
-2.49513626 0.94146234 -14.31197071  1064371117
-14.17450428 -4.50237036 -2.49513626  3231144450
-2.49513626 0.94146234 -8.37531567  1064360612
-8.77176476 12.18623352 -2.64753628  1093962997
-2.64753628 0.94083619 -10.08525658  1064360612
-10.26283932 10.96001434 -2.64753628  1092907269
-2.64753628 0.94083619 -11.42914295  1064360612
-11.58427429 9.55262947 -2.64753628  1091950447
-2.64753628 0.94083619 -12.03150654  1064360612
-11.60533047 8.09670067 -2.49513626  1089930343
-2.49513626 0.94414485 -11.98232555  1064416122
-12.10183430 7.33388186 -2.49513626  1088297922
-2.49513626 0.94414485 -12.44146347  1064416122
-13.56980515 4.01255798 -2.49513626  1081265632
-2.49513626 0.94414485 -13.69183064  1064416122
-13.74753761 3.35342312 -2.49513626  1078489381
-2.49513626 0.94414485 -13.84827328  1064416122
-13.93467999 2.46270299 -2.49513626  1073797521
-2.49513626 0.94414485 -14.03724098  1064416122
-14.13548660 0.65442151 -2.49513626  1054515393
-2.49513626 0.94414485 -14.15060043  1064416122
-14.14830494 -0.25567061 -2.49513626  3203883472
-2.49513626 0.94414490 -14.11951828  1064416122
-14.05786514 -1.61762762 -2.49513626  3222457591
-2.49513626 0.94414485 -13.83660889  1064416122
-13.78714085 -3.18668175 -2.49513626  3228055580
-2.49513626 0.94414485 -13.48660946  1064416122
-7.60028076 12.13432980 -2.64753628  1094724385
-2.64753628 0.94342065 -8.17666626  1064403972
-8.36463642 11.62063313 -2.64753628  1093878354
-2.64753628 0.94342065 -9.09437561  1064403972
-9.44532967 10.76066589 -2.64753628  1092923004
-2.64753628 0.94342065 -10.11755943  1064403972
-10.74793148 9.45981598 -2.64753628  1090955635
-2.49513626 0.94658887 -10.68144035  1064457126
-11.06668949 7.72090483 -2.49513626  1089558402
-2.49513626 0.94658893 -11.30926323  1064457127
-11.65113354 6.80700588 -2.49513626  1087223929
-2.49513626 0.94658893 -11.96586895  1064457126
-12.06462860 6.04389524 -2.49513626  1086008247
-2.49513626 0.94658893 -12.42821407  1064457126
-12.87677479 4.03393412 -2.49513626  1080527068
-2.49513626 0.94658893 -13.05634594  1064457126
-13.10947037 3.19777989 -2.49513626  1077879672
-2.49513626 0.94658887 -13.20552826  1064457126
-13.28792477 2.34840035 -2.49513626  1067646885
-2.49513626 0.94658887 -13.45237064  1064457126
-13.46763134 0.84074235 -2.49513626  1059045758
-2.49513626 0.94658887 -13.48770523  1064457126
-13.49250984 0.19021930 -2.49513626  3195643850
-2.49513626 0.94658893 -13.48598003  1064457126
-13.47682858 -0.67757249 -2.49513626  3213764923
-2.49513626 0.94658887 -13.42846489  1064457126
-13.31539440 -2.18729901 -2.49513626  3223802397
-2.49513626 0.94658887 -13.09666443  1064457126
-13.04270935 -3.46001673 -2.49513626  3229792424
-2.49513626 0.94658887 -12.79329681  1064457126
-7.07476902 11.70982265 -2.64753628  1094288175
-2.64753628 0.94578534 -7.44770241  1064443645
-7.63130045 11.35497856 -2.64753628  1093906759
-2.64753628 0.94578534 -8.68980789  1064443645
-8.85862446 10.42577839 -2.64753628  1092911862
-2.64753628 0.94578534 -9.18933773  1064443645
-9.51054192 9.83472919 -2.64753628  1092281181
-2.64753628 0.94578534 -9.82190990  1064443645
-10.12311077 9.20298004 -2.64753628  1091608502
-2.64753628 0.94578534 -9.94760704  1064494639
-10.07824230 8.04196167 -2.49513626  1089918610
-2.49513626 0.94882482 -10.57438087  1064494639
-10.91788578 6.85885191 -2.49513626  1087382094
-2.49513626 0.94882482 -11.33623791  1064494639
-11.52792549 5.77503347 -2.49513626  1085462569
-2.49513626 0.94882482 -11.70768738  1064494639
-11.79303932 5.21232033 -2.49513626  1083467330
-2.49513626 0.94882482 -12.10372734  1064494639
-12.17361927 4.24818230 -2.49513626  1081520080
-2.49513626 0.94882482 -12.47552109  1064494639
-12.52628613 3.05552697 -2.49513626  1075620150
-2.49513626 0.94882482 -12.69680405  1064494639
-12.73124981 2.03944588 -2.49513626  1070629263
-2.49513626 0.94882482 -12.81479073  1064494639
-12.87977028 0.59628564 -2.49513626  3167862587
-2.49513626 0.94882482 -12.89145756  1064494639
-12.88604927 -0.44024664 -2.49513626  3215082886
-2.49513626 0.94882482 -12.80904388  1064494639
-12.78368473 -1.67973828 -2.49513626  3223314590
-2.49513626 0.94882482 -12.60744381  1064494639
-12.51405144 -3.10525131 -2.49513626  3226703637
-2.49513626 0.94882482 -12.28853321  1064494639
-6.95192146 11.09918594 -2.64753628  1093650032
-2.64753628 0.94795698 -7.65107059  1064480079
-8.15480614 10.24793720 -2.64753628  1092595613
-2.64753628 0.94795698 -8.63957500  1064480079
-8.79675102 9.70248985 -2.64753628  1091690195
-2.64753628 0.94795704 -9.26515102  1064529084
-10.34450150 6.73306322 -2.49513626  1087511367
-2.49513626 0.95087790 -10.55568981  1064529084
-10.65720081 6.22631168 -2.49513626  1086438228
-2.49513626 0.95087790 -11.28921223  1064529084
-11.36799812 4.80744553 -2.49513626  1083439047
-2.49513626 0.95087790 -11.51672745  1064529084
-11.58663177 4.25357342 -2.49513626  1080829401
-2.49513626 0.95087790 -11.83611202  1064529084
-12.11825371 2.34325457 -2.49513626  1073341825
-2.49513626 0.95087790 -12.21716499  1064529084
-12.24382687 1.55936170 -2.49513626  1068391997
-2.49513626 0.95087790 -12.31874752  1064529084
-12.34150124 0.17399378 -2.49513626  3167275328
-2.49513626 0.95087790 -12.34071159  1064529084
-12.33552933 -0.42143840 -2.49513626  3212970144
-2.49513626 0.95087790 -12.23753834  1064529084
-12.14574528 -2.19631672 -2.49513626  3222866960
-2.49513626 0.95087790 -11.82211781  1064529084
-11.76354694 -3.73655748 -2.49513626  3229300560
-2.49513626 0.95087790 -6.83647442  1064513653
-7.33659029 10.19241524 -2.64753628  1092434490
-2.64753628 0.94995815 -7.97664165  1064513653
-8.13160706 9.57015324 -2.64753628  1092027041
-2.64753628 0.94995815 -8.58370686  1064513653
-8.73001862 9.02760410 -2.64753628  1090769592
-2.49513626 0.95276952 -8.62825775  1064560820
-8.75742626 7.96142721 -2.49513626  1090140635
-2.49513626 0.95276952 -9.13121605  1064560820
-9.36865139 7.23223448 -2.49513626  1088590999
-2.49513626 0.95276952 -9.59639263  1064560820
-9.81420231 6.61500216 -2.49513626  1087281705
-2.49513626 0.95276952 -10.02186394  1064560820
-10.40588379 5.63865232 -2.49513626  1085214446
-2.49513626 0.95276952 -10.58184052  1064560820
-10.66572762 5.13021040 -2.49513626  1084139557
-2.49513626 0.95276952 -10.82519722  1064560820
-10.90073967 4.60984373 -2.49513626  1083040461
-2.49513626 0.95276952 -11.04335690  1064560820
-11.11038399 4.07874060 -2.49513626  1080953168
-2.49513626 0.95276952 -11.29417229  1064560820
-11.40211010 3.17309618 -2.49513626  1077891303
-2.49513626 0.95276952 -11.49826527  1064560820
-11.65478992 2.05977273 -2.49513626  1072668673
-2.49513626 0.95276952 -11.71500492  1064560820
-11.78258514 1.11691737 -2.49513626  1064133161
-2.49513626 0.95276952 -11.81241035  1064560820
-11.83001709 0.35714382 -2.49513626  3166734468
-2.49513626 0.95276952 -11.83346653  1064560821
-11.82849598 -0.40411580 -2.49513626  3206030285
-2.49513626 0.95276952 -11.79524899  1064560820
-11.77805901 -1.16370404 -2.49513626  3217382516
-2.49513626 0.95276952 -11.70823002  1064560820
-11.61114502 -2.29306912 -2.49513626  3224792336
-2.49513626 0.95276952 -11.43970776  1064560820
-6.40210056 10.22135735 -2.64753628  1092738957
-2.64753628 0.95180804 -6.72751045  1064544689
-7.04594946 9.78864098 -2.64753628  1092274429
-2.64753628 0.95180804 -7.63470602  1064590155
-7.90156698 8.17090893 -2.49513626  1090335675
-2.49513626 0.95451802 -8.28645420  1064590155
-8.99751854 6.94573355 -2.49513626  1088002757
-2.49513626 0.95451802 -9.32203197  1064590155
-9.42541885 6.35295391 -2.49513626  1086422346
-2.49513626 0.95451802 -10.16265011  1064590155
-10.32112122 4.76161432 -2.49513626  1082672106
-2.49513626 0.95451802 -10.60587978  1064590155
-10.73187065 3.74506092 -2.49513626  1080335192
-2.49513626 0.95451802 -10.84675980  1064590155
-10.90000439 3.22310638 -2.49513626  1078134926
-2.49513626 0.95451802 -10.99801350  1064590155
-11.12367535 2.33712125 -2.49513626  1074404225
-2.49513626 0.95451802 -11.22346020  1064590155
-11.25092411 1.61717546 -2.49513626  1069010940
-2.49513626 0.95451802 -11.29710388  1064590155
-11.34446716 0.70819992 -2.49513626  1057395210
-2.49513626 0.95451802 -11.36137676  1064590155
-11.36542320 0.16023155 -2.49513626  3200693751
-2.49513626 0.95451802 -11.35221386  1064590155
-11.34156609 -0.75324690 -2.49513626  3213823401
-2.49513626 0.95451802 -11.29203987  1064590155
-11.26968193 -1.48080337 -2.49513626  3218388834
-2.49513626 0.95451802 -11.18515015  1064590155
-11.15117645 -2.20223069 -2.49513626  3224318726
-2.49513626 0.95451802 -10.88711739  1064590155
-10.83317280 -3.44103456 -2.49513626  3227998462
-2.49513626 0.95451802 -5.99839640  1064573462
-6.15729475 9.83051205 -2.64753628  1091886541
-2.64753628 0.95352304 -7.36771822  1064573462
-7.07851553 8.33074856 -2.49513626  1090622639
-2.49513626 0.95613879 -7.47206116  1064617347
-7.59942484 7.85846663 -2.49513626  1089963790
-2.49513626 0.95613879 -7.84822559  1064617347
-7.96959257 7.48280334 -2.49513626  1089163582
-2.49513626 0.95613879 -8.32121181  1064617347
-8.43415928 6.95497990 -2.49513626  1088041132
-2.49513626 0.95613879 -8.96557331  1064617347
-9.25681782 5.81533146 -2.49513626  1084664228
-2.49513626 0.95613879 -9.69403458  1064617347
-9.99881840 4.41930532 -2.49513626  1082330624
-2.49513626 0.95613879 -10.20032692  1064617347
-10.26224232 3.76737976 -2.49513626  1080460496
-2.49513626 0.95613879 -10.37808704  1064617347
-10.43199825 3.26805353 -2.49513626  1078354977
-2.49513626 0.95613879 -10.66080189  1064617347
-10.79428673 1.72916043 -2.49513626  1062945563
-2.49513626 0.95613879 -10.91067600  1064617347
-10.92021942 0.50556636 -2.49513626  1051256371
-2.49513626 0.95613879 -10.93189144  1064617347
-10.93012333 -0.19751562 -2.49513626  3200195785
-2.49513626 0.95613885 -10.87894535  1064617347
-10.86025143 -1.24968100 -2.49513626  3217855771
-2.49513626 0.95613879 -10.65111065  1064617347
-10.47081280 -3.14147115 -2.49513626  3226717726
-2.49513626 0.95613885 -10.36436749  1064617347
-5.92969084 9.46712303 -2.64753628  1091956153
-2.64753628 0.95511723 -6.37938118  1064600208
-6.67099047 8.96021843 -2.64753628  1090877906
-2.49513626 0.95764536 -6.68693972  1064642622
-6.94499111 7.91213655 -2.49513626  1090098400
-2.49513626 0.95764530 -7.19585752  1064642622
-7.43927145 7.44930077 -2.49513626  1089111211
-2.49513626 0.95764530 -7.67499304  1064642622
-8.12238693 6.69788504 -2.49513626  1086950437
-2.49513626 0.95764530 -8.72991371  1064642622
-8.82341385 5.74301338 -2.49513626  1085486648
-2.49513626 0.95764530 -9.17436790  1064642622
-9.25622654 5.01568460 -2.49513626  1082990790
-2.49513626 0.95764530 -9.69641018  1064642622
-9.76110363 3.94406939 -2.49513626  1080570636
-2.49513626 0.95764530 -9.93996239  1064642622
-9.99446487 3.30840516 -2.49513626  1078553733
-2.49513626 0.95764530 -10.09569263  1064642622
-10.18647575 2.65905333 -2.49513626  1075126275
-2.49513626 0.95764530 -10.44345570  1064642622
-10.48082733 0.99351901 -2.49513626  1062414388
-2.49513626 0.95764530 -10.50735950  1064642622
-10.52301884 0.31768647 -2.49513626  1041758290
-2.49513626 0.95764530 -10.52779293  1064642622
-10.52608776 -0.19021435 -2.49513626  3204928715
-2.49513626 0.95764530 -10.49209309  1064642622
-10.45879936 -1.20348608 -2.49513626  3215953522
-2.49513626 0.95764530 -10.38858414  1064642622
-10.35979748 -1.87336302 -2.49513626  3221392102
-2.49513626 0.95764530 -10.25738716  1064642622
-10.21793270 -2.53548980 -2.49513626  3224159314
-2.49513626 0.95764530 -10.13110828  1064642622
-10.08375549 -3.02534580 -2.49513626  3226204622
-2.49513626 0.95764530 -9.98124599  1064642622
-5.56996012 9.21912861 -2.64753628  1090964856
-2.49513626 0.95904911 -5.93029261  1064666174
-6.06201792 8.14227104 -2.49513626  1090564893
-2.49513626 0.95904911 -6.57292223  1064666174
-6.81830359 7.52033234 -2.49513626  1089281097
-2.49513626 0.95904911 -7.17306948  1064666174
-7.83173990 6.45821381 -2.49513626  1087019790
-2.49513626 0.95904911 -8.03538513  1064666174
-8.32519913 5.80824900 -2.49513626  1085640253
-2.49513626 0.95904911 -8.59563923  1064666174
-8.76486301 5.12074137 -2.49513626  1084183786
-2.49513626 0.95904911 -8.92500973  1064666174
-9.21745205 4.25244045 -2.49513626  1082347805
-2.49513626 0.95904911 -9.34944057  1064666174
-9.58427811 3.34458876 -2.49513626  1078733108
-2.49513626 0.95904911 -9.68688011  1064666174
-9.73443222 2.87844849 -2.49513626  1076106995
-2.49513626 0.95904911 -9.96647739  1064666174
-9.99618244 1.76664329 -2.49513626  1070433804
-2.49513626 0.95904911 -10.04782772  1064666174
-10.08907700 1.12036264 -2.49513626  1055939682
-2.49513626 0.95904911 -10.14647007  1064666174
-10.15107250 -0.02015791 -2.49513626  3199301200
-2.49513626 0.95904911 -10.13828850  1064666174
-10.12877750 -0.67269993 -2.49513626  3210077049
-2.49513626 0.95904911 -10.10190487  1064666174
-10.08454609 -1.16042125 -2.49513626  3215541826
-2.49513626 0.95904911 -10.04201126  1064666174
-10.01684284 -1.64545143 -2.49513626  3220946462
-2.49513626 0.95904911 -9.92582798  1064666174
-9.81171131 -2.60288620 -2.49513626  3224414576
-2.49513626 0.95904911 -9.67475510  1064666174
-5.06726360 8.38710308 -2.49513626  1090749517
-2.49513626 0.96036029 -5.46588326  1064688172
-5.59596777 8.04399490 -2.49513626  1090420387
-2.49513626 0.96036023 -5.85176802  1064688172
-5.97741127 7.76474428 -2.49513626  1089821972
-2.49513626 0.96036029 -6.22403240  1064688172
-6.58182049 7.25950098 -2.49513626  1088282674
-2.49513626 0.96036023 -7.35569859  1064688172
-7.65938807 6.11183167 -2.49513626  1086036062
-2.49513626 0.96036029 -8.03645134  1064688171
-8.21260738 5.34544706 -2.49513626  1084673601
-2.49513626 0.96036023 -8.53926468  1064688171
-8.61545753 4.66846991 -2.49513626  1083240477
-2.49513626 0.96036023 -8.89775848  1064688172
-9.02516842 3.81667805 -2.49513626  1080750654
-2.49513626 0.96036029 -9.30258846  1064688172
-9.35090733 2.92937779 -2.49513626  1077007575
-2.49513626 0.96036029 -9.44027996  1064688171
-9.51988411 2.32217574 -2.49513626  1071270288
-2.49513626 0.96036023 -9.69933796  1064688171
-9.72049999 1.23799324 -2.49513626  1061456427
-2.49513626 0.96036023 -9.79455471  1064688171
-9.79804516 0.13813582 -2.49513626  3164563450
-2.49513626 0.96036029 -9.79741669  1064688172
-9.79330254 -0.33458427 -2.49513626  3204181237
-2.49513626 0.96036029 -9.76576996  1064688171
-9.75153446 -0.96347797 -2.49513626  3215157060
-2.49513626 0.96036023 -9.69371891  1064688172
-9.66942406 -1.58838141 -2.49513626  3219075287
-2.49513626 0.96036023 -9.58156681  1064688171
-9.54731464 -2.20671225 -2.49513626  3222735279
-2.49513626 0.96036023 -9.38569832  1064688172
-9.29028511 -3.11629653 -2.49513626  1090399790
-2.49513626 0.96158755 -5.40761852  1064708762
-5.77622223 7.50339937 -2.49513626  1089280743
-2.49513626 0.96158755 -6.01454401  1064708762
-6.24664593 7.11654139 -2.49513626  1087793255
-2.49513626 0.96158755 -6.79811859  1064708762
-6.90324736 6.48158979 -2.49513626  1086620650
-2.49513626 0.96158755 -7.58769703  1064708762
-7.67782211 5.54227161 -2.49513626  1085104371
-2.49513626 0.96158755 -7.93619013  1064708762
-8.09821129 4.90762854 -2.49513626  1083759412
-2.49513626 0.96158755 -8.25185013  1064708762
-8.46625710 4.24125814 -2.49513626  1082349694
-2.49513626 0.96158749 -8.59828186  1064708762
-8.72140312 3.68821883 -2.49513626  1080232416
-2.49513626 0.96158755 -8.83550453  1064708762
-8.94046402 3.11991978 -2.49513626  1074765314
-2.49513626 0.96158755 -9.23436356  1064708762
-9.26687336 1.94700253 -2.49513626  1069529024
-2.49513626 0.96158755 -9.41135120  1064708762
-9.45080376 0.58998537 -2.49513626  1054881552
-2.49513626 0.96158749 -9.46918678  1064708762
-9.46367836 -0.32332283 -2.49513626  3203625539
-2.49513626 0.96158755 -9.43707275  1064708762
-9.42331791 -0.93104917 -2.49513626  3213528680
-2.49513626 0.96158755 -9.38850117  1064708762
-9.36744881 -1.38444412 -2.49513626  3217324097
-2.49513626 0.96158755 -9.31807804  1064708762
-9.28977966 -1.83462632 -2.49513626  3221089447
-2.49513626 0.96158755 -9.15261745  1064708762
-9.06979656 -2.72113514 -2.49513626  3225467641
-2.49513626 0.96158749 -4.73658848  1064728075
-4.86206055 7.76258707 -2.49513626  1089855064
-2.49513626 0.96273869 -5.10919142  1064728075
-5.23078680 7.51906109 -2.49513626  1089331977
-2.49513626 0.96273869 -5.46989202  1064728075
-5.70334053 7.16723824 -2.49513626  1088578318
-2.49513626 0.96273869 -5.93089199  1064728075
-6.04237843 6.88382673 -2.49513626  1087763253
-2.49513626 0.96273869 -6.47241688  1064728075
-6.67750359 6.26963377 -2.49513626  1086663294
-2.49513626 0.96273869 -6.87567997  1064728075
-7.15955162 5.71298504 -2.49513626  1085479809
-2.49513626 0.96273869 -7.42675352  1064728075
-7.51200867 5.24090910 -2.49513626  1084478036
-2.49513626 0.96273869 -7.98200893  1064728075
-8.05322933 4.36381626 -2.49513626  1082620618
-2.49513626 0.96273863 -8.37774086  1064728075
-8.43620491 3.56761050 -2.49513626  1079745858
-2.49513626 0.96273869 -8.54657650  1064728075
-8.59845161 3.15658236 -2.49513626  1077426190
-2.49513626 0.96273869 -8.74068546  1064728075
-8.78359127 2.59728694 -2.49513626  1075653158
-2.49513626 0.96273869 -8.86257744  1064728075
-8.89863586 2.17063713 -2.49513626  1073856111
-2.49513626 0.96273869 -9.01977253  1064728075
-9.04424477 1.44881618 -2.49513626  1065444887
-2.49513626 0.96273863 -9.11867428  1064728075
-9.14175606 0.57069230 -2.49513626  1054401006
-2.49513626 0.96273869 -9.15421200  1064728075
-9.06112576 -1.33917189 -2.49513626  3216903047
-2.49513626 0.96273869 -9.01337051  1064728075
-8.98599434 -1.77463210 -2.49513626  3220545275
-2.49513626 0.96273869 -8.77320766  1064728075
-8.72974300 -2.77290392 -2.49513626  1089660131
-2.49513626 0.96382046 -4.70742798  1064746224
-4.82768774 7.43902683 -2.49513626  1089008937
-2.49513626 0.96382040 -5.29592705  1064746224
-5.40963840 7.02719831 -2.49513626  1088294575
-2.49513626 0.96382046 -5.74226427  1064746224
-5.85020971 6.66489792 -2.49513626  1087520005
-2.49513626 0.96382046 -6.56191826  1064746224
-6.65700483 5.85917950 -2.49513626  1085106500
-2.49513626 0.96382040 -7.10614967  1064746223
-7.19055414 5.19053507 -2.49513626  1083635227
-2.49513626 0.96382046 -7.72814846  1064746224
-7.92895317 3.97209096 -2.49513626  1081476362
-2.49513626 0.96382040 -8.11129570  1064746224
-8.27476215 3.18968034 -2.49513626  1078171814
-2.49513626 0.96382040 -8.37306213  1064746223
-8.46270084 2.65112877 -2.49513626  1075900576
-2.49513626 0.96382040 -8.54358482  1064746223
-8.58071327 2.23988605 -2.49513626  1074167979
-2.49513626 0.96382040 -8.67875671  1064746223
-8.77803230 1.26172888 -2.49513626  1066363211
-2.49513626 0.96382040 -8.81406403  1064746224
-8.84098339 0.69480819 -2.49513626  1053948994
-2.49513626 0.96382040 -8.86420918  1064746223
-8.86679459 -0.16022964 -2.49513626  3202612994
-2.49513626 0.96382046 -8.84875393  1064746223
-8.83815384 -0.72991514 -2.49513626  3214139871
-2.49513626 0.96382040 -8.72670937  1064746224
-8.70020771 -1.71819270 -2.49513626  3221201182
-2.49513626 0.96382040 -8.57175064  1064746224
-8.45210266 -2.68471479 -2.49513626  3224666022
-2.49513626 0.96382040 -4.44394684  1064763310
-4.90761328 7.05451155 -2.49513626  1088022607
-2.49513626 0.96483886 -5.35096836  1064763310
-5.56446075 6.54885721 -2.49513626  1086896967
-2.49513626 0.96483886 -5.97395515  1064763310
-6.07253218 6.08071995 -2.49513626  1086287557
-2.49513626 0.96483886 -6.45088053  1064763310
-6.63014412 5.46735334 -2.49513626  1084982601
-2.49513626 0.96483886 -6.80254364  1064763310
-6.96790695 5.02981520 -2.49513626  1084053751
-2.49513626 0.96483886 -7.34942198  1064763310
-7.55567551 4.09420538 -2.49513626  1081497501
-2.49513626 0.96483886 -7.80325079  1064763310
-7.91499186 3.34719372 -2.49513626  1078856641
-2.49513626 0.96483886 -8.06721401  1064763310
-8.11379910 2.83144259 -2.49513626  1075573983
-2.49513626 0.96483886 -8.31502056  1064763310
-8.38052368 1.90199840 -2.49513626  1068367277
-2.49513626 0.96483886 -8.50622654  1064763310
-8.52479076 1.08570862 -2.49513626  1064488681
-2.49513626 0.96483886 -8.57695007  1064763310
-8.58973598 0.25932169 -2.49513626  3163278394
-2.49513626 0.96483886 -8.59224510  1064763310
-8.58280659 -0.43151653 -2.49513626  3205614105
-2.49513626 0.96483886 -8.56448936  1064763310
-8.53731537 -0.98238218 -2.49513626  3213839778
-2.49513626 0.96483886 -8.50130272  1064763310
-8.47999954 -1.39299619 -2.49513626  3217276029
-2.49513626 0.96483886 -8.43081570  1064763310
-8.40294361 -1.80035746 -2.49513626  3220682439
-2.49513626 0.96483886 -8.34070015  1064763310
-8.30633736 -2.20353675 -2.49513626  3223194825
-2.49513626 0.96483886 -8.19039249  1064763310
-4.53703785 6.99116993 -2.49513626  1088248455
-2.49513626 0.96579927 -4.97709084  1064779423
-5.08395624 6.60413122 -2.49513626  1087418437
-2.49513626 0.96579927 -5.29371166  1064779422
-5.39655685 6.35124683 -2.49513626  1086877630
-2.49513626 0.96579927 -5.69659615  1064779423
-5.98337650 5.80175686 -2.49513626  1085705619
-2.49513626 0.96579927 -6.16686344  1064779423
-6.25622559 5.50643158 -2.49513626  1084198422
-2.49513626 0.96579927 -6.83522558  1064779423
-6.91103172 4.65819836 -2.49513626  1083276425
-2.49513626 0.96579927 -7.12765360  1064779423
-7.26288319 4.08799601 -2.49513626  1082007389
-2.49513626 0.96579927 -7.62296104  1064779423
-7.67615700 3.24619293 -2.49513626  1077400085
-2.49513626 0.96579927 -7.91211081  1064779423
-7.99224901 2.36328936 -2.49513626  1071339817
-2.49513626 0.96579927 -8.18276310  1064779423
-8.20715237 1.45046484 -2.49513626  1068023204
-2.49513626 0.96579927 -8.28342056  1064779423
-8.31814480 0.51927578 -2.49513626  1053120472
-2.49513626 0.96579921 -8.33054256  1064779423
-8.33432007 -0.01655021 -2.49513626  3189387897
-2.49513626 0.96579927 -8.32947636  1064779423
-8.29395580 -0.81946516 -2.49513626  3212043955
-2.49513626 0.96579927 -8.26330948  1064779423
-8.24477863 -1.21852136 -2.49513626  3215780953
-2.49513626 0.96579927 -8.20132542  1064779423
-8.12025452 -1.87686932 -2.49513626  3222882278
-2.49513626 0.96579927 -7.94324827  1064779423
-7.90164661 -2.65049648 -2.49513626  1088261478
-2.49513626 0.96670640 -4.61944246  1064794642
-4.83060169 6.48828125 -2.49513626  1087184057
-2.49513626 0.96670640 -5.13790560  1064794642
-5.33617926 6.07928562 -2.49513626  1086309387
-2.49513626 0.96670640 -5.52893114  1064794642
-5.98535681 5.44132328 -2.49513626  1084534430
-2.49513626 0.96670640 -6.55875778  1064794642
-6.70762205 4.52109528 -2.49513626  1082995800
-2.49513626 0.96670640 -6.91786766  1064794642
-7.11201477 3.85379744 -2.49513626  1080549522
-2.49513626 0.96670640 -7.28960609  1064794642
