ply
format ascii 1.0
comment Created by Open3D
element vertex 191
property double x
property double y
property double z
end_header
44.2584 -1.08967 -1.10407
44.0552 -0.945663 -1.09892
43.983 -0.805371 -1.09705
43.9198 -0.665691 -1.09541
43.8855 -0.526753 -1.09451
43.8541 -0.388078 -1.09369
43.8841 -0.249964 -1.09442
43.9986 -0.111864 -1.09726
44.1303 0.0269503 -1.10054
44.2628 0.166601 -1.10385
44.3982 0.307125 -1.10725
44.5375 0.448532 -1.11075
44.6786 0.590848 -1.11431
43.6147 -1.89997 -1.45186
43.4142 -1.7541 -1.44499
43.2683 -1.61156 -1.43995
43.1579 -1.47119 -1.43612
43.0821 -1.33261 -1.43345
43.0423 -1.19554 -1.43199
43.0865 -1.06081 -1.43335
43.1308 -0.925819 -1.43472
43.1963 -0.790965 -1.4368
43.2503 -0.655539 -1.43852
43.3578 -0.520416 -1.44204
43.4712 -0.384692 -1.44576
43.6068 -0.248382 -1.45024
43.7286 -0.111179 -1.45427
43.86 0.0267822 -1.45864
43.9941 0.165592 -1.46311
44.129 0.30526 -1.46762
44.2648 0.445786 -1.47217
44.4049 0.587234 -1.47689
44.5482 0.729641 -1.48172
44.6982 0.873083 -1.48679
44.8568 1.0177 -1.49217
45.0054 1.16306 -1.49723
45.2426 1.31196 -1.50525
45.5115 1.4634 -1.51434
43.6641 -2.04009 -1.8175
43.4455 -1.89261 -1.80815
43.2859 -1.74891 -1.80127
43.1541 -1.60731 -1.79557
43.0381 -1.46711 -1.79054
42.9559 -1.3287 -1.78693
42.9047 -1.19171 -1.78464
42.9121 -1.05652 -1.7848
42.9672 -0.922307 -1.78696
43.0386 -0.788082 -1.78982
43.1137 -0.65347 -1.79285
43.2021 -0.518551 -1.79644
43.3326 -0.383466 -1.80181
43.5641 -0.24814 -1.81139
43.6081 -0.110875 -1.8132
43.7467 0.0267165 -1.81896
43.8853 0.165183 -1.82473
44.0248 0.304537 -1.83056
44.1644 0.444774 -1.83642
44.3017 0.585867 -1.8422
44.4475 0.727989 -1.84834
44.5948 0.87106 -1.85458
44.7429 1.01511 -1.86086
44.8917 1.16013 -1.86719
45.0418 1.30613 -1.87359
45.1826 1.45282 -1.87963
45.3162 1.60018 -1.88539
45.465 1.74899 -1.8918
45.6483 1.90022 -1.89967
45.9837 2.05944 -1.91387
43.6073 -1.89966 -2.17841
43.3683 -1.75224 -2.16619
43.2204 -1.60978 -2.15854
43.0955 -1.46907 -2.15206
43.0156 -1.33055 -2.14784
42.9714 -1.19357 -2.14544
42.9681 -1.0579 -2.1451
42.9755 -0.922484 -2.14531
43.0275 -0.787873 -2.14777
43.1895 -0.654623 -2.15575
43.1975 -0.518496 -2.15605
43.3326 -0.383465 -2.16272
43.4684 -0.247597 -2.16946
43.6052 -0.110865 -2.17625
43.7327 0.0267042 -2.18261
43.8772 0.165147 -2.18984
44.0227 0.30452 -2.19713
44.1661 0.444786 -2.20435
44.3101 0.585973 -2.21162
44.4545 0.728102 -2.21893
44.6009 0.871183 -2.22637
44.7469 1.0152 -2.2338
44.8915 1.16012 -2.24119
45.0394 1.30606 -2.24877
45.1684 1.45236 -2.25543
45.3162 1.60018 -2.26305
45.465 1.74899 -2.27075
45.6149 1.89883 -2.27851
45.3724 1.65632 -1.88781
45.5211 1.80503 -1.89422
45.7414 1.95779 -1.90363
45.3724 1.65632 -2.26595
45.5211 1.80503 -2.27365
44.4956 -1.18628 -1.11004
44.1854 -1.03842 -1.10222
44.0285 -0.895654 -1.09823
43.9577 -0.755385 -1.0964
43.9074 -0.615864 -1.09509
43.8733 -0.476852 -1.09419
43.8617 -0.33823 -1.09387
43.9149 -0.199985 -1.09518
44.0463 -0.0615366 -1.09844
44.1785 0.0777621 -1.10174
44.3114 0.217892 -1.10507
44.4492 0.358917 -1.10853
44.589 0.500832 -1.11205
43.5311 -1.84856 -1.449
43.3522 -1.70387 -1.44286
43.2296 -1.56237 -1.43861
43.1236 -1.42224 -1.43493
43.0595 -1.28405 -1.43265
43.0579 -1.14795 -1.43247
43.1022 -1.01296 -1.43383
43.1517 -0.87782 -1.43538
43.217 -0.742656 -1.43746
43.2852 -0.607139 -1.43966
43.3954 -0.471657 -1.44327
43.5181 -0.335579 -1.44731
43.6578 -0.198816 -1.45193
43.7757 -0.0611569 -1.45583
43.9088 0.0772879 -1.46026
44.0434 0.216576 -1.46475
44.1787 0.356727 -1.46928
44.3154 0.497756 -1.47387
44.4577 0.639742 -1.47867
44.6016 0.782662 -1.48353
44.7635 0.926885 -1.489
44.9121 1.07182 -1.49405
45.0818 1.2183 -1.49981
45.3683 1.36939 -1.50948
45.5933 1.52026 -1.51712
43.5736 -1.98821 -1.81365
43.3891 -1.84254 -1.80572
43.2358 -1.69929 -1.79911
43.1104 -1.55806 -1.79367
43.0061 -1.41836 -1.78914
42.9365 -1.28038 -1.78607
42.8875 -1.1434 -1.78387
42.9316 -1.00895 -1.78556
42.9901 -0.874532 -1.78787
43.0654 -0.740049 -1.79089
43.1407 -0.605109 -1.79394
43.2418 -0.469985 -1.79807
43.3815 -0.334527 -1.80383
43.5096 -0.198144 -1.80912
43.6589 -0.0609925 -1.81531
43.7971 0.0770865 -1.82106
43.9362 0.216051 -1.82686
44.0762 0.3559 -1.83272
44.2139 0.496618 -1.8385
44.355 0.638261 -1.84444
44.502 0.780911 -1.85065
44.6499 0.924527 -1.85691
44.7983 1.06911 -1.86321
44.9477 1.21467 -1.86957
45.0954 1.36116 -1.87589
45.228 1.50808 -1.8816
43.7868 -1.99794 -2.18758
43.5129 -1.8478 -2.1736
43.3075 -1.70211 -2.16306
43.1742 -1.56037 -2.15614
43.0674 -1.42039 -2.15058
42.9984 -1.28222 -2.14691
42.9568 -1.14524 -2.14464
42.9708 -1.00987 -2.14517
42.9821 -0.874367 -2.14559
43.0512 -0.739807 -2.14891
43.1392 -0.605089 -2.1532
43.246 -0.470032 -2.15845
43.3815 -0.334527 -2.16515
43.5178 -0.198182 -2.17191
43.6857 -0.0610364 -2.18026
43.7853 0.0770645 -2.18524
43.9303 0.216019 -2.1925
44.0754 0.355894 -2.19978
44.2191 0.496677 -2.20702
44.3633 0.638376 -2.21431
44.5083 0.781019 -2.22166
44.6565 0.924664 -2.22919
44.8007 1.06917 -2.23655
44.9459 1.21463 -2.24398
45.0953 1.36115 -2.25164
45.224 1.50795 -2.25829
