ply
format ascii 1.0
comment Created by Open3D
element vertex 1861
property double x
property double y
property double z
end_header
4.2325 0.422411 -1.31204
4.25216 0.437867 -1.31855
4.27201 0.453478 -1.32514
4.29204 0.469243 -1.33181
4.31226 0.485166 -1.33855
4.33268 0.501252 -1.34537
4.35329 0.517499 -1.35227
4.3741 0.533912 -1.35925
4.39512 0.550496 -1.36631
4.41634 0.56725 -1.37345
4.43788 0.584192 -1.38071
4.45985 0.601344 -1.38813
4.48205 0.618678 -1.39564
4.50448 0.636198 -1.40324
4.52714 0.653912 -1.41093
4.55018 0.671838 -1.41876
4.57426 0.690081 -1.42694
4.5986 0.708535 -1.43522
4.62321 0.727203 -1.44361
4.6481 0.746087 -1.4521
4.67327 0.765192 -1.46071
4.69872 0.784525 -1.46943
4.72447 0.804086 -1.47826
4.75051 0.823881 -1.48721
4.77685 0.843916 -1.49628
4.8035 0.864193 -1.50547
4.83047 0.884717 -1.51479
4.85776 0.905496 -1.52423
4.88537 0.926532 -1.5338
4.91563 0.948277 -1.54423
4.94926 0.970901 -1.55574
4.97626 0.992441 -1.5652
5.00358 1.01424 -1.57479
5.03121 1.03631 -1.5845
5.07358 1.06166 -1.59889
5.11862 1.08788 -1.61415
5.16452 1.1146 -1.62972
5.21131 1.14184 -1.64561
5.25902 1.16962 -1.66183
5.30773 1.19796 -1.6784
5.35747 1.22689 -1.69534
5.40823 1.25641 -1.71264
5.45154 1.28453 -1.72763
5.49554 1.31314 -1.74287
5.54032 1.34225 -1.7584
5.58773 1.37233 -1.77481
5.63809 1.40349 -1.79219
5.70313 1.43872 -1.8143
5.71397 1.46056 -1.81919
5.77408 1.49527 -1.83982
5.83556 1.53077 -1.86093
5.89847 1.56709 -1.88255
5.96287 1.60427 -1.90471
6.0288 1.64233 -1.9274
6.19827 1.70943 -1.98329
3.96567 0.232796 -1.2616
3.98235 0.24633 -1.26715
3.99917 0.259985 -1.27275
4.01612 0.273758 -1.27842
4.03322 0.287654 -1.28414
4.05045 0.301675 -1.28992
4.06783 0.315822 -1.29577
4.08536 0.330096 -1.30168
4.10362 0.34455 -1.30783
4.12209 0.359144 -1.31407
4.14072 0.373877 -1.32038
4.15953 0.388751 -1.32676
4.1785 0.403769 -1.33321
4.19765 0.418933 -1.33973
4.21698 0.434244 -1.34633
4.23648 0.449707 -1.353
4.25617 0.465321 -1.35975
4.27604 0.481091 -1.36657
4.2961 0.49702 -1.37348
4.31635 0.513108 -1.38046
4.3368 0.529359 -1.38752
4.35745 0.545777 -1.39467
4.37829 0.562362 -1.4019
4.39934 0.579119 -1.40922
4.4206 0.596051 -1.41662
4.4423 0.613191 -1.42418
4.46431 0.630526 -1.43187
4.48655 0.64805 -1.43965
4.50902 0.66576 -1.44752
4.53231 0.683754 -1.45568
4.55619 0.702001 -1.46405
4.58033 0.720458 -1.47253
4.60474 0.739126 -1.48111
4.62941 0.758012 -1.48981
4.65437 0.77712 -1.49862
4.67961 0.79645 -1.50754
4.70513 0.81601 -1.51658
4.73095 0.835805 -1.52574
4.75706 0.855837 -1.53502
4.78348 0.87611 -1.54443
4.81021 0.896633 -1.55396
4.83725 0.917406 -1.56362
4.86461 0.938436 -1.57341
4.89363 0.959989 -1.58376
4.93491 0.984194 -1.59812
4.97734 1.00892 -1.61287
5.02057 1.03412 -1.62793
5.0646 1.05978 -1.64327
5.10946 1.08593 -1.65893
5.1552 1.11259 -1.67491
5.20181 1.13976 -1.69121
5.24938 1.16748 -1.70785
5.29796 1.19576 -1.72487
5.34752 1.22461 -1.74225
5.39807 1.25405 -1.76
5.44249 1.2824 -1.77578
5.48633 1.31093 -1.79142
5.53095 1.33998 -1.80736
5.57636 1.36954 -1.8236
5.65679 1.40815 -1.85133
5.65519 1.42663 -1.85227
5.71397 1.46056 -1.87301
5.77408 1.49527 -1.89425
5.83556 1.53077 -1.91599
5.89847 1.56709 -1.93825
5.96287 1.60427 -1.96106
6.0288 1.64233 -1.98442
6.09631 1.68131 -2.00838
3.93476 0.230982 -1.28793
3.95118 0.244402 -1.29355
3.96772 0.25794 -1.29922
3.98441 0.271596 -1.30496
4.00122 0.285372 -1.31075
4.01818 0.299272 -1.31661
4.03528 0.313294 -1.32253
4.05272 0.327459 -1.32857
4.07072 0.341788 -1.33482
4.08889 0.356251 -1.34114
4.10722 0.370851 -1.34753
4.12571 0.38559 -1.35398
4.14436 0.400471 -1.36051
4.16319 0.415493 -1.36712
4.18219 0.430661 -1.37379
4.20136 0.445979 -1.38054
4.22071 0.461445 -1.38737
4.24024 0.477063 -1.39427
4.25995 0.492838 -1.40126
4.27985 0.508768 -1.40832
4.29994 0.524859 -1.41547
4.32022 0.541114 -1.4227
4.34069 0.557533 -1.43001
4.36136 0.57412 -1.43741
4.38224 0.590879 -1.44489
4.40332 0.60781 -1.45246
4.42465 0.624925 -1.46014
4.44648 0.642261 -1.468
4.46852 0.659781 -1.47596
4.49092 0.677509 -1.48405
4.51434 0.695552 -1.4925
4.53802 0.713802 -1.50107
4.56195 0.732259 -1.50974
4.58615 0.750927 -1.51852
4.61062 0.769814 -1.52741
4.63535 0.788919 -1.53642
4.66037 0.808249 -1.54555
4.68567 0.827807 -1.55479
4.71126 0.847598 -1.56416
4.73715 0.867625 -1.57365
4.76816 0.888796 -1.58487
4.80591 0.911462 -1.59836
4.8443 0.934518 -1.6121
4.88467 0.95823 -1.62653
4.92638 0.982493 -1.64144
4.96866 1.00716 -1.65657
5.01173 1.0323 -1.672
5.0556 1.0579 -1.68774
5.1003 1.08398 -1.70379
5.14586 1.11057 -1.72016
5.19233 1.13768 -1.73688
5.23978 1.16534 -1.75397
5.28818 1.19355 -1.77142
5.33754 1.22233 -1.78923
5.3879 1.25169 -1.80743
5.43341 1.28026 -1.82403
5.4771 1.30873 -1.84007
5.52409 1.33831 -1.85726
5.57351 1.36884 -1.87531
5.60323 1.39481 -1.88678
5.65519 1.42663 -1.90577
5.71397 1.46056 -1.92712
5.77408 1.49527 -1.94896
5.83556 1.53077 -1.97133
5.89847 1.56709 -1.99424
5.96287 1.60427 -2.0177
6.0288 1.64233 -2.04175
6.09632 1.68131 -2.06639
3.90417 0.229186 -1.31399
3.92032 0.242494 -1.31968
3.9366 0.255917 -1.32542
3.95302 0.269456 -1.33123
3.96956 0.283114 -1.33709
3.98625 0.296893 -1.34302
4.00307 0.310793 -1.34901
4.02046 0.324852 -1.35521
4.03818 0.339056 -1.36153
4.05604 0.35339 -1.36792
4.07407 0.367858 -1.37438
4.09225 0.382463 -1.38091
4.1106 0.397208 -1.38752
4.12911 0.412092 -1.3942
4.14778 0.427119 -1.40095
4.16663 0.442292 -1.40778
4.18565 0.457611 -1.41468
4.20484 0.47308 -1.42166
4.22421 0.488703 -1.42873
4.24376 0.504479 -1.43587
4.2635 0.520411 -1.44309
4.28342 0.536506 -1.4504
4.30353 0.55276 -1.45779
4.32384 0.56918 -1.46526
4.34434 0.585769 -1.47283
4.36504 0.602526 -1.48048
4.38594 0.619457 -1.48822
4.40705 0.636566 -1.49606
4.42854 0.653877 -1.50404
4.45039 0.671395 -1.51217
4.47303 0.689187 -1.52059
4.49625 0.707233 -1.52923
4.51972 0.725481 -1.53798
4.54345 0.743937 -1.54685
4.56745 0.762606 -1.55582
4.5917 0.781489 -1.56491
4.61622 0.800591 -1.57412
4.64929 0.821379 -1.58627
4.68505 0.842882 -1.59937
4.72141 0.864742 -1.6127
4.75837 0.886971 -1.62627
4.79596 0.909575 -1.64008
4.83528 0.932776 -1.65452
4.87621 0.95657 -1.66954
4.91783 0.980788 -1.68484
4.95996 1.0054 -1.70035
5.00287 1.03047 -1.71616
5.04658 1.05601 -1.73228
5.09111 1.08203 -1.74873
5.13653 1.10856 -1.76551
5.18289 1.13562 -1.78267
5.23017 1.16321 -1.80018
5.27837 1.19134 -1.81805
5.32755 1.22004 -1.8363
5.37771 1.24932 -1.85493
5.42536 1.27836 -1.87274
5.47288 1.30772 -1.89055
5.5213 1.33764 -1.90872
5.58217 1.37096 -1.93124
5.59771 1.39344 -1.93812
5.65519 1.42663 -1.95957
5.71397 1.46056 -1.98152
5.77408 1.49527 -2.00398
5.83556 1.53076 -2.02698
5.89847 1.56709 -2.05053
5.96287 1.60427 -2.07466
6.0288 1.64233 -2.09938
6.09632 1.68131 -2.12472
3.87388 0.227408 -1.33979
3.88978 0.240604 -1.34554
3.9058 0.253915 -1.35135
3.92195 0.267339 -1.35722
3.93823 0.28088 -1.36316
3.95464 0.29454 -1.36915
3.97127 0.308324 -1.37524
3.98855 0.322273 -1.38156
4.00597 0.336351 -1.38796
4.02354 0.350558 -1.39442
4.04127 0.364897 -1.40095
4.05915 0.37937 -1.40756
4.07719 0.393979 -1.41424
4.09539 0.408727 -1.42099
4.11375 0.423614 -1.42781
4.13228 0.438645 -1.43471
4.15097 0.45382 -1.44169
4.16983 0.469142 -1.44875
4.18887 0.484614 -1.45588
4.20808 0.500237 -1.4631
4.22747 0.516014 -1.4704
4.24705 0.531949 -1.47778
4.2668 0.548042 -1.48525
4.28675 0.564297 -1.4928
4.30688 0.580718 -1.50044
4.32721 0.597304 -1.50817
4.34773 0.614061 -1.51598
4.36846 0.630992 -1.52389
4.38939 0.648096 -1.5319
4.41052 0.66538 -1.54
4.43224 0.682903 -1.54832
4.45502 0.700748 -1.55704
4.47804 0.71879 -1.56587
4.50308 0.737327 -1.57543
4.53649 0.757438 -1.58794
4.57042 0.777868 -1.60066
4.6049 0.798628 -1.61361
4.63995 0.819728 -1.62678
4.67556 0.841174 -1.64019
4.71176 0.862975 -1.65383
4.74857 0.885144 -1.66772
4.78688 0.907854 -1.68217
4.82694 0.931168 -1.69726
4.86773 0.954907 -1.71265
4.90925 0.979077 -1.72834
4.95124 1.00363 -1.74422
4.994 1.02864 -1.76041
5.03754 1.05412 -1.77692
5.08193 1.08008 -1.79376
5.12725 1.10656 -1.81098
5.17344 1.13355 -1.82854
5.22053 1.16106 -1.84647
5.26855 1.18912 -1.86476
5.32096 1.21853 -1.88466
5.37837 1.24947 -1.90637
5.42609 1.27853 -1.9247
5.47013 1.30706 -1.94177
5.5185 1.33696 -1.96042
5.55312 1.36383 -1.97423
5.59771 1.39344 -1.99163
5.65519 1.42663 -2.01367
5.71397 1.46056 -2.03622
5.77408 1.49527 -2.0593
5.83556 1.53077 -2.08294
5.89847 1.56709 -2.10714
5.96287 1.60427 -2.13193
6.0288 1.64233 -2.15734
6.09631 1.68131 -2.18338
3.84388 0.225647 -1.36534
3.85953 0.238733 -1.37115
3.8753 0.251932 -1.37703
3.89119 0.265242 -1.38296
3.90721 0.278667 -1.38896
3.92336 0.29221 -1.39502
3.93995 0.305893 -1.40126
3.95695 0.31972 -1.40765
3.97409 0.333675 -1.41412
3.99138 0.347755 -1.42065
4.00881 0.361966 -1.42725
4.0264 0.376308 -1.43393
4.04413 0.390785 -1.44067
4.06203 0.405397 -1.44749
4.08008 0.420147 -1.45439
4.09829 0.435038 -1.46136
4.11667 0.45007 -1.46841
4.13521 0.465246 -1.47554
4.15392 0.480571 -1.48275
4.1728 0.496043 -1.49003
4.19185 0.511666 -1.4974
4.21108 0.527444 -1.50486
4.23049 0.543378 -1.5124
4.25008 0.55947 -1.52002
4.26985 0.575726 -1.52773
4.28982 0.592143 -1.53553
4.30997 0.608727 -1.54342
4.33032 0.625483 -1.55141
4.35086 0.642408 -1.55948
4.37161 0.65951 -1.56765
4.39842 0.677692 -1.57802
4.42929 0.6967 -1.58987
4.46154 0.716141 -1.60225
4.49429 0.735886 -1.61483
4.52756 0.755946 -1.62763
4.56135 0.776324 -1.64065
4.59569 0.79703 -1.65389
4.63059 0.818075 -1.66737
4.66605 0.839463 -1.68108
4.7021 0.861206 -1.69503
4.73946 0.883445 -1.70949
4.77867 0.906297 -1.72466
4.81859 0.929557 -1.74011
4.85923 0.95324 -1.75586
4.9006 0.977352 -1.77191
4.94251 1.00186 -1.78819
4.9851 1.02681 -1.80476
5.02849 1.05222 -1.82165
5.0728 1.07814 -1.83892
5.11795 1.10455 -1.85654
5.16396 1.13147 -1.87451
5.21635 1.16013 -1.89484
5.27136 1.18976 -1.91617
5.32763 1.22006 -1.93801
5.38519 1.25106 -1.96037
5.43042 1.27956 -1.97828
5.47307 1.30777 -1.99531
5.53923 1.34198 -2.02095
5.54146 1.36096 -2.02332
5.59771 1.39344 -2.04544
5.65519 1.42663 -2.06808
5.71397 1.46056 -2.09124
5.77408 1.49527 -2.11495
5.83556 1.53077 -2.13922
5.89847 1.56709 -2.16407
5.96287 1.60427 -2.18954
6.0288 1.64233 -2.21563
6.09632 1.68131 -2.24237
3.81418 0.223903 -1.39064
3.82958 0.23688 -1.39652
3.84509 0.249968 -1.40245
3.86073 0.263166 -1.40845
3.87649 0.276476 -1.41451
3.89238 0.289902 -1.42063
3.90895 0.303486 -1.42702
3.92567 0.317193 -1.43348
3.94253 0.331025 -1.44001
3.95953 0.344981 -1.44661
3.97668 0.359065 -1.45328
3.99398 0.373278 -1.46002
4.01142 0.387624 -1.46684
4.02901 0.402102 -1.47373
4.04676 0.416716 -1.48069
4.06467 0.431469 -1.48773
4.08273 0.446359 -1.49485
4.10095 0.461392 -1.50204
4.11934 0.47657 -1.50932
4.1379 0.491894 -1.51667
4.15662 0.507365 -1.52411
4.17551 0.522989 -1.53164
4.19458 0.538765 -1.53924
4.21382 0.554697 -1.54694
4.23324 0.570789 -1.55472
4.25285 0.58704 -1.56259
4.27776 0.604178 -1.57243
4.30543 0.621887 -1.58331
4.33348 0.639842 -1.59436
4.36192 0.658047 -1.60557
4.39076 0.676511 -1.61696
4.42073 0.695355 -1.6288
4.45285 0.714747 -1.64145
4.48547 0.734443 -1.65432
4.51861 0.754452 -1.6674
4.55226 0.774777 -1.68071
4.58646 0.79543 -1.69425
4.62121 0.816418 -1.70803
4.65652 0.83775 -1.72205
4.69296 0.859532 -1.73651
4.73137 0.881937 -1.75174
4.77044 0.904736 -1.76725
4.81022 0.927942 -1.78306
4.85071 0.951569 -1.79917
4.89193 0.975623 -1.81558
4.93375 1.00009 -1.83226
4.97619 1.02498 -1.8492
5.01951 1.05034 -1.86652
5.06447 1.07637 -1.88449
5.11609 1.10415 -1.90498
5.16885 1.13254 -1.92594
5.22279 1.16156 -1.94738
5.27794 1.19124 -1.96933
5.33436 1.2216 -1.99181
5.39207 1.25265 -2.01482
5.43479 1.28058 -2.03227
5.47432 1.30806 -2.04858
5.52921 1.33955 -2.07068
5.54146 1.36096 -2.07686
5.59771 1.39344 -2.09958
5.65519 1.42663 -2.12281
5.71397 1.46056 -2.14658
5.77408 1.49527 -2.17092
5.83556 1.53076 -2.19583
5.89847 1.56709 -2.22134
5.96287 1.60427 -2.24748
6.0288 1.64233 -2.27427
3.78475 0.222176 -1.4157
3.79991 0.235045 -1.42164
3.81518 0.248023 -1.42764
3.83057 0.26111 -1.4337
3.84608 0.274307 -1.43982
3.86193 0.287634 -1.44608
3.87824 0.301102 -1.45254
3.89469 0.31469 -1.45906
3.91128 0.328401 -1.46565
3.92801 0.342234 -1.47232
3.94487 0.356193 -1.47905
3.96188 0.370279 -1.48586
3.97904 0.384495 -1.49274
3.99634 0.398842 -1.49969
4.01379 0.413321 -1.50672
4.03139 0.427936 -1.51382
4.04915 0.442688 -1.52101
4.06706 0.457579 -1.52827
4.08513 0.472612 -1.53561
4.10336 0.487789 -1.54303
4.12176 0.503111 -1.55053
4.14033 0.518583 -1.55812
4.16385 0.534819 -1.5676
4.18997 0.551558 -1.57808
4.21645 0.568525 -1.58872
4.24328 0.58572 -1.59951
4.27048 0.603149 -1.61047
4.29805 0.620821 -1.62159
4.326 0.638737 -1.63289
4.35433 0.656904 -1.64436
4.38307 0.675327 -1.656
4.41222 0.694015 -1.66783
4.44415 0.71335 -1.68074
4.47664 0.732997 -1.69389
4.50964 0.752954 -1.70726
4.54316 0.773227 -1.72086
4.57721 0.793825 -1.73469
4.61181 0.814759 -1.74877
4.64738 0.836104 -1.76324
4.68499 0.858071 -1.77853
4.72326 0.880425 -1.7941
4.76219 0.903171 -1.80995
4.80183 0.926323 -1.82611
4.84217 0.949893 -1.84258
4.88324 0.97389 -1.85937
4.92497 0.998308 -1.87644
4.97035 1.02377 -1.89494
5.01992 1.05043 -1.91509
5.07057 1.07767 -1.9357
5.12232 1.10549 -1.95677
5.17521 1.13393 -1.97833
5.22928 1.16301 -2.00038
5.2844 1.1927 -2.02289
5.34077 1.22307 -2.04593
5.3961 1.25359 -2.06862
5.4349 1.28061 -2.08503
5.47426 1.30805 -2.10169
5.51917 1.33712 -2.12054
5.54146 1.36097 -2.13073
5.59771 1.39344 -2.15404
5.65519 1.42663 -2.17787
5.71397 1.46056 -2.20226
5.77408 1.49527 -2.22723
5.83556 1.53077 -2.25279
5.89847 1.56709 -2.27896
5.96287 1.60427 -2.30578
6.0288 1.64233 -2.33326
3.7556 0.220465 -1.44053
3.77051 0.233227 -1.44653
3.78554 0.246097 -1.45258
3.80069 0.259073 -1.4587
3.81595 0.272158 -1.46488
3.83177 0.285388 -1.47129
3.84783 0.298741 -1.47781
3.86401 0.312211 -1.48439
3.88033 0.325802 -1.49105
3.89679 0.339514 -1.49777
3.91338 0.353349 -1.50457
3.9301 0.367309 -1.51144
3.94698 0.381397 -1.51838
3.96399 0.395613 -1.52539
3.98115 0.40996 -1.53248
3.99845 0.42444 -1.53965
4.01591 0.439054 -1.5469
4.03352 0.453805 -1.55422
4.0561 0.469254 -1.56348
4.08082 0.485109 -1.57359
4.10586 0.50117 -1.58385
4.13122 0.517442 -1.59425
4.15692 0.533928 -1.6048
4.18295 0.550634 -1.61551
4.20934 0.567566 -1.62639
4.23607 0.584725 -1.63742
4.26317 0.602118 -1.64862
4.29065 0.619752 -1.65998
4.3185 0.63763 -1.67153
4.34673 0.655757 -1.68324
4.37536 0.67414 -1.69514
4.4044 0.692786 -1.70723
4.43543 0.71195 -1.72011
4.46779 0.731547 -1.73354
4.50065 0.751453 -1.7472
4.53403 0.771674 -1.76109
4.56794 0.792218 -1.77522
4.60267 0.813143 -1.7897
4.63951 0.834689 -1.80504
4.67699 0.856607 -1.82066
4.71512 0.878909 -1.83657
4.75392 0.901603 -1.85278
4.79341 0.924699 -1.86929
4.83361 0.948213 -1.88612
4.87858 0.97296 -1.90485
4.92545 0.998404 -1.92436
4.97391 1.02451 -1.94454
5.02339 1.05116 -1.96517
5.07394 1.07838 -1.98626
5.12559 1.1062 -2.00783
5.17838 1.13463 -2.02989
5.23233 1.16369 -2.05247
5.28486 1.1928 -2.07453
5.3362 1.22202 -2.09618
5.38862 1.25185 -2.11831
5.43485 1.2806 -2.13805
5.4742 1.30804 -2.15514
5.52238 1.3379 -2.17575
5.54146 1.36096 -2.18494
5.59771 1.39344 -2.20883
5.65519 1.42663 -2.23327
5.71397 1.46056 -2.25829
5.77408 1.49527 -2.28389
5.83556 1.53077 -2.3101
5.89847 1.56709 -2.33694
5.96287 1.60427 -2.36444
6.0288 1.64233 -2.39261
3.7267 0.218768 -1.46514
3.74139 0.231425 -1.47119
3.75618 0.244188 -1.4773
3.77108 0.257055 -1.48348
3.78623 0.270038 -1.48976
3.8019 0.283163 -1.49627
3.8177 0.296401 -1.50284
3.83362 0.309755 -1.50949
3.84968 0.323228 -1.5162
3.86586 0.33682 -1.52299
3.88218 0.350533 -1.52984
3.89863 0.364368 -1.53677
3.91523 0.378329 -1.54377
3.93196 0.392416 -1.55085
3.954 0.407164 -1.56004
3.97743 0.422209 -1.5698
4.00115 0.437441 -1.57969
4.02517 0.452866 -1.58973
4.04949 0.46849 -1.59991
4.07413 0.484313 -1.61024
4.09908 0.500342 -1.62071
4.12436 0.516582 -1.63134
4.14996 0.533035 -1.64212
4.17591 0.549707 -1.65306
4.2022 0.566604 -1.66417
4.22885 0.583727 -1.67544
4.25585 0.601084 -1.68687
4.28322 0.61868 -1.69849
4.31097 0.636519 -1.71028
4.33911 0.654607 -1.72224
4.36764 0.672949 -1.7344
4.39657 0.691554 -1.74674
4.42669 0.710547 -1.75959
4.45891 0.730094 -1.7733
4.49164 0.749949 -1.78724
4.52488 0.770117 -1.80142
4.5588 0.790633 -1.81591
4.59491 0.811772 -1.83129
4.63162 0.83327 -1.84696
4.66897 0.855138 -1.86292
4.70696 0.877388 -1.87917
4.74665 0.900224 -1.89613
4.7906 0.924159 -1.91484
4.83543 0.948572 -1.93394
4.88117 0.973476 -1.95344
4.92815 0.998952 -1.97349
4.97667 1.02507 -1.9942
5.02621 1.05175 -2.01537
5.07682 1.07899 -2.03701
5.12853 1.10683 -2.05914
5.17816 1.13458 -2.08049
5.22729 1.16257 -2.10169
5.27744 1.19113 -2.12334
5.32863 1.22029 -2.14547
5.38089 1.25006 -2.16808
5.43166 1.27985 -2.19015
5.47414 1.30802 -2.20892
5.5343 1.34079 -2.23489
5.54146 1.36096 -2.23949
5.59771 1.39344 -2.26398
5.65519 1.42663 -2.28903
5.71397 1.46056 -2.31467
5.77408 1.49527 -2.34091
5.83556 1.53077 -2.36778
5.89847 1.56709 -2.39529
5.96287 1.60427 -2.42347
3.70059 0.217235 -1.49055
3.71257 0.229643 -1.49565
3.72708 0.242296 -1.5018
3.74175 0.255056 -1.50802
3.75687 0.267945 -1.51445
3.7723 0.280958 -1.52102
3.78784 0.294083 -1.52765
3.80351 0.307322 -1.53435
3.81931 0.320679 -1.54112
3.83523 0.334151 -1.54796
3.85708 0.348266 -1.55722
3.87933 0.362563 -1.56665
3.90184 0.377035 -1.57621
3.92463 0.391684 -1.58591
3.94769 0.406514 -1.59574
3.97104 0.42153 -1.6057
3.99468 0.436733 -1.61581
4.01862 0.452129 -1.62606
4.04286 0.467723 -1.63645
4.06742 0.483515 -1.647
4.09228 0.499512 -1.65769
4.11747 0.51572 -1.66855
4.14299 0.53214 -1.67956
4.16885 0.548777 -1.69073
4.19505 0.565639 -1.70207
4.2216 0.582726 -1.71357
4.2485 0.600046 -1.72525
4.27578 0.617605 -1.73711
4.30343 0.635405 -1.74914
4.33146 0.653453 -1.76136
4.35989 0.671755 -1.77377
4.38871 0.690317 -1.78637
4.41795 0.709144 -1.79917
4.45001 0.728637 -1.81315
4.48261 0.748441 -1.82738
4.51576 0.768565 -1.84187
4.55114 0.789305 -1.8573
4.58712 0.810396 -1.87302
4.62371 0.831845 -1.88901
4.66365 0.854164 -1.90642
4.70597 0.877204 -1.92484
4.74912 0.900692 -1.94363
4.79311 0.924643 -1.96282
4.83799 0.949074 -1.98241
4.88378 0.973996 -2.00241
4.93087 0.999505 -2.023
4.97945 1.02565 -2.04424
5.02905 1.05234 -2.06595
5.07589 1.0788 -2.08657
5.12297 1.10564 -2.10734
5.171 1.13301 -2.12855
5.21999 1.16094 -2.15021
5.26999 1.18945 -2.17233
5.32103 1.21855 -2.19494
5.37314 1.24826 -2.21804
5.42397 1.27804 -2.24067
5.47408 1.30801 -2.26306
5.558 1.34653 -2.29949
5.54667 1.36224 -2.29656
5.59771 1.39344 -2.31949
5.65519 1.42663 -2.34516
5.71397 1.46056 -2.37142
5.77408 1.49527 -2.39831
5.83556 1.53077 -2.42583
5.89847 1.56709 -2.45402
3.67287 0.215608 -1.51502
3.68669 0.228043 -1.52101
3.69857 0.240443 -1.52622
3.71272 0.253077 -1.53238
3.72778 0.26587 -1.53893
3.74402 0.278852 -1.54599
3.76493 0.292305 -1.55499
3.78608 0.305914 -1.56412
3.80748 0.319686 -1.57337
3.82914 0.33362 -1.58274
3.85105 0.347721 -1.59224
3.87322 0.361992 -1.60187
3.89566 0.376438 -1.61163
3.91837 0.39106 -1.62153
3.94135 0.405862 -1.63156
3.96463 0.420849 -1.64173
3.98819 0.436024 -1.65205
4.01205 0.45139 -1.66251
4.03621 0.466953 -1.67312
4.06068 0.482715 -1.68388
4.08546 0.49868 -1.6948
4.11056 0.514855 -1.70588
4.13599 0.531241 -1.71712
4.16176 0.547844 -1.72852
4.18787 0.564671 -1.74009
4.21432 0.581722 -1.75183
4.24113 0.599005 -1.76375
4.26831 0.616527 -1.77585
4.29586 0.634287 -1.78813
4.32379 0.652296 -1.8006
4.35211 0.670557 -1.81326
4.38083 0.689077 -1.82612
4.40995 0.707861 -1.83918
4.44109 0.727176 -1.85311
4.47355 0.746929 -1.86763
4.5082 0.767278 -1.88309
4.54368 0.788012 -1.89893
4.58371 0.809793 -1.91671
4.62449 0.831986 -1.93485
4.66604 0.854602 -1.95335
4.70841 0.877658 -1.97223
4.7516 0.901163 -1.9915
4.79564 0.925131 -2.01117
4.84057 0.94958 -2.03125
4.88641 0.974521 -2.05176
4.9335 1.00004 -2.07284
4.9778 1.02531 -2.0928
5.02294 1.05106 -2.11315
5.06898 1.07733 -2.13393
5.11592 1.10411 -2.15515
5.16381 1.13144 -2.1768
5.21266 1.15931 -2.19892
5.26252 1.18776 -2.22152
5.31341 1.2168 -2.2446
5.36536 1.24645 -2.26819
5.63376 1.32747 -2.38341
5.62214 1.34339 -2.38027
5.61058 1.35927 -2.37717
5.59907 1.37511 -2.37411
5.59771 1.39344 -2.37538
5.65519 1.42663 -2.40166
5.71397 1.46056 -2.42856
5.77408 1.49527 -2.45609
5.83556 1.53077 -2.48428
3.63863 0.213599 -1.53645
3.65632 0.226164 -1.54421
3.67418 0.238857 -1.55206
3.69515 0.251879 -1.56125
3.71564 0.265004 -1.57025
3.73637 0.278283 -1.57938
3.75734 0.291715 -1.58862
3.77855 0.305306 -1.59798
3.8 0.319058 -1.60747
3.82171 0.332973 -1.61709
3.84368 0.347056 -1.62684
3.8659 0.361309 -1.63672
3.8884 0.375737 -1.64673
3.91116 0.390341 -1.65688
3.93421 0.405126 -1.66718
3.95754 0.420097 -1.67761
3.98115 0.435254 -1.6882
4.00506 0.450604 -1.69893
4.02928 0.466151 -1.70981
4.0538 0.481896 -1.72085
4.07861 0.497844 -1.73204
4.10363 0.513987 -1.74334
4.12897 0.530339 -1.75481
4.15465 0.546908 -1.76644
4.18066 0.563699 -1.77824
4.20702 0.580715 -1.79022
4.23374 0.597961 -1.80238
4.26082 0.615444 -1.81473
4.28827 0.633167 -1.82725
4.31609 0.651135 -1.83997
4.34431 0.669355 -1.85289
4.37292 0.687834 -1.866
4.40194 0.706574 -1.87932
4.43215 0.725712 -1.89319
4.46803 0.746008 -1.90951
4.50664 0.767013 -1.92703
4.54597 0.788407 -1.94489
4.58598 0.810195 -1.96309
4.62675 0.832392 -1.98165
4.66829 0.855013 -2.00058
4.71064 0.878073 -2.0199
4.75381 0.901582 -2.03962
4.79784 0.925554 -2.05975
4.84292 0.950041 -2.08037
4.88946 0.97513 -2.10167
4.93456 1.00025 -2.1224
4.97908 1.02557 -2.14292
5.02446 1.05138 -2.16386
5.07075 1.0777 -2.18524
5.11796 1.10455 -2.20707
5.16612 1.13194 -2.22936
5.21527 1.15989 -2.25213
3.62459 0.212774 -1.56619
3.64214 0.225286 -1.57407
3.66053 0.237969 -1.58233
3.68514 0.251197 -1.5933
3.70552 0.264283 -1.60247
3.72613 0.27752 -1.61175
3.74698 0.290911 -1.62115
3.76807 0.304459 -1.63068
3.7894 0.318168 -1.64034
3.81099 0.332039 -1.65013
3.83283 0.346076 -1.66005
3.85492 0.360283 -1.6701
3.87729 0.374663 -1.68029
3.89992 0.389219 -1.69062
3.92282 0.403953 -1.70109
3.94602 0.418873 -1.71171
3.96949 0.433979 -1.72247
3.99326 0.449275 -1.73339
4.01732 0.464768 -1.74446
4.04169 0.480458 -1.75569
4.06637 0.49635 -1.76708
4.09137 0.512451 -1.77864
4.11669 0.528762 -1.79036
4.14235 0.545289 -1.80225
4.16834 0.562037 -1.81432
4.19467 0.57901 -1.82656
4.22136 0.596213 -1.83899
4.24841 0.613652 -1.8516
4.27583 0.631329 -1.86441
4.30362 0.649252 -1.8774
4.33179 0.667427 -1.8906
4.36135 0.686014 -1.90443
4.39584 0.705596 -1.92045
4.43189 0.725669 -1.93719
4.46978 0.7463 -1.95477
4.50837 0.767307 -1.97269
4.54767 0.788703 -1.99096
4.58772 0.810502 -2.00959
4.62851 0.83271 -2.0286
4.67009 0.855343 -2.04799
4.71247 0.878415 -2.06778
4.75602 0.902 -2.08812
4.80079 0.926123 -2.10904
4.84646 0.950736 -2.1304
4.89307 0.975851 -2.15223
4.93779 1.00091 -2.17327
4.98237 1.02625 -2.1943
5.02782 1.05208 -2.21576
5.07416 1.07843 -2.23767
5.12144 1.1053 -2.26004
3.61056 0.211951 -1.59591
3.62797 0.22441 -1.6039
3.64999 0.237285 -1.61396
3.67504 0.250509 -1.62538
3.69538 0.263559 -1.63473
3.71588 0.276756 -1.64418
3.73661 0.290106 -1.65374
3.75758 0.303611 -1.66344
3.77879 0.317277 -1.67326
3.80025 0.331103 -1.68322
3.82196 0.345095 -1.6933
3.84393 0.359255 -1.70353
3.86616 0.373588 -1.71389
3.88866 0.388095 -1.7244
3.91143 0.402781 -1.73505
3.93448 0.417649 -1.74585
3.95781 0.432703 -1.7568
3.98144 0.447946 -1.7679
4.00536 0.463383 -1.77916
4.02958 0.479018 -1.79057
4.05411 0.494853 -1.80215
4.07895 0.510895 -1.8139
4.10411 0.527146 -1.82582
4.1296 0.543611 -1.83791
4.15543 0.560297 -1.85018
4.18159 0.577205 -1.86263
4.20811 0.594341 -1.87526
4.23498 0.611712 -1.88808
4.2623 0.629333 -1.90114
4.29471 0.647909 -1.91649
4.32783 0.666815 -1.93219
4.36233 0.686167 -1.94855
4.39741 0.705848 -1.9652
4.43352 0.725936 -1.98234
4.47144 0.746576 -2.00034
4.51006 0.767594 -2.01868
4.54939 0.789001 -2.03739
4.58946 0.81081 -2.05647
4.63029 0.83303 -2.07592
4.6724 0.855767 -2.096
4.7155 0.87898 -2.11656
4.75945 0.902652 -2.13755
4.80429 0.926798 -2.15898
4.85003 0.951436 -2.18087
4.89672 0.976577 -2.20323
4.94105 1.00157 -2.22458
4.98569 1.02693 -2.24612
5.0312 1.05279 -2.2681
3.59654 0.211127 -1.62561
3.61487 0.223599 -1.63421
3.63943 0.236598 -1.64564
3.66434 0.249779 -1.65725
3.68522 0.262834 -1.66706
3.7056 0.275991 -1.67666
3.72621 0.289299 -1.68639
3.74706 0.302762 -1.69625
3.76815 0.316384 -1.70624
3.78949 0.330166 -1.71636
3.81107 0.344112 -1.72662
3.83292 0.358226 -1.73701
3.85502 0.372511 -1.74755
3.87738 0.386969 -1.75823
3.90002 0.401605 -1.76906
3.92293 0.416423 -1.78004
3.94612 0.431425 -1.79117
3.9696 0.446614 -1.80245
3.99337 0.461997 -1.8139
4.01744 0.477575 -1.8255
4.04182 0.493353 -1.83727
4.06651 0.509337 -1.84921
4.09151 0.525528 -1.86133
4.11684 0.541931 -1.87361
4.1425 0.558554 -1.88608
4.1685 0.575397 -1.89873
4.19881 0.593027 -1.91338
4.23019 0.61102 -1.92855
4.26208 0.6293 -1.94397
4.29541 0.648014 -1.96009
4.32936 0.667051 -1.97653
4.36388 0.686411 -1.99327
4.39899 0.706101 -2.01031
4.43516 0.726205 -2.02787
4.47311 0.746856 -2.04628
4.51176 0.767883 -2.06506
4.55116 0.789307 -2.08421
4.59189 0.81124 -2.10403
4.63341 0.833592 -2.12424
4.67574 0.856378 -2.14487
4.7189 0.879614 -2.16593
4.76292 0.903309 -2.18742
4.80782 0.92748 -2.20937
4.85364 0.952143 -2.23179
4.90039 0.97731 -2.25469
3.58251 0.210304 -1.65531
3.60444 0.222955 -1.66575
3.62886 0.235911 -1.67738
3.65362 0.249048 -1.68917
3.67504 0.262108 -1.69945
3.6953 0.275224 -1.70921
3.7158 0.28849 -1.7191
3.73653 0.301911 -1.72912
3.7575 0.315489 -1.73928
3.77871 0.329227 -1.74956
3.80017 0.343127 -1.75999
3.82188 0.357195 -1.77056
3.84385 0.371432 -1.78127
3.86609 0.385842 -1.79212
3.88859 0.400428 -1.80313
3.91136 0.415195 -1.81428
3.93441 0.430144 -1.82559
3.95775 0.44528 -1.83706
3.98137 0.460609 -1.84869
4.00529 0.47613 -1.86048
4.02952 0.491852 -1.87244
4.05405 0.507776 -1.88458
4.07889 0.523907 -1.89688
4.10733 0.540679 -1.91088
4.13728 0.55785 -1.92563
4.1677 0.575287 -1.94061
4.19859 0.592997 -1.95586
4.23065 0.611087 -1.97167
4.26351 0.629512 -1.9879
4.29693 0.648243 -2.00442
4.3309 0.667289 -2.02123
4.36545 0.686658 -2.03835
4.40058 0.706357 -2.05579
4.43681 0.726475 -2.07377
4.47502 0.747173 -2.09271
4.51431 0.768317 -2.1122
4.55434 0.789859 -2.13208
4.59539 0.811857 -2.15248
4.63769 0.834361 -2.17352
4.68083 0.857311 -2.19499
4.72485 0.880723 -2.21691
4.76975 0.904605 -2.23931
4.81558 0.928977 -2.26218
3.57004 0.209572 -1.68573
3.59399 0.222308 -1.69736
3.61827 0.235222 -1.70917
3.64288 0.248316 -1.72116
3.66483 0.261381 -1.7319
3.68499 0.274455 -1.74183
3.70536 0.28768 -1.75188
3.72598 0.301058 -1.76206
3.74682 0.314593 -1.77238
3.76791 0.328285 -1.78283
3.78925 0.342141 -1.79343
3.81083 0.356162 -1.80416
3.83267 0.370352 -1.81505
3.85477 0.384713 -1.82607
3.87713 0.399249 -1.83725
3.89977 0.413965 -1.84859
3.92268 0.428861 -1.86008
3.94587 0.443944 -1.87173
3.96935 0.459218 -1.88354
3.99312 0.474684 -1.89552
4.01996 0.490685 -1.90898
4.04858 0.507091 -1.92332
4.07763 0.523745 -1.93789
4.10712 0.540652 -1.9527
4.13707 0.557822 -1.96777
4.16794 0.57532 -1.9833
4.19978 0.593164 -1.99932
4.23213 0.611301 -2.01563
4.26502 0.629734 -2.03223
4.29845 0.648474 -2.04912
4.33245 0.667528 -2.06631
4.36703 0.686907 -2.08382
4.40464 0.707008 -2.10282
4.44345 0.727563 -2.12243
4.48281 0.748475 -2.14234
4.52292 0.769782 -2.16266
4.5638 0.791499 -2.18338
4.60548 0.813639 -2.20453
4.64797 0.836212 -2.22612
4.69132 0.859231 -2.24816
3.55971 0.208965 -1.71722
3.58352 0.221661 -1.72903
3.60766 0.234533 -1.74102
3.63212 0.247583 -1.7532
3.65461 0.260651 -1.76444
3.67465 0.273685 -1.77452
3.69491 0.286868 -1.78473
3.7154 0.300203 -1.79507
3.73613 0.313695 -1.80555
3.75709 0.327343 -1.81617
3.7783 0.341153 -1.82693
3.79975 0.355126 -1.83784
3.82146 0.369269 -1.84889
3.84343 0.383581 -1.86009
3.86566 0.398067 -1.87145
3.88816 0.412732 -1.88296
3.91093 0.427576 -1.89463
3.93642 0.442881 -1.90764
3.9638 0.458575 -1.9216
3.99157 0.4745 -1.93577
4.01976 0.490661 -1.95018
4.04838 0.507066 -1.96483
4.07742 0.523718 -1.97971
4.10718 0.54066 -1.99498
4.13804 0.557952 -2.01081
4.16939 0.57552 -2.02691
4.20124 0.593372 -2.04329
4.23363 0.611516 -2.05996
4.26654 0.629958 -2.07693
4.30088 0.648839 -2.09463
4.33791 0.668368 -2.11368
4.37563 0.68826 -2.1331
4.41405 0.708518 -2.1529
4.45294 0.729116 -2.17298
4.49247 0.750088 -2.19341
4.53276 0.771457 -2.21425
4.57382 0.793238 -2.23552
4.61569 0.815444 -2.25722
3.54936 0.208358 -1.74877
3.57303 0.221012 -1.76077
3.59702 0.233841 -1.77295
3.62134 0.246848 -1.78531
3.64436 0.25992 -1.79705
3.66428 0.272914 -1.80728
3.68442 0.286054 -1.81765
3.7048 0.299347 -1.82816
3.72541 0.312795 -1.8388
3.74625 0.326398 -1.84959
3.76733 0.340162 -1.86051
3.78865 0.354089 -1.87159
3.81024 0.368184 -1.88281
3.83207 0.382447 -1.89418
3.85645 0.397118 -1.90684
3.88266 0.412149 -1.92043
3.90925 0.427394 -1.93424
3.93623 0.44286 -1.94827
3.9636 0.458553 -1.96252
3.99138 0.474476 -1.977
4.01956 0.490636 -1.99171
4.04828 0.507053 -2.00672
4.0782 0.523818 -2.02236
4.10859 0.540846 -2.03826
4.13948 0.558146 -2.05444
4.17085 0.575721 -2.0709
4.20273 0.593581 -2.08765
4.23751 0.612077 -2.10587
4.27338 0.630969 -2.12467
4.3099 0.650201 -2.14383
4.3471 0.669785 -2.16337
4.38498 0.689731 -2.18329
4.42357 0.710047 -2.2036
4.46254 0.730689 -2.22415
4.50225 0.751721 -2.24511
3.53899 0.207749 -1.78041
3.56251 0.220361 -1.79258
3.58636 0.233148 -1.80494
3.61054 0.246111 -1.81749
3.63408 0.259187 -1.82974
3.65389 0.27214 -1.84013
3.67392 0.285239 -1.85066
3.69417 0.298488 -1.86133
3.71466 0.311892 -1.87213
3.73537 0.325451 -1.88308
3.75633 0.339169 -1.89417
3.7798 0.353262 -1.90656
3.80493 0.367672 -1.91981
3.83042 0.382282 -1.93326
3.85626 0.397099 -1.94693
3.88247 0.412129 -1.96081
3.90906 0.427373 -1.9749
3.93604 0.442838 -1.98922
3.96341 0.45853 -2.00377
3.99118 0.474453 -2.01856
4.02017 0.490711 -2.03399
4.04966 0.507227 -2.04971
4.07961 0.523999 -2.06569
4.11002 0.541034 -2.08194
4.14201 0.558488 -2.09902
4.17618 0.576457 -2.11724
4.21095 0.594742 -2.13581
4.24634 0.613353 -2.15472
4.28236 0.632295 -2.174
4.31905 0.651581 -2.19365
4.3564 0.671218 -2.21368
4.39445 0.691221 -2.23411
4.43313 0.711581 -2.2549
3.52859 0.207138 -1.81211
3.55197 0.219709 -1.82447
3.57568 0.232454 -1.83701
3.59971 0.245373 -1.84974
3.62378 0.258452 -1.86252
3.64347 0.271364 -1.87307
3.66338 0.28442 -1.88376
3.68352 0.297628 -1.89458
3.70627 0.311188 -1.90678
3.73039 0.325016 -1.9197
3.75484 0.339034 -1.93282
3.77962 0.353245 -1.94614
3.80475 0.367654 -1.95967
3.83023 0.382264 -1.9734
3.85607 0.39708 -1.98735
3.88228 0.412108 -2.00151
3.90887 0.427352 -2.0159
3.93584 0.442816 -2.03052
3.96388 0.458585 -2.04572
3.9925 0.474609 -2.06124
4.02155 0.490879 -2.07703
4.05106 0.507402 -2.09308
4.08363 0.524516 -2.11076
4.11678 0.541924 -2.12876
4.1505 0.559633 -2.14709
4.18482 0.577649 -2.16577
4.21973 0.595983 -2.1848
4.25528 0.614644 -2.20419
4.29146 0.633638 -2.22396
4.32692 0.652768 -2.24339
3.64873 0.214191 -1.91234
3.64004 0.225157 -1.90815
3.63141 0.236077 -1.904
3.62283 0.246949 -1.8999
3.61306 0.257688 -1.89519
3.63565 0.270781 -1.90748
3.65882 0.284066 -1.92009
3.6823 0.297529 -1.9329
3.70609 0.311173 -1.94589
3.73021 0.325001 -1.95908
3.75466 0.339018 -1.97247
3.77944 0.353228 -1.98606
3.80457 0.367636 -1.99986
3.83005 0.382245 -2.01388
3.85588 0.397061 -2.02811
3.88209 0.412088 -2.04256
3.90923 0.427391 -2.05754
3.93702 0.442948 -2.07289
3.96523 0.458741 -2.08849
3.99542 0.474956 -2.10516
4.02706 0.491551 -2.12264
4.05923 0.508426 -2.14043
4.09195 0.525584 -2.15854
4.12524 0.543037 -2.17699
4.15911 0.560793 -2.19578
4.19215 0.578663 -2.21418
4.22492 0.596715 -2.23246
4.25823 0.61507 -2.25107
3.5446 0.208078 -1.89552
3.56628 0.220594 -1.90747
3.6609 0.237994 -1.95847
3.65218 0.24895 -1.95422
3.64352 0.259861 -1.95001
3.63548 0.270769 -1.94615
3.65865 0.284053 -1.95902
3.68212 0.297515 -1.97208
3.70592 0.311158 -1.98534
3.73003 0.324986 -1.9988
3.75448 0.339001 -2.01246
3.77926 0.353211 -2.02632
3.80438 0.367618 -2.0404
3.82986 0.382226 -2.0547
3.85615 0.397088 -2.06946
3.88315 0.4122 -2.08464
3.91121 0.427608 -2.10042
3.94145 0.443447 -2.11739
3.97219 0.459547 -2.13467
4.00344 0.47591 -2.15226
4.03521 0.492546 -2.17016
4.06595 0.509266 -2.18754
4.09666 0.526189 -2.20494
4.12786 0.543382 -2.22264
4.15956 0.560854 -2.24065
3.5446 0.208078 -1.93361
3.56628 0.220594 -1.9458
3.58823 0.23327 -1.95817
3.61047 0.246107 -1.97072
3.67349 0.261998 -2.00556
3.66474 0.272948 -2.00124
3.65847 0.28404 -1.99829
3.68195 0.2975 -2.01162
3.70574 0.311143 -2.02514
3.72985 0.32497 -2.03886
3.75429 0.338985 -2.0528
3.77907 0.353193 -2.06694
3.80457 0.367637 -2.08151
3.83082 0.382322 -2.09652
3.85968 0.397452 -2.11299
3.88909 0.412831 -2.12978
3.91896 0.428455 -2.14687
3.94747 0.444124 -2.16324
3.97632 0.460025 -2.17983
4.00562 0.47617 -2.1967
4.03538 0.492567 -2.21386
4.0656 0.509223 -2.23131
4.09631 0.526144 -2.24905
3.5446 0.208078 -1.97205
3.56628 0.220594 -1.98448
3.58823 0.23327 -1.9971
3.61047 0.246107 -2.00989
3.70423 0.26419 -2.06254
3.69534 0.275227 -2.05806
3.68651 0.286217 -2.05364
3.68177 0.297486 -2.05151
3.70556 0.311128 -2.0653
3.72967 0.324954 -2.07929
3.75443 0.338998 -2.09368
3.78149 0.353419 -2.10938
3.80924 0.368088 -2.12549
3.83601 0.38284 -2.14109
3.86317 0.397812 -2.15694
3.89075 0.413007 -2.17305
3.91873 0.428431 -2.18942
3.94714 0.444088 -2.20606
3.97599 0.459987 -2.22298
4.00529 0.476131 -2.24018
3.5446 0.208079 -2.01084
3.56628 0.220594 -2.02352
3.58823 0.23327 -2.03638
3.61047 0.246107 -2.04943
3.63299 0.259109 -2.06267
3.71748 0.276876 -2.11112
3.71101 0.288118 -2.10795
3.70455 0.299326 -2.1048
3.70565 0.311136 -2.10597
3.73092 0.325063 -2.1209
3.75655 0.339189 -2.13607
3.78255 0.353518 -2.15147
3.80893 0.368058 -2.16713
3.8357 0.382809 -2.18303
3.86286 0.397779 -2.19919
3.89043 0.412974 -2.21561
3.91841 0.428395 -2.2323
3.94681 0.44405 -2.24927
3.5446 0.208078 -2.05
3.56628 0.220594 -2.06293
3.58823 0.23327 -2.07604
3.61047 0.246107 -2.08934
3.63299 0.259109 -2.10284
3.71731 0.276863 -2.15213
3.71083 0.288104 -2.1489
3.70438 0.299312 -2.14569
3.70536 0.311111 -2.14681
3.73062 0.325036 -2.16203
3.75625 0.339163 -2.17749
3.78225 0.35349 -2.1932
3.80862 0.368029 -2.20915
3.83538 0.382778 -2.22536
3.86254 0.397746 -2.24183
4.51991 -0.868568 -1.05052
4.51363 -0.852569 -1.04842
4.5073 -0.836623 -1.04633
4.50095 -0.820731 -1.04425
4.49457 -0.804892 -1.04218
4.48816 -0.789105 -1.04011
4.48171 -0.77337 -1.03804
4.47524 -0.75769 -1.03598
4.47566 -0.992895 -1.08654
4.44385 -0.971107 -1.07807
4.4169 -0.950594 -1.07079
4.40797 -0.934099 -1.06791
4.40058 -0.918003 -1.06541
4.39326 -0.901988 -1.06294
4.38595 -0.886047 -1.06049
4.37865 -0.87017 -1.05805
4.37135 -0.85436 -1.05563
4.36405 -0.838616 -1.05322
4.35675 -0.822937 -1.05083
4.34945 -0.807324 -1.04845
4.34215 -0.791774 -1.04608
4.33485 -0.776289 -1.04372
4.32756 -0.760868 -1.04138
4.32026 -0.74551 -1.03905
4.31297 -0.730215 -1.03674
4.37822 -1.04417 -1.10635
4.34937 -1.02276 -1.09823
4.33073 -1.00394 -1.09272
4.32228 -0.98759 -1.0898
4.31537 -0.971664 -1.08727
4.30846 -0.955804 -1.08477
4.30155 -0.94001 -1.08227
4.29464 -0.924281 -1.07979
4.28777 -0.908628 -1.07734
4.28094 -0.893044 -1.07491
4.2741 -0.877525 -1.07249
4.26727 -0.86207 -1.07008
4.26043 -0.846675 -1.06769
4.25358 -0.831344 -1.06531
4.24674 -0.816074 -1.06295
4.2399 -0.800865 -1.06059
4.23305 -0.785718 -1.05826
4.2262 -0.770631 -1.05593
4.21935 -0.755605 -1.05362
4.21377 -0.740862 -1.05163
4.20955 -0.726406 -1.05
4.20532 -0.71199 -1.04838
4.3105 -1.11485 -1.1337
4.2816 -1.09294 -1.12519
4.26302 -1.07385 -1.11941
4.24535 -1.05514 -1.11389
4.238 -1.03909 -1.11109
4.23156 -1.02334 -1.10855
4.22511 -1.00765 -1.10602
4.21866 -0.992025 -1.1035
4.2122 -0.976463 -1.101
4.20575 -0.960962 -1.09851
4.19929 -0.945525 -1.09604
4.19282 -0.930149 -1.09358
4.1864 -0.914846 -1.09114
4.18 -0.899609 -1.08873
4.1736 -0.884433 -1.08633
4.1672 -0.869318 -1.08394
4.16079 -0.854261 -1.08157
4.15438 -0.839266 -1.07921
4.14797 -0.824328 -1.07686
4.14155 -0.809448 -1.07452
4.13603 -0.794799 -1.07243
4.13214 -0.780511 -1.07078
4.12823 -0.766262 -1.06913
4.1243 -0.75205 -1.06749
4.12036 -0.737878 -1.06586
4.11641 -0.723743 -1.06424
4.11243 -0.709647 -1.06263
4.10845 -0.695589 -1.06103
4.2131 -1.16102 -1.15153
4.1943 -1.14158 -1.1454
4.17746 -1.12282 -1.13983
4.16103 -1.10431 -1.13439
4.15505 -1.08867 -1.13181
4.14906 -1.07309 -1.12925
4.14306 -1.05758 -1.1267
4.13706 -1.04212 -1.12417
4.13105 -1.02673 -1.12165
4.12503 -1.0114 -1.11914
4.11901 -0.996123 -1.11665
4.11299 -0.980911 -1.11417
4.10696 -0.965758 -1.1117
4.10092 -0.950665 -1.10925
4.09488 -0.93563 -1.10681
4.08887 -0.920663 -1.10439
4.08288 -0.90576 -1.102
4.0769 -0.890917 -1.09961
4.07091 -0.87613 -1.09725
4.06491 -0.8614 -1.09489
4.0596 -0.846871 -1.09273
4.05602 -0.832749 -1.09105
4.05242 -0.818666 -1.08939
4.04881 -0.80462 -1.08772
4.04518 -0.790612 -1.08607
4.04153 -0.77664 -1.08443
4.03787 -0.762705 -1.08279
4.03419 -0.748806 -1.08117
4.03049 -0.734945 -1.07955
4.02678 -0.72112 -1.07794
4.02306 -0.707331 -1.07634
4.01931 -0.693578 -1.07474
4.01571 -0.679888 -1.0732
4.13137 -1.20909 -1.17262
4.11305 -1.18962 -1.16635
4.09487 -1.17034 -1.16014
4.07905 -1.15188 -1.15462
4.07335 -1.13638 -1.15198
4.0678 -1.12098 -1.14941
4.06224 -1.10564 -1.14684
4.05667 -1.09036 -1.14429
4.05109 -1.07513 -1.14175
4.04551 -1.05997 -1.13923
4.03992 -1.04487 -1.13672
4.03432 -1.02982 -1.13422
4.02871 -1.01483 -1.13174
4.0231 -0.999899 -1.12927
4.01747 -0.985024 -1.12681
4.01184 -0.970205 -1.12436
4.0062 -0.955444 -1.12193
4.00056 -0.940739 -1.11951
3.99494 -0.926097 -1.11711
3.98935 -0.911518 -1.11474
3.98439 -0.897138 -1.11255
3.98111 -0.883183 -1.11085
3.97782 -0.869266 -1.10916
3.97451 -0.855385 -1.10748
3.97119 -0.841539 -1.10581
3.96784 -0.827729 -1.10414
3.96448 -0.813955 -1.10248
3.9611 -0.800218 -1.10083
3.95771 -0.786516 -1.09919
3.95429 -0.772848 -1.09756
3.95086 -0.759216 -1.09594
3.94742 -0.745619 -1.09432
3.94395 -0.732057 -1.09272
3.94047 -0.718529 -1.09112
3.93698 -0.705037 -1.08952
3.93346 -0.691578 -1.08794
3.93022 -0.678203 -1.08645
3.92698 -0.664865 -1.08496
4.05412 -1.24236 -1.19301
4.03666 -1.22306 -1.18673
4.02264 -1.20493 -1.18148
4.01213 -1.18797 -1.17728
4.00604 -1.17241 -1.1744
3.99996 -1.15691 -1.17154
3.99387 -1.14148 -1.1687
3.98779 -1.12611 -1.16587
3.98171 -1.11081 -1.16306
3.97563 -1.09558 -1.16026
3.96955 -1.08041 -1.15749
3.96347 -1.06531 -1.15473
3.9574 -1.05027 -1.15198
3.95132 -1.03529 -1.14926
3.94525 -1.02038 -1.14655
3.93918 -1.00553 -1.14385
3.93311 -0.990748 -1.14117
3.92721 -0.976066 -1.13856
3.92139 -0.961466 -1.13599
3.91558 -0.946926 -1.13343
3.91153 -0.932864 -1.1314
3.90759 -0.918877 -1.12941
3.90367 -0.904938 -1.12745
3.89973 -0.891042 -1.12549
3.89579 -0.877189 -1.12355
3.89221 -0.86346 -1.12172
3.88912 -0.849882 -1.12005
3.88602 -0.836338 -1.11839
3.88289 -0.822829 -1.11674
3.87975 -0.809354 -1.11509
3.8766 -0.795912 -1.11346
3.87342 -0.782505 -1.11183
3.87023 -0.769132 -1.11021
3.86702 -0.755791 -1.1086
3.86379 -0.742484 -1.10699
3.86055 -0.72921 -1.1054
3.85728 -0.71597 -1.10381
3.854 -0.702762 -1.10223
3.85082 -0.689608 -1.10069
3.8478 -0.676517 -1.09921
3.8454 -0.663567 -1.09792
3.84502 -0.650989 -1.09722
3.99452 -1.29352 -1.21909
3.98048 -1.27508 -1.21357
3.96714 -1.25699 -1.20828
3.95387 -1.23904 -1.20304
3.94603 -1.22289 -1.19947
3.94029 -1.20747 -1.19656
3.93456 -1.19212 -1.19367
3.92882 -1.17683 -1.19079
3.92313 -1.16162 -1.18795
3.91763 -1.14653 -1.18518
3.91214 -1.13151 -1.18243
3.90664 -1.11654 -1.1797
3.90114 -1.10164 -1.17698
3.89563 -1.0868 -1.17427
3.89013 -1.07202 -1.17159
3.88462 -1.05729 -1.16892
3.87912 -1.04263 -1.16626
3.87361 -1.02803 -1.16362
3.8681 -1.01349 -1.161
3.86259 -0.999004 -1.15839
3.85708 -0.984578 -1.1558
3.8531 -0.970593 -1.15368
3.84934 -0.956713 -1.15164
3.84557 -0.942875 -1.14962
3.84179 -0.929081 -1.14761
3.838 -0.915328 -1.1456
3.83423 -0.901627 -1.14362
3.83051 -0.887979 -1.14167
3.82677 -0.874371 -1.13972
3.82303 -0.860805 -1.13779
3.81927 -0.84728 -1.13587
3.81551 -0.833795 -1.13396
3.81173 -0.82035 -1.13206
3.80794 -0.806945 -1.13018
3.80414 -0.79358 -1.1283
3.80034 -0.780255 -1.12643
3.79652 -0.76697 -1.12458
3.79269 -0.753723 -1.12273
3.78886 -0.740515 -1.1209
3.78501 -0.727345 -1.11907
3.78115 -0.714214 -1.11726
3.77815 -0.701281 -1.11571
3.77702 -0.688724 -1.11473
3.77587 -0.676185 -1.11375
3.77506 -0.663727 -1.11289
3.77488 -0.651399 -1.11222
3.77468 -0.63908 -1.11156
3.93781 -1.33041 -1.24437
3.92475 -1.31218 -1.23892
3.91179 -1.29411 -1.23354
3.89892 -1.27619 -1.2282
3.88933 -1.25945 -1.22392
3.88207 -1.24355 -1.22039
3.87483 -1.22774 -1.21689
3.86761 -1.21201 -1.21341
3.86155 -1.19671 -1.21031
3.85636 -1.18175 -1.20751
3.85118 -1.16686 -1.20473
3.84599 -1.15202 -1.20196
3.8408 -1.13724 -1.19921
3.83561 -1.12253 -1.19647
3.83041 -1.10787 -1.19375
3.82521 -1.09327 -1.19105
3.82001 -1.07873 -1.18836
3.8148 -1.06425 -1.18569
3.80959 -1.04982 -1.18303
3.80438 -1.03545 -1.18039
3.79917 -1.02114 -1.17776
3.79532 -1.00725 -1.17558
3.7918 -0.993496 -1.17351
3.78827 -0.979781 -1.17145
3.78473 -0.966107 -1.16941
3.78117 -0.952475 -1.16737
3.77761 -0.938885 -1.16535
3.77403 -0.925336 -1.16334
3.77045 -0.911828 -1.16134
3.76685 -0.89836 -1.15935
3.76324 -0.884934 -1.15737
3.75971 -0.871566 -1.15543
3.75616 -0.858237 -1.1535
3.7526 -0.844948 -1.15158
3.74903 -0.831697 -1.14967
3.74545 -0.818486 -1.14778
3.74186 -0.805313 -1.14589
3.73825 -0.792178 -1.14401
3.73464 -0.779081 -1.14215
3.73102 -0.766022 -1.14029
3.72738 -0.753002 -1.13845
3.72373 -0.740019 -1.13661
3.72218 -0.727483 -1.13543
3.72117 -0.715077 -1.13443
3.72014 -0.702689 -1.13343
3.71909 -0.690319 -1.13244
3.71803 -0.677967 -1.13146
3.71694 -0.665633 -1.13048
3.71584 -0.653317 -1.12951
3.71473 -0.641018 -1.12855
3.71359 -0.628737 -1.1276
3.87998 -1.35201 -1.26739
3.86735 -1.33391 -1.26189
3.85489 -1.31599 -1.25645
3.84294 -1.29836 -1.25122
3.83597 -1.2825 -1.24762
3.82902 -1.26673 -1.24405
3.82208 -1.25104 -1.2405
3.81516 -1.23543 -1.23698
3.80824 -1.21991 -1.23349
3.80135 -1.20446 -1.23001
3.79447 -1.18909 -1.22656
3.7876 -1.1738 -1.22314
3.78075 -1.15858 -1.21974
3.77391 -1.14345 -1.21636
3.76708 -1.12838 -1.213
3.76147 -1.11375 -1.21005
3.75656 -1.09939 -1.20735
3.75164 -1.08509 -1.20466
3.74672 -1.07084 -1.20199
3.7418 -1.05664 -1.19933
3.73816 -1.04287 -1.1971
3.73488 -1.02923 -1.195
3.73158 -1.01564 -1.19291
3.72827 -1.00209 -1.19083
3.72495 -0.988578 -1.18877
3.72162 -0.975107 -1.18672
3.71827 -0.961677 -1.18467
3.71491 -0.948287 -1.18264
3.71155 -0.934937 -1.18062
3.70817 -0.921626 -1.17862
3.70477 -0.908355 -1.17662
3.70137 -0.895122 -1.17463
3.69795 -0.881929 -1.17266
3.69453 -0.868774 -1.17069
3.69114 -0.855671 -1.16876
3.68777 -0.842611 -1.16684
3.68439 -0.829589 -1.16494
3.68099 -0.816604 -1.16304
3.67759 -0.803656 -1.16116
3.67417 -0.790745 -1.15928
3.67074 -0.777871 -1.15742
3.66807 -0.765194 -1.15581
3.66719 -0.752919 -1.15477
3.6663 -0.740663 -1.15375
3.66539 -0.728423 -1.15273
3.66446 -0.716202 -1.15172
3.66351 -0.703998 -1.15072
3.66255 -0.691811 -1.14972
3.66157 -0.679642 -1.14874
3.66057 -0.66749 -1.14775
3.65955 -0.655355 -1.14678
3.65852 -0.643238 -1.14581
3.65747 -0.631137 -1.14485
3.6564 -0.619053 -1.1439
3.83513 -1.39102 -1.29562
3.8227 -1.37285 -1.28995
3.8105 -1.35488 -1.28438
3.79851 -1.3371 -1.2789
3.78981 -1.32059 -1.27456
3.78314 -1.30486 -1.27093
3.77649 -1.28922 -1.26732
3.76984 -1.27366 -1.26373
3.76321 -1.25817 -1.26016
3.75659 -1.24277 -1.25663
3.74999 -1.22744 -1.25311
3.7434 -1.2122 -1.24962
3.73681 -1.19702 -1.24616
3.73025 -1.18193 -1.24271
3.72369 -1.16691 -1.23929
3.71714 -1.15196 -1.2359
3.71061 -1.13709 -1.23252
3.70409 -1.12229 -1.22917
3.69745 -1.10753 -1.2258
3.69075 -1.09282 -1.22243
3.68561 -1.07863 -1.21959
3.68165 -1.06484 -1.21716
3.67794 -1.05118 -1.21483
3.67422 -1.03756 -1.21251
3.6705 -1.02399 -1.21021
3.66676 -1.01046 -1.20792
3.66307 -0.996994 -1.20565
3.65994 -0.983723 -1.20359
3.6568 -0.970491 -1.20155
3.65364 -0.957297 -1.19951
3.65047 -0.944142 -1.19748
3.64729 -0.931025 -1.19547
3.6441 -0.917946 -1.19346
3.64089 -0.904905 -1.19147
3.63767 -0.891902 -1.18949
3.63444 -0.878937 -1.18752
3.6312 -0.866008 -1.18555
3.62794 -0.853117 -1.18361
3.6247 -0.840268 -1.18167
3.6215 -0.827468 -1.17977
3.61828 -0.814704 -1.17788
3.61505 -0.801975 -1.176
3.6139 -0.789739 -1.1748
3.61315 -0.777612 -1.17375
3.61237 -0.765502 -1.17271
3.61158 -0.753409 -1.17167
3.61076 -0.741333 -1.17064
3.60993 -0.729275 -1.16962
3.60908 -0.717234 -1.1686
3.60822 -0.70521 -1.1676
3.60734 -0.693202 -1.16659
3.60643 -0.681212 -1.1656
3.60551 -0.669238 -1.16461
3.6046 -0.657284 -1.16364
3.60366 -0.645347 -1.16267
3.60271 -0.633426 -1.16172
3.60174 -0.621522 -1.16076
3.60076 -0.609634 -1.15982
3.77787 -1.41094 -1.31774
3.76593 -1.39293 -1.31203
3.75416 -1.3751 -1.3064
3.74358 -1.35781 -1.30122
3.73719 -1.34214 -1.29752
3.73082 -1.32655 -1.29385
3.72446 -1.31104 -1.29019
3.7181 -1.2956 -1.28657
3.71176 -1.28024 -1.28297
3.70543 -1.26496 -1.27939
3.69911 -1.24976 -1.27584
3.6928 -1.23463 -1.27231
3.68639 -1.21954 -1.26876
3.6799 -1.2045 -1.26521
3.67343 -1.18954 -1.26169
3.66697 -1.17465 -1.25819
3.66052 -1.15983 -1.25471
3.65408 -1.14509 -1.25126
3.64765 -1.13042 -1.24783
3.64138 -1.11587 -1.24447
3.6376 -1.10214 -1.24198
3.6338 -1.08846 -1.2395
3.63 -1.07483 -1.23704
3.6262 -1.06124 -1.23459
3.62239 -1.0477 -1.23216
3.61881 -1.03428 -1.22982
3.61526 -1.02091 -1.22751
3.6117 -1.00759 -1.22522
3.60814 -0.994307 -1.22294
3.60457 -0.981071 -1.22067
3.60099 -0.967878 -1.21842
3.59741 -0.954729 -1.21618
3.59382 -0.941622 -1.21395
3.59022 -0.928558 -1.21173
3.58661 -0.915535 -1.20953
3.583 -0.902555 -1.20735
3.57938 -0.889617 -1.20517
3.57575 -0.87672 -1.20301
3.57211 -0.863864 -1.20087
3.56847 -0.851049 -1.19873
3.56482 -0.838275 -1.19661
3.56196 -0.825725 -1.19477
3.5607 -0.813577 -1.19347
3.56008 -0.801598 -1.19241
3.55943 -0.789637 -1.19135
3.55877 -0.777692 -1.1903
3.55809 -0.765763 -1.18926
3.5574 -0.753852 -1.18822
3.55668 -0.741957 -1.18719
3.55595 -0.730079 -1.18617
3.5552 -0.718219 -1.18516
3.55443 -0.706373 -1.18415
3.55364 -0.694543 -1.18315
3.55284 -0.68273 -1.18216
3.55202 -0.670934 -1.18118
3.55118 -0.659152 -1.1802
3.55032 -0.647387 -1.17923
3.54945 -0.635638 -1.17826
3.54855 -0.623904 -1.17731
3.54765 -0.612186 -1.17636
3.54672 -0.600484 -1.17541
3.73267 -1.44811 -1.34518
3.72114 -1.43012 -1.33939
3.70967 -1.41227 -1.33365
3.69833 -1.39458 -1.32798
3.69116 -1.37856 -1.32383
3.68507 -1.36302 -1.3201
3.67898 -1.34756 -1.31638
3.67276 -1.33212 -1.31264
3.6665 -1.31675 -1.30891
3.66025 -1.30146 -1.30521
3.65402 -1.28624 -1.30152
3.64779 -1.2711 -1.29787
3.64158 -1.25604 -1.29424
3.63537 -1.24105 -1.29063
3.62917 -1.22613 -1.28705
3.62298 -1.21129 -1.28349
3.6168 -1.19652 -1.27995
3.61063 -1.18183 -1.27644
3.60447 -1.16721 -1.27295
3.59832 -1.15266 -1.26949
3.59364 -1.13864 -1.26656
3.59005 -1.12503 -1.26403
3.58645 -1.11146 -1.26152
3.58285 -1.09794 -1.25903
3.57924 -1.08446 -1.25655
3.57562 -1.07103 -1.25408
3.572 -1.05765 -1.25163
3.56836 -1.04432 -1.24919
3.56473 -1.03103 -1.24677
3.56124 -1.01783 -1.24442
3.55785 -1.0047 -1.24212
3.55446 -0.991617 -1.23984
3.55106 -0.978576 -1.23756
3.54765 -0.965578 -1.23531
3.54423 -0.95262 -1.23306
3.5408 -0.939707 -1.23083
3.53737 -0.926832 -1.22861
3.53393 -0.913999 -1.22641
3.53048 -0.901207 -1.22421
3.52702 -0.888455 -1.22203
3.52356 -0.875743 -1.21987
3.52008 -0.863072 -1.21772
3.51751 -0.85066 -1.21589
3.51624 -0.838592 -1.21453
3.51495 -0.826547 -1.21317
3.51365 -0.814524 -1.21183
3.51233 -0.802525 -1.21049
3.511 -0.790548 -1.20916
3.50965 -0.778593 -1.20785
3.50829 -0.76666 -1.20654
3.50691 -0.754749 -1.20524
3.50552 -0.74286 -1.20395
3.50412 -0.730993 -1.20267
3.5027 -0.719147 -1.20139
3.50192 -0.707454 -1.20035
3.5012 -0.695795 -1.19935
3.50047 -0.684151 -1.19835
3.49972 -0.672523 -1.19736
3.49896 -0.660911 -1.19638
3.49818 -0.649314 -1.1954
3.49737 -0.637732 -1.19443
3.49656 -0.626166 -1.19347
3.49572 -0.614614 -1.19251
3.49486 -0.603078 -1.19157
3.49399 -0.591557 -1.19062
3.67305 -1.4787 -1.36706
3.65998 -1.46001 -1.36047
3.64699 -1.44147 -1.35394
