ply
format ascii 1.0
comment Created by Open3D
element vertex 1876
property double x
property double y
property double z
end_header
1.64831 6.18878 -1.63079
1.62641 6.18464 -1.62835
1.60458 6.1805 -1.62592
1.5828 6.17634 -1.62351
1.56108 6.17217 -1.62112
1.53942 6.168 -1.61874
1.51783 6.16381 -1.61639
1.49635 6.15991 -1.61412
1.47548 6.15826 -1.61247
1.45466 6.1567 -1.61085
1.43389 6.15512 -1.60925
1.41315 6.15352 -1.60766
1.39244 6.1519 -1.60609
1.37177 6.15027 -1.60453
1.35114 6.14862 -1.60299
1.33054 6.14695 -1.60145
1.30997 6.14526 -1.59993
1.28945 6.14356 -1.59843
1.26895 6.14184 -1.59693
1.24849 6.1401 -1.59545
1.22802 6.13813 -1.59393
2.32196 6.52287 -1.82443
2.27545 6.45635 -1.80382
2.23593 6.4084 -1.78845
2.19709 6.36123 -1.77335
2.16685 6.33817 -1.76501
2.13946 6.32287 -1.75887
2.11269 6.30898 -1.75315
2.08609 6.29516 -1.74748
2.05965 6.28142 -1.74186
2.03339 6.26776 -1.73629
2.00728 6.25417 -1.73077
1.98134 6.24066 -1.7253
1.95556 6.22722 -1.71988
1.92994 6.21385 -1.71451
1.90447 6.20056 -1.70918
1.87915 6.18734 -1.7039
1.8542 6.17489 -1.69886
1.83173 6.17037 -1.69602
1.80944 6.16624 -1.69332
1.78774 6.16391 -1.69112
1.7661 6.16157 -1.68895
1.7445 6.15923 -1.6868
1.72296 6.15689 -1.68467
1.70148 6.15455 -1.68256
1.68004 6.15221 -1.68047
1.65865 6.14987 -1.67839
1.63732 6.14753 -1.67634
1.61604 6.14519 -1.67431
1.5948 6.14285 -1.6723
1.57362 6.14051 -1.67031
1.55248 6.13817 -1.66834
1.53144 6.136 -1.66644
1.51048 6.13398 -1.66459
1.48961 6.13214 -1.66281
1.46897 6.13111 -1.66127
1.44838 6.13009 -1.65975
1.42782 6.12906 -1.65825
1.40729 6.12802 -1.65677
1.3868 6.12698 -1.6553
1.36635 6.12594 -1.65385
1.34593 6.12489 -1.65242
1.32556 6.12394 -1.65103
1.30564 6.12495 -1.65019
1.28575 6.12595 -1.64936
1.26588 6.12695 -1.64855
1.24602 6.12795 -1.64776
1.22609 6.12849 -1.64686
2.36 6.56441 -1.90025
2.29074 6.43516 -1.86075
2.24745 6.37692 -1.84185
2.20904 6.33131 -1.82667
2.18134 6.31565 -1.82016
2.15383 6.30009 -1.81372
2.12652 6.28462 -1.80733
2.09982 6.27056 -1.80138
2.07343 6.25695 -1.79559
2.04719 6.24341 -1.78985
2.02112 6.22995 -1.78416
1.99522 6.21657 -1.77853
1.96947 6.20326 -1.77294
1.94388 6.19002 -1.7674
1.91844 6.17685 -1.76191
1.895 6.16973 -1.75817
1.87263 6.16588 -1.75539
1.85034 6.16204 -1.75263
1.82772 6.15686 -1.74952
1.80494 6.15089 -1.7462
1.78224 6.14494 -1.74292
1.76017 6.14088 -1.74019
1.73865 6.13858 -1.73798
1.71719 6.13627 -1.73579
1.69579 6.13397 -1.73362
1.67443 6.13166 -1.73147
1.65312 6.12936 -1.72935
1.63187 6.12705 -1.72724
1.61066 6.12474 -1.72516
1.58954 6.12258 -1.72313
1.56852 6.12059 -1.72118
1.54753 6.1186 -1.71924
1.5266 6.1166 -1.71732
1.50571 6.11461 -1.71543
1.48492 6.11285 -1.71362
1.46436 6.11185 -1.71204
1.44383 6.11085 -1.71048
1.42338 6.11002 -1.70899
1.40339 6.11105 -1.70803
1.38343 6.11208 -1.7071
1.36348 6.1131 -1.70618
1.34356 6.11412 -1.70527
1.32365 6.11513 -1.70439
1.30377 6.11614 -1.70352
1.28391 6.11715 -1.70267
1.26406 6.11816 -1.70184
1.24423 6.11915 -1.70102
1.22429 6.11951 -1.70004
2.33792 6.50299 -1.94431
2.26021 6.34942 -1.89626
2.22337 6.30859 -1.88197
2.19569 6.29306 -1.87527
2.16821 6.27763 -1.86863
2.14091 6.26229 -1.86206
2.11381 6.24705 -1.85554
2.08706 6.23243 -1.84924
2.06086 6.21903 -1.84333
2.03483 6.2057 -1.83748
2.00895 6.19244 -1.83168
1.98324 6.17925 -1.82592
1.95838 6.16833 -1.82087
1.93586 6.16448 -1.81793
1.91341 6.16064 -1.81501
1.89103 6.15682 -1.81213
1.86872 6.15299 -1.80926
1.84648 6.14918 -1.80643
1.82371 6.14335 -1.80302
1.80099 6.13742 -1.79961
1.77835 6.13151 -1.79623
1.7558 6.12562 -1.79288
1.73332 6.11974 -1.78956
1.71144 6.11571 -1.7868
1.69011 6.11343 -1.78457
1.66883 6.11116 -1.78237
1.64763 6.10901 -1.78022
1.62654 6.10705 -1.77816
1.60549 6.10509 -1.77611
1.58449 6.10313 -1.77408
1.56354 6.10117 -1.77207
1.57066 6.21003 -1.80225
1.54711 6.19878 -1.79757
1.52366 6.18751 -1.7929
1.50032 6.17624 -1.78826
1.47708 6.16494 -1.78364
1.45893 6.17477 -1.78514
1.42133 6.10119 -1.76257
1.40137 6.10222 -1.76159
1.38143 6.10325 -1.76062
1.36151 6.10427 -1.75968
1.34162 6.1053 -1.75875
1.32174 6.10631 -1.75784
1.30189 6.10733 -1.75694
1.28206 6.10834 -1.75607
1.26224 6.10934 -1.75521
1.24244 6.11035 -1.75437
1.2225 6.11052 -1.7533
2.32996 6.48085 -1.99961
2.24379 6.30327 -1.94263
2.21354 6.2807 -1.93352
2.18391 6.2593 -1.92481
2.15517 6.23988 -1.91675
2.12809 6.22477 -1.91004
2.10118 6.20975 -1.9034
2.07447 6.19483 -1.89682
2.04839 6.18139 -1.89072
2.02255 6.16826 -1.88475
1.9994 6.16298 -1.88121
1.97679 6.15915 -1.87814
1.95425 6.15532 -1.87509
1.93179 6.1515 -1.87207
1.90939 6.1477 -1.86907
1.88706 6.1439 -1.86611
1.86481 6.1401 -1.86317
1.84245 6.13575 -1.86008
1.8197 6.12984 -1.85654
1.79703 6.12395 -1.85304
1.77445 6.11808 -1.84957
1.75195 6.11222 -1.84613
1.72954 6.10639 -1.84271
1.71607 6.13227 -1.84888
1.75474 6.34722 -1.91202
1.69348 6.20144 -1.8665
1.64484 6.09867 -1.834
1.62254 6.09203 -1.83046
1.60206 6.09203 -1.82894
1.58161 6.09203 -1.82744
1.5612 6.09203 -1.82596
1.54082 6.09203 -1.8245
1.52047 6.09203 -1.82306
1.50015 6.09204 -1.82164
1.47987 6.09204 -1.82024
1.45961 6.09204 -1.81886
1.43939 6.09204 -1.8175
1.41919 6.09204 -1.81617
1.39903 6.09204 -1.81485
1.37889 6.09204 -1.81355
1.35879 6.09204 -1.81227
1.33871 6.09204 -1.81101
1.32401 6.11679 -1.81712
1.31102 6.15017 -1.8258
1.2979 6.18382 -1.83457
1.28464 6.21775 -1.84343
1.24065 6.10152 -1.80781
1.22076 6.10184 -1.80675
2.32202 6.45876 -2.05479
2.24324 6.30173 -2.00258
2.21239 6.27742 -1.99264
2.1827 6.25581 -1.98359
2.15336 6.23463 -1.97472
2.12428 6.21363 -1.96595
2.09545 6.19282 -1.95727
2.06688 6.17218 -1.94868
2.04125 6.15985 -1.94275
2.01778 6.15372 -1.93881
1.99516 6.14991 -1.93563
1.9726 6.1461 -1.93247
1.95012 6.14231 -1.92934
1.92771 6.13852 -1.92624
1.90536 6.13474 -1.92316
1.88309 6.13097 -1.92012
1.86089 6.1272 -1.9171
1.83838 6.12219 -1.91371
1.81568 6.11632 -1.91009
1.79308 6.11047 -1.90649
1.77055 6.10464 -1.90293
1.79475 6.26152 -1.95006
1.72547 6.09203 -1.89558
1.70481 6.09203 -1.8939
1.68419 6.09203 -1.89225
1.6636 6.09203 -1.89061
1.64305 6.09203 -1.889
1.62254 6.09203 -1.88741
1.60206 6.09203 -1.88584
1.58161 6.09203 -1.8843
1.5612 6.09203 -1.88277
1.54082 6.09203 -1.88127
1.52047 6.09203 -1.87978
1.50015 6.09204 -1.87832
1.47987 6.09204 -1.87688
1.45961 6.09204 -1.87545
1.43939 6.09204 -1.87405
1.4192 6.09204 -1.87267
1.39903 6.09204 -1.87131
1.37889 6.09204 -1.86997
1.35879 6.09204 -1.86865
1.33871 6.09204 -1.86735
1.31866 6.09204 -1.86607
1.29863 6.09204 -1.86482
1.27864 6.09205 -1.86358
1.25867 6.09205 -1.86236
1.24469 6.12139 -1.87012
1.23131 6.15455 -1.87907
2.31409 6.4367 -2.10987
2.24269 6.3002 -2.06281
2.21185 6.2759 -2.05257
2.18148 6.25232 -2.0426
2.15216 6.23116 -2.03347
2.1231 6.21019 -2.02444
2.0943 6.1894 -2.01551
2.06575 6.1688 -2.00668
2.04113 6.1595 -2.00156
2.01717 6.15184 -1.997
1.99331 6.14422 -1.99248
1.96956 6.13663 -1.988
1.94598 6.12929 -1.98363
1.92363 6.12553 -1.98045
1.90134 6.12178 -1.9773
1.87912 6.11803 -1.97417
1.85697 6.1143 -1.97107
1.8343 6.10863 -1.96738
1.81167 6.1028 -1.96366
1.85907 6.33535 -2.03659
1.76689 6.09202 -1.95658
1.74617 6.09202 -1.95481
1.72547 6.09203 -1.95306
1.70481 6.09203 -1.95133
1.68419 6.09203 -1.94963
1.66361 6.09203 -1.94795
1.64305 6.09203 -1.94629
1.62254 6.09203 -1.94465
1.60206 6.09203 -1.94303
1.58161 6.09203 -1.94144
1.5612 6.09203 -1.93987
1.54082 6.09203 -1.93832
1.52047 6.09203 -1.93679
1.50015 6.09204 -1.93528
1.47987 6.09204 -1.93379
1.45961 6.09204 -1.93233
1.43939 6.09204 -1.93088
1.41919 6.09204 -1.92946
1.39903 6.09204 -1.92806
1.37889 6.09204 -1.92668
1.35879 6.09204 -1.92532
1.33871 6.09204 -1.92398
1.31866 6.09204 -1.92266
1.29863 6.09204 -1.92137
1.27864 6.09205 -1.92009
1.25867 6.09205 -1.91884
1.23872 6.09205 -1.9176
1.2188 6.09205 -1.91639
2.30686 6.41659 -2.1655
2.24214 6.29865 -2.12331
2.21131 6.27437 -2.11277
2.18078 6.25032 -2.10236
2.15096 6.22768 -2.09246
2.12192 6.20673 -2.08317
2.09314 6.18597 -2.07399
2.06509 6.16683 -2.06538
2.04102 6.15914 -2.06065
2.01705 6.15149 -2.05596
1.9932 6.14387 -2.05131
1.96945 6.13628 -2.0467
1.94581 6.12873 -2.04213
1.92227 6.12121 -2.0376
1.89884 6.11372 -2.03312
1.87551 6.10627 -2.02867
1.85331 6.10225 -2.02539
1.86031 6.19522 -2.0543
1.86197 6.27224 -2.07789
1.78767 6.09202 -2.01631
1.76689 6.09202 -2.01446
1.74616 6.09202 -2.01264
1.72547 6.09203 -2.01084
1.70481 6.09203 -2.00906
1.68419 6.09203 -2.00731
1.6636 6.09203 -2.00558
1.64305 6.09203 -2.00387
1.62254 6.09203 -2.00218
1.60206 6.09203 -2.00052
1.58161 6.09203 -1.99887
1.5612 6.09203 -1.99726
1.54082 6.09203 -1.99566
1.52047 6.09203 -1.99408
1.50015 6.09204 -1.99253
1.47987 6.09204 -1.991
1.45961 6.09204 -1.98949
1.43939 6.09204 -1.98801
1.4192 6.09204 -1.98654
1.39903 6.09204 -1.9851
1.37889 6.09204 -1.98368
1.35879 6.09204 -1.98228
1.33871 6.09204 -1.9809
1.31866 6.09204 -1.97954
1.29863 6.09204 -1.97821
1.27864 6.09205 -1.97689
1.25867 6.09205 -1.9756
1.23872 6.09205 -1.97433
1.2188 6.09205 -1.97308
2.3002 6.39807 -2.22163
2.24159 6.2971 -2.18411
2.21077 6.27283 -2.17327
2.18025 6.24879 -2.16256
2.15003 6.225 -2.15198
2.12073 6.20327 -2.14215
2.09197 6.18253 -2.13271
2.06497 6.16648 -2.12492
2.0409 6.15879 -2.12005
2.01693 6.15113 -2.11523
1.99308 6.14352 -2.11044
1.96934 6.13593 -2.1057
1.94569 6.12838 -2.101
1.92216 6.12086 -2.09634
1.89862 6.11303 -2.09161
1.87517 6.10519 -2.0869
1.86317 6.13471 -2.09498
1.86485 6.21035 -2.1188
1.80847 6.09202 -2.07648
1.78766 6.09202 -2.07455
1.76689 6.09202 -2.07265
1.74616 6.09202 -2.07078
1.72547 6.09203 -2.06893
1.70481 6.09203 -2.0671
1.68419 6.09203 -2.06529
1.6636 6.09203 -2.06351
1.64305 6.09203 -2.06175
1.62254 6.09203 -2.06001
1.60206 6.09203 -2.0583
1.58161 6.09203 -2.05661
1.5612 6.09203 -2.05495
1.54082 6.09203 -2.05331
1.52047 6.09203 -2.05169
1.50015 6.09204 -2.05009
1.47987 6.09204 -2.04851
1.45961 6.09204 -2.04696
1.43939 6.09204 -2.04543
1.41919 6.09204 -2.04393
1.39903 6.09204 -2.04244
1.37889 6.09204 -2.04098
1.35879 6.09204 -2.03954
1.33871 6.09204 -2.03812
1.31865 6.09204 -2.03673
1.29863 6.09204 -2.03535
1.27864 6.09205 -2.034
1.25867 6.09205 -2.03267
1.23872 6.09205 -2.03136
1.2188 6.09205 -2.03007
2.24103 6.29553 -2.2452
2.21022 6.27128 -2.23407
2.17971 6.24726 -2.22306
2.14951 6.22348 -2.21218
2.11959 6.19992 -2.20143
2.0908 6.17907 -2.19169
2.06485 6.16612 -2.18478
2.04078 6.15843 -2.17977
2.01682 6.15078 -2.17481
1.99297 6.14316 -2.16989
1.96911 6.13524 -2.1649
1.94535 6.1273 -2.15993
1.9217 6.11939 -2.155
1.89815 6.11151 -2.15012
1.87471 6.10368 -2.14528
1.8677 6.14964 -2.15936
1.86944 6.22563 -2.18397
1.80847 6.09202 -2.13509
1.78766 6.09202 -2.13311
1.76689 6.09202 -2.13116
1.74616 6.09202 -2.12923
1.72547 6.09203 -2.12733
1.70481 6.09203 -2.12545
1.68419 6.09203 -2.12359
1.6636 6.09203 -2.12176
1.64305 6.09203 -2.11995
1.62254 6.09203 -2.11817
1.60206 6.09203 -2.1164
1.58161 6.09203 -2.11467
1.5612 6.09203 -2.11296
1.54082 6.09203 -2.11127
1.52047 6.09203 -2.1096
1.50015 6.09204 -2.10796
1.47987 6.09204 -2.10634
1.45961 6.09204 -2.10474
1.43939 6.09204 -2.10317
1.4192 6.09204 -2.10162
1.39903 6.09204 -2.1001
1.37889 6.09204 -2.09859
1.35879 6.09204 -2.09711
1.33871 6.09204 -2.09565
1.31866 6.09204 -2.09422
1.29863 6.09204 -2.0928
1.27864 6.09205 -2.09142
1.25867 6.09205 -2.09005
1.23872 6.09205 -2.0887
1.2188 6.09205 -2.08738
2.11907 6.19841 -2.26165
2.08963 6.1756 -2.25092
2.06473 6.16576 -2.24496
2.04055 6.15774 -2.2397
2.01646 6.14969 -2.23445
1.99249 6.14168 -2.22926
1.96862 6.1337 -2.22411
1.94487 6.12576 -2.219
1.92122 6.11786 -2.21394
1.89768 6.10999 -2.20892
1.87425 6.10216 -2.20395
1.87228 6.16473 -2.22441
1.87408 6.24108 -2.24983
1.80847 6.09202 -2.19404
1.78766 6.09202 -2.192
1.76689 6.09202 -2.19
1.74617 6.09202 -2.18801
1.72547 6.09203 -2.18606
1.70481 6.09203 -2.18412
1.68419 6.09203 -2.18221
1.6636 6.09203 -2.18033
1.64305 6.09203 -2.17847
1.62254 6.09203 -2.17664
1.60206 6.09203 -2.17483
1.58161 6.09203 -2.17305
1.5612 6.09203 -2.17129
1.54082 6.09203 -2.16955
1.52047 6.09203 -2.16784
1.50015 6.09204 -2.16615
1.47987 6.09204 -2.16449
1.45961 6.09204 -2.16285
1.43939 6.09204 -2.16123
1.4192 6.09204 -2.15964
1.39903 6.09204 -2.15807
1.37889 6.09204 -2.15653
1.35879 6.09204 -2.15501
1.33871 6.09204 -2.15351
1.31866 6.09204 -2.15203
1.29863 6.09204 -2.15058
1.27864 6.09204 -2.14915
1.25867 6.09205 -2.14775
1.23872 6.09205 -2.14636
1.2188 6.09205 -2.145
1.92074 6.11633 -2.27319
1.8972 6.10846 -2.26804
1.87511 6.10497 -2.26455
1.78766 6.09202 -2.25123
1.76689 6.09202 -2.24917
1.74616 6.09202 -2.24713
1.72547 6.09203 -2.24512
1.70481 6.09203 -2.24314
1.68419 6.09203 -2.24118
1.6636 6.09203 -2.23924
1.64305 6.09203 -2.23734
1.62254 6.09203 -2.23545
1.60206 6.09203 -2.23359
1.58161 6.09203 -2.23176
1.5612 6.09203 -2.22995
1.54082 6.09203 -2.22817
1.52047 6.09203 -2.22641
1.50015 6.09204 -2.22468
1.47987 6.09204 -2.22297
1.45961 6.09204 -2.22129
1.43939 6.09204 -2.21963
1.4192 6.09204 -2.21799
1.39903 6.09204 -2.21638
1.37889 6.09204 -2.2148
1.35879 6.09204 -2.21323
1.33871 6.09204 -2.21169
1.31865 6.09204 -2.21018
1.29863 6.09204 -2.20869
1.27864 6.09205 -2.20722
1.25867 6.09205 -2.20578
1.23872 6.09205 -2.20436
1.2188 6.09205 -2.20296
1.76689 6.09202 -2.30869
1.74616 6.09202 -2.3066
1.72547 6.09202 -2.30454
1.70481 6.09203 -2.3025
1.68419 6.09203 -2.30049
1.6636 6.09203 -2.2985
1.64305 6.09203 -2.29655
1.62254 6.09203 -2.29461
1.60206 6.09203 -2.29271
1.58161 6.09203 -2.29083
1.5612 6.09203 -2.28897
1.54081 6.09203 -2.28714
1.52047 6.09203 -2.28534
1.50015 6.09204 -2.28356
1.47987 6.09204 -2.2818
1.45961 6.09204 -2.28007
1.43939 6.09204 -2.27837
1.41919 6.09204 -2.27669
1.39903 6.09204 -2.27504
1.37889 6.09204 -2.27341
1.35879 6.09204 -2.27181
1.33871 6.09204 -2.27023
1.31865 6.09204 -2.26867
1.29863 6.09204 -2.26714
1.27864 6.09204 -2.26563
1.25867 6.09205 -2.26415
1.23872 6.09205 -2.2627
1.2188 6.09205 -2.26126
1.72547 6.09203 -2.36432
1.70481 6.09203 -2.36222
1.68419 6.09203 -2.36016
1.6636 6.09203 -2.35813
1.64305 6.09203 -2.35612
1.62254 6.09203 -2.35413
1.60206 6.09203 -2.35218
1.58161 6.09203 -2.35025
1.5612 6.09203 -2.34834
1.54082 6.09203 -2.34647
1.52047 6.09203 -2.34461
1.50015 6.09203 -2.34279
1.47987 6.09204 -2.34099
1.45961 6.09204 -2.33922
1.43939 6.09204 -2.33747
1.4192 6.09204 -2.33575
1.39903 6.09204 -2.33405
1.37889 6.09204 -2.33238
1.35879 6.09204 -2.33073
1.33871 6.09204 -2.32911
1.31866 6.09204 -2.32752
1.29863 6.09204 -2.32595
1.27864 6.09204 -2.3244
1.25867 6.09205 -2.32288
1.23872 6.09205 -2.32139
1.2188 6.09205 -2.31992
1.6636 6.09203 -2.41812
1.64305 6.09203 -2.41606
1.62254 6.09203 -2.41402
1.60206 6.09203 -2.41202
1.58161 6.09203 -2.41004
1.5612 6.09203 -2.40809
1.54082 6.09203 -2.40616
1.52047 6.09203 -2.40426
1.50015 6.09203 -2.40239
1.47987 6.09204 -2.40054
1.45961 6.09204 -2.39873
1.43939 6.09204 -2.39693
1.4192 6.09204 -2.39517
1.39903 6.09204 -2.39343
1.37889 6.09204 -2.39171
1.35879 6.09204 -2.39003
1.33871 6.09204 -2.38837
1.31866 6.09204 -2.38673
1.29863 6.09204 -2.38512
1.27864 6.09204 -2.38354
1.25867 6.09205 -2.38198
1.23872 6.09205 -2.38044
1.2188 6.09205 -2.37894
1.58161 6.09203 -2.47021
1.5612 6.09203 -2.46821
1.54082 6.09203 -2.46624
1.52047 6.09203 -2.46429
1.50015 6.09203 -2.46237
1.47987 6.09204 -2.46048
1.45961 6.09204 -2.45862
1.43939 6.09204 -2.45678
1.41919 6.09204 -2.45497
1.39903 6.09204 -2.45319
1.37889 6.09204 -2.45143
1.35879 6.09204 -2.4497
1.33871 6.09204 -2.448
1.31866 6.09204 -2.44632
1.29863 6.09204 -2.44467
2.32821 7.20575 -1.72838
2.22034 6.94665 -1.66455
2.32043 6.88383 -1.72169
2.26325 6.78474 -1.69512
2.20775 6.68852 -1.66933
2.16471 6.62824 -1.65258
2.1321 6.59877 -1.64355
2.09981 6.56957 -1.63462
2.34812 6.68629 -1.74189
2.30169 6.62075 -1.72292
2.26825 6.59147 -1.71343
2.23516 6.56246 -1.70405
2.20241 6.53371 -1.69477
2.17 6.50523 -1.6856
2.13793 6.477 -1.67653
2.10261 6.4381 -1.66474
2.06373 6.3872 -1.64989
2.03314 6.36099 -1.64145
2.33053 6.5699 -1.77504
2.2897 6.51994 -1.75958
2.24957 6.47084 -1.74441
2.21012 6.42254 -1.7295
2.17483 6.38531 -1.71762
2.14411 6.36073 -1.70918
2.11749 6.34779 -1.7039
2.09103 6.33491 -1.69867
2.06472 6.32209 -1.69348
2.03857 6.30933 -1.68833
2.01257 6.29662 -1.68322
2.36786 6.60894 -1.84985
2.30146 6.48795 -1.81395
2.26139 6.43932 -1.79835
2.22199 6.3915 -1.78303
2.18456 6.34828 -1.76905
2.15683 6.33248 -1.76274
2.12963 6.3178 -1.75678
2.10284 6.30389 -1.75106
2.07622 6.29005 -1.74539
2.04977 6.2763 -1.73977
2.02348 6.26263 -1.7342
1.99736 6.24902 -1.72868
2.33558 6.51886 -1.88633
2.27299 6.40769 -1.85207
2.23365 6.36033 -1.83634
2.19913 6.32573 -1.82434
2.17141 6.31005 -1.81784
2.14389 6.29448 -1.8114
2.11664 6.27925 -1.80508
2.09005 6.26554 -1.79924
2.06364 6.25192 -1.79345
2.03738 6.23837 -1.78772
2.01129 6.2249 -1.78203
1.98536 6.2115 -1.77639
2.30619 6.43681 -1.92377
2.24509 6.32903 -1.88943
2.21355 6.3031 -1.8796
2.18586 6.28756 -1.8729
2.15835 6.27211 -1.86626
2.13104 6.25677 -1.85969
2.10392 6.24152 -1.85318
2.07736 6.2275 -1.84706
2.05114 6.21408 -1.84115
2.02509 6.20073 -1.8353
1.9992 6.18746 -1.8295
1.97346 6.17426 -1.82374
2.39516 6.61937 -2.04386
2.29841 6.41511 -1.97855
2.23291 6.2947 -1.93923
2.20301 6.27309 -1.93042
2.17339 6.25169 -1.92172
2.14539 6.23445 -1.91433
2.11829 6.21933 -1.90763
2.09137 6.2043 -1.90099
2.06476 6.18973 -1.89452
2.03875 6.17651 -1.8885
2.01354 6.16538 -1.88315
1.99082 6.16153 -1.88005
1.96817 6.15769 -1.87697
2.38814 6.59996 -2.10127
2.29066 6.39347 -2.03322
2.23237 6.29317 -1.99908
2.20178 6.26959 -1.98937
2.17218 6.24822 -1.98041
2.14284 6.22704 -1.97155
2.11377 6.20604 -1.96278
2.08495 6.18523 -1.95411
2.05641 6.16469 -1.94556
2.0323 6.15699 -1.9411
2.00927 6.15229 -1.93761
1.9866 6.14847 -1.93443
1.964 6.14466 -1.93127
2.38112 6.58058 -2.15864
2.28292 6.37187 -2.0878
2.23183 6.29164 -2.0592
2.20099 6.26735 -2.04897
2.17097 6.24474 -2.03933
2.14165 6.22358 -2.0302
2.1126 6.20261 -2.02118
2.0838 6.18183 -2.01226
2.05629 6.16434 -2.00445
2.03218 6.15664 -1.99985
2.00818 6.14897 -1.99529
1.98429 6.14134 -1.99078
1.96051 6.13374 -1.9863
2.37411 6.5612 -2.21595
2.27519 6.3503 -2.14229
2.23128 6.29009 -2.1196
2.20046 6.26582 -2.10907
2.16994 6.24179 -2.09867
2.14046 6.22011 -2.0891
2.11143 6.19917 -2.07982
2.08265 6.17841 -2.07065
2.05617 6.16399 -2.06363
2.03207 6.15628 -2.0589
2.00807 6.14862 -2.05421
1.98418 6.14099 -2.04956
1.9604 6.13339 -2.04495
2.26748 6.32877 -2.1967
2.23073 6.28854 -2.18029
2.19992 6.26428 -2.16946
2.16941 6.24026 -2.15876
2.13926 6.21662 -2.14824
2.11025 6.19571 -2.13871
2.08149 6.17498 -2.12928
2.05606 6.16363 -2.12312
2.03195 6.15593 -2.11825
2.00795 6.14826 -2.11342
1.98407 6.14064 -2.10864
1.96028 6.13304 -2.1039
2.26128 6.31148 -2.25254
2.23017 6.28699 -2.24128
2.19938 6.26274 -2.23015
2.16888 6.23873 -2.21916
2.13869 6.21496 -2.20829
2.10906 6.19223 -2.19784
2.08033 6.17153 -2.18816
2.05594 6.16327 -2.18292
2.03183 6.15557 -2.17792
2.00784 6.14791 -2.17296
1.98392 6.14019 -2.16801
1.96002 6.1322 -2.16299
2.10827 6.18991 -2.25767
2.08003 6.17065 -2.24824
2.05579 6.16283 -2.24302
2.03156 6.15473 -2.23774
2.00743 6.14667 -2.23249
1.98343 6.13865 -2.2273
1.95953 6.13066 -2.22215
-2.26855 6.5722 -1.40552
-2.322 6.65914 -1.42567
-2.22659 6.45064 -1.43866
-2.25808 6.47582 -1.44585
-2.20647 6.39235 -1.48446
-2.24051 6.42543 -1.49377
-2.2793 6.47121 -1.50607
-2.18948 6.34312 -1.5316
-2.22315 6.37564 -1.54113
-2.25723 6.40855 -1.55079
-2.30484 6.47868 -1.5695
-2.17268 6.29446 -1.57818
-2.20599 6.32643 -1.58793
-2.23971 6.35878 -1.59781
-2.27384 6.39153 -1.60782
-2.33036 6.4858 -1.63337
-2.16029 6.25855 -1.62742
-2.18902 6.27778 -1.6342
-2.22238 6.30959 -1.64429
-2.25614 6.34177 -1.65451
-2.29282 6.38132 -1.6667
-2.35581 6.49246 -1.69766
-2.15824 6.25261 -1.68429
-2.18382 6.26285 -1.68889
-2.20954 6.27315 -1.69353
-2.23864 6.29258 -1.70066
-2.27244 6.3246 -1.71124
-2.31763 6.38724 -1.73015
-2.38123 6.49873 -1.76237
-2.15618 6.24665 -1.74129
-2.18173 6.25687 -1.74604
-2.20743 6.26714 -1.75083
-2.23326 6.27746 -1.75567
-2.25924 6.28785 -1.76055
-2.28861 6.30725 -1.76799
-2.35109 6.41647 -1.80067
-2.15412 6.24068 -1.79844
-2.17964 6.25087 -1.80334
-2.20531 6.26111 -1.80828
-2.23124 6.27179 -1.81338
-2.25836 6.28541 -1.81936
-2.28566 6.29913 -1.8254
-2.36731 6.46075 -1.87439
-2.1557 6.24527 -1.85888
-2.18237 6.25868 -1.8649
-2.20921 6.2722 -1.87099
-2.23622 6.2858 -1.87713
-2.26342 6.2995 -1.88334
-2.2908 6.31329 -1.8896
-2.38383 6.50583 -1.94946
-2.15794 6.25176 -1.92027
-2.18574 6.26837 -1.92747
-2.21375 6.2851 -1.93475
-2.24125 6.29993 -1.94147
-2.26853 6.31371 -1.9479
-2.31792 6.38802 -1.97307
-2.155 6.24323 -1.97731
-2.18275 6.25978 -1.98472
-2.21274 6.28224 -1.99403
-2.24413 6.30802 -2.00444
-2.27585 6.33408 -2.01499
-2.16171 6.26267 -2.04362
-2.19265 6.28819 -2.05419
-2.22393 6.31399 -2.06489
-2.25553 6.34007 -2.07572
-2.17263 6.29432 -2.11471
-2.20379 6.32013 -2.1257
-2.23528 6.34623 -2.13683
-2.17822 6.31052 -2.1814
0.179733 7.22551 -1.02805
0.156506 7.20299 -1.02477
0.133425 7.18048 -1.0215
0.110487 7.15799 -1.01825
0.0876921 7.1355 -1.015
0.0650421 7.11302 -1.01177
0.0425343 7.09055 -1.00855
0.0201715 7.06911 -1.00549
-0.00205537 7.0491 -1.00264
-0.0241576 7.02908 -0.999796
-0.0461364 7.00905 -0.996963
-0.0680473 6.99546 -0.995056
-0.0899473 6.98716 -0.99391
-0.111794 6.97883 -0.99277
-0.133593 6.97046 -0.991635
-0.155333 6.96207 -0.990506
-0.177028 6.95365 -0.989382
-0.198674 6.9452 -0.988264
-0.220266 6.93672 -0.987151
-0.241811 6.92821 -0.986044
-0.263304 6.91968 -0.984942
-0.284753 6.91111 -0.983845
-0.306454 6.90944 -0.983739
-0.32845 6.91408 -0.984542
-0.350482 6.91868 -0.985349
-0.372548 6.92324 -0.986161
-0.394648 6.92776 -0.986977
-0.416781 6.93224 -0.987797
-0.438948 6.93668 -0.988621
-0.46115 6.94108 -0.98945
-0.483386 6.94543 -0.990283
-0.505654 6.94975 -0.99112
-0.527959 6.95403 -0.991962
-0.550295 6.95826 -0.992809
-0.572666 6.96246 -0.993659
-0.595071 6.96661 -0.994514
-0.617514 6.97073 -0.995373
-0.63999 6.9748 -0.996237
-0.662501 6.97883 -0.997106
-0.685046 6.98282 -0.997979
-0.707628 6.98676 -0.998856
-0.730243 6.99067 -0.999738
-0.752893 6.99453 -1.00062
-0.775578 6.99835 -1.00151
-0.798728 7.0059 -1.00295
-0.822285 7.01639 -1.00482
-0.845867 7.02636 -1.00662
-0.869276 7.0343 -1.00814
-0.892741 7.04213 -1.00966
-0.918731 7.06889 -1.01391
-0.950314 7.13622 -1.02399
-0.982507 7.20474 -1.03426
0.387474 7.27979 -1.0988
0.359185 7.17329 -1.08255
0.331443 7.06404 -1.0659
0.305781 6.98638 -1.05404
0.282394 6.95253 -1.04879
0.259234 6.91897 -1.0436
0.236303 6.88569 -1.03846
0.213601 6.85269 -1.03338
0.191109 6.81996 -1.02835
0.169184 6.80143 -1.02547
0.147621 6.79401 -1.02427
0.126104 6.78656 -1.02309
0.104638 6.77908 -1.0219
0.0832192 6.77157 -1.02073
0.0618486 6.76404 -1.01956
0.0405295 6.75647 -1.01839
0.0192567 6.74888 -1.01723
-0.0019678 6.74125 -1.01608
-0.0231486 6.73517 -1.01517
-0.0442983 6.72975 -1.01437
-0.0654105 6.72429 -1.01357
-0.0864932 6.71881 -1.01278
-0.10754 6.71331 -1.012
-0.128558 6.70777 -1.01122
-0.149535 6.70221 -1.01045
-0.170485 6.69663 -1.00968
-0.191402 6.69101 -1.00892
-0.212286 6.68538 -1.00817
-0.233139 6.67971 -1.00742
-0.253959 6.67402 -1.00667
-0.274748 6.6683 -1.00594
-0.295601 6.66473 -1.00553
-0.316742 6.66761 -1.00611
-0.337909 6.67045 -1.0067
-0.359099 6.67327 -1.00729
-0.380309 6.67605 -1.00788
-0.401544 6.6788 -1.00848
-0.422802 6.68151 -1.00909
-0.444082 6.68419 -1.0097
-0.465388 6.68685 -1.01032
-0.486717 6.68946 -1.01094
-0.508069 6.69205 -1.01157
-0.529444 6.6946 -1.0122
-0.550841 6.69712 -1.01284
-0.572264 6.6996 -1.01348
-0.593714 6.70206 -1.01413
-0.615187 6.70448 -1.01478
-0.636685 6.70687 -1.01544
-0.658205 6.70922 -1.01611
-0.679753 6.71154 -1.01678
-0.701324 6.71383 -1.01745
-0.72292 6.71608 -1.01813
-0.744543 6.7183 -1.01882
-0.766188 6.72049 -1.01951
-0.787861 6.72264 -1.02021
-0.809559 6.72476 -1.02091
-0.831282 6.72685 -1.02162
-0.853031 6.7289 -1.02234
-0.874774 6.73068 -1.02302
-0.896527 6.7323 -1.02369
-0.91873 6.73705 -1.02485
-0.942818 6.75493 -1.02801
-0.967827 6.77833 -1.03203
-0.993084 6.80226 -1.03614
-1.01855 6.82644 -1.04031
-1.04422 6.85075 -1.04451
-1.07008 6.8752 -1.04875
-1.09615 6.89979 -1.05302
-1.12241 6.92451 -1.05732
-1.14889 6.94938 -1.06167
-1.17557 6.97439 -1.06605
-1.20246 6.99954 -1.07047
-1.23626 7.06307 -1.08077
-1.27253 7.13801 -1.09285
-1.31009 7.21727 -1.10561
0.566317 7.2144 -1.15233
0.53574 7.1115 -1.13562
0.505655 7.00622 -1.11855
0.480896 6.9684 -1.11226
0.456687 6.93509 -1.10671
0.432713 6.90206 -1.10122
0.408974 6.86931 -1.09578
0.385466 6.83683 -1.0904
0.362172 6.8044 -1.08504
0.339097 6.77211 -1.07972
0.316243 6.74009 -1.07445
0.293655 6.70931 -1.06939
0.271596 6.68667 -1.06564
0.24969 6.66416 -1.06192
0.227933 6.64177 -1.05823
0.206332 6.6195 -1.05458
0.184872 6.59734 -1.05095
0.163897 6.58886 -1.04951
0.143052 6.58375 -1.04862
0.12224 6.57861 -1.04773
0.101464 6.57344 -1.04686
0.0807208 6.56824 -1.04598
0.0600114 6.56302 -1.04512
0.0393383 6.55778 -1.04426
0.0186974 6.55251 -1.0434
-0.00190907 6.54722 -1.04256
-0.0224833 6.54189 -1.04171
-0.043025 6.53655 -1.04088
-0.0635318 6.53118 -1.04005
-0.0840078 6.52578 -1.03923
-0.104449 6.52036 -1.03841
-0.124861 6.51491 -1.0376
-0.145235 6.50945 -1.0368
-0.165578 6.50395 -1.036
-0.185892 6.49843 -1.03521
-0.206173 6.49288 -1.03442
-0.226422 6.48731 -1.03365
-0.246641 6.48171 -1.03287
-0.266856 6.47674 -1.03221
-0.287137 6.47391 -1.0319
-0.307544 6.474 -1.03206
-0.328004 6.47498 -1.03238
-0.348488 6.47608 -1.03272
-0.36898 6.47716 -1.03307
-0.389488 6.47827 -1.03344
-0.41008 6.48049 -1.03399
-0.430693 6.48267 -1.03455
-0.451327 6.48481 -1.03512
-0.471979 6.48692 -1.03568
-0.492653 6.48899 -1.03626
-0.513344 6.49103 -1.03684
-0.534055 6.49304 -1.03742
-0.554788 6.495 -1.03801
-0.575541 6.49694 -1.0386
-0.596317 6.49883 -1.0392
-0.617112 6.5007 -1.0398
-0.637927 6.50252 -1.04041
-0.658763 6.50431 -1.04102
-0.679622 6.50607 -1.04164
-0.700499 6.50779 -1.04226
-0.721397 6.50947 -1.04289
-0.742319 6.51112 -1.04352
-0.763259 6.51273 -1.04416
-0.784223 6.51431 -1.04481
-0.805207 6.51585 -1.04545
-0.826212 6.51735 -1.04611
-0.84724 6.51882 -1.04676
-0.868289 6.52026 -1.04743
-0.889355 6.52165 -1.0481
-0.910493 6.52333 -1.04882
-0.933676 6.53914 -1.05183
-0.956986 6.555 -1.05486
-0.980427 6.57091 -1.05791
-1.004 6.58687 -1.06098
-1.0277 6.60288 -1.06408
-1.05153 6.61894 -1.06719
-1.0755 6.63505 -1.07033
-1.09959 6.65122 -1.07349
-1.12383 6.66744 -1.07668
-1.1482 6.68371 -1.07988
-1.17271 6.70003 -1.08311
-1.19737 6.71641 -1.08636
-1.22216 6.73284 -1.08963
-1.24816 6.75512 -1.09387
-1.27442 6.77788 -1.0982
-1.30088 6.80075 -1.10256
-1.32754 6.82375 -1.10696
-1.3544 6.84688 -1.1114
-1.38147 6.87012 -1.11587
-1.41064 6.90279 -1.12189
-1.44174 6.94356 -1.12925
-1.47323 6.98479 -1.1367
-1.5243 7.11604 -1.15884
0.708607 7.0374 -1.18663
0.680586 6.97925 -1.17646
0.655287 6.94591 -1.17049
0.630237 6.91284 -1.16458
0.605441 6.88006 -1.15873
0.580882 6.84755 -1.15294
0.556561 6.8153 -1.14721
0.532478 6.78332 -1.14154
0.508627 6.7516 -1.13592
0.485006 6.72013 -1.13037
0.461763 6.69114 -1.12524
0.439158 6.6689 -1.12126
0.41671 6.64678 -1.11732
0.394415 6.62477 -1.1134
0.372276 6.60288 -1.10952
0.350286 6.5811 -1.10567
0.328448 6.55944 -1.10186
0.306756 6.53789 -1.09807
0.285215 6.51646 -1.09431
0.263816 6.49513 -1.09058
0.242597 6.47483 -1.08704
0.221526 6.45507 -1.0836
0.200699 6.43876 -1.08075
0.180014 6.42399 -1.07817
0.159745 6.42198 -1.07775
0.139491 6.41994 -1.07733
0.119252 6.41789 -1.07691
0.0990304 6.41581 -1.07651
0.0788192 6.4137 -1.07611
0.0586277 6.41158 -1.07571
0.0384477 6.40942 -1.07533
0.0182826 6.40725 -1.07495
-0.00186918 6.40505 -1.07457
-0.022008 6.40283 -1.07421
-0.0421304 6.40058 -1.07385
-0.0622392 6.39831 -1.07349
-0.0823375 6.39602 -1.07315
-0.102423 6.3937 -1.07281
-0.122495 6.39136 -1.07247
-0.142547 6.389 -1.07215
-0.162593 6.38661 -1.07183
-0.182627 6.3842 -1.07151
-0.202645 6.38177 -1.07121
-0.222653 6.37931 -1.07091
-0.242649 6.37683 -1.07061
-0.262727 6.37657 -1.0707
-0.282831 6.37681 -1.07089
-0.302969 6.37769 -1.07119
-0.323123 6.37856 -1.0715
-0.343285 6.37942 -1.07182
-0.363457 6.38025 -1.07215
-0.383645 6.38107 -1.07248
-0.403839 6.38187 -1.07283
-0.42405 6.38265 -1.07318
-0.444271 6.38342 -1.07354
-0.464503 6.38416 -1.0739
-0.484749 6.38489 -1.07427
-0.505008 6.3856 -1.07466
-0.525275 6.38629 -1.07505
-0.54556 6.38697 -1.07544
-0.565859 6.38762 -1.07585
-0.586172 6.38826 -1.07626
-0.606497 6.38888 -1.07668
-0.626838 6.38949 -1.07711
-0.647194 6.39007 -1.07754
-0.667564 6.39064 -1.07799
-0.687948 6.39118 -1.07844
-0.708348 6.39171 -1.0789
-0.728763 6.39222 -1.07937
-0.749193 6.39272 -1.07984
-0.769642 6.39319 -1.08033
-0.790105 6.39365 -1.08082
-0.810587 6.39408 -1.08132
-0.831094 6.39458 -1.08184
-0.851629 6.39516 -1.08238
-0.872181 6.39571 -1.08294
-0.892756 6.39625 -1.0835
-0.913349 6.39677 -1.08407
-0.934073 6.39806 -1.08478
-0.955722 6.40533 -1.08652
-0.977435 6.41261 -1.08827
-0.999215 6.41989 -1.09003
-1.02106 6.42716 -1.09181
-1.04298 6.43444 -1.09359
-1.06504 6.44221 -1.09548
-1.08743 6.4515 -1.09763
-1.10991 6.46079 -1.0998
-1.13277 6.47184 -1.10228
-1.15646 6.48698 -1.10548
-1.18028 6.50216 -1.10869
-1.20423 6.51739 -1.11193
-1.22831 6.53266 -1.11519
-1.25253 6.54798 -1.11847
-1.27688 6.56334 -1.12178
-1.30136 6.57876 -1.1251
-1.32599 6.59422 -1.12846
-1.35075 6.60973 -1.13183
-1.37565 6.62529 -1.13523
-1.40187 6.64648 -1.13961
-1.4291 6.67156 -1.14468
-1.45709 6.6993 -1.15022
-1.48584 6.7295 -1.1562
-1.51664 6.76782 -1.1636
-1.54782 6.80655 -1.17109
-1.57938 6.84571 -1.17867
-1.61134 6.88531 -1.18636
-1.64371 6.92537 -1.19414
-1.68029 6.98168 -1.20476
0.815655 6.99512 -1.24178
0.786625 6.93572 -1.2308
0.758103 6.87732 -1.22
0.730066 6.81986 -1.2094
0.702505 6.76334 -1.19897
0.677348 6.72695 -1.19214
0.652973 6.69609 -1.1863
0.629259 6.67001 -1.18132
0.606109 6.64818 -1.17712
0.583163 6.6269 -1.17302
0.560448 6.60666 -1.16912
0.537878 6.58652 -1.16525
0.515456 6.56647 -1.16141
0.493178 6.54653 -1.1576
0.471044 6.52668 -1.15382
0.449048 6.50691 -1.15007
0.427197 6.48726 -1.14636
0.405482 6.46769 -1.14267
0.383904 6.44821 -1.13901
0.362462 6.42882 -1.13538
0.341328 6.41279 -1.13235
0.320375 6.39822 -1.12959
0.299524 6.3837 -1.12686
0.278772 6.36922 -1.12414
0.258379 6.36125 -1.12258
0.238149 6.35613 -1.12154
0.218063 6.35416 -1.12107
0.198 6.35219 -1.12061
0.177976 6.35129 -1.12034
0.157981 6.35105 -1.12021
0.137995 6.35105 -1.12013
0.118012 6.35106 -1.12006
0.0980306 6.35105 -1.11999
0.0780516 6.35105 -1.11994
0.0580729 6.35104 -1.11991
0.0380987 6.35102 -1.11988
0.0181223 6.35099 -1.11986
-0.00185264 6.35097 -1.11985
-0.0218271 6.35093 -1.11985
-0.0418042 6.35089 -1.11986
-0.0617788 6.35085 -1.11988
-0.0817553 6.3508 -1.11991
-0.101733 6.35074 -1.11995
-0.121713 6.35068 -1.12
-0.14169 6.35062 -1.12006
-0.161673 6.35055 -1.12014
-0.181661 6.35047 -1.12022
-0.201648 6.35039 -1.12031
-0.22164 6.3503 -1.12041
-0.241638 6.35021 -1.12052
-0.261642 6.3502 -1.12066
-0.281651 6.35022 -1.12082
-0.301665 6.35024 -1.12098
-0.321688 6.35025 -1.12116
-0.341719 6.3503 -1.12135
-0.361765 6.35051 -1.12158
-0.381819 6.35072 -1.12182
-0.401881 6.35092 -1.12208
-0.421955 6.35112 -1.12234
-0.442036 6.35131 -1.12262
-0.462126 6.35149 -1.1229
-0.482227 6.35167 -1.12319
-0.502337 6.35185 -1.1235
-0.522457 6.35202 -1.12381
-0.542588 6.35218 -1.12414
-0.562733 6.35234 -1.12447
-0.58289 6.35249 -1.12482
-0.603057 6.35264 -1.12518
-0.623237 6.35278 -1.12554
-0.64343 6.35292 -1.12592
-0.663638 6.35305 -1.12631
-0.683857 6.35317 -1.12671
-0.704091 6.3533 -1.12712
-0.724338 6.35341 -1.12753
-0.7446 6.35352 -1.12796
-0.764879 6.35362 -1.1284
-0.785172 6.35372 -1.12885
-0.805481 6.35381 -1.12932
-0.825805 6.3539 -1.12979
-0.846148 6.35398 -1.13027
-0.866502 6.35406 -1.13076
-0.886876 6.35413 -1.13126
-0.907269 6.3542 -1.13178
-0.927679 6.35426 -1.1323
-0.948164 6.35468 -1.13291
-0.968893 6.35657 -1.13378
-0.989652 6.35844 -1.13466
-1.01044 6.36032 -1.13556
-1.03127 6.3622 -1.13647
-1.05212 6.36407 -1.13739
-1.07301 6.36593 -1.13832
-1.09393 6.3678 -1.13926
-1.11489 6.36966 -1.14022
-1.13588 6.37152 -1.14118
-1.15691 6.37338 -1.14216
-1.17797 6.37524 -1.14315
-1.19906 6.37709 -1.14416
-1.22072 6.38171 -1.14567
-1.2429 6.38867 -1.14761
-1.2652 6.39595 -1.14963
-1.28791 6.40486 -1.15196
-1.31071 6.41378 -1.15429
-1.33359 6.4227 -1.15665
-1.35656 6.43163 -1.15902
-1.38023 6.44342 -1.16192
-1.4043 6.45658 -1.16508
-1.43037 6.47827 -1.16981
-1.45698 6.50162 -1.17484
-1.48382 6.52512 -1.17993
-1.51101 6.54936 -1.18516
-1.53892 6.57585 -1.19083
-1.56709 6.60253 -1.19655
-1.59551 6.62943 -1.20232
-1.6242 6.65653 -1.20816
-1.65403 6.68739 -1.2147
-1.68654 6.72796 -1.22303
-1.72414 6.78738 -1.23481
-1.76265 6.84865 -1.24696
-1.802 6.9114 -1.25941
-1.84212 6.97533 -1.27211
-1.91787 7.17074 -1.30884
-1.95498 7.21847 -1.31866
-1.99261 7.26675 -1.32862
0.926174 6.98608 -1.30309
0.896186 6.92704 -1.29155
0.866716 6.86898 -1.28021
0.837753 6.81186 -1.26907
0.809461 6.75718 -1.2584
0.781662 6.7036 -1.24796
0.754996 6.65683 -1.2388
0.729909 6.62155 -1.2318
0.705098 6.58663 -1.22489
0.680884 6.55517 -1.21863
0.658075 6.53554 -1.21459
0.635411 6.51599 -1.21058
0.612893 6.49654 -1.2066
0.590519 6.47718 -1.20266
0.568293 6.45791 -1.19874
0.546202 6.43873 -1.19486
0.524251 6.41964 -1.191
0.502438 6.40064 -1.18718
0.481035 6.38533 -1.18405
0.459813 6.37106 -1.18113
0.439016 6.36151 -1.1791
0.418573 6.35628 -1.17788
0.398169 6.35105 -1.17667
0.377808 6.34582 -1.17548
0.357488 6.34059 -1.1743
0.337342 6.33792 -1.1736
0.317259 6.33599 -1.17305
0.297192 6.33405 -1.17251
0.277147 6.33211 -1.17199
0.257116 6.33017 -1.17147
0.237103 6.32822 -1.17097
0.217106 6.32627 -1.17047
0.197176 6.32576 -1.17026
0.177255 6.32553 -1.17011
0.15734 6.32529 -1.16997
0.13743 6.32505 -1.16983
0.117526 6.32485 -1.16972
0.0976262 6.32485 -1.16966
0.0777296 6.32484 -1.16961
0.0578333 6.32483 -1.16957
0.0379408 6.32482 -1.16954
0.0180476 6.32479 -1.16952
-0.00184499 6.32477 -1.16951
-0.021737 6.32473 -1.16951
-0.0416317 6.32469 -1.16952
-0.0615254 6.32465 -1.16954
-0.081418 6.3246 -1.16957
-0.101312 6.32454 -1.16962
-0.121211 6.32448 -1.16967
-0.141105 6.32441 -1.16973
-0.161007 6.32434 -1.16981
-0.180911 6.32426 -1.16989
-0.200816 6.32418 -1.16999
-0.220725 6.32409 -1.17009
-0.24064 6.32401 -1.17021
-0.260563 6.32403 -1.17036
-0.28049 6.32405 -1.17052
-0.300422 6.32406 -1.1707
-0.320361 6.32407 -1.17088
-0.340306 6.32407 -1.17107
-0.360258 6.32407 -1.17127
-0.380216 6.32406 -1.17149
-0.400181 6.32404 -1.17171
-0.420155 6.32404 -1.17195
-0.440151 6.32423 -1.17224
-0.460155 6.3244 -1.17253
-0.48017 6.32458 -1.17284
-0.500195 6.32474 -1.17315
-0.520226 6.3249 -1.17348
-0.540271 6.32506 -1.17382
-0.560329 6.32521 -1.17417
-0.580399 6.32535 -1.17453
-0.600479 6.32549 -1.1749
-0.620573 6.32562 -1.17528
-0.64068 6.32575 -1.17567
-0.660799 6.32587 -1.17608
-0.68093 6.32599 -1.17649
-0.701076 6.3261 -1.17691
-0.721236 6.3262 -1.17735
-0.741412 6.3263 -1.1778
-0.761601 6.32639 -1.17825
-0.781806 6.32648 -1.17872
-0.802026 6.32656 -1.1792
-0.822262 6.32664 -1.17969
-0.842515 6.32671 -1.18019
-0.86278 6.32677 -1.18071
-0.883067 6.32683 -1.18123
-0.903368 6.32688 -1.18176
-0.923689 6.32693 -1.18231
-0.944029 6.32697 -1.18287
-0.964559 6.32814 -1.18365
-0.985223 6.32999 -1.18456
-1.00592 6.33183 -1.1855
-1.02664 6.33368 -1.18644
-1.0474 6.33552 -1.1874
-1.06819 6.33735 -1.18836
-1.08902 6.33919 -1.18934
-1.10988 6.34102 -1.19034
-1.13077 6.34284 -1.19134
-1.15169 6.34467 -1.19236
-1.17266 6.34649 -1.19339
-1.19365 6.34831 -1.19443
-1.21468 6.35012 -1.19548
-1.23575 6.35194 -1.19655
-1.25685 6.35375 -1.19763
-1.278 6.35555 -1.19872
-1.29918 6.35736 -1.19983
-1.31991 6.35682 -1.20051
-1.34068 6.35638 -1.20121
-1.3621 6.35883 -1.20248
-1.38367 6.36174 -1.20385
-1.40528 6.36465 -1.20523
-1.42694 6.36755 -1.20662
-1.44865 6.37046 -1.20803
-1.47041 6.37336 -1.20945
-1.49386 6.3833 -1.21222
-1.518 6.3957 -1.21548
-1.54263 6.40969 -1.21905
-1.5683 6.42744 -1.22336
-1.59519 6.4495 -1.22851
-1.6246 6.48087 -1.23545
-1.65497 6.51509 -1.24296
-1.6857 6.54967 -1.25056
-1.7168 6.58464 -1.25826
-1.74805 6.61916 -1.2659
-1.77927 6.65254 -1.27335
-1.81084 6.68626 -1.28089
-1.84533 6.72966 -1.29031
-1.88455 6.78886 -1.30279
-1.91512 6.81575 -1.3091
-1.94298 6.83231 -1.31345
-1.971 6.84891 -1.31783
-1.9992 6.86556 -1.32223
-2.02756 6.88225 -1.32667
-2.05632 6.89975 -1.33128
-2.08679 6.92237 -1.33691
-2.1175 6.94511 -1.34258
-2.14844 6.96796 -1.34829
-2.17962 6.99092 -1.35406
-2.21396 7.02327 -1.36166
-2.25064 7.06207 -1.37055
-2.28775 7.10125 -1.37954
-2.32531 7.1408 -1.38864
1.38568 7.65909 -1.50623
1.35807 7.64368 -1.50235
1.33058 7.62815 -1.49847
1.30319 7.61251 -1.49459
1.27592 7.59676 -1.4907
1.21397 7.36978 -1.4454
1.17702 7.28829 -1.42869
1.14121 7.21057 -1.41274
1.10616 7.13438 -1.39713
1.07185 7.05968 -1.38183
1.03655 6.97496 -1.3646
1.00589 6.91816 -1.35287
0.975729 6.86226 -1.34133
0.946073 6.80724 -1.32998
0.916903 6.75308 -1.31883
0.888212 6.69976 -1.30787
0.860449 6.65082 -1.29778
0.834763 6.61575 -1.29042
0.809363 6.58103 -1.28314
0.784241 6.54665 -1.27595
0.759395 6.51262 -1.26885
0.73482 6.47893 -1.26183
0.71051 6.44557 -1.25489
0.686461 6.41254 -1.24803
0.663626 6.38903 -1.24304
0.641449 6.37043 -1.23903
0.620278 6.36082 -1.23677
0.599604 6.35567 -1.2354
0.57897 6.35052 -1.23404
0.55839 6.34537 -1.23269
0.537846 6.34022 -1.23135
0.517344 6.33507 -1.23003
0.496888 6.32993 -1.22872
0.476474 6.32478 -1.22743
0.45623 6.32142 -1.22649
0.436117 6.31954 -1.22585
0.416027 6.31765 -1.22523
0.395956 6.31576 -1.22461
0.375905 6.31386 -1.22401
0.355874 6.31196 -1.22342
0.33586 6.31006 -1.22284
0.315865 6.30815 -1.22227
0.295889 6.30623 -1.22171
0.275931 6.30432 -1.22117
0.255987 6.30239 -1.22063
0.236065 6.30057 -1.22013
0.216216 6.30035 -1.21995
0.196377 6.30013 -1.21978
0.176536 6.2999 -1.21962
0.156703 6.29966 -1.21947
0.136872 6.29942 -1.21934
0.117048 6.29918 -1.21921
0.0972267 6.29893 -1.2191
0.0774091 6.29878 -1.21902
0.057595 6.29877 -1.21898
0.0377844 6.29875 -1.21894
0.0179725 6.29873 -1.21892
-0.00183735 6.2987 -1.21891
-0.0216474 6.29867 -1.21891
-0.0414601 6.29863 -1.21892
-0.0612704 6.29858 -1.21895
-0.0810824 6.29853 -1.21898
-0.100895 6.29848 -1.21902
-0.120712 6.29841 -1.21908
-0.140524 6.29835 -1.21915
-0.160343 6.29827 -1.21922
-0.180165 6.29819 -1.21931
-0.199988 6.29811 -1.21941
-0.219815 6.29802 -1.21952
-0.239649 6.29798 -1.21965
-0.259491 6.298 -1.21981
-0.279336 6.29801 -1.21998
-0.299185 6.29802 -1.22015
-0.319043 6.29802 -1.22034
-0.338905 6.29802 -1.22054
-0.358773 6.29801 -1.22075
-0.378649 6.298 -1.22098
-0.398532 6.29798 -1.22121
-0.418422 6.29795 -1.22145
-0.43832 6.29792 -1.22171
-0.458225 6.29788 -1.22198
-0.47814 6.29784 -1.22225
-0.498063 6.29779 -1.22254
-0.518009 6.29794 -1.22288
-0.537967 6.29809 -1.22323
-0.55794 6.29823 -1.22359
-0.577922 6.29836 -1.22397
-0.597917 6.29849 -1.22435
-0.617923 6.29861 -1.22475
-0.637942 6.29873 -1.22515
-0.657974 6.29884 -1.22557
-0.678021 6.29895 -1.226
-0.698079 6.29905 -1.22644
-0.718152 6.29914 -1.22689
-0.738238 6.29923 -1.22736
-0.758341 6.29931 -1.22783
-0.778457 6.29939 -1.22832
-0.798589 6.29946 -1.22882
-0.818738 6.29952 -1.22932
-0.838903 6.29958 -1.22984
-0.859078 6.29963 -1.23038
-0.879276 6.29968 -1.23092
-0.899489 6.29972 -1.23147
-0.919722 6.29975 -1.23204
-0.939973 6.29978 -1.23262
-0.960252 6.29988 -1.23322
-0.98082 6.3017 -1.23417
-1.00142 6.30351 -1.23514
-1.02205 6.30532 -1.23612
-1.04271 6.30713 -1.23711
-1.0634 6.30894 -1.23811
-1.08413 6.31074 -1.23913
-1.10489 6.31254 -1.24016
-1.12569 6.31433 -1.2412
-1.14651 6.31613 -1.24226
-1.16738 6.31791 -1.24333
-1.18827 6.3197 -1.24441
-1.2092 6.32148 -1.2455
-1.23017 6.32326 -1.24661
-1.25117 6.32504 -1.24773
-1.27192 6.32535 -1.24857
-1.29242 6.32431 -1.24916
-1.31295 6.32332 -1.24978
-1.33364 6.32296 -1.25053
-1.35434 6.3226 -1.25129
-1.37548 6.32409 -1.25244
-1.39695 6.32693 -1.25386
-1.41848 6.32978 -1.25531
-1.44005 6.33262 -1.25676
-1.46166 6.33546 -1.25823
-1.48333 6.3383 -1.25972
-1.50505 6.34114 -1.26122
-1.52681 6.34398 -1.26273
-1.54845 6.34609 -1.26411
-1.56978 6.34678 -1.26523
-1.59262 6.3533 -1.26752
-1.61578 6.36081 -1.27002
-1.63903 6.36833 -1.27255
-1.66454 6.3842 -1.27676
-1.69166 6.40564 -1.2821
-1.71906 6.42742 -1.28754
-1.74669 6.44937 -1.29303
-1.77765 6.48282 -1.30085
-1.80898 6.51665 -1.30878
-1.84011 6.54882 -1.31639
-1.8716 6.58132 -1.3241
-1.89761 6.59388 -1.32782
-1.92367 6.60617 -1.33151
-1.94985 6.61849 -1.33522
-1.97618 6.63083 -1.33896
-2.00255 6.64293 -1.34267
-2.02834 6.65267 -1.34592
-2.05423 6.66242 -1.34919
-2.08024 6.67217 -1.35248
-2.10636 6.68192 -1.3558
-2.13259 6.69168 -1.35913
-2.15895 6.70145 -1.36249
-2.18665 6.715 -1.36663
-2.21507 6.73031 -1.37116
-2.24366 6.74565 -1.37572
-2.27336 6.76382 -1.38088
-2.30418 6.78478 -1.38663
-2.33523 6.80584 -1.39242
1.89555 7.5805 -1.57961
1.84772 7.48923 -1.55938
1.80055 7.39802 -1.5392
1.76089 7.33541 -1.52501
1.72778 7.29852 -1.51621
1.695 7.26188 -1.50748
1.66256 7.22551 -1.49884
1.63046 7.1894 -1.49028
1.5987 7.15355 -1.48179
1.57276 7.14295 -1.47857
1.55033 7.14809 -1.47861
1.52788 7.15312 -1.47865
1.50541 7.15805 -1.47869
1.48291 7.16287 -1.47871
1.46039 7.16758 -1.47873
1.43786 7.17219 -1.47874
1.4134 7.16706 -1.47676
1.38879 7.16087 -1.47457
1.36424 7.15461 -1.47239
1.33975 7.14829 -1.47022
1.31532 7.14191 -1.46805
1.28643 7.11055 -1.46076
1.25232 7.04849 -1.4472
1.21917 6.98947 -1.43428
1.1879 6.93903 -1.42316
1.15709 6.88928 -1.41221
1.12906 6.85431 -1.4043
1.10331 6.8319 -1.39899
1.07774 6.80959 -1.39372
1.05236 6.7874 -1.3885
1.02431 6.74656 -1.37948
0.994731 6.69353 -1.36799
0.965909 6.64321 -1.35707
0.939627 6.60835 -1.34934
0.913635 6.57383 -1.3417
0.887928 6.53967 -1.33415
0.862478 6.50565 -1.32665
0.837079 6.47018 -1.31888
0.811968 6.43508 -1.3112
0.787143 6.40035 -1.30361
0.762597 6.36597 -1.29611
0.740086 6.34703 -1.29177
0.719189 6.34112 -1.2901
0.698344 6.33521 -1.28845
0.677553 6.32931 -1.28681
0.656836 6.32366 -1.28523
0.636231 6.3186 -1.28379
0.615669 6.31354 -1.28236
0.595152 6.30848 -1.28095
0.57479 6.30465 -1.2798
0.554644 6.30282 -1.27907
0.534517 6.30098 -1.27835
0.51441 6.29914 -1.27764
0.494326 6.29729 -1.27694
0.474264 6.29544 -1.27626
0.454222 6.29358 -1.27558
0.434199 6.29172 -1.27492
0.414198 6.28986 -1.27428
0.394215 6.28799 -1.27364
0.374254 6.28611 -1.27302
0.354311 6.28424 -1.2724
0.334385 6.28235 -1.2718
0.31448 6.28046 -1.27121
0.294589 6.27857 -1.27064
0.274721 6.27667 -1.27007
0.254886 6.27525 -1.26962
0.235109 6.27505 -1.26942
0.215341 6.27483 -1.26923
0.195583 6.27461 -1.26906
0.175823 6.27439 -1.26889
0.156069 6.27416 -1.26874
0.13632 6.27392 -1.2686
0.116575 6.27368 -1.26847
0.0968341 6.27344 -1.26835
0.0770946 6.27318 -1.26825
0.0573588 6.27292 -1.26815
0.0376289 6.27282 -1.2681
0.0178992 6.2728 -1.26808
-0.00182981 6.27277 -1.26807
-0.0215583 6.27273 -1.26807
-0.0412894 6.2727 -1.26808
-0.0610162 6.27265 -1.2681
-0.0807478 6.2726 -1.26814
-0.100479 6.27254 -1.26818
-0.120214 6.27248 -1.26824
-0.139946 6.27241 -1.26831
-0.159682 6.27233 -1.26839
-0.179423 6.27225 -1.26848
-0.199164 6.27216 -1.26858
-0.21891 6.27207 -1.2687
-0.238662 6.27208 -1.26884
-0.258422 6.27209 -1.26901
-0.278187 6.2721 -1.26918
-0.297954 6.27211 -1.26936
-0.317729 6.27211 -1.26956
-0.33751 6.2721 -1.26977
-0.357296 6.27209 -1.26999
-0.377091 6.27207 -1.27022
-0.396891 6.27204 -1.27046
-0.416699 6.27201 -1.27071
-0.436513 6.27198 -1.27097
-0.456337 6.27193 -1.27125
-0.476169 6.27189 -1.27154
-0.496009 6.27183 -1.27184
-0.515855 6.27177 -1.27215
-0.535714 6.2717 -1.27247
-0.555584 6.27163 -1.2728
-0.575462 6.27155 -1.27315
-0.595367 6.27163 -1.27354
-0.615287 6.27175 -1.27395
-0.635222 6.27186 -1.27437
-0.655166 6.27196 -1.2748
-0.675125 6.27205 -1.27525
-0.695097 6.27214 -1.2757
-0.715082 6.27223 -1.27617
-0.735083 6.2723 -1.27665
-0.755098 6.27238 -1.27714
-0.775127 6.27244 -1.27765
-0.795173 6.2725 -1.27816
-0.815233 6.27255 -1.27869
-0.835308 6.2726 -1.27923
-0.855398 6.27264 -1.27978
-0.875507 6.27267 -1.28034
-0.895633 6.2727 -1.28091
-0.915775 6.27272 -1.2815
-0.935938 6.27274 -1.2821
-0.956116 6.27275 -1.28271
-0.976441 6.27357 -1.2835
-0.996943 6.27535 -1.2845
-1.01748 6.27713 -1.28551
-1.03804 6.27891 -1.28654
-1.05864 6.28069 -1.28758
-1.07927 6.28246 -1.28863
-1.09994 6.28422 -1.2897
-1.12063 6.28599 -1.29078
-1.14136 6.28775 -1.29187
-1.16213 6.2895 -1.29297
-1.18292 6.29126 -1.29409
-1.20375 6.29301 -1.29522
-1.2245 6.29412 -1.29624
-1.24485 6.29309 -1.29683
-1.26523 6.29205 -1.29743
-1.28561 6.29099 -1.29804
-1.30607 6.29017 -1.29871
-1.32664 6.28979 -1.29948
-1.34723 6.2894 -1.30027
-1.36785 6.28901 -1.30107
-1.3887 6.28955 -1.30208
-1.41008 6.29233 -1.30357
-1.43152 6.29512 -1.30507
-1.453 6.2979 -1.30659
-1.47452 6.30068 -1.30812
-1.4961 6.30345 -1.30967
-1.51773 6.30623 -1.31123
-1.53912 6.30785 -1.31257
-1.56032 6.3085 -1.31372
-1.58155 6.30915 -1.31488
-1.60282 6.30978 -1.31606
-1.62552 6.31585 -1.31838
-1.64864 6.32322 -1.321
-1.67185 6.33062 -1.32364
-1.69515 6.33803 -1.3263
-1.71854 6.34546 -1.32897
-1.74202 6.3529 -1.33167
-1.7656 6.36037 -1.3344
-1.78927 6.36785 -1.33714
-1.81515 6.38283 -1.34148
-1.84301 6.40414 -1.34717
-1.86912 6.41884 -1.35149
-1.89348 6.42714 -1.35449
-1.91795 6.43545 -1.3575
-1.94251 6.44377 -1.36054
-1.96718 6.45209 -1.3636
-1.99195 6.46043 -1.36667
-2.01719 6.46994 -1.37002
-2.04315 6.48141 -1.37381
-2.06925 6.4929 -1.37761
-2.09547 6.50441 -1.38145
-2.12183 6.51593 -1.3853
-2.14832 6.52747 -1.38919
-2.17494 6.53903 -1.3931
-2.20101 6.54858 -1.3966
-2.22703 6.55762 -1.40001
-2.25316 6.56666 -1.40345
-2.27941 6.57571 -1.40691
2.02321 7.13026 -1.56254
1.98994 7.09792 -1.55408
1.95697 7.06577 -1.54568
1.92434 7.03384 -1.53737
1.892 7.00209 -1.52912
1.8641 6.98604 -1.52432
1.83666 6.97115 -1.51981
1.80937 6.95629 -1.51532
1.78222 6.94145 -1.51086
1.75521 6.92663 -1.50642
1.72834 6.91183 -1.50202
1.70176 6.89762 -1.49776
1.67552 6.8843 -1.49371
1.64941 6.87098 -1.48969
1.62342 6.85767 -1.48569
1.59755 6.84438 -1.48171
1.57386 6.83997 -1.47968
1.55185 6.84275 -1.47922
1.52985 6.84548 -1.47876
1.50784 6.84814 -1.47831
1.48584 6.85076 -1.47785
1.46385 6.85332 -1.47741
1.44185 6.85583 -1.47696
1.41986 6.85828 -1.47652
1.39697 6.85629 -1.47514
1.37355 6.8514 -1.47315
1.35017 6.84646 -1.47117
1.32684 6.84145 -1.46919
1.30356 6.83639 -1.46721
1.27308 6.79257 -1.45694
1.24227 6.74528 -1.44595
1.21501 6.71578 -1.4388
1.18944 6.69456 -1.43345
1.16405 6.67344 -1.42813
1.13883 6.65241 -1.42286
1.11396 6.63246 -1.41784
1.08972 6.61546 -1.41346
1.06562 6.59852 -1.40912
1.04172 6.58202 -1.40489
1.01649 6.55603 -1.39865
0.989942 6.52021 -1.39034
0.963706 6.48476 -1.38213
0.937772 6.44969 -1.37402
0.912131 6.41498 -1.36601
0.886782 6.38062 -1.35809
0.861715 6.34661 -1.35027
0.839104 6.32932 -1.34602
0.818101 6.32349 -1.34423
0.797153 6.31767 -1.34245
0.776258 6.31185 -1.34069
0.755417 6.30603 -1.33894
0.734628 6.30022 -1.33721
0.713849 6.29402 -1.33541
0.693072 6.28738 -1.33353
0.672585 6.2829 -1.33213
0.65258 6.28268 -1.33164
0.632568 6.28223 -1.33112
0.612441 6.28044 -1.33032
0.592336 6.27863 -1.32954
0.572253 6.27683 -1.32877
0.552198 6.27502 -1.32801
0.53216 6.2732 -1.32727
0.512143 6.27139 -1.32653
0.492149 6.26956 -1.32581
0.472177 6.26773 -1.32511
0.452224 6.2659 -1.32441
0.43229 6.26406 -1.32373
0.412377 6.26222 -1.32306
0.392486 6.26037 -1.3224
0.37261 6.25852 -1.32176
0.352757 6.25666 -1.32112
0.332919 6.2548 -1.3205
0.3131 6.25293 -1.31989
0.293298 6.25106 -1.3193
0.273555 6.25005 -1.31889
0.253854 6.24985 -1.31868
0.234159 6.24965 -1.31847
0.21447 6.24944 -1.31828
0.194791 6.24923 -1.3181
0.175111 6.24901 -1.31793
0.155438 6.24878 -1.31777
0.135769 6.24855 -1.31763
0.116103 6.24831 -1.31749
0.0964425 6.24807 -1.31737
0.0767829 6.24782 -1.31726
0.0571283 6.24756 -1.31716
0.0374765 6.2473 -1.31708
0.0178268 6.24703 -1.317
-0.00182229 6.24696 -1.31698
-0.0214696 6.24693 -1.31698
-0.0411184 6.24689 -1.317
-0.0607659 6.24684 -1.31702
-0.0804156 6.24679 -1.31706
-0.100067 6.24673 -1.3171
-0.119719 6.24667 -1.31716
-0.13937 6.2466 -1.31723
-0.159025 6.24652 -1.31732
-0.178685 6.24644 -1.31741
-0.198345 6.24635 -1.31752
