ply
format ascii 1.0
comment Created by Open3D
element vertex 1866
property double x
property double y
property double z
end_header
-5.01357 6.9535 -1.80724
-5.04607 6.95245 -1.81108
-5.0787 6.9514 -1.81495
-5.11148 6.95034 -1.81885
-5.14439 6.94927 -1.82279
-5.17744 6.94819 -1.82676
-5.21064 6.9471 -1.83077
-5.24397 6.946 -1.83481
-5.27745 6.94489 -1.83889
-5.31108 6.94378 -1.843
-5.34485 6.94266 -1.84715
-5.37878 6.94152 -1.85133
-5.41286 6.94038 -1.85555
-5.44709 6.93923 -1.8598
-5.48147 6.93807 -1.8641
-5.51601 6.93689 -1.86843
-5.5507 6.93572 -1.87279
-5.62906 6.98852 -1.89182
-5.63084 6.94599 -1.88508
-5.66312 6.94113 -1.88857
-5.69915 6.94068 -1.89331
-5.73535 6.94023 -1.89809
-5.77175 6.93977 -1.90291
-5.80832 6.93931 -1.90778
-5.84508 6.93885 -1.91269
-5.88203 6.93838 -1.91764
-5.91917 6.93791 -1.92264
-5.95651 6.93743 -1.92768
-5.99403 6.93695 -1.93276
-6.03176 6.93646 -1.9379
-6.06968 6.93597 -1.94308
-6.10781 6.93548 -1.9483
-6.14615 6.93498 -1.95357
-6.18469 6.93447 -1.95889
-6.27088 6.98683 -1.97923
-6.26881 6.94057 -1.97169
-6.31907 6.9522 -1.98062
-6.37081 6.96506 -1.98998
-6.42311 6.97812 -1.99946
-6.47592 6.9913 -2.00906
-6.53173 7.0073 -2.01954
-6.64904 7.08839 -2.04891
-3.20413 6.98615 -1.68717
-3.23095 6.98666 -1.68974
-3.25786 6.98717 -1.69233
-3.28415 6.98619 -1.69458
-3.30999 6.98412 -1.69659
-3.33589 6.98205 -1.69862
-3.36186 6.97997 -1.70067
-3.38804 6.9782 -1.70283
-3.41542 6.97873 -1.70557
-3.44289 6.97927 -1.70833
-3.47044 6.9798 -1.71112
-3.49808 6.98033 -1.71393
-3.52563 6.98049 -1.71668
-3.55277 6.97968 -1.71922
-3.58 6.97888 -1.72178
-3.6073 6.97806 -1.72437
-3.63469 6.97725 -1.72698
-3.66215 6.97642 -1.72961
-3.6897 6.9756 -1.73227
-3.71734 6.97476 -1.73495
-3.74506 6.97392 -1.73766
-3.77286 6.97308 -1.74039
-3.80075 6.97223 -1.74315
-3.82873 6.97138 -1.74593
-3.8568 6.97053 -1.74874
-3.88496 6.96967 -1.75158
-3.91321 6.96881 -1.75444
-3.94155 6.96794 -1.75733
-3.96999 6.96707 -1.76025
-3.99851 6.96619 -1.76319
-4.02713 6.96531 -1.76616
-4.05586 6.96442 -1.76915
-4.08467 6.96352 -1.77218
-4.11354 6.96256 -1.77521
-4.14251 6.9616 -1.77827
-4.17158 6.96062 -1.78136
-4.20075 6.95964 -1.78447
-4.23002 6.95866 -1.78762
-4.25939 6.95766 -1.79079
-4.28887 6.95667 -1.79399
-4.31846 6.95566 -1.79722
-4.34814 6.95465 -1.80048
-4.37793 6.95363 -1.80376
-4.40783 6.95261 -1.80708
-4.43785 6.95158 -1.81043
-4.46796 6.95054 -1.8138
-4.49819 6.9495 -1.8172
-4.5286 6.94855 -1.82066
-4.5592 6.94772 -1.82419
-4.58993 6.94689 -1.82775
-4.62076 6.94605 -1.83133
-4.65184 6.94538 -1.835
-4.6835 6.94537 -1.83887
-4.71528 6.94536 -1.84278
-4.7472 6.94535 -1.84672
-4.77859 6.94436 -1.85044
-4.81008 6.94334 -1.85419
-4.8417 6.94232 -1.85796
-4.87344 6.94128 -1.86177
-4.90532 6.94024 -1.86561
-4.93732 6.93918 -1.86949
-4.96945 6.93812 -1.8734
-5.00171 6.93705 -1.87734
-5.03411 6.93598 -1.88132
-5.06664 6.93489 -1.88533
-5.09938 6.93389 -1.8894
-5.13261 6.93335 -1.89363
-5.16598 6.93281 -1.89791
-5.19951 6.93227 -1.90222
-5.23319 6.93172 -1.90657
-5.26702 6.93116 -1.91095
-5.301 6.9306 -1.91538
-5.33514 6.93004 -1.91984
-5.36944 6.92947 -1.92435
-5.4039 6.9289 -1.92889
-5.43853 6.92832 -1.93347
-5.47331 6.92774 -1.9381
-5.50826 6.92715 -1.94276
-5.58213 6.97498 -1.96108
-5.58577 6.93478 -1.9547
-5.62138 6.93432 -1.95954
-5.65719 6.93386 -1.96442
-5.69317 6.93339 -1.96934
-5.72932 6.93292 -1.97431
-5.76566 6.93245 -1.97932
-5.80218 6.93197 -1.98437
-5.83888 6.93149 -1.98947
-5.87578 6.931 -1.99462
-5.91286 6.93051 -1.99981
-5.95014 6.93001 -2.00505
-5.98761 6.92951 -2.01033
-6.02528 6.92901 -2.01566
-6.06314 6.9285 -2.02104
-6.10122 6.92799 -2.02647
-6.13949 6.92747 -2.03195
-6.17797 6.92694 -2.03748
-6.21666 6.92642 -2.04305
-6.3096 6.98573 -2.06638
-6.30928 6.94143 -2.05913
-6.36468 6.95836 -2.07007
-6.42133 6.97619 -2.08136
-6.47852 6.99411 -2.09277
-6.53633 7.01223 -2.10432
-6.71457 7.15825 -2.15445
-3.19629 6.96906 -1.74996
-3.22303 6.96954 -1.75261
-3.24986 6.97002 -1.75529
-3.27642 6.96976 -1.75781
-3.3022 6.96768 -1.75989
-3.32854 6.96665 -1.76226
-3.35569 6.96717 -1.76505
-3.38294 6.96769 -1.76786
-3.41027 6.9682 -1.7707
-3.43769 6.96872 -1.77357
-3.46519 6.96923 -1.77646
-3.49278 6.96974 -1.77937
-3.52044 6.97022 -1.78231
-3.54754 6.9694 -1.78494
-3.57471 6.96858 -1.78759
-3.60197 6.96775 -1.79027
-3.6293 6.96692 -1.79298
-3.65672 6.96608 -1.79571
-3.68422 6.96524 -1.79847
-3.71181 6.96439 -1.80125
-3.73948 6.96354 -1.80405
-3.76723 6.96268 -1.80689
-3.79507 6.96181 -1.80975
-3.823 6.96095 -1.81263
-3.85101 6.96007 -1.81554
-3.87912 6.95919 -1.81848
-3.90731 6.9583 -1.82145
-3.9356 6.95741 -1.82444
-3.96397 6.95652 -1.82746
-3.99244 6.95562 -1.83051
-4.02101 6.95471 -1.83358
-4.04967 6.95381 -1.83669
-4.07843 6.9529 -1.83982
-4.10726 6.95193 -1.84297
-4.13617 6.95094 -1.84614
-4.16519 6.94995 -1.84934
-4.1943 6.94895 -1.85257
-4.22352 6.94795 -1.85583
-4.25283 6.94694 -1.85912
-4.28225 6.94593 -1.86244
-4.31178 6.9449 -1.86578
-4.3414 6.94387 -1.86916
-4.37113 6.94284 -1.87257
-4.40098 6.9418 -1.876
-4.43093 6.94075 -1.87947
-4.46099 6.93969 -1.88297
-4.49116 6.93863 -1.8865
-4.52155 6.93774 -1.89011
-4.55208 6.93688 -1.89376
-4.58274 6.93601 -1.89744
-4.6135 6.93514 -1.90115
-4.6444 6.93427 -1.9049
-4.67564 6.93372 -1.90878
-4.70701 6.93317 -1.91268
-4.7385 6.93262 -1.91663
-4.77013 6.93207 -1.92061
-4.80192 6.93156 -1.92463
-4.83384 6.93104 -1.9287
-4.8659 6.93052 -1.93279
-4.89808 6.93 -1.93693
-4.93041 6.92947 -1.94109
-4.96287 6.92894 -1.9453
-4.99548 6.9284 -1.94954
-5.02822 6.92786 -1.95383
-5.06111 6.92732 -1.95814
-5.09414 6.92677 -1.9625
-5.12732 6.92622 -1.96689
-5.16065 6.92566 -1.97133
-5.19414 6.9251 -1.9758
-5.22776 6.92453 -1.98031
-5.26155 6.92396 -1.98486
-5.29548 6.92338 -1.98946
-5.32957 6.9228 -1.99409
-5.36382 6.92222 -1.99876
-5.39823 6.92163 -2.00348
-5.43281 6.92103 -2.00823
-5.46754 6.92044 -2.01303
-5.50244 6.91983 -2.01787
-5.55153 6.93675 -2.02788
-5.57993 6.92754 -2.03029
-5.6155 6.92706 -2.03531
-5.65125 6.92658 -2.04037
-5.68718 6.9261 -2.04548
-5.72328 6.92561 -2.05064
-5.75956 6.92512 -2.05584
-5.79603 6.92462 -2.06108
-5.83268 6.92412 -2.06637
-5.86952 6.92361 -2.07171
-5.90654 6.9231 -2.0771
-5.94377 6.92259 -2.08253
-5.98117 6.92207 -2.08801
-6.01879 6.92155 -2.09355
-6.05659 6.92102 -2.09913
-6.09461 6.92048 -2.10476
-6.13283 6.91995 -2.11044
-6.17124 6.9194 -2.11618
-6.20987 6.91885 -2.12196
-6.31877 6.99588 -2.15166
-6.31842 6.95148 -2.1441
-6.36361 6.95718 -2.15201
-6.42213 6.97705 -2.16438
-6.48135 6.99716 -2.17692
-6.54095 7.01718 -2.18953
-3.3014 7.19823 -1.87688
-3.299 7.13381 -1.86278
-3.29232 7.06109 -1.84648
-3.28578 6.98967 -1.83049
-3.29681 6.9563 -1.82446
-3.32376 6.95665 -1.82728
-3.35079 6.957 -1.83012
-3.37792 6.95734 -1.83299
-3.40512 6.95769 -1.83589
-3.43248 6.95816 -1.83885
-3.45993 6.95866 -1.84185
-3.48747 6.95915 -1.84487
-3.5151 6.95964 -1.84791
-3.5423 6.9591 -1.85071
-3.56943 6.95827 -1.85346
-3.59663 6.95743 -1.85624
-3.62392 6.95658 -1.85904
-3.65129 6.95573 -1.86187
-3.67874 6.95487 -1.86472
-3.70631 6.95406 -1.86761
-3.73403 6.9534 -1.87058
-3.76186 6.95274 -1.87357
-3.78976 6.95208 -1.87658
-3.81776 6.95141 -1.87963
-3.84585 6.95074 -1.8827
-3.87403 6.95006 -1.88581
-3.9023 6.94938 -1.88894
-3.93067 6.9487 -1.8921
-3.95913 6.94802 -1.89529
-3.98768 6.94733 -1.89851
-4.01629 6.94655 -1.90173
-4.04491 6.94563 -1.90495
-4.07362 6.9447 -1.90819
-4.10249 6.94386 -1.91149
-4.13148 6.94306 -1.91483
-4.16057 6.94225 -1.9182
-4.18976 6.94143 -1.9216
-4.21906 6.94062 -1.92503
-4.24845 6.93979 -1.92849
-4.27796 6.93897 -1.93199
-4.30757 6.93813 -1.93551
-4.33729 6.9373 -1.93907
-4.36712 6.93646 -1.94266
-4.39705 6.93561 -1.94628
-4.42711 6.93476 -1.94993
-4.45725 6.93388 -1.95361
-4.48749 6.93297 -1.95731
-4.51784 6.93205 -1.96105
-4.54831 6.93112 -1.96482
-4.5789 6.9302 -1.96862
-4.6096 6.92926 -1.97245
-4.64043 6.92834 -1.97633
-4.67164 6.92779 -1.98035
-4.70297 6.92722 -1.9844
-4.73443 6.92666 -1.98848
-4.76601 6.92609 -1.99261
-4.79773 6.92552 -1.99677
-4.82958 6.92494 -2.00096
-4.86157 6.92436 -2.0052
-4.89368 6.92378 -2.00947
-4.92594 6.92319 -2.01377
-4.95833 6.92259 -2.01812
-4.99086 6.922 -2.0225
-5.02353 6.92139 -2.02693
-5.05634 6.92079 -2.03139
-5.0893 6.92018 -2.03589
-5.1224 6.91956 -2.04043
-5.15565 6.91895 -2.04501
-5.18906 6.91832 -2.04963
-5.2226 6.91769 -2.0543
-5.2563 6.91706 -2.059
-5.29016 6.91643 -2.06374
-5.32417 6.91578 -2.06853
-5.35834 6.91514 -2.07336
-5.39266 6.91449 -2.07823
-5.42715 6.91383 -2.08315
-5.46184 6.91323 -2.08812
-5.53611 6.96218 -2.10814
-5.53874 6.92077 -2.10086
-5.57409 6.92028 -2.10602
-5.6096 6.91979 -2.11122
-5.6453 6.91929 -2.11646
-5.68118 6.91879 -2.12176
-5.71722 6.91828 -2.12709
-5.75345 6.91777 -2.13248
-5.78987 6.91726 -2.13792
-5.82646 6.91674 -2.1434
-5.86325 6.91621 -2.14893
-5.90021 6.91569 -2.15451
-5.93738 6.91515 -2.16015
-5.97473 6.91461 -2.16583
-6.01229 6.91407 -2.17156
-6.05004 6.91352 -2.17734
-6.08799 6.91297 -2.18318
-6.12615 6.91241 -2.18907
-6.16451 6.91185 -2.19501
-6.20307 6.91128 -2.201
-6.32801 7.0061 -2.23752
-6.32762 6.96161 -2.22964
-3.1838 6.94182 -1.8772
-3.2101 6.94157 -1.87985
-3.23648 6.94131 -1.88252
-3.26293 6.94106 -1.88522
-3.34514 7.05828 -1.9199
-3.33816 6.9868 -1.9033
-3.34717 6.94947 -1.89598
-3.37426 6.9498 -1.89896
-3.40143 6.95013 -1.90196
-3.42868 6.95046 -1.90498
-3.45602 6.95079 -1.90804
-3.48372 6.95166 -1.91127
-3.51196 6.95343 -1.91478
-3.53966 6.95393 -1.91797
-3.56687 6.95328 -1.92087
-3.59415 6.95263 -1.9238
-3.62153 6.95198 -1.92676
-3.64898 6.95132 -1.92974
-3.67652 6.95067 -1.93275
-3.70415 6.95001 -1.93579
-3.73186 6.94934 -1.93886
-3.75966 6.94867 -1.94196
-3.78754 6.948 -1.94509
-3.81552 6.94733 -1.94824
-3.84359 6.94665 -1.95143
-3.87163 6.94576 -1.95458
-3.89975 6.94485 -1.95776
-3.92797 6.94393 -1.96097
-3.95628 6.94302 -1.96421
-3.98468 6.94209 -1.96748
-4.01317 6.94117 -1.97078
-4.04177 6.94023 -1.97411
-4.07046 6.9393 -1.97747
-4.09928 6.93843 -1.98088
-4.12824 6.93761 -1.98433
-4.1573 6.93679 -1.98782
-4.18646 6.93597 -1.99135
-4.21573 6.93514 -1.9949
-4.2451 6.93431 -1.99848
-4.27458 6.93348 -2.0021
-4.30413 6.93259 -2.00574
-4.33378 6.93169 -2.0094
-4.36355 6.93079 -2.0131
-4.39342 6.92988 -2.01684
-4.42341 6.92896 -2.0206
-4.4535 6.92804 -2.0244
-4.48371 6.92712 -2.02824
-4.51403 6.92619 -2.03211
-4.54446 6.92526 -2.03601
-4.57501 6.92432 -2.03994
-4.60568 6.92337 -2.04392
-4.63647 6.92242 -2.04792
-4.66763 6.92184 -2.05208
-4.69892 6.92127 -2.05627
-4.73035 6.92069 -2.0605
-4.7619 6.92011 -2.06477
-4.79358 6.91952 -2.06908
-4.82539 6.91893 -2.07342
-4.85734 6.91834 -2.0778
-4.88955 6.91793 -2.08228
-4.92192 6.91754 -2.0868
-4.95443 6.91715 -2.09137
-4.98708 6.91676 -2.09597
-5.01987 6.91636 -2.10062
-5.05281 6.91596 -2.10531
-5.0859 6.91556 -2.11004
-5.11914 6.91516 -2.11481
-5.15253 6.91475 -2.11962
-5.18607 6.91435 -2.12448
-5.21976 6.91394 -2.12938
-5.25337 6.9132 -2.13422
-5.28679 6.91202 -2.13897
-5.32036 6.91083 -2.14376
-5.35407 6.90963 -2.14859
-5.38794 6.90843 -2.15347
-5.42196 6.90722 -2.15839
-5.45613 6.906 -2.16335
-5.5421 6.9697 -2.18874
-5.5412 6.92384 -2.1798
-5.56824 6.91301 -2.18188
-5.6037 6.9125 -2.18726
-5.63934 6.91199 -2.19269
-5.67517 6.91147 -2.19817
-5.71115 6.91094 -2.20369
-5.74733 6.91041 -2.20927
-5.78369 6.90988 -2.21489
-5.82023 6.90934 -2.22057
-5.85696 6.9088 -2.22629
-5.89387 6.90825 -2.23207
-5.93098 6.9077 -2.2379
-5.96828 6.90714 -2.24378
-6.00578 6.90658 -2.24971
-6.04347 6.90601 -2.25569
-6.08137 6.90544 -2.26173
-6.11946 6.90486 -2.26783
-6.15775 6.90428 -2.27397
-6.19626 6.90369 -2.28018
-3.18091 6.93552 -1.94288
-3.20718 6.93526 -1.94562
-3.23354 6.935 -1.94839
-3.25996 6.93474 -1.95118
-3.28646 6.93447 -1.954
-3.31303 6.93421 -1.95684
-3.39858 7.05621 -1.99428
-3.39115 6.9846 -1.97704
-3.39772 6.94256 -1.96815
-3.42526 6.94353 -1.97146
-3.45328 6.94529 -1.97503
-3.48141 6.94705 -1.97863
-3.50963 6.94881 -1.98226
-3.53761 6.94989 -1.98573
-3.5648 6.94924 -1.98873
-3.59207 6.94859 -1.99176
-3.61942 6.94793 -1.99482
-3.64685 6.94727 -1.99791
-3.67437 6.94661 -2.00103
-3.70191 6.94581 -2.00413
-3.72948 6.94491 -2.00725
-3.75714 6.94402 -2.01039
-3.78488 6.94312 -2.01356
-3.81271 6.94222 -2.01676
-3.84063 6.94131 -2.01999
-3.86864 6.9404 -2.02324
-3.89674 6.93948 -2.02654
-3.92493 6.93856 -2.02985
-3.95321 6.93763 -2.0332
-3.98158 6.9367 -2.03659
-4.01005 6.93576 -2.04
-4.03862 6.93482 -2.04344
-4.06728 6.93388 -2.04692
-4.09606 6.93298 -2.05044
-4.12498 6.93214 -2.05401
-4.15399 6.93126 -2.0576
-4.18309 6.93038 -2.06123
-4.2123 6.92949 -2.06489
-4.24162 6.92862 -2.06859
-4.27105 6.92775 -2.07232
-4.30058 6.92687 -2.07609
-4.33022 6.92599 -2.07989
-4.35997 6.92511 -2.08373
-4.38983 6.92422 -2.0876
-4.41981 6.92333 -2.0915
-4.44989 6.92243 -2.09544
-4.48008 6.92152 -2.09941
-4.51039 6.92062 -2.10342
-4.54082 6.91971 -2.10747
-4.57177 6.91941 -2.11174
-4.60285 6.91912 -2.11605
-4.63405 6.91882 -2.1204
-4.66535 6.91846 -2.12477
-4.69676 6.91808 -2.12917
-4.72831 6.9177 -2.13361
-4.75998 6.91732 -2.1381
-4.79179 6.91694 -2.14262
-4.82373 6.91655 -2.14718
-4.85581 6.91616 -2.15178
-4.88803 6.91577 -2.15642
-4.92038 6.91538 -2.16111
-4.95288 6.91498 -2.16583
-4.98551 6.91458 -2.1706
-5.01827 6.91416 -2.1754
-5.05066 6.91301 -2.18002
-5.08318 6.91185 -2.18468
-5.11583 6.91069 -2.18938
-5.14863 6.90952 -2.19412
-5.18158 6.90835 -2.1989
-5.21465 6.90717 -2.20372
-5.24788 6.90598 -2.20859
-5.28125 6.90478 -2.2135
-5.31477 6.90357 -2.21845
-5.34844 6.90236 -2.22345
-5.38226 6.90114 -2.22849
-5.41623 6.89991 -2.23357
-5.45035 6.89868 -2.2387
-5.55919 6.99119 -2.27438
-5.55764 6.94438 -2.26481
-5.56237 6.90573 -2.25789
-5.59778 6.9052 -2.26345
-5.63337 6.90467 -2.26907
-5.66914 6.90413 -2.27473
-5.70508 6.90359 -2.28044
-5.7412 6.90304 -2.28621
-5.77751 6.90249 -2.29202
-5.81399 6.90193 -2.29789
-5.85067 6.90137 -2.3038
-5.88752 6.90081 -2.30977
-5.92458 6.90024 -2.3158
-5.96181 6.89966 -2.32188
-5.99925 6.89908 -2.32801
-6.03688 6.89849 -2.3342
-6.07472 6.8979 -2.34044
-6.11276 6.8973 -2.34674
-6.151 6.8967 -2.35309
-3.17802 6.92921 -2.00873
-3.20426 6.92895 -2.01155
-3.23059 6.92868 -2.01441
-3.25698 6.9284 -2.0173
-3.28345 6.92813 -2.02021
-3.31 6.92785 -2.02315
-3.33662 6.92757 -2.02611
-3.36333 6.92729 -2.02911
-3.40438 6.95616 -2.04069
-3.42233 6.9376 -2.03838
-3.45048 6.93965 -2.04216
-3.47873 6.94171 -2.04597
-3.50708 6.94377 -2.04982
-3.53541 6.94558 -2.05361
-3.5624 6.94456 -2.05661
-3.58946 6.94355 -2.05964
-3.6166 6.94252 -2.06269
-3.64382 6.94149 -2.06578
-3.67112 6.94046 -2.06889
-3.6985 6.93942 -2.07203
-3.72597 6.93837 -2.0752
-3.75351 6.93732 -2.0784
-3.78114 6.93626 -2.08163
-3.80886 6.93519 -2.08489
-3.83666 6.93412 -2.08818
-3.86454 6.93305 -2.0915
-3.89252 6.93196 -2.09485
-3.92059 6.93088 -2.09823
-3.94874 6.92978 -2.10164
-3.97705 6.9288 -2.10512
-4.00589 6.92858 -2.10886
-4.03485 6.92835 -2.11264
-4.0639 6.92812 -2.11645
-4.09301 6.92781 -2.12027
-4.1219 6.92696 -2.12396
-4.15089 6.9261 -2.12768
-4.17998 6.92523 -2.13144
-4.20918 6.92436 -2.13523
-4.23847 6.92349 -2.13905
-4.26788 6.92261 -2.14291
-4.29738 6.92173 -2.1468
-4.327 6.92084 -2.15073
-4.35672 6.91994 -2.1547
-4.38655 6.91905 -2.15869
-4.41689 6.91875 -2.16292
-4.44734 6.91846 -2.16718
-4.47791 6.91817 -2.17148
-4.50861 6.91787 -2.17582
-4.53942 6.91758 -2.1802
-4.57036 6.91728 -2.18462
-4.60143 6.91698 -2.18908
-4.63262 6.91668 -2.19358
-4.66391 6.91633 -2.1981
-4.69531 6.91594 -2.20265
-4.72684 6.91556 -2.20724
-4.7585 6.91517 -2.21188
-4.7903 6.91479 -2.21656
-4.82184 6.91384 -2.22109
-4.85339 6.91272 -2.22562
-4.88507 6.91159 -2.23018
-4.91688 6.91046 -2.23479
-4.94882 6.90932 -2.23943
-4.98089 6.90817 -2.24412
-5.62515 7.07415 -2.38152
-5.62099 7.02354 -2.37041
-5.6169 6.97343 -2.35944
-5.61286 6.9238 -2.3486
-5.62739 6.89733 -2.34561
-5.66311 6.89678 -2.35145
-5.69899 6.89622 -2.35735
-5.73506 6.89565 -2.3633
-5.77131 6.89509 -2.36931
-5.80774 6.89451 -2.37536
-5.84436 6.89393 -2.38148
-5.88115 6.89335 -2.38764
-5.91815 6.89276 -2.39386
-5.95533 6.89216 -2.40014
-5.99271 6.89156 -2.40647
-6.03029 6.89095 -2.41286
-6.06807 6.89034 -2.4193
-3.17512 6.92289 -2.07474
-3.20133 6.92261 -2.07766
-3.22763 6.92233 -2.0806
-3.254 6.92205 -2.08358
-3.28044 6.92177 -2.08659
-3.30695 6.92148 -2.08962
-3.33355 6.92119 -2.09268
-3.36022 6.9209 -2.09577
-3.41165 6.97102 -2.11418
-3.41902 6.93088 -2.10525
-3.44713 6.93291 -2.10915
-3.47535 6.93496 -2.11308
-3.50364 6.93696 -2.11703
-3.53068 6.93629 -2.1202
-3.55768 6.93537 -2.12332
-3.5847 6.93434 -2.12644
-3.6118 6.9333 -2.12959
-3.63897 6.93226 -2.13277
-3.66623 6.93121 -2.13598
-3.69357 6.93016 -2.13922
-3.72099 6.9291 -2.14249
-3.74849 6.92803 -2.14579
-3.77607 6.92696 -2.14912
-3.80374 6.92589 -2.15248
-3.8315 6.9248 -2.15587
-3.85977 6.92449 -2.15953
-3.8882 6.92427 -2.16326
-3.91672 6.92404 -2.16702
-3.94534 6.92381 -2.17082
-3.97405 6.92358 -2.17465
-4.00287 6.92335 -2.17851
-4.0318 6.92312 -2.18241
-4.06082 6.92288 -2.18635
-4.08995 6.92264 -2.19031
-4.11886 6.92185 -2.19414
-4.14782 6.92098 -2.19799
-4.17689 6.9201 -2.20186
-4.20605 6.91923 -2.20578
-4.23534 6.91837 -2.20973
-4.26509 6.91808 -2.21391
-4.29495 6.9178 -2.21812
-4.32492 6.91751 -2.22237
-4.35501 6.91722 -2.22666
-4.38521 6.91693 -2.23099
-4.41554 6.91663 -2.23535
-4.44598 6.91634 -2.23976
-4.47654 6.91604 -2.2442
-4.50722 6.91574 -2.24869
-5.73812 6.94357 -2.45378
-5.7289 6.88825 -2.44057
-5.7651 6.88766 -2.44677
-5.80147 6.88707 -2.45302
-5.83803 6.88647 -2.45932
-5.87478 6.88587 -2.46568
-5.91172 6.88526 -2.4721
-3.17221 6.91655 -2.14093
-3.1984 6.91626 -2.14393
-3.22467 6.91597 -2.14698
-3.251 6.91569 -2.15004
-3.27742 6.91539 -2.15314
-3.3039 6.9151 -2.15627
-3.33047 6.9148 -2.15942
-3.35712 6.9145 -2.16261
-3.41899 6.98601 -2.18833
-3.41808 6.92898 -2.17381
-3.44378 6.92616 -2.17631
-3.47196 6.92819 -2.18036
-3.49894 6.92766 -2.18364
-3.52594 6.92698 -2.18691
-3.55295 6.92615 -2.19016
-3.57993 6.92511 -2.19337
-3.60698 6.92406 -2.19661
-3.63411 6.92301 -2.19989
-3.66133 6.92195 -2.2032
-3.68863 6.92089 -2.20653
-3.71632 6.92042 -2.21009
-3.74425 6.9202 -2.21377
-3.77226 6.91997 -2.21747
-3.80037 6.91975 -2.22121
-3.82858 6.91952 -2.22499
-3.85688 6.91929 -2.2288
-3.88527 6.91906 -2.23264
-3.91377 6.91883 -2.23652
-3.94236 6.91859 -2.24044
-3.97105 6.91835 -2.24438
-3.99984 6.91811 -2.24837
-4.02874 6.91786 -2.25239
-3.16929 6.91019 -2.2073
-3.19545 6.90989 -2.2104
-3.22169 6.9096 -2.21354
-3.248 6.9093 -2.2167
-3.27439 6.909 -2.21989
-3.30084 6.90869 -2.22311
-3.32738 6.90839 -2.22636
-3.354 6.90808 -2.22964
-3.42639 7.00114 -2.26314
-3.42544 6.94388 -2.2481
-3.44041 6.91939 -2.24366
-3.46736 6.91902 -2.24706
-3.49424 6.91834 -2.25038
-3.52119 6.91764 -2.25374
-3.54822 6.91692 -2.25713
-3.5754 6.91635 -2.26059
-3.16636 6.90381 -2.27388
-3.1925 6.90351 -2.27707
-3.21871 6.9032 -2.28029
-3.24499 6.90289 -2.28355
-3.27135 6.90258 -2.28683
-3.29777 6.90227 -2.29014
-3.32428 6.90195 -2.29349
-3.16343 6.89741 -2.34066
-3.18953 6.8971 -2.34395
-3.21572 6.89678 -2.34726
-3.24197 6.89647 -2.3506
-3.2683 6.89615 -2.35398
-3.2947 6.89583 -2.35739
-3.16048 6.89099 -2.40767
-3.18656 6.89067 -2.41104
-3.21271 6.89035 -2.41444
-4.27173 8.24557 -1.16374
-4.24914 8.13901 -1.15058
-4.23716 8.05402 -1.14045
-4.22536 7.97046 -1.1305
-4.22303 7.9057 -1.1232
-4.23245 7.86355 -1.1191
-4.1165 8.39476 -1.25068
-4.05671 8.20723 -1.22465
-4.04767 8.12432 -1.21417
-4.03867 8.04258 -1.20386
-4.02894 7.9605 -1.19347
-4.02886 7.89839 -1.18605
-4.039 7.85693 -1.18174
-4.04905 7.81575 -1.17746
-4.05899 7.77479 -1.17321
-4.06863 7.73368 -1.16894
-4.07818 7.69283 -1.1647
-4.08764 7.65224 -1.1605
-4.09818 7.6141 -1.15667
-3.91308 8.37743 -1.31516
-3.85551 8.1867 -1.28712
-3.84851 8.10541 -1.27624
-3.84159 8.0254 -1.26554
-3.83475 7.94663 -1.25502
-3.83776 7.88921 -1.24786
-3.84843 7.8481 -1.24327
-3.85897 7.80718 -1.23871
-3.86941 7.76654 -1.23419
-3.87976 7.72614 -1.22971
-3.89001 7.686 -1.22527
-3.90017 7.6461 -1.22087
-3.91023 7.60645 -1.2165
-3.92387 7.57412 -1.2133
-3.93806 7.54316 -1.21033
-3.953 7.51388 -1.20762
-3.9682 7.48538 -1.20505
-3.98333 7.45698 -1.20249
-3.99838 7.42867 -1.19996
-3.78925 8.52975 -1.40681
-3.75235 8.37537 -1.38329
-3.71711 8.22706 -1.36072
-3.70981 8.14235 -1.34864
-3.70438 8.06291 -1.33741
-3.69909 7.98489 -1.3264
-3.69385 7.90808 -1.31557
-3.70273 7.8623 -1.30989
-3.71185 7.81758 -1.30439
-3.72087 7.77321 -1.29893
-3.72981 7.72917 -1.29354
-3.73866 7.68548 -1.28819
-3.74742 7.64211 -1.2829
-3.75655 7.59997 -1.27781
-3.76768 7.56234 -1.27347
-3.78049 7.52846 -1.26977
-3.79322 7.49476 -1.2661
-3.80586 7.46122 -1.26245
-3.81897 7.42891 -1.25902
-3.83426 7.40115 -1.25636
-3.84947 7.37346 -1.25371
-3.8646 7.34586 -1.25109
-3.87966 7.31835 -1.24848
-3.89463 7.29093 -1.24589
-3.91372 7.27138 -1.24465
-3.65036 8.50475 -1.47374
-3.62888 8.38166 -1.45439
-3.59588 8.2341 -1.43074
-3.58979 8.14997 -1.41809
-3.58379 8.06727 -1.40566
-3.57858 7.98752 -1.39372
-3.57446 7.91133 -1.38239
-3.58212 7.86209 -1.37575
-3.59175 7.81777 -1.36997
-3.60129 7.77378 -1.36425
-3.61105 7.73081 -1.3587
-3.62086 7.68846 -1.35326
-3.63058 7.64642 -1.34787
-3.64021 7.60469 -1.34253
-3.64975 7.56325 -1.33724
-3.66282 7.52958 -1.33332
-3.67586 7.49617 -1.32945
-3.68881 7.46292 -1.32561
-3.70167 7.42985 -1.32181
-3.71445 7.39694 -1.31803
-3.72714 7.36419 -1.31428
-3.73971 7.33154 -1.31056
-3.75129 7.29725 -1.30654
-3.76277 7.26316 -1.30255
-3.78466 7.24933 -1.3022
-3.80856 7.23933 -1.30256
-3.83246 7.22931 -1.30293
-3.85671 7.21994 -1.30342
-3.88108 7.21074 -1.30397
-3.51255 8.47727 -1.53948
-3.49322 8.35596 -1.51945
-3.47498 8.2392 -1.5002
-3.4701 8.15568 -1.48698
-3.46528 8.07355 -1.47399
-3.46051 7.99279 -1.46123
-3.45581 7.91336 -1.4487
-3.46269 7.86139 -1.44118
-3.47327 7.81847 -1.43531
-3.48375 7.77585 -1.4295
-3.49413 7.73354 -1.42374
-3.50442 7.69154 -1.41803
-3.51461 7.64985 -1.41238
-3.5247 7.60845 -1.40679
-3.5347 7.56735 -1.40124
-3.5462 7.52993 -1.39638
-3.55955 7.49682 -1.39232
-3.5728 7.46388 -1.38828
-3.58542 7.42995 -1.38407
-3.59759 7.39549 -1.37976
-3.60967 7.36119 -1.37548
-3.62166 7.32708 -1.37123
-3.63357 7.29316 -1.36702
-3.64539 7.25941 -1.36284
-3.65967 7.23088 -1.35965
-3.68334 7.22101 -1.35997
-3.70701 7.21113 -1.3603
-3.73069 7.20123 -1.36065
-3.75397 7.19053 -1.36086
-3.77705 7.17944 -1.36101
-3.801 7.16997 -1.36148
-3.82877 7.16762 -1.36332
-3.85666 7.16537 -1.3652
-3.31395 8.52562 -1.61287
-3.28395 8.37013 -1.58541
-3.261 8.23514 -1.56178
-3.26019 8.15782 -1.54906
-3.26738 8.10154 -1.54032
-3.27446 8.04583 -1.53169
-3.28143 7.99067 -1.52315
-3.28831 7.93606 -1.51471
-3.29531 7.88256 -1.50647
-3.30408 7.83399 -1.49918
-3.31273 7.78582 -1.49195
-3.32128 7.73806 -1.4848
-3.33206 7.6961 -1.47876
-3.34628 7.66254 -1.47433
-3.36038 7.62913 -1.46994
-3.37439 7.59588 -1.46557
-3.38828 7.56277 -1.46124
-3.40208 7.5298 -1.45694
-3.41798 7.50184 -1.4536
-3.43389 7.47417 -1.45033
-3.44983 7.44685 -1.44714
-3.46568 7.4196 -1.44396
-3.48008 7.38953 -1.44024
-3.49249 7.3556 -1.43577
-3.50482 7.32186 -1.43133
-3.51706 7.28828 -1.42693
-3.5292 7.25491 -1.42257
-3.54126 7.22169 -1.41824
-3.56018 7.20268 -1.4167
-3.58341 7.19248 -1.41691
-3.60617 7.18132 -1.41695
-3.62893 7.17015 -1.417
-3.65168 7.15897 -1.41705
-3.67506 7.14897 -1.41736
-3.69877 7.13961 -1.41781
-3.72249 7.13023 -1.41828
-3.74881 7.12576 -1.41973
-3.77636 7.12349 -1.42165
-3.80397 7.12121 -1.42358
-3.83166 7.11891 -1.42553
-2.90911 8.50087 -1.66138
-2.88867 8.35504 -1.63466
-2.87225 8.22343 -1.61067
-2.87513 8.14901 -1.59786
-2.87792 8.0756 -1.58524
-2.8806 8.00319 -1.5728
-2.88318 7.93177 -1.56055
-2.89053 7.87452 -1.55107
-2.90772 7.84474 -1.547
-2.92983 7.82852 -1.54562
-2.95322 7.81583 -1.54495
-2.97656 7.80306 -1.54427
-2.99985 7.79021 -1.54359
-3.02307 7.77729 -1.54291
-3.04625 7.76429 -1.54223
-3.06937 7.75121 -1.54155
-3.09087 7.73413 -1.54009
-3.10719 7.70434 -1.5361
-3.12338 7.67461 -1.53213
-3.13945 7.64493 -1.52817
-3.1554 7.6153 -1.52423
-3.17122 7.58572 -1.52031
-3.18692 7.5562 -1.5164
-3.20196 7.52547 -1.51225
-3.21703 7.49517 -1.50819
-3.23331 7.46802 -1.50477
-3.24951 7.44096 -1.50138
-3.26561 7.41397 -1.49801
-3.28162 7.38706 -1.49465
-3.29754 7.36023 -1.49132
-3.31338 7.33348 -1.48801
-3.32921 7.307 -1.48476
-3.34502 7.28072 -1.48156
-3.36073 7.25451 -1.47838
-3.37636 7.22838 -1.47521
-3.39191 7.20231 -1.47207
-3.41466 7.19167 -1.47209
-3.4375 7.18122 -1.47216
-3.46034 7.17075 -1.47225
-3.48317 7.16027 -1.47235
-3.50598 7.14974 -1.47245
-3.52855 7.13871 -1.47246
-3.55129 7.12801 -1.47256
-3.57476 7.11878 -1.47297
-3.59825 7.10953 -1.4734
-3.62174 7.10026 -1.47384
-3.64524 7.09097 -1.47429
-3.67021 7.08449 -1.47534
-3.69741 7.0822 -1.47729
-3.72469 7.07991 -1.47925
-3.75203 7.07759 -1.48124
-3.77943 7.07526 -1.48324
-3.8069 7.07291 -1.48525
-2.61027 8.49321 -1.71946
-2.59022 8.33426 -1.68893
-2.57673 8.19947 -1.66325
-2.58263 8.12849 -1.6505
-2.59004 8.0636 -1.63897
-2.59731 7.99946 -1.62759
-2.60443 7.93606 -1.61636
-2.61229 7.87606 -1.60581
-2.62974 7.84576 -1.60131
-2.64707 7.81556 -1.59684
-2.66429 7.78546 -1.5924
-2.68138 7.75546 -1.58799
-2.69836 7.72556 -1.5836
-2.71563 7.69692 -1.57948
-2.73297 7.66889 -1.57549
-2.75021 7.64093 -1.57152
-2.76733 7.61305 -1.56757
-2.78435 7.58525 -1.56365
-2.80126 7.55752 -1.55975
-2.81806 7.52987 -1.55587
-2.83608 7.50581 -1.55274
-2.85446 7.48297 -1.54987
-2.87246 7.4594 -1.54686
-2.89031 7.43572 -1.54383
-2.90806 7.41207 -1.54082
-2.92573 7.38847 -1.53782
-2.94384 7.36623 -1.53512
-2.9638 7.34882 -1.53343
-2.9837 7.33139 -1.53175
-3.00353 7.31394 -1.53008
-3.02346 7.29687 -1.52849
-3.04358 7.28041 -1.52705
-3.06365 7.26393 -1.52561
-3.08365 7.24741 -1.52418
-3.10359 7.23086 -1.52275
-3.12554 7.21908 -1.52234
-3.14919 7.21125 -1.52277
-3.17285 7.20338 -1.52322
-3.19652 7.19549 -1.52367
-3.22022 7.18764 -1.52415
-3.24401 7.17994 -1.52468
-3.26638 7.16909 -1.52456
-3.28858 7.15787 -1.52437
-3.31076 7.14664 -1.5242
-3.33293 7.13539 -1.52403
-3.35509 7.12412 -1.52388
-3.37723 7.11283 -1.52374
-3.39935 7.10153 -1.52361
-3.42147 7.0902 -1.52348
-3.44575 7.08335 -1.52434
-3.47166 7.07975 -1.52591
-3.49762 7.07613 -1.5275
-3.52266 7.07054 -1.52869
-3.54593 7.06136 -1.52912
-3.56922 7.05217 -1.52956
-3.59293 7.04378 -1.53019
-3.6198 7.04148 -1.53216
-3.64673 7.03917 -1.53415
-3.67373 7.03684 -1.53616
-3.70079 7.0345 -1.53819
-3.72793 7.03214 -1.54024
-3.75512 7.02976 -1.54231
-3.78238 7.02737 -1.54439
-2.42168 8.34617 -1.7568
-2.39667 8.16365 -1.71997
-2.40224 8.08813 -1.70564
-2.40614 8.0086 -1.69046
-2.40994 7.9304 -1.67556
-2.41598 7.86103 -1.6625
-2.42865 7.81438 -1.65425
-2.44117 7.76813 -1.64608
-2.45356 7.7223 -1.638
-2.46582 7.67687 -1.63
-2.48001 7.63819 -1.62344
-2.4973 7.60964 -1.61904
-2.51448 7.58117 -1.61467
-2.53185 7.55371 -1.61051
-2.5495 7.52748 -1.60662
-2.56843 7.50538 -1.60363
-2.58728 7.4833 -1.60065
-2.60604 7.46125 -1.59768
-2.62471 7.43923 -1.59473
-2.64329 7.41724 -1.5918
-2.66179 7.39528 -1.58888
-2.6802 7.37336 -1.58598
-2.69836 7.35099 -1.58299
-2.71627 7.32824 -1.57993
-2.7341 7.30554 -1.57688
-2.75184 7.28287 -1.57386
-2.7695 7.26023 -1.57085
-2.78771 7.23932 -1.56822
-2.81009 7.22936 -1.56797
-2.83246 7.21938 -1.56774
-2.85482 7.20938 -1.56751
-2.87716 7.19936 -1.5673
-2.89946 7.18928 -1.56709
-2.92173 7.17912 -1.56688
-2.94398 7.16894 -1.56667
-2.96622 7.15874 -1.56648
-2.98907 7.15001 -1.56663
-3.01237 7.14236 -1.56703
-3.03569 7.13469 -1.56743
-3.059 7.12698 -1.56785
-3.08232 7.11925 -1.56829
-3.10563 7.1115 -1.56873
-3.12903 7.10388 -1.56922
-3.15246 7.09631 -1.56973
-3.1759 7.08871 -1.57026
-3.19934 7.08108 -1.5708
-3.22279 7.07343 -1.57135
-3.24625 7.06575 -1.57191
-3.26926 7.05707 -1.57227
-3.29116 7.04597 -1.5721
-3.31304 7.03486 -1.57194
-3.33822 7.03068 -1.57336
-3.36373 7.02711 -1.57492
-3.38929 7.02352 -1.57651
-3.41489 7.01991 -1.57811
-3.44053 7.01628 -1.57972
-3.46623 7.01262 -1.58135
-3.49197 7.00895 -1.583
-3.51747 7.00468 -1.58454
-3.54347 7.0013 -1.58629
-3.57012 6.99905 -1.58833
-3.59759 6.99828 -1.59072
-3.62515 6.9975 -1.59313
-3.65278 6.99672 -1.59557
-3.68051 6.99593 -1.59803
-3.70831 6.99514 -1.60052
-3.7362 6.99434 -1.60302
-3.76417 6.99354 -1.60555
-2.26528 8.19203 -1.79185
-2.27437 8.12504 -1.77876
-2.28331 8.05894 -1.76586
-2.2905 7.98815 -1.75192
-2.29539 7.91092 -1.73656
-2.3038 7.84733 -1.72419
-2.31701 7.80118 -1.71565
-2.33008 7.75544 -1.7072
-2.343 7.71011 -1.69884
-2.35578 7.66516 -1.69056
-2.36794 7.61905 -1.68203
-2.37924 7.57105 -1.67308
-2.39041 7.52351 -1.66424
-2.40739 7.49496 -1.65959
-2.42461 7.46758 -1.65522
-2.44098 7.43802 -1.65036
-2.45557 7.40356 -1.64443
-2.47005 7.36933 -1.63855
-2.48441 7.33531 -1.63272
-2.49866 7.3015 -1.62694
-2.5128 7.2679 -1.62121
-2.53055 7.24512 -1.6179
-2.55282 7.23548 -1.61754
-2.57508 7.22583 -1.61719
-2.59732 7.21615 -1.61685
-2.61954 7.20646 -1.61652
-2.64174 7.19675 -1.6162
-2.66393 7.18702 -1.6159
-2.6861 7.17727 -1.6156
-2.70825 7.16751 -1.61532
-2.73039 7.15772 -1.61505
-2.75251 7.14792 -1.61479
-2.77462 7.1381 -1.61454
-2.7967 7.12824 -1.6143
-2.81874 7.11828 -1.61405
-2.84076 7.10829 -1.61381
-2.86277 7.09829 -1.61358
-2.88476 7.08827 -1.61336
-2.90673 7.07823 -1.61316
-2.92869 7.06817 -1.61296
-2.95064 7.05809 -1.61278
-2.97257 7.04799 -1.6126
-2.99449 7.03788 -1.61244
-3.01716 7.02951 -1.6127
-3.04025 7.02209 -1.61319
-3.06512 7.01873 -1.61463
-3.09029 7.01593 -1.61622
-3.1155 7.01313 -1.61783
-3.14077 7.01031 -1.61946
-3.16608 7.00747 -1.6211
-3.19144 7.00463 -1.62277
-3.21719 7.0025 -1.62462
-3.24423 7.00304 -1.62711
-3.27127 7.0034 -1.62958
-3.29727 7.00135 -1.63152
-3.32331 6.99929 -1.63347
-3.34942 6.99722 -1.63545
-3.3756 6.99515 -1.63744
-3.40182 6.99306 -1.63946
-3.42812 6.99097 -1.64149
-3.45455 6.98899 -1.64358
-3.4823 6.98954 -1.64629
-3.51015 6.9901 -1.64902
-3.53756 6.98962 -1.65153
-3.5649 6.98883 -1.65399
-3.59232 6.98803 -1.65648
-3.61982 6.98723 -1.65898
-3.64741 6.98642 -1.66152
-3.67508 6.98562 -1.66407
-3.70284 6.98481 -1.66666
-3.73068 6.984 -1.66926
-3.7586 6.98318 -1.67189
-2.14467 8.15509 -1.85104
-2.15348 8.08485 -1.83663
-2.1633 8.01989 -1.82341
-2.17296 7.95579 -1.81039
-2.18156 7.88928 -1.79681
-2.19243 7.8323 -1.7854
-2.20613 7.78653 -1.77655
-2.2186 7.73739 -1.76692
-2.23092 7.68872 -1.75741
-2.24309 7.64052 -1.748
-2.25511 7.59277 -1.73869
-2.26699 7.54548 -1.72949
-2.27977 7.50203 -1.72117
-2.29731 7.4749 -1.7166
-2.31474 7.44788 -1.71207
-2.33208 7.42097 -1.70756
-2.34931 7.39417 -1.70309
-2.36644 7.36748 -1.69866
-2.38348 7.34089 -1.69425
-2.39818 7.3076 -1.68831
-2.41267 7.27421 -1.68234
-2.42704 7.24102 -1.67643
-2.44702 7.22491 -1.67448
-2.4675 7.21044 -1.67292
-2.48794 7.19598 -1.67138
-2.50834 7.18154 -1.66985
-2.5287 7.1671 -1.66834
-2.54901 7.15268 -1.66685
-2.56928 7.13827 -1.66537
-2.58951 7.12387 -1.66391
-2.60971 7.10948 -1.66246
-2.63058 7.09703 -1.66149
-2.65247 7.08743 -1.66119
-2.67436 7.0778 -1.6609
-2.69622 7.06815 -1.66062
-2.71804 7.05839 -1.66034
-2.73983 7.04861 -1.66006
-2.76161 7.0388 -1.65979
-2.7854 7.03408 -1.66074
-2.80941 7.02986 -1.66183
-2.83346 7.02563 -1.66294
-2.85753 7.02138 -1.66406
-2.88164 7.01713 -1.6652
-2.90577 7.01286 -1.66635
-2.92994 7.00857 -1.66752
-2.95416 7.00432 -1.66872
-2.97856 7.00043 -1.67002
-3.003 6.99652 -1.67134
-3.02787 6.99351 -1.67289
-3.05288 6.99071 -1.67452
-3.07794 6.9879 -1.67616
-3.10304 6.98508 -1.67783
-3.12893 6.98389 -1.6799
-3.15566 6.98441 -1.68242
-3.18247 6.98493 -1.68495
-3.20936 6.98545 -1.68751
-3.23632 6.98597 -1.69009
-3.26337 6.98649 -1.6927
-3.28955 6.98497 -1.69484
-3.31553 6.9829 -1.69687
-3.34157 6.98082 -1.69891
-3.36767 6.97872 -1.70098
-3.39423 6.97744 -1.70327
-3.42175 6.97798 -1.70603
-3.44937 6.97852 -1.70881
-3.47708 6.97905 -1.71162
-3.50487 6.97959 -1.71445
-3.5324 6.97942 -1.71714
-3.55969 6.97862 -1.7197
-3.58707 6.97781 -1.72228
-3.61452 6.97699 -1.72488
-3.64206 6.97617 -1.72751
-3.66967 6.97535 -1.73017
-3.69738 6.97452 -1.73285
-3.72517 6.97368 -1.73555
-3.75303 6.97284 -1.73828
-2.12828 8.19783 -1.93313
-2.12652 8.0861 -1.90835
-2.12481 7.9772 -1.88422
-2.12282 7.86982 -1.86044
-2.12774 7.79023 -1.8432
-2.1334 7.71509 -1.827
-2.13895 7.64126 -1.81111
-2.14441 7.56867 -1.7955
-2.15588 7.51864 -1.78523
-2.17061 7.48088 -1.77788
-2.18836 7.45411 -1.77316
-2.20601 7.42746 -1.76846
-2.22356 7.40091 -1.7638
-2.241 7.37446 -1.75918
-2.25835 7.34813 -1.75458
-2.27559 7.3219 -1.75002
-2.29273 7.29576 -1.7455
-2.30978 7.26974 -1.74101
-2.32672 7.24381 -1.73655
-2.34523 7.22308 -1.73334
-2.36598 7.20947 -1.73186
-2.38676 7.19609 -1.73044
-2.4075 7.18272 -1.72905
-2.42821 7.16936 -1.72767
-2.44888 7.15602 -1.7263
-2.46952 7.14268 -1.72496
-2.49012 7.12936 -1.72363
-2.51068 7.11605 -1.72232
-2.53122 7.10274 -1.72102
-2.55171 7.08945 -1.71974
-2.57218 7.07617 -1.71848
-2.59261 7.0629 -1.71724
-2.61301 7.04964 -1.71601
-2.63398 7.03802 -1.71519
-2.65741 7.03295 -1.71599
-2.68021 7.02617 -1.71639
-2.70293 7.01916 -1.71676
-2.72661 7.01459 -1.71773
-2.75047 7.0104 -1.71882
-2.77436 7.00619 -1.71993
-2.79827 7.00197 -1.72105
-2.82221 6.99774 -1.72219
-2.84618 6.99349 -1.72335
-2.87019 6.98924 -1.72452
-2.89422 6.98498 -1.72571
-2.91846 6.9811 -1.72702
-2.94272 6.97721 -1.72835
-2.96702 6.9733 -1.72969
-2.99135 6.96939 -1.73105
-3.0158 6.96563 -1.73247
-3.04184 6.96543 -1.7348
-3.06827 6.96594 -1.73733
-3.09477 6.96644 -1.73988
-3.12134 6.96694 -1.74246
-3.148 6.96744 -1.74506
-3.17473 6.96794 -1.74768
-3.20154 6.96843 -1.75033
-3.22843 6.96892 -1.753
-3.2554 6.96941 -1.7557
-3.28184 6.96861 -1.7581
-3.30776 6.96652 -1.7602
-3.33446 6.96595 -1.7627
-3.36176 6.96648 -1.76551
-3.38915 6.967 -1.76834
-3.41662 6.96752 -1.7712
-3.44419 6.96804 -1.77408
-3.47184 6.96855 -1.77699
-3.49959 6.96907 -1.77993
-3.52723 6.96922 -1.7828
-3.55448 6.9684 -1.78545
-3.58181 6.96757 -1.78813
-3.60921 6.96674 -1.79083
-3.6367 6.96591 -1.79356
-3.66427 6.96507 -1.79631
-3.69193 6.96422 -1.79908
-3.71966 6.96337 -1.80189
-3.74748 6.96252 -1.80471
-2.11007 8.1277 -1.99016
-2.10817 8.01631 -1.9645
-2.10631 7.90775 -1.93952
-2.10805 7.81507 -1.9184
-2.11423 7.74075 -1.90179
-2.12025 7.66755 -1.88544
-2.12588 7.59457 -1.86913
-2.13142 7.52283 -1.85312
-2.1417 7.4692 -1.84157
-2.15774 7.43653 -1.83518
-2.17368 7.40408 -1.82886
-2.19078 7.37618 -1.82366
-2.20847 7.35067 -1.81907
-2.22605 7.32528 -1.81452
-2.24355 7.3 -1.81
-2.26096 7.27484 -1.80552
-2.27828 7.24978 -1.80107
-2.29551 7.22485 -1.79667
-2.31342 7.20239 -1.79289
-2.33392 7.18825 -1.7912
-2.35438 7.17413 -1.78952
-2.37494 7.16047 -1.78797
-2.39559 7.14719 -1.78653
-2.41621 7.13393 -1.78512
-2.43678 7.12068 -1.78371
-2.45733 7.10743 -1.78233
-2.47784 7.0942 -1.78096
-2.49831 7.08098 -1.77961
-2.51875 7.06777 -1.77828
-2.53916 7.05457 -1.77697
-2.55953 7.04138 -1.77567
-2.58038 7.02959 -1.77474
-2.6037 7.02455 -1.77553
-2.62705 7.01949 -1.77634
-2.65041 7.01443 -1.77717
-2.67325 7.00793 -1.77765
-2.69591 7.00093 -1.77802
-2.71858 6.99393 -1.77841
-2.74126 6.98692 -1.77882
-2.76394 6.97989 -1.77924
-2.78717 6.9742 -1.78002
-2.81101 6.96997 -1.7812
-2.83488 6.96572 -1.78239
-2.85894 6.96185 -1.7837
-2.914 7.0327 -1.8042
-2.92715 7.00189 -1.79865
-2.94018 6.97119 -1.79314
-2.9568 6.94928 -1.78989
-2.98263 6.94906 -1.79225
-3.00854 6.94884 -1.79463
-3.0345 6.94862 -1.79704
-3.06054 6.94839 -1.79947
-3.08664 6.94816 -1.80192
-3.11283 6.94793 -1.8044
-3.13908 6.9477 -1.8069
-3.1654 6.94746 -1.80943
-3.30371 7.19081 -1.87551
-3.29682 7.11655 -1.85885
-3.29006 7.04362 -1.8425
-3.28344 6.97201 -1.82647
-3.30256 6.95559 -1.82489
-3.32966 6.95594 -1.82773
-3.35685 6.95629 -1.83059
-3.38411 6.95664 -1.83349
-3.41149 6.95705 -1.83642
-3.439 6.95755 -1.83941
-3.46661 6.95805 -1.84242
-3.4943 6.95855 -1.84546
-3.52206 6.959 -1.84852
-3.54926 6.95817 -1.85127
-3.57654 6.95733 -1.85404
-3.6039 6.95649 -1.85683
-3.63134 6.95564 -1.85965
-3.65886 6.95479 -1.8625
-3.68646 6.95393 -1.86538
-3.71416 6.95307 -1.86828
-3.74204 6.95242 -1.87127
-2.09591 8.07315 -2.05016
-2.0896 7.94568 -2.01946
-2.0882 7.83974 -1.99419
-2.09456 7.76506 -1.97687
-2.10082 7.69165 -1.95986
-2.10696 7.61948 -1.94315
-2.11292 7.54827 -1.92668
-2.11853 7.47735 -1.91028
-2.1345 7.44409 -1.90349
-2.15051 7.41161 -1.89691
-2.16642 7.37936 -1.8904
-2.18221 7.34732 -1.88394
-2.19789 7.31549 -1.87755
-2.21347 7.28387 -1.87122
-2.23083 7.25861 -1.86653
-2.24817 7.23369 -1.86193
-2.26543 7.20888 -1.85738
-2.28259 7.18418 -1.85286
-2.30252 7.16844 -1.85066
-2.32293 7.1544 -1.84892
-2.3433 7.14038 -1.8472
-2.36364 7.12638 -1.8455
-2.38393 7.11239 -1.84381
-2.40428 7.0987 -1.84222
-2.42476 7.08554 -1.84078
-2.44521 7.07239 -1.83936
-2.46563 7.05926 -1.83796
-2.48601 7.04613 -1.83657
-2.50636 7.03301 -1.83521
-2.52712 7.02113 -1.83418
-2.55034 7.01611 -1.83496
-2.57359 7.01108 -1.83576
-2.59685 7.00604 -1.83657
-2.62012 7.00099 -1.83741
-2.64342 6.99593 -1.83826
-2.6663 6.98971 -1.83883
-2.6889 6.98273 -1.83921
-2.71151 6.97574 -1.83961
-2.73412 6.96874 -1.84003
-2.75675 6.96173 -1.84047
-2.77939 6.95471 -1.84092
-2.81966 6.9914 -1.85298
-2.82736 6.94724 -1.84363
-2.85162 6.94403 -1.84516
-2.87717 6.94381 -1.8475
-2.90278 6.94359 -1.84987
-2.92845 6.94337 -1.85226
-2.95419 6.94314 -1.85468
-2.98 6.94292 -1.85712
-3.00587 6.94269 -1.85959
-3.03181 6.94246 -1.86208
-3.05782 6.94222 -1.86459
-3.0839 6.94199 -1.86713
-3.11005 6.94175 -1.8697
-3.13628 6.94151 -1.87229
-3.16257 6.94126 -1.87491
-3.18894 6.94102 -1.87755
-3.21538 6.94077 -1.88021
-3.2419 6.94052 -1.88291
-3.2685 6.94026 -1.88563
-3.3427 7.04012 -1.91561
-3.33565 6.96844 -1.89896
-3.35325 6.94883 -1.89649
-3.38047 6.94916 -1.89948
-3.40779 6.9495 -1.90251
-3.4352 6.94984 -1.90556
-3.46269 6.95017 -1.90863
-3.49069 6.95135 -1.91197
-3.5191 6.95314 -1.91551
-3.54663 6.95302 -1.91855
-3.57399 6.95237 -1.92147
-3.60143 6.95172 -1.92442
-3.62895 6.95107 -1.9274
-3.65656 6.95041 -1.93041
-3.68425 6.94975 -1.93344
-3.71203 6.94909 -1.93651
-3.73989 6.94843 -1.9396
-2.10147 8.20084 -2.15566
-2.09362 8.06434 -2.1215
-2.08602 7.93209 -2.08844
-2.08132 7.81391 -2.05904
-2.087 7.73702 -2.0405
-2.09215 7.65992 -2.0219
-2.09721 7.58422 -2.00365
-2.10217 7.50987 -1.98575
-2.11188 7.45389 -1.9727
-2.12778 7.42067 -1.96568
-2.14357 7.38768 -1.95872
-2.15924 7.35493 -1.95183
-2.17494 7.32286 -1.94513
-2.1906 7.29121 -1.93855
-2.20615 7.25978 -1.93204
-2.22159 7.22855 -1.92558
-2.23693 7.19752 -1.91919
-2.25267 7.16827 -1.91327
-2.2713 7.14863 -1.90993
-2.29167 7.13468 -1.90813
-2.312 7.12074 -1.90634
-2.33229 7.10681 -1.90457
-2.35253 7.0929 -1.90282
-2.37274 7.07901 -1.9011
-2.39291 7.06513 -1.89939
-2.41303 7.05127 -1.8977
-2.43317 7.03756 -1.89606
-2.4535 7.02451 -1.89462
-2.4742 7.01263 -1.89352
-2.49732 7.00763 -1.89428
-2.52046 7.00263 -1.89507
-2.54362 6.99761 -1.89588
-2.5668 6.99259 -1.8967
-2.59 6.98755 -1.89754
-2.61321 6.98251 -1.8984
-2.63644 6.97745 -1.89928
-2.65936 6.97151 -1.89993
-2.6819 6.96454 -1.90033
-2.70444 6.95757 -1.90075
-2.727 6.95058 -1.90118
-2.75745 6.96349 -1.90708
-2.77293 6.93857 -1.90264
-2.79826 6.93835 -1.90499
-2.82366 6.93813 -1.90737
-2.84911 6.93791 -1.90977
-2.87463 6.93768 -1.91219
-2.90021 6.93746 -1.91464
-2.92586 6.93723 -1.91712
-2.95157 6.93699 -1.91962
-2.97735 6.93676 -1.92214
-3.0032 6.93652 -1.92469
-3.02911 6.93628 -1.92727
-3.0551 6.93604 -1.92987
-3.08115 6.93579 -1.93249
-3.10728 6.93555 -1.93515
-3.13347 6.9353 -1.93783
-3.15974 6.93505 -1.94053
-3.18608 6.93479 -1.94326
-3.2125 6.93453 -1.94602
-3.23899 6.93428 -1.94881
-3.26555 6.93401 -1.95162
-3.2922 6.93375 -1.95446
-3.31891 6.93348 -1.95732
-3.39596 7.03735 -1.98966
-3.38846 6.96559 -1.97238
-3.40411 6.942 -1.96874
-3.43195 6.94327 -1.97216
-3.46013 6.94504 -1.97575
-3.48841 6.94681 -1.97937
-3.5168 6.94859 -1.98303
-3.54462 6.94905 -1.98635
-3.57195 6.9484 -1.98937
-3.59937 6.94775 -1.99243
-3.62687 6.94709 -1.99551
-3.65447 6.94643 -1.99862
-3.68214 6.94576 -2.00176
-3.7098 6.94492 -2.00488
-3.73753 6.94403 -2.00802
-2.09913 8.19172 -2.22826
-2.09133 8.05551 -2.193
-2.08215 7.91737 -2.15717
-2.07811 7.80188 -2.12747
-2.08466 7.72835 -2.10921
-2.09014 7.65254 -2.09031
-2.09521 7.57698 -2.07146
-2.10018 7.50276 -2.05297
-2.10994 7.44703 -2.03953
-2.12566 7.41327 -2.03211
-2.14136 7.38005 -2.02485
-2.15702 7.34736 -2.01774
-2.17258 7.31489 -2.01069
-2.18803 7.28264 -2.00372
-2.20337 7.25062 -1.99681
-2.2186 7.21881 -1.98996
-2.23373 7.18721 -1.98319
-2.24876 7.15583 -1.97648
-2.26701 7.13513 -1.97273
-2.28696 7.12 -1.97053
-2.30702 7.10541 -1.96849
-2.32705 7.09084 -1.96648
-2.34703 7.0763 -1.96449
-2.36697 7.06179 -1.96253
-2.38687 7.0473 -1.96058
-2.40673 7.03284 -1.95866
-2.42655 7.01841 -1.95676
-2.44684 7.00545 -1.9553
-2.46913 6.99826 -1.95545
-2.49142 6.99107 -1.95563
-2.51381 6.98415 -1.9559
-2.53691 6.97914 -1.95673
-2.56002 6.97412 -1.95758
-2.58315 6.96909 -1.95844
-2.6063 6.96405 -1.95933
-2.62947 6.959 -1.96023
-2.65242 6.95333 -1.96098
-2.6749 6.94637 -1.96139
-2.71413 6.98249 -1.974
-2.72007 6.9329 -1.96239
-2.74525 6.93268 -1.96477
-2.77049 6.93246 -1.96718
-2.7958 6.93223 -1.96961
-2.82116 6.932 -1.97206
-2.84659 6.93177 -1.97454
-2.87208 6.93154 -1.97704
-2.89764 6.93131 -1.97957
-2.92326 6.93107 -1.98213
-2.94895 6.93083 -1.98471
-2.9747 6.93058 -1.98732
-3.00053 6.93034 -1.98995
-3.02641 6.93009 -1.99261
-3.05237 6.92984 -1.9953
-3.0784 6.92959 -1.99802
-3.10449 6.92933 -2.00076
-3.13066 6.92908 -2.00352
-3.1569 6.92881 -2.00632
-3.18322 6.92855 -2.00914
-3.2096 6.92829 -2.01199
-3.23606 6.92802 -2.01486
-3.2626 6.92775 -2.01777
-3.28922 6.92747 -2.0207
-3.3159 6.9272 -2.02366
-3.34267 6.92692 -2.02665
-3.4049 6.99939 -2.05099
-3.40408 6.94193 -2.03729
-3.42911 6.93751 -2.03915
-3.45741 6.93958 -2.04296
-3.48582 6.94165 -2.0468
-3.51434 6.94374 -2.05067
-3.54244 6.94479 -2.05427
-3.56958 6.94378 -2.05729
-3.59678 6.94276 -2.06034
-3.62408 6.94173 -2.06342
-3.65145 6.9407 -2.06653
-3.6789 6.93966 -2.06966
-3.70644 6.93862 -2.07283
-3.73405 6.93757 -2.07602
-2.09679 8.18258 -2.30102
-2.08782 8.04201 -2.26333
-2.07766 7.9003 -2.22528
-2.0749 7.78982 -2.196
-2.08147 7.71651 -2.17717
-2.08792 7.64444 -2.15868
-2.0932 7.56972 -2.13944
-2.09819 7.49564 -2.12036
-2.10803 7.44027 -2.10657
-2.12374 7.40656 -2.09891
-2.13934 7.37309 -2.09133
-2.15482 7.33987 -2.08382
-2.17034 7.30737 -2.07653
-2.18578 7.27518 -2.06933
-2.20112 7.24321 -2.0622
-2.21634 7.21146 -2.05514
-2.23146 7.17992 -2.04815
-2.24648 7.14859 -2.04123
-2.26514 7.12926 -2.03774
-2.28494 7.11372 -2.03535
-2.30469 7.09822 -2.03298
-2.32468 7.08362 -2.03089
-2.34464 7.0691 -2.02884
-2.36456 7.05461 -2.02681
-2.38445 7.04015 -2.02481
-2.40429 7.02571 -2.02282
-2.42409 7.0113 -2.02087
-2.44482 6.99965 -2.01972
-2.46708 6.99247 -2.01989
-2.48935 6.98528 -2.02007
-2.51163 6.97809 -2.02027
-2.53391 6.97089 -2.02049
-2.55619 6.9637 -2.02073
-2.57848 6.95649 -2.02099
-2.60078 6.94929 -2.02127
-2.62307 6.94208 -2.02157
-2.68802 7.04664 -2.05448
-2.68993 6.98539 -2.03909
-2.69257 6.92702 -2.02452
-2.71767 6.92679 -2.02695
-2.74283 6.92656 -2.0294
-2.76804 6.92633 -2.03188
-2.79332 6.9261 -2.03439
-2.81866 6.92586 -2.03692
-2.84406 6.92562 -2.03948
-2.86953 6.92538 -2.04206
-2.89506 6.92514 -2.04468
-2.92065 6.92489 -2.04731
-2.94632 6.92465 -2.04998
-2.97205 6.9244 -2.05267
-2.99784 6.92414 -2.05539
-3.0237 6.92389 -2.05813
-3.04963 6.92363 -2.06091
-3.07563 6.92337 -2.06371
-3.1017 6.9231 -2.06653
-3.12784 6.92284 -2.06939
-3.15406 6.92257 -2.07227
-3.18034 6.9223 -2.07518
-3.2067 6.92202 -2.07812
-3.23313 6.92174 -2.08109
-3.25964 6.92147 -2.08409
-3.28623 6.92118 -2.08712
-3.31289 6.9209 -2.09017
-3.33963 6.92061 -2.09326
-3.36644 6.92032 -2.09637
-3.41134 6.95675 -2.11065
-3.42582 6.93086 -2.10607
-3.45409 6.93292 -2.11
-3.48247 6.93498 -2.11395
-3.51059 6.93634 -2.11773
-3.53779 6.93567 -2.12093
-3.56488 6.93465 -2.12404
-3.59205 6.93362 -2.12719
-3.6193 6.93258 -2.13036
-3.64663 6.93153 -2.13357
-3.67404 6.93048 -2.1368
-3.70153 6.92943 -2.14006
-3.72909 6.92836 -2.14336
-2.08323 8.02433 -2.33254
-2.07317 7.88321 -2.29341
-2.07169 7.77776 -2.26462
-2.07827 7.70467 -2.24524
-2.08474 7.6328 -2.2262
-2.0911 7.56215 -2.2075
-2.09619 7.4885 -2.18792
-2.1061 7.43349 -2.17378
-2.12181 7.39983 -2.16589
-2.1374 7.36642 -2.15807
-2.15288 7.33325 -2.15033
-2.16825 7.30031 -2.14267
-2.18353 7.26769 -2.13511
-2.19886 7.23579 -2.12776
-2.21408 7.20409 -2.12048
-2.22919 7.17261 -2.11328
-2.2442 7.14134 -2.10614
-2.26327 7.12337 -2.10294
-2.28305 7.10785 -2.10047
-2.30279 7.09237 -2.09803
-2.32248 7.07692 -2.09562
-2.34225 7.06189 -2.09334
-2.36215 7.04742 -2.09125
-2.38202 7.03298 -2.08919
-2.40184 7.01856 -2.08715
-2.42163 7.00417 -2.08513
-2.44278 6.99384 -2.08434
-2.46503 6.98666 -2.0845
-2.48729 6.97948 -2.08469
-2.50954 6.97229 -2.0849
-2.5318 6.9651 -2.08513
-2.55407 6.95791 -2.08538
-2.57634 6.95071 -2.08564
-2.59851 6.94325 -2.08585
-2.62065 6.93567 -2.08605
-2.67595 7.01501 -2.11244
-2.67794 6.95427 -2.09668
-2.69019 6.92089 -2.08917
-2.71526 6.92066 -2.09168
-2.74039 6.92042 -2.09421
-2.76558 6.92018 -2.09676
-2.79084 6.91994 -2.09935
-2.81615 6.9197 -2.10196
-2.84153 6.91946 -2.1046
-2.86697 6.91921 -2.10726
-2.89247 6.91896 -2.10995
-2.91804 6.9187 -2.11267
-2.94368 6.91845 -2.11542
-2.96938 6.91819 -2.11819
-2.99515 6.91793 -2.121
-3.02098 6.91766 -2.12383
-3.04689 6.9174 -2.12669
-3.07286 6.91713 -2.12957
-3.0989 6.91686 -2.13249
-3.12502 6.91658 -2.13543
-3.1512 6.9163 -2.13841
-3.17746 6.91602 -2.14141
-3.20379 6.91574 -2.14444
-3.2302 6.91545 -2.1475
-3.25667 6.91517 -2.15059
-3.28323 6.91488 -2.15371
-3.30987 6.91458 -2.15686
-3.33658 6.91428 -2.16004
-3.36336 6.91398 -2.16325
-3.41867 6.97168 -2.18467
-3.42253 6.9242 -2.17316
-3.45076 6.92624 -2.17721
-3.47885 6.92778 -2.18113
-3.50592 6.9271 -2.18439
-3.53307 6.92642 -2.18768
-3.56018 6.9255 -2.19092
-3.58731 6.92446 -2.19416
-3.61451 6.92341 -2.19743
-3.64179 6.92235 -2.20073
-3.66916 6.92129 -2.20406
-3.69661 6.92022 -2.20742
-3.72456 6.91994 -2.21107
-2.08156 7.62114 -2.29382
-2.08794 7.55069 -2.27459
-2.09419 7.48134 -2.25568
-2.10418 7.42669 -2.24119
-2.11987 7.39309 -2.23306
-2.13546 7.35973 -2.22501
-2.15093 7.32661 -2.21703
-2.16629 7.29372 -2.20914
-2.18154 7.26107 -2.20132
-2.19669 7.22864 -2.19358
-2.21181 7.19671 -2.186
-2.22691 7.16529 -2.17858
-2.24192 7.13407 -2.17122
-2.26139 7.11747 -2.16833
-2.28116 7.10197 -2.16579
-2.30088 7.0865 -2.16328
-2.32056 7.07107 -2.16079
-2.34018 7.05567 -2.15833
-2.35977 7.04031 -2.1559
-2.37958 7.02579 -2.15374
-2.39939 7.01139 -2.15164
-2.41916 6.99703 -2.14956
-2.44075 6.98801 -2.14914
-2.46298 6.98084 -2.14932
-2.48521 6.97366 -2.14951
-2.50745 6.96648 -2.14972
-2.52965 6.95918 -2.14992
-2.55176 6.95162 -2.15006
-2.57387 6.94405 -2.15023
-2.59598 6.93648 -2.15041
-2.6181 6.92891 -2.15061
-2.67922 7.02359 -2.18261
-2.67664 6.95089 -2.16263
-2.6878 6.91475 -2.15401
-2.71285 6.91451 -2.15659
-2.73796 6.91427 -2.1592
-2.76312 6.91402 -2.16184
-2.78835 6.91377 -2.1645
-2.81364 6.91352 -2.16719
-2.83899 6.91327 -2.1699
-2.8644 6.91301 -2.17265
-2.88988 6.91276 -2.17542
-2.91543 6.91249 -2.17822
-2.94104 6.91223 -2.18105
-2.96671 6.91196 -2.18391
-2.99245 6.91169 -2.1868
-3.01826 6.91142 -2.18971
-3.04413 6.91115 -2.19266
-3.07008 6.91087 -2.19563
-3.09609 6.91059 -2.19864
-3.12218 6.91031 -2.20167
-3.14834 6.91002 -2.20473
-3.17457 6.90973 -2.20782
-3.20087 6.90944 -2.21095
-3.22725 6.90915 -2.2141
-3.2537 6.90885 -2.21728
-3.28023 6.90855 -2.2205
-3.30683 6.90825 -2.22374
-3.33351 6.90794 -2.22702
-3.36027 6.90763 -2.23032
-3.42606 6.98676 -2.25935
-3.4251 6.92941 -2.24429
-3.44727 6.91922 -2.2445
-3.47421 6.91854 -2.24782
-3.50124 6.91785 -2.25118
-3.52834 6.91716 -2.25456
-3.55547 6.91634 -2.25794
-3.58289 6.91593 -2.26149
-2.17957 7.25452 -2.26776
-2.19471 7.22214 -2.2598
-2.20974 7.18999 -2.25191
-2.22467 7.15806 -2.24409
-2.23971 7.12705 -2.23658
-2.25951 7.11154 -2.23393
-2.27926 7.09606 -2.23132
-2.29897 7.08062 -2.22873
-2.31863 7.0652 -2.22617
-2.33825 7.04982 -2.22364
-2.35782 7.03448 -2.22114
-2.37734 7.01917 -2.21866
-2.39693 7.00421 -2.21631
-2.41668 6.98986 -2.21417
-2.4387 6.98216 -2.21416
-2.46092 6.97499 -2.21433
-2.48301 6.96748 -2.21443
-2.50509 6.95993 -2.21453
-2.52718 6.95238 -2.21465
