ply
format ascii 1.0
comment Created by Open3D
element vertex 1793
property double x
property double y
property double z
end_header
1.26854 -8.24457 -1.54244
1.29551 -8.24793 -1.54382
1.32252 -8.25128 -1.54521
1.34958 -8.25462 -1.54662
1.37671 -8.25813 -1.54808
1.40391 -8.26167 -1.54956
1.43114 -8.2652 -1.55105
1.45843 -8.26871 -1.55256
1.48577 -8.2722 -1.55408
1.51316 -8.27568 -1.55562
1.54097 -8.28118 -1.55755
1.56914 -8.28818 -1.55978
1.59738 -8.29518 -1.56204
1.62571 -8.30218 -1.56431
1.65409 -8.30907 -1.56657
1.68254 -8.31595 -1.56885
1.71107 -8.32282 -1.57115
1.73969 -8.3297 -1.57347
1.76838 -8.33657 -1.57581
1.79716 -8.34343 -1.57816
1.82601 -8.3503 -1.58053
1.85495 -8.35717 -1.58292
1.88397 -8.36403 -1.58533
1.91386 -8.37433 -1.58842
1.94531 -8.39092 -1.59271
1.9767 -8.40658 -1.59685
2.0164 -8.45648 -1.60752
2.06195 -8.52907 -1.62254
2.10277 -8.58021 -1.63351
2.14157 -8.62169 -1.64267
2.19241 -8.70971 -1.66075
2.26065 -8.86349 -1.69141
2.34401 -9.0716 -1.73251
-0.0823264 -8.11436 -1.57035
-0.0569239 -8.11474 -1.57039
-0.0315137 -8.11512 -1.57043
-0.00610794 -8.11549 -1.57049
0.019301 -8.11585 -1.57057
0.0447155 -8.11621 -1.57066
0.0701327 -8.11656 -1.57076
0.095551 -8.1169 -1.57088
0.120977 -8.11724 -1.57101
0.146403 -8.11757 -1.57115
0.171836 -8.11789 -1.57131
0.197274 -8.1182 -1.57148
0.222717 -8.11851 -1.57167
0.248166 -8.1188 -1.57187
0.273624 -8.1191 -1.57208
0.299087 -8.11938 -1.57231
0.324556 -8.11966 -1.57255
0.350035 -8.11993 -1.57281
0.375522 -8.12019 -1.57308
0.401017 -8.12045 -1.57337
0.426582 -8.12186 -1.57389
0.452109 -8.12231 -1.57425
0.47765 -8.12276 -1.57461
0.503205 -8.12319 -1.575
0.528768 -8.12361 -1.57539
0.554342 -8.12403 -1.5758
0.579935 -8.12444 -1.57622
0.605536 -8.12484 -1.57666
0.631153 -8.12523 -1.57711
0.656785 -8.12561 -1.57758
0.68243 -8.12598 -1.57806
0.708089 -8.12634 -1.57855
0.733764 -8.1267 -1.57906
0.759458 -8.12705 -1.57958
0.785166 -8.12739 -1.58012
0.81089 -8.12772 -1.58067
0.836635 -8.12804 -1.58123
0.862394 -8.12835 -1.58181
0.888173 -8.12866 -1.5824
0.913971 -8.12895 -1.58301
0.939785 -8.12924 -1.58363
0.965619 -8.12952 -1.58427
0.991862 -8.13294 -1.58553
1.01781 -8.1337 -1.58629
1.04378 -8.13445 -1.58707
1.06978 -8.13519 -1.58786
1.0958 -8.13591 -1.58866
1.12184 -8.13662 -1.58948
1.14791 -8.13732 -1.59031
1.174 -8.138 -1.59115
1.20013 -8.13868 -1.59201
1.22628 -8.13934 -1.59288
1.25296 -8.14329 -1.59442
1.27958 -8.14653 -1.59583
1.30625 -8.14975 -1.59725
1.33296 -8.15295 -1.59869
1.35971 -8.15614 -1.60014
1.38651 -8.15931 -1.60161
1.41336 -8.16247 -1.60309
1.44024 -8.16561 -1.60458
1.46718 -8.16873 -1.60609
1.49421 -8.17204 -1.60765
1.52174 -8.17786 -1.60973
1.54954 -8.18463 -1.61201
1.5774 -8.19139 -1.61431
1.60533 -8.19816 -1.61662
1.63335 -8.20492 -1.61895
1.66144 -8.21168 -1.62131
1.68961 -8.21843 -1.62368
1.71786 -8.22519 -1.62607
1.74619 -8.23193 -1.62847
1.77456 -8.23856 -1.63087
1.80302 -8.24519 -1.6333
1.83156 -8.25181 -1.63574
1.86018 -8.25842 -1.63819
1.88888 -8.26504 -1.64067
1.91859 -8.27563 -1.64396
1.94994 -8.29279 -1.64857
1.98148 -8.31003 -1.65322
2.01318 -8.32735 -1.65792
2.04506 -8.34475 -1.66265
2.07712 -8.36223 -1.66742
2.11766 -8.41277 -1.67881
2.15862 -8.46344 -1.69026
2.19725 -8.50365 -1.69966
2.23631 -8.54425 -1.70916
2.27579 -8.58526 -1.71878
2.3157 -8.62668 -1.72852
-0.0822603 -8.10783 -1.63912
-0.0568747 -8.10801 -1.63911
-0.0314878 -8.10819 -1.63912
-0.00610264 -8.10837 -1.63914
0.0192835 -8.10855 -1.63918
0.0446746 -8.10872 -1.63924
0.0700663 -8.10889 -1.63931
0.0954595 -8.10907 -1.6394
0.120859 -8.10924 -1.6395
0.146257 -8.10941 -1.63962
0.171658 -8.10957 -1.63975
0.197069 -8.10974 -1.6399
0.222481 -8.10991 -1.64007
0.2479 -8.11007 -1.64025
0.273325 -8.11024 -1.64045
0.298754 -8.1104 -1.64066
0.324198 -8.11072 -1.64093
0.349656 -8.11113 -1.64122
0.375122 -8.11154 -1.64154
0.400597 -8.11194 -1.64186
0.426081 -8.11232 -1.6422
0.451574 -8.11267 -1.64255
0.477078 -8.11302 -1.64292
0.502596 -8.11337 -1.6433
0.528125 -8.11372 -1.64369
0.553664 -8.11406 -1.64411
0.579219 -8.11441 -1.64454
0.604784 -8.11476 -1.64498
0.630367 -8.1151 -1.64545
0.655964 -8.11545 -1.64592
0.681574 -8.11579 -1.64642
0.707201 -8.11613 -1.64693
0.73284 -8.11648 -1.64746
0.758503 -8.11682 -1.648
0.784177 -8.11716 -1.64856
0.809871 -8.1175 -1.64913
0.835585 -8.11784 -1.64973
0.861314 -8.11818 -1.65034
0.887063 -8.11852 -1.65096
0.912837 -8.11887 -1.65161
0.938626 -8.11921 -1.65227
0.964436 -8.11956 -1.65294
0.990233 -8.11959 -1.65357
1.01593 -8.11867 -1.65402
1.04164 -8.11775 -1.65449
1.06753 -8.1181 -1.65524
1.09358 -8.11945 -1.6562
1.11966 -8.1208 -1.65719
1.14577 -8.12216 -1.65819
1.17192 -8.12351 -1.6592
1.19809 -8.12486 -1.66024
1.2243 -8.12621 -1.66129
1.25024 -8.12565 -1.66197
1.27611 -8.12444 -1.66253
1.30199 -8.12322 -1.6631
1.32789 -8.12199 -1.6637
1.3539 -8.1213 -1.66441
1.38032 -8.1229 -1.66562
1.40678 -8.1245 -1.66684
1.43328 -8.12609 -1.66808
1.45981 -8.12768 -1.66934
1.48638 -8.12927 -1.67061
1.51318 -8.13184 -1.67211
1.54009 -8.13473 -1.67368
1.5671 -8.1379 -1.67534
1.59419 -8.14122 -1.67704
1.62133 -8.14455 -1.67876
1.64853 -8.14787 -1.6805
1.67579 -8.1512 -1.68226
1.7031 -8.15453 -1.68404
1.73047 -8.15786 -1.68584
1.7579 -8.16119 -1.68766
1.78539 -8.16452 -1.6895
1.81293 -8.16786 -1.69135
1.8411 -8.17375 -1.69376
1.87086 -8.18617 -1.69754
1.90184 -8.20339 -1.70234
1.933 -8.22071 -1.70718
1.96433 -8.23811 -1.71206
1.99584 -8.2556 -1.71698
2.02752 -8.27318 -1.72195
2.05939 -8.29085 -1.72696
2.09145 -8.30862 -1.73202
2.12369 -8.32647 -1.73712
2.15612 -8.34445 -1.74227
2.19205 -8.37515 -1.7501
2.23471 -8.43032 -1.76309
2.27801 -8.48629 -1.77628
2.32196 -8.54309 -1.78968
-0.0822052 -8.10241 -1.70824
-0.0568366 -8.10259 -1.70823
-0.0314667 -8.10277 -1.70824
-0.00609849 -8.10294 -1.70826
0.0192706 -8.10312 -1.7083
0.0446462 -8.10329 -1.70836
0.0700194 -8.10347 -1.70843
0.0953947 -8.10364 -1.70852
0.120778 -8.10381 -1.70863
0.146159 -8.10398 -1.70876
0.171545 -8.10415 -1.7089
0.196938 -8.10437 -1.70907
0.222341 -8.10478 -1.70929
0.24775 -8.1052 -1.70953
0.27317 -8.10561 -1.70979
0.298595 -8.10602 -1.71007
0.324028 -8.10643 -1.71036
0.349471 -8.10683 -1.71067
0.374924 -8.10724 -1.71099
0.400385 -8.10765 -1.71133
0.425855 -8.10803 -1.71169
0.451334 -8.10837 -1.71205
0.476825 -8.10872 -1.71243
0.50233 -8.10907 -1.71283
0.527845 -8.10942 -1.71324
0.553371 -8.10977 -1.71367
0.578912 -8.11011 -1.71412
0.604465 -8.11046 -1.71459
0.630033 -8.1108 -1.71507
0.655616 -8.11115 -1.71557
0.681212 -8.11149 -1.71608
0.706825 -8.11183 -1.71661
0.732452 -8.11217 -1.71716
0.7581 -8.11251 -1.71773
0.783763 -8.11286 -1.71831
0.809443 -8.11321 -1.71892
0.835144 -8.11356 -1.71954
0.860861 -8.11391 -1.72017
0.886599 -8.11425 -1.72082
0.912357 -8.1146 -1.7215
0.938132 -8.11494 -1.72218
0.963931 -8.11529 -1.72289
0.989706 -8.11526 -1.72353
1.01539 -8.11434 -1.724
1.04108 -8.11342 -1.72449
1.06679 -8.1125 -1.725
1.09252 -8.11157 -1.72552
1.11826 -8.11065 -1.72606
1.14415 -8.11061 -1.72681
1.17025 -8.11195 -1.72786
1.19639 -8.11329 -1.72894
1.22256 -8.11463 -1.73003
1.24849 -8.11427 -1.73078
1.27432 -8.11305 -1.73136
1.30017 -8.11183 -1.73196
1.32603 -8.1106 -1.73258
1.35191 -8.10938 -1.73321
1.37782 -8.10814 -1.73386
1.40374 -8.10691 -1.73453
1.42967 -8.10567 -1.73521
1.45564 -8.10443 -1.73591
1.48181 -8.10424 -1.73686
1.50852 -8.10677 -1.73841
1.53534 -8.10963 -1.74004
1.5622 -8.11249 -1.7417
1.58912 -8.11535 -1.74337
1.61609 -8.11821 -1.74506
1.64318 -8.12143 -1.74685
1.67035 -8.12472 -1.74867
1.69757 -8.12801 -1.75052
1.72484 -8.1313 -1.75238
1.75217 -8.13459 -1.75426
1.78034 -8.14145 -1.75694
1.80879 -8.1492 -1.75982
1.83733 -8.15697 -1.76273
1.86547 -8.16258 -1.7652
1.89356 -8.16767 -1.76758
1.92208 -8.17428 -1.7703
1.9532 -8.19145 -1.77533
1.9845 -8.20871 -1.78041
2.01597 -8.22605 -1.78553
2.04763 -8.24349 -1.7907
2.07947 -8.26101 -1.79591
2.11148 -8.27863 -1.80117
2.14403 -8.29764 -1.80676
2.17694 -8.31742 -1.81254
2.211 -8.34084 -1.81914
2.25366 -8.39556 -1.83261
2.29989 -8.4619 -1.84865
2.36073 -8.57951 -1.87595
-0.0821515 -8.09697 -1.7775
-0.0568004 -8.09715 -1.7775
-0.0314461 -8.09733 -1.7775
-0.00609444 -8.09751 -1.77753
0.0192577 -8.09768 -1.77757
0.0446143 -8.09785 -1.77763
0.0699734 -8.09803 -1.77771
0.0953332 -8.09841 -1.77785
0.120703 -8.09883 -1.77802
0.146073 -8.09925 -1.7782
0.171448 -8.09966 -1.7784
0.196834 -8.10007 -1.77862
0.222222 -8.10048 -1.77885
0.247619 -8.1009 -1.7791
0.273024 -8.10131 -1.77937
0.298436 -8.10172 -1.77966
0.323856 -8.10212 -1.77996
0.349285 -8.10253 -1.78029
0.374725 -8.10294 -1.78062
0.400172 -8.10334 -1.78098
0.425631 -8.10372 -1.78135
0.451095 -8.10407 -1.78173
0.476572 -8.10442 -1.78212
0.502065 -8.10477 -1.78253
0.527565 -8.10511 -1.78296
0.553077 -8.10546 -1.78341
0.578605 -8.1058 -1.78388
0.604144 -8.10615 -1.78436
0.629698 -8.1065 -1.78486
0.655269 -8.10685 -1.78538
0.680852 -8.1072 -1.78592
0.706451 -8.10755 -1.78648
0.732068 -8.1079 -1.78705
0.757703 -8.10825 -1.78764
0.78335 -8.10859 -1.78825
0.809019 -8.10894 -1.78888
0.834705 -8.10929 -1.78952
0.860408 -8.10963 -1.79018
0.88613 -8.10998 -1.79086
0.911876 -8.11032 -1.79156
0.937638 -8.11066 -1.79228
0.963422 -8.111 -1.79301
0.989177 -8.11092 -1.79367
1.01484 -8.11 -1.79416
1.04053 -8.10908 -1.79466
1.06622 -8.10816 -1.79519
1.09193 -8.10723 -1.79573
1.11766 -8.10631 -1.7963
1.14341 -8.10538 -1.79687
1.16917 -8.10445 -1.79747
1.19494 -8.10351 -1.79808
1.22081 -8.10305 -1.79882
1.24674 -8.10287 -1.79964
1.27253 -8.10165 -1.80025
1.31466 -8.20226 -1.82351
1.33189 -8.1464 -1.81201
1.35308 -8.11639 -1.80626
1.37514 -8.09241 -1.80188
1.40121 -8.09231 -1.80282
1.42732 -8.09232 -1.80381
1.45346 -8.09232 -1.80482
1.47963 -8.09232 -1.80584
1.50583 -8.09233 -1.80689
1.53206 -8.09233 -1.80795
1.55832 -8.09234 -1.80903
1.58461 -8.09234 -1.81013
1.61094 -8.09234 -1.81125
1.67489 -8.27815 -1.854
1.71616 -8.34756 -1.87074
1.69204 -8.10157 -1.8168
1.72015 -8.1092 -1.81971
1.74835 -8.11686 -1.82264
1.77664 -8.12454 -1.82561
1.80503 -8.13225 -1.8286
1.8335 -8.13997 -1.83162
1.86175 -8.1463 -1.83435
1.88978 -8.15136 -1.83681
1.91788 -8.15643 -1.8393
1.94606 -8.16151 -1.84181
1.97432 -8.1666 -1.84434
2.00452 -8.1793 -1.84862
2.03596 -8.1965 -1.85394
2.06758 -8.21379 -1.8593
2.09954 -8.23179 -1.86486
2.13202 -8.25119 -1.87075
2.16471 -8.27071 -1.87671
2.19761 -8.29034 -1.88271
2.23071 -8.31008 -1.88877
2.27869 -8.38389 -1.90716
2.34273 -8.51409 -1.93844
-0.0820947 -8.09152 -1.84693
-0.0567622 -8.0917 -1.84692
-0.0314249 -8.09202 -1.84696
-0.00609059 -8.09244 -1.84705
0.0192462 -8.09286 -1.84715
0.0445892 -8.09327 -1.84727
0.069935 -8.09369 -1.8474
0.0952826 -8.09411 -1.84755
0.120639 -8.09452 -1.84773
0.145996 -8.09494 -1.84792
0.171359 -8.09535 -1.84813
0.196729 -8.09576 -1.84835
0.222104 -8.09617 -1.84859
0.247488 -8.09658 -1.84885
0.272879 -8.09699 -1.84913
0.298276 -8.0974 -1.84943
0.323682 -8.09781 -1.84975
0.349099 -8.09822 -1.85008
0.374525 -8.09862 -1.85043
0.399959 -8.09903 -1.8508
0.425404 -8.09941 -1.85119
0.450856 -8.09976 -1.85158
0.476319 -8.10011 -1.85199
0.501797 -8.10046 -1.85242
0.527284 -8.10081 -1.85287
0.552785 -8.10117 -1.85334
0.5783 -8.10152 -1.85382
0.603826 -8.10187 -1.85433
0.629366 -8.10223 -1.85485
0.654923 -8.10258 -1.85539
0.680493 -8.10292 -1.85595
0.706079 -8.10327 -1.85653
0.73168 -8.10362 -1.85712
0.757301 -8.10397 -1.85774
0.782937 -8.10431 -1.85837
0.80859 -8.10466 -1.85902
0.834264 -8.105 -1.85969
0.859953 -8.10535 -1.86037
0.885663 -8.10569 -1.86108
0.911394 -8.10603 -1.8618
0.937142 -8.10637 -1.86255
0.96291 -8.10671 -1.86331
0.988646 -8.10657 -1.86398
1.01431 -8.10572 -1.86451
1.04001 -8.10508 -1.8651
1.06574 -8.10445 -1.86571
1.09147 -8.10381 -1.86634
1.11723 -8.10318 -1.86699
1.14301 -8.10254 -1.86766
1.1688 -8.1019 -1.86835
1.21257 -8.22303 -1.89715
1.22803 -8.15096 -1.8814
1.24569 -8.09601 -1.86961
1.27106 -8.09229 -1.86966
1.29704 -8.0923 -1.87059
1.32304 -8.0923 -1.87154
1.34907 -8.0923 -1.8725
1.37513 -8.09231 -1.87349
1.40121 -8.09231 -1.8745
1.42732 -8.09232 -1.87553
1.45346 -8.09232 -1.87657
1.47963 -8.09232 -1.87764
1.50583 -8.09233 -1.87873
1.53206 -8.09233 -1.87983
1.55832 -8.09234 -1.88096
1.58462 -8.09234 -1.8821
1.61094 -8.09235 -1.88327
1.6373 -8.09235 -1.88445
1.66369 -8.09235 -1.88566
1.69012 -8.09236 -1.88688
1.71658 -8.09236 -1.88813
1.77251 -8.22899 -1.92129
1.77295 -8.10764 -1.89425
1.80127 -8.1153 -1.89734
1.82967 -8.12298 -1.90047
1.85803 -8.13003 -1.90347
1.886 -8.13506 -1.90602
1.91404 -8.1401 -1.90859
1.94216 -8.14514 -1.91119
1.97036 -8.1502 -1.91382
1.99863 -8.15527 -1.91647
2.02698 -8.16035 -1.91914
2.05578 -8.16693 -1.9222
2.08873 -8.1894 -1.92902
2.12237 -8.21383 -1.93633
2.15627 -8.23845 -1.94371
2.19043 -8.26325 -1.95117
2.22486 -8.28827 -1.95871
2.27168 -8.35811 -1.97689
2.33822 -8.4977 -2.01163
-0.0820623 -8.08816 -1.91703
-0.0567407 -8.08864 -1.91709
-0.0314126 -8.08912 -1.91717
-0.00608692 -8.0896 -1.91727
0.0192403 -8.09008 -1.91739
0.0445751 -8.09056 -1.91753
0.0699119 -8.09105 -1.91768
0.095252 -8.09153 -1.91786
0.120602 -8.09201 -1.91805
0.145951 -8.0925 -1.91827
0.17131 -8.09298 -1.9185
0.196674 -8.09346 -1.91875
0.222044 -8.09395 -1.91902
0.247423 -8.09443 -1.91931
0.27281 -8.09492 -1.91962
0.298203 -8.0954 -1.91995
0.323605 -8.09589 -1.92029
0.34902 -8.09638 -1.92066
0.374444 -8.09687 -1.92104
0.399877 -8.09735 -1.92145
0.425322 -8.09787 -1.92188
0.450785 -8.09848 -1.92235
0.476259 -8.09909 -1.92284
0.50175 -8.0997 -1.92334
0.527251 -8.10032 -1.92387
0.552762 -8.10085 -1.9244
0.578284 -8.10132 -1.92493
0.603818 -8.10179 -1.92548
0.629368 -8.10226 -1.92605
0.654935 -8.10273 -1.92664
0.680516 -8.1032 -1.92725
0.706114 -8.10367 -1.92788
0.731729 -8.10415 -1.92853
0.757365 -8.10462 -1.9292
0.783013 -8.1051 -1.92989
0.808681 -8.10558 -1.93059
0.834373 -8.10606 -1.93132
0.86008 -8.10654 -1.93207
0.885809 -8.10702 -1.93283
0.91156 -8.1075 -1.93362
0.937328 -8.10798 -1.93442
0.963118 -8.10847 -1.93525
0.988779 -8.10767 -1.93579
1.01433 -8.10587 -1.93611
1.03988 -8.10408 -1.93645
1.06558 -8.10324 -1.93704
1.09131 -8.1026 -1.93769
1.11706 -8.10197 -1.93837
1.16239 -8.23995 -1.97224
1.17596 -8.15156 -1.95195
1.19329 -8.09228 -1.93864
1.21919 -8.09228 -1.93955
1.24511 -8.09229 -1.94048
1.27106 -8.09229 -1.94142
1.29704 -8.0923 -1.94239
1.32304 -8.0923 -1.94337
1.34907 -8.0923 -1.94438
1.37513 -8.09231 -1.94541
1.40121 -8.09231 -1.94645
1.42732 -8.09232 -1.94752
1.45346 -8.09232 -1.9486
1.47963 -8.09232 -1.94971
1.50583 -8.09233 -1.95084
1.53206 -8.09233 -1.95199
1.55832 -8.09234 -1.95316
1.58461 -8.09234 -1.95434
1.61094 -8.09235 -1.95555
1.6373 -8.09235 -1.95678
1.66369 -8.09235 -1.95803
1.69012 -8.09236 -1.95931
1.71658 -8.09236 -1.9606
1.74308 -8.09237 -1.96191
1.76961 -8.09237 -1.96325
1.85282 -8.34758 -2.02656
1.82585 -8.106 -1.96929
1.85429 -8.11366 -1.97255
1.88222 -8.11876 -1.97521
1.9102 -8.12376 -1.97788
1.93826 -8.12878 -1.98057
1.96696 -8.13615 -1.98385
1.99624 -8.14552 -1.98765
2.02563 -8.15492 -1.99148
2.05514 -8.16437 -1.99535
2.08772 -8.18544 -2.00209
2.12134 -8.20985 -2.00967
2.15522 -8.23443 -2.01733
2.18936 -8.25921 -2.02507
2.22439 -8.28653 -2.03347
2.26738 -8.34228 -2.04888
2.33383 -8.48173 -2.08492
-0.082071 -8.08904 -1.98839
-0.0567471 -8.08956 -1.98846
-0.0314179 -8.09007 -1.98855
-0.00609065 -8.09058 -1.98866
0.019242 -8.0911 -1.9888
0.0445804 -8.09161 -1.98895
0.0699214 -8.09213 -1.98912
0.0952653 -8.09264 -1.98931
0.12062 -8.09316 -1.98952
0.145972 -8.09367 -1.98975
0.171334 -8.09416 -1.98999
0.196702 -8.09464 -1.99025
0.222076 -8.09513 -1.99053
0.247458 -8.09561 -1.99083
0.27285 -8.0961 -1.99115
0.298248 -8.09659 -1.99149
0.323652 -8.09707 -1.99185
0.349071 -8.09756 -1.99223
0.374498 -8.09805 -1.99263
0.399935 -8.09853 -1.99304
0.425382 -8.09907 -1.99349
0.45085 -8.09968 -1.99398
0.476328 -8.10029 -1.99449
0.501824 -8.1009 -1.99502
0.527329 -8.10151 -1.99556
0.552849 -8.10212 -1.99613
0.578385 -8.10273 -1.99672
0.603935 -8.10335 -1.99733
0.629501 -8.10396 -1.99795
0.655085 -8.10458 -1.9986
0.680684 -8.10519 -1.99927
0.7063 -8.10581 -1.99996
0.731933 -8.10643 -2.00066
0.757589 -8.10705 -2.00139
0.78326 -8.10767 -2.00214
0.808938 -8.10816 -2.00288
0.834637 -8.10864 -2.00363
0.860353 -8.10912 -2.00441
0.886088 -8.1096 -2.0052
0.911849 -8.11008 -2.00602
0.937627 -8.11057 -2.00685
0.963426 -8.11105 -2.00771
0.989038 -8.10979 -2.00815
1.01459 -8.10799 -2.00849
1.04016 -8.1062 -2.00884
1.06573 -8.1044 -2.00921
1.09127 -8.10228 -2.00952
1.13412 -8.22568 -2.041
1.14156 -8.09227 -2.00877
1.16741 -8.09228 -2.00967
1.19329 -8.09228 -2.01059
1.21919 -8.09228 -2.01153
1.24511 -8.09229 -2.01249
1.27106 -8.09229 -2.01347
1.29704 -8.0923 -2.01447
1.32304 -8.0923 -2.01549
1.34907 -8.0923 -2.01654
1.37513 -8.09231 -2.0176
1.40121 -8.09231 -2.01869
1.42732 -8.09232 -2.01979
1.45346 -8.09232 -2.02092
1.47963 -8.09232 -2.02207
1.50583 -8.09233 -2.02324
1.53206 -8.09233 -2.02443
1.55832 -8.09234 -2.02564
1.58461 -8.09234 -2.02687
1.61094 -8.09235 -2.02813
1.6373 -8.09235 -2.0294
1.66369 -8.09235 -2.0307
1.69012 -8.09236 -2.03202
1.71658 -8.09236 -2.03336
1.74308 -8.09237 -2.03472
1.76961 -8.09237 -2.03611
1.79618 -8.09237 -2.03751
1.8625 -8.26874 -2.08338
1.86034 -8.14017 -2.05244
1.87968 -8.10783 -2.04576
1.90863 -8.11709 -2.04959
1.93769 -8.12639 -2.05346
1.96685 -8.13572 -2.05737
1.99613 -8.14509 -2.06131
2.02552 -8.1545 -2.06528
2.05503 -8.16394 -2.06929
2.0867 -8.18147 -2.07538
2.12031 -8.20584 -2.08324
2.15416 -8.2304 -2.09118
2.18878 -8.25703 -2.09967
2.22392 -8.28478 -2.10849
2.26307 -8.32643 -2.12088
2.33027 -8.4688 -2.159
2.40209 -8.62417 -2.20051
-0.0820799 -8.08992 -2.06005
-0.0567533 -8.09043 -2.06013
-0.0314208 -8.09095 -2.06022
-0.00608987 -8.09146 -2.06034
0.0192441 -8.09198 -2.06048
0.0445833 -8.09249 -2.06063
0.069929 -8.09301 -2.06081
0.0952757 -8.09352 -2.06101
0.120632 -8.09404 -2.06122
0.145988 -8.09455 -2.06146
0.171351 -8.09507 -2.06172
0.196725 -8.09559 -2.062
0.222102 -8.0961 -2.0623
0.247488 -8.09662 -2.06262
0.272883 -8.09714 -2.06296
0.298287 -8.09766 -2.06332
0.323697 -8.09818 -2.0637
0.34912 -8.0987 -2.0641
0.374551 -8.09922 -2.06452
0.399993 -8.09972 -2.06496
0.425445 -8.10026 -2.06542
0.450917 -8.10087 -2.06593
0.476399 -8.10148 -2.06645
0.501898 -8.10209 -2.067
0.527407 -8.10271 -2.06757
0.552929 -8.10332 -2.06816
0.578471 -8.10393 -2.06877
0.604019 -8.10448 -2.06938
0.629583 -8.10502 -2.07001
0.655162 -8.10556 -2.07066
0.68076 -8.1061 -2.07133
0.706371 -8.10663 -2.07202
0.732001 -8.10717 -2.07274
0.757649 -8.10771 -2.07347
0.783316 -8.10824 -2.07423
0.809001 -8.10878 -2.075
0.834707 -8.10931 -2.0758
0.860431 -8.10985 -2.07661
0.886173 -8.11038 -2.07745
0.911942 -8.11092 -2.07831
0.937729 -8.11145 -2.07919
0.963536 -8.11198 -2.08009
0.989179 -8.11094 -2.0806
1.01469 -8.10877 -2.08085
1.04021 -8.1066 -2.08112
1.06573 -8.10442 -2.08141
1.09126 -8.10225 -2.08171
1.12349 -8.14858 -2.09451
1.14156 -8.09227 -2.08095
1.16741 -8.09228 -2.08188
1.19329 -8.09228 -2.08283
1.21919 -8.09228 -2.0838
1.24511 -8.09229 -2.0848
1.27106 -8.09229 -2.08581
1.29704 -8.0923 -2.08685
1.32304 -8.0923 -2.08791
1.34907 -8.0923 -2.08899
1.37513 -8.09231 -2.09009
1.40121 -8.09231 -2.09122
1.42732 -8.09232 -2.09236
1.45346 -8.09232 -2.09353
1.47963 -8.09233 -2.09472
1.50583 -8.09233 -2.09593
1.53206 -8.09233 -2.09716
1.55832 -8.09234 -2.09842
1.58461 -8.09234 -2.0997
1.61094 -8.09235 -2.101
1.6373 -8.09235 -2.10232
1.66369 -8.09235 -2.10366
1.69012 -8.09236 -2.10503
1.71658 -8.09236 -2.10642
1.74308 -8.09237 -2.10783
1.76961 -8.09237 -2.10926
1.79618 -8.09237 -2.11072
1.82278 -8.09238 -2.1122
1.86599 -8.16486 -2.13263
1.8793 -8.10615 -2.11882
1.90835 -8.11592 -2.12293
1.93753 -8.12572 -2.12707
1.96675 -8.13529 -2.13118
1.99603 -8.14466 -2.13526
2.02542 -8.15407 -2.13937
2.05492 -8.16351 -2.14353
2.08568 -8.17748 -2.1489
2.11927 -8.20183 -2.15703
2.15348 -8.22779 -2.16562
2.18832 -8.25529 -2.17465
2.22345 -8.28303 -2.18378
2.25888 -8.311 -2.19301
2.3267 -8.45584 -2.23314
-0.0821059 -8.09248 -2.13248
-0.0567687 -8.09263 -2.13246
-0.0314269 -8.09278 -2.13246
-0.00609094 -8.09292 -2.13249
0.0192482 -8.09334 -2.1326
0.0445935 -8.09387 -2.13277
0.0699399 -8.09439 -2.13295
0.0952928 -8.09491 -2.13316
0.120653 -8.09544 -2.13339
0.146014 -8.09596 -2.13364
0.171381 -8.09649 -2.1339
0.19676 -8.09701 -2.1342
0.222143 -8.09754 -2.13451
0.247533 -8.09807 -2.13484
0.272932 -8.0986 -2.13519
0.298342 -8.09912 -2.13557
0.323756 -8.09965 -2.13597
0.349184 -8.10018 -2.13638
0.374621 -8.10071 -2.13682
0.400068 -8.10125 -2.13728
0.425507 -8.10145 -2.13768
0.450947 -8.10141 -2.13803
0.476393 -8.10138 -2.1384
0.501852 -8.10134 -2.1388
0.527316 -8.10131 -2.13921
0.55279 -8.10128 -2.13965
0.578279 -8.10124 -2.14011
0.60379 -8.10141 -2.14064
0.629345 -8.10195 -2.1413
0.654916 -8.10249 -2.14197
0.680501 -8.10302 -2.14266
0.706104 -8.10356 -2.14338
0.731723 -8.10409 -2.14412
0.757361 -8.10463 -2.14488
0.783019 -8.10516 -2.14566
0.808694 -8.1057 -2.14646
0.834389 -8.10623 -2.14728
0.860103 -8.10677 -2.14812
0.885837 -8.1073 -2.14899
0.911596 -8.10783 -2.14988
0.937371 -8.10836 -2.15079
0.963166 -8.10886 -2.15171
0.988947 -8.10904 -2.15257
1.01468 -8.10874 -2.15332
1.0402 -8.10657 -2.1536
1.06573 -8.10439 -2.15389
1.12429 -8.34747 -2.21942
1.11756 -8.10561 -2.15603
1.14156 -8.09227 -2.15343
1.16741 -8.09228 -2.15439
1.19329 -8.09228 -2.15538
1.21919 -8.09228 -2.15638
1.24511 -8.09229 -2.15741
1.27106 -8.09229 -2.15846
1.29704 -8.0923 -2.15954
1.32304 -8.0923 -2.16063
1.34907 -8.0923 -2.16175
1.37513 -8.09231 -2.16289
1.40121 -8.09231 -2.16406
1.42732 -8.09232 -2.16524
1.45346 -8.09232 -2.16645
1.47963 -8.09233 -2.16768
1.50583 -8.09233 -2.16893
1.53206 -8.09233 -2.17021
1.55832 -8.09234 -2.17151
1.58461 -8.09234 -2.17283
1.61094 -8.09235 -2.17418
1.6373 -8.09235 -2.17554
1.66369 -8.09235 -2.17693
1.69012 -8.09236 -2.17835
1.71658 -8.09236 -2.17979
1.74307 -8.09237 -2.18125
1.76961 -8.09237 -2.18273
1.79618 -8.09237 -2.18424
1.87403 -8.31993 -2.24723
1.87169 -8.18982 -2.21366
1.87887 -8.10431 -2.19213
1.90792 -8.11407 -2.19637
1.93709 -8.12387 -2.20065
1.96637 -8.13371 -2.20498
1.99576 -8.14358 -2.20934
2.02528 -8.1535 -2.21374
2.05481 -8.16308 -2.21807
2.08466 -8.17348 -2.22266
2.11848 -8.19878 -2.23134
2.15302 -8.22605 -2.24058
2.18785 -8.25354 -2.24992
-0.0821562 -8.09735 -2.2059
-0.0568028 -8.09749 -2.20588
-0.0314458 -8.09764 -2.20588
-0.0060951 -8.09779 -2.2059
0.0192583 -8.09794 -2.20595
0.0446161 -8.09809 -2.20602
0.0699742 -8.09824 -2.20611
0.095333 -8.09839 -2.20622
0.120698 -8.09855 -2.20636
0.146063 -8.09871 -2.20651
0.171432 -8.09887 -2.20669
0.196809 -8.09902 -2.20689
0.222185 -8.09919 -2.20711
0.247582 -8.09967 -2.20745
0.272987 -8.10019 -2.20781
0.298398 -8.10072 -2.2082
0.323821 -8.10125 -2.20861
0.349253 -8.10178 -2.20904
0.374696 -8.10231 -2.20949
0.400148 -8.10285 -2.20997
0.425589 -8.10295 -2.21035
0.451031 -8.10292 -2.21072
0.476482 -8.10288 -2.2111
0.501945 -8.10285 -2.21151
0.527414 -8.10282 -2.21194
0.552893 -8.10278 -2.2124
0.578386 -8.10275 -2.21287
0.603887 -8.10272 -2.21337
0.629402 -8.10269 -2.21389
0.654929 -8.10266 -2.21443
0.680468 -8.10262 -2.21499
0.70602 -8.10259 -2.21558
0.731587 -8.10256 -2.21618
0.757167 -8.10254 -2.21681
0.782762 -8.10251 -2.21746
0.808385 -8.10261 -2.21817
0.834071 -8.10314 -2.21902
0.859775 -8.10367 -2.2199
0.885499 -8.1042 -2.22079
0.911247 -8.10473 -2.22171
0.937013 -8.10526 -2.22264
0.962791 -8.10571 -2.22358
0.988563 -8.10589 -2.22447
1.01435 -8.10606 -2.22538
1.04016 -8.10624 -2.22631
1.06572 -8.10436 -2.2267
1.14155 -8.27956 -2.27676
1.14156 -8.09227 -2.22623
1.16741 -8.09228 -2.22722
1.19329 -8.09228 -2.22824
1.21919 -8.09228 -2.22928
1.24511 -8.09229 -2.23035
1.27106 -8.09229 -2.23143
1.29704 -8.0923 -2.23254
1.32304 -8.0923 -2.23368
1.34907 -8.09231 -2.23483
1.37513 -8.09231 -2.23601
1.40121 -8.09231 -2.23721
1.42732 -8.09232 -2.23844
1.45346 -8.09232 -2.23969
1.47963 -8.09233 -2.24096
1.50583 -8.09233 -2.24226
1.53206 -8.09233 -2.24358
1.55832 -8.09234 -2.24492
1.58461 -8.09234 -2.24629
1.61094 -8.09235 -2.24768
1.6373 -8.09235 -2.24909
1.66369 -8.09235 -2.25053
1.69012 -8.09236 -2.25199
1.71658 -8.09236 -2.25347
1.74308 -8.09237 -2.25499
1.76961 -8.09237 -2.25652
1.79618 -8.09238 -2.25808
1.87844 -8.10246 -2.26572
1.90748 -8.11222 -2.2701
1.93664 -8.12201 -2.27453
1.16741 -8.09228 -2.30038
1.19329 -8.09228 -2.30144
1.21919 -8.09229 -2.30251
1.24511 -8.09229 -2.30361
1.27106 -8.09229 -2.30473
1.29704 -8.0923 -2.30588
1.32304 -8.0923 -2.30705
1.34907 -8.09231 -2.30824
1.37513 -8.09231 -2.30946
1.40121 -8.09231 -2.3107
1.42732 -8.09232 -2.31197
1.45346 -8.09232 -2.31326
1.47963 -8.09233 -2.31457
1.50583 -8.09233 -2.31591
1.53206 -8.09233 -2.31727
1.55832 -8.09234 -2.31866
1.58461 -8.09234 -2.32007
1.61094 -8.09235 -2.32151
1.6373 -8.09235 -2.32297
1.66369 -8.09235 -2.32445
1.69012 -8.09236 -2.32596
1.71658 -8.09236 -2.3275
1.74308 -8.09237 -2.32906
1.21919 -8.09229 -2.37608
1.24511 -8.09229 -2.37722
1.27106 -8.09229 -2.37838
1.29704 -8.0923 -2.37956
1.32304 -8.0923 -2.38077
1.34907 -8.09231 -2.382
1.37512 -8.09231 -2.38326
1.40121 -8.09231 -2.38454
1.42732 -8.09232 -2.38584
1.45346 -8.09232 -2.38718
1.47963 -8.09233 -2.38853
1.50583 -8.09233 -2.38991
1.53206 -8.09233 -2.39132
1.55832 -8.09234 -2.39275
1.58462 -8.09234 -2.39421
1.61094 -8.09235 -2.39569
1.6373 -8.09235 -2.3972
1.66369 -8.09235 -2.39873
1.69012 -8.09236 -2.40029
1.32304 -8.0923 -2.45484
1.34907 -8.09231 -2.45611
1.37512 -8.09231 -2.45741
1.40121 -8.09231 -2.45873
1.42732 -8.09232 -2.46008
1.45346 -8.09232 -2.46145
1.47963 -8.09233 -2.46285
1.50583 -8.09233 -2.46427
1.53206 -8.09233 -2.46572
1.55832 -8.09234 -2.4672
1.58461 -8.09234 -2.4687
-0.511865 -9.224 -1.00204
-0.481542 -9.2009 -0.999357
-0.451373 -9.17774 -0.996682
-0.421009 -9.14702 -0.993197
-0.390806 -9.1153 -0.989614
-0.360809 -9.08357 -0.986042
-0.331019 -9.05183 -0.982478
-0.301438 -9.0201 -0.978926
-0.274104 -9.05588 -0.982711
-0.246758 -9.0993 -0.987334
-0.219146 -9.14295 -0.99199
-0.191273 -9.18681 -0.996678
-0.163261 -9.23866 -1.00224
-1.20673 -9.1613 -1.08005
-1.15729 -9.00474 -1.06116
-1.12305 -8.96128 -1.05562
-1.08958 -8.92166 -1.05054
-1.05641 -8.88234 -1.04551
-1.02356 -8.84332 -1.04054
-0.991012 -8.80461 -1.03561
-0.958815 -8.76672 -1.03079
-0.927662 -8.73619 -1.02686
-0.898461 -8.72255 -1.02491
-0.870399 -8.71922 -1.0242
-0.842369 -8.71586 -1.02348
-0.814356 -8.71227 -1.02276
-0.78635 -8.70836 -1.022
-0.758387 -8.70442 -1.02126
-0.730458 -8.70044 -1.02051
-0.702567 -8.69642 -1.01978
-0.674709 -8.69237 -1.01905
-0.646892 -8.68828 -1.01833
-0.619111 -8.68416 -1.01761
-0.591366 -8.68001 -1.0169
-0.563653 -8.67581 -1.0162
-0.535979 -8.67158 -1.0155
-0.508339 -8.66732 -1.01481
-0.480733 -8.66302 -1.01412
-0.453165 -8.65868 -1.01344
-0.425628 -8.65431 -1.01277
-0.398126 -8.64991 -1.0121
-0.370662 -8.64547 -1.01144
-0.34323 -8.64099 -1.01078
-0.31583 -8.63648 -1.01013
-0.288503 -8.63303 -1.00962
-0.261553 -8.64121 -1.01048
-0.234556 -8.64936 -1.01134
-0.207512 -8.65749 -1.01221
-0.180422 -8.66559 -1.01308
-0.153281 -8.67367 -1.01397
-0.126096 -8.68172 -1.01485
-0.0988585 -8.68974 -1.01575
-0.0715763 -8.69774 -1.01665
-0.0442415 -8.70571 -1.01757
-0.0168584 -8.71366 -1.01848
0.0105731 -8.72158 -1.01941
0.0380553 -8.72947 -1.02034
0.065601 -8.73919 -1.02149
0.0932318 -8.75084 -1.02288
0.120936 -8.76245 -1.02428
0.148716 -8.77405 -1.02569
0.176572 -8.78562 -1.0271
0.205254 -8.8295 -1.0323
0.234388 -8.87984 -1.03827
0.263857 -8.93071 -1.04431
0.293673 -8.98212 -1.05042
0.328643 -9.16809 -1.07229
-1.52796 -9.14314 -1.16167
-1.467 -8.95158 -1.13674
-1.42803 -8.88898 -1.12822
-1.38999 -8.82953 -1.12011
-1.35587 -8.79283 -1.11491
-1.32205 -8.75639 -1.10975
-1.28893 -8.72286 -1.10499
-1.25726 -8.69776 -1.1013
-1.22579 -8.67278 -1.09764
-1.19453 -8.64792 -1.09401
-1.16347 -8.62316 -1.09041
-1.1326 -8.59852 -1.08684
-1.10193 -8.574 -1.0833
-1.07146 -8.54963 -1.07979
-1.04118 -8.52538 -1.07631
-1.01109 -8.50124 -1.07285
-0.981185 -8.47721 -1.06942
-0.952369 -8.4613 -1.06703
-0.924211 -8.45034 -1.06528
-0.896897 -8.44647 -1.06443
-0.869893 -8.44518 -1.06392
-0.842912 -8.44387 -1.06341
-0.815954 -8.44255 -1.06292
-0.789017 -8.4412 -1.06243
-0.762105 -8.43983 -1.06195
-0.735213 -8.43845 -1.06148
-0.708342 -8.43704 -1.06102
-0.681497 -8.43561 -1.06056
-0.654666 -8.43417 -1.06012
-0.627862 -8.4327 -1.05968
-0.601076 -8.43122 -1.05925
-0.574326 -8.42992 -1.05885
-0.547597 -8.42868 -1.05848
-0.520886 -8.42742 -1.05811
-0.494194 -8.42614 -1.05775
-0.467516 -8.42485 -1.05739
-0.440858 -8.42353 -1.05705
-0.414213 -8.4222 -1.05671
-0.387583 -8.42085 -1.05639
-0.360973 -8.41947 -1.05607
-0.334376 -8.41808 -1.05575
-0.307792 -8.41667 -1.05545
-0.281225 -8.41524 -1.05516
-0.254758 -8.41681 -1.05525
-0.228352 -8.42058 -1.05562
-0.201923 -8.42433 -1.05601
-0.175476 -8.42807 -1.0564
-0.149007 -8.43178 -1.0568
-0.122519 -8.43548 -1.05721
-0.0960077 -8.43916 -1.05763
-0.069477 -8.44282 -1.05806
-0.0429226 -8.44646 -1.05849
-0.0163484 -8.45008 -1.05893
0.0102494 -8.45369 -1.05939
0.0368683 -8.45728 -1.05984
0.0635131 -8.46085 -1.06031
0.0902208 -8.46808 -1.06125
0.116979 -8.47569 -1.06224
0.143787 -8.48327 -1.06324
0.170647 -8.49084 -1.06425
0.197901 -8.51315 -1.06712
0.225564 -8.54549 -1.07126
0.253439 -8.57804 -1.07544
0.281533 -8.61081 -1.07965
0.309847 -8.64379 -1.0839
0.338381 -8.67699 -1.08819
0.367229 -8.71248 -1.09278
0.396935 -8.76183 -1.09913
0.426989 -8.81171 -1.10555
0.457392 -8.8621 -1.11204
0.488117 -8.91242 -1.11854
0.519197 -8.96319 -1.12512
-1.69259 -8.91548 -1.2139
-1.6473 -8.82846 -1.20134
-1.60754 -8.76833 -1.19246
-1.56882 -8.71165 -1.18408
-1.53319 -8.67013 -1.17777
-1.49793 -8.62899 -1.17153
-1.46318 -8.58913 -1.16549
-1.4293 -8.55274 -1.15994
-1.39572 -8.51664 -1.15444
-1.36321 -8.48549 -1.14963
-1.33214 -8.46206 -1.14588
-1.30268 -8.44786 -1.1434
-1.27341 -8.43418 -1.141
-1.24425 -8.42053 -1.13862
-1.21521 -8.4069 -1.13625
-1.18667 -8.39597 -1.13426
-1.15827 -8.38538 -1.13234
-1.1302 -8.37656 -1.13066
-1.10302 -8.37392 -1.12983
-1.07588 -8.37128 -1.12901
-1.04878 -8.36864 -1.1282
-1.02171 -8.36599 -1.12741
-0.994689 -8.36334 -1.12662
-0.9677 -8.36069 -1.12585
-0.940767 -8.35821 -1.12511
-0.914113 -8.358 -1.12469
-0.88748 -8.35778 -1.12428
-0.860866 -8.35755 -1.12388
-0.834271 -8.35732 -1.12349
-0.807694 -8.35708 -1.12311
-0.781131 -8.35683 -1.12274
-0.754585 -8.35658 -1.12238
-0.728059 -8.35633 -1.12203
-0.701544 -8.35607 -1.1217
-0.67505 -8.3558 -1.12137
-0.648563 -8.35553 -1.12106
-0.622096 -8.35526 -1.12075
-0.595643 -8.35497 -1.12046
-0.5692 -8.35469 -1.12017
-0.542771 -8.35439 -1.1199
-0.516355 -8.35409 -1.11963
-0.489951 -8.35379 -1.11938
-0.463558 -8.35348 -1.11914
-0.437176 -8.35316 -1.11891
-0.410802 -8.35284 -1.11868
-0.384441 -8.35252 -1.11847
-0.358088 -8.35219 -1.11827
-0.331745 -8.35185 -1.11808
-0.30542 -8.3518 -1.11794
-0.279103 -8.35174 -1.11781
-0.252789 -8.35167 -1.11769
-0.226485 -8.35173 -1.1176
-0.200185 -8.35182 -1.11752
-0.173891 -8.35191 -1.11745
-0.147596 -8.35199 -1.11739
-0.121308 -8.35206 -1.11735
-0.0950177 -8.35213 -1.11731
-0.0687326 -8.35219 -1.11728
-0.0424452 -8.35225 -1.11727
-0.0161593 -8.3523 -1.11726
0.0101266 -8.35235 -1.11727
0.036411 -8.35239 -1.11728
0.0626992 -8.35243 -1.11731
0.0889874 -8.35246 -1.11734
0.115278 -8.35248 -1.11739
0.14157 -8.3525 -1.11745
0.167869 -8.35262 -1.11753
0.194187 -8.35342 -1.11771
0.220563 -8.35611 -1.11816
0.247035 -8.36133 -1.11896
0.273834 -8.37533 -1.12094
0.300983 -8.39651 -1.1239
0.328272 -8.41777 -1.12688
0.3559 -8.44369 -1.13049
0.383839 -8.47274 -1.13453
0.41198 -8.50197 -1.13862
0.440321 -8.53137 -1.14273
0.468867 -8.56094 -1.14689
0.497619 -8.5907 -1.15108
-2.0772 -9.19252 -1.34048
-2.02313 -9.08619 -1.32404
-1.97561 -9.00625 -1.31148
-1.9371 -8.96542 -1.30463
-1.90139 -8.9363 -1.29952
-1.85293 -8.84522 -1.28542
-1.80541 -8.75558 -1.27156
-1.76262 -8.6862 -1.26067
-1.72454 -8.63791 -1.25287
-1.68636 -8.58734 -1.24476
-1.64857 -8.53691 -1.23669
-1.61126 -8.48708 -1.22873
-1.57552 -8.4438 -1.22174
-1.54315 -8.41712 -1.21718
-1.51206 -8.39643 -1.21349
-1.48163 -8.37854 -1.21022
-1.45309 -8.37071 -1.20843
-1.42526 -8.36658 -1.20718
-1.39749 -8.36245 -1.20594
-1.36978 -8.35832 -1.20472
-1.34218 -8.35454 -1.20356
-1.31528 -8.35498 -1.20302
-1.28827 -8.35446 -1.20235
-1.26098 -8.35187 -1.2014
-1.23372 -8.34928 -1.20047
-1.20651 -8.34669 -1.19954
-1.17934 -8.3441 -1.19863
-1.15221 -8.34151 -1.19773
-1.12512 -8.33891 -1.19684
-1.09807 -8.33631 -1.19597
-1.07105 -8.33371 -1.19511
-1.04408 -8.3311 -1.19425
-1.01713 -8.3285 -1.19342
-0.990233 -8.32588 -1.19259
-0.963366 -8.32327 -1.19178
-0.936705 -8.32213 -1.19118
-0.910169 -8.32193 -1.19074
-0.883651 -8.32172 -1.19031
-0.857153 -8.32151 -1.18988
-0.830674 -8.32129 -1.18947
-0.804213 -8.32106 -1.18907
-0.777765 -8.32083 -1.18868
-0.751338 -8.32059 -1.18831
-0.724923 -8.32035 -1.18794
-0.698525 -8.3201 -1.18758
-0.672143 -8.31985 -1.18724
-0.645773 -8.31959 -1.18691
-0.619421 -8.31932 -1.18659
-0.59308 -8.31905 -1.18628
-0.566755 -8.31877 -1.18597
-0.540438 -8.31849 -1.18569
-0.514137 -8.3182 -1.18541
-0.487846 -8.31791 -1.18514
-0.461565 -8.31761 -1.18489
-0.435299 -8.31733 -1.18465
-0.409055 -8.3173 -1.18445
-0.382816 -8.31727 -1.18427
-0.356589 -8.31723 -1.1841
-0.330368 -8.31718 -1.18394
-0.304151 -8.31713 -1.18379
-0.277944 -8.31707 -1.18365
-0.251739 -8.31701 -1.18352
-0.225543 -8.31701 -1.18342
-0.199352 -8.3171 -1.18333
-0.173168 -8.31719 -1.18326
-0.146982 -8.31727 -1.1832
-0.120803 -8.31734 -1.18315
-0.0946228 -8.31741 -1.18312
-0.0684455 -8.31748 -1.18309
-0.0422674 -8.31754 -1.18307
-0.0160921 -8.31759 -1.18307
0.0100835 -8.31763 -1.18307
0.0362601 -8.31767 -1.18309
0.0624385 -8.31771 -1.18311
0.0886175 -8.31774 -1.18315
0.114799 -8.3178 -1.18321
0.140988 -8.31816 -1.18331
0.167184 -8.31851 -1.18343
0.193384 -8.31886 -1.18356
0.219589 -8.3192 -1.1837
0.245868 -8.32181 -1.18418
0.272172 -8.32446 -1.18467
0.298494 -8.32712 -1.18518
0.324841 -8.32977 -1.1857
0.35121 -8.33242 -1.18623
0.377603 -8.33506 -1.18677
0.404216 -8.34174 -1.18789
0.430909 -8.34896 -1.18911
0.457652 -8.35618 -1.19033
0.484454 -8.3634 -1.19157
-2.34345 -8.92219 -1.39042
-2.30355 -8.884 -1.38333
-2.26404 -8.84609 -1.37631
-2.22489 -8.80847 -1.36936
-2.18735 -8.77605 -1.36324
-2.15135 -8.74886 -1.35796
-2.11561 -8.7218 -1.35272
-2.081 -8.69854 -1.34809
-2.04829 -8.68249 -1.3446
-2.01575 -8.66648 -1.34113
-1.98335 -8.65047 -1.33768
-1.95016 -8.63034 -1.33361
-1.91717 -8.61028 -1.32957
-1.88437 -8.59029 -1.32556
-1.84806 -8.55335 -1.31896
-1.80998 -8.5067 -1.31088
-1.77169 -8.4574 -1.30242
-1.73687 -8.4232 -1.2963
-1.70303 -8.39252 -1.29075
-1.67064 -8.36795 -1.28616
-1.64125 -8.35762 -1.28377
-1.61196 -8.34732 -1.2814
-1.58277 -8.33705 -1.27905
-1.55531 -8.33548 -1.27806
-1.52778 -8.33328 -1.27697
-1.49996 -8.32923 -1.27562
-1.47219 -8.32517 -1.27429
-1.44448 -8.32112 -1.27296
-1.41683 -8.31706 -1.27166
-1.38923 -8.31301 -1.27036
-1.3619 -8.31022 -1.26927
-1.33509 -8.31045 -1.26866
-1.30831 -8.31067 -1.26806
-1.28168 -8.31174 -1.2676
-1.25509 -8.31287 -1.26716
-1.22817 -8.31172 -1.26639
-1.20109 -8.30917 -1.26542
-1.17404 -8.30662 -1.26447
-1.14704 -8.30407 -1.26352
-1.12007 -8.30151 -1.26259
-1.09314 -8.29895 -1.26167
-1.06625 -8.29638 -1.26076
-1.0394 -8.29382 -1.25987
-1.01259 -8.29125 -1.25899
-0.985808 -8.28867 -1.25812
-0.959106 -8.28645 -1.25732
-0.932669 -8.28627 -1.25684
-0.906248 -8.28608 -1.25637
-0.879846 -8.28589 -1.25592
-0.853465 -8.28569 -1.25547
-0.827102 -8.28548 -1.25504
-0.800754 -8.28527 -1.25462
-0.774423 -8.28505 -1.25421
-0.748108 -8.28483 -1.25382
-0.721809 -8.2846 -1.25343
-0.695524 -8.28436 -1.25306
-0.669256 -8.28412 -1.2527
-0.643003 -8.28387 -1.25235
-0.616764 -8.28361 -1.25201
-0.590537 -8.28335 -1.25168
-0.564323 -8.28308 -1.25137
-0.538126 -8.28287 -1.25107
-0.511953 -8.28287 -1.25083
-0.485791 -8.28287 -1.25059
-0.459639 -8.28286 -1.25036
-0.433494 -8.28284 -1.25015
-0.407359 -8.28282 -1.24994
-0.381231 -8.28279 -1.24975
-0.355111 -8.28275 -1.24957
-0.328999 -8.28271 -1.2494
-0.302892 -8.28267 -1.24925
-0.276793 -8.28261 -1.2491
-0.250697 -8.28256 -1.24897
-0.224608 -8.28249 -1.24884
-0.198526 -8.28259 -1.24876
-0.172449 -8.28268 -1.24868
-0.146372 -8.28276 -1.24862
-0.120302 -8.28284 -1.24857
-0.0942301 -8.2829 -1.24853
-0.0681615 -8.28297 -1.2485
-0.042092 -8.28303 -1.24848
-0.0160253 -8.28308 -1.24848
0.0100427 -8.28312 -1.24848
0.0361092 -8.28316 -1.2485
0.062178 -8.2832 -1.24853
0.0882532 -8.28353 -1.24861
0.114331 -8.28389 -1.24872
0.140414 -8.28425 -1.24883
0.166502 -8.2846 -1.24895
0.192595 -8.28494 -1.24909
0.218693 -8.28527 -1.24924
0.244796 -8.2856 -1.2494
0.270967 -8.28768 -1.24983
0.297175 -8.29031 -1.25037
0.323402 -8.29293 -1.25091
0.349656 -8.29555 -1.25146
0.375929 -8.29817 -1.25203
0.402231 -8.30078 -1.25261
0.428556 -8.30339 -1.2532
0.454902 -8.30599 -1.2538
0.481278 -8.30859 -1.25442
-2.27587 -8.55526 -1.40969
-2.2431 -8.54013 -1.40603
-2.21047 -8.52503 -1.40239
-2.177 -8.50605 -1.39813
-2.1437 -8.487 -1.39388
-2.11157 -8.47203 -1.39033
-2.0801 -8.45915 -1.38713
-2.04878 -8.44629 -1.38396
-2.01758 -8.43346 -1.38081
-1.98652 -8.42065 -1.37768
-1.9556 -8.40787 -1.37458
-1.9248 -8.39512 -1.3715
-1.89413 -8.38239 -1.36844
-1.86384 -8.37078 -1.36558
-1.834 -8.36069 -1.36298
-1.80422 -8.35042 -1.36038
-1.77455 -8.34018 -1.35779
-1.74499 -8.32996 -1.35523
-1.71555 -8.31977 -1.35268
-1.6862 -8.30961 -1.35016
-1.65697 -8.29947 -1.34766
-1.62784 -8.28935 -1.34518
-1.60042 -8.2876 -1.34407
-1.57316 -8.2864 -1.34307
-1.54593 -8.28519 -1.34207
-1.51873 -8.28392 -1.34109
-1.49108 -8.27994 -1.33968
-1.46349 -8.27597 -1.33828
-1.43595 -8.27199 -1.3369
-1.40847 -8.26801 -1.33553
-1.38141 -8.2662 -1.33453
-1.35472 -8.26645 -1.33388
-1.32806 -8.2667 -1.33324
-1.30143 -8.26694 -1.33261
-1.2749 -8.26772 -1.33208
-1.24844 -8.26886 -1.33163
-1.22201 -8.26999 -1.33118
-1.19559 -8.27112 -1.33075
-1.16878 -8.26938 -1.32987
-1.1419 -8.26687 -1.32889
-1.11506 -8.26435 -1.32791
-1.08825 -8.26182 -1.32695
-1.06149 -8.2593 -1.326
-1.03476 -8.25677 -1.32506
-1.00807 -8.25424 -1.32414
-0.981409 -8.2517 -1.32323
-0.954979 -8.2508 -1.3226
-0.928658 -8.25063 -1.3221
-0.90235 -8.25046 -1.32161
-0.876065 -8.25028 -1.32113
-0.849797 -8.25009 -1.32067
-0.823548 -8.2499 -1.32021
-0.797315 -8.2497 -1.31977
-0.771098 -8.24949 -1.31935
-0.744896 -8.24928 -1.31893
-0.718712 -8.24906 -1.31853
-0.692543 -8.24884 -1.31814
-0.666387 -8.2486 -1.31776
-0.640252 -8.24846 -1.31741
-0.614147 -8.2485 -1.3171
-0.588052 -8.24852 -1.3168
-0.561969 -8.24854 -1.31651
-0.535892 -8.24856 -1.31624
-0.509833 -8.24857 -1.31598
-0.48378 -8.24857 -1.31573
-0.457734 -8.24856 -1.31549
-0.4317 -8.24855 -1.31527
-0.405673 -8.24854 -1.31506
-0.379654 -8.24851 -1.31485
-0.353641 -8.24848 -1.31467
-0.327637 -8.24845 -1.31449
-0.301637 -8.2484 -1.31432
-0.275648 -8.24835 -1.31417
-0.24966 -8.2483 -1.31403
-0.223678 -8.24824 -1.3139
-0.197702 -8.24827 -1.3138
-0.171734 -8.24836 -1.31373
-0.145767 -8.24845 -1.31366
-0.119804 -8.24852 -1.3136
-0.0938388 -8.2486 -1.31356
-0.0678792 -8.24866 -1.31353
-0.0419191 -8.24872 -1.31351
-0.015959 -8.24877 -1.31351
0.010001 -8.24882 -1.31351
0.0359612 -8.24909 -1.31357
0.0619249 -8.24946 -1.31365
0.087894 -8.24983 -1.31375
0.113866 -8.25018 -1.31385
0.139843 -8.25053 -1.31397
0.165824 -8.25087 -1.31411
0.191811 -8.25121 -1.31425
0.217803 -8.25154 -1.3144
0.243802 -8.25187 -1.31457
0.269808 -8.25219 -1.31475
0.295864 -8.25373 -1.31514
0.321976 -8.25633 -1.31571
0.348112 -8.25892 -1.31629
0.374269 -8.26151 -1.31688
0.400453 -8.26409 -1.31749
0.42666 -8.26667 -1.31811
0.452891 -8.26924 -1.31874
0.479149 -8.27181 -1.31938
-2.30191 -8.5448 -1.48467
-2.24802 -8.45054 -1.46705
-2.20993 -8.41385 -1.45947
-2.17877 -8.40276 -1.45635
-2.14774 -8.39171 -1.45325
-2.11684 -8.38068 -1.45018
-2.08606 -8.36968 -1.44714
-2.05541 -8.35872 -1.44412
-2.02488 -8.34778 -1.44112
-1.99448 -8.33686 -1.43814
-1.96419 -8.32598 -1.43519
-1.9348 -8.31846 -1.43284
-1.90573 -8.31196 -1.43068
-1.87675 -8.30547 -1.42854
-1.84786 -8.29898 -1.42641
-1.8189 -8.29188 -1.4242
-1.7894 -8.28182 -1.4215
-1.76 -8.2718 -1.41882
-1.73071 -8.26179 -1.41616
-1.70153 -8.25181 -1.41353
-1.67245 -8.24185 -1.41091
-1.64509 -8.23998 -1.4097
-1.61792 -8.23884 -1.40863
-1.59079 -8.23769 -1.40757
-1.56369 -8.23653 -1.40652
-1.53663 -8.23537 -1.40549
-1.50961 -8.23419 -1.40447
-1.48229 -8.23111 -1.40315
-1.45487 -8.22721 -1.40169
-1.4275 -8.2233 -1.40025
-1.40072 -8.22247 -1.39936
-1.37415 -8.22276 -1.39866
-1.34761 -8.22303 -1.39798
-1.32109 -8.2233 -1.39731
-1.2946 -8.22356 -1.39666
-1.26816 -8.22406 -1.39606
-1.24185 -8.2252 -1.39558
-1.21556 -8.22634 -1.39512
-1.18928 -8.22748 -1.39467
-1.16301 -8.2286 -1.39423
-1.13677 -8.22971 -1.39381
-1.11008 -8.22742 -1.39282
-1.0834 -8.22494 -1.39182
-1.05675 -8.22245 -1.39082
-1.03015 -8.21996 -1.38985
-1.00357 -8.21746 -1.38888
-0.977106 -8.2155 -1.38803
-0.950877 -8.21536 -1.38749
-0.924669 -8.2152 -1.38697
-0.898479 -8.21504 -1.38645
-0.872307 -8.21488 -1.38596
-0.846153 -8.2147 -1.38547
-0.820017 -8.21452 -1.385
-0.793898 -8.21434 -1.38454
-0.767793 -8.21414 -1.38409
-0.741717 -8.21408 -1.38368
-0.71567 -8.21415 -1.38331
-0.689636 -8.21421 -1.38294
-0.663614 -8.21426 -1.3826
-0.637604 -8.21431 -1.38226
-0.611604 -8.21435 -1.38193
-0.585617 -8.21439 -1.38162
-0.559645 -8.21442 -1.38133
-0.533678 -8.21444 -1.38104
-0.507724 -8.21445 -1.38077
-0.481781 -8.21446 -1.38051
-0.455841 -8.21446 -1.38026
-0.429916 -8.21446 -1.38002
-0.403996 -8.21445 -1.3798
-0.378085 -8.21443 -1.37959
-0.352182 -8.2144 -1.37939
-0.326284 -8.21437 -1.37921
-0.300393 -8.21433 -1.37904
-0.274509 -8.21429 -1.37888
-0.248629 -8.21424 -1.37873
-0.222755 -8.21418 -1.3786
-0.196887 -8.21415 -1.37848
-0.171024 -8.21424 -1.3784
-0.145164 -8.21433 -1.37833
-0.119308 -8.21441 -1.37827
-0.0934517 -8.21448 -1.37823
-0.0675984 -8.21454 -1.3782
-0.0417462 -8.2146 -1.37818
-0.0158933 -8.21483 -1.3782
0.00996025 -8.21521 -1.37826
0.0358145 -8.21558 -1.37834
0.0616746 -8.21594 -1.37843
0.0875369 -8.2163 -1.37853
0.113403 -8.21665 -1.37864
0.139273 -8.217 -1.37876
0.16515 -8.21734 -1.3789
0.191031 -8.21767 -1.37905
0.216917 -8.218 -1.37921
0.242809 -8.21831 -1.37939
0.26871 -8.21863 -1.37957
0.294616 -8.21893 -1.37977
0.320558 -8.21995 -1.38011
0.346577 -8.22251 -1.38071
0.372619 -8.22507 -1.38133
0.398686 -8.22763 -1.38197
0.424776 -8.23018 -1.38261
0.450889 -8.23272 -1.38327
0.477032 -8.23526 -1.38394
-2.33329 -8.55402 -1.56341
-2.27135 -8.43137 -1.53968
-2.23251 -8.39225 -1.53124
-2.19409 -8.35354 -1.52291
-2.15608 -8.31525 -1.51469
-2.12486 -8.30229 -1.5111
-2.09433 -8.29157 -1.50794
-2.06393 -8.28087 -1.50481
-2.0343 -8.27285 -1.50218
-2.00517 -8.2665 -1.49987
-1.97612 -8.26015 -1.49759
-1.94716 -8.2538 -1.49532
-1.91828 -8.24746 -1.49307
-1.88949 -8.24112 -1.49084
-1.86078 -8.23479 -1.48862
-1.83215 -8.22846 -1.48643
-1.80361 -8.22214 -1.48426
-1.77478 -8.21416 -1.4818
-1.74565 -8.20433 -1.47903
-1.71662 -8.19454 -1.47628
-1.68933 -8.19262 -1.47497
-1.66224 -8.19153 -1.47383
-1.6352 -8.19044 -1.4727
-1.6082 -8.18935 -1.47158
-1.58124 -8.18824 -1.47048
-1.55431 -8.18713 -1.4694
-1.52742 -8.186 -1.46832
-1.50057 -8.18487 -1.46727
-1.47357 -8.18272 -1.46604
-1.44632 -8.17889 -1.46453
-1.41982 -8.17903 -1.46375
-1.39337 -8.17935 -1.46302
-1.36695 -8.17965 -1.46229
-1.34055 -8.17995 -1.46159
-1.31417 -8.18023 -1.46089
-1.28782 -8.18051 -1.46021
-1.26149 -8.18078 -1.45954
-1.23531 -8.18189 -1.45904
-1.20916 -8.18303 -1.45856
-1.18302 -8.18417 -1.45809
-1.1569 -8.1853 -1.45763
-1.13079 -8.18642 -1.45719
-1.10469 -8.18753 -1.45676
-1.07857 -8.18828 -1.45628
-1.05204 -8.18582 -1.45525
-1.02556 -8.18337 -1.45424
-0.999111 -8.18091 -1.45323
-0.972913 -8.18025 -1.45256
-0.946799 -8.18012 -1.452
-0.920705 -8.17998 -1.45146
-0.894628 -8.17983 -1.45093
-0.868569 -8.17968 -1.45041
-0.84255 -8.17971 -1.44993
-0.816552 -8.17981 -1.44949
-0.790569 -8.17991 -1.44906
-0.764604 -8.18 -1.44864
-0.738648 -8.18008 -1.44824
-0.712708 -8.18016 -1.44785
-0.686781 -8.18023 -1.44747
-0.66087 -8.18029 -1.44711
-0.634968 -8.18035 -1.44675
-0.609079 -8.1804 -1.44642
-0.583198 -8.18044 -1.44609
-0.557332 -8.18048 -1.44578
-0.531475 -8.1805 -1.44548
-0.505627 -8.18052 -1.4452
-0.47979 -8.18054 -1.44493
-0.453959 -8.18055 -1.44467
-0.428141 -8.18055 -1.44442
-0.402328 -8.18054 -1.44419
-0.376525 -8.18053 -1.44397
-0.350727 -8.18051 -1.44377
-0.324938 -8.18048 -1.44358
-0.299153 -8.18045 -1.4434
-0.273377 -8.18041 -1.44323
-0.247603 -8.18036 -1.44308
-0.221837 -8.1803 -1.44294
-0.196073 -8.18024 -1.44281
-0.170315 -8.18031 -1.44272
-0.144566 -8.1804 -1.44265
-0.118815 -8.18048 -1.44259
-0.0930657 -8.18055 -1.44254
-0.0673226 -8.18073 -1.44253
-0.0415741 -8.18112 -1.44257
-0.0158289 -8.1815 -1.44262
0.00991987 -8.18188 -1.44269
0.0356698 -8.18224 -1.44276
0.0614229 -8.1826 -1.44286
0.0871816 -8.18296 -1.44296
0.112943 -8.18331 -1.44307
0.138708 -8.18365 -1.4432
0.164479 -8.18398 -1.44335
0.190254 -8.18431 -1.4435
0.216038 -8.18463 -1.44367
0.241824 -8.18494 -1.44386
0.267619 -8.18525 -1.44405
0.29342 -8.18555 -1.44426
0.319228 -8.18584 -1.44448
0.345052 -8.18633 -1.44475
0.37098 -8.18886 -1.4454
0.39693 -8.19138 -1.44606
0.422904 -8.19391 -1.44673
0.448901 -8.19642 -1.44742
0.474926 -8.19894 -1.44812
-2.36464 -8.5627 -1.64259
-2.30084 -8.43503 -1.6167
-2.25566 -8.37312 -1.60346
-2.21717 -8.33459 -1.59474
-2.17909 -8.29646 -1.58613
-2.14142 -8.25873 -1.57762
-2.10938 -8.24184 -1.57311
-2.0798 -8.23402 -1.57036
-2.05031 -8.22623 -1.56764
-2.02092 -8.21847 -1.56494
-1.99164 -8.21073 -1.56227
-1.96245 -8.20302 -1.55962
-1.93337 -8.19533 -1.55699
-1.90438 -8.18767 -1.55439
-1.87548 -8.18003 -1.55181
-1.84669 -8.17241 -1.54925
-1.81798 -8.16482 -1.54672
-1.78937 -8.15724 -1.54421
-1.76085 -8.1497 -1.54173
-1.73347 -8.14711 -1.5402
-1.70649 -8.14618 -1.539
-1.67956 -8.14524 -1.53782
-1.65266 -8.14431 -1.53665
-1.6258 -8.14337 -1.5355
-1.59899 -8.14243 -1.53437
-1.57221 -8.14149 -1.53325
-1.54547 -8.14054 -1.53215
-1.51876 -8.13959 -1.53106
-1.4921 -8.13865 -1.52999
-1.46548 -8.13778 -1.52896
-1.4391 -8.13804 -1.52815
-1.41275 -8.13829 -1.52735
-1.38642 -8.13854 -1.52657
-1.36012 -8.13879 -1.52581
-1.33384 -8.13903 -1.52506
-1.30759 -8.13927 -1.52432
-1.28136 -8.13951 -1.52361
-1.25516 -8.13974 -1.5229
-1.22895 -8.13974 -1.52217
-1.20281 -8.14005 -1.52151
-1.17681 -8.1412 -1.52103
-1.15082 -8.14233 -1.52056
-1.12485 -8.14346 -1.5201
-1.0989 -8.14458 -1.51965
-1.07295 -8.14568 -1.51922
-1.04703 -8.14678 -1.5188
-1.021 -8.147 -1.51824
-0.994764 -8.14531 -1.51733
-0.968743 -8.1452 -1.51674
-0.94277 -8.14532 -1.5162
-0.916822 -8.14547 -1.51568
-0.890882 -8.1456 -1.51518
-0.864964 -8.14573 -1.51469
-0.83906 -8.14585 -1.51421
-0.813173 -8.14597 -1.51375
-0.7873 -8.14608 -1.5133
-0.761441 -8.14617 -1.51287
-0.735594 -8.14627 -1.51245
-0.709763 -8.14635 -1.51204
-0.683943 -8.14643 -1.51165
-0.65814 -8.1465 -1.51127
-0.632343 -8.14657 -1.51091
-0.606562 -8.14662 -1.51056
-0.58079 -8.14667 -1.51022
-0.555031 -8.14672 -1.50989
-0.52928 -8.14675 -1.50958
-0.503541 -8.14678 -1.50929
-0.477811 -8.1468 -1.50901
-0.452087 -8.14681 -1.50874
-0.426376 -8.14682 -1.50848
-0.40067 -8.14682 -1.50824
-0.374973 -8.14681 -1.50801
-0.349282 -8.1468 -1.5078
-0.323599 -8.14677 -1.5076
-0.297921 -8.14674 -1.50741
-0.272251 -8.14671 -1.50724
-0.246583 -8.14666 -1.50708
-0.220923 -8.14661 -1.50694
-0.195265 -8.14655 -1.50681
-0.169614 -8.14656 -1.5067
-0.143968 -8.14665 -1.50662
-0.118326 -8.14679 -1.50657
-0.0926863 -8.14719 -1.50659
-0.0670475 -8.14758 -1.50661
-0.0414058 -8.14796 -1.50665
-0.0157646 -8.14834 -1.50671
0.00987969 -8.14871 -1.50677
0.0355251 -8.14908 -1.50685
0.0611753 -8.14944 -1.50695
0.0868281 -8.14979 -1.50706
0.112485 -8.15013 -1.50718
0.138146 -8.15047 -1.50731
0.163814 -8.1508 -1.50746
0.189485 -8.15112 -1.50762
0.215161 -8.15143 -1.5078
0.240843 -8.15174 -1.50799
0.266535 -8.15204 -1.50819
0.29223 -8.15234 -1.50841
0.317932 -8.15263 -1.50864
0.343644 -8.15291 -1.50889
0.369363 -8.15318 -1.50914
0.395184 -8.15535 -1.50977
0.421043 -8.15785 -1.51047
0.446927 -8.16034 -1.51118
0.47283 -8.16275 -1.5119
-2.33138 -8.44225 -1.69488
-2.2787 -8.35387 -1.67569
-2.24014 -8.31551 -1.66657
