ply
format ascii 1.0
comment Created by Open3D
element vertex 1939
property double x
property double y
property double z
end_header
1.62972 3.90769 -1.0407
1.61735 3.9125 -1.04062
1.60497 3.91729 -1.04055
1.59257 3.92204 -1.04048
1.58144 3.92993 -1.04125
1.57083 3.93917 -1.04239
1.56018 3.94841 -1.04354
1.54951 3.95764 -1.04469
1.5388 3.96688 -1.04585
1.52805 3.97611 -1.04701
1.51728 3.98534 -1.04819
1.50647 3.99457 -1.04937
1.49563 4.0038 -1.05056
1.48476 4.01303 -1.05175
1.47385 4.02225 -1.05295
1.46291 4.03148 -1.05416
1.45194 4.0407 -1.05538
1.44093 4.04992 -1.0566
1.42989 4.05914 -1.05783
1.41882 4.06836 -1.05907
1.40797 4.07833 -1.06051
1.39736 4.08911 -1.06217
1.3867 4.09989 -1.06384
1.37601 4.11068 -1.06551
1.36527 4.12148 -1.06719
1.35449 4.13229 -1.06889
3.98885 4.20694 -1.47619
3.97335 4.21699 -1.47534
3.95784 4.227 -1.47449
3.94231 4.23696 -1.47365
3.92676 4.24688 -1.4728
3.9112 4.25674 -1.47197
3.89562 4.26656 -1.47113
3.88003 4.27633 -1.4703
3.86442 4.28605 -1.46947
3.8488 4.29573 -1.46864
3.83316 4.30536 -1.46782
3.81751 4.31494 -1.467
3.76139 4.27847 -1.45058
3.63933 4.16589 -1.40854
3.60427 4.15195 -1.4
3.4239 3.96925 -1.33477
3.27725 3.82342 -1.28226
3.16902 3.72069 -1.24447
3.13663 3.70614 -1.23631
3.108 3.69574 -1.22959
3.08505 3.69188 -1.22508
3.06313 3.6891 -1.22096
3.04135 3.68632 -1.21688
3.0197 3.68354 -1.21283
2.99819 3.68078 -1.20882
2.97681 3.67802 -1.20485
2.95556 3.67527 -1.2009
2.93444 3.67253 -1.197
2.91345 3.66979 -1.19312
2.89259 3.66706 -1.18928
2.87277 3.66551 -1.18585
2.85396 3.66512 -1.18282
2.83524 3.66472 -1.17982
2.81661 3.66432 -1.17684
2.79806 3.66391 -1.17389
2.77961 3.6635 -1.17096
2.76125 3.66309 -1.16805
2.74297 3.66267 -1.16517
2.72477 3.66225 -1.16231
2.7068 3.66201 -1.15954
2.68979 3.66297 -1.15717
2.67285 3.66393 -1.15482
2.65598 3.66487 -1.15248
2.63917 3.6658 -1.15017
2.62255 3.66691 -1.14793
2.60602 3.66805 -1.14573
2.58955 3.66918 -1.14354
2.57314 3.67029 -1.14136
2.55679 3.6714 -1.13921
2.54049 3.6725 -1.13708
2.52426 3.67359 -1.13496
2.50807 3.67468 -1.13286
2.49195 3.67575 -1.13077
2.47588 3.67681 -1.12871
2.45987 3.67787 -1.12666
2.44391 3.67891 -1.12463
2.42801 3.67995 -1.12261
2.41215 3.68098 -1.12061
2.39636 3.682 -1.11863
2.38061 3.68301 -1.11666
2.36492 3.68401 -1.11471
2.34927 3.685 -1.11278
2.33368 3.68599 -1.11086
2.31814 3.68697 -1.10896
2.30265 3.68794 -1.10708
2.2872 3.6889 -1.10521
2.27181 3.68985 -1.10335
2.25647 3.69079 -1.10151
2.2412 3.69178 -1.09971
2.226 3.69279 -1.09792
2.21085 3.6938 -1.09616
2.1958 3.69489 -1.09443
2.18084 3.69607 -1.09275
2.16593 3.69723 -1.09108
2.15106 3.69838 -1.08943
2.13623 3.69953 -1.08779
2.12145 3.70067 -1.08616
2.1067 3.70179 -1.08455
2.092 3.70292 -1.08295
2.07734 3.70403 -1.08136
2.06271 3.70513 -1.07979
2.04813 3.70623 -1.07824
2.0337 3.70753 -1.07675
2.02039 3.7108 -1.07586
2.00709 3.71406 -1.07497
1.99381 3.71729 -1.0741
1.98053 3.72051 -1.07322
1.96728 3.7237 -1.07236
1.95403 3.72687 -1.07151
1.9408 3.73003 -1.07066
1.92758 3.73316 -1.06982
1.91438 3.73628 -1.06898
1.90119 3.73937 -1.06816
1.88801 3.74245 -1.06734
1.87484 3.7455 -1.06653
1.86169 3.74854 -1.06573
1.84855 3.75156 -1.06493
1.8355 3.75472 -1.06419
1.82248 3.75789 -1.06347
1.80946 3.76104 -1.06275
1.79646 3.76417 -1.06204
1.78346 3.76729 -1.06133
1.77048 3.77038 -1.06064
1.75751 3.77346 -1.05994
1.74454 3.77651 -1.05926
1.73159 3.77955 -1.05859
1.71864 3.78256 -1.05792
1.70571 3.78556 -1.05725
1.69278 3.78854 -1.0566
1.67986 3.7915 -1.05595
1.66695 3.79444 -1.05531
1.65405 3.79736 -1.05467
1.64116 3.80026 -1.05404
1.62828 3.80315 -1.05342
1.61577 3.80687 -1.05305
1.6037 3.81162 -1.05297
1.59163 3.81635 -1.05289
1.58119 3.82504 -1.05391
1.57085 3.83402 -1.05502
1.56047 3.843 -1.05614
1.55007 3.85197 -1.05727
1.53963 3.86094 -1.0584
1.52917 3.86991 -1.05954
1.51867 3.87888 -1.06069
1.50814 3.88784 -1.06184
1.49758 3.89681 -1.063
1.48698 3.90577 -1.06417
1.47636 3.91472 -1.06534
1.4657 3.92368 -1.06652
1.45501 3.93263 -1.06771
1.44429 3.94158 -1.06891
1.43354 3.95053 -1.07011
1.42275 3.95947 -1.07132
1.41193 3.96842 -1.07254
1.40108 3.97736 -1.07376
1.3902 3.9863 -1.07499
1.37928 3.99523 -1.07623
1.36833 4.00417 -1.07748
1.35735 4.0131 -1.07873
1.34633 4.02203 -1.07999
1.33528 4.03096 -1.08126
1.3242 4.03988 -1.08253
3.84221 4.05229 -1.47145
3.82557 4.06015 -1.46994
3.80891 4.06794 -1.46843
3.74486 4.02476 -1.44859
3.71008 4.01253 -1.44
3.67564 4.00037 -1.43149
3.64153 3.98827 -1.42307
3.60776 3.97625 -1.41474
3.57527 3.96535 -1.40687
3.54473 3.95634 -1.39972
3.42483 3.84672 -1.35713
3.25916 3.68384 -1.29606
3.23213 3.67645 -1.28989
3.20846 3.67268 -1.28503
3.18495 3.66892 -1.28021
3.16182 3.66543 -1.27553
3.13956 3.66277 -1.27117
3.11743 3.66012 -1.26685
3.09545 3.65748 -1.26257
3.0736 3.65484 -1.25833
3.0519 3.65221 -1.25412
3.03032 3.64958 -1.24995
3.00888 3.64696 -1.24582
2.98945 3.64664 -1.2425
2.97013 3.64634 -1.23922
2.95091 3.64602 -1.23596
2.93179 3.64571 -1.23274
2.91276 3.64539 -1.22953
2.89382 3.64506 -1.22636
2.87498 3.64474 -1.22321
2.85623 3.6444 -1.22009
2.83756 3.64406 -1.21699
2.81899 3.64372 -1.21392
2.80051 3.64337 -1.21087
2.78211 3.64302 -1.20785
2.7638 3.64267 -1.20485
2.74558 3.64231 -1.20188
2.72744 3.64194 -1.19893
2.71042 3.64296 -1.19646
2.69346 3.64396 -1.19401
2.67656 3.64495 -1.19158
2.65973 3.64594 -1.18917
2.64296 3.64691 -1.18678
2.62626 3.64788 -1.18441
2.60965 3.64887 -1.18207
2.59322 3.65004 -1.17981
2.57686 3.65119 -1.17757
2.56055 3.65234 -1.17534
2.5443 3.65348 -1.17313
2.52811 3.65461 -1.17095
2.51198 3.65572 -1.16877
2.4959 3.65683 -1.16662
2.47987 3.65793 -1.16449
2.4639 3.65902 -1.16237
2.44799 3.66011 -1.16027
2.43213 3.66118 -1.15819
2.41632 3.66224 -1.15612
2.40057 3.6633 -1.15407
2.38487 3.66434 -1.15204
2.36922 3.66538 -1.15003
2.35362 3.66641 -1.14803
2.33807 3.66743 -1.14605
2.32257 3.66844 -1.14408
2.30712 3.66944 -1.14213
2.29172 3.67044 -1.1402
2.27637 3.67142 -1.13828
2.26107 3.6724 -1.13638
2.24584 3.67342 -1.13452
2.23069 3.67447 -1.13267
2.21558 3.67551 -1.13085
2.20052 3.67654 -1.12904
2.1855 3.67756 -1.12724
2.17052 3.67858 -1.12546
2.15561 3.67961 -1.1237
2.14083 3.68079 -1.12201
2.12609 3.68195 -1.12033
2.11139 3.68311 -1.11866
2.09673 3.68426 -1.11701
2.08211 3.6854 -1.11537
2.06753 3.68654 -1.11374
2.05298 3.68766 -1.11213
2.03848 3.68878 -1.11054
2.02402 3.68988 -1.10895
2.0096 3.69098 -1.10739
1.99521 3.69208 -1.10583
1.98086 3.69316 -1.10429
1.96655 3.69423 -1.10276
1.95227 3.6953 -1.10125
1.93804 3.69636 -1.09975
1.92383 3.69741 -1.09826
1.90966 3.69846 -1.09679
1.89553 3.69949 -1.09533
1.88144 3.70052 -1.09388
1.86737 3.70154 -1.09245
1.85334 3.70255 -1.09102
1.83935 3.70356 -1.08962
1.82539 3.70456 -1.08822
1.81146 3.70555 -1.08684
1.79757 3.70653 -1.08547
1.78433 3.7088 -1.08449
1.77143 3.71174 -1.08372
1.75855 3.71466 -1.08296
1.74568 3.71756 -1.0822
1.73281 3.72044 -1.08145
1.71996 3.7233 -1.08071
1.70712 3.72614 -1.07998
1.69431 3.72901 -1.07926
1.68157 3.732 -1.0786
1.66885 3.73497 -1.07794
1.65612 3.73792 -1.07729
1.64341 3.74085 -1.07664
1.63071 3.74376 -1.076
1.61801 3.74666 -1.07537
1.60533 3.74953 -1.07475
1.59265 3.75239 -1.07413
1.57998 3.75522 -1.07352
1.56825 3.76028 -1.07355
1.55682 3.76608 -1.07381
1.54539 3.77187 -1.07407
1.53394 3.77765 -1.07434
1.52248 3.78341 -1.07462
1.51112 3.78945 -1.07498
1.49998 3.79606 -1.07552
1.48897 3.80304 -1.07617
1.47861 3.81174 -1.07731
1.46822 3.82043 -1.07847
1.4578 3.82912 -1.07962
1.44735 3.83781 -1.08079
1.43687 3.8465 -1.08196
1.42636 3.85518 -1.08314
1.41581 3.86386 -1.08433
1.40523 3.87253 -1.08552
1.39463 3.88121 -1.08672
1.38399 3.88987 -1.08793
1.37332 3.89854 -1.08914
1.36261 3.9072 -1.09036
1.35188 3.91586 -1.09159
1.34111 3.92452 -1.09283
1.33031 3.93317 -1.09407
1.31948 3.94182 -1.09532
1.30862 3.95047 -1.09658
1.29773 3.95913 -1.09784
3.6399 3.83891 -1.44109
3.61003 3.83139 -1.43401
3.58054 3.82405 -1.42705
3.55128 3.81671 -1.42016
3.51822 3.80502 -1.4117
3.36335 3.66049 -1.35415
3.33889 3.65681 -1.34891
3.3146 3.65315 -1.34372
3.29049 3.6495 -1.33858
3.26655 3.64587 -1.33348
3.24278 3.64225 -1.32844
3.21918 3.63864 -1.32343
3.19575 3.63506 -1.31848
3.17247 3.63148 -1.31357
3.14954 3.62812 -1.30877
3.12875 3.62709 -1.30486
3.1088 3.62688 -1.30127
3.08894 3.62667 -1.29771
3.06919 3.62645 -1.29419
3.04954 3.62623 -1.29069
3.03 3.626 -1.28722
3.01055 3.62577 -1.28378
2.9912 3.62553 -1.28037
2.97194 3.62529 -1.27699
2.95278 3.62504 -1.27363
2.93372 3.62479 -1.2703
2.91475 3.62453 -1.267
2.89588 3.62426 -1.26373
2.87709 3.624 -1.26049
2.8584 3.62372 -1.25727
2.8398 3.62344 -1.25408
2.82129 3.62316 -1.25091
2.80286 3.62287 -1.24777
2.78452 3.62258 -1.24466
2.76627 3.62228 -1.24157
2.74811 3.62198 -1.23851
2.73093 3.62287 -1.23588
2.71395 3.62393 -1.23333
2.69704 3.62497 -1.2308
2.68019 3.626 -1.22829
2.6634 3.62703 -1.22581
2.64668 3.62804 -1.22334
2.63002 3.62905 -1.22089
2.61342 3.63005 -1.21847
2.59689 3.63104 -1.21606
2.5805 3.63212 -1.21371
2.56423 3.63331 -1.21141
2.54803 3.63448 -1.20913
2.53189 3.63565 -1.20687
2.5158 3.6368 -1.20463
2.49976 3.63795 -1.20241
2.48378 3.63909 -1.20021
2.46786 3.64021 -1.19802
2.45199 3.64133 -1.19585
2.43617 3.64244 -1.1937
2.42041 3.64354 -1.19157
2.4047 3.64463 -1.18946
2.38904 3.64571 -1.18736
2.37344 3.64678 -1.18528
2.35788 3.64784 -1.18322
2.34237 3.6489 -1.18117
2.32692 3.64994 -1.17914
2.31151 3.65098 -1.17713
2.29616 3.652 -1.17513
2.28085 3.65302 -1.17315
2.26559 3.65403 -1.17119
2.25041 3.6551 -1.16927
2.2353 3.65618 -1.16736
2.22023 3.65725 -1.16548
2.20521 3.65831 -1.16361
2.19024 3.65936 -1.16175
2.1753 3.66041 -1.15991
2.16042 3.66145 -1.15809
2.14557 3.66248 -1.15628
2.13077 3.6635 -1.15449
2.11601 3.66451 -1.15271
2.10137 3.66565 -1.15099
2.0868 3.66682 -1.1493
2.07226 3.66798 -1.14762
2.05777 3.66913 -1.14596
2.04331 3.67028 -1.14431
2.02889 3.67141 -1.14267
2.01451 3.67254 -1.14105
2.00016 3.67366 -1.13945
1.98586 3.67477 -1.13786
1.97159 3.67587 -1.13628
1.95736 3.67696 -1.13471
1.94316 3.67805 -1.13316
1.929 3.67913 -1.13163
1.91488 3.6802 -1.1301
1.90079 3.68126 -1.12859
1.88673 3.68231 -1.1271
1.87271 3.68336 -1.12562
1.85872 3.6844 -1.12415
1.84477 3.68543 -1.12269
1.83085 3.68645 -1.12125
1.81697 3.68747 -1.11982
1.80311 3.68847 -1.1184
1.78929 3.68947 -1.117
1.77551 3.69046 -1.11561
1.76175 3.69145 -1.11423
1.74802 3.69242 -1.11287
1.73433 3.69339 -1.11151
1.72066 3.69436 -1.11017
1.70703 3.69531 -1.10885
1.69343 3.69626 -1.10753
1.67986 3.6972 -1.10623
1.66631 3.69813 -1.10494
1.6528 3.69906 -1.10366
1.63931 3.69997 -1.1024
1.62585 3.70088 -1.10115
1.61242 3.70179 -1.09991
1.59902 3.70269 -1.09868
1.58565 3.70357 -1.09746
1.5723 3.70446 -1.09626
1.55908 3.70557 -1.09513
1.54698 3.70929 -1.09479
1.5357 3.715 -1.09505
1.52442 3.7207 -1.09532
1.51312 3.72638 -1.09559
1.50181 3.73206 -1.09587
1.49049 3.73772 -1.09615
1.47916 3.74337 -1.09645
1.46782 3.749 -1.09674
1.45646 3.75463 -1.09705
1.44509 3.76024 -1.09736
1.43371 3.76584 -1.09768
1.42251 3.77194 -1.09815
1.41142 3.77837 -1.09873
1.40031 3.78478 -1.09931
1.38918 3.79118 -1.0999
1.37804 3.79758 -1.10049
1.36755 3.80585 -1.10164
1.35709 3.81427 -1.10284
1.34659 3.82268 -1.10405
1.33607 3.83109 -1.10526
1.32552 3.8395 -1.10648
1.31493 3.8479 -1.10771
1.30431 3.8563 -1.10895
1.29366 3.86469 -1.11019
1.28298 3.87309 -1.11144
1.27227 3.88147 -1.1127
3.44756 3.63605 -1.40978
3.42252 3.63239 -1.40419
3.39726 3.6283 -1.39848
3.37218 3.62422 -1.39283
3.3473 3.62017 -1.38723
3.32259 3.61613 -1.38169
3.29807 3.61211 -1.37619
3.27373 3.6081 -1.37075
3.25013 3.60474 -1.36559
3.22722 3.60196 -1.3607
3.20445 3.5992 -1.35586
3.18554 3.60063 -1.35262
3.16682 3.60216 -1.34946
3.14818 3.60367 -1.34633
3.12962 3.60517 -1.34322
3.11006 3.60542 -1.33967
3.09027 3.60527 -1.33601
3.07059 3.60512 -1.33238
3.051 3.60496 -1.32878
3.03152 3.6048 -1.32521
3.01214 3.60463 -1.32167
2.99285 3.60445 -1.31815
2.97366 3.60427 -1.31467
2.95456 3.60409 -1.31122
2.93556 3.6039 -1.3078
2.91665 3.6037 -1.3044
2.89784 3.6035 -1.30103
2.87912 3.60329 -1.29769
2.86048 3.60307 -1.29438
2.84194 3.60286 -1.29109
2.82349 3.60263 -1.28783
2.80512 3.6024 -1.2846
2.78684 3.60217 -1.2814
2.76865 3.60193 -1.27822
2.75133 3.60272 -1.27543
2.73433 3.60382 -1.27278
2.7174 3.60492 -1.27015
2.70053 3.606 -1.26754
2.68373 3.60708 -1.26496
2.66699 3.60815 -1.26239
2.65031 3.6092 -1.25985
2.6337 3.61025 -1.25733
2.61715 3.61128 -1.25482
2.60066 3.61231 -1.25234
2.58423 3.61333 -1.24988
2.56786 3.61434 -1.24744
2.55168 3.61552 -1.24508
2.53558 3.61672 -1.24275
2.51953 3.61791 -1.24044
2.50355 3.6191 -1.23815
2.48761 3.62027 -1.23587
2.47173 3.62143 -1.23362
2.45591 3.62258 -1.23138
2.44014 3.62373 -1.22917
2.42442 3.62486 -1.22697
2.40875 3.62599 -1.22479
2.39314 3.6271 -1.22262
2.37757 3.62821 -1.22048
2.36206 3.62931 -1.21835
2.3466 3.63039 -1.21624
2.33119 3.63147 -1.21414
2.31583 3.63254 -1.21207
2.30051 3.6336 -1.21001
2.28525 3.63466 -1.20797
2.27003 3.6357 -1.20594
2.25491 3.6368 -1.20396
2.23983 3.63791 -1.202
2.22481 3.63902 -1.20005
2.20983 3.64011 -1.19812
2.1949 3.6412 -1.19621
2.18001 3.64227 -1.19431
2.16516 3.64334 -1.19243
2.15036 3.6444 -1.19056
2.1356 3.64545 -1.18871
2.12088 3.64649 -1.18688
2.10621 3.64752 -1.18506
2.09157 3.64855 -1.18326
2.07698 3.64956 -1.18147
2.06247 3.65064 -1.17972
2.04805 3.65181 -1.17802
2.03368 3.65298 -1.17633
2.01934 3.65413 -1.17466
2.00504 3.65528 -1.173
1.99078 3.65642 -1.17135
1.97655 3.65755 -1.16973
1.96236 3.65867 -1.16811
1.94821 3.65978 -1.16651
1.93409 3.66088 -1.16492
1.92001 3.66198 -1.16335
1.90596 3.66307 -1.16179
1.89195 3.66415 -1.16025
1.87797 3.66522 -1.15872
1.86403 3.66628 -1.1572
1.85012 3.66734 -1.1557
1.83624 3.66838 -1.15421
1.8224 3.66942 -1.15273
1.80859 3.67046 -1.15127
1.79481 3.67148 -1.14982
1.78106 3.6725 -1.14838
1.76735 3.6735 -1.14696
1.75366 3.6745 -1.14555
1.74001 3.6755 -1.14415
1.72639 3.67648 -1.14277
1.7128 3.67746 -1.1414
1.69923 3.67843 -1.14004
1.6857 3.67939 -1.1387
1.6722 3.68035 -1.13736
1.65873 3.6813 -1.13604
1.64528 3.68224 -1.13474
1.63187 3.68317 -1.13344
1.61848 3.6841 -1.13216
1.60512 3.68502 -1.13089
1.59179 3.68593 -1.12963
1.57848 3.68683 -1.12839
1.5652 3.68773 -1.12715
1.55213 3.68903 -1.12606
1.53935 3.69099 -1.12518
1.52659 3.69294 -1.12431
1.51384 3.69488 -1.12345
1.50112 3.69681 -1.1226
1.48841 3.69873 -1.12176
1.47571 3.70065 -1.12093
1.46304 3.70256 -1.12012
1.45038 3.70446 -1.11931
1.43773 3.70635 -1.11851
1.42563 3.70959 -1.11814
1.41439 3.7151 -1.11846
1.40315 3.7206 -1.11878
1.39189 3.72608 -1.11911
1.38062 3.73156 -1.11945
1.36933 3.73702 -1.1198
1.35804 3.74247 -1.12015
1.34673 3.74791 -1.12051
1.33564 3.75399 -1.12107
1.3246 3.76023 -1.12169
1.31353 3.76646 -1.12231
1.30245 3.77268 -1.12294
1.29135 3.77888 -1.12358
1.28023 3.78508 -1.12422
1.26909 3.79127 -1.12487
1.25823 3.79834 -1.1258
1.24769 3.80649 -1.12704
3.40032 3.58623 -1.43489
3.37591 3.58292 -1.42932
3.35229 3.58028 -1.42407
3.32884 3.57764 -1.41886
3.30554 3.57501 -1.4137
3.2824 3.57239 -1.40859
3.25959 3.56996 -1.40359
3.24062 3.57161 -1.40024
3.22173 3.57324 -1.39691
3.20293 3.57485 -1.39361
3.18421 3.57646 -1.39034
3.16557 3.57804 -1.38709
3.14701 3.57962 -1.38387
3.12853 3.58118 -1.38067
3.11012 3.58272 -1.3775
3.0915 3.58391 -1.37422
3.07188 3.58382 -1.37049
3.05237 3.58372 -1.36679
3.03295 3.58363 -1.36312
3.01363 3.58352 -1.35948
2.9944 3.58341 -1.35587
2.97528 3.58329 -1.35229
2.95624 3.58317 -1.34874
2.93731 3.58304 -1.34521
2.91846 3.5829 -1.34172
2.89971 3.58276 -1.33826
2.88104 3.58261 -1.33482
2.86247 3.58246 -1.33141
2.84399 3.5823 -1.32803
2.8256 3.58213 -1.32468
2.80729 3.58196 -1.32136
2.78907 3.58179 -1.31806
2.77162 3.58249 -1.31512
2.7546 3.58365 -1.31237
2.73765 3.5848 -1.30964
2.72076 3.58593 -1.30693
2.70394 3.58706 -1.30424
2.68718 3.58818 -1.30158
2.67048 3.58928 -1.29894
2.65385 3.59038 -1.29632
2.63729 3.59147 -1.29372
2.62078 3.59254 -1.29114
2.60434 3.59361 -1.28858
2.58795 3.59467 -1.28605
2.57163 3.59571 -1.28353
2.55536 3.59675 -1.28103
2.53919 3.59782 -1.27857
2.52319 3.59905 -1.27619
2.50725 3.60027 -1.27383
2.49136 3.60148 -1.27149
2.47553 3.60268 -1.26917
2.45974 3.60386 -1.26686
2.44402 3.60504 -1.26458
2.42834 3.60621 -1.26231
2.41272 3.60737 -1.26006
2.39715 3.60852 -1.25783
2.38163 3.60967 -1.25562
2.36616 3.6108 -1.25343
2.35075 3.61192 -1.25125
2.33538 3.61303 -1.2491
2.32006 3.61414 -1.24696
2.30479 3.61523 -1.24484
2.28957 3.61631 -1.24273
2.27439 3.61739 -1.24065
2.25932 3.61854 -1.2386
2.24429 3.61968 -1.23658
2.22931 3.62081 -1.23457
2.21437 3.62194 -1.23258
2.19948 3.62305 -1.23061
2.18463 3.62416 -1.22865
2.16982 3.62526 -1.22671
2.15506 3.62635 -1.22479
2.14034 3.62743 -1.22288
2.12567 3.6285 -1.22099
2.11103 3.62956 -1.21912
2.09644 3.63062 -1.21726
2.08189 3.63166 -1.21541
2.06738 3.6327 -1.21359
2.05291 3.63373 -1.21177
2.03848 3.63475 -1.20998
2.02409 3.63576 -1.20819
2.00984 3.63693 -1.20648
1.99562 3.6381 -1.20479
1.98143 3.63926 -1.20311
1.96729 3.6404 -1.20144
1.95318 3.64154 -1.19979
1.9391 3.64267 -1.19816
1.92506 3.6438 -1.19654
1.91106 3.64491 -1.19493
1.89709 3.64602 -1.19333
1.88315 3.64711 -1.19176
1.86925 3.6482 -1.19019
1.85539 3.64928 -1.18864
1.84155 3.65036 -1.1871
1.82775 3.65142 -1.18558
1.81398 3.65248 -1.18407
1.80024 3.65352 -1.18257
1.78654 3.65456 -1.18109
1.77287 3.6556 -1.17962
1.75922 3.65662 -1.17817
1.74561 3.65764 -1.17673
1.73203 3.65865 -1.1753
1.71848 3.65965 -1.17388
1.70496 3.66064 -1.17248
1.69147 3.66163 -1.17109
1.67801 3.6626 -1.16972
1.66458 3.66358 -1.16836
1.65117 3.66454 -1.16701
1.6378 3.66549 -1.16567
1.62445 3.66644 -1.16435
1.61114 3.66738 -1.16303
1.59784 3.66832 -1.16174
1.58458 3.66924 -1.16045
1.57134 3.67016 -1.15918
1.55813 3.67107 -1.15792
1.5452 3.67257 -1.15686
1.53248 3.67453 -1.15595
1.51978 3.67648 -1.15506
1.5071 3.67843 -1.15418
1.49444 3.68036 -1.15332
1.48179 3.68229 -1.15246
1.46916 3.68421 -1.15161
1.45654 3.68612 -1.15078
1.44394 3.68802 -1.14995
1.43136 3.68992 -1.14914
1.41879 3.69181 -1.14834
1.40624 3.69369 -1.14754
1.3937 3.69556 -1.14676
1.38118 3.69742 -1.14599
1.36868 3.69928 -1.14523
1.35618 3.70113 -1.14448
1.34371 3.70297 -1.14374
1.33124 3.70481 -1.14301
1.31879 3.70663 -1.1423
1.30636 3.70845 -1.14159
1.29514 3.71373 -1.14196
1.28393 3.71903 -1.14234
1.2727 3.72432 -1.14274
1.26146 3.72959 -1.14314
1.25045 3.73559 -1.14377
1.23944 3.74164 -1.14443
1.22842 3.74768 -1.14509
3.36093 3.54469 -1.4624
3.33757 3.54222 -1.45705
3.31498 3.54042 -1.45203
3.29584 3.54217 -1.4485
3.27679 3.54391 -1.44501
3.25782 3.54563 -1.44154
3.23893 3.54734 -1.43809
3.22013 3.54903 -1.43468
3.20141 3.5507 -1.43129
3.18277 3.55236 -1.42793
3.16422 3.55401 -1.4246
3.14574 3.55564 -1.42129
3.12734 3.55725 -1.41801
3.10902 3.55885 -1.41476
3.09078 3.56044 -1.41153
3.07261 3.56201 -1.40832
3.05362 3.56252 -1.40473
3.03427 3.56248 -1.40096
3.01502 3.56244 -1.39722
2.99586 3.56239 -1.39351
2.97679 3.56233 -1.38983
2.95782 3.56227 -1.38618
2.93895 3.5622 -1.38256
2.92017 3.56213 -1.37898
2.90147 3.56205 -1.37542
2.88287 3.56196 -1.37188
2.86436 3.56187 -1.36838
2.84594 3.56177 -1.36491
2.82761 3.56166 -1.36147
2.80936 3.56155 -1.35805
2.79179 3.56219 -1.35495
2.77475 3.5634 -1.35209
2.75778 3.5646 -1.34926
2.74087 3.56579 -1.34645
2.72403 3.56697 -1.34367
2.70725 3.56814 -1.3409
2.69054 3.56929 -1.33816
2.6739 3.57044 -1.33544
2.65731 3.57158 -1.33275
2.64079 3.5727 -1.33007
2.62433 3.57382 -1.32742
2.60793 3.57493 -1.32478
2.59159 3.57602 -1.32217
2.57531 3.57711 -1.31958
2.55909 3.57818 -1.31701
2.54293 3.57925 -1.31446
2.52683 3.58031 -1.31194
2.51086 3.58146 -1.30947
2.49502 3.58271 -1.30706
2.47923 3.58394 -1.30467
2.4635 3.58517 -1.3023
2.44781 3.58638 -1.29994
2.43218 3.58759 -1.29761
2.41661 3.58878 -1.2953
2.40108 3.58997 -1.293
2.38561 3.59115 -1.29072
2.37018 3.59231 -1.28846
2.35481 3.59347 -1.28623
2.33948 3.59461 -1.284
2.32421 3.59575 -1.2818
2.30898 3.59688 -1.27962
2.2938 3.598 -1.27745
2.27867 3.59911 -1.2753
2.26364 3.60029 -1.2732
2.24866 3.60147 -1.27112
2.23372 3.60263 -1.26905
2.21882 3.60379 -1.267
2.20397 3.60494 -1.26497
2.18917 3.60607 -1.26295
2.17441 3.6072 -1.26095
2.15969 3.60832 -1.25897
2.14501 3.60943 -1.25701
2.13038 3.61053 -1.25506
2.11578 3.61163 -1.25313
2.10123 3.61271 -1.25121
2.08672 3.61379 -1.24931
2.07226 3.61485 -1.24743
2.05783 3.61591 -1.24556
2.04344 3.61696 -1.24371
2.02909 3.618 -1.24187
2.01478 3.61903 -1.24005
2.00051 3.62006 -1.23825
1.98628 3.62107 -1.23646
1.97213 3.62217 -1.23472
1.95807 3.62334 -1.23302
1.94403 3.6245 -1.23133
1.93004 3.62565 -1.22966
1.91608 3.62679 -1.228
1.90215 3.62792 -1.22636
1.88826 3.62904 -1.22473
1.8744 3.63016 -1.22312
1.86057 3.63126 -1.22152
1.84678 3.63236 -1.21994
1.83302 3.63345 -1.21837
1.81929 3.63453 -1.21681
1.8056 3.6356 -1.21527
1.79194 3.63667 -1.21374
1.77831 3.63772 -1.21223
1.76471 3.63877 -1.21073
1.75114 3.63981 -1.20924
1.7376 3.64085 -1.20777
1.72409 3.64187 -1.20631
1.71061 3.64289 -1.20486
1.69716 3.64389 -1.20343
1.68374 3.6449 -1.20201
1.67035 3.64589 -1.20061
1.65699 3.64687 -1.19922
1.64366 3.64785 -1.19784
1.63035 3.64882 -1.19647
1.61707 3.64978 -1.19512
1.60382 3.65074 -1.19378
1.5906 3.65169 -1.19245
1.57741 3.65263 -1.19114
1.56424 3.65356 -1.18984
1.55109 3.65448 -1.18855
1.5383 3.65617 -1.18752
1.52565 3.65814 -1.1866
1.51301 3.66009 -1.18569
1.50039 3.66204 -1.18479
1.48778 3.66398 -1.18391
1.4752 3.66591 -1.18303
1.46263 3.66783 -1.18216
1.45007 3.66975 -1.18131
1.43754 3.67166 -1.18047
1.42501 3.67356 -1.17964
1.41251 3.67545 -1.17882
1.40001 3.67733 -1.17801
1.38754 3.6792 -1.17721
1.37507 3.68107 -1.17642
1.36263 3.68293 -1.17564
1.35019 3.68478 -1.17488
1.33777 3.68663 -1.17412
1.32537 3.68846 -1.17338
1.31298 3.69029 -1.17264
1.3006 3.69211 -1.17192
1.28824 3.69393 -1.17121
1.27588 3.69573 -1.17051
1.26354 3.69753 -1.16982
1.25122 3.69932 -1.16914
1.23891 3.70111 -1.16847
1.2266 3.70288 -1.16781
1.21431 3.70465 -1.16716
3.33198 3.51416 -1.49376
3.31285 3.51599 -1.49012
3.2938 3.5178 -1.4865
3.27483 3.5196 -1.48292
3.25595 3.52138 -1.47936
3.23715 3.52314 -1.47583
3.21844 3.52489 -1.47233
3.1998 3.52662 -1.46885
3.18125 3.52834 -1.46541
3.16278 3.53004 -1.46199
3.14438 3.53173 -1.4586
3.12607 3.5334 -1.45523
3.10783 3.53505 -1.4519
3.08967 3.53669 -1.44858
3.07158 3.53832 -1.4453
3.05357 3.53993 -1.44204
3.03549 3.54136 -1.43874
3.0163 3.54138 -1.4349
2.99721 3.5414 -1.43109
2.97821 3.5414 -1.42731
2.9593 3.5414 -1.42357
2.94049 3.5414 -1.41985
2.92177 3.54138 -1.41616
2.90314 3.54136 -1.41251
2.8846 3.54133 -1.40888
2.86615 3.5413 -1.40529
2.84779 3.54126 -1.40172
2.82952 3.54121 -1.39819
2.81184 3.5418 -1.39493
2.79478 3.54307 -1.39197
2.77779 3.54432 -1.38904
2.76087 3.54557 -1.38612
2.74401 3.5468 -1.38324
2.72721 3.54802 -1.38037
2.71048 3.54923 -1.37753
2.69382 3.55043 -1.37471
2.67722 3.55161 -1.37191
2.66068 3.55279 -1.36914
2.6442 3.55396 -1.36639
2.62779 3.55511 -1.36366
2.61143 3.55626 -1.36095
2.59514 3.55739 -1.35826
2.57891 3.55852 -1.3556
2.56273 3.55963 -1.35296
2.54661 3.56074 -1.35034
2.53056 3.56183 -1.34774
2.51456 3.56292 -1.34516
2.49861 3.56399 -1.3426
2.48285 3.56523 -1.34013
2.46716 3.5665 -1.33769
2.45152 3.56775 -1.33527
2.43594 3.56899 -1.33287
2.42041 3.57022 -1.33049
2.40493 3.57144 -1.32812
2.3895 3.57265 -1.32578
2.37412 3.57385 -1.32346
2.35879 3.57504 -1.32115
2.34351 3.57622 -1.31887
2.32828 3.57739 -1.3166
2.31309 3.57855 -1.31435
2.29796 3.5797 -1.31213
2.28288 3.58086 -1.30992
2.26789 3.58207 -1.30776
2.25295 3.58328 -1.30561
2.23805 3.58448 -1.30348
2.2232 3.58566 -1.30138
2.20839 3.58684 -1.29928
2.19363 3.58801 -1.29721
2.17891 3.58917 -1.29515
2.16423 3.59032 -1.29311
2.14959 3.59146 -1.29109
2.135 3.59259 -1.28908
2.12045 3.59371 -1.28709
2.10594 3.59483 -1.28512
2.09147 3.59593 -1.28317
2.07705 3.59703 -1.28123
2.06266 3.59811 -1.27931
2.04831 3.59919 -1.2774
2.034 3.60026 -1.27551
2.01974 3.60132 -1.27364
2.0055 3.60237 -1.27178
1.99131 3.60342 -1.26994
1.97716 3.60445 -1.26811
1.96304 3.60548 -1.2663
1.94896 3.6065 -1.2645
1.93493 3.60753 -1.26273
1.92101 3.60869 -1.26103
1.90713 3.60985 -1.25934
1.89328 3.611 -1.25766
1.87946 3.61214 -1.256
1.86568 3.61327 -1.25435
1.85193 3.61439 -1.25272
1.83821 3.61551 -1.2511
1.82453 3.61661 -1.2495
1.81088 3.61771 -1.24791
1.79726 3.6188 -1.24634
1.78367 3.61988 -1.24478
1.77011 3.62095 -1.24323
1.75658 3.62202 -1.2417
1.74308 3.62307 -1.24018
1.72962 3.62412 -1.23868
1.71618 3.62516 -1.23719
1.70277 3.62619 -1.23571
1.6894 3.62722 -1.23425
1.67605 3.62823 -1.2328
1.66273 3.62924 -1.23137
1.64944 3.63024 -1.22995
1.63617 3.63123 -1.22854
1.62293 3.63222 -1.22714
1.60972 3.6332 -1.22576
1.59654 3.63417 -1.2244
1.58339 3.63513 -1.22304
1.57026 3.63608 -1.2217
1.55716 3.63703 -1.22037
1.54408 3.63797 -1.21906
1.53143 3.63984 -1.21807
1.51884 3.64181 -1.21713
1.50626 3.64377 -1.2162
1.4937 3.64572 -1.21528
1.48116 3.64766 -1.21438
1.46863 3.6496 -1.21348
1.45612 3.65152 -1.2126
1.44363 3.65344 -1.21173
1.43115 3.65535 -1.21087
1.41869 3.65725 -1.21002
1.40624 3.65915 -1.20918
1.39381 3.66103 -1.20835
1.38139 3.66291 -1.20754
1.36899 3.66478 -1.20673
1.3566 3.66664 -1.20594
1.34423 3.6685 -1.20516
1.33187 3.67034 -1.20439
1.31952 3.67218 -1.20363
1.30719 3.67401 -1.20288
1.29487 3.67584 -1.20214
1.28256 3.67765 -1.20141
1.27027 3.67946 -1.20069
1.25798 3.68126 -1.19999
1.24572 3.68305 -1.19929
1.23346 3.68484 -1.19861
1.22122 3.68662 -1.19794
1.20898 3.68839 -1.19728
3.31062 3.49163 -1.5281
3.29166 3.4935 -1.52439
3.27278 3.49536 -1.52072
3.25399 3.49719 -1.51707
3.23527 3.49902 -1.51345
3.21664 3.50082 -1.50986
3.19809 3.50261 -1.5063
3.17963 3.50439 -1.50277
3.16124 3.50614 -1.49927
3.14293 3.50789 -1.49579
3.12469 3.50961 -1.49235
3.10654 3.51132 -1.48892
3.08846 3.51302 -1.48553
3.07045 3.5147 -1.48216
3.05252 3.51637 -1.47882
3.03467 3.51802 -1.47551
3.01688 3.51965 -1.47222
2.99845 3.52043 -1.4686
2.97952 3.52049 -1.46473
2.96068 3.52056 -1.46089
2.94193 3.52061 -1.45707
2.92327 3.52066 -1.45329
2.90471 3.5207 -1.44954
2.88623 3.52073 -1.44582
2.86784 3.52076 -1.44214
2.84954 3.52077 -1.43848
2.83177 3.52134 -1.43507
2.81469 3.52266 -1.43201
2.79768 3.52396 -1.42897
2.78074 3.52526 -1.42595
2.76386 3.52655 -1.42296
2.74705 3.52782 -1.41999
2.7303 3.52908 -1.41704
2.71362 3.53033 -1.41412
2.697 3.53157 -1.41123
2.68044 3.5328 -1.40835
2.66395 3.53402 -1.4055
2.64752 3.53522 -1.40267
2.63115 3.53642 -1.39987
2.61485 3.53761 -1.39709
2.5986 3.53878 -1.39433
2.58241 3.53994 -1.39159
2.56628 3.5411 -1.38887
2.55021 3.54224 -1.38618
2.5342 3.54337 -1.3835
2.51824 3.5445 -1.38085
2.50234 3.54561 -1.37822
2.4865 3.54671 -1.37562
2.47074 3.54784 -1.37304
2.45515 3.54913 -1.37055
2.43961 3.5504 -1.36809
2.42412 3.55167 -1.36564
2.40868 3.55293 -1.36321
2.3933 3.55417 -1.3608
2.37796 3.5554 -1.35842
2.36268 3.55663 -1.35605
2.34744 3.55784 -1.3537
2.33225 3.55905 -1.35137
2.31711 3.56024 -1.34906
2.30202 3.56143 -1.34676
2.28699 3.56262 -1.3445
2.27205 3.56387 -1.34227
2.25715 3.56511 -1.34007
2.2423 3.56634 -1.33788
2.22749 3.56756 -1.33571
2.21272 3.56877 -1.33356
2.198 3.56997 -1.33143
2.18332 3.57116 -1.32931
2.16869 3.57234 -1.32721
2.15409 3.57351 -1.32513
2.13954 3.57467 -1.32307
2.12504 3.57582 -1.32102
2.11057 3.57696 -1.319
2.09614 3.5781 -1.31698
2.08176 3.57922 -1.31499
2.06741 3.58034 -1.31301
2.0531 3.58145 -1.31105
2.03884 3.58254 -1.30911
2.02461 3.58363 -1.30718
2.01042 3.58471 -1.30527
1.99627 3.58578 -1.30337
1.98215 3.58685 -1.30149
1.96808 3.5879 -1.29963
1.95404 3.58894 -1.29778
1.94004 3.58998 -1.29595
1.92607 3.59101 -1.29414
1.91214 3.59203 -1.29234
1.89825 3.59304 -1.29055
1.88445 3.59415 -1.28883
1.87071 3.59531 -1.28713
1.857 3.59646 -1.28545
1.84333 3.5976 -1.28379
1.82968 3.59873 -1.28214
1.81607 3.59985 -1.2805
1.80249 3.60096 -1.27888
1.78895 3.60207 -1.27728
1.77543 3.60317 -1.27568
1.76195 3.60425 -1.27411
1.74849 3.60533 -1.27255
1.73506 3.60641 -1.271
1.72167 3.60747 -1.26946
1.7083 3.60852 -1.26794
1.69497 3.60957 -1.26644
1.68166 3.61061 -1.26495
1.66838 3.61164 -1.26347
1.65513 3.61266 -1.26201
1.64191 3.61368 -1.26056
1.62871 3.61468 -1.25912
1.61555 3.61568 -1.2577
1.6024 3.61667 -1.25629
1.58929 3.61766 -1.25489
1.5762 3.61863 -1.25351
1.56314 3.6196 -1.25214
1.55011 3.62056 -1.25079
1.53713 3.62159 -1.24947
1.52458 3.62357 -1.2485
1.51205 3.62555 -1.24754
1.49954 3.62751 -1.24659
1.48704 3.62946 -1.24566
1.47456 3.63141 -1.24473
1.46209 3.63335 -1.24382
1.44964 3.63528 -1.24292
1.43721 3.6372 -1.24203
1.42479 3.63911 -1.24115
1.41239 3.64102 -1.24028
1.4 3.64291 -1.23943
1.38763 3.6448 -1.23858
1.37527 3.64668 -1.23775
1.36293 3.64855 -1.23693
1.3506 3.65042 -1.23612
1.33828 3.65227 -1.23532
1.32598 3.65412 -1.23454
1.31369 3.65596 -1.23376
1.30142 3.6578 -1.23299
1.28915 3.65962 -1.23224
1.27691 3.66144 -1.2315
1.26467 3.66325 -1.23077
1.25244 3.66505 -1.23005
1.24023 3.66684 -1.22934
1.22803 3.66863 -1.22864
1.21562 3.66974 -1.22773
1.203 3.67013 -1.22659
3.28942 3.46927 -1.56217
3.27063 3.47118 -1.5584
3.25192 3.47308 -1.55467
3.23329 3.47496 -1.55097
3.21475 3.47682 -1.54729
3.19629 3.47867 -1.54365
3.1779 3.4805 -1.54003
3.1596 3.48231 -1.53644
3.14137 3.48411 -1.53288
3.12322 3.48589 -1.52935
3.10515 3.48766 -1.52585
3.08715 3.48941 -1.52237
3.06922 3.49114 -1.51892
3.05137 3.49286 -1.5155
3.0336 3.49457 -1.51211
3.0159 3.49626 -1.50874
2.99826 3.49793 -1.5054
2.9807 3.49959 -1.50208
2.96194 3.49973 -1.49815
2.94326 3.49985 -1.49424
2.92467 3.49995 -1.49037
2.90616 3.50005 -1.48652
2.88775 3.50015 -1.48271
2.86942 3.50023 -1.47893
2.85157 3.50078 -1.47538
2.83447 3.50216 -1.4722
2.81744 3.50352 -1.46906
2.80048 3.50487 -1.46593
2.78358 3.50621 -1.46284
2.76675 3.50754 -1.45976
2.74999 3.50885 -1.45672
2.73329 3.51016 -1.45369
2.71666 3.51145 -1.45069
2.70009 3.51273 -1.44772
2.68358 3.514 -1.44477
2.66713 3.51526 -1.44184
2.65075 3.5165 -1.43893
2.63443 3.51774 -1.43605
2.61817 3.51897 -1.4332
2.60196 3.52018 -1.43036
2.58582 3.52138 -1.42755
2.56974 3.52257 -1.42476
2.55371 3.52376 -1.42199
2.53774 3.52493 -1.41925
2.52183 3.52609 -1.41652
2.50598 3.52724 -1.41382
2.49018 3.52838 -1.41114
2.47444 3.52951 -1.40849
2.45875 3.53063 -1.40585
2.44318 3.53184 -1.40327
2.42774 3.53314 -1.40076
2.41235 3.53443 -1.39827
2.39701 3.53571 -1.39579
2.38172 3.53698 -1.39334
2.36648 3.53824 -1.39091
2.35129 3.53948 -1.38849
2.33614 3.54072 -1.3861
2.32105 3.54195 -1.38372
2.306 3.54317 -1.38137
2.29102 3.54441 -1.37905
2.27612 3.54569 -1.37676
2.26127 3.54696 -1.37449
2.24645 3.54822 -1.37225
2.23169 3.54947 -1.37002
2.21697 3.55071 -1.36781
2.20229 3.55194 -1.36561
2.18765 3.55316 -1.36344
2.17306 3.55437 -1.36128
2.15851 3.55557 -1.35914
2.144 3.55677 -1.35702
2.12954 3.55795 -1.35492
2.11511 3.55912 -1.35284
2.10073 3.56028 -1.35077
2.08638 3.56144 -1.34872
2.07208 3.56258 -1.34668
2.05781 3.56372 -1.34467
2.04359 3.56484 -1.34267
2.0294 3.56596 -1.34069
2.01525 3.56707 -1.33872
2.00114 3.56817 -1.33677
1.98707 3.56926 -1.33484
1.97303 3.57034 -1.33292
1.95903 3.57141 -1.33103
1.94507 3.57247 -1.32914
1.93115 3.57353 -1.32728
1.91726 3.57458 -1.32543
1.9034 3.57561 -1.32359
1.88958 3.57664 -1.32177
1.8758 3.57766 -1.31997
1.86205 3.57867 -1.31818
1.84835 3.57971 -1.31642
1.83475 3.58087 -1.31473
1.82118 3.58202 -1.31305
1.80765 3.58315 -1.31138
1.79414 3.58428 -1.30973
1.78067 3.5854 -1.30809
1.76723 3.58652 -1.30647
1.75381 3.58762 -1.30486
1.74043 3.58871 -1.30327
1.72708 3.5898 -1.30169
1.71375 3.59088 -1.30013
1.70046 3.59195 -1.29858
1.68719 3.59301 -1.29704
1.67395 3.59407 -1.29552
1.66075 3.59511 -1.29402
1.64756 3.59615 -1.29252
1.63441 3.59718 -1.29105
1.62128 3.5982 -1.28958
1.60818 3.59921 -1.28813
1.59511 3.60021 -1.28669
1.58207 3.60121 -1.28527
1.56905 3.6022 -1.28386
1.55605 3.60318 -1.28247
1.54308 3.60415 -1.28109
1.53025 3.60538 -1.27981
1.51776 3.60736 -1.27882
1.50529 3.60934 -1.27784
1.49284 3.61131 -1.27687
1.4804 3.61326 -1.27592
1.46798 3.61521 -1.27497
1.45558 3.61716 -1.27404
1.44319 3.61909 -1.27312
1.43081 3.62101 -1.27222
1.41846 3.62293 -1.27132
1.40611 3.62484 -1.27044
1.39378 3.62673 -1.26957
1.38147 3.62863 -1.26871
1.36917 3.63051 -1.26786
1.35689 3.63238 -1.26702
1.34462 3.63425 -1.26619
1.33236 3.63611 -1.26538
1.32011 3.63796 -1.26458
1.30788 3.6398 -1.26379
1.29567 3.64164 -1.26301
1.28346 3.64346 -1.26224
1.27127 3.64528 -1.26148
1.25909 3.64709 -1.26074
1.24683 3.64863 -1.25991
1.23422 3.64906 -1.25872
1.22162 3.64948 -1.25753
1.20905 3.64989 -1.25636
1.1965 3.65029 -1.2552
3.27165 3.45053 -1.59759
3.25117 3.45053 -1.59286
3.23121 3.45096 -1.58838
3.21276 3.45288 -1.58462
3.19438 3.45479 -1.58089
3.17608 3.45667 -1.57719
3.15786 3.45854 -1.57351
3.13971 3.4604 -1.56987
3.12165 3.46223 -1.56626
3.10365 3.46405 -1.56267
3.08574 3.46586 -1.55911
3.0679 3.46765 -1.55558
3.05013 3.46942 -1.55208
3.03243 3.47118 -1.54861
3.01481 3.47292 -1.54516
2.99726 3.47465 -1.54174
2.97977 3.47636 -1.53835
2.96236 3.47806 -1.53498
2.94448 3.4791 -1.53136
2.92595 3.47927 -1.52739
2.90751 3.47943 -1.52345
2.88916 3.47958 -1.51954
2.87124 3.48014 -1.51585
2.85413 3.48157 -1.51257
2.83708 3.48299 -1.50931
2.8201 3.4844 -1.50608
2.80318 3.48579 -1.50288
2.78634 3.48717 -1.4997
2.76955 3.48854 -1.49655
2.75284 3.4899 -1.49342
2.73619 3.49124 -1.49032
2.7196 3.49258 -1.48724
2.70308 3.4939 -1.48419
2.68662 3.49521 -1.48116
2.67022 3.49651 -1.47815
2.65388 3.49779 -1.47517
2.63761 3.49907 -1.47222
2.62139 3.50033 -1.46928
2.60524 3.50159 -1.46637
2.58914 3.50283 -1.46349
2.5731 3.50406 -1.46063
2.55712 3.50528 -1.45779
2.5412 3.50649 -1.45497
2.52533 3.50769 -1.45217
2.50952 3.50888 -1.4494
2.49377 3.51005 -1.44665
2.47807 3.51122 -1.44392
2.46243 3.51238 -1.44122
2.44684 3.51352 -1.43853
2.4313 3.51466 -1.43587
2.41593 3.51595 -1.43329
2.40063 3.51726 -1.43075
2.38539 3.51857 -1.42823
2.37019 3.51986 -1.42574
2.35505 3.52114 -1.42326
2.33995 3.52241 -1.4208
2.3249 3.52367 -1.41836
2.30989 3.52493 -1.41594
2.29497 3.52621 -1.41356
2.28011 3.52752 -1.41122
2.2653 3.52883 -1.40889
2.25053 3.53012 -1.40658
2.2358 3.5314 -1.40429
2.22113 3.53267 -1.40202
2.20649 3.53393 -1.39977
2.1919 3.53518 -1.39754
2.17735 3.53642 -1.39532
2.16284 3.53766 -1.39313
2.14837 3.53888 -1.39095
2.13395 3.54009 -1.38879
2.11957 3.54129 -1.38665
2.10522 3.54248 -1.38452
2.09092 3.54367 -1.38242
2.07666 3.54484 -1.38033
2.06243 3.54601 -1.37826
2.04825 3.54716 -1.3762
2.03411 3.54831 -1.37416
2.02 3.54944 -1.37215
2.00593 3.55057 -1.37014
1.9919 3.55169 -1.36816
1.9779 3.55279 -1.36619
1.96395 3.55389 -1.36424
1.95002 3.55499 -1.3623
1.93614 3.55607 -1.36038
1.92229 3.55714 -1.35848
1.90848 3.5582 -1.3566
1.8947 3.55926 -1.35473
1.88095 3.56031 -1.35288
1.86724 3.56134 -1.35104
1.85357 3.56237 -1.34922
1.83993 3.56339 -1.34741
1.82632 3.56441 -1.34563
1.81274 3.56541 -1.34385
1.79926 3.56652 -1.34214
1.78583 3.56767 -1.34045
1.77243 3.5688 -1.33879
1.75905 3.56993 -1.33714
1.74571 3.57105 -1.3355
1.7324 3.57216 -1.33388
1.71912 3.57326 -1.33227
1.70587 3.57435 -1.33067
1.69264 3.57544 -1.3291
1.67945 3.57652 -1.32753
1.66628 3.57758 -1.32598
1.65314 3.57864 -1.32445
1.64003 3.57969 -1.32293
1.62694 3.58074 -1.32142
1.61388 3.58177 -1.31993
1.60085 3.5828 -1.31845
1.58785 3.58382 -1.31699
1.57487 3.58483 -1.31554
1.56191 3.58583 -1.3141
1.54899 3.58682 -1.31268
1.53609 3.58781 -1.31127
1.52339 3.58922 -1.31004
1.51097 3.59121 -1.30903
1.49856 3.59319 -1.30803
1.48617 3.59516 -1.30705
1.47379 3.59712 -1.30607
1.46143 3.59908 -1.30511
1.44909 3.60102 -1.30416
1.43675 3.60295 -1.30323
1.42444 3.60488 -1.3023
1.41214 3.6068 -1.30139
1.39986 3.60871 -1.30049
1.38759 3.61061 -1.2996
1.37533 3.61251 -1.29872
1.36309 3.61439 -1.29786
1.35087 3.61627 -1.29701
1.33865 3.61814 -1.29616
1.32645 3.62 -1.29533
1.31427 3.62185 -1.29452
1.3021 3.62369 -1.29371
1.28994 3.62553 -1.29292
1.27779 3.62736 -1.29213
1.26522 3.62793 -1.29092
1.25263 3.62839 -1.28968
1.24007 3.62884 -1.28845
1.22753 3.62928 -1.28723
1.21501 3.62972 -1.28603
1.20251 3.63015 -1.28484
1.1901 3.6308 -1.28374
3.2691 3.44784 -1.64041
3.24864 3.44785 -1.63556
3.2283 3.44785 -1.63076
3.20808 3.44786 -1.62599
3.18797 3.44786 -1.62127
3.16798 3.44786 -1.61659
3.1481 3.44786 -1.61196
3.12834 3.44786 -1.60737
3.10868 3.44786 -1.60281
3.08914 3.44785 -1.5983
3.0697 3.44785 -1.59383
3.05038 3.44785 -1.5894
3.03115 3.44784 -1.58501
3.01362 3.44964 -1.58149
2.99614 3.45142 -1.57799
2.97874 3.45319 -1.57452
2.96141 3.45493 -1.57107
2.94414 3.45667 -1.56766
2.92695 3.45838 -1.56427
2.90875 3.45881 -1.56033
2.89078 3.4594 -1.5565
2.87364 3.46089 -1.55311
2.85658 3.46237 -1.54974
2.83958 3.46383 -1.5464
2.82265 3.46528 -1.54309
2.80579 3.46671 -1.53981
2.78899 3.46814 -1.53655
2.77226 3.46955 -1.53332
2.75559 3.47095 -1.53011
2.73899 3.47234 -1.52693
2.72245 3.47371 -1.52377
2.70597 3.47507 -1.52064
2.68956 3.47642 -1.51753
2.67321 3.47776 -1.51445
2.65692 3.47909 -1.5114
2.64069 3.48041 -1.50836
2.62452 3.48171 -1.50536
2.60841 3.483 -1.50237
2.59236 3.48428 -1.49941
2.57637 3.48555 -1.49647
2.56044 3.48681 -1.49356
2.54456 3.48806 -1.49067
2.52874 3.4893 -1.4878
2.51297 3.49052 -1.48496
2.49727 3.49174 -1.48214
2.48161 3.49294 -1.47934
2.46601 3.49414 -1.47656
2.45047 3.49532 -1.47381
2.43498 3.49649 -1.47108
2.41954 3.49765 -1.46837
2.40417 3.49883 -1.46569
2.38897 3.50017 -1.46311
2.37382 3.50149 -1.46054
2.35871 3.50281 -1.458
2.34366 3.50412 -1.45548
2.32865 3.50541 -1.45298
2.31369 3.5067 -1.4505
2.29882 3.50803 -1.44806
2.28401 3.50937 -1.44565
2.26924 3.5107 -1.44326
2.25451 3.51203 -1.44089
2.23983 3.51334 -1.43854
2.2252 3.51464 -1.43621
2.2106 3.51594 -1.4339
2.19606 3.51722 -1.43161
2.18155 3.51849 -1.42934
2.16708 3.51975 -1.42708
2.15266 3.521 -1.42485
2.13828 3.52224 -1.42263
2.12394 3.52348 -1.42043
2.10964 3.5247 -1.41825
2.09537 3.52591 -1.41609
2.08115 3.52711 -1.41394
2.06697 3.52831 -1.41182
2.05283 3.52949 -1.40971
2.03873 3.53066 -1.40762
2.02466 3.53183 -1.40554
2.01063 3.53298 -1.40349
1.99664 3.53413 -1.40145
1.98269 3.53527 -1.39943
1.96877 3.53639 -1.39742
1.95489 3.53751 -1.39544
1.94105 3.53862 -1.39347
1.92724 3.53972 -1.39151
1.91347 3.54081 -1.38958
1.89973 3.54189 -1.38766
1.88602 3.54296 -1.38576
1.87236 3.54403 -1.38387
1.85872 3.54508 -1.382
1.84512 3.54613 -1.38014
1.83155 3.54717 -1.37831
1.81801 3.5482 -1.37649
1.80451 3.54922 -1.37468
1.79104 3.55023 -1.37289
1.7776 3.55123 -1.37112
1.76421 3.55226 -1.36937
1.75091 3.55341 -1.36769
1.73764 3.55454 -1.36602
1.7244 3.55566 -1.36437
1.71119 3.55678 -1.36273
1.69801 3.55789 -1.36111
1.68485 3.55899 -1.3595
1.67173 3.56008 -1.35791
1.65863 3.56116 -1.35633
1.64556 3.56223 -1.35477
1.63252 3.5633 -1.35322
1.6195 3.56436 -1.35169
1.60651 3.5654 -1.35017
1.59354 3.56644 -1.34867
1.58061 3.56748 -1.34718
1.5677 3.5685 -1.3457
1.55481 3.56951 -1.34424
1.54195 3.57052 -1.34279
1.52911 3.57152 -1.34136
1.51656 3.57312 -1.34017
1.5042 3.57511 -1.33914
1.49185 3.5771 -1.33812
1.47951 3.57907 -1.33712
1.4672 3.58104 -1.33613
1.4549 3.58299 -1.33515
1.44261 3.58494 -1.33418
1.43034 3.58688 -1.33323
1.41809 3.58881 -1.33229
1.40585 3.59073 -1.33136
1.39363 3.59264 -1.33044
1.38141 3.59454 -1.32953
1.36922 3.59644 -1.32864
1.35703 3.59833 -1.32776
1.34487 3.60021 -1.32689
1.33271 3.60208 -1.32603
1.32057 3.60394 -1.32519
1.30844 3.6058 -1.32436
1.296 3.60673 -1.3232
1.28343 3.60723 -1.3219
1.27087 3.60772 -1.32062
1.25834 3.60821 -1.31934
1.24583 3.60868 -1.31808
1.23334 3.60915 -1.31683
1.22088 3.60961 -1.3156
1.20843 3.61006 -1.31438
1.19609 3.61077 -1.31326
1.18381 3.61158 -1.3122
3.26655 3.44515 -1.68342
3.24611 3.44516 -1.67845
3.22579 3.44517 -1.67352
3.20559 3.44518 -1.66863
3.18551 3.44519 -1.66379
3.16554 3.4452 -1.65899
3.14568 3.44521 -1.65424
3.12594 3.44522 -1.64953
3.10631 3.44522 -1.64486
3.08678 3.44523 -1.64024
3.06737 3.44523 -1.63565
3.04806 3.44523 -1.63111
3.02886 3.44523 -1.62661
3.00977 3.44524 -1.62214
2.99077 3.44523 -1.61772
2.97188 3.44523 -1.61334
2.95309 3.44523 -1.60899
2.9344 3.44523 -1.60469
2.91581 3.44522 -1.60042
2.8973 3.4452 -1.59618
2.87897 3.44527 -1.59202
2.86084 3.44546 -1.58796
2.84279 3.44566 -1.58393
2.8251 3.44616 -1.58009
2.80829 3.44764 -1.57672
2.79154 3.44911 -1.57338
2.77486 3.45056 -1.57007
2.75824 3.45201 -1.56678
2.74168 3.45343 -1.56352
2.7252 3.45485 -1.56029
2.70877 3.45625 -1.55708
2.6924 3.45765 -1.5539
2.6761 3.45903 -1.55074
2.65986 3.46039 -1.5476
2.64368 3.46175 -1.5445
2.62756 3.46309 -1.54141
2.61149 3.46443 -1.53835
2.59549 3.46575 -1.53532
2.57954 3.46705 -1.53231
2.56366 3.46835 -1.52932
2.54782 3.46964 -1.52636
2.53205 3.47091 -1.52342
2.51633 3.47218 -1.52051
2.50067 3.47343 -1.51761
2.48506 3.47467 -1.51474
2.4695 3.4759 -1.5119
2.454 3.47712 -1.50907
2.43856 3.47833 -1.50627
2.42316 3.47952 -1.50349
2.40782 3.48071 -1.50074
2.39253 3.48189 -1.498
2.37734 3.48314 -1.49533
2.36229 3.48449 -1.49272
2.34728 3.48583 -1.49014
2.33232 3.48716 -1.48757
2.3174 3.48848 -1.48503
2.30258 3.48985 -1.48253
2.28781 3.49123 -1.48006
2.27309 3.49259 -1.47761
2.25841 3.49395 -1.47518
2.24377 3.49529 -1.47277
2.22918 3.49663 -1.47038
2.21463 3.49795 -1.46801
2.20012 3.49926 -1.46566
2.18566 3.50057 -1.46333
2.17124 3.50186 -1.46102
2.15686 3.50314 -1.45873
2.14252 3.50441 -1.45645
2.12822 3.50567 -1.45419
2.11396 3.50692 -1.45196
2.09974 3.50817 -1.44974
2.08556 3.5094 -1.44754
2.07142 3.51062 -1.44536
2.05732 3.51183 -1.44319
2.04326 3.51303 -1.44105
2.02924 3.51423 -1.43892
2.01525 3.51541 -1.43681
2.0013 3.51658 -1.43472
1.98739 3.51775 -1.43264
1.97351 3.5189 -1.43059
1.95967 3.52005 -1.42855
1.94587 3.52118 -1.42653
1.9321 3.52231 -1.42452
1.91837 3.52343 -1.42254
1.90467 3.52454 -1.42057
1.89101 3.52564 -1.41861
1.87738 3.52673 -1.41667
1.86379 3.52781 -1.41476
1.85022 3.52888 -1.41285
1.83669 3.52994 -1.41097
1.8232 3.531 -1.40909
1.80974 3.53204 -1.40724
1.79631 3.53308 -1.4054
1.78291 3.53411 -1.40358
1.76954 3.53513 -1.40178
1.7562 3.53614 -1.39999
1.7429 3.53714 -1.39821
1.72962 3.53814 -1.39646
1.71643 3.53923 -1.39476
1.70329 3.54036 -1.39309
1.69018 3.54148 -1.39144
1.67709 3.54259 -1.38981
1.66404 3.5437 -1.38819
1.65101 3.54479 -1.38658
1.638 3.54588 -1.38499
1.62503 3.54696 -1.38342
1.61208 3.54803 -1.38185
1.59916 3.54909 -1.38031
1.58626 3.55015 -1.37878
1.57339 3.55119 -1.37726
1.56055 3.55223 -1.37576
1.54773 3.55326 -1.37427
1.53493 3.55428 -1.3728
1.52216 3.55529 -1.37134
1.50975 3.55708 -1.3702
1.49745 3.55907 -1.36915
1.48516 3.56106 -1.36811
1.47288 3.56303 -1.36709
1.46063 3.565 -1.36608
1.44839 3.56696 -1.36509
1.43616 3.56891 -1.3641
1.42395 3.57085 -1.36313
1.41176 3.57278 -1.36218
1.39958 3.57471 -1.36123
1.38741 3.57662 -1.3603
1.37526 3.57853 -1.35937
1.36312 3.58043 -1.35847
1.351 3.58232 -1.35757
1.33889 3.5842 -1.35668
1.32657 3.58546 -1.35558
1.314 3.58601 -1.35422
1.30146 3.58654 -1.35288
1.28893 3.58706 -1.35154
1.27644 3.58758 -1.35023
1.26396 3.58809 -1.34892
1.2515 3.58859 -1.34762
1.23906 3.58908 -1.34634
1.22665 3.58957 -1.34508
1.21426 3.59004 -1.34382
1.20198 3.59081 -1.34269
1.18975 3.59163 -1.3416
1.17754 3.59245 -1.34052
3.26399 3.44245 -1.72662
3.24357 3.44246 -1.72151
3.22327 3.44248 -1.71646
3.20309 3.4425 -1.71146
3.18303 3.44251 -1.7065
3.16308 3.44253 -1.70158
3.14325 3.44255 -1.69671
3.12353 3.44256 -1.69188
3.10392 3.44257 -1.6871
3.08442 3.44259 -1.68236
3.06503 3.4426 -1.67766
3.04574 3.44261 -1.673
3.02656 3.44262 -1.66839
3.00749 3.44262 -1.66381
2.98851 3.44263 -1.65928
2.96964 3.44264 -1.65478
2.95087 3.44264 -1.65033
2.9322 3.44265 -1.64592
2.91363 3.44265 -1.64154
2.89513 3.44262 -1.6372
2.87672 3.44258 -1.63288
2.85841 3.44254 -1.6286
2.84019 3.4425 -1.62436
2.82223 3.44266 -1.62025
2.80439 3.44285 -1.6162
2.78663 3.44305 -1.61218
2.76897 3.44324 -1.6082
2.75139 3.44343 -1.60425
2.73389 3.44362 -1.60034
2.71648 3.44381 -1.59646
2.69916 3.44399 -1.59261
2.68191 3.44417 -1.5888
2.66475 3.44435 -1.58502
2.64766 3.44453 -1.58128
2.63066 3.4447 -1.57756
2.61447 3.44585 -1.57433
2.59852 3.44721 -1.57122
2.58262 3.44856 -1.56813
2.56678 3.44989 -1.56508
2.55099 3.45122 -1.56204
2.53526 3.45253 -1.55903
2.51959 3.45383 -1.55604
2.50397 3.45512 -1.55308
2.48841 3.4564 -1.55014
2.4729 3.45767 -1.54722
2.45744 3.45892 -1.54433
2.44204 3.46017 -1.54146
2.42669 3.4614 -1.53861
2.41139 3.46262 -1.53579
2.39614 3.46383 -1.53299
2.38095 3.46504 -1.53021
2.3658 3.46623 -1.52745
2.3508 3.46755 -1.52478
2.33589 3.46891 -1.52215
2.32102 3.47027 -1.51954
2.30625 3.47168 -1.51699
2.29152 3.47309 -1.51446
2.27684 3.47449 -1.51195
2.26221 3.47588 -1.50946
2.24762 3.47725 -1.50699
2.23307 3.47862 -1.50454
2.21856 3.47997 -1.50211
2.2041 3.48132 -1.4997
2.18968 3.48265 -1.49731
2.1753 3.48397 -1.49494
2.16096 3.48529 -1.49259
2.14667 3.48659 -1.49025
2.13241 3.48788 -1.48794
2.11819 3.48916 -1.48565
2.10402 3.49043 -1.48337
2.08988 3.49169 -1.48112
2.07578 3.49294 -1.47888
2.06172 3.49418 -1.47666
2.0477 3.49542 -1.47446
2.03372 3.49664 -1.47228
2.01978 3.49785 -1.47012
2.00587 3.49905 -1.46797
1.992 3.50024 -1.46584
1.97817 3.50142 -1.46373
1.96437 3.5026 -1.46164
1.9506 3.50376 -1.45957
1.93688 3.50491 -1.45751
1.92319 3.50606 -1.45547
1.90953 3.50719 -1.45345
1.89591 3.50832 -1.45145
1.88232 3.50943 -1.44946
1.86876 3.51054 -1.44749
1.85524 3.51164 -1.44554
1.84176 3.51273 -1.44361
1.8283 3.51381 -1.44169
1.81488 3.51488 -1.43978
1.80149 3.51594 -1.4379
1.78813 3.51699 -1.43603
1.7748 3.51804 -1.43418
1.7615 3.51907 -1.43234
1.74824 3.5201 -1.43052
1.735 3.52112 -1.42872
1.7218 3.52213 -1.42693
1.70862 3.52313 -1.42516
1.69548 3.52412 -1.4234
1.68237 3.52513 -1.42167
1.66936 3.52625 -1.42001
1.65637 3.52737 -1.41836
1.64341 3.52848 -1.41673
1.63048 3.52958 -1.41511
1.61757 3.53068 -1.41351
1.60469 3.53176 -1.41192
1.59183 3.53283 -1.41035
1.579 3.5339 -1.40879
1.5662 3.53496 -1.40725
1.55342 3.53601 -1.40572
1.54067 3.53705 -1.40421
1.52794 3.53808 -1.40271
1.51523 3.53911 -1.40122
1.50296 3.54108 -1.40013
1.49072 3.54307 -1.39907
1.47849 3.54506 -1.39801
1.46627 3.54704 -1.39698
1.45408 3.54901 -1.39595
1.4419 3.55097 -1.39494
1.42973 3.55293 -1.39394
1.41758 3.55487 -1.39295
1.40544 3.55681 -1.39197
1.39332 3.55873 -1.39101
1.38122 3.56065 -1.39006
1.36912 3.56256 -1.38912
1.35691 3.56412 -1.38807
1.34435 3.5647 -1.38664
1.33182 3.56528 -1.38524
1.31931 3.56585 -1.38384
1.30682 3.56641 -1.38246
1.29435 3.56695 -1.3811
1.2819 3.5675 -1.37974
1.26948 3.56803 -1.37841
1.25708 3.56855 -1.37708
1.24469 3.56907 -1.37576
1.23233 3.56958 -1.37446
1.21999 3.57008 -1.37318
1.20778 3.57091 -1.37203
1.19561 3.57175 -1.37091
1.18344 3.57259 -1.3698
1.1713 3.57342 -1.36871
3.26144 3.43976 -1.77002
3.24104 3.43978 -1.76479
3.22075 3.43979 -1.75961
3.20059 3.43981 -1.75448
3.18055 3.43982 -1.74939
3.16062 3.43985 -1.74436
3.14081 3.43987 -1.73937
3.12111 3.43989 -1.73442
3.10152 3.43991 -1.72952
3.08204 3.43993 -1.72466
3.06267 3.43995 -1.71985
3.04341 3.43997 -1.71508
3.02425 3.43999 -1.71035
3.00519 3.44 -1.70567
2.98624 3.44001 -1.70102
2.96739 3.44003 -1.69642
2.94864 3.44004 -1.69186
2.92999 3.44005 -1.68734
2.91144 3.44006 -1.68286
2.89296 3.44003 -1.6784
2.87457 3.44 -1.67398
2.85627 3.43997 -1.6696
2.83807 3.43993 -1.66525
2.81996 3.4399 -1.66095
2.80195 3.43986 -1.65668
2.78405 3.43986 -1.65247
2.76641 3.44006 -1.64839
2.74885 3.44026 -1.64435
2.73138 3.44046 -1.64034
2.71399 3.44065 -1.63637
2.69669 3.44084 -1.63243
2.67946 3.44103 -1.62853
2.66232 3.44122 -1.62466
2.64526 3.4414 -1.62082
2.62828 3.44158 -1.61702
2.61137 3.44176 -1.61325
2.59455 3.44194 -1.60951
2.5778 3.44212 -1.60581
2.56112 3.4423 -1.60214
2.54452 3.44247 -1.5985
2.528 3.44264 -1.59489
2.51155 3.44281 -1.59131
2.49517 3.44297 -1.58776
2.47886 3.44314 -1.58425
2.46262 3.4433 -1.58076
2.44646 3.44346 -1.57731
2.43036 3.44362 -1.57388
2.41487 3.44454 -1.57083
2.39966 3.44578 -1.56796
2.38451 3.44702 -1.56512
2.36941 3.44825 -1.56229
2.35436 3.44946 -1.55949
2.33936 3.45068 -1.55672
2.32455 3.45207 -1.55405
2.30982 3.45353 -1.55144
2.29514 3.45497 -1.54884
2.28051 3.4564 -1.54627
2.26591 3.45782 -1.54372
2.25137 3.45922 -1.54119
2.23686 3.46062 -1.53868
2.2224 3.462 -1.53619
2.20798 3.46338 -1.53372
2.1936 3.46474 -1.53127
2.17927 3.4661 -1.52885
2.16497 3.46744 -1.52644
2.15072 3.46877 -1.52405
2.13651 3.47009 -1.52168
