ply
format ascii 1.0
comment Created by Open3D
element vertex 1763
property double x
property double y
property double z
end_header
-6.11562 0.126973 -1.28957
-6.11363 0.107789 -1.28907
-6.11162 0.0886256 -1.28859
-6.1096 0.0694717 -1.28811
-6.10757 0.0503303 -1.28764
-6.10552 0.0312054 -1.28718
-6.10345 0.0120925 -1.28673
-6.10289 -0.0070104 -1.28661
-6.10496 -0.0261198 -1.28706
-6.10702 -0.0452425 -1.28751
-6.10906 -0.0643773 -1.28798
-6.11108 -0.083526 -1.28846
-6.11309 -0.102689 -1.28894
-6.11509 -0.121867 -1.28944
-6.11707 -0.141063 -1.28994
-6.11913 -0.160273 -1.29047
-6.12136 -0.179503 -1.29106
-6.12357 -0.19875 -1.29165
-6.12577 -0.218014 -1.29225
-6.12796 -0.237299 -1.29286
-6.13013 -0.256598 -1.29348
-6.13228 -0.275917 -1.29412
-6.13443 -0.295253 -1.29476
-6.13656 -0.314608 -1.29541
-6.13867 -0.333981 -1.29607
-6.94685 0.866111 -1.53674
-6.47816 0.787097 -1.43252
-6.24514 0.738961 -1.38047
-6.20685 0.714739 -1.3715
-6.17084 0.69103 -1.36306
-6.13421 0.667496 -1.3545
-6.13078 0.647717 -1.35329
-6.12733 0.627969 -1.35209
-6.12388 0.608254 -1.3509
-6.12041 0.588571 -1.34972
-6.11693 0.568921 -1.34856
-6.11344 0.549305 -1.3474
-6.10993 0.529719 -1.34626
-6.10641 0.510161 -1.34512
-6.10288 0.490637 -1.344
-6.09934 0.471146 -1.34289
-6.09532 0.451651 -1.34169
-6.09086 0.432158 -1.3404
-6.08638 0.412702 -1.33912
-6.0819 0.393278 -1.33786
-6.07741 0.373893 -1.33661
-6.07291 0.354543 -1.33537
-6.07009 0.335319 -1.33451
-6.06804 0.316161 -1.33384
-6.06598 0.29702 -1.33317
-6.0639 0.277898 -1.33252
-6.0618 0.258795 -1.33187
-6.05969 0.239707 -1.33124
-6.05757 0.220638 -1.33061
-6.05543 0.201581 -1.33
-6.05327 0.182551 -1.32939
-6.05111 0.163529 -1.3288
-6.04892 0.144528 -1.32821
-6.04672 0.125542 -1.32764
-6.04451 0.10657 -1.32707
-6.04228 0.08762 -1.32652
-6.04029 0.0686836 -1.32602
-6.0383 0.0497595 -1.32555
-6.0363 0.0308517 -1.32508
-6.03428 0.0119555 -1.32462
-6.03373 -0.00693096 -1.3245
-6.03576 -0.0258237 -1.32495
-6.03776 -0.0447294 -1.32542
-6.03976 -0.063647 -1.32589
-6.04173 -0.0825781 -1.32638
-6.04391 -0.101527 -1.32692
-6.04613 -0.120493 -1.32748
-6.04834 -0.139478 -1.32806
-6.05053 -0.158477 -1.32864
-6.0527 -0.17749 -1.32923
-6.05486 -0.19652 -1.32984
-6.057 -0.215567 -1.33045
-6.05913 -0.234634 -1.33107
-6.06125 -0.253715 -1.3317
-6.06335 -0.272815 -1.33235
-6.06543 -0.291932 -1.333
-6.0675 -0.311068 -1.33366
-6.06956 -0.330221 -1.33433
-6.5532 0.837869 -1.5079
-6.20772 0.773961 -1.42784
-6.1646 0.749 -1.41738
-6.1286 0.725171 -1.40857
-6.09667 0.702051 -1.40072
-6.06376 0.679039 -1.39266
-6.06044 0.659469 -1.39142
-6.05712 0.639935 -1.39019
-6.05378 0.620431 -1.38897
-6.05043 0.600959 -1.38777
-6.04707 0.581518 -1.38657
-6.04369 0.562109 -1.38539
-6.04031 0.542735 -1.38421
-6.0369 0.523388 -1.38305
-6.03349 0.504069 -1.3819
-6.03006 0.484782 -1.38076
-6.02662 0.465528 -1.37963
-6.02317 0.446306 -1.37852
-6.0197 0.42711 -1.37741
-6.01623 0.407945 -1.37632
-6.01235 0.38878 -1.37514
-6.00797 0.369621 -1.37387
-6.00424 0.350533 -1.37276
-6.00226 0.331572 -1.37206
-6.00027 0.31263 -1.37138
-5.99826 0.293704 -1.3707
-5.99623 0.274796 -1.37004
-5.99419 0.255909 -1.36938
-5.99214 0.237034 -1.36874
-5.99007 0.218179 -1.3681
-5.98799 0.199336 -1.36747
-5.98589 0.180519 -1.36686
-5.98377 0.161709 -1.36626
-5.98164 0.14292 -1.36566
-5.9795 0.124147 -1.36507
-5.97734 0.105386 -1.3645
-5.97516 0.0866465 -1.36393
-5.97297 0.0679179 -1.36338
-5.97076 0.0492029 -1.36283
-5.96854 0.0305053 -1.3623
-5.96642 0.011821 -1.3618
-5.96588 -0.00685301 -1.36167
-5.96794 -0.0255335 -1.36215
-5.97017 -0.0442287 -1.36269
-5.97238 -0.0629371 -1.36323
-5.97457 -0.0816603 -1.36378
-5.97675 -0.100399 -1.36435
-5.97892 -0.119154 -1.36492
-5.98107 -0.137927 -1.3655
-5.98321 -0.156713 -1.3661
-5.98533 -0.175514 -1.3667
-5.98743 -0.194332 -1.36731
-5.98952 -0.213165 -1.36793
-5.99159 -0.232018 -1.36857
-5.99365 -0.250886 -1.36921
-5.9957 -0.269771 -1.36986
-5.99773 -0.288673 -1.37053
-5.99974 -0.307594 -1.3712
-6.00174 -0.326531 -1.37188
-6.2602 0.820331 -1.49638
-6.12754 0.783446 -1.46408
-6.08557 0.758731 -1.45347
-6.05182 0.735297 -1.44485
-6.02072 0.712406 -1.43689
-5.99457 0.690295 -1.43013
-5.99137 0.670933 -1.42886
-5.98816 0.651604 -1.4276
-5.98494 0.63231 -1.42635
-5.98089 0.61296 -1.42492
-5.97667 0.593633 -1.42347
-5.97244 0.574342 -1.42202
-5.96819 0.555087 -1.42059
-5.96392 0.535871 -1.41917
-5.95963 0.516689 -1.41776
-5.95532 0.497538 -1.41635
-5.95099 0.478425 -1.41496
-5.94664 0.45935 -1.41358
-5.94228 0.440311 -1.41221
-5.93789 0.421305 -1.41084
-5.9335 0.402335 -1.40949
-5.92919 0.383403 -1.40818
-5.92487 0.364508 -1.40687
-5.92218 0.345743 -1.40597
-5.9198 0.327016 -1.40516
-5.91739 0.308312 -1.40435
-5.91495 0.289625 -1.40355
-5.91249 0.270959 -1.40276
-5.91001 0.252315 -1.40197
-5.9075 0.233686 -1.4012
-5.90497 0.21508 -1.40043
-5.90241 0.196487 -1.39967
-5.89983 0.177924 -1.39892
-5.89722 0.15937 -1.39818
-5.8946 0.14084 -1.39744
-5.89194 0.122329 -1.39672
-5.88927 0.103833 -1.396
-5.88694 0.0853675 -1.39538
-5.88667 0.0669368 -1.39525
-5.88637 0.0485075 -1.39514
-5.88605 0.0300837 -1.39504
-5.8857 0.0116611 -1.39494
-5.88561 -0.0067608 -1.39491
-5.88596 -0.0251828 -1.39501
-5.88628 -0.0436072 -1.39511
-5.88659 -0.062033 -1.39522
-5.88687 -0.0804615 -1.39534
-5.88854 -0.0989174 -1.39581
-5.89122 -0.117406 -1.39652
-5.89388 -0.135916 -1.39725
-5.89652 -0.154443 -1.39798
-5.89913 -0.172987 -1.39872
-5.90172 -0.19155 -1.39947
-5.90428 -0.210132 -1.40023
-5.90682 -0.228736 -1.40099
-5.90934 -0.247356 -1.40176
-5.91183 -0.265998 -1.40255
-5.9143 -0.284658 -1.40334
-5.91674 -0.303339 -1.40413
-5.91916 -0.322038 -1.40494
-6.33431 0.870405 -1.5716
-6.09028 0.817463 -1.51041
-6.04885 0.792636 -1.49952
-6.00219 0.767418 -1.48735
-5.97444 0.744876 -1.47989
-5.94273 0.722043 -1.47146
-5.91135 0.699465 -1.46315
-5.89161 0.678438 -1.45773
-5.88766 0.659319 -1.45623
-5.88369 0.640235 -1.45475
-5.8797 0.621191 -1.45327
-5.87568 0.602178 -1.45181
-5.87165 0.583201 -1.45035
-5.8676 0.564259 -1.44891
-5.86353 0.545353 -1.44747
-5.85943 0.526483 -1.44605
-5.85535 0.507648 -1.44464
-5.85134 0.488851 -1.44327
-5.8473 0.470089 -1.4419
-5.84324 0.451363 -1.44055
-5.83916 0.432671 -1.4392
-5.83507 0.414009 -1.43786
-5.83095 0.395381 -1.43654
-5.82682 0.376783 -1.43522
-5.82339 0.358265 -1.43409
-5.82112 0.339843 -1.43327
-5.81884 0.321439 -1.43245
-5.81652 0.303056 -1.43164
-5.81419 0.284691 -1.43084
-5.81182 0.266345 -1.43004
-5.80944 0.248021 -1.42926
-5.80703 0.229712 -1.42848
-5.80479 0.211431 -1.42776
-5.80468 0.193234 -1.42758
-5.80455 0.17505 -1.42741
-5.8044 0.156862 -1.42724
-5.80423 0.138681 -1.42708
-5.80403 0.120504 -1.42694
-5.80381 0.102327 -1.4268
-5.80357 0.0841584 -1.42667
-5.8033 0.0659888 -1.42654
-5.80301 0.0478206 -1.42643
-5.8027 0.0296578 -1.42632
-5.80237 0.011496 -1.42622
-5.80228 -0.00666508 -1.4262
-5.80262 -0.0248262 -1.42629
-5.80293 -0.0429897 -1.4264
-5.80323 -0.0611545 -1.42651
-5.8035 -0.079322 -1.42663
-5.80375 -0.0974924 -1.42676
-5.80398 -0.115667 -1.4269
-5.80418 -0.133848 -1.42705
-5.80436 -0.152029 -1.4272
-5.80452 -0.170212 -1.42736
-5.80466 -0.188399 -1.42754
-5.80477 -0.20659 -1.42772
-5.80638 -0.224846 -1.42828
-5.80879 -0.243148 -1.42905
-5.81119 -0.26147 -1.42983
-5.81356 -0.279809 -1.43063
-5.8159 -0.298168 -1.43142
-5.81822 -0.316546 -1.43223
-6.05277 0.851026 -1.55638
-6.00802 0.82557 -1.5442
-5.922 0.794875 -1.52145
-5.89898 0.772997 -1.51491
-5.87612 0.751299 -1.50842
-5.85342 0.729788 -1.502
-5.83089 0.708453 -1.49564
-5.8039 0.68675 -1.48816
-5.78895 0.666617 -1.48379
-5.78517 0.647842 -1.48229
-5.78137 0.629102 -1.48081
-5.77761 0.610405 -1.47935
-5.77388 0.591745 -1.47791
-5.77013 0.573118 -1.47649
-5.76636 0.554524 -1.47507
-5.76257 0.535962 -1.47366
-5.75876 0.517437 -1.47227
-5.75492 0.498941 -1.47088
-5.75107 0.480474 -1.4695
-5.74719 0.462041 -1.46814
-5.7433 0.443643 -1.46678
-5.73938 0.425277 -1.46543
-5.73545 0.406941 -1.4641
-5.73149 0.388637 -1.46277
-5.72751 0.370362 -1.46145
-5.72523 0.352226 -1.46058
-5.72338 0.334136 -1.45983
-5.72344 0.316169 -1.45959
-5.72348 0.298209 -1.45935
-5.7235 0.280251 -1.45913
-5.72349 0.262297 -1.45891
-5.72346 0.244351 -1.4587
-5.72341 0.226404 -1.4585
-5.72334 0.208464 -1.45831
-5.72324 0.190523 -1.45812
-5.72313 0.172595 -1.45795
-5.72298 0.154662 -1.45778
-5.72282 0.136736 -1.45762
-5.72263 0.118814 -1.45748
-5.72243 0.100892 -1.45733
-5.72219 0.0829784 -1.4572
-5.72194 0.0650637 -1.45708
-5.72166 0.0471502 -1.45696
-5.72136 0.029242 -1.45686
-5.72104 0.0113349 -1.45676
-5.72095 -0.00657166 -1.45673
-5.72128 -0.0244782 -1.45683
-5.72158 -0.0423871 -1.45693
-5.72187 -0.0602971 -1.45705
-5.72213 -0.0782098 -1.45717
-5.72237 -0.0961253 -1.4573
-5.72258 -0.114045 -1.45744
-5.72278 -0.131971 -1.45759
-5.72295 -0.149897 -1.45774
-5.7231 -0.167825 -1.45791
-5.72322 -0.185756 -1.45808
-5.72332 -0.203691 -1.45826
-5.7234 -0.221633 -1.45845
-5.72346 -0.239576 -1.45865
-5.7235 -0.257524 -1.45886
-5.72351 -0.275475 -1.45907
-5.7235 -0.293432 -1.4593
-5.72346 -0.311391 -1.45953
-5.91396 0.850393 -1.57436
-5.84313 0.821551 -1.55481
-5.82081 0.799845 -1.5482
-5.79864 0.778317 -1.54164
-5.77661 0.756962 -1.53515
-5.75474 0.73578 -1.52872
-5.72741 0.714077 -1.52086
-5.69916 0.692449 -1.51277
-5.67178 0.671118 -1.50494
-5.66146 0.651936 -1.50166
-5.65738 0.633531 -1.50004
-5.65326 0.615161 -1.49843
-5.6491 0.596828 -1.49682
-5.6449 0.578526 -1.49522
-5.64067 0.56026 -1.49363
-5.63641 0.542027 -1.49205
-5.63212 0.52383 -1.49047
-5.62778 0.505669 -1.4889
-5.62342 0.487539 -1.48733
-5.61902 0.469442 -1.48577
-5.61491 0.451406 -1.4843
-5.61089 0.433415 -1.48287
-5.60683 0.415456 -1.48145
-5.60275 0.397526 -1.48004
-5.59862 0.379628 -1.47863
-5.59592 0.361853 -1.47761
-5.59633 0.344296 -1.47742
-5.5967 0.326741 -1.47724
-5.59703 0.309186 -1.47707
-5.59732 0.291635 -1.47689
-5.59756 0.274084 -1.47672
-5.59776 0.256535 -1.47656
-5.59793 0.238991 -1.4764
-5.59805 0.221445 -1.47624
-5.59813 0.203904 -1.47609
-5.59817 0.186359 -1.47593
-5.59816 0.168826 -1.47579
-5.59812 0.151287 -1.47564
-5.59803 0.133754 -1.4755
-5.59534 0.116171 -1.47469
-5.59153 0.0985841 -1.4736
-5.58767 0.0810277 -1.47251
-5.58377 0.0634925 -1.47142
-5.57981 0.0459813 -1.47033
-5.57582 0.0284981 -1.46925
-5.57177 0.0110391 -1.46817
-5.57066 -0.00639822 -1.46787
-5.57472 -0.0238508 -1.46895
-5.57873 -0.041329 -1.47004
-5.58269 -0.0588317 -1.47112
-5.58661 -0.076357 -1.47221
-5.59048 -0.0939108 -1.4733
-5.5943 -0.111488 -1.47439
-5.598 -0.129093 -1.47547
-5.5981 -0.146627 -1.47561
-5.59815 -0.164161 -1.47575
-5.59817 -0.181697 -1.47589
-5.59814 -0.199236 -1.47604
-5.59807 -0.21678 -1.4762
-5.59796 -0.234323 -1.47636
-5.59781 -0.251869 -1.47652
-5.59762 -0.269416 -1.47668
-5.59739 -0.286966 -1.47685
-5.59711 -0.304517 -1.47702
-5.76494 0.847388 -1.58729
-5.73627 0.824841 -1.57868
-5.70786 0.802531 -1.57016
-5.67971 0.780457 -1.56174
-5.65182 0.75861 -1.55341
-5.62467 0.737052 -1.5453
-5.59813 0.715757 -1.53739
-5.57183 0.694679 -1.52956
-5.54574 0.673808 -1.52181
-5.51987 0.653143 -1.51415
-5.51361 0.634911 -1.51188
-5.50979 0.617004 -1.51029
-5.50593 0.599129 -1.50871
-5.50229 0.581318 -1.50721
-5.49878 0.563551 -1.50576
-5.49524 0.545814 -1.50431
-5.49166 0.528107 -1.50287
-5.48805 0.51043 -1.50144
-5.4844 0.492785 -1.50001
-5.48072 0.475167 -1.49859
-5.477 0.457577 -1.49718
-5.47325 0.440017 -1.49577
-5.46946 0.42249 -1.49436
-5.46564 0.404993 -1.49297
-5.46179 0.387524 -1.49157
-5.4579 0.370086 -1.49019
-5.45681 0.352857 -1.48958
-5.45722 0.335738 -1.4894
-5.4576 0.31862 -1.48923
-5.45593 0.301392 -1.4885
-5.45287 0.284109 -1.48742
-5.44977 0.266848 -1.48634
-5.44662 0.249609 -1.48526
-5.44343 0.232395 -1.48418
-5.44018 0.2152 -1.48311
-5.43689 0.198031 -1.48204
-5.43356 0.180879 -1.48096
-5.43018 0.16376 -1.4799
-5.42675 0.146656 -1.47883
-5.42327 0.129579 -1.47776
-5.41975 0.112525 -1.4767
-5.41619 0.0954926 -1.47564
-5.41257 0.0784886 -1.47458
-5.41 0.0615166 -1.47382
-5.40756 0.0445618 -1.47311
-5.4051 0.0276256 -1.47241
-5.40261 0.0107039 -1.47172
-5.40193 -0.00620521 -1.47153
-5.40443 -0.023122 -1.47222
-5.40689 -0.040056 -1.47292
-5.40934 -0.0570032 -1.47363
-5.41175 -0.0739675 -1.47434
-5.4152 -0.0909657 -1.47535
-5.41878 -0.10799 -1.47641
-5.42231 -0.125042 -1.47747
-5.4258 -0.142114 -1.47854
-5.42924 -0.159208 -1.4796
-5.43263 -0.176325 -1.48067
-5.43598 -0.193465 -1.48174
-5.43928 -0.21063 -1.48281
-5.44254 -0.227816 -1.48389
-5.44574 -0.245027 -1.48497
-5.4489 -0.262257 -1.48604
-5.45202 -0.279514 -1.48712
-5.45509 -0.29679 -1.48821
-5.63117 0.845739 -1.60213
-5.60391 0.823718 -1.59364
-5.57688 0.801923 -1.58523
-5.55084 0.780455 -1.57713
-5.52514 0.759217 -1.56914
-5.49964 0.738185 -1.56124
-5.47435 0.717354 -1.55341
-5.45358 0.697276 -1.54689
-5.43304 0.677376 -1.54046
-5.41252 0.657622 -1.53405
-5.39624 0.638514 -1.52886
-5.39325 0.621051 -1.52745
-5.39023 0.603615 -1.52605
-5.38718 0.586208 -1.52466
-5.38411 0.568832 -1.52328
-5.38101 0.55148 -1.52191
-5.37788 0.534157 -1.52055
-5.37473 0.516862 -1.51919
-5.37155 0.499595 -1.51784
-5.36834 0.482357 -1.5165
-5.36511 0.465145 -1.51517
-5.36185 0.447957 -1.51385
-5.35857 0.430798 -1.51253
-5.35526 0.413669 -1.51122
-5.35175 0.396554 -1.50988
-5.34806 0.379455 -1.50849
-5.34434 0.362386 -1.50712
-5.34224 0.345449 -1.50621
-5.34039 0.32855 -1.50539
-5.33852 0.311668 -1.50458
-5.33662 0.294801 -1.50378
-5.33469 0.277952 -1.50299
-5.33274 0.261117 -1.5022
-5.33075 0.244298 -1.50141
-5.32873 0.227498 -1.50064
-5.32668 0.210711 -1.49987
-5.3246 0.193941 -1.4991
-5.3225 0.177182 -1.49835
-5.32036 0.160448 -1.4976
-5.3182 0.143722 -1.49685
-5.31601 0.127016 -1.49612
-5.31378 0.110325 -1.49539
-5.31153 0.0936475 -1.49467
-5.30931 0.0769912 -1.49397
-5.30738 0.0603497 -1.49336
-5.30541 0.04372 -1.49276
-5.30341 0.0271059 -1.49217
-5.30138 0.0105034 -1.49158
-5.30082 -0.00608906 -1.49142
-5.30286 -0.022688 -1.49201
-5.30486 -0.0392999 -1.4926
-5.30684 -0.0559235 -1.49319
-5.30878 -0.0725602 -1.4938
-5.31091 -0.0892138 -1.49447
-5.31317 -0.105886 -1.49519
-5.3154 -0.122577 -1.49592
-5.3176 -0.13928 -1.49665
-5.31978 -0.155997 -1.4974
-5.32192 -0.172731 -1.49814
-5.32403 -0.189481 -1.4989
-5.32612 -0.206248 -1.49966
-5.32817 -0.223029 -1.50043
-5.3302 -0.239828 -1.5012
-5.3322 -0.256641 -1.50198
-5.33416 -0.273471 -1.50277
-5.3361 -0.290316 -1.50357
-5.50276 0.844071 -1.61639
-5.4819 0.823321 -1.6095
-5.46133 0.80276 -1.60272
-5.44089 0.782368 -1.59599
-5.42059 0.76214 -1.58933
-5.40042 0.742079 -1.58273
-5.38038 0.722176 -1.57618
-5.36045 0.702429 -1.5697
-5.34042 0.682807 -1.56319
-5.32051 0.663346 -1.55675
-5.30074 0.644042 -1.55037
-5.29352 0.626359 -1.54768
-5.29068 0.609239 -1.54628
-5.2878 0.592145 -1.54489
-5.28491 0.575079 -1.54351
-5.28198 0.558042 -1.54214
-5.27903 0.541029 -1.54078
-5.27605 0.524043 -1.53942
-5.27305 0.507084 -1.53807
-5.27002 0.490151 -1.53673
-5.26696 0.473248 -1.5354
-5.26372 0.456355 -1.53404
-5.2603 0.439472 -1.53263
-5.25684 0.42262 -1.53123
-5.25337 0.405798 -1.52984
-5.24987 0.389005 -1.52846
-5.24634 0.372238 -1.52709
-5.24279 0.355499 -1.52572
-5.24106 0.338906 -1.5249
-5.2393 0.322331 -1.52409
-5.23752 0.305772 -1.52329
-5.23571 0.289227 -1.52249
-5.23387 0.272699 -1.5217
-5.232 0.256185 -1.52091
-5.2301 0.239686 -1.52014
-5.22817 0.223205 -1.51936
-5.22621 0.206736 -1.5186
-5.22423 0.190285 -1.51784
-5.22221 0.173844 -1.51709
-5.22016 0.157427 -1.51635
-5.21831 0.141023 -1.51567
-5.21656 0.12464 -1.51504
-5.21479 0.10827 -1.51442
-5.21298 0.0919099 -1.51381
-5.21115 0.0755676 -1.5132
-5.20928 0.0592343 -1.5126
-5.20739 0.0429123 -1.512
-5.20547 0.0266053 -1.51141
-5.20352 0.0103095 -1.51083
-5.20298 -0.00597666 -1.51067
-5.20493 -0.022269 -1.51125
-5.20686 -0.0385739 -1.51184
-5.20876 -0.05489 -1.51243
-5.21064 -0.0712188 -1.51303
-5.21248 -0.0875601 -1.51364
-5.21429 -0.103915 -1.51425
-5.21608 -0.120286 -1.51487
-5.21784 -0.136667 -1.5155
-5.2196 -0.15306 -1.51614
-5.22165 -0.169477 -1.51689
-5.22368 -0.185909 -1.51764
-5.22567 -0.202359 -1.51839
-5.22764 -0.218821 -1.51916
-5.22958 -0.2353 -1.51993
-5.23148 -0.251793 -1.5207
-5.23336 -0.268304 -1.52148
-5.23521 -0.284827 -1.52227
-5.43029 0.850357 -1.64553
-5.38675 0.826278 -1.63155
-5.36696 0.806057 -1.62478
-5.34729 0.785997 -1.61807
-5.32774 0.766097 -1.61143
-5.30832 0.746355 -1.60484
-5.28886 0.72675 -1.59826
-5.26944 0.707286 -1.59171
-5.25014 0.687974 -1.58523
-5.23096 0.668812 -1.5788
-5.21191 0.649805 -1.57242
-5.19684 0.631417 -1.56727
-5.19417 0.614603 -1.56588
-5.19146 0.597814 -1.56449
-5.18873 0.581051 -1.56311
-5.18597 0.564314 -1.56174
-5.18319 0.547605 -1.56038
-5.18038 0.530919 -1.55903
-5.1774 0.514245 -1.55764
-5.17423 0.497582 -1.55621
-5.17104 0.480946 -1.55479
-5.16782 0.46434 -1.55338
-5.16457 0.447758 -1.55197
-5.1613 0.431202 -1.55057
-5.158 0.414673 -1.54919
-5.15468 0.398174 -1.54781
-5.15133 0.381704 -1.54643
-5.14795 0.365257 -1.54507
-5.14482 0.348857 -1.54379
-5.14318 0.332577 -1.54298
-5.14151 0.316314 -1.54218
-5.13981 0.300067 -1.54138
-5.13808 0.283835 -1.54059
-5.13633 0.267616 -1.5398
-5.13454 0.251413 -1.53902
-5.13273 0.235224 -1.53825
-5.13093 0.219054 -1.5375
-5.12939 0.202906 -1.53684
-5.12783 0.186774 -1.53619
-5.12624 0.170649 -1.53555
-5.12462 0.154545 -1.53491
-5.12298 0.138447 -1.53428
-5.1213 0.122364 -1.53365
-5.11959 0.106293 -1.53304
-5.11786 0.0902328 -1.53242
-5.1161 0.0741893 -1.53182
-5.1143 0.0581543 -1.53122
-5.11248 0.0421301 -1.53063
-5.11063 0.0261206 -1.53004
-5.10875 0.0101218 -1.52946
-5.10823 -0.00586783 -1.5293
-5.11012 -0.0218634 -1.52988
-5.11197 -0.0378709 -1.53047
-5.1138 -0.0538893 -1.53106
-5.11561 -0.0699199 -1.53165
-5.11738 -0.0859625 -1.53226
-5.11912 -0.102019 -1.53287
-5.12083 -0.118089 -1.53348
-5.12252 -0.13417 -1.53411
-5.12417 -0.150262 -1.53474
-5.1258 -0.166366 -1.53537
-5.1274 -0.182483 -1.53601
-5.12897 -0.198614 -1.53666
-5.13051 -0.214756 -1.53732
-5.13222 -0.23092 -1.53804
-5.13405 -0.247104 -1.53881
-5.13584 -0.263303 -1.53959
-5.1376 -0.279517 -1.54037
-5.40992 0.864523 -1.68991
-5.29418 0.829042 -1.65294
-5.27513 0.809155 -1.64619
-5.25619 0.789421 -1.6395
-5.23731 0.769832 -1.63285
-5.21836 0.75037 -1.62621
-5.19954 0.731061 -1.61962
-5.18083 0.711905 -1.61309
-5.16224 0.692897 -1.60662
-5.14376 0.674034 -1.6002
-5.12539 0.655314 -1.59384
-5.10714 0.636743 -1.58754
-5.10055 0.619717 -1.58488
-5.098 0.603225 -1.5835
-5.09543 0.586756 -1.58212
-5.0927 0.570297 -1.58071
-5.08978 0.553846 -1.57926
-5.08684 0.537425 -1.57781
-5.08387 0.521028 -1.57638
-5.08087 0.504657 -1.57495
-5.07784 0.488312 -1.57353
-5.07479 0.471994 -1.57212
-5.07172 0.455705 -1.57072
-5.06862 0.439439 -1.56933
-5.06549 0.423197 -1.56794
-5.06234 0.406982 -1.56656
-5.05916 0.390796 -1.56519
-5.05595 0.374637 -1.56383
-5.05272 0.3585 -1.56248
-5.04999 0.342426 -1.56129
-5.04843 0.32645 -1.56049
-5.04684 0.31049 -1.55969
-5.04522 0.294545 -1.55889
-5.0438 0.278626 -1.55818
-5.04245 0.262725 -1.5575
-5.04107 0.246836 -1.55683
-5.03966 0.230959 -1.55616
-5.03823 0.215096 -1.5555
-5.03676 0.199242 -1.55485
-5.03527 0.183402 -1.5542
-5.03375 0.16757 -1.55356
-5.03219 0.151758 -1.55293
-5.03061 0.135951 -1.5523
-5.029 0.120159 -1.55168
-5.02737 0.104379 -1.55107
-5.0257 0.0886079 -1.55046
-5.024 0.0728538 -1.54986
-5.02228 0.0571078 -1.54927
-5.02052 0.0413723 -1.54868
-5.01874 0.0256509 -1.5481
-5.01693 0.00993984 -1.54752
-5.01642 -0.00576237 -1.54736
-5.01824 -0.0214703 -1.54794
-5.02003 -0.0371898 -1.54852
-5.02179 -0.0529197 -1.5491
-5.02353 -0.0686614 -1.5497
-5.02523 -0.0844147 -1.5503
-5.02691 -0.100181 -1.5509
-5.02855 -0.115961 -1.55152
-5.03017 -0.131751 -1.55213
-5.03176 -0.147552 -1.55276
-5.03332 -0.163364 -1.55339
-5.03485 -0.179189 -1.55403
-5.03635 -0.195028 -1.55467
-5.03783 -0.210876 -1.55532
-5.03927 -0.226738 -1.55598
-5.04069 -0.24261 -1.55665
-5.04207 -0.258496 -1.55732
-5.04343 -0.274393 -1.55799
-5.3887 0.878437 -1.73396
-5.23655 0.836818 -1.68415
-5.18572 0.812058 -1.66698
-5.16728 0.792612 -1.66024
-5.14892 0.77331 -1.65356
-5.13068 0.754158 -1.64693
-5.11255 0.735154 -1.64037
-5.09452 0.716295 -1.63386
-5.07661 0.697583 -1.6274
-5.0588 0.679013 -1.621
-5.04109 0.66058 -1.61466
-5.02528 0.642515 -1.60894
-5.01283 0.624986 -1.60432
-5.01031 0.608753 -1.6029
-5.00777 0.592548 -1.60149
-5.00522 0.576368 -1.60009
-5.00266 0.560214 -1.5987
-5.00009 0.544086 -1.59732
-4.9975 0.527986 -1.59596
-4.9949 0.51191 -1.59461
-4.99229 0.495858 -1.59327
-4.98966 0.479832 -1.59195
-4.98702 0.463831 -1.59064
-4.98437 0.447857 -1.58934
-4.98171 0.431905 -1.58805
-4.97904 0.415974 -1.58677
-4.97635 0.40007 -1.58551
-4.97365 0.384191 -1.58426
-4.97094 0.368337 -1.58302
-4.96767 0.352466 -1.58162
-4.96549 0.336697 -1.58058
-4.96479 0.321041 -1.58003
-4.96393 0.30539 -1.57945
-4.96306 0.289748 -1.57887
-4.96217 0.274116 -1.57831
-4.96126 0.258495 -1.57776
-4.96033 0.242882 -1.57721
-4.95939 0.22728 -1.57668
-4.95843 0.211689 -1.57615
-4.95745 0.196105 -1.57564
-4.95646 0.180532 -1.57514
-4.95545 0.164963 -1.57464
-4.95442 0.149412 -1.57416
-4.95337 0.133863 -1.57369
-4.95231 0.118326 -1.57323
-4.95123 0.102798 -1.57277
-4.95014 0.0872757 -1.57233
-4.94902 0.0717665 -1.5719
-4.94789 0.056262 -1.57148
-4.94674 0.0407644 -1.57106
-4.94558 0.025277 -1.57066
-4.9444 0.00979614 -1.57027
-4.94407 -0.00567925 -1.57016
-4.94525 -0.021158 -1.57055
-4.94642 -0.0366445 -1.57095
-4.94758 -0.0521376 -1.57136
-4.94871 -0.0676388 -1.57178
-4.94983 -0.0831481 -1.57221
-4.95093 -0.0986669 -1.57265
-4.95202 -0.114196 -1.5731
-4.95309 -0.129732 -1.57356
-4.95414 -0.145276 -1.57403
-4.95517 -0.160828 -1.57451
-4.95619 -0.176389 -1.575
-4.95719 -0.191962 -1.57551
-4.95817 -0.207542 -1.57602
-4.95913 -0.223132 -1.57654
-4.96008 -0.238731 -1.57707
-4.96101 -0.254341 -1.57761
-4.96193 -0.269959 -1.57816
-5.37061 0.892751 -1.77897
-5.2157 0.850235 -1.72677
-5.13751 0.820992 -1.70003
-5.11477 0.800947 -1.69166
-5.09432 0.781421 -1.68408
-5.07837 0.762714 -1.67801
-5.06251 0.744138 -1.67199
-5.04675 0.725693 -1.66603
-5.03108 0.707375 -1.66012
-5.0155 0.689187 -1.65426
-5.00001 0.671122 -1.64845
-4.98461 0.653179 -1.64269
-4.96929 0.635356 -1.63698
-4.96302 0.618775 -1.63426
-4.96057 0.60271 -1.63283
-4.9581 0.586671 -1.6314
-4.95562 0.570656 -1.62999
-4.95312 0.554667 -1.62859
-4.95062 0.538703 -1.6272
-4.9481 0.522767 -1.62583
-4.94556 0.506854 -1.62447
-4.94302 0.490965 -1.62312
-4.94046 0.475101 -1.62178
-4.93789 0.459261 -1.62046
-4.93531 0.443448 -1.61915
-4.93248 0.427637 -1.61778
-4.92826 0.411732 -1.61596
-4.92403 0.395863 -1.61416
-4.91979 0.38003 -1.61237
-4.91554 0.364232 -1.6106
-4.91139 0.348473 -1.60887
-4.91126 0.333019 -1.60848
-4.91111 0.31757 -1.6081
-4.91094 0.30213 -1.60772
-4.91075 0.286695 -1.60736
-4.91023 0.271247 -1.6069
-4.90935 0.25579 -1.60635
-4.90845 0.240342 -1.6058
-4.90753 0.224903 -1.60526
-4.9066 0.209477 -1.60473
-4.90565 0.194056 -1.60422
-4.90468 0.178646 -1.60371
-4.9037 0.163241 -1.60321
-4.9027 0.147853 -1.60273
-4.90168 0.132466 -1.60225
-4.90064 0.117092 -1.60178
-4.89959 0.101726 -1.60133
-4.89852 0.0863657 -1.60088
-4.89743 0.0710184 -1.60044
-4.89633 0.0556757 -1.60002
-4.8952 0.0403396 -1.5996
-4.89406 0.0250137 -1.5992
-4.89291 0.00969413 -1.5988
-4.89258 -0.00562012 -1.59869
-4.89375 -0.0209376 -1.59909
-4.89489 -0.0362627 -1.59949
-4.89602 -0.0515943 -1.5999
-4.89713 -0.0669337 -1.60033
-4.89822 -0.0822811 -1.60076
-4.8993 -0.0976378 -1.6012
-4.90036 -0.113005 -1.60166
-4.9014 -0.128378 -1.60212
-4.90242 -0.143759 -1.6026
-4.90343 -0.159149 -1.60308
-4.90442 -0.174547 -1.60357
-4.90539 -0.189956 -1.60408
-4.90635 -0.205373 -1.60459
-4.90728 -0.220799 -1.60512
-4.90821 -0.236234 -1.60565
-4.90911 -0.25168 -1.6062
-4.91 -0.267134 -1.60675
-5.23961 0.870974 -1.78457
-5.16078 0.841282 -1.75682
-5.09509 0.814213 -1.73358
-5.07274 0.794366 -1.72512
-5.05059 0.774713 -1.71676
-5.02864 0.755246 -1.70848
-5.00689 0.735962 -1.7003
-4.98986 0.717512 -1.69375
-4.97457 0.699429 -1.6878
-4.95936 0.681472 -1.68191
-4.94424 0.663636 -1.67607
-4.9292 0.645918 -1.67028
-4.91631 0.628581 -1.66524
-4.91393 0.612655 -1.66377
-4.91154 0.596753 -1.66233
-4.90914 0.580877 -1.66089
-4.90672 0.565026 -1.65947
-4.9043 0.549199 -1.65806
-4.90186 0.533397 -1.65666
-4.8994 0.517622 -1.65527
-4.89691 0.501867 -1.65389
-4.89285 0.485982 -1.652
-4.88878 0.470131 -1.65012
-4.8847 0.454314 -1.64825
-4.88061 0.438533 -1.6464
-4.87651 0.422784 -1.64457
-4.8724 0.407065 -1.64274
-4.86828 0.391381 -1.64093
-4.86414 0.375732 -1.63913
-4.86 0.360117 -1.63735
-4.85803 0.344687 -1.63632
-4.85792 0.329402 -1.63592
-4.85778 0.314122 -1.63554
-4.85762 0.298849 -1.63516
-4.85745 0.283583 -1.63479
-4.85726 0.26832 -1.63444
-4.85705 0.253065 -1.63409
-4.85681 0.237813 -1.63376
-4.85648 0.222564 -1.6334
-4.85557 0.207298 -1.63287
-4.85465 0.192038 -1.63235
-4.85371 0.176789 -1.63184
-4.85275 0.161545 -1.63134
-4.85177 0.146317 -1.63085
-4.85078 0.131091 -1.63037
-4.84977 0.115876 -1.6299
-4.84874 0.10067 -1.62944
-4.8477 0.0854696 -1.62899
-4.84663 0.0702818 -1.62855
-4.84555 0.0550983 -1.62812
-4.84445 0.0399214 -1.6277
-4.84334 0.0247544 -1.6273
-4.84221 0.00959368 -1.6269
-4.84189 -0.00556188 -1.62679
-4.84303 -0.0207206 -1.62718
-4.84415 -0.0358868 -1.62759
-4.84525 -0.0510593 -1.62801
-4.84634 -0.0662395 -1.62843
-4.8474 -0.0814275 -1.62887
-4.84845 -0.0966246 -1.62932
-4.84949 -0.111832 -1.62977
-4.85051 -0.127045 -1.63024
-4.8515 -0.142266 -1.63072
-4.85248 -0.157495 -1.63121
-4.85345 -0.172733 -1.6317
-4.8544 -0.187982 -1.63221
-4.85532 -0.203237 -1.63273
-4.85624 -0.218502 -1.63326
-4.85676 -0.233757 -1.63367
-4.85699 -0.249008 -1.63401
-4.85721 -0.264262 -1.63435
-5.2652 0.892171 -1.84376
-5.18556 0.86199 -1.81492
-5.07529 0.827347 -1.77541
-5.05313 0.807507 -1.76677
-5.03116 0.787855 -1.75822
-5.0094 0.768395 -1.74976
-4.98782 0.749115 -1.7414
-4.96644 0.730017 -1.73313
-4.94524 0.711097 -1.72494
-4.92423 0.692352 -1.71685
-4.90416 0.673887 -1.70911
-4.88939 0.656274 -1.70324
-4.87471 0.638777 -1.69742
-4.86784 0.622385 -1.69434
-4.86553 0.60662 -1.69287
-4.86321 0.590881 -1.69141
-4.86087 0.575166 -1.68996
-4.85703 0.559304 -1.68801
-4.85313 0.543469 -1.68605
-4.84921 0.527669 -1.68411
-4.84529 0.511905 -1.68218
-4.84135 0.496173 -1.68027
-4.8374 0.480474 -1.67837
-4.83344 0.464809 -1.67648
-4.82947 0.449177 -1.67461
-4.82548 0.43358 -1.67275
-4.82149 0.418014 -1.6709
-4.81748 0.402478 -1.66907
-4.81347 0.386975 -1.66725
-4.80944 0.371507 -1.66544
-4.80562 0.356087 -1.66372
-4.80553 0.340962 -1.66332
-4.80543 0.325844 -1.66292
-4.80531 0.310728 -1.66253
-4.80516 0.295622 -1.66216
-4.805 0.280521 -1.66179
-4.80482 0.265424 -1.66143
-4.80463 0.250334 -1.66108
-4.80441 0.235247 -1.66075
-4.80417 0.220166 -1.66042
-4.80392 0.205093 -1.6601
-4.80364 0.190021 -1.65979
-4.80335 0.174955 -1.65949
-4.80257 0.159874 -1.65904
-4.80162 0.144804 -1.65855
-4.80065 0.129736 -1.65806
-4.79966 0.114679 -1.65759
-4.79866 0.0996302 -1.65713
-4.79764 0.0845871 -1.65668
-4.7966 0.0695563 -1.65624
-4.79555 0.0545297 -1.6558
-4.79447 0.0395095 -1.65538
-4.79338 0.0244991 -1.65497
-4.79227 0.00949474 -1.65457
-4.79196 -0.00550453 -1.65446
-4.79307 -0.0205069 -1.65486
-4.79417 -0.0355165 -1.65527
-4.79525 -0.0505324 -1.65569
-4.79631 -0.0655558 -1.65612
-4.79735 -0.0805868 -1.65656
-4.79838 -0.0956267 -1.65701
-4.79939 -0.110677 -1.65747
-4.80038 -0.125733 -1.65794
-4.80136 -0.140795 -1.65842
-4.80231 -0.155867 -1.65891
-4.80325 -0.170946 -1.65941
-4.80357 -0.186013 -1.65971
-4.80385 -0.201082 -1.66002
-4.80411 -0.216157 -1.66033
-4.80435 -0.231236 -1.66066
-4.80457 -0.24632 -1.66099
-4.80478 -0.261409 -1.66134
-5.21028 0.882866 -1.87383
-5.11564 0.850367 -1.83882
-5.0334 0.820518 -1.80833
-5.01162 0.800873 -1.7996
-4.99003 0.781414 -1.79096
-4.96864 0.762143 -1.78242
-4.94743 0.743049 -1.77397
-4.92641 0.724133 -1.76561
-4.90557 0.705392 -1.75734
-4.88491 0.686824 -1.74916
-4.86443 0.668428 -1.74107
-4.84413 0.650199 -1.73306
-4.82684 0.632505 -1.72616
-4.81858 0.616086 -1.72251
-4.81331 0.600109 -1.71995
-4.80955 0.584361 -1.71794
-4.80577 0.568646 -1.71595
-4.80198 0.552964 -1.71397
-4.79819 0.537317 -1.71201
-4.79438 0.521702 -1.71005
-4.79056 0.506123 -1.70812
-4.78673 0.490575 -1.7062
-4.78288 0.475059 -1.70429
-4.77903 0.459576 -1.70239
-4.77516 0.444126 -1.70051
-4.77128 0.42871 -1.69865
-4.76739 0.413324 -1.69679
-4.76349 0.397967 -1.69495
-4.75958 0.382642 -1.69313
-4.75565 0.367352 -1.69131
-4.75393 0.352257 -1.6903
-4.75386 0.337296 -1.68989
-4.75377 0.32234 -1.68949
-4.75366 0.307389 -1.6891
-4.75353 0.292446 -1.68872
-4.75339 0.277507 -1.68835
-4.75322 0.262573 -1.688
-4.75303 0.247646 -1.68765
-4.75283 0.232722 -1.68731
-4.7526 0.217803 -1.68698
-4.75236 0.202892 -1.68666
-4.7521 0.187982 -1.68635
-4.75182 0.173078 -1.68605
-4.75152 0.158175 -1.68576
-4.75121 0.143284 -1.68548
-4.75087 0.12839 -1.68521
-4.7503 0.1135 -1.68487
-4.74932 0.0986059 -1.68441
-4.74833 0.0837177 -1.68395
-4.74731 0.0688415 -1.68351
-4.74628 0.0539695 -1.68307
-4.74523 0.0391038 -1.68265
-4.74416 0.0242475 -1.68224
-4.74308 0.00939727 -1.68183
-4.74277 -0.00544803 -1.68172
-4.74386 -0.0202964 -1.68212
-4.74494 -0.0351518 -1.68253
-4.74599 -0.0500133 -1.68296
-4.74703 -0.0648822 -1.68339
-4.74805 -0.0797585 -1.68383
-4.74905 -0.0946436 -1.68428
-4.75004 -0.109539 -1.68474
-4.75078 -0.124433 -1.68514
-4.75112 -0.139322 -1.6854
-4.75144 -0.154216 -1.68568
-4.75175 -0.169113 -1.68597
-4.75203 -0.184018 -1.68627
-4.7523 -0.198924 -1.68658
-4.75255 -0.213837 -1.68689
-4.75278 -0.228753 -1.68722
-4.75299 -0.243676 -1.68756
-4.75318 -0.258602 -1.6879
-5.24253 0.905215 -1.93636
-5.15619 0.8737 -1.90345
-5.02207 0.834813 -1.85297
-4.99195 0.813761 -1.8409
-4.97055 0.79431 -1.83209
-4.94933 0.775041 -1.82336
-4.92831 0.755956 -1.81474
-4.90746 0.737046 -1.8062
-4.88679 0.71831 -1.79776
-4.86658 0.699786 -1.78951
-4.84733 0.68154 -1.78164
-4.82823 0.663454 -1.77384
-4.81127 0.645788 -1.76686
-4.80307 0.62939 -1.76312
-4.79489 0.613058 -1.7594
-4.78674 0.596797 -1.75572
-4.77862 0.580603 -1.75207
-4.77052 0.564475 -1.74844
-4.76245 0.548411 -1.74484
-4.7544 0.532413 -1.74127
-4.74637 0.516478 -1.73773
-4.73837 0.500609 -1.73422
-4.73301 0.48507 -1.7317
-4.72927 0.469734 -1.72978
-4.72551 0.45443 -1.72788
-4.72175 0.439158 -1.72599
-4.71797 0.42392 -1.72412
-4.71418 0.408711 -1.72226
-4.71038 0.39353 -1.72041
-4.70657 0.378381 -1.71858
-4.70309 0.363291 -1.71688
-4.70305 0.348487 -1.71646
-4.70299 0.333686 -1.71605
-4.70292 0.318892 -1.71565
-4.70282 0.304102 -1.71526
-4.7027 0.289318 -1.71488
-4.70257 0.274541 -1.71451
-4.70241 0.259767 -1.71415
-4.70224 0.244999 -1.7138
-4.70205 0.230235 -1.71346
-4.70184 0.215476 -1.71312
-4.70161 0.200725 -1.7128
-4.70136 0.185974 -1.71249
-4.70109 0.17123 -1.71219
-4.7008 0.156486 -1.7119
-4.7005 0.141755 -1.71162
-4.70017 0.12702 -1.71135
-4.69983 0.112293 -1.71109
-4.69947 0.0975704 -1.71083
-4.69908 0.0828493 -1.71059
-4.69868 0.068136 -1.71036
-4.69774 0.0534175 -1.70995
-4.69671 0.0387039 -1.70952
-4.69566 0.0239996 -1.7091
-4.6946 0.00930123 -1.7087
-4.6943 -0.00539235 -1.70859
-4.69537 -0.0200889 -1.70899
-4.69642 -0.0347924 -1.7094
-4.69745 -0.0495018 -1.70983
-4.69847 -0.0642184 -1.71026
-4.69898 -0.0789342 -1.71053
-4.69936 -0.0936534 -1.71077
-4.69973 -0.108379 -1.71102
-4.70008 -0.123106 -1.71128
-4.70041 -0.137835 -1.71155
-4.70072 -0.152569 -1.71182
-4.70102 -0.167308 -1.71211
-4.70129 -0.182053 -1.71241
-4.70155 -0.1968 -1.71272
-4.70178 -0.211553 -1.71304
-4.702 -0.226309 -1.71337
-4.7022 -0.241072 -1.71371
-4.70238 -0.255838 -1.71406
-5.17995 0.89441 -1.96287
-5.06645 0.858494 -1.91884
-4.97215 0.826514 -1.88213
-4.95093 0.807074 -1.87313
-4.9299 0.787814 -1.86424
-4.90905 0.768732 -1.85543
-4.88931 0.749975 -1.84708
-4.86988 0.731401 -1.83886
-4.85061 0.71299 -1.83073
-4.83149 0.69474 -1.82269
-4.81253 0.676646 -1.81473
-4.79563 0.658974 -1.80757
-4.78749 0.642597 -1.80374
-4.77938 0.626286 -1.79993
-4.7713 0.610041 -1.79616
-4.76324 0.593867 -1.79242
-4.7552 0.577758 -1.7887
-4.74719 0.561715 -1.78502
-4.73921 0.545735 -1.78137
-4.73124 0.52982 -1.77774
-4.7233 0.513968 -1.77414
-4.71538 0.498181 -1.77058
-4.70749 0.482454 -1.76704
-4.69962 0.466789 -1.76352
-4.69177 0.451185 -1.76004
-4.68394 0.435642 -1.75658
-4.67614 0.420161 -1.75315
-4.66835 0.404737 -1.74975
-4.66059 0.38937 -1.74638
-4.65442 0.374188 -1.74362
-4.65298 0.35942 -1.74265
-4.65295 0.344774 -1.74223
-4.6529 0.330132 -1.74181
-4.65284 0.315497 -1.74141
-4.65276 0.300864 -1.74102
-4.65265 0.286239 -1.74064
-4.65253 0.271619 -1.74026
-4.65239 0.257003 -1.7399
-4.65223 0.242393 -1.73955
-4.65204 0.227787 -1.73921
-4.65184 0.213185 -1.73887
-4.65163 0.198591 -1.73855
-4.65139 0.183997 -1.73824
-4.65113 0.169411 -1.73794
-4.65086 0.154823 -1.73764
-4.65056 0.140248 -1.73736
-4.65025 0.125671 -1.73709
-4.64992 0.111101 -1.73683
-4.64956 0.0965344 -1.73657
-4.64919 0.0819698 -1.73633
-4.6488 0.0674128 -1.7361
-4.6484 0.0528563 -1.73587
-4.64797 0.0383023 -1.73566
-4.64752 0.0237532 -1.73546
-4.64682 0.00920656 -1.73518
-4.64652 -0.00533747 -1.73506
-4.64739 -0.0198836 -1.7354
-4.64785 -0.0344325 -1.7356
-4.64828 -0.0489836 -1.73582
-4.64869 -0.0635381 -1.73604
-4.64909 -0.0780961 -1.73627
-4.64946 -0.0926589 -1.73651
-4.64982 -0.107228 -1.73676
-4.65016 -0.121798 -1.73702
-4.65048 -0.136371 -1.73729
-4.65078 -0.150948 -1.73757
-4.65106 -0.16553 -1.73786
-4.65132 -0.180118 -1.73816
-4.65157 -0.194708 -1.73847
-4.65179 -0.209303 -1.73879
-4.652 -0.223903 -1.73912
-4.65218 -0.238508 -1.73946
-4.65235 -0.253116 -1.73981
-5.11103 0.882508 -1.98603
-4.9735 0.842744 -1.93155
-4.93174 0.819798 -1.91433
-4.91197 0.800723 -1.90567
-4.89236 0.781815 -1.89711
-4.87291 0.763073 -1.88863
-4.85362 0.7445 -1.88024
-4.83449 0.726086 -1.87194
-4.81551 0.707832 -1.86372
-4.79668 0.689735 -1.85559
-4.77992 0.672062 -1.84829
-4.77185 0.655707 -1.84436
-4.76381 0.639418 -1.84047
-4.75579 0.623194 -1.83661
-4.74779 0.607036 -1.83278
-4.73982 0.590947 -1.82898
-4.73187 0.574923 -1.82521
-4.72395 0.558965 -1.82147
-4.71605 0.543068 -1.81776
-4.70817 0.527236 -1.81408
-4.70031 0.511466 -1.81042
-4.69248 0.495761 -1.8068
-4.68477 0.480126 -1.80324
-4.67843 0.464684 -1.80023
-4.6721 0.449294 -1.79725
-4.6658 0.433954 -1.79429
-4.6595 0.418667 -1.79136
-4.65323 0.403426 -1.78846
-4.64697 0.388232 -1.78557
-4.64073 0.373087 -1.78272
-4.63892 0.358334 -1.78158
-4.6384 0.343697 -1.78096
-4.63788 0.329066 -1.78036
-4.63736 0.314447 -1.77977
-4.63683 0.299834 -1.7792
-4.6363 0.285233 -1.77864
-4.63576 0.270641 -1.77811
-4.63523 0.256055 -1.77758
-4.63469 0.241479 -1.77708
-4.63414 0.226911 -1.77659
-4.63359 0.212349 -1.77612
-4.63304 0.197798 -1.77566
-4.63249 0.18325 -1.77522
-4.63193 0.168711 -1.77479
-4.63137 0.154175 -1.77438
-4.6308 0.139653 -1.77399
-4.63023 0.12513 -1.77361
-4.62966 0.110617 -1.77325
-4.62908 0.0961095 -1.77291
-4.6285 0.081605 -1.77258
-4.62792 0.0671102 -1.77227
-4.6273 0.0526166 -1.77196
-4.62665 0.0381266 -1.77165
-4.626 0.0236436 -1.77137
-4.62534 0.00916401 -1.7711
-4.62516 -0.00531293 -1.77102
-4.62582 -0.0197913 -1.77129
-4.62647 -0.0342742 -1.77157
-4.62712 -0.0487607 -1.77187
-4.62776 -0.0632517 -1.77218
-4.62834 -0.0777471 -1.77249
-4.62893 -0.0922496 -1.77282
-4.62951 -0.106759 -1.77316
-4.63008 -0.121272 -1.77352
-4.63065 -0.135789 -1.77389
-4.63122 -0.150313 -1.77428
-4.63178 -0.164844 -1.77468
-4.63234 -0.179383 -1.7751
-4.6329 -0.193926 -1.77554
-4.63346 -0.208478 -1.77599
-4.63401 -0.223036 -1.77646
-4.63455 -0.237604 -1.77695
-4.6351 -0.252177 -1.77745
-5.06566 0.874674 -2.01754
-4.95925 0.840329 -1.97411
-4.91901 0.817681 -1.95706
-4.89228 0.797514 -1.94542
-4.86587 0.777581 -1.93394
-4.83977 0.757883 -1.92262
-4.81823 0.739071 -1.91313
-4.79939 0.720814 -1.90475
-4.7807 0.702716 -1.89645
-4.76414 0.685055 -1.88902
-4.75614 0.668718 -1.88501
-4.74816 0.652451 -1.88103
-4.74021 0.63625 -1.87708
-4.73227 0.620113 -1.87316
-4.72516 0.604142 -1.86958
-4.71871 0.588315 -1.8663
-4.71228 0.572543 -1.86303
-4.70587 0.556825 -1.8598
-4.69947 0.54116 -1.85659
-4.69309 0.525548 -1.85342
-4.68673 0.509988 -1.85026
-4.68039 0.494484 -1.84714
-4.67406 0.479028 -1.84404
-4.66776 0.463624 -1.84097
-4.66146 0.448271 -1.83793
-4.65519 0.432968 -1.83491
-4.64893 0.417716 -1.83192
-4.64268 0.402512 -1.82895
-4.63646 0.387353 -1.82601
-4.63024 0.372245 -1.8231
-4.62912 0.357578 -1.82221
-4.62861 0.342971 -1.82157
-4.62809 0.328372 -1.82096
-4.62757 0.313783 -1.82036
-4.62705 0.299202 -1.81978
-4.62652 0.284632 -1.81921
-4.62599 0.27007 -1.81866
-4.62546 0.255517 -1.81813
-4.62492 0.240971 -1.81761
-4.62438 0.226433 -1.81711
-4.62384 0.211902 -1.81663
-4.62329 0.197381 -1.81616
-4.62274 0.182864 -1.81571
-4.62218 0.168356 -1.81528
-4.62163 0.153851 -1.81486
-4.62103 0.139358 -1.81445
-4.62041 0.124865 -1.81404
-4.61978 0.110381 -1.81365
-4.61915 0.0959032 -1.81327
-4.61852 0.081429 -1.81292
-4.61788 0.0669646 -1.81257
-4.61724 0.0525022 -1.81225
-4.61659 0.0380437 -1.81194
-4.61594 0.0235922 -1.81165
-4.61529 0.00914409 -1.81137
-4.6151 -0.00530137 -1.8113
-4.61576 -0.0197483 -1.81157
-4.61641 -0.0341997 -1.81186
-4.61706 -0.0486546 -1.81216
-4.6177 -0.0631146 -1.81248
-4.61834 -0.0775797 -1.81282
-4.61898 -0.0920514 -1.81318
-4.61961 -0.106531 -1.81355
-4.62024 -0.121014 -1.81393
-4.62087 -0.135503 -1.81434
-4.62148 -0.149997 -1.81475
-4.62204 -0.164497 -1.81517
-4.6226 -0.179006 -1.8156
-4.62315 -0.193518 -1.81604
-4.6237 -0.20804 -1.8165
-4.62425 -0.222567 -1.81698
-4.62479 -0.237103 -1.81748
-4.62533 -0.251646 -1.81799
-5.0639 0.874371 -2.06629
-4.95757 0.840043 -2.02182
-4.91541 0.817083 -2.00358
-4.88872 0.796932 -1.99167
-4.86235 0.77702 -1.97993
-4.83629 0.757338 -1.96834
-4.81053 0.73789 -1.95691
-4.78506 0.718663 -1.94562
-4.76035 0.699723 -1.93467
-4.74944 0.682941 -1.92936
-4.74205 0.666738 -1.92551
-4.73469 0.650601 -1.92168
-4.72736 0.634526 -1.91789
-4.7206 0.618583 -1.91435
-4.71416 0.602736 -1.91097
-4.70775 0.586949 -1.90761
-4.70135 0.571215 -1.90429
-4.69497 0.555536 -1.90099
-4.68861 0.539909 -1.89772
-4.68227 0.524336 -1.89448
-4.67594 0.508814 -1.89127
-4.66963 0.493347 -1.88808
-4.66334 0.477929 -1.88492
-4.65706 0.462562 -1.88179
-4.6508 0.447246 -1.87869
-4.64456 0.431979 -1.87561
-4.63833 0.416764 -1.87256
-4.63212 0.401596 -1.86953
-4.62592 0.386473 -1.86653
-4.6198 0.371405 -1.86359
-4.6193 0.356819 -1.86292
-4.61879 0.342244 -1.86228
-4.61828 0.327676 -1.86165
-4.61777 0.313119 -1.86104
-4.61725 0.298568 -1.86044
-4.61673 0.284029 -1.85987
-4.6162 0.269498 -1.85931
-4.61567 0.254975 -1.85876
-4.61514 0.240461 -1.85824
-4.61456 0.225952 -1.85771
-4.61397 0.21145 -1.85719
-4.61337 0.196958 -1.8567
-4.61276 0.18247 -1.85621
-4.61215 0.167991 -1.85575
-4.61154 0.153515 -1.8553
-4.61093 0.139054 -1.85487
-4.61031 0.124592 -1.85445
-4.60968 0.11014 -1.85405
-4.60905 0.0956936 -1.85367
-4.60842 0.081251 -1.85331
-4.60779 0.0668183 -1.85296
-4.60715 0.0523875 -1.85263
-4.60651 0.0379606 -1.85231
-4.60586 0.0235407 -1.85201
-4.60521 0.00912412 -1.85173
-4.60503 -0.0052898 -1.85165
-4.60568 -0.0197052 -1.85193
-4.60633 -0.034125 -1.85223
-4.60697 -0.0485484 -1.85254
-4.60761 -0.0629767 -1.85287
-4.60825 -0.0774102 -1.85321
-4.60888 -0.0918502 -1.85357
-4.60951 -0.106298 -1.85395
-4.61014 -0.12075 -1.85434
-4.61076 -0.135206 -1.85476
-4.61138 -0.14967 -1.85518
-4.61199 -0.164139 -1.85563
-4.6126 -0.178618 -1.85609
-4.61321 -0.193102 -1.85657
-4.61381 -0.207595 -1.85706
-4.61441 -0.222094 -1.85757
-4.61501 -0.236601 -1.8581
-4.61554 -0.251113 -1.85863
-5.06212 0.874064 -2.11533
-4.95587 0.839756 -2.06983
-4.91179 0.816481 -2.05034
-4.88515 0.796349 -2.03817
-4.85882 0.776455 -2.02616
-4.83279 0.756791 -2.0143
-4.80707 0.737359 -2.00261
-4.78238 0.71826 -1.99138
-4.75904 0.699532 -1.98074
-4.74735 0.682641 -1.97498
-4.73997 0.666445 -1.97103
-4.73262 0.650316 -1.96712
-4.72529 0.634249 -1.96324
-4.718 0.618242 -1.95939
-4.71073 0.602297 -1.95558
-4.70349 0.586417 -1.9518
-4.69627 0.570598 -1.94806
-4.68908 0.554839 -1.94435
-4.68192 0.539139 -1.94067
-4.67479 0.523498 -1.93702
-4.66768 0.507915 -1.93341
-4.66059 0.492392 -1.92983
-4.65353 0.476925 -1.92628
-4.6465 0.461513 -1.92276
-4.64012 0.446218 -1.91953
-4.63391 0.430988 -1.91639
-4.62771 0.41581 -1.91328
-4.62153 0.400678 -1.9102
-4.61536 0.385591 -1.90714
-4.60996 0.370614 -1.90442
-4.60946 0.356059 -1.90374
-4.60895 0.341515 -1.90308
-4.60845 0.326978 -1.90244
-4.60788 0.312448 -1.9018
-4.60731 0.297926 -1.90117
-4.60674 0.283414 -1.90056
-4.60616 0.268912 -1.89996
-4.60558 0.254418 -1.89938
-4.605 0.239933 -1.89882
-4.60441 0.225455 -1.89828
-4.60382 0.210985 -1.89776
-4.60322 0.196524 -1.89725
-4.60262 0.182068 -1.89675
-4.60201 0.167622 -1.89628
-4.60141 0.153178 -1.89582
-4.60079 0.138748 -1.89538
-4.60018 0.124318 -1.89496
-4.59956 0.109898 -1.89455
-4.59893 0.0954835 -1.89416
-4.59831 0.0810726 -1.89379
-4.59767 0.0666716 -1.89344
-4.59704 0.0522725 -1.8931
-4.5964 0.0378773 -1.89278
-4.59576 0.023489 -1.89247
-4.59511 0.00910411 -1.89218
-4.59493 -0.0052782 -1.89211
-4.59558 -0.0196619 -1.89239
-4.59622 -0.0340501 -1.89269
-4.59686 -0.0484418 -1.89301
-4.5975 -0.0628385 -1.89334
-4.59814 -0.0772403 -1.89369
-4.59877 -0.0916486 -1.89406
-4.59939 -0.106065 -1.89445
-4.60001 -0.120485 -1.89485
-4.60063 -0.134909 -1.89527
-4.60125 -0.149341 -1.89571
-4.60186 -0.163779 -1.89616
-4.60246 -0.178226 -1.89663
-4.60307 -0.192678 -1.89712
-4.60366 -0.207138 -1.89762
-4.60426 -0.221605 -1.89814
-4.60485 -0.236081 -1.89868
-4.60544 -0.250564 -1.89924
-5.05555 0.872929 -2.16263
-4.95417 0.839468 -2.11812
-4.90815 0.815877 -2.09735
-4.88155 0.795764 -2.08491
-4.85526 0.775887 -2.07263
-4.82928 0.75624 -2.06052
-4.80464 0.736986 -2.04901
-4.78106 0.718061 -2.03799
-4.75773 0.69934 -2.0271
-4.74525 0.682339 -2.02086
-4.73788 0.666151 -2.01683
-4.73053 0.650029 -2.01282
-4.72322 0.633969 -2.00886
-4.71592 0.617968 -2.00492
-4.70866 0.602033 -2.00102
-4.70143 0.58616 -1.99716
-4.69422 0.570349 -1.99333
-4.68704 0.554597 -1.98954
-4.67989 0.538904 -1.98577
-4.67276 0.52327 -1.98204
-4.66565 0.507695 -1.97835
-4.65858 0.492179 -1.97468
-4.65153 0.476719 -1.97105
-4.6445 0.461314 -1.96745
-4.6375 0.445966 -1.96389
-4.63052 0.430673 -1.96035
-4.62357 0.415437 -1.95685
-4.61663 0.400253 -1.95337
-4.60987 0.385133 -1.94999
-4.60431 0.37016 -1.94714
-4.60345 0.355594 -1.9463
-4.60258 0.341043 -1.94547
-4.60172 0.326501 -1.94466
-4.60085 0.311972 -1.94388
-4.59999 0.297452 -1.94311
-4.59913 0.282946 -1.94236
-4.59826 0.268451 -1.94163
-4.5974 0.253966 -1.94092
-4.59654 0.239492 -1.94023
-4.59567 0.225027 -1.93956
-4.59481 0.210572 -1.93891
-4.59395 0.196129 -1.93827
-4.59308 0.181691 -1.93766
-4.59222 0.167265 -1.93707
-4.59136 0.152843 -1.93649
-4.59064 0.138442 -1.936
-4.59003 0.124044 -1.93556
-4.58941 0.109655 -1.93515
-4.58879 0.0952729 -1.93475
-4.58817 0.0808938 -1.93437
-4.58754 0.0665246 -1.93401
-4.58691 0.0521573 -1.93367
-4.58627 0.0377938 -1.93334
-4.58563 0.0234373 -1.93303
-4.58498 0.00908405 -1.93274
-4.5848 -0.00526657 -1.93266
-4.58545 -0.0196186 -1.93295
-4.58609 -0.033975 -1.93325
-4.58673 -0.048335 -1.93358
-4.58737 -0.0626999 -1.93392
-4.588 -0.0770699 -1.93427
-4.58862 -0.0914464 -1.93465
-4.58924 -0.105831 -1.93504
-4.58986 -0.120219 -1.93545
-4.59048 -0.134612 -1.93588
-4.59113 -0.149012 -1.93634
-4.59199 -0.163428 -1.93691
-4.59286 -0.177854 -1.9375
-4.59372 -0.192287 -1.93811
-4.59459 -0.20673 -1.93874
-4.59545 -0.221181 -1.93939
-4.59632 -0.235643 -1.94005
-4.59718 -0.250115 -1.94074
-5.04895 0.871789 -2.21013
-4.95245 0.839177 -2.16673
-4.9045 0.815269 -2.14462
-4.87794 0.795173 -2.13191
-4.85169 0.775316 -2.11937
-4.8271 0.7559 -2.10758
-4.80329 0.736779 -2.09617
-4.77972 0.71786 -2.08489
-4.75641 0.699145 -2.07376
-4.74313 0.682035 -2.06703
-4.73577 0.665854 -2.0629
-4.72843 0.64974 -2.05881
-4.72112 0.633689 -2.05476
-4.71384 0.617697 -2.05074
-4.70658 0.601767 -2.04675
-4.69936 0.585902 -2.0428
-4.69216 0.570098 -2.03888
-4.68498 0.554354 -2.035
-4.67784 0.538668 -2.03116
-4.67071 0.523042 -2.02734
-4.66362 0.507473 -2.02356
-4.65655 0.491965 -2.01982
-4.6495 0.476511 -2.0161
-4.64248 0.461114 -2.01243
-4.63558 0.445781 -2.00882
-4.62875 0.430509 -2.00527
-4.62195 0.415292 -2.00175
-4.61518 0.400127 -1.99826
-4.60842 0.385011 -1.9948
-4.60296 0.370051 -1.99193
-4.60209 0.35549 -1.99106
-4.60123 0.340942 -1.99022
-4.60037 0.326405 -1.98939
-4.5995 0.31188 -1.98859
-4.59864 0.297365 -1.9878
-4.59778 0.282863 -1.98704
-4.59692 0.268372 -1.98629
-4.59605 0.253892 -1.98557
-4.59519 0.239422 -1.98486
-4.59433 0.224961 -1.98417
-4.59347 0.21051 -1.98351
-4.5926 0.196071 -1.98286
-4.59174 0.181638 -1.98223
-4.59088 0.167216 -1.98162
-4.59001 0.152798 -1.98103
-4.58915 0.138397 -1.98047
-4.58829 0.123997 -1.97992
-4.58743 0.109608 -1.97939
-4.58656 0.0952267 -1.97888
-4.5857 0.0808503 -1.97838
-4.58484 0.0664855 -1.97791
-4.58397 0.0521239 -1.97746
-4.58305 0.0377673 -1.977
-4.58194 0.0234184 -1.97648
-4.58083 0.00907581 -1.97598
-4.58052 -0.00526199 -1.97584
-4.58163 -0.0196028 -1.97634
-4.58274 -0.0339504 -1.97685
-4.58373 -0.0483035 -1.97734
-4.5846 -0.0626622 -1.97779
-4.58546 -0.0770274 -1.97825
-4.58633 -0.0914007 -1.97874
-4.58719 -0.105783 -1.97925
-4.58806 -0.120171 -1.97977
-4.58892 -0.134566 -1.98032
-4.58979 -0.148969 -1.98088
-4.59065 -0.16338 -1.98147
-4.59151 -0.177802 -1.98207
-4.59238 -0.19223 -1.98269
-4.59324 -0.206669 -1.98334
-4.5941 -0.221116 -1.984
-4.59497 -0.235574 -1.98468
-4.59583 -0.250041 -1.98538
-5.04231 0.870644 -2.25785
-4.95073 0.838885 -2.21565
-4.90082 0.814658 -2.19216
-4.8743 0.794582 -2.17918
-4.8498 0.775014 -2.16713
-4.82573 0.755686 -2.15531
-4.80193 0.736571 -2.14364
-4.77838 0.717659 -2.13211
-4.75508 0.698948 -2.12073
-4.74101 0.681729 -2.11349
-4.73365 0.665556 -2.10927
-4.72632 0.64945 -2.10509
-4.71902 0.633406 -2.10094
-4.71174 0.617422 -2.09683
-4.70449 0.6015 -2.09276
-4.69727 0.585642 -2.08872
-4.69008 0.569846 -2.08472
-4.68291 0.554109 -2.08076
-4.67577 0.538431 -2.07682
-4.66866 0.522811 -2.07293
-4.66161 0.507254 -2.06908
-4.65469 0.491769 -2.06532
-4.6478 0.476337 -2.06159
-4.64094 0.460961 -2.05789
-4.63409 0.445639 -2.05423
-4.62727 0.430372 -2.0506
-4.62048 0.41516 -2.047
-4.61371 0.399999 -2.04344
-4.60696 0.384889 -2.03991
-4.60159 0.369941 -2.03701
-4.60073 0.355385 -2.03612
-4.59987 0.340842 -2.03526
-4.59901 0.326308 -2.03442
-4.59815 0.311788 -2.03359
-4.59728 0.297277 -2.03279
-4.59642 0.28278 -2.03201
-4.59556 0.268293 -2.03125
-4.5947 0.253817 -2.03051
-4.59384 0.239351 -2.02978
-4.59297 0.224895 -2.02908
-4.59211 0.210448 -2.0284
-4.59125 0.196013 -2.02774
-4.59039 0.181585 -2.0271
-4.58953 0.167167 -2.02648
-4.58866 0.152753 -2.02587
-4.5878 0.138356 -2.02529
-4.58694 0.12396 -2.02473
-4.58608 0.109576 -2.02419
-4.58515 0.0951972 -2.02364
-4.58404 0.0808211 -2.02303
-4.58293 0.0664578 -2.02244
-4.58182 0.0520995 -2.02187
-4.58072 0.0377481 -2.02131
-4.57961 0.0234065 -2.02078
-4.5785 0.00907119 -2.02027
-4.57819 -0.00525948 -2.02013
-4.5793 -0.0195924 -2.02064
-4.58041 -0.0339336 -2.02116
-4.58152 -0.0482801 -2.02171
-4.58263 -0.0626354 -2.02228
-4.58374 -0.0769984 -2.02286
-4.58485 -0.0913712 -2.02347
-4.58584 -0.105752 -2.02405
-4.58671 -0.120136 -2.02458
-4.58757 -0.134526 -2.02514
-4.58843 -0.148925 -2.02572
-4.5893 -0.163332 -2.02631
-4.59016 -0.177749 -2.02693
-4.59102 -0.192174 -2.02757
-4.59189 -0.206608 -2.02822
-4.59275 -0.221051 -2.0289
-4.59361 -0.235505 -2.0296
-4.59448 -0.249968 -2.03032
-4.94591 0.838068 -2.26349
-4.89731 0.814074 -2.24007
-4.87272 0.794325 -2.22768
-4.8484 0.774791 -2.21544
-4.82435 0.755469 -2.20336
-4.80056 0.736361 -2.19143
-4.77702 0.717455 -2.17965
-4.75374 0.698751 -2.16802
-4.73886 0.681421 -2.16025
-4.73151 0.665256 -2.15594
-4.72419 0.649158 -2.15167
-4.7169 0.633121 -2.14743
-4.70963 0.617145 -2.14323
-4.70239 0.601231 -2.13907
-4.69518 0.585381 -2.13495
-4.68799 0.569592 -2.13086
-4.68097 0.553879 -2.12687
-4.67399 0.538225 -2.12292
-4.66703 0.522629 -2.11901
-4.6601 0.50709 -2.11513
-4.65319 0.49161 -2.11128
-4.6463 0.476183 -2.10747
-4.63944 0.460812 -2.1037
-4.6326 0.445496 -2.09995
