ply
format ascii 1.0
comment Created by Open3D
element vertex 1822
property double x
property double y
property double z
end_header
3.15962 -0.00932082 -1.27047
3.15896 0.000622548 -1.2702
3.15969 0.0105665 -1.2705
3.16041 0.0205143 -1.27081
3.16112 0.0304677 -1.27112
3.16181 0.040426 -1.27145
3.16248 0.0503892 -1.27178
3.16314 0.0603574 -1.27211
3.16379 0.0703298 -1.27245
3.16443 0.0803083 -1.27281
3.16515 0.0902947 -1.2732
3.16585 0.100287 -1.27361
3.16654 0.110285 -1.27402
3.16722 0.120289 -1.27444
3.16788 0.130299 -1.27486
3.16852 0.140315 -1.27529
3.16915 0.150337 -1.27573
3.16977 0.160366 -1.27617
3.17037 0.170401 -1.27663
3.17095 0.180441 -1.27708
3.17152 0.190489 -1.27755
3.17208 0.200543 -1.27802
3.17262 0.210603 -1.2785
3.17315 0.22067 -1.27898
3.17366 0.230743 -1.27948
3.17415 0.240824 -1.27998
3.17463 0.250911 -1.28048
3.1751 0.261005 -1.28099
3.17555 0.271106 -1.28151
3.17598 0.281213 -1.28204
3.1764 0.291327 -1.28257
3.17789 0.301552 -1.28355
3.17952 0.311806 -1.2846
3.18114 0.322075 -1.28566
3.18275 0.33236 -1.28672
3.18434 0.34266 -1.2878
3.18592 0.352976 -1.28888
3.18749 0.363307 -1.28997
3.18904 0.373654 -1.29107
3.19058 0.384017 -1.29217
3.19211 0.394396 -1.29329
3.19362 0.40479 -1.29441
3.19512 0.415201 -1.29554
3.19661 0.425628 -1.29668
3.19808 0.436071 -1.29783
3.19954 0.446532 -1.29898
3.20098 0.457007 -1.30015
3.20242 0.4675 -1.30132
3.2038 0.478005 -1.30249
3.2051 0.488514 -1.30363
3.20638 0.499039 -1.30479
3.20764 0.509579 -1.30595
3.2089 0.520137 -1.30712
3.21013 0.530711 -1.3083
3.21136 0.541301 -1.30948
3.21264 0.55192 -1.31071
3.21552 0.562839 -1.3126
3.21841 0.573788 -1.31451
3.22135 0.584778 -1.31645
3.22427 0.595797 -1.31841
3.2272 0.606846 -1.32038
3.23011 0.617925 -1.32236
3.23314 0.629059 -1.3244
3.24805 0.642573 -1.33133
3.26309 0.656227 -1.33834
3.27827 0.670021 -1.34542
3.29359 0.683958 -1.35259
3.30906 0.698039 -1.35983
3.32466 0.712266 -1.36716
3.34042 0.726644 -1.37457
3.37168 0.744564 -1.38839
3.43349 0.769553 -1.41483
3.49763 0.795498 -1.44229
3.54438 0.817871 -1.46263
3.1923 -0.619806 -1.33908
3.18949 -0.608851 -1.33709
3.18667 -0.597925 -1.33511
3.18385 -0.58703 -1.33315
3.18101 -0.576162 -1.33119
3.17817 -0.565323 -1.32925
3.17536 -0.554519 -1.32734
3.17389 -0.543975 -1.326
3.17273 -0.533503 -1.32481
3.17155 -0.523048 -1.32363
3.17029 -0.512598 -1.32242
3.16898 -0.502157 -1.32121
3.16765 -0.491732 -1.32
3.16631 -0.481324 -1.31881
3.16495 -0.470934 -1.31762
3.16359 -0.460558 -1.31644
3.1622 -0.450199 -1.31527
3.16081 -0.439856 -1.3141
3.1594 -0.429529 -1.31295
3.15798 -0.419218 -1.3118
3.15654 -0.408923 -1.31067
3.15509 -0.398644 -1.30954
3.15363 -0.38838 -1.30842
3.15215 -0.378131 -1.3073
3.15066 -0.367898 -1.3062
3.14916 -0.357682 -1.3051
3.14764 -0.347479 -1.30401
3.14611 -0.337292 -1.30293
3.14457 -0.32712 -1.30186
3.14301 -0.316963 -1.3008
3.14144 -0.306822 -1.29974
3.13986 -0.296695 -1.29869
3.13919 -0.286667 -1.29804
3.13879 -0.276673 -1.29751
3.13837 -0.266686 -1.29698
3.13794 -0.256705 -1.29646
3.13749 -0.246732 -1.29595
3.13703 -0.236765 -1.29545
3.13656 -0.226804 -1.29495
3.13607 -0.21685 -1.29446
3.13556 -0.206902 -1.29397
3.13504 -0.196961 -1.2935
3.1345 -0.187026 -1.29302
3.13395 -0.177097 -1.29256
3.13338 -0.167174 -1.2921
3.1328 -0.157258 -1.29165
3.1322 -0.147347 -1.29121
3.13159 -0.137443 -1.29077
3.13096 -0.127545 -1.29034
3.13032 -0.117652 -1.28992
3.12967 -0.107766 -1.2895
3.129 -0.0978848 -1.28909
3.12831 -0.0880105 -1.28869
3.12761 -0.0781411 -1.28829
3.12689 -0.0682774 -1.2879
3.12616 -0.0584191 -1.28752
3.12542 -0.0485664 -1.28714
3.12466 -0.0387201 -1.28677
3.12392 -0.0288787 -1.28643
3.12323 -0.0190426 -1.28611
3.12253 -0.00921126 -1.28581
3.12189 0.000615242 -1.28553
3.1226 0.0104424 -1.28584
3.12331 0.0202734 -1.28615
3.12399 0.0301099 -1.28646
3.12474 0.0399521 -1.28681
3.1255 0.0497999 -1.28718
3.12624 0.0596532 -1.28756
3.12697 0.0695113 -1.28795
3.12768 0.0793758 -1.28834
3.12838 0.0892459 -1.28873
3.12907 0.0991217 -1.28914
3.12974 0.109003 -1.28955
3.1304 0.118891 -1.28997
3.13104 0.128783 -1.29039
3.13166 0.138682 -1.29082
3.13227 0.148588 -1.29126
3.13287 0.158499 -1.29171
3.13345 0.168416 -1.29216
3.13401 0.178339 -1.29262
3.13456 0.188269 -1.29308
3.1351 0.198205 -1.29355
3.13562 0.208147 -1.29403
3.13613 0.218096 -1.29452
3.13662 0.22805 -1.29501
3.13709 0.238012 -1.29551
3.13755 0.24798 -1.29601
3.138 0.257955 -1.29653
3.13843 0.267936 -1.29705
3.13884 0.277925 -1.29757
3.13924 0.287919 -1.29811
3.14003 0.297959 -1.29882
3.14162 0.308088 -1.29986
3.14318 0.318232 -1.30092
3.14474 0.328392 -1.30199
3.14628 0.338565 -1.30306
3.14781 0.348753 -1.30414
3.14933 0.358958 -1.30523
3.15083 0.369177 -1.30633
3.15232 0.379412 -1.30744
3.1538 0.389663 -1.30855
3.15526 0.399928 -1.30967
3.15671 0.410209 -1.3108
3.15814 0.420507 -1.31194
3.15956 0.43082 -1.31309
3.16097 0.441149 -1.31424
3.16237 0.451493 -1.31541
3.16375 0.461854 -1.31658
3.16511 0.472232 -1.31776
3.16647 0.482626 -1.31895
3.16781 0.493035 -1.32015
3.16913 0.503461 -1.32136
3.17045 0.513904 -1.32257
3.17169 0.524356 -1.32377
3.17287 0.534814 -1.32496
3.17403 0.545288 -1.32615
3.17567 0.555864 -1.32757
3.17849 0.566672 -1.32948
3.18133 0.577514 -1.33142
3.18417 0.588386 -1.33338
3.18699 0.599286 -1.33534
3.18981 0.610216 -1.33732
3.19262 0.621174 -1.33931
3.19885 0.63284 -1.34276
3.21341 0.646235 -1.34971
3.2281 0.659766 -1.35675
3.24292 0.673434 -1.36386
3.25788 0.687243 -1.37106
3.27297 0.701192 -1.37833
3.28821 0.715286 -1.38569
3.30358 0.729527 -1.39313
3.3191 0.743917 -1.40065
3.34161 0.760012 -1.41115
3.40224 0.785071 -1.43779
3.46514 0.811079 -1.46545
3.52768 0.837436 -1.493
3.15264 -0.612107 -1.35377
3.14993 -0.6013 -1.35178
3.1472 -0.59052 -1.34981
3.14447 -0.57977 -1.34785
3.14069 -0.568859 -1.34545
3.1367 -0.557946 -1.34298
3.13395 -0.547288 -1.34106
3.13281 -0.536936 -1.33985
3.13166 -0.526598 -1.33864
3.13049 -0.516277 -1.33744
3.12929 -0.505969 -1.33624
3.12808 -0.495677 -1.33505
3.12685 -0.485399 -1.33386
3.1256 -0.475136 -1.33269
3.12433 -0.464889 -1.33151
3.12304 -0.454656 -1.33035
3.12173 -0.444437 -1.32919
3.1204 -0.434233 -1.32803
3.11905 -0.424044 -1.32689
3.11769 -0.41387 -1.32574
3.1163 -0.403711 -1.32461
3.1149 -0.393565 -1.32348
3.11347 -0.383435 -1.32235
3.11203 -0.373319 -1.32124
3.11057 -0.363217 -1.32012
3.10909 -0.353131 -1.31902
3.10759 -0.343058 -1.31792
3.10607 -0.333 -1.31682
3.10454 -0.322956 -1.31573
3.10298 -0.312927 -1.31465
3.10141 -0.302912 -1.31358
3.09989 -0.292918 -1.31253
3.09959 -0.283051 -1.31202
3.09926 -0.273189 -1.31151
3.09892 -0.263333 -1.31101
3.09855 -0.253483 -1.31051
3.09816 -0.243639 -1.31002
3.09775 -0.2338 -1.30952
3.09732 -0.223967 -1.30904
3.09687 -0.214139 -1.30856
3.0964 -0.204318 -1.30808
3.0959 -0.194502 -1.3076
3.09539 -0.184692 -1.30714
3.09485 -0.174888 -1.30667
3.0943 -0.165089 -1.30621
3.09372 -0.155296 -1.30575
3.09312 -0.145509 -1.3053
3.0925 -0.135728 -1.30485
3.09187 -0.125952 -1.30441
3.09121 -0.116182 -1.30397
3.09053 -0.106418 -1.30354
3.08982 -0.0966595 -1.30311
3.0891 -0.0869075 -1.30268
3.08836 -0.0771606 -1.30226
3.0876 -0.0674194 -1.30184
3.08681 -0.0576838 -1.30143
3.08601 -0.0479541 -1.30102
3.08518 -0.0382309 -1.30061
3.08434 -0.0285127 -1.30021
3.08347 -0.0188003 -1.29982
3.08258 -0.00909358 -1.29942
3.08214 0.000607317 -1.29923
3.08268 0.010309 -1.29946
3.08356 0.0200155 -1.29986
3.08443 0.0297285 -1.30025
3.08527 0.0394474 -1.30066
3.08609 0.0491721 -1.30106
3.08689 0.0589025 -1.30147
3.08768 0.0686378 -1.30189
3.08844 0.0783798 -1.3023
3.08918 0.0881274 -1.30273
3.0899 0.0978809 -1.30315
3.0906 0.10764 -1.30359
3.09128 0.117405 -1.30402
3.09193 0.127175 -1.30446
3.09257 0.136951 -1.30491
3.09319 0.146734 -1.30535
3.09378 0.156522 -1.30581
3.09436 0.166315 -1.30626
3.09491 0.176114 -1.30673
3.09545 0.185919 -1.30719
3.09596 0.19573 -1.30766
3.09645 0.205547 -1.30814
3.09692 0.215369 -1.30861
3.09737 0.225197 -1.3091
3.0978 0.235031 -1.30958
3.09821 0.24487 -1.31008
3.09859 0.254716 -1.31057
3.09896 0.264567 -1.31107
3.0993 0.274424 -1.31158
3.09963 0.284285 -1.31209
3.09993 0.294154 -1.3126
3.10158 0.304162 -1.3137
3.10315 0.314179 -1.31478
3.1047 0.32421 -1.31586
3.10624 0.334256 -1.31695
3.10775 0.344315 -1.31804
3.10925 0.35439 -1.31914
3.11073 0.364478 -1.32025
3.11219 0.374582 -1.32137
3.11363 0.3847 -1.32248
3.11505 0.394832 -1.32361
3.11645 0.404979 -1.32474
3.11784 0.41514 -1.32588
3.1192 0.425317 -1.32702
3.12055 0.435508 -1.32817
3.12188 0.445713 -1.32932
3.12318 0.455933 -1.33049
3.12447 0.466168 -1.33165
3.12574 0.476418 -1.33283
3.12699 0.486683 -1.33401
3.12822 0.496962 -1.33519
3.12943 0.507256 -1.33638
3.13062 0.517565 -1.33758
3.13179 0.52789 -1.33878
3.13294 0.538229 -1.33999
3.13408 0.548584 -1.34121
3.13713 0.559298 -1.34326
3.14112 0.570214 -1.34573
3.14478 0.581108 -1.34808
3.14751 0.591863 -1.35004
3.15024 0.602645 -1.35202
3.15295 0.613457 -1.354
3.15566 0.624296 -1.356
3.16489 0.636479 -1.36082
3.17911 0.649754 -1.36781
3.19345 0.663162 -1.37487
3.20792 0.676705 -1.38201
3.22252 0.690384 -1.38923
3.23726 0.704203 -1.39653
3.25213 0.718163 -1.40391
3.26713 0.732268 -1.41138
3.28227 0.746518 -1.41893
3.29755 0.760915 -1.42656
3.31298 0.775464 -1.43428
3.37017 0.800046 -1.46013
3.43182 0.826098 -1.48795
3.49579 0.853145 -1.51685
3.10461 -0.602781 -1.36421
3.10081 -0.591923 -1.36171
3.097 -0.5811 -1.35923
3.09318 -0.570314 -1.35676
3.08936 -0.559561 -1.3543
3.08552 -0.548843 -1.35186
3.08363 -0.538501 -1.35028
3.08256 -0.528322 -1.34907
3.08147 -0.518158 -1.34788
3.08036 -0.508009 -1.34669
3.07923 -0.497874 -1.3455
3.07808 -0.487753 -1.34432
3.07691 -0.477647 -1.34315
3.07572 -0.467554 -1.34198
3.07452 -0.457477 -1.34082
3.07329 -0.447413 -1.33966
3.07204 -0.437364 -1.33851
3.07078 -0.427328 -1.33737
3.0695 -0.417307 -1.33623
3.06819 -0.4073 -1.3351
3.06687 -0.397307 -1.33397
3.06553 -0.387328 -1.33285
3.06417 -0.377363 -1.33174
3.06279 -0.367412 -1.33063
3.0614 -0.357475 -1.32953
3.05998 -0.347553 -1.32843
3.05855 -0.337644 -1.32734
3.05709 -0.327749 -1.32626
3.05517 -0.31782 -1.32498
3.05314 -0.3079 -1.32367
3.05109 -0.297998 -1.32237
3.05042 -0.288244 -1.32168
3.05014 -0.278535 -1.32118
3.04984 -0.268833 -1.32067
3.04952 -0.259135 -1.32017
3.04917 -0.249443 -1.31968
3.04881 -0.239758 -1.31919
3.04843 -0.230077 -1.3187
3.04802 -0.220402 -1.31822
3.04759 -0.210732 -1.31774
3.04715 -0.201068 -1.31727
3.04668 -0.19141 -1.3168
3.04619 -0.181757 -1.31633
3.04568 -0.172109 -1.31587
3.04515 -0.162467 -1.31542
3.0446 -0.15283 -1.31497
3.04403 -0.143199 -1.31452
3.04344 -0.133574 -1.31407
3.04282 -0.123954 -1.31363
3.04219 -0.11434 -1.3132
3.04154 -0.104731 -1.31277
3.04086 -0.0951278 -1.31234
3.04017 -0.0855309 -1.31192
3.03945 -0.0759387 -1.3115
3.03872 -0.066352 -1.31109
3.03796 -0.0567709 -1.31068
3.03718 -0.0471954 -1.31027
3.03653 -0.037628 -1.30993
3.03612 -0.028067 -1.30971
3.03569 -0.018509 -1.30949
3.03524 -0.00895394 -1.30928
3.03482 0.000597857 -1.30909
3.03529 0.0101504 -1.3093
3.03574 0.0197048 -1.30952
3.03616 0.0292631 -1.30973
3.03657 0.0388247 -1.30996
3.03727 0.048394 -1.31031
3.03804 0.0579703 -1.31072
3.03879 0.0675512 -1.31113
3.03953 0.0771385 -1.31155
3.04024 0.0867314 -1.31197
3.04093 0.0963298 -1.31239
3.04161 0.105934 -1.31282
3.04226 0.115543 -1.31325
3.04289 0.125158 -1.31368
3.0435 0.134778 -1.31412
3.04409 0.144405 -1.31457
3.04466 0.154036 -1.31502
3.04521 0.163674 -1.31547
3.04574 0.173316 -1.31593
3.04624 0.182964 -1.31639
3.04673 0.192618 -1.31685
3.0472 0.202277 -1.31732
3.04764 0.211942 -1.3178
3.04807 0.221612 -1.31828
3.04847 0.231288 -1.31876
3.04885 0.24097 -1.31925
3.04922 0.250657 -1.31974
3.04956 0.260349 -1.32024
3.04988 0.270047 -1.32073
3.05018 0.27975 -1.32124
3.05045 0.289459 -1.32175
3.05131 0.299232 -1.32252
3.05335 0.309137 -1.32382
3.05538 0.31906 -1.32513
3.05725 0.328984 -1.32638
3.0587 0.33888 -1.32747
3.06013 0.348791 -1.32856
3.06155 0.358716 -1.32966
3.06294 0.368655 -1.33076
3.06432 0.378608 -1.33187
3.06568 0.388573 -1.33298
3.06702 0.398554 -1.3341
3.06834 0.408549 -1.33523
3.06964 0.418558 -1.33636
3.07092 0.428581 -1.3375
3.07218 0.438618 -1.33865
3.07343 0.448669 -1.3398
3.07465 0.458735 -1.34096
3.07586 0.468815 -1.34212
3.07704 0.478909 -1.34329
3.07821 0.489016 -1.34446
3.07936 0.49914 -1.34564
3.08048 0.509277 -1.34683
3.08159 0.519428 -1.34802
3.08268 0.529594 -1.34922
3.08375 0.539775 -1.35042
3.08593 0.55017 -1.35213
3.08976 0.560892 -1.35458
3.09359 0.571649 -1.35704
3.09741 0.58244 -1.35951
3.10122 0.593268 -1.36199
3.10502 0.60413 -1.36449
3.10881 0.615027 -1.367
3.11613 0.626673 -1.37108
3.12756 0.639219 -1.37699
3.14357 0.652803 -1.38493
3.15914 0.666414 -1.39271
3.17327 0.679831 -1.39987
3.18752 0.693384 -1.40712
3.2019 0.707072 -1.41444
3.21641 0.7209 -1.42184
3.23105 0.734867 -1.42933
3.24582 0.748977 -1.4369
3.26073 0.763233 -1.44456
3.27577 0.777635 -1.4523
3.29095 0.792189 -1.46013
3.33729 0.814463 -1.48182
3.39766 0.840534 -1.50979
3.05397 -0.592948 -1.37273
3.05032 -0.582285 -1.37026
3.04666 -0.571655 -1.3678
3.043 -0.561061 -1.36536
3.03932 -0.550499 -1.36293
3.03564 -0.539971 -1.36051
3.03456 -0.529932 -1.35927
3.03355 -0.519922 -1.35807
3.03252 -0.509927 -1.35689
3.03147 -0.499947 -1.35571
3.0304 -0.489979 -1.35453
3.02931 -0.480025 -1.35336
3.0282 -0.470085 -1.3522
3.02707 -0.460159 -1.35104
3.02593 -0.450247 -1.34989
3.02476 -0.440348 -1.34875
3.02358 -0.430463 -1.34761
3.02237 -0.420592 -1.34648
3.02115 -0.410734 -1.34535
3.01991 -0.40089 -1.34423
3.01865 -0.39106 -1.34311
3.01737 -0.381243 -1.342
3.01607 -0.371439 -1.3409
3.01475 -0.361649 -1.3398
3.01342 -0.351873 -1.33871
3.01161 -0.342059 -1.33742
3.00971 -0.332253 -1.33611
3.0078 -0.322464 -1.3348
3.00587 -0.312692 -1.3335
3.00392 -0.302937 -1.33221
3.0024 -0.293242 -1.33112
3.00217 -0.283684 -1.33061
3.00191 -0.274131 -1.33011
3.00163 -0.264583 -1.32961
3.00133 -0.255041 -1.32911
3.00101 -0.245503 -1.32862
3.00067 -0.235972 -1.32814
3.00031 -0.226446 -1.32765
2.99993 -0.216924 -1.32718
2.99953 -0.207408 -1.3267
2.9991 -0.197898 -1.32623
2.99866 -0.188393 -1.32577
2.99819 -0.178893 -1.32531
2.99771 -0.169398 -1.32485
2.9972 -0.159909 -1.3244
2.99668 -0.150425 -1.32395
2.99613 -0.140946 -1.32351
2.99557 -0.131473 -1.32307
2.99498 -0.122005 -1.32263
2.99437 -0.112543 -1.3222
2.99374 -0.103085 -1.32177
2.99309 -0.0936335 -1.32135
2.99243 -0.0841877 -1.32093
2.99174 -0.0747465 -1.32052
2.99133 -0.0653172 -1.32024
2.99099 -0.0558932 -1.32001
2.99064 -0.0464721 -1.31978
2.99026 -0.0370547 -1.31956
2.98987 -0.0276394 -1.31934
2.98945 -0.018227 -1.31912
2.98902 -0.00881757 -1.31891
2.98861 0.000588986 -1.31873
2.98906 0.00999569 -1.31893
2.98949 0.0194049 -1.31914
2.98991 0.0288174 -1.31936
2.9903 0.0382331 -1.31958
2.99067 0.0476514 -1.31981
2.99103 0.0570731 -1.32003
2.99136 0.0664965 -1.32027
2.99181 0.0759274 -1.32056
2.9925 0.0853693 -1.32098
2.99316 0.0948165 -1.3214
2.99381 0.104269 -1.32182
2.99443 0.113727 -1.32225
2.99504 0.12319 -1.32268
2.99563 0.132658 -1.32312
2.99619 0.142132 -1.32356
2.99673 0.151612 -1.324
2.99726 0.161096 -1.32445
2.99776 0.170586 -1.32491
2.99824 0.180081 -1.32536
2.99871 0.189582 -1.32582
2.99915 0.199088 -1.32629
2.99957 0.208599 -1.32676
2.99997 0.218115 -1.32723
3.00035 0.227637 -1.32771
3.00071 0.237165 -1.3282
3.00105 0.246697 -1.32868
3.00137 0.256235 -1.32917
3.00166 0.265778 -1.32967
3.00194 0.275326 -1.33017
3.0022 0.28488 -1.33067
3.00243 0.294439 -1.33118
3.00413 0.304153 -1.33235
3.00607 0.313911 -1.33364
3.008 0.323685 -1.33495
3.00991 0.333475 -1.33625
3.01181 0.343283 -1.33757
3.01356 0.353093 -1.33883
3.01489 0.362872 -1.33993
3.01621 0.372663 -1.34102
3.01751 0.382468 -1.34213
3.01878 0.392286 -1.34324
3.02004 0.402119 -1.34436
3.02128 0.411965 -1.34548
3.0225 0.421824 -1.34661
3.02371 0.431697 -1.34774
3.02489 0.441584 -1.34888
3.02605 0.451484 -1.35003
3.0272 0.461399 -1.35118
3.02832 0.471327 -1.35234
3.02943 0.481268 -1.3535
3.03052 0.491223 -1.35467
3.03159 0.501193 -1.35585
3.03263 0.511176 -1.35703
3.03366 0.521173 -1.35822
3.03467 0.531183 -1.35941
3.03603 0.541273 -1.36077
3.03971 0.551806 -1.3632
3.04339 0.562372 -1.36563
3.04705 0.572971 -1.36808
3.05071 0.583605 -1.37054
3.05436 0.594273 -1.37301
3.05899 0.60517 -1.37594
3.06883 0.61716 -1.38123
3.07873 0.629237 -1.38657
3.08868 0.641405 -1.39196
3.10023 0.653987 -1.39809
3.11591 0.667542 -1.40609
3.13174 0.681249 -1.4142
3.14773 0.695109 -1.4224
3.16387 0.709125 -1.4307
3.18018 0.723299 -1.4391
3.19533 0.737325 -1.44699
3.20973 0.751297 -1.45458
3.22427 0.765411 -1.46225
3.23895 0.77967 -1.47001
3.25375 0.794075 -1.47786
3.26869 0.808628 -1.48579
3.30362 0.828312 -1.50285
3.3627 0.854382 -1.53094
3.0046 -0.583362 -1.38104
3.00109 -0.572888 -1.3786
2.99758 -0.562446 -1.37616
2.99406 -0.552038 -1.37374
2.99053 -0.541662 -1.37134
2.98762 -0.531428 -1.36922
2.98668 -0.52157 -1.36804
2.98573 -0.511726 -1.36686
2.98475 -0.501896 -1.36568
2.98376 -0.492079 -1.36451
2.98275 -0.482275 -1.36335
2.98172 -0.472484 -1.36219
2.98067 -0.462706 -1.36104
2.9796 -0.452942 -1.35989
2.97851 -0.443192 -1.35875
2.9774 -0.433454 -1.35762
2.97627 -0.423729 -1.35649
2.97513 -0.414017 -1.35537
2.97396 -0.404319 -1.35425
2.97278 -0.394634 -1.35314
2.97158 -0.384962 -1.35203
2.97036 -0.375303 -1.35093
2.96865 -0.365599 -1.34963
2.96688 -0.355907 -1.34831
2.9651 -0.346231 -1.347
2.9633 -0.336572 -1.34569
2.96148 -0.326929 -1.34439
2.95965 -0.317302 -1.3431
2.95779 -0.307691 -1.34181
2.95592 -0.298096 -1.34053
2.95529 -0.288641 -1.33982
2.95508 -0.279234 -1.33932
2.95484 -0.269833 -1.33882
2.95458 -0.260436 -1.33833
2.95431 -0.251045 -1.33784
2.95401 -0.241658 -1.33735
2.95369 -0.232278 -1.33687
2.95335 -0.222901 -1.33639
2.95299 -0.21353 -1.33592
2.95261 -0.204164 -1.33545
2.95221 -0.194803 -1.33499
2.95179 -0.185449 -1.33452
2.95135 -0.176098 -1.33407
2.95089 -0.166752 -1.33362
2.95041 -0.157412 -1.33317
2.9499 -0.148077 -1.33272
2.94938 -0.138747 -1.33228
2.94884 -0.129423 -1.33185
2.94828 -0.120103 -1.33142
2.94769 -0.110788 -1.33099
2.94717 -0.101482 -1.3306
2.94693 -0.0921893 -1.33036
2.94667 -0.0829003 -1.33011
2.94638 -0.0736134 -1.32987
2.94608 -0.0643293 -1.32964
2.94576 -0.0550479 -1.32941
2.94542 -0.0457694 -1.32918
2.94505 -0.0364945 -1.32896
2.94467 -0.0272216 -1.32874
2.94427 -0.0179516 -1.32853
2.94385 -0.00868433 -1.32832
2.94345 0.000579984 -1.32814
2.94389 0.00984477 -1.32834
2.94431 0.0191114 -1.32855
2.94471 0.0283819 -1.32877
2.94509 0.0376553 -1.32898
2.94545 0.0469311 -1.32921
2.94579 0.0562099 -1.32943
2.94611 0.0654908 -1.32967
2.94641 0.0747752 -1.3299
2.9467 0.0840626 -1.33014
2.94696 0.0933526 -1.33038
2.9472 0.102646 -1.33063
2.94775 0.111954 -1.33104
2.94834 0.121269 -1.33146
2.9489 0.130589 -1.3319
2.94944 0.139914 -1.33233
2.94996 0.149245 -1.33277
2.95046 0.158581 -1.33322
2.95094 0.167921 -1.33367
2.9514 0.177267 -1.33412
2.95184 0.186619 -1.33458
2.95225 0.195975 -1.33504
2.95265 0.205337 -1.33551
2.95303 0.214702 -1.33598
2.95339 0.224074 -1.33645
2.95373 0.233451 -1.33693
2.95404 0.242833 -1.33741
2.95434 0.25222 -1.3379
2.95461 0.261612 -1.33839
2.95487 0.271009 -1.33888
2.9551 0.280411 -1.33938
2.95531 0.289818 -1.33989
2.95612 0.299292 -1.34067
2.95798 0.308889 -1.34195
2.95984 0.318502 -1.34324
2.96167 0.32813 -1.34453
2.96349 0.337776 -1.34583
2.96529 0.347437 -1.34714
2.96707 0.357115 -1.34845
2.96883 0.366809 -1.34977
2.97049 0.376508 -1.35106
2.9717 0.386169 -1.35216
2.97291 0.395843 -1.35326
2.97409 0.405529 -1.35438
2.97525 0.41523 -1.3555
2.9764 0.424942 -1.35662
2.97752 0.434669 -1.35775
2.97863 0.444408 -1.35888
2.97971 0.454161 -1.36003
2.98078 0.463927 -1.36117
2.98183 0.473706 -1.36233
2.98286 0.483498 -1.36348
2.98387 0.493304 -1.36465
2.98486 0.503123 -1.36582
2.98583 0.512956 -1.367
2.98679 0.522802 -1.36818
2.98772 0.53266 -1.36937
2.9909 0.542945 -1.3716
2.99443 0.553326 -1.37401
2.99795 0.563739 -1.37644
3.00146 0.574184 -1.37887
3.00496 0.584663 -1.38132
3.01308 0.59609 -1.38591
3.0226 0.607864 -1.39116
3.03218 0.619724 -1.39645
3.0418 0.63167 -1.40179
3.05148 0.643703 -1.40718
3.06121 0.655824 -1.41261
3.07277 0.668422 -1.41891
3.08812 0.681947 -1.42698
3.10362 0.69562 -1.43515
3.11927 0.709445 -1.44341
3.13508 0.723423 -1.45177
3.15104 0.737559 -1.46023
3.16716 0.751853 -1.46879
3.18345 0.76631 -1.47746
3.19989 0.780932 -1.48622
3.21651 0.79572 -1.4951
3.23149 0.810225 -1.50324
3.24618 0.824777 -1.51127
3.26918 0.841582 -1.52321
2.95811 -0.574337 -1.38993
2.95308 -0.563722 -1.38673
2.94971 -0.553463 -1.38432
2.94633 -0.543237 -1.38192
2.94294 -0.53304 -1.37954
2.94083 -0.523105 -1.37777
2.93995 -0.513409 -1.3766
2.93905 -0.503726 -1.37543
2.93813 -0.494055 -1.37426
2.93719 -0.484399 -1.3731
2.93623 -0.474754 -1.37195
2.93526 -0.465122 -1.3708
2.93426 -0.455503 -1.36966
2.93325 -0.445896 -1.36853
2.93221 -0.436303 -1.3674
2.93116 -0.426722 -1.36627
2.93009 -0.417154 -1.36516
2.929 -0.407598 -1.36404
2.92788 -0.398054 -1.36293
2.92626 -0.388459 -1.3616
2.92463 -0.37888 -1.36028
2.92297 -0.369316 -1.35896
2.9213 -0.359768 -1.35765
2.91961 -0.350236 -1.35635
2.9179 -0.340719 -1.35505
2.91617 -0.331219 -1.35376
2.91443 -0.321734 -1.35247
2.91267 -0.312265 -1.35119
2.91089 -0.302811 -1.34992
2.90947 -0.293412 -1.34882
2.9093 -0.284149 -1.34832
2.9091 -0.27489 -1.34782
2.90889 -0.265636 -1.34733
2.90865 -0.256387 -1.34684
2.90839 -0.247143 -1.34636
2.90812 -0.237904 -1.34587
2.90782 -0.22867 -1.3454
2.9075 -0.219441 -1.34492
2.90716 -0.210217 -1.34445
2.90681 -0.200997 -1.34399
2.90643 -0.191782 -1.34353
2.90603 -0.182574 -1.34307
2.90561 -0.173369 -1.34262
2.90517 -0.164169 -1.34217
2.90471 -0.154974 -1.34173
2.90423 -0.145784 -1.34129
2.90373 -0.136599 -1.34085
2.90348 -0.127432 -1.34054
2.90331 -0.118271 -1.34028
2.90311 -0.109113 -1.34003
2.9029 -0.0999575 -1.33978
2.90267 -0.0908047 -1.33954
2.90242 -0.0816555 -1.33929
2.90215 -0.0725082 -1.33906
2.90186 -0.0633636 -1.33883
2.90155 -0.0542218 -1.3386
2.90122 -0.0450826 -1.33837
2.90087 -0.035947 -1.33815
2.9005 -0.0268133 -1.33794
2.90011 -0.0176823 -1.33773
2.8997 -0.0085541 -1.33752
2.89932 0.000571328 -1.33733
2.89975 0.00969699 -1.33754
2.90015 0.0188249 -1.33775
2.90054 0.0279559 -1.33796
2.90091 0.0370901 -1.33818
2.90125 0.0462268 -1.3384
2.90158 0.0553664 -1.33862
2.90189 0.0645076 -1.33885
2.90218 0.0736527 -1.33908
2.90245 0.0828003 -1.33932
2.9027 0.0919508 -1.33956
2.90293 0.101104 -1.33981
2.90313 0.11026 -1.34006
2.90332 0.119417 -1.34031
2.90349 0.128578 -1.34057
2.90379 0.137749 -1.3409
2.90428 0.146934 -1.34134
2.90476 0.156125 -1.34178
2.90522 0.16532 -1.34222
2.90565 0.17452 -1.34267
2.90607 0.183725 -1.34313
2.90647 0.192936 -1.34358
2.90684 0.202151 -1.34404
2.9072 0.21137 -1.34451
2.90754 0.220595 -1.34498
2.90785 0.229825 -1.34545
2.90815 0.23906 -1.34593
2.90842 0.2483 -1.34641
2.90868 0.257545 -1.3469
2.90891 0.266794 -1.34739
2.90912 0.276048 -1.34788
2.90932 0.285308 -1.34838
2.90949 0.294572 -1.34889
2.91107 0.30399 -1.35006
2.91285 0.313445 -1.35133
2.91461 0.322916 -1.35261
2.91635 0.332403 -1.3539
2.91807 0.341906 -1.35519
2.91978 0.351424 -1.35649
2.92147 0.360958 -1.3578
2.92314 0.370507 -1.35911
2.92479 0.380073 -1.36043
2.92643 0.389654 -1.36175
2.92801 0.399246 -1.36306
2.92911 0.408791 -1.36417
2.9302 0.418348 -1.36529
2.93127 0.427917 -1.36641
2.93232 0.4375 -1.36753
2.93336 0.447095 -1.36866
2.93437 0.456704 -1.3698
2.93536 0.466324 -1.37094
2.93634 0.475957 -1.37209
2.93729 0.485603 -1.37324
2.93823 0.495263 -1.3744
2.93915 0.504935 -1.37557
2.94004 0.51462 -1.37674
2.94092 0.524317 -1.37791
2.94329 0.534301 -1.3798
2.94668 0.544501 -1.38219
2.95006 0.554732 -1.38459
2.95343 0.564996 -1.387
2.95905 0.57573 -1.39048
2.96821 0.587213 -1.39565
2.97742 0.598778 -1.40086
2.98668 0.610425 -1.40611
2.99599 0.622156 -1.41141
3.00535 0.633972 -1.41675
3.01475 0.645872 -1.42213
3.02421 0.65786 -1.42757
3.03372 0.669934 -1.43304
3.04519 0.682525 -1.43947
3.06022 0.696014 -1.4476
3.07539 0.70965 -1.45582
3.0907 0.723435 -1.46414
3.10617 0.737374 -1.47256
3.12178 0.751467 -1.48108
3.13755 0.765717 -1.4897
3.15348 0.780126 -1.49842
3.16956 0.794699 -1.50724
3.18581 0.809438 -1.51617
3.20223 0.824345 -1.52521
3.21881 0.839423 -1.53436
2.91455 -0.565881 -1.39951
2.90622 -0.554778 -1.39466
2.90299 -0.544697 -1.39228
2.89974 -0.534647 -1.38991
2.89648 -0.524626 -1.38755
2.89514 -0.514978 -1.38612
2.89431 -0.505439 -1.38496
2.89346 -0.495913 -1.3838
2.8926 -0.486399 -1.38264
2.89171 -0.476898 -1.3815
2.89081 -0.467409 -1.38036
2.88988 -0.457932 -1.37922
2.88894 -0.448467 -1.37809
2.88798 -0.439014 -1.37696
2.887 -0.429575 -1.37584
2.88593 -0.420137 -1.3747
2.88443 -0.410654 -1.37336
2.88292 -0.401186 -1.37204
2.88139 -0.391733 -1.37072
2.87984 -0.382296 -1.3694
2.87828 -0.372875 -1.36809
2.87669 -0.363468 -1.36679
2.87509 -0.354077 -1.36549
2.87347 -0.344701 -1.3642
2.87183 -0.33534 -1.36291
2.87017 -0.325995 -1.36163
2.8685 -0.316664 -1.36036
2.86681 -0.307349 -1.35909
2.8651 -0.298048 -1.35783
2.86453 -0.288879 -1.35712
2.86437 -0.279761 -1.35662
2.8642 -0.270647 -1.35613
2.864 -0.261537 -1.35564
2.86379 -0.252433 -1.35516
2.86355 -0.243332 -1.35467
2.86329 -0.234237 -1.3542
2.86302 -0.225147 -1.35372
2.86272 -0.216061 -1.35326
2.8624 -0.20698 -1.35279
2.86206 -0.197903 -1.35233
2.86171 -0.188831 -1.35188
2.86133 -0.179765 -1.35142
2.86093 -0.170703 -1.35097
2.86061 -0.161651 -1.35057
2.86052 -0.152617 -1.3503
2.86042 -0.143585 -1.35003
2.8603 -0.134556 -1.34977
2.86016 -0.125531 -1.34951
2.86 -0.116507 -1.34925
2.85982 -0.107486 -1.349
2.85962 -0.0984669 -1.34876
2.8594 -0.0894509 -1.34851
2.85916 -0.0804384 -1.34827
2.8589 -0.0714276 -1.34804
2.85862 -0.0624195 -1.34781
2.85832 -0.053414 -1.34758
2.858 -0.0444111 -1.34736
2.85767 -0.0354116 -1.34714
2.85731 -0.026414 -1.34693
2.85693 -0.0174191 -1.34672
2.85654 -0.00842676 -1.34651
2.85616 0.000562571 -1.34633
2.85658 0.00955269 -1.34653
2.85697 0.0185446 -1.34674
2.85735 0.0275398 -1.34695
2.8577 0.0365378 -1.34716
2.85804 0.0455381 -1.34738
2.85835 0.0545415 -1.34761
2.85865 0.0635467 -1.34783
2.85893 0.0725551 -1.34806
2.85918 0.0815661 -1.3483
2.85942 0.0905798 -1.34854
2.85964 0.099596 -1.34878
2.85984 0.108615 -1.34903
2.86002 0.117636 -1.34928
2.86017 0.12666 -1.34954
2.86031 0.135687 -1.3498
2.86043 0.144716 -1.35007
2.86053 0.153748 -1.35034
2.86062 0.162781 -1.35061
2.86097 0.171836 -1.35103
2.86137 0.180899 -1.35147
2.86174 0.189967 -1.35193
2.8621 0.199039 -1.35238
2.86243 0.208116 -1.35285
2.86275 0.217197 -1.35331
2.86304 0.226284 -1.35378
2.86332 0.235375 -1.35425
2.86357 0.244471 -1.35473
2.86381 0.253572 -1.35521
2.86402 0.262677 -1.3557
2.86422 0.271787 -1.35619
2.86439 0.280902 -1.35668
2.86454 0.290021 -1.35718
2.86527 0.299207 -1.35797
2.86698 0.30851 -1.35923
2.86867 0.317826 -1.3605
2.87034 0.327159 -1.36177
2.872 0.336507 -1.36305
2.87363 0.345869 -1.36434
2.87525 0.355248 -1.36563
2.87685 0.36464 -1.36693
2.87843 0.374048 -1.36823
2.88 0.383472 -1.36955
2.88155 0.392911 -1.37086
2.88307 0.402366 -1.37219
2.88459 0.411834 -1.37351
2.88608 0.421319 -1.37485
2.8871 0.430752 -1.37597
2.88808 0.440194 -1.37709
2.88904 0.449648 -1.37822
2.88998 0.459114 -1.37935
2.8909 0.468593 -1.38049
2.8918 0.478083 -1.38163
2.89269 0.487587 -1.38278
2.89355 0.497102 -1.38393
2.8944 0.50663 -1.38509
2.89522 0.51617 -1.38626
2.89681 0.525865 -1.38781
2.90007 0.535889 -1.39017
2.90332 0.545944 -1.39254
2.90664 0.556044 -1.39497
2.91546 0.567249 -1.40005
2.92432 0.57853 -1.40517
2.93324 0.589892 -1.41034
2.94219 0.601333 -1.41555
2.9512 0.612855 -1.4208
2.96025 0.624459 -1.4261
2.96935 0.636144 -1.43144
2.97849 0.647914 -1.43683
2.98768 0.659767 -1.44225
2.99693 0.671707 -1.44773
3.00622 0.683733 -1.45325
3.01749 0.696291 -1.45975
3.03219 0.709741 -1.46794
3.04703 0.723336 -1.47622
3.06202 0.73708 -1.48459
3.07714 0.750974 -1.49306
3.09241 0.765019 -1.50163
3.10783 0.779221 -1.5103
3.1234 0.793581 -1.51908
3.13913 0.808101 -1.52795
3.15501 0.822785 -1.53694
3.24921 0.85828 -1.58413
2.87194 -0.557606 -1.40888
2.8634 -0.546604 -1.40384
2.85737 -0.536138 -1.40005
2.85425 -0.52626 -1.3977
2.85126 -0.516436 -1.39544
2.8505 -0.507039 -1.39428
2.84972 -0.497653 -1.39312
2.84893 -0.48828 -1.39198
2.84811 -0.478918 -1.39083
2.84728 -0.46957 -1.3897
2.84642 -0.460232 -1.38857
2.84555 -0.450906 -1.38744
2.84451 -0.44157 -1.38625
2.84314 -0.432198 -1.38491
2.84175 -0.422842 -1.38358
2.84034 -0.4135 -1.38225
2.83891 -0.404173 -1.38093
2.83747 -0.39486 -1.37962
2.836 -0.385563 -1.37831
2.83452 -0.37628 -1.37701
2.83302 -0.367013 -1.37571
2.83151 -0.357759 -1.37442
2.82997 -0.348521 -1.37314
2.82842 -0.339297 -1.37186
2.82685 -0.330087 -1.37059
2.82526 -0.320893 -1.36932
2.82365 -0.311713 -1.36806
2.82203 -0.302548 -1.36681
2.82073 -0.293433 -1.36572
2.82062 -0.284451 -1.36523
2.82048 -0.275474 -1.36473
2.82032 -0.266501 -1.36425
2.82014 -0.257532 -1.36376
2.81995 -0.248568 -1.36328
2.81973 -0.239609 -1.3628
2.81949 -0.230654 -1.36233
2.81923 -0.221704 -1.36186
2.81896 -0.212758 -1.3614
2.81866 -0.203817 -1.36094
2.81834 -0.19488 -1.36048
2.8183 -0.185967 -1.36017
2.81828 -0.177061 -1.35989
2.81825 -0.168156 -1.35961
2.8182 -0.159254 -1.35934
2.81812 -0.150354 -1.35907
2.81803 -0.141457 -1.3588
2.81792 -0.132562 -1.35854
2.81779 -0.123671 -1.35828
2.81764 -0.114781 -1.35803
2.81747 -0.105894 -1.35778
2.81728 -0.0970091 -1.35753
2.81707 -0.0881268 -1.35729
2.81684 -0.0792478 -1.35706
2.81659 -0.0703706 -1.35682
2.81632 -0.0614959 -1.35659
2.81604 -0.0526238 -1.35637
2.81573 -0.0437542 -1.35615
2.81541 -0.0348879 -1.35593
2.81506 -0.0260234 -1.35572
2.8147 -0.0171615 -1.35551
2.81431 -0.0083022 -1.35531
2.81395 0.00055463 -1.35513
2.81435 0.00941148 -1.35533
2.81473 0.0182705 -1.35553
2.8151 0.0271325 -1.35574
2.81544 0.0359973 -1.35595
2.81576 0.0448647 -1.35617
2.81607 0.0537345 -1.35639
2.81635 0.0626062 -1.35662
2.81662 0.0714812 -1.35685
2.81686 0.0803586 -1.35708
2.81709 0.0892387 -1.35732
2.8173 0.0981214 -1.35756
2.81749 0.107006 -1.35781
2.81765 0.115893 -1.35806
2.8178 0.124783 -1.35831
2.81793 0.133676 -1.35857
2.81804 0.142571 -1.35883
2.81813 0.151469 -1.3591
2.8182 0.160368 -1.35937
2.81825 0.16927 -1.35965
2.81829 0.178175 -1.35992
2.8183 0.187083 -1.36021
2.81837 0.195998 -1.36054
2.81869 0.204935 -1.36099
2.81899 0.213877 -1.36145
2.81926 0.222824 -1.36192
2.81952 0.231775 -1.36239
2.81975 0.24073 -1.36286
2.81997 0.24969 -1.36334
2.82016 0.258654 -1.36382
2.82034 0.267623 -1.3643
2.82049 0.276597 -1.36479
2.82063 0.285575 -1.36529
2.82074 0.294558 -1.36579
2.82219 0.30369 -1.36694
2.82381 0.312857 -1.3682
2.82542 0.322039 -1.36946
2.827 0.331235 -1.37073
2.82857 0.340446 -1.372
2.83013 0.349672 -1.37328
2.83166 0.358912 -1.37456
2.83317 0.368167 -1.37586
2.83467 0.377437 -1.37715
2.83615 0.386721 -1.37846
2.83761 0.396021 -1.37977
2.83906 0.405334 -1.38108
2.84048 0.414663 -1.3824
2.84189 0.424007 -1.38373
2.84328 0.433365 -1.38506
2.84465 0.442739 -1.3864
2.84564 0.452069 -1.38757
2.84651 0.461397 -1.3887
2.84736 0.470736 -1.38983
2.8482 0.480087 -1.39097
2.84901 0.48945 -1.39211
2.84981 0.498825 -1.39326
2.85058 0.508211 -1.39441
2.85144 0.517627 -1.39562
2.85457 0.52748 -1.39796
2.85769 0.537363 -1.40031
2.86426 0.547938 -1.40437
2.87281 0.558949 -1.40941
2.88139 0.570036 -1.4145
2.89001 0.581199 -1.41962
2.89868 0.59244 -1.42479
2.90739 0.603758 -1.43
2.91615 0.615155 -1.43525
2.92494 0.626631 -1.44054
2.93379 0.638189 -1.44588
2.94268 0.649828 -1.45126
2.95161 0.66155 -1.45669
2.96059 0.673355 -1.46216
2.96962 0.685243 -1.46767
2.97869 0.697218 -1.47323
2.98967 0.709719 -1.47976
3.00405 0.723127 -1.488
3.01856 0.736678 -1.49633
3.03321 0.750374 -1.50475
3.048 0.76422 -1.51327
3.06293 0.778216 -1.52189
3.078 0.792366 -1.53061
3.09322 0.806671 -1.53944
3.19488 0.84393 -1.59134
2.83022 -0.549507 -1.41805
2.82196 -0.538692 -1.41305
2.81373 -0.52795 -1.4081
2.80982 -0.518068 -1.40532
2.80759 -0.508526 -1.4034
2.80688 -0.499279 -1.40225
2.80615 -0.490044 -1.40111
2.8054 -0.48082 -1.39997
2.80463 -0.471607 -1.39884
2.80361 -0.462368 -1.39759
2.80236 -0.453108 -1.39625
2.80109 -0.443861 -1.39492
2.7998 -0.434629 -1.39359
2.79849 -0.425411 -1.39226
2.79716 -0.416208 -1.39094
2.79582 -0.407019 -1.38963
2.79446 -0.397844 -1.38833
2.79308 -0.388683 -1.38703
2.79168 -0.379537 -1.38573
2.79026 -0.370404 -1.38444
2.78883 -0.361287 -1.38316
2.78737 -0.352183 -1.38188
2.7859 -0.343094 -1.38061
2.78441 -0.334018 -1.37935
2.78291 -0.324957 -1.37809
2.78139 -0.31591 -1.37683
2.77984 -0.306877 -1.37558
2.77828 -0.297858 -1.37434
2.77779 -0.288966 -1.37364
2.77769 -0.280122 -1.37315
2.77757 -0.271283 -1.37266
2.77743 -0.262448 -1.37218
2.77727 -0.253618 -1.3717
2.7771 -0.244791 -1.37122
2.7769 -0.235969 -1.37075
2.77668 -0.227151 -1.37028
2.7766 -0.218352 -1.3699
2.77667 -0.209567 -1.3696
2.77673 -0.200785 -1.36931
2.77676 -0.192005 -1.36902
2.77677 -0.183227 -1.36874
2.77677 -0.174453 -1.36846
2.77674 -0.16568 -1.36818
2.7767 -0.156909 -1.36791
2.77664 -0.148141 -1.36764
2.77655 -0.139375 -1.36738
2.77645 -0.130612 -1.36712
2.77633 -0.121851 -1.36686
2.77619 -0.113093 -1.36661
2.77603 -0.104336 -1.36637
2.77585 -0.0955825 -1.36612
2.77565 -0.0868311 -1.36588
2.77543 -0.0780829 -1.36565
2.77519 -0.0693363 -1.36542
2.77494 -0.0605922 -1.36519
2.77466 -0.0518506 -1.36497
2.77437 -0.0431114 -1.36475
2.77405 -0.0343755 -1.36453
2.77372 -0.0256413 -1.36432
2.77337 -0.0169095 -1.36412
2.77299 -0.00818031 -1.36392
2.77264 0.000546423 -1.36374
2.77303 0.00927327 -1.36394
2.7734 0.018002 -1.36414
2.77375 0.0267343 -1.36435
2.77408 0.0354688 -1.36456
2.7744 0.0442056 -1.36477
2.77469 0.0529451 -1.36499
2.77496 0.0616863 -1.36521
2.77522 0.0704307 -1.36544
2.77545 0.0791774 -1.36567
2.77567 0.0879267 -1.36591
2.77587 0.0966784 -1.36615
2.77604 0.105433 -1.36639
2.7762 0.114188 -1.36664
2.77634 0.122947 -1.36689
2.77646 0.131709 -1.36715
2.77656 0.140472 -1.36741
2.77664 0.149239 -1.36768
2.77671 0.158007 -1.36794
2.77675 0.166777 -1.36822
2.77677 0.175551 -1.36849
2.77677 0.184326 -1.36877
2.77676 0.193104 -1.36906
2.77672 0.201884 -1.36935
2.77667 0.210667 -1.36964
2.7766 0.219451 -1.36994
2.7767 0.228255 -1.37034
2.77692 0.237073 -1.37081
2.77711 0.245896 -1.37128
2.77729 0.254722 -1.37176
2.77745 0.263553 -1.37224
2.77759 0.272389 -1.37272
2.7777 0.281229 -1.37321
2.7778 0.290073 -1.3737
2.77843 0.298982 -1.37448
2.77999 0.308002 -1.37572
2.78153 0.317037 -1.37697
2.78306 0.326086 -1.37822
2.78456 0.335149 -1.37948
2.78605 0.344226 -1.38075
2.78752 0.353317 -1.38202
2.78897 0.362422 -1.3833
2.7904 0.371542 -1.38458
2.79182 0.380676 -1.38587
2.79321 0.389824 -1.38717
2.79459 0.398986 -1.38847
2.79595 0.408163 -1.38978
2.79729 0.417354 -1.39109
2.79862 0.426559 -1.39241
2.79992 0.435779 -1.39374
2.80121 0.445012 -1.39507
2.80248 0.45426 -1.3964
2.80373 0.463523 -1.39775
2.80471 0.472757 -1.39897
2.80548 0.481971 -1.4001
2.80622 0.491197 -1.40124
2.80695 0.500433 -1.40238
2.80766 0.509681 -1.40353
2.81012 0.519267 -1.40557
2.81455 0.529252 -1.40861
2.82278 0.540003 -1.41358
2.83105 0.550826 -1.41858
2.83936 0.561722 -1.42362
2.84771 0.572692 -1.4287
2.8561 0.583737 -1.43383
2.86453 0.594857 -1.43899
2.873 0.606054 -1.4442
2.88151 0.617326 -1.44944
2.89006 0.628678 -1.45473
2.89866 0.640108 -1.46007
2.9073 0.651618 -1.46544
2.91598 0.663208 -1.47086
2.9247 0.674879 -1.47633
2.93347 0.686633 -1.48184
2.94228 0.69847 -1.48739
2.95114 0.710391 -1.49299
2.96173 0.722808 -1.49949
2.97579 0.736168 -1.50778
2.98997 0.749671 -1.51615
3.00429 0.763318 -1.52462
3.01875 0.777112 -1.53319
3.03333 0.791054 -1.54186
3.13857 0.829056 -1.59667
2.78937 -0.541575 -1.42703
2.78137 -0.530944 -1.42208
2.7734 -0.520382 -1.41716
2.7664 -0.510063 -1.41276
2.7649 -0.500793 -1.41118
2.76423 -0.491693 -1.41004
2.76321 -0.482545 -1.40874
2.76208 -0.473394 -1.40739
2.76092 -0.464257 -1.40605
2.75975 -0.455135 -1.40472
2.75856 -0.446025 -1.40339
2.75735 -0.43693 -1.40207
2.75612 -0.427848 -1.40075
2.75487 -0.41878 -1.39944
2.75361 -0.409727 -1.39814
2.75233 -0.400687 -1.39684
2.75102 -0.39166 -1.39555
2.74971 -0.382648 -1.39426
2.74837 -0.373649 -1.39298
2.74701 -0.364663 -1.3917
2.74564 -0.355692 -1.39043
2.74425 -0.346734 -1.38917
2.74284 -0.33779 -1.38791
2.74141 -0.32886 -1.38666
2.73997 -0.319943 -1.38541
2.73851 -0.31104 -1.38417
2.73703 -0.30215 -1.38294
2.73587 -0.29331 -1.38188
2.7358 -0.284598 -1.38139
2.73572 -0.275889 -1.3809
2.73562 -0.267186 -1.38042
2.73549 -0.258485 -1.37994
2.73541 -0.249795 -1.37949
2.73557 -0.241131 -1.37918
2.73571 -0.232469 -1.37888
2.73583 -0.223809 -1.37857
2.73593 -0.215153 -1.37828
2.73601 -0.206498 -1.37798
2.73607 -0.197845 -1.37769
2.73611 -0.189194 -1.37741
2.73613 -0.180545 -1.37712
2.73613 -0.1719 -1.37685
2.73612 -0.163256 -1.37657
2.73608 -0.154614 -1.3763
2.73603 -0.145974 -1.37604
2.73595 -0.137337 -1.37578
2.73586 -0.128702 -1.37552
2.73575 -0.12007 -1.37527
2.73561 -0.11144 -1.37502
2.73546 -0.102812 -1.37477
2.73529 -0.0941861 -1.37453
2.73511 -0.0855627 -1.37429
2.7349 -0.0769425 -1.37406
2.73467 -0.0683239 -1.37383
2.73442 -0.0597076 -1.37361
2.73416 -0.0510937 -1.37339
2.73387 -0.0424822 -1.37317
2.73357 -0.0338738 -1.37296
2.73325 -0.0252671 -1.37275
2.73291 -0.0166628 -1.37254
2.73255 -0.00806099 -1.37234
2.7322 0.000538503 -1.37216
2.73258 0.00913806 -1.37236
2.73294 0.0177394 -1.37256
2.73328 0.026344 -1.37277
2.7336 0.034951 -1.37298
2.7339 0.0435603 -1.37319
2.73419 0.0521719 -1.37341
2.73445 0.0607855 -1.37363
2.73469 0.069402 -1.37386
2.73492 0.0780211 -1.37409
2.73512 0.0866423 -1.37432
2.73531 0.0952659 -1.37456
2.73548 0.103892 -1.3748
2.73563 0.11252 -1.37505
2.73576 0.12115 -1.3753
2.73587 0.129783 -1.37555
2.73596 0.138418 -1.37581
2.73603 0.147056 -1.37607
2.73608 0.155695 -1.37634
2.73612 0.164337 -1.37661
2.73613 0.172981 -1.37688
2.73613 0.181628 -1.37716
2.7361 0.190277 -1.37744
2.73606 0.198928 -1.37773
2.736 0.207581 -1.37802
2.73592 0.216236 -1.37831
2.73582 0.224894 -1.37861
2.7357 0.233554 -1.37892
2.73556 0.242216 -1.37922
2.7354 0.25088 -1.37953
2.73551 0.259574 -1.37999
2.73563 0.268274 -1.38047
2.73573 0.276979 -1.38096
2.73581 0.285688 -1.38145
2.73587 0.294402 -1.38194
2.73717 0.303257 -1.38307
2.73865 0.312149 -1.38431
2.74011 0.321054 -1.38555
2.74155 0.329972 -1.3868
2.74298 0.338904 -1.38805
2.74438 0.34785 -1.38931
2.74577 0.356809 -1.39057
2.74714 0.365782 -1.39184
2.7485 0.374769 -1.39312
2.74983 0.38377 -1.3944
2.75115 0.392784 -1.39569
2.75245 0.401812 -1.39698
2.75373 0.410854 -1.39828
2.75499 0.41991 -1.39959
2.75624 0.428979 -1.4009
2.75746 0.438062 -1.40222
2.75867 0.447159 -1.40354
2.75986 0.45627 -1.40487
2.76103 0.465395 -1.4062
2.76219 0.474534 -1.40754
2.76332 0.483687 -1.40889
2.7643 0.492828 -1.41017
2.76496 0.501929 -1.41131
2.76669 0.511242 -1.413
2.77419 0.521662 -1.41767
2.78216 0.532232 -1.42259
2.79017 0.542872 -1.42755
2.79821 0.553581 -1.43255
2.8063 0.564363 -1.43759
2.81442 0.575218 -1.44267
2.82258 0.586145 -1.44779
2.83077 0.597145 -1.45295
2.839 0.60822 -1.45815
2.84728 0.619371 -1.4634
2.85559 0.630598 -1.46868
2.86394 0.641901 -1.47401
2.87234 0.653283 -1.47938
2.88077 0.664742 -1.4848
2.88925 0.676281 -1.49025
2.89776 0.687901 -1.49576
2.90632 0.699602 -1.5013
2.91492 0.711385 -1.50689
2.92357 0.723249 -1.51253
2.93367 0.735553 -1.51895
2.94741 0.748864 -1.52727
2.96127 0.762315 -1.53569
2.97526 0.775909 -1.54421
3.08361 0.814537 -1.60176
3.22077 0.86162 -1.67441
2.75515 -0.534931 -1.43886
2.74858 -0.524684 -1.43456
2.74203 -0.514496 -1.43029
2.73686 -0.504615 -1.42675
2.73404 -0.495205 -1.42447
2.73144 -0.485861 -1.42231
2.72885 -0.476545 -1.42017
2.72626 -0.467255 -1.41805
2.72367 -0.457993 -1.41595
2.72108 -0.448758 -1.41386
2.7185 -0.439549 -1.41179
2.71592 -0.430365 -1.40974
2.71343 -0.421222 -1.40776
2.71225 -0.412301 -1.40646
2.71104 -0.403393 -1.40517
2.70982 -0.394498 -1.40389
2.70857 -0.385616 -1.40261
2.70731 -0.376748 -1.40133
2.70603 -0.367893 -1.40007
2.70474 -0.359051 -1.3988
2.70342 -0.350223 -1.39755
2.70209 -0.341408 -1.3963
2.70074 -0.332606 -1.39505
2.69938 -0.323817 -1.39381
2.69799 -0.315041 -1.39258
2.69659 -0.306279 -1.39135
2.69517 -0.297529 -1.39013
2.69478 -0.288905 -1.38945
2.69473 -0.280325 -1.38896
2.69495 -0.271778 -1.38863
2.69518 -0.263236 -1.38831
2.69538 -0.254695 -1.38799
2.69556 -0.246156 -1.38768
2.69572 -0.237619 -1.38738
2.69587 -0.229084 -1.38707
2.69599 -0.220551 -1.38677
2.6961 -0.212021 -1.38648
2.69619 -0.203492 -1.38618
2.69625 -0.194966 -1.3859
2.6963 -0.186441 -1.38561
2.69633 -0.177919 -1.38533
2.69634 -0.1694 -1.38506
2.69633 -0.160882 -1.38479
2.69631 -0.152366 -1.38452
2.69626 -0.143853 -1.38426
2.69619 -0.135341 -1.384
2.69611 -0.126832 -1.38374
2.69601 -0.118326 -1.38349
2.69588 -0.109821 -1.38325
2.69574 -0.101319 -1.383
2.69558 -0.0928186 -1.38276
2.6954 -0.0843207 -1.38253
2.6952 -0.0758258 -1.3823
2.69499 -0.0673324 -1.38207
2.69475 -0.0588413 -1.38185
2.6945 -0.0503525 -1.38163
2.69422 -0.041866 -1.38141
2.69393 -0.0333826 -1.3812
2.69362 -0.0249008 -1.381
2.69329 -0.0164213 -1.38079
2.69294 -0.00794414 -1.38059
2.6926 0.000530546 -1.38042
2.69297 0.0090057 -1.38061
2.69332 0.0174824 -1.38081
2.69365 0.0259619 -1.38102
2.69396 0.0344441 -1.38122
2.69425 0.0429285 -1.38144
2.69452 0.0514153 -1.38165
2.69477 0.0599037 -1.38187
2.69501 0.0683951 -1.38209
2.69522 0.0768887 -1.38232
2.69542 0.0853846 -1.38255
2.6956 0.0938828 -1.38279
2.69576 0.102383 -1.38303
2.6959 0.110885 -1.38327
2.69602 0.11939 -1.38352
2.69612 0.127898 -1.38377
2.6962 0.136407 -1.38403
2.69626 0.144918 -1.38429
2.69631 0.153432 -1.38455
2.69634 0.161948 -1.38482
2.69634 0.170466 -1.38509
2.69633 0.178986 -1.38537
2.6963 0.187509 -1.38565
2.69625 0.196033 -1.38593
2.69618 0.20456 -1.38622
2.69609 0.213088 -1.38651
2.69598 0.221619 -1.38681
2.69585 0.230153 -1.38711
2.69571 0.238688 -1.38742
2.69554 0.247224 -1.38772
2.69536 0.255764 -1.38804
2.69515 0.264305 -1.38835
2.69493 0.272849 -1.38867
2.69473 0.281399 -1.38902
2.69478 0.28998 -1.38951
2.6953 0.298619 -1.39026
2.69672 0.30737 -1.39148
2.69812 0.316134 -1.39271
2.6995 0.324912 -1.39394
2.70087 0.333702 -1.39518
2.70222 0.342505 -1.39643
2.70355 0.351322 -1.39768
2.70486 0.360152 -1.39894
2.70616 0.368996 -1.4002
2.70743 0.377853 -1.40147
2.70869 0.386722 -1.40275
2.70993 0.395605 -1.40403
2.71115 0.404501 -1.40531
2.71236 0.413411 -1.4066
2.71362 0.422346 -1.40794
2.7162 0.431506 -1.40998
2.71878 0.440693 -1.41203
2.72136 0.449905 -1.4141
2.72395 0.459144 -1.41619
2.72654 0.46841 -1.41829
2.72913 0.477703 -1.42042
2.73173 0.487022 -1.42256
2.73433 0.496369 -1.42472
2.73724 0.505801 -1.42706
2.7427 0.515741 -1.43074
2.74925 0.525936 -1.43502
2.75583 0.536191 -1.43933
2.76245 0.546505 -1.44367
2.76909 0.556881 -1.44805
2.77577 0.56732 -1.45247
2.78249 0.57782 -1.45693
2.78943 0.588424 -1.46153
2.79739 0.599306 -1.46668
2.8054 0.610261 -1.47188
2.81344 0.621289 -1.47712
2.82152 0.632393 -1.4824
2.82964 0.643571 -1.48772
2.83779 0.654824 -1.49308
2.84598 0.666155 -1.49849
2.85421 0.677563 -1.50394
2.86248 0.689049 -1.50943
2.87079 0.700615 -1.51497
2.87914 0.71226 -1.52055
2.88753 0.723987 -1.52617
2.89597 0.735795 -1.53185
2.90549 0.747955 -1.53812
2.91891 0.761213 -1.54649
3.0301 0.800404 -1.60672
3.16604 0.846978 -1.68021
2.74063 -0.532112 -1.46071
2.73467 -0.522029 -1.45664
2.73112 -0.512449 -1.45389
2.72758 -0.502905 -1.45115
2.72476 -0.493523 -1.44882
2.72218 -0.484214 -1.44663
2.71961 -0.474931 -1.44446
2.71704 -0.465676 -1.44231
2.71447 -0.456447 -1.44018
2.71191 -0.447246 -1.43807
2.70935 -0.438069 -1.43597
2.70679 -0.428919 -1.43389
2.70424 -0.419794 -1.43183
2.70169 -0.410695 -1.42979
2.69914 -0.401622 -1.42777
2.69659 -0.392573 -1.42576
2.69405 -0.383549 -1.42377
2.69151 -0.374549 -1.42179
2.68897 -0.365573 -1.41984
2.68643 -0.356621 -1.4179
2.6839 -0.347694 -1.41598
2.68137 -0.33879 -1.41407
2.67884 -0.329908 -1.41219
2.67631 -0.32105 -1.41032
2.67379 -0.312215 -1.40846
2.67127 -0.303403 -1.40662
2.66958 -0.294704 -1.40524
2.66885 -0.286125 -1.40437
2.66812 -0.277557 -1.40352
2.66739 -0.268998 -1.40268
2.66665 -0.26045 -1.40186
2.66591 -0.25191 -1.40105
2.66517 -0.24338 -1.40025
2.66443 -0.23486 -1.39946
2.66368 -0.226348 -1.39869
2.66293 -0.217846 -1.39793
2.66218 -0.209353 -1.39718
2.66143 -0.200869 -1.39645
2.66067 -0.192393 -1.39573
2.65991 -0.183925 -1.39502
2.65915 -0.175465 -1.39432
2.65838 -0.167015 -1.39364
2.65762 -0.158572 -1.39297
2.65735 -0.150165 -1.39257
2.65731 -0.141774 -1.39231
2.65725 -0.133386 -1.39205
2.65718 -0.125001 -1.3918
2.65708 -0.116618 -1.39155
2.65697 -0.108236 -1.39131
2.65683 -0.0998565 -1.39107
2.65668 -0.0914792 -1.39083
2.65651 -0.0831041 -1.3906
2.65632 -0.0747319 -1.39037
2.65612 -0.0663612 -1.39014
2.65589 -0.0579927 -1.38992
2.65564 -0.0496265 -1.3897
2.65538 -0.0412625 -1.38949
2.6551 -0.0329014 -1.38928
2.65479 -0.0245419 -1.38908
2.65447 -0.0161846 -1.38887
2.65413 -0.00782968 -1.38868
2.65381 0.000522679 -1.3885
2.65417 0.00887573 -1.3887
2.65451 0.0172302 -1.38889
2.65482 0.0255878 -1.3891
2.65512 0.0339476 -1.3893
2.6554 0.0423096 -1.38951
2.65567 0.0506738 -1.38973
2.65591 0.0590397 -1.38994
2.65613 0.0674086 -1.39017
2.65634 0.0757796 -1.39039
2.65653 0.0841525 -1.39062
2.6567 0.0925281 -1.39085
2.65685 0.100906 -1.39109
2.65698 0.109284 -1.39133
2.65709 0.117666 -1.39158
2.65718 0.12605 -1.39183
2.65726 0.134437 -1.39208
2.65731 0.142825 -1.39234
2.65735 0.151215 -1.3926
2.6577 0.159627 -1.39304
2.65847 0.168071 -1.39372
2.65923 0.176524 -1.3944
2.66 0.184984 -1.3951
2.66075 0.193452 -1.39581
2.66151 0.20193 -1.39653
2.66227 0.210415 -1.39727
2.66302 0.21891 -1.39802
2.66377 0.227413 -1.39878
2.66451 0.235926 -1.39956
2.66526 0.244447 -1.40034
2.666 0.252978 -1.40115
2.66674 0.261519 -1.40196
2.66747 0.270069 -1.40279
2.66821 0.278629 -1.40363
2.66894 0.287199 -1.40448
2.66967 0.295779 -1.40535
2.67153 0.304499 -1.40682
2.67405 0.313314 -1.40866
2.67658 0.322152 -1.41052
2.6791 0.331013 -1.41239
2.68163 0.339896 -1.41428
2.68417 0.348803 -1.41619
2.6867 0.357734 -1.41812
2.68924 0.366689 -1.42006
2.69178 0.375668 -1.42202
2.69432 0.38467 -1.42399
2.69686 0.393697 -1.42598
2.69941 0.402749 -1.42799
2.70196 0.411826 -1.43002
2.70451 0.420929 -1.43207
2.70707 0.430056 -1.43413
2.70963 0.439209 -1.43621
2.71219 0.448389 -1.43831
2.71475 0.457595 -1.44043
2.71732 0.466827 -1.44256
2.71989 0.476085 -1.44471
2.72247 0.48537 -1.44688
2.72504 0.494683 -1.44907
2.72796 0.504086 -1.45146
2.7315 0.513635 -1.4542
2.73505 0.523219 -1.45696
2.7413 0.533364 -1.46117
2.74784 0.543615 -1.46556
2.75441 0.553928 -1.46999
2.76101 0.564301 -1.47445
2.76764 0.574737 -1.47895
2.77431 0.585235 -1.48349
2.78101 0.595795 -1.48807
2.78774 0.60642 -1.49269
2.79451 0.617109 -1.49734
2.80132 0.627864 -1.50204
2.80816 0.638686 -1.50678
2.81503 0.649572 -1.51156
2.82194 0.660528 -1.51638
2.82889 0.671552 -1.52124
2.83588 0.682645 -1.52614
2.8429 0.693808 -1.53109
2.84996 0.705041 -1.53608
2.85706 0.716346 -1.54112
2.8642 0.727724 -1.54619
2.87138 0.739175 -1.55132
2.8786 0.7507 -1.55649
2.97799 0.786638 -1.61156
3.11268 0.832705 -1.68586
3.24523 0.879117 -1.75914
2.72884 -0.529823 -1.48398
2.72531 -0.520243 -1.48116
2.7218 -0.5107 -1.47837
2.71829 -0.501192 -1.4756
2.71546 -0.491839 -1.47322
2.71291 -0.482563 -1.471
2.71036 -0.473315 -1.4688
2.70781 -0.464094 -1.46662
2.70526 -0.454898 -1.46446
2.70272 -0.44573 -1.46232
2.70018 -0.436588 -1.4602
2.69765 -0.42747 -1.45809
2.69512 -0.418378 -1.456
2.69259 -0.409312 -1.45393
2.69006 -0.400271 -1.45188
2.68753 -0.391254 -1.44985
2.68501 -0.382262 -1.44783
2.68249 -0.373294 -1.44583
2.67997 -0.36435 -1.44385
2.67746 -0.35543 -1.44188
2.67495 -0.346534 -1.43993
2.67244 -0.337661 -1.438
2.66993 -0.328811 -1.43609
2.66742 -0.319983 -1.43419
2.66517 -0.311208 -1.43245
2.66371 -0.302545 -1.43115
2.66247 -0.29392 -1.42998
2.66175 -0.285364 -1.4291
2.66102 -0.276818 -1.42823
2.6603 -0.268283 -1.42738
2.65957 -0.259758 -1.42655
2.65883 -0.251241 -1.42572
2.6581 -0.242735 -1.42491
2.65736 -0.234237 -1.42411
2.65662 -0.225748 -1.42333
2.65588 -0.217269 -1.42256
2.65513 -0.208799 -1.4218
2.65438 -0.200337 -1.42106
2.65363 -0.191884 -1.42032
2.65288 -0.183439 -1.4196
2.65212 -0.175002 -1.4189
