ply
format ascii 1.0
comment Created by Open3D
element vertex 1865
property double x
property double y
property double z
end_header
2.80034 -2.70838 -1.16633
2.80403 -2.69488 -1.16431
2.80768 -2.68142 -1.16232
2.8113 -2.66799 -1.16033
2.81489 -2.65458 -1.15835
2.81849 -2.64124 -1.1564
2.82208 -2.62795 -1.15447
2.82565 -2.61469 -1.15255
2.82919 -2.60145 -1.15064
2.8327 -2.58825 -1.14875
2.83618 -2.57507 -1.14686
2.83963 -2.56192 -1.14498
2.84305 -2.5488 -1.14312
2.84645 -2.5357 -1.14127
2.84981 -2.52263 -1.13942
2.85315 -2.50959 -1.13759
2.85699 -2.49704 -1.13597
2.86231 -2.48582 -1.13497
2.86761 -2.47461 -1.13397
2.87288 -2.4634 -1.13298
2.87813 -2.4522 -1.132
2.88336 -2.44101 -1.13102
2.88857 -2.42982 -1.13005
2.89374 -2.41865 -1.12909
2.8989 -2.40747 -1.12813
2.90403 -2.39631 -1.12719
2.90914 -2.38515 -1.12624
2.91423 -2.374 -1.12531
2.91929 -2.36285 -1.12438
2.92433 -2.35171 -1.12346
2.92935 -2.34058 -1.12255
2.93434 -2.32945 -1.12164
2.93965 -2.3186 -1.12088
2.94534 -2.30807 -1.12027
2.95101 -2.29753 -1.11966
2.95666 -2.28699 -1.11906
2.96228 -2.27645 -1.11847
2.96788 -2.26591 -1.11788
2.97346 -2.25537 -1.1173
2.97901 -2.24482 -1.11672
2.98454 -2.23427 -1.11615
2.99029 -2.2239 -1.11567
2.99677 -2.21409 -1.11548
3.00323 -2.20426 -1.11529
3.00967 -2.19442 -1.11511
3.0161 -2.18458 -1.11494
3.02252 -2.17474 -1.11477
3.02892 -2.16489 -1.11461
3.03531 -2.15503 -1.11445
3.04167 -2.14516 -1.1143
3.04802 -2.13528 -1.11415
3.05435 -2.12539 -1.11401
3.06066 -2.1155 -1.11388
3.06695 -2.10559 -1.11375
3.07323 -2.09567 -1.11362
3.07948 -2.08575 -1.1135
3.08572 -2.07582 -1.11338
3.09194 -2.06587 -1.11327
3.09815 -2.05592 -1.11317
3.10433 -2.04596 -1.11307
3.1105 -2.03599 -1.11297
3.11664 -2.02601 -1.11288
3.12277 -2.01602 -1.11279
3.12889 -2.00602 -1.11271
3.13498 -1.99601 -1.11264
3.14106 -1.98599 -1.11257
3.14711 -1.97596 -1.1125
3.15315 -1.96592 -1.11244
3.16121 -1.95713 -1.1131
3.1693 -1.94835 -1.11378
3.1774 -1.93955 -1.11447
3.18549 -1.93073 -1.11517
3.19362 -1.92192 -1.11589
3.20265 -1.91363 -1.11693
3.21169 -1.90532 -1.11798
3.22072 -1.89698 -1.11904
3.22976 -1.88861 -1.12011
3.2388 -1.88022 -1.12118
2.68501 -3.11955 -1.2696
2.68305 -3.09747 -1.26405
2.68122 -3.07572 -1.25861
2.67939 -3.05413 -1.25323
2.68009 -3.03556 -1.24907
2.68196 -3.01845 -1.2455
2.6838 -3.00141 -1.24195
2.68561 -2.98445 -1.23843
2.6874 -2.96757 -1.23494
2.68916 -2.95076 -1.23147
2.69089 -2.93403 -1.22802
2.69259 -2.91738 -1.22459
2.69427 -2.9008 -1.22119
2.69592 -2.88429 -1.21781
2.69755 -2.86785 -1.21446
2.69942 -2.85178 -1.21125
2.70235 -2.83691 -1.20854
2.70525 -2.82209 -1.20586
2.70812 -2.80732 -1.20319
2.71096 -2.79259 -1.20053
2.71416 -2.7783 -1.19806
2.71813 -2.76488 -1.19596
2.72208 -2.75149 -1.19388
2.72599 -2.73812 -1.1918
2.72987 -2.72479 -1.18974
2.73372 -2.71148 -1.18768
2.73754 -2.69821 -1.18564
2.74133 -2.68496 -1.18361
2.7451 -2.67174 -1.18159
2.74883 -2.65855 -1.17959
2.75253 -2.64539 -1.17759
2.7562 -2.63226 -1.17561
2.75984 -2.61915 -1.17363
2.76345 -2.60607 -1.17167
2.76705 -2.59303 -1.16972
2.77066 -2.58006 -1.16781
2.77425 -2.56712 -1.1659
2.7778 -2.55421 -1.16401
2.78133 -2.54132 -1.16212
2.78483 -2.52845 -1.16025
2.7883 -2.51562 -1.15838
2.79175 -2.5028 -1.15653
2.79668 -2.49137 -1.15532
2.80203 -2.48034 -1.15429
2.80736 -2.46932 -1.15327
2.81266 -2.4583 -1.15226
2.81794 -2.44729 -1.15126
2.8232 -2.43628 -1.15026
2.82843 -2.42528 -1.14927
2.83364 -2.41429 -1.14829
2.83882 -2.4033 -1.14732
2.84398 -2.39232 -1.14635
2.84912 -2.38135 -1.14539
2.85423 -2.37038 -1.14443
2.85932 -2.35942 -1.14349
2.86439 -2.34846 -1.14255
2.86943 -2.33751 -1.14161
2.87446 -2.32656 -1.14069
2.87945 -2.31562 -1.13977
2.88443 -2.30469 -1.13886
2.88938 -2.29376 -1.13795
2.89431 -2.28284 -1.13705
2.89922 -2.27192 -1.13616
2.9041 -2.26101 -1.13528
2.90897 -2.25011 -1.1344
2.91383 -2.23922 -1.13354
2.91867 -2.22834 -1.13268
2.92386 -2.21775 -1.13198
2.92946 -2.20748 -1.13145
2.93524 -2.19737 -1.131
2.94103 -2.18727 -1.13057
2.94742 -2.17763 -1.13038
2.9538 -2.16798 -1.1302
2.96016 -2.15832 -1.13003
2.9665 -2.14866 -1.12986
2.97283 -2.13898 -1.12969
2.97913 -2.1293 -1.12953
2.98542 -2.11961 -1.12937
2.99169 -2.1099 -1.12922
2.99794 -2.10019 -1.12908
3.00417 -2.09047 -1.12894
3.01038 -2.08074 -1.1288
3.01658 -2.071 -1.12867
3.02275 -2.06125 -1.12855
3.02891 -2.0515 -1.12843
3.03505 -2.04173 -1.12831
3.04118 -2.03195 -1.1282
3.04728 -2.02217 -1.1281
3.05337 -2.01237 -1.128
3.05944 -2.00257 -1.1279
3.06549 -1.99275 -1.12781
3.07152 -1.98293 -1.12772
3.07754 -1.9731 -1.12764
3.0836 -1.96329 -1.12759
3.09157 -1.9547 -1.12825
3.09955 -1.94609 -1.12891
3.10751 -1.93747 -1.12958
3.11547 -1.92882 -1.13026
3.12342 -1.92015 -1.13094
3.13137 -1.91146 -1.13164
3.13997 -1.90315 -1.13257
3.14883 -1.89497 -1.13361
3.1577 -1.88677 -1.13465
3.16656 -1.87855 -1.1357
3.18181 -1.87406 -1.13905
3.19812 -1.87011 -1.14277
3.21453 -1.86613 -1.14652
2.62483 -3.10861 -1.29211
2.62318 -3.08686 -1.2865
2.62169 -3.06548 -1.28103
2.621 -3.04518 -1.27599
2.62309 -3.02826 -1.27236
2.62516 -3.0114 -1.26875
2.62719 -2.99463 -1.26516
2.6292 -2.97792 -1.2616
2.63117 -2.96129 -1.25806
2.63312 -2.94474 -1.25455
2.63504 -2.92826 -1.25106
2.63694 -2.91185 -1.2476
2.6388 -2.89551 -1.24415
2.64064 -2.87924 -1.24074
2.64245 -2.86305 -1.23734
2.64423 -2.84692 -1.23397
2.64599 -2.83087 -1.23062
2.64769 -2.81485 -1.22728
2.64926 -2.79878 -1.22391
2.65104 -2.78305 -1.22067
2.65449 -2.76913 -1.21823
2.65804 -2.7554 -1.21587
2.66163 -2.74177 -1.21355
2.66519 -2.72818 -1.21125
2.66872 -2.71462 -1.20896
2.67223 -2.7011 -1.20669
2.67599 -2.68791 -1.20455
2.67989 -2.6749 -1.2025
2.68375 -2.66192 -1.20047
2.68759 -2.64897 -1.19844
2.6914 -2.63605 -1.19643
2.69517 -2.62315 -1.19442
2.69892 -2.61028 -1.19243
2.70264 -2.59744 -1.19045
2.70632 -2.58462 -1.18848
2.70998 -2.57183 -1.18652
2.71361 -2.55907 -1.18457
2.71721 -2.54633 -1.18264
2.72083 -2.53366 -1.18073
2.72443 -2.52102 -1.17884
2.728 -2.50841 -1.17696
2.73216 -2.49639 -1.17535
2.73756 -2.48554 -1.1743
2.74294 -2.47469 -1.17325
2.7483 -2.46385 -1.17221
2.75363 -2.45302 -1.17118
2.75894 -2.44219 -1.17016
2.76422 -2.43137 -1.16914
2.76948 -2.42055 -1.16814
2.77471 -2.40974 -1.16713
2.77992 -2.39894 -1.16614
2.78511 -2.38814 -1.16515
2.79028 -2.37735 -1.16417
2.79544 -2.36658 -1.16321
2.80057 -2.35581 -1.16225
2.80569 -2.34504 -1.1613
2.81077 -2.33429 -1.16035
2.81584 -2.32353 -1.15941
2.82088 -2.31279 -1.15848
2.8259 -2.30204 -1.15756
2.8309 -2.29131 -1.15664
2.83587 -2.28057 -1.15573
2.84082 -2.26985 -1.15482
2.84575 -2.25912 -1.15393
2.85066 -2.2484 -1.15304
2.85554 -2.23769 -1.15215
2.8604 -2.22698 -1.15128
2.86559 -2.21655 -1.15054
2.87117 -2.20644 -1.14999
2.87673 -2.19632 -1.14944
2.88227 -2.18621 -1.14889
2.8878 -2.17609 -1.14835
2.8933 -2.16597 -1.14782
2.89884 -2.15589 -1.14732
2.90452 -2.14593 -1.14688
2.91018 -2.13596 -1.14645
2.91582 -2.12599 -1.14603
2.92144 -2.11602 -1.14561
2.92705 -2.10604 -1.1452
2.93263 -2.09607 -1.1448
2.9382 -2.08608 -1.1444
2.94375 -2.0761 -1.144
2.94928 -2.06611 -1.14362
2.95536 -2.05651 -1.14345
2.96148 -2.04694 -1.14332
2.96758 -2.03736 -1.14319
2.97366 -2.02778 -1.14306
2.97973 -2.01818 -1.14294
2.98577 -2.00858 -1.14283
2.9918 -1.99896 -1.14272
2.99781 -1.98934 -1.14261
3.00381 -1.97971 -1.14251
3.00978 -1.97006 -1.14242
3.01595 -1.96055 -1.14241
3.02381 -1.95213 -1.14305
3.03166 -1.94368 -1.14369
3.0395 -1.93522 -1.14435
3.04734 -1.92673 -1.145
3.05517 -1.91823 -1.14567
3.06299 -1.90971 -1.14634
3.07081 -1.90117 -1.14702
3.07897 -1.89282 -1.14783
3.08766 -1.88478 -1.14885
3.09749 -1.8774 -1.1503
3.11324 -1.87355 -1.15395
3.12909 -1.86968 -1.15763
3.14503 -1.86577 -1.16135
3.16107 -1.86184 -1.1651
3.1772 -1.85788 -1.16888
3.19343 -1.85389 -1.17269
2.5646 -3.03729 -1.29893
2.56689 -3.02062 -1.29526
2.56914 -3.00403 -1.29161
2.57136 -2.9875 -1.28799
2.57355 -2.97106 -1.28439
2.57571 -2.95468 -1.28081
2.57784 -2.93838 -1.27726
2.57995 -2.92214 -1.27373
2.582 -2.90596 -1.27022
2.58391 -2.88971 -1.26667
2.5858 -2.87353 -1.26315
2.58765 -2.85743 -1.25965
2.58948 -2.84139 -1.25617
2.59128 -2.82543 -1.25272
2.59306 -2.80953 -1.24929
2.5948 -2.79371 -1.24588
2.59769 -2.77919 -1.24305
2.60124 -2.76547 -1.24058
2.60477 -2.75179 -1.23812
2.60827 -2.73815 -1.23567
2.61174 -2.72454 -1.23324
2.61527 -2.71106 -1.23086
2.61888 -2.69773 -1.22855
2.62247 -2.68444 -1.22626
2.62602 -2.67119 -1.22398
2.62955 -2.65796 -1.22171
2.63305 -2.64477 -1.21946
2.63652 -2.63162 -1.21722
2.63997 -2.61849 -1.21499
2.64339 -2.6054 -1.21278
2.64678 -2.59235 -1.21058
2.65014 -2.57933 -1.20839
2.65348 -2.56634 -1.20622
2.65679 -2.55338 -1.20406
2.66007 -2.54045 -1.20191
2.66333 -2.52756 -1.19978
2.66656 -2.5147 -1.19766
2.66976 -2.50187 -1.19555
2.67439 -2.49041 -1.1941
2.67964 -2.47958 -1.19295
2.68506 -2.46893 -1.19189
2.69045 -2.45828 -1.19084
2.69583 -2.44764 -1.1898
2.70118 -2.43701 -1.18876
2.7065 -2.42638 -1.18773
2.7118 -2.41576 -1.18671
2.71708 -2.40514 -1.1857
2.72233 -2.39453 -1.18469
2.72756 -2.38392 -1.18369
2.73277 -2.37332 -1.1827
2.73795 -2.36272 -1.18171
2.74311 -2.35213 -1.18073
2.74825 -2.34154 -1.17976
2.75337 -2.33096 -1.17879
2.75846 -2.32038 -1.17784
2.76352 -2.3098 -1.17689
2.76857 -2.29924 -1.17594
2.77359 -2.28867 -1.17501
2.77859 -2.27811 -1.17408
2.78357 -2.26756 -1.17315
2.78852 -2.25701 -1.17224
2.79346 -2.24646 -1.17133
2.79837 -2.23592 -1.17042
2.80325 -2.22539 -1.16953
2.80845 -2.21512 -1.16878
2.81403 -2.20517 -1.1682
2.8196 -2.19521 -1.16763
2.82514 -2.18526 -1.16707
2.83066 -2.17531 -1.16651
2.83616 -2.16535 -1.16596
2.84165 -2.15539 -1.16542
2.84711 -2.14543 -1.16488
2.85256 -2.13547 -1.16435
2.85798 -2.12551 -1.16382
2.86339 -2.11554 -1.1633
2.86886 -2.10563 -1.16282
2.87443 -2.09582 -1.1624
2.87999 -2.086 -1.16198
2.88553 -2.07617 -1.16157
2.89105 -2.06635 -1.16116
2.89656 -2.05652 -1.16076
2.90204 -2.04668 -1.16037
2.90751 -2.03684 -1.15998
2.91296 -2.027 -1.1596
2.91839 -2.01716 -1.15923
2.9238 -2.00731 -1.15886
2.92919 -1.99745 -1.15849
2.93457 -1.9876 -1.15814
2.93993 -1.97774 -1.15779
2.94527 -1.96787 -1.15744
2.95085 -1.95818 -1.1572
2.95824 -1.94967 -1.15768
2.96569 -1.9412 -1.1582
2.97328 -1.93281 -1.15878
2.981 -1.92449 -1.15942
2.98872 -1.91615 -1.16006
2.99642 -1.90779 -1.16072
3.00413 -1.89941 -1.16137
3.01182 -1.89102 -1.16204
3.01956 -1.88263 -1.16273
3.03135 -1.87674 -1.16498
3.04667 -1.87296 -1.1686
3.06208 -1.86916 -1.17224
3.07757 -1.86533 -1.17592
3.09316 -1.86147 -1.17963
3.10884 -1.85758 -1.18337
3.12461 -1.85366 -1.18714
3.14048 -1.84972 -1.19095
3.15644 -1.84574 -1.19479
3.1725 -1.84173 -1.19866
2.51609 -2.97984 -1.31034
2.51834 -2.96349 -1.30663
2.52055 -2.94722 -1.30296
2.52274 -2.93101 -1.2993
2.52489 -2.91488 -1.29567
2.52701 -2.89882 -1.29207
2.52911 -2.88283 -1.28848
2.53118 -2.8669 -1.28493
2.53321 -2.85105 -1.28139
2.53522 -2.83526 -1.27788
2.53721 -2.81953 -1.27439
2.53916 -2.80388 -1.27093
2.54136 -2.78858 -1.26762
2.54505 -2.77502 -1.2651
2.54872 -2.7615 -1.26259
2.55237 -2.74801 -1.2601
2.55598 -2.73456 -1.25762
2.55956 -2.72115 -1.25515
2.56311 -2.70778 -1.2527
2.56664 -2.69444 -1.25027
2.57014 -2.68113 -1.24785
2.57363 -2.66789 -1.24546
2.57726 -2.65486 -1.24316
2.58087 -2.64186 -1.24087
2.58444 -2.62889 -1.2386
2.58799 -2.61595 -1.23635
2.59151 -2.60305 -1.2341
2.59501 -2.59017 -1.23187
2.59847 -2.57733 -1.22965
2.60191 -2.56452 -1.22745
2.60532 -2.55175 -1.22526
2.60871 -2.539 -1.22308
2.61206 -2.52628 -1.22091
2.6154 -2.5136 -1.21876
2.6187 -2.50094 -1.21662
2.62349 -2.48975 -1.2152
2.6284 -2.47871 -1.21384
2.63328 -2.46767 -1.2125
2.63813 -2.45665 -1.21116
2.64296 -2.44564 -1.20983
2.64777 -2.43464 -1.20852
2.65256 -2.42365 -1.20721
2.65732 -2.41268 -1.20591
2.66206 -2.40172 -1.20462
2.66677 -2.39076 -1.20333
2.67147 -2.37983 -1.20206
2.67634 -2.36908 -1.20089
2.68155 -2.35865 -1.19988
2.68673 -2.34823 -1.19888
2.6919 -2.33782 -1.19789
2.69704 -2.32741 -1.19691
2.70215 -2.317 -1.19593
2.70725 -2.3066 -1.19496
2.71232 -2.29621 -1.194
2.71737 -2.28581 -1.19305
2.72239 -2.27543 -1.1921
2.7274 -2.26504 -1.19115
2.73238 -2.25466 -1.19022
2.73733 -2.24429 -1.18929
2.74227 -2.23392 -1.18837
2.74718 -2.22355 -1.18746
2.75241 -2.21346 -1.1867
2.75799 -2.20367 -1.1861
2.76355 -2.19387 -1.18551
2.7691 -2.18408 -1.18493
2.77462 -2.17428 -1.18435
2.78012 -2.16448 -1.18378
2.7856 -2.15468 -1.18322
2.79107 -2.14488 -1.18266
2.79651 -2.13507 -1.18211
2.80194 -2.12527 -1.18157
2.80734 -2.11546 -1.18103
2.81273 -2.10565 -1.1805
2.8181 -2.09584 -1.17997
2.82345 -2.08603 -1.17945
2.82878 -2.07622 -1.17894
2.83409 -2.0664 -1.17843
2.83948 -2.05666 -1.17798
2.84496 -2.04698 -1.17756
2.85042 -2.0373 -1.17716
2.85586 -2.02762 -1.17676
2.86128 -2.01793 -1.17637
2.86668 -2.00824 -1.17598
2.87207 -1.99855 -1.1756
2.87743 -1.98885 -1.17522
2.88278 -1.97915 -1.17485
2.88811 -1.96944 -1.17449
2.89343 -1.95973 -1.17413
2.90006 -1.95092 -1.17433
2.90692 -1.94225 -1.17462
2.91396 -1.93369 -1.17499
2.92131 -1.92534 -1.1755
2.92865 -1.91696 -1.17602
2.93598 -1.90857 -1.17654
2.94331 -1.90016 -1.17707
2.95063 -1.89173 -1.17761
2.95795 -1.88329 -1.17815
2.96715 -1.87603 -1.17946
2.98055 -1.87138 -1.18243
2.99426 -1.86686 -1.18553
3.01092 -1.86409 -1.1898
3.02722 -1.861 -1.19391
3.04247 -1.85719 -1.19761
3.0578 -1.85335 -1.20134
3.07323 -1.84947 -1.20511
3.08875 -1.84557 -1.2089
3.10435 -1.84164 -1.21273
3.12005 -1.83768 -1.2166
3.13584 -1.8337 -1.2205
3.15173 -1.82968 -1.22443
2.46814 -2.92304 -1.32085
2.47047 -2.90716 -1.31718
2.47278 -2.89135 -1.31355
2.47505 -2.87561 -1.30993
2.47729 -2.85994 -1.30634
2.47951 -2.84432 -1.30278
2.48169 -2.82878 -1.29923
2.48385 -2.8133 -1.29571
2.48598 -2.79788 -1.29221
2.48932 -2.78392 -1.28938
2.49313 -2.77055 -1.28683
2.49691 -2.75722 -1.28428
2.50066 -2.74393 -1.28176
2.50438 -2.73067 -1.27925
2.50807 -2.71745 -1.27675
2.51173 -2.70426 -1.27427
2.51536 -2.69111 -1.2718
2.51897 -2.678 -1.26935
2.52254 -2.66492 -1.26691
2.52609 -2.65187 -1.26449
2.52961 -2.63886 -1.26208
2.5331 -2.62588 -1.25969
2.53672 -2.6131 -1.25738
2.54034 -2.60038 -1.25511
2.54394 -2.58769 -1.25285
2.5475 -2.57503 -1.2506
2.55104 -2.5624 -1.24837
2.55455 -2.5498 -1.24615
2.55804 -2.53723 -1.24394
2.56149 -2.52469 -1.24174
2.56492 -2.51218 -1.23956
2.56835 -2.49972 -1.2374
2.57333 -2.48881 -1.23601
2.57827 -2.47792 -1.23463
2.5832 -2.46703 -1.23326
2.58809 -2.45616 -1.23189
2.59297 -2.4453 -1.23054
2.59782 -2.43445 -1.22919
2.60265 -2.42361 -1.22786
2.60746 -2.41278 -1.22653
2.61224 -2.40197 -1.22521
2.617 -2.39116 -1.2239
2.62173 -2.38037 -1.2226
2.62645 -2.36959 -1.22131
2.63114 -2.35882 -1.22003
2.6358 -2.34806 -1.21876
2.64045 -2.33731 -1.21749
2.64507 -2.32657 -1.21623
2.64967 -2.31584 -1.21499
2.65425 -2.30512 -1.21375
2.6588 -2.29441 -1.21252
2.66333 -2.28372 -1.21129
2.66784 -2.27303 -1.21008
2.67233 -2.26235 -1.20887
2.67726 -2.25208 -1.20789
2.68225 -2.24187 -1.20694
2.68721 -2.23167 -1.206
2.69214 -2.22147 -1.20507
2.69743 -2.21157 -1.20431
2.70301 -2.20193 -1.20369
2.70857 -2.19229 -1.20309
2.71411 -2.18265 -1.20248
2.71963 -2.17301 -1.20189
2.72513 -2.16337 -1.2013
2.73061 -2.15372 -1.20072
2.73608 -2.14408 -1.20014
2.74152 -2.13443 -1.19958
2.74695 -2.12478 -1.19901
2.75235 -2.11513 -1.19846
2.75774 -2.10547 -1.19791
2.76311 -2.09582 -1.19736
2.76846 -2.08616 -1.19682
2.77378 -2.0765 -1.19629
2.7791 -2.06684 -1.19577
2.78439 -2.05717 -1.19525
2.78966 -2.04751 -1.19473
2.79492 -2.03784 -1.19423
2.80015 -2.02817 -1.19373
2.80537 -2.01849 -1.19323
2.81069 -2.00891 -1.1928
2.81607 -1.99937 -1.1924
2.82143 -1.98983 -1.19201
2.82677 -1.98028 -1.19162
2.83209 -1.97073 -1.19124
2.8374 -1.96118 -1.19086
2.84354 -1.9522 -1.19085
2.85033 -1.94368 -1.19113
2.85712 -1.93514 -1.19141
2.8639 -1.92659 -1.1917
2.87066 -1.91803 -1.19199
2.87785 -1.90973 -1.19247
2.88509 -1.90147 -1.19298
2.89233 -1.89318 -1.1935
2.89955 -1.88488 -1.19402
2.90677 -1.87657 -1.19455
2.91916 -1.87155 -1.19721
2.93229 -1.86696 -1.20018
2.94548 -1.86233 -1.20317
2.95873 -1.85768 -1.20618
2.97203 -1.853 -1.20922
2.98599 -1.84865 -1.21252
3.00227 -1.84567 -1.21676
3.01894 -1.84283 -1.22116
3.03613 -1.84021 -1.22576
3.05344 -1.83756 -1.2304
3.0688 -1.83365 -1.23426
3.08424 -1.82971 -1.23814
3.09977 -1.82574 -1.24206
3.1154 -1.82174 -1.24601
3.13111 -1.81771 -1.25
2.41115 -2.85554 -1.32521
2.41517 -2.84208 -1.32249
2.41915 -2.82865 -1.31978
2.42309 -2.81524 -1.31708
2.42688 -2.80173 -1.31434
2.4315 -2.78925 -1.31207
2.43708 -2.77793 -1.31035
2.44189 -2.76577 -1.30824
2.44577 -2.75263 -1.30567
2.44963 -2.73953 -1.30311
2.45346 -2.72646 -1.30057
2.45725 -2.71343 -1.29804
2.46102 -2.70043 -1.29552
2.46476 -2.68747 -1.29303
2.46847 -2.67454 -1.29054
2.47215 -2.66164 -1.28807
2.4758 -2.64878 -1.28562
2.47942 -2.63595 -1.28318
2.48301 -2.62316 -1.28075
2.48658 -2.61039 -1.27834
2.49012 -2.59766 -1.27595
2.49363 -2.58496 -1.27356
2.49722 -2.57241 -1.27125
2.50085 -2.55996 -1.26898
2.50446 -2.54753 -1.26673
2.50804 -2.53514 -1.2645
2.51159 -2.52277 -1.26227
2.51512 -2.51044 -1.26006
2.51884 -2.49835 -1.25797
2.52386 -2.48759 -1.25655
2.52885 -2.47684 -1.25515
2.53381 -2.46611 -1.25375
2.53876 -2.45538 -1.25236
2.54368 -2.44467 -1.25098
2.54857 -2.43397 -1.2496
2.55344 -2.42327 -1.24824
2.55829 -2.41259 -1.24689
2.56312 -2.40192 -1.24554
2.56792 -2.39126 -1.24421
2.5727 -2.38062 -1.24288
2.57745 -2.36998 -1.24156
2.58218 -2.35935 -1.24025
2.58689 -2.34874 -1.23895
2.59158 -2.33813 -1.23766
2.59624 -2.32753 -1.23638
2.60088 -2.31695 -1.2351
2.6055 -2.30637 -1.23384
2.6101 -2.29581 -1.23258
2.61467 -2.28525 -1.23133
2.61925 -2.27473 -1.2301
2.62383 -2.26424 -1.2289
2.62839 -2.25376 -1.2277
2.63293 -2.24328 -1.22651
2.63745 -2.23282 -1.22533
2.64194 -2.22237 -1.22416
2.64669 -2.21215 -1.22312
2.65217 -2.20257 -1.22244
2.65762 -2.19298 -1.22176
2.66294 -2.1833 -1.22104
2.66825 -2.17362 -1.22032
2.67354 -2.16394 -1.21962
2.67881 -2.15427 -1.21892
2.68407 -2.1446 -1.21822
2.6893 -2.13493 -1.21754
2.69452 -2.12526 -1.21686
2.69972 -2.11559 -1.21619
2.7049 -2.10592 -1.21553
2.71007 -2.09625 -1.21488
2.71522 -2.08659 -1.21423
2.72035 -2.07692 -1.21359
2.72546 -2.06726 -1.21296
2.73055 -2.0576 -1.21233
2.73569 -2.04798 -1.21174
2.74094 -2.03846 -1.21122
2.74618 -2.02895 -1.2107
2.7514 -2.01942 -1.21019
2.75659 -2.0099 -1.20968
2.76177 -2.00037 -1.20918
2.76694 -1.99084 -1.20869
2.77208 -1.98131 -1.2082
2.7772 -1.97178 -1.20772
2.78245 -1.96234 -1.2073
2.78816 -1.95324 -1.2071
2.7949 -1.94485 -1.20736
2.80162 -1.93645 -1.20762
2.80834 -1.92804 -1.20789
2.81504 -1.91961 -1.20817
2.82174 -1.91118 -1.20845
2.82842 -1.90273 -1.20874
2.83528 -1.89438 -1.20911
2.84242 -1.88622 -1.20961
2.84956 -1.87805 -1.21012
2.85935 -1.8716 -1.21177
2.87217 -1.86709 -1.2147
2.88505 -1.86254 -1.21766
2.89797 -1.85797 -1.22064
2.91096 -1.85338 -1.22364
2.924 -1.84875 -1.22667
2.9371 -1.8441 -1.22972
2.95025 -1.83942 -1.23279
2.96346 -1.83471 -1.23589
2.97765 -1.83053 -1.23939
2.99382 -1.82749 -1.24372
3.01009 -1.82442 -1.24808
3.02676 -1.8215 -1.2526
3.04393 -1.8188 -1.25733
3.06123 -1.81606 -1.26211
3.07865 -1.8133 -1.26693
3.0951 -1.80987 -1.27134
3.11065 -1.80583 -1.27539
2.35211 -2.78563 -1.32698
2.35781 -2.77459 -1.32525
2.36348 -2.76356 -1.32354
2.36911 -2.75253 -1.32183
2.37472 -2.74151 -1.32012
2.38028 -2.7305 -1.31842
2.38582 -2.71949 -1.31673
2.39131 -2.70849 -1.31505
2.39678 -2.6975 -1.31337
2.40221 -2.68651 -1.3117
2.40761 -2.67552 -1.31004
2.41298 -2.66455 -1.30839
2.41831 -2.65358 -1.30673
2.42362 -2.64261 -1.30509
2.42889 -2.63166 -1.30345
2.43357 -2.62011 -1.30153
2.43723 -2.60752 -1.29909
2.44087 -2.59497 -1.29666
2.44448 -2.58245 -1.29425
2.44806 -2.56996 -1.29185
2.45162 -2.5575 -1.28946
2.45514 -2.54507 -1.28709
2.4587 -2.53273 -1.28476
2.46235 -2.52054 -1.28251
2.46597 -2.50838 -1.28027
2.47001 -2.4967 -1.27828
2.47507 -2.48609 -1.27683
2.4801 -2.47548 -1.2754
2.48511 -2.46489 -1.27397
2.4901 -2.45431 -1.27255
2.49506 -2.44375 -1.27115
2.49999 -2.43319 -1.26975
2.50491 -2.42265 -1.26836
2.5098 -2.41211 -1.26698
2.51467 -2.40159 -1.26561
2.51952 -2.39108 -1.26425
2.52438 -2.38062 -1.26292
2.52923 -2.37017 -1.2616
2.53405 -2.35973 -1.26029
2.53885 -2.3493 -1.25899
2.54362 -2.33887 -1.25769
2.54838 -2.32846 -1.25641
2.55311 -2.31806 -1.25513
2.55782 -2.30767 -1.25386
2.5625 -2.29729 -1.2526
2.56717 -2.28691 -1.25135
2.57181 -2.27655 -1.25011
2.57643 -2.26619 -1.24888
2.58103 -2.25585 -1.24766
2.58561 -2.24551 -1.24644
2.59016 -2.23518 -1.24523
2.5947 -2.22486 -1.24404
2.59921 -2.21455 -1.24285
2.60448 -2.20491 -1.24204
2.60996 -2.19546 -1.24134
2.61541 -2.18601 -1.24065
2.62085 -2.17656 -1.23997
2.62627 -2.1671 -1.2393
2.63165 -2.15764 -1.23862
2.63691 -2.14809 -1.23791
2.64216 -2.13854 -1.2372
2.64739 -2.129 -1.2365
2.6526 -2.11945 -1.2358
2.65779 -2.10991 -1.23512
2.66296 -2.10036 -1.23444
2.66812 -2.09082 -1.23377
2.67326 -2.08128 -1.2331
2.67838 -2.07174 -1.23245
2.68348 -2.0622 -1.2318
2.68857 -2.05266 -1.23116
2.69364 -2.04313 -1.23052
2.69869 -2.03359 -1.2299
2.70373 -2.02405 -1.22928
2.70874 -2.01452 -1.22867
2.71374 -2.00498 -1.22806
2.71873 -1.99544 -1.22746
2.72369 -1.98591 -1.22687
2.72864 -1.97637 -1.22629
2.73357 -1.96684 -1.22571
2.73849 -1.9573 -1.22515
2.74417 -1.94832 -1.22493
2.75017 -1.93957 -1.22488
2.75616 -1.93082 -1.22483
2.76214 -1.92205 -1.22478
2.7681 -1.91328 -1.22475
2.77406 -1.9045 -1.22472
2.78042 -1.896 -1.22488
2.78702 -1.88766 -1.22517
2.79361 -1.87931 -1.22545
2.80106 -1.87152 -1.22613
2.81359 -1.86709 -1.22903
2.82616 -1.86263 -1.23195
2.83878 -1.85814 -1.23489
2.85146 -1.85362 -1.23786
2.86419 -1.84908 -1.24085
2.87698 -1.84451 -1.24386
2.88982 -1.83992 -1.2469
2.90271 -1.83529 -1.24996
2.91566 -1.83064 -1.25305
2.92866 -1.82596 -1.25616
2.94173 -1.82125 -1.25929
2.95484 -1.81651 -1.26245
2.96924 -1.81249 -1.26615
2.98529 -1.80939 -1.27056
3.00144 -1.80627 -1.275
3.0177 -1.80312 -1.27949
3.03435 -1.80012 -1.28413
3.05152 -1.79732 -1.28899
3.0688 -1.79449 -1.2939
3.08621 -1.79164 -1.29885
2.30299 -2.72746 -1.33297
2.30864 -2.71672 -1.33127
2.31425 -2.70599 -1.32958
2.31983 -2.69527 -1.3279
2.32538 -2.68455 -1.32622
2.33089 -2.67384 -1.32455
2.33637 -2.66313 -1.32289
2.34182 -2.65243 -1.32124
2.34723 -2.64173 -1.31959
2.35262 -2.63104 -1.31794
2.35797 -2.62035 -1.31631
2.36328 -2.60967 -1.31468
2.36857 -2.59899 -1.31305
2.37382 -2.58832 -1.31144
2.37904 -2.57765 -1.30982
2.38423 -2.56699 -1.30822
2.38939 -2.55634 -1.30662
2.39452 -2.54569 -1.30503
2.39961 -2.53505 -1.30344
2.40467 -2.52441 -1.30187
2.4097 -2.51377 -1.30029
2.41486 -2.50331 -1.29881
2.42076 -2.49364 -1.29775
2.42706 -2.48442 -1.29693
2.43218 -2.47401 -1.29549
2.43728 -2.46361 -1.29406
2.44234 -2.45322 -1.29263
2.44739 -2.44284 -1.29122
2.45241 -2.43246 -1.28982
2.45741 -2.4221 -1.28843
2.46239 -2.41175 -1.28704
2.46734 -2.40141 -1.28567
2.47227 -2.39108 -1.28431
2.47718 -2.38076 -1.28295
2.48206 -2.37045 -1.2816
2.48692 -2.36014 -1.28026
2.49176 -2.34985 -1.27893
2.49657 -2.33957 -1.27761
2.50137 -2.32929 -1.2763
2.50614 -2.31903 -1.275
2.51088 -2.30877 -1.27371
2.51561 -2.29852 -1.27242
2.52031 -2.28829 -1.27115
2.52499 -2.27806 -1.26988
2.52965 -2.26784 -1.26862
2.53429 -2.25762 -1.26737
2.53891 -2.24742 -1.26613
2.5435 -2.23723 -1.2649
2.54807 -2.22704 -1.26367
2.55262 -2.21686 -1.26246
2.55746 -2.20696 -1.26141
2.56294 -2.19764 -1.26069
2.5684 -2.18831 -1.25997
2.57385 -2.17898 -1.25927
2.57927 -2.16965 -1.25857
2.58468 -2.16032 -1.25788
2.59007 -2.151 -1.2572
2.59544 -2.14167 -1.25652
2.6008 -2.13234 -1.25585
2.60612 -2.123 -1.25518
2.61132 -2.11358 -1.25447
2.61651 -2.10416 -1.25377
2.62167 -2.09474 -1.25308
2.62682 -2.08532 -1.25239
2.63195 -2.0759 -1.25171
2.63706 -2.06649 -1.25104
2.64216 -2.05707 -1.25037
2.64724 -2.04765 -1.24971
2.6523 -2.03824 -1.24906
2.65734 -2.02882 -1.24842
2.66237 -2.01941 -1.24779
2.66738 -2.00999 -1.24716
2.67237 -2.00058 -1.24654
2.67734 -1.99116 -1.24592
2.6823 -1.98175 -1.24532
2.68724 -1.97233 -1.24472
2.69217 -1.96292 -1.24413
2.69707 -1.95351 -1.24354
2.70301 -1.94485 -1.24345
2.70897 -1.9362 -1.24338
2.71492 -1.92756 -1.24331
2.72086 -1.9189 -1.24326
2.72679 -1.91024 -1.24321
2.7327 -1.90157 -1.24316
2.73861 -1.8929 -1.24313
2.7445 -1.88421 -1.2431
2.75039 -1.87553 -1.24309
2.75824 -1.86817 -1.24397
2.76805 -1.86211 -1.24574
2.7807 -1.85792 -1.24879
2.79347 -1.85374 -1.25189
2.8059 -1.84927 -1.25484
2.81839 -1.84479 -1.25782
2.83092 -1.84027 -1.26082
2.84351 -1.83573 -1.26385
2.85616 -1.83116 -1.26689
2.86885 -1.82657 -1.26996
2.8816 -1.82194 -1.27306
2.8944 -1.81729 -1.27618
2.90726 -1.81261 -1.27932
2.92017 -1.80791 -1.28249
2.93314 -1.80317 -1.28568
2.94617 -1.79841 -1.2889
2.96075 -1.79452 -1.2928
2.97668 -1.79137 -1.29728
2.99272 -1.7882 -1.30181
3.00886 -1.78499 -1.30637
3.0251 -1.78176 -1.31098
3.04173 -1.77866 -1.31575
3.05888 -1.77577 -1.32074
2.2556 -2.67133 -1.33875
2.26119 -2.66088 -1.33708
2.26674 -2.65044 -1.33542
2.27227 -2.64001 -1.33376
2.27776 -2.62958 -1.33211
2.28322 -2.61915 -1.33047
2.28864 -2.60873 -1.32884
2.29404 -2.59831 -1.32721
2.29941 -2.5879 -1.32559
2.30497 -2.57775 -1.3241
2.3105 -2.5676 -1.32262
2.316 -2.55746 -1.32115
2.32148 -2.54732 -1.31969
2.32692 -2.53718 -1.31823
2.33233 -2.52704 -1.31677
2.33771 -2.51691 -1.31533
2.34307 -2.50678 -1.31389
2.34865 -2.49693 -1.3126
2.35476 -2.48766 -1.31162
2.36084 -2.47839 -1.31065
2.3669 -2.46912 -1.30969
2.37303 -2.45995 -1.30878
2.37948 -2.45112 -1.30807
2.38589 -2.44228 -1.30736
2.39229 -2.43343 -1.30665
2.39866 -2.42457 -1.30595
2.40501 -2.41571 -1.30525
2.41133 -2.40684 -1.30456
2.41763 -2.39797 -1.30388
2.42391 -2.38908 -1.30319
2.43017 -2.38019 -1.30252
2.4355 -2.37042 -1.30137
2.4404 -2.36026 -1.3
2.44528 -2.3501 -1.29865
2.45013 -2.33995 -1.2973
2.45496 -2.32981 -1.29596
2.45977 -2.31968 -1.29463
2.46456 -2.30956 -1.29332
2.46932 -2.29945 -1.29201
2.47406 -2.28935 -1.2907
2.47878 -2.27925 -1.28941
2.48348 -2.26917 -1.28813
2.48815 -2.25909 -1.28685
2.49281 -2.24902 -1.28559
2.49744 -2.23895 -1.28433
2.50205 -2.2289 -1.28308
2.50663 -2.21885 -1.28184
2.5112 -2.20882 -1.28061
2.51658 -2.19952 -1.27981
2.52205 -2.19031 -1.27907
2.5275 -2.18111 -1.27834
2.53293 -2.1719 -1.27762
2.53835 -2.1627 -1.27691
2.54374 -2.15349 -1.2762
2.54912 -2.14429 -1.2755
2.55448 -2.13508 -1.27481
2.55982 -2.12588 -1.27412
2.56515 -2.11667 -1.27345
2.57046 -2.10747 -1.27278
2.57575 -2.09826 -1.27212
2.58101 -2.08905 -1.27146
2.58615 -2.07975 -1.27075
2.59127 -2.07045 -1.27006
2.59638 -2.06116 -1.26937
2.60147 -2.05186 -1.26869
2.60654 -2.04257 -1.26801
2.61159 -2.03327 -1.26735
2.61663 -2.02398 -1.26669
2.62164 -2.01468 -1.26604
2.62664 -2.00539 -1.26539
2.63163 -1.99609 -1.26476
2.63659 -1.9868 -1.26413
2.64154 -1.9775 -1.2635
2.64648 -1.96821 -1.26289
2.65139 -1.95891 -1.26228
2.65655 -1.94981 -1.2618
2.66248 -1.94128 -1.26171
2.66841 -1.93275 -1.26163
2.67432 -1.92421 -1.26155
2.68023 -1.91566 -1.26148
2.68612 -1.90711 -1.26141
2.69199 -1.89854 -1.26136
2.69787 -1.88998 -1.26131
2.70376 -1.88143 -1.26129
2.70963 -1.87287 -1.26127
2.71854 -1.86639 -1.26267
2.72821 -1.8604 -1.26443
2.73789 -1.85439 -1.2662
2.7476 -1.84836 -1.26799
2.75828 -1.84293 -1.27023
2.77165 -1.83926 -1.27371
2.78509 -1.83556 -1.27723
2.79816 -1.83154 -1.28056
2.81056 -1.82703 -1.28359
2.82301 -1.82249 -1.28665
2.83551 -1.81792 -1.28973
2.84806 -1.81333 -1.29283
2.86067 -1.80871 -1.29596
2.87333 -1.80406 -1.29911
2.88604 -1.79938 -1.30229
2.89881 -1.79468 -1.30549
2.91163 -1.78994 -1.30872
2.9245 -1.78518 -1.31197
2.93743 -1.78039 -1.31525
2.95218 -1.77662 -1.31933
2.968 -1.77342 -1.3239
2.98392 -1.77019 -1.3285
2.99994 -1.76694 -1.33315
3.01606 -1.76365 -1.33784
3.03229 -1.76034 -1.34257
2.21094 -2.61844 -1.34501
2.21668 -2.60851 -1.34349
2.22239 -2.59859 -1.34198
2.22808 -2.58867 -1.34048
2.23373 -2.57875 -1.33898
2.23935 -2.56883 -1.33749
2.24495 -2.55892 -1.33601
2.25051 -2.54901 -1.33453
2.25604 -2.5391 -1.33306
2.26155 -2.52919 -1.33159
2.26702 -2.51929 -1.33014
2.27247 -2.50939 -1.32868
2.27792 -2.49952 -1.32726
2.28408 -2.49046 -1.32626
2.29021 -2.4814 -1.32528
2.29632 -2.47234 -1.32429
2.3024 -2.46327 -1.32332
2.30846 -2.4542 -1.32235
2.31449 -2.44512 -1.32138
2.3205 -2.43604 -1.32042
2.3266 -2.42708 -1.31953
2.33297 -2.41842 -1.31882
2.33933 -2.40976 -1.31811
2.34566 -2.40109 -1.3174
2.35197 -2.39241 -1.3167
2.35825 -2.38373 -1.31601
2.36451 -2.37504 -1.31532
2.37075 -2.36634 -1.31463
2.37697 -2.35763 -1.31395
2.38316 -2.34892 -1.31328
2.38934 -2.3402 -1.31261
2.39548 -2.33147 -1.31194
2.40161 -2.32274 -1.31128
2.40771 -2.314 -1.31062
2.41379 -2.30525 -1.30997
2.41985 -2.29649 -1.30932
2.42589 -2.28773 -1.30868
2.4319 -2.27896 -1.30804
2.43789 -2.27018 -1.30741
2.4426 -2.26023 -1.30611
2.44729 -2.2503 -1.30482
2.45196 -2.24037 -1.30353
2.45661 -2.23044 -1.30226
2.46123 -2.22053 -1.30099
2.46583 -2.21062 -1.29974
2.47084 -2.20111 -1.29871
2.47632 -2.19202 -1.29795
2.48178 -2.18294 -1.2972
2.48722 -2.17385 -1.29646
2.49264 -2.16477 -1.29572
2.49804 -2.15569 -1.29499
2.50343 -2.1466 -1.29427
2.5088 -2.13752 -1.29355
2.51415 -2.12844 -1.29284
2.51948 -2.11935 -1.29214
2.52479 -2.11027 -1.29145
2.53009 -2.10118 -1.29077
2.53537 -2.0921 -1.29009
2.54063 -2.08301 -1.28942
2.54587 -2.07393 -1.28875
2.5511 -2.06484 -1.2881
2.55631 -2.05575 -1.28745
2.56139 -2.04657 -1.28675
2.56645 -2.0374 -1.28606
2.57149 -2.02822 -1.28538
2.57652 -2.01904 -1.28471
2.58153 -2.00987 -1.28404
2.58652 -2.00069 -1.28338
2.5915 -1.99151 -1.28273
2.59646 -1.98234 -1.28208
2.6014 -1.97316 -1.28144
2.60632 -1.96399 -1.28081
2.61123 -1.95481 -1.28019
2.61668 -1.94605 -1.27985
2.62258 -1.93763 -1.27974
2.62847 -1.9292 -1.27964
2.63435 -1.92077 -1.27955
2.64021 -1.91232 -1.27946
2.64607 -1.90388 -1.27939
2.65194 -1.89545 -1.27933
2.65781 -1.88701 -1.27928
2.66366 -1.87856 -1.27924
2.66995 -1.87043 -1.27943
2.67947 -1.86453 -1.28117
2.689 -1.85861 -1.28292
2.69856 -1.85267 -1.28468
2.70813 -1.84671 -1.28646
2.71772 -1.84072 -1.28825
2.72732 -1.83471 -1.29006
2.73695 -1.82868 -1.29188
2.74928 -1.82441 -1.29498
2.76255 -1.8207 -1.29852
2.77588 -1.81697 -1.30209
2.78928 -1.8132 -1.30568
2.80266 -1.80936 -1.30927
2.81503 -1.80479 -1.31238
2.82744 -1.8002 -1.31552
2.83991 -1.79558 -1.31868
2.85242 -1.79093 -1.32186
2.86499 -1.78626 -1.32507
2.87761 -1.78156 -1.3283
2.89029 -1.77682 -1.33156
2.90302 -1.77206 -1.33485
2.9158 -1.76728 -1.33816
2.92864 -1.76246 -1.34149
2.94353 -1.7588 -1.34577
2.95923 -1.75555 -1.35041
2.97503 -1.75227 -1.35509
2.99093 -1.74896 -1.35982
3.00693 -1.74562 -1.36458
2.16939 -2.56923 -1.35209
2.17507 -2.55955 -1.35059
2.18072 -2.54986 -1.3491
2.18634 -2.54018 -1.34762
2.19194 -2.5305 -1.34615
2.1975 -2.52083 -1.34468
2.20304 -2.51115 -1.34321
2.20854 -2.50147 -1.34175
2.21463 -2.49249 -1.34067
2.22081 -2.48363 -1.33967
2.22697 -2.47477 -1.33867
2.2331 -2.46591 -1.33768
2.23921 -2.45704 -1.33669
2.24529 -2.44817 -1.33571
2.25134 -2.43929 -1.33473
2.25738 -2.43041 -1.33376
2.26338 -2.42153 -1.33279
2.26937 -2.41264 -1.33183
2.27533 -2.40375 -1.33087
2.28139 -2.39499 -1.32999
2.2877 -2.3865 -1.32928
2.29399 -2.37802 -1.32858
2.30026 -2.36952 -1.32787
2.30651 -2.36102 -1.32718
2.31273 -2.3525 -1.32648
2.31893 -2.34399 -1.32579
2.32511 -2.33546 -1.32511
2.33127 -2.32693 -1.32443
2.3374 -2.31838 -1.32376
2.34351 -2.30984 -1.32309
2.3496 -2.30128 -1.32242
2.35566 -2.29272 -1.32176
2.36171 -2.28415 -1.32111
2.36773 -2.27557 -1.32046
2.37373 -2.26699 -1.31981
2.37971 -2.2584 -1.31917
2.38566 -2.2498 -1.31853
2.3916 -2.24119 -1.3179
2.39751 -2.23258 -1.31728
2.4034 -2.22396 -1.31665
2.40926 -2.21533 -1.31603
2.41511 -2.20669 -1.31542
2.42168 -2.19874 -1.31522
2.42839 -2.1909 -1.31511
2.43487 -2.18287 -1.31488
2.44134 -2.17482 -1.31467
2.44754 -2.16655 -1.31432
2.45296 -2.15759 -1.31357
2.45835 -2.14862 -1.31283
2.46372 -2.13966 -1.31209
2.46908 -2.13069 -1.31136
2.47442 -2.12173 -1.31063
2.47974 -2.11276 -1.30992
2.48504 -2.1038 -1.30921
2.49033 -2.09483 -1.30851
2.4956 -2.08587 -1.30782
2.50085 -2.0769 -1.30713
2.50608 -2.06793 -1.30645
2.5113 -2.05896 -1.30578
2.5165 -2.05 -1.30512
2.52168 -2.04103 -1.30446
2.52684 -2.03206 -1.30381
2.53199 -2.02308 -1.30317
2.53701 -2.01403 -1.30248
2.54201 -2.00497 -1.3018
2.547 -1.99591 -1.30112
2.55197 -1.98685 -1.30045
2.55692 -1.97779 -1.29979
2.56185 -1.96873 -1.29914
2.56677 -1.95967 -1.29849
2.57167 -1.95061 -1.29786
2.57741 -1.9422 -1.29766
2.58328 -1.93388 -1.29754
2.58913 -1.92556 -1.29742
2.59498 -1.91723 -1.29732
2.60084 -1.90892 -1.29723
2.60669 -1.9006 -1.29716
2.61253 -1.89227 -1.29709
2.61835 -1.88394 -1.29702
2.62417 -1.87559 -1.29697
2.63164 -1.86843 -1.29774
2.64102 -1.8626 -1.29947
2.65043 -1.85675 -1.30121
2.65985 -1.85087 -1.30296
2.66928 -1.84498 -1.30473
2.67874 -1.83906 -1.30651
2.68821 -1.83313 -1.30831
2.6977 -1.82717 -1.31012
2.70721 -1.82118 -1.31194
2.71674 -1.81518 -1.31378
2.72712 -1.80971 -1.31603
2.74022 -1.80599 -1.3196
2.75339 -1.80224 -1.3232
2.76661 -1.79847 -1.32683
2.77991 -1.79467 -1.33048
2.79326 -1.79084 -1.33417
2.80668 -1.78699 -1.33788
2.81931 -1.78256 -1.34121
2.83169 -1.77792 -1.34443
2.84411 -1.77324 -1.34767
2.85659 -1.76854 -1.35093
2.86912 -1.76381 -1.35422
2.88171 -1.75906 -1.35754
2.89434 -1.75427 -1.36088
2.90703 -1.74946 -1.36424
2.91978 -1.74461 -1.36764
2.93479 -1.74105 -1.37209
2.95038 -1.73775 -1.37681
2.96606 -1.73441 -1.38157
2.98184 -1.73105 -1.38637
2.12911 -2.52153 -1.35895
2.13473 -2.51207 -1.35748
2.14032 -2.50262 -1.35601
2.14637 -2.49374 -1.35486
2.1526 -2.48509 -1.35384
2.1588 -2.47643 -1.35282
2.16498 -2.46777 -1.35181
2.17114 -2.45911 -1.35081
2.17727 -2.45044 -1.34981
2.18337 -2.44176 -1.34882
2.18945 -2.43308 -1.34783
2.19551 -2.4244 -1.34684
2.20154 -2.41571 -1.34587
2.20754 -2.40702 -1.34489
2.21353 -2.39832 -1.34392
2.21948 -2.38962 -1.34296
2.22542 -2.38091 -1.342
2.23133 -2.3722 -1.34105
2.23736 -2.36364 -1.34019
2.24361 -2.35532 -1.33948
2.24984 -2.347 -1.33878
2.25604 -2.33868 -1.33808
2.26223 -2.33034 -1.33738
2.26839 -2.322 -1.33669
2.27453 -2.31365 -1.336
2.28065 -2.30529 -1.33532
2.28674 -2.29692 -1.33465
2.29282 -2.28855 -1.33397
2.29887 -2.28017 -1.33331
2.3049 -2.27178 -1.33264
2.31091 -2.26339 -1.33198
2.31689 -2.25498 -1.33133
2.32286 -2.24657 -1.33068
2.3288 -2.23815 -1.33004
2.33472 -2.22973 -1.3294
2.34062 -2.2213 -1.32876
2.34649 -2.21286 -1.32813
2.35234 -2.20441 -1.3275
2.35918 -2.19689 -1.32745
2.36604 -2.1894 -1.32742
2.37289 -2.18189 -1.3274
2.37973 -2.17437 -1.32738
2.38632 -2.16663 -1.32724
2.39274 -2.15873 -1.32702
2.39913 -2.15082 -1.3268
2.40551 -2.1429 -1.32658
2.41187 -2.13497 -1.32637
2.41822 -2.12703 -1.32617
2.42455 -2.11908 -1.32597
2.43086 -2.11111 -1.32578
2.43715 -2.10314 -1.32559
2.44343 -2.09516 -1.3254
2.44969 -2.08716 -1.32522
2.45594 -2.07916 -1.32505
2.46166 -2.07072 -1.32461
2.46688 -2.06186 -1.32391
2.47209 -2.05301 -1.32323
2.47727 -2.04416 -1.32255
2.48244 -2.03531 -1.32188
2.4876 -2.02645 -1.32121
2.49273 -2.0176 -1.32056
2.49785 -2.00874 -1.31991
2.50296 -1.99989 -1.31927
2.50804 -1.99103 -1.31863
2.51301 -1.98209 -1.31795
2.51795 -1.97315 -1.31728
2.52288 -1.9642 -1.31661
2.52779 -1.95526 -1.31594
2.53288 -1.94647 -1.3154
2.53873 -1.93826 -1.31525
2.54456 -1.93005 -1.31512
2.55041 -1.92185 -1.315
2.55625 -1.91365 -1.3149
2.56208 -1.90544 -1.3148
2.56789 -1.89722 -1.31471
2.57369 -1.889 -1.31462
2.57949 -1.88076 -1.31455
2.58527 -1.87252 -1.31448
2.59392 -1.86635 -1.31588
2.60318 -1.86059 -1.31759
2.61245 -1.85481 -1.31932
2.62174 -1.849 -1.32106
2.63105 -1.84317 -1.32282
2.64038 -1.83733 -1.32459
2.64972 -1.83146 -1.32637
2.65908 -1.82557 -1.32817
2.66846 -1.81965 -1.32998
2.67785 -1.81372 -1.33181
2.68726 -1.80776 -1.33365
2.69669 -1.80179 -1.3355
2.70614 -1.79579 -1.33737
2.7181 -1.79141 -1.34049
2.7311 -1.78765 -1.34411
2.74416 -1.78387 -1.34777
2.75729 -1.78006 -1.35145
2.77047 -1.77623 -1.35516
2.78372 -1.77236 -1.3589
2.79703 -1.76847 -1.36267
2.81041 -1.76455 -1.36647
2.8234 -1.76033 -1.37008
2.83574 -1.75563 -1.37338
2.84813 -1.75091 -1.3767
2.86057 -1.74615 -1.38004
2.87306 -1.74137 -1.38342
2.8856 -1.73656 -1.38681
2.8982 -1.73172 -1.39024
2.91085 -1.72685 -1.39369
2.92596 -1.72337 -1.39832
2.94143 -1.72002 -1.40311
2.957 -1.71663 -1.40795
2.09179 -2.47733 -1.36676
2.09802 -2.46887 -1.36574
2.10422 -2.46041 -1.36471
2.11039 -2.45194 -1.3637
2.11654 -2.44346 -1.36269
2.12267 -2.43498 -1.36169
2.12877 -2.42649 -1.36069
2.13485 -2.418 -1.35969
2.1409 -2.40951 -1.3587
2.14693 -2.40101 -1.35772
2.15293 -2.3925 -1.35674
2.15891 -2.38399 -1.35577
2.16487 -2.37548 -1.3548
2.1708 -2.36696 -1.35384
2.17671 -2.35843 -1.35288
2.1826 -2.3499 -1.35192
2.18846 -2.34137 -1.35098
2.19446 -2.333 -1.35013
2.20065 -2.32485 -1.34943
2.20681 -2.3167 -1.34872
2.21296 -2.30853 -1.34802
2.21908 -2.30036 -1.34733
2.22519 -2.29218 -1.34664
2.23127 -2.284 -1.34596
2.23732 -2.2758 -1.34528
2.24336 -2.2676 -1.3446
2.24938 -2.25939 -1.34393
2.25537 -2.25117 -1.34327
2.26134 -2.24294 -1.34261
2.26729 -2.23471 -1.34195
2.27322 -2.22647 -1.3413
2.27912 -2.21822 -1.34065
2.28501 -2.20997 -1.34001
2.29117 -2.20199 -1.33954
2.298 -2.19467 -1.33949
2.30483 -2.18733 -1.33944
2.31164 -2.17999 -1.33939
2.31843 -2.17263 -1.33936
2.32521 -2.16525 -1.33932
2.33197 -2.15787 -1.33929
2.33872 -2.15047 -1.33927
2.34521 -2.14283 -1.33911
2.35155 -2.13506 -1.33888
2.35788 -2.12729 -1.33866
2.36419 -2.1195 -1.33844
2.37048 -2.1117 -1.33823
2.37676 -2.10389 -1.33802
2.38301 -2.09607 -1.33782
2.38926 -2.08823 -1.33762
2.39548 -2.08039 -1.33743
2.40169 -2.07254 -1.33724
2.40788 -2.06467 -1.33706
2.41405 -2.0568 -1.33688
2.42021 -2.04891 -1.3367
2.42635 -2.04102 -1.33654
2.43248 -2.03311 -1.33637
2.43859 -2.02519 -1.33621
2.44468 -2.01726 -1.33606
2.45075 -2.00932 -1.33591
2.45681 -2.00137 -1.33577
2.46285 -1.99341 -1.33563
2.46888 -1.98544 -1.3355
2.47439 -1.97706 -1.3351
2.47943 -1.96832 -1.33447
2.48445 -1.95957 -1.33384
2.48937 -1.95075 -1.33317
2.49479 -1.94234 -1.33279
2.50063 -1.93426 -1.33265
2.50647 -1.92617 -1.33251
2.51228 -1.91807 -1.33238
2.51809 -1.90997 -1.33226
2.52388 -1.90186 -1.33215
2.52966 -1.89375 -1.33204
2.53543 -1.88562 -1.33194
2.54119 -1.87749 -1.33185
2.54766 -1.86988 -1.33215
2.55678 -1.86421 -1.33384
2.56591 -1.85851 -1.33554
2.57507 -1.85279 -1.33726
2.58423 -1.84705 -1.33899
2.59342 -1.84129 -1.34073
2.60262 -1.83551 -1.34249
2.61183 -1.82971 -1.34426
2.62106 -1.82389 -1.34605
2.63031 -1.81804 -1.34785
2.63958 -1.81218 -1.34966
2.64886 -1.80629 -1.35149
2.65816 -1.80038 -1.35333
2.66747 -1.79445 -1.35518
2.6768 -1.7885 -1.35706
2.68615 -1.78252 -1.35894
2.69619 -1.77697 -1.36118
2.70903 -1.77321 -1.36483
2.72192 -1.76942 -1.36851
2.73488 -1.7656 -1.37222
2.7479 -1.76175 -1.37596
2.76098 -1.75788 -1.37972
2.77412 -1.75398 -1.38352
2.78732 -1.75006 -1.38735
2.80058 -1.7461 -1.3912
2.81392 -1.74212 -1.39509
2.8273 -1.7381 -1.399
2.8396 -1.73335 -1.40238
2.85194 -1.72857 -1.40578
2.86434 -1.72377 -1.4092
2.8768 -1.71893 -1.41266
2.8893 -1.71407 -1.41614
2.90186 -1.70917 -1.41964
2.91705 -1.70576 -1.42444
2.9324 -1.70235 -1.42931
2.05699 -2.43611 -1.37534
2.06313 -2.42782 -1.37432
2.06926 -2.41953 -1.37331
2.07535 -2.41123 -1.37231
2.08143 -2.40292 -1.37131
2.08748 -2.39461 -1.37032
2.0935 -2.3863 -1.36933
2.09951 -2.37797 -1.36834
2.10548 -2.36965 -1.36736
2.11144 -2.36132 -1.36639
2.11737 -2.35298 -1.36542
2.12328 -2.34464 -1.36446
2.12916 -2.33629 -1.3635
2.13502 -2.32794 -1.36255
2.14086 -2.31958 -1.3616
2.14667 -2.31122 -1.36065
2.15264 -2.30304 -1.35983
2.15877 -2.29506 -1.35912
2.16488 -2.28706 -1.35842
2.17096 -2.27906 -1.35773
2.17702 -2.27105 -1.35704
2.18307 -2.26303 -1.35635
2.18909 -2.255 -1.35567
2.19509 -2.24696 -1.35499
2.20107 -2.23892 -1.35432
2.20702 -2.23087 -1.35365
2.21296 -2.22281 -1.35298
2.21887 -2.21474 -1.35232
2.22476 -2.20667 -1.35167
2.2313 -2.19923 -1.35142
2.2381 -2.19207 -1.35135
2.24488 -2.1849 -1.35128
2.25165 -2.17771 -1.35121
2.25841 -2.1705 -1.35116
2.26515 -2.16329 -1.3511
2.27188 -2.15606 -1.35106
2.27859 -2.14882 -1.35101
2.28529 -2.14157 -1.35097
2.29197 -2.1343 -1.35094
2.29864 -2.12702 -1.35091
2.30502 -2.11948 -1.35073
2.31129 -2.11184 -1.3505
2.31755 -2.10419 -1.35027
2.32379 -2.09653 -1.35005
2.33001 -2.08886 -1.34983
2.33622 -2.08118 -1.34962
2.34241 -2.07348 -1.34941
2.34858 -2.06578 -1.34921
2.35474 -2.05807 -1.34901
2.36088 -2.05034 -1.34882
2.367 -2.04261 -1.34864
2.37311 -2.03486 -1.34845
2.3792 -2.0271 -1.34828
2.38527 -2.01933 -1.3481
2.39133 -2.01156 -1.34794
2.39737 -2.00377 -1.34777
2.40339 -1.99597 -1.34762
2.4094 -1.98815 -1.34746
2.41539 -1.98033 -1.34732
2.42136 -1.9725 -1.34717
2.42732 -1.96466 -1.34704
2.43326 -1.9568 -1.3469
2.43955 -1.94923 -1.34698
2.44665 -1.94229 -1.34751
2.45373 -1.93534 -1.34804
2.46081 -1.92837 -1.34858
2.46788 -1.92138 -1.34913
2.4747 -1.9142 -1.34956
2.48048 -1.9062 -1.34942
2.48624 -1.89819 -1.34929
2.49198 -1.89017 -1.34917
2.49772 -1.88215 -1.34906
2.50344 -1.87412 -1.34895
2.51119 -1.8676 -1.34995
2.5202 -1.86198 -1.35163
2.52922 -1.85635 -1.35332
2.53825 -1.8507 -1.35502
2.54729 -1.84502 -1.35674
2.55636 -1.83933 -1.35847
2.56543 -1.83361 -1.36022
2.57453 -1.82788 -1.36198
2.58363 -1.82212 -1.36375
2.59276 -1.81635 -1.36554
2.6019 -1.81055 -1.36734
2.61105 -1.80473 -1.36915
2.62022 -1.79889 -1.37098
2.62941 -1.79303 -1.37283
2.63861 -1.78714 -1.37468
2.64783 -1.78124 -1.37655
2.65707 -1.77531 -1.37844
2.66632 -1.76936 -1.38034
2.67559 -1.76339 -1.38225
2.68716 -1.75889 -1.38536
2.69989 -1.75509 -1.38906
2.71268 -1.75127 -1.3928
2.72553 -1.74742 -1.39656
2.73844 -1.74354 -1.40035
2.75141 -1.73963 -1.40417
2.76445 -1.7357 -1.40803
2.77754 -1.73174 -1.41191
2.7907 -1.72775 -1.41582
2.80392 -1.72373 -1.41976
2.8172 -1.71968 -1.42374
2.83055 -1.71561 -1.42774
2.84325 -1.71107 -1.43142
2.85556 -1.70624 -1.4349
2.86792 -1.70138 -1.43841
2.88033 -1.69649 -1.44195
2.8929 -1.69163 -1.44556
2.90805 -1.68821 -1.45046
2.02309 -2.39596 -1.38369
2.02915 -2.38784 -1.38269
2.0352 -2.37971 -1.38169
2.04122 -2.37157 -1.3807
2.04722 -2.36343 -1.37971
2.05319 -2.35529 -1.37872
2.05915 -2.34713 -1.37774
2.06507 -2.33898 -1.37677
2.07098 -2.33082 -1.3758
2.07686 -2.32265 -1.37484
2.08272 -2.31447 -1.37388
2.08855 -2.3063 -1.37293
2.09436 -2.29811 -1.37198
2.10015 -2.28992 -1.37103
2.10592 -2.28173 -1.37009
2.11186 -2.27374 -1.36929
2.11793 -2.26591 -1.36859
2.12398 -2.25807 -1.36789
2.13 -2.25022 -1.36719
2.13601 -2.24237 -1.36651
2.14199 -2.2345 -1.36582
2.14795 -2.22663 -1.36514
2.1539 -2.21875 -1.36447
2.15982 -2.21086 -1.36379
2.16587 -2.20312 -1.36322
2.17265 -2.19612 -1.36313
2.17941 -2.18911 -1.36303
2.18616 -2.18209 -1.36295
2.1929 -2.17506 -1.36286
2.19962 -2.16801 -1.36279
2.20632 -2.16095 -1.36271
2.21301 -2.15388 -1.36265
2.21969 -2.14679 -1.36258
2.22635 -2.13969 -1.36253
2.233 -2.13258 -1.36247
2.23963 -2.12546 -1.36242
2.24625 -2.11832 -1.36238
2.25285 -2.11117 -1.36234
2.25944 -2.10401 -1.36231
2.26572 -2.09656 -1.3621
2.27192 -2.08905 -1.36187
2.27811 -2.08152 -1.36164
2.28428 -2.07399 -1.36141
2.29044 -2.06644 -1.36119
2.29658 -2.05888 -1.36098
2.3027 -2.05132 -1.36077
2.30881 -2.04374 -1.36056
2.3149 -2.03615 -1.36036
2.32097 -2.02855 -1.36016
2.32703 -2.02094 -1.35997
2.33306 -2.01332 -1.35979
2.33909 -2.00569 -1.35961
2.3451 -1.99805 -1.35943
2.35109 -1.99039 -1.35926
2.35706 -1.98273 -1.35909
2.36302 -1.97505 -1.35893
2.36896 -1.96737 -1.35877
2.37488 -1.95967 -1.35862
2.38182 -1.95281 -1.35906
2.38884 -1.946 -1.35956
2.39586 -1.93919 -1.36007
2.40287 -1.93236 -1.36058
2.40987 -1.92551 -1.36111
2.41687 -1.91865 -1.36163
2.42386 -1.91177 -1.36217
2.43083 -1.90488 -1.36271
2.43781 -1.89797 -1.36326
2.44477 -1.89104 -1.36381
2.45173 -1.8841 -1.36437
2.45868 -1.87715 -1.36494
2.46623 -1.87063 -1.36585
2.47528 -1.86524 -1.3676
2.48416 -1.85969 -1.36926
2.49307 -1.85412 -1.37094
2.50198 -1.84853 -1.37263
2.51091 -1.84292 -1.37434
2.51986 -1.83729 -1.37606
2.52881 -1.83164 -1.37779
2.53779 -1.82597 -1.37954
2.54677 -1.82028 -1.3813
2.55578 -1.81457 -1.38307
2.56479 -1.80883 -1.38486
2.57382 -1.80308 -1.38666
2.58287 -1.79731 -1.38847
2.59193 -1.79152 -1.3903
2.60101 -1.7857 -1.39214
2.61011 -1.77987 -1.394
2.61922 -1.77401 -1.39587
2.62834 -1.76813 -1.39776
2.63749 -1.76223 -1.39966
2.64664 -1.7563 -1.40158
2.65582 -1.75036 -1.40351
2.66548 -1.7447 -1.4057
2.67805 -1.7409 -1.40943
2.69068 -1.73707 -1.41319
2.70337 -1.73321 -1.41697
2.71612 -1.72932 -1.42079
2.72892 -1.72541 -1.42464
2.74179 -1.72147 -1.42851
2.75471 -1.7175 -1.43242
2.7677 -1.71351 -1.43635
2.78074 -1.70948 -1.44032
2.79385 -1.70543 -1.44432
2.80703 -1.70135 -1.44835
2.82026 -1.69724 -1.45241
2.83356 -1.6931 -1.45651
2.8467 -1.68879 -1.46051
2.85897 -1.68391 -1.46408
2.87128 -1.679 -1.46767
2.88392 -1.6742 -1.47142
1.99004 -2.35683 -1.39184
1.99604 -2.34886 -1.39084
2.00201 -2.3409 -1.38985
2.00795 -2.33292 -1.38887
2.01388 -2.32494 -1.38789
2.01978 -2.31695 -1.38692
2.02566 -2.30896 -1.38595
2.03151 -2.30096 -1.38498
2.03734 -2.29296 -1.38403
2.04315 -2.28495 -1.38307
2.04894 -2.27694 -1.38212
2.0547 -2.26892 -1.38118
2.06044 -2.26089 -1.38024
2.06616 -2.25286 -1.37931
2.07208 -2.24506 -1.37852
2.07809 -2.23738 -1.37782
2.08408 -2.22969 -1.37713
2.09004 -2.22199 -1.37644
2.09599 -2.21429 -1.37575
2.10192 -2.20658 -1.37507
2.10843 -2.19949 -1.37479
2.11518 -2.19265 -1.37467
2.1219 -2.18579 -1.37456
2.12862 -2.17892 -1.37445
2.13532 -2.17204 -1.37435
2.142 -2.16515 -1.37425
2.14867 -2.15824 -1.37416
2.15533 -2.15132 -1.37407
2.16197 -2.14439 -1.37399
2.1686 -2.13744 -1.37392
2.17521 -2.13048 -1.37384
2.18181 -2.12351 -1.37378
2.18839 -2.11653 -1.37371
2.19496 -2.10953 -1.37366
2.20152 -2.10252 -1.3736
2.20806 -2.0955 -1.37356
2.21458 -2.08846 -1.37351
2.2211 -2.08141 -1.37348
2.22727 -2.07405 -1.37324
2.23341 -2.06666 -1.373
2.23953 -2.05926 -1.37277
2.24563 -2.05184 -1.37254
2.25172 -2.04442 -1.37232
2.25779 -2.03699 -1.3721
2.26385 -2.02954 -1.37188
2.26989 -2.02209 -1.37167
2.27592 -2.01462 -1.37147
2.28192 -2.00715 -1.37127
2.28791 -1.99966 -1.37108
2.29389 -1.99216 -1.37089
2.29985 -1.98465 -1.3707
2.30579 -1.97714 -1.37052
2.31172 -1.96961 -1.37035
2.31825 -1.9626 -1.37055
2.32522 -1.95595 -1.37102
2.33218 -1.94928 -1.37149
2.33914 -1.9426 -1.37197
2.34608 -1.93591 -1.37246
2.35302 -1.9292 -1.37295
2.35995 -1.92247 -1.37345
2.36687 -1.91573 -1.37396
2.37379 -1.90897 -1.37448
2.38069 -1.9022 -1.375
2.38797 -1.89571 -1.37574
2.39617 -1.88994 -1.37703
2.40438 -1.88415 -1.37833
2.4126 -1.87835 -1.37963
2.42082 -1.87252 -1.38095
2.42905 -1.86668 -1.38229
2.43729 -1.86082 -1.38363
2.44603 -1.85532 -1.38526
2.45541 -1.85026 -1.38726
2.4648 -1.84519 -1.38928
2.47422 -1.8401 -1.39131
2.48365 -1.83498 -1.39335
2.49274 -1.82958 -1.39521
2.50159 -1.82397 -1.39694
2.51047 -1.81835 -1.39869
2.51935 -1.8127 -1.40045
2.52825 -1.80704 -1.40222
2.53716 -1.80135 -1.40401
2.54609 -1.79564 -1.40581
2.55503 -1.78992 -1.40762
2.56399 -1.78417 -1.40945
2.57296 -1.7784 -1.41129
2.58195 -1.77261 -1.41315
2.59095 -1.7668 -1.41502
2.59997 -1.76097 -1.41691
2.609 -1.75511 -1.41881
2.61805 -1.74924 -1.42073
2.62711 -1.74334 -1.42266
2.63619 -1.73743 -1.4246
2.64529 -1.73148 -1.42656
2.65641 -1.72683 -1.42961
2.66888 -1.72299 -1.4334
2.68141 -1.71913 -1.43721
2.69399 -1.71523 -1.44104
2.70663 -1.71132 -1.44491
2.71933 -1.70737 -1.44881
2.73209 -1.7034 -1.45274
2.7449 -1.6994 -1.4567
2.75778 -1.69537 -1.46069
2.77072 -1.69131 -1.46471
2.78372 -1.68722 -1.46877
2.79678 -1.68311 -1.47285
2.8099 -1.67896 -1.47697
2.82309 -1.67479 -1.48112
2.83634 -1.67058 -1.4853
2.84965 -1.66635 -1.48951
2.86216 -1.66158 -1.4933
1.98068 -2.34574 -1.41611
1.98307 -2.3336 -1.41255
1.98544 -2.32152 -1.40902
1.9878 -2.3095 -1.40552
1.99014 -2.29754 -1.40205
1.99247 -2.28563 -1.39861
1.99478 -2.27377 -1.3952
1.99878 -2.26389 -1.393
2.00454 -2.25604 -1.39205
2.01028 -2.24819 -1.3911
2.016 -2.24033 -1.39016
2.02169 -2.23246 -1.38923
2.02736 -2.22459 -1.3883
2.03325 -2.21697 -1.38754
2.0392 -2.20944 -1.38684
2.04541 -2.2022 -1.38634
2.05213 -2.19551 -1.3862
2.05884 -2.18882 -1.38606
2.06553 -2.18211 -1.38593
2.07221 -2.1754 -1.3858
2.07888 -2.16866 -1.38568
2.08553 -2.16192 -1.38557
2.09217 -2.15516 -1.38546
2.09879 -2.14839 -1.38535
2.1054 -2.14161 -1.38525
2.11199 -2.13481 -1.38515
2.11857 -2.128 -1.38506
2.12514 -2.12118 -1.38497
2.13169 -2.11435 -1.38489
2.13822 -2.1075 -1.38482
