ply
format ascii 1.0
comment Created by Open3D
element vertex 1822
property double x
property double y
property double z
end_header
4.5598 -0.195564 -1.79124
4.55894 -0.18118 -1.79066
4.55808 -0.166805 -1.79011
4.55722 -0.152439 -1.78958
4.55636 -0.138082 -1.78906
4.5555 -0.123732 -1.78856
4.55464 -0.10939 -1.78808
4.55379 -0.0950567 -1.78762
4.55293 -0.0807306 -1.78717
4.55207 -0.0664103 -1.78675
4.55122 -0.0520967 -1.78634
4.55036 -0.0377907 -1.78595
4.54951 -0.0234908 -1.78557
4.54941 -0.00919712 -1.78552
4.54954 0.00509606 -1.78556
4.54925 0.0193874 -1.78547
4.55011 0.0336855 -1.78583
4.55096 0.0479908 -1.78622
4.55182 0.0623027 -1.78662
4.55268 0.0766197 -1.78705
4.55353 0.090944 -1.78749
4.55439 0.105276 -1.78795
4.55525 0.119616 -1.78842
4.55611 0.133963 -1.78892
4.55697 0.148317 -1.78943
4.55783 0.162682 -1.78996
4.5587 0.177054 -1.79051
4.55956 0.191435 -1.79107
4.56042 0.205825 -1.79166
4.56129 0.220225 -1.79226
4.56215 0.234636 -1.79288
4.56302 0.249055 -1.79352
4.56388 0.263485 -1.79417
4.56475 0.277927 -1.79485
4.56562 0.29238 -1.79554
4.5665 0.306844 -1.79626
4.56956 0.321472 -1.79785
4.57262 0.336128 -1.79946
4.57569 0.35081 -1.8011
4.57877 0.365518 -1.80275
4.58185 0.380253 -1.80442
4.58493 0.395017 -1.80612
4.58803 0.409809 -1.80784
4.59113 0.424628 -1.80957
4.59423 0.439475 -1.81133
4.59782 0.4544 -1.8133
4.60153 0.46937 -1.81534
4.60706 0.484562 -1.81811
4.61378 0.499928 -1.82137
4.62052 0.51535 -1.82467
4.62729 0.530829 -1.82799
4.63408 0.546363 -1.83134
4.6409 0.561954 -1.83472
4.64774 0.577605 -1.83814
4.65462 0.593314 -1.84158
4.66151 0.609081 -1.84506
4.66844 0.624908 -1.84857
4.67621 0.64091 -1.85244
4.68592 0.657246 -1.85709
4.69568 0.673663 -1.86179
4.70862 0.690623 -1.86777
4.77259 0.715329 -1.89402
4.82795 0.739143 -1.91691
4.85772 0.759327 -1.92967
4.88789 0.779781 -1.94262
4.91847 0.800513 -1.95576
4.95569 0.82256 -1.97158
5.05628 0.855587 -2.01265
5.26265 0.907522 -2.09592
5.14777 -0.875844 -2.09963
4.96848 -0.829286 -2.02543
4.91659 -0.804756 -2.00324
4.88605 -0.784004 -1.98978
4.85591 -0.763529 -1.97652
4.82616 -0.743321 -1.96345
4.79679 -0.723378 -1.95057
4.76277 -0.702952 -1.93583
4.70813 -0.679783 -1.91274
4.69832 -0.663303 -1.9079
4.68855 -0.646908 -1.9031
4.67884 -0.630596 -1.89834
4.66918 -0.614365 -1.89363
4.65957 -0.598215 -1.88896
4.65158 -0.582339 -1.88497
4.64472 -0.566667 -1.88146
4.63789 -0.551053 -1.87798
4.63108 -0.535494 -1.87454
4.62431 -0.519993 -1.87112
4.61755 -0.50455 -1.86774
4.61082 -0.489162 -1.86439
4.60473 -0.47389 -1.86131
4.60101 -0.458904 -1.85922
4.5973 -0.443953 -1.85715
4.5936 -0.429035 -1.8551
4.58991 -0.414148 -1.85307
4.5865 -0.399318 -1.85118
4.58342 -0.384545 -1.84944
4.58033 -0.3698 -1.84772
4.57726 -0.355081 -1.84602
4.57419 -0.340389 -1.84434
4.57112 -0.325725 -1.84268
4.56806 -0.311087 -1.84105
4.56629 -0.296556 -1.83994
4.56542 -0.282099 -1.83923
4.56455 -0.267654 -1.83853
4.56369 -0.25322 -1.83785
4.56282 -0.238795 -1.83719
4.56196 -0.22438 -1.83655
4.56109 -0.209977 -1.83593
4.56023 -0.195583 -1.83533
4.55937 -0.181197 -1.83474
4.55851 -0.16682 -1.83418
4.55765 -0.152454 -1.83363
4.55679 -0.138095 -1.8331
4.55593 -0.123744 -1.83259
4.55507 -0.1094 -1.83209
4.55421 -0.0950657 -1.83162
4.55398 -0.0807493 -1.83142
4.5544 -0.0664443 -1.83149
4.55482 -0.052138 -1.83159
4.55525 -0.0378313 -1.8317
4.55567 -0.0235227 -1.83183
4.5561 -0.00921065 -1.83198
4.55623 0.00510355 -1.83203
4.5558 0.0194151 -1.83188
4.55538 0.0337243 -1.83174
4.55495 0.0480328 -1.83162
4.55453 0.0623396 -1.83152
4.55412 0.0766438 -1.83144
4.55396 0.0909522 -1.83149
4.55482 0.105286 -1.83195
4.55568 0.119628 -1.83244
4.55654 0.133976 -1.83295
4.5574 0.148331 -1.83347
4.55826 0.162697 -1.83402
4.55913 0.177071 -1.83458
4.55999 0.191453 -1.83516
4.56085 0.205844 -1.83576
4.56172 0.220246 -1.83637
4.56258 0.234658 -1.83701
4.56345 0.249079 -1.83767
4.56431 0.26351 -1.83834
4.56518 0.277953 -1.83903
4.56605 0.292408 -1.83974
4.56717 0.306888 -1.84057
4.57023 0.321519 -1.8422
4.57329 0.336177 -1.84385
4.57636 0.350861 -1.84553
4.57944 0.365572 -1.84722
4.58252 0.380309 -1.84894
4.58561 0.395075 -1.85068
4.58884 0.409881 -1.85249
4.59253 0.424757 -1.85451
4.59623 0.439666 -1.85655
4.59993 0.454609 -1.85862
4.60365 0.469585 -1.8607
4.60885 0.48475 -1.86341
4.61557 0.500122 -1.86676
4.62232 0.515551 -1.87013
4.62909 0.531036 -1.87354
4.63589 0.546576 -1.87697
4.64271 0.562174 -1.88044
4.64957 0.577831 -1.88394
4.65675 0.593587 -1.8876
4.66635 0.609713 -1.89226
4.67599 0.62592 -1.89696
4.68569 0.64221 -1.9017
4.69545 0.658581 -1.90649
4.70525 0.675036 -1.91132
4.74362 0.695755 -1.92779
4.78815 0.717661 -1.94679
4.81741 0.737528 -1.95962
4.84704 0.757657 -1.97263
4.87708 0.778055 -1.98584
4.90751 0.798729 -1.99925
4.94045 0.820032 -2.0137
5.10734 0.864226 -2.08282
5.2546 0.906134 -2.14403
5.17955 -0.88125 -2.16349
5.04947 -0.842804 -2.10804
4.93466 -0.807714 -2.05904
4.91101 -0.788009 -2.04813
4.87325 -0.766257 -2.03137
4.83475 -0.744644 -2.01433
4.7969 -0.723394 -1.99761
4.75969 -0.702498 -1.98119
4.72899 -0.682794 -1.9675
4.70795 -0.664665 -1.95787
4.69814 -0.648232 -1.95294
4.68839 -0.631883 -1.94805
4.67869 -0.615616 -1.9432
4.66904 -0.59943 -1.9384
4.65944 -0.583324 -1.93365
4.64989 -0.567298 -1.92893
4.64039 -0.55135 -1.92427
4.6329 -0.535705 -1.92045
4.62612 -0.520197 -1.91695
4.61936 -0.504747 -1.91349
4.61262 -0.489353 -1.91005
4.60686 -0.474109 -1.90704
4.60314 -0.459116 -1.90489
4.59942 -0.444158 -1.90277
4.59572 -0.429233 -1.90067
4.59203 -0.414339 -1.89859
4.58835 -0.399478 -1.89654
4.58467 -0.38465 -1.89451
4.58101 -0.369855 -1.89251
4.57793 -0.355134 -1.89077
4.57486 -0.340439 -1.88905
4.5718 -0.325773 -1.88736
4.56874 -0.311132 -1.88568
4.56672 -0.296584 -1.88445
4.56585 -0.282125 -1.88372
4.56499 -0.267679 -1.883
4.56412 -0.253244 -1.88231
4.56326 -0.238817 -1.88164
4.56239 -0.224401 -1.88098
4.56153 -0.209997 -1.88034
4.56066 -0.195601 -1.87972
4.5598 -0.181214 -1.87912
4.55894 -0.166836 -1.87854
4.55868 -0.152488 -1.87823
4.55909 -0.138165 -1.87821
4.55949 -0.123841 -1.87821
4.5599 -0.109516 -1.87823
4.56032 -0.0951931 -1.87826
4.56073 -0.080869 -1.87832
4.56115 -0.0665428 -1.8784
4.56157 -0.0522153 -1.87849
4.562 -0.0378874 -1.87861
4.56243 -0.0235575 -1.87875
4.56286 -0.0092243 -1.8789
4.56299 0.00511112 -1.87895
4.56256 0.0194439 -1.87879
4.56213 0.0337743 -1.87865
4.56171 0.048104 -1.87853
4.56128 0.062432 -1.87843
4.56087 0.0767574 -1.87834
4.56045 0.0910818 -1.87828
4.56004 0.105407 -1.87824
4.55963 0.119731 -1.87822
4.55922 0.134054 -1.87821
4.55882 0.148377 -1.87823
4.5587 0.162712 -1.87838
4.55956 0.177088 -1.87896
4.56042 0.191471 -1.87955
4.56128 0.205863 -1.88016
4.56215 0.220267 -1.8808
4.56301 0.23468 -1.88145
4.56388 0.249102 -1.88212
4.56475 0.263535 -1.88281
4.56562 0.27798 -1.88352
4.56648 0.292435 -1.88425
4.56784 0.306934 -1.88519
4.5709 0.321566 -1.88687
4.57397 0.336227 -1.88856
4.57704 0.350913 -1.89027
4.58012 0.365626 -1.89201
4.5836 0.380398 -1.89393
4.58727 0.395218 -1.89595
4.59096 0.41007 -1.898
4.59465 0.424953 -1.90007
4.59835 0.439869 -1.90216
4.60206 0.454819 -1.90427
4.60578 0.469803 -1.90642
4.61064 0.484939 -1.90905
4.61737 0.500317 -1.91248
4.62413 0.515752 -1.91594
4.63091 0.531244 -1.91943
4.63771 0.546791 -1.92295
4.64708 0.562703 -1.92756
4.65662 0.578708 -1.93226
4.66621 0.594791 -1.937
4.67584 0.610954 -1.94179
4.68553 0.627197 -1.94662
4.69528 0.643523 -1.9515
4.70507 0.659932 -1.95643
4.71527 0.676474 -1.96154
4.74896 0.69654 -1.97646
4.7858 0.717309 -1.99272
4.82347 0.738457 -2.00936
4.86179 0.759963 -2.02631
4.90078 0.781837 -2.04357
4.92767 0.80201 -2.05582
4.99148 0.8285 -2.08352
5.14345 0.870337 -2.14809
5.27686 -0.897808 -2.25635
5.09017 -0.849597 -2.17537
4.94469 -0.809356 -2.1121
4.92094 -0.789603 -2.10088
4.89744 -0.77006 -2.08981
4.87361 -0.750631 -2.07862
4.83513 -0.72916 -2.06123
4.79732 -0.708051 -2.04415
4.76013 -0.687291 -2.02737
4.72357 -0.666869 -2.0109
4.71271 -0.650241 -2.00539
4.70214 -0.633736 -2.00004
4.69154 -0.617307 -1.99469
4.681 -0.600965 -1.9894
4.67052 -0.584711 -1.98416
4.66011 -0.568544 -1.97896
4.64983 -0.552471 -1.97385
4.64034 -0.536564 -1.9691
4.6309 -0.520735 -1.96439
4.6215 -0.504981 -1.95972
4.61444 -0.489545 -1.95606
4.609 -0.47433 -1.95312
4.60528 -0.45933 -1.95092
4.60156 -0.444364 -1.94875
4.59786 -0.429432 -1.94659
4.59416 -0.414532 -1.94447
4.59047 -0.399663 -1.94237
4.58679 -0.384828 -1.94029
4.58312 -0.370025 -1.93823
4.57946 -0.355252 -1.9362
4.57581 -0.340509 -1.9342
4.57248 -0.325821 -1.93235
4.56942 -0.311179 -1.93063
4.56716 -0.296613 -1.92927
4.56629 -0.282153 -1.92852
4.56542 -0.267705 -1.92779
4.56456 -0.253268 -1.92708
4.56369 -0.23884 -1.92639
4.56351 -0.224457 -1.92601
4.5639 -0.210106 -1.92588
4.5643 -0.195757 -1.92578
4.56469 -0.181409 -1.9257
4.56509 -0.167061 -1.92564
4.5655 -0.152716 -1.92559
4.5659 -0.138371 -1.92557
4.56631 -0.124026 -1.92557
4.56672 -0.10968 -1.92559
4.56713 -0.0953354 -1.92563
4.56755 -0.0809899 -1.92569
4.56797 -0.0666423 -1.92576
4.56839 -0.0522933 -1.92586
4.56882 -0.037944 -1.92598
4.56925 -0.0235928 -1.92612
4.56968 -0.0092381 -1.92628
4.56981 0.00511876 -1.92634
4.56938 0.0194729 -1.92617
4.56895 0.0338248 -1.92603
4.56852 0.0481759 -1.9259
4.5681 0.0625253 -1.9258
4.56768 0.0768722 -1.92571
4.56727 0.0912179 -1.92565
4.56685 0.105564 -1.9256
4.56644 0.11991 -1.92558
4.56604 0.134254 -1.92558
4.56563 0.148599 -1.92559
4.56523 0.162945 -1.92563
4.56483 0.177293 -1.92569
4.56443 0.19164 -1.92577
4.56404 0.205988 -1.92586
4.56365 0.22034 -1.92598
4.56345 0.234703 -1.9262
4.56432 0.249126 -1.92688
4.56518 0.26356 -1.92759
4.56605 0.278006 -1.92832
4.56692 0.292463 -1.92906
4.56852 0.306979 -1.93014
4.57158 0.321614 -1.93185
4.57474 0.336283 -1.93362
4.57839 0.351017 -1.93562
4.58205 0.36578 -1.93764
4.58572 0.380575 -1.93969
4.5894 0.395402 -1.94176
4.59309 0.410261 -1.94386
4.59678 0.425151 -1.94598
4.60049 0.440074 -1.94812
4.6042 0.455031 -1.95029
4.60792 0.470022 -1.95248
4.61246 0.485129 -1.95504
4.61919 0.500514 -1.95855
4.62812 0.516198 -1.96301
4.63755 0.532006 -1.96771
4.64702 0.547889 -1.97245
4.65705 0.56391 -1.97745
4.66745 0.580054 -1.98263
4.67791 0.596283 -1.98786
4.68843 0.612599 -1.99314
4.69902 0.629002 -1.99847
4.70964 0.645492 -2.00384
4.72014 0.662045 -2.00918
4.74921 0.681343 -2.02246
4.78622 0.702005 -2.03915
4.82387 0.723015 -2.05614
4.86216 0.744381 -2.07345
4.89056 0.764459 -2.08658
4.91399 0.783944 -2.09761
4.93767 0.803638 -2.10879
5.05526 0.839088 -2.16013
5.27687 0.892914 -2.25601
5.31279 -0.90392 -2.32465
5.31163 -0.88656 -2.32291
5.00413 -0.819085 -2.18729
4.93098 -0.791215 -2.15422
4.90738 -0.771623 -2.14285
4.88403 -0.752236 -2.13161
4.86093 -0.733051 -2.12051
4.83581 -0.713733 -2.10856
4.79802 -0.69276 -2.09112
4.76085 -0.672132 -2.074
4.72993 -0.652617 -2.05962
4.7194 -0.636063 -2.05416
4.70893 -0.619596 -2.04874
4.69852 -0.603216 -2.04338
4.68796 -0.586894 -2.03797
4.67746 -0.570662 -2.03262
4.66703 -0.554514 -2.02732
4.65665 -0.538451 -2.02207
4.64634 -0.522471 -2.01687
4.63608 -0.506575 -2.01171
4.62589 -0.49076 -2.00661
4.61752 -0.475206 -2.00232
4.61253 -0.460053 -1.99952
4.60823 -0.445008 -1.99704
4.60412 -0.430017 -1.99467
4.60003 -0.415061 -1.99232
4.59595 -0.40014 -1.99
4.59189 -0.385256 -1.98771
4.58784 -0.370406 -1.98544
4.58381 -0.355589 -1.9832
4.57979 -0.340806 -1.98099
4.57579 -0.326057 -1.97881
4.5718 -0.311341 -1.97665
4.56884 -0.296722 -1.97496
4.56923 -0.282334 -1.97473
4.56962 -0.267951 -1.97453
4.57001 -0.25357 -1.97434
4.57041 -0.239192 -1.97418
4.57081 -0.224816 -1.97404
4.57122 -0.210443 -1.97392
4.57163 -0.196072 -1.97382
4.57205 -0.181701 -1.97374
4.57247 -0.167331 -1.97369
4.57289 -0.152964 -1.97366
4.57333 -0.138596 -1.97365
4.57376 -0.124228 -1.97366
4.5742 -0.10986 -1.97369
4.57465 -0.0954922 -1.97374
4.5751 -0.0811237 -1.97382
4.57555 -0.0667529 -1.97391
4.57601 -0.0523806 -1.97403
4.57648 -0.0380076 -1.97417
4.57695 -0.0236325 -1.97433
4.57697 -0.00925284 -1.97432
4.5768 0.00512659 -1.97424
4.57709 0.0195058 -1.97438
4.57662 0.0338817 -1.97422
4.57616 0.0482568 -1.97407
4.5757 0.0626295 -1.97395
4.57524 0.0769993 -1.97385
4.57479 0.0913684 -1.97377
4.57435 0.105738 -1.97371
4.57391 0.120106 -1.97367
4.57347 0.134474 -1.97366
4.57304 0.14884 -1.97366
4.57261 0.163209 -1.97369
4.57219 0.177578 -1.97374
4.57177 0.191948 -1.97381
4.57136 0.206319 -1.9739
4.57095 0.220692 -1.97401
4.57055 0.235068 -1.97415
4.57015 0.249445 -1.97431
4.56976 0.263825 -1.97448
4.56937 0.278208 -1.97468
4.56899 0.292596 -1.97491
4.57063 0.307121 -1.97602
4.57461 0.321828 -1.97817
4.57862 0.336568 -1.98035
4.58263 0.351342 -1.98256
4.58666 0.366148 -1.98479
4.59071 0.380988 -1.98705
4.59477 0.395864 -1.98933
4.59884 0.410775 -1.99164
4.60293 0.425719 -1.99398
4.60704 0.4407 -1.99635
4.61116 0.455718 -1.99875
4.61606 0.470852 -2.00151
4.62289 0.486226 -2.00512
4.63307 0.502018 -2.01021
4.6433 0.517891 -2.01534
4.6536 0.533848 -2.02053
4.66396 0.549886 -2.02577
4.67438 0.566009 -2.03106
4.68487 0.582218 -2.0364
4.69541 0.598514 -2.04179
4.70587 0.614877 -2.04717
4.71632 0.631318 -2.05257
4.72684 0.647849 -2.05802
4.74994 0.666225 -2.06898
4.78693 0.686754 -2.08602
4.82455 0.707626 -2.10337
4.85416 0.727555 -2.11727
4.87719 0.746682 -2.12833
4.90047 0.766009 -2.13953
4.924 0.785541 -2.15087
4.96073 0.80739 -2.16801
5.08634 0.844246 -2.22405
5.31256 0.898953 -2.32419
5.37708 -0.897482 -2.40546
5.37143 -0.879206 -2.40169
5.36591 -0.861002 -2.398
4.91743 -0.773204 -2.19648
4.89399 -0.753768 -2.18494
4.87079 -0.734537 -2.17354
4.84784 -0.715508 -2.16229
4.82512 -0.696674 -2.15117
4.799 -0.677518 -2.13856
4.76186 -0.657022 -2.12108
4.73678 -0.638406 -2.10901
4.72623 -0.621873 -2.10343
4.71574 -0.605426 -2.0979
4.70531 -0.589067 -2.09243
4.69495 -0.572795 -2.08701
4.68455 -0.556597 -2.0816
4.67409 -0.540467 -2.07619
4.66369 -0.524422 -2.07083
4.65336 -0.508462 -2.06552
4.64308 -0.492584 -2.06026
4.63323 -0.476823 -2.05521
4.6282 -0.461616 -2.05233
4.62319 -0.446453 -2.04948
4.61821 -0.431333 -2.04666
4.61324 -0.416253 -2.04387
4.60873 -0.401253 -2.0413
4.60464 -0.386326 -2.03894
4.60057 -0.371433 -2.03661
4.59651 -0.356574 -2.03431
4.59246 -0.341749 -2.03203
4.58843 -0.326958 -2.02978
4.58442 -0.3122 -2.02756
4.58042 -0.297474 -2.02537
4.58039 -0.283024 -2.02496
4.58078 -0.268605 -2.02474
4.58117 -0.254189 -2.02455
4.58157 -0.239776 -2.02439
4.58197 -0.225364 -2.02424
4.58238 -0.210956 -2.02412
4.58279 -0.19655 -2.02402
4.58321 -0.182144 -2.02394
4.58363 -0.16774 -2.02389
4.58406 -0.153337 -2.02385
4.58449 -0.138935 -2.02384
4.58493 -0.124531 -2.02385
4.58537 -0.110128 -2.02388
4.58582 -0.0957253 -2.02394
4.58565 -0.0813108 -2.02374
4.58506 -0.0668916 -2.02338
4.58448 -0.0524774 -2.02304
4.58389 -0.0380692 -2.02272
4.58331 -0.0236654 -2.02242
4.58274 -0.0092645 -2.02214
4.58257 0.00513305 -2.02206
4.58314 0.0195316 -2.02233
4.58372 0.0339342 -2.02263
4.5843 0.0483423 -2.02294
4.58489 0.0627551 -2.02328
4.58548 0.0771716 -2.02363
4.58596 0.0915915 -2.02396
4.58551 0.105995 -2.0239
4.58507 0.1204 -2.02386
4.58463 0.134801 -2.02385
4.5842 0.149203 -2.02385
4.58377 0.163607 -2.02388
4.58335 0.178012 -2.02393
4.58293 0.192416 -2.02401
4.58252 0.206822 -2.0241
4.58211 0.221231 -2.02422
4.58171 0.235642 -2.02436
4.58131 0.250054 -2.02452
4.58092 0.264469 -2.0247
4.58053 0.278887 -2.02491
4.58015 0.29331 -2.02513
4.58324 0.307968 -2.02692
4.58726 0.322717 -2.02913
4.59128 0.337499 -2.03137
4.59532 0.352315 -2.03364
4.59938 0.367163 -2.03594
4.60345 0.382046 -2.03826
4.60754 0.396964 -2.04061
4.6118 0.411932 -2.04306
4.61676 0.426998 -2.04584
4.62174 0.442106 -2.04866
4.62674 0.457258 -2.0515
4.63176 0.472453 -2.05437
4.64006 0.488032 -2.05872
4.65032 0.503887 -2.06397
4.66064 0.519825 -2.06926
4.67102 0.535846 -2.07461
4.68146 0.551949 -2.08001
4.69191 0.568131 -2.08543
4.70226 0.58438 -2.09084
4.71267 0.600715 -2.0963
4.72315 0.617134 -2.10181
4.73368 0.633642 -2.10737
4.75095 0.651153 -2.11596
4.78792 0.671552 -2.13336
4.81845 0.691276 -2.14791
4.8411 0.710053 -2.15899
4.86399 0.729028 -2.17021
4.88712 0.748202 -2.18157
4.9105 0.767576 -2.19307
5.36456 0.855824 -2.39705
5.37005 0.874009 -2.40072
5.37567 0.892269 -2.40447
4.81232 -0.679399 -2.19294
4.78998 -0.660903 -2.1818
4.76316 -0.641961 -2.16865
4.74379 -0.624183 -2.15893
4.73321 -0.60767 -2.15324
4.7227 -0.591244 -2.1476
4.71225 -0.574906 -2.14201
4.70187 -0.558655 -2.13649
4.69154 -0.542485 -2.13101
4.68127 -0.526399 -2.12558
4.67089 -0.510378 -2.12013
4.66053 -0.494435 -2.11471
4.65023 -0.478573 -2.10935
4.6441 -0.463202 -2.10589
4.63905 -0.447985 -2.10296
4.63403 -0.432811 -2.10005
4.62902 -0.417677 -2.09718
4.62404 -0.402586 -2.09434
4.61908 -0.387537 -2.09153
4.61414 -0.372529 -2.08875
4.60937 -0.357572 -2.08608
4.6053 -0.342704 -2.08374
4.60125 -0.327871 -2.08143
4.59721 -0.313071 -2.07914
4.59318 -0.298303 -2.07689
4.59168 -0.283722 -2.0758
4.59207 -0.269267 -2.07558
4.59246 -0.254816 -2.07539
4.59286 -0.240367 -2.07521
4.59327 -0.22592 -2.07507
4.59367 -0.211477 -2.07494
4.59409 -0.197035 -2.07484
4.59451 -0.182593 -2.07476
4.59493 -0.168153 -2.0747
4.59447 -0.153685 -2.07426
4.59386 -0.139219 -2.07378
4.59326 -0.124758 -2.07332
4.59266 -0.110303 -2.07289
4.59207 -0.0958559 -2.07247
4.59148 -0.0814142 -2.07208
4.59089 -0.0669766 -2.07171
4.5903 -0.0525441 -2.07136
4.58972 -0.0381176 -2.07103
4.58914 -0.0236955 -2.07073
4.58856 -0.00927627 -2.07044
4.58839 0.00513957 -2.07036
4.58897 0.0195564 -2.07064
4.58955 0.0339773 -2.07094
4.59013 0.0484037 -2.07126
4.59072 0.0628349 -2.0716
4.59131 0.0772697 -2.07197
4.5919 0.0917099 -2.07236
4.59249 0.106157 -2.07277
4.59309 0.12061 -2.0732
4.59369 0.135068 -2.07365
4.5943 0.149532 -2.07412
4.5949 0.164005 -2.07462
4.59465 0.178451 -2.07475
4.59423 0.192891 -2.07482
4.59382 0.207333 -2.07492
4.59341 0.221777 -2.07504
4.59301 0.236223 -2.07518
4.59261 0.250671 -2.07535
4.59222 0.265121 -2.07554
4.59183 0.279576 -2.07575
4.592 0.294069 -2.07623
4.59602 0.308827 -2.07848
4.60006 0.323618 -2.08076
4.60411 0.338443 -2.08306
4.60818 0.353301 -2.08539
4.61269 0.368226 -2.08795
4.61763 0.383223 -2.09072
4.62259 0.398261 -2.09352
4.62757 0.41334 -2.09635
4.63256 0.42846 -2.09921
4.63758 0.443622 -2.10211
4.64263 0.458828 -2.10504
4.64769 0.474078 -2.108
4.65748 0.489865 -2.11313
4.66783 0.505784 -2.11853
4.67823 0.521787 -2.12399
4.68851 0.537852 -2.12941
4.69882 0.553996 -2.13487
4.70919 0.570224 -2.14039
4.71963 0.586538 -2.14596
4.73012 0.602939 -2.15158
4.74068 0.619425 -2.15726
4.75225 0.636127 -2.16342
4.78341 0.655603 -2.17854
4.80569 0.674044 -2.18964
4.69859 -0.528346 -2.18092
4.6883 -0.51228 -2.17539
4.67807 -0.496296 -2.16991
4.66786 -0.480388 -2.16446
4.66022 -0.46481 -2.16023
4.65514 -0.449538 -2.15721
4.65007 -0.43431 -2.15422
4.64503 -0.419122 -2.15126
4.64001 -0.403976 -2.14834
4.63501 -0.388874 -2.14545
4.63003 -0.373812 -2.14259
4.62507 -0.35879 -2.13976
4.62013 -0.343808 -2.13697
4.61521 -0.328866 -2.1342
4.61031 -0.313964 -2.13147
4.60611 -0.299142 -2.12908
4.60312 -0.284428 -2.12728
4.60351 -0.269938 -2.12705
4.6039 -0.255451 -2.12685
4.60406 -0.240953 -2.12657
4.60344 -0.22642 -2.12594
4.60282 -0.211897 -2.12534
4.6022 -0.197383 -2.12475
4.60158 -0.182875 -2.12419
4.60097 -0.168374 -2.12366
4.60037 -0.153883 -2.12314
4.59976 -0.139398 -2.12265
4.59916 -0.124918 -2.12218
4.59856 -0.110445 -2.12174
4.59796 -0.0959789 -2.12131
4.59737 -0.0815187 -2.12091
4.59678 -0.0670625 -2.12053
4.59619 -0.0526115 -2.12017
4.59561 -0.0381665 -2.11983
4.59502 -0.0237259 -2.11952
4.59445 -0.00928817 -2.11923
4.59427 0.00514616 -2.11915
4.59485 0.0195815 -2.11943
4.59543 0.0340209 -2.11974
4.59602 0.0484658 -2.12007
4.59661 0.0629155 -2.12042
4.5972 0.0773689 -2.1208
4.59779 0.0918276 -2.12119
4.59839 0.106293 -2.12161
4.59899 0.120765 -2.12205
4.59959 0.135241 -2.12252
4.6002 0.149724 -2.123
4.60081 0.164215 -2.12351
4.60142 0.178714 -2.12404
4.60203 0.193218 -2.1246
4.60265 0.207731 -2.12517
4.60327 0.222252 -2.12577
4.60389 0.236783 -2.12639
4.60405 0.251295 -2.12682
4.60365 0.265781 -2.12701
4.60327 0.280272 -2.12723
4.60492 0.294897 -2.12841
4.60897 0.309697 -2.13072
4.61377 0.324582 -2.1334
4.61868 0.339513 -2.13615
4.62362 0.354484 -2.13894
4.62857 0.369494 -2.14176
4.63355 0.384544 -2.14461
4.63855 0.399636 -2.14749
4.64356 0.414769 -2.15041
4.6486 0.429943 -2.15336
4.65366 0.44516 -2.15634
4.65874 0.460421 -2.15935
4.66481 0.475824 -2.16285
4.67507 0.491714 -2.16831
4.68528 0.507675 -2.17377
4.69555 0.523719 -2.17929
7.17575 -0.118536 -1.02079
7.15323 -0.0955976 -1.01754
7.1307 -0.0728014 -1.0143
7.10815 -0.0501506 -1.01106
7.08753 -0.0276486 -1.00811
7.06795 -0.00527988 -1.00532
7.07827 0.0170404 -1.00679
7.09783 0.0394738 -1.00958
7.12002 0.0620558 -1.01276
7.14256 0.0847823 -1.016
7.16509 0.107654 -1.01925
6.63617 -0.277224 -1.00111
6.62257 -0.255735 -0.998937
6.61023 -0.234379 -0.996959
6.6049 -0.213334 -0.996047
6.59948 -0.192323 -0.995134
6.59311 -0.171327 -0.994087
6.5867 -0.150372 -0.993044
6.58026 -0.129462 -0.992006
6.57378 -0.108592 -0.990973
6.56726 -0.0877667 -0.989944
6.56071 -0.0669821 -0.988919
6.55412 -0.0462417 -0.9879
6.5475 -0.0255419 -0.986885
6.54084 -0.00488612 -0.985874
6.54434 0.0157538 -0.986403
6.55098 0.0364318 -0.987417
6.55758 0.0571538 -0.988434
6.56415 0.0779165 -0.989457
6.57069 0.0987234 -0.990484
6.57718 0.119571 -0.991515
6.58365 0.140463 -0.992551
6.59007 0.161396 -0.993592
6.59646 0.182374 -0.994637
6.60235 0.203378 -0.995617
6.60771 0.224407 -0.996526
6.61612 0.245586 -0.997906
6.62972 0.267034 -1.00008
6.64332 0.288572 -1.00226
6.65693 0.310203 -1.00446
6.67055 0.331925 -1.00667
6.68417 0.353742 -1.00889
6.6978 0.375651 -1.01112
6.71611 0.397933 -1.01407
6.75295 0.421493 -1.01982
6.79006 0.445314 -1.02563
6.82957 0.469545 -1.03182
6.87615 0.494542 -1.03909
6.92321 0.519881 -1.04644
7.01797 0.549263 -1.06102
7.11636 0.579552 -1.07617
6.35218 -0.26536 -1.01238
6.33975 -0.244813 -1.01027
6.334 -0.224584 -1.00924
6.32912 -0.204427 -1.00835
6.32421 -0.184301 -1.00747
6.31926 -0.164211 -1.0066
6.31427 -0.144152 -1.00572
6.30923 -0.124129 -1.00485
6.30416 -0.104138 -1.00399
6.29905 -0.0841822 -1.00313
6.2933 -0.0642519 -1.00217
6.28724 -0.0443588 -1.00118
6.28115 -0.0245029 -1.0002
6.27503 -0.00468755 -0.999213
6.27824 0.0151132 -0.999727
6.28434 0.0349489 -1.00071
6.29042 0.0548253 -1.0017
6.29645 0.0747389 -1.0027
6.30173 0.0946823 -1.00358
6.30682 0.114656 -1.00444
6.31188 0.134665 -1.00531
6.31689 0.154706 -1.00618
6.32186 0.174782 -1.00706
6.32679 0.19489 -1.00793
6.33168 0.215033 -1.00882
6.33653 0.235208 -1.0097
6.34626 0.255617 -1.01138
6.35869 0.276208 -1.01349
6.37112 0.296885 -1.01562
6.38355 0.317644 -1.01775
6.39598 0.338491 -1.0199
6.40841 0.359421 -1.02206
6.42085 0.380438 -1.02423
6.43321 0.401536 -1.02639
6.4446 0.422658 -1.02842
6.45599 0.443859 -1.03046
6.46737 0.465142 -1.0325
6.47874 0.486504 -1.03456
6.4901 0.50795 -1.03662
6.51211 0.530342 -1.0404
6.56008 0.555083 -1.04834
6.61237 0.580518 -1.05698
6.66547 0.606373 -1.06577
6.09048 -0.254428 -1.02269
6.08477 -0.234967 -1.0216
6.08251 -0.215668 -1.0211
6.08024 -0.196388 -1.02061
6.07793 -0.177124 -1.02013
6.0756 -0.157879 -1.01965
6.07325 -0.13865 -1.01917
6.07088 -0.11944 -1.01871
6.06847 -0.100245 -1.01825
6.06605 -0.0810683 -1.01779
6.0636 -0.0619068 -1.01734
6.06112 -0.0427634 -1.0169
6.05862 -0.0236348 -1.01646
6.05609 -0.004524 -1.01603
6.05742 0.0145816 -1.01625
6.05993 0.0337009 -1.01669
6.06242 0.0528381 -1.01713
6.06488 0.0719901 -1.01758
6.06732 0.0911604 -1.01803
6.06974 0.110346 -1.01849
6.07213 0.12955 -1.01895
6.07449 0.148769 -1.01942
6.07683 0.168007 -1.0199
6.07915 0.187261 -1.02038
6.08144 0.206534 -1.02087
6.08371 0.225824 -1.02136
6.08599 0.245134 -1.02187
6.09595 0.264795 -1.02368
6.10642 0.28455 -1.02558
6.11687 0.304374 -1.02749
6.1273 0.324272 -1.02941
6.13773 0.344239 -1.03134
6.14815 0.364281 -1.03328
6.15855 0.384393 -1.03523
6.16894 0.404579 -1.03718
6.17932 0.424838 -1.03915
6.18968 0.445171 -1.04112
6.20003 0.465576 -1.04311
6.21038 0.486057 -1.0451
6.2207 0.50661 -1.0471
6.23431 0.527518 -1.04967
6.27661 0.55104 -1.05707
6.31945 0.574895 -1.06459
6.3665 0.599426 -1.07283
6.46933 0.629701 -1.09049
5.95339 -0.248701 -1.05066
5.9509 -0.229797 -1.05009
5.94838 -0.210912 -1.04952
5.94584 -0.192047 -1.04896
5.94329 -0.1732 -1.04841
5.94107 -0.154383 -1.04792
5.93883 -0.135581 -1.04745
5.93657 -0.116797 -1.04698
5.93428 -0.0980281 -1.04652
5.93196 -0.0792764 -1.04606
5.92962 -0.060539 -1.04561
5.92726 -0.041819 -1.04516
5.92487 -0.023113 -1.04472
5.92246 -0.00442417 -1.04429
5.92372 0.0142598 -1.04451
5.92612 0.0329568 -1.04495
5.9285 0.0516709 -1.04539
5.93085 0.0703992 -1.04584
5.93318 0.0891449 -1.0463
5.93548 0.107905 -1.04676
5.93776 0.126683 -1.04722
5.94001 0.145476 -1.0477
5.94224 0.164286 -1.04818
5.94462 0.183118 -1.04869
5.94718 0.201975 -1.04925
5.94971 0.220849 -1.04982
5.95221 0.239745 -1.05039
5.95527 0.258684 -1.05106
5.9608 0.277764 -1.05219
5.96631 0.296883 -1.05332
5.97181 0.316043 -1.05446
5.97729 0.335241 -1.05561
5.98276 0.354481 -1.05677
5.98821 0.373761 -1.05794
5.99365 0.393083 -1.05911
5.99907 0.412445 -1.06029
6.00447 0.43185 -1.06148
6.00986 0.451295 -1.06268
6.01523 0.470784 -1.06389
6.02059 0.490313 -1.06511
6.026 0.509892 -1.06634
6.03199 0.529565 -1.06769
6.04813 0.550212 -1.07085
6.06631 0.571163 -1.07438
6.09599 0.593362 -1.07997
6.13688 0.616887 -1.08755
5.82501 -0.243338 -1.07804
5.82264 -0.224845 -1.07746
5.82025 -0.206368 -1.07689
5.81783 -0.187913 -1.07633
5.81539 -0.169473 -1.07577
5.81292 -0.151053 -1.07523
5.81043 -0.13265 -1.07468
5.80791 -0.114267 -1.07414
5.80552 -0.0959012 -1.07364
5.80331 -0.077557 -1.07318
5.80108 -0.0592266 -1.07273
5.79882 -0.0409128 -1.07228
5.79653 -0.0226124 -1.07184
5.79422 -0.00432838 -1.07141
5.79543 0.013951 -1.07163
5.79773 0.0322427 -1.07207
5.8 0.0505509 -1.07251
5.80225 0.0688727 -1.07296
5.80447 0.0872111 -1.07342
5.8067 0.105564 -1.07389
5.80923 0.123941 -1.07442
5.81174 0.142334 -1.07497
5.81422 0.160747 -1.07551
5.81667 0.179176 -1.07607
5.8191 0.197625 -1.07663
5.82151 0.216091 -1.07719
5.82389 0.234577 -1.07776
5.82624 0.25308 -1.07834
5.82993 0.271666 -1.07918
5.83519 0.290358 -1.08031
5.84043 0.309089 -1.08146
5.84565 0.327858 -1.08261
5.85085 0.346666 -1.08377
5.85604 0.365512 -1.08494
5.86121 0.384398 -1.08612
5.86637 0.403322 -1.08731
5.87155 0.42229 -1.08851
5.87673 0.441298 -1.08972
5.8819 0.460348 -1.09094
5.88705 0.479438 -1.09217
5.89219 0.49857 -1.09341
5.89731 0.517741 -1.09466
5.90442 0.537138 -1.09629
5.91731 0.557134 -1.099
5.93306 0.577502 -1.10226
5.95046 0.598148 -1.10584
5.96795 0.618926 -1.10945
6.51261 0.696181 -1.2111
5.70168 -0.238186 -1.10434
5.69943 -0.220087 -1.10376
5.69715 -0.202004 -1.10319
5.69484 -0.18394 -1.10263
5.69251 -0.165892 -1.10207
5.69016 -0.147863 -1.10152
5.68778 -0.12985 -1.10097
5.68538 -0.111856 -1.10044
5.68296 -0.0938767 -1.0999
5.6805 -0.075916 -1.09938
5.67803 -0.0579705 -1.09886
5.67553 -0.0400431 -1.09834
5.67327 -0.0221315 -1.09789
5.67106 -0.00423637 -1.09745
5.67221 0.0136543 -1.09768
5.67441 0.0315569 -1.09812
5.67683 0.0494774 -1.09861
5.67932 0.0674136 -1.09913
5.68179 0.0853678 -1.09965
5.68422 0.103337 -1.10018
5.68664 0.121325 -1.10072
5.68903 0.139329 -1.10126
5.69139 0.157351 -1.10181
5.69374 0.175389 -1.10236
5.69605 0.193446 -1.10292
5.69834 0.211519 -1.10349
5.70061 0.229611 -1.10406
5.70285 0.24772 -1.10465
5.70507 0.265848 -1.10523
5.70932 0.284095 -1.10622
5.71432 0.302415 -1.10737
5.7193 0.320771 -1.10853
5.72427 0.339166 -1.10969
5.72927 0.357599 -1.11087
5.73425 0.376071 -1.11206
5.73922 0.39458 -1.11326
5.74417 0.413129 -1.11447
5.7491 0.431714 -1.11569
5.75402 0.45034 -1.11691
5.75892 0.469003 -1.11814
5.7638 0.487706 -1.11939
5.76867 0.506447 -1.12063
5.77352 0.52523 -1.12189
5.78163 0.54436 -1.1238
5.79393 0.56396 -1.12653
5.80626 0.583652 -1.12928
5.82159 0.603747 -1.13262
5.84918 0.625262 -1.13837
6.01202 0.661855 -1.17046
5.58782 -0.233429 -1.13059
5.58604 -0.215708 -1.13008
5.58424 -0.198001 -1.12959
5.58243 -0.180309 -1.1291
5.58059 -0.162631 -1.12862
5.57874 -0.144968 -1.12815
5.57686 -0.127318 -1.12768
5.57496 -0.109683 -1.12722
5.57305 -0.092061 -1.12677
5.57111 -0.0744538 -1.12632
5.56915 -0.0568587 -1.12589
5.56718 -0.0392784 -1.12546
5.56518 -0.0217099 -1.12503
5.56316 -0.00415577 -1.12462
5.56421 0.0133944 -1.12483
5.56622 0.0309552 -1.12525
5.56821 0.0485307 -1.12568
5.57017 0.066118 -1.12611
5.57212 0.0837201 -1.12656
5.57405 0.101334 -1.127
5.57596 0.118964 -1.12746
5.57784 0.136606 -1.12792
5.57971 0.154263 -1.12839
5.58156 0.171934 -1.12887
5.58338 0.18962 -1.12936
5.58519 0.207319 -1.12985
5.58698 0.225034 -1.13035
5.58874 0.242763 -1.13085
5.5905 0.260509 -1.13137
5.59241 0.278277 -1.13193
5.59618 0.296163 -1.13287
5.60036 0.3141 -1.13392
5.60452 0.332071 -1.13497
5.60867 0.350072 -1.13602
5.61281 0.368106 -1.13709
5.61711 0.386185 -1.1382
5.62182 0.404329 -1.13941
5.62652 0.422509 -1.14063
5.6312 0.440727 -1.14185
5.63586 0.458981 -1.14309
5.64051 0.477273 -1.14433
5.64513 0.495602 -1.14558
5.64974 0.51397 -1.14684
5.65433 0.532374 -1.1481
5.66334 0.55125 -1.15028
5.67508 0.570466 -1.15302
5.68684 0.589774 -1.15579
5.69863 0.609169 -1.15857
5.7644 0.634595 -1.17234
5.92244 0.670907 -1.20491
5.49559 -0.229576 -1.15959
5.49382 -0.212147 -1.15907
5.49202 -0.194731 -1.15855
5.4902 -0.17733 -1.15805
5.48837 -0.159943 -1.15755
5.48653 -0.142572 -1.15706
5.48473 -0.125214 -1.15659
5.4829 -0.107872 -1.15613
5.48105 -0.0905412 -1.15567
5.47918 -0.0732253 -1.15522
5.47729 -0.0559209 -1.15478
5.47538 -0.0386308 -1.15435
5.47345 -0.021352 -1.15392
5.4715 -0.0040873 -1.1535
5.47251 0.0131736 -1.15372
5.47445 0.0304449 -1.15414
5.47638 0.0477303 -1.15457
5.47827 0.0650271 -1.15501
5.48015 0.0823383 -1.15546
5.48202 0.0996613 -1.15591
5.48385 0.116999 -1.15637
5.48567 0.134348 -1.15683
5.48748 0.151713 -1.15731
5.48933 0.169093 -1.15781
5.49116 0.186488 -1.15831
5.49297 0.203896 -1.15882
5.49475 0.22132 -1.15934
5.49652 0.238757 -1.15987
5.49827 0.256211 -1.1604
5.49999 0.273679 -1.16094
5.50296 0.29123 -1.16176
5.50657 0.30884 -1.16272
5.51016 0.32648 -1.16369
5.51374 0.344146 -1.16467
5.5173 0.361842 -1.16565
5.52084 0.379566 -1.16665
5.52437 0.397321 -1.16765
5.52807 0.415116 -1.16871
5.53198 0.432962 -1.16982
5.53588 0.450838 -1.17094
5.53976 0.468749 -1.17206
5.54362 0.48669 -1.1732
5.54747 0.504666 -1.17435
5.55131 0.522673 -1.1755
5.55512 0.540716 -1.17666
5.5639 0.55929 -1.17889
5.5739 0.578061 -1.18139
5.58494 0.597015 -1.18412
5.596 0.616056 -1.18687
5.64722 0.639728 -1.19816
5.83458 0.6796 -1.23836
5.99658 0.717646 -1.27322
5.40615 -0.22584 -1.18777
5.40445 -0.208696 -1.18724
5.40272 -0.191564 -1.18673
5.40097 -0.174448 -1.18622
5.3992 -0.157344 -1.18571
5.39741 -0.140256 -1.18522
5.3956 -0.12318 -1.18473
5.39376 -0.106118 -1.18424
5.39191 -0.0890688 -1.18377
5.39004 -0.0720341 -1.1833
5.38815 -0.0550108 -1.18284
5.38625 -0.038002 -1.1824
5.38439 -0.0210046 -1.18197
5.3825 -0.00402082 -1.18154
5.38348 0.0129593 -1.18176
5.38536 0.0299494 -1.18219
5.38723 0.0469534 -1.18263
5.38913 0.063969 -1.18308
5.39102 0.080999 -1.18355
5.39288 0.0980408 -1.18402
5.39472 0.115097 -1.1845
5.39654 0.132166 -1.18498
5.39834 0.149249 -1.18547
5.40012 0.166345 -1.18597
5.40188 0.183456 -1.18648
5.40362 0.200579 -1.187
5.40534 0.217718 -1.18752
5.40704 0.23487 -1.18805
5.40872 0.252038 -1.18859
5.41038 0.269219 -1.18913
5.41249 0.286442 -1.18979
5.41596 0.303758 -1.19076
5.41942 0.321103 -1.19173
5.42286 0.338475 -1.19272
5.42629 0.355874 -1.19371
5.4297 0.3733 -1.19472
5.43309 0.390756 -1.19573
5.43646 0.408237 -1.19675
5.43982 0.425749 -1.19778
5.44316 0.443288 -1.19882
5.44649 0.460857 -1.19986
5.4498 0.478453 -1.20092
5.45309 0.496079 -1.20198
5.45636 0.513734 -1.20305
5.45994 0.531451 -1.20421
5.46506 0.549355 -1.20571
5.47385 0.567685 -1.20804
5.48266 0.586081 -1.21039
5.49147 0.604548 -1.21275
5.50183 0.623259 -1.21546
5.5643 0.648118 -1.22971
5.65317 0.676541 -1.2498
5.90547 0.725643 -1.30609
5.32283 -0.22236 -1.21596
5.32147 -0.205492 -1.2155
5.32009 -0.188634 -1.21504
5.31869 -0.171791 -1.21459
5.31728 -0.154957 -1.21415
5.31584 -0.138137 -1.21372
5.31439 -0.121326 -1.21329
5.31292 -0.104527 -1.21287
5.31143 -0.0877394 -1.21247
5.30993 -0.0709633 -1.21206
5.3084 -0.0541964 -1.21167
5.30686 -0.0374419 -1.21129
5.3053 -0.020696 -1.21091
5.30373 -0.0039618 -1.21054
5.30455 0.0127693 -1.21073
5.30611 0.0295087 -1.2111
5.30766 0.0462599 -1.21149
5.3092 0.0630202 -1.21187
5.31071 0.0797925 -1.21227
5.31221 0.0965743 -1.21268
5.31369 0.113368 -1.21309
5.31515 0.130172 -1.21351
5.31659 0.146989 -1.21394
5.31802 0.163816 -1.21438
5.31943 0.180655 -1.21482
5.32082 0.197506 -1.21528
5.32219 0.214369 -1.21574
5.32354 0.231243 -1.21621
5.32488 0.248132 -1.21669
5.3262 0.265031 -1.21717
5.32771 0.281955 -1.21772
5.33143 0.299017 -1.21878
5.3353 0.316119 -1.21988
5.33915 0.333249 -1.221
5.34299 0.350411 -1.22212
5.34682 0.367602 -1.22326
5.35064 0.384826 -1.2244
5.35445 0.402079 -1.22556
5.35825 0.419365 -1.22672
5.36203 0.43668 -1.2279
5.3658 0.454029 -1.22909
5.36956 0.471409 -1.23028
5.37331 0.488822 -1.23149
5.37705 0.506267 -1.2327
5.38077 0.523745 -1.23393
5.38449 0.541256 -1.23517
5.39068 0.559059 -1.23699
5.39789 0.57702 -1.23905
5.4051 0.59504 -1.24113
5.4123 0.613117 -1.24322
5.42275 0.631631 -1.24608
5.48312 0.656197 -1.26041
5.55778 0.682921 -1.27807
5.74528 0.724361 -1.3217
5.97702 0.77274 -1.37557
5.25143 -0.219377 -1.2457
5.2499 -0.202728 -1.24518
5.24835 -0.186091 -1.24466
5.24685 -0.16947 -1.24417
5.24548 -0.152865 -1.24373
5.24409 -0.136272 -1.24329
5.24268 -0.119689 -1.24286
5.24125 -0.103118 -1.24244
5.23981 -0.0865564 -1.24203
5.23835 -0.070007 -1.24162
5.23687 -0.0534661 -1.24123
5.23537 -0.0369375 -1.24084
5.23386 -0.0204173 -1.24046
5.23232 -0.00390871 -1.24008
5.23312 0.0125974 -1.24027
5.23464 0.0291113 -1.24065
5.23615 0.0456366 -1.24104
5.23764 0.0621708 -1.24143
5.23911 0.0787167 -1.24183
5.24056 0.0952718 -1.24224
5.242 0.111839 -1.24266
5.24342 0.128415 -1.24308
5.24482 0.145004 -1.24352
5.2462 0.161603 -1.24396
5.2476 0.178216 -1.24442
5.24916 0.194846 -1.24493
5.2507 0.21149 -1.24545
5.25223 0.228146 -1.24597
5.25373 0.244816 -1.24651
5.25522 0.261499 -1.24705
5.25669 0.278197 -1.2476
5.25915 0.294963 -1.2484
5.26315 0.311844 -1.24958
5.26714 0.328754 -1.25076
5.27111 0.345697 -1.25196
5.27508 0.362669 -1.25317
5.27893 0.379668 -1.25436
5.28262 0.396685 -1.25553
5.2863 0.413733 -1.25671
5.28996 0.430811 -1.25789
5.29361 0.447921 -1.25909
5.29726 0.465061 -1.2603
5.30088 0.482233 -1.26152
5.3045 0.499436 -1.26275
5.3081 0.516672 -1.26399
5.3117 0.533938 -1.26524
5.31583 0.551296 -1.26663
5.32281 0.568995 -1.26872
5.32979 0.58675 -1.27082
5.33681 0.604565 -1.27294
5.34394 0.622451 -1.2751
5.36568 0.642143 -1.28076
5.39578 0.663015 -1.28844
5.47607 0.690419 -1.30813
5.55051 0.717598 -1.32644
5.88432 0.779632 -1.4068
5.18218 -0.216484 -1.27489
5.18069 -0.200056 -1.27436
5.1792 -0.183639 -1.27384
5.17768 -0.167236 -1.27334
5.17614 -0.150844 -1.27283
5.17459 -0.134466 -1.27234
5.17302 -0.118098 -1.27186
5.17143 -0.101744 -1.27138
5.16982 -0.0854003 -1.27091
5.1684 -0.0690721 -1.27051
5.16697 -0.0527525 -1.27011
5.16551 -0.0364448 -1.26971
5.16403 -0.0201448 -1.26933
5.16254 -0.00385642 -1.26895
5.16332 0.0124293 -1.26915
5.1648 0.0287228 -1.26953
5.16627 0.0450275 -1.26992
5.16771 0.0613408 -1.27031
5.16914 0.0776654 -1.27072
5.17066 0.0940009 -1.27116
5.17226 0.110351 -1.27163
5.17384 0.126711 -1.27211
5.1754 0.143085 -1.2726
5.17694 0.15947 -1.2731
5.17847 0.175868 -1.2736
5.17998 0.192278 -1.27412
5.18147 0.208701 -1.27464
5.18295 0.225136 -1.27517
5.1844 0.241586 -1.27571
5.18584 0.258047 -1.27626
5.18726 0.274522 -1.27681
5.18866 0.29101 -1.27738
5.1924 0.307652 -1.27853
5.19627 0.324331 -1.27973
5.20013 0.341041 -1.28094
5.20397 0.357781 -1.28215
5.2078 0.374552 -1.28338
5.21162 0.391353 -1.28462
5.21543 0.408186 -1.28587
5.21922 0.42505 -1.28713
5.223 0.441946 -1.2884
5.22659 0.458857 -1.28964
5.23011 0.475794 -1.29087
5.23361 0.492761 -1.29211
5.23709 0.50976 -1.29336
5.24057 0.526789 -1.29462
5.24403 0.54385 -1.2959
5.24951 0.561159 -1.29768
5.25628 0.578657 -1.2998
5.26316 0.596222 -1.30196
5.27007 0.613847 -1.30414
5.28029 0.631923 -1.30715
5.3094 0.652401 -1.31486
5.33883 0.673117 -1.32267
5.3686 0.69408 -1.33058
5.45456 0.722692 -1.35245
5.54245 0.752133 -1.37482
5.95302 0.82698 -1.4773
5.11446 -0.213655 -1.30344
5.11302 -0.197442 -1.30291
5.11157 -0.181241 -1.30238
5.1101 -0.165053 -1.30187
5.10861 -0.148876 -1.30136
5.1071 -0.132712 -1.30087
5.10557 -0.116558 -1.30038
5.10403 -0.100418 -1.2999
5.10247 -0.0842875 -1.29943
5.10089 -0.0681697 -1.29896
5.09929 -0.0520617 -1.29851
5.09768 -0.035966 -1.29806
5.0958 -0.0198788 -1.29756
5.09374 -0.00380515 -1.29702
5.09481 0.0122644 -1.2973
5.09686 0.028345 -1.29784
5.09852 0.044437 -1.29829
5.10012 0.0605385 -1.29874
5.10171 0.0766523 -1.2992
5.10328 0.092776 -1.29967
5.10483 0.108912 -1.30015
5.10637 0.125059 -1.30063
5.10789 0.141219 -1.30112
5.10938 0.157389 -1.30163
5.11086 0.173572 -1.30214
5.11233 0.189767 -1.30266
5.11377 0.205974 -1.30318
5.1152 0.222193 -1.30372
5.11661 0.238426 -1.30426
5.118 0.254671 -1.30482
5.11937 0.270929 -1.30538
5.12073 0.2872 -1.30595
5.12326 0.303555 -1.30683
5.12701 0.320008 -1.30804
5.13075 0.336491 -1.30926
5.13447 0.353003 -1.31048
5.13819 0.369546 -1.31172
5.14189 0.386117 -1.31297
5.14558 0.40272 -1.31423
5.14925 0.419352 -1.3155
5.15292 0.436016 -1.31678
5.15657 0.452709 -1.31807
5.16021 0.469436 -1.31938
5.16383 0.486191 -1.32069
5.16745 0.50298 -1.32201
5.17104 0.5198 -1.32334
5.17439 0.536628 -1.32463
5.17791 0.553505 -1.32597
5.18454 0.570759 -1.32812
5.19123 0.588073 -1.3303
5.19792 0.605443 -1.3325
5.20461 0.622867 -1.33471
5.2254 0.64208 -1.34056
5.25388 0.662407 -1.34839
5.28267 0.68297 -1.35633
5.31177 0.703773 -1.36436
5.3412 0.724822 -1.3725
5.42791 0.754032 -1.39539
5.53358 0.78651 -1.42318
5.01789 -0.209621 -1.32337
5.01623 -0.193705 -1.32276
5.01455 -0.177801 -1.32216
5.01284 -0.161912 -1.32157
5.0111 -0.146034 -1.32099
5.00933 -0.130171 -1.3204
5.00753 -0.11432 -1.31983
5.00571 -0.0984836 -1.31926
5.00386 -0.0826586 -1.3187
5.00199 -0.0668479 -1.31814
5.00093 -0.0510574 -1.31781
4.99993 -0.0352763 -1.31752
4.99891 -0.0195008 -1.31722
4.99786 -0.00373348 -1.31694
4.9984 0.0120323 -1.31708
4.99944 0.0278033 -1.31737
5.00045 0.0435823 -1.31767
5.00143 0.0593669 -1.31797
5.00296 0.0751686 -1.31843
5.00482 0.0909861 -1.31899
5.00666 0.106818 -1.31956
5.00847 0.122661 -1.32013
5.01025 0.138519 -1.32071
5.012 0.154389 -1.32129
5.01372 0.170273 -1.32188
5.01542 0.186169 -1.32248
5.0171 0.20208 -1.32308
5.01874 0.218003 -1.32369
5.02035 0.233941 -1.3243
5.02194 0.249891 -1.32492
5.0235 0.265856 -1.32555
5.02503 0.281833 -1.32618
5.02702 0.297854 -1.32694
5.03257 0.314114 -1.32866
5.0381 0.330415 -1.33039
5.04276 0.346697 -1.3319
5.04697 0.362985 -1.33331
5.05116 0.379304 -1.33473
5.05534 0.395657 -1.33616
5.05949 0.412041 -1.33759
5.06362 0.42846 -1.33903
5.06773 0.44491 -1.34048
5.07182 0.461395 -1.34195
5.0759 0.477912 -1.34341
5.07995 0.494464 -1.34489
5.08398 0.511048 -1.34638
5.08799 0.527667 -1.34788
5.09198 0.544319 -1.34938
5.10104 0.561567 -1.35224
5.111 0.578985 -1.35536
5.12099 0.596482 -1.3585
5.13099 0.614056 -1.36166
5.14369 0.632039 -1.36556
5.17124 0.651987 -1.37341
5.1991 0.672166 -1.38137
5.22725 0.692575 -1.38942
5.25571 0.713221 -1.39757
5.28448 0.734107 -1.40583
5.31356 0.755239 -1.4142
5.39997 0.784904 -1.43785
5.52386 0.820712 -1.47152
4.92077 -0.205564 -1.34163
4.91919 -0.189957 -1.34103
4.91758 -0.174363 -1.34043
4.91595 -0.158782 -1.33984
4.91428 -0.143213 -1.33926
4.91259 -0.127658 -1.33868
4.91177 -0.112134 -1.33836
4.91093 -0.0966187 -1.33803
4.91005 -0.0811089 -1.33772
4.90915 -0.0656072 -1.33741
4.90822 -0.0501108 -1.33711
4.90726 -0.0346225 -1.33681
4.90628 -0.0191395 -1.33652
4.90526 -0.00366431 -1.33623
4.90579 0.0118095 -1.33638
4.90679 0.0272879 -1.33667
4.90776 0.0427744 -1.33696
4.9087 0.0582662 -1.33726
4.90962 0.0737659 -1.33757
4.91051 0.0892714 -1.33788
4.91137 0.104785 -1.3382
4.9122 0.120304 -1.33852
4.91347 0.135844 -1.33898
4.91514 0.151405 -1.33956
4.91679 0.166981 -1.34015
4.91842 0.182569 -1.34074
4.92001 0.19817 -1.34134
4.92158 0.213783 -1.34194
4.92312 0.22941 -1.34255
4.92463 0.245049 -1.34317
4.92612 0.260702 -1.34379
4.92757 0.276367 -1.34442
4.929 0.292046 -1.34506
4.93338 0.307923 -1.34651
4.93868 0.323895 -1.34823
4.94396 0.339905 -1.34995
4.94922 0.355955 -1.35169
4.95447 0.372043 -1.35344
4.95921 0.388134 -1.35506
4.96318 0.404198 -1.35649
4.96713 0.420296 -1.35792
4.97106 0.436423 -1.35937
4.97497 0.452584 -1.36082
4.97886 0.468776 -1.36228
4.98273 0.485001 -1.36375
4.98658 0.501257 -1.36523
4.99041 0.517547 -1.36672
4.99422 0.533869 -1.36822
5.00344 0.550823 -1.37121
5.013 0.567883 -1.37432
5.02257 0.585018 -1.37744
5.03758 0.602877 -1.38207
5.05842 0.621561 -1.38832
5.07942 0.640411 -1.39463
5.10518 0.660024 -1.40227
5.13842 0.680806 -1.41198
5.1721 0.701875 -1.42184
5.20038 0.722425 -1.43023
5.22851 0.74315 -1.4386
5.25695 0.764115 -1.44708
5.28569 0.785326 -1.45567
5.37072 0.815279 -1.47979
5.49847 0.852424 -1.51572
4.82693 -0.201643 -1.35927
4.82554 -0.186341 -1.35871
4.82487 -0.171075 -1.35836
4.82416 -0.155818 -1.35802
4.82343 -0.140565 -1.35768
4.82268 -0.125321 -1.35735
4.82189 -0.110082 -1.35702
4.82108 -0.0948511 -1.3567
4.82024 -0.0796254 -1.35639
4.81938 -0.0644074 -1.35608
4.81848 -0.0491947 -1.35578
4.81756 -0.0339896 -1.35549
4.81662 -0.0187897 -1.3552
4.81564 -0.00359737 -1.35491
4.81615 0.0115937 -1.35506
4.81711 0.0267894 -1.35534
4.81804 0.0419925 -1.35564
4.81895 0.0572008 -1.35594
4.81983 0.072417 -1.35624
4.82068 0.0876383 -1.35655
4.8215 0.102868 -1.35687
4.8223 0.118102 -1.35719
4.82307 0.133344 -1.35752
4.82382 0.148592 -1.35785
4.82453 0.163848 -1.35819
4.82522 0.179109 -1.35854
4.8262 0.194392 -1.35898
4.8277 0.209705 -1.35958
4.82917 0.225032 -1.36019
4.83061 0.24037 -1.3608
4.83202 0.255722 -1.36142
4.83341 0.271085 -1.36205
4.83477 0.286462 -1.36268
4.8376 0.301945 -1.36374
4.84268 0.317599 -1.36544
4.84773 0.333289 -1.36716
4.85277 0.349018 -1.36889
4.85779 0.364784 -1.37062
4.8628 0.380588 -1.37236
4.86779 0.396429 -1.37412
4.87276 0.41231 -1.37588
4.8776 0.428218 -1.37762
4.88134 0.444066 -1.37907
4.88506 0.459944 -1.38052
4.88876 0.475854 -1.38198
4.89243 0.491793 -1.38345
4.89609 0.507765 -1.38493
4.89994 0.523791 -1.38648
4.9091 0.540436 -1.38955
4.91826 0.557151 -1.39263
4.93627 0.574967 -1.39824
4.95626 0.593145 -1.40443
4.9764 0.611483 -1.41067
4.9967 0.629981 -1.41698
5.01715 0.648643 -1.42336
5.03776 0.667469 -1.42979
5.0656 0.687423 -1.4383
5.09828 0.708241 -1.44821
5.13138 0.729344 -1.45826
5.1649 0.750735 -1.46845
5.19886 0.772424 -1.47879
5.22917 0.793792 -1.48812
5.25757 0.815078 -1.49692
5.34014 0.845134 -1.52118
4.73893 -0.197967 -1.37713
4.73832 -0.182973 -1.37678
4.73768 -0.167984 -1.37643
4.73701 -0.153002 -1.37609
4.73631 -0.138026 -1.37576
4.73559 -0.123058 -1.37543
4.73484 -0.108095 -1.3751
4.73407 -0.0931391 -1.37479
4.73326 -0.0781886 -1.37447
4.73243 -0.0632455 -1.37417
4.73157 -0.0483074 -1.37387
4.73069 -0.0333767 -1.37357
4.72978 -0.0184509 -1.37328
4.72884 -0.00353252 -1.373
4.72932 0.0113843 -1.37315
4.73025 0.0263059 -1.37343
4.73114 0.0412349 -1.37372
4.73202 0.0561692 -1.37402
4.73286 0.0711101 -1.37433
4.73368 0.0860566 -1.37463
4.73447 0.10101 -1.37495
4.73523 0.11597 -1.37527
4.73597 0.130936 -1.3756
4.73668 0.145908 -1.37593
4.73736 0.160887 -1.37627
4.73801 0.175872 -1.37661
4.73864 0.190865 -1.37696
4.73924 0.205862 -1.37732
4.73981 0.220868 -1.37768
4.74036 0.235879 -1.37805
4.74103 0.250907 -1.37847
4.74235 0.265979 -1.37909
4.74365 0.281063 -1.37972
4.74505 0.296168 -1.38039
4.74991 0.311515 -1.38208
4.75476 0.326897 -1.38379
4.75958 0.342316 -1.3855
4.7644 0.35777 -1.38722
4.76919 0.373262 -1.38895
4.77396 0.388788 -1.39069
4.77872 0.404353 -1.39244
4.78346 0.419953 -1.3942
4.78818 0.435591 -1.39597
4.79289 0.451266 -1.39775
4.79757 0.466978 -1.39954
4.80135 0.482638 -1.40108
4.80484 0.498303 -1.40255
4.80903 0.514073 -1.40424
4.8196 0.530584 -1.40781
4.83864 0.548132 -1.41387
4.85783 0.56583 -1.41999
4.87716 0.583679 -1.42617
4.89663 0.601682 -1.43241
4.91625 0.619838 -1.43872
4.93602 0.638154 -1.44508
4.95594 0.656628 -1.45151
4.97601 0.675265 -1.45801
4.99623 0.694064 -1.46457
5.02596 0.714361 -1.47394
5.05807 0.735207 -1.48403
5.09059 0.756338 -1.49426
5.12353 0.777755 -1.50464
5.15689 0.799469 -1.51517
5.19068 0.821481 -1.52585
5.22493 0.843803 -1.5367
4.6607 -0.194699 -1.39654
4.6592 -0.179918 -1.39591
4.6577 -0.165148 -1.3953
4.6562 -0.150392 -1.3947
4.65469 -0.135648 -1.39411
4.65318 -0.120917 -1.39354
4.65167 -0.106196 -1.39298
4.65016 -0.0914883 -1.39244
4.64897 -0.0767961 -1.392
4.64817 -0.0621194 -1.39169
4.64734 -0.0474474 -1.3914
4.64649 -0.0327827 -1.3911
4.64561 -0.0181226 -1.39082
4.64471 -0.00346968 -1.39053
4.64518 0.0111818 -1.39068
4.64607 0.0258379 -1.39096
4.64693 0.040501 -1.39125
4.64777 0.0551689 -1.39155
4.64858 0.069844 -1.39185
4.64943 0.0845251 -1.39218
4.65094 0.0992286 -1.39272
4.65246 0.113942 -1.39327
4.65397 0.128669 -1.39384
4.65548 0.143407 -1.39442
4.65698 0.158158 -1.39501
4.65849 0.17292 -1.39562
4.65999 0.187697 -1.39624
4.66149 0.202485 -1.39687
4.66298 0.217288 -1.39752
4.66448 0.232104 -1.39818
4.66597 0.246934 -1.39885
4.66746 0.261778 -1.39954
4.66895 0.276638 -1.40024
4.67044 0.291511 -1.40096
4.6739 0.30653 -1.40228
4.67873 0.32167 -1.40403
4.68358 0.336849 -1.40579
4.68843 0.352065 -1.40757
4.69329 0.367321 -1.40937
4.69815 0.382614 -1.41119
4.70303 0.397948 -1.41303
4.70791 0.41332 -1.41488
4.7128 0.428734 -1.41675
4.7177 0.444187 -1.41863
4.72261 0.459682 -1.42054
4.72752 0.475217 -1.42246
4.73245 0.490795 -1.4244
4.73777 0.506455 -1.42648
4.74912 0.522825 -1.43038
4.76292 0.539554 -1.43505
4.78149 0.556938 -1.44116
4.80018 0.574466 -1.44733
4.81902 0.592144 -1.45357
4.83799 0.609971 -1.45986
4.8571 0.62795 -1.46622
4.87635 0.646083 -1.47264
4.89574 0.664373 -1.47912
4.91528 0.682819 -1.48567
4.93497 0.701428 -1.49228
4.95509 0.720239 -1.49904
4.98625 0.740835 -1.50917
5.01779 0.761705 -1.51944
5.04974 0.782857 -1.52985
5.08208 0.804294 -1.54041
5.17473 0.835696 -1.56928
4.6496 -0.194236 -1.43546
4.64811 -0.17949 -1.43482
4.64662 -0.164755 -1.43419
4.64512 -0.150035 -1.43358
4.64363 -0.135325 -1.43298
4.64213 -0.120629 -1.43239
4.64062 -0.105944 -1.43182
4.63912 -0.0912711 -1.43125
4.63761 -0.0766085 -1.43071
4.6361 -0.0619581 -1.43017
4.63458 -0.0473171 -1.42965
4.63307 -0.032688 -1.42915
4.63214 -0.01807 -1.42884
4.63132 -0.00345968 -1.42857
4.63174 0.0111497 -1.42871
4.63255 0.0257628 -1.42897
4.63385 0.0403872 -1.42941
4.63536 0.0550218 -1.42992
4.63688 0.0696683 -1.43045
4.63839 0.0843244 -1.43099
4.6399 0.0989929 -1.43154
4.6414 0.113672 -1.43211
4.64291 0.128363 -1.43269
4.64441 0.143066 -1.43329
4.6459 0.157782 -1.4339
4.6474 0.172509 -1.43452
4.64889 0.18725 -1.43516
4.65038 0.202003 -1.43581
4.65187 0.21677 -1.43647
4.65336 0.23155 -1.43715
4.65484 0.246345 -1.43784
4.65632 0.261153 -1.43854
4.6578 0.275977 -1.43926
4.65928 0.290814 -1.43999
4.66155 0.30572 -1.44098
4.66475 0.320709 -1.44228
4.66957 0.335842 -1.44409
4.67438 0.351011 -1.44592
4.67921 0.36622 -1.44776
4.68404 0.381466 -1.44962
4.68889 0.396752 -1.4515
4.69374 0.412076 -1.45339
4.69859 0.427442 -1.45531
4.70346 0.442846 -1.45724
4.70833 0.458292 -1.45919
4.71322 0.473778 -1.46116
4.71811 0.489307 -1.46315
4.72356 0.504936 -1.46533
4.73011 0.520732 -1.46786
4.73889 0.536831 -1.4711
4.75098 0.553385 -1.47539
4.76314 0.570033 -1.47972
4.77536 0.586781 -1.48408
4.78765 0.603624 -1.48849
4.80001 0.620569 -1.49293
4.81242 0.637613 -1.49741
4.82491 0.65476 -1.50193
4.83747 0.672009 -1.50649
4.85556 0.690141 -1.51279
4.87473 0.708558 -1.51946
4.89404 0.727135 -1.52618
4.91584 0.746228 -1.53371
4.94644 0.766844 -1.544
5.03005 0.79606 -1.57088
5.13696 0.829596 -1.60507
5.24491 0.864012 -1.63964
4.6385 -0.193772 -1.4744
4.63702 -0.179061 -1.47374
4.63553 -0.164362 -1.4731
