ply
format ascii 1.0
comment Created by Open3D
element vertex 1774
property double x
property double y
property double z
end_header
-2.20698 -3.42746 -2.04732
-2.19191 -3.42771 -2.04334
-2.17689 -3.42794 -2.03938
-2.16192 -3.42816 -2.03545
-2.147 -3.42838 -2.03156
-2.13214 -3.42859 -2.0277
-2.11734 -3.42881 -2.02388
-2.10259 -3.42902 -2.02009
-2.0879 -3.42924 -2.01633
-2.07329 -3.4295 -2.01264
-2.05875 -3.42978 -2.00899
-2.04426 -3.43007 -2.00538
-2.02982 -3.43035 -2.0018
-2.01543 -3.43062 -1.99825
-2.0011 -3.4309 -1.99473
-1.98681 -3.43118 -1.99125
-1.97257 -3.43146 -1.98779
-1.95839 -3.43174 -1.98437
-1.94425 -3.43201 -1.98099
-1.93016 -3.43229 -1.97763
-1.91612 -3.43256 -1.9743
-1.90212 -3.43284 -1.97101
-1.88818 -3.43311 -1.96774
-1.87428 -3.43338 -1.96451
-1.86042 -3.43366 -1.9613
-1.84658 -3.43388 -1.9581
-1.83274 -3.43401 -1.95487
-1.81894 -3.43414 -1.95168
-1.80519 -3.43427 -1.94851
-1.79149 -3.4344 -1.94538
-1.77782 -3.43452 -1.94227
-1.76421 -3.43465 -1.93919
-1.75063 -3.43478 -1.93615
-1.7371 -3.43491 -1.93313
-1.72361 -3.43504 -1.93014
-1.71016 -3.43517 -1.92718
-1.69675 -3.4353 -1.92424
-1.68339 -3.43543 -1.92134
-1.67006 -3.43556 -1.91846
-1.65678 -3.4357 -1.91561
-1.64353 -3.43583 -1.91279
-1.63032 -3.43596 -1.91
-1.61715 -3.43609 -1.90724
-1.60402 -3.43622 -1.9045
-2.74954 -3.42838 -2.25305
-2.73216 -3.42877 -2.24765
-2.71472 -3.42897 -2.24216
-2.69702 -3.42874 -2.23645
-2.67941 -3.42851 -2.23079
-2.66189 -3.42828 -2.22517
-2.64446 -3.42805 -2.21961
-2.62708 -3.42778 -2.21407
-2.60979 -3.42751 -2.20858
-2.59259 -3.42725 -2.20314
-2.57548 -3.42699 -2.19776
-2.55845 -3.42673 -2.19242
-2.5415 -3.42648 -2.18712
-2.52463 -3.42623 -2.18188
-2.50785 -3.42598 -2.17668
-2.49115 -3.42573 -2.17153
-2.47452 -3.42549 -2.16643
-2.45798 -3.42525 -2.16138
-2.44151 -3.42501 -2.15637
-2.4253 -3.42502 -2.15156
-2.40931 -3.42525 -2.14692
-2.39339 -3.42547 -2.14233
-2.37753 -3.42569 -2.13778
-2.36174 -3.42592 -2.13327
-2.34602 -3.42614 -2.1288
-2.33036 -3.42636 -2.12437
-2.31477 -3.42658 -2.11998
-2.29925 -3.4268 -2.11563
-2.28379 -3.42702 -2.11131
-2.26839 -3.42724 -2.10704
-2.25305 -3.42746 -2.1028
-2.23777 -3.42768 -2.09861
-2.22256 -3.4279 -2.09445
-2.2074 -3.42812 -2.09032
-2.19231 -3.42833 -2.08624
-2.17728 -3.42855 -2.08219
-2.1623 -3.42877 -2.07818
-2.14738 -3.42899 -2.07421
-2.13254 -3.42924 -2.07029
-2.11776 -3.42949 -2.0664
-2.10301 -3.42972 -2.06254
-2.08832 -3.42993 -2.05871
-2.07371 -3.4302 -2.05494
-2.05916 -3.43048 -2.05121
-2.04467 -3.43076 -2.04752
-2.03023 -3.43103 -2.04386
-2.01583 -3.43131 -2.04024
-2.0015 -3.43159 -2.03665
-1.98721 -3.43187 -2.03309
-1.97297 -3.43214 -2.02957
-1.95878 -3.43242 -2.02607
-1.94464 -3.43269 -2.02261
-1.93054 -3.43297 -2.01918
-1.9165 -3.43324 -2.01579
-1.9025 -3.43352 -2.01242
-1.88855 -3.43379 -2.00909
-1.87465 -3.43406 -2.00578
-1.86079 -3.43433 -2.00251
-1.84697 -3.4346 -1.99927
-1.8332 -3.43487 -1.99606
-1.81948 -3.43514 -1.99288
-1.80579 -3.43541 -1.98973
-1.79216 -3.43568 -1.9866
-1.77856 -3.43595 -1.98351
-1.76495 -3.43611 -1.98039
-1.75137 -3.43623 -1.97727
-1.73783 -3.43636 -1.97419
-1.72434 -3.43649 -1.97113
-1.71088 -3.43662 -1.96811
-1.69746 -3.43674 -1.96511
-1.68409 -3.43687 -1.96214
-1.67076 -3.437 -1.95921
-1.65747 -3.43713 -1.9563
-1.64421 -3.43726 -1.95341
-1.631 -3.43739 -1.95056
-1.61783 -3.43752 -1.94774
-1.60469 -3.43765 -1.94494
-2.61218 -3.43064 -2.25605
-2.59496 -3.43037 -2.25049
-2.57782 -3.4301 -2.24498
-2.56077 -3.42984 -2.23952
-2.5438 -3.42958 -2.23411
-2.52691 -3.42932 -2.22875
-2.5101 -3.42906 -2.22344
-2.49338 -3.42881 -2.21817
-2.47674 -3.42856 -2.21295
-2.46018 -3.42831 -2.20779
-2.44369 -3.42806 -2.20266
-2.42728 -3.42782 -2.19759
-2.41095 -3.42758 -2.19256
-2.39469 -3.42734 -2.18757
-2.37851 -3.4271 -2.18263
-2.36241 -3.42688 -2.17774
-2.34668 -3.4271 -2.17318
-2.33102 -3.42732 -2.16865
-2.31542 -3.42754 -2.16417
-2.29989 -3.42776 -2.15973
-2.28442 -3.42798 -2.15532
-2.26902 -3.42819 -2.15096
-2.25367 -3.42841 -2.14663
-2.23839 -3.42863 -2.14235
-2.22317 -3.42884 -2.1381
-2.20801 -3.42906 -2.13389
-2.19291 -3.42928 -2.12972
-2.17787 -3.42949 -2.12558
-2.16289 -3.42971 -2.12149
-2.14797 -3.42992 -2.11743
-2.1331 -3.43014 -2.11341
-2.11829 -3.43035 -2.10942
-2.10353 -3.43056 -2.10547
-2.08884 -3.43078 -2.10155
-2.07401 -3.4307 -2.0975
-2.05923 -3.43059 -2.09346
-2.0445 -3.43048 -2.08945
-2.03014 -3.43089 -2.0858
-2.01586 -3.43135 -2.08221
-2.00163 -3.43182 -2.07866
-1.98745 -3.43228 -2.07514
-1.97331 -3.43275 -2.07166
-1.95917 -3.43311 -2.06814
-1.94503 -3.43338 -2.06461
-1.93093 -3.43366 -2.06111
-1.91688 -3.43393 -2.05764
-1.90288 -3.4342 -2.05421
-1.88893 -3.43447 -2.0508
-1.87502 -3.43474 -2.04743
-1.86115 -3.43501 -2.04409
-1.84734 -3.43528 -2.04078
-1.83357 -3.43555 -2.0375
-1.81984 -3.43582 -2.03425
-1.80615 -3.43609 -2.03103
-1.79251 -3.43636 -2.02785
-1.77891 -3.43663 -2.02469
-1.76536 -3.43689 -2.02156
-1.75184 -3.43716 -2.01847
-1.73837 -3.43742 -2.0154
-1.72494 -3.43769 -2.01236
-1.71154 -3.43795 -2.00935
-1.69818 -3.4382 -2.00636
-1.68481 -3.43833 -2.00333
-1.67146 -3.43845 -2.00033
-1.65817 -3.43858 -1.99736
-1.64491 -3.43871 -1.99442
-1.63169 -3.43884 -1.9915
-1.61851 -3.43896 -1.98862
-1.60536 -3.43909 -1.98576
-2.47898 -3.43166 -2.25997
-2.4624 -3.4314 -2.25469
-2.44589 -3.43115 -2.24945
-2.42946 -3.4309 -2.24426
-2.41311 -3.43065 -2.23912
-2.39683 -3.4304 -2.23402
-2.38063 -3.43016 -2.22898
-2.3645 -3.42992 -2.22397
-2.34845 -3.42968 -2.21901
-2.33246 -3.42945 -2.2141
-2.31656 -3.42922 -2.20923
-2.30071 -3.42899 -2.20441
-2.28506 -3.42894 -2.19974
-2.26965 -3.42915 -2.19529
-2.2543 -3.42937 -2.19087
-2.23902 -3.42959 -2.18649
-2.22379 -3.4298 -2.18216
-2.20863 -3.43001 -2.17786
-2.19352 -3.43023 -2.1736
-2.17848 -3.43044 -2.16938
-2.16349 -3.43066 -2.1652
-2.14856 -3.43087 -2.16106
-2.13369 -3.43108 -2.15695
-2.11887 -3.43129 -2.15288
-2.10411 -3.43151 -2.14885
-2.0894 -3.43171 -2.14484
-2.07455 -3.43159 -2.14068
-2.05977 -3.43148 -2.13655
-2.04504 -3.43137 -2.13247
-2.03036 -3.43126 -2.12842
-2.01574 -3.43115 -2.1244
-2.00118 -3.43104 -2.12043
-1.98667 -3.43094 -2.11648
-1.97231 -3.431 -2.11268
-1.95823 -3.43146 -2.10916
-1.9442 -3.43192 -2.10567
-1.93021 -3.43238 -2.10222
-1.91627 -3.43284 -2.09879
-1.90237 -3.43329 -2.09539
-1.88852 -3.43374 -2.09203
-1.87471 -3.43419 -2.0887
-1.86095 -3.43463 -2.0854
-1.84722 -3.43507 -2.08212
-1.83354 -3.43551 -2.07888
-1.81991 -3.43595 -2.07567
-1.80631 -3.43639 -2.07249
-1.79275 -3.43682 -2.06934
-1.77924 -3.43726 -2.06622
-1.7657 -3.43757 -2.06306
-1.75219 -3.43784 -2.0599
-1.73871 -3.4381 -2.05676
-1.72528 -3.43837 -2.05366
-1.71188 -3.43863 -2.05059
-1.69853 -3.4389 -2.04755
-1.68521 -3.43916 -2.04454
-1.67194 -3.43942 -2.04156
-1.6587 -3.43968 -2.0386
-1.6455 -3.43994 -2.03568
-1.63234 -3.44021 -2.03278
-1.61919 -3.44042 -2.02989
-1.60604 -3.44055 -2.02697
-2.33455 -3.43252 -2.26061
-2.31862 -3.43228 -2.25564
-2.30276 -3.43204 -2.25071
-2.28697 -3.43181 -2.24582
-2.27126 -3.43158 -2.24098
-2.2556 -3.43135 -2.23618
-2.24002 -3.43112 -2.23143
-2.2245 -3.4309 -2.22672
-2.20925 -3.43098 -2.22225
-2.19414 -3.43119 -2.2179
-2.17909 -3.4314 -2.21359
-2.16409 -3.43161 -2.20933
-2.14916 -3.43182 -2.20509
-2.13428 -3.43204 -2.2009
-2.11946 -3.43225 -2.19675
-2.1047 -3.43246 -2.19263
-2.08995 -3.43261 -2.18852
-2.0751 -3.4325 -2.18427
-2.06031 -3.43238 -2.18006
-2.04557 -3.43227 -2.17589
-2.03089 -3.43216 -2.17176
-2.01627 -3.43205 -2.16766
-2.0017 -3.43194 -2.1636
-1.98719 -3.43183 -2.15958
-1.97272 -3.43172 -2.15559
-1.95832 -3.43162 -2.15164
-1.94397 -3.43151 -2.14773
-1.92966 -3.4314 -2.14385
-1.91541 -3.4313 -2.14001
-1.90141 -3.43154 -2.13642
-1.88757 -3.432 -2.13299
-1.87377 -3.43245 -2.12959
-1.86001 -3.43289 -2.12623
-1.84629 -3.43334 -2.12289
-1.83262 -3.43378 -2.11959
-1.81899 -3.43422 -2.11632
-1.8054 -3.43466 -2.11307
-1.79185 -3.4351 -2.10986
-1.77835 -3.43553 -2.10668
-1.76488 -3.43597 -2.10353
-1.75145 -3.4364 -2.10041
-1.73807 -3.43683 -2.09732
-1.72472 -3.43725 -2.09425
-1.71141 -3.43767 -2.09122
-1.69813 -3.4381 -2.08821
-1.6849 -3.43852 -2.08524
-1.6717 -3.43893 -2.08229
-1.65854 -3.43935 -2.07937
-1.64541 -3.43976 -2.07648
-1.63232 -3.44017 -2.07361
-1.61927 -3.44058 -2.07078
-1.60625 -3.44099 -2.06797
-2.19561 -3.4335 -2.26351
-2.18027 -3.43327 -2.25883
-2.165 -3.43305 -2.25419
-2.14979 -3.43284 -2.24959
-2.13488 -3.433 -2.24528
-2.12005 -3.43321 -2.24104
-2.10528 -3.43342 -2.23684
-2.09051 -3.43353 -2.23262
-2.07565 -3.43341 -2.22828
-2.06085 -3.43329 -2.22399
-2.04611 -3.43318 -2.21973
-2.03143 -3.43307 -2.21551
-2.0168 -3.43295 -2.21133
-2.00223 -3.43284 -2.20719
-1.98771 -3.43273 -2.20308
-1.97324 -3.43262 -2.19902
-1.95883 -3.43251 -2.19499
-1.94448 -3.43241 -2.19099
-1.93017 -3.4323 -2.18704
-1.91591 -3.43219 -2.18311
-1.90171 -3.43209 -2.17923
-1.88756 -3.43198 -2.17538
-1.87345 -3.43188 -2.17156
-1.8594 -3.43177 -2.16778
-1.8454 -3.43167 -2.16404
-1.83169 -3.43204 -2.16062
-1.81807 -3.43248 -2.15729
-1.80449 -3.43292 -2.15399
-1.79095 -3.43336 -2.15071
-1.77745 -3.4338 -2.14747
-1.76399 -3.43423 -2.14426
-1.75057 -3.43467 -2.14108
-1.73719 -3.4351 -2.13793
-1.72385 -3.43553 -2.13481
-1.71055 -3.43595 -2.13172
-1.69728 -3.43638 -2.12866
-1.68406 -3.4368 -2.12562
-1.67086 -3.43722 -2.12262
-1.65771 -3.43764 -2.11965
-1.64459 -3.43805 -2.1167
-1.63151 -3.43846 -2.11378
-1.61847 -3.43888 -2.11089
-1.60546 -3.43929 -2.10803
-2.04666 -3.4341 -2.264
-2.03197 -3.43398 -2.2597
-2.01734 -3.43387 -2.25543
-2.00276 -3.43376 -2.25121
-1.98824 -3.43364 -2.24702
-1.97376 -3.43353 -2.24287
-1.95935 -3.43342 -2.23876
-1.94499 -3.43331 -2.23468
-1.93068 -3.4332 -2.23064
-1.91642 -3.43309 -2.22664
-1.90221 -3.43299 -2.22268
-1.88805 -3.43288 -2.21875
-1.87394 -3.43277 -2.21486
-1.85988 -3.43267 -2.211
-1.84588 -3.43257 -2.20718
-1.83192 -3.43246 -2.2034
-1.818 -3.43236 -2.19965
-1.80414 -3.43226 -2.19593
-1.79032 -3.43216 -2.19225
-1.77655 -3.43206 -2.18861
-1.76309 -3.43249 -2.18533
-1.74968 -3.43292 -2.18209
-1.73631 -3.43336 -2.17888
-1.72298 -3.43379 -2.1757
-1.70968 -3.43421 -2.17255
-1.69643 -3.43464 -2.16943
-1.68321 -3.43506 -2.16634
-1.67002 -3.43549 -2.16328
-1.65688 -3.43591 -2.16025
-1.64377 -3.43632 -2.15725
-1.63069 -3.43674 -2.15428
-1.61766 -3.43715 -2.15134
-1.60465 -3.43757 -2.14842
-1.90271 -3.4339 -2.26657
-1.88855 -3.43379 -2.26256
-1.87444 -3.43368 -2.25859
-1.86038 -3.43357 -2.25466
-1.84636 -3.43347 -2.25076
-1.8324 -3.43336 -2.2469
-1.81848 -3.43326 -2.24307
-1.80461 -3.43316 -2.23928
-1.79079 -3.43305 -2.23553
-1.77701 -3.43295 -2.23181
-1.76328 -3.43285 -2.22813
-1.7496 -3.43275 -2.22448
-1.73596 -3.43265 -2.22086
-1.72236 -3.43256 -2.21728
-1.70881 -3.43246 -2.21373
-1.69556 -3.43289 -2.21056
-1.68235 -3.43332 -2.20741
-1.66918 -3.43374 -2.20429
-1.65604 -3.43416 -2.20121
-1.64293 -3.43458 -2.19815
-1.62987 -3.435 -2.19512
-1.61684 -3.43542 -2.19213
-1.60384 -3.43583 -2.18916
-1.94849 -4.72073 -1.16565
-1.94594 -4.75692 -1.17307
-1.94334 -4.79351 -1.18058
-1.94069 -4.83052 -1.18818
-1.93797 -4.86794 -1.19589
-1.93519 -4.90579 -1.20368
-1.93236 -4.94408 -1.21158
-1.88324 -4.56266 -1.16986
-1.87528 -4.58419 -1.17386
-1.86725 -4.60583 -1.1779
-1.85915 -4.62758 -1.18196
-1.85101 -4.6495 -1.18607
-1.84619 -4.68016 -1.1924
-1.84293 -4.71527 -1.19986
-1.8396 -4.75076 -1.20741
-1.83621 -4.78663 -1.21506
-1.83275 -4.82291 -1.2228
-1.82923 -4.85959 -1.23064
-1.82564 -4.89667 -1.23857
-1.82197 -4.93417 -1.2466
-1.82945 -4.43234 -1.17862
-1.82154 -4.45282 -1.18254
-1.81356 -4.4734 -1.18649
-1.80552 -4.49408 -1.19046
-1.79768 -4.51554 -1.19464
-1.79166 -4.54192 -1.20012
-1.78557 -4.56851 -1.20566
-1.77941 -4.59532 -1.21125
-1.7732 -4.62237 -1.21691
-1.76731 -4.65068 -1.22289
-1.76412 -4.68661 -1.23088
-1.76177 -4.72536 -1.23959
-1.75936 -4.76463 -1.24844
-1.75691 -4.8044 -1.25741
-1.7544 -4.84472 -1.26651
-1.75184 -4.88556 -1.27574
-1.74836 -4.92453 -1.28447
-1.74353 -4.96033 -1.29237
-1.78174 -4.31675 -1.18913
-1.77375 -4.33598 -1.19288
-1.76788 -4.3607 -1.19815
-1.76194 -4.3856 -1.20346
-1.75594 -4.4107 -1.20883
-1.74987 -4.43599 -1.21425
-1.74374 -4.46148 -1.21972
-1.73754 -4.48718 -1.22524
-1.73127 -4.51307 -1.23082
-1.72493 -4.53917 -1.23646
-1.71853 -4.56549 -1.24215
-1.71234 -4.5928 -1.24811
-1.70618 -4.62059 -1.2542
-1.69994 -4.64862 -1.26035
-1.69507 -4.68088 -1.26764
-1.69218 -4.71919 -1.27657
-1.68923 -4.75799 -1.28562
-1.68623 -4.7973 -1.29481
-1.68316 -4.83713 -1.30412
-1.67901 -4.87451 -1.31277
-1.67378 -4.90939 -1.32074
-1.66846 -4.94466 -1.32881
-1.66307 -4.98031 -1.33698
-1.75296 -4.24702 -1.21067
-1.74435 -4.26412 -1.21398
-1.73568 -4.28129 -1.2173
-1.72696 -4.29854 -1.22066
-1.71818 -4.31586 -1.22404
-1.70983 -4.33448 -1.22779
-1.70366 -4.35894 -1.23319
-1.69742 -4.38358 -1.23865
-1.69112 -4.40842 -1.24416
-1.68475 -4.43344 -1.24972
-1.67832 -4.45867 -1.25534
-1.67181 -4.48408 -1.26101
-1.66523 -4.5097 -1.26673
-1.65876 -4.53602 -1.27265
-1.65241 -4.56306 -1.27878
-1.64598 -4.59033 -1.28496
-1.63947 -4.61783 -1.29121
-1.63289 -4.64557 -1.29753
-1.62634 -4.67384 -1.30399
-1.62292 -4.71168 -1.31312
-1.61944 -4.75001 -1.32237
-1.61589 -4.78884 -1.33176
-1.61114 -4.8248 -1.34034
-1.60553 -4.85878 -1.34838
-1.59983 -4.89312 -1.3565
-1.59405 -4.92785 -1.36473
-1.58819 -4.96294 -1.37306
-1.58224 -4.99842 -1.3815
-1.72498 -4.17922 -1.23162
-1.71643 -4.19586 -1.23493
-1.70782 -4.21257 -1.23826
-1.69917 -4.22935 -1.24161
-1.69045 -4.2462 -1.24499
-1.68168 -4.26313 -1.2484
-1.67285 -4.28012 -1.25183
-1.66397 -4.29719 -1.25529
-1.65503 -4.31433 -1.25877
-1.64624 -4.33209 -1.26243
-1.63978 -4.35629 -1.26798
-1.63325 -4.38067 -1.27357
-1.62666 -4.40523 -1.27922
-1.61999 -4.42999 -1.28492
-1.61325 -4.45493 -1.29068
-1.60651 -4.48027 -1.29655
-1.59998 -4.50659 -1.30271
-1.59337 -4.53313 -1.30892
-1.58669 -4.55989 -1.3152
-1.57993 -4.58687 -1.32155
-1.57309 -4.61408 -1.32795
-1.56618 -4.64151 -1.33443
-1.55918 -4.66919 -1.34097
-1.55399 -4.70282 -1.34922
-1.54998 -4.74066 -1.35867
-1.54473 -4.77535 -1.36721
-1.53875 -4.80845 -1.3753
-1.53269 -4.8419 -1.38348
-1.52655 -4.8757 -1.39176
-1.52031 -4.90987 -1.40014
-1.51399 -4.9444 -1.40862
-1.50757 -4.9793 -1.41721
-1.50106 -5.01459 -1.4259
-1.69775 -4.11326 -1.252
-1.68926 -4.12946 -1.2553
-1.68072 -4.14573 -1.25864
-1.67213 -4.16206 -1.262
-1.66348 -4.17847 -1.26538
-1.65478 -4.19494 -1.26878
-1.64602 -4.21147 -1.27221
-1.63721 -4.22808 -1.27567
-1.62834 -4.24475 -1.27915
-1.61941 -4.2615 -1.28265
-1.61043 -4.27832 -1.28619
-1.60139 -4.2952 -1.28974
-1.59229 -4.31216 -1.29333
-1.58313 -4.3292 -1.29693
-1.57624 -4.35274 -1.3025
-1.56943 -4.37685 -1.30823
-1.56254 -4.40114 -1.31401
-1.55558 -4.42561 -1.31985
-1.54885 -4.45114 -1.32601
-1.54207 -4.47697 -1.33225
-1.53522 -4.503 -1.33856
-1.52829 -4.52925 -1.34492
-1.52129 -4.55571 -1.35135
-1.5142 -4.5824 -1.35785
-1.50704 -4.6093 -1.36441
-1.49979 -4.63644 -1.37104
-1.49246 -4.6638 -1.37774
-1.48543 -4.69259 -1.38486
-1.47972 -4.72615 -1.39338
-1.47341 -4.75839 -1.40152
-1.46516 -4.78496 -1.40798
-1.45596 -4.80885 -1.41365
-1.44666 -4.83288 -1.41938
-1.43728 -4.85705 -1.42514
-1.4278 -4.88135 -1.43095
-1.41822 -4.9058 -1.4368
-1.40854 -4.93038 -1.44269
-1.39877 -4.95511 -1.44863
-1.38891 -4.97998 -1.45462
-1.37894 -5.00499 -1.46065
-1.67188 -4.05059 -1.27232
-1.66339 -4.06622 -1.27558
-1.65485 -4.0819 -1.27886
-1.64626 -4.09765 -1.28217
-1.63761 -4.11347 -1.2855
-1.62891 -4.12934 -1.28885
-1.62015 -4.14528 -1.29223
-1.61134 -4.16128 -1.29563
-1.60248 -4.17734 -1.29906
-1.59356 -4.19347 -1.30251
-1.58461 -4.20973 -1.30601
-1.57565 -4.22616 -1.30956
-1.56662 -4.24266 -1.31314
-1.55754 -4.25923 -1.31675
-1.5484 -4.27586 -1.32038
-1.53921 -4.29257 -1.32403
-1.52995 -4.30934 -1.32772
-1.52063 -4.32619 -1.33143
-1.51305 -4.34827 -1.33675
-1.50595 -4.3721 -1.34262
-1.49897 -4.39666 -1.34871
-1.49203 -4.42179 -1.35497
-1.48503 -4.44712 -1.3613
-1.47794 -4.47266 -1.36768
-1.47078 -4.4984 -1.37413
-1.46353 -4.52435 -1.38065
-1.45574 -4.54903 -1.38678
-1.44576 -4.56729 -1.39095
-1.43572 -4.58562 -1.39515
-1.4256 -4.60401 -1.39938
-1.41541 -4.62247 -1.40363
-1.40514 -4.641 -1.40791
-1.39479 -4.6596 -1.41221
-1.38437 -4.67826 -1.41654
-1.37408 -4.6977 -1.42111
-1.36462 -4.72041 -1.42668
-1.35508 -4.74323 -1.43228
-1.34544 -4.76617 -1.43792
-1.33571 -4.78924 -1.44361
-1.32589 -4.81244 -1.44934
-1.31597 -4.83576 -1.45511
-1.30596 -4.8592 -1.46092
-1.29585 -4.88278 -1.46678
-1.28564 -4.90648 -1.47267
-1.27534 -4.93032 -1.47862
-1.26493 -4.95428 -1.48461
-1.25443 -4.97838 -1.49064
-1.24383 -5.00264 -1.49672
-1.64674 -3.98967 -1.29217
-1.6383 -4.00489 -1.29543
-1.62983 -4.02018 -1.29871
-1.6213 -4.03554 -1.30202
-1.61272 -4.05095 -1.30535
-1.60409 -4.06642 -1.3087
-1.5954 -4.08195 -1.31208
-1.58666 -4.09754 -1.31548
-1.57787 -4.11319 -1.31891
-1.56903 -4.12891 -1.32236
-1.56013 -4.14468 -1.32583
-1.55117 -4.16052 -1.32933
-1.54216 -4.17642 -1.33285
-1.5331 -4.19238 -1.3364
-1.52398 -4.20841 -1.33998
-1.5148 -4.2245 -1.34358
-1.50556 -4.24065 -1.34721
-1.49627 -4.25687 -1.35086
-1.48692 -4.27316 -1.35454
-1.47751 -4.28952 -1.35824
-1.46804 -4.30594 -1.36197
-1.45854 -4.32252 -1.36576
-1.45029 -4.3431 -1.37082
-1.44205 -4.36405 -1.37599
-1.43246 -4.3812 -1.37997
-1.4228 -4.39842 -1.38398
-1.41307 -4.4157 -1.38801
-1.40326 -4.43303 -1.39207
-1.39339 -4.45042 -1.39615
-1.38345 -4.46788 -1.40025
-1.37343 -4.48539 -1.40438
-1.36335 -4.50296 -1.40853
-1.35318 -4.52059 -1.41271
-1.34295 -4.53828 -1.41691
-1.33264 -4.55604 -1.42114
-1.32225 -4.57385 -1.42539
-1.31179 -4.59173 -1.42967
-1.30126 -4.60966 -1.43397
-1.29065 -4.62766 -1.4383
-1.27996 -4.64573 -1.44266
-1.26919 -4.66386 -1.44704
-1.25834 -4.68204 -1.45145
-1.24752 -4.70068 -1.45601
-1.23751 -4.72279 -1.46164
-1.2274 -4.74502 -1.46732
-1.2172 -4.76736 -1.47304
-1.20553 -4.78432 -1.4771
-1.19229 -4.79537 -1.47935
-1.179 -4.80639 -1.4816
-1.16565 -4.81738 -1.48385
-1.15225 -4.82833 -1.4861
-1.13878 -4.83925 -1.48835
-1.12527 -4.85014 -1.4906
-1.11169 -4.861 -1.49286
-1.09806 -4.87182 -1.49511
-1.08437 -4.8826 -1.49737
-1.07063 -4.89335 -1.49963
-1.05683 -4.90406 -1.50188
-1.04297 -4.91474 -1.50414
-1.02906 -4.92538 -1.5064
-1.01509 -4.93599 -1.50866
-1.00107 -4.94656 -1.51092
-0.986986 -4.95709 -1.51318
-0.972848 -4.96758 -1.51545
-1.62522 -3.93754 -1.31396
-1.61601 -3.9504 -1.31655
-1.60676 -3.96328 -1.31916
-1.59746 -3.97621 -1.32178
-1.58846 -3.99 -1.3247
-1.57989 -4.00509 -1.32805
-1.57128 -4.02023 -1.33143
-1.56261 -4.03543 -1.33483
-1.55389 -4.05068 -1.33825
-1.54512 -4.06599 -1.3417
-1.53629 -4.08136 -1.34517
-1.52741 -4.09679 -1.34866
-1.51848 -4.11228 -1.35218
-1.50949 -4.12783 -1.35573
-1.50045 -4.14344 -1.3593
-1.49135 -4.15911 -1.3629
-1.4822 -4.17484 -1.36652
-1.47299 -4.19063 -1.37017
-1.46372 -4.20649 -1.37384
-1.45439 -4.22241 -1.37754
-1.44396 -4.23531 -1.38026
-1.43288 -4.24648 -1.38242
-1.42176 -4.25766 -1.3846
-1.41059 -4.26884 -1.38679
-1.40029 -4.28282 -1.38989
-1.39035 -4.29813 -1.39344
-1.38036 -4.31348 -1.397
-1.3703 -4.32889 -1.40059
-1.36044 -4.34516 -1.40446
-1.35053 -4.36155 -1.40838
-1.34056 -4.37801 -1.41233
-1.33052 -4.39453 -1.4163
-1.32041 -4.4111 -1.4203
-1.31024 -4.42774 -1.42432
-1.3 -4.44444 -1.42837
-1.28969 -4.4612 -1.43245
-1.27931 -4.47802 -1.43655
-1.26886 -4.4949 -1.44068
-1.25835 -4.51185 -1.44483
-1.24776 -4.52886 -1.44902
-1.2371 -4.54594 -1.45323
-1.22637 -4.56307 -1.45747
-1.21557 -4.58028 -1.46174
-1.20469 -4.59755 -1.46603
-1.19228 -4.60923 -1.46856
-1.17877 -4.61684 -1.46979
-1.16523 -4.6244 -1.47103
-1.15166 -4.63195 -1.47227
-1.13805 -4.63945 -1.47351
-1.12441 -4.64693 -1.47475
-1.11073 -4.65438 -1.476
-1.09702 -4.66179 -1.47725
-1.08328 -4.66917 -1.4785
-1.0695 -4.67652 -1.47976
-1.05569 -4.68384 -1.48102
-1.04185 -4.69113 -1.48228
-1.02817 -4.69931 -1.48383
-1.01489 -4.70945 -1.48602
-1.00155 -4.71956 -1.48821
-0.988163 -4.72964 -1.4904
-0.97472 -4.73969 -1.49259
-0.961225 -4.7497 -1.49479
-0.947678 -4.75967 -1.49698
-0.934079 -4.76961 -1.49918
-0.921313 -4.78414 -1.50283
-0.908898 -4.80089 -1.50718
-0.896396 -4.81768 -1.51156
-0.883811 -4.8345 -1.51596
-0.871139 -4.85135 -1.52038
-0.858383 -4.86824 -1.52482
-0.845539 -4.88517 -1.52928
-0.832611 -4.90213 -1.53376
-0.819594 -4.91912 -1.53826
-0.806491 -4.93614 -1.54279
-0.793299 -4.9532 -1.54733
-1.60416 -3.8865 -1.3353
-1.59502 -3.89908 -1.33789
-1.58585 -3.91171 -1.34051
-1.57663 -3.92436 -1.34314
-1.56737 -3.93704 -1.34579
-1.55807 -3.94976 -1.34845
-1.54872 -3.96251 -1.35114
-1.53933 -3.97529 -1.35384
-1.53051 -3.98973 -1.35711
-1.52181 -4.00466 -1.36055
-1.51306 -4.01964 -1.36402
-1.50426 -4.03468 -1.36751
-1.4954 -4.04977 -1.37103
-1.48649 -4.06492 -1.37457
-1.47752 -4.08013 -1.37813
-1.4685 -4.09539 -1.38172
-1.45943 -4.11071 -1.38534
-1.44901 -4.12244 -1.38774
-1.43823 -4.13325 -1.38986
-1.42741 -4.14407 -1.39198
-1.41654 -4.1549 -1.39411
-1.40563 -4.16573 -1.39626
-1.39468 -4.17657 -1.39841
-1.38368 -4.18741 -1.40058
-1.37265 -4.19826 -1.40276
-1.36183 -4.20994 -1.40522
-1.35197 -4.22476 -1.40875
-1.34204 -4.23963 -1.41229
-1.33206 -4.25454 -1.41585
-1.32202 -4.2695 -1.41944
-1.31192 -4.2845 -1.42305
-1.30176 -4.29955 -1.42668
-1.29153 -4.31464 -1.43034
-1.28125 -4.32978 -1.43401
-1.27115 -4.34581 -1.43799
-1.26099 -4.36192 -1.442
-1.25076 -4.37809 -1.44604
-1.24047 -4.39431 -1.45011
-1.23011 -4.4106 -1.4542
-1.21968 -4.42694 -1.45831
-1.20918 -4.44334 -1.46245
-1.19861 -4.4598 -1.46662
-1.18565 -4.46754 -1.46794
-1.17255 -4.47489 -1.46913
-1.15942 -4.48221 -1.47033
-1.14626 -4.4895 -1.47153
-1.13307 -4.49675 -1.47274
-1.11984 -4.50398 -1.47394
-1.10658 -4.51118 -1.47515
-1.09329 -4.51834 -1.47636
-1.07997 -4.52547 -1.47758
-1.06662 -4.53258 -1.4788
-1.05323 -4.53965 -1.48002
-1.03981 -4.54669 -1.48124
-1.02636 -4.55369 -1.48246
-1.01243 -4.55866 -1.48303
-0.998416 -4.5633 -1.48352
-0.984381 -4.56788 -1.48399
-0.970325 -4.57242 -1.48447
-0.956249 -4.5769 -1.48494
-0.942153 -4.58132 -1.48541
-0.928035 -4.5857 -1.48587
-0.91418 -4.59142 -1.48679
-0.901706 -4.60431 -1.49004
-0.889167 -4.61721 -1.4933
-0.876565 -4.63011 -1.49657
-0.863897 -4.64301 -1.49986
-0.851164 -4.65592 -1.50315
-0.838365 -4.66884 -1.50647
-0.825501 -4.68176 -1.50979
-0.812807 -4.69606 -1.51357
-0.800333 -4.71208 -1.51792
-0.787775 -4.72814 -1.52228
-0.775133 -4.74422 -1.52667
-0.762408 -4.76033 -1.53107
-0.7496 -4.77647 -1.5355
-0.736705 -4.79264 -1.53994
-0.723726 -4.80883 -1.54441
-0.710663 -4.82505 -1.54889
-0.697504 -4.84124 -1.55338
-0.684234 -4.85725 -1.55782
-0.670875 -4.8733 -1.56228
-0.65743 -4.88937 -1.56676
-0.6439 -4.90547 -1.57126
-0.630284 -4.92158 -1.57578
-0.61658 -4.93773 -1.58033
-0.602789 -4.9539 -1.58489
-1.58252 -3.83408 -1.35534
-1.57359 -3.8467 -1.35805
-1.56463 -3.85936 -1.36077
-1.55562 -3.87205 -1.36351
-1.54656 -3.88477 -1.36628
-1.53746 -3.89752 -1.36905
-1.52832 -3.91031 -1.37185
-1.51913 -3.92313 -1.37467
-1.50989 -3.93599 -1.3775
-1.5005 -3.94858 -1.38025
-1.49106 -3.96119 -1.38301
-1.48167 -3.9741 -1.38589
-1.47289 -3.98881 -1.3894
-1.46406 -4.00358 -1.39293
-1.45361 -4.01411 -1.395
-1.44312 -4.02459 -1.39706
-1.43258 -4.03508 -1.39913
-1.422 -4.04557 -1.40121
-1.41138 -4.05607 -1.4033
-1.40071 -4.06657 -1.4054
-1.39001 -4.07708 -1.40752
-1.37926 -4.08759 -1.40964
-1.36848 -4.09811 -1.41178
-1.35765 -4.10863 -1.41392
-1.34678 -4.11915 -1.41608
-1.33587 -4.12968 -1.41825
-1.32491 -4.14022 -1.42043
-1.31479 -4.15353 -1.42358
-1.30495 -4.16793 -1.4271
-1.29504 -4.18236 -1.43064
-1.28508 -4.19684 -1.4342
-1.27506 -4.21136 -1.43779
-1.26498 -4.22592 -1.44139
-1.25484 -4.24052 -1.44502
-1.24464 -4.25517 -1.44867
-1.23437 -4.26986 -1.45234
-1.22405 -4.2846 -1.45604
-1.21367 -4.29937 -1.45976
-1.20322 -4.31419 -1.4635
-1.19183 -4.32587 -1.46618
-1.17818 -4.32943 -1.46613
-1.16487 -4.33426 -1.46651
-1.15163 -4.33938 -1.46701
-1.13837 -4.34446 -1.46751
-1.12509 -4.34949 -1.46801
-1.11179 -4.35447 -1.4685
-1.09846 -4.3594 -1.46899
-1.08511 -4.36428 -1.46948
-1.07173 -4.36911 -1.46997
-1.05834 -4.37389 -1.47045
-1.04493 -4.37862 -1.47093
-1.03149 -4.3833 -1.4714
-1.01803 -4.38793 -1.47188
-1.00455 -4.39251 -1.47235
-0.991052 -4.39704 -1.47281
-0.97753 -4.40152 -1.47328
-0.96399 -4.40595 -1.47374
-0.950428 -4.41033 -1.4742
-0.936848 -4.41466 -1.47465
-0.923247 -4.41894 -1.4751
-0.909965 -4.42481 -1.4761
-0.897941 -4.43699 -1.47921
-0.885856 -4.44917 -1.48234
-0.873709 -4.46136 -1.48548
-0.861502 -4.47355 -1.48863
-0.849234 -4.48574 -1.49179
-0.836904 -4.49793 -1.49496
-0.824513 -4.51013 -1.49815
-0.812058 -4.52233 -1.50134
-0.799542 -4.53453 -1.50455
-0.786963 -4.54674 -1.50777
-0.774324 -4.55894 -1.51101
-0.761618 -4.57115 -1.51425
-0.74885 -4.58336 -1.51751
-0.73602 -4.59557 -1.52078
-0.723126 -4.60778 -1.52406
-0.710168 -4.61999 -1.52735
-0.697145 -4.63221 -1.53066
-0.684059 -4.64442 -1.53397
-0.670907 -4.65663 -1.5373
-0.657691 -4.66885 -1.54065
-0.644411 -4.68106 -1.544
-0.631442 -4.69609 -1.5483
-0.618409 -4.71125 -1.55264
-0.60529 -4.72642 -1.55701
-0.592092 -4.74161 -1.56139
-0.578809 -4.75682 -1.5658
-0.565443 -4.77206 -1.57022
-0.551995 -4.7873 -1.57466
-0.538461 -4.80258 -1.57911
-0.524845 -4.81786 -1.58359
-0.511141 -4.83316 -1.58808
-0.498176 -4.8565 -1.59523
-0.487654 -4.90582 -1.61092
-0.476916 -4.95603 -1.62691
-1.56082 -3.78151 -1.37449
-1.55198 -3.79386 -1.3772
-1.54309 -3.80623 -1.37992
-1.53416 -3.81864 -1.38267
-1.52519 -3.83108 -1.38543
-1.51617 -3.84355 -1.38821
-1.50711 -3.85605 -1.391
-1.49801 -3.86858 -1.39382
-1.48886 -3.88115 -1.39665
-1.47966 -3.89374 -1.3995
-1.47042 -3.90637 -1.40237
-1.45985 -3.91557 -1.40402
-1.44922 -3.92471 -1.40566
-1.43856 -3.93386 -1.40731
-1.4279 -3.9431 -1.409
-1.41721 -3.95233 -1.4107
-1.40648 -3.96157 -1.41241
-1.39583 -3.97112 -1.41425
-1.38537 -3.98132 -1.41632
-1.37486 -3.99152 -1.4184
-1.36432 -4.00172 -1.4205
-1.35373 -4.01192 -1.4226
-1.34311 -4.02213 -1.42472
-1.33244 -4.03235 -1.42685
-1.32174 -4.04256 -1.42898
-1.31099 -4.05278 -1.43113
-1.3002 -4.063 -1.43329
-1.28937 -4.07323 -1.43546
-1.27877 -4.08432 -1.43795
-1.269 -4.09827 -1.44144
-1.25918 -4.11225 -1.44496
-1.2493 -4.12627 -1.4485
-1.23936 -4.14032 -1.45206
-1.22936 -4.15442 -1.45564
-1.2193 -4.16855 -1.45924
-1.20919 -4.18273 -1.46287
-1.19901 -4.19695 -1.46651
-1.1868 -4.20421 -1.46774
-1.17439 -4.21084 -1.46876
-1.16196 -4.21744 -1.46978
-1.14949 -4.22402 -1.47081
-1.137 -4.23056 -1.47183
-1.12445 -4.23695 -1.47282
-1.11109 -4.24033 -1.47277
-1.09772 -4.24367 -1.47272
-1.08434 -4.24697 -1.47268
-1.07095 -4.25024 -1.47264
-1.05756 -4.25348 -1.4726
-1.04416 -4.25668 -1.47257
-1.03074 -4.25984 -1.47253
-1.01733 -4.26297 -1.4725
-1.0039 -4.26606 -1.47247
-0.990465 -4.26912 -1.47245
-0.977022 -4.27214 -1.47242
-0.963572 -4.27513 -1.4724
-0.950115 -4.27808 -1.47238
-0.936651 -4.281 -1.47236
-0.923178 -4.28388 -1.47235
-0.909833 -4.28736 -1.47255
-0.89744 -4.29541 -1.47434
-0.88501 -4.30346 -1.47614
-0.872591 -4.31173 -1.47803
-0.860163 -4.32013 -1.47998
-0.847697 -4.32852 -1.48193
-0.835667 -4.33939 -1.48475
-0.823701 -4.35088 -1.48778
-0.811678 -4.36236 -1.49083
-0.799597 -4.37385 -1.49389
-0.787458 -4.38533 -1.49696
-0.77526 -4.39682 -1.50004
-0.763004 -4.40831 -1.50313
-0.750688 -4.4198 -1.50624
-0.738315 -4.43128 -1.50936
-0.725882 -4.44277 -1.51248
-0.713388 -4.45426 -1.51562
-0.700836 -4.46575 -1.51878
-0.688223 -4.47724 -1.52194
-0.675551 -4.48873 -1.52512
-0.66282 -4.50021 -1.5283
-0.650026 -4.5117 -1.5315
-0.637173 -4.52318 -1.53471
-0.624257 -4.53467 -1.53793
-0.611281 -4.54615 -1.54117
-0.598244 -4.55763 -1.54442
-0.585145 -4.56911 -1.54768
-0.571983 -4.58058 -1.55095
-0.558761 -4.59206 -1.55423
-0.545475 -4.60353 -1.55752
-0.532128 -4.615 -1.56083
-0.518716 -4.62647 -1.56415
-0.505244 -4.63794 -1.56748
-0.491707 -4.6494 -1.57083
-0.478107 -4.66086 -1.57418
-0.466604 -4.69405 -1.58489
-0.456134 -4.74007 -1.59994
-0.445456 -4.7869 -1.61526
-0.434565 -4.83455 -1.63087
-0.423455 -4.88306 -1.64678
-0.412117 -4.93244 -1.66299
-1.53959 -3.73008 -1.39322
-1.53083 -3.74216 -1.39593
-1.52202 -3.75427 -1.39866
-1.51317 -3.7664 -1.4014
-1.50428 -3.77857 -1.40416
-1.49535 -3.79076 -1.40694
-1.48637 -3.80299 -1.40973
-1.47735 -3.81524 -1.41255
-1.46712 -3.82448 -1.41425
-1.45674 -3.83341 -1.41586
-1.44632 -3.84234 -1.41747
-1.43587 -3.85126 -1.41909
-1.42539 -3.86018 -1.42071
-1.41488 -3.8691 -1.42235
-1.40433 -3.87801 -1.424
-1.39378 -3.88699 -1.42568
-1.3832 -3.896 -1.42738
-1.37259 -3.905 -1.42909
-1.36194 -3.914 -1.43081
-1.35126 -3.92299 -1.43254
-1.34054 -3.93199 -1.43428
-1.3298 -3.94098 -1.43603
-1.31901 -3.94997 -1.43778
-1.30819 -3.95896 -1.43955
-1.29748 -3.96836 -1.44148
-1.28689 -3.97828 -1.44361
-1.27627 -3.98821 -1.44575
-1.2656 -3.99814 -1.44789
-1.2549 -4.00807 -1.45005
-1.24415 -4.018 -1.45223
-1.23416 -4.03055 -1.45535
-1.22442 -4.0441 -1.45885
-1.21461 -4.05767 -1.46236
-1.20476 -4.07129 -1.46589
-1.1938 -4.08138 -1.46817
-1.18176 -4.08786 -1.46916
-1.16969 -4.09431 -1.47015
-1.1576 -4.10074 -1.47114
-1.14547 -4.10714 -1.47214
-1.13332 -4.11351 -1.47314
-1.12115 -4.11985 -1.47414
-1.10895 -4.12616 -1.47514
-1.09672 -4.13245 -1.47615
-1.08446 -4.1387 -1.47716
-1.07218 -4.14493 -1.47817
-1.05987 -4.15112 -1.47918
-1.04681 -4.15441 -1.47917
-1.03371 -4.15757 -1.47914
-1.02061 -4.1607 -1.4791
-1.0075 -4.1638 -1.47907
-0.994389 -4.16685 -1.47904
-0.981265 -4.16988 -1.47901
-0.968134 -4.17287 -1.47898
-0.954995 -4.17583 -1.47896
-0.941849 -4.17875 -1.47894
-0.928695 -4.18163 -1.47892
-0.915535 -4.18449 -1.4789
-0.903286 -4.19158 -1.48039
-0.89116 -4.19937 -1.48215
-0.878999 -4.20716 -1.48392
-0.866803 -4.21492 -1.48569
-0.85457 -4.22268 -1.48747
-0.842303 -4.23042 -1.48925
-0.829998 -4.23815 -1.49105
-0.817656 -4.24587 -1.49285
-0.805307 -4.25371 -1.49471
-0.792963 -4.26178 -1.49666
-0.780581 -4.26983 -1.49862
-0.768161 -4.27787 -1.50059
-0.755702 -4.2859 -1.50256
-0.743204 -4.29391 -1.50455
-0.730668 -4.30192 -1.50654
-0.718092 -4.30991 -1.50854
-0.705477 -4.31788 -1.51055
-0.692822 -4.32585 -1.51257
-0.680338 -4.33513 -1.51506
-0.668053 -4.34602 -1.51812
-0.655712 -4.35691 -1.52119
-0.643315 -4.36779 -1.52428
-0.630859 -4.37867 -1.52738
-0.618346 -4.38954 -1.53048
-0.605775 -4.40041 -1.5336
-0.593146 -4.41128 -1.53673
-0.580458 -4.42214 -1.53987
-0.567713 -4.433 -1.54303
-0.554909 -4.44386 -1.54619
-0.542047 -4.45471 -1.54937
-0.529126 -4.46556 -1.55255
-0.516145 -4.4764 -1.55575
-0.503105 -4.48723 -1.55896
-0.490007 -4.49807 -1.56218
-0.476847 -4.50889 -1.56541
-0.464578 -4.52897 -1.57187
-0.452713 -4.55432 -1.58016
-0.440719 -4.57988 -1.58854
-0.42859 -4.60566 -1.59701
-0.416169 -4.62991 -1.60495
-0.403426 -4.65209 -1.6122
-0.390561 -4.67444 -1.61951
-0.379471 -4.72053 -1.63506
-0.368946 -4.77758 -1.6544
-0.358157 -4.83587 -1.67419
-0.347099 -4.89545 -1.69443
-1.51882 -3.67974 -1.41156
-1.51013 -3.69156 -1.41427
-1.5014 -3.70341 -1.41699
-1.49264 -3.71528 -1.41973
-1.48382 -3.72719 -1.42249
-1.47389 -3.73638 -1.42422
-1.46375 -3.74511 -1.42579
-1.45357 -3.75383 -1.42736
-1.44336 -3.76255 -1.42894
-1.43312 -3.77126 -1.43054
-1.42284 -3.77997 -1.43214
-1.41254 -3.78868 -1.43375
-1.4022 -3.79738 -1.43536
-1.39183 -3.80608 -1.43699
-1.38143 -3.81478 -1.43863
-1.371 -3.82347 -1.44027
-1.36055 -3.8322 -1.44194
-1.35008 -3.84098 -1.44364
-1.33959 -3.84975 -1.44535
-1.32905 -3.85853 -1.44707
-1.31849 -3.8673 -1.4488
-1.30789 -3.87606 -1.45053
-1.29726 -3.88483 -1.45228
-1.28659 -3.89359 -1.45404
-1.27589 -3.90235 -1.4558
-1.26516 -3.9111 -1.45758
-1.25439 -3.91986 -1.45936
-1.24359 -3.92861 -1.46116
-1.23276 -3.93735 -1.46296
-1.22188 -3.9461 -1.46477
-1.21098 -3.95484 -1.4666
-1.20018 -3.96403 -1.4686
-1.18848 -3.97038 -1.46956
-1.17677 -3.9767 -1.47052
-1.16502 -3.98299 -1.47149
-1.15325 -3.98925 -1.47246
-1.14146 -3.99549 -1.47343
-1.12963 -4.00169 -1.4744
-1.11779 -4.00787 -1.47537
-1.10591 -4.01402 -1.47635
-1.09401 -4.02014 -1.47733
-1.08209 -4.02624 -1.47831
-1.07014 -4.0323 -1.47929
-1.05816 -4.03834 -1.48028
-1.04616 -4.04434 -1.48127
-1.03413 -4.05032 -1.48226
-1.02208 -4.05627 -1.48326
-1.01 -4.06219 -1.48425
-0.997894 -4.06808 -1.48525
-0.985165 -4.07147 -1.48535
-0.97234 -4.07446 -1.48532
-0.959508 -4.07742 -1.48529
-0.946669 -4.08035 -1.48526
-0.933821 -4.08324 -1.48524
-0.920966 -4.0861 -1.48522
-0.908741 -4.09178 -1.48624
-0.896908 -4.09935 -1.48796
-0.88504 -4.1069 -1.48968
-0.873138 -4.11444 -1.49141
-0.861202 -4.12197 -1.49315
-0.849232 -4.12948 -1.4949
-0.837228 -4.13698 -1.49665
-0.825188 -4.14447 -1.49842
-0.813113 -4.15194 -1.50019
-0.801003 -4.1594 -1.50196
-0.78886 -4.16684 -1.50375
-0.776681 -4.17426 -1.50554
-0.764466 -4.18168 -1.50734
-0.752217 -4.18908 -1.50915
-0.739937 -4.19649 -1.51097
-0.727679 -4.20422 -1.51292
-0.715387 -4.21194 -1.51489
-0.703054 -4.21965 -1.51685
-0.690683 -4.22734 -1.51883
-0.678276 -4.23502 -1.52082
-0.66583 -4.24269 -1.52281
-0.653346 -4.25034 -1.52481
-0.640825 -4.25798 -1.52683
-0.628265 -4.26561 -1.52884
-0.615667 -4.27322 -1.53087
-0.603031 -4.28082 -1.53291
-0.590356 -4.28841 -1.53495
-0.577642 -4.29598 -1.537
-0.56489 -4.30353 -1.53906
-0.5521 -4.31108 -1.54113
-0.539269 -4.31861 -1.54321
-0.5264 -4.32612 -1.5453
-0.513642 -4.33488 -1.54784
-0.501012 -4.34514 -1.55094
-0.488325 -4.3554 -1.55404
-0.475582 -4.36565 -1.55716
-0.463454 -4.38226 -1.56255
-0.451971 -4.40607 -1.57053
-0.440365 -4.43009 -1.57859
-0.428636 -4.45431 -1.58673
-0.41678 -4.47874 -1.59496
-0.404797 -4.50337 -1.60327
-0.392682 -4.52822 -1.61167
-0.380437 -4.55327 -1.62015
-0.367958 -4.57729 -1.62828
-0.355143 -4.59885 -1.63554
-0.342208 -4.62055 -1.64287
-0.329156 -4.6424 -1.65026
-1.49989 -3.63388 -1.43086
-1.48987 -3.64203 -1.43222
-1.48019 -3.65109 -1.43394
-1.47028 -3.65963 -1.43547
-1.46032 -3.66816 -1.43701
-1.45035 -3.67668 -1.43856
-1.44034 -3.6852 -1.44011
-1.43029 -3.69372 -1.44168
-1.42022 -3.70223 -1.44325
-1.41012 -3.71074 -1.44483
-1.39999 -3.71925 -1.44642
-1.38982 -3.72775 -1.44802
-1.37963 -3.73624 -1.44963
-1.3694 -3.74473 -1.45125
-1.35914 -3.75322 -1.45287
-1.34885 -3.7617 -1.45451
-1.33853 -3.77018 -1.45615
-1.32818 -3.77866 -1.45781
-1.31783 -3.78722 -1.4595
-1.30744 -3.79578 -1.46121
-1.29702 -3.80433 -1.46293
-1.28657 -3.81288 -1.46465
-1.27609 -3.82143 -1.46639
-1.26557 -3.82997 -1.46813
-1.25502 -3.83851 -1.46988
-1.24444 -3.84705 -1.47165
-1.23382 -3.85558 -1.47342
-1.22317 -3.86411 -1.4752
-1.21243 -3.87244 -1.47692
-1.20061 -3.87738 -1.47736
-1.18877 -3.8823 -1.4778
-1.17691 -3.88719 -1.47825
-1.16504 -3.89206 -1.4787
-1.15315 -3.89689 -1.47915
-1.14129 -3.90184 -1.47966
-1.12944 -3.90687 -1.48021
-1.11757 -3.91187 -1.48077
-1.10569 -3.91685 -1.48133
-1.09378 -3.92181 -1.4819
-1.08187 -3.92674 -1.48247
-1.06993 -3.93164 -1.48304
-1.05798 -3.93652 -1.48362
-1.04601 -3.94137 -1.4842
-1.03402 -3.9462 -1.48479
-1.02201 -3.951 -1.48538
-1.00999 -3.95578 -1.48597
-0.997953 -3.96053 -1.48657
-0.985896 -3.96526 -1.48718
-0.974054 -3.9709 -1.48813
-0.962198 -3.97655 -1.48911
-0.950318 -3.98218 -1.4901
-0.938414 -3.98778 -1.49108
-0.926015 -3.99133 -1.49131
-0.913821 -3.99579 -1.4919
-0.902269 -4.00314 -1.49357
-0.890684 -4.01048 -1.49526
-0.879066 -4.0178 -1.49695
-0.867414 -4.02512 -1.49865
-0.85573 -4.03241 -1.50036
-0.844011 -4.03969 -1.50208
-0.832261 -4.04696 -1.5038
-0.820476 -4.05422 -1.50553
-0.80866 -4.06145 -1.50726
-0.796808 -4.06868 -1.50901
-0.784921 -4.07589 -1.51076
-0.773005 -4.08308 -1.51252
-0.761051 -4.09027 -1.51429
-0.749065 -4.09743 -1.51606
-0.737046 -4.10458 -1.51784
-0.724991 -4.11172 -1.51963
-0.712901 -4.11884 -1.52143
-0.70078 -4.12595 -1.52323
-0.688623 -4.13304 -1.52504
-0.676431 -4.14012 -1.52686
-0.664246 -4.14742 -1.52878
-0.652041 -4.15482 -1.53074
-0.639797 -4.1622 -1.53271
-0.627519 -4.16957 -1.53469
-0.615203 -4.17692 -1.53668
-0.60285 -4.18426 -1.53867
-0.590462 -4.19159 -1.54068
-0.578035 -4.1989 -1.54269
-0.565569 -4.20619 -1.54471
-0.553068 -4.21348 -1.54673
-0.540531 -4.22074 -1.54877
-0.527955 -4.22799 -1.55081
-0.515341 -4.23523 -1.55287
-0.50269 -4.24245 -1.55493
-0.490002 -4.24966 -1.557
-0.477274 -4.25685 -1.55907
-0.464899 -4.26759 -1.56247
-0.453057 -4.28394 -1.56792
-0.441129 -4.30038 -1.57342
-0.429113 -4.3169 -1.57896
-0.417131 -4.33476 -1.58501
-0.405537 -4.35793 -1.59301
-0.393821 -4.38128 -1.60108
-0.381982 -4.40482 -1.60924
-0.370017 -4.42856 -1.61748
-0.357926 -4.4525 -1.62581
-0.345705 -4.47664 -1.63421
-0.333353 -4.50098 -1.64271
-0.320823 -4.52488 -1.65106
-1.48879 -3.607 -1.45711
-1.47741 -3.61158 -1.45708
-1.46603 -3.61616 -1.45706
-1.45464 -3.62072 -1.45705
-1.44325 -3.62527 -1.45705
-1.43186 -3.62981 -1.45706
-1.42046 -3.63434 -1.45708
-1.40905 -3.63886 -1.45711
-1.39768 -3.64347 -1.45718
-1.38771 -3.65178 -1.45876
-1.37772 -3.66009 -1.46034
-1.36769 -3.66839 -1.46192
-1.35763 -3.67668 -1.46352
-1.34755 -3.68497 -1.46513
-1.33743 -3.69326 -1.46675
-1.32728 -3.70154 -1.46837
-1.3171 -3.70982 -1.47
-1.30689 -3.71809 -1.47165
-1.29665 -3.72636 -1.4733
-1.28639 -3.73468 -1.47498
-1.27612 -3.74302 -1.47668
-1.26581 -3.75136 -1.4784
-1.25548 -3.7597 -1.48012
-1.2451 -3.76803 -1.48185
-1.2347 -3.77636 -1.48359
-1.22421 -3.78452 -1.48528
-1.21265 -3.78942 -1.4857
-1.20107 -3.7943 -1.48612
-1.18949 -3.79915 -1.48655
-1.17788 -3.80398 -1.48698
-1.16625 -3.80878 -1.48742
-1.15462 -3.81356 -1.48786
-1.14296 -3.81831 -1.48831
-1.1313 -3.82303 -1.48875
-1.11961 -3.82773 -1.48921
-1.10791 -3.83241 -1.48966
-1.0962 -3.83706 -1.49012
-1.08452 -3.84186 -1.49066
-1.07283 -3.84669 -1.49122
-1.06114 -3.8515 -1.49178
-1.04942 -3.85628 -1.49235
-1.03769 -3.86104 -1.49292
-1.02594 -3.86577 -1.49349
-1.01418 -3.87047 -1.49407
-1.00239 -3.87515 -1.49465
-0.990596 -3.87981 -1.49524
-0.978781 -3.88444 -1.49583
-0.966947 -3.88904 -1.49643
-0.955099 -3.89362 -1.49702
-0.943233 -3.89818 -1.49763
-0.93135 -3.9027 -1.49823
-0.919799 -3.90868 -1.49941
-0.908399 -3.9154 -1.50089
-0.89697 -3.9221 -1.50237
-0.885512 -3.92879 -1.50386
-0.874025 -3.93547 -1.50535
-0.862472 -3.94196 -1.50679
-0.850881 -3.9484 -1.50822
-0.839265 -3.95482 -1.50966
-0.82762 -3.96123 -1.51111
-0.815946 -3.96763 -1.51256
-0.804288 -3.97422 -1.5141
-0.792687 -3.98123 -1.51582
-0.781051 -3.98822 -1.51753
-0.769382 -3.9952 -1.51926
-0.757683 -4.00216 -1.521
-0.745949 -4.0091 -1.52274
-0.734184 -4.01603 -1.52448
-0.722386 -4.02295 -1.52624
-0.710555 -4.02985 -1.528
-0.698689 -4.03673 -1.52977
-0.686794 -4.0436 -1.53155
-0.674864 -4.05046 -1.53333
-0.6629 -4.05729 -1.53513
-0.650903 -4.06412 -1.53693
-0.638874 -4.07092 -1.53873
-0.62681 -4.07771 -1.54055
-0.614713 -4.08449 -1.54237
-0.602598 -4.09134 -1.54424
-0.590483 -4.09842 -1.5462
-0.578333 -4.10549 -1.54817
-0.566146 -4.11254 -1.55015
-0.553923 -4.11957 -1.55214
-0.541665 -4.12659 -1.55413
-0.529371 -4.1336 -1.55614
-0.517039 -4.14059 -1.55815
-0.504674 -4.14756 -1.56017
-0.49227 -4.15452 -1.5622
-0.479832 -4.16146 -1.56423
-0.467699 -4.17144 -1.56742
-0.456134 -4.18713 -1.57277
-0.444486 -4.2029 -1.57816
-0.432755 -4.21874 -1.58359
-0.420939 -4.23466 -1.58906
-0.409039 -4.25066 -1.59458
-0.397052 -4.26674 -1.60013
-0.384978 -4.2829 -1.60573
-0.372818 -4.29914 -1.61137
-0.360567 -4.31546 -1.61706
-0.348279 -4.33251 -1.62302
-0.336341 -4.35539 -1.63119
-0.324278 -4.37845 -1.63944
-0.312091 -4.4017 -1.64777
-1.4777 -3.58012 -1.48305
-1.4664 -3.58467 -1.48302
-1.45511 -3.58921 -1.483
-1.4438 -3.59374 -1.48298
-1.4325 -3.59826 -1.48298
-1.42119 -3.60276 -1.48299
-1.40987 -3.60726 -1.48301
-1.39855 -3.61175 -1.48304
-1.38723 -3.61622 -1.48308
-1.3759 -3.62069 -1.48313
-1.36456 -3.62514 -1.48319
-1.35323 -3.62959 -1.48326
-1.34188 -3.63402 -1.48334
-1.33053 -3.63844 -1.48343
-1.31918 -3.64286 -1.48353
-1.30782 -3.64726 -1.48364
-1.29645 -3.65165 -1.48377
-1.28615 -3.65908 -1.48513
-1.27604 -3.66715 -1.48677
-1.26591 -3.67521 -1.48842
-1.25576 -3.6833 -1.49009
-1.24559 -3.69144 -1.49179
-1.23531 -3.69933 -1.4934
-1.22401 -3.70419 -1.49381
-1.21269 -3.70904 -1.49421
-1.20135 -3.71385 -1.49463
-1.19 -3.71864 -1.49504
-1.17864 -3.72341 -1.49546
-1.16726 -3.72815 -1.49588
-1.15586 -3.73287 -1.49631
-1.14445 -3.73756 -1.49674
-1.13302 -3.74223 -1.49718
-1.12158 -3.74687 -1.49762
-1.11012 -3.75149 -1.49806
-1.09865 -3.75608 -1.49851
-1.08716 -3.76064 -1.49896
-1.07566 -3.76518 -1.49941
-1.06415 -3.7697 -1.49987
-1.05261 -3.77419 -1.50033
-1.04107 -3.77865 -1.5008
-1.02956 -3.78331 -1.50135
-1.01805 -3.78795 -1.50192
-1.00651 -3.79256 -1.50249
-0.994965 -3.79715 -1.50306
-0.983398 -3.80172 -1.50363
-0.971816 -3.80626 -1.50421
-0.960217 -3.81077 -1.50479
-0.948602 -3.81526 -1.50538
-0.937072 -3.82013 -1.50613
-0.92594 -3.82671 -1.50757
-0.914781 -3.83327 -1.50902
-0.903595 -3.83982 -1.51047
-0.89238 -3.84635 -1.51193
-0.881137 -3.85287 -1.51339
-0.869866 -3.85938 -1.51487
-0.858567 -3.86587 -1.51635
-0.847241 -3.87234 -1.51784
-0.835884 -3.87881 -1.51933
-0.824501 -3.88525 -1.52084
-0.81309 -3.89169 -1.52234
-0.801624 -3.89798 -1.52382
-0.790114 -3.90419 -1.52526
-0.778578 -3.91037 -1.52671
-0.767013 -3.91654 -1.52817
-0.755421 -3.9227 -1.52964
-0.743802 -3.92884 -1.53112
-0.732154 -3.93496 -1.5326
-0.720479 -3.94107 -1.53409
-0.708777 -3.94716 -1.53558
-0.697045 -3.95323 -1.53709
-0.685287 -3.95929 -1.5386
-0.673501 -3.96534 -1.54011
-0.661685 -3.97136 -1.54164
-0.649842 -3.97737 -1.54317
-0.638045 -3.98383 -1.54489
-0.626239 -3.99041 -1.54667
-0.6144 -3.99697 -1.54846
-0.602528 -4.00352 -1.55025
-0.590626 -4.01005 -1.55206
-0.578689 -4.01656 -1.55387
-0.56672 -4.02306 -1.55568
-0.55472 -4.02954 -1.55751
-0.542686 -4.036 -1.55934
-0.530655 -4.04271 -1.56128
-0.518597 -4.04947 -1.56325
-0.506504 -4.05621 -1.56523
-0.494377 -4.06293 -1.56722
-0.482214 -4.06964 -1.56921
-0.470321 -4.07897 -1.57223
-0.45902 -4.09404 -1.57747
-0.447642 -4.10917 -1.58275
-0.436183 -4.12438 -1.58808
-0.424643 -4.13966 -1.59344
-0.413022 -4.15502 -1.59884
-0.401319 -4.17044 -1.60428
-0.389533 -4.18594 -1.60977
-0.377664 -4.20152 -1.61529
-0.365709 -4.21717 -1.62086
-0.353668 -4.2329 -1.62647
-0.341542 -4.2487 -1.63212
-0.329329 -4.26458 -1.63782
-0.317028 -4.28054 -1.64355
-0.304637 -4.29658 -1.64934
-1.46364 -3.54607 -1.50562
-1.45254 -3.55078 -1.50567
-1.44143 -3.55547 -1.50573
-1.43031 -3.56015 -1.5058
-1.41919 -3.56482 -1.50588
-1.40805 -3.56947 -1.50597
-1.39692 -3.57411 -1.50607
-1.38577 -3.57874 -1.50618
-1.37462 -3.58335 -1.50629
-1.36346 -3.58795 -1.50641
-1.35229 -3.59254 -1.50655
-1.34112 -3.59711 -1.50669
-1.32994 -3.60167 -1.50684
-1.31875 -3.60622 -1.507
-1.30755 -3.61075 -1.50717
-1.29635 -3.61527 -1.50735
-1.28513 -3.61978 -1.50754
-1.27391 -3.62428 -1.50773
-1.26269 -3.62876 -1.50794
-1.25145 -3.63323 -1.50815
-1.24003 -3.63715 -1.50816
-1.22834 -3.6403 -1.50786
-1.21666 -3.64348 -1.50758
-1.205 -3.64668 -1.50733
-1.19334 -3.64986 -1.50709
-1.18168 -3.65303 -1.50686
-1.17002 -3.65619 -1.50663
-1.15835 -3.65933 -1.50642
-1.14668 -3.66245 -1.50621
-1.13502 -3.66555 -1.50601
-1.12335 -3.66864 -1.50582
-1.11209 -3.67309 -1.50621
-1.10085 -3.67762 -1.50664
-1.0896 -3.68214 -1.50708
-1.07834 -3.68662 -1.50752
-1.06705 -3.69108 -1.50796
-1.05576 -3.69552 -1.50841
-1.04445 -3.69993 -1.50886
-1.03313 -3.70431 -1.50932
-1.02179 -3.70868 -1.50978
-1.01043 -3.71301 -1.51024
-0.999066 -3.71732 -1.51071
-0.98769 -3.72164 -1.5112
-0.976351 -3.72612 -1.51176
-0.964994 -3.73057 -1.51233
-0.953622 -3.73499 -1.5129
-0.942618 -3.74092 -1.51409
-0.931718 -3.74735 -1.5155
-0.920792 -3.75377 -1.51692
-0.909839 -3.76017 -1.51834
-0.898859 -3.76655 -1.51977
-0.887852 -3.77292 -1.52121
-0.87682 -3.77928 -1.52265
-0.865758 -3.78562 -1.52411
-0.854669 -3.79195 -1.52556
-0.843553 -3.79826 -1.52703
-0.83241 -3.80456 -1.5285
-0.821238 -3.81084 -1.52998
-0.810041 -3.81711 -1.53147
-0.798815 -3.82336 -1.53296
-0.787561 -3.8296 -1.53446
-0.77628 -3.83583 -1.53597
-0.764972 -3.84203 -1.53749
-0.753635 -3.84823 -1.53901
-0.742257 -3.85435 -1.54051
-0.730829 -3.86031 -1.54197
-0.719373 -3.86627 -1.54344
-0.70789 -3.8722 -1.54491
-0.69638 -3.87812 -1.54639
-0.684842 -3.88402 -1.54788
-0.673278 -3.88991 -1.54938
-0.661687 -3.89578 -1.55088
-0.650067 -3.90163 -1.55239
-0.638421 -3.90747 -1.5539
-0.626747 -3.91329 -1.55543
-0.615047 -3.9191 -1.55696
-0.603319 -3.92488 -1.5585
-0.591562 -3.93066 -1.56004
-0.57978 -3.93641 -1.56159
-0.567967 -3.94215 -1.56315
-0.556129 -3.94787 -1.56472
-0.544263 -3.95357 -1.5663
-0.532367 -3.95926 -1.56788
-0.520445 -3.96493 -1.56947
-0.508494 -3.97058 -1.57107
-0.496516 -3.97622 -1.57267
-0.484508 -3.98184 -1.57428
-0.472771 -3.98995 -1.5769
-0.461727 -4.00443 -1.58204
-0.450605 -4.01898 -1.58722
-0.439408 -4.03359 -1.59243
-0.428133 -4.04827 -1.59769
-0.416781 -4.06302 -1.60298
-0.40535 -4.07783 -1.60832
-0.393839 -4.09271 -1.61369
-0.382248 -4.10766 -1.6191
-0.370578 -4.12268 -1.62456
-0.358823 -4.13777 -1.63005
-0.346988 -4.15293 -1.63559
-0.335069 -4.16816 -1.64116
-0.323066 -4.18347 -1.64678
-0.310976 -4.19885 -1.65244
-0.298803 -4.2143 -1.65814
-1.45313 -3.5206 -1.53146
-1.44097 -3.52248 -1.5303
-1.42881 -3.52435 -1.52915
-1.41667 -3.52621 -1.52802
-1.40553 -3.53051 -1.52796
-1.3945 -3.53512 -1.52805
-1.38347 -3.53971 -1.52814
-1.37243 -3.54429 -1.52825
-1.36138 -3.54885 -1.52837
-1.35033 -3.55341 -1.52849
-1.33927 -3.55795 -1.52862
-1.3282 -3.56247 -1.52877
-1.31713 -3.56698 -1.52892
-1.30605 -3.57148 -1.52908
-1.29495 -3.57597 -1.52925
-1.28386 -3.58044 -1.52943
-1.27275 -3.5849 -1.52962
-1.26164 -3.58935 -1.52982
-1.2505 -3.59373 -1.53
-1.23893 -3.59689 -1.52968
-1.22737 -3.60004 -1.52937
-1.21581 -3.60316 -1.52907
-1.20424 -3.60627 -1.52877
-1.19268 -3.60937 -1.52849
-1.18111 -3.61245 -1.52821
-1.16957 -3.61559 -1.52798
-1.15803 -3.61872 -1.52775
-1.14648 -3.62183 -1.52754
-1.13494 -3.62493 -1.52733
-1.12339 -3.62801 -1.52713
-1.11184 -3.63107 -1.52694
-1.10029 -3.63412 -1.52676
-1.08874 -3.63715 -1.52659
-1.07718 -3.64016 -1.52643
-1.06562 -3.64316 -1.52627
-1.05406 -3.64614 -1.52612
-1.0425 -3.64911 -1.52599
-1.03094 -3.65206 -1.52586
-1.01937 -3.65499 -1.52574
-1.0078 -3.65791 -1.52563
-0.996229 -3.66081 -1.52552
-0.984655 -3.6637 -1.52543
-0.973076 -3.66657 -1.52534
-0.961497 -3.66943 -1.52527
-0.950165 -3.67325 -1.5256
-0.938827 -3.67705 -1.52595
-0.927475 -3.68082 -1.5263
-0.916111 -3.68458 -1.52665
-0.904968 -3.68926 -1.52741
-0.894189 -3.69549 -1.52881
-0.883385 -3.7017 -1.53023
-0.872553 -3.70791 -1.53165
-0.861695 -3.71409 -1.53308
-0.850811 -3.72027 -1.53452
-0.839899 -3.72642 -1.53596
-0.828961 -3.73256 -1.53741
-0.817998 -3.73869 -1.53886
-0.807006 -3.7448 -1.54033
-0.79599 -3.7509 -1.5418
-0.784944 -3.75698 -1.54328
-0.773874 -3.76304 -1.54476
-0.762774 -3.7691 -1.54625
-0.751651 -3.77513 -1.54775
-0.740498 -3.78115 -1.54926
-0.729317 -3.78715 -1.55077
-0.718112 -3.79314 -1.55229
-0.706878 -3.79912 -1.55382
-0.695617 -3.80507 -1.55535
-0.68433 -3.81101 -1.55689
-0.672983 -3.81676 -1.55837
-0.661608 -3.82249 -1.55985
-0.650207 -3.82819 -1.56134
-0.638778 -3.83388 -1.56283
-0.627324 -3.83955 -1.56433
-0.615842 -3.8452 -1.56584
-0.604335 -3.85084 -1.56735
-0.5928 -3.85646 -1.56887
-0.581239 -3.86207 -1.5704
-0.569651 -3.86765 -1.57194
-0.558037 -3.87322 -1.57348
-0.546395 -3.87877 -1.57503
-0.534727 -3.88431 -1.57659
-0.523031 -3.88983 -1.57815
-0.511309 -3.89533 -1.57972
-0.49956 -3.90081 -1.5813
-0.487782 -3.90628 -1.58289
-0.476826 -3.9187 -1.58731
-0.465828 -3.93135 -1.59183
-0.454761 -3.94403 -1.59638
-0.443287 -3.95371 -1.59972
-0.431763 -3.96341 -1.60309
-0.420185 -3.97313 -1.60648
-0.408644 -3.9837 -1.61022
-0.397435 -3.99821 -1.61558
-0.386149 -4.0128 -1.62097
-0.374783 -4.02744 -1.62641
-0.363338 -4.04215 -1.63188
-0.351813 -4.05693 -1.63739
-0.340206 -4.07178 -1.64294
-0.328519 -4.08669 -1.64853
-0.316748 -4.10166 -1.65416
-0.304893 -4.11671 -1.65984
-0.292955 -4.13182 -1.66555
-1.44272 -3.49539 -1.55712
-1.43065 -3.49727 -1.55595
-1.41859 -3.49915 -1.55479
-1.40655 -3.50101 -1.55365
-1.39452 -3.50286 -1.55251
-1.3825 -3.50469 -1.55139
-1.37049 -3.50651 -1.55028
-1.35926 -3.51027 -1.55005
-1.34832 -3.51479 -1.55016
-1.33737 -3.51929 -1.55029
-1.32641 -3.52379 -1.55042
-1.31545 -3.52827 -1.55057
-1.30448 -3.53273 -1.55072
-1.2935 -3.53719 -1.55088
-1.28252 -3.54163 -1.55105
-1.27153 -3.54605 -1.55123
-1.26052 -3.55046 -1.55142
-1.24922 -3.55402 -1.55125
-1.23778 -3.55717 -1.55092
-1.22633 -3.56031 -1.5506
-1.21489 -3.56343 -1.55029
