ply
format ascii 1.0
comment Created by Open3D
element vertex 1938
property double x
property double y
property double z
end_header
5.39774 4.32766 -2.13404
5.39732 4.35525 -2.13928
5.39691 4.38298 -2.14456
5.39649 4.41085 -2.14989
5.39608 4.43886 -2.15527
5.39567 4.46701 -2.1607
6.61806 3.61458 -2.39485
6.56898 3.61461 -2.38118
6.52047 3.61464 -2.3677
6.47249 3.61468 -2.35439
6.42505 3.61471 -2.34126
6.37815 3.61474 -2.32829
6.33175 3.61477 -2.31549
6.28586 3.6148 -2.30285
6.24047 3.61484 -2.29037
6.19557 3.61487 -2.27804
6.15115 3.6149 -2.26587
6.1072 3.61493 -2.25385
6.06911 3.61818 -2.24398
6.07001 3.6446 -2.24854
6.07091 3.67114 -2.25313
6.07183 3.69779 -2.25777
5.95569 3.65276 -2.21884
5.92832 3.66165 -2.21292
5.90109 3.67049 -2.20705
5.87401 3.67929 -2.20124
5.84708 3.68804 -2.19547
5.82028 3.69675 -2.18976
5.79363 3.70542 -2.1841
5.76686 3.71387 -2.1784
5.73949 3.7218 -2.17246
5.72277 3.73655 -2.17057
5.70608 3.75127 -2.16869
5.68942 3.76596 -2.16685
5.67279 3.78064 -2.16503
5.65618 3.79529 -2.16323
5.63961 3.80991 -2.16146
5.62307 3.82452 -2.15971
5.60655 3.8391 -2.15799
5.59007 3.85366 -2.15629
5.57169 3.86686 -2.15388
5.5526 3.87952 -2.1512
5.53815 3.89537 -2.15033
5.52816 3.91436 -2.15122
5.51818 3.93337 -2.15213
5.50818 3.9524 -2.15306
5.49819 3.97145 -2.15402
5.48819 3.99052 -2.155
5.47818 4.00961 -2.15601
5.46817 4.02873 -2.15704
5.45808 4.0478 -2.15806
5.45206 4.06995 -2.16073
5.44664 4.09261 -2.16367
5.44122 4.11534 -2.16664
6.56874 3.61448 -2.44988
6.52023 3.61451 -2.43601
6.47226 3.61455 -2.42231
6.42482 3.61458 -2.4088
6.37792 3.61461 -2.39546
6.33152 3.61464 -2.38229
6.28564 3.61468 -2.36928
6.24025 3.61471 -2.35644
6.19535 3.61474 -2.34377
6.15093 3.61477 -2.33125
6.10699 3.6148 -2.31888
6.10821 3.64148 -2.32368
6.11208 3.66986 -2.32952
6.11599 3.6984 -2.33543
6.11994 3.72709 -2.3414
6.12393 3.75595 -2.34743
6.12796 3.78496 -2.35352
6.13204 3.81414 -2.35967
6.42459 3.61445 -2.47671
6.37769 3.61448 -2.46299
6.3313 3.61452 -2.44945
6.28542 3.61455 -2.43608
6.24004 3.61458 -2.42288
6.19513 3.61461 -2.40984
6.17981 3.63174 -2.4083
6.19561 3.66726 -2.41894
6.21164 3.70314 -2.42973
6.22789 3.7394 -2.44067
6.24439 3.77604 -2.45177
6.26112 3.81307 -2.46303
7.17886 4.72623 -1.00461
7.17775 4.75791 -1.00654
7.1919 4.7999 -1.01063
7.21599 4.84884 -1.01616
7.24023 4.89824 -1.02173
7.26418 4.9478 -1.0273
7.28354 4.99458 -1.03226
7.30298 5.04174 -1.03725
6.81706 4.48803 -1.0228
6.80799 4.51281 -1.02357
6.80166 4.53945 -1.02476
6.80024 4.56947 -1.0267
6.79878 4.59959 -1.02866
6.79729 4.62979 -1.03063
6.79576 4.6601 -1.03262
6.7942 4.69049 -1.03461
6.79259 4.72099 -1.03662
6.79153 4.75199 -1.03874
6.79113 4.78358 -1.04097
6.79722 4.81992 -1.04422
6.80331 4.85646 -1.0475
6.80941 4.89319 -1.0508
6.8155 4.93014 -1.05413
6.8216 4.96729 -1.05748
6.8277 5.00465 -1.06086
6.83387 5.04229 -1.06428
6.6454 4.37502 -1.06428
6.63604 4.39883 -1.06499
6.62685 4.42278 -1.06575
6.6178 4.44688 -1.06653
6.60872 4.471 -1.06733
6.59959 4.49514 -1.06813
6.59043 4.51929 -1.06894
6.58573 4.54658 -1.0705
6.58378 4.57586 -1.07251
6.58179 4.60524 -1.07454
6.58012 4.63495 -1.07664
6.57881 4.66504 -1.07882
6.57746 4.69523 -1.08102
6.57608 4.72552 -1.08323
6.57466 4.75592 -1.08545
6.57319 4.78641 -1.08769
6.57652 4.82055 -1.09074
6.58162 4.85616 -1.09411
6.58671 4.89198 -1.09751
6.59193 4.92808 -1.10095
6.59718 4.96442 -1.10443
6.60243 5.00096 -1.10794
6.60767 5.0377 -1.11147
6.62356 5.08282 -1.11683
6.48504 4.26944 -1.10436
6.4758 4.29261 -1.10508
6.46653 4.31578 -1.10581
6.45721 4.33897 -1.10654
6.44786 4.36218 -1.10729
6.43847 4.38539 -1.10804
6.42904 4.40863 -1.10879
6.41958 4.43187 -1.10956
6.41007 4.45513 -1.11033
6.40063 4.47848 -1.11113
6.3928 4.50301 -1.11222
6.38494 4.52757 -1.11332
6.38348 4.55676 -1.11556
6.38221 4.58621 -1.11785
6.38091 4.61577 -1.12016
6.37958 4.64543 -1.12249
6.37822 4.67519 -1.12483
6.37683 4.70507 -1.12719
6.37541 4.73505 -1.12956
6.37396 4.76513 -1.13195
6.3726 4.79542 -1.13438
6.3741 4.82801 -1.13735
6.37743 4.86216 -1.14066
6.38133 4.89694 -1.14411
6.38522 4.9319 -1.14758
6.38911 4.96705 -1.15108
6.39299 5.0024 -1.15461
6.39687 5.03793 -1.15816
6.40335 5.07574 -1.16222
6.43754 5.13588 -1.17135
6.35332 4.18273 -1.14651
6.34338 4.20483 -1.14709
6.33341 4.22694 -1.14769
6.32341 4.24906 -1.14829
6.31573 4.27279 -1.14933
6.30804 4.29656 -1.15038
6.30032 4.32036 -1.15145
6.29256 4.34418 -1.15252
6.28477 4.36804 -1.1536
6.27697 4.39195 -1.1547
6.26917 4.41592 -1.15581
6.26134 4.43992 -1.15693
6.25347 4.46395 -1.15807
6.24556 4.48801 -1.15921
6.23761 4.51211 -1.16036
6.23176 4.53779 -1.16192
6.23014 4.56664 -1.16429
6.22847 4.5956 -1.16667
6.22681 4.62468 -1.16908
6.22525 4.65396 -1.17153
6.22366 4.68334 -1.17399
6.22203 4.71283 -1.17648
6.22037 4.74242 -1.17898
6.21867 4.77212 -1.18149
6.21695 4.80192 -1.18403
6.21825 4.83422 -1.18716
6.22064 4.86754 -1.19054
6.22302 4.90101 -1.19393
6.22538 4.93466 -1.19736
6.22772 4.96848 -1.20081
6.23005 5.00247 -1.20428
6.23236 5.03664 -1.20778
6.23468 5.071 -1.21132
6.25566 5.12083 -1.21852
6.24184 4.10933 -1.18999
6.23202 4.13101 -1.19059
6.22217 4.1527 -1.19119
6.21229 4.17439 -1.19181
6.20237 4.1961 -1.19243
6.19243 4.21781 -1.19306
6.18246 4.23953 -1.1937
6.17412 4.26242 -1.19468
6.16637 4.28575 -1.19578
6.15858 4.30911 -1.19689
6.15075 4.3325 -1.19801
6.14288 4.35592 -1.19914
6.13567 4.37986 -1.20041
6.12895 4.40422 -1.2018
6.1222 4.42862 -1.2032
6.11542 4.45307 -1.20461
6.1086 4.47756 -1.20604
6.10174 4.5021 -1.20747
6.09486 4.52668 -1.20892
6.09299 4.55508 -1.21138
6.09139 4.58381 -1.21392
6.08976 4.61264 -1.21648
6.0881 4.64158 -1.21906
6.08641 4.67062 -1.22166
6.08469 4.69977 -1.22427
6.08295 4.72903 -1.22691
6.08137 4.75855 -1.2296
6.08008 4.78844 -1.23238
6.07951 4.81904 -1.23533
6.08431 4.85407 -1.2394
6.08896 4.88919 -1.24347
6.09316 4.92414 -1.24748
6.09736 4.95931 -1.25153
6.10155 4.99468 -1.2556
6.10576 5.03026 -1.25972
6.10996 5.06606 -1.26387
6.12247 5.109 -1.26977
6.13866 5.15533 -1.27648
6.14639 4.04649 -1.23459
6.13694 4.06798 -1.23525
6.12746 4.08949 -1.23592
6.11795 4.111 -1.23661
6.10842 4.13253 -1.2373
6.09886 4.15408 -1.238
6.08927 4.17563 -1.23872
6.07932 4.19697 -1.23937
6.06933 4.21831 -1.24003
6.05932 4.23966 -1.2407
6.05243 4.26325 -1.24203
6.04555 4.28691 -1.24338
6.03864 4.3106 -1.24474
6.0317 4.33434 -1.24611
6.02472 4.35811 -1.24749
6.01771 4.38192 -1.24889
6.01089 4.40594 -1.25034
6.00403 4.43 -1.25181
5.99713 4.4541 -1.25328
5.99021 4.47824 -1.25477
5.98324 4.50243 -1.25627
5.97625 4.52666 -1.25778
5.97414 4.55469 -1.26035
5.97224 4.58301 -1.26298
5.97032 4.61143 -1.26563
5.96874 4.64024 -1.26838
5.96725 4.66926 -1.27118
5.96574 4.69839 -1.274
5.96419 4.72763 -1.27684
5.96262 4.75699 -1.2797
5.96102 4.78645 -1.28258
5.95939 4.81604 -1.28548
5.96269 4.84978 -1.28947
5.96696 4.8845 -1.29371
5.97124 4.91944 -1.29798
5.97551 4.95458 -1.30229
5.97979 4.98993 -1.30664
5.98404 5.02548 -1.31101
5.98772 5.06075 -1.3153
5.99672 5.10077 -1.32079
6.01218 5.14659 -1.32776
6.06151 3.99061 -1.27964
6.05214 4.01178 -1.28032
6.04275 4.03295 -1.28101
6.03333 4.05414 -1.28171
6.02388 4.07534 -1.28241
6.01419 4.0964 -1.28308
6.00434 4.11739 -1.28374
5.99448 4.1384 -1.28441
5.98458 4.15941 -1.28508
5.97466 4.18043 -1.28577
5.96471 4.20146 -1.28646
5.95473 4.22251 -1.28717
5.94614 4.24457 -1.28819
5.9392 4.26787 -1.28958
5.93223 4.2912 -1.29099
5.92522 4.31458 -1.29241
5.91818 4.33799 -1.29385
5.91111 4.36144 -1.29529
5.904 4.38493 -1.29675
5.89664 4.40829 -1.29817
5.88639 4.42954 -1.29897
5.87609 4.4508 -1.29978
5.86575 4.47206 -1.3006
5.85537 4.49333 -1.30142
5.84604 4.51544 -1.3025
5.83886 4.53927 -1.30407
5.83358 4.56466 -1.30609
5.82957 4.59115 -1.30842
5.82572 4.61787 -1.31081
5.82182 4.64466 -1.31321
5.81788 4.67152 -1.31563
5.81388 4.69845 -1.31806
5.80984 4.72545 -1.3205
5.80574 4.75253 -1.32296
5.80159 4.77967 -1.32543
5.79739 4.80689 -1.32792
5.79764 4.83793 -1.33145
5.8047 4.87487 -1.33659
5.8083 4.90912 -1.34096
5.81135 4.9431 -1.34525
5.81437 4.97726 -1.34956
5.81737 5.01161 -1.35391
5.82035 5.04614 -1.35829
5.83666 5.09251 -1.36582
5.9847 3.94004 -1.32492
5.97216 3.95876 -1.32489
5.96011 3.9778 -1.32499
5.95066 3.99859 -1.32567
5.94097 4.01925 -1.32632
5.93063 4.03949 -1.32684
5.91808 4.05824 -1.32688
5.90551 4.07698 -1.32693
5.89291 4.0957 -1.32699
5.88029 4.1144 -1.32705
5.86764 4.13309 -1.32712
5.85496 4.15176 -1.3272
5.84226 4.17042 -1.32729
5.8295 4.18904 -1.32737
5.81529 4.20661 -1.32714
5.80105 4.22416 -1.32692
5.78924 4.24347 -1.32726
5.77926 4.26416 -1.32804
5.76925 4.28484 -1.32883
5.75919 4.30553 -1.32962
5.74909 4.32623 -1.33042
5.73895 4.34692 -1.33123
5.72877 4.36762 -1.33205
5.71855 4.38833 -1.33288
5.70879 4.40943 -1.33383
5.70004 4.43135 -1.33503
5.69125 4.45329 -1.33624
5.68241 4.47525 -1.33746
5.67352 4.49722 -1.33869
5.66459 4.51922 -1.33993
5.65774 4.54293 -1.34168
5.65212 4.56772 -1.34375
5.64645 4.59257 -1.34583
5.64074 4.61746 -1.34792
5.63497 4.6424 -1.35002
5.62915 4.66739 -1.35214
5.62328 4.69244 -1.35427
5.61736 4.71754 -1.35641
5.61275 4.74383 -1.35889
5.60815 4.77026 -1.3614
5.60351 4.79675 -1.36392
5.59895 4.82344 -1.3665
5.60487 4.85932 -1.37167
5.61078 4.89543 -1.37687
5.61669 4.93178 -1.38212
5.6226 4.96835 -1.38741
5.626 5.00295 -1.39213
5.6281 5.03659 -1.39656
5.91305 3.89287 -1.37
5.89227 3.9058 -1.36802
5.8718 3.91886 -1.36612
5.8552 3.93445 -1.36513
5.83861 3.95 -1.36415
5.82202 3.96551 -1.36318
5.80543 3.98099 -1.36222
5.79 3.99723 -1.36155
5.77764 4.01558 -1.3616
5.76526 4.03392 -1.36167
5.75285 4.05223 -1.36174
5.74042 4.07054 -1.36182
5.72796 4.08883 -1.3619
5.71547 4.1071 -1.362
5.70253 4.12505 -1.362
5.68859 4.14227 -1.36177
5.67463 4.15946 -1.36155
5.66064 4.17664 -1.36134
5.64664 4.19378 -1.36114
5.63262 4.21091 -1.36094
5.61857 4.22801 -1.36075
5.60767 4.24749 -1.36134
5.59765 4.26765 -1.36216
5.58758 4.28783 -1.36298
5.57747 4.308 -1.36381
5.56878 4.32931 -1.36501
5.56007 4.35065 -1.36622
5.55132 4.37201 -1.36744
5.54252 4.39338 -1.36867
5.53368 4.41477 -1.36991
5.52479 4.43618 -1.37115
5.51586 4.45761 -1.37241
5.50689 4.47905 -1.37367
5.49786 4.5005 -1.37495
5.4888 4.52198 -1.37623
5.4821 4.54547 -1.37812
5.47616 4.56967 -1.38023
5.47017 4.59392 -1.38236
5.46413 4.61822 -1.38449
5.45804 4.64257 -1.38664
5.45189 4.66697 -1.3888
5.45338 4.69803 -1.39294
5.4558 4.73008 -1.39735
5.45824 4.76234 -1.4018
5.46069 4.7948 -1.40629
5.46362 4.82788 -1.41095
5.47547 4.86909 -1.41796
5.48821 4.9114 -1.42525
5.50107 4.95414 -1.43262
5.51406 4.99733 -1.44009
5.52937 5.04296 -1.44822
5.85738 3.85622 -1.41767
5.83621 3.86864 -1.41548
5.81575 3.88146 -1.41347
5.79534 3.89422 -1.41148
5.77498 3.90695 -1.4095
5.75465 3.91963 -1.40755
5.73438 3.93227 -1.4056
5.71414 3.94486 -1.40368
5.69395 3.95741 -1.40176
5.6738 3.96992 -1.39987
5.65369 3.98239 -1.39799
5.63483 3.99566 -1.39643
5.61857 4.01074 -1.39551
5.60544 4.02803 -1.39539
5.59316 4.04593 -1.39549
5.58007 4.06325 -1.39541
5.56639 4.08012 -1.39519
5.55269 4.09698 -1.39498
5.53897 4.11381 -1.39477
5.52523 4.13063 -1.39457
5.51147 4.14741 -1.39439
5.49768 4.16418 -1.3942
5.48431 4.18125 -1.39414
5.47625 4.2024 -1.39544
5.46818 4.22358 -1.39676
5.46342 4.2474 -1.39895
5.45991 4.27228 -1.40149
5.45638 4.29724 -1.40404
5.45283 4.32229 -1.40662
5.44927 4.34743 -1.40922
5.44569 4.37267 -1.41184
5.4421 4.39799 -1.41448
5.43848 4.42341 -1.41715
5.43485 4.44892 -1.41984
5.4312 4.47453 -1.42256
5.42772 4.50038 -1.42535
5.4254 4.52732 -1.42847
5.42625 4.55704 -1.43246
5.42823 4.58788 -1.43678
5.43056 4.61919 -1.44123
5.4329 4.65071 -1.44573
5.43525 4.68241 -1.45026
5.43761 4.71431 -1.45484
5.43999 4.74641 -1.45946
5.44237 4.77871 -1.46413
5.44477 4.81121 -1.46883
5.44927 4.84578 -1.47415
5.45886 4.88513 -1.48089
5.4715 4.92751 -1.48852
5.48426 4.97033 -1.49623
5.49715 5.01357 -1.50404
5.516 5.06262 -1.51355
5.57048 5.14499 -1.53293
5.64797 5.24956 -1.55878
5.80332 3.82063 -1.46479
5.78102 3.83206 -1.4622
5.76084 3.84481 -1.46014
5.7407 3.8575 -1.4581
5.7206 3.87016 -1.45608
5.70054 3.88277 -1.45408
5.68053 3.89534 -1.45209
5.66056 3.90787 -1.45012
5.64062 3.92035 -1.44816
5.62074 3.93279 -1.44622
5.60089 3.94519 -1.4443
5.58108 3.95755 -1.44239
5.56353 3.97145 -1.44108
5.54948 3.98782 -1.44068
5.53544 4.00418 -1.44029
5.52472 4.02294 -1.44079
5.51653 4.04358 -1.44196
5.50859 4.06445 -1.44322
5.50064 4.08534 -1.44449
5.49266 4.10628 -1.44578
5.48466 4.12724 -1.44708
5.47665 4.14825 -1.4484
5.46862 4.16928 -1.44974
5.46057 4.19036 -1.45109
5.45366 4.21237 -1.45277
5.44869 4.23594 -1.45498
5.44516 4.26073 -1.45761
5.44161 4.28561 -1.46026
5.43805 4.31057 -1.46293
5.43447 4.33563 -1.46563
5.43087 4.36077 -1.46835
5.42726 4.386 -1.47109
5.42363 4.41133 -1.47386
5.41998 4.43675 -1.47665
5.41678 4.46264 -1.4796
5.41443 4.48936 -1.48281
5.41207 4.51619 -1.48604
5.41161 4.54475 -1.48983
5.41243 4.57452 -1.49401
5.41324 4.60446 -1.49822
5.4149 4.6353 -1.5027
5.41718 4.66685 -1.5074
5.41948 4.69859 -1.51215
5.42179 4.73054 -1.51693
5.42411 4.76267 -1.52176
5.42644 4.79502 -1.52664
5.42889 4.82767 -1.53159
5.43483 4.86363 -1.53757
5.44214 4.90108 -1.54399
5.45469 4.94352 -1.55195
5.46736 4.9864 -1.56001
5.48221 5.03161 -1.56876
5.50249 5.08219 -1.57912
5.54086 5.15 -1.59477
5.61763 5.25437 -1.62162
5.75006 3.78557 -1.51121
5.72668 3.79604 -1.5082
5.70676 3.80871 -1.5061
5.68688 3.82134 -1.50402
5.66705 3.83393 -1.50195
5.64725 3.84648 -1.4999
5.62888 3.85992 -1.49824
5.61486 3.87632 -1.49774
5.60085 3.8927 -1.49726
5.58684 3.90907 -1.49679
5.57283 3.92543 -1.49634
5.55883 3.94177 -1.4959
5.54483 3.9581 -1.49548
5.53084 3.97442 -1.49506
5.51968 3.99278 -1.49544
5.51021 4.01237 -1.49628
5.50082 4.03207 -1.49716
5.49289 4.05286 -1.49847
5.48494 4.07369 -1.49978
5.47697 4.09455 -1.50112
5.46899 4.11545 -1.50247
5.46098 4.13638 -1.50383
5.45296 4.15735 -1.50522
5.44516 4.17854 -1.50668
5.4397 4.20159 -1.50882
5.43422 4.2247 -1.51098
5.43044 4.24922 -1.51363
5.42687 4.274 -1.51638
5.42329 4.29888 -1.51914
5.4197 4.32384 -1.52194
5.41608 4.34889 -1.52476
5.41245 4.37403 -1.5276
5.4088 4.39927 -1.53046
5.40589 4.42521 -1.53357
5.40353 4.45173 -1.53686
5.40116 4.47835 -1.54018
5.39877 4.5051 -1.54354
5.397 4.53248 -1.54709
5.39777 4.56214 -1.55142
5.39854 4.59196 -1.55578
5.39931 4.62195 -1.56018
5.40008 4.65211 -1.56462
5.40141 4.68292 -1.56927
5.40365 4.71471 -1.57422
5.40591 4.74669 -1.57921
5.40817 4.77887 -1.58426
5.41044 4.81126 -1.58935
5.41443 4.84538 -1.59499
5.42031 4.88141 -1.60123
5.42623 4.91773 -1.60754
5.43778 4.95942 -1.61557
5.45035 5.00237 -1.62397
5.46866 5.05094 -1.63415
5.48885 5.10166 -1.64497
5.51098 5.15462 -1.65645
5.71353 3.76152 -1.56132
5.68658 3.76946 -1.55718
5.66582 3.78139 -1.55475
5.65184 3.7978 -1.55418
5.63786 3.81419 -1.55362
5.62389 3.83056 -1.55308
5.60992 3.84692 -1.55256
5.59596 3.86327 -1.55205
5.582 3.8796 -1.55155
5.56804 3.89592 -1.55107
5.55409 3.91223 -1.5506
5.54014 3.92852 -1.55015
5.52619 3.9448 -1.54971
5.51462 3.96277 -1.54995
5.50518 3.98229 -1.5508
5.49571 4.00182 -1.55168
5.48624 4.02138 -1.55256
5.47722 4.0413 -1.5536
5.46928 4.06206 -1.55496
5.46132 4.08285 -1.55634
5.45334 4.10368 -1.55774
5.44535 4.12454 -1.55915
5.43733 4.14543 -1.56058
5.43123 4.16785 -1.56258
5.42577 4.19082 -1.56479
5.42028 4.21386 -1.56702
5.41574 4.23772 -1.56955
5.41216 4.26241 -1.57239
5.40856 4.2872 -1.57525
5.40495 4.31207 -1.57814
5.40132 4.33704 -1.58105
5.39767 4.36209 -1.58399
5.39504 4.38808 -1.58726
5.39268 4.4144 -1.59064
5.3903 4.44083 -1.59405
5.3879 4.46736 -1.59749
5.3855 4.49402 -1.60096
5.38307 4.52078 -1.60445
5.38314 4.54977 -1.60873
5.38387 4.57948 -1.61324
5.38459 4.60936 -1.61779
5.38532 4.63939 -1.62238
5.38604 4.6696 -1.62702
5.38677 4.69998 -1.63169
5.38776 4.73076 -1.63649
5.38995 4.76278 -1.6417
5.39216 4.795 -1.64695
5.39438 4.82743 -1.65226
5.39989 4.86303 -1.65862
5.40571 4.89913 -1.66513
5.41156 4.93551 -1.67171
5.42076 4.97521 -1.67937
5.43511 5.01996 -1.6887
5.45496 5.07016 -1.69981
5.47506 5.12101 -1.71108
5.49542 5.17255 -1.72252
5.70581 3.75644 -1.61905
5.6811 3.76582 -1.61539
5.65762 3.77592 -1.61209
5.63424 3.78597 -1.60881
5.61885 3.80133 -1.60782
5.60494 3.81765 -1.60726
5.59102 3.83396 -1.60672
5.57711 3.85026 -1.60619
5.5632 3.86654 -1.60568
5.5493 3.88281 -1.60518
5.5354 3.89906 -1.6047
5.5215 3.9153 -1.60423
5.50953 3.93291 -1.60434
5.50012 3.95235 -1.60521
5.49069 3.97181 -1.60609
5.48124 3.99129 -1.60699
5.47179 4.01078 -1.60791
5.46231 4.0303 -1.60884
5.45365 4.05045 -1.61003
5.4457 4.07117 -1.61146
5.43773 4.09193 -1.6129
5.42974 4.11272 -1.61435
5.42278 4.13433 -1.61614
5.41732 4.15717 -1.6184
5.41185 4.18007 -1.62069
5.40636 4.20304 -1.62299
5.40107 4.22624 -1.62538
5.39747 4.25085 -1.62831
5.39386 4.27554 -1.63127
5.39023 4.30033 -1.63425
5.3866 4.32522 -1.63727
5.38424 4.35124 -1.6407
5.38187 4.37736 -1.64416
5.37948 4.40359 -1.64766
5.37708 4.42994 -1.65118
5.37466 4.45639 -1.65473
5.37223 4.48295 -1.65831
5.36979 4.50962 -1.66193
5.36854 4.53743 -1.66595
5.36922 4.56702 -1.67061
5.3699 4.59678 -1.67531
5.37058 4.6267 -1.68005
5.37126 4.65679 -1.68483
5.37195 4.68705 -1.68966
5.37263 4.71747 -1.69453
5.37331 4.74807 -1.69945
5.37399 4.77885 -1.70441
5.37609 4.81106 -1.70986
5.37955 4.84471 -1.7158
5.38526 4.8806 -1.72251
5.39102 4.91677 -1.72928
5.39681 4.95323 -1.73613
5.40363 4.99088 -1.74336
5.42136 5.03893 -1.75418
5.44111 5.08926 -1.76574
5.46112 5.14026 -1.77747
5.48138 5.19193 -1.78937
5.69953 3.7523 -1.67729
5.67599 3.76243 -1.67384
5.65254 3.77253 -1.67041
5.62919 3.78258 -1.66702
5.60593 3.79258 -1.66365
5.58603 3.80478 -1.66129
5.57217 3.82104 -1.66073
5.55831 3.83728 -1.66019
5.54446 3.85352 -1.65966
5.53061 3.86973 -1.65915
5.51676 3.88594 -1.65865
5.50442 3.90319 -1.65862
5.49503 3.92255 -1.6595
5.48563 3.94194 -1.6604
5.47622 3.96134 -1.66131
5.46679 3.98076 -1.66224
5.45735 4.0002 -1.66318
5.44789 4.01966 -1.66414
5.43842 4.03914 -1.66512
5.4301 4.05951 -1.66647
5.42214 4.0802 -1.66796
5.41432 4.10104 -1.66951
5.40889 4.12374 -1.67182
5.40343 4.14651 -1.67416
5.39795 4.16934 -1.67651
5.39246 4.19223 -1.67889
5.38694 4.21518 -1.68129
5.38281 4.2393 -1.68415
5.37918 4.26391 -1.6872
5.37586 4.28886 -1.69038
5.37349 4.31469 -1.6939
5.3711 4.34062 -1.69744
5.36871 4.36666 -1.70101
5.3663 4.3928 -1.70462
5.36387 4.41906 -1.70825
5.36143 4.44542 -1.71192
5.35898 4.47189 -1.71561
5.35651 4.49848 -1.71934
5.35403 4.52517 -1.72311
5.35459 4.55458 -1.72788
5.35523 4.58422 -1.73273
5.35587 4.61403 -1.73763
5.35651 4.644 -1.74256
5.35715 4.67413 -1.74754
5.35778 4.70444 -1.75256
5.35842 4.73492 -1.75763
5.35906 4.76557 -1.76275
5.3597 4.7964 -1.76791
5.36085 4.82786 -1.77329
5.36786 4.86483 -1.78066
5.37588 4.90297 -1.78842
5.38398 4.94145 -1.79628
5.39251 4.98061 -1.80434
5.40955 5.02796 -1.81532
5.43319 5.08185 -1.8286
5.45717 5.13655 -1.8421
5.49184 5.20184 -1.85932
5.69437 3.7489 -1.73598
5.67086 3.75904 -1.73241
5.64744 3.76913 -1.72887
5.62412 3.77917 -1.72536
5.6009 3.78918 -1.72188
5.57776 3.79915 -1.71843
5.55472 3.80907 -1.71501
5.53957 3.82434 -1.71404
5.52577 3.84052 -1.7135
5.51197 3.85669 -1.71297
5.49927 3.87361 -1.7128
5.48991 3.89291 -1.71369
5.48055 3.91222 -1.71459
5.47117 3.93154 -1.71552
5.46177 3.95089 -1.71646
5.45236 3.97025 -1.71741
5.44293 3.98963 -1.71839
5.43349 4.00904 -1.71938
5.42404 4.02846 -1.72039
5.41457 4.0479 -1.72141
5.40658 4.06849 -1.72293
5.40046 4.09054 -1.72507
5.39501 4.11317 -1.72745
5.38955 4.13586 -1.72986
5.38407 4.15861 -1.73228
5.37856 4.18143 -1.73473
5.37304 4.20431 -1.73721
5.36816 4.22776 -1.73992
5.36515 4.25279 -1.74327
5.36277 4.27842 -1.74686
5.36038 4.30417 -1.75048
5.35797 4.33001 -1.75413
5.35556 4.35596 -1.75781
5.35312 4.38202 -1.76153
5.35068 4.40819 -1.76527
5.34822 4.43446 -1.76905
5.34662 4.46157 -1.77316
5.34503 4.48883 -1.7773
5.3443 4.51695 -1.78177
5.34465 4.54612 -1.78664
5.34599 4.57631 -1.79189
5.34788 4.60714 -1.79737
5.34978 4.63816 -1.8029
5.35169 4.66937 -1.80848
5.35361 4.70077 -1.81412
5.35554 4.73237 -1.81981
5.35749 4.76417 -1.82555
5.35945 4.79618 -1.83135
5.36142 4.82838 -1.8372
5.369 4.86586 -1.84503
5.37703 4.90402 -1.85308
5.38609 4.94339 -1.86155
5.39634 4.98415 -1.8705
5.41378 5.03189 -1.88201
5.43746 5.08585 -1.89579
5.47591 5.15419 -1.91484
5.6892 3.7455 -1.79482
5.66572 3.75563 -1.79113
5.64234 3.76572 -1.78747
5.61905 3.77576 -1.78384
5.59585 3.78577 -1.78025
5.57275 3.79573 -1.77668
5.54973 3.80565 -1.77315
5.52681 3.81553 -1.76965
5.50712 3.82757 -1.76719
5.49409 3.84418 -1.76688
5.48476 3.8634 -1.76778
5.47543 3.88263 -1.7687
5.46608 3.90189 -1.76963
5.45671 3.92116 -1.77058
5.44733 3.94045 -1.77155
5.43794 3.95975 -1.77253
5.42853 3.97908 -1.77354
5.41911 3.99842 -1.77455
5.41025 4.01821 -1.77578
5.40169 4.03827 -1.77713
5.39417 4.05915 -1.77885
5.38941 4.08217 -1.7815
5.38466 4.10527 -1.78419
5.37989 4.12845 -1.7869
5.3751 4.15169 -1.78963
5.37031 4.17501 -1.7924
5.36549 4.1984 -1.79519
5.36105 4.22216 -1.79814
5.35953 4.24833 -1.80209
5.358 4.27462 -1.80609
5.35646 4.30102 -1.81012
5.35491 4.32754 -1.81419
5.35336 4.35418 -1.81829
5.35181 4.38094 -1.82243
5.35024 4.40783 -1.82661
5.34903 4.43513 -1.83095
5.35062 4.46491 -1.83629
5.35223 4.49488 -1.84168
5.35385 4.52501 -1.84712
5.35373 4.55385 -1.85201
5.35359 4.58282 -1.85694
5.35346 4.61195 -1.86192
5.35333 4.64124 -1.86694
5.3532 4.67069 -1.872
5.35418 4.70127 -1.87751
5.35612 4.73288 -1.88339
5.35807 4.76469 -1.88934
5.36003 4.79669 -1.89534
5.36217 4.82905 -1.90145
5.37014 4.86689 -1.90969
5.37975 4.9065 -1.91859
5.38992 4.94691 -1.92776
5.4002 4.98771 -1.93703
5.41802 5.03583 -1.94909
5.46029 5.10721 -1.97006
5.51096 5.18718 -1.99422
5.69146 3.74699 -1.85623
5.66801 3.75715 -1.85242
5.64465 3.76726 -1.84865
5.62139 3.77733 -1.84491
5.59822 3.78737 -1.84121
5.57515 3.79737 -1.83754
5.55217 3.80733 -1.8339
5.52929 3.81725 -1.8303
5.5065 3.82713 -1.82673
5.49056 3.84171 -1.82544
5.48052 3.8604 -1.82613
5.47141 3.87978 -1.82715
5.46293 3.89964 -1.8284
5.45444 3.91952 -1.82967
5.44594 3.93944 -1.83097
5.43743 3.95938 -1.83228
5.42891 3.97935 -1.83362
5.42037 3.99935 -1.83497
5.41182 4.01938 -1.83635
5.40326 4.03944 -1.83774
5.39638 4.06081 -1.83974
5.39104 4.0834 -1.84228
5.38567 4.10605 -1.84485
5.38054 4.12895 -1.84753
5.37576 4.1522 -1.85036
5.37096 4.17552 -1.85322
5.36615 4.19891 -1.85611
5.36151 4.22253 -1.85908
5.35999 4.2487 -1.86318
5.35846 4.27499 -1.86731
5.35693 4.30139 -1.87148
5.35538 4.32792 -1.87568
5.35383 4.35456 -1.87993
5.35535 4.38384 -1.88529
5.35695 4.41335 -1.89073
5.35856 4.44303 -1.89622
5.36018 4.47289 -1.90176
5.36182 4.50293 -1.90735
5.363 4.53275 -1.91283
5.36288 4.56164 -1.9179
5.36277 4.59068 -1.92301
5.36267 4.61988 -1.92817
5.36256 4.64924 -1.93338
5.36246 4.67877 -1.93863
5.36235 4.70845 -1.94394
5.36225 4.7383 -1.94929
5.36216 4.76832 -1.9547
5.36206 4.79851 -1.96015
5.36346 4.83021 -1.96621
5.37523 4.87151 -1.97613
5.3876 4.91366 -1.98634
5.4001 4.95625 -1.99669
5.41459 5.001 -2.00785
5.46195 5.07666 -2.03132
5.51239 5.15593 -2.0561
5.68745 3.74435 -1.91585
5.66781 3.75701 -1.9132
5.64821 3.76964 -1.91058
5.62867 3.78223 -1.90799
5.60824 3.79414 -1.90509
5.5851 3.80415 -1.90129
5.56207 3.81411 -1.89752
5.53913 3.82404 -1.89378
5.51628 3.83393 -1.89009
5.49847 3.84725 -1.88812
5.48841 3.86597 -1.88883
5.47835 3.8847 -1.88956
5.46828 3.90346 -1.89031
5.4582 3.92223 -1.89108
5.44812 3.94102 -1.89187
5.43902 3.96054 -1.89302
5.43049 3.98051 -1.8944
5.42195 4.00052 -1.8958
5.41341 4.02056 -1.89722
5.40485 4.04063 -1.89867
5.39861 4.06249 -1.90095
5.39326 4.08508 -1.90358
5.3879 4.10774 -1.90624
5.38252 4.13047 -1.90892
5.37713 4.15325 -1.91163
5.37172 4.17611 -1.91437
5.36681 4.19943 -1.91731
5.36198 4.2229 -1.92032
5.36046 4.24907 -1.92455
5.35893 4.27536 -1.92882
5.36007 4.30392 -1.93409
5.36167 4.33299 -1.93957
5.36327 4.36224 -1.9451
5.36489 4.39165 -1.95069
5.36652 4.42124 -1.95633
5.36825 4.45107 -1.96205
5.37046 4.48147 -1.96799
5.37208 4.51155 -1.97378
5.37284 4.54107 -1.97929
5.37406 4.57114 -1.98503
5.37435 4.60059 -1.99047
5.37465 4.6302 -1.99596
5.37495 4.65998 -2.0015
5.37526 4.68994 -2.0071
5.37558 4.72006 -2.01275
5.3759 4.75036 -2.01845
5.37623 4.78084 -2.02421
5.37656 4.81149 -2.03002
5.38556 4.85012 -2.03916
5.39797 4.89211 -2.04967
5.41199 4.9359 -2.06088
5.42814 4.98198 -2.07298
5.4644 5.047 -2.09288
5.51406 5.12509 -2.11806
5.68181 3.74063 -1.97511
5.66219 3.75329 -1.97238
5.64262 3.76591 -1.96968
5.62311 3.77849 -1.96701
5.60365 3.79104 -1.96436
5.58424 3.80356 -1.96174
5.56488 3.81604 -1.95914
5.54557 3.82848 -1.95657
5.52613 3.84078 -1.95396
5.50644 3.85282 -1.95127
5.49637 3.87157 -1.95201
5.48629 3.89034 -1.95277
5.47621 3.90912 -1.95354
5.46613 3.92792 -1.95434
5.45603 3.94674 -1.95516
5.44593 3.96557 -1.956
5.43583 3.98443 -1.95686
5.42572 4.0033 -1.95774
5.4156 4.02219 -1.95864
5.40644 4.04182 -1.95991
5.40085 4.06417 -1.96251
5.3955 4.08678 -1.96522
5.39014 4.10945 -1.96797
5.38533 4.13262 -1.97095
5.38056 4.15591 -1.97397
5.37578 4.17927 -1.97703
5.37099 4.2027 -1.98012
5.36636 4.22634 -1.9833
5.36848 4.25543 -1.98902
5.37061 4.28468 -1.99479
5.37277 4.31411 -2.00062
5.37494 4.34372 -2.0065
5.37712 4.3735 -2.01244
5.37933 4.40347 -2.01844
5.38107 4.43323 -2.02431
5.38061 4.46131 -2.0294
5.38014 4.48955 -2.03454
5.37968 4.51793 -2.03973
5.38101 4.54797 -2.04564
5.3829 4.57866 -2.05182
5.38479 4.60953 -2.05806
5.3867 4.64059 -2.06436
5.38863 4.67184 -2.07071
5.39031 4.70306 -2.07703
5.39067 4.73331 -2.08289
5.39103 4.76373 -2.08881
5.3914 4.79433 -2.09478
5.39599 4.82888 -2.10245
5.40961 4.87177 -2.11372
5.42562 4.91718 -2.126
5.44183 4.96312 -2.13846
5.46706 5.01771 -2.15456
5.51599 5.09465 -2.18015
5.69105 3.74672 -2.03988
5.67167 3.75958 -2.03716
5.65235 3.7724 -2.03447
5.63308 3.78519 -2.0318
5.61387 3.79796 -2.02917
5.59471 3.81069 -2.02657
5.57561 3.82339 -2.02399
5.55656 3.83607 -2.02144
5.53756 3.84872 -2.01893
5.51918 3.86173 -2.01664
5.50921 3.88062 -2.01745
5.49925 3.89952 -2.01828
5.48918 3.91838 -2.01909
5.47909 3.93724 -2.01993
5.469 3.95612 -2.02078
5.4589 3.97502 -2.02166
5.4488 3.99393 -2.02256
5.43869 4.01287 -2.02348
5.42859 4.03183 -2.02442
5.4198 4.05181 -2.02589
5.41435 4.07434 -2.02863
5.40889 4.09692 -2.0314
5.40366 4.11976 -2.03429
5.39891 4.14304 -2.03739
5.39415 4.1664 -2.04053
5.38938 4.18983 -2.0437
5.3846 4.21335 -2.0469
5.38165 4.23839 -2.05083
5.38382 4.26759 -2.05676
5.38601 4.29696 -2.06275
5.38821 4.32651 -2.06879
5.39001 4.3559 -2.07473
5.38957 4.38363 -2.07985
5.38912 4.41149 -2.08502
5.38867 4.43949 -2.09024
5.38823 4.46763 -2.09551
5.38778 4.49592 -2.10082
5.38735 4.52437 -2.10619
5.38925 4.55493 -2.11252
5.39116 4.58568 -2.11891
5.39308 4.61662 -2.12536
5.39502 4.64775 -2.13187
5.39698 4.67908 -2.13845
5.39895 4.7106 -2.14508
5.40093 4.74232 -2.15179
5.69802 3.75131 -2.10431
5.68138 3.76601 -2.10252
5.66476 3.78068 -2.10076
5.64817 3.79533 -2.09903
5.62996 3.80884 -2.0967
5.61072 3.8216 -2.094
5.59155 3.83432 -2.09133
5.57242 3.84702 -2.08869
5.55335 3.85969 -2.08608
5.53433 3.87234 -2.0835
5.52317 3.89045 -2.08389
5.51318 3.90941 -2.08475
5.50319 3.92838 -2.08563
5.4932 3.94737 -2.08654
5.4832 3.96639 -2.08747
5.47311 3.98536 -2.08838
5.46299 4.00433 -2.08932
5.45286 4.02333 -2.09027
5.44273 4.04234 -2.09125
5.43581 4.06378 -2.09349
5.43037 4.08639 -2.09633
5.42491 4.10906 -2.0992
5.41944 4.13179 -2.1021
5.41397 4.1546 -2.10503
5.40848 4.17747 -2.108
5.40311 4.20051 -2.11104
5.39834 4.2241 -2.11435
5.39711 4.25056 -2.11909
5.39891 4.27955 -2.12507
5.39848 4.30691 -2.13022
5.39805 4.33441 -2.13542
5.39762 4.36205 -2.14067
5.39719 4.38983 -2.14596
5.39676 4.41774 -2.1513
5.39634 4.4458 -2.15669
5.70353 3.75493 -2.16866
5.68686 3.76964 -2.16681
5.67022 3.78432 -2.165
5.65361 3.79898 -2.1632
5.63703 3.81362 -2.16144
5.62047 3.82824 -2.15969
5.60395 3.84283 -2.15798
5.58746 3.8574 -2.15628
5.56931 3.87079 -2.15397
5.55022 3.88345 -2.15129
5.53727 3.90038 -2.15102
5.52727 3.91939 -2.15191
5.51726 3.93842 -2.15282
5.50724 3.95746 -2.15376
5.49722 3.97653 -2.15472
5.4872 3.99562 -2.1557
5.47718 4.01473 -2.15671
5.46714 4.03386 -2.15775
5.45743 4.05326 -2.15893
5.452 4.07588 -2.16184
5.44656 4.09857 -2.16478
9.70051 3.96352 -1.57945
9.41097 3.8799 -1.5343
9.30534 3.87073 -1.51906
9.22753 3.87255 -1.50834
9.17101 3.88289 -1.5011
9.63202 3.75941 -1.64645
9.50647 3.74499 -1.627
9.38269 3.73046 -1.60782
9.27588 3.72191 -1.59152
9.19981 3.72512 -1.58048
9.12549 3.72857 -1.56973
9.05213 3.73196 -1.55912
8.93602 3.7171 -1.54114
8.8606 3.71856 -1.53014
8.79554 3.72392 -1.52093
9.64843 3.69585 -1.73341
9.49953 3.67321 -1.70873
9.38675 3.66368 -1.69051
9.28134 3.65631 -1.6736
9.19199 3.65464 -1.65956
9.10898 3.65495 -1.64664
9.03865 3.65987 -1.63601
8.95388 3.65845 -1.62274
8.86739 3.65579 -1.60915
8.78396 3.65385 -1.59609
8.70808 3.65455 -1.58439
8.64244 3.6591 -1.57454
9.7142 3.68595 -1.83203
9.50143 3.63954 -1.79406
9.39212 3.63168 -1.77558
9.38208 3.66185 -1.77585
9.22037 3.63229 -1.7474
9.14864 3.63741 -1.73598
9.07785 3.64246 -1.72471
9.00292 3.6454 -1.71265
8.91566 3.64284 -1.69823
8.84192 3.64529 -1.68637
8.77035 3.64819 -1.6749
8.69231 3.64793 -1.66219
8.61549 3.64769 -1.64969
9.78041 3.67583 -1.932
9.60247 3.64356 -1.89911
9.45141 3.62038 -1.87148
9.36334 3.62055 -1.85629
9.27668 3.62072 -1.84137
9.19141 3.62088 -1.8267
9.1153 3.62415 -1.81384
9.11303 3.65657 -1.81567
8.97285 3.63323 -1.79002
8.90045 3.63663 -1.77785
8.82903 3.63998 -1.76587
8.75638 3.64238 -1.75363
8.67857 3.64216 -1.74034
8.60194 3.64195 -1.72726
9.6858 3.64027 -2.00238
9.53859 3.61932 -1.9743
9.4491 3.6195 -1.95813
9.36107 3.61967 -1.94225
9.27446 3.61985 -1.92663
9.18921 3.62002 -1.91129
9.10532 3.62018 -1.89621
9.02275 3.62035 -1.88138
8.96464 3.6299 -1.87164
8.88939 3.63211 -1.85831
8.81614 3.63466 -1.84538
8.74242 3.63657 -1.83234
8.66484 3.6364 -1.81848
8.58842 3.63623 -1.80484
9.6571 3.62949 -2.08555
9.53623 3.61843 -2.0619
9.44679 3.61861 -2.04502
9.3588 3.61879 -2.02843
9.27222 3.61897 -2.01213
9.18702 3.61915 -1.99611
9.10316 3.61932 -1.98036
9.02063 3.6195 -1.96488
8.96416 3.6297 -1.95506
8.88423 3.63 -1.94012
8.81264 3.63322 -1.92698
8.73975 3.63546 -1.91353
8.65834 3.63367 -1.89821
8.57823 3.63191 -1.88315
9.66315 3.63176 -2.17631
9.53387 3.61753 -2.14975
9.44447 3.61772 -2.13216
9.35652 3.61791 -2.11487
9.26998 3.6181 -2.09787
9.18481 3.61828 -2.08117
9.101 3.61846 -2.06476
9.0185 3.61864 -2.04862
8.93727 3.61882 -2.03275
8.88232 3.62922 -2.02284
8.81594 3.63458 -2.01033
8.74505 3.63767 -1.99677
8.66355 3.63586 -1.98077
8.58336 3.63408 -1.96504
9.66922 3.63404 -2.2675
9.5315 3.61663 -2.23787
9.44214 3.61683 -2.21956
9.35423 3.61703 -2.20156
9.26773 3.61722 -2.18388
9.18261 3.61741 -2.1665
9.09883 3.6176 -2.14941
9.01636 3.61778 -2.13262
8.93517 3.61797 -2.1161
8.88048 3.62846 -2.10585
8.81502 3.6342 -2.09303
8.74479 3.63756 -2.07907
8.66549 3.63667 -2.06293
8.58612 3.63525 -2.04676
9.52913 3.61573 -2.32627
9.43981 3.61594 -2.30723
9.35194 3.61614 -2.28853
9.26548 3.61634 -2.27015
9.18039 3.61654 -2.25209
9.09665 3.61673 -2.23434
9.01422 3.61693 -2.21688
8.93306 3.61711 -2.19971
8.92124 3.64512 -2.19963
8.81234 3.6331 -2.17559
8.734 3.63307 -2.15906
8.65487 3.63222 -2.14233
8.57697 3.63138 -2.12587
9.43746 3.61504 -2.3952
9.34964 3.61525 -2.37579
9.26321 3.61546 -2.35672
9.17817 3.61566 -2.33797
9.09446 3.61586 -2.31954
9.01207 3.61606 -2.30142
8.94652 3.62256 -2.28759
8.94859 3.65629 -2.29106
8.80154 3.62865 -2.25633
8.72319 3.62857 -2.23916
8.64425 3.62776 -2.22183
8.56741 3.62733 -2.20501
9.34733 3.61436 -2.46335
9.26094 3.61457 -2.44358
9.17594 3.61478 -2.42414
9.09227 3.61499 -2.40504
9.01286 3.61638 -2.38704
9.01941 3.65208 -2.39182
9.02605 3.68794 -2.39665
9.03277 3.72397 -2.40154
9.03957 3.76018 -2.40649
9.04646 3.79656 -2.4115
9.05344 3.83311 -2.41657
7.98018 4.07765 -1.04746
7.92694 4.08188 -1.04215
7.87412 4.08601 -1.03689
7.82174 4.09004 -1.03168
7.76978 4.09399 -1.02651
7.71823 4.09784 -1.0214
7.66709 4.1016 -1.01633
7.61663 4.10541 -1.01134
7.56993 4.11096 -1.00685
7.52356 4.11641 -1.0024
7.49817 4.13317 -1.00074
7.47676 4.15202 -0.999616
7.45534 4.17081 -0.998499
7.43393 4.18953 -0.997388
7.41253 4.20818 -0.996284
7.39113 4.22677 -0.995186
7.36973 4.24529 -0.994095
7.34833 4.26375 -0.993009
7.32694 4.28214 -0.99193
7.30555 4.30046 -0.990857
7.28416 4.31872 -0.98979
7.26452 4.33796 -0.988967
7.25067 4.36063 -0.988941
7.23678 4.38327 -0.988918
7.22283 4.40588 -0.988897
7.20883 4.42845 -0.988879
7.19477 4.45099 -0.988863
7.18032 4.47328 -0.988802
7.16528 4.4952 -0.98867
7.1502 4.51708 -0.98854
7.13507 4.53893 -0.988414
8.09989 3.91679 -1.12749
8.0274 3.91288 -1.11911
7.96471 3.91331 -1.11208
7.90787 3.91626 -1.10585
7.85188 3.91927 -1.09974
7.79648 3.92224 -1.0937
7.74168 3.92518 -1.08773
7.68747 3.92808 -1.08184
7.63383 3.93094 -1.07602
7.58075 3.93377 -1.07028
7.52853 3.93672 -1.06465
7.47812 3.94031 -1.05926
7.42837 3.94394 -1.05396
7.37993 3.94797 -1.04884
7.34452 3.95874 -1.04557
7.30931 3.96943 -1.04233
7.2743 3.98003 -1.03911
7.23946 3.99056 -1.03592
7.20483 4.00101 -1.03276
7.17149 4.01201 -1.02978
7.13831 4.02292 -1.02682
7.1053 4.03376 -1.02389
7.07244 4.04452 -1.02098
7.04983 4.06102 -1.01955
7.03019 4.07915 -1.01856
7.01055 4.09723 -1.01757
6.9909 4.11524 -1.01659
6.97124 4.1332 -1.01561
6.95157 4.15109 -1.01464
6.9319 4.16892 -1.01368
6.91222 4.18669 -1.01272
6.89428 4.20546 -1.01202
6.88293 4.22825 -1.01229
6.87156 4.25103 -1.01258
6.86015 4.27382 -1.01287
6.84871 4.29659 -1.01317
6.83724 4.31937 -1.01347
6.82926 4.34439 -1.01431
8.39761 3.89932 -1.23852
8.28957 3.88083 -1.22437
8.21496 3.8774 -1.21514
8.14146 3.87401 -1.20606
8.06903 3.87065 -1.19713
8.00496 3.87088 -1.18942
7.94645 3.87342 -1.18253
7.88908 3.87615 -1.17579
7.83341 3.87938 -1.16931
7.77835 3.88257 -1.1629
7.72387 3.88572 -1.15658
7.66997 3.88882 -1.15033
7.61664 3.89189 -1.14416
7.5639 3.89494 -1.13807
7.51226 3.89823 -1.13213
7.46116 3.9015 -1.12627
7.41088 3.90488 -1.12052
7.3619 3.90865 -1.11497
7.3134 3.91238 -1.10948
7.26536 3.91607 -1.10405
7.21778 3.91972 -1.09869
7.17065 3.92333 -1.09338
7.12396 3.92689 -1.08814
7.07771 3.93042 -1.08295
7.03188 3.93391 -1.07782
6.98648 3.93736 -1.07275
6.9415 3.94077 -1.06774
6.89692 3.94415 -1.06278
6.8616 3.95258 -1.05925
6.84083 3.96928 -1.05796
6.82009 3.98592 -1.05668
6.79939 4.00251 -1.05542
6.77893 4.01918 -1.0542
6.76111 4.03735 -1.05339
6.74895 4.05889 -1.05347
6.73783 4.08106 -1.05374
6.72669 4.10324 -1.054
6.71552 4.12541 -1.05428
6.70432 4.14758 -1.05456
6.69315 4.16978 -1.05485
6.68194 4.19197 -1.05516
6.6707 4.21416 -1.05546
6.65943 4.23635 -1.05578
8.61511 3.86956 -1.34331
8.4769 3.83951 -1.32364
8.4086 3.84043 -1.31485
8.3324 3.83729 -1.30481
8.25734 3.83419 -1.29493
8.1834 3.83113 -1.28522
8.11053 3.82811 -1.27565
8.04515 3.82818 -1.26726
7.98632 3.83098 -1.25988
7.92816 3.83375 -1.2526
7.87065 3.83647 -1.24541
7.81492 3.83972 -1.23849
7.76018 3.84312 -1.23172
7.70603 3.84647 -1.22503
7.65244 3.84978 -1.21843
7.59942 3.85305 -1.21191
7.54731 3.85646 -1.20553
7.49597 3.85996 -1.19925
7.44515 3.86341 -1.19306
7.39484 3.86682 -1.18694
7.34503 3.87018 -1.18089
7.29647 3.87391 -1.17503
7.24872 3.87778 -1.16929
7.20141 3.8816 -1.16362
7.15456 3.88538 -1.15802
7.10814 3.88912 -1.15247
7.06215 3.89282 -1.14699
7.0166 3.89648 -1.14158
6.97145 3.9001 -1.13622
6.92672 3.90368 -1.13092
6.88239 3.90722 -1.12568
6.84115 3.91225 -1.12094
6.80321 3.91895 -1.11673
6.76555 3.9256 -1.11257
6.72815 3.93219 -1.10844
6.69103 3.93872 -1.10436
6.65417 3.94521 -1.10031
6.63032 3.95926 -1.09842
6.61024 3.97547 -1.09715
6.59253 3.99306 -1.09629
6.57518 4.01081 -1.09549
6.55783 4.02853 -1.0947
6.54532 4.04921 -1.09473
6.5343 4.07082 -1.09502
6.52326 4.09242 -1.09532
6.51219 4.11402 -1.09562
6.50108 4.13562 -1.09593
9.49583 3.91174 -1.54795
9.36589 3.89265 -1.52875
9.27556 3.8893 -1.516
9.19639 3.8901 -1.50504
9.12934 3.89557 -1.49607
9.00098 3.87425 -1.47702
8.83156 3.83424 -1.45118
8.66506 3.79433 -1.42578
8.56457 3.78241 -1.41119
8.50053 3.78606 -1.40259
8.43725 3.78967 -1.3941
8.3747 3.79322 -1.38573
8.29959 3.79064 -1.37526
8.2252 3.78792 -1.3649
8.1519 3.78523 -1.3547
8.08527 3.78519 -1.3456
8.02611 3.78826 -1.33772
7.96763 3.79129 -1.32995
7.90981 3.79428 -1.32228
7.85264 3.79723 -1.31471
7.79638 3.80027 -1.30728
7.74197 3.80388 -1.30016
7.68813 3.80744 -1.29312
7.63487 3.81095 -1.28617
7.58224 3.81447 -1.27931
7.53067 3.81819 -1.27263
7.47962 3.82188 -1.26602
7.42909 3.82552 -1.25949
7.37906 3.82911 -1.25304
7.32954 3.83267 -1.24667
7.28049 3.83618 -1.24037
7.23204 3.83971 -1.23416
7.18502 3.8437 -1.22819
7.13844 3.84766 -1.22229
7.09229 3.85157 -1.21645
7.04657 3.85544 -1.21068
7.00127 3.85926 -1.20497
6.95639 3.86304 -1.19933
6.91191 3.86679 -1.19375
6.86783 3.87049 -1.18823
6.8273 3.87594 -1.18332
6.78956 3.88275 -1.17888
6.7521 3.88951 -1.17449
6.71491 3.89622 -1.17015
6.67798 3.90287 -1.16584
6.64132 3.90946 -1.16158
6.60491 3.916 -1.15735
6.56876 3.9225 -1.15317
6.53286 3.92893 -1.14903
6.49721 3.93532 -1.14493
6.46049 3.94085 -1.14063
6.43568 3.9535 -1.13844
6.41968 3.97148 -1.1378
6.40367 3.98943 -1.13718
6.38783 4.00746 -1.1366
6.37337 4.02633 -1.13627
6.36402 4.04843 -1.13686
9.56835 3.76705 -1.63746
9.43569 3.74907 -1.61676
9.30624 3.7315 -1.59658
9.22713 3.73346 -1.58501
9.15096 3.73611 -1.57393
9.07578 3.7387 -1.56301
8.96893 3.72767 -1.54662
8.89295 3.72887 -1.53553
8.8274 3.73402 -1.52623
8.73425 3.72698 -1.51214
8.65289 3.72442 -1.50007
8.58797 3.72848 -1.49084
8.52383 3.73248 -1.48173
8.46044 3.73642 -1.47274
8.3978 3.74031 -1.46388
8.33589 3.74414 -1.45513
8.26685 3.74436 -1.44512
8.19311 3.74201 -1.43428
8.12529 3.74191 -1.42445
8.06581 3.74525 -1.41608
8.00701 3.74855 -1.40782
7.94888 3.75181 -1.39966
7.8914 3.75502 -1.39161
7.83457 3.75819 -1.38366
7.77836 3.76131 -1.37581
7.72371 3.76485 -1.36823
7.6702 3.76861 -1.36084
7.61724 3.77233 -1.35354
7.56526 3.7762 -1.3464
7.51398 3.78012 -1.33938
7.46322 3.784 -1.33244
7.41298 3.78782 -1.32559
7.36323 3.7916 -1.31881
7.31398 3.79534 -1.31212
7.26522 3.79903 -1.30551
7.21693 3.80268 -1.29897
7.1691 3.80629 -1.2925
7.12227 3.81014 -1.28621
7.0764 3.81422 -1.28008
7.03094 3.81825 -1.27402
6.9859 3.82224 -1.26803
6.94127 3.82619 -1.2621
6.89706 3.8301 -1.25624
6.85323 3.83396 -1.25045
6.81341 3.83982 -1.24538
6.77589 3.84675 -1.24072
6.73863 3.85362 -1.23611
6.70164 3.86044 -1.23154
6.6649 3.8672 -1.22701
6.62843 3.87391 -1.22253
6.59222 3.88056 -1.21809
6.55626 3.88716 -1.2137
6.51528 3.89056 -1.20837
6.47409 3.89359 -1.20299
6.43697 3.89884 -1.19836
6.40546 3.90729 -1.19477
6.37412 3.91568 -1.19121
6.34296 3.92402 -1.18768
6.31197 3.9323 -1.18419
6.28431 3.94251 -1.18132
6.26957 3.96075 -1.18088
6.25536 3.9793 -1.18055
9.55933 3.69434 -1.71937
9.446 3.68466 -1.70105
9.33685 3.6759 -1.68347
9.24115 3.67178 -1.66828
9.15332 3.67019 -1.6545
9.08328 3.67525 -1.64392
9.00959 3.67839 -1.63266
8.92332 3.6759 -1.61911
8.83847 3.67345 -1.6058
8.7622 3.67405 -1.59403
8.68554 3.67401 -1.58218
8.61101 3.6744 -1.57069
8.54676 3.67874 -1.56107
8.48328 3.68303 -1.55158
8.42055 3.68725 -1.54222
8.35854 3.69142 -1.53298
8.29726 3.69553 -1.52386
8.23415 3.69844 -1.51439
8.16521 3.69833 -1.50384
8.1054 3.70195 -1.49496
8.04629 3.70552 -1.48619
7.98784 3.70905 -1.47754
7.93006 3.71253 -1.469
7.87292 3.71596 -1.46057
7.81642 3.71934 -1.45225
7.76055 3.72268 -1.44403
7.70539 3.72603 -1.43594
7.65219 3.72999 -1.4282
7.59971 3.73398 -1.42059
7.5482 3.73813 -1.41314
7.49722 3.74224 -1.40579
7.44676 3.7463 -1.39853
7.3968 3.75032 -1.39135
7.34733 3.75428 -1.38426
7.29836 3.7582 -1.37725
7.24987 3.76207 -1.37032
7.20185 3.7659 -1.36347
7.15429 3.76968 -1.3567
7.10719 3.77342 -1.35001
7.06055 3.77712 -1.34339
7.01526 3.78127 -1.33703
6.97049 3.78542 -1.33075
6.92612 3.78953 -1.32455
6.88215 3.7936 -1.31841
6.83857 3.79762 -1.31234
6.79949 3.8039 -1.30713
6.76216 3.81094 -1.30224
6.72511 3.81792 -1.29741
6.68831 3.82485 -1.29262
6.65178 3.83172 -1.28788
6.61551 3.83854 -1.28318
6.57403 3.84211 -1.27747
6.53138 3.84475 -1.27152
6.49013 3.84795 -1.26584
6.45039 3.85181 -1.26044
6.41356 3.85719 -1.2556
6.3823 3.86572 -1.25185
6.35121 3.8742 -1.24814
6.3203 3.88262 -1.24445
6.28956 3.89098 -1.2408
6.25769 3.89849 -1.23692
6.22414 3.90477 -1.2327
6.20083 3.91733 -1.23052
6.17759 3.92983 -1.22835
9.61956 3.68295 -1.81625
9.442 3.64899 -1.78488
9.41531 3.67269 -1.78201
9.42088 3.70899 -1.78526
9.18838 3.65081 -1.74336
9.11794 3.65601 -1.73216
9.04839 3.66114 -1.72113
8.9663 3.66072 -1.70769
8.88765 3.6612 -1.69489
8.8174 3.66469 -1.68368
8.744 3.66642 -1.67185
8.66755 3.6664 -1.65943
8.59228 3.66641 -1.64722
8.51814 3.66642 -1.6352
8.44507 3.66644 -1.62338
8.37305 3.66646 -1.61174
8.30205 3.66647 -1.60028
8.23204 3.66648 -1.58899
8.16301 3.66649 -1.57788
8.09641 3.66717 -1.56723
8.0307 3.66783 -1.55673
7.96858 3.66974 -1.54691
7.91115 3.67344 -1.538
7.85435 3.67709 -1.52919
7.79819 3.68069 -1.5205
7.74265 3.68424 -1.51192
7.68771 3.68774 -1.50344
7.63412 3.69156 -1.49522
7.58227 3.69591 -1.48733
7.53108 3.70026 -1.47956
7.48039 3.70455 -1.47188
7.43022 3.7088 -1.46429
7.38054 3.71299 -1.45679
7.33136 3.71714 -1.44938
7.28267 3.72124 -1.44206
7.23445 3.72529 -1.43482
7.18669 3.72929 -1.42766
7.1394 3.73325 -1.42059
7.09256 3.73716 -1.4136
7.04617 3.74102 -1.40668
7.00022 3.74484 -1.39985
6.95502 3.74879 -1.39316
6.9109 3.75306 -1.38667
6.86719 3.75729 -1.38026
6.82386 3.76147 -1.37392
6.78552 3.76816 -1.36858
6.7484 3.77531 -1.36347
6.71154 3.78241 -1.35842
6.67495 3.78945 -1.35341
6.63287 3.79314 -1.34729
6.58984 3.79604 -1.34096
6.5472 3.7989 -1.33471
6.50589 3.80229 -1.32871
6.46616 3.80635 -1.32303
6.42676 3.81038 -1.31741
6.39025 3.8159 -1.31238
6.35924 3.82451 -1.30847
6.3284 3.83307 -1.30459
6.29773 3.84157 -1.30075
6.26486 3.84856 -1.29645
6.23069 3.85457 -1.29188
6.19675 3.86053 -1.28735
6.17089 3.87136 -1.28449
6.14787 3.88387 -1.28223
6.12492 3.89633 -1.27999
9.68515 3.67323 -1.91535
9.49325 3.63458 -1.87965
9.40604 3.6351 -1.86463
9.32023 3.6356 -1.84987
9.23575 3.6361 -1.83536
9.1526 3.63659 -1.8211
9.10601 3.65122 -1.8141
9.01341 3.64698 -1.79792
8.94153 3.65061 -1.78586
8.8706 3.65418 -1.77398
8.80059 3.6577 -1.76226
8.72582 3.65879 -1.74958
8.64967 3.65884 -1.73661
8.57464 3.65888 -1.72384
8.50071 3.65892 -1.71128
8.42791 3.65899 -1.69893
8.35616 3.65906 -1.68677
8.28542 3.65913 -1.67481
8.21567 3.65919 -1.66302
8.14659 3.65911 -1.65135
8.07844 3.65903 -1.63986
8.01268 3.6596 -1.62884
7.9481 3.66031 -1.61804
7.88437 3.66101 -1.60739
7.82148 3.66169 -1.59691
7.75938 3.66237 -1.58657
7.69808 3.66303 -1.57638
7.63757 3.66369 -1.56634
7.5807 3.66573 -1.55702
7.5247 3.66784 -1.54788
7.46935 3.66993 -1.53886
7.41464 3.67199 -1.52995
7.36421 3.67585 -1.52192
7.31531 3.68018 -1.5142
7.26689 3.68445 -1.50656
7.21894 3.68868 -1.49901
7.17146 3.69285 -1.49155
7.12443 3.69698 -1.48418
7.07785 3.70106 -1.47689
7.03172 3.7051 -1.46968
6.98602 3.70908 -1.46256
6.94075 3.71303 -1.45551
6.89589 3.71693 -1.44855
6.85215 3.72116 -1.44181
6.80908 3.7255 -1.4352
6.77149 3.7326 -1.42974
6.73458 3.73987 -1.42441
6.69178 3.74364 -1.41784
6.64836 3.74681 -1.41113
6.60535 3.74993 -1.40449
6.56272 3.75303 -1.39792
6.52138 3.7566 -1.39162
6.48166 3.76088 -1.38566
6.44227 3.7651 -1.37976
6.40319 3.76929 -1.37392
6.36702 3.77496 -1.36869
6.33626 3.78366 -1.36463
6.30567 3.7923 -1.3606
6.27176 3.79876 -1.35585
6.23768 3.80495 -1.35106
6.20384 3.81108 -1.34631
6.17022 3.81716 -1.34161
6.14119 3.82591 -1.3379
6.11839 3.83842 -1.33555
6.09566 3.85088 -1.33322
6.07299 3.86329 -1.33091
9.85891 3.70377 -2.03806
9.57423 3.63116 -1.98156
9.48574 3.63171 -1.9656
9.39866 3.63225 -1.94991
9.31297 3.63277 -1.93449
9.22862 3.63329 -1.91933
9.14558 3.6338 -1.90442
9.06381 3.6343 -1.88976
9.01027 3.64571 -1.88097
8.92879 3.64541 -1.86634
8.85525 3.64786 -1.85336
8.7838 3.65072 -1.84079
8.70767 3.65118 -1.82723
8.63181 3.65128 -1.81371
8.55706 3.65138 -1.8004
8.48339 3.65147 -1.7873
8.41079 3.65156 -1.77441
8.33929 3.65167 -1.76174
8.26881 3.65179 -1.74926
8.19924 3.65188 -1.73697
8.13039 3.65184 -1.7248
8.06249 3.6518 -1.71282
7.99552 3.65176 -1.70102
7.93038 3.65215 -1.68959
7.8669 3.65289 -1.6785
7.80426 3.65363 -1.66757
7.74241 3.65436 -1.6568
7.68136 3.65507 -1.64619
7.62203 3.65623 -1.63592
7.56557 3.65841 -1.62626
7.50977 3.66056 -1.61673
7.45462 3.66269 -1.60733
7.4001 3.66479 -1.59804
7.34621 3.66687 -1.58888
7.29293 3.66892 -1.57984
7.24024 3.67094 -1.57092
7.18815 3.67294 -1.56211
7.13663 3.67492 -1.55341
7.08567 3.67687 -1.54483
7.03528 3.6788 -1.53635
6.98543 3.68071 -1.52798
6.93612 3.68259 -1.51972
6.88734 3.68446 -1.51156
6.83907 3.6863 -1.50349
6.79438 3.68979 -1.49621
6.75075 3.69358 -1.48915
6.70695 3.69703 -1.48204
6.66355 3.70043 -1.47501
6.62054 3.70379 -1.46805
6.57792 3.70711 -1.46118
6.53657 3.71089 -1.45457
6.49686 3.71537 -1.44833
6.45749 3.7198 -1.44214
6.41843 3.72418 -1.43602
6.37968 3.72853 -1.42997
6.34387 3.73436 -1.42456
6.31258 3.74268 -1.42017
6.27837 3.74909 -1.41511
6.2444 3.75545 -1.41011
6.21064 3.76175 -1.40514
6.17712 3.768 -1.40023
6.14381 3.7742 -1.39536
6.11171 3.78096 -1.39076
6.08913 3.79348 -1.38832
6.06661 3.80594 -1.3859
6.04416 3.81835 -1.38351
6.02178 3.83071 -1.38113
9.80851 3.68484 -2.11814
9.56657 3.62826 -2.06834
9.47821 3.62883 -2.05169
9.39127 3.62939 -2.03533
9.30571 3.62994 -2.01924
9.22147 3.63048 -2.00343
9.13855 3.63101 -1.98788
9.0569 3.63153 -1.97259
8.9765 3.63205 -1.95755
8.95888 3.65769 -1.95621
8.84678 3.64437 -1.93422
8.78008 3.64918 -1.92213
8.70167 3.64867 -1.90746
8.62238 3.64729 -1.89258
8.54433 3.64594 -1.87795
8.46747 3.64462 -1.86357
8.39378 3.64417 -1.84986
8.32248 3.64431 -1.83665
8.25221 3.64446 -1.82366
8.18281 3.64455 -1.81085
8.11421 3.64457 -1.79819
8.04655 3.64458 -1.78572
7.97982 3.64459 -1.77344
7.914 3.6446 -1.76135
7.84945 3.64479 -1.74952
7.78706 3.64558 -1.73816
7.72546 3.64636 -1.72696
7.66465 3.64712 -1.71591
7.6067 3.64888 -1.7055
7.55045 3.6511 -1.69545
7.49485 3.65329 -1.68553
7.4399 3.65546 -1.67574
7.38557 3.6576 -1.66608
7.33187 3.65971 -1.65655
7.27877 3.66179 -1.64714
7.22626 3.66385 -1.63786
7.17435 3.66589 -1.62869
7.123 3.6679 -1.61964
7.07222 3.66989 -1.61071
7.02145 3.67157 -1.60176
6.97041 3.67279 -1.59274
6.91994 3.674 -1.58384
6.87003 3.6752 -1.57505
6.82066 3.67637 -1.56637
6.76981 3.67644 -1.55733
6.71906 3.67624 -1.5483
6.6739 3.67881 -1.54055
6.6292 3.68135 -1.53289
6.58492 3.68386 -1.52532
6.53999 3.68573 -1.51759
6.49482 3.68719 -1.50978
6.45078 3.68901 -1.50223
6.40717 3.69081 -1.49477
6.36399 3.6926 -1.48739
6.32214 3.6949 -1.48031
6.2847 3.69953 -1.47426
6.25082 3.70607 -1.46903
6.21717 3.71254 -1.46386
6.18374 3.71896 -1.45873
6.15052 3.72533 -1.45364
6.11753 3.73165 -1.44861
6.08475 3.73792 -1.44362
6.06009 3.74902 -1.44055
6.03778 3.76149 -1.43805
6.01554 3.7739 -1.43557
5.9911 3.78483 -1.43256
5.96675 3.7957 -1.42958
9.73669 3.65786 -2.19277
9.5589 3.62535 -2.15527
9.47068 3.62594 -2.13794
9.38386 3.62653 -2.1209
9.29842 3.6271 -2.10415
9.21431 3.62766 -2.08768
9.13152 3.62821 -2.0715
9.04998 3.62876 -2.05557
8.96969 3.62929 -2.03991
8.92756 3.6449 -2.03292
8.845 3.64364 -2.01672
8.77927 3.64884 -2.00433
8.70214 3.64887 -1.98933
8.62285 3.64749 -1.97381
8.5448 3.64614 -1.95856
8.46793 3.64481 -1.94355
8.39178 3.64331 -1.92869
8.31678 3.64181 -1.91407
8.24289 3.64034 -1.89969
8.1706 3.63912 -1.88565
8.09967 3.63804 -1.87191
8.03063 3.63737 -1.85858
7.96414 3.63743 -1.84583
7.89855 3.63749 -1.83326
7.83385 3.63755 -1.82089
7.77001 3.6376 -1.80869
7.70853 3.63836 -1.79703
7.64811 3.63925 -1.7856
7.59139 3.64154 -1.77502
7.53534 3.6438 -1.76458
7.47994 3.64603 -1.75428
7.42518 3.64823 -1.74412
7.37105 3.6504 -1.73408
7.31742 3.6525 -1.72416
7.26305 3.65389 -1.71404
7.20932 3.65526 -1.70406
7.1562 3.65662 -1.69421
7.10368 3.65795 -1.68449
7.05176 3.65927 -1.67489
7.00043 3.66057 -1.66542
6.94966 3.66186 -1.65607
6.89945 3.66313 -1.64684
6.8498 3.66438 -1.63772
6.80069 3.66561 -1.62872
6.74879 3.66503 -1.61904
6.69245 3.66168 -1.60828
6.64706 3.66402 -1.60013
6.60267 3.66662 -1.5922
6.55858 3.66912 -1.58434
6.5123 3.67013 -1.57594
6.46674 3.67125 -1.56769
6.42303 3.67314 -1.55988
6.37975 3.67502 -1.55217
6.33701 3.67694 -1.54457
6.29745 3.68047 -1.53774
6.25825 3.68396 -1.53098
