ply
format ascii 1.0
comment Created by Open3D
element vertex 1799
property double x
property double y
property double z
end_header
6.65094 -0.540518 -1.99773
6.63749 -0.518437 -1.99319
6.62411 -0.496457 -1.98869
6.61264 -0.474707 -1.98479
6.60699 -0.45344 -1.98265
6.60149 -0.432228 -1.98059
6.59602 -0.41106 -1.97855
6.59055 -0.389934 -1.97653
6.58511 -0.368852 -1.97454
6.57968 -0.347814 -1.97258
6.5744 -0.326823 -1.97068
6.56926 -0.305878 -1.96884
6.56794 -0.285138 -1.96817
6.56852 -0.264489 -1.96808
6.5691 -0.243841 -1.96801
6.56968 -0.223193 -1.96797
6.57027 -0.202547 -1.96794
6.57086 -0.181902 -1.96794
6.57149 -0.161258 -1.96797
6.57213 -0.140611 -1.96802
6.57277 -0.119965 -1.96809
6.57341 -0.0993177 -1.96818
6.57406 -0.0786662 -1.96829
6.57472 -0.0580141 -1.96842
6.57538 -0.0373589 -1.96857
6.57604 -0.0167005 -1.96874
6.5762 0.00396155 -1.96878
6.57584 0.0246248 -1.96869
6.57518 0.0452816 -1.96853
6.57453 0.0659353 -1.96838
6.57388 0.0865898 -1.96826
6.57324 0.107238 -1.96816
6.5726 0.127886 -1.96808
6.57197 0.148532 -1.96802
6.57134 0.169178 -1.96798
6.57073 0.189823 -1.96797
6.57015 0.210469 -1.96798
6.56957 0.231115 -1.96802
6.56899 0.251765 -1.96807
6.56842 0.272413 -1.96815
6.56785 0.293064 -1.96824
6.57093 0.313892 -1.96945
7.278 -0.891891 -2.26176
7.08825 -0.84604 -2.20196
6.96866 -0.809567 -2.164
6.92047 -0.781938 -2.14826
6.89076 -0.756661 -2.13829
6.86133 -0.731617 -2.12844
6.83182 -0.706768 -2.11858
6.78848 -0.680734 -2.10447
6.74573 -0.655045 -2.09057
6.72635 -0.631834 -2.08394
6.71278 -0.609289 -2.07913
6.69929 -0.586848 -2.07437
6.68575 -0.564497 -2.06962
6.67214 -0.542241 -2.06487
6.6586 -0.520086 -2.06016
6.64513 -0.498032 -2.0555
6.63213 -0.476107 -2.05101
6.62551 -0.454711 -2.04851
6.61891 -0.433368 -2.04603
6.61233 -0.412076 -2.04359
6.6066 -0.390883 -2.04143
6.60113 -0.369749 -2.03937
6.59567 -0.348659 -2.03733
6.59023 -0.32761 -2.03533
6.5848 -0.306601 -2.03334
6.58202 -0.285749 -2.0322
6.58263 -0.265057 -2.03212
6.58324 -0.244366 -2.03206
6.58386 -0.223675 -2.03202
6.58448 -0.202986 -2.03201
6.58511 -0.182297 -2.03202
6.58574 -0.161608 -2.03204
6.58638 -0.140916 -2.03209
6.58702 -0.120225 -2.03217
6.58749 -0.0995304 -2.0322
6.58667 -0.0788172 -2.03186
6.58586 -0.0581124 -2.03155
6.58504 -0.0374139 -2.03125
6.58423 -0.0167213 -2.03097
6.58367 0.00396605 -2.03079
6.58449 0.0246569 -2.03106
6.58531 0.0453515 -2.03135
6.58613 0.0660523 -2.03165
6.58695 0.0867613 -2.03198
6.5875 0.107471 -2.03224
6.58686 0.128163 -2.03216
6.58622 0.148853 -2.0321
6.58559 0.169545 -2.03206
6.58497 0.190234 -2.03204
6.58434 0.210924 -2.03204
6.58373 0.231613 -2.03207
6.58312 0.252306 -2.03211
6.58251 0.272998 -2.03218
6.58191 0.293691 -2.03227
6.58655 0.314638 -2.034
7.32595 -0.897768 -2.34401
7.32519 -0.874321 -2.34288
7.32446 -0.850899 -2.34178
7.32374 -0.827504 -2.34071
7.32305 -0.804129 -2.33967
6.87301 -0.732862 -2.19513
6.84375 -0.708002 -2.18507
6.81476 -0.683369 -2.17512
6.78604 -0.658959 -2.16528
6.74751 -0.633822 -2.15234
6.73386 -0.611201 -2.14736
6.72027 -0.588685 -2.14243
6.70675 -0.566271 -2.13754
6.69331 -0.543961 -2.1327
6.67993 -0.521751 -2.1279
6.66639 -0.499626 -2.12308
6.65289 -0.477597 -2.11829
6.64517 -0.456061 -2.11537
6.63853 -0.434652 -2.11281
6.63191 -0.413296 -2.11028
6.62531 -0.39199 -2.10778
6.61873 -0.370736 -2.1053
6.61218 -0.349532 -2.10286
6.60635 -0.328412 -2.10066
6.60089 -0.307351 -2.09861
6.5964 -0.286374 -2.09689
6.59701 -0.265636 -2.09681
6.59762 -0.2449 -2.09675
6.59824 -0.224163 -2.09671
6.59887 -0.203429 -2.09669
6.59835 -0.182663 -2.09634
6.59751 -0.161897 -2.0959
6.59668 -0.141137 -2.09548
6.59586 -0.120387 -2.09509
6.59503 -0.0996443 -2.09472
6.59421 -0.0789074 -2.09437
6.59339 -0.0581789 -2.09404
6.59258 -0.0374567 -2.09373
6.59176 -0.0167404 -2.09345
6.5912 0.00397059 -2.09326
6.59202 0.0246851 -2.09354
6.59284 0.0454034 -2.09383
6.59366 0.0661279 -2.09415
6.59449 0.0868606 -2.09449
6.59532 0.107598 -2.09485
6.59615 0.128344 -2.09523
6.59698 0.149097 -2.09563
6.59782 0.16986 -2.09606
6.59866 0.19063 -2.09651
6.59873 0.211385 -2.09673
6.59811 0.232119 -2.09675
6.5975 0.252857 -2.0968
6.59689 0.273594 -2.09687
6.59721 0.294374 -2.09726
6.60266 0.315407 -2.09929
7.44344 -0.888436 -2.44947
7.44076 -0.864411 -2.44768
7.43816 -0.840432 -2.44595
7.43563 -0.816496 -2.44426
7.43318 -0.792593 -2.44262
7.43079 -0.768734 -2.44103
7.42849 -0.744913 -2.43949
7.42626 -0.721128 -2.43801
7.4241 -0.697377 -2.43657
7.56147 -0.68632 -2.48093
6.64356 -0.309344 -2.17319
6.63746 -0.28816 -2.17089
6.63145 -0.267021 -2.16864
6.62553 -0.245942 -2.16644
6.6197 -0.224895 -2.16429
6.61396 -0.2039 -2.16219
6.6083 -0.182939 -2.16015
6.60512 -0.162083 -2.15893
6.60428 -0.141299 -2.1585
6.60345 -0.120525 -2.15809
6.60263 -0.0997591 -2.15771
6.6018 -0.0789982 -2.15735
6.60098 -0.0582459 -2.15701
6.60016 -0.0374998 -2.15669
6.59935 -0.0167597 -2.1564
6.59879 0.00397516 -2.15621
6.59961 0.0247135 -2.15649
6.60043 0.0454557 -2.1568
6.60126 0.066204 -2.15712
6.60208 0.0869606 -2.15747
6.60291 0.107722 -2.15784
6.60375 0.128492 -2.15824
6.60458 0.149269 -2.15865
6.60542 0.170056 -2.15909
6.60994 0.190955 -2.16076
6.61561 0.211924 -2.16282
6.62137 0.23294 -2.16493
6.62722 0.253994 -2.16709
6.63315 0.275099 -2.1693
6.63918 0.296244 -2.17157
9.00414 -0.531597 -1.05427
8.87677 -0.49616 -1.03916
8.7642 -0.462315 -1.02581
8.69972 -0.431573 -1.0181
8.67801 -0.403232 -1.01541
8.65636 -0.375037 -1.01273
8.63475 -0.346985 -1.01007
8.6132 -0.31908 -1.00743
8.59169 -0.291319 -1.0048
8.57023 -0.263699 -1.00219
8.54956 -0.236241 -0.999681
8.541 -0.209215 -0.9986
8.53241 -0.182245 -0.997523
8.52329 -0.155323 -0.996394
8.51318 -0.128446 -0.995161
8.50304 -0.101633 -0.993934
8.49287 -0.0748875 -0.992712
8.48266 -0.0482068 -0.991497
8.47242 -0.021591 -0.990287
8.53328 -0.61125 -1.0721
8.45135 -0.57876 -1.06157
8.376 -0.547227 -1.05189
8.31706 -0.5172 -1.04428
8.29898 -0.489964 -1.04181
8.28091 -0.462855 -1.03935
8.26286 -0.43587 -1.03691
8.24484 -0.409007 -1.03448
8.22683 -0.382267 -1.03207
8.20885 -0.355649 -1.02967
8.19088 -0.329148 -1.02728
8.17294 -0.302771 -1.0249
8.15502 -0.276513 -1.02254
8.13574 -0.25033 -1.02002
8.12573 -0.22453 -1.01867
8.11803 -0.198854 -1.01763
8.11029 -0.173229 -1.01658
8.10251 -0.147655 -1.01554
8.09469 -0.122132 -1.01451
8.08845 -0.0966778 -1.01369
8.08477 -0.071289 -1.01319
8.08106 -0.0459245 -1.0127
8.07733 -0.0205842 -1.01222
8.08565 -0.604666 -1.08461
8.04905 -0.576563 -1.07945
8.02185 -0.549347 -1.07557
8.0022 -0.522806 -1.07271
7.99381 -0.497099 -1.07137
7.98541 -0.471452 -1.07004
7.9771 -0.445874 -1.06874
7.96876 -0.420356 -1.06744
7.96043 -0.394898 -1.06615
7.95208 -0.3695 -1.06487
7.94372 -0.344162 -1.0636
7.93535 -0.31888 -1.06234
7.92697 -0.293659 -1.06109
7.91857 -0.268495 -1.05985
7.91256 -0.243464 -1.05894
7.90868 -0.218533 -1.05832
7.90477 -0.19363 -1.05771
7.90083 -0.168755 -1.05711
7.89698 -0.14391 -1.05653
7.89355 -0.119097 -1.05601
7.89008 -0.0943067 -1.05551
7.88659 -0.0695415 -1.055
7.88306 -0.0447993 -1.05451
7.87951 -0.02008 -1.05402
8.04489 -0.652358 -1.14803
7.88162 -0.614258 -1.12445
7.85564 -0.587465 -1.12048
7.83445 -0.561192 -1.1172
7.81518 -0.535194 -1.11421
7.80655 -0.510024 -1.11274
7.7986 -0.48496 -1.11139
7.79065 -0.459953 -1.11004
7.78267 -0.435007 -1.10871
7.77469 -0.410118 -1.10738
7.7667 -0.385288 -1.10606
7.75869 -0.360515 -1.10476
7.75073 -0.335801 -1.10347
7.74278 -0.311142 -1.10219
7.73483 -0.286541 -1.10093
7.72796 -0.262033 -1.09983
7.72431 -0.237671 -1.0992
7.72062 -0.213336 -1.09857
7.71691 -0.189028 -1.09795
7.71317 -0.164747 -1.09734
7.70941 -0.140491 -1.09674
7.70562 -0.116262 -1.09614
7.7018 -0.0920564 -1.09555
7.69796 -0.0678784 -1.09497
7.69412 -0.0437255 -1.0944
7.69074 -0.019599 -1.09391
7.93016 -0.668083 -1.19951
7.7199 -0.626005 -1.16741
7.67504 -0.598158 -1.16033
7.65663 -0.572583 -1.15727
7.63828 -0.54714 -1.15424
7.62733 -0.522329 -1.15233
7.62074 -0.497884 -1.15109
7.61435 -0.473502 -1.1499
7.60796 -0.449167 -1.14871
7.60155 -0.424883 -1.14754
7.59514 -0.400647 -1.14637
7.58871 -0.376458 -1.14522
7.58226 -0.352317 -1.14408
7.57581 -0.328222 -1.14294
7.56999 -0.304198 -1.14191
7.56418 -0.280219 -1.1409
7.5609 -0.256368 -1.14028
7.558 -0.232554 -1.13972
7.55514 -0.208764 -1.13919
7.5523 -0.184996 -1.13867
7.54944 -0.16125 -1.13815
7.54656 -0.137524 -1.13765
7.54366 -0.113818 -1.13715
7.54074 -0.0901312 -1.13666
7.53779 -0.0664659 -1.13618
7.53483 -0.0428203 -1.13571
7.53184 -0.019194 -1.13525
8.03903 -0.728038 -1.28534
7.81775 -0.6833 -1.24962
7.5891 -0.639349 -1.21274
7.53133 -0.610714 -1.2032
7.51537 -0.585713 -1.20035
7.50143 -0.560976 -1.19784
7.48945 -0.536479 -1.19565
7.48336 -0.512471 -1.19441
7.47726 -0.48851 -1.19319
7.4717 -0.464631 -1.19207
7.46622 -0.440799 -1.19096
7.46072 -0.417011 -1.18987
7.45521 -0.393265 -1.18879
7.44968 -0.369561 -1.18772
7.44413 -0.345898 -1.18666
7.43858 -0.322277 -1.1856
7.433 -0.298693 -1.18456
7.42807 -0.275177 -1.18363
7.4253 -0.25177 -1.18306
7.42252 -0.228385 -1.18249
7.41971 -0.205022 -1.18194
7.41688 -0.181679 -1.18139
7.41403 -0.158357 -1.18085
7.41116 -0.135057 -1.18032
7.40827 -0.111776 -1.1798
7.40535 -0.0885134 -1.17929
7.40241 -0.0652725 -1.17878
7.39952 -0.0420513 -1.17829
7.39664 -0.0188495 -1.17782
7.9171 -0.742023 -1.33407
7.58457 -0.686881 -1.27767
7.47695 -0.653512 -1.25919
7.40942 -0.624213 -1.24748
7.39825 -0.599922 -1.24528
7.38715 -0.575721 -1.2431
7.37607 -0.551602 -1.24094
7.36888 -0.527842 -1.23944
7.36296 -0.504225 -1.23817
7.35703 -0.480655 -1.23692
7.35109 -0.457131 -1.23567
7.34515 -0.433651 -1.23444
7.3392 -0.410219 -1.23322
7.33323 -0.386831 -1.23201
7.32726 -0.363488 -1.2308
7.32128 -0.34019 -1.22962
7.31526 -0.316934 -1.22843
7.30886 -0.293705 -1.2272
7.30486 -0.270613 -1.22638
7.30238 -0.247602 -1.22582
7.30003 -0.224616 -1.2253
7.29783 -0.201654 -1.22482
7.29561 -0.178708 -1.22435
7.29337 -0.15578 -1.22389
7.29111 -0.132869 -1.22343
7.28883 -0.109974 -1.22298
7.28654 -0.087093 -1.22255
7.28422 -0.0642303 -1.22212
7.28189 -0.0413831 -1.2217
7.27954 -0.0185513 -1.22129
8.06245 -0.806666 -1.42872
7.57923 -0.73433 -1.34268
7.46802 -0.699934 -1.32258
7.36895 -0.667354 -1.30466
7.32548 -0.640274 -1.2966
7.29961 -0.614961 -1.29168
7.28865 -0.591035 -1.2894
7.27787 -0.567204 -1.28718
7.26825 -0.543539 -1.28517
7.26254 -0.520225 -1.28386
7.25681 -0.496956 -1.28257
7.25108 -0.473733 -1.28129
7.24533 -0.450554 -1.28001
7.23958 -0.427418 -1.27875
7.23346 -0.404309 -1.27745
7.2273 -0.381243 -1.27614
7.22113 -0.358224 -1.27485
7.21495 -0.335249 -1.27356
7.20877 -0.31232 -1.27229
7.20269 -0.289438 -1.27105
7.2003 -0.266739 -1.27048
7.1979 -0.24406 -1.26991
7.19548 -0.221399 -1.26936
7.19304 -0.198758 -1.26881
7.19058 -0.176136 -1.26827
7.1881 -0.153532 -1.26774
7.1856 -0.130946 -1.26722
7.18308 -0.108378 -1.26671
7.18072 -0.0858282 -1.26624
7.17848 -0.0632976 -1.26581
7.17621 -0.0407827 -1.26538
7.17393 -0.0182819 -1.26496
7.57306 -0.781684 -1.40777
7.4396 -0.744348 -1.38252
7.33313 -0.710487 -1.36231
7.29012 -0.683261 -1.35392
7.24761 -0.656365 -1.34563
7.20559 -0.629795 -1.33746
7.19269 -0.605954 -1.3347
7.18208 -0.582393 -1.33239
7.17148 -0.558912 -1.33009
7.16446 -0.535777 -1.32847
7.15865 -0.512783 -1.32709
7.15273 -0.489828 -1.3257
7.1468 -0.46692 -1.32433
7.14086 -0.444058 -1.32296
7.13492 -0.421239 -1.32161
7.12896 -0.398468 -1.32027
7.12299 -0.375741 -1.31894
7.11576 -0.352996 -1.31739
7.10818 -0.330288 -1.31579
7.10059 -0.307633 -1.3142
7.09433 -0.285084 -1.31286
7.09132 -0.262702 -1.31215
7.08829 -0.240343 -1.31144
7.08523 -0.218007 -1.31074
7.08213 -0.195694 -1.31005
7.07901 -0.173403 -1.30937
7.07585 -0.151134 -1.30869
7.07266 -0.128888 -1.30802
7.06945 -0.106663 -1.30735
7.0662 -0.0844592 -1.3067
7.06291 -0.0622786 -1.30605
7.0596 -0.0401196 -1.30541
7.05682 -0.0179835 -1.30487
7.65355 -0.838518 -1.48996
7.40971 -0.788305 -1.442
7.29714 -0.753204 -1.41963
7.25459 -0.725837 -1.4109
7.21253 -0.698802 -1.40229
7.17095 -0.672092 -1.39379
7.12306 -0.645086 -1.38408
7.08687 -0.619418 -1.37666
7.06167 -0.594916 -1.3714
7.04522 -0.571295 -1.36785
7.02882 -0.547794 -1.36433
7.01746 -0.524784 -1.3618
7.01036 -0.502161 -1.36011
7.00325 -0.479592 -1.35843
6.99612 -0.457076 -1.35676
6.98898 -0.434613 -1.35511
6.98182 -0.412201 -1.35346
6.97464 -0.389842 -1.35182
6.96682 -0.367502 -1.35008
6.95747 -0.345144 -1.34805
6.94812 -0.322851 -1.34604
6.93876 -0.300622 -1.34403
6.9342 -0.278649 -1.34297
6.93135 -0.256776 -1.34226
6.92847 -0.234924 -1.34155
6.92556 -0.213094 -1.34085
6.92262 -0.191286 -1.34016
6.91964 -0.169499 -1.33948
6.91664 -0.147733 -1.3388
6.91362 -0.125989 -1.33813
6.91208 -0.104289 -1.33776
6.91051 -0.0825983 -1.3374
6.90891 -0.0609206 -1.33705
6.90728 -0.0392539 -1.3367
6.90561 -0.0175982 -1.33636
7.37831 -0.831777 -1.50101
7.26097 -0.795508 -1.47662
7.21887 -0.768002 -1.46756
7.17133 -0.740218 -1.45742
7.11945 -0.712316 -1.44641
7.06832 -0.68483 -1.43558
7.02825 -0.658717 -1.42702
6.99619 -0.633596 -1.4201
6.96442 -0.608716 -1.41325
6.93291 -0.584069 -1.40648
6.90169 -0.559656 -1.39979
6.87924 -0.536136 -1.39488
6.86545 -0.513416 -1.39176
6.8587 -0.491297 -1.39007
6.85192 -0.469229 -1.38839
6.84513 -0.447211 -1.38672
6.83655 -0.425134 -1.38471
6.82767 -0.4031 -1.38265
6.81879 -0.381131 -1.3806
6.80989 -0.359225 -1.37856
6.80099 -0.337381 -1.37654
6.79207 -0.3156 -1.37453
6.78333 -0.293888 -1.37257
6.78066 -0.272479 -1.37185
6.77795 -0.251093 -1.37113
6.77522 -0.229728 -1.37043
6.77348 -0.208415 -1.36994
6.77215 -0.187128 -1.36954
6.77078 -0.165852 -1.36915
6.76937 -0.144588 -1.36877
6.76794 -0.123335 -1.3684
6.76648 -0.102092 -1.36803
6.76498 -0.0808589 -1.36767
6.76345 -0.059638 -1.36731
6.76189 -0.0384277 -1.36697
6.7603 -0.0172278 -1.36663
7.21924 -0.836769 -1.53215
7.16674 -0.807925 -1.52046
7.11499 -0.779514 -1.50896
7.06398 -0.751523 -1.49763
7.01369 -0.723947 -1.48648
6.97002 -0.697365 -1.47675
6.93854 -0.672256 -1.46963
6.90734 -0.647385 -1.46258
6.87641 -0.622748 -1.45561
6.84574 -0.598342 -1.44872
6.81533 -0.574162 -1.44189
6.78518 -0.550209 -1.43514
6.75528 -0.526476 -1.42847
6.73766 -0.50386 -1.4244
6.73027 -0.482097 -1.42251
6.72311 -0.460407 -1.42068
6.71596 -0.438772 -1.41887
6.70882 -0.417191 -1.41708
6.7017 -0.395662 -1.41531
6.69459 -0.374189 -1.41355
6.68749 -0.352768 -1.41182
6.68041 -0.3314 -1.41009
6.67334 -0.310083 -1.40839
6.66848 -0.288912 -1.40717
6.66629 -0.267883 -1.40652
6.66409 -0.246875 -1.40588
6.66189 -0.225885 -1.40526
6.65968 -0.204913 -1.40466
6.65748 -0.18396 -1.40406
6.65527 -0.163023 -1.40348
6.65307 -0.142104 -1.40292
6.65086 -0.121201 -1.40236
6.64864 -0.100314 -1.40182
6.64643 -0.0794419 -1.4013
6.64421 -0.0585866 -1.40079
6.64199 -0.0377463 -1.40029
6.63977 -0.0169207 -1.3998
7.14701 -0.828397 -1.57938
7.02753 -0.792232 -1.55242
6.95916 -0.762442 -1.53679
6.91213 -0.735368 -1.52588
6.88123 -0.710275 -1.51856
6.8506 -0.685417 -1.51132
6.82925 -0.661667 -1.50615
6.81135 -0.638388 -1.50175
6.79354 -0.615244 -1.49739
6.77583 -0.592233 -1.49307
6.75822 -0.569351 -1.48879
6.7407 -0.546602 -1.48455
6.72751 -0.524311 -1.48127
6.71806 -0.502394 -1.47884
6.71039 -0.480674 -1.47681
6.70328 -0.459049 -1.47492
6.69618 -0.43748 -1.47305
6.68909 -0.415964 -1.4712
6.68201 -0.3945 -1.46936
6.67495 -0.373091 -1.46754
6.6679 -0.351734 -1.46574
6.66086 -0.33043 -1.46396
6.65626 -0.309289 -1.46273
6.6529 -0.288237 -1.46179
6.65071 -0.267257 -1.46111
6.64853 -0.246298 -1.46046
6.64634 -0.225358 -1.45981
6.64415 -0.204435 -1.45918
6.64196 -0.183531 -1.45857
6.63976 -0.162643 -1.45797
6.63756 -0.141773 -1.45738
6.63537 -0.120919 -1.45681
6.63316 -0.100081 -1.45625
6.63096 -0.0792571 -1.4557
6.62876 -0.0584503 -1.45517
6.62718 -0.0376621 -1.45479
6.62601 -0.0168856 -1.45452
7.22583 -0.860496 -1.6609
7.10661 -0.823714 -1.6329
6.98848 -0.78783 -1.60518
6.88184 -0.75397 -1.58013
6.85126 -0.728892 -1.57258
6.83325 -0.705321 -1.56793
6.81533 -0.681888 -1.56332
6.79751 -0.658592 -1.55875
6.77978 -0.63543 -1.55422
6.76215 -0.612401 -1.54973
6.74462 -0.589504 -1.54528
6.72717 -0.566736 -1.54087
6.71731 -0.544705 -1.53821
6.70789 -0.522782 -1.53567
6.6985 -0.500931 -1.53316
6.69057 -0.479254 -1.53099
6.6835 -0.457695 -1.52904
6.67644 -0.43619 -1.5271
6.6694 -0.414739 -1.52519
6.66237 -0.39334 -1.52329
6.65535 -0.371996 -1.52141
6.64868 -0.35072 -1.51963
6.64456 -0.329621 -1.51844
6.64045 -0.308554 -1.51727
6.63733 -0.287563 -1.51635
6.63516 -0.266632 -1.51565
6.63298 -0.245722 -1.51497
6.63081 -0.224831 -1.51431
6.62863 -0.203958 -1.51366
6.62645 -0.183102 -1.51302
6.62426 -0.162264 -1.5124
6.62208 -0.141442 -1.51179
6.61989 -0.120637 -1.5112
6.6177 -0.0998476 -1.51062
6.6163 -0.0790818 -1.51023
6.61513 -0.0583302 -1.50992
6.61397 -0.0375871 -1.50962
6.6128 -0.016852 -1.50933
7.18404 -0.855519 -1.71468
7.06651 -0.819067 -1.68601
6.94971 -0.78346 -1.65754
6.86524 -0.752152 -1.63683
6.81917 -0.725478 -1.62529
6.80133 -0.702027 -1.62051
6.78359 -0.678713 -1.61577
6.76595 -0.655533 -1.61107
6.74839 -0.632488 -1.60641
6.73094 -0.609574 -1.60179
6.71646 -0.587043 -1.5979
6.70705 -0.565041 -1.59523
6.69767 -0.543112 -1.59259
6.68831 -0.521256 -1.58996
6.67898 -0.499471 -1.58737
6.67078 -0.477836 -1.58505
6.66376 -0.456343 -1.58304
6.65675 -0.434903 -1.58104
6.64975 -0.413518 -1.57906
6.64276 -0.392183 -1.5771
6.63693 -0.370966 -1.57544
6.63284 -0.349885 -1.5742
6.62874 -0.328836 -1.57297
6.62465 -0.30782 -1.57176
6.62178 -0.286889 -1.57086
6.61962 -0.266008 -1.57014
6.61745 -0.245147 -1.56944
6.61529 -0.224305 -1.56875
6.61312 -0.203481 -1.56808
6.61095 -0.182674 -1.56742
6.60878 -0.161884 -1.56678
6.60661 -0.141111 -1.56615
6.60539 -0.120372 -1.56576
6.60423 -0.0996444 -1.56541
6.60308 -0.0789238 -1.56507
6.60192 -0.0582137 -1.56474
6.60076 -0.037512 -1.56443
6.59959 -0.0168183 -1.56414
7.26172 -0.887863 -1.79822
7.14256 -0.850579 -1.76804
7.02671 -0.814453 -1.73873
6.91513 -0.779562 -1.71051
6.84866 -0.750335 -1.69347
6.78725 -0.722082 -1.67772
6.76959 -0.698751 -1.6728
6.75202 -0.675554 -1.66793
6.73455 -0.652492 -1.6631
6.71717 -0.629562 -1.65832
6.70611 -0.607326 -1.65511
6.69674 -0.58532 -1.65233
6.68739 -0.563384 -1.64958
6.67807 -0.541523 -1.64685
6.66877 -0.519733 -1.64415
6.6595 -0.498014 -1.64147
6.65103 -0.476422 -1.63901
6.64406 -0.454994 -1.63693
6.63709 -0.433619 -1.63487
6.63014 -0.412298 -1.63283
6.62516 -0.391143 -1.6313
6.62108 -0.37008 -1.63
6.61701 -0.34905 -1.62872
6.61294 -0.328052 -1.62746
6.60887 -0.307087 -1.62621
6.60624 -0.286215 -1.62533
6.60409 -0.265384 -1.62459
6.60194 -0.244572 -1.62387
6.59978 -0.223779 -1.62316
6.59763 -0.203004 -1.62246
6.59558 -0.182249 -1.62181
6.59444 -0.161533 -1.6214
6.5933 -0.140827 -1.621
6.59216 -0.120131 -1.62062
6.59101 -0.0994449 -1.62025
6.58986 -0.0787658 -1.6199
6.58871 -0.0580972 -1.61957
6.58755 -0.0374369 -1.61924
6.58639 -0.0167847 -1.61894
7.21916 -0.882659 -1.85191
7.10139 -0.845677 -1.82101
6.98719 -0.809873 -1.79107
6.89823 -0.777657 -1.76763
6.83209 -0.748519 -1.75007
6.76723 -0.719952 -1.73287
6.73801 -0.695491 -1.72482
6.72062 -0.672413 -1.71982
6.70507 -0.649636 -1.71532
6.69571 -0.62755 -1.71241
6.68637 -0.605537 -1.70953
6.67705 -0.583599 -1.70667
6.66776 -0.561731 -1.70384
6.6585 -0.539936 -1.70103
6.64926 -0.518213 -1.69824
6.64005 -0.49656 -1.69548
6.63132 -0.47501 -1.69287
6.62439 -0.453647 -1.69073
6.61747 -0.432338 -1.68861
6.61335 -0.411254 -1.68722
6.60929 -0.390207 -1.68586
6.60524 -0.369195 -1.68453
6.60119 -0.348216 -1.68321
6.59714 -0.327269 -1.6819
6.5931 -0.306354 -1.68062
6.5907 -0.285542 -1.67977
6.58857 -0.26476 -1.67901
6.58643 -0.243998 -1.67826
6.58459 -0.223264 -1.6776
6.58346 -0.202568 -1.67715
6.58233 -0.181883 -1.67671
6.5812 -0.161209 -1.67628
6.58006 -0.140545 -1.67587
6.57893 -0.11989 -1.67548
6.57779 -0.0992453 -1.6751
6.57664 -0.0786078 -1.67474
6.57549 -0.0579807 -1.67439
6.57434 -0.0373619 -1.67406
6.57319 -0.016751 -1.67374
7.18031 -0.877909 -1.9061
7.06223 -0.841012 -1.87405
6.94853 -0.805392 -1.8432
6.88135 -0.775753 -1.82472
6.81553 -0.746705 -1.80664
6.75099 -0.718224 -1.78892
6.7066 -0.692249 -1.77658
6.69457 -0.669806 -1.77283
6.68524 -0.647714 -1.76981
6.67593 -0.625696 -1.76682
6.66665 -0.603752 -1.76385
6.6574 -0.581881 -1.76091
6.64817 -0.56008 -1.758
6.63896 -0.538352 -1.75511
6.62979 -0.516695 -1.75225
6.62063 -0.495108 -1.74941
6.61165 -0.4736 -1.74663
6.60555 -0.452356 -1.74464
6.60151 -0.431295 -1.74321
6.59748 -0.410267 -1.74179
6.59344 -0.389271 -1.7404
6.58941 -0.36831 -1.73902
6.58538 -0.347382 -1.73766
6.58136 -0.326486 -1.73632
6.57733 -0.305622 -1.735
6.57518 -0.28487 -1.73419
6.57355 -0.264157 -1.73353
6.57244 -0.24348 -1.73303
6.57132 -0.222814 -1.73254
6.57021 -0.20216 -1.73207
6.56908 -0.181517 -1.73162
6.56796 -0.160884 -1.73118
6.56683 -0.140262 -1.73075
6.56569 -0.119649 -1.73035
6.56456 -0.0990457 -1.72996
6.56342 -0.0784497 -1.72958
6.56228 -0.0578641 -1.72923
6.56113 -0.0372868 -1.72889
6.55998 -0.0167174 -1.72856
7.14203 -0.87323 -1.96004
7.02547 -0.836635 -1.92731
6.93507 -0.803832 -1.90182
6.89499 -0.777291 -1.89015
6.84113 -0.749511 -1.87473
6.76968 -0.720213 -1.85452
6.70136 -0.691708 -1.8352
6.68839 -0.669188 -1.83107
6.67754 -0.646968 -1.82753
6.66798 -0.624951 -1.82437
6.65845 -0.603009 -1.82124
6.64895 -0.581143 -1.81813
6.63949 -0.559349 -1.81506
6.63006 -0.53763 -1.81201
6.62066 -0.515984 -1.80899
6.6113 -0.49441 -1.806
6.60212 -0.472919 -1.80308
6.59693 -0.451766 -1.80127
6.59249 -0.430705 -1.79968
6.58811 -0.409685 -1.79812
6.58374 -0.388698 -1.79659
6.57938 -0.367749 -1.79507
6.57502 -0.346835 -1.79358
6.57068 -0.325956 -1.79211
6.56646 -0.305116 -1.79069
6.56522 -0.284439 -1.7901
6.56399 -0.263772 -1.78953
6.56276 -0.243121 -1.78897
6.56153 -0.222482 -1.78844
6.5603 -0.201855 -1.78792
6.55907 -0.18124 -1.78742
6.55784 -0.160636 -1.78694
6.55661 -0.140044 -1.78648
6.55538 -0.119461 -1.78604
6.55416 -0.0988888 -1.78561
6.55293 -0.0783244 -1.7852
6.55171 -0.0577709 -1.78481
6.55048 -0.0372263 -1.78443
6.54926 -0.01669 -1.78408
7.10449 -0.868639 -2.01378
6.98948 -0.83235 -1.98043
6.9216 -0.802271 -1.96047
6.88168 -0.775791 -1.94847
6.84225 -0.749632 -1.93663
6.80328 -0.723787 -1.92495
6.73576 -0.695259 -1.90522
6.70033 -0.670383 -1.89459
6.68737 -0.647921 -1.89034
6.67447 -0.62556 -1.88613
6.66163 -0.603298 -1.88196
6.6513 -0.581348 -1.87852
6.64183 -0.559546 -1.87534
6.63239 -0.537819 -1.87219
6.62299 -0.516165 -1.86907
6.61361 -0.494583 -1.86598
6.60489 -0.473117 -1.86309
6.59969 -0.451956 -1.86121
6.59451 -0.430837 -1.85936
6.58933 -0.409761 -1.85753
6.58462 -0.38875 -1.85585
6.58026 -0.367798 -1.85429
6.5759 -0.346882 -1.85274
6.57155 -0.326 -1.85122
6.56721 -0.305151 -1.84972
6.56579 -0.284463 -1.84906
6.56456 -0.263795 -1.84847
6.56333 -0.243142 -1.8479
6.56209 -0.222501 -1.84735
6.56086 -0.201873 -1.84681
6.55963 -0.181256 -1.8463
6.55841 -0.16065 -1.8458
6.55718 -0.140056 -1.84532
6.55595 -0.119471 -1.84486
6.55551 -0.0989093 -1.84464
6.55611 -0.0783624 -1.84474
6.55671 -0.0578151 -1.84484
6.55732 -0.0372651 -1.84497
6.55792 -0.0167121 -1.84512
7.13748 -0.872673 -2.08777
6.98849 -0.832232 -2.04342
6.92117 -0.80222 -2.02299
6.87666 -0.775224 -2.00926
6.83276 -0.748594 -1.99574
6.79027 -0.722403 -1.98266
6.75191 -0.696927 -1.97081
6.71237 -0.671587 -1.95864
6.69936 -0.649083 -1.95424
6.68641 -0.626679 -1.94989
6.67353 -0.604375 -1.94557
6.6607 -0.58217 -1.94128
6.64793 -0.560061 -1.93704
6.63523 -0.538049 -1.93284
6.62532 -0.516347 -1.92947
6.61594 -0.494757 -1.92628
6.60767 -0.473315 -1.92343
6.60247 -0.452146 -1.92149
6.59728 -0.431018 -1.91958
6.5921 -0.409933 -1.91769
6.58693 -0.388886 -1.91582
6.58177 -0.367883 -1.91398
6.57679 -0.346928 -1.9122
6.57244 -0.326043 -1.91063
6.56809 -0.305192 -1.90908
6.56636 -0.284488 -1.90831
6.56513 -0.263818 -1.9077
6.5639 -0.243163 -1.90711
6.56267 -0.22252 -1.90654
6.56143 -0.20189 -1.90599
6.56199 -0.181321 -1.90598
6.56258 -0.160752 -1.90599
6.56317 -0.140184 -1.90603
6.56376 -0.119614 -1.90608
6.56436 -0.0990428 -1.90616
6.56496 -0.0784682 -1.90625
6.56556 -0.0578931 -1.90636
6.56617 -0.0373154 -1.9065
6.56678 -0.0167347 -1.90665
7.16598 -0.876158 -2.16133
7.04791 -0.839308 -2.12491
6.93612 -0.803954 -2.09044
6.90634 -0.77857 -2.08072
6.87449 -0.753165 -2.0704
6.83065 -0.726699 -2.0565
6.78741 -0.70059 -2.04281
6.74475 -0.674827 -2.02933
6.71813 -0.650901 -2.02069
6.70461 -0.628384 -2.01603
6.69092 -0.60595 -2.01133
6.6773 -0.583621 -2.00667
6.66375 -0.561393 -2.00206
6.65027 -0.539269 -1.99749
6.63685 -0.517246 -1.99297
6.62351 -0.495323 -1.98848
6.61239 -0.473654 -1.98469
6.6068 -0.452442 -1.98258
6.60131 -0.431282 -1.98052
6.59585 -0.410166 -1.97848
6.5904 -0.389091 -1.97647
6.58497 -0.368062 -1.97449
6.57955 -0.347074 -1.97253
6.57426 -0.326134 -1.97062
6.56913 -0.30524 -1.96879
6.56799 -0.284559 -1.96817
6.56857 -0.263956 -1.96809
6.56915 -0.243358 -1.96802
6.56973 -0.22276 -1.96798
6.57031 -0.202163 -1.96795
6.57092 -0.181568 -1.96795
6.57155 -0.160972 -1.96798
6.57218 -0.140376 -1.96803
6.57282 -0.119779 -1.9681
6.57346 -0.09918 -1.96819
6.57411 -0.0785775 -1.9683
6.57476 -0.0579742 -1.96843
6.57542 -0.0373679 -1.96858
6.57608 -0.0167583 -1.96875
7.27803 -0.889857 -2.26169
7.07847 -0.842947 -2.19885
6.95641 -0.806305 -2.16013
6.9181 -0.779896 -2.14747
6.88848 -0.754698 -2.13753
6.85915 -0.729731 -2.1277
6.82876 -0.704859 -2.11758
6.78557 -0.678911 -2.10352
6.74297 -0.653307 -2.08967
6.72553 -0.630345 -2.08364
6.712 -0.607859 -2.07885
6.69854 -0.585477 -2.0741
6.68502 -0.563185 -2.06936
6.67145 -0.540986 -2.06462
6.65795 -0.51889 -2.05993
6.64451 -0.496893 -2.05528
6.63188 -0.47505 -2.0509
6.62527 -0.453707 -2.04841
6.61869 -0.432417 -2.04595
6.61212 -0.411178 -2.04351
6.60644 -0.390038 -2.04136
6.60098 -0.368957 -2.03931
6.59553 -0.347917 -2.03728
6.59011 -0.32692 -2.03528
6.58469 -0.305963 -2.0333
6.58209 -0.285169 -2.03221
6.58269 -0.264524 -2.03213
6.5833 -0.243882 -2.03207
6.58392 -0.223241 -2.03204
6.58454 -0.202601 -2.03202
6.58517 -0.181961 -2.03203
6.58579 -0.161321 -2.03206
6.58643 -0.14068 -2.03211
6.58707 -0.120039 -2.03218
6.58751 -0.0993921 -2.03221
6.58669 -0.0787279 -2.03187
6.58588 -0.0580723 -2.03155
6.58507 -0.0374228 -2.03126
6.58426 -0.0167792 -2.03098
7.32608 -0.895732 -2.34398
7.32532 -0.872345 -2.34285
7.32459 -0.848981 -2.34175
7.32387 -0.82564 -2.34068
7.32318 -0.802323 -2.33964
6.8708 -0.730971 -2.19437
6.84163 -0.706187 -2.18434
6.81273 -0.681629 -2.17442
6.78397 -0.657279 -2.16457
6.74668 -0.632327 -2.15203
6.73306 -0.609766 -2.14707
6.71951 -0.58731 -2.14215
6.70603 -0.564954 -2.13727
6.69262 -0.542703 -2.13245
6.67927 -0.520551 -2.12767
6.66575 -0.498482 -2.12285
6.65229 -0.476512 -2.11808
6.64492 -0.455053 -2.11527
6.6383 -0.433698 -2.11271
6.63169 -0.412395 -2.11019
6.62511 -0.391141 -2.1077
6.61855 -0.369939 -2.10523
6.61201 -0.348787 -2.10279
6.60622 -0.327719 -2.10061
6.60078 -0.306711 -2.09857
6.59646 -0.285792 -2.0969
6.59707 -0.265102 -2.09682
6.59768 -0.244415 -2.09676
6.5983 -0.223729 -2.09672
6.59892 -0.203044 -2.09671
6.59836 -0.182326 -2.09634
6.59753 -0.161609 -2.0959
6.5967 -0.1409 -2.09549
6.59587 -0.120199 -2.09509
6.59505 -0.0995058 -2.09472
6.59423 -0.078818 -2.09437
6.59341 -0.0581387 -2.09405
6.5926 -0.0374656 -2.09374
6.59178 -0.0167984 -2.09346
7.44388 -0.886464 -2.44954
7.44121 -0.862496 -2.44776
7.43861 -0.838574 -2.44602
7.43608 -0.814693 -2.44434
7.43363 -0.790849 -2.44271
7.43125 -0.767047 -2.44112
7.42894 -0.743281 -2.43959
7.42671 -0.719553 -2.4381
7.42455 -0.69586 -2.43666
7.57907 -0.686384 -2.48666
6.63792 -0.28758 -2.17103
6.63192 -0.266497 -2.16878
6.62601 -0.245463 -2.16659
6.62018 -0.224468 -2.16444
6.61444 -0.203519 -2.16235
6.60879 -0.182603 -2.1603
6.60513 -0.161795 -2.15893
6.60429 -0.141062 -2.1585
6.60347 -0.120337 -2.1581
6.60264 -0.0996203 -2.15771
6.60182 -0.0789087 -2.15735
6.601 -0.0582056 -2.15702
6.60018 -0.0375087 -2.1567
6.59937 -0.0168177 -2.15641
9.02049 -0.535433 -1.0562
8.89239 -0.499791 -1.04101
8.77549 -0.465559 -1.02715
8.70234 -0.434258 -1.01842
8.68055 -0.405828 -1.01572
8.65881 -0.377546 -1.01303
8.63712 -0.34941 -1.01036
8.61548 -0.321419 -1.00771
8.59389 -0.29357 -1.00507
8.57236 -0.265867 -1.00245
8.55087 -0.238306 -0.999841
8.5421 -0.211199 -0.998734
8.53346 -0.184155 -0.997651
8.52437 -0.15716 -0.996526
8.51422 -0.130208 -0.995286
8.50403 -0.103321 -0.994052
8.49381 -0.076502 -0.992825
8.48356 -0.0497483 -0.991603
8.47327 -0.0230599 -0.990387
8.46517 0.00356423 -0.989437
8.47556 0.0302057 -0.990657
8.48591 0.0569105 -0.991883
8.49622 0.0836812 -0.993114
8.50651 0.110518 -0.994352
8.51676 0.137421 -0.995595
8.52697 0.16439 -0.996845
8.53582 0.191397 -0.997945
8.54452 0.218459 -0.999038
8.55616 0.245666 -1.00048
8.57774 0.273267 -1.0031
8.59938 0.30101 -1.00574
8.62106 0.328897 -1.00839
8.6428 0.35693 -1.01106
8.66459 0.38511 -1.01374
8.68642 0.413436 -1.01645
8.70937 0.441964 -1.01929
8.80071 0.474331 -1.03015
8.92706 0.509283 -1.04512
9.10871 0.548368 -1.06658
8.54315 -0.614952 -1.07336
8.46081 -0.582305 -1.06278
8.38419 -0.550565 -1.05294
8.31973 -0.52008 -1.04463
8.30157 -0.492759 -1.04215
8.28343 -0.465565 -1.03969
8.26531 -0.438493 -1.03723
8.24721 -0.411547 -1.0348
8.22914 -0.384724 -1.03237
8.21108 -0.358024 -1.02996
8.19305 -0.331445 -1.02756
8.17503 -0.304987 -1.02518
8.15704 -0.278647 -1.02281
8.13776 -0.252388 -1.02028
8.12687 -0.22649 -1.01882
8.11913 -0.200742 -1.01777
8.11136 -0.175046 -1.01672
8.10354 -0.149401 -1.01568
8.09568 -0.123807 -1.01464
8.08889 -0.0982774 -1.01374
8.08519 -0.0728216 -1.01325
8.08147 -0.0473904 -1.01276
8.07771 -0.0219834 -1.01227
8.07473 0.00339983 -1.01189
8.07853 0.0287907 -1.01238
8.08231 0.0542038 -1.01287
8.08607 0.0796415 -1.01336
8.0898 0.105104 -1.01387
8.09763 0.130658 -1.0149
8.10555 0.156266 -1.01594
8.11342 0.181925 -1.017
8.12125 0.207637 -1.01806
8.12904 0.233403 -1.01912
8.14245 0.259399 -1.0209
8.16153 0.285684 -1.0234
8.17961 0.312056 -1.02578
8.1977 0.338548 -1.02818
8.21582 0.365165 -1.03059
8.23396 0.391901 -1.03302
8.25212 0.418761 -1.03545
8.2703 0.445744 -1.03791
8.2885 0.472852 -1.04037
8.30673 0.500086 -1.04285
8.32968 0.527744 -1.04594
8.40129 0.558796 -1.05514
8.48035 0.590827 -1.0653
8.56328 0.623653 -1.07596
8.09394 -0.608191 -1.08575
8.05242 -0.579629 -1.07993
8.02513 -0.55232 -1.07604
8.00348 -0.525565 -1.0729
7.99505 -0.499784 -1.07156
7.98662 -0.474065 -1.07023
7.97826 -0.448413 -1.06891
7.9699 -0.422821 -1.06761
7.96153 -0.397291 -1.06631
7.95316 -0.371822 -1.06503
7.94477 -0.346412 -1.06376
7.93636 -0.321061 -1.06249
7.92795 -0.295769 -1.06123
7.91953 -0.270534 -1.05999
7.91315 -0.245422 -1.05903
7.90925 -0.220425 -1.05841
7.90532 -0.195455 -1.05779
7.90136 -0.170514 -1.05719
7.89747 -0.145602 -1.0566
7.89401 -0.120724 -1.05608
7.89053 -0.0958673 -1.05557
7.88701 -0.0710367 -1.05506
7.88347 -0.0462293 -1.05456
7.87991 -0.0214451 -1.05407
7.87705 0.0033166 -1.05369
7.88067 0.0280856 -1.05418
7.88426 0.0528756 -1.05468
7.88783 0.077689 -1.05518
7.89138 0.102526 -1.05569
7.89489 0.127387 -1.05621
7.8984 0.152272 -1.05674
7.90241 0.177194 -1.05735
7.90639 0.202144 -1.05796
7.91035 0.227124 -1.05858
7.91429 0.252131 -1.05921
7.92163 0.277286 -1.0603
7.93009 0.302536 -1.06155
7.93854 0.327845 -1.06282
7.94697 0.353215 -1.06409
7.9554 0.378643 -1.06537
7.96381 0.40413 -1.06666
7.97222 0.429678 -1.06797
7.98061 0.455287 -1.06928
7.98903 0.480959 -1.0706
7.99749 0.506697 -1.07194
8.0073 0.53259 -1.07348
8.03163 0.559565 -1.07697
8.05903 0.586928 -1.08088
8.10971 0.616245 -1.08794
8.20068 -0.668071 -1.1703
7.88504 -0.617421 -1.12497
7.85896 -0.590534 -1.12098
7.83697 -0.56412 -1.11759
7.81762 -0.538038 -1.11458
7.80779 -0.512715 -1.11294
7.79981 -0.487579 -1.11158
7.79182 -0.462503 -1.11023
7.78382 -0.437485 -1.10889
7.77581 -0.412524 -1.10756
7.76778 -0.387623 -1.10624
7.75975 -0.36278 -1.10492
7.75175 -0.337996 -1.10363
7.74378 -0.31327 -1.10235
7.73579 -0.2886 -1.10108
7.72857 -0.264011 -1.09992
7.72489 -0.239583 -1.09929
7.72119 -0.215184 -1.09866
7.71746 -0.19081 -1.09804
7.7137 -0.166464 -1.09742
7.70992 -0.142144 -1.09682
7.70612 -0.11785 -1.09622
7.70228 -0.0935803 -1.09563
7.69842 -0.0693382 -1.09504
7.69454 -0.0451214 -1.09446
7.69114 -0.0209314 -1.09396
7.68841 0.00323717 -1.09357
7.69186 0.0274127 -1.09407
7.69538 0.0516089 -1.09459
7.6993 0.0758321 -1.09517
7.70318 0.100081 -1.09576
7.70704 0.124356 -1.09636
7.71088 0.148657 -1.09697
7.71468 0.172985 -1.09758
7.71847 0.197339 -1.09821
7.72222 0.221722 -1.09883
7.72595 0.246131 -1.09947
7.72976 0.27057 -1.10013
7.73779 0.2952 -1.1014
7.74581 0.319886 -1.10267
7.75382 0.34463 -1.10396
7.76186 0.369431 -1.10527
7.76993 0.394292 -1.10659
7.77799 0.41921 -1.10792
7.78604 0.444187 -1.10926
7.79407 0.469222 -1.11061
7.80209 0.494317 -1.11197
7.8101 0.519474 -1.11333
7.82232 0.544983 -1.11532
7.84173 0.571103 -1.11833
7.86518 0.597664 -1.12194
7.89807 0.625133 -1.12691
7.95615 -0.673325 -1.20348
7.74395 -0.630864 -1.17108
7.67759 -0.601177 -1.16075
7.65911 -0.575517 -1.15768
7.6407 -0.549992 -1.15463
7.62856 -0.525027 -1.15254
7.62173 -0.500496 -1.15126
7.61532 -0.476046 -1.15007
7.6089 -0.451645 -1.14888
7.60247 -0.427292 -1.1477
7.59603 -0.402986 -1.14653
7.58958 -0.37873 -1.14537
7.58311 -0.354522 -1.14422
7.57663 -0.33036 -1.14308
7.57073 -0.30627 -1.14204
7.5649 -0.282225 -1.14102
7.56138 -0.258299 -1.14036
7.55846 -0.234421 -1.1398
7.55558 -0.210568 -1.13926
7.55273 -0.186737 -1.13874
7.54986 -0.162928 -1.13822
7.54696 -0.13914 -1.13771
7.54405 -0.115372 -1.13722
7.54111 -0.091622 -1.13672
7.53815 -0.0678945 -1.13624
7.53517 -0.0441869 -1.13576
7.53217 -0.0204987 -1.1353
7.52975 0.00317037 -1.13493
7.53279 0.0268458 -1.13539
7.53581 0.0505387 -1.13587
7.53882 0.0742515 -1.13635
7.5418 0.0979842 -1.13684
7.54475 0.121737 -1.13734
7.54769 0.145511 -1.13784
7.5506 0.169306 -1.13836
7.5535 0.193121 -1.13888
7.55637 0.21696 -1.13941
7.5593 0.240821 -1.13996
7.56223 0.264706 -1.14052
7.56636 0.28866 -1.14128
7.57222 0.312717 -1.1423
7.57829 0.336829 -1.14337
7.58479 0.361004 -1.14452
7.59129 0.385226 -1.14567
7.59777 0.409497 -1.14684
7.60423 0.433815 -1.14802
7.61069 0.458183 -1.1492
7.61713 0.482599 -1.1504
7.62356 0.507067 -1.15161
7.63076 0.531637 -1.15294
7.64515 0.556786 -1.15537
7.66362 0.582348 -1.15843
7.68215 0.608043 -1.16152
7.78787 0.641043 -1.1778
8.0037 0.684141 -1.21076
8.27745 -0.752943 -1.32351
7.84363 -0.688635 -1.2538
7.60241 -0.643388 -1.21491
7.53367 -0.613733 -1.20361
7.51731 -0.588626 -1.20069
7.50332 -0.563811 -1.19817
7.49046 -0.539178 -1.19584
7.48435 -0.515102 -1.1946
7.47823 -0.491073 -1.19337
7.47258 -0.467123 -1.19223
7.46707 -0.443226 -1.19112
7.46155 -0.419372 -1.19003
7.45602 -0.395558 -1.18894
7.45047 -0.371788 -1.18786
7.4449 -0.34806 -1.18679
7.43932 -0.324373 -1.18574
7.43373 -0.300727 -1.18469
7.42855 -0.277138 -1.18372
7.42577 -0.253667 -1.18314
7.42298 -0.230219 -1.18258
7.42016 -0.206794 -1.18202
7.41732 -0.18339 -1.18147
7.41445 -0.160006 -1.18093
7.41157 -0.136643 -1.18039
7.40866 -0.113301 -1.17987
7.40573 -0.089977 -1.17935
7.40278 -0.0666752 -1.17884
7.39987 -0.0433934 -1.17835
7.39698 -0.0201308 -1.17787
7.39464 0.00311348 -1.1775
7.39757 0.0263639 -1.17797
7.40048 0.0496312 -1.17845
7.40343 0.0729181 -1.17895
7.4064 0.0962252 -1.17947
7.40935 0.119553 -1.17999
7.41228 0.1429 -1.18052
7.41519 0.166269 -1.18106
7.41807 0.189659 -1.18161
7.42093 0.213072 -1.18217
7.42377 0.236504 -1.18273
7.42659 0.259958 -1.18331
7.42952 0.28344 -1.18391
7.43515 0.307057 -1.18496
7.44076 0.330716 -1.18601
7.44637 0.354415 -1.18708
7.45195 0.378156 -1.18815
7.45753 0.401938 -1.18923
7.46308 0.425763 -1.19033
7.46863 0.44963 -1.19143
7.47415 0.47354 -1.19254
7.47997 0.497516 -1.19372
7.48612 0.52156 -1.19495
7.49273 0.545686 -1.19628
7.50673 0.570426 -1.19879
7.52085 0.595275 -1.20134
7.53776 0.620456 -1.20434
7.62576 0.651834 -1.21873
7.88958 0.699367 -1.26123
7.94491 -0.747877 -1.33881
7.59848 -0.691182 -1.28006
7.49019 -0.657604 -1.26146
7.41105 -0.627194 -1.24779
7.39981 -0.602829 -1.24558
7.38868 -0.578554 -1.24339
7.37756 -0.554361 -1.24122
7.36978 -0.530491 -1.23963
7.36385 -0.506808 -1.23835
7.3579 -0.483172 -1.23709
7.35194 -0.459582 -1.23584
7.34598 -0.436038 -1.2346
7.34 -0.412541 -1.23337
7.33402 -0.389086 -1.23216
7.32803 -0.365679 -1.23095
7.32203 -0.342316 -1.22976
7.31602 -0.318997 -1.22857
7.3096 -0.295706 -1.22733
7.30528 -0.272539 -1.22646
7.30278 -0.249465 -1.2259
7.3004 -0.226417 -1.22537
7.29819 -0.203394 -1.22489
7.29596 -0.180389 -1.22441
7.29371 -0.1574 -1.22395
7.29144 -0.134428 -1.22349
7.28915 -0.111473 -1.22304
7.28685 -0.088533 -1.2226
7.28452 -0.0656098 -1.22217
7.28218 -0.0427032 -1.22175
7.27981 -0.0198119 -1.22134
7.2779 0.00306433 -1.22101
7.2803 0.0259459 -1.22142
7.28268 0.0488411 -1.22184
7.28504 0.071752 -1.22227
7.28738 0.0946788 -1.22271
7.2897 0.117622 -1.22315
7.29201 0.140582 -1.22361
7.29429 0.163558 -1.22407
7.29656 0.186552 -1.22454
7.2988 0.209565 -1.22502
7.30103 0.232594 -1.22551
7.30349 0.255649 -1.22606
7.30601 0.278727 -1.22662
7.31112 0.301934 -1.22763
7.31748 0.325236 -1.22886
7.32351 0.348567 -1.23005
7.32953 0.371943 -1.23126
7.33554 0.395363 -1.23247
7.34154 0.418829 -1.23369
7.34754 0.44234 -1.23493
7.35352 0.465897 -1.23617
7.3595 0.489503 -1.23743
7.36547 0.513153 -1.2387
7.37143 0.536851 -1.23998
7.38026 0.560816 -1.24175
7.3914 0.58503 -1.24393
7.40257 0.609328 -1.24613
7.41952 0.634206 -1.24931
7.5127 0.665958 -1.26535
7.622 0.699795 -1.28412
7.99295 0.759189 -1.34701
7.59377 -0.738905 -1.34531
7.48563 -0.704643 -1.32575
7.37462 -0.670819 -1.30571
7.33097 -0.643626 -1.29762
7.3012 -0.617897 -1.292
7.2902 -0.593899 -1.28972
7.27937 -0.569995 -1.28748
7.26917 -0.546216 -1.28536
7.26343 -0.522836 -1.28405
7.25768 -0.499501 -1.28275
7.25193 -0.476213 -1.28146
7.24617 -0.452969 -1.28019
7.24039 -0.429771 -1.27892
7.2343 -0.406599 -1.27762
7.22812 -0.383468 -1.2763
7.22193 -0.360384 -1.275
7.21573 -0.337346 -1.27372
7.20952 -0.314353 -1.27244
7.2033 -0.291405 -1.27117
7.20072 -0.268638 -1.27056
7.1983 -0.245896 -1.26999
7.19587 -0.223176 -1.26944
7.19342 -0.200475 -1.26889
7.19095 -0.177793 -1.26834
7.18846 -0.155129 -1.26781
7.18595 -0.132484 -1.26729
7.18342 -0.109857 -1.26678
7.18103 -0.087247 -1.2663
7.17878 -0.0646577 -1.26586
7.1765 -0.0420834 -1.26543
7.17421 -0.0195247 -1.26501
7.17234 0.00301989 -1.26468
7.17467 0.0255695 -1.2651
7.17698 0.0481322 -1.26552
7.17927 0.0707102 -1.26596
7.18154 0.0933038 -1.26641
7.18401 0.115917 -1.2669
7.18655 0.138549 -1.26742
7.18907 0.161199 -1.26795
7.19158 0.183868 -1.26848
7.19407 0.206558 -1.26903
7.19653 0.229265 -1.26959
7.19898 0.251991 -1.27015
7.20141 0.274737 -1.27073
7.20476 0.297542 -1.27148
7.211 0.320504 -1.27275
7.21723 0.343509 -1.27403
7.22345 0.36656 -1.27533
7.22966 0.389657 -1.27663
7.23586 0.4128 -1.27795
7.24189 0.43598 -1.27925
7.24768 0.459192 -1.28052
7.25347 0.482451 -1.28181
7.25924 0.505753 -1.2831
7.26501 0.529101 -1.28441
7.27119 0.552528 -1.2858
7.28199 0.57637 -1.28803
7.29289 0.6003 -1.29028
7.30391 0.624324 -1.29257
7.34019 0.650666 -1.29935
7.38403 0.677946 -1.30748
7.50829 0.713155 -1.32987
7.87705 0.773166 -1.39561
7.66425 -0.79442 -1.42478
7.46682 -0.750246 -1.38763
7.33901 -0.714116 -1.36346
7.29581 -0.686775 -1.35503
7.25312 -0.659766 -1.34671
7.21093 -0.633087 -1.3385
7.19424 -0.608846 -1.33504
7.1836 -0.585214 -1.33271
7.17296 -0.561663 -1.33041
7.16535 -0.538415 -1.32867
7.15957 -0.51536 -1.3273
7.15363 -0.49234 -1.3259
7.14769 -0.469367 -1.32452
7.14173 -0.446441 -1.32315
7.13576 -0.42356 -1.32179
7.12978 -0.400725 -1.32044
7.12379 -0.377933 -1.31911
7.11684 -0.35514 -1.31761
7.10923 -0.332367 -1.316
7.10162 -0.309648 -1.3144
7.09497 -0.287023 -1.313
7.09195 -0.264581 -1.31228
7.08891 -0.242159 -1.31157
7.08583 -0.219763 -1.31086
7.08272 -0.19739 -1.31017
7.07958 -0.175039 -1.30948
7.07641 -0.152711 -1.3088
7.07321 -0.130405 -1.30812
7.06997 -0.108122 -1.30746
7.06671 -0.0858581 -1.30679
7.06341 -0.0636186 -1.30614
7.06008 -0.0414009 -1.3055
7.05719 -0.0192061 -1.30494
7.05575 0.0029709 -1.30467
7.05755 0.0251522 -1.30501
7.06077 0.0473529 -1.30563
7.06412 0.0695761 -1.30628
7.06744 0.0918213 -1.30694
7.07072 0.114089 -1.30761
7.07398 0.136378 -1.30829
7.0772 0.15869 -1.30897
7.08039 0.181025 -1.30966
7.08355 0.203385 -1.31035
7.08668 0.225765 -1.31106
7.08978 0.248169 -1.31177
7.09285 0.270595 -1.31249
7.09588 0.293045 -1.31321
7.10344 0.315723 -1.31479
7.11108 0.338457 -1.31639
7.11871 0.361245 -1.31801
7.12527 0.384031 -1.31944
7.13128 0.406834 -1.32078
7.13728 0.429682 -1.32214
7.14326 0.452576 -1.3235
7.14924 0.475518 -1.32488
7.15521 0.498505 -1.32627
7.16117 0.521538 -1.32767
7.16689 0.544602 -1.32904
7.17551 0.567942 -1.33097
7.18618 0.591516 -1.33328
7.19685 0.615173 -1.33562
7.21974 0.63999 -1.34023
7.26212 0.666753 -1.34848
7.30499 0.693846 -1.35684
7.34837 0.721274 -1.36531
7.50306 0.760271 -1.39449
7.97784 0.833715 -1.48321
7.43784 -0.794585 -1.44755
7.30321 -0.756998 -1.42087
7.26047 -0.729514 -1.41211
7.21823 -0.702364 -1.40345
7.17648 -0.675542 -1.39492
7.12986 -0.648554 -1.38545
7.09117 -0.622573 -1.37755
7.06409 -0.597831 -1.37191
7.04758 -0.574134 -1.36835
7.03112 -0.550556 -1.36481
7.01871 -0.527396 -1.36208
7.01159 -0.504708 -1.36038
7.00446 -0.482073 -1.35869
6.9973 -0.459492 -1.35702
6.99014 -0.436965 -1.35536
6.98295 -0.41449 -1.3537
6.97575 -0.392068 -1.35206
6.96811 -0.369674 -1.35035
6.95874 -0.34725 -1.34832
6.94935 -0.324892 -1.34629
6.93996 -0.3026 -1.34428
6.93483 -0.280545 -1.34311
6.93197 -0.258612 -1.34239
6.92908 -0.2367 -1.34168
6.92616 -0.214811 -1.34098
6.9232 -0.192944 -1.34028
6.92021 -0.171099 -1.33959
6.91719 -0.149275 -1.33891
6.91414 -0.127473 -1.33824
6.9125 -0.105713 -1.33785
6.91092 -0.0839654 -1.33749
6.90931 -0.0622307 -1.33713
6.90766 -0.0405071 -1.33678
6.90599 -0.0187946 -1.33644
6.9046 0.00290742 -1.33617
6.90633 0.0246134 -1.33651
6.90802 0.0463285 -1.33686
6.90968 0.0680551 -1.33721
6.91131 0.089793 -1.33758
6.91291 0.111543 -1.33795
6.91487 0.133311 -1.3384
6.91793 0.155119 -1.33908
6.92097 0.176949 -1.33977
6.92398 0.198803 -1.34047
6.92696 0.220677 -1.34117
6.9299 0.242572 -1.34188
6.93281 0.26449 -1.3426
6.93569 0.28643 -1.34332
6.94208 0.308551 -1.34474
6.9515 0.330861 -1.34676
6.96091 0.353237 -1.34879
6.97031 0.375679 -1.35084
6.97755 0.398064 -1.35248
6.98478 0.420501 -1.35413
6.99199 0.442992 -1.35579
6.99918 0.465538 -1.35746
7.00636 0.488135 -1.35914
7.01352 0.510786 -1.36084
7.02066 0.533491 -1.36254
7.03488 0.556812 -1.36563
7.05139 0.580422 -1.36918
7.06795 0.604154 -1.37276
7.09816 0.629212 -1.37901
7.14072 0.655608 -1.38767
7.18526 0.682473 -1.39673
7.22718 0.709379 -1.40531
7.26961 0.736615 -1.414
7.31253 0.764188 -1.42281
7.48071 0.805538 -1.45602
7.40732 -0.838443 -1.50698
7.26722 -0.799464 -1.47796
7.22494 -0.771841 -1.46886
7.17881 -0.744103 -1.459
7.12669 -0.716072 -1.44795
7.07532 -0.688458 -1.43706
7.03268 -0.662006 -1.42797
7.00049 -0.636787 -1.42102
6.96859 -0.611811 -1.41415
6.93697 -0.587073 -1.40735
6.90562 -0.562569 -1.40063
6.88147 -0.538838 -1.39538
6.86667 -0.515972 -1.39204
6.85989 -0.493788 -1.39035
6.8531 -0.471656 -1.38866
6.84628 -0.449575 -1.38699
6.8379 -0.427448 -1.38501
6.829 -0.405351 -1.38294
6.82008 -0.383318 -1.38088
6.81115 -0.361347 -1.37884
6.80222 -0.33944 -1.37681
6.79327 -0.317595 -1.37479
6.78432 -0.295813 -1.37278
6.78129 -0.274333 -1.37199
6.77857 -0.252889 -1.37127
6.77582 -0.231464 -1.37056
6.77395 -0.21009 -1.37004
6.7726 -0.188747 -1.36964
6.77123 -0.167415 -1.36925
6.76981 -0.146095 -1.36887
6.76837 -0.124785 -1.36849
6.7669 -0.103487 -1.36812
6.76539 -0.0821973 -1.36775
6.76385 -0.0609206 -1.3674
6.76228 -0.0396546 -1.36705
6.76068 -0.0183991 -1.36671
6.75935 0.00284625 -1.36643
6.761 0.0240953 -1.36677
6.76262 0.0453533 -1.36712
6.76421 0.0666225 -1.36748
6.76576 0.0879021 -1.36784
6.76728 0.109193 -1.36821
6.76878 0.130494 -1.36859
6.77024 0.151808 -1.36898
6.77166 0.173132 -1.36937
6.77306 0.19447 -1.36977
6.77442 0.215817 -1.37017
6.77659 0.237206 -1.37076
6.77936 0.258635 -1.37147
6.78209 0.280086 -1.3722
6.7863 0.301628 -1.37324
6.79528 0.323426 -1.37525
6.80425 0.345288 -1.37728
6.81322 0.367212 -1.37932
6.82217 0.389199 -1.38137
6.83111 0.41125 -1.38344
6.84005 0.433365 -1.38552
6.84805 0.455485 -1.38742
6.85489 0.477581 -1.3891
6.86171 0.499729 -1.3908
6.86928 0.521987 -1.39266
6.88501 0.544949 -1.39619
6.91205 0.568953 -1.40203
6.94351 0.593518 -1.40878
6.97525 0.618316 -1.41561
7.00726 0.643354 -1.42251
7.03956 0.668635 -1.42948
7.08603 0.695525 -1.43936
7.13767 0.723246 -1.4503
7.19006 0.751389 -1.46142
7.23404 0.778976 -1.47085
7.2765 0.806689 -1.47999
7.45004 0.849635 -1.51582
7.22742 -0.841094 -1.53397
7.17465 -0.812108 -1.52222
7.12265 -0.78356 -1.51065
7.0714 -0.755438 -1.49927
7.02088 -0.727733 -1.48807
6.97456 -0.700786 -1.47778
6.94296 -0.675579 -1.47062
6.91163 -0.650611 -1.46355
6.88057 -0.625878 -1.45655
6.84979 -0.60138 -1.44962
6.81926 -0.577111 -1.44277
6.789 -0.553068 -1.436
6.75899 -0.529247 -1.42929
6.73874 -0.506359 -1.42466
6.73107 -0.484515 -1.42271
6.72389 -0.462764 -1.42088
6.71672 -0.441067 -1.41907
6.70956 -0.419425 -1.41727
6.70242 -0.397838 -1.41549
6.69529 -0.376305 -1.41373
6.68817 -0.354822 -1.41198
6.68107 -0.333394 -1.41025
6.67398 -0.312018 -1.40854
6.66868 -0.290771 -1.40723
6.66648 -0.269689 -1.40657
6.66427 -0.248625 -1.40594
6.66207 -0.227578 -1.40531
6.65986 -0.206552 -1.4047
6.65765 -0.185543 -1.40411
6.65544 -0.164552 -1.40353
6.65322 -0.143578 -1.40296
6.65101 -0.122621 -1.4024
6.64879 -0.10168 -1.40186
6.64657 -0.0807536 -1.40133
6.64434 -0.0598442 -1.40082
6.64212 -0.0389499 -1.40031
6.63989 -0.0180704 -1.39983
6.63831 0.00279507 -1.39949
6.6403 0.0236651 -1.39992
6.64254 0.044548 -1.40041
6.64477 0.0654458 -1.40092
6.647 0.0863589 -1.40144
6.64923 0.107288 -1.40197
6.65146 0.128233 -1.40252
6.65368 0.149194 -1.40308
6.6559 0.170172 -1.40365
6.65812 0.19117 -1.40424
6.66034 0.212183 -1.40484
6.66256 0.233214 -1.40546
6.66478 0.254264 -1.40609
6.66699 0.275333 -1.40673
6.6692 0.296423 -1.40739
6.6754 0.31772 -1.4089
6.68251 0.339109 -1.41062
6.68962 0.36055 -1.41235
6.69675 0.382044 -1.4141
6.70389 0.403591 -1.41587
6.71105 0.425192 -1.41766
6.71822 0.44685 -1.41946
6.7254 0.46856 -1.42128
6.7326 0.490327 -1.42312
6.74211 0.512324 -1.42547
6.76502 0.535452 -1.43066
6.79513 0.559328 -1.43739
6.8255 0.58343 -1.4442
6.85613 0.607757 -1.45108
6.88703 0.632315 -1.45803
6.91819 0.657107 -1.46506
6.94963 0.682136 -1.47216
6.98139 0.707411 -1.47935
7.03145 0.734814 -1.49044
7.08224 0.76263 -1.50171
7.13375 0.790863 -1.51315
7.18602 0.819526 -1.52478
7.23906 0.848628 -1.53659
7.16462 -0.833785 -1.58336
7.0442 -0.797342 -1.55619
6.96651 -0.766383 -1.53848
6.91752 -0.738999 -1.52715
6.88576 -0.713727 -1.51963
6.855 -0.688772 -1.51236
6.83163 -0.664746 -1.50673
6.81367 -0.64139 -1.50232
6.7958 -0.618168 -1.49794
6.77804 -0.595081 -1.49361
6.76036 -0.572127 -1.48931
6.74278 -0.549303 -1.48505
6.72861 -0.526869 -1.48156
6.71913 -0.504886 -1.47911
6.7112 -0.483085 -1.47702
6.70406 -0.461399 -1.47513
6.69694 -0.439768 -1.47325
6.68983 -0.418192 -1.47139
6.68273 -0.39667 -1.46955
6.67565 -0.375201 -1.46772
6.66858 -0.353783 -1.46592
6.66152 -0.332419 -1.46413
6.65664 -0.311208 -1.46283
6.6531 -0.290092 -1.46185
6.65091 -0.269059 -1.46117
6.64872 -0.248045 -1.46051
6.64652 -0.227047 -1.45987
6.64433 -0.20607 -1.45923
6.64213 -0.185111 -1.45862
6.63993 -0.164169 -1.45801
6.63772 -0.143244 -1.45742
6.63552 -0.122336 -1.45685
6.63331 -0.101444 -1.45629
6.6311 -0.0805657 -1.45574
6.62889 -0.059705 -1.4552
6.62725 -0.0388627 -1.45481
6.62607 -0.0180328 -1.45453
6.6251 0.00278946 -1.45432
6.62629 0.0236151 -1.45458
6.62748 0.0444471 -1.45487
6.62932 0.0652936 -1.45531
6.63154 0.086158 -1.45585
6.63375 0.107038 -1.4564
6.63597 0.127934 -1.45697
6.63818 0.148846 -1.45755
6.64039 0.169776 -1.45815
6.6426 0.190724 -1.45876
6.64481 0.211688 -1.45938
6.64701 0.23267 -1.46002
6.64922 0.25367 -1.46067
6.65142 0.27469 -1.46134
6.65362 0.29573 -1.46202
6.65752 0.316869 -1.46308
6.66295 0.338117 -1.4645
6.67002 0.359494 -1.4663
6.6771 0.380923 -1.46811
6.6842 0.402406 -1.46994
6.69131 0.423942 -1.47179
6.69843 0.445534 -1.47366
6.70557 0.467178 -1.47555
