ply
format ascii 1.0
comment Created by Open3D
element vertex 1792
property double x
property double y
property double z
end_header
-3.18411 -5.1589 -1.98094
-3.16203 -5.15925 -1.97726
-3.14002 -5.1596 -1.97361
-3.11809 -5.15996 -1.96999
-3.09625 -5.16031 -1.96641
-3.0745 -5.1607 -1.96287
-3.05288 -5.16115 -1.95939
-3.03133 -5.1616 -1.95594
-3.00985 -5.16205 -1.95253
-2.98845 -5.16249 -1.94914
-2.96712 -5.16294 -1.94578
-2.94587 -5.16338 -1.94246
-2.92469 -5.16383 -1.93916
-2.90351 -5.16414 -1.93585
-2.88237 -5.1644 -1.93255
-2.8613 -5.16465 -1.92928
-2.8403 -5.1649 -1.92603
-2.81937 -5.16515 -1.92282
-2.79851 -5.16541 -1.91963
-2.77772 -5.16566 -1.91648
-2.75699 -5.16591 -1.91335
-2.73634 -5.16616 -1.91026
-2.71576 -5.16641 -1.90719
-2.69523 -5.16666 -1.90415
-2.67478 -5.16691 -1.90115
-2.65439 -5.16717 -1.89816
-2.63406 -5.16742 -1.89521
-2.6138 -5.16767 -1.89229
-2.5936 -5.16792 -1.88939
-2.57346 -5.16817 -1.88652
-2.55338 -5.16842 -1.88368
-2.53337 -5.16867 -1.88086
-2.51307 -5.16822 -1.87782
-2.49284 -5.16778 -1.87481
-2.47268 -5.16734 -1.87183
-2.45258 -5.1669 -1.86888
-2.43254 -5.16646 -1.86595
-2.41256 -5.16603 -1.86305
-2.39265 -5.16559 -1.86017
-2.3728 -5.16515 -1.85733
-2.353 -5.16472 -1.85451
-2.33327 -5.16429 -1.85171
-2.3136 -5.16386 -1.84895
-2.29398 -5.16342 -1.84621
-2.31339 -5.25145 -1.87508
-2.33691 -5.35026 -1.90773
-2.34262 -5.40952 -1.92623
-2.26909 -5.28514 -1.8794
-2.1938 -5.15433 -1.83043
-2.17473 -5.15433 -1.828
-2.15571 -5.15433 -1.82559
-2.13674 -5.15434 -1.82321
-2.11781 -5.15434 -1.82085
-2.09894 -5.15434 -1.81851
-2.08011 -5.15434 -1.8162
-2.06133 -5.15434 -1.81391
-2.0426 -5.15434 -1.81165
-2.02392 -5.15434 -1.80941
-2.00528 -5.15434 -1.80719
-1.98668 -5.15434 -1.805
-1.96813 -5.15434 -1.80283
-1.94963 -5.15434 -1.80068
-1.93412 -5.16223 -1.80131
-1.92075 -5.1759 -1.80397
-1.90733 -5.18958 -1.80664
-1.89384 -5.20325 -1.80932
-3.99803 -5.15528 -2.19191
-3.97216 -5.15524 -2.18658
-3.94634 -5.1551 -2.18126
-3.92064 -5.15496 -2.17599
-3.89507 -5.15482 -2.17076
-3.86963 -5.15468 -2.16558
-3.8443 -5.15455 -2.16045
-3.8191 -5.15441 -2.15536
-3.79401 -5.15428 -2.15031
-3.76905 -5.15415 -2.14532
-3.7442 -5.15403 -2.14037
-3.71947 -5.1539 -2.13546
-3.69484 -5.15378 -2.1306
-3.67034 -5.15366 -2.12578
-3.64594 -5.15354 -2.121
-3.62162 -5.15338 -2.11625
-3.5974 -5.1532 -2.11153
-3.57332 -5.15308 -2.10687
-3.5497 -5.15346 -2.10247
-3.52618 -5.15385 -2.0981
-3.50275 -5.15423 -2.09377
-3.47942 -5.15461 -2.08948
-3.45619 -5.15499 -2.08523
-3.43305 -5.15537 -2.08102
-3.41003 -5.15578 -2.07686
-3.3871 -5.1562 -2.07273
-3.36426 -5.15661 -2.06865
-3.34151 -5.15701 -2.06459
-3.31885 -5.15742 -2.06058
-3.29627 -5.15783 -2.0566
-3.27379 -5.15823 -2.05266
-3.25138 -5.15863 -2.04875
-3.22907 -5.15903 -2.04487
-3.20684 -5.15944 -2.04103
-3.18468 -5.15981 -2.03722
-3.16258 -5.16017 -2.03343
-3.14057 -5.16052 -2.02968
-3.11864 -5.16087 -2.02596
-3.09679 -5.16122 -2.02227
-3.07505 -5.16161 -2.01864
-3.05341 -5.16206 -2.01506
-3.03186 -5.16251 -2.01151
-3.01038 -5.16296 -2.00799
-2.98897 -5.1634 -2.00451
-2.96764 -5.16385 -2.00106
-2.94638 -5.16429 -1.99764
-2.9252 -5.16473 -1.99425
-2.90408 -5.16517 -1.99089
-2.88304 -5.16561 -1.98757
-2.86207 -5.16605 -1.98427
-2.84117 -5.16649 -1.98101
-2.82033 -5.16692 -1.97777
-2.79956 -5.16734 -1.97456
-2.77876 -5.16759 -1.97132
-2.75802 -5.16784 -1.9681
-2.73736 -5.16809 -1.96491
-2.71677 -5.16834 -1.96176
-2.69624 -5.16859 -1.95863
-2.67577 -5.16883 -1.95554
-2.65537 -5.16908 -1.95247
-2.63504 -5.16933 -1.94943
-2.61477 -5.16958 -1.94642
-2.59456 -5.16983 -1.94344
-2.57441 -5.17007 -1.94049
-2.55432 -5.17032 -1.93756
-2.5343 -5.17057 -1.93467
-2.51383 -5.16978 -1.93141
-2.49305 -5.16821 -1.9279
-2.47234 -5.16664 -1.92441
-2.45215 -5.166 -1.92129
-2.43211 -5.16556 -1.91828
-2.41215 -5.16513 -1.9153
-2.39224 -5.16469 -1.91235
-2.37239 -5.16426 -1.90942
-2.3526 -5.16383 -1.90653
-2.33552 -5.16927 -1.90582
-2.35904 -5.26528 -1.93848
-2.38341 -5.36472 -1.97233
-2.27061 -5.15433 -1.89235
-2.25133 -5.15433 -1.88975
-2.2321 -5.15433 -1.88717
-2.21292 -5.15433 -1.88462
-2.1938 -5.15433 -1.8821
-2.17473 -5.15433 -1.8796
-2.15571 -5.15433 -1.87712
-2.13674 -5.15434 -1.87467
-2.11781 -5.15434 -1.87225
-2.09894 -5.15434 -1.86985
-2.08011 -5.15434 -1.86747
-2.06133 -5.15434 -1.86512
-2.0426 -5.15434 -1.86279
-2.02392 -5.15434 -1.86049
-2.00527 -5.15434 -1.85821
-1.98668 -5.15434 -1.85595
-1.96813 -5.15434 -1.85372
-1.94963 -5.15434 -1.85151
-1.93117 -5.15434 -1.84933
-1.91275 -5.15435 -1.84716
-1.89438 -5.15435 -1.84503
-1.87605 -5.15435 -1.84291
-3.99789 -5.15511 -2.25234
-3.97249 -5.15567 -2.24713
-3.9472 -5.15623 -2.24197
-3.92203 -5.15678 -2.23685
-3.89698 -5.15733 -2.23178
-3.87203 -5.15788 -2.22675
-3.8472 -5.15843 -2.22176
-3.82209 -5.15845 -2.2166
-3.79698 -5.15831 -2.21141
-3.77199 -5.15817 -2.20626
-3.74711 -5.15804 -2.20117
-3.72235 -5.1579 -2.19612
-3.69771 -5.15777 -2.19111
-3.67317 -5.15764 -2.18615
-3.64875 -5.15752 -2.18123
-3.6244 -5.15734 -2.17634
-3.60016 -5.15716 -2.17149
-3.57603 -5.15698 -2.16668
-3.552 -5.1568 -2.16191
-3.52808 -5.15662 -2.15718
-3.50426 -5.15645 -2.1525
-3.48055 -5.15627 -2.14786
-3.45703 -5.15625 -2.14332
-3.43389 -5.15662 -2.13899
-3.41084 -5.157 -2.1347
-3.38787 -5.15737 -2.13044
-3.365 -5.15775 -2.12622
-3.34223 -5.15812 -2.12205
-3.31953 -5.15849 -2.1179
-3.29693 -5.15886 -2.1138
-3.27442 -5.15923 -2.10973
-3.25199 -5.1596 -2.1057
-3.22965 -5.15996 -2.1017
-3.20739 -5.16033 -2.09774
-3.18522 -5.1607 -2.09382
-3.16313 -5.16106 -2.08993
-3.14112 -5.16142 -2.08608
-3.11919 -5.16179 -2.08226
-3.09735 -5.16215 -2.07848
-3.07553 -5.16241 -2.07469
-3.05395 -5.16298 -2.07105
-3.0324 -5.16342 -2.06741
-3.01091 -5.16387 -2.06379
-2.9895 -5.16431 -2.06021
-2.96817 -5.16476 -2.05667
-2.9469 -5.1652 -2.05315
-2.92571 -5.16564 -2.04967
-2.90459 -5.16608 -2.04622
-2.88355 -5.16652 -2.0428
-2.86257 -5.16695 -2.03941
-2.84166 -5.16739 -2.03605
-2.82082 -5.16782 -2.03273
-2.80005 -5.16826 -2.02943
-2.77935 -5.16869 -2.02617
-2.75871 -5.16912 -2.02293
-2.73814 -5.16955 -2.01973
-2.71763 -5.16998 -2.01656
-2.69719 -5.17041 -2.01342
-2.67677 -5.17076 -2.01027
-2.65636 -5.17101 -2.00712
-2.63602 -5.17125 -2.00399
-2.61574 -5.1715 -2.0009
-2.59552 -5.17174 -1.99783
-2.57536 -5.17199 -1.9948
-2.55527 -5.17223 -1.99179
-2.53523 -5.17248 -1.98881
-2.51463 -5.17144 -1.98537
-2.49384 -5.16986 -1.98175
-2.47313 -5.16829 -1.97816
-2.45249 -5.16672 -1.97461
-2.43193 -5.16517 -1.97109
-2.41172 -5.16422 -1.96783
-2.39182 -5.16379 -1.9648
-2.38149 -5.18409 -1.96967
-2.39902 -5.26573 -1.99782
-2.40056 -5.31322 -2.01297
-2.30933 -5.15433 -1.95002
-2.28994 -5.15433 -1.94729
-2.27061 -5.15433 -1.94459
-2.25133 -5.15433 -1.94192
-2.2321 -5.15433 -1.93927
-2.21292 -5.15433 -1.93665
-2.1938 -5.15433 -1.93406
-2.17473 -5.15433 -1.93149
-2.15571 -5.15433 -1.92894
-2.13674 -5.15434 -1.92643
-2.11781 -5.15434 -1.92393
-2.09894 -5.15434 -1.92147
-2.08011 -5.15434 -1.91902
-2.06133 -5.15434 -1.91661
-2.0426 -5.15434 -1.91422
-2.02392 -5.15434 -1.91185
-2.00528 -5.15434 -1.90951
-1.98668 -5.15434 -1.90719
-1.96813 -5.15434 -1.90489
-1.94963 -5.15434 -1.90263
-1.93117 -5.15434 -1.90038
-1.91275 -5.15435 -1.89816
-1.89438 -5.15435 -1.89596
-1.87605 -5.15435 -1.89379
-3.72456 -5.16096 -2.25679
-3.70038 -5.16149 -2.25194
-3.67603 -5.16166 -2.24697
-3.65158 -5.16152 -2.24191
-3.62721 -5.16134 -2.23688
-3.60294 -5.16114 -2.23188
-3.57878 -5.16095 -2.22693
-3.55473 -5.16076 -2.22203
-3.53078 -5.16058 -2.21717
-3.50694 -5.16039 -2.21235
-3.48321 -5.16021 -2.20758
-3.45957 -5.16003 -2.20285
-3.43604 -5.15986 -2.19816
-3.41261 -5.15968 -2.19352
-3.38928 -5.15951 -2.18891
-3.36604 -5.15934 -2.18435
-3.34304 -5.15937 -2.17991
-3.32034 -5.15974 -2.17566
-3.29773 -5.16011 -2.17144
-3.27521 -5.16048 -2.16726
-3.25278 -5.16084 -2.16312
-3.23043 -5.16121 -2.15901
-3.20817 -5.16157 -2.15494
-3.18599 -5.16193 -2.15091
-3.16389 -5.1623 -2.14692
-3.14188 -5.16266 -2.14296
-3.11994 -5.16302 -2.13903
-3.09809 -5.16338 -2.13515
-3.07614 -5.16345 -2.13117
-3.05416 -5.16333 -2.12716
-3.03227 -5.16321 -2.12318
-3.01046 -5.16309 -2.11924
-2.98872 -5.16297 -2.11533
-2.96728 -5.16321 -2.1116
-2.94612 -5.16383 -2.10807
-2.92504 -5.16444 -2.10456
-2.90402 -5.16506 -2.10109
-2.88307 -5.16567 -2.09765
-2.86219 -5.16627 -2.09424
-2.84138 -5.16688 -2.09086
-2.82063 -5.16748 -2.08751
-2.79995 -5.16808 -2.08419
-2.77934 -5.16867 -2.08091
-2.75879 -5.16927 -2.07765
-2.7383 -5.16986 -2.07443
-2.71787 -5.17044 -2.07123
-2.69751 -5.17103 -2.06806
-2.67721 -5.17161 -2.06493
-2.65695 -5.17216 -2.06181
-2.6367 -5.17258 -2.05867
-2.6165 -5.17301 -2.05556
-2.59636 -5.17343 -2.05248
-2.57629 -5.17385 -2.04943
-2.55622 -5.17416 -2.04637
-2.53618 -5.1744 -2.04331
-2.51544 -5.1731 -2.03967
-2.49464 -5.17152 -2.03595
-2.47389 -5.16987 -2.03224
-2.45315 -5.16811 -2.02851
-2.43248 -5.16635 -2.02481
-2.4119 -5.16459 -2.02115
-2.40192 -5.1856 -2.02641
-2.40346 -5.2319 -2.04155
-2.34827 -5.15433 -2.00839
-2.32877 -5.15433 -2.00554
-2.30933 -5.15433 -2.00271
-2.28994 -5.15433 -1.99991
-2.27061 -5.15433 -1.99713
-2.25133 -5.15433 -1.99439
-2.2321 -5.15433 -1.99167
-2.21292 -5.15433 -1.98898
-2.1938 -5.15433 -1.98631
-2.17473 -5.15433 -1.98367
-2.15571 -5.15433 -1.98106
-2.13674 -5.15434 -1.97848
-2.11781 -5.15434 -1.97592
-2.09894 -5.15434 -1.97338
-2.08011 -5.15434 -1.97088
-2.06133 -5.15434 -1.96839
-2.0426 -5.15434 -1.96594
-2.02392 -5.15434 -1.96351
-2.00528 -5.15434 -1.9611
-1.98668 -5.15434 -1.95872
-1.96813 -5.15434 -1.95636
-1.94963 -5.15434 -1.95403
-1.93117 -5.15434 -1.95173
-1.91275 -5.15435 -1.94945
-1.89438 -5.15435 -1.94719
-1.87604 -5.15435 -1.94496
-3.43867 -5.16381 -2.25806
-3.41521 -5.16363 -2.25329
-3.39186 -5.16344 -2.24855
-3.3686 -5.16327 -2.24386
-3.34545 -5.16309 -2.23922
-3.32238 -5.16291 -2.23461
-3.29941 -5.16274 -2.23004
-3.27654 -5.16257 -2.22552
-3.25376 -5.1624 -2.22103
-3.23121 -5.16246 -2.21669
-3.20894 -5.16282 -2.21251
-3.18676 -5.16318 -2.20837
-3.16465 -5.16354 -2.20426
-3.14263 -5.1639 -2.2002
-3.12069 -5.16426 -2.19617
-3.09883 -5.16462 -2.19218
-3.07685 -5.16463 -2.18807
-3.05486 -5.16451 -2.18395
-3.03296 -5.16438 -2.17986
-3.01114 -5.16426 -2.17581
-2.9894 -5.16414 -2.1718
-2.96774 -5.16402 -2.16783
-2.94616 -5.1639 -2.16388
-2.92466 -5.16378 -2.15998
-2.90323 -5.16366 -2.15611
-2.88189 -5.16354 -2.15227
-2.86091 -5.16396 -2.1487
-2.84011 -5.16457 -2.14523
-2.81938 -5.16517 -2.1418
-2.7987 -5.16577 -2.1384
-2.7781 -5.16637 -2.13503
-2.75756 -5.16697 -2.13169
-2.73708 -5.16756 -2.12838
-2.71667 -5.16815 -2.1251
-2.69632 -5.16874 -2.12186
-2.67603 -5.16933 -2.11864
-2.6558 -5.16991 -2.11545
-2.63563 -5.17049 -2.1123
-2.61552 -5.17107 -2.10917
-2.59547 -5.17164 -2.10607
-2.57547 -5.17221 -2.10301
-2.55554 -5.17278 -2.09997
-2.53565 -5.17334 -2.09695
-2.51559 -5.1734 -2.09377
-2.49469 -5.17162 -2.08987
-2.47388 -5.16985 -2.08601
-2.45314 -5.16808 -2.08218
-2.43247 -5.16632 -2.07839
-2.41188 -5.16457 -2.07463
-2.40788 -5.19848 -2.08521
-2.36782 -5.15433 -2.0645
-2.34827 -5.15433 -2.06154
-2.32877 -5.15433 -2.05861
-2.30933 -5.15433 -2.05571
-2.28994 -5.15433 -2.05283
-2.27061 -5.15433 -2.04999
-2.25133 -5.15433 -2.04717
-2.2321 -5.15433 -2.04438
-2.21292 -5.15433 -2.04161
-2.1938 -5.15433 -2.03888
-2.17473 -5.15433 -2.03617
-2.15571 -5.15433 -2.03349
-2.13673 -5.15434 -2.03084
-2.11781 -5.15434 -2.02821
-2.09893 -5.15434 -2.02561
-2.08011 -5.15434 -2.02303
-2.06133 -5.15434 -2.02049
-2.0426 -5.15434 -2.01796
-2.02392 -5.15434 -2.01547
-2.00527 -5.15434 -2.013
-1.98668 -5.15434 -2.01056
-1.96813 -5.15434 -2.00814
-1.94963 -5.15434 -2.00575
-1.93117 -5.15434 -2.00338
-1.91275 -5.15435 -2.00104
-1.89438 -5.15435 -1.99872
-1.87605 -5.15435 -1.99643
-3.16594 -5.16564 -2.26236
-3.14359 -5.16547 -2.25796
-3.12144 -5.16551 -2.25368
-3.09958 -5.16586 -2.24958
-3.07755 -5.16582 -2.24535
-3.05556 -5.16569 -2.24111
-3.03366 -5.16556 -2.23692
-3.01183 -5.16544 -2.23276
-2.99008 -5.16532 -2.22864
-2.96842 -5.16519 -2.22456
-2.94683 -5.16507 -2.22052
-2.92532 -5.16495 -2.21651
-2.90389 -5.16483 -2.21254
-2.88254 -5.16471 -2.2086
-2.86126 -5.16459 -2.2047
-2.84006 -5.16447 -2.20084
-2.81893 -5.16436 -2.19701
-2.79788 -5.16424 -2.19321
-2.77689 -5.16413 -2.18945
-2.75633 -5.16466 -2.186
-2.73586 -5.16526 -2.18261
-2.71546 -5.16585 -2.17925
-2.69512 -5.16644 -2.17593
-2.67484 -5.16703 -2.17263
-2.65462 -5.16762 -2.16936
-2.63446 -5.1682 -2.16613
-2.61436 -5.16878 -2.16292
-2.59432 -5.16936 -2.15975
-2.57434 -5.16993 -2.1566
-2.55441 -5.17051 -2.15349
-2.53451 -5.17101 -2.15038
-2.51457 -5.17132 -2.14721
-2.49468 -5.1716 -2.14407
-2.47387 -5.16983 -2.14011
-2.45313 -5.16806 -2.13618
-2.43246 -5.1663 -2.13229
-2.41231 -5.16547 -2.12881
-2.41391 -5.2115 -2.14465
-2.36782 -5.15433 -2.11806
-2.34827 -5.15433 -2.11502
-2.32877 -5.15433 -2.11201
-2.30933 -5.15433 -2.10903
-2.28994 -5.15433 -2.10608
-2.27061 -5.15433 -2.10316
-2.25133 -5.15433 -2.10027
-2.2321 -5.15433 -2.09741
-2.21292 -5.15433 -2.09457
-2.1938 -5.15433 -2.09177
-2.17473 -5.15433 -2.08899
-2.15571 -5.15433 -2.08624
-2.13673 -5.15434 -2.08351
-2.11781 -5.15434 -2.08082
-2.09894 -5.15434 -2.07815
-2.08011 -5.15434 -2.07551
-2.06133 -5.15434 -2.0729
-2.0426 -5.15434 -2.07031
-2.02392 -5.15434 -2.06775
-2.00528 -5.15434 -2.06522
-1.98668 -5.15434 -2.06271
-1.96813 -5.15434 -2.06023
-1.94963 -5.15434 -2.05777
-1.93117 -5.15434 -2.05535
-1.91275 -5.15435 -2.05294
-1.89438 -5.15435 -2.05057
-1.87605 -5.15435 -2.04821
-2.88319 -5.16589 -2.2653
-2.86191 -5.16576 -2.2613
-2.8407 -5.16565 -2.25734
-2.81957 -5.16553 -2.25341
-2.79851 -5.16541 -2.24952
-2.77752 -5.16529 -2.24566
-2.7566 -5.16518 -2.24184
-2.73576 -5.16506 -2.23805
-2.71498 -5.16495 -2.2343
-2.69428 -5.16483 -2.23059
-2.67365 -5.16472 -2.22691
-2.65344 -5.16531 -2.22356
-2.63329 -5.1659 -2.22024
-2.6132 -5.16648 -2.21696
-2.59317 -5.16706 -2.21371
-2.5732 -5.16764 -2.21049
-2.55328 -5.16822 -2.2073
-2.53337 -5.16867 -2.20408
-2.51343 -5.16898 -2.20084
-2.49356 -5.16928 -2.19763
-2.47375 -5.16959 -2.19445
-2.45312 -5.16804 -2.19052
-2.43245 -5.16628 -2.18653
-2.41835 -5.17842 -2.18844
-2.42001 -5.22466 -2.20477
-2.36782 -5.15433 -2.17194
-2.34827 -5.15433 -2.16882
-2.32877 -5.15433 -2.16574
-2.30933 -5.15433 -2.16269
-2.28994 -5.15433 -2.15966
-2.27061 -5.15433 -2.15667
-2.25133 -5.15433 -2.1537
-2.2321 -5.15433 -2.15077
-2.21293 -5.15433 -2.14786
-2.1938 -5.15433 -2.14498
-2.17473 -5.15433 -2.14213
-2.15571 -5.15433 -2.13931
-2.13674 -5.15434 -2.13652
-2.11781 -5.15434 -2.13375
-2.09894 -5.15434 -2.13102
-2.08011 -5.15434 -2.12831
-2.06133 -5.15434 -2.12563
-2.0426 -5.15434 -2.12298
-2.02392 -5.15434 -2.12035
-2.00528 -5.15434 -2.11775
-1.98668 -5.15434 -2.11518
-1.96813 -5.15434 -2.11264
-1.94963 -5.15434 -2.11012
-1.93117 -5.15434 -2.10763
-1.91275 -5.15435 -2.10517
-1.89438 -5.15435 -2.10273
-1.87605 -5.15435 -2.10032
-2.61273 -5.16554 -2.2719
-2.59235 -5.16543 -2.26826
-2.57205 -5.16533 -2.26467
-2.55214 -5.16591 -2.2614
-2.53221 -5.16631 -2.25809
-2.51229 -5.16662 -2.25477
-2.49243 -5.16693 -2.25148
-2.47263 -5.16724 -2.24822
-2.45288 -5.16755 -2.24499
-2.43244 -5.16625 -2.24111
-2.42447 -5.19152 -2.24876
-2.42618 -5.23798 -2.26558
-2.36782 -5.15433 -2.22617
-2.34827 -5.15433 -2.22298
-2.32877 -5.15433 -2.21981
-2.30933 -5.15433 -2.21668
-2.28994 -5.15433 -2.21358
-2.27061 -5.15433 -2.21051
-2.25133 -5.15433 -2.20747
-2.2321 -5.15433 -2.20447
-2.21293 -5.15433 -2.20149
-2.1938 -5.15433 -2.19854
-2.17473 -5.15433 -2.19562
-2.15571 -5.15433 -2.19272
-2.13674 -5.15434 -2.18986
-2.11781 -5.15434 -2.18703
-2.09894 -5.15434 -2.18422
-2.08011 -5.15434 -2.18145
-2.06133 -5.15434 -2.1787
-2.0426 -5.15434 -2.17598
-2.02392 -5.15434 -2.17329
-2.00528 -5.15434 -2.17063
-1.98668 -5.15434 -2.168
-1.96813 -5.15434 -2.16539
-1.94963 -5.15434 -2.16281
-1.93117 -5.15434 -2.16026
-1.91275 -5.15435 -2.15773
-1.89438 -5.15435 -2.15523
-1.87605 -5.15435 -2.15276
-2.34827 -5.15433 -2.27748
-2.32877 -5.15433 -2.27424
-2.30933 -5.15433 -2.27103
-2.28994 -5.15433 -2.26786
-2.27061 -5.15433 -2.26471
-2.25133 -5.15433 -2.2616
-2.2321 -5.15433 -2.25852
-2.21293 -5.15433 -2.25546
-2.1938 -5.15433 -2.25244
-2.17473 -5.15433 -2.24945
-2.15571 -5.15433 -2.24649
-2.13674 -5.15434 -2.24355
-2.11781 -5.15434 -2.24065
-2.09894 -5.15434 -2.23778
-2.08011 -5.15434 -2.23494
-2.06133 -5.15434 -2.23212
-2.0426 -5.15434 -2.22934
-2.02392 -5.15434 -2.22658
-2.00528 -5.15434 -2.22385
-1.98668 -5.15434 -2.22115
-1.96813 -5.15434 -2.21848
-1.94963 -5.15434 -2.21584
-1.93117 -5.15434 -2.21322
-1.91275 -5.15435 -2.21063
-1.89438 -5.15435 -2.20808
-1.87605 -5.15435 -2.20554
-2.30933 -5.15433 -2.32575
-2.28994 -5.15433 -2.3225
-2.27061 -5.15433 -2.31927
-2.25133 -5.15433 -2.31609
-2.2321 -5.15433 -2.31293
-2.21293 -5.15433 -2.3098
-2.1938 -5.15433 -2.30671
-2.17473 -5.15433 -2.30364
-2.15571 -5.15434 -2.30061
-2.13674 -5.15434 -2.29761
-2.11781 -5.15434 -2.29464
-2.09894 -5.15434 -2.29169
-2.08011 -5.15434 -2.28878
-2.06133 -5.15434 -2.2859
-2.0426 -5.15434 -2.28305
-2.02392 -5.15434 -2.28022
-2.00528 -5.15434 -2.27743
-1.98668 -5.15434 -2.27466
-1.96813 -5.15434 -2.27193
-1.94963 -5.15434 -2.26922
-1.93117 -5.15434 -2.26654
-1.91275 -5.15435 -2.26389
-1.89438 -5.15435 -2.26127
-1.87605 -5.15435 -2.25868
-2.28994 -5.15433 -2.37751
-2.27061 -5.15433 -2.37421
-2.25133 -5.15433 -2.37095
-2.2321 -5.15433 -2.36771
-2.21292 -5.15433 -2.36451
-2.1938 -5.15433 -2.36135
-2.17473 -5.15433 -2.35821
-2.15571 -5.15434 -2.3551
-2.13674 -5.15434 -2.35203
-2.11781 -5.15434 -2.34899
-2.09894 -5.15434 -2.34598
-2.08011 -5.15434 -2.343
-2.06133 -5.15434 -2.34004
-2.0426 -5.15434 -2.33712
-2.02392 -5.15434 -2.33423
-2.00528 -5.15434 -2.33137
-1.98668 -5.15434 -2.32854
-1.96813 -5.15434 -2.32574
-1.94963 -5.15434 -2.32297
-1.93117 -5.15435 -2.32023
-1.91275 -5.15435 -2.31752
-1.89438 -5.15435 -2.31484
-1.87605 -5.15435 -2.31218
-2.2321 -5.15433 -2.42289
-2.21293 -5.15433 -2.41961
-2.1938 -5.15433 -2.41637
-2.17473 -5.15433 -2.41316
-2.15571 -5.15434 -2.40998
-2.13674 -5.15434 -2.40684
-2.11781 -5.15434 -2.40372
-2.09894 -5.15434 -2.40064
-2.08011 -5.15434 -2.39759
-2.06133 -5.15434 -2.39457
-2.0426 -5.15434 -2.39158
-2.02392 -5.15434 -2.38863
-2.00528 -5.15434 -2.3857
-1.98668 -5.15434 -2.3828
-1.96813 -5.15434 -2.37994
-1.94963 -5.15434 -2.3771
-1.93117 -5.15435 -2.3743
-1.91275 -5.15435 -2.37152
-1.89438 -5.15435 -2.36878
-1.87605 -5.15435 -2.36606
-2.15571 -5.15434 -2.46526
-2.13674 -5.15434 -2.46204
-2.11781 -5.15434 -2.45885
-2.09894 -5.15434 -2.4557
-2.08011 -5.15434 -2.45258
-2.06133 -5.15434 -2.44949
-2.0426 -5.15434 -2.44644
-2.02392 -5.15434 -2.44341
-2.00528 -5.15434 -2.44042
-1.98668 -5.15434 -2.43745
-1.96813 -5.15434 -2.43452
-1.94963 -5.15434 -2.43162
-1.93117 -5.15435 -2.42875
-1.91275 -5.15435 -2.42591
-1.89438 -5.15435 -2.4231
-1.87605 -5.15435 -2.42033
-5.08882 -5.62636 -1.20802
-4.96097 -5.51966 -1.18176
-4.90683 -5.49393 -1.17296
-4.8584 -5.47413 -1.16548
-4.81633 -5.46108 -1.15948
-4.77722 -5.45106 -1.15417
-4.741 -5.44404 -1.14954
-5.80158 -5.87482 -1.38521
-5.71945 -5.82806 -1.36995
-5.65981 -5.80353 -1.36001
-5.60087 -5.77921 -1.3502
-5.54824 -5.76089 -1.34185
-5.50237 -5.74919 -1.33511
-5.45691 -5.73756 -1.32843
-5.40733 -5.72121 -1.32072
-5.13303 -5.46518 -1.2579
-5.0641 -5.42575 -1.24516
-5.02969 -5.42284 -1.24087
-4.99537 -5.41978 -1.23659
-4.96128 -5.41674 -1.23234
-4.92741 -5.41371 -1.22813
-4.89375 -5.41069 -1.22396
-4.86032 -5.40768 -1.21983
-4.83012 -5.40804 -1.2165
-4.80188 -5.41044 -1.21365
-4.77166 -5.41044 -1.21029
-4.74027 -5.4089 -1.20662
-4.70907 -5.40737 -1.20298
-5.75231 -5.57497 -1.41248
-5.70179 -5.56075 -1.40435
-5.65 -5.54488 -1.39586
-5.60355 -5.53386 -1.38866
-5.55755 -5.52293 -1.38154
-5.51198 -5.51206 -1.3745
-5.46681 -5.50125 -1.36753
-5.42206 -5.49052 -1.36063
-5.37774 -5.47985 -1.35381
-5.29835 -5.43289 -1.3381
-5.25328 -5.42055 -1.331
-5.20869 -5.40833 -1.32399
-5.16455 -5.39622 -1.31705
-5.12085 -5.38422 -1.3102
-5.08389 -5.379 -1.30505
-5.05264 -5.37959 -1.30135
-5.02056 -5.3791 -1.29742
-4.98645 -5.37621 -1.29295
-4.95257 -5.37334 -1.28852
-4.91891 -5.37048 -1.28414
-4.88547 -5.36763 -1.27979
-4.85498 -5.36782 -1.2762
-4.82623 -5.36974 -1.27306
-4.79785 -5.37192 -1.27001
-4.7702 -5.37475 -1.26714
-4.74208 -5.37689 -1.26413
-4.71097 -5.37547 -1.26032
-4.68005 -5.37405 -1.25655
-5.67118 -5.462 -1.45593
-5.62238 -5.44905 -1.44777
-5.5741 -5.43622 -1.43972
-5.52632 -5.42351 -1.43176
-5.47905 -5.41091 -1.4239
-5.43228 -5.39843 -1.41613
-5.39271 -5.39279 -1.41021
-5.3535 -5.38723 -1.40436
-5.31074 -5.37779 -1.39756
-5.26584 -5.36583 -1.39016
-5.22139 -5.35398 -1.38284
-5.17738 -5.34223 -1.37561
-5.13629 -5.33315 -1.36913
-5.10491 -5.33391 -1.36521
-5.0737 -5.33465 -1.36132
-5.04266 -5.33537 -1.35747
-5.01137 -5.33566 -1.35354
-4.97749 -5.33295 -1.3489
-4.94382 -5.33025 -1.34429
-4.91037 -5.32756 -1.33973
-4.87964 -5.32761 -1.33589
-4.85089 -5.32964 -1.33258
-4.82228 -5.33166 -1.3293
-4.7938 -5.33366 -1.32605
-4.76624 -5.33652 -1.32304
-4.73884 -5.33941 -1.32007
-4.71155 -5.34229 -1.31713
-4.68195 -5.34235 -1.31352
-4.6513 -5.34104 -1.30961
-5.60923 -5.36857 -1.50254
-5.56147 -5.35634 -1.49423
-5.51691 -5.34684 -1.48675
-5.47699 -5.34151 -1.4805
-5.43738 -5.33621 -1.4743
-5.39808 -5.33094 -1.46816
-5.35909 -5.3257 -1.46209
-5.32041 -5.32049 -1.45608
-5.27799 -5.31124 -1.44901
-5.23368 -5.29975 -1.4414
-5.18982 -5.28837 -1.43388
-5.15701 -5.28797 -1.42938
-5.12566 -5.28887 -1.42528
-5.09448 -5.28975 -1.42121
-5.06348 -5.29062 -1.41717
-5.03264 -5.29148 -1.41317
-5.00196 -5.29232 -1.40921
-4.96847 -5.28998 -1.40443
-4.93502 -5.28745 -1.39965
-4.90407 -5.2874 -1.39557
-4.87534 -5.28955 -1.3921
-4.84673 -5.29167 -1.38865
-4.81825 -5.29378 -1.38524
-4.78991 -5.29587 -1.38185
-4.76221 -5.29852 -1.37864
-4.73495 -5.30149 -1.37555
-4.7078 -5.30444 -1.37248
-4.68076 -5.30737 -1.36944
-4.65319 -5.30954 -1.36623
-4.62282 -5.30833 -1.36219
-5.61585 -5.3079 -1.56211
-5.56716 -5.295 -1.55318
-5.52126 -5.28439 -1.54498
-5.48157 -5.27938 -1.53849
-5.44218 -5.27441 -1.53207
-5.4031 -5.26945 -1.5257
-5.36433 -5.26452 -1.5194
-5.32585 -5.25962 -1.51317
-5.28768 -5.25474 -1.50699
-5.24558 -5.24566 -1.49967
-5.20894 -5.24176 -1.49388
-5.17746 -5.24282 -1.48955
-5.14615 -5.24387 -1.48526
-5.11501 -5.2449 -1.48101
-5.08403 -5.24591 -1.47679
-5.05323 -5.24691 -1.47261
-5.02259 -5.24789 -1.46846
-4.99211 -5.24886 -1.46435
-4.95941 -5.24729 -1.45957
-4.92829 -5.24719 -1.45525
-4.89955 -5.24945 -1.45161
-4.87095 -5.25169 -1.448
-4.84249 -5.25391 -1.44442
-4.81415 -5.25611 -1.44088
-4.78595 -5.25829 -1.43736
-4.75811 -5.26072 -1.43394
-4.73098 -5.26377 -1.43073
-4.70397 -5.2668 -1.42754
-4.67706 -5.2698 -1.42437
-4.65026 -5.27279 -1.42124
-4.62358 -5.27576 -1.41813
-4.59459 -5.27592 -1.4143
-5.66622 -5.32201 -1.63884
-5.60504 -5.29769 -1.62594
-5.55591 -5.2843 -1.61648
-5.50873 -5.27239 -1.60755
-5.46206 -5.2606 -1.59873
-5.4159 -5.24894 -1.59002
-5.37024 -5.2374 -1.58143
-5.32505 -5.22598 -1.57293
-5.28035 -5.21468 -1.56455
-5.23893 -5.20629 -1.5571
-5.2054 -5.20548 -1.55197
-5.17256 -5.20515 -1.54703
-5.13993 -5.20482 -1.54214
-5.10751 -5.20449 -1.5373
-5.07528 -5.20416 -1.5325
-5.04325 -5.20383 -1.52774
-5.0125 -5.20462 -1.52336
-4.98222 -5.20571 -1.5191
-4.95227 -5.20698 -1.51494
-4.92354 -5.20935 -1.51113
-4.89495 -5.2117 -1.50736
-4.86649 -5.21403 -1.50362
-4.83817 -5.21634 -1.4999
-4.80997 -5.21863 -1.49623
-4.78191 -5.2209 -1.49258
-4.75397 -5.22315 -1.48895
-4.72694 -5.22625 -1.48561
-4.70005 -5.22936 -1.4823
-4.67329 -5.23244 -1.47902
-4.64662 -5.23551 -1.47576
-4.62007 -5.23855 -1.47253
-4.59362 -5.24157 -1.46933
-4.56662 -5.2438 -1.46594
-5.71715 -5.33625 -1.71674
-5.65522 -5.31168 -1.70313
-5.59424 -5.28748 -1.68974
-5.54467 -5.27361 -1.67975
-5.49764 -5.26178 -1.67049
-5.45113 -5.25007 -1.66134
-5.40512 -5.23849 -1.65231
-5.3596 -5.22703 -1.6434
-5.3143 -5.21543 -1.63451
-5.26949 -5.20395 -1.62573
-5.22786 -5.19529 -1.6179
-5.1928 -5.19288 -1.61207
-5.15815 -5.19065 -1.60636
-5.12566 -5.19037 -1.6013
-5.09337 -5.19008 -1.59628
-5.06128 -5.1898 -1.59131
-5.02937 -5.18951 -1.58638
-4.99767 -5.18922 -1.5815
-4.96616 -5.18893 -1.57666
-4.93607 -5.18994 -1.57226
-4.90623 -5.19103 -1.56793
-4.87656 -5.19212 -1.56364
-4.84705 -5.1932 -1.55938
-4.81769 -5.19427 -1.55517
-4.7885 -5.19533 -1.55099
-4.75962 -5.19657 -1.5469
-4.7307 -5.19758 -1.54278
-4.70143 -5.19805 -1.53854
-4.67233 -5.19851 -1.53434
-4.64339 -5.19897 -1.53017
-4.61647 -5.20153 -1.52666
-4.59015 -5.20463 -1.52334
-4.56394 -5.2077 -1.52005
-4.53784 -5.21076 -1.51679
-5.76867 -5.35062 -1.79584
-5.70594 -5.32578 -1.78149
-5.64422 -5.30134 -1.7674
-5.58345 -5.27728 -1.75354
-5.53343 -5.26292 -1.743
-5.48656 -5.25117 -1.73341
-5.4402 -5.23955 -1.72393
-5.3941 -5.22781 -1.7145
-5.34846 -5.21616 -1.70518
-5.3033 -5.20463 -1.69598
-5.25863 -5.19323 -1.68688
-5.2168 -5.1843 -1.67867
-5.18185 -5.18192 -1.67264
-5.14714 -5.17957 -1.66666
-5.11268 -5.17722 -1.66075
-5.07926 -5.17571 -1.65515
-5.0473 -5.17547 -1.65001
-5.01552 -5.17522 -1.64491
-4.98395 -5.17498 -1.63986
-4.95285 -5.17503 -1.63496
-4.92298 -5.17617 -1.63044
-4.89326 -5.17731 -1.62596
-4.8637 -5.17843 -1.62152
-4.8343 -5.17954 -1.61712
-4.80539 -5.18101 -1.61287
-4.77672 -5.18256 -1.60869
-4.74819 -5.18409 -1.60454
-4.7191 -5.18484 -1.60019
-4.68994 -5.18534 -1.5958
-4.66094 -5.18584 -1.59145
-4.6321 -5.18633 -1.58714
-4.6034 -5.18681 -1.58287
-4.57485 -5.18728 -1.57863
-4.54646 -5.18775 -1.57443
-4.51942 -5.1896 -1.57069
-5.79304 -5.37322 -1.87265
-5.71335 -5.3327 -1.85228
-5.6354 -5.29306 -1.83237
-5.57266 -5.26708 -1.81732
-5.5222 -5.25224 -1.80622
-5.47524 -5.24034 -1.79623
-5.42876 -5.22853 -1.78634
-5.38278 -5.21684 -1.77658
-5.3373 -5.20528 -1.76694
-5.2923 -5.19384 -1.75742
-5.24778 -5.18251 -1.74802
-5.20574 -5.17331 -1.7394
-5.1709 -5.17098 -1.73317
-5.1363 -5.16867 -1.72699
-5.10196 -5.16637 -1.72087
-5.06785 -5.16408 -1.71482
-5.03398 -5.16181 -1.70882
-5.0017 -5.16096 -1.70334
-4.97026 -5.16076 -1.69813
-4.93967 -5.16126 -1.69319
-4.90991 -5.16243 -1.68853
-4.88039 -5.16369 -1.68393
-4.85137 -5.1653 -1.67949
-4.82251 -5.1669 -1.67509
-4.79379 -5.16849 -1.67073
-4.76521 -5.17007 -1.66641
-4.73673 -5.17158 -1.6621
-4.70751 -5.17212 -1.65753
-4.67846 -5.17265 -1.653
-4.64956 -5.17318 -1.6485
-4.62082 -5.1737 -1.64405
-4.59274 -5.1748 -1.63982
-4.56627 -5.17755 -1.63615
-4.53992 -5.18029 -1.63252
-4.51309 -5.18233 -1.6287
-5.74414 -5.36143 -1.93137
-5.66076 -5.31688 -1.90892
-5.56518 -5.26001 -1.88224
-5.51089 -5.24149 -1.86942
-5.46382 -5.22941 -1.859
-5.41729 -5.21748 -1.84872
-5.37147 -5.20588 -1.83864
-5.32615 -5.1944 -1.82868
-5.2813 -5.18304 -1.81885
-5.23693 -5.1718 -1.80914
-5.19468 -5.16232 -1.80013
-5.15996 -5.16004 -1.79368
-5.12547 -5.15777 -1.7873
-5.09124 -5.15551 -1.78099
-5.05724 -5.15327 -1.77473
-5.02347 -5.15104 -1.76854
-4.98994 -5.14882 -1.7624
-4.95663 -5.14661 -1.75632
-4.92677 -5.14778 -1.75144
-4.89755 -5.14944 -1.74678
-4.86849 -5.1511 -1.74216
-4.83957 -5.15274 -1.73758
-4.81081 -5.15437 -1.73304
-4.78219 -5.15599 -1.72854
-4.75371 -5.15759 -1.72408
-4.72505 -5.15883 -1.71954
-4.69594 -5.1594 -1.71482
-4.66699 -5.15997 -1.71014
-4.64005 -5.1626 -1.70619
-4.6134 -5.16539 -1.70232
-4.58686 -5.16817 -1.6985
-4.56043 -5.17093 -1.6947
-4.53413 -5.17368 -1.69094
-4.50624 -5.17446 -1.68657
-5.63797 -5.29547 -1.96955
-5.54794 -5.24372 -1.94383
-5.50035 -5.23146 -1.93289
-5.4533 -5.21934 -1.92209
-5.40689 -5.20747 -1.91147
-5.361 -5.19573 -1.90099
-5.3156 -5.18411 -1.89064
-5.27068 -5.17262 -1.88042
-5.22625 -5.16125 -1.87032
-5.18861 -5.15629 -1.86262
-5.19378 -5.19385 -1.87031
-5.19901 -5.23176 -1.87809
-5.20429 -5.27 -1.88595
-5.05816 -5.15421 -1.83883
-5.02657 -5.15421 -1.83321
-4.99516 -5.15421 -1.82763
-4.96395 -5.15421 -1.82211
-4.93293 -5.15421 -1.81664
-4.90209 -5.15422 -1.81122
-4.87144 -5.15422 -1.80585
-4.84096 -5.15422 -1.80053
-4.81565 -5.15956 -1.79712
-4.80508 -5.18067 -1.79922
-4.79446 -5.2018 -1.80134
-4.71462 -5.14743 -1.77739
-4.68764 -5.15028 -1.77329
-4.66079 -5.15312 -1.76923
-4.63406 -5.15593 -1.76521
-4.60746 -5.15874 -1.76122
-4.58097 -5.16153 -1.75726
-4.55459 -5.1643 -1.75334
-4.52726 -5.16584 -1.74904
-4.49938 -5.16659 -1.74451
-5.73582 -5.38738 -2.07352
-5.53725 -5.23362 -2.00766
-5.48982 -5.22144 -1.99638
-5.44292 -5.2094 -1.98525
-5.39653 -5.19749 -1.97426
-5.35075 -5.1858 -1.96344
-5.3055 -5.17426 -1.95277
-5.26072 -5.16284 -1.94223
-5.24131 -5.17613 -1.94104
-5.24672 -5.21403 -1.94908
-5.15413 -5.15421 -1.92068
-5.12194 -5.15421 -1.91469
-5.08995 -5.15421 -1.90876
-5.05816 -5.15421 -1.90288
-5.02657 -5.15421 -1.89706
-4.99516 -5.15421 -1.89129
-4.96395 -5.15421 -1.88558
-4.93293 -5.15421 -1.87992
-4.90209 -5.15422 -1.87431
-4.87144 -5.15422 -1.86875
-4.84096 -5.15422 -1.86324
-4.81067 -5.15422 -1.85779
-4.78055 -5.15422 -1.85238
-4.75061 -5.15422 -1.84703
-4.72084 -5.15422 -1.84172
-4.70427 -5.16855 -1.84156
-4.65474 -5.14643 -1.82848
-4.62806 -5.14926 -1.82432
-4.60151 -5.15208 -1.82021
-4.57506 -5.15488 -1.81612
-4.54829 -5.15717 -1.8119
-4.52033 -5.15794 -1.80719
-4.49251 -5.1587 -1.80252
-5.55056 -5.24619 -2.08051
-5.4962 -5.22751 -2.06627
-5.4426 -5.20909 -2.05224
-5.38972 -5.19093 -2.03842
-5.34055 -5.17591 -2.02595
-5.29539 -5.16441 -2.01494
-5.29504 -5.19652 -2.02099
-5.30069 -5.23476 -2.0294
-5.18652 -5.1542 -1.99186
-5.15413 -5.15421 -1.98561
-5.12194 -5.15421 -1.97942
-5.08995 -5.15421 -1.97328
-5.05816 -5.15421 -1.96721
-5.02657 -5.15421 -1.96119
-4.99516 -5.15421 -1.95523
-4.96395 -5.15421 -1.94932
-4.93293 -5.15421 -1.94347
-4.90209 -5.15422 -1.93767
-4.87144 -5.15422 -1.93193
-4.84096 -5.15422 -1.92623
-4.81067 -5.15422 -1.92059
-4.78055 -5.15422 -1.915
-4.75061 -5.15422 -1.90947
-4.72084 -5.15422 -1.90398
-4.69123 -5.15423 -1.89854
-4.6618 -5.15423 -1.89316
-4.63481 -5.15677 -1.88875
-4.59554 -5.1454 -1.8793
-4.56914 -5.14821 -1.87509
-4.54129 -5.14923 -1.87027
-4.51339 -5.15002 -1.86542
-4.48563 -5.1508 -1.8606
-5.51207 -5.2426 -2.1403
-5.4582 -5.22403 -2.12573
-5.4044 -5.20506 -2.11111
-5.35012 -5.18519 -2.09625
-5.31114 -5.17977 -2.08732
-5.31188 -5.21305 -2.09401
-5.21911 -5.1542 -2.0638
-5.18652 -5.1542 -2.05728
-5.15413 -5.15421 -2.05083
-5.12194 -5.15421 -2.04444
-5.08995 -5.15421 -2.0381
-5.05816 -5.15421 -2.03183
-5.02657 -5.15421 -2.02561
-4.99516 -5.15421 -2.01946
-4.96395 -5.15421 -2.01335
-4.93293 -5.15421 -2.00731
-4.90209 -5.15422 -2.00132
-4.87144 -5.15422 -1.99539
-4.84096 -5.15422 -1.98951
-4.81067 -5.15422 -1.98368
-4.78055 -5.15422 -1.97791
-4.75061 -5.15422 -1.97219
-4.72084 -5.15422 -1.96652
-4.69123 -5.15422 -1.96091
-4.6618 -5.15423 -1.95534
-4.63253 -5.15423 -1.94983
-4.60343 -5.15423 -1.94437
-4.59536 -5.17775 -1.9478
-4.53795 -5.14544 -1.93029
-4.50948 -5.14556 -1.92502
-4.48117 -5.14568 -1.91981
-5.4695 -5.23485 -2.1982
-5.41429 -5.21458 -2.18256
-5.35984 -5.19461 -2.16716
-5.31877 -5.18721 -2.15711
-5.31953 -5.22056 -2.16404
-5.21911 -5.1542 -2.12974
-5.18652 -5.1542 -2.12302
-5.15413 -5.15421 -2.11636
-5.12194 -5.15421 -2.10976
-5.08995 -5.15421 -2.10323
-5.05816 -5.15421 -2.09675
-5.02657 -5.15421 -2.09034
-4.99516 -5.15421 -2.08398
-4.96395 -5.15421 -2.07769
-4.93293 -5.15421 -2.07145
-4.90209 -5.15422 -2.06527
-4.87144 -5.15422 -2.05915
-4.84096 -5.15422 -2.05308
-4.81067 -5.15422 -2.04707
-4.78055 -5.15422 -2.04111
-4.75061 -5.15422 -2.03521
-4.72084 -5.15422 -2.02936
-4.69123 -5.15423 -2.02357
-4.6618 -5.15423 -2.01782
-4.63253 -5.15423 -2.01213
-4.60343 -5.15423 -2.0065
-4.57448 -5.15423 -2.00091
-4.55952 -5.1699 -2.00143
-4.50938 -5.14545 -1.98649
-4.48107 -5.14557 -1.98111
-5.32646 -5.19471 -2.22744
-5.32725 -5.22814 -2.23461
-5.21911 -5.1542 -2.19601
-5.18652 -5.1542 -2.18908
-5.15413 -5.15421 -2.18221
-5.12194 -5.15421 -2.17541
-5.08995 -5.15421 -2.16867
-5.05816 -5.15421 -2.16199
-5.02657 -5.15421 -2.15538
-4.99516 -5.15421 -2.14882
-4.96395 -5.15421 -2.14233
-4.93293 -5.15421 -2.1359
-4.90209 -5.15422 -2.12953
-4.87144 -5.15422 -2.12321
-4.84096 -5.15422 -2.11696
-4.81067 -5.15422 -2.11076
-4.78055 -5.15422 -2.10462
-4.75061 -5.15422 -2.09853
-4.72084 -5.15422 -2.0925
-4.69123 -5.15423 -2.08653
-4.6618 -5.15423 -2.0806
-4.63253 -5.15423 -2.07474
-4.60343 -5.15423 -2.06892
-4.57448 -5.15423 -2.06316
-4.54733 -5.15608 -2.05819
-4.54599 -5.18722 -2.06493
-4.48097 -5.14545 -2.0427
-5.21911 -5.1542 -2.2626
-5.18652 -5.1542 -2.25546
-5.15413 -5.15421 -2.24839
-5.12194 -5.15421 -2.24138
-5.08995 -5.15421 -2.23443
-5.05816 -5.15421 -2.22755
-5.02657 -5.15421 -2.22074
-4.99516 -5.15421 -2.21399
-4.96395 -5.15421 -2.2073
-4.93293 -5.15421 -2.20067
-4.90209 -5.15422 -2.19411
-4.87144 -5.15422 -2.1876
-4.84096 -5.15422 -2.18115
-4.81067 -5.15422 -2.17477
-4.78055 -5.15422 -2.16844
-4.7506 -5.15422 -2.16217
-4.72084 -5.15422 -2.15596
-4.69123 -5.15423 -2.1498
-4.6618 -5.15423 -2.1437
-4.63253 -5.15423 -2.13765
-4.60343 -5.15423 -2.13166
-4.57449 -5.15423 -2.12573
-4.5457 -5.15423 -2.11985
-4.5346 -5.17422 -2.12221
-4.53321 -5.20544 -2.12919
-5.18652 -5.1542 -2.32219
-5.15413 -5.15421 -2.3149
-5.12194 -5.15421 -2.30769
-5.08995 -5.15421 -2.30054
-5.05817 -5.15421 -2.29345
-5.02657 -5.15421 -2.28644
-4.99516 -5.15421 -2.27949
-4.96395 -5.15421 -2.2726
-4.93293 -5.15421 -2.26578
-4.90209 -5.15422 -2.25902
-4.87144 -5.15422 -2.25232
-4.84096 -5.15422 -2.24568
-4.81067 -5.15422 -2.23911
-4.78055 -5.15422 -2.23259
-4.75061 -5.15422 -2.22613
-4.72084 -5.15422 -2.21974
-4.69123 -5.15423 -2.2134
-4.6618 -5.15423 -2.20712
-4.63253 -5.15423 -2.20089
-4.60343 -5.15423 -2.19473
-4.57448 -5.15423 -2.18862
-4.5457 -5.15423 -2.18256
-4.54051 -5.18096 -2.18785
-4.54224 -5.2158 -2.19654
-5.12194 -5.15421 -2.37435
-5.08995 -5.15421 -2.36699
-5.05816 -5.15421 -2.3597
-5.02657 -5.15421 -2.35248
-4.99516 -5.15421 -2.34533
-4.96395 -5.15421 -2.33825
-4.93293 -5.15421 -2.33123
-4.90209 -5.15422 -2.32427
-4.87144 -5.15422 -2.31738
-4.84096 -5.15422 -2.31055
-4.81067 -5.15422 -2.30379
-4.78055 -5.15422 -2.29708
-4.75061 -5.15422 -2.29044
-4.72084 -5.15422 -2.28386
-4.69123 -5.15423 -2.27734
-4.6618 -5.15423 -2.27087
-4.63253 -5.15423 -2.26447
-4.60343 -5.15423 -2.25813
-4.57448 -5.15423 -2.25184
-4.55268 -5.16214 -2.24905
-4.55445 -5.19688 -2.25796
-4.55625 -5.23189 -2.26696
-5.05816 -5.15421 -2.42631
-5.02657 -5.15421 -2.41889
-4.99516 -5.15421 -2.41154
-4.96395 -5.15421 -2.40425
-4.93293 -5.15422 -2.39703
-4.90209 -5.15422 -2.38988
-4.87144 -5.15422 -2.38279
-4.84096 -5.15422 -2.37577
-4.81067 -5.15422 -2.36882
-4.78055 -5.15422 -2.36192
-4.75061 -5.15422 -2.35509
-4.72084 -5.15422 -2.34833
-4.69123 -5.15423 -2.34162
-4.6618 -5.15423 -2.33498
-4.63253 -5.15423 -2.32839
-4.60343 -5.15423 -2.32187
-4.5887 -5.17025 -2.3226
-4.59703 -5.21244 -2.33507
-4.60548 -5.25511 -2.34771
-4.61405 -5.29826 -2.36052
-4.96395 -5.15421 -2.47062
-4.93293 -5.15422 -2.46321
-4.90209 -5.15422 -2.45586
-4.87144 -5.15422 -2.44858
-4.84096 -5.15422 -2.44136
-4.81067 -5.15422 -2.43421
-4.78055 -5.15422 -2.42713
-4.75061 -5.15422 -2.42011
-4.72084 -5.15422 -2.41316
-4.69123 -5.15423 -2.40627
-4.6618 -5.15423 -2.39944
-4.64444 -5.16748 -2.39882
-4.70051 -5.26292 -2.43628
-4.40259 -6.16729 -1.01362
-4.38181 -6.17927 -1.01331
-4.36095 -6.19112 -1.013
-4.34003 -6.20285 -1.01267
-4.31902 -6.21443 -1.01233
-4.29794 -6.22587 -1.01198
-4.27676 -6.23715 -1.01162
-4.25552 -6.2483 -1.01125
-4.23421 -6.25931 -1.01087
-4.21282 -6.27019 -1.01048
-4.19135 -6.28091 -1.01007
-4.16981 -6.29149 -1.00965
-4.1482 -6.30193 -1.00923
-4.21199 -6.44296 -1.02968
-4.2209 -6.50125 -1.03686
-4.22951 -6.55967 -1.04405
-4.8662 -6.05841 -1.10528
-4.78755 -5.99912 -1.09171
-4.71171 -5.94241 -1.07868
-4.63754 -5.88688 -1.06594
-4.56501 -5.83252 -1.05349
-4.50497 -5.79335 -1.04384
-4.45511 -5.76664 -1.03649
-4.40931 -5.74469 -1.03005
-4.38447 -5.74975 -1.02847
-4.35968 -5.75477 -1.0269
-4.33493 -5.75972 -1.02535
-4.31023 -5.76463 -1.0238
-4.2852 -5.76897 -1.02216
-4.26006 -5.77305 -1.0205
-4.23497 -5.77707 -1.01885
-4.20994 -5.78104 -1.0172
-4.18495 -5.78496 -1.01557
-4.16003 -5.78883 -1.01394
-4.13515 -5.79266 -1.01232
-4.11033 -5.79643 -1.01071
-4.08556 -5.80016 -1.00911
-4.06084 -5.80383 -1.00752
-4.03618 -5.80746 -1.00594
-4.01157 -5.81104 -1.00436
-3.98701 -5.81458 -1.0028
-3.9625 -5.81806 -1.00124
-3.93804 -5.8215 -0.99969
-3.91382 -5.82518 -0.998198
-3.89021 -5.82964 -0.996857
-3.86663 -5.83404 -0.995521
-3.84307 -5.83838 -0.994189
-3.8194 -5.84243 -0.992824
-3.79549 -5.84599 -0.991391
-3.7768 -5.85755 -0.991329
-3.7599 -5.87188 -0.991743
-3.74295 -5.88619 -0.992163
-3.72597 -5.90047 -0.992586
-3.70895 -5.91473 -0.993013
-3.6919 -5.92897 -0.993445
-3.6748 -5.94318 -0.993881
-3.65768 -5.95737 -0.994321
-3.64051 -5.97153 -0.994765
-3.6233 -5.98567 -0.995214
-4.9284 -5.75459 -1.14199
-4.85228 -5.702 -1.12851
-4.79982 -5.67649 -1.12046
-4.74803 -5.65127 -1.11252
-4.6969 -5.62633 -1.10469
-4.64642 -5.60165 -1.09697
-4.59659 -5.57725 -1.08934
-4.54737 -5.5531 -1.08182
-4.5004 -5.53122 -1.07479
-4.46308 -5.5208 -1.07003
-4.42831 -5.51324 -1.06585
-4.39929 -5.51261 -1.06304
-4.37326 -5.51555 -1.06095
-4.34731 -5.51847 -1.05887
-4.32146 -5.52135 -1.05681
-4.29568 -5.52421 -1.05475
-4.27 -5.52703 -1.05272
-4.24439 -5.52983 -1.0507
-4.21887 -5.53259 -1.04869
-4.19343 -5.53532 -1.0467
-4.16814 -5.53811 -1.04474
-4.14463 -5.54315 -1.04322
-4.12116 -5.54814 -1.04171
-4.09773 -5.55307 -1.0402
-4.07435 -5.55795 -1.03871
-4.051 -5.56279 -1.03722
-4.02769 -5.56757 -1.03574
-4.00442 -5.5723 -1.03427
-3.98118 -5.57697 -1.0328
-3.95799 -5.5816 -1.03134
-3.93484 -5.58618 -1.02989
-3.91172 -5.59071 -1.02845
-3.88827 -5.59464 -1.02691
-3.86478 -5.59841 -1.02536
-3.84134 -5.60213 -1.02382
-3.81794 -5.60581 -1.02229
-3.79459 -5.60944 -1.02077
-3.77586 -5.61984 -1.02049
-3.75758 -5.63089 -1.02034
-3.73929 -5.64192 -1.0202
-3.72099 -5.65291 -1.02006
-3.70268 -5.66387 -1.01993
-3.68435 -5.6748 -1.0198
-3.66601 -5.6857 -1.01968
-3.64765 -5.69658 -1.01956
-3.62927 -5.70742 -1.01945
-3.61089 -5.71822 -1.01934
-3.59249 -5.729 -1.01924
-3.57407 -5.73975 -1.01914
-3.55565 -5.75046 -1.01905
-3.5372 -5.76115 -1.01896
-3.51875 -5.77181 -1.01888
-3.50027 -5.78243 -1.0188
-5.00543 -5.55474 -1.19065
-4.92762 -5.50317 -1.17626
-4.87762 -5.48199 -1.16845
-4.8319 -5.46519 -1.16161
-4.79204 -5.45466 -1.15616
-4.75471 -5.4467 -1.15129
-4.71873 -5.43999 -1.14672
-4.68735 -5.43834 -1.14326
-4.65615 -5.4367 -1.13982
-4.62513 -5.43506 -1.13641
-4.59429 -5.43343 -1.13304
-4.56363 -5.4318 -1.12969
-4.53314 -5.43017 -1.12638
-4.50283 -5.42854 -1.12309
-4.47269 -5.42692 -1.11983
-4.44272 -5.4253 -1.11661
-4.41493 -5.42617 -1.11392
-4.38737 -5.42715 -1.11127
-4.35994 -5.42812 -1.10865
-4.33263 -5.42907 -1.10605
-4.30544 -5.43002 -1.10347
-4.27837 -5.43095 -1.10092
-4.25143 -5.43188 -1.09839
-4.2246 -5.4328 -1.09587
-4.1979 -5.43371 -1.09338
-4.17131 -5.43461 -1.09091
-4.14483 -5.43549 -1.08846
-4.11847 -5.43637 -1.08603
-4.09222 -5.43724 -1.08363
-4.06609 -5.4381 -1.08124
-4.04077 -5.4399 -1.07906
-4.0163 -5.44272 -1.0771
-3.99191 -5.44551 -1.07516
-3.9676 -5.44826 -1.07323
-3.94336 -5.45099 -1.07131
-3.91919 -5.45369 -1.06941
-3.89509 -5.45637 -1.06752
-3.87106 -5.45902 -1.06565
-3.84711 -5.46163 -1.06379
-3.82323 -5.46423 -1.06194
-3.79941 -5.46679 -1.06011
-3.77567 -5.46933 -1.05828
-3.75382 -5.4745 -1.05699
-3.73295 -5.48102 -1.05597
-3.71211 -5.48752 -1.05497
-3.6913 -5.49398 -1.05397
-3.67051 -5.50041 -1.05298
-3.64976 -5.50682 -1.05199
-3.62903 -5.5132 -1.05102
-3.60832 -5.51954 -1.05006
-3.58765 -5.52586 -1.04911
-3.56783 -5.53345 -1.04841
-3.54995 -5.544 -1.04828
-3.53205 -5.55452 -1.04816
-3.51414 -5.56501 -1.04804
-3.49621 -5.57547 -1.04793
-3.47828 -5.5859 -1.04783
-3.46033 -5.5963 -1.04773
-3.44236 -5.60668 -1.04763
-3.42438 -5.61702 -1.04754
-3.40639 -5.62734 -1.04746
-5.75723 -5.8483 -1.37682
-5.68899 -5.81554 -1.36488
-5.62936 -5.79098 -1.35494
-5.57047 -5.76664 -1.34514
-5.52399 -5.75471 -1.33828
-5.47806 -5.74298 -1.33154
-5.4308 -5.72949 -1.32443
-5.1849 -5.5047 -1.26869
-5.08347 -5.43122 -1.24805
-5.04493 -5.42419 -1.24278
-5.01028 -5.42111 -1.23845
-4.97588 -5.41804 -1.23416
-4.9417 -5.41499 -1.22991
-4.90776 -5.41194 -1.2257
-4.87403 -5.40891 -1.22153
-4.84178 -5.4073 -1.21771
-4.81298 -5.40935 -1.21475
-4.78402 -5.41104 -1.21174
-4.75236 -5.4095 -1.20803
-4.72089 -5.40795 -1.20436
-4.6896 -5.40642 -1.20072
-4.65851 -5.40488 -1.19711
-4.62758 -5.40335 -1.19353
-4.59684 -5.40182 -1.18999
-4.56627 -5.40029 -1.18648
-4.53588 -5.39877 -1.183
-4.50566 -5.39724 -1.17955
-4.47561 -5.39572 -1.17612
-4.44605 -5.39459 -1.17282
-4.41844 -5.39565 -1.17001
-4.39095 -5.3967 -1.16724
-4.3636 -5.39774 -1.16448
-4.33637 -5.39877 -1.16175
-4.30926 -5.39979 -1.15904
-4.28228 -5.4008 -1.15635
-4.25541 -5.4018 -1.15369
-4.22866 -5.40279 -1.15105
-4.20203 -5.40377 -1.14843
-4.17552 -5.40474 -1.14583
-4.14912 -5.4057 -1.14326
-4.12283 -5.40664 -1.14071
-4.09666 -5.40758 -1.13817
-4.0706 -5.40851 -1.13566
-4.04465 -5.40943 -1.13317
-4.01881 -5.41034 -1.13071
-3.99308 -5.41124 -1.12826
-3.96745 -5.41213 -1.12583
-3.94193 -5.41301 -1.12342
-3.91651 -5.41389 -1.12104
-3.8912 -5.41475 -1.11867
-3.86599 -5.4156 -1.11633
-3.84088 -5.41645 -1.114
-3.81592 -5.41735 -1.11171
-3.79117 -5.41841 -1.10947
-3.76651 -5.41945 -1.10724
-3.74199 -5.42054 -1.10505
-3.71763 -5.42172 -1.1029
-3.69335 -5.42288 -1.10076
-3.66917 -5.42404 -1.09864
-3.64508 -5.4252 -1.09654
-3.62108 -5.42634 -1.09446
-3.59716 -5.42747 -1.0924
-3.57333 -5.42859 -1.09035
-3.54959 -5.4297 -1.08832
-3.52593 -5.4308 -1.08631
-3.50236 -5.4319 -1.08432
-3.48159 -5.43724 -1.08319
-3.46181 -5.44406 -1.08237
-3.44204 -5.45084 -1.08155
-3.42229 -5.45759 -1.08075
-3.40256 -5.4643 -1.07995
-3.38284 -5.47099 -1.07916
-3.36314 -5.47764 -1.07837
-3.34345 -5.48426 -1.0776
-3.32377 -5.49085 -1.07683
-5.73015 -5.56951 -1.40901
-5.67749 -5.55324 -1.40035
-5.62803 -5.53967 -1.39245
-5.5815 -5.52863 -1.38525
-5.53542 -5.51765 -1.37812
-5.48977 -5.50675 -1.37107
-5.44454 -5.49591 -1.36409
-5.39972 -5.48515 -1.35719
-5.3529 -5.47197 -1.34975
-5.27507 -5.42652 -1.33443
-5.22998 -5.41417 -1.32733
-5.18535 -5.40193 -1.32032
-5.14117 -5.38981 -1.31339
-5.09832 -5.37872 -1.30677
-5.0668 -5.37932 -1.30303
-5.03545 -5.37992 -1.29932
-5.00148 -5.37749 -1.29492
-4.96729 -5.37459 -1.29045
-4.93333 -5.37171 -1.28601
-4.89958 -5.36884 -1.28162
-4.86701 -5.36701 -1.27752
-4.83802 -5.36895 -1.27435
-4.80917 -5.37088 -1.2712
-4.78119 -5.37362 -1.26828
-4.75345 -5.37646 -1.2654
-4.72295 -5.37602 -1.26179
-4.69176 -5.37459 -1.25798
-4.66076 -5.37316 -1.2542
-4.62994 -5.37174 -1.25045
-4.59929 -5.37031 -1.24674
-4.56882 -5.36889 -1.24306
-4.53852 -5.36747 -1.23941
-4.50839 -5.36605 -1.2358
-4.47843 -5.36463 -1.23222
-4.44937 -5.36409 -1.22887
-4.42185 -5.36523 -1.22593
-4.39444 -5.36636 -1.22301
-4.36717 -5.36747 -1.22012
-4.34002 -5.36857 -1.21726
-4.31299 -5.36967 -1.21442
-4.28609 -5.37075 -1.2116
-4.25929 -5.37182 -1.20881
-4.23262 -5.37288 -1.20604
-4.20607 -5.37393 -1.2033
-4.17963 -5.37497 -1.20057
-4.15331 -5.376 -1.19787
-4.1271 -5.37701 -1.1952
-4.10101 -5.37802 -1.19254
-4.07502 -5.37902 -1.18991
-4.04914 -5.38 -1.1873
-4.02338 -5.38098 -1.18471
-3.99772 -5.38195 -1.18214
-3.97217 -5.3829 -1.1796
-3.94671 -5.38385 -1.17707
-3.92138 -5.3848 -1.17457
-3.8963 -5.38595 -1.17214
-3.87132 -5.38709 -1.16973
-3.84644 -5.38823 -1.16733
-3.82166 -5.38935 -1.16496
-3.79698 -5.39046 -1.16261
-3.77239 -5.39156 -1.16028
-3.74789 -5.39266 -1.15796
-3.72356 -5.39385 -1.15569
-3.69936 -5.39507 -1.15345
-3.67524 -5.39629 -1.15123
-3.65122 -5.39749 -1.14903
-3.62727 -5.39869 -1.14684
-3.60342 -5.39987 -1.14468
-3.57965 -5.40105 -1.14253
-3.55597 -5.40221 -1.1404
-3.53237 -5.40337 -1.13829
-3.50886 -5.40452 -1.13619
-3.48543 -5.40565 -1.13412
-3.46208 -5.40678 -1.13206
-3.43882 -5.4079 -1.13002
-3.41563 -5.40901 -1.12799
-3.39252 -5.4101 -1.12599
-3.36949 -5.41119 -1.124
-3.34654 -5.41228 -1.12203
-3.3238 -5.41358 -1.12012
-3.30163 -5.41567 -1.11839
-3.28021 -5.41889 -1.11692
-5.69839 -5.46922 -1.46048
-5.64899 -5.45612 -1.45222
-5.60012 -5.44314 -1.44406
-5.55179 -5.43029 -1.436
-5.50395 -5.41755 -1.42804
-5.45663 -5.40493 -1.42017
-5.41304 -5.39566 -1.41325
-5.37344 -5.39006 -1.40733
-5.33353 -5.38386 -1.40132
-5.28811 -5.37176 -1.39383
-5.24315 -5.35978 -1.38642
-5.19866 -5.34791 -1.37911
-5.15462 -5.33615 -1.37188
-5.11971 -5.33355 -1.36706
-5.08823 -5.3343 -1.36313
-5.05692 -5.33504 -1.35924
-5.02577 -5.33576 -1.35538
-4.99263 -5.33416 -1.35097
-4.95866 -5.33144 -1.34632
-4.9249 -5.32873 -1.34171
-4.89202 -5.32673 -1.33732
-4.86303 -5.32879 -1.33398
-4.83419 -5.33082 -1.33067
-4.80548 -5.33284 -1.32738
-4.77735 -5.33535 -1.32425
-4.74973 -5.33827 -1.32125
-4.72224 -5.34116 -1.31828
-4.69382 -5.34286 -1.31504
-4.66291 -5.34154 -1.31109
-4.63219 -5.34022 -1.30718
-4.60164 -5.3389 -1.3033
-4.57126 -5.33758 -1.29945
-4.54105 -5.33626 -1.29564
-4.51102 -5.33494 -1.29186
-4.48115 -5.33363 -1.28812
-4.4526 -5.33369 -1.28474
-4.42516 -5.3349 -1.28166
-4.39785 -5.3361 -1.27862
-4.37065 -5.33729 -1.27559
-4.34357 -5.33847 -1.2726
-4.31662 -5.33963 -1.26963
-4.28979 -5.34079 -1.26668
-4.26309 -5.34193 -1.26376
-4.23649 -5.34306 -1.26086
-4.21001 -5.34418 -1.25799
-4.18366 -5.34529 -1.25514
-4.15741 -5.34639 -1.25231
-4.13128 -5.34747 -1.24951
-4.10525 -5.34855 -1.24673
-4.07935 -5.34961 -1.24398
-4.05354 -5.35067 -1.24125
-4.02785 -5.35171 -1.23854
-4.0024 -5.35293 -1.23589
-3.97709 -5.35417 -1.23328
-3.95188 -5.35541 -1.23069
-3.92676 -5.35664 -1.22812
-3.90175 -5.35785 -1.22558
-3.87684 -5.35905 -1.22305
-3.85203 -5.36024 -1.22055
-3.82731 -5.36143 -1.21806
-3.80269 -5.3626 -1.2156
-3.77817 -5.36376 -1.21316
-3.75374 -5.36491 -1.21074
-3.72941 -5.36607 -1.20834
-3.70527 -5.36735 -1.20599
-3.68122 -5.36862 -1.20366
-3.65725 -5.36988 -1.20136
-3.63338 -5.37113 -1.19907
-3.60959 -5.37236 -1.1968
-3.58589 -5.37359 -1.19455
-3.56227 -5.37481 -1.19232
-3.53873 -5.37602 -1.19011
-3.51528 -5.37722 -1.18791
-3.49191 -5.37841 -1.18574
-3.46862 -5.37959 -1.18358
-3.44542 -5.38075 -1.18144
-3.42229 -5.38191 -1.17932
-3.39924 -5.38306 -1.17722
-3.37632 -5.38427 -1.17515
-3.3536 -5.38567 -1.17315
-3.33095 -5.38706 -1.17116
-3.30836 -5.38843 -1.16918
-3.28594 -5.38994 -1.16726
-3.26465 -5.39318 -1.16572
-5.63615 -5.37546 -1.50723
-5.58781 -5.36309 -1.49881
-5.53998 -5.35083 -1.4905
-5.49852 -5.34439 -1.48387
-5.45851 -5.33904 -1.4776
-5.41879 -5.33372 -1.4714
-5.3794 -5.32843 -1.46525
-5.34032 -5.32317 -1.45917
-5.30074 -5.31713 -1.45293
-5.25593 -5.30552 -1.44522
-5.21157 -5.29402 -1.43761
-5.17246 -5.28752 -1.43141
-5.14084 -5.28843 -1.42726
-5.10939 -5.28933 -1.42315
-5.07811 -5.29021 -1.41907
-5.047 -5.29108 -1.41503
-5.01606 -5.29193 -1.41103
-4.98373 -5.29113 -1.40662
-4.94997 -5.28858 -1.40179
-4.91681 -5.28645 -1.39711
-4.88783 -5.28862 -1.3936
-4.85899 -5.29076 -1.39013
-4.83028 -5.29289 -1.38668
-4.80171 -5.295 -1.38326
-4.77344 -5.29729 -1.37992
-4.74596 -5.30029 -1.3768
-4.71859 -5.30326 -1.3737
-4.69134 -5.30622 -1.37063
-4.66421 -5.30915 -1.36758
-4.63433 -5.30879 -1.36372
-4.60387 -5.30758 -1.35967
-4.5736 -5.30636 -1.35567
-4.54348 -5.30515 -1.35169
-4.51354 -5.30393 -1.34775
-4.48377 -5.30271 -1.34384
-4.45574 -5.30338 -1.34044
-4.42837 -5.30466 -1.33723
-4.40113 -5.30594 -1.33405
-4.37403 -5.3072 -1.3309
-4.34703 -5.30845 -1.32777
-4.32016 -5.30969 -1.32467
-4.29341 -5.31092 -1.32159
-4.26678 -5.31213 -1.31854
-4.24026 -5.31333 -1.31551
-4.21386 -5.31452 -1.31251
-4.18758 -5.3157 -1.30954
-4.16141 -5.31687 -1.30659
-4.13535 -5.31802 -1.30366
-4.10951 -5.31931 -1.3008
-4.08385 -5.32066 -1.29797
-4.05829 -5.32201 -1.29518
-4.03284 -5.32334 -1.2924
-4.00749 -5.32466 -1.28965
-3.98224 -5.32597 -1.28692
-3.9571 -5.32726 -1.28421
-3.93206 -5.32855 -1.28153
-3.90711 -5.32982 -1.27887
-3.88227 -5.33109 -1.27623
-3.85752 -5.33234 -1.27361
-3.83287 -5.33358 -1.27102
-3.80831 -5.33481 -1.26844
-3.78385 -5.33603 -1.26589
-3.75948 -5.33724 -1.26336
-3.73521 -5.33843 -1.26085
-3.71108 -5.3397 -1.25838
-3.6871 -5.34102 -1.25595
-3.6632 -5.34234 -1.25354
-3.63938 -5.34364 -1.25114
-3.61566 -5.34493 -1.24877
-3.59202 -5.34622 -1.24642
-3.56846 -5.34749 -1.24409
-3.54499 -5.34875 -1.24178
-3.5216 -5.35 -1.23948
