ply
format ascii 1.0
comment Created by Open3D
element vertex 1867
property double x
property double y
property double z
end_header
-3.33774 2.15017 -1.3708
-3.34243 2.13834 -1.36995
-3.3476 2.12684 -1.36932
-3.35275 2.11534 -1.3687
-3.35789 2.10384 -1.36809
-3.363 2.09235 -1.36749
-3.36796 2.08077 -1.36683
-3.37274 2.06909 -1.36613
-3.37751 2.05742 -1.36543
-3.38225 2.04575 -1.36474
-3.38697 2.03409 -1.36406
-3.39168 2.02243 -1.36338
-3.39637 2.01077 -1.36272
-3.40104 1.99912 -1.36206
-3.4057 1.98747 -1.36142
-3.41033 1.97582 -1.36078
-3.41495 1.96417 -1.36015
-3.41955 1.95253 -1.35953
-3.42413 1.94089 -1.35892
-3.4287 1.92926 -1.35831
-3.43325 1.91762 -1.35772
-3.43778 1.90599 -1.35713
-3.44229 1.89437 -1.35656
-3.44678 1.88274 -1.35599
-3.45126 1.87112 -1.35543
-3.45572 1.85949 -1.35488
-3.46017 1.84787 -1.35433
-3.4646 1.83626 -1.3538
-3.47331 1.82691 -1.35495
-3.48603 1.81962 -1.35767
-3.49879 1.8123 -1.36042
-3.51159 1.80495 -1.36318
-3.52418 1.79743 -1.36587
-3.53601 1.78947 -1.36826
-3.54787 1.78148 -1.37068
-3.55985 1.7735 -1.37315
-3.57309 1.76609 -1.3761
-3.58638 1.75864 -1.37908
-3.60143 1.75199 -1.38275
-3.62176 1.74782 -1.38843
-3.64225 1.74361 -1.39418
-3.6629 1.73935 -1.39998
-3.68371 1.73505 -1.40584
-3.70468 1.73072 -1.41176
-3.72582 1.72633 -1.41774
-3.74712 1.72191 -1.42378
-3.7686 1.71744 -1.42988
-3.79018 1.7129 -1.43602
-3.81022 1.70755 -1.44157
-3.83041 1.70215 -1.44717
-3.85073 1.6967 -1.45283
-3.87121 1.6912 -1.45854
-3.89184 1.68566 -1.46431
-3.91263 1.68007 -1.47013
-3.93357 1.67442 -1.47602
-3.95466 1.66873 -1.48196
-3.97726 1.66355 -1.48845
-4.00241 1.6593 -1.49591
-4.02781 1.655 -1.50345
-4.05345 1.65065 -1.51107
-4.07934 1.64626 -1.51879
-4.10548 1.64181 -1.52659
-4.13188 1.63732 -1.53448
-4.15854 1.63277 -1.54247
-4.18547 1.62816 -1.55055
-4.21267 1.62351 -1.55873
-4.24014 1.6188 -1.567
-4.2679 1.61403 -1.57537
-4.30517 1.61267 -1.58725
-4.34344 1.61144 -1.59949
-4.38231 1.6102 -1.61193
-4.42178 1.60894 -1.62458
-4.46187 1.60765 -1.63744
-4.50332 1.60661 -1.65079
-4.54796 1.60642 -1.66529
-4.59339 1.60624 -1.68007
-4.63963 1.60605 -1.69512
-4.6867 1.60585 -1.71047
-4.73463 1.60565 -1.72611
-4.78344 1.60545 -1.74206
-4.83205 1.60487 -1.75791
-4.87674 1.6027 -1.77233
-4.92217 1.6005 -1.787
-4.96836 1.59826 -1.80193
-5.01532 1.59597 -1.81713
-5.06307 1.59365 -1.83261
-5.11164 1.59128 -1.84837
-5.16104 1.58887 -1.86442
-5.21131 1.58642 -1.88076
-5.26245 1.58392 -1.89741
-5.32184 1.58356 -1.91702
-5.42298 1.59511 -1.95164
-5.47651 1.59215 -1.96909
-5.54146 1.59215 -1.99063
-5.60787 1.59216 -2.01268
-5.67576 1.59216 -2.03524
-5.7452 1.59216 -2.05833
-5.81623 1.59216 -2.08198
-5.88891 1.59217 -2.10619
-5.9633 1.59217 -2.131
-6.03947 1.59217 -2.15641
-3.07455 2.69718 -1.45024
-3.07906 2.68406 -1.44838
-3.08356 2.67095 -1.44653
-3.08802 2.65786 -1.4447
-3.09245 2.64479 -1.44287
-3.09686 2.63174 -1.44106
-3.10123 2.61871 -1.43926
-3.10558 2.60569 -1.43746
-3.1099 2.59269 -1.43568
-3.1142 2.57971 -1.43391
-3.11846 2.56675 -1.43215
-3.1227 2.55381 -1.4304
-3.12691 2.54088 -1.42866
-3.1311 2.52797 -1.42693
-3.13525 2.51508 -1.42522
-3.13938 2.5022 -1.42351
-3.14379 2.48959 -1.42195
-3.14824 2.47704 -1.42043
-3.15267 2.46451 -1.41893
-3.15707 2.45199 -1.41743
-3.16144 2.43948 -1.41594
-3.16579 2.42699 -1.41446
-3.17011 2.41451 -1.41299
-3.1744 2.40205 -1.41153
-3.17867 2.38959 -1.41008
-3.18292 2.37715 -1.40864
-3.18726 2.36481 -1.40726
-3.19307 2.35359 -1.40655
-3.19885 2.34236 -1.40585
-3.20461 2.33113 -1.40515
-3.21034 2.31989 -1.40446
-3.21605 2.30866 -1.40377
-3.22174 2.29742 -1.40309
-3.2274 2.28618 -1.40242
-3.23304 2.27494 -1.40176
-3.23866 2.26369 -1.4011
-3.24425 2.25245 -1.40045
-3.24982 2.2412 -1.3998
-3.25537 2.22995 -1.39916
-3.2609 2.2187 -1.39853
-3.2664 2.20744 -1.3979
-3.27187 2.19618 -1.39728
-3.27733 2.18492 -1.39667
-3.28276 2.17366 -1.39607
-3.28816 2.1624 -1.39547
-3.29355 2.15113 -1.39487
-3.29822 2.13941 -1.39399
-3.30313 2.12787 -1.39324
-3.30799 2.11631 -1.39247
-3.31283 2.10475 -1.39171
-3.31765 2.09319 -1.39097
-3.32246 2.08164 -1.39023
-3.32724 2.07009 -1.3895
-3.332 2.05855 -1.38878
-3.33675 2.04701 -1.38807
-3.34148 2.03548 -1.38736
-3.34619 2.02394 -1.38667
-3.35088 2.01242 -1.38598
-3.35556 2.00089 -1.38531
-3.36021 1.98937 -1.38464
-3.36485 1.97785 -1.38398
-3.36947 1.96633 -1.38333
-3.37408 1.95481 -1.38269
-3.37866 1.9433 -1.38206
-3.38323 1.93179 -1.38143
-3.38778 1.92029 -1.38082
-3.39231 1.90878 -1.38021
-3.39683 1.89728 -1.37961
-3.40133 1.88579 -1.37903
-3.40581 1.87429 -1.37845
-3.41027 1.8628 -1.37787
-3.41472 1.8513 -1.37731
-3.41915 1.83981 -1.37676
-3.42356 1.82832 -1.37621
-3.43264 1.81932 -1.37755
-3.44516 1.8121 -1.38028
-3.45771 1.80484 -1.38303
-3.46985 1.79731 -1.38562
-3.48146 1.78946 -1.388
-3.49311 1.78158 -1.39041
-3.50478 1.77367 -1.39283
-3.51658 1.76577 -1.3953
-3.5296 1.75843 -1.39826
-3.54267 1.75105 -1.40125
-3.55578 1.74364 -1.40426
-3.57019 1.7368 -1.40779
-3.59022 1.7326 -1.41353
-3.6104 1.72836 -1.41933
-3.63074 1.72407 -1.42518
-3.65123 1.71975 -1.4311
-3.67188 1.71539 -1.43707
-3.69269 1.71098 -1.4431
-3.71366 1.70653 -1.44919
-3.7348 1.70204 -1.45535
-3.75611 1.69751 -1.46156
-3.77759 1.69293 -1.46784
-3.79924 1.6883 -1.47418
-3.82106 1.68363 -1.48059
-3.84228 1.67856 -1.48675
-3.86264 1.67301 -1.49259
-3.88315 1.66741 -1.49848
-3.90381 1.66176 -1.50443
-3.92463 1.65606 -1.51044
-3.9456 1.65031 -1.51651
-3.96916 1.64551 -1.52356
-3.99417 1.64118 -1.53118
-4.01943 1.6368 -1.53888
-4.04492 1.63237 -1.54666
-4.07067 1.62789 -1.55454
-4.09667 1.62336 -1.56251
-4.12292 1.61878 -1.57058
-4.15003 1.61438 -1.57896
-4.18596 1.61321 -1.59069
-4.22241 1.61203 -1.60261
-4.25942 1.61082 -1.61473
-4.29698 1.6096 -1.62704
-4.33512 1.60835 -1.63956
-4.37385 1.60709 -1.65228
-4.41318 1.60581 -1.66522
-4.45312 1.6045 -1.67838
-4.49403 1.60329 -1.69189
-4.5385 1.60308 -1.70673
-4.58375 1.60287 -1.72184
-4.6298 1.60265 -1.73724
-4.67668 1.60242 -1.75293
-4.72442 1.60219 -1.76892
-4.77162 1.60148 -1.7847
-4.81532 1.59931 -1.79916
-4.85972 1.59711 -1.81386
-4.90486 1.59487 -1.82883
-4.95073 1.59259 -1.84405
-4.99737 1.59026 -1.85956
-5.04481 1.5879 -1.87534
-5.09303 1.58549 -1.8914
-5.14601 1.58425 -1.90922
-5.20332 1.58399 -1.92862
-5.2618 1.58373 -1.94844
-5.32151 1.58346 -1.9687
-5.41291 1.59215 -2.00065
-5.47651 1.59215 -2.02229
-5.54146 1.59215 -2.04442
-5.60787 1.59216 -2.06706
-5.67576 1.59216 -2.09023
-5.7452 1.59216 -2.11395
-5.81623 1.59216 -2.13823
-5.88891 1.59217 -2.1631
-5.9633 1.59217 -2.18858
-6.03947 1.59217 -2.21468
-3.02933 2.65752 -1.46673
-3.03384 2.64464 -1.46488
-3.03833 2.63177 -1.46304
-3.04278 2.61893 -1.46121
-3.0472 2.60609 -1.45939
-3.0516 2.59328 -1.45758
-3.05597 2.58049 -1.45578
-3.06031 2.56771 -1.454
-3.06462 2.55494 -1.45222
-3.06891 2.5422 -1.45046
-3.07317 2.52947 -1.4487
-3.0774 2.51676 -1.44696
-3.0816 2.50406 -1.44522
-3.08603 2.49158 -1.44361
-3.09054 2.47921 -1.44207
-3.09503 2.46685 -1.44054
-3.09949 2.45451 -1.43901
-3.10393 2.44217 -1.4375
-3.10834 2.42985 -1.436
-3.11272 2.41754 -1.4345
-3.11708 2.40525 -1.43302
-3.12141 2.39297 -1.43154
-3.12572 2.3807 -1.43007
-3.13 2.36844 -1.42862
-3.13425 2.35619 -1.42717
-3.13848 2.34396 -1.42573
-3.14268 2.33174 -1.4243
-3.14686 2.31953 -1.42288
-3.15136 2.30758 -1.42163
-3.15705 2.29653 -1.42093
-3.16273 2.28548 -1.42024
-3.16837 2.27443 -1.41956
-3.174 2.26338 -1.41888
-3.1796 2.25232 -1.41821
-3.18518 2.24126 -1.41755
-3.19074 2.2302 -1.41689
-3.19627 2.21913 -1.41625
-3.20178 2.20807 -1.4156
-3.20727 2.197 -1.41497
-3.21273 2.18592 -1.41434
-3.21817 2.17485 -1.41371
-3.22359 2.16377 -1.4131
-3.22898 2.15269 -1.41249
-3.23435 2.14161 -1.41188
-3.24019 2.13085 -1.4115
-3.24627 2.12025 -1.41123
-3.25233 2.10964 -1.41098
-3.25837 2.09903 -1.41073
-3.26441 2.08842 -1.41049
-3.27047 2.07783 -1.41028
-3.2765 2.06723 -1.41007
-3.28252 2.05662 -1.40987
-3.28852 2.04601 -1.40968
-3.2945 2.03538 -1.40949
-3.30046 2.02475 -1.40931
-3.30601 2.01387 -1.40896
-3.31069 2.00247 -1.40826
-3.31535 1.99107 -1.40758
-3.31999 1.97968 -1.4069
-3.32461 1.96829 -1.40623
-3.32922 1.9569 -1.40556
-3.33381 1.94551 -1.40491
-3.33838 1.93413 -1.40427
-3.34293 1.92275 -1.40363
-3.34747 1.91137 -1.403
-3.35199 1.9 -1.40239
-3.35649 1.88862 -1.40178
-3.36097 1.87725 -1.40118
-3.36543 1.86588 -1.40058
-3.36988 1.85452 -1.4
-3.37431 1.84315 -1.39943
-3.37873 1.83179 -1.39886
-3.38312 1.82043 -1.3983
-3.39261 1.81179 -1.39986
-3.40493 1.80464 -1.4026
-3.4166 1.79708 -1.40507
-3.42801 1.78934 -1.40744
-3.43945 1.78157 -1.40983
-3.45092 1.77376 -1.41223
-3.46241 1.76592 -1.41466
-3.47403 1.75811 -1.41714
-3.48684 1.75083 -1.42011
-3.49968 1.74352 -1.4231
-3.51258 1.73618 -1.42612
-3.52551 1.72879 -1.42915
-3.53931 1.72177 -1.43254
-3.55903 1.71755 -1.43833
-3.57891 1.71328 -1.44418
-3.59894 1.70898 -1.45009
-3.61913 1.70463 -1.45606
-3.63946 1.70025 -1.46208
-3.65995 1.69582 -1.46816
-3.6806 1.69134 -1.4743
-3.70141 1.68683 -1.48051
-3.72239 1.68227 -1.48677
-3.74353 1.67766 -1.4931
-3.76484 1.67301 -1.4995
-3.78632 1.66832 -1.50595
-3.80797 1.66357 -1.51247
-3.8298 1.65879 -1.51906
-3.8518 1.65395 -1.52572
-3.87399 1.64906 -1.53245
-3.89488 1.64351 -1.53866
-3.91557 1.63775 -1.54479
-3.93642 1.63194 -1.55098
-3.9609 1.62751 -1.5586
-3.98578 1.6231 -1.56638
-4.01089 1.61864 -1.57424
-4.03803 1.61484 -1.58289
-4.0723 1.61371 -1.59432
-4.10707 1.61256 -1.60594
-4.14234 1.61139 -1.61775
-4.17814 1.6102 -1.62974
-4.21447 1.60899 -1.64193
-4.25134 1.60777 -1.65432
-4.28877 1.60652 -1.66691
-4.32678 1.60526 -1.67971
-4.36536 1.60397 -1.69272
-4.40455 1.60267 -1.70595
-4.44434 1.60134 -1.7194
-4.48477 1.59999 -1.73309
-4.52901 1.59973 -1.74824
-4.57408 1.59949 -1.76368
-4.61995 1.59924 -1.77942
-4.66665 1.59898 -1.79546
-4.71246 1.59813 -1.81114
-4.75519 1.59597 -1.82563
-4.79861 1.59376 -1.84036
-4.84272 1.59152 -1.85535
-4.88755 1.58924 -1.8706
-4.93312 1.58692 -1.88613
-4.9805 1.58489 -1.90232
-5.03449 1.58465 -1.92103
-5.08954 1.58441 -1.94013
-5.1457 1.58415 -1.95963
-5.20301 1.5839 -1.97954
-5.26149 1.58363 -1.99989
-5.32119 1.58336 -2.02068
-5.41291 1.59215 -2.05359
-5.4765 1.59215 -2.07581
-5.54146 1.59215 -2.09853
-5.60787 1.59216 -2.12177
-5.67576 1.59216 -2.14555
-5.7452 1.59216 -2.16989
-5.81623 1.59216 -2.19482
-5.88891 1.59217 -2.22035
-5.9633 1.59217 -2.2465
-6.03947 1.59217 -2.27329
-2.96362 2.59987 -1.47213
-2.97041 2.58934 -1.47145
-2.97717 2.57881 -1.47078
-2.98391 2.56825 -1.4701
-2.99061 2.55769 -1.46943
-2.99728 2.54712 -1.46877
-3.00391 2.53653 -1.4681
-3.01052 2.52593 -1.46744
-3.01709 2.51532 -1.46678
-3.02364 2.50469 -1.46613
-3.0291 2.4932 -1.46497
-3.03368 2.481 -1.4634
-3.03823 2.46882 -1.46184
-3.04275 2.45664 -1.46029
-3.04725 2.44448 -1.45875
-3.05172 2.43233 -1.45722
-3.05616 2.42019 -1.4557
-3.06058 2.40807 -1.45419
-3.06497 2.39596 -1.45269
-3.06934 2.38385 -1.4512
-3.07368 2.37176 -1.44972
-3.078 2.35969 -1.44825
-3.08229 2.34762 -1.44678
-3.08655 2.33557 -1.44533
-3.09079 2.32352 -1.44389
-3.09501 2.31149 -1.44245
-3.0992 2.29947 -1.44103
-3.10336 2.28746 -1.43961
-3.1075 2.27547 -1.4382
-3.11161 2.26348 -1.43681
-3.11622 2.25188 -1.43566
-3.12181 2.241 -1.43498
-3.12737 2.23013 -1.4343
-3.13292 2.21925 -1.43364
-3.13843 2.20837 -1.43298
-3.14393 2.19748 -1.43232
-3.1494 2.18659 -1.43168
-3.15485 2.1757 -1.43104
-3.16028 2.16481 -1.4304
-3.16568 2.15391 -1.42977
-3.17107 2.14302 -1.42915
-3.17664 2.13226 -1.42864
-3.1827 2.12184 -1.42835
-3.18874 2.11141 -1.42808
-3.19476 2.10098 -1.42781
-3.20077 2.09053 -1.42755
-3.20675 2.08008 -1.42729
-3.21271 2.06962 -1.42704
-3.21866 2.05915 -1.42679
-3.22458 2.04868 -1.42656
-3.23051 2.03821 -1.42634
-3.23645 2.02776 -1.42614
-3.24238 2.0173 -1.42595
-3.24828 2.00683 -1.42576
-3.25416 1.99635 -1.42558
-3.26002 1.98586 -1.4254
-3.26587 1.97536 -1.42523
-3.27169 1.96486 -1.42507
-3.2775 1.95434 -1.42492
-3.28328 1.94382 -1.42477
-3.28905 1.93329 -1.42462
-3.2948 1.92275 -1.42449
-3.30053 1.9122 -1.42436
-3.30624 1.90164 -1.42423
-3.31193 1.89108 -1.42411
-3.31673 1.88001 -1.42363
-3.3212 1.86877 -1.42302
-3.32565 1.85753 -1.42241
-3.33008 1.84628 -1.42182
-3.3345 1.83504 -1.42123
-3.33889 1.82381 -1.42066
-3.34328 1.81257 -1.42009
-3.35319 1.80432 -1.42188
-3.36442 1.79674 -1.42424
-3.37563 1.7891 -1.42659
-3.38686 1.78144 -1.42897
-3.39812 1.77374 -1.43136
-3.4094 1.766 -1.43376
-3.42072 1.75824 -1.43619
-3.43218 1.75051 -1.43868
-3.44478 1.7433 -1.44166
-3.45742 1.73606 -1.44465
-3.47009 1.72878 -1.44767
-3.48281 1.72147 -1.45071
-3.49558 1.71412 -1.45378
-3.50877 1.70692 -1.45702
-3.5282 1.70267 -1.46286
-3.54779 1.69838 -1.46876
-3.56752 1.69405 -1.47471
-3.58739 1.68969 -1.48072
-3.60742 1.68528 -1.4868
-3.6276 1.68082 -1.49293
-3.64793 1.67633 -1.49912
-3.66842 1.67179 -1.50537
-3.68907 1.66721 -1.51168
-3.70988 1.66258 -1.51806
-3.73086 1.65791 -1.5245
-3.75199 1.65319 -1.53101
-3.7733 1.64843 -1.53758
-3.79478 1.64362 -1.54422
-3.81643 1.63876 -1.55092
-3.83825 1.63385 -1.5577
-3.86026 1.6289 -1.56454
-3.88244 1.62389 -1.57145
-3.90481 1.61883 -1.57844
-3.93106 1.61525 -1.58699
-3.9638 1.61415 -1.59815
-3.997 1.61303 -1.60948
-4.03067 1.6119 -1.62099
-4.06483 1.61075 -1.63268
-4.09948 1.60958 -1.64455
-4.13463 1.60839 -1.65662
-4.17031 1.60718 -1.66888
-4.2065 1.60596 -1.68134
-4.24325 1.60471 -1.694
-4.28055 1.60344 -1.70687
-4.31842 1.60216 -1.71995
-4.35686 1.60085 -1.73325
-4.39591 1.59952 -1.74677
-4.43555 1.59817 -1.76052
-4.47583 1.5968 -1.7745
-4.51951 1.59637 -1.78982
-4.5644 1.5961 -1.8056
-4.61009 1.59582 -1.82168
-4.65452 1.59483 -1.83725
-4.69632 1.59266 -1.85176
-4.73878 1.59046 -1.86652
-4.78191 1.58822 -1.88153
-4.82573 1.58594 -1.8968
-4.87535 1.58528 -1.91433
-4.92728 1.58504 -1.93276
-4.98021 1.5848 -1.95156
-5.03419 1.58456 -1.97074
-5.08924 1.58431 -1.99033
-5.1454 1.58406 -2.01034
-5.2027 1.5838 -2.03077
-5.26116 1.58354 -2.05164
-5.37073 1.59811 -2.09239
-5.41291 1.59215 -2.10686
-5.47651 1.59215 -2.12966
-5.54146 1.59215 -2.15296
-5.60787 1.59216 -2.1768
-5.67576 1.59216 -2.2012
-5.7452 1.59216 -2.22618
-5.81623 1.59216 -2.25175
-5.88891 1.59217 -2.27794
-5.9633 1.59217 -2.30477
-2.88526 2.53113 -1.46966
-2.89171 2.52074 -1.46891
-2.89813 2.51034 -1.46815
-2.90451 2.49992 -1.46739
-2.91323 2.49151 -1.46783
-2.92192 2.48308 -1.46827
-2.93059 2.47461 -1.4687
-2.93924 2.46612 -1.46914
-2.94787 2.45761 -1.46959
-2.95648 2.44906 -1.47003
-2.96507 2.44049 -1.47048
-2.97364 2.4319 -1.47093
-2.98039 2.42181 -1.47049
-2.987 2.41163 -1.47
-2.99358 2.40143 -1.46952
-3.00014 2.39122 -1.46904
-3.00666 2.38099 -1.46856
-3.01316 2.37076 -1.46808
-3.01962 2.3605 -1.46761
-3.02606 2.35024 -1.46714
-3.03122 2.339 -1.46606
-3.03552 2.32712 -1.4646
-3.03979 2.31525 -1.46314
-3.04404 2.3034 -1.46169
-3.04826 2.29155 -1.46025
-3.05246 2.27972 -1.45882
-3.05664 2.26789 -1.45739
-3.06078 2.25608 -1.45598
-3.06491 2.24428 -1.45458
-3.06901 2.23248 -1.45318
-3.07308 2.2207 -1.4518
-3.07713 2.20893 -1.45042
-3.08182 2.19764 -1.44937
-3.0873 2.18694 -1.44871
-3.09276 2.17623 -1.44805
-3.0982 2.16552 -1.4474
-3.10361 2.1548 -1.44675
-3.109 2.14408 -1.44612
-3.11437 2.13336 -1.44548
-3.1204 2.1231 -1.44517
-3.12642 2.11285 -1.44488
-3.13243 2.10258 -1.44459
-3.13841 2.09231 -1.44431
-3.14438 2.08204 -1.44404
-3.15033 2.07175 -1.44377
-3.15625 2.06146 -1.4435
-3.16216 2.05116 -1.44325
-3.16805 2.04085 -1.443
-3.17392 2.03053 -1.44276
-3.17976 2.02021 -1.44252
-3.18559 2.00987 -1.44229
-3.1914 1.99953 -1.44206
-3.19723 1.98921 -1.44186
-3.20306 1.97889 -1.44168
-3.20886 1.96856 -1.4415
-3.21465 1.95822 -1.44132
-3.22042 1.94787 -1.44115
-3.22617 1.93752 -1.44099
-3.2319 1.92715 -1.44084
-3.23761 1.91678 -1.44069
-3.2433 1.9064 -1.44054
-3.24897 1.89601 -1.44041
-3.25462 1.88561 -1.44028
-3.26026 1.8752 -1.44015
-3.26587 1.86478 -1.44004
-3.27147 1.85436 -1.43993
-3.27705 1.84393 -1.43982
-3.28261 1.83348 -1.43972
-3.28814 1.82303 -1.43963
-3.29366 1.81257 -1.43954
-3.30181 1.80355 -1.44062
-3.31301 1.79616 -1.44303
-3.32424 1.78874 -1.44546
-3.33529 1.78119 -1.44783
-3.34636 1.77359 -1.4502
-3.35745 1.76597 -1.45259
-3.36856 1.75831 -1.455
-3.3797 1.75062 -1.45743
-3.39102 1.74298 -1.45994
-3.40341 1.73583 -1.46292
-3.41584 1.72866 -1.46591
-3.42831 1.72145 -1.46894
-3.44082 1.7142 -1.47198
-3.45337 1.70692 -1.47504
-3.46597 1.6996 -1.47813
-3.4786 1.69224 -1.48124
-3.49772 1.68796 -1.48711
-3.51701 1.68365 -1.49306
-3.53644 1.6793 -1.49906
-3.55602 1.67491 -1.50512
-3.57574 1.67048 -1.51123
-3.59561 1.666 -1.51741
-3.61563 1.66149 -1.52365
-3.63581 1.65693 -1.52994
-3.65614 1.65233 -1.5363
-3.67663 1.64768 -1.54273
-3.69727 1.64298 -1.54921
-3.71808 1.63825 -1.55577
-3.73905 1.63346 -1.56238
-3.76018 1.62863 -1.56906
-3.78148 1.62375 -1.57582
-3.80296 1.61883 -1.58263
-3.83063 1.61639 -1.59203
-3.86184 1.61528 -1.60288
-3.89348 1.61414 -1.6139
-3.92554 1.61298 -1.62507
-3.9579 1.61174 -1.63636
-3.9907 1.61049 -1.64782
-4.02398 1.60922 -1.65946
-4.05772 1.60793 -1.67129
-4.09195 1.60662 -1.68329
-4.1269 1.60538 -1.69559
-4.16246 1.60415 -1.70811
-4.19852 1.60291 -1.72084
-4.23514 1.60164 -1.73377
-4.2723 1.60036 -1.74692
-4.31004 1.59905 -1.76028
-4.34834 1.59772 -1.77386
-4.38724 1.59637 -1.78768
-4.42674 1.595 -1.80172
-4.46687 1.5936 -1.816
-4.50999 1.59301 -1.83149
-4.5547 1.59271 -1.8476
-4.59778 1.59156 -1.86303
-4.63867 1.58939 -1.87757
-4.6802 1.58719 -1.89235
-4.72509 1.58586 -1.90847
-4.77415 1.58564 -1.92626
-4.82413 1.58542 -1.94441
-4.87508 1.58518 -1.96292
-4.92699 1.58495 -1.98181
-4.97992 1.58471 -2.00109
-5.0339 1.58447 -2.02076
-5.08894 1.58422 -2.04085
-5.14509 1.58396 -2.06136
-5.2027 1.5838 -2.08243
-5.26254 1.58395 -2.10438
-5.36159 1.59539 -2.14197
-5.41291 1.59215 -2.16046
-5.47651 1.59215 -2.18384
-5.54146 1.59215 -2.20773
-5.60787 1.59216 -2.23218
-5.67576 1.59216 -2.2572
-5.7452 1.59216 -2.28281
-5.81622 1.59216 -2.30903
-5.88891 1.59217 -2.33589
-5.9633 1.59217 -2.3634
-2.81642 2.47073 -1.47042
-2.82498 2.46257 -1.47084
-2.83353 2.45438 -1.47126
-2.84205 2.44616 -1.47168
-2.85056 2.43791 -1.47211
-2.85904 2.42964 -1.47254
-2.86751 2.42135 -1.47297
-2.87595 2.41302 -1.4734
-2.88438 2.40467 -1.47384
-2.89278 2.3963 -1.47427
-2.90117 2.3879 -1.47471
-2.90953 2.37947 -1.47515
-2.91788 2.37102 -1.47559
-2.92561 2.36206 -1.47574
-2.93208 2.35209 -1.47526
-2.93852 2.3421 -1.47479
-2.94493 2.3321 -1.47432
-2.95131 2.32209 -1.47385
-2.95766 2.31207 -1.47338
-2.96399 2.30203 -1.47292
-2.97028 2.29198 -1.47246
-2.97655 2.28191 -1.472
-2.98279 2.27184 -1.47155
-2.989 2.26175 -1.47109
-2.99518 2.25165 -1.47064
-3.00133 2.24153 -1.47019
-3.00746 2.23141 -1.46975
-3.01355 2.22127 -1.46931
-3.01962 2.21112 -1.46887
-3.02566 2.20095 -1.46843
-3.03135 2.19054 -1.46784
-3.03538 2.17896 -1.46647
-3.03939 2.16739 -1.4651
-3.04337 2.15582 -1.46375
-3.04812 2.14482 -1.46278
-3.0535 2.13428 -1.46213
-3.05931 2.12404 -1.46171
-3.06532 2.11396 -1.46139
-3.07131 2.10386 -1.46109
-3.07728 2.09376 -1.46079
-3.08323 2.08366 -1.46049
-3.08916 2.07354 -1.46021
-3.09507 2.06342 -1.45993
-3.10096 2.05329 -1.45965
-3.10683 2.04315 -1.45938
-3.11269 2.033 -1.45912
-3.11852 2.02285 -1.45887
-3.12433 2.01269 -1.45862
-3.13013 2.00252 -1.45838
-3.1359 1.99234 -1.45814
-3.14166 1.98215 -1.45791
-3.14739 1.97196 -1.45769
-3.15311 1.96176 -1.45747
-3.15881 1.95155 -1.45726
-3.16453 1.94136 -1.45707
-3.17024 1.93117 -1.4569
-3.17594 1.92097 -1.45673
-3.18161 1.91076 -1.45657
-3.18727 1.90054 -1.45642
-3.1929 1.89031 -1.45627
-3.19852 1.88007 -1.45613
-3.20412 1.86983 -1.45599
-3.2097 1.85958 -1.45586
-3.21526 1.84932 -1.45574
-3.2208 1.83905 -1.45562
-3.22632 1.82877 -1.45551
-3.23182 1.81848 -1.4554
-3.23957 1.80945 -1.45632
-3.25054 1.80219 -1.4587
-3.26155 1.7949 -1.4611
-3.27258 1.78758 -1.46351
-3.28363 1.78023 -1.46594
-3.29471 1.77285 -1.46839
-3.30581 1.76544 -1.47086
-3.31694 1.758 -1.47334
-3.32809 1.75052 -1.47584
-3.33927 1.74302 -1.47836
-3.35051 1.7355 -1.48092
-3.3627 1.72842 -1.48389
-3.37493 1.72131 -1.4869
-3.3872 1.71416 -1.48992
-3.39951 1.70698 -1.49296
-3.41186 1.69977 -1.49603
-3.42424 1.69252 -1.49912
-3.43667 1.68523 -1.50223
-3.44913 1.6779 -1.50536
-3.46756 1.67341 -1.5111
-3.48657 1.66908 -1.51709
-3.50571 1.66471 -1.52313
-3.52499 1.6603 -1.52924
-3.54442 1.65585 -1.5354
-3.56399 1.65135 -1.54162
-3.58371 1.64682 -1.5479
-3.60357 1.64224 -1.55424
-3.62359 1.63761 -1.56064
-3.64375 1.63295 -1.56711
-3.66408 1.62823 -1.57364
-3.68456 1.62348 -1.58023
-3.70519 1.61867 -1.58689
-3.73439 1.61746 -1.59721
-3.7643 1.61638 -1.60782
-3.79461 1.61528 -1.61859
-3.82533 1.61416 -1.62952
-3.85646 1.61303 -1.64061
-3.88802 1.61188 -1.65187
-3.92001 1.61071 -1.6633
-3.95229 1.60946 -1.67484
-3.98501 1.60819 -1.68656
-4.01819 1.60691 -1.69845
-4.05185 1.6056 -1.71054
-4.08598 1.60428 -1.72281
-4.12061 1.60293 -1.73527
-4.15574 1.60157 -1.74794
-4.19138 1.60018 -1.7608
-4.22755 1.59877 -1.77388
-4.26426 1.59734 -1.78716
-4.30164 1.59593 -1.80071
-4.3398 1.59458 -1.81458
-4.37856 1.59321 -1.82868
-4.41791 1.59181 -1.84302
-4.45789 1.5904 -1.8576
-4.50045 1.58964 -1.87324
-4.54217 1.58833 -1.88852
-4.58292 1.58642 -1.90338
-4.62936 1.58621 -1.92059
-4.67666 1.58599 -1.93813
-4.72482 1.58577 -1.95601
-4.7739 1.58556 -1.97426
-4.82417 1.58543 -1.99297
-4.87541 1.58529 -2.01207
-4.92764 1.58516 -2.03156
-4.98089 1.58502 -2.05145
-5.03521 1.58488 -2.07175
-5.0906 1.58473 -2.09248
-5.15025 1.58555 -2.11495
-5.20733 1.58521 -2.13632
-5.2626 1.58397 -2.15695
-5.37317 1.59883 -2.20019
-5.41291 1.59215 -2.2144
-5.47651 1.59215 -2.23836
-5.54146 1.59215 -2.26285
-5.60787 1.59216 -2.28791
-5.67576 1.59216 -2.31356
-5.7452 1.59216 -2.33981
-5.81623 1.59216 -2.36668
-5.88891 1.59217 -2.39421
-2.75679 2.41843 -1.47458
-2.76516 2.41042 -1.47499
-2.7735 2.40239 -1.4754
-2.78183 2.39433 -1.47582
-2.79014 2.38624 -1.47624
-2.79843 2.37813 -1.47666
-2.8067 2.37 -1.47708
-2.81495 2.36184 -1.47751
-2.82318 2.35365 -1.47793
-2.83139 2.34544 -1.47836
-2.83957 2.3372 -1.47879
-2.84774 2.32894 -1.47922
-2.85589 2.32065 -1.47966
-2.86402 2.31234 -1.48009
-2.87213 2.304 -1.48053
-2.879 2.29467 -1.48035
-2.8853 2.28488 -1.47988
-2.89157 2.27509 -1.47942
-2.89781 2.26528 -1.47896
-2.90403 2.25546 -1.47851
-2.91021 2.24563 -1.47805
-2.91637 2.23578 -1.4776
-2.92251 2.22592 -1.47716
-2.92861 2.21605 -1.47671
-2.93468 2.20617 -1.47627
-2.94073 2.19627 -1.47583
-2.94675 2.18636 -1.47539
-2.95274 2.17644 -1.47495
-2.9587 2.16651 -1.47452
-2.96463 2.15656 -1.47409
-2.97054 2.1466 -1.47366
-2.97642 2.13663 -1.47324
-2.98288 2.12709 -1.47312
-2.99008 2.11807 -1.47337
-2.99725 2.10902 -1.47363
-3.00441 2.09996 -1.4739
-3.01171 2.091 -1.47425
-3.01901 2.08202 -1.47461
-3.02628 2.07302 -1.47497
-3.03354 2.064 -1.47533
-3.04078 2.05497 -1.4757
-3.0468 2.04511 -1.47549
-3.05264 2.03513 -1.47521
-3.05846 2.02514 -1.47494
-3.06425 2.01515 -1.47467
-3.07003 2.00515 -1.47441
-3.07579 1.99514 -1.47416
-3.08154 1.98512 -1.47391
-3.08726 1.97509 -1.47367
-3.09296 1.96506 -1.47343
-3.09864 1.95502 -1.47321
-3.10431 1.94497 -1.47298
-3.10995 1.93491 -1.47277
-3.11558 1.92484 -1.47256
-3.12118 1.91477 -1.47235
-3.12677 1.90469 -1.47215
-3.13239 1.89463 -1.47199
-3.13799 1.88456 -1.47183
-3.14357 1.87448 -1.47167
-3.14914 1.8644 -1.47152
-3.15468 1.85431 -1.47138
-3.16021 1.8442 -1.47125
-3.16571 1.8341 -1.47112
-3.1712 1.82398 -1.47099
-3.17872 1.81502 -1.47183
-3.18949 1.80789 -1.47417
-3.20028 1.80073 -1.47653
-3.21109 1.79354 -1.47891
-3.22193 1.78632 -1.48131
-3.23279 1.77907 -1.48372
-3.24367 1.77179 -1.48615
-3.25421 1.76428 -1.48843
-3.2641 1.75638 -1.49042
-3.274 1.74845 -1.49242
-3.28391 1.7405 -1.49444
-3.29384 1.73251 -1.49647
-3.30377 1.72449 -1.49851
-3.31686 1.71807 -1.50199
-3.3321 1.71269 -1.50644
-3.34675 1.70694 -1.51063
-3.35886 1.69982 -1.51367
-3.37101 1.69267 -1.51674
-3.38319 1.68549 -1.51983
-3.39541 1.67827 -1.52294
-3.40768 1.67101 -1.52608
-3.41997 1.66372 -1.52924
-3.43773 1.65901 -1.53484
-3.45646 1.65466 -1.54086
-3.47532 1.65027 -1.54695
-3.49431 1.64584 -1.55309
-3.51344 1.64137 -1.55929
-3.53272 1.63686 -1.56555
-3.55213 1.63231 -1.57188
-3.57169 1.62771 -1.57826
-3.5914 1.62307 -1.5847
-3.61376 1.6195 -1.59231
-3.64209 1.61846 -1.60255
-3.67078 1.61741 -1.61293
-3.69985 1.61634 -1.62346
-3.7293 1.61526 -1.63414
-3.75914 1.61416 -1.64498
-3.78937 1.61304 -1.65598
-3.82001 1.61191 -1.66715
-3.85106 1.61077 -1.67848
-3.88254 1.6096 -1.68999
-3.91445 1.60842 -1.70167
-3.94666 1.60717 -1.71346
-3.97929 1.60589 -1.72543
-4.01239 1.60459 -1.73758
-4.04595 1.60327 -1.74993
-4.08 1.60193 -1.76246
-4.11453 1.60057 -1.77519
-4.14956 1.59919 -1.78813
-4.1851 1.59778 -1.80127
-4.22117 1.59636 -1.81463
-4.25778 1.59491 -1.8282
-4.29493 1.59345 -1.84199
-4.33265 1.59195 -1.85601
-4.37094 1.59044 -1.87026
-4.40982 1.5889 -1.88475
-4.4493 1.58733 -1.89948
-4.49259 1.58687 -1.91582
-4.53767 1.58675 -1.93291
-4.58355 1.58664 -1.95032
-4.63027 1.58652 -1.96806
-4.67786 1.5864 -1.98616
-4.72632 1.58628 -2.00461
-4.7757 1.58615 -2.02342
-4.826 1.58603 -2.04261
-4.87728 1.5859 -2.06219
-4.92955 1.58577 -2.08217
-4.98432 1.58611 -2.10319
-5.04235 1.58713 -2.12556
-5.09943 1.58748 -2.14751
-5.15264 1.58629 -2.1678
-5.20686 1.58507 -2.18851
-5.26213 1.58383 -2.20963
-5.38488 1.60232 -2.25905
-5.41291 1.59215 -2.2687
-5.47651 1.59215 -2.29324
-5.54146 1.59215 -2.31833
-5.60787 1.59216 -2.34401
-5.67576 1.59216 -2.37028
-5.7452 1.59216 -2.39718
-5.81622 1.59216 -2.42471
-2.70904 2.37654 -1.48395
-2.71546 2.3671 -1.48338
-2.72187 2.35766 -1.48282
-2.72825 2.34821 -1.48226
-2.7346 2.33875 -1.48171
-2.74094 2.32928 -1.48117
-2.74803 2.32046 -1.48105
-2.75609 2.31245 -1.48147
-2.76413 2.30442 -1.48189
-2.77215 2.29637 -1.48231
-2.78015 2.28829 -1.48273
-2.78813 2.28019 -1.48315
-2.79609 2.27206 -1.48358
-2.80403 2.2639 -1.48401
-2.81195 2.25573 -1.48444
-2.81985 2.24753 -1.48487
-2.82766 2.23924 -1.48526
-2.83382 2.22965 -1.48481
-2.83996 2.22005 -1.48436
-2.84607 2.21044 -1.48391
-2.85215 2.20082 -1.48346
-2.8582 2.19118 -1.48302
-2.86423 2.18153 -1.48258
-2.87022 2.17187 -1.48214
-2.87619 2.1622 -1.4817
-2.88214 2.15251 -1.48127
-2.88805 2.14281 -1.48084
-2.89397 2.13312 -1.48042
-2.90112 2.12434 -1.48066
-2.90826 2.11555 -1.4809
-2.91537 2.10674 -1.48114
-2.92247 2.09791 -1.48138
-2.92955 2.08906 -1.48163
-2.9366 2.08019 -1.48189
-2.94364 2.0713 -1.48214
-2.95066 2.06239 -1.4824
-2.95766 2.05347 -1.48267
-2.96474 2.04459 -1.48299
-2.97187 2.03575 -1.48334
-2.97898 2.02688 -1.4837
-2.98608 2.018 -1.48407
-2.99315 2.0091 -1.48444
-3.00021 2.00017 -1.48481
-3.00724 1.99123 -1.48518
-3.01426 1.98227 -1.48556
-3.02126 1.97329 -1.48594
-3.02823 1.96428 -1.48633
-3.03519 1.95526 -1.48672
-3.04213 1.94622 -1.48711
-3.04905 1.93716 -1.48751
-3.05595 1.92808 -1.48791
-3.06211 1.91853 -1.48796
-3.06768 1.90861 -1.48775
-3.07324 1.89868 -1.48754
-3.07877 1.88875 -1.48734
-3.08429 1.87881 -1.48714
-3.08979 1.86886 -1.48695
-3.09527 1.8589 -1.48676
-3.10078 1.84897 -1.48661
-3.10627 1.83902 -1.48646
-3.11174 1.82907 -1.48632
-3.11922 1.82029 -1.48715
-3.12978 1.81328 -1.48946
-3.14037 1.80624 -1.49179
-3.15063 1.79898 -1.49397
-3.16029 1.79134 -1.49587
-3.16996 1.78367 -1.49778
-3.17964 1.77597 -1.49971
-3.18933 1.76825 -1.50165
-3.19903 1.7605 -1.5036
-3.20874 1.75272 -1.50557
-3.21847 1.74491 -1.50755
-3.2282 1.73707 -1.50954
-3.23795 1.7292 -1.51155
-3.2477 1.7213 -1.51357
-3.25747 1.71338 -1.5156
-3.26724 1.70542 -1.51764
-3.28195 1.69999 -1.52199
-3.29693 1.69461 -1.52645
-3.31198 1.6892 -1.53095
-3.3271 1.68375 -1.53549
-3.3423 1.67826 -1.54006
-3.35481 1.67135 -1.54339
-3.36688 1.66416 -1.54653
-3.37898 1.65694 -1.54968
-3.39111 1.64968 -1.55286
-3.40822 1.64477 -1.55832
-3.42666 1.6404 -1.56438
-3.44524 1.63599 -1.57051
-3.46395 1.63155 -1.57669
-3.4828 1.62706 -1.58293
-3.50178 1.62253 -1.58923
-3.52625 1.62041 -1.59802
-3.55347 1.6194 -1.60804
-3.58103 1.61838 -1.6182
-3.60893 1.61734 -1.6285
-3.6372 1.61629 -1.63895
-3.66582 1.61522 -1.64955
-3.69481 1.61414 -1.66031
-3.72419 1.61304 -1.67122
-3.75395 1.61193 -1.68229
-3.78411 1.6108 -1.69353
-3.81467 1.60966 -1.70493
-3.84564 1.6085 -1.7165
-3.87704 1.60732 -1.72825
-3.90886 1.60613 -1.74018
-3.94101 1.60487 -1.75223
-3.97356 1.60357 -1.76445
-4.00656 1.60226 -1.77686
-4.04004 1.60092 -1.78946
-4.07399 1.59957 -1.80227
-4.10842 1.59819 -1.81527
-4.14336 1.5968 -1.82848
-4.1788 1.59538 -1.84189
-4.21477 1.59394 -1.85553
-4.25127 1.59248 -1.86938
-4.28832 1.59099 -1.88347
-4.32594 1.58949 -1.89778
-4.36694 1.58898 -1.91356
-4.40851 1.58843 -1.92958
-4.45056 1.58778 -1.94579
-4.49421 1.58744 -1.96268
-4.53931 1.58733 -1.98019
-4.58523 1.58722 -1.99803
-4.63198 1.5871 -2.01622
-4.6796 1.58699 -2.03477
-4.7281 1.58687 -2.05367
-4.77751 1.58676 -2.07296
-4.82794 1.58667 -2.09267
-4.88268 1.58766 -2.11422
-4.93856 1.58867 -2.13624
-4.99551 1.58967 -2.1587
-5.04677 1.58852 -2.17868
-5.09898 1.58734 -2.19905
-5.15217 1.58614 -2.21983
-5.20639 1.58492 -2.24103
-5.42614 1.63319 -2.3334
-5.42408 1.61398 -2.33032
-5.42205 1.59484 -2.32728
-5.47651 1.59215 -2.34849
-5.54146 1.59215 -2.37419
-5.60787 1.59215 -2.40048
-5.67576 1.59216 -2.42739
-5.7452 1.59216 -2.45493
-2.66567 2.33849 -1.49477
-2.672 2.32922 -1.49421
-2.67832 2.31994 -1.49366
-2.68461 2.31065 -1.49311
-2.69089 2.30136 -1.49256
-2.69713 2.29205 -1.49202
-2.70336 2.28274 -1.49149
-2.70956 2.27341 -1.49096
-2.71574 2.26408 -1.49043
-2.7219 2.25474 -1.48991
-2.72803 2.24539 -1.48939
-2.73414 2.23603 -1.48888
-2.74023 2.22667 -1.48838
-2.74629 2.21729 -1.48788
-2.75386 2.20913 -1.48821
-2.76158 2.20108 -1.48863
-2.76929 2.19301 -1.48905
-2.77697 2.18492 -1.48948
-2.78399 2.17631 -1.48957
-2.79 2.1669 -1.48913
-2.79598 2.15748 -1.48869
-2.80193 2.14804 -1.48826
-2.80785 2.13859 -1.48782
-2.81455 2.12975 -1.48782
-2.82165 2.12119 -1.48804
-2.82873 2.11262 -1.48826
-2.83579 2.10403 -1.48848
-2.84283 2.09543 -1.48871
-2.84985 2.0868 -1.48894
-2.85685 2.07816 -1.48918
-2.86383 2.06949 -1.48942
-2.8708 2.06081 -1.48966
-2.87774 2.05211 -1.48991
-2.88466 2.04339 -1.49016
-2.89157 2.03466 -1.49041
-2.89845 2.0259 -1.49067
-2.90532 2.01713 -1.49093
-2.91216 2.00834 -1.49119
-2.91902 1.99955 -1.49148
-2.926 1.99083 -1.49183
-2.93295 1.9821 -1.49219
-2.93989 1.97334 -1.49256
-2.9468 1.96457 -1.49292
-2.9537 1.95578 -1.49329
-2.96058 1.94697 -1.49367
-2.96744 1.93814 -1.49405
-2.97428 1.92929 -1.49443
-2.9811 1.92042 -1.49481
-2.9879 1.91153 -1.4952
-2.99469 1.90262 -1.49559
-3.00145 1.89369 -1.49599
-3.00819 1.88475 -1.49639
-3.01492 1.87578 -1.49679
-3.02162 1.8668 -1.4972
-3.02831 1.85779 -1.49761
-3.03498 1.84877 -1.49802
-3.04162 1.83973 -1.49844
-3.04825 1.83066 -1.49886
-3.05801 1.82346 -1.50083
-3.0685 1.81666 -1.50317
-3.07852 1.80954 -1.50528
-3.088 1.80207 -1.50714
-3.09748 1.79457 -1.50901
-3.10698 1.78704 -1.51088
-3.11648 1.77948 -1.51278
-3.12599 1.7719 -1.51468
-3.13551 1.76429 -1.5166
-3.14504 1.75665 -1.51853
-3.15458 1.74898 -1.52047
-3.16413 1.74129 -1.52243
-3.1737 1.73357 -1.5244
-3.18327 1.72582 -1.52638
-3.19285 1.71804 -1.52837
-3.20244 1.71024 -1.53038
-3.21204 1.7024 -1.5324
-3.22165 1.69454 -1.53444
-3.23289 1.68749 -1.53726
-3.24754 1.68216 -1.5417
-3.26226 1.67679 -1.54618
-3.27705 1.67139 -1.55069
-3.29191 1.66594 -1.55523
-3.30685 1.66046 -1.55981
-3.32186 1.65493 -1.56443
-3.33694 1.64936 -1.56908
-3.35057 1.64301 -1.57305
-3.36254 1.63578 -1.57625
-3.379 1.63067 -1.58156
-3.39718 1.62628 -1.58766
-3.41627 1.62224 -1.59419
-3.44212 1.62127 -1.60387
-3.4683 1.62028 -1.61368
-3.49479 1.61929 -1.62363
-3.5216 1.61828 -1.63371
-3.54876 1.61726 -1.64394
-3.57625 1.61622 -1.65432
-3.60409 1.61517 -1.66483
-3.63228 1.6141 -1.67551
-3.66083 1.61302 -1.68633
-3.68976 1.61193 -1.69731
-3.71906 1.61082 -1.70845
-3.74874 1.6097 -1.71975
-3.77883 1.60855 -1.73122
-3.80931 1.6074 -1.74286
-3.8402 1.60622 -1.75467
-3.87151 1.60503 -1.76667
-3.90325 1.60382 -1.77884
-3.93533 1.60255 -1.79115
-3.9678 1.60125 -1.80363
-4.00071 1.59992 -1.8163
-4.0341 1.59857 -1.82916
-4.06795 1.5972 -1.84222
-4.1023 1.59581 -1.85549
-4.13714 1.5944 -1.86898
-4.17248 1.59297 -1.88267
-4.20876 1.59167 -1.89677
-4.24783 1.59119 -1.91211
-4.28753 1.5907 -1.92772
-4.32789 1.59021 -1.94361
-4.36862 1.58959 -1.95965
-4.41 1.58896 -1.97596
-4.45208 1.58832 -1.99256
-4.49583 1.58801 -2.0099
-4.54097 1.58791 -2.02783
-4.58692 1.5878 -2.04611
-4.63371 1.58769 -2.06475
-4.68135 1.58758 -2.08374
-4.73204 1.5882 -2.10407
-4.78481 1.58918 -2.1253
-4.83865 1.59019 -2.14699
-4.89362 1.59122 -2.16914
-4.94476 1.59066 -2.18959
-4.99507 1.58953 -2.20964
-5.04632 1.58838 -2.23009
-5.09852 1.5872 -2.25094
-5.54441 1.7069 -2.44541
-5.53407 1.68468 -2.43851
-5.5239 1.66261 -2.4317
-5.51388 1.6407 -2.42501
-5.50403 1.61895 -2.41843
-5.49432 1.59733 -2.41194
-5.54146 1.59215 -2.43042
-5.60787 1.59215 -2.45734
-5.67576 1.59216 -2.48489
-2.62337 2.30138 -1.50533
-2.62962 2.29227 -1.50478
-2.63585 2.28316 -1.50423
-2.64206 2.27403 -1.50368
-2.64825 2.26489 -1.50314
-2.65441 2.25575 -1.50261
-2.66056 2.24659 -1.50208
-2.66667 2.23743 -1.50155
-2.67277 2.22826 -1.50103
-2.67884 2.21908 -1.50051
-2.6849 2.20989 -1.5
-2.69092 2.20069 -1.49949
-2.69693 2.19148 -1.49899
-2.70291 2.18226 -1.4985
-2.70887 2.17304 -1.498
-2.71481 2.1638 -1.49752
-2.72073 2.15456 -1.49704
-2.72662 2.14531 -1.49656
-2.73259 2.13613 -1.49614
-2.73899 2.12728 -1.49597
-2.74527 2.11835 -1.49576
-2.75153 2.10941 -1.49555
-2.75839 2.10092 -1.49567
-2.76537 2.09253 -1.49588
-2.77234 2.08413 -1.4961
-2.77929 2.0757 -1.49632
-2.78622 2.06725 -1.49654
-2.79312 2.05879 -1.49677
-2.80002 2.05031 -1.497
-2.80689 2.04181 -1.49723
-2.81374 2.03329 -1.49746
-2.82057 2.02476 -1.4977
-2.82739 2.01621 -1.49795
-2.83418 2.00763 -1.4982
-2.84096 1.99905 -1.49845
-2.84771 1.99044 -1.4987
-2.85445 1.98181 -1.49896
-2.86117 1.97317 -1.49922
-2.86786 1.9645 -1.49948
-2.87454 1.95582 -1.49975
-2.88133 1.94721 -1.50009
-2.88813 1.9386 -1.50045
-2.89491 1.92998 -1.50081
-2.90168 1.92133 -1.50118
-2.90842 1.91267 -1.50155
-2.91515 1.90398 -1.50192
-2.92185 1.89528 -1.5023
-2.92854 1.88656 -1.50268
-2.93521 1.87782 -1.50306
-2.94186 1.86906 -1.50345
-2.94849 1.86028 -1.50384
-2.9551 1.85148 -1.50423
-2.96169 1.84267 -1.50463
-2.9697 1.83472 -1.50576
-2.97987 1.82808 -1.50799
-2.99006 1.82141 -1.51024
-3.00026 1.81471 -1.51251
-3.01048 1.80798 -1.51478
-3.02071 1.80122 -1.51707
-3.03097 1.79444 -1.51938
-3.04134 1.78769 -1.52176
-3.05172 1.7809 -1.52414
-3.06213 1.77408 -1.52654
-3.07255 1.76723 -1.52896
-3.08283 1.76026 -1.53131
-3.09219 1.75274 -1.53322
-3.10157 1.74519 -1.53514
-3.11095 1.73761 -1.53707
-3.12035 1.73 -1.53902
-3.12975 1.72237 -1.54097
-3.13916 1.71471 -1.54294
-3.14858 1.70702 -1.54493
-3.15802 1.6993 -1.54693
-3.16746 1.69155 -1.54894
-3.17691 1.68378 -1.55096
-3.18637 1.67598 -1.553
-3.19921 1.66991 -1.55669
-3.21361 1.66459 -1.56114
-3.22808 1.65922 -1.56563
-3.24261 1.65382 -1.57015
-3.25722 1.64838 -1.5747
-3.2719 1.64291 -1.57929
-3.28664 1.63739 -1.58391
-3.30146 1.63183 -1.58857
-3.31635 1.62623 -1.59327
-3.33592 1.62283 -1.60021
-3.36118 1.62207 -1.60987
-3.38637 1.62111 -1.61949
-3.41185 1.62014 -1.62923
-3.43765 1.61916 -1.63911
-3.46376 1.61816 -1.64912
-3.49018 1.61715 -1.65927
-3.51694 1.61613 -1.66957
-3.54402 1.6151 -1.68001
-3.57145 1.61405 -1.69059
-3.59922 1.61299 -1.70133
-3.62734 1.61191 -1.71222
-3.65583 1.61082 -1.72326
-3.68468 1.60971 -1.73447
-3.7139 1.60859 -1.74583
-3.74351 1.60745 -1.75737
-3.77352 1.6063 -1.76907
-3.80392 1.60512 -1.78095
-3.83473 1.60394 -1.79301
-3.86597 1.60273 -1.80524
-3.89762 1.60151 -1.81766
-3.92964 1.60023 -1.83024
-3.96201 1.59891 -1.84297
-3.99484 1.59757 -1.85589
-4.02813 1.5962 -1.86901
-4.0619 1.59482 -1.88234
-4.097 1.59375 -1.89628
-4.13428 1.5933 -1.91121
-4.17215 1.59284 -1.92639
-4.21063 1.59237 -1.94183
-4.24973 1.5919 -1.95754
-4.28929 1.59135 -1.97345
-4.32936 1.59075 -1.98958
-4.3701 1.59013 -2.00599
-4.41151 1.58951 -2.02269
-4.45361 1.58887 -2.0397
-4.49747 1.58859 -2.05748
-4.54263 1.58849 -2.07585
-4.58963 1.58874 -2.09503
-4.63956 1.5897 -2.11553
-4.69048 1.59068 -2.13646
-4.74242 1.59168 -2.15782
-4.79542 1.5927 -2.17965
-4.84641 1.59273 -2.20054
-4.89492 1.59164 -2.22028
-4.94433 1.59053 -2.24041
-2.5821 2.26518 -1.51564
-2.58827 2.25623 -1.51509
-2.59442 2.24727 -1.51454
-2.60055 2.2383 -1.514
-2.60665 2.22932 -1.51346
-2.61273 2.22033 -1.51293
-2.61879 2.21133 -1.51241
-2.62483 2.20232 -1.51189
-2.63085 2.19331 -1.51137
-2.63684 2.18428 -1.51086
-2.64281 2.17525 -1.51035
-2.64876 2.1662 -1.50985
-2.65468 2.15715 -1.50935
-2.66059 2.14809 -1.50886
-2.66655 2.13909 -1.50842
-2.67297 2.13045 -1.50825
-2.67936 2.1218 -1.50808
-2.68573 2.11314 -1.50792
-2.69208 2.10446 -1.50777
-2.69835 2.09572 -1.50757
-2.70454 2.08692 -1.50736
-2.71072 2.07812 -1.50715
-2.71687 2.0693 -1.50695
-2.72301 2.06048 -1.50675
-2.72913 2.05164 -1.50656
-2.73522 2.04279 -1.50637
-2.7413 2.03393 -1.50619
-2.74736 2.02506 -1.50601
-2.7534 2.01618 -1.50584
-2.75942 2.00728 -1.50567
-2.76542 1.99838 -1.50551
-2.77173 1.9897 -1.50553
-2.77842 1.98129 -1.50577
-2.78509 1.97286 -1.50601
-2.79174 1.96441 -1.50626
-2.79837 1.95595 -1.50651
-2.80498 1.94747 -1.50676
-2.81157 1.93897 -1.50702
-2.81815 1.93045 -1.50728
-2.8247 1.92191 -1.50755
-2.83124 1.91336 -1.50782
-2.83781 1.90483 -1.50812
-2.84447 1.89634 -1.50848
-2.8511 1.88784 -1.50884
-2.85771 1.87932 -1.5092
-2.86431 1.87078 -1.50957
-2.87089 1.86222 -1.50995
-2.87744 1.85364 -1.51032
-2.88414 1.84514 -1.51078
-2.89407 1.83869 -1.51295
-2.90401 1.83222 -1.51512
-2.91397 1.82571 -1.51732
-2.92394 1.81918 -1.51952
-2.93392 1.81261 -1.52174
-2.94392 1.80602 -1.52397
-2.95393 1.7994 -1.52622
-2.96396 1.79275 -1.52847
-2.974 1.78607 -1.53075
-2.98405 1.77936 -1.53303
-2.99412 1.77262 -1.53533
-3.00428 1.7659 -1.53769
-3.01448 1.75916 -1.54007
-3.02469 1.75239 -1.54246
-3.03493 1.74559 -1.54488
-3.04518 1.73877 -1.5473
-3.05544 1.73191 -1.54974
-3.06572 1.72502 -1.55219
-3.07601 1.71809 -1.55466
-3.08632 1.71114 -1.55715
-3.09587 1.70372 -1.55925
-3.10513 1.69612 -1.56122
-3.11441 1.68849 -1.56321
-3.12369 1.68083 -1.56521
-3.13299 1.67315 -1.56722
-3.14229 1.66543 -1.56925
-3.1519 1.65785 -1.57143
-3.16599 1.65257 -1.57586
-3.18014 1.64725 -1.58032
-3.19437 1.6419 -1.58481
-3.20865 1.6365 -1.58934
-3.22301 1.63107 -1.5939
-3.24245 1.62812 -1.60097
-3.26308 1.62565 -1.60863
-3.2839 1.62315 -1.61637
-3.30492 1.62062 -1.62419
-3.33064 1.62026 -1.63432
-3.35691 1.62001 -1.64471
-3.38204 1.61904 -1.65451
-3.40747 1.61805 -1.66445
-3.4332 1.61706 -1.67453
-3.45924 1.61605 -1.68474
-3.4856 1.61503 -1.6951
-3.51229 1.614 -1.7056
-3.5393 1.61295 -1.71625
-3.56665 1.61188 -1.72704
-3.59435 1.61081 -1.73799
-3.6224 1.60971 -1.7491
-3.6508 1.60861 -1.76036
-3.67958 1.60749 -1.77179
-3.70873 1.60635 -1.78339
-3.73826 1.60519 -1.79515
-3.76819 1.60403 -1.80709
-3.79851 1.60284 -1.81921
-3.82924 1.60164 -1.8315
-3.86039 1.60042 -1.84398
-3.89197 1.59918 -1.85665
-3.92392 1.5979 -1.86949
-3.9562 1.59657 -1.88247
-3.99029 1.59575 -1.89629
-4.0259 1.59532 -1.91082
-4.06207 1.59489 -1.9256
-4.09879 1.59445 -1.94062
-4.13611 1.594 -1.9559
-4.174 1.59355 -1.97144
-4.21245 1.59306 -1.98723
-4.25127 1.59248 -2.00317
-4.29073 1.59189 -2.01939
-4.33083 1.59128 -2.0359
-4.37159 1.59067 -2.0527
-4.41302 1.59005 -2.06979
-4.45518 1.58943 -2.08721
-4.50212 1.59023 -2.10685
-4.55034 1.59118 -2.12706
-4.5995 1.59216 -2.14769
-4.64963 1.59315 -2.16875
-4.70076 1.59417 -2.19025
-4.75151 1.59473 -2.21154
-4.79833 1.59367 -2.23099
-4.84599 1.5926 -2.25081
-2.54182 2.22984 -1.52569
-2.54791 2.22105 -1.52515
-2.55398 2.21224 -1.52461
-2.56002 2.20342 -1.52407
-2.56605 2.19459 -1.52354
-2.57205 2.18575 -1.52301
-2.57803 2.17691 -1.52249
-2.58398 2.16805 -1.52198
-2.58992 2.15919 -1.52146
-2.59583 2.15031 -1.52096
-2.60183 2.14152 -1.52052
-2.60823 2.13306 -1.52033
-2.6146 2.12459 -1.52014
-2.62096 2.1161 -1.51996
-2.6273 2.1076 -1.51978
-2.63362 2.09909 -1.51961
-2.63993 2.09057 -1.51945
-2.64621 2.08204 -1.51929
-2.65247 2.0735 -1.51913
-2.65861 2.06485 -1.51892
-2.66471 2.05619 -1.51871
-2.6708 2.04752 -1.5185
-2.67688 2.03884 -1.5183
-2.68293 2.03015 -1.5181
-2.68896 2.02144 -1.51791
-2.69497 2.01273 -1.51772
-2.70097 2.004 -1.51754
-2.70694 1.99527 -1.51737
-2.7129 1.98652 -1.51719
-2.71883 1.97776 -1.51703
-2.72475 1.96899 -1.51687
-2.73065 1.96021 -1.51671
-2.73652 1.95141 -1.51656
-2.74238 1.94261 -1.51641
-2.74822 1.9338 -1.51627
-2.75405 1.92497 -1.51613
-2.75985 1.91613 -1.516
-2.76563 1.90728 -1.51588
-2.77139 1.89842 -1.51576
-2.77714 1.88955 -1.51564
-2.78286 1.88067 -1.51553
-2.78902 1.87208 -1.51567
-2.7954 1.86363 -1.51594
-2.8019 1.85526 -1.51629
-2.81087 1.84852 -1.518
-2.82059 1.84222 -1.52011
-2.83031 1.8359 -1.52223
-2.84005 1.82955 -1.52436
-2.8498 1.82318 -1.52651
-2.85957 1.81677 -1.52867
-2.86934 1.81034 -1.53085
-2.87913 1.80388 -1.53304
-2.88893 1.7974 -1.53524
-2.89875 1.79088 -1.53745
-2.90857 1.78434 -1.53968
-2.91841 1.77777 -1.54192
-2.92827 1.77116 -1.54418
-2.93813 1.76453 -1.54644
-2.94801 1.75787 -1.54873
-2.9579 1.75118 -1.55102
-2.96784 1.74448 -1.55335
-2.97786 1.73779 -1.55572
-2.9879 1.73108 -1.55812
-2.99795 1.72433 -1.56052
-3.00802 1.71755 -1.56294
-3.0181 1.71074 -1.56537
-3.02819 1.7039 -1.56782
-3.0383 1.69703 -1.57029
-3.04843 1.69013 -1.57276
-3.05857 1.6832 -1.57526
-3.06872 1.67623 -1.57776
-3.0789 1.66924 -1.58029
-3.08908 1.66221 -1.58283
-3.09902 1.655 -1.58524
-3.10818 1.64735 -1.58727
-3.11936 1.64074 -1.59033
-3.13326 1.63549 -1.59479
-3.15286 1.63312 -1.60215
-3.17264 1.63073 -1.60958
-3.19261 1.62832 -1.61711
-3.21276 1.62588 -1.62471
-3.23309 1.62342 -1.6324
-3.25361 1.62093 -1.64018
-3.27433 1.61842 -1.64805
-3.29895 1.61769 -1.65788
-3.32589 1.61795 -1.66885
-3.35262 1.61794 -1.6797
-3.37769 1.61696 -1.68971
-3.40306 1.61596 -1.69985
-3.42873 1.61496 -1.71012
-3.45471 1.61394 -1.72054
-3.48101 1.6129 -1.7311
-3.50763 1.61186 -1.74181
-3.53458 1.6108 -1.75267
-3.56187 1.60972 -1.76368
-3.5895 1.60863 -1.77485
-3.61748 1.60753 -1.78618
-3.64581 1.60641 -1.79766
-3.67452 1.60527 -1.80932
-3.70359 1.60412 -1.82114
-3.73305 1.60295 -1.83314
-3.76289 1.60177 -1.84531
-3.79313 1.60057 -1.85766
-3.82378 1.59935 -1.87019
-3.85484 1.59812 -1.88292
-3.88852 1.59777 -1.89691
-3.92234 1.59726 -1.91094
-3.95691 1.59685 -1.92533
-3.99201 1.59644 -1.93996
-4.02765 1.59601 -1.95483
-4.06385 1.59558 -1.96995
-4.1006 1.59515 -1.98533
-4.13794 1.59471 -2.00097
-4.17561 1.59416 -2.01675
-4.21385 1.59359 -2.03278
-4.2527 1.59301 -2.0491
-4.29218 1.59242 -2.0657
-4.3323 1.59183 -2.08259
-4.37349 1.59137 -2.09997
-4.4172 1.59156 -2.11855
-4.46415 1.59263 -2.13865
-4.5117 1.59362 -2.15902
-4.56012 1.5946 -2.17978
-4.60948 1.59561 -2.20096
-4.65982 1.59664 -2.22259
-4.70509 1.59563 -2.24178
-2.50249 2.19534 -1.53551
-2.5085 2.18669 -1.53497
-2.51449 2.17803 -1.53443
-2.52045 2.16936 -1.5339
-2.5264 2.16068 -1.53338
-2.53232 2.15199 -1.53286
-2.53837 2.14342 -1.53243
-2.54475 2.13514 -1.53222
-2.55112 2.12684 -1.53202
-2.55746 2.11853 -1.53182
-2.56379 2.11021 -1.53163
-2.5701 2.10187 -1.53144
-2.57638 2.09353 -1.53125
-2.58265 2.08517 -1.53107
-2.58891 2.0768 -1.5309
-2.59514 2.06842 -1.53073
-2.60135 2.06003 -1.53057
-2.60755 2.05162 -1.53041
-2.61369 2.04317 -1.53023
-2.61973 2.03466 -1.53002
-2.62576 2.02613 -1.52981
-2.63176 2.01759 -1.5296
-2.63775 2.00904 -1.5294
-2.64372 2.00048 -1.52921
-2.64967 1.99191 -1.52902
-2.6556 1.98332 -1.52883
-2.66151 1.97473 -1.52865
-2.6674 1.96612 -1.52847
-2.67327 1.9575 -1.5283
-2.67913 1.94887 -1.52814
-2.68496 1.94024 -1.52798
-2.69078 1.93158 -1.52782
-2.69657 1.92292 -1.52767
-2.70235 1.91425 -1.52753
-2.70811 1.90557 -1.52739
-2.71385 1.89687 -1.52725
-2.71957 1.88817 -1.52712
-2.72527 1.87945 -1.527
-2.73096 1.87072 -1.52688
-2.73662 1.86198 -1.52676
-2.74353 1.85409 -1.52736
-2.75243 1.84751 -1.52907
-2.76133 1.84092 -1.53079
-2.77021 1.83428 -1.53251
-2.77909 1.82762 -1.53423
-2.78798 1.82093 -1.53597
-2.79688 1.81421 -1.53772
-2.80644 1.8079 -1.53984
-2.81603 1.80157 -1.54199
-2.82563 1.79521 -1.54415
-2.83524 1.78883 -1.54632
-2.84487 1.78241 -1.5485
-2.8545 1.77597 -1.5507
-2.86415 1.76951 -1.55291
-2.87381 1.76301 -1.55513
-2.88348 1.75648 -1.55737
-2.89316 1.74993 -1.55962
-2.90286 1.74335 -1.56188
-2.91257 1.73674 -1.56416
-2.92229 1.7301 -1.56645
-2.93203 1.72343 -1.56875
-2.94186 1.71679 -1.57112
-2.95172 1.71012 -1.5735
-2.9616 1.70342 -1.5759
-2.97148 1.69669 -1.57832
-2.98139 1.68993 -1.58075
-2.9913 1.68314 -1.58319
-3.00123 1.67632 -1.58565
-3.01117 1.66948 -1.58812
-3.02113 1.66259 -1.5906
-3.03111 1.65568 -1.5931
-3.04109 1.64874 -1.59562
-3.0511 1.64177 -1.59815
-3.06538 1.63704 -1.60293
-3.08347 1.63426 -1.60969
-3.10504 1.6332 -1.61826
-3.12437 1.63085 -1.62566
-3.14388 1.62847 -1.63314
-3.16357 1.62607 -1.64069
-3.18343 1.62364 -1.64834
-3.20348 1.62119 -1.65607
-3.22371 1.61871 -1.66389
-3.24413 1.61621 -1.6718
-3.26772 1.61515 -1.68133
-3.29425 1.61539 -1.69236
-3.32112 1.61563 -1.70354
-3.34831 1.61586 -1.71487
-3.37332 1.61486 -1.72507
-3.39864 1.61386 -1.73542
-3.42424 1.61284 -1.74589
-3.45016 1.61181 -1.75651
-3.4764 1.61077 -1.76728
-3.50296 1.60971 -1.7782
-3.52984 1.60864 -1.78927
-3.55706 1.60755 -1.8005
-3.58462 1.60645 -1.81188
-3.61254 1.60533 -1.82343
-3.6408 1.6042 -1.83514
-3.66943 1.60305 -1.84702
-3.69843 1.60189 -1.85907
-3.72781 1.60071 -1.8713
-3.7579 1.59965 -1.88387
-3.79076 1.59957 -1.89781
-3.82411 1.59949 -1.91198
-3.85694 1.59899 -1.92587
-3.89017 1.59845 -1.93994
-3.92401 1.59794 -1.9543
-3.95861 1.59754 -1.96902
-3.99374 1.59713 -1.98399
-4.02941 1.59671 -1.9992
-4.06563 1.59629 -2.01468
-4.10226 1.5958 -2.03033
-4.13934 1.59525 -2.04619
-4.17699 1.59469 -2.06231
-4.21526 1.59412 -2.07872
-4.25449 1.59368 -2.09558
-4.29441 1.59325 -2.11276
-4.33498 1.59281 -2.13025
-4.38033 1.59385 -2.15006
-4.42657 1.59493 -2.17029
-4.4737 1.59604 -2.19092
-4.5214 1.59704 -2.21181
-4.57002 1.59806 -2.23312
-4.61501 1.59753 -2.25264
-2.46407 2.16164 -1.5451
-2.47 2.15313 -1.54457
-2.47614 2.14481 -1.54418
-2.4825 2.1367 -1.54395
-2.48885 2.12857 -1.54373
-2.49518 2.12043 -1.54351
-2.5015 2.11228 -1.5433
-2.50779 2.10412 -1.54309
-2.51407 2.09595 -1.54289
-2.52033 2.08776 -1.54269
-2.52656 2.07957 -1.5425
-2.53278 2.07136 -1.54231
-2.53898 2.06314 -1.54213
-2.54517 2.0549 -1.54195
-2.55133 2.04666 -1.54178
-2.55748 2.0384 -1.54161
-2.56361 2.03014 -1.54145
-2.56972 2.02186 -1.54129
-2.57573 2.0135 -1.54109
-2.58169 2.00511 -1.54088
-2.58764 1.99671 -1.54067
-2.59356 1.9883 -1.54046
-2.59947 1.97988 -1.54026
-2.60535 1.97145 -1.54007
-2.61122 1.963 -1.53988
-2.61707 1.95454 -1.5397
-2.6229 1.94608 -1.53952
-2.62871 1.9376 -1.53935
-2.6345 1.92911 -1.53918
-2.64027 1.92061 -1.53901
-2.64603 1.9121 -1.53885
-2.65176 1.90358 -1.5387
-2.65748 1.89504 -1.53855
-2.66317 1.8865 -1.53841
-2.66885 1.87794 -1.53827
-2.67451 1.86938 -1.53813
-2.68015 1.8608 -1.538
-2.68817 1.85386 -1.53925
-2.69692 1.84741 -1.54093
-2.70568 1.84093 -1.54262
-2.71445 1.83443 -1.54432
-2.72322 1.82791 -1.54603
-2.732 1.82137 -1.54775
-2.74075 1.81477 -1.54947
-2.7495 1.80816 -1.55119
-2.75826 1.80152 -1.55293
-2.76703 1.79485 -1.55468
-2.7758 1.78816 -1.55644
-2.78458 1.78145 -1.55822
-2.79337 1.77472 -1.56
-2.80216 1.76796 -1.5618
-2.81115 1.76129 -1.56371
-2.82063 1.7549 -1.56591
-2.83011 1.74848 -1.56811
-2.83961 1.74203 -1.57033
-2.84911 1.73555 -1.57256
-2.85863 1.72905 -1.57481
-2.86816 1.72251 -1.57706
-2.87771 1.71595 -1.57934
-2.88726 1.70936 -1.58162
-2.89683 1.70274 -1.58392
-2.90645 1.69612 -1.58626
-2.91614 1.6895 -1.58864
-2.92584 1.68285 -1.59103
-2.93556 1.67618 -1.59344
-2.94529 1.66947 -1.59586
-2.95502 1.66273 -1.5983
-2.96478 1.65596 -1.60075
-2.97454 1.64917 -1.60321
-2.98432 1.64234 -1.60569
-3.00034 1.63888 -1.61152
-3.01652 1.63542 -1.61745
-3.03281 1.63193 -1.62342
-3.05106 1.62939 -1.63044
-3.07325 1.62884 -1.63955
-3.09568 1.62828 -1.64878
-3.11548 1.6262 -1.65659
-3.13489 1.62381 -1.66418
-3.15447 1.62139 -1.67187
-3.17424 1.61895 -1.67963
-3.19418 1.61648 -1.68749
-3.21431 1.61399 -1.69543
-3.23694 1.61263 -1.70469
-3.26306 1.61285 -1.71576
-3.28952 1.61307 -1.727
-3.31633 1.6133 -1.7384
-3.34349 1.61353 -1.74997
-3.36893 1.61276 -1.76062
