ply
format ascii 1.0
comment Created by Open3D
element vertex 1794
property double x
property double y
property double z
end_header
-2.58538 -6.96901 -1.76168
-2.56517 -6.9815 -1.7628
-2.54492 -6.994 -1.76393
-2.52465 -7.00651 -1.76509
-2.50434 -7.01903 -1.76625
-2.48401 -7.03156 -1.76744
-2.46365 -7.04409 -1.76864
-2.44325 -7.05664 -1.76986
-2.42283 -7.06919 -1.7711
-2.40237 -7.08176 -1.77235
-2.38188 -7.09434 -1.77362
-2.36138 -7.10696 -1.77492
-2.34109 -7.12037 -1.77643
-2.32077 -7.13379 -1.77796
-2.30165 -7.15109 -1.78046
-2.28441 -7.17451 -1.7845
-4.96078 -6.88094 -2.08505
-4.92822 -6.88112 -2.08042
-4.89581 -6.88131 -2.07583
-4.86355 -6.88149 -2.07128
-4.83142 -6.88167 -2.06677
-4.79944 -6.88186 -2.0623
-4.7676 -6.88204 -2.05787
-4.73588 -6.88222 -2.05347
-4.7043 -6.8824 -2.04912
-4.67287 -6.88258 -2.04481
-4.64155 -6.88276 -2.04053
-4.6106 -6.88329 -2.03639
-4.57982 -6.88386 -2.03231
-4.54915 -6.88443 -2.02826
-4.5186 -6.885 -2.02425
-4.48818 -6.88557 -2.02027
-4.45787 -6.88613 -2.01633
-4.42769 -6.8867 -2.01242
-4.39762 -6.88726 -2.00855
-4.36766 -6.88782 -2.00472
-4.33782 -6.88837 -2.00091
-4.30807 -6.8889 -1.99713
-4.27842 -6.8894 -1.99338
-4.24888 -6.8899 -1.98967
-4.21945 -6.89039 -1.98598
-4.19013 -6.89089 -1.98233
-4.16092 -6.89138 -1.97872
-4.13181 -6.89187 -1.97513
-4.1028 -6.89236 -1.97158
-4.07393 -6.89289 -1.96807
-4.04522 -6.89351 -1.96462
-4.0166 -6.89413 -1.9612
-3.98809 -6.89475 -1.95781
-3.95966 -6.89537 -1.95446
-3.93134 -6.89598 -1.95113
-3.90312 -6.89659 -1.94784
-3.87491 -6.89707 -1.94453
-3.84675 -6.89745 -1.94123
-3.81868 -6.89783 -1.93796
-3.79071 -6.89821 -1.93472
-3.76283 -6.89859 -1.93151
-3.73503 -6.89896 -1.92833
-3.70734 -6.89934 -1.92518
-3.67974 -6.89971 -1.92206
-3.65222 -6.90009 -1.91897
-3.62478 -6.90046 -1.91591
-3.59745 -6.90084 -1.91287
-3.57019 -6.90121 -1.90987
-3.54302 -6.90158 -1.90689
-3.51558 -6.90126 -1.90375
-3.48745 -6.89939 -1.90021
-3.46005 -6.89878 -1.89704
-3.43274 -6.89817 -1.89391
-3.40553 -6.89756 -1.89081
-3.3784 -6.89695 -1.88773
-3.35136 -6.89635 -1.88468
-3.3244 -6.89575 -1.88166
-3.32865 -6.96021 -1.8964
-3.34402 -7.04899 -1.91772
-3.24055 -6.88652 -1.87075
-3.21425 -6.88653 -1.86801
-3.18801 -6.88653 -1.86529
-3.16186 -6.88654 -1.8626
-3.13578 -6.88654 -1.85993
-3.10977 -6.88654 -1.8573
-3.08384 -6.88655 -1.85468
-3.05798 -6.88655 -1.8521
-3.03219 -6.88656 -1.84953
-3.00647 -6.88656 -1.84699
-2.98082 -6.88656 -1.84448
-2.95525 -6.88657 -1.842
-2.92974 -6.88657 -1.83953
-2.90429 -6.88658 -1.83709
-2.87892 -6.88658 -1.83468
-2.85562 -6.89144 -1.83358
-2.845 -6.92708 -1.84069
-2.83428 -6.96296 -1.84785
-2.78358 -6.90022 -1.82888
-2.76117 -6.90696 -1.82836
-2.73877 -6.9137 -1.82787
-2.71639 -6.92043 -1.82739
-2.69402 -6.92715 -1.82692
-2.67165 -6.93386 -1.82648
-2.64917 -6.94023 -1.82596
-2.62611 -6.94505 -1.82506
-2.60308 -6.94986 -1.82417
-2.58007 -6.95467 -1.8233
-2.55707 -6.95946 -1.82245
-2.53433 -6.96489 -1.82178
-2.51413 -6.97733 -1.82297
-2.49391 -6.98978 -1.82417
-2.47365 -7.00223 -1.82539
-2.45337 -7.0147 -1.82662
-2.43305 -7.02717 -1.82788
-2.4127 -7.03965 -1.82915
-2.39234 -7.05217 -1.83045
-2.3722 -7.06547 -1.83196
-2.35202 -7.07879 -1.8335
-2.3318 -7.09212 -1.83505
-2.31155 -7.10547 -1.83662
-2.29126 -7.11883 -1.83821
-2.27315 -7.13916 -1.84161
-4.96416 -6.88563 -2.16144
-4.93141 -6.88558 -2.15656
-4.89881 -6.88553 -2.15173
-4.86636 -6.88548 -2.14694
-4.83406 -6.88543 -2.14219
-4.8019 -6.88538 -2.13749
-4.76988 -6.88533 -2.13282
-4.738 -6.88529 -2.1282
-4.70625 -6.88525 -2.12362
-4.67465 -6.88521 -2.11908
-4.64318 -6.88517 -2.11458
-4.61179 -6.88506 -2.11011
-4.58054 -6.88495 -2.10566
-4.54984 -6.88548 -2.10145
-4.51927 -6.88601 -2.09729
-4.48882 -6.88655 -2.09316
-4.45849 -6.88708 -2.08906
-4.42827 -6.88761 -2.085
-4.39818 -6.88813 -2.08098
-4.36822 -6.88869 -2.07701
-4.33837 -6.88925 -2.07307
-4.30863 -6.8898 -2.06916
-4.27901 -6.89035 -2.06529
-4.2495 -6.8909 -2.06146
-4.2201 -6.89145 -2.05766
-4.1908 -6.892 -2.05389
-4.16162 -6.89254 -2.05016
-4.1325 -6.89303 -2.04644
-4.1035 -6.89352 -2.04276
-4.07462 -6.89406 -2.03913
-4.0459 -6.89468 -2.03555
-4.01727 -6.89529 -2.03201
-3.98875 -6.89591 -2.0285
-3.96033 -6.89652 -2.02502
-3.932 -6.89714 -2.02157
-3.90377 -6.89775 -2.01816
-3.87563 -6.89835 -2.01477
-3.84759 -6.89896 -2.01142
-3.81964 -6.89957 -2.0081
-3.79179 -6.90017 -2.00481
-3.76402 -6.90077 -2.00155
-3.73634 -6.90137 -1.99832
-3.70867 -6.9018 -1.99507
-3.68105 -6.90217 -1.99183
-3.65352 -6.90254 -1.98862
-3.62607 -6.90292 -1.98545
-3.59873 -6.90329 -1.9823
-3.57146 -6.90366 -1.97919
-3.54428 -6.90402 -1.9761
-3.51666 -6.90338 -1.97275
-3.48841 -6.90127 -1.96902
-3.46026 -6.89917 -1.96532
-3.43221 -6.89709 -1.96165
-3.40496 -6.8964 -1.95841
-3.37783 -6.89579 -1.95522
-3.38169 -6.95875 -1.97006
-3.31995 -6.88651 -1.94666
-3.29341 -6.88652 -1.94373
-3.26694 -6.88652 -1.94084
-3.24056 -6.88652 -1.93797
-3.21425 -6.88653 -1.93513
-3.18801 -6.88653 -1.93231
-3.16186 -6.88654 -1.92952
-3.13578 -6.88654 -1.92676
-3.10977 -6.88654 -1.92403
-3.08384 -6.88655 -1.92132
-3.05798 -6.88655 -1.91864
-3.03219 -6.88656 -1.91599
-3.00647 -6.88656 -1.91336
-2.98082 -6.88656 -1.91075
-2.95525 -6.88657 -1.90818
-2.92974 -6.88657 -1.90563
-2.90429 -6.88658 -1.9031
-2.87892 -6.88658 -1.9006
-2.85361 -6.88658 -1.89812
-2.82837 -6.88659 -1.89568
-2.8032 -6.88659 -1.89325
-2.77808 -6.8866 -1.89085
-2.7677 -6.9233 -1.89854
-2.7337 -6.90088 -1.89003
-2.71136 -6.9076 -1.88954
-2.68903 -6.91431 -1.88906
-2.6667 -6.92102 -1.8886
-2.64423 -6.92728 -1.88804
-2.62122 -6.93209 -1.8871
-2.59823 -6.9369 -1.88619
-2.57526 -6.94171 -1.88529
-2.55231 -6.9465 -1.88441
-2.52938 -6.95129 -1.88355
-2.50647 -6.95606 -1.88271
-2.48358 -6.96083 -1.88188
-2.46334 -6.97303 -1.88309
-2.44313 -6.98543 -1.88436
-2.4229 -6.99785 -1.88565
-2.4029 -7.01105 -1.88717
-2.38287 -7.02426 -1.88871
-2.3628 -7.03749 -1.89027
-2.34269 -7.05073 -1.89184
-2.32255 -7.06398 -1.89344
-2.30237 -7.07725 -1.89505
-2.28216 -7.09054 -1.89669
-2.26196 -7.10403 -1.89839
-4.96575 -6.88784 -2.23744
-4.93353 -6.88854 -2.23264
-4.90146 -6.88925 -2.22788
-4.86953 -6.88995 -2.22316
-4.83759 -6.89046 -2.21843
-4.8054 -6.8904 -2.21355
-4.77335 -6.89034 -2.20872
-4.74144 -6.89029 -2.20393
-4.70966 -6.89024 -2.19918
-4.67802 -6.89018 -2.19448
-4.64653 -6.89013 -2.18981
-4.61511 -6.89002 -2.18517
-4.58383 -6.88989 -2.18057
-4.55268 -6.88977 -2.176
-4.52166 -6.88965 -2.17148
-4.49077 -6.88953 -2.167
-4.46 -6.88942 -2.16256
-4.42936 -6.8893 -2.15816
-4.39918 -6.88972 -2.15396
-4.3692 -6.89024 -2.14983
-4.33933 -6.89076 -2.14575
-4.30956 -6.89128 -2.14169
-4.27991 -6.8918 -2.13768
-4.25038 -6.89232 -2.1337
-4.22095 -6.89284 -2.12975
-4.19163 -6.89335 -2.12584
-4.16242 -6.89386 -2.12197
-4.13331 -6.89438 -2.11813
-4.10431 -6.89489 -2.11433
-4.07525 -6.89512 -2.11048
-4.04608 -6.89499 -2.10655
-4.01702 -6.89486 -2.10265
-3.98845 -6.89539 -2.09899
-3.96013 -6.89617 -2.09544
-3.93189 -6.89695 -2.09193
-3.90376 -6.89772 -2.08844
-3.87571 -6.89849 -2.08499
-3.84775 -6.89926 -2.08157
-3.81989 -6.90002 -2.07818
-3.79212 -6.90078 -2.07482
-3.76443 -6.90154 -2.07149
-3.73684 -6.90229 -2.06819
-3.70933 -6.90304 -2.06493
-3.68186 -6.90371 -2.06167
-3.65445 -6.90431 -2.05841
-3.62711 -6.9049 -2.05519
-3.59987 -6.90549 -2.052
-3.57271 -6.90608 -2.04884
-3.54554 -6.90648 -2.04566
-3.51775 -6.9055 -2.04209
-3.48947 -6.90337 -2.03822
-3.46115 -6.90096 -2.0343
-3.43294 -6.89856 -2.03041
-3.40485 -6.89617 -2.02656
-3.40304 -6.94726 -2.03843
-3.34658 -6.88651 -2.01752
-3.31995 -6.88651 -2.01446
-3.29341 -6.88652 -2.01143
-3.26694 -6.88652 -2.00844
-3.24055 -6.88652 -2.00547
-3.21425 -6.88653 -2.00253
-3.18801 -6.88653 -1.99961
-3.16186 -6.88654 -1.99673
-3.13578 -6.88654 -1.99387
-3.10977 -6.88654 -1.99104
-3.08384 -6.88655 -1.98824
-3.05798 -6.88655 -1.98547
-3.03219 -6.88656 -1.98272
-3.00647 -6.88656 -1.98
-2.98082 -6.88656 -1.97731
-2.95525 -6.88657 -1.97464
-2.92974 -6.88657 -1.972
-2.90429 -6.88658 -1.96939
-2.87892 -6.88658 -1.9668
-2.85361 -6.88658 -1.96424
-2.82837 -6.88659 -1.9617
-2.80319 -6.88659 -1.95919
-2.77808 -6.8866 -1.95671
-2.75303 -6.8866 -1.95425
-2.73079 -6.89353 -1.95378
-2.72376 -6.93921 -1.9643
-2.68403 -6.90147 -1.95122
-2.66175 -6.90817 -1.95075
-2.63928 -6.91432 -1.95014
-2.61631 -6.91913 -1.94918
-2.59337 -6.92394 -1.94824
-2.57045 -6.92874 -1.94731
-2.54755 -6.93353 -1.9464
-2.52466 -6.93831 -1.94552
-2.50179 -6.94309 -1.94465
-2.47898 -6.94793 -1.94382
-2.45697 -6.95499 -1.94364
-2.43593 -6.96483 -1.94424
-2.41641 -6.97911 -1.9461
-2.39686 -6.99341 -1.94799
-2.37726 -7.00774 -1.9499
-2.35763 -7.0221 -1.95183
-2.33796 -7.03648 -1.95378
-2.31825 -7.0509 -1.95576
-2.2985 -7.06534 -1.95776
-2.2787 -7.07981 -1.95978
-2.25914 -7.09515 -1.96206
-4.58713 -6.89486 -2.25591
-4.55596 -6.89473 -2.25119
-4.5249 -6.8946 -2.2465
-4.49398 -6.89447 -2.24186
-4.46319 -6.89435 -2.23727
-4.43253 -6.89422 -2.23271
-4.40198 -6.8941 -2.22819
-4.37157 -6.89398 -2.22372
-4.34127 -6.89386 -2.21928
-4.3111 -6.89374 -2.21489
-4.28105 -6.89363 -2.21053
-4.25135 -6.8939 -2.20633
-4.22191 -6.89441 -2.20225
-4.19258 -6.89492 -2.19821
-4.16336 -6.89543 -2.19421
-4.13425 -6.89594 -2.19024
-4.10524 -6.89645 -2.1863
-4.07613 -6.89661 -2.18229
-4.04695 -6.89647 -2.17823
-4.01788 -6.89634 -2.1742
-3.98893 -6.89621 -2.17021
-3.96007 -6.89608 -2.16626
-3.93132 -6.89595 -2.16233
-3.90268 -6.89583 -2.15845
-3.87414 -6.8957 -2.1546
-3.84611 -6.89631 -2.15102
-3.81826 -6.89707 -2.14751
-3.7905 -6.89784 -2.14405
-3.76283 -6.8986 -2.14061
-3.73525 -6.89936 -2.1372
-3.70776 -6.90011 -2.13383
-3.68035 -6.90086 -2.13048
-3.65302 -6.90161 -2.12717
-3.62578 -6.90235 -2.12389
-3.59863 -6.90309 -2.12064
-3.57155 -6.90383 -2.11742
-3.54455 -6.90457 -2.11423
-3.51751 -6.90504 -2.11099
-3.48945 -6.90334 -2.10712
-3.46113 -6.90093 -2.10306
-3.43293 -6.89853 -2.09904
-3.40904 -6.90467 -2.09765
-3.37328 -6.8865 -2.08891
-3.34658 -6.88651 -2.08572
-3.31995 -6.88651 -2.08256
-3.29341 -6.88652 -2.07943
-3.26694 -6.88652 -2.07633
-3.24056 -6.88652 -2.07326
-3.21425 -6.88653 -2.07022
-3.18801 -6.88653 -2.06721
-3.16186 -6.88654 -2.06423
-3.13578 -6.88654 -2.06128
-3.10977 -6.88654 -2.05835
-3.08384 -6.88655 -2.05546
-3.05798 -6.88655 -2.05259
-3.03219 -6.88656 -2.04975
-3.00647 -6.88656 -2.04694
-2.98082 -6.88656 -2.04415
-2.95525 -6.88657 -2.04139
-2.92974 -6.88657 -2.03867
-2.90429 -6.88658 -2.03596
-2.87892 -6.88658 -2.03329
-2.85361 -6.88658 -2.03064
-2.82837 -6.88659 -2.02802
-2.80319 -6.88659 -2.02542
-2.77808 -6.8866 -2.02286
-2.75303 -6.8866 -2.02031
-2.72804 -6.8866 -2.0178
-2.70312 -6.88661 -2.01531
-2.69351 -6.92583 -2.02431
-2.69067 -6.98322 -2.03861
-2.63433 -6.90135 -2.01229
-2.61141 -6.90616 -2.0113
-2.589 -6.91229 -2.01071
-2.56697 -6.91936 -2.01042
-2.54493 -6.92643 -2.01014
-2.52291 -6.93349 -2.00989
-2.50088 -6.94056 -2.00966
-2.47887 -6.94762 -2.00945
-2.45685 -6.95468 -2.00925
-2.43513 -6.96255 -2.00931
-2.41562 -6.97682 -2.01124
-2.39607 -6.99112 -2.01318
-2.37648 -7.00544 -2.01516
-2.35686 -7.01979 -2.01715
-2.33719 -7.03417 -2.01917
-2.31748 -7.04858 -2.02121
-2.29783 -7.0633 -2.02336
-2.27836 -7.07872 -2.02572
-2.25883 -7.09419 -2.02811
-4.13544 -6.89793 -2.26284
-4.10617 -6.89802 -2.25863
-4.07701 -6.8981 -2.25447
-4.04783 -6.89797 -2.25027
-4.01875 -6.89783 -2.24611
-3.98979 -6.8977 -2.24198
-3.96093 -6.89757 -2.2379
-3.93217 -6.89744 -2.23384
-3.90352 -6.8973 -2.22983
-3.87497 -6.89718 -2.22585
-3.84652 -6.89705 -2.22191
-3.81818 -6.89692 -2.21801
-3.78993 -6.89679 -2.21414
-3.76178 -6.89667 -2.2103
-3.73372 -6.89654 -2.2065
-3.70618 -6.89717 -2.20298
-3.67878 -6.89793 -2.19953
-3.65147 -6.89868 -2.19611
-3.62424 -6.89943 -2.19273
-3.5971 -6.90017 -2.18937
-3.57004 -6.90091 -2.18605
-3.54306 -6.90165 -2.18275
-3.51599 -6.90205 -2.17939
-3.48899 -6.90243 -2.17604
-3.46112 -6.9009 -2.17213
-3.43291 -6.8985 -2.16798
-3.41652 -6.91981 -2.1713
-3.37328 -6.8865 -2.15753
-3.34658 -6.88651 -2.15423
-3.31995 -6.88651 -2.15097
-3.29341 -6.88652 -2.14774
-3.26694 -6.88652 -2.14454
-3.24055 -6.88652 -2.14137
-3.21425 -6.88653 -2.13823
-3.18801 -6.88653 -2.13512
-3.16186 -6.88654 -2.13204
-3.13578 -6.88654 -2.12899
-3.10977 -6.88654 -2.12597
-3.08384 -6.88655 -2.12297
-3.05798 -6.88655 -2.12001
-3.03219 -6.88656 -2.11708
-3.00647 -6.88656 -2.11417
-2.98082 -6.88656 -2.1113
-2.95525 -6.88657 -2.10845
-2.92974 -6.88657 -2.10563
-2.90429 -6.88658 -2.10284
-2.87892 -6.88658 -2.10008
-2.85361 -6.88658 -2.09734
-2.82837 -6.88659 -2.09464
-2.80319 -6.88659 -2.09196
-2.77808 -6.8866 -2.0893
-2.75303 -6.8866 -2.08668
-2.72804 -6.8866 -2.08408
-2.70312 -6.88661 -2.08151
-2.68204 -6.89636 -2.08191
-2.67914 -6.9533 -2.09655
-2.63277 -6.89726 -2.07716
-2.61086 -6.9047 -2.07692
-2.58889 -6.91197 -2.07666
-2.56685 -6.91904 -2.07636
-2.54482 -6.92611 -2.07608
-2.52279 -6.93318 -2.07582
-2.50077 -6.94024 -2.07558
-2.47875 -6.9473 -2.07536
-2.45674 -6.95437 -2.07516
-2.43474 -6.96142 -2.07498
-2.41482 -6.97453 -2.07662
-2.39528 -6.98881 -2.07863
-2.3757 -7.00313 -2.08066
-2.35608 -7.01747 -2.08272
-2.33642 -7.03185 -2.08481
-2.31695 -7.04695 -2.08712
-2.29752 -7.06233 -2.08953
-2.27804 -7.07776 -2.09198
-2.25852 -7.09322 -2.09444
-3.67869 -6.89776 -2.26976
-3.65092 -6.89763 -2.26594
-3.62323 -6.89751 -2.26216
-3.59565 -6.89739 -2.25842
-3.56852 -6.89798 -2.25494
-3.54153 -6.89868 -2.25153
-3.51446 -6.89906 -2.24805
-3.48748 -6.89944 -2.2446
-3.46057 -6.89982 -2.24119
-3.4329 -6.89848 -2.23725
-3.42406 -6.93509 -2.24563
-3.42563 -6.99337 -2.26102
-3.34658 -6.88651 -2.22307
-3.31995 -6.88651 -2.2197
-3.29341 -6.88652 -2.21637
-3.26694 -6.88652 -2.21306
-3.24055 -6.88652 -2.20979
-3.21425 -6.88653 -2.20655
-3.18801 -6.88653 -2.20334
-3.16186 -6.88654 -2.20016
-3.13578 -6.88654 -2.19702
-3.10977 -6.88654 -2.1939
-3.08384 -6.88655 -2.19081
-3.05798 -6.88655 -2.18775
-3.03219 -6.88656 -2.18473
-3.00647 -6.88656 -2.18173
-2.98082 -6.88656 -2.17876
-2.95525 -6.88657 -2.17582
-2.92974 -6.88657 -2.17292
-2.90429 -6.88658 -2.17004
-2.87892 -6.88658 -2.16718
-2.85361 -6.88658 -2.16436
-2.82837 -6.88659 -2.16157
-2.80319 -6.88659 -2.1588
-2.77808 -6.8866 -2.15606
-2.75303 -6.8866 -2.15336
-2.72804 -6.8866 -2.15067
-2.70312 -6.88661 -2.14802
-2.67825 -6.88661 -2.14539
-2.67434 -6.94083 -2.15967
-2.63225 -6.89591 -2.14311
-2.61034 -6.90335 -2.14287
-2.58844 -6.91078 -2.14265
-2.56654 -6.91822 -2.14245
-2.54465 -6.92565 -2.14228
-2.52268 -6.93286 -2.14205
-2.50066 -6.93993 -2.1418
-2.47864 -6.94699 -2.14158
-2.45663 -6.95405 -2.14137
-2.43463 -6.96111 -2.14118
-2.41403 -6.97222 -2.14227
-2.39449 -6.9865 -2.14434
-2.37491 -7.00081 -2.14644
-2.35535 -7.01532 -2.14861
-2.33601 -7.03063 -2.15105
-2.31663 -7.04598 -2.15351
-2.2972 -7.06136 -2.15601
-2.27773 -7.07678 -2.15853
-2.25821 -7.09224 -2.16107
-3.34658 -6.88651 -2.29224
-3.31995 -6.88651 -2.28876
-3.29341 -6.88652 -2.28533
-3.26694 -6.88652 -2.28192
-3.24055 -6.88652 -2.27855
-3.21425 -6.88653 -2.2752
-3.18801 -6.88653 -2.2719
-3.16186 -6.88654 -2.26862
-3.13578 -6.88654 -2.26537
-3.10977 -6.88654 -2.26216
-3.08384 -6.88655 -2.25897
-3.05798 -6.88655 -2.25582
-3.03219 -6.88656 -2.2527
-3.00647 -6.88656 -2.24961
-2.98082 -6.88656 -2.24655
-2.95525 -6.88657 -2.24352
-2.92974 -6.88657 -2.24052
-2.90429 -6.88658 -2.23755
-2.87892 -6.88658 -2.23461
-2.85361 -6.88658 -2.2317
-2.82837 -6.88659 -2.22882
-2.80319 -6.88659 -2.22597
-2.77808 -6.8866 -2.22315
-2.75303 -6.8866 -2.22035
-2.72804 -6.8866 -2.21759
-2.70312 -6.88661 -2.21485
-2.68605 -6.90667 -2.21859
-2.69037 -6.98243 -2.24021
-2.69477 -7.05969 -2.26227
-2.60983 -6.90199 -2.20911
-2.58793 -6.90942 -2.20888
-2.56604 -6.91686 -2.20868
-2.54415 -6.92429 -2.2085
-2.52226 -6.93172 -2.20834
-2.50038 -6.93915 -2.2082
-2.4785 -6.94658 -2.20808
-2.45652 -6.95373 -2.20789
-2.43451 -6.96079 -2.2077
-2.41322 -6.96991 -2.20819
-2.39369 -6.98418 -2.21032
-2.37432 -6.99907 -2.21267
-2.35503 -7.01435 -2.21516
-2.33569 -7.02966 -2.21767
-2.31631 -7.04501 -2.22021
-2.29689 -7.06039 -2.22278
-2.27742 -7.07581 -2.22538
-2.2579 -7.09126 -2.228
-3.29341 -6.88652 -2.35463
-3.26694 -6.88652 -2.35112
-3.24055 -6.88652 -2.34764
-3.21425 -6.88653 -2.3442
-3.18801 -6.88653 -2.34079
-3.16186 -6.88654 -2.33741
-3.13578 -6.88654 -2.33407
-3.10977 -6.88654 -2.33076
-3.08384 -6.88655 -2.32748
-3.05798 -6.88655 -2.32423
-3.03219 -6.88656 -2.32102
-3.00647 -6.88656 -2.31783
-2.98082 -6.88656 -2.31468
-2.95525 -6.88657 -2.31156
-2.92974 -6.88657 -2.30847
-2.9043 -6.88658 -2.30541
-2.87892 -6.88658 -2.30238
-2.85361 -6.88658 -2.29938
-2.82837 -6.88659 -2.29641
-2.80319 -6.88659 -2.29347
-2.77808 -6.8866 -2.29056
-2.75303 -6.8866 -2.28769
-2.72804 -6.88661 -2.28484
-2.70312 -6.88661 -2.28202
-2.72676 -7.01133 -2.32051
-2.60931 -6.90062 -2.27565
-2.58742 -6.90806 -2.27542
-2.56553 -6.91549 -2.27521
-2.54365 -6.92292 -2.27502
-2.52176 -6.93035 -2.27485
-2.49988 -6.93778 -2.27471
-3.24055 -6.88652 -2.4171
-3.21425 -6.88653 -2.41355
-3.18801 -6.88653 -2.41004
-3.16186 -6.88654 -2.40656
-3.13578 -6.88654 -2.40312
-3.10977 -6.88655 -2.39971
-3.08384 -6.88655 -2.39633
-3.05798 -6.88655 -2.39299
-3.03219 -6.88656 -2.38968
-3.00647 -6.88656 -2.3864
-2.98082 -6.88657 -2.38316
-2.95525 -6.88657 -2.37994
-2.92974 -6.88657 -2.37676
-2.9043 -6.88658 -2.37361
-2.87892 -6.88658 -2.37049
-2.85361 -6.88659 -2.3674
-2.82837 -6.88659 -2.36435
-2.80319 -6.88659 -2.36132
-2.77808 -6.8866 -2.35833
-2.75303 -6.8866 -2.35536
-3.13578 -6.88654 -2.47254
-3.10977 -6.88655 -2.46903
-3.08384 -6.88655 -2.46556
-3.05798 -6.88655 -2.46212
-3.03219 -6.88656 -2.45871
-3.00647 -6.88656 -2.45534
-2.98083 -6.88657 -2.452
-2.95525 -6.88657 -2.44869
-2.92974 -6.88657 -2.44542
-2.90429 -6.88658 -2.44217
-2.87892 -6.88658 -2.43897
-2.85361 -6.88659 -2.43579
-4.66025 -7.88177 -0.993167
-4.6499 -7.92116 -0.996279
-4.6396 -7.96098 -0.999444
-4.63051 -8.00326 -1.00291
-4.62202 -8.047 -1.00657
-4.65994 -8.17254 -1.02043
-4.44805 -7.52289 -1.0215
-4.42577 -7.53935 -1.02184
-4.40422 -7.55709 -1.02236
-4.38262 -7.57481 -1.02288
-4.36097 -7.59251 -1.02341
-4.33928 -7.61018 -1.02394
-4.3178 -7.62828 -1.02454
-4.30373 -7.65965 -1.02693
-4.28959 -7.69115 -1.02933
-4.27537 -7.72277 -1.03175
-4.26106 -7.7545 -1.0342
-4.24667 -7.78636 -1.03665
-4.23981 -7.83242 -1.041
-4.23538 -7.88348 -1.04601
-4.23089 -7.935 -1.05107
-4.22632 -7.98698 -1.05619
-4.22154 -8.03915 -1.06132
-4.21898 -8.09614 -1.06708
-4.22736 -8.175 -1.07571
-4.23584 -8.25507 -1.08449
-4.24932 -8.34601 -1.09467
-4.3175 -7.3021 -1.06306
-4.3011 -7.32697 -1.0647
-4.28462 -7.35189 -1.06635
-4.26809 -7.37686 -1.06802
-4.25149 -7.40189 -1.0697
-4.23482 -7.42698 -1.07139
-4.21809 -7.45213 -1.07309
-4.20129 -7.47733 -1.07481
-4.18443 -7.50259 -1.07654
-4.17023 -7.53286 -1.07899
-4.15615 -7.56359 -1.08151
-4.14199 -7.59443 -1.08405
-4.1277 -7.62531 -1.0866
-4.11326 -7.65617 -1.08914
-4.09874 -7.68716 -1.09171
-4.08413 -7.71826 -1.09429
-4.06943 -7.74949 -1.09689
-4.05466 -7.78083 -1.09951
-4.04522 -7.82278 -1.10363
-4.03977 -7.87296 -1.10891
-4.03424 -7.92358 -1.11425
-4.02824 -7.97385 -1.11952
-4.02215 -8.02454 -1.12485
-4.01598 -8.07568 -1.13024
-4.0166 -8.14119 -1.13763
-4.02448 -8.22236 -1.1472
-4.04297 -8.3265 -1.15995
-4.24178 -7.17403 -1.11484
-4.22264 -7.19331 -1.11577
-4.20345 -7.21261 -1.1167
-4.1849 -7.23307 -1.11782
-4.16777 -7.25613 -1.11935
-4.15058 -7.27923 -1.12089
-4.13333 -7.30238 -1.12244
-4.11602 -7.32556 -1.124
-4.09881 -7.34908 -1.12562
-4.08209 -7.37364 -1.12741
-4.0653 -7.39825 -1.12921
-4.04845 -7.42291 -1.13102
-4.03152 -7.44764 -1.13284
-4.01453 -7.47241 -1.13468
-3.99844 -7.49906 -1.13681
-3.98407 -7.52917 -1.13946
-3.96961 -7.5594 -1.14214
-3.95507 -7.58973 -1.14483
-3.94045 -7.62017 -1.14755
-3.92574 -7.65074 -1.15028
-3.91095 -7.68143 -1.15303
-3.89607 -7.71222 -1.15581
-3.8811 -7.74314 -1.1586
-3.86595 -7.77398 -1.16139
-3.85374 -7.81108 -1.16511
-3.84706 -7.85988 -1.17057
-3.84016 -7.90881 -1.17605
-3.83316 -7.95815 -1.18159
-3.82608 -8.00791 -1.18718
-3.81891 -8.0581 -1.19283
-3.81164 -8.10869 -1.19854
-3.82332 -8.2006 -1.21033
-3.8391 -8.30264 -1.2236
-3.85519 -8.40692 -1.23717
-4.21256 -7.1246 -1.17726
-4.18464 -7.12858 -1.17574
-4.15679 -7.13254 -1.17422
-4.13085 -7.13967 -1.17325
-4.10583 -7.1483 -1.17253
-4.08083 -7.15691 -1.17183
-4.06052 -7.17375 -1.17248
-4.04137 -7.1927 -1.17349
-4.02371 -7.21444 -1.17497
-4.0065 -7.2371 -1.17659
-3.98923 -7.2598 -1.17823
-3.97189 -7.28255 -1.17989
-3.95449 -7.30534 -1.18156
-3.93704 -7.32816 -1.18323
-3.91952 -7.35103 -1.18493
-3.90193 -7.37395 -1.18663
-3.88429 -7.39691 -1.18835
-3.86658 -7.41991 -1.19008
-3.84881 -7.44296 -1.19183
-3.83115 -7.4664 -1.19364
-3.81578 -7.4945 -1.19621
-3.80187 -7.52576 -1.19928
-3.7898 -7.56098 -1.20298
-3.77764 -7.5964 -1.20671
-3.76539 -7.63201 -1.21048
-3.75306 -7.66783 -1.21428
-3.74063 -7.70384 -1.21811
-3.72812 -7.74006 -1.22197
-3.71551 -7.77649 -1.22587
-3.70722 -7.82242 -1.23126
-3.70306 -7.8777 -1.23812
-3.69884 -7.93359 -1.24506
-3.69455 -7.99004 -1.25209
-3.69082 -8.04848 -1.25942
-3.68749 -8.10857 -1.26699
-3.69207 -8.18702 -1.27743
-3.70125 -8.27689 -1.28962
-3.70866 -8.3641 -1.30138
-3.7115 -8.44223 -1.31171
-4.19249 -7.09067 -1.24159
-4.16474 -7.09467 -1.23998
-4.13704 -7.09866 -1.23839
-4.10942 -7.10262 -1.23682
-4.08187 -7.10658 -1.23526
-4.05437 -7.11052 -1.23372
-4.02695 -7.11444 -1.23219
-4.00171 -7.12212 -1.23133
-3.97698 -7.13064 -1.23063
-3.95227 -7.13914 -1.22994
-3.92758 -7.14762 -1.22926
-3.90292 -7.15609 -1.2286
-3.88293 -7.17314 -1.22942
-3.8657 -7.19537 -1.23113
-3.84839 -7.21764 -1.23286
-3.83103 -7.23995 -1.23461
-3.81445 -7.26391 -1.23663
-3.7998 -7.29176 -1.23933
-3.78508 -7.31972 -1.24205
-3.77029 -7.34778 -1.24479
-3.75542 -7.37595 -1.24755
-3.74047 -7.40422 -1.25033
-3.72545 -7.4326 -1.25313
-3.71036 -7.46112 -1.25596
-3.69786 -7.49513 -1.25972
-3.68527 -7.52933 -1.26351
-3.67259 -7.56371 -1.26733
-3.65983 -7.59828 -1.27118
-3.64717 -7.63346 -1.27514
-3.63449 -7.66897 -1.27915
-3.62173 -7.70467 -1.2832
-3.60886 -7.74059 -1.28728
-3.5959 -7.7767 -1.29139
-3.58708 -7.82226 -1.29707
-3.58221 -7.87707 -1.30428
-3.57763 -7.93325 -1.31171
-3.57365 -7.99154 -1.31948
-3.5696 -8.05049 -1.32735
-3.56549 -8.11011 -1.33532
-3.56657 -8.18247 -1.34538
-3.57192 -8.26576 -1.35721
-3.57357 -8.3417 -1.36783
-3.57523 -8.41878 -1.37861
-4.17257 -7.05697 -1.30546
-4.14497 -7.06099 -1.30378
-4.11743 -7.065 -1.30212
-4.08997 -7.069 -1.30047
-4.06257 -7.07297 -1.29884
-4.03523 -7.07694 -1.29723
-4.00795 -7.08088 -1.29563
-3.98075 -7.08481 -1.29404
-3.9536 -7.08872 -1.29248
-3.92651 -7.09262 -1.29092
-3.89949 -7.0965 -1.28939
-3.87485 -7.10462 -1.28864
-3.8504 -7.11304 -1.28796
-3.82618 -7.12181 -1.28735
-3.80219 -7.131 -1.28684
-3.77823 -7.14017 -1.28634
-3.75708 -7.15467 -1.28681
-3.7431 -7.18296 -1.28977
-3.72905 -7.21135 -1.29275
-3.71491 -7.23986 -1.29576
-3.7002 -7.26749 -1.29861
-3.68535 -7.2951 -1.30146
-3.67043 -7.32282 -1.30434
-3.65543 -7.35065 -1.30723
-3.64035 -7.37857 -1.31015
-3.6252 -7.4066 -1.3131
-3.60997 -7.43474 -1.31606
-3.59591 -7.46558 -1.31951
-3.58309 -7.49932 -1.32347
-3.57017 -7.53325 -1.32746
-3.55717 -7.56735 -1.33149
-3.54408 -7.60165 -1.33555
-3.53089 -7.63612 -1.33965
-3.51762 -7.67078 -1.34378
-3.50424 -7.70563 -1.34794
-3.49078 -7.74067 -1.35214
-3.47733 -7.77615 -1.35641
-3.46793 -7.82119 -1.36236
-3.46334 -7.87776 -1.3703
-3.45868 -7.93495 -1.37835
-3.45242 -7.98924 -1.38588
-3.44291 -8.03671 -1.39223
-3.43329 -8.08455 -1.39863
-3.42355 -8.13277 -1.4051
-3.41726 -8.18992 -1.41311
-3.41439 -8.25617 -1.42267
-3.41166 -8.32376 -1.43246
-3.40885 -8.39219 -1.44238
-3.40596 -8.46147 -1.45243
-4.15278 -7.0235 -1.36889
-4.12533 -7.02755 -1.36714
-4.09795 -7.03158 -1.36541
-4.07064 -7.0356 -1.36369
-4.0434 -7.0396 -1.36199
-4.01621 -7.04358 -1.3603
-3.98909 -7.04755 -1.35863
-3.96203 -7.0515 -1.35698
-3.93503 -7.05544 -1.35534
-3.9081 -7.05936 -1.35372
-3.88114 -7.06311 -1.35209
-3.8533 -7.0651 -1.35014
-3.82552 -7.06707 -1.34821
-3.799 -7.07122 -1.34671
-3.77518 -7.08034 -1.34617
-3.75204 -7.09067 -1.34588
-3.72834 -7.09994 -1.3454
-3.70458 -7.10903 -1.34491
-3.68083 -7.11811 -1.34442
-3.65709 -7.12717 -1.34395
-3.64187 -7.15293 -1.34663
-3.62767 -7.18093 -1.34975
-3.6134 -7.20905 -1.35288
-3.59905 -7.23727 -1.35605
-3.58462 -7.2656 -1.35923
-3.57011 -7.29405 -1.36244
-3.55552 -7.3226 -1.36567
-3.54085 -7.35127 -1.36893
-3.5261 -7.38005 -1.37221
-3.51097 -7.40833 -1.37541
-3.49553 -7.43623 -1.37853
-3.48236 -7.46927 -1.38262
-3.46922 -7.50273 -1.38678
-3.45465 -7.53347 -1.39044
-3.43754 -7.55895 -1.39314
-3.42035 -7.5845 -1.39585
-3.40308 -7.61011 -1.39859
-3.38572 -7.63578 -1.40134
-3.36828 -7.66153 -1.40411
-3.35367 -7.69402 -1.40812
-3.34026 -7.7297 -1.41271
-3.32676 -7.76558 -1.41735
-3.31338 -7.80219 -1.42212
-3.3008 -7.84117 -1.42732
-3.28811 -7.88039 -1.43256
-3.27531 -7.91987 -1.43786
-3.2624 -7.95959 -1.44319
-3.24937 -7.99956 -1.44858
-3.23622 -8.03979 -1.45401
-3.22296 -8.08027 -1.45948
-3.20958 -8.12101 -1.46501
-3.19316 -8.15457 -1.46924
-3.17552 -8.18539 -1.47298
-3.16104 -8.22488 -1.47829
-3.14662 -8.26505 -1.48372
-3.13204 -8.30537 -1.48918
-3.11729 -8.34585 -1.49467
-3.10238 -8.38649 -1.50018
-3.08731 -8.42728 -1.50573
-4.13312 -6.99025 -1.4319
-4.10583 -6.99433 -1.43008
-4.07861 -6.99838 -1.42827
-4.05145 -7.00242 -1.42649
-4.02435 -7.00645 -1.42471
-3.99732 -7.01045 -1.42296
-3.97035 -7.01444 -1.42122
-3.94341 -7.01835 -1.41949
-3.91551 -7.02042 -1.4174
-3.88769 -7.02248 -1.41534
-3.85994 -7.02453 -1.41329
-3.83227 -7.02656 -1.41126
-3.80468 -7.02857 -1.40925
-3.77716 -7.03058 -1.40726
-3.74972 -7.03257 -1.40529
-3.72447 -7.03857 -1.40413
-3.70064 -7.04718 -1.40352
-3.67683 -7.05578 -1.40291
-3.65365 -7.06556 -1.40256
-3.63071 -7.07576 -1.40231
-3.60776 -7.08594 -1.40206
-3.58482 -7.09611 -1.40183
-3.56132 -7.10515 -1.4014
-3.54218 -7.12292 -1.40269
-3.52785 -7.15054 -1.40593
-3.51344 -7.17827 -1.4092
-3.49895 -7.2061 -1.41249
-3.48438 -7.23404 -1.41581
-3.46767 -7.25776 -1.41831
-3.44966 -7.27897 -1.42032
-3.43159 -7.3002 -1.42234
-3.41345 -7.32147 -1.42438
-3.39526 -7.34279 -1.42644
-3.3771 -7.36436 -1.42856
-3.35888 -7.38597 -1.43069
-3.34058 -7.40761 -1.43283
-3.32223 -7.42932 -1.435
-3.30513 -7.45403 -1.43776
-3.28795 -7.47881 -1.44053
-3.27068 -7.50365 -1.44332
-3.25531 -7.53311 -1.44701
-3.24188 -7.56744 -1.45163
-3.22834 -7.60195 -1.45629
-3.2147 -7.63664 -1.46099
-3.20096 -7.67153 -1.46573
-3.18177 -7.69369 -1.46804
-3.16104 -7.71229 -1.46968
-3.13936 -7.72872 -1.47092
-3.11447 -7.73732 -1.47068
-3.08958 -7.74586 -1.47044
-3.06466 -7.75433 -1.47021
-3.03974 -7.76275 -1.46998
-3.0148 -7.77111 -1.46976
-2.98984 -7.77942 -1.46954
-2.96487 -7.78766 -1.46932
-2.94041 -7.79724 -1.46937
-2.91849 -7.8136 -1.47072
-2.90155 -7.84358 -1.47463
-2.88714 -7.88089 -1.47993
-2.87261 -7.9184 -1.48526
-2.85794 -7.95609 -1.49064
-2.84314 -7.99399 -1.49605
-2.8282 -8.03208 -1.5015
-2.81312 -8.07037 -1.507
-2.7979 -8.10885 -1.51253
-2.78254 -8.14754 -1.5181
-2.772 -8.2011 -1.52644
-2.76189 -8.25688 -1.5352
-2.75076 -8.31058 -1.54356
-2.73938 -8.36448 -1.55196
-2.72783 -8.41886 -1.56045
-4.11359 -6.95723 -1.4945
-4.08646 -6.96132 -1.49261
-4.05938 -6.9654 -1.49073
-4.03238 -6.96946 -1.48887
-4.00543 -6.9735 -1.48703
-3.97748 -6.97566 -1.48481
-3.94961 -6.97781 -1.48261
-3.92182 -6.97994 -1.48043
-3.89411 -6.98206 -1.47827
-3.86647 -6.98416 -1.47613
-3.83891 -6.98625 -1.474
-3.81142 -6.98832 -1.4719
-3.784 -6.99038 -1.46981
-3.75667 -6.99243 -1.46775
-3.7294 -6.99446 -1.4657
-3.7022 -6.99648 -1.46367
-3.67507 -6.99849 -1.46166
-3.65102 -7.00626 -1.46087
-3.6274 -7.01479 -1.46026
-3.6038 -7.02331 -1.45966
-3.5802 -7.03181 -1.45908
-3.55679 -7.0406 -1.45857
-3.53402 -7.05069 -1.45834
-3.51127 -7.06076 -1.45813
-3.48838 -7.07053 -1.45787
-3.46538 -7.08007 -1.45758
-3.44238 -7.0896 -1.4573
-3.41939 -7.09911 -1.45703
-3.39711 -7.11008 -1.45707
-3.37937 -7.13064 -1.4591
-3.36157 -7.15124 -1.46114
-3.3437 -7.17186 -1.46319
-3.32577 -7.1925 -1.46526
-3.30777 -7.21318 -1.46734
-3.28982 -7.23411 -1.46948
-3.2718 -7.25508 -1.47164
-3.25371 -7.27608 -1.47381
-3.23555 -7.29711 -1.47599
-3.21733 -7.31817 -1.4782
-3.19573 -7.33167 -1.47888
-3.17363 -7.3441 -1.47936
-3.15151 -7.35649 -1.47985
-3.12956 -7.36935 -1.48045
-3.10768 -7.38242 -1.4811
-3.08576 -7.39545 -1.48175
-3.06381 -7.40844 -1.48241
-3.04181 -7.42141 -1.48308
-3.02061 -7.43638 -1.48416
-3.00039 -7.45391 -1.48577
-2.98011 -7.47142 -1.48738
-2.95946 -7.48815 -1.48884
-2.93541 -7.49632 -1.48862
-2.91245 -7.50729 -1.48897
-2.89312 -7.52777 -1.49121
-2.87373 -7.54826 -1.49347
-2.85426 -7.56877 -1.49574
-2.83471 -7.5893 -1.49803
-2.81508 -7.60985 -1.50032
-2.79538 -7.63041 -1.50263
-2.7756 -7.651 -1.50496
-2.75575 -7.67161 -1.5073
-2.73619 -7.69329 -1.50985
-2.71655 -7.71501 -1.51243
-2.69683 -7.73676 -1.51502
-2.67703 -7.75854 -1.51762
-2.65714 -7.78035 -1.52024
-2.63869 -7.80669 -1.52376
-2.62293 -7.84145 -1.52892
-2.60704 -7.87638 -1.53412
-2.59101 -7.91147 -1.53936
-2.57486 -7.94673 -1.54463
-2.55856 -7.98214 -1.54994
-2.54213 -8.01773 -1.55529
-2.52556 -8.05348 -1.56067
-2.50884 -8.08941 -1.56609
-2.49199 -8.1255 -1.57155
-2.48011 -8.17863 -1.58031
-2.48126 -8.27626 -1.59765
-2.48241 -8.37599 -1.61539
-4.09419 -6.92441 -1.5567
-4.06721 -6.92853 -1.55474
-4.03922 -6.9308 -1.55239
-4.0113 -6.93303 -1.55005
-3.98346 -6.93526 -1.54773
-3.9557 -6.93746 -1.54543
-3.92802 -6.93965 -1.54315
-3.90041 -6.94183 -1.5409
-3.87288 -6.94399 -1.53866
-3.84542 -6.94614 -1.53644
-3.81804 -6.94827 -1.53424
-3.79073 -6.95038 -1.53206
-3.76349 -6.95249 -1.5299
-3.73633 -6.95458 -1.52777
-3.70923 -6.95665 -1.52565
-3.68221 -6.95871 -1.52354
-3.65525 -6.96076 -1.52146
-3.62837 -6.96279 -1.5194
-3.60206 -6.96578 -1.51757
-3.57863 -6.97426 -1.51695
-3.55521 -6.98272 -1.51634
-3.53181 -6.99116 -1.51575
-3.50778 -6.99834 -1.5149
-3.48183 -7.00156 -1.51322
-3.45593 -7.00476 -1.51155
-3.43288 -7.01366 -1.51113
-3.41038 -7.02369 -1.51096
-3.38789 -7.0337 -1.51081
-3.36539 -7.04369 -1.51067
-3.34289 -7.05366 -1.51054
-3.32038 -7.06361 -1.51043
-3.29786 -7.07355 -1.51032
-3.27535 -7.08346 -1.51022
-3.25283 -7.09336 -1.51014
-3.22934 -7.10113 -1.50962
-3.20544 -7.10793 -1.50891
-3.18159 -7.1148 -1.50823
-3.15775 -7.12165 -1.50757
-3.13393 -7.12847 -1.50691
-3.11059 -7.13636 -1.5065
-3.08906 -7.14839 -1.50698
-3.0675 -7.16039 -1.50746
-3.0459 -7.17235 -1.50795
-3.02428 -7.18427 -1.50845
-3.00262 -7.19617 -1.50895
-2.98118 -7.20866 -1.50959
-2.95975 -7.22118 -1.51025
-2.93911 -7.23575 -1.51136
-2.91973 -7.25353 -1.51314
-2.90029 -7.2713 -1.51493
-2.88079 -7.28908 -1.51674
-2.86122 -7.30687 -1.51855
-2.84159 -7.32466 -1.52038
-2.8219 -7.34246 -1.52222
-2.80211 -7.36014 -1.52405
-2.78206 -7.37734 -1.52579
-2.76196 -7.39453 -1.52754
-2.74179 -7.41173 -1.5293
-2.72157 -7.42893 -1.53107
-2.70158 -7.44696 -1.53302
-2.68214 -7.4667 -1.53534
-2.66263 -7.48647 -1.53767
-2.64304 -7.50625 -1.54001
-2.62338 -7.52604 -1.54237
-2.60364 -7.54585 -1.54474
-2.58412 -7.56653 -1.5473
-2.56457 -7.58741 -1.54991
-2.54494 -7.6083 -1.55253
-2.52523 -7.62922 -1.55517
-2.50544 -7.65018 -1.55782
-2.48556 -7.67115 -1.56049
-2.4668 -7.69586 -1.56392
-2.45171 -7.73256 -1.5698
-2.4365 -7.76951 -1.57574
-2.42283 -7.81206 -1.58281
-2.41246 -7.86617 -1.59223
-2.40195 -7.92088 -1.60176
-2.3913 -7.9762 -1.61141
-2.3805 -8.03214 -1.62119
-2.36762 -8.08208 -1.62976
-2.3542 -8.13118 -1.63815
-2.36093 -8.25171 -1.66093
-2.37146 -8.38838 -1.68693
-4.08427 -6.90763 -1.62224
-4.05529 -6.90823 -1.61937
-4.02642 -6.90883 -1.61653
-3.99764 -6.90943 -1.61371
-3.96897 -6.91002 -1.61092
-3.94039 -6.91061 -1.60815
-3.91191 -6.91119 -1.60541
-3.88352 -6.91177 -1.60269
-3.85523 -6.91235 -1.6
-3.82704 -6.91293 -1.59734
-3.79893 -6.9135 -1.59469
-3.77093 -6.91407 -1.59208
-3.74313 -6.91488 -1.58954
-3.71615 -6.91701 -1.58733
-3.68923 -6.91913 -1.58514
-3.66237 -6.92123 -1.58297
-3.63559 -6.92331 -1.58081
-3.60888 -6.92538 -1.57868
-3.58224 -6.92744 -1.57657
-3.55565 -6.92949 -1.57448
-3.53048 -6.93415 -1.573
-3.50643 -6.94093 -1.57202
-3.48065 -6.94421 -1.57027
-3.45493 -6.94747 -1.56854
-3.42926 -6.95071 -1.56682
-3.40364 -6.95393 -1.56512
-3.37806 -6.95713 -1.56344
-3.35253 -6.96031 -1.56177
-3.32904 -6.96762 -1.56105
-3.30679 -6.97749 -1.56092
-3.28453 -6.98734 -1.5608
-3.26226 -6.99717 -1.56069
-3.23873 -7.00427 -1.55999
-3.21504 -7.01097 -1.55921
-3.19137 -7.01764 -1.55845
-3.16771 -7.02428 -1.5577
-3.14407 -7.0309 -1.55697
-3.12046 -7.03756 -1.55625
-3.09694 -7.04433 -1.55559
-3.07342 -7.05108 -1.55493
-3.04992 -7.05781 -1.55429
-3.02643 -7.06452 -1.55365
-3.00294 -7.07119 -1.55303
-2.97948 -7.07785 -1.55242
-2.95674 -7.08622 -1.55221
-2.93426 -7.0952 -1.55214
-2.91178 -7.10416 -1.55209
-2.88929 -7.11309 -1.55204
-2.86676 -7.12192 -1.55199
-2.84422 -7.13074 -1.55195
-2.82168 -7.13953 -1.55192
-2.79913 -7.14831 -1.5519
-2.77698 -7.15812 -1.55212
-2.75766 -7.17531 -1.55396
-2.73829 -7.19251 -1.55581
-2.71885 -7.20971 -1.55767
-2.69935 -7.22691 -1.55954
-2.67979 -7.24412 -1.56142
-2.66016 -7.26131 -1.56331
-2.64026 -7.27792 -1.56509
-2.6203 -7.29455 -1.56688
-2.60028 -7.31117 -1.56868
-2.58021 -7.32779 -1.57049
-2.56007 -7.34441 -1.57232
-2.53987 -7.36103 -1.57415
-2.51961 -7.37765 -1.576
-2.49929 -7.39427 -1.57786
-2.47955 -7.41282 -1.58014
-2.46282 -7.44068 -1.58442
-2.4473 -7.47267 -1.58958
-2.43275 -7.50815 -1.59549
-2.41791 -7.54333 -1.60134
-2.40294 -7.57874 -1.60724
-2.38785 -7.61438 -1.61319
-2.37264 -7.65024 -1.6192
-2.35731 -7.68634 -1.62526
-2.34184 -7.72268 -1.63137
-2.32625 -7.75925 -1.63754
-2.31073 -7.79671 -1.64391
-2.29969 -7.85022 -1.65365
-2.28851 -7.9043 -1.66351
-2.27655 -7.95677 -1.67304
-2.26287 -8.00429 -1.68152
-2.24904 -8.05223 -1.6901
-2.23506 -8.10063 -1.69877
-2.22091 -8.14946 -1.70753
-4.08179 -6.90344 -1.69075
-4.05283 -6.90405 -1.68776
-4.02398 -6.90465 -1.6848
-3.99523 -6.90526 -1.68187
-3.96657 -6.90585 -1.67896
-3.93802 -6.90645 -1.67608
-3.90956 -6.90704 -1.67322
-3.88119 -6.90763 -1.67039
-3.85293 -6.90822 -1.66759
-3.82475 -6.9088 -1.66481
-3.79667 -6.90938 -1.66206
-3.76868 -6.90996 -1.65933
-3.74078 -6.91053 -1.65663
-3.71297 -6.9111 -1.65396
-3.68525 -6.91167 -1.6513
-3.65762 -6.91224 -1.64868
-3.63007 -6.9128 -1.64607
-3.60261 -6.91337 -1.64349
-3.57525 -6.91393 -1.64094
-3.54796 -6.91449 -1.63841
-3.52076 -6.91505 -1.63591
-3.49308 -6.91451 -1.63317
-3.46577 -6.91452 -1.63058
-3.43948 -6.9164 -1.62846
-3.41326 -6.91828 -1.62636
-3.3871 -6.92015 -1.62428
-3.36101 -6.92201 -1.62222
-3.33498 -6.92386 -1.62019
-3.30902 -6.92571 -1.61817
-3.28312 -6.92755 -1.61617
-3.25673 -6.9282 -1.61392
-3.23032 -6.92867 -1.61165
-3.20499 -6.93129 -1.60991
-3.1797 -6.9339 -1.60818
-3.15447 -6.93649 -1.60646
-3.1308 -6.94242 -1.60554
-3.10745 -6.949 -1.60479
-3.08411 -6.95556 -1.60405
-3.06078 -6.96209 -1.60333
-3.03747 -6.96859 -1.60261
-3.01425 -6.97528 -1.60195
-2.99123 -6.98235 -1.60141
-2.96902 -6.9913 -1.6013
-2.9468 -7.00022 -1.60121
-2.92457 -7.00913 -1.60113
-2.90234 -7.01801 -1.60107
-2.88011 -7.02688 -1.60101
-2.85787 -7.03573 -1.60097
-2.83562 -7.04456 -1.60093
-2.81337 -7.05337 -1.60091
-2.79108 -7.06211 -1.60089
-2.76878 -7.07079 -1.60087
-2.74647 -7.07946 -1.60087
-2.72415 -7.0881 -1.60087
-2.70182 -7.09673 -1.60089
-2.67949 -7.10534 -1.60092
-2.65715 -7.11393 -1.60096
-2.6348 -7.1225 -1.60101
-2.61244 -7.13106 -1.60108
-2.59008 -7.1396 -1.60115
-2.5677 -7.14811 -1.60124
-2.54532 -7.15662 -1.60134
-2.52292 -7.1651 -1.60145
-2.50593 -7.18908 -1.60504
-2.49028 -7.21732 -1.60958
-2.47454 -7.24569 -1.61416
-2.45871 -7.2742 -1.61878
-2.44277 -7.30285 -1.62343
-2.42673 -7.33163 -1.62812
-2.40928 -7.35655 -1.63196
-2.39108 -7.37955 -1.63538
-2.3728 -7.40262 -1.63883
-2.35443 -7.42576 -1.6423
-2.33749 -7.45377 -1.64686
-2.32298 -7.49013 -1.65327
-2.30835 -7.52673 -1.65973
-2.2936 -7.56358 -1.66625
-2.27871 -7.60068 -1.67284
-2.2637 -7.63803 -1.67948
-2.24855 -7.67564 -1.68618
-2.23277 -7.71179 -1.69257
-2.21681 -7.74798 -1.69897
-2.20071 -7.78442 -1.70543
-2.18776 -7.83282 -1.71451
-2.17441 -7.88081 -1.72351
-2.16035 -7.92721 -1.73216
-2.14613 -7.97403 -1.7409
-2.14042 -8.05388 -1.75685
-2.14008 -8.1561 -1.77767
-4.07931 -6.89924 -1.75942
-4.05037 -6.89986 -1.75631
-4.02154 -6.90047 -1.75323
-3.99281 -6.90108 -1.75018
-3.96418 -6.90168 -1.74716
-3.93564 -6.90228 -1.74416
-3.9072 -6.90288 -1.74119
-3.87886 -6.90348 -1.73825
-3.85061 -6.90407 -1.73533
-3.82246 -6.90466 -1.73244
-3.7944 -6.90525 -1.72958
-3.76643 -6.90583 -1.72675
-3.73855 -6.90642 -1.72394
-3.71077 -6.90701 -1.72116
-3.68308 -6.90759 -1.7184
-3.65547 -6.90817 -1.71567
-3.62794 -6.90875 -1.71297
-3.60051 -6.90933 -1.71029
-3.57316 -6.9099 -1.70763
-3.54589 -6.91047 -1.705
-3.51871 -6.91103 -1.7024
-3.49097 -6.91032 -1.6995
-3.46328 -6.90954 -1.69662
-3.43568 -6.90876 -1.69376
-3.40818 -6.90798 -1.69093
-3.38198 -6.90969 -1.68872
-3.35594 -6.91156 -1.68659
-3.32996 -6.91343 -1.68447
-3.30404 -6.91528 -1.68238
-3.27818 -6.91713 -1.68031
-3.25162 -6.91733 -1.67786
-3.22469 -6.9166 -1.67521
-3.19786 -6.91587 -1.67258
-3.1711 -6.91515 -1.66998
-3.14449 -6.91456 -1.66744
-3.1194 -6.91716 -1.66568
-3.09436 -6.91974 -1.66395
-3.06937 -6.92232 -1.66224
-3.04443 -6.92489 -1.66054
-3.01953 -6.92744 -1.65886
-2.9949 -6.9305 -1.65733
-2.97058 -6.93415 -1.65595
-2.94644 -6.93815 -1.65468
-2.92236 -6.94217 -1.65344
-2.89831 -6.94618 -1.65221
-2.87429 -6.95018 -1.651
-2.85031 -6.95417 -1.6498
-2.82701 -6.95976 -1.649
-2.805 -6.96849 -1.64897
-2.78299 -6.97721 -1.64895
-2.76097 -6.9859 -1.64894
-2.73894 -6.99458 -1.64894
-2.7169 -7.00324 -1.64896
-2.69482 -7.0118 -1.64896
-2.67274 -7.02033 -1.64898
-2.65065 -7.02885 -1.64901
-2.62854 -7.03734 -1.64905
-2.60643 -7.04582 -1.6491
-2.58607 -7.05907 -1.65029
-2.56568 -7.07235 -1.65149
-2.54526 -7.08564 -1.65272
-2.5248 -7.09894 -1.65395
-2.50431 -7.11224 -1.65521
-2.48378 -7.12555 -1.65647
-2.46322 -7.13888 -1.65776
-2.44262 -7.1522 -1.65906
-2.42274 -7.16779 -1.66089
-2.40693 -7.19572 -1.6656
-2.39103 -7.22378 -1.67034
-2.37492 -7.25163 -1.67504
-2.35691 -7.27409 -1.6785
-2.33882 -7.29661 -1.68199
-2.32065 -7.31919 -1.6855
-2.30239 -7.34185 -1.68904
-2.28404 -7.36457 -1.6926
-2.26561 -7.38737 -1.69619
-2.2471 -7.41023 -1.69981
-2.22872 -7.43391 -1.70362
-2.21384 -7.46979 -1.71024
-2.19883 -7.50591 -1.71691
-2.18369 -7.54228 -1.72364
-2.16843 -7.57888 -1.73044
-2.15302 -7.61574 -1.7373
-2.1379 -7.65431 -1.74455
-2.13125 -7.7244 -1.75899
-2.12431 -7.79498 -1.77352
-2.12405 -7.89201 -1.79407
-2.12357 -7.99049 -1.81493
-2.12304 -8.09115 -1.83626
-4.07682 -6.89503 -1.82826
-4.04791 -6.89565 -1.82503
-4.0191 -6.89627 -1.82183
-3.99039 -6.89689 -1.81866
-3.96178 -6.8975 -1.81552
-3.93326 -6.89811 -1.81241
-3.90485 -6.89872 -1.80933
-3.87654 -6.89934 -1.80627
-3.84831 -6.89994 -1.80325
-3.82018 -6.90055 -1.80025
-3.79215 -6.90115 -1.79728
-3.7642 -6.90175 -1.79434
-3.73635 -6.90234 -1.79142
-3.70859 -6.90294 -1.78853
-3.68091 -6.90352 -1.78567
-3.65332 -6.90411 -1.78283
-3.62581 -6.9047 -1.78002
-3.5984 -6.90528 -1.77724
-3.57107 -6.90585 -1.77449
-3.54382 -6.90643 -1.77175
-3.5166 -6.90689 -1.76902
-3.48884 -6.90612 -1.766
-3.46117 -6.90534 -1.763
-3.4336 -6.90457 -1.76003
-3.40612 -6.9038 -1.75709
-3.37872 -6.90303 -1.75417
-3.35142 -6.90227 -1.75129
-3.32493 -6.90298 -1.7488
-3.29906 -6.90485 -1.74663
-3.27324 -6.90671 -1.74448
-3.2465 -6.90645 -1.74183
-3.21963 -6.90574 -1.73908
-3.19285 -6.90504 -1.73636
-3.16614 -6.90433 -1.73366
-3.13952 -6.90362 -1.73099
-3.11298 -6.90291 -1.72834
-3.08651 -6.9022 -1.72572
-3.06013 -6.90148 -1.72312
-3.03483 -6.90307 -1.72112
-3.01003 -6.90565 -1.71939
-2.98575 -6.90932 -1.71795
-2.96151 -6.91297 -1.71653
-2.9373 -6.91662 -1.71513
-2.91313 -6.92025 -1.71374
-2.88915 -6.92423 -1.71247
-2.86521 -6.92823 -1.71121
-2.84131 -6.93223 -1.70998
-2.81744 -6.93621 -1.70876
-2.7936 -6.94018 -1.70756
-2.76979 -6.94414 -1.70638
-2.74602 -6.94808 -1.70522
-2.72227 -6.95202 -1.70407
-2.69855 -6.95595 -1.70294
-2.67545 -6.96139 -1.70219
-2.65262 -6.96748 -1.70163
-2.63094 -6.9766 -1.70183
-2.61057 -6.98922 -1.70289
-2.59017 -7.00186 -1.70397
-2.56975 -7.0145 -1.70507
-2.54929 -7.02716 -1.70618
-2.5288 -7.03982 -1.70731
-2.50828 -7.05249 -1.70846
-2.48774 -7.06517 -1.70962
-2.46716 -7.07786 -1.71081
-2.44655 -7.09056 -1.712
-2.4259 -7.10327 -1.71322
-2.40523 -7.11599 -1.71445
-2.38453 -7.12873 -1.7157
-2.36379 -7.14147 -1.71696
-2.34301 -7.15422 -1.71824
-2.32378 -7.17183 -1.7207
-2.30642 -7.19552 -1.72464
-2.28898 -7.21932 -1.7286
-2.27146 -7.24322 -1.7326
-2.25385 -7.26721 -1.73663
-2.23616 -7.29132 -1.7407
-2.21838 -7.31552 -1.7448
-2.20051 -7.33983 -1.74894
-2.18256 -7.36425 -1.75311
-2.16451 -7.38877 -1.75731
-2.14756 -7.41747 -1.76252
-2.13878 -7.47528 -1.77464
-2.1323 -7.54242 -1.78898
-2.1257 -7.61063 -1.80356
-2.11886 -7.67949 -1.81829
-2.11171 -7.74873 -1.8331
-2.10681 -7.82793 -1.85025
-2.10634 -7.92566 -1.87177
-2.10586 -8.02568 -1.89382
-2.10536 -8.12806 -1.9164
-4.07485 -6.8917 -1.89751
-4.04592 -6.89226 -1.89415
-4.01699 -6.89265 -1.89077
-3.98816 -6.89304 -1.88741
-3.95944 -6.89343 -1.88409
-3.9309 -6.89397 -1.88085
-3.90251 -6.89459 -1.87765
-3.87422 -6.89521 -1.87449
-3.84601 -6.89583 -1.87135
-3.81791 -6.89644 -1.86824
-3.78989 -6.89705 -1.86516
-3.76197 -6.89765 -1.86211
-3.73413 -6.89825 -1.85908
-3.70639 -6.89885 -1.85609
-3.67873 -6.89945 -1.85312
-3.65116 -6.90004 -1.85018
-3.62368 -6.90063 -1.84726
-3.59629 -6.90122 -1.84438
-3.56897 -6.9018 -1.84152
-3.54174 -6.90238 -1.83868
-3.51445 -6.90267 -1.8358
-3.48671 -6.9019 -1.83266
-3.45906 -6.90114 -1.82956
-3.43151 -6.90037 -1.82648
-3.40405 -6.89961 -1.82343
-3.37668 -6.89885 -1.8204
-3.3494 -6.89809 -1.81741
-3.3222 -6.89733 -1.81444
-3.2951 -6.89657 -1.8115
-3.26829 -6.89626 -1.8087
-3.24139 -6.89557 -1.80583
-3.29307 -7.06325 -1.84702
-3.30229 -7.14171 -1.86481
-3.275 -7.14172 -1.8621
-3.15938 -6.94728 -1.8088
-3.12592 -6.93161 -1.80215
-3.09266 -6.91595 -1.79553
-3.05961 -6.9003 -1.78896
-3.02757 -6.88656 -1.78291
-3.01112 -6.90816 -1.78604
-2.99478 -6.93021 -1.78929
-2.97835 -6.95229 -1.79256
-2.96184 -6.9744 -1.79584
-2.90424 -6.89913 -1.77409
-2.88019 -6.90276 -1.77268
-2.85617 -6.90637 -1.77129
-2.83234 -6.91034 -1.77001
-2.80855 -6.91432 -1.76875
-2.78479 -6.91829 -1.76752
-2.76106 -6.92225 -1.7663
-2.73817 -6.92823 -1.76561
-2.71561 -6.93501 -1.76515
-2.69306 -6.94178 -1.7647
-2.67051 -6.94855 -1.76427
-2.64769 -6.95453 -1.76367
-2.62445 -6.95939 -1.76279
-2.60124 -6.96423 -1.76193
-2.5794 -6.97274 -1.76202
-2.55905 -6.98531 -1.76315
-2.53867 -6.9979 -1.7643
-2.51826 -7.01049 -1.76546
-2.49783 -7.02309 -1.76664
-2.47736 -7.03569 -1.76784
-2.45686 -7.04831 -1.76906
-2.43633 -7.06094 -1.77029
-2.41576 -7.07357 -1.77154
-2.39517 -7.08622 -1.77281
-2.37454 -7.09888 -1.77409
-2.35399 -7.11188 -1.77548
-2.33356 -7.12537 -1.777
-2.3131 -7.13889 -1.77855
-2.29506 -7.16009 -1.78202
-2.27768 -7.18369 -1.78609
-2.26022 -7.20738 -1.79021
-2.24267 -7.23118 -1.79435
-2.22504 -7.25508 -1.79853
-2.20733 -7.27908 -1.80275
-2.18952 -7.30318 -1.807
-2.17348 -7.33364 -1.81283
-2.15755 -7.36502 -1.8189
-2.14152 -7.3966 -1.82502
-2.1268 -7.43339 -1.83244
-2.12025 -7.4998 -1.84715
-2.11354 -7.56708 -1.86207
-2.10644 -7.63448 -1.87701
-2.09923 -7.70296 -1.89221
-2.0919 -7.77254 -1.90768
-2.08912 -7.86085 -1.92773
-2.09254 -7.9749 -1.95407
-2.09965 -8.10601 -1.98456
-4.07553 -6.89286 -1.96826
-4.04663 -6.89348 -1.96479
-4.01783 -6.89411 -1.96135
-3.98914 -6.89473 -1.95794
-3.96054 -6.89535 -1.95456
-3.93204 -6.89597 -1.95121
-3.90363 -6.89658 -1.94789
-3.87526 -6.89707 -1.94457
-3.84692 -6.89745 -1.94125
-3.81868 -6.89783 -1.93796
-3.79053 -6.89821 -1.9347
-3.76248 -6.89859 -1.93147
-3.73452 -6.89897 -1.92827
-3.70666 -6.89934 -1.9251
-3.67888 -6.89972 -1.92197
-3.6512 -6.9001 -1.91885
-3.6236 -6.90048 -1.91577
-3.5961 -6.90085 -1.91272
-3.56868 -6.90123 -1.9097
-3.54135 -6.9016 -1.9067
-3.51366 -6.90111 -1.9035
-3.48542 -6.89934 -1.89997
-3.45786 -6.89873 -1.89679
-3.43039 -6.89812 -1.89364
-3.40301 -6.8975 -1.89052
-3.37572 -6.89689 -1.88743
-3.34852 -6.89629 -1.88436
-3.32141 -6.89568 -1.88133
-3.33035 -6.97035 -1.89882
-3.34586 -7.05993 -1.92035
-3.23714 -6.88652 -1.87039
-3.21067 -6.88653 -1.86764
-3.18429 -6.88653 -1.86491
-3.15798 -6.88654 -1.8622
-3.13175 -6.88654 -1.85953
-3.1056 -6.88654 -1.85687
-3.07952 -6.88655 -1.85425
-3.05351 -6.88655 -1.85165
-3.02757 -6.88656 -1.84908
-3.00171 -6.88656 -1.84653
-2.97592 -6.88656 -1.844
-2.95019 -6.88657 -1.84151
-2.92454 -6.88657 -1.83903
-2.89896 -6.88658 -1.83659
-2.87344 -6.88658 -1.83416
-2.85332 -6.89948 -1.83519
-2.84261 -6.9354 -1.84235
-2.8318 -6.97156 -1.84958
-2.77818 -6.90186 -1.82876
-2.75564 -6.90864 -1.82824
-2.73311 -6.91542 -1.82775
-2.71059 -6.92219 -1.82727
-2.68808 -6.92895 -1.82681
-2.66558 -6.9357 -1.82637
-2.64276 -6.94159 -1.82571
-2.61957 -6.94643 -1.82481
-2.5964 -6.95127 -1.82392
-2.57325 -6.95611 -1.82305
-2.55012 -6.96093 -1.8222
-2.5281 -6.96877 -1.82215
-2.50777 -6.98128 -1.82335
-2.48741 -6.99381 -1.82457
-2.46702 -7.00635 -1.8258
-2.4466 -7.01889 -1.82705
-2.42615 -7.03144 -1.82832
-2.40567 -7.04401 -1.8296
-2.38525 -7.05689 -1.83099
-2.36498 -7.07028 -1.83252
-2.34466 -7.08368 -1.83407
-2.32431 -7.0971 -1.83564
-2.30392 -7.11053 -1.83722
-2.28377 -7.12487 -1.83906
-2.26645 -7.14827 -1.84325
-2.24905 -7.17177 -1.84747
-2.23156 -7.19536 -1.85172
-2.21448 -7.22064 -1.85642
-2.19889 -7.25127 -1.86251
-2.1832 -7.28209 -1.86865
-2.1674 -7.31312 -1.87485
-2.1515 -7.34434 -1.8811
-2.13549 -7.37577 -1.88742
-2.11936 -7.4074 -1.8938
-2.10829 -7.4575 -1.9049
-2.10127 -7.52317 -1.91997
-2.09446 -7.59103 -1.93559
-2.08932 -7.66659 -1.95317
-2.08409 -7.74353 -1.97109
-2.0825 -7.83593 -1.99293
-2.0898 -7.96445 -2.02393
-2.09686 -8.09522 -2.05547
-4.07622 -6.89402 -2.03933
-4.04732 -6.89465 -2.03573
-4.01852 -6.89527 -2.03216
-3.98981 -6.89589 -2.02863
-3.9612 -6.8965 -2.02513
-3.9327 -6.89712 -2.02166
-3.90429 -6.89773 -2.01822
-3.87598 -6.89835 -2.01481
-3.84776 -6.89896 -2.01144
-3.81964 -6.89957 -2.0081
-3.79161 -6.90017 -2.00479
-3.76368 -6.90078 -2.00151
-3.73583 -6.90138 -1.99826
-3.70798 -6.90181 -1.99498
-3.6802 -6.90218 -1.99173
-3.6525 -6.90256 -1.98851
-3.62489 -6.90293 -1.98531
-3.59738 -6.9033 -1.98215
-3.56995 -6.90367 -1.97901
-3.5426 -6.90405 -1.97591
-3.51474 -6.90323 -1.9725
-3.48632 -6.90111 -1.96874
-3.458 -6.899 -1.96502
-3.42981 -6.89695 -1.96135
-3.40243 -6.89634 -1.95811
-3.37515 -6.89573 -1.95491
-3.38326 -6.96783 -1.97232
-3.31699 -6.88651 -1.94633
-3.2903 -6.88652 -1.94339
-3.26367 -6.88652 -1.94048
-3.23714 -6.88652 -1.9376
-3.21067 -6.88653 -1.93474
-3.18429 -6.88653 -1.93191
-3.15798 -6.88654 -1.92911
-3.13175 -6.88654 -1.92634
-3.1056 -6.88654 -1.92359
-3.07952 -6.88655 -1.92087
-3.05351 -6.88655 -1.91818
-3.02757 -6.88656 -1.91551
-3.00171 -6.88656 -1.91287
-2.97592 -6.88656 -1.91026
-2.9502 -6.88657 -1.90767
-2.92454 -6.88657 -1.90511
-2.89896 -6.88658 -1.90257
-2.87344 -6.88658 -1.90006
-2.84799 -6.88658 -1.89758
-2.82261 -6.88659 -1.89512
-2.79729 -6.88659 -1.89268
-2.77288 -6.88869 -1.89085
-2.75053 -6.89583 -1.89042
-2.72804 -6.9026 -1.88991
-2.70556 -6.90936 -1.88941
-2.6831 -6.91611 -1.88894
-2.66064 -6.92286 -1.88848
-2.63783 -6.92863 -1.88778
-2.61468 -6.93348 -1.88684
-2.59156 -6.93831 -1.88593
-2.56845 -6.94314 -1.88503
-2.54537 -6.94796 -1.88415
-2.5223 -6.95278 -1.88329
-2.49926 -6.95758 -1.88245
-2.47705 -6.96466 -1.88224
-2.45673 -6.97712 -1.88351
-2.43639 -6.9896 -1.8848
-2.41612 -7.00237 -1.88618
-2.39598 -7.01565 -1.88771
-2.37581 -7.02895 -1.88927
-2.3556 -7.04226 -1.89084
-2.33536 -7.05559 -1.89243
-2.31508 -7.06893 -1.89404
-2.29477 -7.08229 -1.89568
-2.27441 -7.09566 -1.89733
-2.25529 -7.11305 -1.90007
-2.23916 -7.14023 -1.90543
-2.2238 -7.17033 -1.91158
-2.20834 -7.20063 -1.9178
-2.1932 -7.23251 -1.92444
-2.17796 -7.26461 -1.93114
-2.16261 -7.29693 -1.93791
-2.14714 -7.32948 -1.94475
-2.13157 -7.36226 -1.95165
-2.11592 -7.39536 -1.95865
-2.1028 -7.43808 -1.9682
-2.09784 -7.51087 -1.9857
-2.09278 -7.58497 -2.00354
-2.08764 -7.6604 -2.02171
-2.08155 -7.7341 -2.03942
-2.07749 -7.81711 -2.05957
-2.08641 -7.95154 -2.09325
-2.09406 -8.08442 -2.12648
-4.07687 -6.89512 -2.11069
-4.04752 -6.89499 -2.10674
-4.01827 -6.89486 -2.10282
