ply
format ascii 1.0
comment Created by Open3D
element vertex 1850
property double x
property double y
property double z
end_header
-0.320328 4.10711 -1.98388
-0.333259 4.10702 -1.98434
-0.346195 4.10693 -1.98481
-0.359137 4.10684 -1.9853
-0.372088 4.10675 -1.98581
-0.385043 4.10666 -1.98634
-0.398007 4.10658 -1.98689
-0.410978 4.10649 -1.98746
-0.423956 4.1064 -1.98805
-0.436942 4.10631 -1.98866
-0.449937 4.10622 -1.98929
-0.46294 4.10614 -1.98994
-0.475951 4.10605 -1.99061
-0.488972 4.10596 -1.9913
-0.502002 4.10588 -1.99201
-0.515041 4.10579 -1.99274
-0.528089 4.1057 -1.99349
-0.541148 4.10561 -1.99426
-0.55422 4.10555 -1.99506
-0.567306 4.1055 -1.99589
-0.580397 4.10545 -1.99674
-0.593505 4.10539 -1.9976
-0.606623 4.10534 -1.99849
-0.619752 4.10528 -1.9994
-0.632893 4.10523 -2.00033
-0.646046 4.10517 -2.00128
-0.659214 4.10512 -2.00225
-0.672394 4.10506 -2.00324
-0.685587 4.10501 -2.00425
-0.698792 4.10495 -2.00528
-0.712012 4.1049 -2.00633
-0.725248 4.10484 -2.0074
-0.738494 4.10478 -2.0085
-0.751755 4.10473 -2.00961
-0.765035 4.10467 -2.01075
-0.778327 4.10462 -2.0119
-0.791632 4.10456 -2.01308
-0.804956 4.1045 -2.01428
-0.818296 4.10445 -2.0155
-0.831651 4.10439 -2.01674
-0.845025 4.10433 -2.018
-0.858416 4.10428 -2.01928
-0.871821 4.10422 -2.02059
-0.885246 4.10416 -2.02191
-0.898686 4.1041 -2.02326
-0.912146 4.10404 -2.02463
-0.925624 4.10399 -2.02602
-0.93912 4.10393 -2.02743
-0.952635 4.10387 -2.02887
-0.966169 4.10381 -2.03032
-0.979724 4.10375 -2.0318
-0.993299 4.10369 -2.0333
-1.03862 4.23295 -2.09895
-1.04236 4.19146 -2.07998
-1.04603 4.15069 -2.06136
-1.05011 4.11249 -2.04401
-1.06383 4.11248 -2.04566
-1.07757 4.11248 -2.04732
-1.09134 4.11247 -2.04901
-1.10513 4.11247 -2.05072
-1.11895 4.11247 -2.05246
-1.13278 4.11246 -2.05422
-1.14664 4.11246 -2.056
-1.16053 4.11245 -2.0578
-1.17444 4.11245 -2.05963
-1.18837 4.11244 -2.06148
-1.20233 4.11244 -2.06335
-1.21632 4.11244 -2.06525
-1.23033 4.11243 -2.06717
-1.24437 4.11243 -2.06912
-1.25843 4.11242 -2.07109
-1.27252 4.11242 -2.07308
-1.28664 4.11241 -2.0751
-1.30078 4.11241 -2.07714
-1.31496 4.1124 -2.07921
-1.32916 4.1124 -2.0813
-1.34339 4.11239 -2.08341
-1.35765 4.11239 -2.08555
-1.37194 4.11238 -2.08772
-1.38626 4.11238 -2.08991
-1.4006 4.11237 -2.09212
-1.41499 4.11237 -2.09436
-1.4294 4.11236 -2.09663
-1.44384 4.11235 -2.09892
-1.45831 4.11235 -2.10124
-1.47282 4.11234 -2.10358
-1.48736 4.11234 -2.10595
-1.50193 4.11233 -2.10834
-1.51653 4.11233 -2.11076
-1.53117 4.11232 -2.11321
-1.54584 4.11231 -2.11568
-1.56055 4.11231 -2.11818
-1.57529 4.1123 -2.12071
-1.59007 4.11229 -2.12326
-1.60488 4.11229 -2.12584
-1.61973 4.11228 -2.12845
-1.63462 4.11228 -2.13108
-1.64954 4.11227 -2.13375
-1.6645 4.11226 -2.13644
-1.6795 4.11226 -2.13915
-1.69453 4.11225 -2.1419
-1.70961 4.11224 -2.14467
-1.72472 4.11223 -2.14747
-1.73987 4.11223 -2.1503
-1.82666 4.24314 -2.22469
-1.82464 4.20218 -2.2062
-1.82266 4.1619 -2.18804
-1.8303 4.14398 -2.18162
-1.84891 4.15092 -2.18831
-1.86764 4.1579 -2.19506
-1.88648 4.16492 -2.20187
-1.90545 4.17199 -2.20875
-1.92453 4.17911 -2.2157
-0.217089 4.10824 -2.02347
-0.229982 4.10815 -2.02377
-0.242878 4.10806 -2.02409
-0.255779 4.10797 -2.02443
-0.268686 4.10788 -2.02479
-0.281596 4.10779 -2.02518
-0.294511 4.1077 -2.02558
-0.307434 4.10761 -2.026
-0.320361 4.10752 -2.02644
-0.333293 4.10743 -2.0269
-0.34623 4.10734 -2.02738
-0.359174 4.10725 -2.02788
-0.372125 4.10717 -2.0284
-0.385082 4.10708 -2.02894
-0.398047 4.10699 -2.02951
-0.41102 4.1069 -2.03009
-0.423999 4.10681 -2.03069
-0.436986 4.10673 -2.03131
-0.449982 4.10664 -2.03196
-0.462986 4.10655 -2.03262
-0.475999 4.10646 -2.03331
-0.489022 4.10638 -2.03401
-0.502052 4.10629 -2.03474
-0.515093 4.1062 -2.03548
-0.528142 4.10611 -2.03625
-0.541203 4.10603 -2.03704
-0.554273 4.10594 -2.03784
-0.567354 4.10586 -2.03867
-0.580445 4.10577 -2.03952
-0.593547 4.10568 -2.04039
-0.606662 4.1056 -2.04128
-0.619788 4.10551 -2.0422
-0.632925 4.10543 -2.04313
-0.646073 4.10534 -2.04408
-0.659236 4.10525 -2.04506
-0.672412 4.10517 -2.04605
-0.6856 4.10508 -2.04707
-0.698802 4.105 -2.04811
-0.712016 4.10491 -2.04917
-0.725244 4.10483 -2.05025
-0.738487 4.10474 -2.05135
-0.751743 4.10466 -2.05247
-0.765016 4.10457 -2.05362
-0.778303 4.10449 -2.05479
-0.791604 4.1044 -2.05597
-0.804921 4.10432 -2.05718
-0.818258 4.10425 -2.05842
-0.831612 4.10419 -2.05969
-0.844986 4.10414 -2.06098
-0.858374 4.10408 -2.06229
-0.871778 4.10402 -2.06362
-0.885202 4.10396 -2.06497
-0.898644 4.1039 -2.06635
-0.912101 4.10385 -2.06775
-0.925579 4.10379 -2.06917
-0.939075 4.10373 -2.07061
-0.952589 4.10367 -2.07208
-0.966123 4.10361 -2.07356
-0.979676 4.10355 -2.07507
-1.03741 4.28594 -2.16893
-1.03231 4.20723 -2.13073
-1.03608 4.16621 -2.11159
-1.03979 4.12591 -2.0928
-1.05008 4.11237 -2.08759
-1.0638 4.11236 -2.08926
-1.07754 4.11236 -2.09097
-1.09131 4.11236 -2.09269
-1.1051 4.11235 -2.09444
-1.11891 4.11235 -2.09621
-1.13275 4.11234 -2.09801
-1.14661 4.11234 -2.09982
-1.16049 4.11233 -2.10167
-1.1744 4.11233 -2.10353
-1.18834 4.11233 -2.10542
-1.20229 4.11232 -2.10734
-1.21628 4.11232 -2.10928
-1.23029 4.11231 -2.11124
-1.24433 4.11231 -2.11322
-1.25839 4.1123 -2.11524
-1.27248 4.1123 -2.11727
-1.2866 4.11229 -2.11933
-1.30075 4.11229 -2.12142
-1.31492 4.11228 -2.12353
-1.32912 4.11228 -2.12566
-1.34335 4.11227 -2.12782
-1.35761 4.11227 -2.13001
-1.3719 4.11226 -2.13222
-1.38622 4.11226 -2.13446
-1.40056 4.11225 -2.13672
-1.41494 4.11224 -2.13901
-1.42935 4.11224 -2.14132
-1.4438 4.11223 -2.14366
-1.45827 4.11223 -2.14603
-1.47277 4.11222 -2.14842
-1.48731 4.11222 -2.15084
-1.50188 4.11221 -2.15328
-1.51649 4.1122 -2.15576
-1.53112 4.1122 -2.15826
-1.54579 4.11219 -2.16078
-1.5605 4.11218 -2.16333
-1.57524 4.11218 -2.16591
-1.59002 4.11217 -2.16852
-1.60483 4.11216 -2.17116
-1.61968 4.11216 -2.17382
-1.63457 4.11215 -2.17651
-1.64949 4.11215 -2.17923
-1.66445 4.11214 -2.18198
-1.67945 4.11213 -2.18475
-1.69448 4.11212 -2.18755
-1.70956 4.11212 -2.19039
-1.72467 4.11211 -2.19325
-1.83242 4.14879 -2.23078
-0.21711 4.10865 -2.06632
-0.230006 4.10856 -2.06663
-0.242903 4.10847 -2.06696
-0.255805 4.10838 -2.0673
-0.268713 4.10829 -2.06767
-0.281624 4.1082 -2.06806
-0.294541 4.10811 -2.06847
-0.307465 4.10802 -2.0689
-0.320393 4.10794 -2.06935
-0.333327 4.10785 -2.06982
-0.346265 4.10776 -2.07031
-0.359211 4.10767 -2.07082
-0.372163 4.10758 -2.07135
-0.385121 4.10749 -2.07191
-0.398087 4.10741 -2.07248
-0.411061 4.10732 -2.07308
-0.424042 4.10723 -2.07369
-0.43703 4.10714 -2.07433
-0.450027 4.10705 -2.07499
-0.463034 4.10697 -2.07566
-0.476047 4.10688 -2.07636
-0.489072 4.10679 -2.07708
-0.502104 4.10671 -2.07782
-0.515145 4.10662 -2.07858
-0.528196 4.10653 -2.07937
-0.541258 4.10645 -2.08017
-0.554329 4.10636 -2.081
-0.567412 4.10627 -2.08184
-0.580504 4.10619 -2.08271
-0.593608 4.1061 -2.0836
-0.606724 4.10602 -2.08451
-0.61985 4.10593 -2.08544
-0.632988 4.10584 -2.08639
-0.646139 4.10576 -2.08737
-0.659302 4.10567 -2.08836
-0.672481 4.10559 -2.08938
-0.68567 4.1055 -2.09042
-0.698873 4.10542 -2.09148
-0.712094 4.10536 -2.09258
-0.725332 4.10533 -2.09371
-0.738586 4.10529 -2.09486
-0.751854 4.10526 -2.09603
-0.765139 4.10523 -2.09723
-0.778439 4.1052 -2.09845
-0.791753 4.10518 -2.09969
-0.805084 4.10515 -2.10096
-0.818432 4.10513 -2.10225
-0.831797 4.1051 -2.10356
-0.845181 4.10508 -2.10489
-0.858579 4.10506 -2.10625
-0.871997 4.10504 -2.10763
-0.885432 4.10502 -2.10903
-0.898877 4.10497 -2.11044
-0.912287 4.10468 -2.11175
-0.925714 4.10438 -2.11308
-0.939158 4.10409 -2.11443
-0.952618 4.10379 -2.1158
-0.966095 4.1035 -2.1172
-1.04345 4.25263 -2.1991
-1.03409 4.1582 -2.15193
-1.03635 4.11225 -2.12982
-1.05005 4.11225 -2.13151
-1.06377 4.11224 -2.13323
-1.07751 4.11224 -2.13496
-1.09128 4.11224 -2.13673
-1.10507 4.11223 -2.13851
-1.11888 4.11223 -2.14032
-1.13272 4.11222 -2.14215
-1.14658 4.11222 -2.14401
-1.16046 4.11221 -2.14589
-1.17437 4.11221 -2.1478
-1.1883 4.11221 -2.14972
-1.20226 4.1122 -2.15168
-1.21624 4.1122 -2.15366
-1.23026 4.11219 -2.15566
-1.24429 4.11219 -2.15769
-1.25835 4.11218 -2.15974
-1.27245 4.11218 -2.16182
-1.28656 4.11217 -2.16393
-1.30071 4.11217 -2.16606
-1.31488 4.11216 -2.16821
-1.32908 4.11215 -2.17039
-1.34331 4.11215 -2.1726
-1.35757 4.11214 -2.17483
-1.37186 4.11214 -2.17709
-1.38617 4.11213 -2.17937
-1.40052 4.11213 -2.18168
-1.4149 4.11212 -2.18402
-1.42931 4.11212 -2.18638
-1.44375 4.11211 -2.18877
-1.45823 4.1121 -2.19118
-1.47273 4.1121 -2.19363
-1.48727 4.11209 -2.1961
-1.50184 4.11209 -2.19859
-1.51644 4.11208 -2.20112
-1.53108 4.11207 -2.20367
-1.54575 4.11207 -2.20625
-1.56045 4.11206 -2.20885
-1.5752 4.11205 -2.21149
-1.58997 4.11205 -2.21415
-1.60479 4.11204 -2.21684
-1.61963 4.11203 -2.21956
-1.63452 4.11203 -2.22231
-1.64944 4.11202 -2.22508
-1.6644 4.11201 -2.22789
-1.67939 4.11201 -2.23072
-1.69443 4.112 -2.23358
-1.7095 4.11199 -2.23648
-1.72462 4.11199 -2.2394
-0.217205 4.11044 -2.11024
-0.230106 4.11036 -2.11056
-0.24301 4.11028 -2.1109
-0.255918 4.1102 -2.11126
-0.268832 4.11012 -2.11164
-0.28175 4.11004 -2.11204
-0.294674 4.10997 -2.11247
-0.307605 4.10989 -2.11291
-0.32054 4.10982 -2.11338
-0.333481 4.10975 -2.11387
-0.346427 4.10967 -2.11438
-0.359379 4.1096 -2.11491
-0.37234 4.10954 -2.11547
-0.385307 4.10947 -2.11604
-0.398281 4.1094 -2.11664
-0.411264 4.10934 -2.11726
-0.424253 4.10928 -2.1179
-0.437251 4.10921 -2.11856
-0.450258 4.10915 -2.11925
-0.463273 4.10909 -2.11996
-0.476297 4.10904 -2.12069
-0.489332 4.10898 -2.12144
-0.502375 4.10892 -2.12221
-0.515428 4.10887 -2.123
-0.52849 4.10882 -2.12382
-0.541563 4.10877 -2.12466
-0.554648 4.10872 -2.12552
-0.567743 4.10867 -2.12641
-0.580848 4.10862 -2.12731
-0.593966 4.10858 -2.12824
-0.607096 4.10853 -2.12919
-0.620237 4.10849 -2.13017
-0.63339 4.10845 -2.13116
-0.646556 4.10841 -2.13218
-0.659735 4.10837 -2.13322
-0.672931 4.10833 -2.13428
-0.686137 4.10829 -2.13537
-0.699356 4.10826 -2.13648
-0.712591 4.10822 -2.13761
-0.725838 4.10819 -2.13877
-0.739102 4.10816 -2.13995
-0.752343 4.10793 -2.14104
-0.765587 4.10764 -2.14213
-0.778845 4.10735 -2.14324
-0.792117 4.10706 -2.14437
-0.805403 4.10677 -2.14553
-0.818702 4.10648 -2.1467
-0.832017 4.10619 -2.1479
-0.845349 4.1059 -2.14912
-0.858694 4.10561 -2.15037
-0.872054 4.10531 -2.15163
-0.885431 4.10502 -2.15292
-0.898824 4.10473 -2.15423
-0.912233 4.10443 -2.15557
-0.925659 4.10414 -2.15692
-0.939101 4.10384 -2.1583
-0.952561 4.10355 -2.1597
-0.966037 4.10325 -2.16113
-1.04955 4.22034 -2.22954
-1.04013 4.12725 -2.18208
-1.05002 4.11213 -2.17581
-1.06374 4.11212 -2.17756
-1.07748 4.11212 -2.17933
-1.09125 4.11212 -2.18113
-1.10504 4.11211 -2.18295
-1.11885 4.11211 -2.1848
-1.13268 4.1121 -2.18667
-1.14654 4.1121 -2.18856
-1.16043 4.11209 -2.19048
-1.17433 4.11209 -2.19243
-1.18827 4.11208 -2.1944
-1.20222 4.11208 -2.19639
-1.21621 4.11207 -2.19841
-1.23022 4.11207 -2.20046
-1.24426 4.11206 -2.20253
-1.25832 4.11206 -2.20462
-1.27241 4.11205 -2.20675
-1.28652 4.11205 -2.20889
-1.30067 4.11204 -2.21107
-1.31484 4.11204 -2.21327
-1.32904 4.11203 -2.21549
-1.34327 4.11203 -2.21774
-1.35753 4.11202 -2.22002
-1.37182 4.11202 -2.22233
-1.38613 4.11201 -2.22466
-1.40048 4.112 -2.22701
-1.41486 4.112 -2.2294
-1.42927 4.11199 -2.23181
-1.44371 4.11199 -2.23425
-1.45818 4.11198 -2.23672
-1.47269 4.11198 -2.23921
-1.48722 4.11197 -2.24173
-1.50179 4.11196 -2.24428
-1.51639 4.11196 -2.24685
-1.53103 4.11195 -2.24946
-1.5457 4.11194 -2.25209
-1.56041 4.11194 -2.25475
-1.57515 4.11193 -2.25744
-1.58992 4.11192 -2.26016
-1.60474 4.11192 -2.26291
-1.61958 4.11191 -2.26568
-1.63447 4.1119 -2.26848
-1.64939 4.1119 -2.27132
-1.66435 4.11189 -2.27418
-1.67934 4.11188 -2.27707
-1.69438 4.11187 -2.28
-1.70945 4.11187 -2.28295
-0.217356 4.1133 -2.15513
-0.230266 4.11322 -2.15545
-0.243179 4.11314 -2.15579
-0.256097 4.11306 -2.15616
-0.269019 4.11298 -2.15655
-0.281946 4.1129 -2.15696
-0.294878 4.11283 -2.1574
-0.307819 4.11275 -2.15785
-0.320763 4.11268 -2.15833
-0.333714 4.11261 -2.15883
-0.346669 4.11254 -2.15935
-0.35963 4.11247 -2.1599
-0.372599 4.1124 -2.16046
-0.385575 4.11233 -2.16105
-0.398558 4.11227 -2.16166
-0.41155 4.1122 -2.1623
-0.424549 4.11214 -2.16295
-0.437556 4.11208 -2.16363
-0.450572 4.11202 -2.16433
-0.463595 4.11196 -2.16505
-0.47663 4.11191 -2.1658
-0.489674 4.11185 -2.16657
-0.502726 4.1118 -2.16736
-0.515788 4.11174 -2.16817
-0.528859 4.11169 -2.169
-0.541943 4.11164 -2.16986
-0.555036 4.11159 -2.17074
-0.56814 4.11155 -2.17165
-0.581242 4.11141 -2.17252
-0.594335 4.11113 -2.17335
-0.607437 4.11084 -2.17419
-0.620548 4.11056 -2.17506
-0.633671 4.11027 -2.17594
-0.646805 4.10999 -2.17685
-0.659949 4.1097 -2.17779
-0.673107 4.10941 -2.17874
-0.686275 4.10913 -2.17972
-0.699455 4.10884 -2.18072
-0.712647 4.10855 -2.18174
-0.725851 4.10826 -2.18278
-0.739068 4.10797 -2.18384
-0.752298 4.10769 -2.18493
-0.765542 4.1074 -2.18604
-0.778799 4.10711 -2.18717
-0.792069 4.10682 -2.18833
-0.805353 4.10653 -2.18951
-0.818654 4.10624 -2.19071
-0.831968 4.10594 -2.19193
-0.845298 4.10565 -2.19318
-0.858642 4.10536 -2.19445
-0.872002 4.10507 -2.19574
-0.885378 4.10477 -2.19705
-0.89877 4.10448 -2.19839
-0.912178 4.10419 -2.19975
-0.925603 4.10389 -2.20114
-0.939044 4.1036 -2.20254
-0.952504 4.1033 -2.20397
-0.965979 4.103 -2.20543
-1.0557 4.18904 -2.26028
-1.04999 4.11201 -2.22048
-1.06371 4.112 -2.22226
-1.07745 4.112 -2.22407
-1.09122 4.11199 -2.22591
-1.105 4.11199 -2.22777
-1.11881 4.11199 -2.22965
-1.13265 4.11198 -2.23156
-1.14651 4.11198 -2.23349
-1.16039 4.11197 -2.23545
-1.1743 4.11197 -2.23744
-1.18823 4.11196 -2.23945
-1.20219 4.11196 -2.24148
-1.21617 4.11195 -2.24355
-1.23018 4.11195 -2.24563
-1.24422 4.11194 -2.24775
-1.25828 4.11194 -2.24988
-1.27237 4.11193 -2.25205
-1.28649 4.11193 -2.25424
-1.30063 4.11192 -2.25646
-1.3148 4.11192 -2.2587
-1.329 4.11191 -2.26098
-1.34323 4.1119 -2.26327
-1.35749 4.1119 -2.2656
-1.37177 4.11189 -2.26795
-1.38609 4.11189 -2.27033
-1.40044 4.11188 -2.27273
-1.41482 4.11188 -2.27517
-1.42923 4.11187 -2.27763
-1.44367 4.11186 -2.28012
-1.45814 4.11186 -2.28263
-1.47264 4.11185 -2.28518
-1.48718 4.11184 -2.28775
-1.50175 4.11184 -2.29035
-1.51635 4.11183 -2.29298
-1.53098 4.11182 -2.29564
-1.54565 4.11182 -2.29832
-1.56036 4.11181 -2.30104
-1.5751 4.1118 -2.30378
-1.58987 4.1118 -2.30656
-1.60469 4.11179 -2.30936
-1.61953 4.11178 -2.31219
-1.63442 4.11178 -2.31505
-1.64934 4.11177 -2.31795
-1.6643 4.11176 -2.32087
-1.67929 4.11175 -2.32382
-0.217509 4.11619 -2.20046
-0.230428 4.1161 -2.20079
-0.24335 4.11602 -2.20115
-0.256276 4.11594 -2.20152
-0.269208 4.11586 -2.20192
-0.282143 4.11579 -2.20234
-0.295086 4.11571 -2.20279
-0.308034 4.11564 -2.20325
-0.320988 4.11557 -2.20374
-0.333947 4.1155 -2.20425
-0.346912 4.11543 -2.20478
-0.359883 4.11536 -2.20534
-0.372861 4.11529 -2.20592
-0.385846 4.11522 -2.20652
-0.398834 4.11511 -2.20712
-0.411814 4.11483 -2.20765
-0.424798 4.11455 -2.2082
-0.437789 4.11427 -2.20878
-0.450788 4.11399 -2.20937
-0.463793 4.11371 -2.20999
-0.476806 4.11343 -2.21063
-0.489828 4.11315 -2.21129
-0.502857 4.11286 -2.21197
-0.515893 4.11258 -2.21268
-0.528938 4.1123 -2.21341
-0.541991 4.11202 -2.21416
-0.555055 4.11173 -2.21493
-0.568127 4.11145 -2.21572
-0.581208 4.11116 -2.21654
-0.594299 4.11088 -2.21738
-0.6074 4.11059 -2.21824
-0.620512 4.11031 -2.21913
-0.633634 4.11002 -2.22003
-0.646766 4.10974 -2.22096
-0.659909 4.10945 -2.22191
-0.673067 4.10917 -2.22288
-0.686234 4.10888 -2.22388
-0.699413 4.10859 -2.2249
-0.712604 4.1083 -2.22594
-0.725807 4.10802 -2.227
-0.739023 4.10773 -2.22809
-0.752253 4.10744 -2.2292
-0.765495 4.10715 -2.23033
-0.778752 4.10686 -2.23149
-0.792022 4.10657 -2.23267
-0.805306 4.10628 -2.23387
-0.818604 4.10599 -2.23509
-0.831917 4.1057 -2.23634
-0.845246 4.1054 -2.23761
-0.858591 4.10511 -2.23891
-0.87195 4.10482 -2.24022
-0.885324 4.10453 -2.24157
-0.898715 4.10423 -2.24293
-0.912123 4.10394 -2.24432
-0.925547 4.10364 -2.24573
-0.938988 4.10335 -2.24717
-0.952446 4.10305 -2.24863
-0.965921 4.10275 -2.25011
-1.06367 4.11188 -2.26736
-1.07742 4.11188 -2.2692
-1.09118 4.11187 -2.27107
-1.10497 4.11187 -2.27297
-1.11878 4.11186 -2.27489
-1.13262 4.11186 -2.27684
-1.14647 4.11185 -2.27881
-1.16036 4.11185 -2.28081
-1.17426 4.11184 -2.28284
-1.1882 4.11184 -2.28489
-1.20215 4.11183 -2.28697
-1.21614 4.11183 -2.28907
-1.23015 4.11182 -2.2912
-1.24418 4.11182 -2.29336
-1.25824 4.11181 -2.29554
-1.27233 4.11181 -2.29775
-1.28645 4.1118 -2.29998
-1.30059 4.1118 -2.30225
-1.31476 4.11179 -2.30454
-1.32896 4.11179 -2.30685
-1.34319 4.11178 -2.3092
-1.35745 4.11177 -2.31157
-1.37173 4.11177 -2.31397
-1.38605 4.11176 -2.3164
-1.40039 4.11176 -2.31885
-1.41477 4.11175 -2.32133
-1.42918 4.11174 -2.32384
-1.44362 4.11174 -2.32638
-1.45809 4.11173 -2.32895
-1.4726 4.11172 -2.33155
-1.48713 4.11172 -2.33417
-1.5017 4.11171 -2.33683
-1.5163 4.11171 -2.33951
-1.53094 4.1117 -2.34222
-1.54561 4.11169 -2.34496
-1.56031 4.11168 -2.34773
-1.57505 4.11168 -2.35053
-1.58983 4.11167 -2.35336
-1.60464 4.11166 -2.35622
-1.61948 4.11166 -2.35911
-1.63437 4.11165 -2.36203
-1.64929 4.11164 -2.36498
-0.217645 4.11877 -2.24609
-0.230561 4.11849 -2.24632
-0.243479 4.11821 -2.24657
-0.2564 4.11793 -2.24685
-0.269325 4.11766 -2.24715
-0.282253 4.11738 -2.24747
-0.295185 4.1171 -2.24781
-0.308123 4.11682 -2.24817
-0.321064 4.11654 -2.24856
-0.33401 4.11626 -2.24897
-0.346959 4.11598 -2.24939
-0.359914 4.11571 -2.24985
-0.372874 4.11543 -2.25032
-0.385839 4.11515 -2.25082
-0.39881 4.11487 -2.25134
-0.411789 4.11459 -2.25188
-0.424772 4.1143 -2.25244
-0.437763 4.11402 -2.25303
-0.45076 4.11374 -2.25363
-0.463766 4.11346 -2.25426
-1.09115 4.11175 -2.31664
-1.10494 4.11174 -2.31858
-1.11875 4.11174 -2.32054
-1.13258 4.11173 -2.32252
-1.14644 4.11173 -2.32454
-1.16032 4.11172 -2.32658
-1.17423 4.11172 -2.32864
-1.18816 4.11171 -2.33073
-1.20212 4.11171 -2.33285
-1.2161 4.1117 -2.335
-1.23011 4.1117 -2.33717
-1.24414 4.11169 -2.33937
-1.2582 4.11169 -2.3416
-1.27229 4.11168 -2.34385
-1.28641 4.11168 -2.34613
-1.30055 4.11167 -2.34844
-1.31472 4.11167 -2.35077
-1.32892 4.11166 -2.35314
-1.34315 4.11165 -2.35553
-1.3574 4.11165 -2.35795
-1.37169 4.11164 -2.36039
-1.38601 4.11164 -2.36287
-1.40035 4.11163 -2.36537
-1.41473 4.11162 -2.36791
-1.42914 4.11162 -2.37047
-1.44358 4.11161 -2.37306
-1.45805 4.1116 -2.37568
-1.47255 4.1116 -2.37833
-1.48709 4.11159 -2.381
-1.50166 4.11159 -2.38371
-1.51626 4.11158 -2.38645
-1.53089 4.11157 -2.38921
-1.54556 4.11156 -2.39201
-1.56026 4.11156 -2.39483
-1.575 4.11155 -2.39769
-1.58978 4.11154 -2.40057
-1.60459 4.11154 -2.40349
-1.13255 4.11161 -2.36862
-1.1464 4.1116 -2.37067
-1.16029 4.1116 -2.37275
-1.17419 4.11159 -2.37486
-1.18812 4.11159 -2.37699
-1.20208 4.11158 -2.37915
-1.21606 4.11158 -2.38134
-1.23007 4.11157 -2.38356
-1.24411 4.11157 -2.3858
-1.25817 4.11156 -2.38807
-1.27225 4.11156 -2.39037
-1.28637 4.11155 -2.39269
-1.30051 4.11155 -2.39505
-1.31468 4.11154 -2.39743
-1.32888 4.11153 -2.39984
-1.34311 4.11153 -2.40228
-1.35736 4.11152 -2.40475
-1.37165 4.11152 -2.40724
-1.38596 4.11151 -2.40977
-1.40031 4.1115 -2.41232
-1.41469 4.1115 -2.4149
-1.42909 4.11149 -2.41752
-1.44353 4.11148 -2.42016
-1.458 4.11148 -2.42283
-1.47251 4.11147 -2.42553
-1.48704 4.11146 -2.42826
-1.50161 4.11146 -2.43102
-1.51621 4.11145 -2.43381
-1.53084 4.11144 -2.43663
-1.54551 4.11144 -2.43948
-1.56022 4.11143 -2.44236
-1.18809 4.11146 -2.42368
-1.20204 4.11146 -2.42588
-1.21603 4.11145 -2.42811
-1.23003 4.11145 -2.43037
-1.24407 4.11144 -2.43266
-1.25813 4.11144 -2.43497
-1.27222 4.11143 -2.43731
-1.28633 4.11142 -2.43969
-1.30047 4.11142 -2.44209
-1.31464 4.11141 -2.44451
-1.32884 4.11141 -2.44697
-1.34306 4.1114 -2.44946
-1.35732 4.11139 -2.45197
-1.37161 4.11139 -2.45452
-1.38592 4.11138 -2.45709
-1.40027 4.11137 -2.4597
-1.41464 4.11137 -2.46233
-1.42905 4.11136 -2.46499
-1.44349 4.11135 -2.46769
-1.45796 4.11135 -2.47041
-1.47246 4.11134 -2.47316
-1.49913 4.98386 -1.14246
-1.52317 5.00676 -1.1488
-1.54746 5.02986 -1.15521
-1.58476 5.09418 -1.17111
-1.62531 5.16731 -1.18909
-1.68035 5.2843 -1.21722
-1.42945 4.7522 -1.13266
-1.45187 4.77239 -1.13856
-1.47464 4.79319 -1.14462
-1.49765 4.81416 -1.15074
-1.52088 4.8353 -1.15693
-1.54435 4.8566 -1.16318
-1.56805 4.87808 -1.1695
-1.59199 4.89973 -1.17588
-1.61617 4.92156 -1.18233
-1.6406 4.94357 -1.18885
-1.66795 4.97372 -1.19735
-1.69827 5.0119 -1.20782
-1.75624 5.12996 -1.23759
-1.38159 4.59308 -1.13676
-1.40131 4.6062 -1.14109
-1.42117 4.61939 -1.14545
-1.44118 4.63263 -1.14985
-1.46138 4.64613 -1.15434
-1.48217 4.66107 -1.1592
-1.50312 4.6761 -1.1641
-1.52424 4.69121 -1.16905
-1.54552 4.7064 -1.17404
-1.56697 4.72168 -1.17907
-1.58858 4.73704 -1.18415
-1.61077 4.75365 -1.18956
-1.63434 4.77389 -1.1959
-1.65886 4.79631 -1.20281
-1.68802 4.83151 -1.21296
-1.71766 4.86723 -1.22328
-1.74777 4.90349 -1.23376
-1.77839 4.9403 -1.24442
-1.8095 4.97766 -1.25526
-1.84113 5.0156 -1.26628
-1.903 5.13427 -1.29774
-1.92757 5.15092 -1.30347
-1.95233 5.16762 -1.30924
-1.97726 5.18434 -1.31504
-2.00237 5.2011 -1.32088
-2.02766 5.2179 -1.32676
-2.05313 5.23473 -1.33267
-2.07879 5.2516 -1.33861
-2.10462 5.2685 -1.3446
-2.13064 5.28544 -1.35062
-2.15685 5.30241 -1.35668
-2.18325 5.31941 -1.36278
-1.34351 4.46649 -1.14645
-1.3602 4.47108 -1.14872
-1.37761 4.47778 -1.15155
-1.39524 4.48497 -1.15452
-1.41367 4.49443 -1.15809
-1.43311 4.50679 -1.16243
-1.45269 4.5192 -1.1668
-1.4724 4.53167 -1.1712
-1.49225 4.54418 -1.17564
-1.51224 4.55675 -1.18012
-1.53284 4.57081 -1.185
-1.55363 4.58502 -1.18994
-1.57458 4.59931 -1.19492
-1.59569 4.61368 -1.19995
-1.61786 4.63069 -1.20569
-1.64173 4.65209 -1.2126
-1.66587 4.67369 -1.21958
-1.69027 4.6955 -1.22665
-1.71441 4.71609 -1.23343
-1.73878 4.73677 -1.24026
-1.767 4.76736 -1.24972
-1.79692 4.80178 -1.26021
-1.82731 4.83671 -1.27088
-1.8582 4.87217 -1.28172
-1.88959 4.90815 -1.29274
-1.91251 4.92159 -1.29785
-1.93318 4.9289 -1.30137
-1.95394 4.9362 -1.30492
-1.97479 4.94349 -1.30847
-1.99573 4.95077 -1.31205
-2.01717 4.95902 -1.31591
-2.03945 4.96904 -1.32026
-2.06184 4.97907 -1.32464
-2.08436 4.9891 -1.32904
-2.107 4.99913 -1.33346
-2.12976 5.00916 -1.33792
-2.15265 5.01919 -1.34239
-2.17566 5.02922 -1.3469
-2.20075 5.04374 -1.35263
-2.22613 5.05851 -1.35846
-2.25167 5.07332 -1.36432
-2.27739 5.08815 -1.37023
-2.30329 5.10302 -1.37617
-2.32938 5.11791 -1.38215
-1.324 4.40162 -1.1704
-1.33914 4.40184 -1.17157
-1.35475 4.40348 -1.17313
-1.3704 4.40513 -1.17471
-1.38609 4.40676 -1.1763
-1.40246 4.41039 -1.17843
-1.41976 4.41678 -1.18132
-1.43715 4.42317 -1.18423
-1.45461 4.42957 -1.18716
-1.47215 4.43597 -1.19011
-1.49009 4.44334 -1.19334
-1.50824 4.45107 -1.19668
-1.52648 4.45881 -1.20004
-1.54481 4.46658 -1.20343
-1.56399 4.47649 -1.20742
-1.5852 4.4919 -1.21291
-1.60819 4.51186 -1.21966
-1.63141 4.53201 -1.22648
-1.65488 4.55233 -1.23338
-1.6786 4.57283 -1.24036
-1.70257 4.59353 -1.24741
-1.7268 4.61441 -1.25455
-1.75108 4.63494 -1.26162
-1.77527 4.65473 -1.26852
-1.79971 4.67469 -1.27549
-1.8244 4.69483 -1.28254
-1.84934 4.71515 -1.28967
-1.87473 4.7361 -1.297
-1.89904 4.75386 -1.30349
-1.91897 4.76035 -1.30692
-1.939 4.76683 -1.31036
-1.9591 4.77329 -1.31382
-1.97929 4.77973 -1.31729
-1.99957 4.78615 -1.32079
-2.01993 4.79256 -1.3243
-2.04038 4.79894 -1.32782
-2.06092 4.80531 -1.33137
-2.08154 4.81165 -1.33493
-2.10225 4.81798 -1.33851
-2.12305 4.82429 -1.3421
-2.14393 4.83057 -1.34572
-2.16491 4.83683 -1.34935
-2.18661 4.84449 -1.35339
-2.20894 4.85331 -1.35778
-2.2314 4.86212 -1.3622
-2.25397 4.87091 -1.36664
-2.27666 4.87971 -1.37111
-2.29946 4.88849 -1.37559
-2.32239 4.89727 -1.38011
-1.31686 4.37791 -1.20464
-1.33168 4.37732 -1.20562
-1.34652 4.37671 -1.20661
-1.36202 4.3782 -1.20819
-1.37761 4.37979 -1.20982
-1.39323 4.38138 -1.21146
-1.4089 4.38296 -1.21311
-1.4246 4.38454 -1.21478
-1.44034 4.38612 -1.21646
-1.45613 4.3877 -1.21816
-1.47196 4.38927 -1.21987
-1.48783 4.39084 -1.2216
-1.50374 4.3924 -1.22334
-1.5197 4.39396 -1.2251
-1.53569 4.39552 -1.22687
-1.55154 4.39652 -1.22851
-1.5686 4.4008 -1.23107
-1.58804 4.41153 -1.23546
-1.60839 4.42443 -1.24048
-1.62889 4.43741 -1.24555
-1.64955 4.45047 -1.25066
-1.67037 4.46361 -1.25582
-1.69135 4.47682 -1.26102
-1.71403 4.49416 -1.26741
-1.73783 4.51397 -1.27453
-1.76188 4.53395 -1.28173
-1.78618 4.55411 -1.28901
-1.81032 4.57337 -1.29606
-1.83456 4.59245 -1.30309
-1.85905 4.6117 -1.3102
-1.88089 4.62398 -1.31536
-1.90002 4.62934 -1.31858
-1.91923 4.63469 -1.32181
-1.93853 4.64003 -1.32506
-1.95789 4.64535 -1.32833
-1.97734 4.65066 -1.33162
-1.99687 4.65596 -1.33492
-2.01647 4.66125 -1.33824
-2.03557 4.66517 -1.3412
-2.05474 4.66907 -1.34416
-2.07397 4.67295 -1.34715
-2.09328 4.67681 -1.35015
-2.11265 4.68065 -1.35316
-2.1321 4.68447 -1.3562
-2.15161 4.68827 -1.35924
-2.1712 4.69205 -1.36231
-2.19086 4.69582 -1.36539
-2.21059 4.69956 -1.36849
-2.23039 4.70328 -1.3716
-2.25026 4.70698 -1.37474
-2.27021 4.71066 -1.37789
-2.29023 4.71432 -1.38105
-2.31033 4.71796 -1.38424
-1.30979 4.35439 -1.23867
-1.32452 4.35378 -1.23967
-1.33927 4.35316 -1.24069
-1.35404 4.35253 -1.24171
-1.36919 4.35302 -1.24307
-1.38471 4.35457 -1.24475
-1.40026 4.35611 -1.24644
-1.41586 4.35764 -1.24814
-1.43149 4.35917 -1.24986
-1.44717 4.3607 -1.2516
-1.46289 4.36223 -1.25334
-1.47865 4.36375 -1.25511
-1.49445 4.36526 -1.25689
-1.51029 4.36677 -1.25868
-1.52618 4.36828 -1.26049
-1.54192 4.36925 -1.26216
-1.55735 4.36925 -1.26356
-1.57282 4.36923 -1.26498
-1.58944 4.37231 -1.26731
-1.60668 4.37692 -1.2701
-1.624 4.38155 -1.27292
-1.64139 4.38618 -1.27575
-1.65886 4.39082 -1.27861
-1.67639 4.39547 -1.28149
-1.69401 4.40014 -1.28439
-1.71391 4.41049 -1.28898
-1.73482 4.42316 -1.29427
-1.7559 4.43591 -1.2996
-1.77714 4.44872 -1.30498
-1.79855 4.46162 -1.31042
-1.82015 4.47467 -1.31592
-1.84392 4.49265 -1.3229
-1.86495 4.50361 -1.32785
-1.88357 4.50848 -1.33102
-1.90225 4.51334 -1.33421
-1.92101 4.51818 -1.33742
-1.93984 4.52301 -1.34064
-1.95875 4.52782 -1.34388
-1.97773 4.53261 -1.34714
-1.99679 4.53739 -1.35042
-2.01593 4.54216 -1.35371
-2.03514 4.5469 -1.35702
-2.05442 4.55163 -1.36035
-2.07379 4.55635 -1.3637
-2.09323 4.56105 -1.36706
-2.11274 4.56573 -1.37045
-2.13234 4.57039 -1.37385
-2.15201 4.57504 -1.37727
-2.17157 4.57923 -1.38058
-2.19078 4.58256 -1.38364
-2.21007 4.58587 -1.38673
-2.22943 4.58915 -1.38983
-2.24885 4.59241 -1.39295
-2.26834 4.59565 -1.39608
-1.30276 4.33102 -1.27249
-1.3174 4.33039 -1.27352
-1.33207 4.32976 -1.27455
-1.34676 4.32911 -1.2756
-1.36146 4.32846 -1.27666
-1.37625 4.32796 -1.27778
-1.3917 4.32946 -1.27951
-1.40719 4.33095 -1.28125
-1.42271 4.33243 -1.283
-1.43828 4.33392 -1.28477
-1.45389 4.33539 -1.28655
-1.46954 4.33687 -1.28835
-1.48523 4.33834 -1.29017
-1.50097 4.3398 -1.292
-1.51674 4.34126 -1.29384
-1.53237 4.3422 -1.29555
-1.5477 4.34216 -1.29698
-1.56306 4.34212 -1.29843
-1.57844 4.34207 -1.29988
-1.59387 4.342 -1.30136
-1.61002 4.34383 -1.30341
-1.62723 4.34835 -1.30629
-1.64451 4.35286 -1.30919
-1.66187 4.35739 -1.31212
-1.67929 4.36193 -1.31506
-1.6968 4.36647 -1.31803
-1.71437 4.37102 -1.32102
-1.73202 4.37558 -1.32404
-1.74975 4.38016 -1.32708
-1.76756 4.38474 -1.33014
-1.78544 4.38932 -1.33322
-1.8034 4.39392 -1.33633
-1.82144 4.39853 -1.33947
-1.84115 4.40696 -1.34379
-1.86176 4.41727 -1.3487
-1.87968 4.42097 -1.35163
-1.89766 4.42466 -1.35457
-1.91572 4.42835 -1.35753
-1.93384 4.43202 -1.36051
-1.95203 4.43568 -1.36351
-1.97029 4.43933 -1.36653
-1.98862 4.44298 -1.36956
-2.00713 4.44687 -1.3727
-2.02609 4.45155 -1.3761
-2.04512 4.45623 -1.37952
-2.06425 4.46092 -1.38297
-2.08346 4.46562 -1.38645
-2.10276 4.47032 -1.38995
-2.12215 4.47503 -1.39348
-2.14163 4.47975 -1.39703
-2.16121 4.48448 -1.40062
-2.18088 4.48922 -1.40423
-2.20064 4.49397 -1.40787
-2.2205 4.49872 -1.41153
-2.24045 4.50348 -1.41522
-1.29577 4.30779 -1.30611
-1.31033 4.30715 -1.30715
-1.32491 4.30649 -1.30821
-1.33951 4.30584 -1.30928
-1.35414 4.30517 -1.31037
-1.36878 4.30449 -1.31146
-1.38345 4.30381 -1.31257
-1.39858 4.30446 -1.3141
-1.414 4.3059 -1.31589
-1.42946 4.30733 -1.31769
-1.44496 4.30876 -1.31951
-1.4605 4.31019 -1.32134
-1.47608 4.31161 -1.32319
-1.49171 4.31303 -1.32506
-1.50737 4.31445 -1.32694
-1.5229 4.31536 -1.32868
-1.53812 4.31529 -1.33014
-1.55337 4.31522 -1.33161
-1.56865 4.31513 -1.3331
-1.58397 4.31504 -1.3346
-1.59931 4.31494 -1.33611
-1.61469 4.31483 -1.33764
-1.63035 4.31538 -1.33939
-1.64753 4.31979 -1.34236
-1.66477 4.3242 -1.34535
-1.68209 4.32862 -1.34836
-1.69948 4.33305 -1.35139
-1.71694 4.33748 -1.35445
-1.73448 4.34193 -1.35753
-1.7521 4.34638 -1.36063
-1.76979 4.35084 -1.36376
-1.78755 4.35531 -1.36691
-1.8054 4.35979 -1.37009
-1.82332 4.36428 -1.37329
-1.84132 4.36877 -1.37652
-1.85863 4.37147 -1.3792
-1.87586 4.37383 -1.38179
-1.89316 4.37619 -1.38441
-1.9108 4.37921 -1.38726
-1.92915 4.38369 -1.39058
-1.94758 4.38817 -1.39394
-1.9661 4.39265 -1.39732
-1.98469 4.39715 -1.40072
-2.00337 4.40165 -1.40415
-2.02214 4.40615 -1.4076
-2.04099 4.41067 -1.41108
-2.05993 4.41519 -1.41459
-2.07895 4.41971 -1.41812
-2.09807 4.42424 -1.42168
-2.11726 4.42878 -1.42527
-2.13656 4.43333 -1.42888
-2.15594 4.43788 -1.43253
-2.17541 4.44244 -1.43619
-2.19497 4.44701 -1.43989
-2.21463 4.45158 -1.44361
-2.24614 4.47961 -1.45498
-1.28882 4.28469 -1.33953
-1.3033 4.28404 -1.34059
-1.3178 4.28337 -1.34167
-1.33232 4.2827 -1.34276
-1.34685 4.28201 -1.34387
-1.36142 4.28132 -1.34499
-1.376 4.28062 -1.34612
-1.3906 4.27991 -1.34726
-1.40535 4.27956 -1.34853
-1.42071 4.28095 -1.35036
-1.4361 4.28233 -1.35222
-1.45153 4.28372 -1.35408
-1.467 4.28509 -1.35597
-1.48252 4.28647 -1.35787
-1.49807 4.28783 -1.35978
-1.5135 4.28872 -1.36156
-1.52861 4.28862 -1.36305
-1.54376 4.28852 -1.36455
-1.55894 4.2884 -1.36606
-1.57415 4.28828 -1.36759
-1.58938 4.28815 -1.36913
-1.60466 4.28801 -1.37069
-1.61996 4.28786 -1.37226
-1.63529 4.28771 -1.37385
-1.65066 4.28754 -1.37544
-1.66756 4.29124 -1.3783
-1.68477 4.29555 -1.38138
-1.70205 4.29986 -1.38448
-1.7194 4.30418 -1.3876
-1.73683 4.30851 -1.39074
-1.75433 4.31285 -1.39391
-1.77191 4.31719 -1.39711
-1.78956 4.32154 -1.40033
-1.80729 4.3259 -1.40357
-1.82509 4.33026 -1.40684
-1.84212 4.33262 -1.40947
-1.85917 4.33489 -1.4121
-1.87627 4.33716 -1.41475
-1.89344 4.33942 -1.41742
-1.91067 4.34168 -1.42011
-1.92795 4.34394 -1.42282
-1.9453 4.34619 -1.42555
-1.96271 4.34844 -1.4283
-1.98106 4.35262 -1.43171
-1.99956 4.35696 -1.43519
-2.01815 4.3613 -1.4387
-2.03682 4.36565 -1.44224
-2.05557 4.37 -1.4458
-2.07441 4.37436 -1.44939
-2.09333 4.37872 -1.453
-2.11234 4.38309 -1.45665
-2.13145 4.38746 -1.46032
-2.15064 4.39185 -1.46401
-2.16991 4.39623 -1.46774
-2.19154 4.40516 -1.47301
-2.22318 4.43383 -1.48492
-2.25535 4.46297 -1.49704
-1.28192 4.26173 -1.37275
-1.29631 4.26106 -1.37384
-1.31072 4.26038 -1.37494
-1.32516 4.25969 -1.37605
-1.33961 4.25899 -1.37718
-1.35409 4.25829 -1.37832
-1.36859 4.25757 -1.37947
-1.38311 4.25685 -1.38063
-1.39765 4.25611 -1.38181
-1.41222 4.25537 -1.383
-1.4273 4.2561 -1.38469
-1.44263 4.25744 -1.38659
-1.45799 4.25877 -1.3885
-1.4734 4.26009 -1.39044
-1.48884 4.26142 -1.39239
-1.50417 4.26227 -1.3942
-1.51918 4.26215 -1.39571
-1.53422 4.26202 -1.39724
-1.54929 4.26187 -1.39878
-1.5644 4.26172 -1.40034
-1.57953 4.26157 -1.40191
-1.5947 4.2614 -1.40349
-1.60989 4.26122 -1.40509
-1.62512 4.26103 -1.4067
-1.64038 4.26084 -1.40833
-1.65567 4.26063 -1.40997
-1.67099 4.26041 -1.41163
-1.68734 4.2627 -1.41413
-1.70451 4.2669 -1.41729
-1.72175 4.27111 -1.42048
-1.73907 4.27532 -1.42369
-1.75646 4.27954 -1.42692
-1.77392 4.28377 -1.43018
-1.79146 4.288 -1.43346
-1.809 4.29209 -1.43672
-1.82581 4.29428 -1.43936
-1.84268 4.29646 -1.44202
-1.8596 4.29863 -1.44471
-1.87659 4.3008 -1.44741
-1.89363 4.30297 -1.45013
-1.91073 4.30513 -1.45287
-1.92789 4.30729 -1.45563
-1.9451 4.30944 -1.45842
-1.96238 4.31159 -1.46122
-1.97973 4.31373 -1.46405
-1.99712 4.31587 -1.46689
-2.01459 4.318 -1.46976
-2.03259 4.32116 -1.47299
-2.05117 4.32534 -1.47661
-2.06982 4.32954 -1.48025
-2.08856 4.33374 -1.48392
-2.10738 4.33794 -1.48762
-2.1263 4.34215 -1.49134
-2.14529 4.34636 -1.49509
-2.16944 4.36074 -1.50237
-2.20059 4.38877 -1.5144
-2.23224 4.41723 -1.52663
-2.26439 4.44614 -1.53907
-1.27505 4.2389 -1.40579
-1.28936 4.23821 -1.4069
-1.30369 4.23752 -1.40802
-1.31804 4.23681 -1.40915
-1.33241 4.2361 -1.4103
-1.34681 4.23538 -1.41146
-1.36122 4.23465 -1.41263
-1.37566 4.23391 -1.41382
-1.39011 4.23316 -1.41502
-1.4046 4.2324 -1.41623
-1.41909 4.23164 -1.41746
-1.43378 4.23134 -1.41886
-1.44904 4.23263 -1.42081
-1.46434 4.23391 -1.42277
-1.47968 4.23519 -1.42476
-1.4949 4.23602 -1.42661
-1.50981 4.23587 -1.42814
-1.52475 4.23571 -1.4297
-1.53972 4.23554 -1.43126
-1.55472 4.23536 -1.43284
-1.56975 4.23517 -1.43444
-1.58481 4.23497 -1.43605
-1.5999 4.23477 -1.43768
-1.61502 4.23455 -1.43932
-1.63017 4.23433 -1.44097
-1.64536 4.23409 -1.44264
-1.66057 4.23385 -1.44433
-1.67582 4.23359 -1.44603
-1.6911 4.23333 -1.44774
-1.70686 4.23417 -1.44985
-1.72399 4.23826 -1.4531
-1.7412 4.24236 -1.45637
-1.75847 4.24647 -1.45967
-1.77582 4.25058 -1.46299
-1.79308 4.25432 -1.46621
-1.80971 4.25641 -1.46888
-1.8264 4.2585 -1.47157
-1.84315 4.26059 -1.47428
-1.85995 4.26267 -1.47702
-1.87681 4.26475 -1.47977
-1.89372 4.26682 -1.48254
-1.9107 4.26888 -1.48533
-1.92773 4.27094 -1.48815
-1.94482 4.273 -1.49098
-1.96197 4.27505 -1.49384
-1.97918 4.27709 -1.49672
-1.99645 4.27913 -1.49962
-2.01378 4.28117 -1.50254
-2.03118 4.28319 -1.50548
-2.04863 4.28522 -1.50844
-2.06615 4.28723 -1.51143
-2.08374 4.28927 -1.51444
-2.10238 4.29331 -1.51819
-2.1211 4.29735 -1.52197
-2.14767 4.31698 -1.5313
-2.17833 4.34438 -1.54343
-2.20948 4.3722 -1.55577
-2.24112 4.40045 -1.56832
-2.27327 4.42915 -1.58108
-1.26822 4.21619 -1.43865
-1.28245 4.21549 -1.43978
-1.2967 4.21478 -1.44092
-1.31097 4.21406 -1.44207
-1.32525 4.21334 -1.44324
-1.33956 4.2126 -1.44442
-1.35389 4.21185 -1.44561
-1.36825 4.2111 -1.44682
-1.38262 4.21034 -1.44804
-1.39701 4.20956 -1.44928
-1.41143 4.20878 -1.45053
-1.42587 4.20799 -1.45179
-1.44033 4.20719 -1.45306
-1.45535 4.20792 -1.45488
-1.47058 4.20915 -1.4569
-1.4857 4.20995 -1.45878
-1.50051 4.20977 -1.46035
-1.51535 4.20958 -1.46192
-1.53021 4.20939 -1.46351
-1.54511 4.20918 -1.46512
-1.56003 4.20896 -1.46674
-1.57499 4.20874 -1.46838
-1.58998 4.2085 -1.47003
-1.60499 4.20826 -1.4717
-1.62004 4.20801 -1.47338
-1.63512 4.20774 -1.47508
-1.65022 4.20747 -1.47679
-1.66537 4.20718 -1.47852
-1.68054 4.20689 -1.48026
-1.69574 4.20659 -1.48202
-1.71098 4.20627 -1.48379
-1.72625 4.20595 -1.48558
-1.74321 4.20962 -1.4888
-1.76037 4.21361 -1.49216
-1.77735 4.217 -1.49533
-1.79381 4.21901 -1.49803
-1.81033 4.22102 -1.50075
-1.82689 4.22302 -1.50349
-1.84352 4.22501 -1.50626
-1.8602 4.227 -1.50904
-1.87693 4.22898 -1.51184
-1.89372 4.23096 -1.51466
-1.91057 4.23293 -1.51751
-1.92748 4.23489 -1.52037
-1.94444 4.23685 -1.52326
-1.96147 4.23881 -1.52617
-1.97855 4.24075 -1.5291
-1.99569 4.24269 -1.53205
-2.0141 4.24717 -1.53594
-2.03264 4.25176 -1.5399
-2.05128 4.25638 -1.54389
-2.07001 4.26101 -1.54792
-2.08885 4.26567 -1.55199
-2.10778 4.27035 -1.55609
-2.12841 4.27827 -1.5614
-2.1564 4.30065 -1.57203
-2.18707 4.32785 -1.58447
-2.2182 4.35545 -1.59712
-2.24983 4.38349 -1.60998
-2.28197 4.41197 -1.62307
-1.26142 4.1936 -1.47134
-1.27557 4.19289 -1.47248
-1.28974 4.19217 -1.47364
-1.30392 4.19143 -1.47482
-1.31813 4.19069 -1.476
-1.33236 4.18994 -1.4772
-1.3466 4.18918 -1.47842
-1.36087 4.18841 -1.47965
-1.37516 4.18763 -1.48089
-1.38947 4.18684 -1.48215
-1.40381 4.18605 -1.48341
-1.41816 4.18524 -1.4847
-1.43254 4.18442 -1.486
-1.44694 4.1836 -1.48731
-1.46154 4.18329 -1.48882
-1.47656 4.18406 -1.49074
-1.49127 4.18385 -1.49232
-1.50601 4.18364 -1.49393
-1.52077 4.18342 -1.49554
-1.53557 4.18318 -1.49717
-1.55039 4.18294 -1.49882
-1.56524 4.18269 -1.50048
-1.58012 4.18243 -1.50216
-1.59503 4.18215 -1.50385
-1.60998 4.18187 -1.50556
-1.62495 4.18158 -1.50728
-1.63995 4.18128 -1.50902
-1.65499 4.18096 -1.51078
-1.67005 4.18064 -1.51255
-1.68515 4.18031 -1.51433
-1.70028 4.17997 -1.51613
-1.71544 4.17961 -1.51795
-1.73063 4.17925 -1.51978
-1.74586 4.17887 -1.52163
-1.76182 4.18014 -1.5241
-1.7787 4.18347 -1.52734
-1.79607 4.18778 -1.53096
-1.81352 4.19211 -1.53462
-1.83106 4.19646 -1.53831
-1.84868 4.20083 -1.54203
-1.86638 4.20521 -1.54578
-1.88417 4.20962 -1.54957
-1.90205 4.21405 -1.55338
-1.92001 4.21849 -1.55724
-1.93807 4.22296 -1.56112
-1.95621 4.22745 -1.56504
-1.97444 4.23195 -1.569
-1.99277 4.23648 -1.57299
-2.01118 4.24103 -1.57701
-2.02969 4.2456 -1.58107
-2.0483 4.25019 -1.58517
-2.067 4.2548 -1.5893
-2.0858 4.25944 -1.59347
-2.10509 4.2649 -1.59797
-2.12577 4.27297 -1.60349
-2.1466 4.28109 -1.60906
-2.16757 4.28927 -1.61468
-2.19562 4.31113 -1.62549
-2.22675 4.33852 -1.63845
-2.25837 4.36635 -1.65162
-2.29965 4.41217 -1.67168
-1.25466 4.17113 -1.50385
-1.26873 4.1704 -1.50502
-1.28282 4.16967 -1.5062
-1.29692 4.16892 -1.50739
-1.31115 4.1685 -1.50872
-1.32542 4.16812 -1.51008
-1.33971 4.16774 -1.51146
-1.35403 4.16735 -1.51285
-1.36838 4.16696 -1.51426
-1.38275 4.16657 -1.51569
-1.39714 4.16617 -1.51713
-1.41157 4.16577 -1.51859
-1.42601 4.16536 -1.52006
-1.44049 4.16495 -1.52156
-1.45499 4.16454 -1.52307
-1.46959 4.16431 -1.52466
-1.48438 4.16453 -1.52644
-1.49921 4.16476 -1.52824
-1.51407 4.16498 -1.53006
-1.52896 4.1652 -1.53189
-1.54389 4.16541 -1.53375
-1.55886 4.16563 -1.53562
-1.57386 4.16584 -1.53751
-1.58889 4.16604 -1.53942
-1.60396 4.16625 -1.54134
-1.61907 4.16645 -1.54329
-1.63421 4.16665 -1.54526
-1.6494 4.16684 -1.54724
-1.66461 4.16703 -1.54924
-1.67987 4.16722 -1.55127
-1.69517 4.16741 -1.55331
-1.71051 4.16759 -1.55537
-1.72623 4.16861 -1.55776
-1.74203 4.1697 -1.56021
-1.75886 4.17311 -1.56354
-1.77615 4.17747 -1.56725
-1.79352 4.18184 -1.571
-1.81096 4.18619 -1.57476
-1.82846 4.19051 -1.57854
-1.84606 4.19486 -1.58235
-1.86373 4.19923 -1.58619
-1.88148 4.20362 -1.59007
-1.89933 4.20802 -1.59398
-1.91726 4.21245 -1.59793
-1.93528 4.21689 -1.60191
-1.95339 4.22135 -1.60593
-1.97159 4.22584 -1.60998
-1.98988 4.23034 -1.61407
-2.00826 4.23487 -1.61819
-2.02674 4.23942 -1.62235
-2.04531 4.24399 -1.62655
-2.06397 4.24858 -1.63078
-2.08274 4.25319 -1.63505
-2.10248 4.25962 -1.64006
-2.12313 4.26766 -1.64571
-2.14392 4.27575 -1.65142
-2.16486 4.2839 -1.65718
-2.18593 4.2921 -1.66299
-2.20716 4.30036 -1.66887
-2.23513 4.32141 -1.67975
-2.26673 4.34901 -1.69324
-2.31911 4.41565 -1.72201
-1.25167 4.16118 -1.5408
-1.26574 4.16058 -1.54204
-1.27986 4.16005 -1.54333
-1.29404 4.15967 -1.54469
-1.30825 4.15929 -1.54606
-1.32249 4.15891 -1.54745
-1.33675 4.15852 -1.54886
-1.35103 4.15813 -1.55029
-1.36534 4.15773 -1.55173
-1.37968 4.15733 -1.55319
-1.39404 4.15692 -1.55466
-1.40843 4.15651 -1.55615
-1.42284 4.1561 -1.55766
-1.43729 4.15568 -1.55919
-1.45175 4.15526 -1.56073
-1.46631 4.15499 -1.56235
-1.48106 4.15521 -1.56417
-1.49585 4.15542 -1.56601
-1.51067 4.15563 -1.56787
-1.52553 4.15584 -1.56975
-1.54042 4.15604 -1.57164
-1.55534 4.15624 -1.57356
-1.5703 4.15644 -1.57549
-1.5853 4.15664 -1.57744
-1.60033 4.15683 -1.57941
-1.6154 4.15702 -1.5814
-1.63051 4.1572 -1.58341
-1.64565 4.15738 -1.58544
-1.66083 4.15756 -1.58749
-1.67627 4.15828 -1.58976
-1.6919 4.15936 -1.5922
-1.70757 4.16044 -1.59465
-1.72329 4.16151 -1.59713
-1.73909 4.16267 -1.59966
-1.75627 4.16699 -1.60343
-1.77354 4.17132 -1.60723
-1.79088 4.17567 -1.61107
-1.8083 4.18004 -1.61493
-1.82581 4.18443 -1.61883
-1.84341 4.18884 -1.62277
-1.86106 4.19323 -1.62672
-1.87879 4.19759 -1.6307
-1.8966 4.20197 -1.6347
-1.9145 4.20638 -1.63874
-1.93249 4.2108 -1.64282
-1.95056 4.21524 -1.64694
-1.96873 4.21971 -1.65109
-1.98698 4.22419 -1.65527
-2.00534 4.2287 -1.65949
-2.02377 4.23322 -1.66375
-2.04231 4.23776 -1.66805
-2.06094 4.24233 -1.67239
-2.07967 4.24692 -1.67676
-2.09986 4.25432 -1.68227
-2.12048 4.26233 -1.68807
-2.14124 4.2704 -1.69391
-2.16214 4.27852 -1.69982
-2.18318 4.28669 -1.70577
-2.20437 4.29492 -1.71179
-2.22571 4.3032 -1.71787
-2.2472 4.31154 -1.72401
-2.27491 4.33149 -1.73483
-2.33803 4.41794 -1.77238
-1.24909 4.1526 -1.57832
-1.26313 4.15199 -1.57958
-1.27719 4.15138 -1.58087
-1.29127 4.15077 -1.58217
-1.30538 4.15015 -1.58349
-1.31956 4.14968 -1.58488
-1.33378 4.14929 -1.58632
-1.34803 4.14889 -1.58778
-1.3623 4.14848 -1.58925
-1.37661 4.14807 -1.59074
-1.39093 4.14766 -1.59225
-1.40529 4.14724 -1.59377
-1.41966 4.14682 -1.59532
-1.43407 4.14639 -1.59688
-1.4485 4.14596 -1.59845
-1.46302 4.14567 -1.6001
-1.47773 4.14587 -1.60196
-1.49249 4.14607 -1.60384
-1.50727 4.14627 -1.60574
-1.52209 4.14647 -1.60766
-1.53694 4.14666 -1.60959
-1.55183 4.14685 -1.61155
-1.56675 4.14703 -1.61352
-1.58171 4.14722 -1.61552
-1.5967 4.1474 -1.61753
-1.61173 4.14757 -1.61957
-1.62691 4.14802 -1.62173
-1.64237 4.14908 -1.62415
-1.65787 4.15014 -1.62659
-1.67342 4.15121 -1.62906
-1.68901 4.15227 -1.63155
-1.70466 4.15334 -1.63406
-1.72034 4.1544 -1.6366
-1.73653 4.15655 -1.63958
-1.75368 4.16084 -1.64344
-1.77091 4.16516 -1.64733
-1.78822 4.16949 -1.65125
-1.80562 4.17384 -1.65521
-1.82309 4.17821 -1.6592
-1.84065 4.18259 -1.66323
-1.8583 4.187 -1.66729
-1.87603 4.19142 -1.67139
-1.89384 4.19587 -1.67553
-1.91173 4.20029 -1.67968
-1.92969 4.2047 -1.68385
-1.94773 4.20912 -1.68806
-1.96586 4.21356 -1.69231
-1.98408 4.21802 -1.69659
-2.0024 4.2225 -1.70092
-2.0208 4.227 -1.70528
-2.0393 4.23153 -1.70967
-2.0579 4.23607 -1.71411
-2.07681 4.24108 -1.71877
-2.09724 4.24901 -1.72464
-2.11782 4.25699 -1.73057
-2.13854 4.26502 -1.73655
-2.15941 4.27311 -1.7426
-2.18041 4.28125 -1.7487
-2.20156 4.28945 -1.75486
-2.22287 4.29771 -1.76108
-2.24432 4.30602 -1.76736
-2.26593 4.31439 -1.77371
-2.28769 4.32282 -1.78012
-1.2465 4.14401 -1.61591
-1.26051 4.14339 -1.6172
-1.27454 4.14278 -1.61851
-1.28859 4.14216 -1.61984
-1.30267 4.14153 -1.62119
-1.31676 4.1409 -1.62255
-1.33088 4.14027 -1.62393
-1.34502 4.13963 -1.62533
-1.35926 4.13922 -1.62683
-1.37353 4.1388 -1.62836
-1.38782 4.13838 -1.6299
-1.40214 4.13796 -1.63145
-1.41648 4.13753 -1.63303
-1.43086 4.13709 -1.63462
-1.44525 4.13665 -1.63623
-1.45972 4.13633 -1.63791
-1.4744 4.13652 -1.63981
-1.48912 4.13671 -1.64173
-1.50386 4.1369 -1.64367
-1.51864 4.13708 -1.64562
-1.53346 4.13726 -1.6476
-1.54831 4.13744 -1.6496
-1.56319 4.13761 -1.65162
-1.57812 4.13781 -1.65367
-1.59342 4.13886 -1.65608
-1.60876 4.13991 -1.65851
-1.62414 4.14096 -1.66096
-1.63957 4.14201 -1.66344
-1.65504 4.14307 -1.66594
-1.67056 4.14412 -1.66846
-1.68612 4.14517 -1.67101
-1.70174 4.14622 -1.67358
-1.71739 4.14727 -1.67617
-1.73397 4.1504 -1.67962
-1.75109 4.15468 -1.68357
-1.76829 4.15897 -1.68755
-1.78556 4.16328 -1.69156
-1.80293 4.16761 -1.69561
-1.82037 4.17196 -1.69969
-1.83789 4.17632 -1.70381
-1.8555 4.18071 -1.70797
-1.8732 4.18511 -1.71216
-1.89098 4.18953 -1.71639
-1.90885 4.19397 -1.72066
-1.92681 4.19844 -1.72496
-1.94486 4.20292 -1.7293
-1.96298 4.20739 -1.73367
-1.98117 4.21183 -1.73805
-1.99945 4.21629 -1.74247
-2.01782 4.22077 -1.74693
-2.03629 4.22527 -1.75143
-2.05485 4.22979 -1.75596
-2.07421 4.23577 -1.76114
-2.09461 4.24367 -1.76715
-2.11515 4.25162 -1.77322
-2.13584 4.25963 -1.77934
-2.15667 4.26769 -1.78553
-2.17763 4.2758 -1.79177
-2.19875 4.28397 -1.79808
-2.22082 4.29374 -1.8051
-2.24431 4.30598 -1.81319
-2.268 4.31834 -1.82138
-2.29192 4.3308 -1.82967
-1.24391 4.13539 -1.65357
-1.25789 4.13478 -1.65489
-1.27189 4.13416 -1.65623
-1.28591 4.13353 -1.65759
-1.29995 4.1329 -1.65897
-1.31402 4.13226 -1.66036
-1.3281 4.13162 -1.66177
-1.34221 4.13098 -1.6632
-1.35635 4.13033 -1.66464
-1.3705 4.12968 -1.6661
-1.38471 4.12909 -1.66761
-1.39899 4.12865 -1.6692
-1.4133 4.12822 -1.67081
-1.42763 4.12777 -1.67243
-1.44199 4.12733 -1.67408
-1.45642 4.12697 -1.67578
-1.47106 4.12715 -1.67772
-1.48574 4.12733 -1.67968
-1.50045 4.12751 -1.68166
-1.51519 4.12768 -1.68365
-1.52997 4.12785 -1.68567
-1.54504 4.1287 -1.68799
-1.56022 4.12974 -1.69041
-1.57544 4.13078 -1.69285
-1.5907 4.13181 -1.69531
-1.60601 4.13285 -1.6978
-1.62137 4.13389 -1.70031
-1.63677 4.13493 -1.70284
-1.6522 4.13597 -1.70539
-1.66769 4.13701 -1.70797
-1.68323 4.13804 -1.71057
-1.69881 4.13908 -1.7132
-1.71443 4.14012 -1.71585
-1.73139 4.14424 -1.7198
-1.74848 4.14849 -1.72383
-1.76565 4.15277 -1.7279
-1.78289 4.15705 -1.732
-1.80022 4.16136 -1.73614
-1.81763 4.16569 -1.74032
-1.83513 4.17003 -1.74453
-1.8527 4.17439 -1.74878
-1.87037 4.17877 -1.75306
-1.88811 4.18317 -1.75738
-1.90595 4.18759 -1.76175
-1.92388 4.19203 -1.76615
-1.94189 4.19649 -1.77058
-1.95999 4.20097 -1.77506
-1.97818 4.20547 -1.77957
-1.99647 4.20999 -1.78413
-2.01483 4.21451 -1.78871
-2.03326 4.21899 -1.79331
-2.05178 4.22349 -1.79795
-2.0716 4.23044 -1.80367
-2.09196 4.23831 -1.80982
-2.11247 4.24624 -1.81603
-2.13459 4.25715 -1.82355
-2.15734 4.26903 -1.83153
-2.18029 4.28101 -1.83959
-2.20344 4.29311 -1.84775
-2.22681 4.30532 -1.85601
-2.25038 4.31764 -1.86436
-2.27417 4.33008 -1.8728
-1.24132 4.12676 -1.69132
-1.25527 4.12614 -1.69267
-1.26923 4.12551 -1.69404
-1.28322 4.12488 -1.69542
-1.29723 4.12425 -1.69683
-1.31126 4.12361 -1.69825
-1.32532 4.12296 -1.69969
-1.3394 4.12231 -1.70114
-1.3535 4.12165 -1.70262
-1.36762 4.121 -1.70411
-1.38177 4.12033 -1.70562
-1.39594 4.11966 -1.70715
-1.41014 4.11899 -1.70869
-1.4244 4.11844 -1.71031
-1.43873 4.11798 -1.71199
-1.45311 4.1176 -1.71372
-1.46772 4.11777 -1.7157
-1.48236 4.11794 -1.7177
-1.49721 4.11859 -1.71992
-1.51223 4.11962 -1.72232
-1.5273 4.12064 -1.72475
-1.54241 4.12167 -1.72719
-1.55756 4.12269 -1.72966
-1.57275 4.12372 -1.73215
-1.58798 4.12474 -1.73467
-1.60326 4.12577 -1.73721
-1.61858 4.1268 -1.73977
-1.63395 4.12782 -1.74235
-1.64936 4.12885 -1.74496
-1.66482 4.12987 -1.7476
-1.68032 4.1309 -1.75025
-1.69587 4.13193 -1.75294
-1.71183 4.13384 -1.75602
-1.72881 4.13806 -1.7601
-1.74586 4.14229 -1.76423
-1.763 4.14654 -1.76838
-1.78021 4.15081 -1.77258
-1.79751 4.15509 -1.77681
-1.81489 4.1594 -1.78107
-1.83235 4.16372 -1.78538
-1.84989 4.16806 -1.78972
-1.86752 4.17242 -1.7941
-1.88523 4.1768 -1.79852
-1.90304 4.18119 -1.80297
-1.92093 4.18561 -1.80747
-1.9389 4.19005 -1.812
-1.95697 4.1945 -1.81658
-1.97513 4.19898 -1.82119
-1.99338 4.20347 -1.82584
-2.01171 4.20799 -1.83054
-2.03018 4.2126 -1.83531
-2.04876 4.21727 -1.84013
-2.07122 4.22967 -1.84837
-2.0943 4.24305 -1.85708
-2.11761 4.25657 -1.8659
-2.1403 4.26853 -1.87407
-2.16313 4.28049 -1.88229
-2.18617 4.29255 -1.89061
-2.20941 4.30474 -1.89902
-2.23286 4.31703 -1.90752
-2.25653 4.32944 -1.91613
-2.28041 4.34197 -1.92483
-1.23872 4.11811 -1.72916
-1.25263 4.11749 -1.73053
-1.26657 4.11685 -1.73193
-1.28052 4.11622 -1.73334
-1.2945 4.11557 -1.73478
-1.3085 4.11493 -1.73623
-1.32253 4.11427 -1.73769
-1.33657 4.11362 -1.73918
-1.35064 4.11296 -1.74068
-1.36473 4.11229 -1.74221
-1.37885 4.11162 -1.74375
-1.39299 4.11095 -1.7453
-1.40715 4.11027 -1.74688
-1.42134 4.10958 -1.74848
-1.46474 4.19242 -1.78567
-1.48046 4.1951 -1.78878
-1.46478 4.10954 -1.75425
-1.4797 4.11056 -1.75666
-1.49465 4.11157 -1.75909
-1.50965 4.11258 -1.76154
-1.52469 4.1136 -1.76401
-1.53977 4.11461 -1.76651
-1.55489 4.11562 -1.76903
-1.57005 4.11664 -1.77158
-1.58525 4.11765 -1.77414
-1.6005 4.11867 -1.77674
-1.61579 4.11968 -1.77935
-1.63113 4.12069 -1.78199
-1.64651 4.12171 -1.78466
-1.66193 4.12272 -1.78734
-1.6774 4.12373 -1.79006
-1.69292 4.12475 -1.79279
-1.70927 4.12766 -1.79638
-1.72622 4.13185 -1.80056
-1.74324 4.13606 -1.80477
-1.76034 4.14029 -1.80901
-1.77753 4.14454 -1.8133
-1.79479 4.1488 -1.81762
-1.81213 4.15309 -1.82197
-1.82956 4.15739 -1.82637
-1.84707 4.1617 -1.83081
-1.86467 4.16604 -1.83528
-1.88236 4.17042 -1.8398
-1.90016 4.17487 -1.84439
-1.91805 4.17934 -1.84901
-1.93603 4.18383 -1.85368
-1.9541 4.18834 -1.85838
-1.97225 4.19288 -1.86313
-1.99051 4.19743 -1.86792
-2.00886 4.20203 -1.87276
-2.02732 4.20666 -1.87765
-2.04587 4.21132 -1.88259
-2.06743 4.22193 -1.89022
-2.09045 4.23526 -1.89912
-2.1137 4.24871 -1.90811
-2.13717 4.26229 -1.91722
-2.16086 4.27599 -1.92642
-2.18477 4.28982 -1.93573
-2.20892 4.30379 -1.94515
-2.23331 4.31789 -1.95468
-2.25892 4.33402 -1.96518
-1.23611 4.10944 -1.76709
-1.26832 4.16904 -1.79442
-1.27969 4.15951 -1.79204
