ply
format ascii 1.0
comment Created by Open3D
element vertex 1864
property double x
property double y
property double z
end_header
1.66053 -5.35702 -1.42809
1.67736 -5.35186 -1.42812
1.69373 -5.34521 -1.42775
1.71006 -5.33849 -1.42738
1.72638 -5.33177 -1.42703
1.74269 -5.32504 -1.42669
1.75899 -5.3183 -1.42635
1.77528 -5.31156 -1.42603
1.79156 -5.30481 -1.42572
1.80783 -5.29805 -1.42543
1.82448 -5.29241 -1.42544
1.84237 -5.29034 -1.42644
1.86028 -5.28826 -1.42744
1.87821 -5.28616 -1.42846
1.89617 -5.28406 -1.42949
1.91415 -5.28194 -1.43054
1.93215 -5.27981 -1.4316
1.95018 -5.27766 -1.43267
1.96823 -5.27551 -1.43376
1.9863 -5.27334 -1.43485
2.0044 -5.27116 -1.43597
2.02204 -5.2677 -1.43675
2.03959 -5.26397 -1.43747
2.05716 -5.26023 -1.4382
2.07533 -5.25796 -1.43936
2.09398 -5.25683 -1.44084
2.11266 -5.25568 -1.44234
2.13139 -5.25453 -1.44385
2.15015 -5.25336 -1.44538
2.16894 -5.25218 -1.44692
2.18777 -5.251 -1.44848
2.20664 -5.2498 -1.45005
2.22555 -5.24859 -1.45164
2.24458 -5.24757 -1.4533
2.26383 -5.24694 -1.45509
2.28312 -5.2463 -1.45689
2.30245 -5.24566 -1.45871
2.32183 -5.245 -1.46055
2.34125 -5.24433 -1.4624
2.36072 -5.24366 -1.46427
2.38024 -5.24297 -1.46616
2.3998 -5.24227 -1.46807
1.09414 -6.42342 -1.71695
1.08391 -6.24484 -1.67012
1.0842 -6.13219 -1.64089
1.08721 -6.03861 -1.61676
1.095 -5.97426 -1.60044
1.10264 -5.91118 -1.58446
1.112 -5.85926 -1.57147
1.12131 -5.80873 -1.55886
1.1306 -5.75958 -1.54661
1.14159 -5.72051 -1.53708
1.15348 -5.68702 -1.52904
1.16619 -5.65841 -1.52233
1.17878 -5.63005 -1.51569
1.19127 -5.60193 -1.50912
1.20364 -5.57404 -1.50261
1.21648 -5.54902 -1.49689
1.22948 -5.52533 -1.49153
1.24397 -5.5088 -1.48812
1.25873 -5.49381 -1.48513
1.27342 -5.47886 -1.48216
1.28805 -5.46397 -1.47922
1.30263 -5.44913 -1.4763
1.31875 -5.44098 -1.47521
1.33513 -5.43397 -1.47444
1.35149 -5.42696 -1.47368
1.36783 -5.41994 -1.47293
1.38414 -5.41292 -1.4722
1.40044 -5.40589 -1.47148
1.41672 -5.39885 -1.47076
1.43298 -5.39181 -1.47006
1.44923 -5.38476 -1.46938
1.46545 -5.37771 -1.4687
1.48165 -5.37065 -1.46803
1.49785 -5.36361 -1.46739
1.5146 -5.35859 -1.46731
1.53135 -5.35356 -1.46724
1.54808 -5.34851 -1.46718
1.56482 -5.34346 -1.46714
1.58155 -5.33839 -1.4671
1.59828 -5.33332 -1.46708
1.615 -5.32823 -1.46707
1.63172 -5.32313 -1.46706
1.64844 -5.31802 -1.46707
1.66515 -5.31289 -1.4671
1.68186 -5.30776 -1.46713
1.69857 -5.30261 -1.46717
1.71487 -5.29622 -1.46689
1.73108 -5.28955 -1.46654
1.74727 -5.28286 -1.4662
1.76346 -5.27617 -1.46587
1.77963 -5.26947 -1.46555
1.79603 -5.26348 -1.46545
1.81379 -5.26141 -1.46645
1.83157 -5.25933 -1.46747
1.84936 -5.25724 -1.4685
1.86718 -5.25513 -1.46954
1.88503 -5.25302 -1.47059
1.90289 -5.25089 -1.47166
1.92078 -5.24874 -1.47275
1.93869 -5.24659 -1.47384
1.95663 -5.24443 -1.47495
1.97459 -5.24225 -1.47608
1.99257 -5.24006 -1.47721
2.01058 -5.23786 -1.47836
2.02832 -5.23488 -1.47932
2.04578 -5.23114 -1.48007
2.06412 -5.22956 -1.48145
2.08266 -5.22841 -1.48296
2.10123 -5.22724 -1.4845
2.11984 -5.22606 -1.48604
2.13848 -5.22487 -1.48761
2.15717 -5.22367 -1.48919
2.17588 -5.22246 -1.49078
2.19464 -5.22123 -1.49239
2.21343 -5.22 -1.49402
2.23226 -5.21876 -1.49566
2.25115 -5.21757 -1.49734
2.27032 -5.2169 -1.49918
2.28953 -5.21622 -1.50105
2.30878 -5.21553 -1.50293
2.32808 -5.21483 -1.50482
2.34742 -5.21412 -1.50674
2.36681 -5.2134 -1.50867
2.38625 -5.21267 -1.51062
1.07028 -6.28336 -1.73629
1.07082 -6.16941 -1.70572
1.07151 -6.06045 -1.67652
1.07949 -5.9957 -1.65954
1.0873 -5.93223 -1.64291
1.09504 -5.87046 -1.62674
1.10451 -5.81979 -1.61366
1.11382 -5.76992 -1.60079
1.12455 -5.7288 -1.59036
1.13553 -5.69013 -1.5806
1.14784 -5.65922 -1.57301
1.16051 -5.63087 -1.56613
1.17307 -5.60276 -1.55933
1.18552 -5.57489 -1.5526
1.19852 -5.55035 -1.54681
1.21158 -5.52667 -1.54126
1.22455 -5.50315 -1.53577
1.23897 -5.48666 -1.53224
1.25367 -5.47176 -1.52918
1.26832 -5.45692 -1.52613
1.28291 -5.44214 -1.52312
1.29743 -5.4274 -1.52012
1.3119 -5.41272 -1.51716
1.32631 -5.39808 -1.51422
1.34066 -5.3835 -1.5113
1.35653 -5.37519 -1.51015
1.37272 -5.36824 -1.50941
1.38889 -5.36129 -1.50867
1.40504 -5.35434 -1.50795
1.42117 -5.34738 -1.50724
1.43729 -5.34041 -1.50654
1.4537 -5.3346 -1.50618
1.47034 -5.32964 -1.50607
1.48697 -5.32466 -1.50598
1.5036 -5.31968 -1.5059
1.52023 -5.31468 -1.50583
1.53684 -5.30968 -1.50577
1.55346 -5.30466 -1.50572
1.57007 -5.29963 -1.50569
1.58667 -5.29459 -1.50566
1.60328 -5.28954 -1.50565
1.61987 -5.28448 -1.50565
1.63647 -5.2794 -1.50566
1.65306 -5.27432 -1.50568
1.66965 -5.26922 -1.50571
1.68623 -5.26411 -1.50576
1.70282 -5.25899 -1.50582
1.7194 -5.25386 -1.50589
1.73566 -5.24774 -1.50569
1.75173 -5.2411 -1.50535
1.76791 -5.23478 -1.50512
1.78553 -5.23271 -1.50613
1.80318 -5.23063 -1.50716
1.82085 -5.22854 -1.5082
1.83853 -5.22644 -1.50925
1.85624 -5.22433 -1.51031
1.87397 -5.2222 -1.51139
1.89173 -5.22006 -1.51248
1.9095 -5.21791 -1.51359
1.9273 -5.21575 -1.51471
1.94512 -5.21357 -1.51584
1.96296 -5.21138 -1.51699
1.98083 -5.20918 -1.51815
1.99873 -5.20697 -1.51933
2.01664 -5.20474 -1.52052
2.03459 -5.20252 -1.52173
2.05305 -5.20153 -1.52332
2.0718 -5.20115 -1.5251
2.09059 -5.20077 -1.52691
2.10942 -5.20038 -1.52873
2.1283 -5.19999 -1.53057
2.14722 -5.19959 -1.53243
2.16619 -5.19919 -1.53431
2.1852 -5.19879 -1.53621
2.20426 -5.19838 -1.53813
2.22336 -5.19796 -1.54006
2.24258 -5.19769 -1.54206
2.26185 -5.19743 -1.54408
2.28097 -5.19671 -1.54599
2.30013 -5.19599 -1.54791
2.31935 -5.19526 -1.54986
2.3386 -5.19453 -1.55182
2.35791 -5.19379 -1.55381
2.37727 -5.19305 -1.55581
1.05722 -6.2067 -1.77145
1.05798 -6.09545 -1.74064
1.06384 -6.01706 -1.7192
1.07184 -5.9532 -1.7019
1.07967 -5.8906 -1.68497
1.08762 -5.83069 -1.6688
1.09709 -5.78067 -1.65546
1.10746 -5.73696 -1.64393
1.11855 -5.69822 -1.63383
1.1295 -5.65994 -1.62386
1.14223 -5.63156 -1.61674
1.15487 -5.60347 -1.60971
1.16739 -5.57562 -1.60275
1.18056 -5.55158 -1.5969
1.19368 -5.52791 -1.59116
1.2067 -5.5044 -1.58548
1.21963 -5.48106 -1.57985
1.23399 -5.46459 -1.57621
1.24864 -5.4498 -1.57307
1.26324 -5.43506 -1.56995
1.27778 -5.42038 -1.56686
1.29225 -5.40574 -1.56379
1.30667 -5.39116 -1.56075
1.32104 -5.37662 -1.55774
1.33534 -5.36214 -1.55475
1.34959 -5.3477 -1.55178
1.36379 -5.33331 -1.54884
1.37793 -5.31897 -1.54593
1.39358 -5.31066 -1.54478
1.41012 -5.30577 -1.54463
1.42665 -5.30087 -1.5445
1.44317 -5.29596 -1.54439
1.45969 -5.29104 -1.54428
1.47621 -5.2861 -1.54418
1.49271 -5.28116 -1.5441
1.50922 -5.2762 -1.54403
1.52572 -5.27123 -1.54397
1.54221 -5.26625 -1.54392
1.55876 -5.26146 -1.54394
1.57537 -5.25687 -1.54404
1.59198 -5.25228 -1.54415
1.6086 -5.24769 -1.54428
1.62522 -5.2431 -1.54442
1.64184 -5.23851 -1.54458
1.65846 -5.23391 -1.54475
1.67509 -5.22931 -1.54494
1.69172 -5.22471 -1.54514
1.70835 -5.2201 -1.54536
1.72499 -5.2155 -1.54559
1.74163 -5.21086 -1.54583
1.75898 -5.20832 -1.54671
1.77683 -5.20721 -1.54803
1.79472 -5.20609 -1.54936
1.81264 -5.20497 -1.55071
1.83058 -5.20384 -1.55208
1.84856 -5.20271 -1.55347
1.86657 -5.20157 -1.55487
1.88461 -5.20043 -1.55629
1.90268 -5.19928 -1.55773
1.92079 -5.19812 -1.55918
1.93892 -5.19696 -1.56065
1.95709 -5.1958 -1.56214
1.9753 -5.19462 -1.56364
1.99354 -5.19345 -1.56516
2.01181 -5.19227 -1.5667
2.03011 -5.19108 -1.56826
2.04868 -5.19045 -1.57001
2.06738 -5.19006 -1.57184
2.08613 -5.18966 -1.5737
2.10492 -5.18926 -1.57557
2.12375 -5.18886 -1.57747
2.14262 -5.18845 -1.57938
2.16154 -5.18804 -1.58131
2.18051 -5.18762 -1.58326
2.19953 -5.18722 -1.58524
2.21875 -5.18718 -1.58735
2.23802 -5.18713 -1.58948
2.25734 -5.18708 -1.59163
2.27643 -5.18637 -1.59359
2.29555 -5.18564 -1.59557
2.31472 -5.1849 -1.59758
2.33393 -5.18415 -1.5996
2.35319 -5.1834 -1.60164
2.3725 -5.18264 -1.6037
1.05706 -6.20574 -1.82777
1.04911 -6.04438 -1.7812
1.05624 -5.97409 -1.76146
1.06426 -5.9111 -1.74386
1.07211 -5.84936 -1.72663
1.08027 -5.79127 -1.71048
1.09031 -5.74497 -1.69781
1.10151 -5.70616 -1.68735
1.11258 -5.66781 -1.67704
1.12395 -5.6321 -1.66751
1.13665 -5.60404 -1.66025
1.14931 -5.5765 -1.65315
1.16258 -5.55269 -1.64716
1.17576 -5.52903 -1.64123
1.18885 -5.50554 -1.63536
1.20184 -5.48221 -1.62954
1.21473 -5.45904 -1.62378
1.22902 -5.44259 -1.62003
1.24363 -5.42791 -1.61681
1.25817 -5.41327 -1.61362
1.27266 -5.39869 -1.61046
1.28709 -5.38415 -1.60732
1.30147 -5.36967 -1.60421
1.31578 -5.35523 -1.60112
1.33004 -5.34085 -1.59806
1.34425 -5.32651 -1.59502
1.35924 -5.31552 -1.593
1.37531 -5.30889 -1.5923
1.39138 -5.30226 -1.59162
1.40786 -5.29729 -1.59144
1.42446 -5.29273 -1.59141
1.44105 -5.28816 -1.59139
1.45764 -5.2836 -1.59138
1.47423 -5.27903 -1.59139
1.49082 -5.27446 -1.59142
1.50741 -5.26988 -1.59146
1.524 -5.26531 -1.59151
1.54059 -5.26073 -1.59159
1.55719 -5.25616 -1.59167
1.57378 -5.25157 -1.59177
1.59038 -5.24699 -1.59189
1.60698 -5.24241 -1.59202
1.62358 -5.23782 -1.59217
1.64018 -5.23323 -1.59233
1.65679 -5.22864 -1.59251
1.6734 -5.22404 -1.5927
1.69001 -5.21944 -1.59291
1.7066 -5.21477 -1.59311
1.7232 -5.21008 -1.59332
1.7398 -5.20539 -1.59355
1.75642 -5.20075 -1.59381
1.77399 -5.19888 -1.59494
1.79159 -5.197 -1.59608
1.80921 -5.19512 -1.59724
1.82685 -5.19323 -1.59841
1.84478 -5.19206 -1.59982
1.86274 -5.19091 -1.60127
1.88074 -5.18976 -1.60272
1.89878 -5.1886 -1.6042
1.91684 -5.18744 -1.60569
1.93494 -5.18627 -1.6072
1.95306 -5.1851 -1.60873
1.97123 -5.18392 -1.61028
1.98942 -5.18273 -1.61184
2.00765 -5.18154 -1.61343
2.02592 -5.18035 -1.61503
2.04431 -5.17937 -1.61671
2.06296 -5.17896 -1.6186
2.08166 -5.17856 -1.62051
2.1004 -5.17814 -1.62243
2.11919 -5.17773 -1.62438
2.13802 -5.1773 -1.62634
2.15689 -5.17688 -1.62833
2.17593 -5.17674 -1.63043
2.19506 -5.17668 -1.63257
2.21424 -5.17662 -1.63474
2.23346 -5.17656 -1.63692
2.25274 -5.1765 -1.63913
2.27188 -5.17602 -1.64123
2.29096 -5.17527 -1.64327
2.31009 -5.17452 -1.64532
2.32926 -5.17377 -1.6474
2.34847 -5.173 -1.6495
2.36774 -5.17224 -1.65162
1.06013 -6.22375 -1.89011
1.05835 -6.09757 -1.85279
1.05427 -5.96295 -1.81288
1.05891 -5.88138 -1.78908
1.06462 -5.80849 -1.76792
1.0731 -5.75283 -1.75199
1.08442 -5.71395 -1.74118
1.0956 -5.67554 -1.73052
1.10665 -5.63759 -1.71999
1.11843 -5.60446 -1.71095
1.13127 -5.57748 -1.70379
1.1446 -5.55368 -1.69761
1.15784 -5.53004 -1.69148
1.17099 -5.50656 -1.68542
1.18403 -5.48325 -1.67941
1.19699 -5.46009 -1.67346
1.20985 -5.43709 -1.66757
1.22407 -5.42067 -1.6637
1.23863 -5.40608 -1.66041
1.25313 -5.39155 -1.65715
1.26757 -5.37707 -1.65391
1.28195 -5.36263 -1.6507
1.29627 -5.34825 -1.64752
1.31054 -5.33391 -1.64436
1.32606 -5.32487 -1.64285
1.34216 -5.31823 -1.6421
1.35824 -5.31161 -1.64136
1.3743 -5.30498 -1.64064
1.39035 -5.29836 -1.63993
1.40644 -5.29193 -1.6393
1.42302 -5.28738 -1.63926
1.43959 -5.28282 -1.63924
1.45616 -5.27825 -1.63924
1.47274 -5.27369 -1.63925
1.48931 -5.26912 -1.63927
1.50589 -5.26456 -1.63932
1.52246 -5.25999 -1.63937
1.53904 -5.25542 -1.63945
1.55561 -5.25084 -1.63953
1.57219 -5.24627 -1.63964
1.58877 -5.24169 -1.63976
1.60535 -5.23711 -1.63989
1.62194 -5.23252 -1.64005
1.63852 -5.22794 -1.64021
1.6551 -5.2233 -1.64038
1.67166 -5.21862 -1.64055
1.68823 -5.21395 -1.64074
1.70481 -5.20927 -1.64094
1.72138 -5.20459 -1.64116
1.73796 -5.1999 -1.6414
1.75455 -5.19521 -1.64165
1.77144 -5.1914 -1.64219
1.78901 -5.18952 -1.64337
1.8066 -5.18763 -1.64456
1.82421 -5.18574 -1.64577
1.84186 -5.18385 -1.64699
1.85953 -5.18195 -1.64824
1.87722 -5.18004 -1.6495
1.89494 -5.17813 -1.65077
1.91289 -5.17675 -1.65224
1.93094 -5.17558 -1.65379
1.94903 -5.1744 -1.65536
1.96715 -5.17321 -1.65695
1.98531 -5.17201 -1.65856
2.00349 -5.17082 -1.66018
2.02172 -5.16961 -1.66182
2.03998 -5.1684 -1.66348
2.05854 -5.16786 -1.66538
2.07719 -5.16744 -1.66734
2.09589 -5.16702 -1.66932
2.11463 -5.16659 -1.67132
2.13349 -5.16633 -1.67339
2.15247 -5.16627 -1.67555
2.17151 -5.1662 -1.67773
2.19059 -5.16613 -1.67994
2.20972 -5.16606 -1.68216
2.2289 -5.16598 -1.68441
2.24812 -5.1659 -1.68667
2.26734 -5.16566 -1.68891
2.28637 -5.1649 -1.691
2.30545 -5.16414 -1.69311
2.32458 -5.16337 -1.69525
2.34375 -5.1626 -1.6974
2.36382 -5.16367 -1.70018
1.06927 -6.27743 -1.96422
1.06729 -6.14911 -1.92511
1.06187 -6.00591 -1.88131
1.05931 -5.8836 -1.84403
1.06381 -5.80409 -1.82015
1.07025 -5.73755 -1.80033
1.07989 -5.69007 -1.78648
1.08973 -5.6451 -1.77343
1.10075 -5.60754 -1.76271
1.11322 -5.57833 -1.75461
1.12661 -5.55455 -1.74824
1.13992 -5.53092 -1.74192
1.15312 -5.50746 -1.73566
1.16622 -5.48417 -1.72947
1.17924 -5.46102 -1.72333
1.19215 -5.43804 -1.71725
1.20498 -5.41521 -1.71122
1.21913 -5.39881 -1.70724
1.23364 -5.38433 -1.70388
1.24809 -5.3699 -1.70054
1.26249 -5.35551 -1.69724
1.27682 -5.34118 -1.69396
1.29287 -5.3342 -1.69302
1.30898 -5.32756 -1.69221
1.32508 -5.32093 -1.69142
1.34117 -5.3143 -1.69064
1.35723 -5.30768 -1.68988
1.37329 -5.30106 -1.68914
1.38933 -5.29445 -1.68841
1.40535 -5.28784 -1.6877
1.42157 -5.28201 -1.68726
1.43813 -5.27745 -1.68724
1.45469 -5.2729 -1.68723
1.47124 -5.26834 -1.68724
1.4878 -5.26378 -1.68727
1.50436 -5.25921 -1.68731
1.52092 -5.25465 -1.68737
1.53747 -5.25008 -1.68745
1.55404 -5.24551 -1.68754
1.5706 -5.24094 -1.68765
1.58716 -5.23637 -1.68777
1.60372 -5.23176 -1.6879
1.62026 -5.2271 -1.68803
1.6368 -5.22244 -1.68818
1.65335 -5.21777 -1.68834
1.6699 -5.2131 -1.68851
1.68645 -5.20843 -1.68871
1.703 -5.20376 -1.68892
1.71956 -5.19908 -1.68914
1.73612 -5.1944 -1.68938
1.75269 -5.18971 -1.68964
1.76926 -5.18503 -1.68992
1.78642 -5.18202 -1.69076
1.80399 -5.18013 -1.69198
1.82158 -5.17824 -1.69322
1.83919 -5.17634 -1.69448
1.85683 -5.17444 -1.69576
1.8745 -5.17253 -1.69705
1.89219 -5.17062 -1.69837
1.90991 -5.1687 -1.6997
1.92766 -5.16677 -1.70104
1.94543 -5.16484 -1.70241
1.96324 -5.1629 -1.7038
1.98119 -5.16129 -1.70531
1.99934 -5.16008 -1.70697
2.01752 -5.15887 -1.70866
2.03573 -5.15765 -1.71036
2.05412 -5.15675 -1.7122
2.07272 -5.15632 -1.71421
2.0914 -5.15595 -1.71626
2.11025 -5.15588 -1.71843
2.12915 -5.15581 -1.72063
2.14808 -5.15574 -1.72284
2.16707 -5.15566 -1.72508
2.18611 -5.15557 -1.72734
2.20519 -5.15549 -1.72963
2.22433 -5.1554 -1.73193
2.24351 -5.1553 -1.73426
2.26275 -5.1552 -1.7366
2.28178 -5.15452 -1.73878
2.30081 -5.15375 -1.74095
2.32063 -5.15461 -1.74369
2.34076 -5.15601 -1.74664
2.36095 -5.15741 -1.74962
1.07973 -6.22076 -2.00516
1.07434 -6.07646 -1.95972
1.06201 -5.89862 -1.90343
1.06421 -5.80627 -1.8747
1.07063 -5.73959 -1.85425
1.08027 -5.69208 -1.83998
1.08976 -5.64529 -1.82596
1.09945 -5.60092 -1.81271
1.11098 -5.56714 -1.8029
1.12323 -5.53787 -1.79455
1.13537 -5.50886 -1.7863
1.14841 -5.48496 -1.77971
1.16147 -5.46184 -1.77338
1.17445 -5.43887 -1.76711
1.18733 -5.41605 -1.7609
1.20013 -5.39339 -1.75475
1.21421 -5.37702 -1.75066
1.22867 -5.36264 -1.74722
1.24351 -5.35015 -1.74442
1.25966 -5.34351 -1.74353
1.27579 -5.33687 -1.74266
1.29191 -5.33023 -1.74181
1.30801 -5.3236 -1.74098
1.3241 -5.31698 -1.74016
1.34017 -5.31036 -1.73936
1.35623 -5.30374 -1.73858
1.37227 -5.29713 -1.73782
1.3883 -5.29052 -1.73707
1.40431 -5.28392 -1.73635
1.42031 -5.27732 -1.73563
1.43666 -5.27208 -1.73538
1.4532 -5.26752 -1.73538
1.46975 -5.26297 -1.73539
1.48629 -5.25841 -1.73542
1.50283 -5.25385 -1.73546
1.51937 -5.24929 -1.73552
1.53591 -5.24473 -1.7356
1.55245 -5.24016 -1.73569
1.56897 -5.23552 -1.73578
1.58549 -5.23086 -1.73587
1.60201 -5.22621 -1.73599
1.61854 -5.22155 -1.73612
1.63506 -5.21689 -1.73627
1.65159 -5.21223 -1.73644
1.66812 -5.20757 -1.73662
1.68465 -5.2029 -1.73682
1.70119 -5.19823 -1.73703
1.71773 -5.19356 -1.73727
1.73428 -5.18888 -1.73751
1.75083 -5.1842 -1.73778
1.76738 -5.17951 -1.73806
1.78394 -5.17483 -1.73836
1.80137 -5.17262 -1.73951
1.81893 -5.17072 -1.74078
1.83652 -5.16882 -1.74207
1.85413 -5.16691 -1.74339
1.87177 -5.165 -1.74472
1.88944 -5.16308 -1.74606
1.90713 -5.16116 -1.74743
1.92485 -5.15923 -1.74881
1.94259 -5.1573 -1.75022
1.96037 -5.15536 -1.75164
1.97817 -5.15341 -1.75308
1.996 -5.15146 -1.75454
2.01386 -5.14951 -1.75602
2.03174 -5.14754 -1.75751
2.04969 -5.14565 -1.75906
2.06838 -5.14552 -1.76122
2.08714 -5.14545 -1.76343
2.10594 -5.14537 -1.76566
2.15232 -5.21193 -1.79081
2.17386 -5.2176 -1.7951
2.19547 -5.22323 -1.7994
2.21717 -5.22882 -1.80371
2.23893 -5.23436 -1.80804
2.30487 -5.34207 -1.84773
2.3541 -5.40943 -1.87358
2.37433 -5.40943 -1.87615
2.27782 -5.1456 -1.78712
2.29779 -5.14697 -1.79009
2.31782 -5.14835 -1.7931
2.33791 -5.14974 -1.79613
2.35807 -5.15112 -1.79918
1.09695 -6.32 -2.09599
1.0884 -6.15596 -2.04271
1.07902 -5.99311 -1.98978
1.06462 -5.80847 -1.92958
1.07101 -5.74164 -1.90849
1.08065 -5.69409 -1.8938
1.09067 -5.64996 -1.88026
1.10056 -5.60655 -1.86695
1.11162 -5.57032 -1.85604
1.12387 -5.54102 -1.84744
1.13601 -5.51198 -1.83894
1.14804 -5.48322 -1.83054
1.15996 -5.45471 -1.82223
1.17177 -5.42647 -1.81401
1.18348 -5.39848 -1.80589
1.19528 -5.37163 -1.79815
1.21024 -5.35945 -1.79534
1.22642 -5.3528 -1.79439
1.24257 -5.34615 -1.79346
1.25871 -5.33951 -1.79255
1.27484 -5.33288 -1.79166
1.29094 -5.32625 -1.79079
1.30703 -5.31963 -1.78993
1.32311 -5.31301 -1.78909
1.33917 -5.3064 -1.78827
1.35522 -5.29979 -1.78747
1.37125 -5.29318 -1.78669
1.38726 -5.28658 -1.78592
1.40326 -5.27999 -1.78517
1.41925 -5.2734 -1.78444
1.43523 -5.26681 -1.78373
1.45172 -5.26213 -1.78368
1.46824 -5.25758 -1.78369
1.48476 -5.25303 -1.78372
1.50129 -5.24848 -1.78376
1.51779 -5.24386 -1.78381
1.53429 -5.23922 -1.78386
1.5508 -5.23458 -1.78393
1.5673 -5.22993 -1.78401
1.5838 -5.22529 -1.78411
1.6003 -5.22064 -1.78423
1.61681 -5.21598 -1.78437
1.63332 -5.21133 -1.78452
1.64983 -5.20667 -1.78469
1.66634 -5.20201 -1.78488
1.68286 -5.19735 -1.78508
1.69938 -5.19268 -1.7853
1.7159 -5.18801 -1.78554
1.73243 -5.18334 -1.7858
1.74896 -5.17866 -1.78607
1.7655 -5.17398 -1.78636
1.78204 -5.1693 -1.78666
1.79874 -5.16508 -1.78715
1.81628 -5.16318 -1.78846
1.83384 -5.16128 -1.78978
1.85143 -5.15937 -1.79113
1.86904 -5.15746 -1.79249
1.88667 -5.15554 -1.79387
1.90434 -5.15361 -1.79527
1.92203 -5.15168 -1.7967
1.93974 -5.14974 -1.79813
1.95749 -5.1478 -1.79959
1.98308 -5.16622 -1.8082
1.99706 -5.15421 -1.80618
2.0157 -5.15421 -1.80839
2.03438 -5.15421 -1.81062
2.0531 -5.15421 -1.81288
2.07188 -5.15421 -1.81516
2.0907 -5.15422 -1.81746
2.10957 -5.15422 -1.81979
2.12849 -5.15422 -1.82214
2.14745 -5.15422 -1.82451
2.16647 -5.15422 -1.82691
2.18554 -5.15422 -1.82934
2.20465 -5.15422 -1.83179
2.22382 -5.15422 -1.83426
2.24304 -5.15422 -1.83675
2.26232 -5.15422 -1.83928
2.28164 -5.15422 -1.84183
2.30673 -5.16702 -1.84897
2.43535 -5.40943 -1.93845
2.44782 -5.39184 -1.93489
2.43738 -5.32435 -1.91341
1.10094 -6.22691 -2.12458
1.08803 -6.04312 -2.06302
1.0826 -5.90659 -2.01757
1.07157 -5.74461 -1.96338
1.08174 -5.69984 -1.94923
1.09178 -5.65572 -1.9353
1.10167 -5.61222 -1.92159
1.11226 -5.57352 -1.90953
1.12451 -5.54419 -1.90068
1.13666 -5.51512 -1.89193
1.14869 -5.48632 -1.88328
1.16061 -5.45779 -1.87472
1.17297 -5.43203 -1.86713
1.18533 -5.40689 -1.85976
1.19758 -5.38196 -1.85247
1.21184 -5.36652 -1.84845
1.22782 -5.3589 -1.84715
1.24377 -5.3513 -1.84587
1.2597 -5.34371 -1.8446
1.27562 -5.33614 -1.84336
1.29151 -5.32858 -1.84214
1.30738 -5.32104 -1.84094
1.32323 -5.3135 -1.83977
1.33907 -5.30598 -1.83861
1.35488 -5.29847 -1.83747
1.37067 -5.29098 -1.83636
1.38645 -5.28349 -1.83526
1.40221 -5.27604 -1.83419
1.41819 -5.26945 -1.83344
1.43416 -5.26287 -1.83271
1.45023 -5.25672 -1.83214
1.46672 -5.25214 -1.83214
1.4832 -5.24751 -1.83214
1.49969 -5.24288 -1.83216
1.51617 -5.23825 -1.8322
1.53265 -5.23361 -1.83225
1.54913 -5.22897 -1.83232
1.56562 -5.22433 -1.83241
1.5821 -5.21969 -1.83251
1.59859 -5.21505 -1.83263
1.61508 -5.2104 -1.83277
1.63157 -5.20575 -1.83293
1.64806 -5.2011 -1.8331
1.66456 -5.19644 -1.8333
1.68105 -5.19178 -1.83351
1.69756 -5.18712 -1.83373
1.71406 -5.18245 -1.83398
1.73057 -5.17778 -1.83424
1.74709 -5.17311 -1.83452
1.7636 -5.16844 -1.83481
1.78012 -5.16376 -1.83513
1.79665 -5.15908 -1.83546
1.81362 -5.15563 -1.83625
1.83115 -5.15372 -1.83761
1.84871 -5.15181 -1.83899
1.89159 -5.2197 -1.86533
1.90132 -5.19557 -1.85883
1.91097 -5.17157 -1.85239
1.92297 -5.15421 -1.84832
1.94143 -5.15421 -1.8505
1.95993 -5.15421 -1.8527
1.97847 -5.15421 -1.85492
1.99706 -5.15421 -1.85717
2.0157 -5.15421 -1.85944
2.03438 -5.15421 -1.86174
2.0531 -5.15421 -1.86405
2.07188 -5.15421 -1.8664
2.0907 -5.15422 -1.86877
2.10957 -5.15422 -1.87116
2.12848 -5.15422 -1.87357
2.14745 -5.15422 -1.87602
2.16647 -5.15422 -1.87848
2.18554 -5.15422 -1.88098
2.20465 -5.15422 -1.88349
2.22382 -5.15422 -1.88604
2.24304 -5.15422 -1.8886
2.26232 -5.15422 -1.8912
2.28164 -5.15422 -1.89382
2.30103 -5.15422 -1.89646
2.32046 -5.15423 -1.89913
2.33995 -5.15423 -1.90183
2.35949 -5.15423 -1.90456
1.09781 -6.09745 -2.13904
1.09472 -5.9727 -2.09647
1.08626 -5.82337 -2.04524
1.08648 -5.72478 -2.0118
1.09478 -5.67127 -1.9942
1.10294 -5.6187 -1.97692
1.1129 -5.57674 -1.96338
1.12535 -5.54831 -1.9546
1.13812 -5.52221 -1.94665
1.15079 -5.49633 -1.9388
1.16335 -5.47066 -1.93102
1.17582 -5.44521 -1.92333
1.18819 -5.41996 -1.91572
1.20046 -5.39491 -1.90819
1.21388 -5.37553 -1.90267
1.22988 -5.3679 -1.90133
1.24586 -5.36028 -1.90001
1.26182 -5.35267 -1.89871
1.27775 -5.34508 -1.89743
1.29367 -5.3375 -1.89617
1.30957 -5.32994 -1.89493
1.32544 -5.32239 -1.89372
1.3413 -5.31485 -1.89252
1.35714 -5.30732 -1.89135
1.37256 -5.29824 -1.88964
1.38786 -5.28884 -1.88784
1.40313 -5.27947 -1.88605
1.41837 -5.27011 -1.88429
1.43358 -5.26076 -1.88255
1.44882 -5.25162 -1.88089
1.46528 -5.24696 -1.88087
1.48173 -5.2423 -1.88085
1.49819 -5.23765 -1.88086
1.51465 -5.23301 -1.88089
1.53112 -5.22837 -1.88094
1.54758 -5.22372 -1.88101
1.56405 -5.21908 -1.8811
1.58051 -5.21443 -1.8812
1.59698 -5.20978 -1.88133
1.61345 -5.20513 -1.88147
1.62992 -5.20048 -1.88162
1.64639 -5.19582 -1.8818
1.66287 -5.19116 -1.88199
1.67934 -5.1865 -1.8822
1.69583 -5.18183 -1.88243
1.71231 -5.17716 -1.88268
1.7288 -5.17249 -1.88295
1.7453 -5.16781 -1.88323
1.76179 -5.16313 -1.88353
1.7783 -5.15845 -1.88385
1.7948 -5.15377 -1.88419
1.84032 -5.23151 -1.91472
1.84701 -5.19835 -1.90469
1.85363 -5.16552 -1.89479
1.86786 -5.15421 -1.89278
1.88619 -5.15421 -1.89494
1.90456 -5.15421 -1.89713
1.92297 -5.15421 -1.89935
1.94143 -5.15421 -1.90158
1.95993 -5.15421 -1.90384
1.97847 -5.15421 -1.90613
1.99706 -5.15421 -1.90844
2.0157 -5.15421 -1.91077
2.03438 -5.15421 -1.91313
2.0531 -5.15421 -1.91551
2.07188 -5.15421 -1.91792
2.0907 -5.15422 -1.92036
2.10957 -5.15422 -1.92281
2.12849 -5.15422 -1.9253
2.14745 -5.15422 -1.92781
2.16647 -5.15422 -1.93034
2.18554 -5.15422 -1.9329
2.20465 -5.15422 -1.93549
2.22382 -5.15422 -1.9381
2.24304 -5.15422 -1.94074
2.26232 -5.15422 -1.94341
2.28164 -5.15422 -1.9461
2.30103 -5.15422 -1.94882
2.32046 -5.15423 -1.95156
2.33995 -5.15423 -1.95433
2.35949 -5.15423 -1.95713
1.10131 -5.90404 -2.1296
1.09394 -5.7641 -2.08035
1.10223 -5.70989 -2.06203
1.11039 -5.65663 -2.04404
1.11907 -5.60768 -2.02761
1.12957 -5.56914 -2.01495
1.14209 -5.54146 -2.00622
1.15449 -5.51403 -1.9976
1.16679 -5.48685 -1.98907
1.17899 -5.45991 -1.98063
1.19109 -5.4332 -1.97229
1.20338 -5.408 -1.9645
1.21593 -5.38463 -1.95739
1.23196 -5.37698 -1.95601
1.24786 -5.36891 -1.95448
1.2634 -5.35939 -1.95246
1.2789 -5.34989 -1.95045
1.29438 -5.34042 -1.94846
1.30982 -5.33095 -1.9465
1.32523 -5.32151 -1.94456
1.3406 -5.31208 -1.94265
1.35595 -5.30267 -1.94075
1.37127 -5.29327 -1.93888
1.38656 -5.2839 -1.93703
1.40181 -5.27453 -1.9352
1.41704 -5.26518 -1.9334
1.43224 -5.25585 -1.93161
1.44743 -5.24658 -1.92986
1.46387 -5.24193 -1.92983
1.48031 -5.23728 -1.92982
1.49675 -5.23262 -1.92983
1.51319 -5.22797 -1.92985
1.52963 -5.22331 -1.9299
1.54608 -5.21865 -1.92996
1.56252 -5.21399 -1.93004
1.57897 -5.20935 -1.93015
1.59542 -5.2047 -1.93027
1.61187 -5.20005 -1.93042
1.62833 -5.1954 -1.93058
1.64478 -5.19075 -1.93076
1.66124 -5.18609 -1.93096
1.6777 -5.18143 -1.93117
1.69417 -5.17677 -1.93141
1.71064 -5.17211 -1.93166
1.72711 -5.16744 -1.93194
1.74359 -5.16277 -1.93223
1.76007 -5.15809 -1.93254
1.80646 -5.24013 -1.96539
1.81334 -5.20699 -1.95509
1.82015 -5.17418 -1.9449
1.83133 -5.1542 -1.93954
1.84957 -5.15421 -1.94172
1.86786 -5.15421 -1.94392
1.88619 -5.15421 -1.94614
1.90456 -5.15421 -1.94839
1.92297 -5.15421 -1.95066
1.94143 -5.15421 -1.95296
1.95993 -5.15421 -1.95528
1.97847 -5.15421 -1.95763
1.99706 -5.15421 -1.96
2.0157 -5.15421 -1.9624
2.03438 -5.15421 -1.96482
2.0531 -5.15421 -1.96727
2.07188 -5.15421 -1.96974
2.0907 -5.15422 -1.97224
2.10957 -5.15422 -1.97477
2.12849 -5.15422 -1.97732
2.14745 -5.15422 -1.9799
2.16647 -5.15422 -1.9825
2.18554 -5.15422 -1.98513
2.20465 -5.15422 -1.98779
2.22382 -5.15422 -1.99047
2.24304 -5.15422 -1.99318
2.26232 -5.15422 -1.99592
2.28164 -5.15422 -1.99868
2.30102 -5.15422 -2.00147
2.32046 -5.15423 -2.00429
2.33995 -5.15423 -2.00714
2.3595 -5.15423 -2.01002
1.10987 -5.74944 -2.13126
1.11874 -5.69917 -2.11391
1.12746 -5.64972 -2.09688
1.13605 -5.60108 -2.08014
1.14724 -5.56645 -2.06861
1.15968 -5.5388 -2.05967
1.17201 -5.51139 -2.05084
1.18424 -5.48422 -2.0421
1.19637 -5.45729 -2.03346
1.20838 -5.43048 -2.02487
1.22026 -5.40379 -2.01634
1.23442 -5.38773 -2.01179
1.24952 -5.37604 -2.00887
1.26458 -5.36438 -2.00599
1.27959 -5.35277 -2.00314
1.29457 -5.34119 -2.00032
1.3095 -5.32965 -1.99753
1.32439 -5.31815 -1.99477
1.33934 -5.30707 -1.99218
1.35467 -5.29767 -1.99024
1.36998 -5.28829 -1.98832
1.38525 -5.27893 -1.98642
1.4005 -5.26958 -1.98455
1.41571 -5.26024 -1.9827
1.4309 -5.25093 -1.98087
1.44606 -5.24162 -1.97906
1.46246 -5.23688 -1.979
1.47889 -5.23223 -1.97899
1.49531 -5.22758 -1.97899
1.51174 -5.22293 -1.97902
1.52816 -5.21828 -1.97906
1.54459 -5.21362 -1.97913
1.56101 -5.20896 -1.97921
1.57744 -5.2043 -1.97931
1.59387 -5.19964 -1.97943
1.6103 -5.19497 -1.97957
1.62673 -5.19031 -1.97973
1.64317 -5.18566 -1.97991
1.65961 -5.18101 -1.98012
1.67606 -5.17635 -1.98034
1.69251 -5.17169 -1.98058
1.70896 -5.16703 -1.98084
1.72542 -5.16237 -1.98112
1.77739 -5.26285 -2.02181
1.78042 -5.21771 -2.00661
1.78655 -5.18241 -1.99518
1.79496 -5.1542 -1.98648
1.81312 -5.1542 -1.98866
1.83133 -5.1542 -1.99087
1.84957 -5.15421 -1.99311
1.86786 -5.15421 -1.99536
1.88619 -5.15421 -1.99765
1.90456 -5.15421 -1.99996
1.92297 -5.15421 -2.00229
1.94143 -5.15421 -2.00465
1.95993 -5.15421 -2.00703
1.97847 -5.15421 -2.00944
1.99706 -5.15421 -2.01187
2.0157 -5.15421 -2.01434
2.03438 -5.15421 -2.01682
2.0531 -5.15421 -2.01933
2.07188 -5.15421 -2.02187
2.0907 -5.15422 -2.02444
2.10957 -5.15422 -2.02703
2.12849 -5.15422 -2.02965
2.14745 -5.15422 -2.03229
2.16647 -5.15422 -2.03497
2.18554 -5.15422 -2.03767
2.20465 -5.15422 -2.04039
2.22382 -5.15422 -2.04315
2.24304 -5.15422 -2.04593
2.26232 -5.15422 -2.04874
2.28164 -5.15422 -2.05158
2.30103 -5.15422 -2.05444
2.32046 -5.15423 -2.05734
2.33995 -5.15423 -2.06026
2.3595 -5.15423 -2.06321
1.14462 -5.64331 -2.15018
1.15307 -5.59476 -2.13305
1.16494 -5.56394 -2.12269
1.17731 -5.5363 -2.11354
1.18955 -5.50878 -2.10445
1.20166 -5.48139 -2.09542
1.21367 -5.45425 -2.08649
1.22558 -5.42735 -2.07766
1.23831 -5.4047 -2.07047
1.25345 -5.39294 -2.06746
1.26855 -5.38122 -2.06449
1.2836 -5.36955 -2.06154
1.29862 -5.35791 -2.05863
1.31359 -5.34631 -2.05575
1.32852 -5.33475 -2.0529
1.34342 -5.32323 -2.05008
1.35828 -5.31175 -2.04729
1.37309 -5.30031 -2.04453
1.38787 -5.2889 -2.0418
1.40261 -5.27753 -2.0391
1.41731 -5.26619 -2.03643
1.4316 -5.25351 -2.03325
1.44572 -5.24038 -2.02992
1.46202 -5.23531 -2.02972
1.47833 -5.23027 -2.02956
1.49464 -5.22524 -2.02941
1.51095 -5.2202 -2.02929
1.52725 -5.21518 -2.02919
1.54356 -5.21015 -2.02911
1.55986 -5.20513 -2.02905
1.57617 -5.20011 -2.02902
1.59247 -5.19509 -2.029
1.60878 -5.19008 -2.029
1.62515 -5.18528 -2.02911
1.64157 -5.18061 -2.02929
1.65799 -5.17594 -2.02949
1.67441 -5.17127 -2.02971
1.69084 -5.1666 -2.02995
1.76262 -5.32928 -2.09603
1.7658 -5.28319 -2.08008
1.76893 -5.23778 -2.06437
1.772 -5.19305 -2.04893
1.77683 -5.1542 -2.03579
1.79496 -5.1542 -2.03801
1.81312 -5.1542 -2.04025
1.83133 -5.1542 -2.04251
1.84957 -5.15421 -2.04481
1.86786 -5.15421 -2.04712
1.88619 -5.15421 -2.04946
1.90456 -5.15421 -2.05183
1.92297 -5.15421 -2.05423
1.94143 -5.15421 -2.05664
1.95993 -5.15421 -2.05909
1.97847 -5.15421 -2.06156
1.99706 -5.15421 -2.06406
2.0157 -5.15421 -2.06658
2.03438 -5.15421 -2.06914
2.0531 -5.15421 -2.07171
2.07188 -5.15421 -2.07432
2.0907 -5.15422 -2.07695
2.10957 -5.15422 -2.07961
2.12849 -5.15422 -2.08229
2.14745 -5.15422 -2.08501
2.16647 -5.15422 -2.08775
2.18554 -5.15422 -2.09052
2.20465 -5.15422 -2.09332
2.22382 -5.15422 -2.09614
2.24304 -5.15422 -2.099
2.26232 -5.15422 -2.10188
2.28164 -5.15422 -2.10479
2.30103 -5.15422 -2.10773
2.32046 -5.15423 -2.1107
2.33995 -5.15423 -2.1137
2.3595 -5.15423 -2.11673
1.18261 -5.56123 -2.17707
1.19486 -5.53336 -2.16762
1.207 -5.50575 -2.15828
1.21904 -5.47839 -2.14904
1.23098 -5.45127 -2.13991
1.24282 -5.42438 -2.13087
1.25743 -5.41005 -2.12679
1.27257 -5.39827 -2.12371
1.28766 -5.38654 -2.12068
1.30272 -5.37484 -2.11767
1.31774 -5.36318 -2.1147
1.33271 -5.35156 -2.11176
1.3475 -5.33939 -2.10861
1.36191 -5.32597 -2.10499
1.37627 -5.31259 -2.1014
1.39059 -5.29925 -2.09784
1.40485 -5.28597 -2.09432
1.41907 -5.27273 -2.09083
1.43325 -5.25954 -2.08737
1.44762 -5.24727 -2.08429
1.46395 -5.24222 -2.0841
1.48028 -5.23717 -2.08394
1.49661 -5.23213 -2.08379
1.51294 -5.22709 -2.08366
1.52927 -5.22206 -2.08356
1.54559 -5.21702 -2.08348
1.56192 -5.212 -2.08342
1.57825 -5.20697 -2.08338
1.59457 -5.20195 -2.08336
1.6109 -5.19693 -2.08337
1.62721 -5.19184 -2.08337
1.64337 -5.18629 -2.0832
1.65953 -5.18074 -2.08305
1.67569 -5.1752 -2.08293
1.75881 -5.37428 -2.16527
1.75409 -5.30348 -2.13895
1.75731 -5.2578 -2.12274
1.76049 -5.2128 -2.1068
1.76361 -5.16846 -2.0911
1.77683 -5.1542 -2.08758
1.79496 -5.1542 -2.08985
1.81312 -5.1542 -2.09215
1.83133 -5.1542 -2.09448
1.84957 -5.15421 -2.09682
1.86786 -5.15421 -2.0992
1.88619 -5.15421 -2.1016
1.90456 -5.15421 -2.10403
1.92297 -5.15421 -2.10648
1.94143 -5.15421 -2.10897
1.95993 -5.15421 -2.11147
1.97847 -5.15421 -2.11401
1.99706 -5.15421 -2.11657
2.0157 -5.15421 -2.11916
2.03438 -5.15421 -2.12177
2.0531 -5.15421 -2.12442
2.07188 -5.15421 -2.12709
2.0907 -5.15422 -2.12979
2.10957 -5.15422 -2.13251
2.12849 -5.15422 -2.13527
2.14745 -5.15422 -2.13805
2.16647 -5.15422 -2.14086
2.18554 -5.15422 -2.1437
2.20465 -5.15422 -2.14657
2.22382 -5.15422 -2.14947
2.24304 -5.15422 -2.1524
2.26232 -5.15422 -2.15535
2.28164 -5.15422 -2.15834
2.30103 -5.15422 -2.16135
2.32046 -5.15423 -2.1644
2.33995 -5.15423 -2.16747
2.3595 -5.15423 -2.17058
1.26146 -5.42738 -2.18687
1.27619 -5.41366 -2.18294
1.29087 -5.39995 -2.17904
1.3055 -5.3863 -2.17517
1.32007 -5.37269 -2.17134
1.3346 -5.35914 -2.16755
1.34907 -5.34563 -2.16379
1.3635 -5.33218 -2.16006
1.37787 -5.31877 -2.15637
1.3922 -5.30541 -2.15272
1.40648 -5.2921 -2.1491
1.42072 -5.27884 -2.14551
1.4349 -5.26562 -2.14196
1.44954 -5.25425 -2.13918
1.4659 -5.24919 -2.13898
1.48225 -5.24414 -2.13881
1.4986 -5.23909 -2.13866
1.51495 -5.23404 -2.13853
1.5313 -5.229 -2.13842
1.54761 -5.22383 -2.13828
1.5638 -5.21826 -2.138
1.57998 -5.21269 -2.13774
1.59616 -5.20713 -2.13751
1.61234 -5.20157 -2.13729
1.62852 -5.19601 -2.1371
1.64469 -5.19045 -2.13692
1.66086 -5.1849 -2.13678
1.67703 -5.17935 -2.13665
1.7703 -5.4094 -2.23383
1.76754 -5.34414 -2.20917
1.76206 -5.27201 -2.18162
1.75673 -5.20167 -2.15479
1.75875 -5.1542 -2.1374
1.77683 -5.1542 -2.1397
1.79496 -5.1542 -2.14203
1.81312 -5.1542 -2.14439
1.83133 -5.15421 -2.14677
1.84957 -5.15421 -2.14918
1.86786 -5.15421 -2.15161
1.88619 -5.15421 -2.15407
1.90456 -5.15421 -2.15656
1.92297 -5.15421 -2.15908
1.94143 -5.15421 -2.16162
1.95993 -5.15421 -2.16419
1.97847 -5.15421 -2.16679
1.99706 -5.15421 -2.16942
2.0157 -5.15421 -2.17207
2.03438 -5.15421 -2.17475
2.0531 -5.15421 -2.17746
2.07188 -5.15421 -2.1802
2.0907 -5.15422 -2.18296
2.10957 -5.15422 -2.18576
2.12849 -5.15422 -2.18858
2.14745 -5.15422 -2.19143
2.16647 -5.15422 -2.19432
2.18554 -5.15422 -2.19723
2.20465 -5.15422 -2.20017
2.22382 -5.15422 -2.20314
2.24304 -5.15422 -2.20614
2.26232 -5.15422 -2.20917
2.28164 -5.15422 -2.21223
2.30103 -5.15423 -2.21532
2.32046 -5.15423 -2.21844
2.33995 -5.15423 -2.22159
2.3595 -5.15423 -2.22477
1.42238 -5.285 -2.20068
1.43658 -5.27176 -2.19704
1.45148 -5.26129 -2.19456
1.4678 -5.25599 -2.19426
1.48402 -5.25039 -2.19386
1.50024 -5.2448 -2.19348
1.51645 -5.23922 -2.19313
1.53266 -5.23364 -2.19279
1.54886 -5.22806 -2.19248
1.56506 -5.22248 -2.1922
1.58126 -5.21691 -2.19193
1.59745 -5.21134 -2.19169
1.61365 -5.20577 -2.19146
1.62983 -5.20021 -2.19127
1.64602 -5.19465 -2.19109
1.6622 -5.18909 -2.19093
1.77629 -5.31458 -2.25316
1.77074 -5.24315 -2.22522
1.76533 -5.17348 -2.198
1.77683 -5.1542 -2.19217
1.79496 -5.1542 -2.19455
1.81312 -5.1542 -2.19696
1.83133 -5.15421 -2.1994
1.84957 -5.15421 -2.20187
1.86786 -5.15421 -2.20437
1.88619 -5.15421 -2.20689
1.90456 -5.15421 -2.20944
1.92297 -5.15421 -2.21202
1.94143 -5.15421 -2.21462
1.95993 -5.15421 -2.21725
1.97847 -5.15421 -2.21992
1.99706 -5.15421 -2.22261
2.0157 -5.15421 -2.22532
2.03438 -5.15421 -2.22807
2.0531 -5.15421 -2.23085
2.07188 -5.15422 -2.23365
2.0907 -5.15422 -2.23649
2.10957 -5.15422 -2.23935
2.12849 -5.15422 -2.24224
2.14745 -5.15422 -2.24516
2.16647 -5.15422 -2.24812
2.18554 -5.15422 -2.2511
2.20465 -5.15422 -2.25411
2.22382 -5.15422 -2.25715
2.24304 -5.15422 -2.26023
2.26232 -5.15422 -2.26333
2.28165 -5.15422 -2.26647
2.30103 -5.15423 -2.26963
2.32046 -5.15423 -2.27283
2.33995 -5.15423 -2.27606
2.3595 -5.15423 -2.27932
1.77944 -5.21484 -2.26895
1.77683 -5.1542 -2.24498
1.79496 -5.1542 -2.24742
1.81312 -5.1542 -2.2499
1.83133 -5.15421 -2.25239
1.84957 -5.15421 -2.25492
1.86786 -5.15421 -2.25748
1.88619 -5.15421 -2.26006
1.90456 -5.15421 -2.26267
1.92297 -5.15421 -2.26531
1.94143 -5.15421 -2.26798
1.95993 -5.15421 -2.27067
1.97847 -5.15421 -2.2734
1.99706 -5.15421 -2.27615
2.0157 -5.15421 -2.27894
2.03438 -5.15421 -2.28175
2.0531 -5.15421 -2.2846
2.07188 -5.15422 -2.28747
2.0907 -5.15422 -2.29037
2.10957 -5.15422 -2.2933
2.12849 -5.15422 -2.29626
2.14745 -5.15422 -2.29926
2.16647 -5.15422 -2.30228
2.18554 -5.15422 -2.30533
2.20465 -5.15422 -2.30842
2.22382 -5.15422 -2.31153
2.24304 -5.15422 -2.31468
2.26232 -5.15422 -2.31786
2.28164 -5.15422 -2.32107
2.30102 -5.15423 -2.32431
2.32046 -5.15423 -2.32759
2.33995 -5.15423 -2.33089
2.35949 -5.15423 -2.33423
1.80788 -5.19131 -2.31722
1.81312 -5.1542 -2.30319
1.83133 -5.15421 -2.30575
1.84957 -5.15421 -2.30833
1.86786 -5.15421 -2.31095
1.88619 -5.15421 -2.31359
1.90456 -5.15421 -2.31627
1.92297 -5.15421 -2.31897
1.94143 -5.15421 -2.3217
1.95993 -5.15421 -2.32446
1.97847 -5.15421 -2.32725
1.99706 -5.15421 -2.33007
2.0157 -5.15421 -2.33292
2.03438 -5.15421 -2.3358
2.0531 -5.15421 -2.33871
2.07188 -5.15422 -2.34165
2.0907 -5.15422 -2.34462
2.10957 -5.15422 -2.34762
2.12848 -5.15422 -2.35066
2.14745 -5.15422 -2.35372
2.16647 -5.15422 -2.35681
2.18554 -5.15422 -2.35994
2.20465 -5.15422 -2.3631
2.22382 -5.15422 -2.36629
2.24304 -5.15422 -2.36951
2.26232 -5.15422 -2.37276
2.28164 -5.15422 -2.37605
2.30103 -5.15423 -2.37937
2.32046 -5.15423 -2.38272
2.33995 -5.15423 -2.38611
2.3595 -5.15423 -2.38952
1.84957 -5.15421 -2.36212
1.86786 -5.15421 -2.3648
1.88619 -5.15421 -2.3675
1.90456 -5.15421 -2.37024
1.92297 -5.15421 -2.373
1.94143 -5.15421 -2.3758
1.95993 -5.15421 -2.37862
1.97847 -5.15421 -2.38148
1.99706 -5.15421 -2.38437
2.0157 -5.15421 -2.38728
2.03438 -5.15421 -2.39023
2.0531 -5.15421 -2.39321
2.07188 -5.15422 -2.39622
2.0907 -5.15422 -2.39926
2.10957 -5.15422 -2.40233
2.12849 -5.15422 -2.40543
2.14745 -5.15422 -2.40857
2.16647 -5.15422 -2.41173
2.18554 -5.15422 -2.41493
2.20465 -5.15422 -2.41816
2.22382 -5.15422 -2.42143
2.24304 -5.15422 -2.42472
2.26232 -5.15422 -2.42805
2.28164 -5.15422 -2.43142
2.30102 -5.15423 -2.43481
1.92297 -5.15421 -2.42743
1.94143 -5.15421 -2.43029
1.95993 -5.15421 -2.43318
1.97847 -5.15421 -2.4361
1.99706 -5.15421 -2.43905
2.0157 -5.15421 -2.44203
2.03438 -5.15421 -2.44505
2.0531 -5.15421 -2.44809
2.07188 -5.15422 -2.45117
2.0907 -5.15422 -2.45428
2.10957 -5.15422 -2.45742
2.12848 -5.15422 -2.4606
2.14745 -5.15422 -2.46381
2.16647 -5.15422 -2.46705
2.18554 -5.15422 -2.47032
2.20465 -5.15422 -2.47362
3.77629 -5.64691 -1.08173
3.83433 -5.69499 -1.09324
3.89354 -5.74401 -1.10498
4.00028 -5.86184 -1.13006
4.14326 -6.03068 -1.1651
3.62882 -5.42639 -1.09519
3.65277 -5.42533 -1.09728
3.67684 -5.42431 -1.0994
3.7032 -5.42651 -1.10219
3.74131 -5.44563 -1.10845
3.78186 -5.46785 -1.11538
3.82288 -5.49031 -1.1224
3.87597 -5.52954 -1.1329
3.93046 -5.57005 -1.14372
3.98594 -5.61126 -1.15474
4.04245 -5.6532 -1.16597
4.1 -5.69589 -1.17742
4.16458 -5.74753 -1.19078
3.61108 -5.39986 -1.14542
3.63488 -5.39875 -1.1476
3.65895 -5.39792 -1.14986
3.68314 -5.39712 -1.15214
3.70749 -5.3964 -1.15446
3.73335 -5.39773 -1.15724
3.75933 -5.39905 -1.16004
3.78543 -5.40037 -1.16287
3.81166 -5.40169 -1.16572
3.83801 -5.40301 -1.1686
3.867 -5.40785 -1.17226
3.89664 -5.41336 -1.17609
3.92646 -5.4189 -1.17996
3.95647 -5.42446 -1.18387
3.99457 -5.4408 -1.19016
4.04205 -5.46947 -1.1992
4.09809 -5.50909 -1.21069
4.15515 -5.5494 -1.22241
3.59346 -5.37351 -1.19531
3.61724 -5.37255 -1.19762
3.64119 -5.37171 -1.19997
3.66522 -5.37086 -1.20234
3.68936 -5.37001 -1.20473
3.71358 -5.36914 -1.20714
3.73825 -5.36878 -1.20968
3.76416 -5.37002 -1.21262
3.79018 -5.37126 -1.21557
3.81633 -5.3725 -1.21855
3.84261 -5.37374 -1.22156
3.869 -5.37498 -1.22459
3.89553 -5.37622 -1.22765
3.92219 -5.37746 -1.23073
3.94897 -5.3787 -1.23384
3.97588 -5.37993 -1.23698
4.00399 -5.38259 -1.24047
4.03429 -5.38799 -1.24462
4.0648 -5.39342 -1.24881
4.09549 -5.39887 -1.25304
4.12639 -5.40435 -1.2573
4.15749 -5.40985 -1.26161
4.18945 -5.41623 -1.26615
4.90609 -6.30181 -1.47676
4.93361 -6.29636 -1.4791
4.96115 -6.2908 -1.48144
4.98341 -6.27846 -1.4822
4.99927 -6.25808 -1.48108
5.01504 -6.23764 -1.47995
5.03072 -6.21714 -1.47882
5.0463 -6.19659 -1.47769
5.06178 -6.17597 -1.47655
5.07717 -6.1553 -1.4754
5.1379 -6.18932 -1.48741
5.30994 -6.35592 -1.53144
3.57603 -5.34744 -1.24489
3.59974 -5.34656 -1.24731
3.62354 -5.34568 -1.24975
3.64743 -5.34478 -1.2522
3.67141 -5.34388 -1.25468
3.69547 -5.34296 -1.25718
3.71964 -5.34204 -1.2597
3.74389 -5.34111 -1.26224
3.76888 -5.34107 -1.26501
3.79483 -5.34223 -1.2681
3.82091 -5.34339 -1.27121
3.8471 -5.34455 -1.27435
3.87342 -5.34571 -1.27751
3.89987 -5.34686 -1.2807
3.92644 -5.34802 -1.28392
3.95315 -5.34917 -1.28716
3.97998 -5.35032 -1.29044
4.00695 -5.35148 -1.29374
4.03405 -5.35263 -1.29706
4.06128 -5.35378 -1.30042
4.08866 -5.35493 -1.30381
4.11616 -5.35608 -1.30722
4.14381 -5.35723 -1.31066
4.17489 -5.36259 -1.31517
4.20734 -5.36948 -1.32009
4.24003 -5.37641 -1.32505
4.27295 -5.38338 -1.33006
4.30612 -5.39039 -1.33512
4.54953 -5.65864 -1.40508
4.60093 -5.68599 -1.41545
4.66 -5.72223 -1.4281
4.72588 -5.76613 -1.44274
4.83424 -5.86079 -1.47021
4.86017 -5.85475 -1.47251
4.88611 -5.8486 -1.47481
4.91206 -5.84237 -1.47711
4.93803 -5.83603 -1.47941
4.96402 -5.8296 -1.48172
4.98933 -5.82226 -1.48382
5.01104 -5.81064 -1.48485
5.03273 -5.79895 -1.48589
5.05441 -5.7872 -1.48693
5.07609 -5.77539 -1.48797
5.11223 -5.77988 -1.49325
5.15557 -5.7922 -1.5006
5.19925 -5.80455 -1.50801
5.24328 -5.81693 -1.51549
5.28767 -5.82934 -1.52303
5.33241 -5.84178 -1.53064
5.37876 -5.8556 -1.53867
5.4273 -5.8714 -1.54728
5.47627 -5.88727 -1.55598
5.5257 -5.9032 -1.56476
3.55879 -5.32167 -1.29418
3.58236 -5.32074 -1.29668
3.606 -5.31981 -1.2992
3.62974 -5.31887 -1.30175
3.65357 -5.31792 -1.30431
3.67749 -5.31696 -1.30689
3.7015 -5.31599 -1.3095
3.7256 -5.315 -1.31213
3.74979 -5.31401 -1.31478
3.77408 -5.31301 -1.31745
3.79938 -5.31329 -1.32046
3.82538 -5.31437 -1.3237
3.8515 -5.31544 -1.32697
3.87774 -5.31652 -1.33027
3.90411 -5.31759 -1.33359
3.9306 -5.31866 -1.33694
3.95722 -5.31973 -1.34032
3.98398 -5.3208 -1.34373
4.01087 -5.32186 -1.34716
4.03788 -5.32293 -1.35063
4.06504 -5.32399 -1.35412
4.09232 -5.32505 -1.35765
4.1191 -5.32527 -1.36099
4.14487 -5.32403 -1.36399
4.17075 -5.32279 -1.36701
4.19674 -5.32152 -1.37005
4.22284 -5.32025 -1.37312
4.25436 -5.3256 -1.37794
4.2864 -5.33136 -1.3829
4.32014 -5.33897 -1.38838
4.35447 -5.34705 -1.39402
4.38907 -5.35518 -1.39972
4.42394 -5.36335 -1.40547
4.45822 -5.37054 -1.41101
4.54509 -5.44041 -1.4331
4.59394 -5.464 -1.4431
4.64342 -5.48784 -1.45323
4.69392 -5.5124 -1.46362
4.74585 -5.53814 -1.4744
4.78928 -5.5535 -1.48248
4.81527 -5.54838 -1.48513
4.84131 -5.5432 -1.4878
4.86741 -5.53796 -1.49048
4.89355 -5.53265 -1.49317
4.91975 -5.52727 -1.49587
4.946 -5.52182 -1.49858
4.97272 -5.51677 -1.50143
4.99958 -5.51173 -1.50432
5.02649 -5.50663 -1.50722
5.05346 -5.50146 -1.51013
5.0936 -5.5104 -1.51696
5.13425 -5.51957 -1.5239
5.17521 -5.52876 -1.53091
5.21648 -5.53796 -1.53798
5.25805 -5.54718 -1.5451
5.29988 -5.55633 -1.55227
5.34081 -5.56422 -1.55914
5.38202 -5.5721 -1.56607
5.42354 -5.57999 -1.57306
5.46536 -5.58788 -1.5801
3.54166 -5.29605 -1.34316
3.56508 -5.29509 -1.34575
3.58858 -5.29411 -1.34835
3.61217 -5.29312 -1.35097
3.63585 -5.29212 -1.35362
3.65962 -5.29112 -1.35629
3.68347 -5.2901 -1.35898
3.70742 -5.28907 -1.36169
3.73146 -5.28803 -1.36443
3.75559 -5.28698 -1.36719
3.77981 -5.28593 -1.36997
3.80414 -5.28486 -1.37278
3.82974 -5.28542 -1.37603
3.85578 -5.28641 -1.37943
3.88194 -5.28741 -1.38286
3.90823 -5.2884 -1.38631
3.93465 -5.28938 -1.3898
3.9612 -5.29037 -1.39331
3.98787 -5.29135 -1.39685
4.01467 -5.29233 -1.40043
4.04161 -5.29331 -1.40403
4.06854 -5.29411 -1.40762
4.094 -5.29282 -1.41068
4.11956 -5.29152 -1.41377
4.14523 -5.29021 -1.41688
4.171 -5.28888 -1.42002
4.19688 -5.28754 -1.42318
4.22288 -5.28619 -1.42637
4.24898 -5.28482 -1.42959
4.2752 -5.28344 -1.43283
4.30234 -5.28304 -1.43637
4.3345 -5.2886 -1.44157
4.36689 -5.29419 -1.44682
4.39951 -5.29981 -1.45211
4.43235 -5.30546 -1.45746
4.46694 -5.31294 -1.46335
4.50191 -5.3206 -1.46934
4.53636 -5.32737 -1.47513
4.57107 -5.33418 -1.48097
4.60605 -5.34102 -1.48687
4.64046 -5.34696 -1.49256
4.67401 -5.35165 -1.49795
4.70778 -5.35635 -1.50339
4.74178 -5.36106 -1.50888
4.77283 -5.3622 -1.5134
4.8022 -5.36127 -1.51738
4.83185 -5.36048 -1.52143
4.86164 -5.35966 -1.52552
4.89156 -5.35882 -1.52963
4.92164 -5.35795 -1.53378
4.95185 -5.35705 -1.53796
4.98221 -5.35612 -1.54216
5.01272 -5.35517 -1.54641
5.04546 -5.35641 -1.55132
5.08056 -5.35993 -1.55694
5.1159 -5.36345 -1.56261
5.15139 -5.36688 -1.56831
5.18707 -5.37027 -1.57404
5.22299 -5.37365 -1.57982
5.25914 -5.37704 -1.58565
5.29554 -5.38042 -1.59154
5.33219 -5.38381 -1.59748
5.3691 -5.3872 -1.60346
5.40625 -5.39058 -1.60951
5.44366 -5.39397 -1.61561
5.50069 -5.41643 -1.62749
3.52464 -5.2706 -1.39185
3.54791 -5.26959 -1.39451
3.57127 -5.26856 -1.39719
3.59471 -5.26753 -1.3999
3.61824 -5.26649 -1.40263
3.64185 -5.26544 -1.40538
3.66556 -5.26437 -1.40815
3.68935 -5.2633 -1.41095
3.71324 -5.26221 -1.41377
3.73722 -5.26112 -1.41662
3.76129 -5.26001 -1.41949
3.78545 -5.2589 -1.42238
3.80971 -5.25777 -1.4253
3.83406 -5.25663 -1.42824
3.85996 -5.25746 -1.43174
3.88604 -5.25837 -1.4353
3.91225 -5.25927 -1.43889
3.93859 -5.26018 -1.4425
3.96505 -5.26108 -1.44615
3.99165 -5.26198 -1.44983
4.01837 -5.26287 -1.45354
4.04387 -5.262 -1.45679
4.06912 -5.26066 -1.45994
4.09447 -5.25929 -1.46311
4.11992 -5.25792 -1.46632
4.14548 -5.25653 -1.46954
4.17115 -5.25512 -1.4728
4.19693 -5.2537 -1.47608
4.22281 -5.25227 -1.47939
4.24881 -5.25082 -1.48272
4.27491 -5.24936 -1.48609
4.30113 -5.24789 -1.48948
4.32746 -5.24639 -1.49289
4.35391 -5.24489 -1.49634
4.38229 -5.24554 -1.50044
4.4148 -5.25093 -1.50593
4.44755 -5.25634 -1.51147
4.48052 -5.26178 -1.51706
4.50838 -5.26102 -1.52091
4.53535 -5.25905 -1.52444
4.56244 -5.25706 -1.528
4.58964 -5.25505 -1.53159
4.62161 -5.2583 -1.53675
4.65467 -5.26257 -1.54225
4.68795 -5.26685 -1.5478
4.72146 -5.27113 -1.55341
4.75316 -5.27319 -1.55839
4.78207 -5.27195 -1.56245
4.81112 -5.27068 -1.56653
4.84029 -5.26939 -1.57065
4.8696 -5.26807 -1.5748
4.89905 -5.26672 -1.57897
4.92867 -5.26538 -1.58319
4.95858 -5.26417 -1.58749
4.98863 -5.26294 -1.59183
5.02036 -5.26329 -1.59668
5.05493 -5.26638 -1.60242
5.08971 -5.26947 -1.60821
5.12473 -5.27256 -1.61404
5.15998 -5.27565 -1.61993
5.19546 -5.27874 -1.62587
5.23119 -5.28182 -1.63186
5.26713 -5.28488 -1.6379
5.3032 -5.28783 -1.64395
5.33951 -5.29077 -1.65006
5.37607 -5.29371 -1.65622
5.43697 -5.32022 -1.66984
5.50096 -5.34921 -1.68434
5.56605 -5.37867 -1.6991
5.63225 -5.40862 -1.71413
3.50772 -5.24529 -1.44023
3.53085 -5.24424 -1.44298
3.55406 -5.24317 -1.44574
3.57735 -5.2421 -1.44853
3.60073 -5.24101 -1.45134
3.6242 -5.23991 -1.45417
3.64776 -5.2388 -1.45703
3.6714 -5.23768 -1.45991
3.69513 -5.23655 -1.46282
3.71896 -5.23541 -1.46575
3.74287 -5.23426 -1.4687
3.76688 -5.2331 -1.47168
3.79098 -5.23192 -1.47468
3.81517 -5.23074 -1.47771
3.83946 -5.22954 -1.48076
3.86402 -5.22857 -1.48391
3.89003 -5.2294 -1.4876
3.91616 -5.23022 -1.49132
3.94242 -5.23104 -1.49506
3.9688 -5.23186 -1.49884
3.99446 -5.23156 -1.50234
4.01941 -5.23017 -1.50555
4.04445 -5.22876 -1.50878
4.06959 -5.22734 -1.51204
4.09484 -5.2259 -1.51533
4.12018 -5.22445 -1.51865
4.14564 -5.22298 -1.52199
4.1712 -5.2215 -1.52536
4.19687 -5.22001 -1.52876
4.22265 -5.2185 -1.53218
4.24853 -5.21697 -1.53564
4.27453 -5.21543 -1.53912
4.30064 -5.21387 -1.54263
4.32686 -5.2123 -1.54617
4.35319 -5.21071 -1.54973
4.37964 -5.20911 -1.55333
4.40621 -5.20749 -1.55696
4.43289 -5.20586 -1.56061
4.46239 -5.20735 -1.56525
4.49336 -5.21036 -1.57038
4.5201 -5.20827 -1.57401
4.54695 -5.20616 -1.57767
4.57391 -5.20403 -1.58136
4.60099 -5.20188 -1.58508
4.62819 -5.19971 -1.58883
4.65551 -5.19751 -1.59261
4.6842 -5.19668 -1.59684
4.71468 -5.19765 -1.60167
4.74409 -5.19726 -1.60612
4.77393 -5.19715 -1.61071
4.80458 -5.19772 -1.61554
4.8354 -5.19829 -1.62042
4.8664 -5.19886 -1.62534
4.89759 -5.19942 -1.63031
4.92896 -5.19999 -1.63532
4.96052 -5.20055 -1.64038
4.99227 -5.20111 -1.64548
5.02572 -5.20322 -1.65112
5.05999 -5.20596 -1.65701
5.09452 -5.20873 -1.66297
5.1293 -5.21151 -1.66898
5.16432 -5.21431 -1.67505
5.19959 -5.21713 -1.68118
5.23513 -5.21995 -1.68737
5.27091 -5.22279 -1.69362
5.30694 -5.22565 -1.69993
5.34893 -5.23408 -1.70812
5.40523 -5.25612 -1.72083
5.47579 -5.29145 -1.73801
5.54774 -5.32746 -1.75553
5.62114 -5.36419 -1.77343
3.49089 -5.22014 -1.48834
3.51388 -5.21904 -1.49116
3.53695 -5.21793 -1.49401
3.5601 -5.21681 -1.49687
3.58333 -5.21568 -1.49976
3.60665 -5.21454 -1.50268
3.63006 -5.21339 -1.50562
3.65355 -5.21222 -1.50858
3.67713 -5.21105 -1.51157
3.70081 -5.20986 -1.51458
3.72457 -5.20866 -1.51762
3.74842 -5.20745 -1.52068
3.77236 -5.20623 -1.52377
3.7964 -5.205 -1.52688
3.82053 -5.20375 -1.53002
3.84475 -5.2025 -1.53318
3.86907 -5.20123 -1.53637
3.8939 -5.2005 -1.53976
3.91995 -5.20124 -1.5436
3.94576 -5.20149 -1.54734
3.9704 -5.20005 -1.55061
3.99514 -5.1986 -1.5539
4.01998 -5.19713 -1.55722
4.04492 -5.19565 -1.56056
4.06996 -5.19415 -1.56394
4.0951 -5.19264 -1.56734
4.12035 -5.19111 -1.57077
4.1457 -5.18957 -1.57422
4.17115 -5.18801 -1.57771
4.19671 -5.18644 -1.58122
4.22238 -5.18485 -1.58476
4.24816 -5.18325 -1.58833
4.27484 -5.18259 -1.59223
4.30231 -5.18273 -1.59641
4.32994 -5.18288 -1.60062
4.3577 -5.18302 -1.60487
4.38562 -5.18316 -1.60917
4.41368 -5.1833 -1.61349
4.4419 -5.18344 -1.61786
4.47028 -5.18359 -1.62228
4.49821 -5.18306 -1.62651
4.52571 -5.18185 -1.63058
4.55522 -5.18277 -1.63535
4.5849 -5.18369 -1.64017
4.61476 -5.18461 -1.64502
4.64479 -5.18554 -1.64993
4.67499 -5.18647 -1.65488
4.70538 -5.1874 -1.65987
4.73552 -5.18786 -1.66476
4.76364 -5.18595 -1.66893
4.79191 -5.18402 -1.67313
4.82031 -5.18208 -1.67737
4.84886 -5.18012 -1.68165
4.87755 -5.17816 -1.68596
4.90782 -5.17769 -1.69081
4.93918 -5.17818 -1.69601
4.97073 -5.17866 -1.70127
5.00307 -5.17977 -1.70677
5.03663 -5.18192 -1.71267
5.07042 -5.18408 -1.71863
5.10452 -5.18634 -1.72467
5.13928 -5.18903 -1.73091
5.17429 -5.19174 -1.73722
5.20956 -5.19446 -1.74358
5.24507 -5.19719 -1.75001
5.28576 -5.20479 -1.75814
5.33023 -5.21578 -1.76748
5.37161 -5.22342 -1.77577
5.41191 -5.22972 -1.78366
5.4659 -5.24887 -1.79603
5.53738 -5.28426 -1.81407
5.61085 -5.32088 -1.83266
5.6956 -5.36745 -1.85484
3.47417 -5.19512 -1.53618
3.49701 -5.19398 -1.53908
3.51993 -5.19283 -1.542
