ply
format ascii 1.0
comment Created by Open3D
element vertex 1942
property double x
property double y
property double z
end_header
5.69797 2.58967 -1.87378
5.65382 2.59109 -1.86193
5.61023 2.59249 -1.85025
5.56718 2.59387 -1.83873
5.52465 2.59523 -1.82737
5.48263 2.59658 -1.81617
5.44113 2.5979 -1.80512
5.40012 2.59921 -1.79421
5.3596 2.60049 -1.78346
5.31956 2.60177 -1.77285
5.27999 2.60302 -1.76238
5.24088 2.60425 -1.75205
5.20221 2.60548 -1.74186
5.164 2.60668 -1.7318
5.12621 2.60787 -1.72187
5.08885 2.60904 -1.71207
5.05191 2.6102 -1.70239
5.01313 2.61017 -1.69208
4.9705 2.60787 -1.68045
4.92967 2.60625 -1.66941
4.89679 2.6086 -1.66104
4.86422 2.61093 -1.65278
4.83198 2.61323 -1.6446
4.79865 2.61474 -1.63605
4.76508 2.61592 -1.6274
4.73186 2.61708 -1.61886
4.7002 2.61891 -1.61084
4.66885 2.62071 -1.60291
4.6378 2.6225 -1.59507
4.60705 2.62427 -1.58733
4.57808 2.62686 -1.58018
4.54989 2.62974 -1.5733
4.52194 2.6326 -1.56649
4.49422 2.63542 -1.55975
4.46674 2.63822 -1.55309
4.43949 2.64099 -1.54649
4.41246 2.64373 -1.53997
4.38586 2.64657 -1.53358
4.36368 2.65194 -1.52873
4.34163 2.65727 -1.52393
4.3197 2.66256 -1.51916
4.30417 2.67171 -1.51665
4.28845 2.68067 -1.51407
4.27176 2.68895 -1.51116
4.25512 2.6972 -1.50826
4.23853 2.70541 -1.50539
4.22199 2.71358 -1.50254
4.2055 2.72171 -1.49971
4.18907 2.7298 -1.4969
4.17268 2.73785 -1.49412
4.15634 2.74587 -1.49135
4.14005 2.75385 -1.48861
4.12381 2.76179 -1.48588
4.10761 2.76969 -1.48318
4.09146 2.77756 -1.48049
4.07536 2.78539 -1.47783
4.05931 2.79319 -1.47518
4.04431 2.80165 -1.47293
4.03051 2.81089 -1.47112
4.01673 2.8201 -1.46932
4.00297 2.82927 -1.46753
3.98923 2.83841 -1.46576
3.97551 2.84753 -1.464
3.96182 2.85661 -1.46226
3.94814 2.86567 -1.46053
3.93449 2.87469 -1.45882
3.92086 2.88369 -1.45712
3.90725 2.89265 -1.45543
3.89365 2.90159 -1.45376
3.88008 2.9105 -1.4521
3.86653 2.91938 -1.45046
3.853 2.92823 -1.44883
3.83948 2.93706 -1.44722
3.82832 2.94764 -1.44649
3.81838 2.95917 -1.44625
3.80845 2.97069 -1.44602
3.79858 2.98225 -1.44582
3.7917 2.99617 -1.44678
3.78564 3.01077 -1.44808
3.7798 3.02558 -1.44948
3.77395 3.04042 -1.45089
3.76808 3.05528 -1.45233
3.7622 3.07017 -1.45377
3.7563 3.08509 -1.45524
3.75039 3.10004 -1.45671
3.74446 3.11501 -1.45821
3.73852 3.13001 -1.45972
3.73255 3.14504 -1.46125
3.72658 3.16009 -1.46279
3.72096 3.1755 -1.4645
3.71677 3.19218 -1.46679
3.7131 3.20938 -1.46932
3.71024 3.22735 -1.4722
3.70737 3.24539 -1.4751
3.70449 3.2635 -1.47803
3.70159 3.28167 -1.48098
3.69867 3.29992 -1.48396
3.69574 3.31824 -1.48696
3.6928 3.33663 -1.48999
3.68983 3.35509 -1.49305
3.68686 3.37363 -1.49613
3.68386 3.39224 -1.49924
3.68086 3.41092 -1.50237
3.67882 3.43059 -1.50594
3.67677 3.45036 -1.50953
3.6747 3.47022 -1.51316
3.67263 3.49018 -1.51681
3.6717 3.51134 -1.52098
3.67192 3.53372 -1.52567
3.67213 3.55623 -1.5304
3.67234 3.57889 -1.53517
3.67255 3.60167 -1.53998
3.67282 3.62467 -1.54487
3.67404 3.64876 -1.5502
3.67527 3.673 -1.55558
3.6765 3.69742 -1.56102
3.67773 3.722 -1.5665
3.67897 3.74675 -1.57204
3.68021 3.77166 -1.57763
3.68146 3.79675 -1.58328
3.68491 3.82431 -1.58993
3.68891 3.85263 -1.59687
3.69294 3.8812 -1.60389
3.69959 3.91276 -1.61212
3.70865 3.94713 -1.62147
3.71781 3.9819 -1.63094
3.73253 4.02295 -1.64294
3.74812 4.06532 -1.65542
3.76393 4.10832 -1.6681
3.80037 4.17437 -1.69006
7.58989 2.59203 -2.47393
7.51257 2.59204 -2.45137
7.43665 2.59204 -2.42925
7.36208 2.59204 -2.40754
7.28884 2.59205 -2.38624
7.27549 2.6131 -2.38455
7.27781 2.6398 -2.38802
7.28015 2.66659 -2.39153
7.28592 2.69472 -2.39619
7.29419 2.72389 -2.40172
7.30257 2.75321 -2.40732
6.83942 2.60319 -2.25733
6.77456 2.60293 -2.23861
6.71076 2.60266 -2.22022
6.64801 2.60241 -2.20216
6.58627 2.60215 -2.18441
6.52552 2.6019 -2.16696
6.46536 2.60151 -2.14969
6.40302 2.59985 -2.13167
6.34171 2.59822 -2.11397
6.28141 2.59662 -2.09658
6.2221 2.59504 -2.0795
6.16418 2.59367 -2.06286
6.1072 2.59233 -2.0465
6.05111 2.59101 -2.03043
5.99589 2.58971 -2.01463
5.94153 2.58843 -1.99908
5.88906 2.58764 -1.98416
5.83789 2.58709 -1.96965
5.78746 2.58655 -1.95537
5.73789 2.58607 -1.94136
5.68971 2.58591 -1.9278
5.64219 2.58576 -1.91445
5.59532 2.5856 -1.90129
5.55219 2.58689 -1.88939
5.50987 2.58829 -1.87775
5.46806 2.58967 -1.86627
5.42676 2.59104 -1.85494
5.38594 2.59238 -1.84377
5.34561 2.59371 -1.83275
5.30576 2.59501 -1.82187
5.26637 2.5963 -1.81114
5.22744 2.59758 -1.80055
5.18895 2.59883 -1.7901
5.1509 2.60007 -1.77979
5.11329 2.60129 -1.76961
5.0761 2.6025 -1.75956
5.03932 2.60369 -1.74964
5.00001 2.60333 -1.73883
4.95757 2.60109 -1.72691
4.91572 2.59887 -1.71517
4.87916 2.59921 -1.70525
4.8468 2.60157 -1.6968
4.81411 2.60356 -1.68821
4.78042 2.60481 -1.67926
4.74708 2.60603 -1.67042
4.71407 2.60724 -1.66168
4.68207 2.6088 -1.65328
4.65093 2.61065 -1.64518
4.62008 2.61248 -1.63717
4.5904 2.61478 -1.62955
4.56214 2.61772 -1.62244
4.53412 2.62063 -1.61539
4.50633 2.62351 -1.60843
4.47878 2.62636 -1.60153
4.45146 2.62919 -1.59471
4.42436 2.63199 -1.58796
4.39749 2.63476 -1.58128
4.37084 2.63751 -1.57467
4.34466 2.64038 -1.56822
4.31958 2.64378 -1.56217
4.29779 2.64906 -1.55729
4.27758 2.6552 -1.55298
4.25741 2.66127 -1.54869
4.23736 2.6673 -1.54444
4.2177 2.67348 -1.54034
4.20133 2.68166 -1.53743
4.18501 2.68981 -1.53454
4.16873 2.69791 -1.53168
4.15251 2.70597 -1.52884
4.13633 2.714 -1.52602
4.1202 2.72199 -1.52322
4.10412 2.72995 -1.52044
4.08808 2.73786 -1.51768
4.07209 2.74574 -1.51494
4.05614 2.75358 -1.51222
4.04025 2.76139 -1.50952
4.02439 2.76916 -1.50685
4.00862 2.77693 -1.5042
3.99498 2.78611 -1.50237
3.98136 2.79527 -1.50054
3.96777 2.80439 -1.49874
3.95419 2.81348 -1.49694
3.94064 2.82255 -1.49516
3.9271 2.83158 -1.4934
3.91359 2.84059 -1.49165
3.9001 2.84956 -1.48992
3.88662 2.85851 -1.4882
3.87486 2.86868 -1.48714
3.86497 2.88021 -1.48681
3.85507 2.89174 -1.4865
3.84518 2.90326 -1.48619
3.83528 2.91477 -1.4859
3.82539 2.92627 -1.48563
3.81549 2.93777 -1.48537
3.80559 2.94926 -1.48512
3.79569 2.96074 -1.48488
3.78846 2.97431 -1.4857
3.7816 2.98819 -1.48669
3.77472 3.00208 -1.48769
3.76885 3.01681 -1.48911
3.763 3.0316 -1.49055
3.75714 3.04641 -1.49202
3.75126 3.06125 -1.4935
3.74537 3.07611 -1.495
3.73946 3.091 -1.49652
3.73354 3.10592 -1.49805
3.7276 3.12087 -1.49959
3.72165 3.13585 -1.50116
3.71568 3.15085 -1.50274
3.71113 3.16711 -1.50492
3.70694 3.18374 -1.50728
3.70273 3.20042 -1.50965
3.69981 3.21828 -1.51258
3.69693 3.23625 -1.51555
3.69403 3.25429 -1.51855
3.69112 3.27239 -1.52158
3.68819 3.29057 -1.52463
3.68525 3.30882 -1.52771
3.68229 3.32714 -1.53081
3.67932 3.34553 -1.53394
3.67633 3.36399 -1.5371
3.67341 3.38261 -1.54032
3.67137 3.40213 -1.54394
3.66932 3.42173 -1.5476
3.66725 3.44143 -1.55128
3.66517 3.46122 -1.555
3.66307 3.4811 -1.55875
3.66108 3.50118 -1.56257
3.66126 3.52346 -1.56737
3.66144 3.54588 -1.57222
3.66161 3.56843 -1.5771
3.66179 3.59112 -1.58203
3.66196 3.61395 -1.58701
3.66213 3.63693 -1.59203
3.66229 3.66004 -1.5971
3.66319 3.68404 -1.60254
3.66438 3.70848 -1.60815
3.66556 3.73309 -1.61381
3.66675 3.75787 -1.61953
3.66795 3.78282 -1.62531
3.66968 3.8085 -1.63137
3.6736 3.83664 -1.63847
3.67754 3.86501 -1.64564
3.68151 3.89364 -1.65289
3.6861 3.92313 -1.66048
3.69507 3.95754 -1.67012
3.70595 3.9943 -1.6807
3.72122 4.03614 -1.69338
3.73672 4.07861 -1.70626
3.75244 4.12173 -1.71935
3.77084 4.16819 -1.73377
6.6515 2.60377 -2.2685
6.5897 2.60351 -2.2502
6.52889 2.60325 -2.23222
6.46904 2.60299 -2.21455
6.40668 2.60134 -2.19599
6.3453 2.59969 -2.17774
6.28495 2.59808 -2.15982
6.22557 2.59649 -2.14221
6.16715 2.59492 -2.12491
6.10968 2.59338 -2.1079
6.05311 2.59187 -2.09119
5.99768 2.59048 -2.07484
5.94328 2.5892 -2.05883
5.89076 2.58838 -2.04345
5.83956 2.58783 -2.0285
5.78911 2.58728 -2.01379
5.73938 2.58674 -1.99931
5.69036 2.58621 -1.98506
5.64204 2.58569 -1.97103
5.59509 2.58549 -1.95746
5.54887 2.58534 -1.94412
5.50327 2.58519 -1.93099
5.45828 2.58504 -1.91805
5.4139 2.5849 -1.9053
5.37176 2.58555 -1.89332
5.33162 2.58692 -1.88203
5.29195 2.58826 -1.87089
5.25275 2.58959 -1.8599
5.21399 2.5909 -1.84905
5.17568 2.59219 -1.83835
5.13781 2.59346 -1.82779
5.10036 2.59472 -1.81736
5.06334 2.59596 -1.80707
5.02673 2.59718 -1.7969
4.98688 2.5965 -1.78557
4.94465 2.59431 -1.77336
4.90299 2.59215 -1.76133
4.86188 2.59001 -1.74949
4.82941 2.59224 -1.74073
4.7957 2.59361 -1.73151
4.76224 2.5949 -1.72236
4.72912 2.59617 -1.71333
4.69633 2.59743 -1.7044
4.66398 2.59872 -1.69562
4.63305 2.60062 -1.68734
4.60266 2.60263 -1.67924
4.57433 2.60562 -1.67189
4.54623 2.60859 -1.66461
4.51838 2.61153 -1.65741
4.49076 2.61444 -1.65028
4.46336 2.61732 -1.64323
4.43658 2.6204 -1.6364
4.41082 2.62393 -1.62993
4.38526 2.62744 -1.62354
4.3599 2.63091 -1.6172
4.33474 2.63435 -1.61093
4.31186 2.63906 -1.60551
4.29167 2.64529 -1.60108
4.27158 2.65148 -1.59669
4.25159 2.65763 -1.59233
4.23158 2.66366 -1.58797
4.21168 2.66966 -1.58364
4.19188 2.67563 -1.57935
4.17219 2.68156 -1.5751
4.1526 2.68746 -1.57089
4.13311 2.69333 -1.56671
4.11372 2.69917 -1.56257
4.09444 2.70497 -1.55847
4.07525 2.71074 -1.55441
4.05616 2.71648 -1.55038
4.03717 2.72219 -1.54638
4.02125 2.7299 -1.54357
4.00555 2.73768 -1.54084
3.98989 2.74543 -1.53813
3.97428 2.75314 -1.53544
3.95989 2.76164 -1.53323
3.94644 2.77075 -1.53138
3.933 2.77982 -1.52955
3.921 2.78987 -1.52829
3.91114 2.80142 -1.52787
3.90128 2.81296 -1.52747
3.89142 2.8245 -1.52708
3.88156 2.83602 -1.5267
3.8717 2.84753 -1.52634
3.86184 2.85904 -1.52599
3.85198 2.87054 -1.52565
3.84213 2.88203 -1.52533
3.83227 2.89351 -1.52502
3.82241 2.90498 -1.52473
3.81255 2.91645 -1.52444
3.80268 2.92791 -1.52418
3.79282 2.93936 -1.52392
3.78519 2.95255 -1.52458
3.77835 2.96637 -1.52557
3.7715 2.98021 -1.52658
3.76463 2.99406 -1.5276
3.7579 3.00805 -1.5287
3.75206 3.02278 -1.53019
3.7462 3.03754 -1.53169
3.74033 3.05233 -1.53321
3.73445 3.06714 -1.53474
3.72854 3.08198 -1.53629
3.72263 3.09685 -1.53786
3.71669 3.11174 -1.53944
3.71075 3.12666 -1.54104
3.70548 3.14221 -1.54295
3.70131 3.15873 -1.54534
3.69711 3.1753 -1.54775
3.6929 3.19192 -1.55019
3.68939 3.20921 -1.55294
3.68649 3.22711 -1.55598
3.68358 3.24508 -1.55906
3.68066 3.26312 -1.56215
3.67772 3.28123 -1.56528
3.67476 3.2994 -1.56843
3.67179 3.31765 -1.5716
3.6688 3.33597 -1.57481
3.66599 3.35453 -1.57812
3.66394 3.37389 -1.5818
3.66189 3.39334 -1.58551
3.65981 3.41287 -1.58925
3.65773 3.4325 -1.59303
3.65563 3.45221 -1.59684
3.65352 3.47202 -1.60067
3.6514 3.49192 -1.60455
3.65061 3.51321 -1.60905
3.65075 3.53553 -1.614
3.6509 3.55799 -1.61901
3.65104 3.58058 -1.62405
3.65117 3.60331 -1.62915
3.65131 3.62618 -1.63429
3.65144 3.64919 -1.63948
3.65157 3.67235 -1.64471
3.65169 3.69565 -1.64999
3.65219 3.71947 -1.65549
3.65333 3.74411 -1.66134
3.65447 3.76892 -1.66724
3.65562 3.79391 -1.6732
3.65833 3.82069 -1.67993
3.66219 3.84888 -1.68725
3.66608 3.87731 -1.69465
3.66999 3.90599 -1.70213
3.67394 3.93491 -1.7097
3.68137 3.96781 -1.71895
3.69457 4.00724 -1.73099
3.70975 4.04918 -1.74406
3.72516 4.09176 -1.75735
3.74079 4.13498 -1.77084
3.75666 4.17886 -1.78457
6.41187 2.60345 -2.26125
6.3506 2.60187 -2.24252
6.29035 2.60031 -2.22412
6.23107 2.59878 -2.20604
6.17276 2.59728 -2.18828
6.11538 2.5958 -2.17082
6.05891 2.59435 -2.15366
6.00334 2.59293 -2.13679
5.94862 2.59152 -2.12021
5.89458 2.59006 -2.10384
5.84124 2.58857 -2.0877
5.79076 2.58802 -2.07255
5.74101 2.58748 -2.05765
5.69197 2.58694 -2.04298
5.64362 2.58641 -2.02854
5.59595 2.58589 -2.01431
5.54895 2.58538 -2.00031
5.50305 2.58509 -1.98668
5.45806 2.58494 -1.97337
5.41368 2.58479 -1.96025
5.36988 2.58465 -1.94733
5.32666 2.58451 -1.93459
5.28399 2.58437 -1.92204
5.24188 2.58423 -1.90966
5.20055 2.58422 -1.89756
5.16242 2.58554 -1.8866
5.12472 2.58685 -1.87579
5.08744 2.58814 -1.86512
5.05058 2.58942 -1.85458
5.01413 2.59068 -1.84418
4.97376 2.58966 -1.83231
4.93172 2.58753 -1.81982
4.89026 2.58542 -1.80751
4.84935 2.58333 -1.79538
4.85734 2.60723 -1.80137
4.77734 2.58368 -1.7747
4.74409 2.58501 -1.76536
4.71119 2.58633 -1.75614
4.67863 2.58764 -1.74702
4.64639 2.58892 -1.73802
4.61521 2.5906 -1.72939
4.58644 2.59346 -1.72166
4.55828 2.59648 -1.71415
4.53091 2.5998 -1.70692
4.50444 2.60347 -1.70002
4.47817 2.60712 -1.6932
4.45211 2.61073 -1.68644
4.42626 2.61431 -1.67975
4.4006 2.61785 -1.67313
4.37514 2.62137 -1.66658
4.34988 2.62486 -1.66009
4.32594 2.62901 -1.6541
4.30568 2.63527 -1.64952
4.28553 2.6415 -1.64497
4.26549 2.6477 -1.64047
4.24556 2.65386 -1.636
4.22573 2.65998 -1.63158
4.20593 2.66602 -1.62716
4.18617 2.67199 -1.62276
4.16652 2.67792 -1.6184
4.14697 2.68383 -1.61408
4.12753 2.6897 -1.60979
4.10818 2.69553 -1.60555
4.08894 2.70134 -1.60134
4.06979 2.70711 -1.59716
4.05074 2.71285 -1.59303
4.03179 2.71857 -1.58893
4.01293 2.72425 -1.58487
3.99417 2.7299 -1.58084
3.97549 2.73552 -1.57685
3.95692 2.74111 -1.57289
3.94007 2.74782 -1.56962
3.92743 2.7574 -1.56803
3.91761 2.76894 -1.56758
3.90778 2.78046 -1.56714
3.89796 2.79198 -1.56671
3.88813 2.80348 -1.5663
3.87831 2.81498 -1.5659
3.86849 2.82647 -1.56551
3.85866 2.83795 -1.56514
3.84884 2.84942 -1.56478
3.83902 2.86088 -1.56444
3.8292 2.87233 -1.56411
3.81937 2.88378 -1.5638
3.80955 2.89521 -1.56349
3.79972 2.90664 -1.5632
3.7899 2.91806 -1.56293
3.78189 2.93089 -1.56342
3.77507 2.94465 -1.56442
3.76824 2.95843 -1.56544
3.7614 2.97223 -1.56647
3.75454 2.98604 -1.56752
3.74767 2.99986 -1.56858
3.74112 3.01397 -1.5698
3.73527 3.02868 -1.57133
3.72941 3.04341 -1.57289
3.72353 3.05817 -1.57446
3.71763 3.07296 -1.57604
3.71172 3.08777 -1.57764
3.70579 3.10261 -1.57926
3.69985 3.11748 -1.5809
3.69566 3.13388 -1.58332
3.69148 3.15035 -1.58576
3.68728 3.16686 -1.58823
3.68307 3.18342 -1.59072
3.67897 3.20014 -1.59328
3.67606 3.21798 -1.5964
3.67314 3.23588 -1.59954
3.6702 3.25385 -1.60271
3.66725 3.27189 -1.60591
3.66428 3.28999 -1.60913
3.66129 3.30817 -1.61238
3.65859 3.32668 -1.61579
3.65654 3.34588 -1.61952
3.65448 3.36517 -1.62329
3.6524 3.38455 -1.62709
3.65031 3.40401 -1.63092
3.64821 3.42357 -1.63478
3.6461 3.44321 -1.63868
3.64397 3.46294 -1.64261
3.64183 3.48277 -1.64657
3.63997 3.50297 -1.6507
3.64008 3.52519 -1.65577
3.64019 3.54755 -1.66089
3.64029 3.57004 -1.66605
3.6404 3.59267 -1.67126
3.6405 3.61544 -1.67652
3.64059 3.63835 -1.68182
3.64069 3.66141 -1.68718
3.64078 3.6846 -1.69258
3.64086 3.70794 -1.69803
3.64095 3.73142 -1.70354
3.64103 3.75506 -1.70909
3.64211 3.77989 -1.71517
3.64321 3.8049 -1.72131
3.64689 3.8328 -1.72874
3.65069 3.86104 -1.73629
3.65453 3.88952 -1.74392
3.65839 3.91825 -1.75163
3.66228 3.94723 -1.75943
3.66816 3.9786 -1.76826
3.68312 4.02012 -1.78156
3.705 4.06961 -1.79832
3.72728 4.12005 -1.81542
3.75491 4.17692 -1.83527
6.18322 2.60168 -2.25386
6.12567 2.60017 -2.23585
6.06902 2.59868 -2.21815
6.01327 2.59722 -2.20075
5.95839 2.59578 -2.18364
5.90427 2.59432 -2.16678
5.85074 2.59278 -2.15012
5.79803 2.59127 -2.13373
5.74613 2.58978 -2.11762
5.695 2.58832 -2.10177
5.64521 2.58714 -2.08638
5.59752 2.58662 -2.07175
5.55049 2.5861 -2.05735
5.50411 2.58559 -2.04316
5.45837 2.58508 -2.02919
5.41346 2.58469 -2.0155
5.36966 2.58454 -2.00221
5.32644 2.5844 -1.98912
5.28378 2.58426 -1.97621
5.24167 2.58413 -1.96349
5.2001 2.58399 -1.95095
5.15905 2.58386 -1.93859
5.11852 2.58372 -1.92641
5.07849 2.58359 -1.91439
5.03897 2.58346 -1.90255
5.00153 2.58417 -1.89147
4.97195 2.58873 -1.88335
4.98118 2.61347 -1.88995
4.99053 2.63843 -1.89664
4.8659 2.59215 -1.85236
4.82925 2.59215 -1.8415
4.79302 2.59216 -1.83079
4.7572 2.59216 -1.82021
4.7218 2.59216 -1.80978
4.6868 2.59216 -1.79948
4.6522 2.59216 -1.78931
4.64256 2.60596 -1.78875
4.57354 2.58616 -1.76528
4.54675 2.58992 -1.75808
4.52017 2.59364 -1.75094
4.4938 2.59733 -1.74389
4.46764 2.60099 -1.7369
4.44168 2.60461 -1.72998
4.41593 2.60821 -1.72314
4.39038 2.61177 -1.71636
4.36502 2.61531 -1.70966
4.34002 2.61891 -1.70308
4.31969 2.62521 -1.69834
4.29948 2.63148 -1.69364
4.27938 2.63771 -1.68898
4.25938 2.64391 -1.68436
4.2395 2.65007 -1.67978
4.21971 2.65619 -1.67525
4.20004 2.66228 -1.67075
4.18045 2.66834 -1.66629
4.16084 2.67427 -1.66182
4.14134 2.68018 -1.65738
4.12193 2.68605 -1.65299
4.10263 2.69189 -1.64864
4.08342 2.6977 -1.64432
4.06431 2.70347 -1.64004
4.04531 2.70921 -1.6358
4.02639 2.71493 -1.6316
4.00757 2.72061 -1.62743
3.98885 2.72626 -1.6233
3.97021 2.73189 -1.6192
3.95292 2.73834 -1.61566
3.93662 2.74541 -1.61251
3.92038 2.75245 -1.6094
3.90437 2.75958 -1.60638
3.89458 2.77107 -1.60593
3.88479 2.78255 -1.60549
3.875 2.79402 -1.60507
3.86522 2.80548 -1.60467
3.85543 2.81693 -1.60427
3.84564 2.82837 -1.60389
3.83586 2.8398 -1.60353
3.82607 2.85123 -1.60318
3.81628 2.86264 -1.60284
3.80649 2.87405 -1.60252
3.79671 2.88545 -1.60221
3.78692 2.89684 -1.60191
3.77855 2.90932 -1.60224
3.77175 2.92303 -1.60325
3.76495 2.93676 -1.60427
3.75813 2.95049 -1.60531
3.7513 2.96425 -1.60637
3.74445 2.97801 -1.60744
3.7376 2.9918 -1.60853
3.73073 3.0056 -1.60963
3.72434 3.01982 -1.61096
3.71849 3.0345 -1.61255
3.71261 3.04921 -1.61415
3.70672 3.06394 -1.61577
3.70082 3.0787 -1.61741
3.6949 3.09349 -1.61907
3.69001 3.10919 -1.62121
3.68584 3.12555 -1.62368
3.68166 3.14196 -1.62618
3.67746 3.15842 -1.62871
3.67324 3.17492 -1.63125
3.669 3.19147 -1.63382
3.66563 3.20885 -1.63681
3.66269 3.22668 -1.64002
3.65974 3.24458 -1.64326
3.65678 3.26255 -1.64653
3.6538 3.28058 -1.64982
3.65121 3.29905 -1.65333
3.64915 3.3181 -1.65711
3.64709 3.33723 -1.66093
3.64501 3.35645 -1.66479
3.64292 3.37576 -1.66867
3.64081 3.39515 -1.67259
3.63869 3.41463 -1.67654
3.63656 3.4342 -1.68053
3.63441 3.45386 -1.68454
3.63225 3.47361 -1.6886
3.63008 3.49346 -1.69269
3.62941 3.51486 -1.69752
3.62948 3.53712 -1.70275
3.62955 3.55951 -1.70802
3.62962 3.58204 -1.71335
3.62969 3.60471 -1.71872
3.62975 3.62752 -1.72415
3.62981 3.65047 -1.72962
3.62987 3.67356 -1.73514
3.62992 3.69679 -1.74072
3.62997 3.72017 -1.74634
3.63001 3.7437 -1.75202
3.63005 3.76737 -1.75775
3.63009 3.7912 -1.76353
3.63163 3.81677 -1.7701
3.63655 3.84609 -1.77839
3.6432 3.87747 -1.78759
3.64991 3.90917 -1.79691
3.6567 3.94122 -1.80634
3.66529 3.97549 -1.81675
3.68681 4.02415 -1.83369
3.70874 4.07373 -1.85095
3.73473 4.12828 -1.8704
5.96825 2.60007 -2.24763
5.91404 2.59861 -2.23028
5.86035 2.59704 -2.21311
5.80748 2.59549 -2.19621
5.75542 2.59397 -2.1796
5.70415 2.59248 -2.16326
5.65364 2.591 -2.14718
5.60388 2.58955 -2.13137
5.55485 2.58813 -2.1158
5.50653 2.58672 -2.10049
5.45987 2.58579 -2.08578
5.41473 2.58529 -2.07163
5.37019 2.5848 -2.05769
5.32625 2.58431 -2.04396
5.28357 2.58416 -2.03069
5.24146 2.58402 -2.01762
5.19989 2.58389 -2.00473
5.15884 2.58375 -1.99203
5.11832 2.58362 -1.97951
5.0783 2.58349 -1.96717
5.03878 2.58336 -1.95499
5.01721 2.59227 -1.94978
5.01913 2.61329 -1.95371
4.94053 2.59215 -1.92628
4.903 2.59215 -1.91481
4.8659 2.59215 -1.9035
4.82925 2.59215 -1.89234
4.79302 2.59215 -1.88133
4.7572 2.59216 -1.87046
4.7218 2.59216 -1.85974
4.68681 2.59216 -1.84916
4.6522 2.59216 -1.83871
4.61799 2.59216 -1.8284
4.58416 2.59216 -1.81823
4.5507 2.59217 -1.80818
4.50942 2.58747 -1.795
4.48316 2.59118 -1.78778
4.4571 2.59485 -1.78064
4.43125 2.59849 -1.77357
4.4056 2.6021 -1.76657
4.38014 2.60568 -1.75964
4.35488 2.60923 -1.75278
4.33371 2.6151 -1.74755
4.31343 2.62141 -1.74269
4.29327 2.62767 -1.73788
4.27321 2.63391 -1.7331
4.25326 2.6401 -1.72837
4.23342 2.64627 -1.72368
4.21368 2.65239 -1.71903
4.19405 2.65849 -1.71442
4.17452 2.66455 -1.70986
4.15508 2.67057 -1.70533
4.13568 2.67652 -1.70081
4.11632 2.68239 -1.69631
4.09706 2.68823 -1.69185
4.07789 2.69404 -1.68742
4.05883 2.69982 -1.68304
4.03986 2.70556 -1.67869
4.02098 2.71128 -1.67439
4.0022 2.71696 -1.67011
3.98351 2.72262 -1.66588
3.96578 2.72884 -1.66205
3.94944 2.73593 -1.6588
3.93316 2.743 -1.65557
3.91695 2.75004 -1.65238
3.90079 2.75705 -1.64921
3.88469 2.76404 -1.64608
3.87164 2.77313 -1.64423
3.86189 2.78456 -1.6438
3.85214 2.79598 -1.64339
3.84239 2.8074 -1.64298
3.83264 2.8188 -1.6426
3.82289 2.8302 -1.64222
3.81314 2.84159 -1.64187
3.80339 2.85297 -1.64152
3.79363 2.86434 -1.64119
3.78388 2.8757 -1.64088
3.77517 2.88786 -1.64103
3.7684 2.90151 -1.64205
3.76162 2.91518 -1.64308
3.75482 2.92886 -1.64412
3.74802 2.94255 -1.64519
3.7412 2.95626 -1.64627
3.73436 2.96999 -1.64736
3.72752 2.98373 -1.64847
3.72066 2.99749 -1.6496
3.71379 3.01126 -1.65075
3.70757 3.02559 -1.6522
3.7017 3.04025 -1.65384
3.69582 3.05493 -1.6555
3.68992 3.06964 -1.65717
3.68435 3.08466 -1.65902
3.68019 3.10092 -1.66153
3.67602 3.11722 -1.66406
3.67183 3.13357 -1.66662
3.66762 3.14997 -1.6692
3.6634 3.16642 -1.6718
3.65916 3.18292 -1.67442
3.6552 3.19972 -1.67721
3.65225 3.21748 -1.68049
3.64929 3.23531 -1.6838
3.64631 3.25321 -1.68714
3.64384 3.27164 -1.69074
3.64178 3.29054 -1.69458
3.63971 3.30952 -1.69846
3.63763 3.32858 -1.70236
3.63553 3.34773 -1.7063
3.63343 3.36696 -1.71027
3.6313 3.38629 -1.71428
3.62917 3.40569 -1.71831
3.62702 3.42519 -1.72239
3.62486 3.44478 -1.7265
3.62268 3.46446 -1.73064
3.62049 3.48423 -1.73482
3.61874 3.50452 -1.73925
3.61878 3.52669 -1.7446
3.61882 3.54898 -1.74999
3.61885 3.57141 -1.75543
3.61889 3.59398 -1.76092
3.61891 3.61669 -1.76646
3.61894 3.63953 -1.77205
3.61995 3.66352 -1.77817
3.62148 3.6882 -1.78461
3.62303 3.71306 -1.79112
3.62458 3.7381 -1.79769
3.62615 3.76332 -1.80433
3.62773 3.78874 -1.81104
3.63091 3.81601 -1.81861
3.6375 3.84708 -1.82796
3.64415 3.87848 -1.83742
3.65087 3.9102 -1.847
3.65958 3.94433 -1.85767
3.66896 3.97946 -1.86877
3.69053 4.0282 -1.88621
3.71508 4.08069 -1.9053
3.76463 4.16133 -1.93742
5.76269 2.59725 -2.24132
5.71239 2.59622 -2.22492
5.66271 2.59516 -2.20874
5.6128 2.59368 -2.19244
5.56363 2.59222 -2.17641
5.51517 2.59078 -2.16063
5.46741 2.58937 -2.1451
5.42034 2.58797 -2.12981
5.37394 2.5866 -2.11476
5.32819 2.58525 -2.09995
5.28432 2.58453 -2.08585
5.24151 2.58405 -2.07215
5.19968 2.58379 -2.05882
5.15864 2.58365 -2.04578
5.11812 2.58352 -2.03292
5.0781 2.58339 -2.02024
5.04705 2.58761 -2.01111
5.04902 2.6087 -2.01516
4.97852 2.59215 -1.99027
4.94053 2.59215 -1.97833
4.903 2.59215 -1.96655
4.8659 2.59215 -1.95493
4.82925 2.59215 -1.94347
4.79302 2.59215 -1.93216
4.7572 2.59216 -1.921
4.7218 2.59216 -1.90999
4.6868 2.59216 -1.89912
4.6522 2.59216 -1.88839
4.61799 2.59216 -1.87781
4.58416 2.59216 -1.86735
4.5507 2.59217 -1.85704
4.51761 2.59217 -1.84685
4.49195 2.59626 -1.83969
4.44655 2.58871 -1.82442
4.4208 2.59237 -1.81719
4.39525 2.59599 -1.81004
4.3699 2.59959 -1.80295
4.34772 2.60494 -1.79717
4.32738 2.61128 -1.79215
4.30715 2.61759 -1.78718
4.28703 2.62386 -1.78224
4.26702 2.63009 -1.77735
4.24712 2.63629 -1.77251
4.22732 2.64246 -1.7677
4.20763 2.64858 -1.76294
4.18804 2.65468 -1.75822
4.16855 2.66074 -1.75355
4.14916 2.66677 -1.74891
4.12988 2.67276 -1.74432
4.11069 2.67872 -1.73976
4.09147 2.68457 -1.73519
4.07234 2.69038 -1.73066
4.05332 2.69616 -1.72617
4.03439 2.7019 -1.72172
4.01555 2.70762 -1.71731
3.99681 2.71331 -1.71293
3.97865 2.71929 -1.7088
3.96227 2.72642 -1.70544
3.94595 2.73351 -1.70211
3.92969 2.74058 -1.69881
3.91349 2.74762 -1.69553
3.89736 2.75463 -1.69229
3.88128 2.76161 -1.68907
3.86527 2.76856 -1.68588
3.84931 2.77549 -1.68272
3.83907 2.7865 -1.68206
3.82936 2.79788 -1.68166
3.81965 2.80925 -1.68126
3.80993 2.82061 -1.68088
3.80022 2.83196 -1.68052
3.7905 2.8433 -1.68016
3.78078 2.85464 -1.67983
3.77175 2.86649 -1.67981
3.765 2.88008 -1.68083
3.75825 2.89369 -1.68187
3.75148 2.90732 -1.68292
3.74469 2.92096 -1.68399
3.7379 2.93461 -1.68508
3.73109 2.94828 -1.68618
3.72427 2.96196 -1.6873
3.71744 2.97566 -1.68844
3.71059 2.98937 -1.68959
3.70373 3.0031 -1.69076
3.69686 3.01685 -1.69194
3.69079 3.03129 -1.69352
3.68492 3.04592 -1.69521
3.67902 3.06057 -1.69692
3.67453 3.07644 -1.6993
3.67037 3.09264 -1.70187
3.66619 3.10889 -1.70446
3.662 3.12518 -1.70707
3.65779 3.14153 -1.7097
3.65356 3.15792 -1.71236
3.64932 3.17435 -1.71504
3.64506 3.19084 -1.71775
3.64181 3.20828 -1.72096
3.63884 3.22604 -1.72434
3.63648 3.24444 -1.72805
3.63442 3.26319 -1.73194
3.63235 3.28202 -1.73587
3.63027 3.30093 -1.73982
3.62817 3.31992 -1.74381
3.62606 3.339 -1.74783
3.62393 3.35817 -1.75189
3.62179 3.37742 -1.75598
3.61964 3.39675 -1.76011
3.61747 3.41618 -1.76427
3.61529 3.43569 -1.76847
3.6131 3.4553 -1.7727
3.61165 3.47572 -1.77735
3.61136 3.49738 -1.78261
3.61169 3.51978 -1.78822
3.61293 3.54321 -1.79435
3.61442 3.56703 -1.80065
3.61591 3.59102 -1.80701
3.61741 3.61518 -1.81343
3.61892 3.63952 -1.81992
3.62045 3.66402 -1.82647
3.62198 3.68871 -1.83309
3.62353 3.71357 -1.83977
3.62509 3.73862 -1.84652
3.62666 3.76385 -1.85334
3.62824 3.78927 -1.86023
3.63186 3.81701 -1.86823
3.63845 3.84809 -1.87784
3.64533 3.87974 -1.88768
3.654 3.91356 -1.89853
3.66277 3.94776 -1.90953
3.67265 3.98346 -1.9212
3.69594 4.03411 -1.94001
3.74473 4.11326 -1.9724
5.61357 2.59403 -2.25077
5.56542 2.59305 -2.23472
5.51794 2.59208 -2.21892
5.47113 2.59113 -2.20337
5.42498 2.59019 -2.18805
5.37946 2.58926 -2.17296
5.33456 2.58834 -2.1581
5.29027 2.58744 -2.14347
5.24653 2.58652 -2.12903
5.20254 2.5852 -2.11446
5.15914 2.5839 -2.10012
5.11792 2.58342 -2.08664
5.0779 2.58329 -2.07362
5.07937 2.60418 -2.07756
5.08142 2.62544 -2.08176
4.97853 2.59215 -2.04294
4.94053 2.59215 -2.03068
4.903 2.59215 -2.01859
4.8659 2.59215 -2.00667
4.82925 2.59215 -1.9949
4.79301 2.59215 -1.9833
4.7572 2.59216 -1.97184
4.7218 2.59216 -1.96054
4.6868 2.59216 -1.94938
4.6522 2.59216 -1.93837
4.61799 2.59216 -1.9275
4.58416 2.59216 -1.91677
4.5507 2.59217 -1.90618
4.51761 2.59217 -1.89573
4.48488 2.59217 -1.8854
4.4525 2.59217 -1.87521
4.44094 2.60417 -1.87378
4.38489 2.58987 -1.85356
4.36173 2.59473 -1.84721
4.34132 2.60111 -1.84202
4.32103 2.60745 -1.83688
4.30085 2.61376 -1.83179
4.28078 2.62003 -1.82674
4.26082 2.62627 -1.82174
4.24096 2.63247 -1.81678
4.22121 2.63863 -1.81186
4.20156 2.64476 -1.80699
4.18201 2.65086 -1.80216
4.16257 2.65692 -1.79737
4.14323 2.66295 -1.79263
4.12398 2.66895 -1.78792
4.10484 2.67491 -1.78326
4.08579 2.68084 -1.77864
4.06678 2.6867 -1.77404
4.04779 2.69248 -1.76944
4.0289 2.69823 -1.76488
4.01011 2.70395 -1.76036
3.99152 2.70971 -1.75594
3.9751 2.71686 -1.75246
3.95873 2.72399 -1.74902
3.94244 2.73108 -1.7456
3.9262 2.73815 -1.74222
3.91003 2.74518 -1.73886
3.89391 2.75219 -1.73554
3.87786 2.75917 -1.73224
3.86187 2.76613 -1.72897
3.84593 2.77305 -1.72573
3.83005 2.77995 -1.72252
3.81634 2.78837 -1.72029
3.80667 2.7997 -1.71989
3.79699 2.81103 -1.7195
3.78731 2.82234 -1.71913
3.77763 2.83365 -1.71877
3.76829 2.84521 -1.71859
3.76157 2.85875 -1.71961
3.75483 2.8723 -1.72065
3.74809 2.88587 -1.72171
3.74133 2.89945 -1.72279
3.73456 2.91305 -1.72388
3.72778 2.92666 -1.72499
3.72098 2.94029 -1.72612
3.71417 2.95393 -1.72726
3.70735 2.96759 -1.72842
3.70052 2.98126 -1.72959
3.69367 2.99494 -1.73079
3.68681 3.00865 -1.732
3.67993 3.02237 -1.73322
3.67401 3.0369 -1.73493
3.66885 3.05211 -1.73701
3.6647 3.06821 -1.73961
3.66054 3.08436 -1.74223
3.65636 3.10055 -1.74487
3.65216 3.11679 -1.74754
3.64795 3.13307 -1.75023
3.64372 3.14941 -1.75294
3.63947 3.16579 -1.75568
3.63521 3.18221 -1.75844
3.63137 3.19908 -1.76144
3.62914 3.21745 -1.76526
3.62708 3.23605 -1.7692
3.625 3.25473 -1.77317
3.62365 3.27415 -1.77754
3.62252 3.29388 -1.78205
3.62138 3.31371 -1.78661
3.62024 3.33365 -1.79121
3.61909 3.35368 -1.79585
3.61794 3.37383 -1.80054
3.61678 3.39407 -1.80526
3.61562 3.41442 -1.81003
3.61445 3.43489 -1.81485
3.61576 3.45784 -1.82096
3.61733 3.48119 -1.82725
3.61864 3.50443 -1.83347
3.61883 3.52674 -1.83918
3.61902 3.54918 -1.84494
3.61922 3.57177 -1.85076
3.61942 3.59451 -1.85663
3.61962 3.6174 -1.86256
3.61983 3.64043 -1.86855
3.62095 3.66453 -1.87507
3.62249 3.68922 -1.88186
3.62404 3.71409 -1.88873
3.6256 3.73915 -1.89566
3.62717 3.76438 -1.90266
3.62875 3.78981 -1.90973
3.63281 3.818 -1.91818
3.6399 3.84963 -1.92831
3.6485 3.88311 -1.93932
3.65719 3.91697 -1.95047
3.66598 3.95123 -1.96178
3.67731 3.98852 -1.97455
3.74255 4.08499 -2.01647
5.42462 2.59001 -2.24465
5.3791 2.58909 -2.22918
5.33421 2.58817 -2.21394
5.28993 2.58727 -2.19892
5.24624 2.58638 -2.18413
5.20314 2.5855 -2.16956
5.1606 2.58463 -2.1552
5.11863 2.58378 -2.14106
5.0898 2.58935 -2.1324
5.08979 2.60952 -2.13582
5.01697 2.59215 -2.10867
4.97852 2.59215 -2.09593
4.94053 2.59215 -2.08336
4.903 2.59215 -2.07095
4.8659 2.59215 -2.05872
4.82925 2.59215 -2.04665
4.79302 2.59215 -2.03474
4.7572 2.59216 -2.02299
4.7218 2.59216 -2.01139
4.6868 2.59216 -1.99994
4.6522 2.59216 -1.98865
4.61799 2.59216 -1.9775
4.58415 2.59216 -1.96649
4.5507 2.59217 -1.95562
4.51761 2.59217 -1.9449
4.48488 2.59217 -1.93431
4.4525 2.59217 -1.92385
4.42047 2.59217 -1.91352
4.40521 2.60188 -1.91045
4.40337 2.6195 -1.91322
4.33527 2.59748 -1.88717
4.31497 2.6038 -1.88189
4.29478 2.61007 -1.87665
4.2747 2.61631 -1.87146
4.25473 2.62252 -1.86632
4.23487 2.62869 -1.86122
4.21511 2.63482 -1.85617
4.19547 2.64093 -1.85117
4.17597 2.64703 -1.84623
4.15657 2.65309 -1.84134
4.13727 2.65912 -1.83648
4.11807 2.66512 -1.83167
4.09897 2.67108 -1.8269
4.07996 2.67702 -1.82217
4.06105 2.68291 -1.81749
4.04223 2.68878 -1.81284
4.0234 2.69454 -1.80819
4.00465 2.70026 -1.80356
3.98793 2.70728 -1.79986
3.97153 2.71443 -1.7963
3.95519 2.72155 -1.79278
3.93892 2.72864 -1.78928
3.9227 2.7357 -1.78581
3.90654 2.74274 -1.78238
3.89045 2.74974 -1.77897
3.87442 2.75672 -1.77559
3.85845 2.76368 -1.77225
3.84253 2.7706 -1.76893
3.82667 2.7775 -1.76564
3.81087 2.78437 -1.76238
3.79513 2.79122 -1.75916
3.78405 2.80145 -1.7581
3.77441 2.81273 -1.75772
3.76479 2.82402 -1.75736
3.75809 2.8375 -1.75839
3.75138 2.85101 -1.75944
3.74466 2.86452 -1.7605
3.73792 2.87805 -1.76158
3.73118 2.89159 -1.76268
3.72442 2.90514 -1.7638
3.71765 2.91871 -1.76493
3.71086 2.9323 -1.76608
3.70407 2.94589 -1.76724
3.69726 2.95951 -1.76842
3.69043 2.97314 -1.76962
3.6836 2.98678 -1.77084
3.67675 3.00044 -1.77208
3.66989 3.01412 -1.77333
3.66316 3.02793 -1.77467
3.6593 3.04417 -1.77743
3.65589 3.06083 -1.78044
3.65247 3.07756 -1.78348
3.64904 3.09434 -1.78655
3.64559 3.11118 -1.78964
3.64214 3.12808 -1.79276
3.63867 3.14504 -1.79592
3.63519 3.16206 -1.7991
3.63169 3.17914 -1.80231
3.62854 3.19659 -1.80572
3.62743 3.21593 -1.8102
3.62632 3.23537 -1.81471
3.6252 3.2549 -1.81926
3.62408 3.27454 -1.82386
3.62295 3.29427 -1.82849
3.62181 3.31411 -1.83317
3.62067 3.33404 -1.83789
3.61952 3.35408 -1.84266
3.61837 3.37423 -1.84746
3.61861 3.39579 -1.85303
3.62017 3.41873 -1.85932
3.62174 3.44182 -1.86568
3.62333 3.46508 -1.8721
3.62493 3.4885 -1.87859
3.62583 3.51139 -1.88477
3.62604 3.53376 -1.89064
3.62626 3.55628 -1.89658
3.62648 3.57894 -1.90257
3.6267 3.60174 -1.90862
3.62693 3.6247 -1.91473
3.62716 3.6478 -1.9209
3.6274 3.67106 -1.92713
3.62764 3.69447 -1.93342
3.62789 3.71804 -1.93977
3.62814 3.74177 -1.94619
3.62839 3.76565 -1.95267
3.62927 3.79034 -1.95955
3.63454 3.81983 -1.96887
3.64553 3.85558 -1.98138
3.65746 3.89265 -1.99451
3.66956 3.93022 -2.00784
3.6845 3.97118 -2.02283
3.74085 4.05743 -2.06076
5.28958 2.5871 -2.25471
5.2459 2.58621 -2.23955
5.2028 2.58533 -2.22461
5.16027 2.58447 -2.20989
5.1183 2.58361 -2.19539
5.08959 2.58924 -2.18655
5.08958 2.60941 -2.19006
5.01697 2.59214 -2.16232
4.97853 2.59215 -2.14925
4.94053 2.59215 -2.13636
4.903 2.59215 -2.12364
4.8659 2.59215 -2.11109
4.82924 2.59215 -2.09872
4.79302 2.59215 -2.0865
4.7572 2.59216 -2.07445
4.7218 2.59216 -2.06256
4.6868 2.59216 -2.05082
4.6522 2.59216 -2.03924
4.61799 2.59216 -2.02781
4.58415 2.59216 -2.01652
4.5507 2.59217 -2.00538
4.51761 2.59217 -1.99438
4.48488 2.59217 -1.98352
4.4525 2.59217 -1.97279
4.42047 2.59217 -1.9622
4.38879 2.59217 -1.95175
4.37831 2.60459 -1.95072
4.37642 2.62214 -1.95354
4.3092 2.60031 -1.92718
4.28906 2.60659 -1.92183
4.26902 2.61283 -1.91652
4.24908 2.61904 -1.91126
4.22926 2.62521 -1.90605
4.20954 2.63134 -1.90088
4.18993 2.63745 -1.89576
4.17042 2.64351 -1.89069
4.15101 2.64955 -1.88566
4.1317 2.65555 -1.88067
4.1125 2.66151 -1.87573
4.09339 2.66745 -1.87083
4.07437 2.67335 -1.86597
4.05546 2.67922 -1.86116
4.03663 2.68506 -1.85638
4.01792 2.69087 -1.85166
4.00225 2.69865 -1.84834
3.986 2.70597 -1.84476
3.96938 2.71296 -1.841
3.95282 2.71992 -1.83728
3.93634 2.72685 -1.8336
3.91992 2.73376 -1.82994
3.90357 2.74065 -1.82633
3.88729 2.74751 -1.82274
3.87107 2.75434 -1.81919
3.85501 2.76122 -1.81572
3.83912 2.76814 -1.81232
3.82328 2.77504 -1.80896
3.8075 2.78191 -1.80562
3.79178 2.78875 -1.80231
3.77611 2.79557 -1.79904
3.76152 2.80312 -1.79628
3.75457 2.81635 -1.79718
3.74812 2.82998 -1.79834
3.74216 2.844 -1.79976
3.73619 2.85804 -1.80121
3.73021 2.8721 -1.80267
3.72422 2.88619 -1.80415
3.71822 2.90031 -1.80566
3.71221 2.91444 -1.80718
3.70619 2.9286 -1.80872
3.70016 2.94279 -1.81029
3.69413 2.957 -1.81188
3.68808 2.97124 -1.81348
3.68202 2.9855 -1.81511
3.67595 2.99979 -1.81676
3.66987 3.0141 -1.81843
3.66436 3.02893 -1.82042
3.66056 3.04521 -1.82327
3.65674 3.06155 -1.82616
3.65305 3.07805 -1.82914
3.64962 3.09483 -1.83229
3.64617 3.11168 -1.83546
3.64271 3.12858 -1.83866
3.63925 3.14554 -1.8419
3.63577 3.16257 -1.84516
3.63227 3.17965 -1.84845
3.62897 3.19697 -1.85188
3.62786 3.21631 -1.85647
3.62675 3.23575 -1.8611
3.62563 3.25529 -1.86577
3.62451 3.27493 -1.87048
3.62338 3.29467 -1.87523
3.62224 3.3145 -1.88003
3.62149 3.3348 -1.88507
3.62304 3.35734 -1.89137
3.6246 3.38003 -1.89772
3.62617 3.40288 -1.90414
3.62776 3.42589 -1.91062
3.62936 3.44906 -1.91717
3.63098 3.47239 -1.92378
3.63261 3.49589 -1.93046
3.63309 3.51843 -1.93658
3.63333 3.54086 -1.94264
3.63356 3.56344 -1.94875
3.63381 3.58617 -1.95491
3.63406 3.60905 -1.96115
3.63435 3.63211 -1.96746
3.63511 3.6558 -1.97409
3.63588 3.67965 -1.98078
3.63667 3.70366 -1.98754
3.63746 3.72785 -1.99437
3.63826 3.7522 -2.00127
3.63907 3.77674 -2.00824
3.64177 3.8034 -2.01632
3.65357 3.83982 -2.02953
3.66553 3.87673 -2.04293
3.67918 3.91577 -2.0574
3.69546 3.95795 -2.07345
3.73958 4.03055 -2.1053
3.80365 4.12555 -2.14867
5.11797 2.58345 -2.25005
5.08938 2.58913 -2.24105
5.08937 2.6093 -2.24465
5.08935 2.62954 -2.24828
4.97853 2.59215 -2.20291
4.94053 2.59215 -2.1897
4.903 2.59215 -2.17666
4.8659 2.59215 -2.1638
4.82925 2.59215 -2.15112
4.79302 2.59215 -2.1386
4.7572 2.59216 -2.12625
4.7218 2.59216 -2.11406
4.6868 2.59216 -2.10203
4.6522 2.59216 -2.09015
4.61799 2.59216 -2.07843
4.58415 2.59216 -2.06687
4.5507 2.59217 -2.05545
4.51761 2.59217 -2.04417
4.48488 2.59217 -2.03304
4.4525 2.59217 -2.02205
4.42047 2.59217 -2.0112
4.38879 2.59217 -2.00048
4.35743 2.59217 -1.98989
4.35146 2.60718 -1.9909
4.34953 2.62465 -1.99378
4.28331 2.6031 -1.96717
4.26331 2.60934 -1.96174
4.24342 2.61555 -1.95637
4.22364 2.62172 -1.95104
4.20396 2.62786 -1.94576
4.18439 2.63396 -1.94052
4.16492 2.64003 -1.93534
4.14555 2.64606 -1.93019
4.12628 2.65206 -1.9251
4.10712 2.65803 -1.92004
4.08807 2.66398 -1.91505
4.06911 2.6699 -1.91009
4.05025 2.67578 -1.90518
4.03149 2.68164 -1.90031
4.01282 2.68746 -1.89548
3.99826 2.69596 -1.8926
3.98446 2.70492 -1.89009
3.97069 2.71386 -1.8876
3.95696 2.72277 -1.88513
3.94326 2.73165 -1.88269
3.92775 2.73922 -1.87938
3.91135 2.74611 -1.87566
3.89502 2.75297 -1.87197
3.87876 2.75981 -1.86832
3.86256 2.76662 -1.8647
3.84643 2.77341 -1.86111
3.83036 2.78018 -1.85756
3.81436 2.78692 -1.85404
3.79842 2.79364 -1.85055
3.78255 2.80034 -1.8471
3.76674 2.80701 -1.84368
3.75856 2.81934 -1.84401
3.75154 2.83256 -1.84492
3.74451 2.84579 -1.84586
3.73749 2.85903 -1.84682
3.7315 2.8731 -1.84832
3.72551 2.88719 -1.84984
3.71951 2.90131 -1.85138
3.7135 2.91545 -1.85294
3.70748 2.92962 -1.85453
3.70145 2.94381 -1.85613
3.69541 2.95803 -1.85776
3.68936 2.97227 -1.85941
3.6833 2.98654 -1.86108
3.67723 3.00084 -1.86277
3.67115 3.01516 -1.86449
3.66612 3.03038 -1.86676
3.66232 3.04667 -1.86969
3.6585 3.06302 -1.87266
3.65468 3.07942 -1.87564
3.65084 3.09587 -1.87866
3.64699 3.11237 -1.88171
3.6433 3.12908 -1.88487
3.63983 3.14605 -1.88819
3.63635 3.16307 -1.89153
3.63286 3.18016 -1.89491
3.6294 3.19734 -1.89834
3.62829 3.21669 -1.90304
3.62718 3.23614 -1.90779
3.62606 3.25568 -1.91258
3.62494 3.27532 -1.91741
3.62593 3.29699 -1.92341
3.62748 3.3193 -1.92976
3.62904 3.34176 -1.93617
3.63062 3.36437 -1.94265
3.63221 3.38713 -1.94919
3.63381 3.41005 -1.95579
3.63543 3.43314 -1.96246
3.63745 3.45675 -1.96941
3.63977 3.4808 -1.97659
3.63991 3.50292 -1.98264
3.64165 3.52672 -1.98961
3.64329 3.55058 -1.9966
3.64406 3.57373 -2.00317
3.64483 3.59705 -2.0098
3.64562 3.62053 -2.0165
3.64641 3.64417 -2.02327
3.64722 3.66797 -2.03011
3.64803 3.69194 -2.03702
3.64886 3.71608 -2.044
3.6497 3.74039 -2.05104
3.65054 3.76487 -2.05816
3.6514 3.78953 -2.06536
3.66172 3.82423 -2.07798
3.67417 3.86147 -2.09193
3.69025 3.90288 -2.10806
3.70659 3.94494 -2.12448
3.73858 4.00414 -2.15001
4.97853 2.59215 -2.25692
4.94053 2.59215 -2.24339
4.903 2.59215 -2.23003
4.8659 2.59215 -2.21686
4.82925 2.59215 -2.20386
4.79302 2.59215 -2.19103
4.7572 2.59216 -2.17838
4.7218 2.59216 -2.16589
4.6868 2.59216 -2.15357
4.6522 2.59216 -2.1414
4.61799 2.59216 -2.12939
4.58415 2.59216 -2.11754
4.5507 2.59217 -2.10584
4.51761 2.59217 -2.09429
4.48488 2.59217 -2.08289
4.4525 2.59217 -2.07163
4.42047 2.59217 -2.06051
4.38879 2.59217 -2.04953
4.35743 2.59217 -2.03868
4.33724 2.59866 -2.03305
4.33654 2.61681 -2.03657
4.33584 2.63502 -2.04012
4.25758 2.60583 -2.00714
4.23773 2.61204 -2.00165
4.21799 2.61821 -1.99621
4.19836 2.62435 -1.99081
4.17885 2.63047 -1.98547
4.15944 2.63655 -1.98018
4.14013 2.6426 -1.97493
4.12092 2.64862 -1.96973
4.10181 2.6546 -1.96458
4.0828 2.66055 -1.95947
4.06388 2.66647 -1.95441
4.04506 2.67235 -1.94939
4.02633 2.67821 -1.94441
4.00808 2.68428 -1.93966
3.99426 2.69326 -1.93707
3.98048 2.70222 -1.93449
3.96673 2.71115 -1.93195
3.95302 2.72005 -1.92942
3.93934 2.72893 -1.92693
3.92569 2.73779 -1.92445
3.91208 2.74662 -1.922
3.8985 2.75543 -1.91958
3.88495 2.76422 -1.91718
3.87029 2.77216 -1.91424
3.85411 2.77895 -1.91055
3.83799 2.78572 -1.90689
3.82195 2.79246 -1.90327
3.80596 2.79918 -1.89969
3.79004 2.80588 -1.89614
3.77418 2.81256 -1.89262
3.76466 2.82392 -1.89229
3.75764 2.83716 -1.89323
3.7506 2.85042 -1.8942
3.74357 2.86369 -1.89518
3.73653 2.87697 -1.89619
3.72948 2.89027 -1.89721
3.72243 2.90359 -1.89826
3.71537 2.91693 -1.89933
3.70878 2.93065 -1.90066
3.70275 2.94484 -1.90231
3.69671 2.95907 -1.90398
3.69066 2.97331 -1.90567
3.6846 2.98759 -1.90738
3.67852 3.00189 -1.90912
3.67244 3.01622 -1.91087
3.66789 3.03184 -1.91345
3.66409 3.04815 -1.91646
3.66027 3.0645 -1.9195
3.65645 3.08091 -1.92256
3.65261 3.09737 -1.92566
3.64876 3.11389 -1.92878
3.6449 3.13046 -1.93194
3.64103 3.14708 -1.93512
3.63714 3.16376 -1.93833
3.63345 3.18067 -1.94169
3.62994 3.19783 -1.94518
3.62872 3.21707 -1.94994
3.62886 3.23764 -1.95547
3.6304 3.25957 -1.96181
3.63195 3.28165 -1.96822
3.63409 3.30441 -1.975
3.63632 3.32738 -1.98189
3.63857 3.35053 -1.98885
3.64084 3.37383 -1.99588
3.64313 3.39731 -2.00298
3.64544 3.42096 -2.01016
3.64603 3.44314 -2.01644
3.64593 3.46481 -2.0224
3.64583 3.4866 -2.02842
3.64645 3.50921 -2.0349
3.64822 3.53307 -2.04207
3.65 3.55711 -2.04932
3.6518 3.58132 -2.05664
3.65361 3.60571 -2.06404
3.65544 3.63028 -2.07151
3.65728 3.65503 -2.07906
3.65914 3.67997 -2.08669
3.66034 3.7044 -2.09401
3.66121 3.72866 -2.1012
3.6621 3.7531 -2.10847
3.66299 3.77771 -2.11582
3.66999 3.80882 -2.12677
3.68534 3.84891 -2.14267
3.7015 3.8902 -2.15916
4.97853 2.59215 -2.3113
4.94053 2.59215 -2.29743
4.903 2.59215 -2.28376
4.8659 2.59215 -2.27027
4.82924 2.59215 -2.25696
4.79301 2.59215 -2.24382
4.7572 2.59216 -2.23086
4.7218 2.59216 -2.21807
4.6868 2.59216 -2.20545
4.6522 2.59216 -2.19299
4.61799 2.59216 -2.1807
4.58416 2.59216 -2.16856
4.5507 2.59217 -2.15658
4.5176 2.59217 -2.14475
4.48488 2.59217 -2.13307
4.4525 2.59217 -2.12154
4.42047 2.59217 -2.11015
4.38879 2.59217 -2.09891
4.35743 2.59217 -2.0878
4.32835 2.59334 -2.07776
4.32764 2.61144 -2.08135
4.32692 2.6296 -2.08497
4.32619 2.64783 -2.08863
4.23581 2.61086 -2.04894
4.21507 2.6164 -2.04288
4.19445 2.62191 -2.03688
4.17396 2.62739 -2.03093
4.15399 2.6331 -2.02523
4.13473 2.63915 -2.01987
4.11556 2.64517 -2.01456
4.09648 2.65115 -2.0093
4.07751 2.6571 -2.00408
4.05863 2.66302 -1.99891
4.03985 2.66891 -1.99378
4.02116 2.67476 -1.9887
4.00404 2.68158 -1.98439
3.99024 2.69055 -1.98174
3.97648 2.6995 -1.97911
3.96275 2.70843 -1.97651
3.94905 2.71733 -1.97393
3.9354 2.7262 -1.97138
3.92177 2.73505 -1.96885
3.90817 2.74388 -1.96635
3.89461 2.75268 -1.96387
3.88108 2.76147 -1.96142
3.86759 2.77022 -1.95899
3.85412 2.77896 -1.95658
3.84068 2.78767 -1.9542
3.82728 2.79636 -1.95185
3.81358 2.80479 -1.94935
3.79761 2.81149 -1.9457
3.78171 2.81817 -1.94208
3.77083 2.82855 -1.94105
3.7638 2.84181 -1.94202
3.75676 2.85509 -1.94301
3.74971 2.86838 -1.94403
3.74266 2.8817 -1.94506
3.73561 2.89502 -1.94612
3.72855 2.90836 -1.94719
3.72149 2.92172 -1.94829
3.71442 2.9351 -1.94941
3.70734 2.9485 -1.95056
3.70026 2.96191 -1.95172
3.69317 2.97534 -1.95291
3.68608 2.98879 -1.95412
3.67983 3.00295 -1.9558
3.67374 3.01728 -1.9576
3.66967 3.03332 -1.96051
3.66587 3.04963 -1.96359
3.66206 3.066 -1.9667
3.65823 3.08241 -1.96985
3.6544 3.09889 -1.97302
3.65108 3.11587 -1.97651
3.64792 3.13305 -1.98012
3.64475 3.1503 -1.98377
3.64157 3.16761 -1.98745
3.63839 3.185 -1.99117
3.6355 3.20272 -1.99509
3.63767 3.22501 -2.00184
3.63987 3.24746 -2.00866
3.64208 3.27006 -2.01555
3.64432 3.29283 -2.02251
3.64658 3.31576 -2.02953
3.64885 3.33885 -2.03664
3.65115 3.36211 -2.04381
3.65233 3.38449 -2.05042
3.65225 3.40582 -2.05637
3.65216 3.42728 -2.06238
3.65208 3.44886 -2.06845
3.652 3.47058 -2.07458
3.65193 3.49243 -2.08076
3.65306 3.51557 -2.0877
3.65485 3.5395 -2.09507
3.65666 3.5636 -2.10252
3.65848 3.58788 -2.11005
3.66032 3.61234 -2.11765
3.66218 3.63698 -2.12533
3.66405 3.6618 -2.13309
3.66594 3.6868 -2.14093
3.66785 3.712 -2.14885
4.94053 2.59215 -2.35185
4.90299 2.59215 -2.33785
4.8659 2.59215 -2.32404
4.82925 2.59215 -2.31042
4.79301 2.59215 -2.29697
4.7572 2.59216 -2.2837
4.7218 2.59216 -2.27061
4.6868 2.59216 -2.25769
4.6522 2.59216 -2.24494
4.61799 2.59216 -2.23235
4.58415 2.59216 -2.21993
4.5507 2.59217 -2.20766
4.5176 2.59217 -2.19555
4.48488 2.59217 -2.1836
4.4525 2.59217 -2.17179
4.42047 2.59217 -2.16013
4.38878 2.59217 -2.14862
4.35743 2.59217 -2.13725
4.32641 2.59218 -2.12603
4.3187 2.60605 -2.12626
4.31797 2.62416 -2.12995
4.31723 2.64234 -2.13367
4.24045 2.61372 -2.09978
4.22081 2.61996 -2.09412
4.20128 2.62618 -2.08852
4.18161 2.6322 -2.08284
4.16118 2.63765 -2.07679
4.14087 2.64307 -2.07079
4.12068 2.64846 -2.06485
4.10062 2.65383 -2.05897
4.08067 2.65916 -2.05314
4.06083 2.66446 -2.04736
4.04111 2.66974 -2.04164
4.0215 2.67499 -2.03598
4.00432 2.68177 -2.03154
3.99254 2.6921 -2.02985
3.97919 2.70134 -2.02737
3.96539 2.71023 -2.02467
3.95164 2.7191 -2.02201
3.93792 2.72795 -2.01937
3.92425 2.73678 -2.01676
3.91062 2.7456 -2.01418
3.89703 2.75439 -2.01163
3.88347 2.76317 -2.00911
3.86996 2.77192 -2.00662
3.85648 2.78066 -2.00416
3.84304 2.78938 -2.00172
3.82964 2.79809 -1.99932
3.81628 2.80678 -1.99694
3.80296 2.81545 -1.99459
3.78967 2.8241 -1.99227
3.77892 2.83462 -1.99129
3.772 2.84801 -1.99236
3.76501 2.86136 -1.99341
3.75802 2.87474 -1.99448
3.75102 2.88813 -1.99558
3.74402 2.90154 -1.9967
3.73702 2.91497 -1.99784
3.73001 2.92842 -1.99901
3.723 2.94189 -2.0002
3.71599 2.95537 -2.00142
3.70897 2.96888 -2.00266
3.70195 2.98241 -2.00392
3.69492 2.99596 -2.00521
3.68789 3.00953 -2.00652
3.6817 3.02382 -2.00832
3.6781 3.04028 -2.01155
3.67449 3.0568 -2.01483
3.67121 3.07366 -2.01832
3.66808 3.09072 -2.02194
3.66494 3.10783 -2.02558
3.6618 3.12501 -2.02927
3.65865 3.14226 -2.03298
3.65549 3.15958 -2.03674
3.65232 3.17697 -2.04053
3.64915 3.19442 -2.04436
3.6479 3.21364 -2.04931
3.65012 3.23605 -2.05627
3.65237 3.25861 -2.0633
3.65463 3.28133 -2.0704
3.65692 3.30421 -2.07757
3.65862 3.32671 -2.08447
3.65854 3.34772 -2.09041
3.65847 3.36885 -2.09641
3.6584 3.39011 -2.10247
3.65833 3.41149 -2.10859
3.65826 3.433 -2.11476
3.6582 3.45464 -2.12099
3.65814 3.47641 -2.12729
3.65808 3.49831 -2.13364
3.65973 3.52199 -2.14105
3.66155 3.54599 -2.14863
3.66339 3.57016 -2.15629
4.90299 2.59215 -2.39233
4.8659 2.59215 -2.3782
4.82925 2.59215 -2.36425
4.79301 2.59215 -2.3505
4.7572 2.59216 -2.33692
4.7218 2.59216 -2.32352
4.6868 2.59216 -2.3103
4.6522 2.59216 -2.29725
4.61799 2.59216 -2.28437
4.58415 2.59216 -2.27166
4.5507 2.59217 -2.2591
4.51761 2.59217 -2.24671
4.48488 2.59217 -2.23448
4.4525 2.59217 -2.2224
4.42047 2.59217 -2.21047
4.38878 2.59217 -2.19869
4.35743 2.59217 -2.18706
4.32641 2.59218 -2.17557
4.32351 2.60895 -2.17822
4.32443 2.62809 -2.18284
4.32536 2.64732 -2.1875
4.32629 2.66663 -2.1922
4.22537 2.62279 -2.14523
4.2058 2.629 -2.13948
4.18634 2.63518 -2.13379
4.16698 2.64133 -2.12815
4.14773 2.64745 -2.12256
4.12823 2.65331 -2.11684
4.1081 2.65867 -2.11079
4.0881 2.664 -2.10481
4.0682 2.6693 -2.09888
4.04843 2.67457 -2.093
4.02876 2.67982 -2.08718
4.00921 2.68504 -2.08142
3.99691 2.69505 -2.07942
3.98513 2.70538 -2.07771
3.97338 2.71569 -2.07602
3.96164 2.72599 -2.07436
3.94993 2.73627 -2.07272
3.93708 2.74573 -2.0705
3.92339 2.75456 -2.06785
3.90974 2.76337 -2.06522
3.89612 2.77217 -2.06263
3.88255 2.78094 -2.06006
3.86902 2.7897 -2.05752
3.85552 2.79844 -2.05501
3.84206 2.80716 -2.05254
3.82864 2.81586 -2.05009
3.81526 2.82455 -2.04767
3.80191 2.83322 -2.04528
3.78987 2.84283 -2.0436
3.78294 2.85627 -2.0447
3.77602 2.86973 -2.04582
3.76909 2.88321 -2.04697
3.76216 2.8967 -2.04814
3.75517 2.91018 -2.04931
3.74815 2.92366 -2.05049
3.74114 2.93715 -2.05169
3.73411 2.95066 -2.05292
3.72708 2.9642 -2.05417
3.72005 2.97775 -2.05545
3.71302 2.99133 -2.05675
3.70598 3.00492 -2.05807
3.69893 3.01854 -2.05942
3.69438 3.03423 -2.06219
3.69078 3.05077 -2.06553
3.68718 3.06736 -2.0689
3.68357 3.08401 -2.0723
3.67995 3.10072 -2.07575
3.67633 3.11748 -2.07922
3.6727 3.13432 -2.08273
3.66951 3.15159 -2.08654
3.66636 3.16898 -2.0904
3.66321 3.18644 -2.09431
3.66005 3.20396 -2.09825
3.66047 3.22472 -2.1043
3.66275 3.24724 -2.11146
3.66488 3.26977 -2.11861
3.66481 3.29047 -2.12454
3.66475 3.31129 -2.13054
3.66469 3.33223 -2.13658
3.66463 3.35329 -2.14268
3.66458 3.37448 -2.14885
3.66453 3.39578 -2.15507
3.66447 3.41722 -2.16135
4.8659 2.59215 -2.43274
4.82924 2.59215 -2.41848
4.79301 2.59215 -2.4044
4.7572 2.59216 -2.39052
4.7218 2.59216 -2.37681
4.6868 2.59216 -2.36329
4.6522 2.59216 -2.34994
4.61799 2.59216 -2.33676
4.58415 2.59216 -2.32375
4.5507 2.59217 -2.31092
4.5176 2.59217 -2.29824
4.48488 2.59217 -2.28573
4.4525 2.59217 -2.27337
4.42047 2.59217 -2.26117
4.38879 2.59217 -2.24912
4.35743 2.59217 -2.23722
4.33365 2.59651 -2.22918
4.33458 2.61563 -2.23389
4.33553 2.63483 -2.23863
4.33648 2.65412 -2.24342
4.33744 2.6735 -2.24826
4.22997 2.62565 -2.19682
4.21036 2.63186 -2.19093
4.19087 2.63804 -2.18509
4.17148 2.64419 -2.17931
4.1522 2.6503 -2.17357
4.13302 2.65639 -2.1679
4.11393 2.66245 -2.16227
4.09496 2.66847 -2.15669
4.07566 2.67419 -2.15095
4.05582 2.67946 -2.14492
4.0361 2.6847 -2.13894
4.01649 2.68992 -2.13302
4.00133 2.69803 -2.12946
3.98953 2.70837 -2.12771
3.97776 2.71869 -2.12598
3.96601 2.72899 -2.12428
3.95428 2.73928 -2.1226
3.94257 2.74956 -2.12094
3.93088 2.75982 -2.11931
3.91921 2.77007 -2.1177
3.90755 2.7803 -2.11612
3.89532 2.79009 -2.11424
3.88172 2.79886 -2.11162
3.86816 2.80762 -2.10904
3.85465 2.81636 -2.10649
3.84117 2.82508 -2.10397
3.82773 2.83378 -2.10148
3.81432 2.84247 -2.09902
3.80095 2.85115 -2.09658
3.79402 2.86463 -2.09772
3.78708 2.87814 -2.09887
3.78014 2.89166 -2.10005
3.77319 2.9052 -2.10126
3.76624 2.91876 -2.10249
3.75929 2.93234 -2.10375
3.75233 2.94594 -2.10503
3.74537 2.95956 -2.10633
3.73832 2.97314 -2.10762
3.73128 2.98674 -2.10893
3.72423 3.00036 -2.11027
3.71718 3.014 -2.11163
3.71082 3.02824 -2.11342
3.70724 3.04479 -2.11683
3.70365 3.0614 -2.12026
3.70005 3.07807 -2.12374
3.69645 3.09479 -2.12725
3.69284 3.11158 -2.13079
3.68923 3.12842 -2.13437
3.68561 3.14533 -2.13799
3.68198 3.1623 -2.14164
3.67835 3.17934 -2.14534
3.67471 3.19644 -2.14906
3.67109 3.21363 -2.15285
4.79301 2.59215 -2.45871
4.7572 2.59216 -2.44451
4.7218 2.59216 -2.4305
4.6868 2.59216 -2.41666
4.6522 2.59216 -2.40301
4.61799 2.59216 -2.38954
4.58415 2.59216 -2.37624
4.5507 2.59217 -2.36311
4.51761 2.59217 -2.35015
4.48488 2.59217 -2.33735
