ply
format ascii 1.0
comment Created by Open3D
element vertex 1935
property double x
property double y
property double z
end_header
2.43882 1.78181 -1.45454
2.42974 1.78687 -1.45245
2.42068 1.79191 -1.45038
2.41163 1.79692 -1.44832
2.4026 1.80192 -1.44628
2.39359 1.80689 -1.44425
2.38459 1.81184 -1.44224
2.37561 1.81677 -1.44024
2.36673 1.82175 -1.4383
2.35881 1.82745 -1.43696
2.35091 1.83313 -1.43564
2.34301 1.83879 -1.43432
2.33511 1.84443 -1.43301
2.32722 1.85006 -1.43172
2.31934 1.85567 -1.43043
2.31146 1.86126 -1.42916
2.30359 1.86684 -1.4279
2.29572 1.8724 -1.42665
2.28785 1.87794 -1.42541
2.27999 1.88347 -1.42418
2.27214 1.88897 -1.42296
2.26429 1.89447 -1.42175
2.25644 1.89994 -1.42055
2.2486 1.9054 -1.41936
2.24077 1.91084 -1.41818
2.23293 1.91627 -1.41701
2.22511 1.92168 -1.41586
2.21728 1.92707 -1.41471
2.20946 1.93245 -1.41358
2.20165 1.93781 -1.41245
2.19384 1.94316 -1.41133
2.18603 1.94849 -1.41023
2.17823 1.9538 -1.40913
2.17043 1.9591 -1.40805
2.16263 1.96439 -1.40697
2.15484 1.96965 -1.40591
2.14792 1.9757 -1.40542
2.14116 1.98189 -1.40505
2.13439 1.98807 -1.40468
2.12838 1.99495 -1.40483
2.12249 2.00195 -1.40507
2.11659 2.00893 -1.40532
2.11067 2.01591 -1.40557
2.10453 2.02269 -1.4057
2.09828 2.02935 -1.40575
2.092 2.03599 -1.40581
2.08572 2.04263 -1.40588
2.07942 2.04925 -1.40595
2.0731 2.05586 -1.40603
2.06678 2.06245 -1.40611
2.06043 2.06904 -1.40619
2.05408 2.07561 -1.40628
2.04771 2.08217 -1.40637
2.04133 2.08872 -1.40647
2.03681 2.09719 -1.40788
2.03288 2.10629 -1.40971
2.02893 2.11542 -1.41156
2.02497 2.12456 -1.41342
2.021 2.13372 -1.41531
2.01701 2.14291 -1.4172
2.01301 2.15212 -1.41912
2.00899 2.16134 -1.42105
2.00497 2.1706 -1.423
2.00092 2.17987 -1.42497
1.99686 2.18917 -1.42695
1.99382 2.19962 -1.42969
1.99128 2.21068 -1.43282
1.98903 2.22213 -1.4362
1.98676 2.23362 -1.4396
1.98447 2.24517 -1.44303
1.98217 2.25677 -1.44649
1.97986 2.26842 -1.44998
1.97754 2.28012 -1.45349
1.9752 2.29187 -1.45704
1.97284 2.30369 -1.46062
1.97047 2.31555 -1.46422
1.96809 2.32747 -1.46786
1.96569 2.33945 -1.47152
1.96328 2.35148 -1.47522
1.96085 2.36357 -1.47894
1.9584 2.37572 -1.4827
1.95594 2.38793 -1.48649
1.95347 2.40019 -1.49031
1.95098 2.41251 -1.49417
1.94891 2.42545 -1.49839
1.94705 2.43873 -1.50282
1.94517 2.45208 -1.50729
1.94328 2.46551 -1.5118
1.94138 2.47902 -1.51635
1.93946 2.4926 -1.52093
2.72795 1.63594 -1.56453
2.71222 1.63807 -1.55844
2.69661 1.64018 -1.55241
2.68111 1.64227 -1.54644
2.66573 1.64435 -1.54053
2.65046 1.6464 -1.53468
2.63807 1.65017 -1.53049
2.62606 1.65412 -1.52652
2.61411 1.65805 -1.52258
2.60221 1.66194 -1.51867
2.59036 1.66582 -1.51479
2.58161 1.67163 -1.51273
2.57292 1.67746 -1.51071
2.56425 1.68327 -1.5087
2.55557 1.68904 -1.5067
2.54633 1.69441 -1.50437
2.53711 1.69976 -1.50206
2.52791 1.70508 -1.49976
2.51872 1.71038 -1.49748
2.50956 1.71566 -1.49522
2.50041 1.72092 -1.49297
2.49128 1.72615 -1.49074
2.48217 1.73136 -1.48852
2.47307 1.73655 -1.48632
2.46399 1.74171 -1.48413
2.45493 1.74686 -1.48196
2.44589 1.75198 -1.4798
2.43686 1.75708 -1.47766
2.42785 1.76216 -1.47554
2.41885 1.76722 -1.47342
2.40987 1.77226 -1.47133
2.40091 1.77727 -1.46924
2.39197 1.78227 -1.46718
2.38304 1.78724 -1.46512
2.37412 1.7922 -1.46309
2.36523 1.79713 -1.46106
2.35634 1.80204 -1.45905
2.34748 1.80693 -1.45706
2.33914 1.8122 -1.45539
2.33132 1.81785 -1.45406
2.3235 1.82348 -1.45274
2.31569 1.82909 -1.45143
2.30788 1.83468 -1.45013
2.30008 1.84026 -1.44884
2.29228 1.84582 -1.44756
2.28449 1.85136 -1.44629
2.2767 1.85689 -1.44503
2.26892 1.8624 -1.44379
2.26114 1.86789 -1.44255
2.25337 1.87337 -1.44132
2.2456 1.87883 -1.44011
2.23783 1.88427 -1.43891
2.23007 1.8897 -1.43771
2.22232 1.89511 -1.43653
2.21456 1.9005 -1.43536
2.20681 1.90588 -1.43419
2.19907 1.91124 -1.43304
2.19133 1.91659 -1.4319
2.18359 1.92192 -1.43077
2.17586 1.92724 -1.42965
2.16813 1.93254 -1.42854
2.16041 1.93782 -1.42744
2.15268 1.94309 -1.42635
2.14497 1.94834 -1.42527
2.13725 1.95358 -1.4242
2.12954 1.9588 -1.42314
2.12183 1.964 -1.42209
2.11413 1.9692 -1.42105
2.10643 1.97437 -1.42002
2.09873 1.97953 -1.419
2.09103 1.98468 -1.41799
2.08334 1.98981 -1.41699
2.07565 1.99493 -1.416
2.06942 2.00144 -1.41601
2.06499 2.0097 -1.41728
2.06118 2.01859 -1.419
2.05735 2.0275 -1.42072
2.05351 2.03643 -1.42247
2.04966 2.04537 -1.42423
2.0458 2.05434 -1.426
2.04192 2.06333 -1.4278
2.03803 2.07233 -1.42961
2.03413 2.08135 -1.43143
2.03021 2.0904 -1.43327
2.02628 2.09946 -1.43513
2.02234 2.10854 -1.43701
2.01838 2.11765 -1.4389
2.01441 2.12677 -1.44081
2.01043 2.13592 -1.44273
2.00643 2.14509 -1.44468
2.00242 2.15428 -1.44664
1.9984 2.16349 -1.44862
1.99436 2.17272 -1.45061
1.99077 2.18248 -1.45296
1.98776 2.19293 -1.45577
1.98478 2.20346 -1.45863
1.98251 2.21485 -1.46205
1.98024 2.22629 -1.4655
1.97794 2.23778 -1.46898
1.97564 2.24932 -1.47249
1.97332 2.26092 -1.47603
1.97099 2.27256 -1.4796
1.96864 2.28426 -1.4832
1.96627 2.29602 -1.48683
1.9639 2.30782 -1.49048
1.9615 2.31969 -1.49417
1.9591 2.3316 -1.49789
1.95668 2.34357 -1.50164
1.95424 2.3556 -1.50542
1.95178 2.36769 -1.50923
1.94932 2.37983 -1.51308
1.94683 2.39204 -1.51695
1.94467 2.40472 -1.52113
1.94281 2.41786 -1.52559
1.94094 2.43108 -1.53009
1.93905 2.44437 -1.53462
1.93715 2.45773 -1.5392
1.93523 2.47117 -1.54381
1.9333 2.48469 -1.54847
2.7181 1.63003 -1.59173
2.70246 1.63218 -1.58556
2.68694 1.6343 -1.57945
2.67154 1.63641 -1.57339
2.65625 1.6385 -1.5674
2.64107 1.64057 -1.56147
2.626 1.64263 -1.55559
2.61104 1.64466 -1.54977
2.59618 1.64668 -1.544
2.58143 1.64868 -1.53829
2.57087 1.65329 -1.53508
2.56167 1.65872 -1.53268
2.55249 1.66414 -1.53029
2.54332 1.66953 -1.52792
2.53417 1.6749 -1.52557
2.52505 1.68025 -1.52323
2.51593 1.68557 -1.52091
2.50684 1.69087 -1.5186
2.49776 1.69615 -1.51631
2.48871 1.70141 -1.51404
2.47966 1.70664 -1.51178
2.47064 1.71185 -1.50954
2.46163 1.71704 -1.50731
2.45264 1.72221 -1.5051
2.44367 1.72735 -1.50291
2.43471 1.73247 -1.50073
2.42577 1.73757 -1.49856
2.41685 1.74265 -1.49641
2.40794 1.74771 -1.49427
2.39905 1.75275 -1.49215
2.39017 1.75777 -1.49005
2.38131 1.76276 -1.48795
2.37246 1.76774 -1.48588
2.36363 1.77269 -1.48382
2.35482 1.77762 -1.48177
2.34602 1.78254 -1.47973
2.33723 1.78743 -1.47772
2.32846 1.7923 -1.47571
2.31971 1.79715 -1.47372
2.31189 1.8027 -1.47233
2.30416 1.8083 -1.471
2.29643 1.81388 -1.46968
2.2887 1.81944 -1.46838
2.28098 1.82498 -1.46708
2.27326 1.83051 -1.4658
2.26555 1.83602 -1.46453
2.25785 1.84151 -1.46326
2.25014 1.84699 -1.46201
2.24245 1.85245 -1.46077
2.23475 1.85789 -1.45954
2.22706 1.86332 -1.45832
2.21938 1.86873 -1.45711
2.2117 1.87413 -1.45591
2.20402 1.87951 -1.45472
2.19635 1.88487 -1.45354
2.18867 1.89022 -1.45238
2.18101 1.89555 -1.45122
2.17335 1.90086 -1.45007
2.16569 1.90616 -1.44894
2.15803 1.91144 -1.44781
2.15038 1.91671 -1.4467
2.14273 1.92196 -1.44559
2.13509 1.9272 -1.4445
2.12744 1.93242 -1.44341
2.11981 1.93763 -1.44234
2.11217 1.94282 -1.44127
2.10454 1.948 -1.44022
2.09691 1.95316 -1.43917
2.09036 1.95931 -1.43888
2.08441 1.96603 -1.43902
2.07846 1.97275 -1.43917
2.07251 1.97947 -1.43933
2.06677 1.98639 -1.43965
2.06242 1.99467 -1.44097
2.05834 2.00323 -1.44249
2.05453 2.01209 -1.44423
2.05071 2.02096 -1.44598
2.04688 2.02985 -1.44775
2.04303 2.03876 -1.44953
2.03917 2.04768 -1.45134
2.0353 2.05663 -1.45315
2.03141 2.0656 -1.45499
2.02751 2.07458 -1.45684
2.0236 2.08359 -1.45871
2.01967 2.09261 -1.4606
2.01574 2.10166 -1.4625
2.01179 2.11072 -1.46442
2.00782 2.11981 -1.46635
2.00384 2.12892 -1.46831
1.99985 2.13805 -1.47028
1.99584 2.1472 -1.47227
1.99182 2.15637 -1.47427
1.98779 2.16556 -1.4763
1.98469 2.17582 -1.47905
1.98168 2.18622 -1.4819
1.97865 2.19666 -1.48476
1.97599 2.20756 -1.48795
1.9737 2.21895 -1.49145
1.97141 2.23039 -1.49498
1.96909 2.24187 -1.49854
1.96676 2.25341 -1.50213
1.96442 2.265 -1.50575
1.96207 2.27664 -1.5094
1.9597 2.28833 -1.51308
1.95731 2.30008 -1.51679
1.95491 2.31189 -1.52053
1.95249 2.32374 -1.5243
1.95006 2.33566 -1.5281
1.94762 2.34762 -1.53194
1.94516 2.35965 -1.5358
1.94268 2.37173 -1.5397
1.94044 2.38418 -1.54383
1.93858 2.39719 -1.54832
1.93671 2.41026 -1.55284
1.93482 2.42341 -1.5574
1.93292 2.43664 -1.562
1.93101 2.44993 -1.56665
1.92908 2.46331 -1.57133
1.92713 2.47676 -1.57605
2.70824 1.62412 -1.61896
2.6927 1.62628 -1.6127
2.67727 1.62842 -1.60651
2.66196 1.63054 -1.60038
2.6471 1.63286 -1.59451
2.63243 1.63521 -1.58875
2.61787 1.63754 -1.58305
2.60341 1.63986 -1.5774
2.58905 1.64215 -1.5718
2.57585 1.64511 -1.56691
2.56408 1.64892 -1.56288
2.55237 1.6527 -1.55889
2.54063 1.65641 -1.55488
2.52896 1.66011 -1.55091
2.51734 1.66378 -1.54697
2.50578 1.66743 -1.54307
2.49494 1.67151 -1.5396
2.48595 1.67678 -1.53729
2.47698 1.68204 -1.53499
2.46803 1.68727 -1.53271
2.45909 1.69248 -1.53044
2.45017 1.69767 -1.52819
2.44127 1.70284 -1.52595
2.43238 1.70798 -1.52373
2.42351 1.7131 -1.52153
2.41466 1.7182 -1.51934
2.40582 1.72328 -1.51716
2.397 1.72834 -1.515
2.38819 1.73338 -1.51286
2.3794 1.73839 -1.51073
2.37062 1.74339 -1.50861
2.36186 1.74836 -1.50651
2.35311 1.75332 -1.50443
2.34438 1.75825 -1.50236
2.33566 1.76317 -1.5003
2.32696 1.76806 -1.49826
2.31828 1.77293 -1.49623
2.3096 1.77778 -1.49422
2.30094 1.78262 -1.49222
2.29262 1.78768 -1.49045
2.28497 1.79324 -1.48911
2.27732 1.79879 -1.48779
2.26968 1.80432 -1.48648
2.26204 1.80983 -1.48518
2.25441 1.81532 -1.48389
2.24677 1.8208 -1.48261
2.23915 1.82626 -1.48134
2.23153 1.83171 -1.48009
2.22391 1.83713 -1.47884
2.21629 1.84255 -1.4776
2.20868 1.84794 -1.47638
2.20107 1.85332 -1.47517
2.19347 1.85868 -1.47396
2.18587 1.86403 -1.47277
2.17828 1.86936 -1.47159
2.17068 1.87468 -1.47041
2.16309 1.87998 -1.46925
2.15551 1.88526 -1.4681
2.14793 1.89053 -1.46696
2.14035 1.89578 -1.46583
2.13277 1.90102 -1.46471
2.1252 1.90624 -1.4636
2.11832 1.91207 -1.46298
2.11243 1.91878 -1.46305
2.10652 1.92549 -1.46313
2.10062 1.93219 -1.46322
2.09471 1.9389 -1.46332
2.08879 1.9456 -1.46344
2.08287 1.95229 -1.46356
2.07694 1.95899 -1.4637
2.07101 1.96568 -1.46385
2.06508 1.97237 -1.46401
2.06065 1.98051 -1.46526
2.05631 1.98876 -1.46659
2.05196 1.99702 -1.46794
2.04788 2.00557 -1.4695
2.04406 2.0144 -1.47128
2.04023 2.02325 -1.47308
2.03638 2.03213 -1.47489
2.03253 2.04102 -1.47671
2.02866 2.04993 -1.47856
2.02478 2.05885 -1.48042
2.02088 2.0678 -1.4823
2.01698 2.07677 -1.48419
2.01306 2.08576 -1.48611
2.00912 2.09476 -1.48803
2.00518 2.10379 -1.48998
2.00121 2.11284 -1.49194
1.99724 2.12191 -1.49393
1.99325 2.13099 -1.49592
1.98925 2.1401 -1.49794
1.98523 2.14924 -1.49998
1.9816 2.15882 -1.50233
1.9786 2.16914 -1.5052
1.97559 2.1795 -1.50808
1.97255 2.18989 -1.51099
1.96951 2.20032 -1.51393
1.96716 2.21159 -1.51744
1.96486 2.22297 -1.52102
1.96253 2.2344 -1.52463
1.9602 2.24589 -1.52827
1.95785 2.25742 -1.53194
1.95549 2.269 -1.53564
1.95311 2.28064 -1.53937
1.95071 2.29233 -1.54313
1.9483 2.30407 -1.54693
1.94588 2.31587 -1.55075
1.94344 2.32772 -1.55461
1.94099 2.33963 -1.55849
1.93852 2.3516 -1.56241
1.9362 2.36382 -1.5665
1.93434 2.37669 -1.57101
1.93247 2.38963 -1.57556
1.93059 2.40265 -1.58015
1.92869 2.41573 -1.58477
1.92678 2.42889 -1.58944
1.92485 2.44213 -1.59415
1.92291 2.45543 -1.5989
1.92095 2.46882 -1.60369
2.69997 1.61916 -1.6472
2.68495 1.6216 -1.64112
2.67003 1.62402 -1.6351
2.65522 1.62641 -1.62914
2.64051 1.62879 -1.62324
2.6259 1.63115 -1.61739
2.6114 1.6335 -1.6116
2.597 1.63582 -1.60587
2.58359 1.63869 -1.60074
2.57179 1.64252 -1.59661
2.56006 1.64633 -1.59251
2.54838 1.65012 -1.58845
2.53676 1.65389 -1.58443
2.52516 1.65761 -1.58041
2.51356 1.66128 -1.57641
2.50203 1.66493 -1.57244
2.49055 1.66857 -1.5685
2.47913 1.67218 -1.56459
2.46776 1.67578 -1.56072
2.45645 1.67936 -1.55688
2.44519 1.68291 -1.55308
2.43398 1.68645 -1.5493
2.42283 1.68997 -1.54556
2.41229 1.69387 -1.54221
2.40352 1.69897 -1.54
2.39477 1.70405 -1.5378
2.38603 1.70911 -1.53562
2.37731 1.71414 -1.53345
2.3686 1.71916 -1.5313
2.35991 1.72415 -1.52916
2.35123 1.72913 -1.52704
2.34256 1.73408 -1.52493
2.33392 1.73901 -1.52283
2.32528 1.74393 -1.52075
2.31666 1.74882 -1.51869
2.30806 1.75369 -1.51664
2.29947 1.75854 -1.5146
2.29089 1.76338 -1.51258
2.28232 1.76819 -1.51058
2.27377 1.77298 -1.50858
2.26595 1.77831 -1.50707
2.25838 1.78382 -1.50575
2.25082 1.78932 -1.50443
2.24326 1.7948 -1.50313
2.2357 1.80026 -1.50183
2.22815 1.80571 -1.50055
2.2206 1.81113 -1.49928
2.21306 1.81655 -1.49802
2.20552 1.82194 -1.49676
2.19798 1.82732 -1.49552
2.19045 1.83269 -1.4943
2.18292 1.83803 -1.49308
2.17539 1.84336 -1.49187
2.16787 1.84868 -1.49067
2.16035 1.85398 -1.48948
2.15283 1.85926 -1.48831
2.14588 1.86502 -1.48753
2.14003 1.87172 -1.48753
2.13417 1.87842 -1.48753
2.12831 1.88512 -1.48755
2.12244 1.89181 -1.48759
2.11657 1.8985 -1.48763
2.1107 1.90519 -1.48769
2.10482 1.91188 -1.48775
2.09894 1.91856 -1.48784
2.09306 1.92524 -1.48793
2.08716 1.93191 -1.48803
2.08127 1.93859 -1.48815
2.07537 1.94526 -1.48828
2.06947 1.95193 -1.48842
2.06356 1.9586 -1.48857
2.05883 1.9664 -1.48959
2.05451 1.97461 -1.49093
2.05018 1.98283 -1.49228
2.04583 1.99106 -1.49365
2.04148 1.9993 -1.49503
2.03739 2.00783 -1.49663
2.03357 2.01665 -1.49845
2.02973 2.02548 -1.50029
2.02588 2.03434 -1.50214
2.02201 2.04321 -1.50401
2.01813 2.0521 -1.5059
2.01424 2.06101 -1.5078
2.01034 2.06994 -1.50972
2.00643 2.07889 -1.51166
2.0025 2.08785 -1.51362
1.99855 2.09684 -1.51559
1.9946 2.10585 -1.51758
1.99063 2.11488 -1.51959
1.98664 2.12393 -1.52162
1.98265 2.133 -1.52366
1.97863 2.14209 -1.52573
1.9755 2.15218 -1.5285
1.9725 2.16245 -1.5314
1.96948 2.17276 -1.53433
1.96644 2.18311 -1.53728
1.9634 2.19349 -1.54026
1.96061 2.20423 -1.54348
1.95829 2.21555 -1.54711
1.95596 2.22692 -1.55077
1.95362 2.23835 -1.55446
1.95126 2.24983 -1.55818
1.94889 2.26135 -1.56193
1.94651 2.27293 -1.56571
1.9441 2.28456 -1.56953
1.94169 2.29625 -1.57337
1.93926 2.30799 -1.57725
1.93681 2.31978 -1.58115
1.93435 2.33163 -1.58509
1.93196 2.34364 -1.58914
1.9301 2.35638 -1.59367
1.92823 2.36919 -1.59825
1.92635 2.38207 -1.60286
1.92446 2.39502 -1.60751
1.92255 2.40804 -1.6122
1.92062 2.42113 -1.61694
1.91868 2.4343 -1.62171
1.91673 2.44754 -1.62653
1.91476 2.46086 -1.63139
2.69311 1.61504 -1.6764
2.67815 1.61749 -1.67023
2.66329 1.61992 -1.66412
2.64854 1.62233 -1.65807
2.6339 1.62471 -1.65208
2.61935 1.62708 -1.64614
2.60491 1.62943 -1.64026
2.59131 1.63223 -1.63491
2.57948 1.63609 -1.63067
2.56772 1.63992 -1.62647
2.55601 1.64373 -1.62231
2.54436 1.64752 -1.61818
2.53277 1.65129 -1.61409
2.52124 1.65504 -1.61003
2.50976 1.65877 -1.60601
2.49826 1.66243 -1.60197
2.48681 1.66606 -1.59796
2.47541 1.66968 -1.59399
2.46407 1.67327 -1.59005
2.45278 1.67685 -1.58615
2.44155 1.68041 -1.58228
2.43037 1.68395 -1.57844
2.41924 1.68747 -1.57464
2.40816 1.69097 -1.57086
2.39714 1.69446 -1.56712
2.38616 1.69793 -1.56342
2.37524 1.70138 -1.55974
2.36436 1.70481 -1.55609
2.35353 1.70823 -1.55248
2.34276 1.71162 -1.5489
2.33202 1.71501 -1.54534
2.32342 1.71991 -1.5432
2.31487 1.72482 -1.5411
2.30633 1.72971 -1.53901
2.2978 1.73458 -1.53694
2.28929 1.73944 -1.53488
2.2808 1.74427 -1.53284
2.27231 1.74908 -1.53081
2.26384 1.75387 -1.52879
2.25539 1.75864 -1.52679
2.24707 1.7635 -1.52489
2.23958 1.76898 -1.52356
2.2321 1.77444 -1.52224
2.22462 1.77989 -1.52093
2.21714 1.78532 -1.51963
2.20967 1.79073 -1.51835
2.2022 1.79613 -1.51707
2.19473 1.80151 -1.5158
2.18727 1.80687 -1.51455
2.17981 1.81222 -1.5133
2.17304 1.81812 -1.51255
2.16723 1.82482 -1.51247
2.16141 1.83152 -1.51241
2.1556 1.83821 -1.51235
2.14977 1.8449 -1.51231
2.14395 1.85159 -1.51228
2.13812 1.85827 -1.51227
2.13229 1.86495 -1.51227
2.12645 1.87163 -1.51227
2.12061 1.8783 -1.51229
2.11477 1.88497 -1.51233
2.10892 1.89163 -1.51237
2.10307 1.8983 -1.51243
2.09721 1.90496 -1.5125
2.09135 1.91162 -1.51258
2.08548 1.91827 -1.51267
2.07961 1.92492 -1.51278
2.07374 1.93157 -1.5129
2.06786 1.93822 -1.51302
2.06198 1.94487 -1.51317
2.05697 1.95235 -1.51397
2.05267 1.96051 -1.51531
2.04835 1.96869 -1.51667
2.04403 1.97688 -1.51804
2.03969 1.98508 -1.51943
2.03534 1.99329 -1.52083
2.03098 2.00152 -1.52225
2.02689 2.01003 -1.52389
2.02305 2.01882 -1.52575
2.01921 2.02764 -1.52763
2.01535 2.03648 -1.52952
2.01148 2.04533 -1.53143
2.00759 2.0542 -1.53336
2.00369 2.06309 -1.53531
1.99978 2.072 -1.53728
1.99586 2.08093 -1.53926
1.99192 2.08988 -1.54126
1.98797 2.09885 -1.54328
1.984 2.10784 -1.54531
1.98002 2.11685 -1.54737
1.97603 2.12588 -1.54944
1.97238 2.13532 -1.55181
1.96938 2.14551 -1.55473
1.96638 2.15574 -1.55768
1.96336 2.16601 -1.56065
1.96032 2.17631 -1.56364
1.95727 2.18665 -1.56666
1.9542 2.19702 -1.5697
1.95172 2.20811 -1.57325
1.94938 2.21943 -1.57696
1.94703 2.2308 -1.5807
1.94467 2.24222 -1.58447
1.94229 2.25369 -1.58827
1.93989 2.26521 -1.5921
1.93748 2.27678 -1.59597
1.93506 2.28841 -1.59986
1.93262 2.30009 -1.60379
1.93016 2.31182 -1.60775
1.92771 2.32363 -1.61176
1.92586 2.33624 -1.61631
1.92399 2.34892 -1.62091
1.92211 2.36166 -1.62555
1.92022 2.37448 -1.63022
1.91831 2.38737 -1.63494
1.91639 2.40032 -1.6397
1.91445 2.41335 -1.6445
1.9125 2.42646 -1.64934
1.91054 2.43963 -1.65422
1.90856 2.45288 -1.65915
2.68622 1.61091 -1.70572
2.67132 1.61337 -1.69946
2.65653 1.61581 -1.69325
2.64184 1.61822 -1.68711
2.62726 1.62062 -1.68103
2.61277 1.623 -1.675
2.599 1.62574 -1.66943
2.58715 1.62961 -1.66508
2.57535 1.63347 -1.66078
2.56362 1.6373 -1.65651
2.55194 1.64111 -1.65227
2.54032 1.6449 -1.64808
2.52876 1.64867 -1.64391
2.51725 1.65242 -1.63979
2.5058 1.65615 -1.6357
2.49441 1.65986 -1.63164
2.48304 1.66354 -1.62761
2.47167 1.66715 -1.62357
2.46036 1.67075 -1.61956
2.4491 1.67433 -1.61559
2.43789 1.67789 -1.61165
2.42673 1.68143 -1.60775
2.41563 1.68495 -1.60388
2.40458 1.68845 -1.60004
2.39358 1.69194 -1.59624
2.38263 1.69541 -1.59247
2.37172 1.69886 -1.58873
2.36087 1.70229 -1.58502
2.35007 1.70571 -1.58135
2.33932 1.70911 -1.5777
2.32861 1.71249 -1.57409
2.31795 1.71586 -1.5705
2.30733 1.71921 -1.56695
2.29677 1.72254 -1.56343
2.28625 1.72586 -1.55994
2.27577 1.72916 -1.55647
2.26534 1.73244 -1.55304
2.25495 1.73571 -1.54964
2.2455 1.73966 -1.54688
2.23713 1.74441 -1.54487
2.22878 1.74915 -1.54288
2.22094 1.75425 -1.54124
2.21353 1.75968 -1.53991
2.20613 1.76509 -1.5386
2.19981 1.77136 -1.53805
2.19404 1.77806 -1.5379
2.18826 1.78476 -1.53776
2.18249 1.79145 -1.53764
2.17671 1.79814 -1.53752
2.17092 1.80483 -1.53742
2.16514 1.81151 -1.53733
2.15935 1.81819 -1.53725
2.15355 1.82486 -1.53719
2.14776 1.83153 -1.53713
2.14196 1.83819 -1.53709
2.13615 1.84486 -1.53706
2.13034 1.85151 -1.53705
2.12453 1.85817 -1.53704
2.11872 1.86482 -1.53705
2.1129 1.87147 -1.53707
2.10708 1.87811 -1.53711
2.10125 1.88476 -1.53715
2.09542 1.8914 -1.53721
2.08958 1.89803 -1.53728
2.08374 1.90466 -1.53736
2.0779 1.91129 -1.53746
2.07205 1.91792 -1.53756
2.06619 1.92455 -1.53768
2.06034 1.93117 -1.53781
2.05507 1.93835 -1.5384
2.05078 1.94647 -1.53975
2.04648 1.95461 -1.54111
2.04218 1.96276 -1.54248
2.03786 1.97091 -1.54387
2.03353 1.97908 -1.54528
2.02919 1.98727 -1.5467
2.02484 1.99546 -1.54814
2.02048 2.00367 -1.54959
2.01637 2.01215 -1.55126
2.01253 2.02093 -1.55317
2.00867 2.02973 -1.55509
2.0048 2.03854 -1.55702
2.00092 2.04738 -1.55898
1.99703 2.05623 -1.56095
1.99312 2.0651 -1.56294
1.9892 2.07399 -1.56495
1.98527 2.0829 -1.56698
1.98132 2.09183 -1.56902
1.97736 2.10078 -1.57109
1.97338 2.10975 -1.57317
1.96939 2.11874 -1.57527
1.96625 2.12868 -1.57807
1.96325 2.13883 -1.58103
1.96024 2.14901 -1.58402
1.95722 2.15924 -1.58703
1.95418 2.16949 -1.59006
1.95113 2.17979 -1.59312
1.94806 2.19012 -1.59621
1.94513 2.20066 -1.59945
1.94279 2.21192 -1.6032
1.94043 2.22323 -1.60699
1.93805 2.2346 -1.61081
1.93567 2.24601 -1.61466
1.93326 2.25747 -1.61855
1.93085 2.26899 -1.62246
1.92841 2.28055 -1.62641
1.92597 2.29217 -1.63039
1.9235 2.30385 -1.6344
1.9216 2.31627 -1.63894
1.91974 2.32882 -1.64356
1.91786 2.34144 -1.64822
1.91597 2.35412 -1.65292
1.91407 2.36687 -1.65766
1.91215 2.3797 -1.66244
1.91021 2.39259 -1.66726
1.90827 2.40556 -1.67212
1.9063 2.41859 -1.67703
1.90433 2.4317 -1.68198
1.90233 2.44489 -1.68697
2.67931 1.60677 -1.73515
2.66447 1.60923 -1.72879
2.64974 1.61168 -1.7225
2.63512 1.6141 -1.71627
2.62059 1.61651 -1.7101
2.60667 1.61921 -1.70431
2.59479 1.6231 -1.69986
2.58297 1.62698 -1.69544
2.5712 1.63083 -1.69106
2.5595 1.63467 -1.68672
2.54785 1.63848 -1.68241
2.53626 1.64227 -1.67815
2.52472 1.64604 -1.67392
2.51325 1.64979 -1.66972
2.50182 1.65352 -1.66556
2.49046 1.65723 -1.66144
2.47914 1.66092 -1.65735
2.46788 1.66459 -1.6533
2.45662 1.66821 -1.64925
2.44539 1.67179 -1.64521
2.4342 1.67535 -1.64121
2.42307 1.67889 -1.63724
2.412 1.68242 -1.6333
2.40097 1.68592 -1.6294
2.38999 1.68941 -1.62553
2.37907 1.69288 -1.6217
2.36819 1.69633 -1.6179
2.35737 1.69976 -1.61413
2.34659 1.70318 -1.61039
2.33585 1.70658 -1.60668
2.32517 1.70997 -1.60301
2.31453 1.71333 -1.59936
2.30394 1.71668 -1.59575
2.2934 1.72002 -1.59217
2.2829 1.72333 -1.58862
2.27245 1.72664 -1.5851
2.26204 1.72992 -1.58161
2.25167 1.73319 -1.57814
2.24135 1.73645 -1.57471
2.23107 1.73969 -1.57131
2.22084 1.74291 -1.56793
2.21155 1.74684 -1.56523
2.20325 1.75151 -1.56323
2.19751 1.7582 -1.56305
2.19176 1.76488 -1.56289
2.18601 1.77156 -1.56273
2.18026 1.77823 -1.56259
2.17451 1.7849 -1.56247
2.16875 1.79157 -1.56235
2.16299 1.79823 -1.56225
2.15722 1.80489 -1.56216
2.15145 1.81154 -1.56208
2.14568 1.81819 -1.56201
2.1399 1.82483 -1.56196
2.13413 1.83147 -1.56192
2.12834 1.83811 -1.56189
2.12256 1.84475 -1.56187
2.11677 1.85138 -1.56187
2.11097 1.858 -1.56188
2.10517 1.86463 -1.5619
2.09937 1.87125 -1.56193
2.09357 1.87786 -1.56198
2.08776 1.88448 -1.56204
2.08194 1.89109 -1.56211
2.07612 1.8977 -1.56219
2.0703 1.90431 -1.56228
2.06447 1.91091 -1.56239
2.05864 1.91751 -1.56251
2.05312 1.92441 -1.56289
2.04885 1.93249 -1.56424
2.04457 1.94058 -1.5656
2.04028 1.94869 -1.56698
2.03598 1.9568 -1.56837
2.03167 1.96493 -1.56978
2.02735 1.97307 -1.57121
2.02302 1.98122 -1.57265
2.01868 1.98939 -1.57411
2.01432 1.99756 -1.57558
2.00996 2.00575 -1.57707
2.00583 2.0142 -1.57877
2.00198 2.02296 -1.58071
1.99811 2.03174 -1.58268
1.99424 2.04054 -1.58466
1.99035 2.04935 -1.58666
1.98644 2.05818 -1.58867
1.98253 2.06704 -1.59071
1.9786 2.07591 -1.59276
1.97466 2.0848 -1.59483
1.9707 2.09371 -1.59692
1.96673 2.10264 -1.59903
1.96308 2.11195 -1.60143
1.9601 2.12202 -1.60441
1.9571 2.13213 -1.60741
1.95409 2.14227 -1.61044
1.95106 2.15245 -1.61349
1.94802 2.16266 -1.61656
1.94497 2.1729 -1.61966
1.9419 2.18319 -1.62279
1.93881 2.19351 -1.62594
1.93617 2.20439 -1.62951
1.93381 2.21565 -1.63335
1.93143 2.22695 -1.63722
1.92903 2.23831 -1.64112
1.92662 2.24971 -1.64505
1.9242 2.26117 -1.64902
1.92176 2.27268 -1.65301
1.9193 2.28424 -1.65704
1.91735 2.29647 -1.66155
1.91548 2.30889 -1.66619
1.91361 2.32138 -1.67087
1.91172 2.33394 -1.6756
1.90982 2.34656 -1.68036
1.9079 2.35925 -1.68516
1.90597 2.37201 -1.69001
1.90402 2.38484 -1.69489
1.90206 2.39774 -1.69982
1.90009 2.41071 -1.70479
1.8981 2.42376 -1.70981
1.8961 2.43687 -1.71486
2.67236 1.6026 -1.76469
2.65759 1.60508 -1.75825
2.64293 1.60753 -1.75187
2.62836 1.60996 -1.74555
2.61431 1.61264 -1.73956
2.6024 1.61655 -1.73499
2.59055 1.62045 -1.73046
2.57876 1.62433 -1.72597
2.56702 1.62818 -1.72152
2.55535 1.63202 -1.71711
2.54373 1.63583 -1.71274
2.53217 1.63962 -1.7084
2.52066 1.64339 -1.7041
2.50921 1.64714 -1.69984
2.49782 1.65087 -1.69561
2.48648 1.65459 -1.69142
2.47519 1.65828 -1.68726
2.46396 1.66195 -1.68314
2.45278 1.6656 -1.67906
2.44165 1.66924 -1.67501
2.4305 1.6728 -1.67094
2.41939 1.67634 -1.66691
2.40834 1.67987 -1.66291
2.39734 1.68337 -1.65894
2.38639 1.68686 -1.65501
2.37549 1.69033 -1.65111
2.36464 1.69378 -1.64725
2.35383 1.69722 -1.64341
2.34308 1.70064 -1.63961
2.33237 1.70404 -1.63585
2.32171 1.70742 -1.63211
2.3111 1.71079 -1.62841
2.30053 1.71414 -1.62473
2.29001 1.71747 -1.62109
2.27954 1.72079 -1.61748
2.2691 1.7241 -1.6139
2.25872 1.72738 -1.61035
2.24838 1.73065 -1.60683
2.23808 1.73391 -1.60334
2.22782 1.73715 -1.59988
2.21851 1.74108 -1.5971
2.20938 1.74512 -1.59446
2.20028 1.74915 -1.59183
2.19121 1.75316 -1.58923
2.1837 1.75839 -1.58777
2.17797 1.76504 -1.58761
2.17224 1.77169 -1.58747
2.16651 1.77834 -1.58734
2.16077 1.78498 -1.58723
2.15503 1.79162 -1.58712
2.14929 1.79825 -1.58703
2.14354 1.80488 -1.58695
2.13779 1.8115 -1.58688
2.13204 1.81812 -1.58683
2.12628 1.82474 -1.58679
2.12052 1.83135 -1.58676
2.11475 1.83796 -1.58674
2.10899 1.84457 -1.58674
2.10321 1.85117 -1.58675
2.09744 1.85777 -1.58677
2.09165 1.86437 -1.5868
2.08587 1.87096 -1.58685
2.08008 1.87755 -1.58691
2.07429 1.88414 -1.58698
2.06849 1.89072 -1.58706
2.06269 1.8973 -1.58716
2.05688 1.90388 -1.58727
2.05112 1.91051 -1.58744
2.04688 1.91855 -1.58879
2.04262 1.92661 -1.59015
2.03835 1.93467 -1.59154
2.03406 1.94275 -1.59293
2.02977 1.95083 -1.59435
2.02547 1.95893 -1.59577
2.02116 1.96704 -1.59722
2.01683 1.97516 -1.59868
2.0125 1.9833 -1.60016
2.00815 1.99144 -1.60165
2.00379 1.9996 -1.60316
1.99942 2.00777 -1.60468
1.99526 2.01618 -1.6064
1.99141 2.02492 -1.60839
1.98754 2.03368 -1.6104
1.98365 2.04246 -1.61242
1.97975 2.05125 -1.61447
1.97584 2.06006 -1.61653
1.97192 2.06889 -1.61861
1.96798 2.07775 -1.62071
1.96403 2.08662 -1.62282
1.96006 2.09551 -1.62496
1.95691 2.10532 -1.6278
1.95393 2.11534 -1.63082
1.95093 2.12541 -1.63386
1.94792 2.1355 -1.63693
1.94489 2.14564 -1.64002
1.94185 2.1558 -1.64314
1.93879 2.166 -1.64628
1.93572 2.17624 -1.64945
1.93263 2.18652 -1.65264
1.92955 2.19685 -1.65588
1.92717 2.20805 -1.65976
1.92479 2.2193 -1.66368
1.92238 2.23059 -1.66763
1.91997 2.24194 -1.67162
1.91753 2.25334 -1.67563
1.91509 2.26479 -1.67968
1.91308 2.27683 -1.68416
1.91122 2.28913 -1.68882
1.90935 2.30149 -1.69353
1.90746 2.31392 -1.69827
1.90556 2.32641 -1.70305
1.90364 2.33897 -1.70788
1.90172 2.3516 -1.71274
1.89977 2.3643 -1.71765
1.89782 2.37707 -1.7226
1.89585 2.3899 -1.72759
1.89386 2.40281 -1.73263
1.89186 2.41579 -1.73771
1.88984 2.42884 -1.74283
2.66539 1.59842 -1.79437
2.65068 1.6009 -1.78783
2.63608 1.60337 -1.78136
2.62193 1.60602 -1.77518
2.60999 1.60997 -1.7705
2.59811 1.61389 -1.76586
2.58629 1.61779 -1.76126
2.57452 1.62166 -1.7567
2.56282 1.62552 -1.75217
2.55117 1.62935 -1.74769
2.53959 1.63316 -1.74325
2.52805 1.63696 -1.73884
2.51658 1.64073 -1.73447
2.50516 1.64448 -1.73014
2.49379 1.64821 -1.72584
2.48248 1.65192 -1.72158
2.47122 1.65562 -1.71736
2.46001 1.65929 -1.71318
2.44886 1.66294 -1.70902
2.43776 1.66658 -1.70491
2.42671 1.67019 -1.70083
2.41569 1.67377 -1.69677
2.40466 1.6773 -1.6927
2.39369 1.68081 -1.68867
2.38276 1.6843 -1.68468
2.37188 1.68777 -1.68071
2.36106 1.69122 -1.67678
2.35028 1.69466 -1.67289
2.33955 1.69807 -1.66903
2.32887 1.70148 -1.6652
2.31823 1.70486 -1.6614
2.30764 1.70823 -1.65763
2.2971 1.71158 -1.6539
2.2866 1.71492 -1.6502
2.27615 1.71824 -1.64653
2.26574 1.72154 -1.64289
2.25538 1.72483 -1.63928
2.24506 1.7281 -1.63571
2.23478 1.73136 -1.63216
2.22546 1.73531 -1.62931
2.21631 1.73936 -1.62659
2.2072 1.7434 -1.6239
2.19811 1.74742 -1.62123
2.18905 1.75143 -1.61858
2.18002 1.75543 -1.61596
2.17102 1.75941 -1.61337
2.16421 1.76514 -1.6124
2.1585 1.77176 -1.61227
2.15278 1.77838 -1.61215
2.14706 1.78499 -1.61205
2.14134 1.7916 -1.61195
2.13562 1.7982 -1.61187
2.12989 1.8048 -1.6118
2.12415 1.8114 -1.61175
2.11842 1.81799 -1.61171
2.11268 1.82458 -1.61168
2.10694 1.83117 -1.61166
2.10119 1.83775 -1.61166
2.09544 1.84433 -1.61167
2.08968 1.8509 -1.61169
2.08392 1.85748 -1.61172
2.07816 1.86404 -1.61177
2.07239 1.87061 -1.61183
2.06662 1.87717 -1.6119
2.06084 1.88373 -1.61199
2.05506 1.89029 -1.61208
2.04927 1.89684 -1.61219
2.04485 1.90467 -1.6134
2.04061 1.91268 -1.61477
2.03636 1.92071 -1.61616
2.0321 1.92874 -1.61756
2.02782 1.93679 -1.61897
2.02354 1.94484 -1.6204
2.01924 1.95291 -1.62185
2.01494 1.96099 -1.62332
2.01062 1.96908 -1.6248
2.00629 1.97718 -1.62629
2.00195 1.9853 -1.6278
1.9976 1.99343 -1.62933
1.99324 2.00157 -1.63088
1.98887 2.00972 -1.63244
1.98468 2.01808 -1.63418
1.98082 2.0268 -1.63621
1.97694 2.03554 -1.63826
1.97304 2.0443 -1.64033
1.96914 2.05307 -1.64242
1.96522 2.06187 -1.64452
1.96128 2.07068 -1.64665
1.95734 2.07951 -1.64879
1.9537 2.08871 -1.65123
1.95073 2.09866 -1.65426
1.94774 2.10865 -1.65732
1.94474 2.11867 -1.6604
1.94173 2.12872 -1.6635
1.9387 2.1388 -1.66664
1.93565 2.14892 -1.66979
1.93259 2.15908 -1.67298
1.92952 2.16927 -1.67618
1.92643 2.1795 -1.67942
1.92332 2.18976 -1.68268
1.92052 2.20043 -1.68625
1.91813 2.21162 -1.69021
1.91572 2.22286 -1.69421
1.91329 2.23415 -1.69825
1.91085 2.24549 -1.70231
1.9088 2.25736 -1.70677
1.90694 2.26953 -1.71145
1.90507 2.28177 -1.71617
1.90319 2.29407 -1.72094
1.90129 2.30644 -1.72574
1.89938 2.31887 -1.73059
1.89745 2.33137 -1.73547
1.89552 2.34393 -1.7404
1.89356 2.35657 -1.74537
1.89159 2.36927 -1.75039
1.88961 2.38204 -1.75544
1.88761 2.39488 -1.76054
1.8856 2.40779 -1.76569
1.88357 2.42078 -1.77088
4.49954 2.32573 -1.02393
4.48411 2.33563 -1.02208
4.46867 2.34547 -1.02023
4.45324 2.35524 -1.0184
4.43781 2.36495 -1.01656
4.42238 2.3746 -1.01473
4.40695 2.38418 -1.0129
4.39153 2.3937 -1.01108
4.37611 2.40316 -1.00926
4.36068 2.41255 -1.00745
4.34547 2.42199 -1.00569
4.33059 2.43156 -1.00401
4.3157 2.44107 -1.00233
4.30082 2.45051 -1.00066
4.28593 2.4599 -0.998985
4.27105 2.46922 -0.997318
4.25616 2.47849 -0.995654
4.24127 2.48769 -0.993994
4.22638 2.49683 -0.992338
4.21697 2.50918 -0.991975
4.21062 2.52335 -0.992341
4.20419 2.53747 -0.992699
4.19767 2.55157 -0.993048
4.19107 2.56562 -0.993389
4.18439 2.57964 -0.993721
4.17763 2.59362 -0.994045
4.17078 2.60755 -0.994361
4.16386 2.62145 -0.994667
4.15685 2.63531 -0.994966
4.14976 2.64913 -0.995256
4.14259 2.6629 -0.995537
4.13533 2.67664 -0.99581
4.128 2.69033 -0.996074
4.12094 2.70421 -0.996417
4.11394 2.71814 -0.996782
4.10684 2.73203 -0.997138
4.10343 2.74839 -0.998401
4.10781 2.77005 -1.00158
4.11209 2.79177 -1.00475
4.11627 2.81355 -1.00793
4.12036 2.83538 -1.01111
4.12437 2.85726 -1.01429
4.12827 2.8792 -1.01747
4.13207 2.90119 -1.02065
4.13578 2.92323 -1.02383
4.13938 2.94532 -1.027
4.14306 2.96759 -1.03022
4.15103 2.99307 -1.03454
4.15892 3.01866 -1.03886
4.50905 2.102 -1.04881
4.49089 2.11074 -1.04613
4.47278 2.11941 -1.04345
4.45471 2.12801 -1.04079
4.4367 2.13655 -1.03815
4.41873 2.14502 -1.03551
4.4008 2.15342 -1.03289
4.38318 2.1619 -1.03035
4.36631 2.17066 -1.02798
4.34948 2.17935 -1.02562
4.33267 2.18799 -1.02328
4.3159 2.19656 -1.02094
4.29916 2.20507 -1.01861
4.28246 2.21353 -1.0163
4.26579 2.22192 -1.01399
4.24915 2.23025 -1.0117
4.23254 2.23852 -1.00941
4.21597 2.24673 -1.00714
4.20105 2.25575 -1.00526
4.18677 2.26506 -1.00354
4.17249 2.27431 -1.00183
4.15821 2.2835 -1.00012
4.14393 2.29263 -0.99841
4.12965 2.3017 -0.996706
4.11565 2.31088 -0.995077
4.10185 2.3201 -0.993497
4.08804 2.32928 -0.99192
4.07423 2.33839 -0.990345
4.06041 2.34745 -0.988774
4.04659 2.35645 -0.987206
4.03438 2.36634 -0.986038
4.02558 2.37821 -0.985708
4.01676 2.39005 -0.98538
4.00791 2.40187 -0.985056
3.99904 2.41366 -0.984734
3.99014 2.42542 -0.984415
3.98123 2.43716 -0.984099
3.97229 2.44888 -0.983786
3.96332 2.46057 -0.983476
3.95433 2.47223 -0.983168
3.94533 2.48387 -0.982863
3.93629 2.49549 -0.982561
3.93073 2.5093 -0.983134
3.92746 2.52462 -0.984296
3.92415 2.53995 -0.985461
3.9208 2.55529 -0.98663
3.91739 2.57064 -0.987801
3.91395 2.586 -0.988976
3.91045 2.60138 -0.990153
3.90691 2.61677 -0.991334
3.90333 2.63217 -0.992518
3.8997 2.64758 -0.993704
3.89603 2.663 -0.994894
3.8923 2.67844 -0.996087
3.88791 2.69345 -0.997124
3.88345 2.70846 -0.998158
3.87895 2.72347 -0.999195
3.8744 2.73848 -1.00023
3.87494 2.75716 -1.00261
3.87559 2.776 -1.00502
3.87619 2.7949 -1.00745
3.87676 2.81386 -1.00989
3.87727 2.83287 -1.01234
3.87774 2.85194 -1.0148
3.87816 2.87107 -1.01726
3.87854 2.89026 -1.01974
3.87888 2.9095 -1.02222
3.87916 2.9288 -1.02472
3.87941 2.94817 -1.02722
3.87867 2.96688 -1.02949
3.87768 2.98547 -1.03171
3.87663 3.00411 -1.03394
3.88466 3.02993 -1.03862
4.46877 1.94807 -1.07012
4.4459 1.95475 -1.06611
4.42453 1.96196 -1.06246
4.40736 1.97093 -1.05982
4.39022 1.97984 -1.05719
4.37311 1.98868 -1.05457
4.35605 1.99746 -1.05196
4.33902 2.00617 -1.04936
4.32204 2.01483 -1.04678
4.30509 2.02341 -1.04421
4.28818 2.03194 -1.04165
4.27131 2.0404 -1.03911
4.25448 2.0488 -1.03657
4.23769 2.05714 -1.03405
4.22094 2.06541 -1.03154
4.20467 2.07385 -1.02915
4.18888 2.08245 -1.02688
4.17311 2.09098 -1.02462
4.15737 2.09946 -1.02238
4.14167 2.10788 -1.02014
4.12598 2.11625 -1.0179
4.11032 2.12455 -1.01568
4.0947 2.1328 -1.01347
4.07909 2.14099 -1.01127
4.06352 2.14913 -1.00908
4.04797 2.15721 -1.0069
4.03484 2.16651 -1.00532
4.02435 2.17719 -1.0044
4.01385 2.18784 -1.00349
4.00335 2.19845 -1.00259
3.99284 2.20904 -1.00169
3.98232 2.21958 -1.00079
3.97179 2.2301 -0.999904
3.96125 2.24058 -0.999018
3.95071 2.25102 -0.998137
3.94015 2.26144 -0.997261
3.93172 2.27305 -0.99693
3.92352 2.28478 -0.996665
3.91529 2.29649 -0.996403
3.90704 2.30818 -0.996143
3.89873 2.31982 -0.995878
3.89018 2.33131 -0.995559
3.88161 2.34278 -0.995244
3.87301 2.35422 -0.994931
3.86439 2.36564 -0.994621
3.85575 2.37703 -0.994314
3.84708 2.3884 -0.994009
3.8384 2.39975 -0.993708
3.82969 2.41107 -0.993408
3.82095 2.42236 -0.993112
3.8122 2.43363 -0.992818
3.80342 2.44488 -0.992527
3.79461 2.4561 -0.992239
3.78579 2.4673 -0.991954
3.77695 2.47848 -0.991671
3.76808 2.48963 -0.991391
3.75947 2.50094 -0.991189
3.7559 2.51562 -0.992325
3.75228 2.53031 -0.993464
3.74862 2.545 -0.994606
3.74491 2.55971 -0.995751
3.74115 2.57443 -0.996899
3.73735 2.58915 -0.998049
3.73351 2.60388 -0.999202
3.72957 2.61858 -1.00034
3.72504 2.63292 -1.00134
3.72047 2.64725 -1.00235
3.71586 2.66159 -1.00335
3.7112 2.67593 -1.00436
3.7065 2.69028 -1.00537
3.70175 2.70463 -1.00638
3.69695 2.71898 -1.00739
3.69211 2.73333 -1.00841
3.68908 2.74907 -1.00993
3.68896 2.76704 -1.01227
3.68879 2.78507 -1.01462
3.68857 2.80314 -1.01698
3.68832 2.82127 -1.01935
3.68801 2.83944 -1.02172
3.68765 2.85767 -1.02411
3.68674 2.87554 -1.02636
3.68526 2.89305 -1.02847
3.68372 2.91059 -1.03059
3.68214 2.92817 -1.03271
3.68049 2.94579 -1.03484
3.67881 2.96345 -1.03698
3.67706 2.98114 -1.03912
3.67527 2.99887 -1.04127
3.67342 3.01663 -1.04343
4.33327 1.889 -1.07893
4.31542 1.89738 -1.07597
4.29764 1.90569 -1.07302
4.27992 1.91395 -1.07009
4.25852 1.92045 -1.06625
4.23724 1.9269 -1.06243
4.21608 1.93328 -1.05864
4.19504 1.9396 -1.05488
4.17412 1.94587 -1.05115
4.15331 1.95208 -1.04745
4.13262 1.95823 -1.04378
4.11206 1.96432 -1.04014
4.0916 1.97036 -1.03652
4.07126 1.97635 -1.03294
4.05462 1.98403 -1.03029
4.03955 1.99241 -1.02805
4.02859 2.00276 -1.02686
4.01857 2.01355 -1.02591
4.00853 2.0243 -1.02497
3.99849 2.03502 -1.02403
3.98844 2.0457 -1.02309
3.97838 2.05635 -1.02216
3.9683 2.06697 -1.02124
3.95822 2.07755 -1.02032
3.94813 2.0881 -1.01941
3.93804 2.09862 -1.0185
3.92793 2.1091 -1.01759
3.91781 2.11955 -1.01669
3.90769 2.12997 -1.01579
3.89755 2.14036 -1.0149
3.88741 2.15071 -1.01402
3.87726 2.16103 -1.01313
3.8671 2.17132 -1.01226
3.85693 2.18157 -1.01138
3.84675 2.19179 -1.01051
3.83657 2.20198 -1.00965
3.82637 2.21214 -1.00879
3.81617 2.22227 -1.00794
3.80596 2.23236 -1.00709
3.79573 2.24242 -1.00624
3.78551 2.25245 -1.0054
3.77587 2.26281 -1.00472
3.76781 2.2741 -1.00448
3.75973 2.28537 -1.00423
3.75163 2.29661 -1.00399
3.7435 2.30783 -1.00375
3.73535 2.31903 -1.00351
3.72717 2.33021 -1.00328
3.71897 2.34136 -1.00304
3.71074 2.35249 -1.00281
3.70249 2.3636 -1.00258
3.69421 2.37468 -1.00236
3.68591 2.38574 -1.00213
3.67759 2.39678 -1.00191
3.6692 2.40777 -1.00168
3.66061 2.41862 -1.00141
3.652 2.42945 -1.00114
3.64337 2.44025 -1.00087
3.63472 2.45103 -1.0006
3.62604 2.46179 -1.00034
3.61735 2.47252 -1.00007
3.60863 2.48323 -0.999816
3.59988 2.49391 -0.999559
3.59315 2.50599 -0.999871
3.58926 2.52007 -1.00098
3.58531 2.53415 -1.0021
3.58133 2.54824 -1.00322
3.57718 2.56226 -1.00431
3.57256 2.57597 -1.00528
3.5679 2.58968 -1.00625
3.56319 2.6034 -1.00722
3.55844 2.61711 -1.0082
3.55365 2.63082 -1.00918
3.54881 2.64454 -1.01016
3.54393 2.65826 -1.01114
3.53901 2.67198 -1.01213
3.53404 2.6857 -1.01311
3.52902 2.69942 -1.0141
3.52397 2.71314 -1.01509
3.51886 2.72686 -1.01609
3.51372 2.74059 -1.01708
3.51142 2.75658 -1.01892
3.51055 2.77377 -1.02119
3.5095 2.79088 -1.02343
3.50759 2.8074 -1.02544
3.50564 2.82396 -1.02746
3.50364 2.84054 -1.02948
3.50159 2.85715 -1.03151
3.49949 2.8738 -1.03354
3.49734 2.89047 -1.03559
3.49513 2.90718 -1.03763
3.49287 2.92391 -1.03968
3.49056 2.94068 -1.04174
3.4882 2.95747 -1.0438
3.48579 2.9743 -1.04587
3.48332 2.99115 -1.04795
3.4808 3.00804 -1.05002
3.47822 3.02495 -1.05211
4.26638 1.85984 -1.10305
4.23719 1.86298 -1.09701
4.20831 1.86608 -1.09105
4.17973 1.86914 -1.08516
4.15145 1.87217 -1.07933
4.12346 1.87515 -1.07358
4.1042 1.88197 -1.0701
4.08423 1.88837 -1.06644
4.06492 1.89496 -1.06294
4.04866 1.90289 -1.06025
4.03246 1.91076 -1.05757
4.01632 1.91859 -1.05492
4.00024 1.92637 -1.05228
3.98422 1.93409 -1.04966
3.96826 1.94177 -1.04705
3.95236 1.9494 -1.04447
3.93651 1.95699 -1.0419
3.92093 1.96463 -1.03941
3.90572 1.97238 -1.03701
3.89218 1.98091 -1.03506
3.8827 1.99146 -1.0342
3.8732 2.00199 -1.03334
3.8637 2.01248 -1.03249
3.85418 2.02294 -1.03164
3.84465 2.03337 -1.03079
3.83511 2.04377 -1.02995
3.82556 2.05414 -1.02911
3.816 2.06447 -1.02828
3.80642 2.07478 -1.02745
3.79683 2.08505 -1.02662
3.78704 2.09518 -1.02575
3.77723 2.10528 -1.02488
3.76742 2.11535 -1.02402
3.7576 2.12539 -1.02316
3.74776 2.13539 -1.0223
3.73792 2.14537 -1.02145
3.72807 2.15531 -1.0206
3.71821 2.16522 -1.01976
3.70834 2.1751 -1.01892
3.69846 2.18495 -1.01809
3.68857 2.19477 -1.01726
3.67868 2.20456 -1.01643
3.66877 2.21432 -1.01561
3.65885 2.22405 -1.0148
3.64893 2.23374 -1.01399
3.639 2.24341 -1.01318
3.62905 2.25304 -1.01238
3.62028 2.26339 -1.01191
3.61234 2.27423 -1.01168
3.60437 2.28506 -1.01146
3.59638 2.29586 -1.01123
3.58837 2.30664 -1.01101
3.58033 2.3174 -1.01079
3.57226 2.32814 -1.01058
3.56418 2.33886 -1.01036
3.55607 2.34955 -1.01015
3.54793 2.36022 -1.00994
3.53977 2.37086 -1.00973
3.53159 2.38149 -1.00953
3.52339 2.39209 -1.00933
3.51516 2.40267 -1.00913
3.5069 2.41323 -1.00893
3.49863 2.42376 -1.00873
3.49033 2.43428 -1.00854
3.482 2.44477 -1.00835
3.47366 2.45523 -1.00816
3.46529 2.46568 -1.00797
3.45689 2.4761 -1.00779
3.44848 2.4865 -1.00761
3.43995 2.49681 -1.0074
3.43417 2.50912 -1.00801
3.42947 2.52225 -1.00895
3.42473 2.53538 -1.0099
3.42048 2.54891 -1.011
3.41723 2.56322 -1.01241
3.41394 2.57755 -1.01383
3.41062 2.59191 -1.01526
3.40727 2.60629 -1.0167
3.40389 2.6207 -1.01814
3.40048 2.63513 -1.01959
3.39704 2.64958 -1.02105
3.39357 2.66406 -1.02252
3.39006 2.67857 -1.02399
3.38653 2.6931 -1.02547
3.38296 2.70765 -1.02696
3.37936 2.72223 -1.02846
3.37592 2.73699 -1.03003
3.37286 2.75211 -1.03173
3.37161 2.76878 -1.034
3.37032 2.7855 -1.03628
3.36901 2.80228 -1.03858
3.36767 2.8191 -1.04089
3.3663 2.83599 -1.04322
3.36489 2.85293 -1.04555
3.36346 2.86992 -1.0479
3.36199 2.88697 -1.05027
3.36049 2.90407 -1.05264
3.35896 2.92124 -1.05504
3.3574 2.93845 -1.05744
3.35581 2.95573 -1.05986
3.35419 2.97306 -1.06229
3.35253 2.99045 -1.06473
3.3509 3.00796 -1.06721
3.34924 3.02552 -1.06971
3.35797 3.05261 -1.07555
3.37446 3.08702 -1.08393
3.39116 3.12193 -1.09244
4.22887 1.84349 -1.13393
4.20014 1.84669 -1.12777
4.17171 1.84985 -1.1217
4.14357 1.85297 -1.11569
4.11573 1.85605 -1.10976
4.08816 1.8591 -1.10389
4.06108 1.86221 -1.09816
4.03444 1.86535 -1.09253
4.00865 1.86873 -1.08713
3.9831 1.87207 -1.08179
3.95779 1.87538 -1.07651
3.93807 1.88121 -1.07275
3.9225 1.88893 -1.07012
3.90698 1.8966 -1.06751
3.89152 1.90422 -1.06491
3.87611 1.91179 -1.06233
3.86075 1.91932 -1.05977
3.84545 1.9268 -1.05723
3.8302 1.93424 -1.0547
3.815 1.94163 -1.05219
3.80025 1.94918 -1.0498
3.78565 1.95673 -1.04746
3.77109 1.96424 -1.04514
3.75657 1.97171 -1.04283
3.74385 1.98006 -1.04102
3.73464 1.99023 -1.04019
3.72542 2.00037 -1.03937
3.71619 2.01047 -1.03855
3.70694 2.02055 -1.03773
3.69768 2.0306 -1.03692
3.68841 2.04061 -1.03611
3.67913 2.0506 -1.03531
3.66983 2.06055 -1.03451
3.66052 2.07048 -1.03371
3.6512 2.08037 -1.03292
3.64187 2.09024 -1.03213
3.63253 2.10008 -1.03135
3.62317 2.10988 -1.03057
3.61381 2.11966 -1.0298
3.60443 2.1294 -1.02902
3.59504 2.13912 -1.02826
3.58563 2.1488 -1.02749
3.57622 2.15846 -1.02673
3.56679 2.16809 -1.02598
3.55736 2.17768 -1.02523
3.54791 2.18725 -1.02448
3.53845 2.19679 -1.02373
3.52889 2.20624 -1.02297
3.51925 2.21562 -1.02219
3.50959 2.22497 -1.02141
3.49993 2.23429 -1.02063
3.49026 2.24358 -1.01986
3.48058 2.25284 -1.0191
3.47242 2.26307 -1.01879
3.46458 2.2735 -1.01858
3.45672 2.28391 -1.01837
3.44883 2.29429 -1.01816
3.44092 2.30466 -1.01796
3.43299 2.315 -1.01776
3.42503 2.32532 -1.01756
3.41742 2.33586 -1.01747
3.41192 2.34787 -1.01803
3.40641 2.35988 -1.01859
3.40087 2.37188 -1.01916
3.3953 2.38389 -1.01973
3.38971 2.3959 -1.02031
3.3841 2.40791 -1.02089
3.37846 2.41992 -1.02147
3.37279 2.43193 -1.02207
3.3671 2.44394 -1.02266
3.36139 2.45595 -1.02327
3.35565 2.46796 -1.02387
3.34988 2.47997 -1.02449
3.34409 2.49199 -1.02511
3.33908 2.50461 -1.02598
3.33577 2.51853 -1.02738
3.33242 2.53248 -1.0288
3.32904 2.54645 -1.03022
3.32563 2.56044 -1.03165
3.32219 2.57445 -1.03308
3.31871 2.58849 -1.03453
3.31521 2.60255 -1.03598
3.31168 2.61663 -1.03744
3.30811 2.63074 -1.0389
3.30452 2.64487 -1.04038
3.30089 2.65902 -1.04186
3.29723 2.67319 -1.04335
3.2936 2.68744 -1.04487
3.29015 2.70189 -1.04646
3.28667 2.71636 -1.04806
3.28315 2.73086 -1.04967
3.27961 2.74539 -1.05129
3.27663 2.76045 -1.05311
3.27507 2.77677 -1.05541
3.27348 2.79314 -1.05772
3.27185 2.80957 -1.06004
3.2702 2.82604 -1.06238
3.26851 2.84257 -1.06472
3.26679 2.85915 -1.06708
3.26504 2.87578 -1.06946
3.26326 2.89246 -1.07184
3.26144 2.9092 -1.07424
3.25959 2.92599 -1.07666
3.25771 2.94284 -1.07909
3.25586 2.95979 -1.08155
3.25397 2.9768 -1.08402
3.25206 2.99386 -1.08651
3.2501 3.01098 -1.08901
3.24812 3.02816 -1.09153
3.25306 3.05192 -1.09641
3.26436 3.08186 -1.10347
3.27965 3.11584 -1.11194
4.19186 1.82736 -1.16439
4.16357 1.83061 -1.15813
4.13558 1.83383 -1.15194
4.10788 1.83701 -1.14582
4.08053 1.84018 -1.1398
4.05368 1.84342 -1.13391
4.0271 1.84662 -1.12809
4.00078 1.84978 -1.12234
3.97518 1.85313 -1.11679
3.95 1.85652 -1.11135
3.92506 1.85987 -1.10597
3.90035 1.86319 -1.10065
3.87587 1.86647 -1.09539
3.85162 1.86972 -1.09019
3.82758 1.87293 -1.08505
3.80376 1.87611 -1.07996
3.78756 1.88294 -1.07703
3.77271 1.89036 -1.0745
3.75792 1.89774 -1.07198
3.74318 1.90508 -1.06947
3.72849 1.91237 -1.06699
3.71384 1.91962 -1.06452
3.69933 1.92687 -1.06209
3.68524 1.93427 -1.05978
3.6712 1.94164 -1.05749
3.6572 1.94896 -1.05522
3.64324 1.95624 -1.05296
3.62932 1.96348 -1.05071
3.61544 1.97068 -1.04848
3.6032 1.97871 -1.04673
3.59424 1.98851 -1.04593
3.58526 1.99828 -1.04514
3.57627 2.00802 -1.04436
3.56727 2.01773 -1.04357
3.55826 2.02742 -1.0428
3.54923 2.03707 -1.04202
3.5402 2.0467 -1.04125
3.53115 2.05629 -1.04048
3.52208 2.06586 -1.03972
3.51301 2.0754 -1.03896
3.50392 2.0849 -1.03821
3.49483 2.09439 -1.03745
3.48572 2.10384 -1.03671
3.47659 2.11326 -1.03596
3.46746 2.12265 -1.03522
3.45831 2.13202 -1.03449
3.44916 2.14136 -1.03376
3.43999 2.15066 -1.03303
3.4308 2.15994 -1.0323
3.42161 2.16919 -1.03158
3.41385 2.17934 -1.0313
3.40726 2.19023 -1.03138
3.40066 2.20111 -1.03147
3.39404 2.21199 -1.03157
3.3874 2.22285 -1.03167
3.38074 2.23371 -1.03177
3.37407 2.24456 -1.03188
3.36793 2.25576 -1.03216
3.36244 2.26743 -1.03266
3.35694 2.27909 -1.03317
3.35147 2.29079 -1.03369
3.34605 2.30254 -1.03425
3.34061 2.31429 -1.03481
3.33514 2.32604 -1.03537
3.32964 2.33779 -1.03594
3.32413 2.34954 -1.03651
3.31858 2.36129 -1.03709
3.31302 2.37304 -1.03768
3.30742 2.38479 -1.03827
3.30181 2.39654 -1.03886
3.29617 2.4083 -1.03946
3.2905 2.42005 -1.04007
3.28481 2.4318 -1.04068
3.27909 2.44355 -1.0413
3.27335 2.4553 -1.04192
3.26759 2.46706 -1.04254
3.2618 2.47881 -1.04317
3.25598 2.49057 -1.04381
3.25058 2.50266 -1.0446
3.24711 2.51628 -1.04602
3.24362 2.52992 -1.04745
3.24009 2.54358 -1.04888
3.23654 2.55726 -1.05033
3.23295 2.57096 -1.05178
3.22933 2.58469 -1.05324
3.22568 2.59843 -1.0547
3.222 2.6122 -1.05618
3.21829 2.62599 -1.05766
3.21455 2.6398 -1.05915
3.21097 2.6538 -1.06071
3.20742 2.66787 -1.06231
3.20385 2.68197 -1.06391
3.20024 2.69609 -1.06552
3.1966 2.71024 -1.06713
3.19292 2.72441 -1.06876
3.18922 2.73861 -1.07039
3.18548 2.75283 -1.07204
3.18246 2.76773 -1.07394
3.1806 2.78371 -1.07626
3.17871 2.79974 -1.07859
3.17678 2.81582 -1.08093
3.17483 2.83194 -1.08329
3.17284 2.84812 -1.08566
3.17082 2.86434 -1.08804
3.16876 2.88061 -1.09043
3.16668 2.89694 -1.09284
3.16462 2.91337 -1.09529
3.16252 2.92985 -1.09774
3.16039 2.94638 -1.10021
3.15823 2.96296 -1.10269
3.15603 2.97959 -1.10518
3.1538 2.99628 -1.10769
3.15153 3.01302 -1.11022
3.14923 3.02981 -1.11275
3.1528 3.05237 -1.1174
3.15872 3.07738 -1.12292
3.17022 3.10806 -1.13047
4.15533 1.81143 -1.19445
4.12749 1.81475 -1.18808
4.09994 1.81802 -1.18178
4.07288 1.82136 -1.17563
4.04617 1.82469 -1.16957
4.01972 1.82798 -1.16357
3.99353 1.83123 -1.15765
3.9676 1.83445 -1.1518
3.94212 1.83772 -1.14608
3.91732 1.84116 -1.14054
3.89274 1.84456 -1.13507
3.86839 1.84792 -1.12965
3.84426 1.85125 -1.1243
3.82035 1.85454 -1.119
3.79665 1.8578 -1.11377
3.77317 1.86102 -1.10859
3.74989 1.86421 -1.10346
3.72682 1.86736 -1.09839
3.70395 1.87048 -1.09338
3.68128 1.87357 -1.08842
3.65946 1.87697 -1.08371
3.64525 1.88416 -1.08125
3.63107 1.89131 -1.0788
3.61694 1.89842 -1.07637
3.60286 1.90549 -1.07395
3.58906 1.91265 -1.07163
3.5755 1.91987 -1.06937
3.56198 1.92705 -1.06713
3.5485 1.93419 -1.06491
3.53505 1.94129 -1.0627
3.52164 1.94835 -1.0605
3.50827 1.95537 -1.05832
3.49493 1.96235 -1.05615
3.48163 1.96929 -1.054
3.46957 1.97688 -1.05222
3.46083 1.98633 -1.05146
3.45208 1.99575 -1.0507
3.44332 2.00515 -1.04994
3.43455 2.01451 -1.04919
3.42576 2.02385 -1.04845
3.41784 2.03369 -1.04797
3.41155 2.04448 -1.04801
3.40524 2.05526 -1.04805
3.39891 2.06604 -1.04809
3.39257 2.07681 -1.04814
3.3862 2.08756 -1.0482
3.37982 2.09831 -1.04826
3.37342 2.10904 -1.04832
3.367 2.11977 -1.04839
3.36056 2.13049 -1.04846
3.3541 2.1412 -1.04854
3.34763 2.1519 -1.04863
3.34114 2.16259 -1.04872
3.33463 2.17327 -1.04881
3.3281 2.18394 -1.04891
3.32155 2.1946 -1.04901
3.31499 2.20525 -1.04912
3.3084 2.2159 -1.04924
3.3018 2.22653 -1.04936
3.29518 2.23716 -1.04948
3.2888 2.24795 -1.04969
3.28332 2.25937 -1.0502
3.27782 2.27079 -1.05072
3.27229 2.28221 -1.05124
3.26674 2.29363 -1.05177
3.26117 2.30505 -1.0523
3.25557 2.31646 -1.05284
3.24996 2.32787 -1.05338
3.24431 2.33929 -1.05393
3.23874 2.35077 -1.05451
3.23317 2.36227 -1.05511
3.22757 2.37377 -1.05571
3.22196 2.38527 -1.05632
3.21631 2.39677 -1.05693
3.21064 2.40827 -1.05755
3.20495 2.41977 -1.05818
3.19924 2.43127 -1.0588
3.19349 2.44277 -1.05944
3.18773 2.45427 -1.06008
3.18194 2.46577 -1.06072
3.17612 2.47727 -1.06137
3.17028 2.48877 -1.06203
3.16443 2.50029 -1.0627
3.16083 2.51361 -1.06413
3.15719 2.52695 -1.06557
3.15353 2.54031 -1.06703
3.14983 2.55369 -1.06848
3.1461 2.56709 -1.06995
3.14234 2.58051 -1.07142
3.13855 2.59395 -1.0729
3.13481 2.60747 -1.07442
3.13121 2.62116 -1.076
3.12757 2.63487 -1.07759
3.12391 2.64861 -1.07919
3.12021 2.66236 -1.0808
3.11648 2.67615 -1.08241
3.11272 2.68995 -1.08403
3.10892 2.70378 -1.08567
3.1051 2.71763 -1.08731
3.10124 2.73151 -1.08895
3.09735 2.74541 -1.09061
3.09342 2.75933 -1.09228
3.09025 2.77398 -1.09423
3.0881 2.78962 -1.09656
3.08592 2.80531 -1.09891
3.08371 2.82104 -1.10128
3.08147 2.83682 -1.10365
3.0792 2.85265 -1.10605
3.07694 2.86858 -1.10847
3.07465 2.88455 -1.1109
3.07233 2.90057 -1.11335
3.06997 2.91664 -1.11581
3.06758 2.93275 -1.11828
3.06515 2.94892 -1.12077
3.06269 2.96513 -1.12327
3.06019 2.98139 -1.12578
3.05766 2.99771 -1.12831
3.05509 3.01407 -1.13085
3.05249 3.03048 -1.1334
3.05431 3.05141 -1.13764
3.05948 3.07584 -1.14315
3.06467 3.10047 -1.14872
4.11929 1.79572 -1.22411
4.09196 1.79913 -1.21767
4.06512 1.80259 -1.21136
4.03855 1.80601 -1.20513
4.01224 1.80938 -1.19896
3.98618 1.81273 -1.19287
3.96038 1.81603 -1.18685
