ply
format ascii 1.0
comment Created by Open3D
element vertex 1865
property double x
property double y
property double z
end_header
5.49905 -4.53098 -1.37887
5.5051 -4.50712 -1.37684
5.51326 -4.48505 -1.37536
5.52237 -4.46382 -1.37415
5.53145 -4.44261 -1.37294
5.54048 -4.42141 -1.37174
5.54946 -4.40023 -1.37055
5.5584 -4.37905 -1.36936
5.5673 -4.3579 -1.36819
5.57616 -4.33676 -1.36702
5.58497 -4.31563 -1.36587
5.59374 -4.29452 -1.36472
5.60383 -4.27446 -1.36391
5.61398 -4.25448 -1.36313
5.6241 -4.2345 -1.36236
5.63417 -4.21453 -1.3616
5.6461 -4.19596 -1.36131
5.66014 -4.17897 -1.36153
5.67417 -4.16195 -1.36177
5.68817 -4.14491 -1.36201
5.70216 -4.12785 -1.36226
5.71613 -4.11076 -1.36251
5.72941 -4.09317 -1.36262
5.74194 -4.07504 -1.36256
5.75444 -4.0569 -1.36251
5.76692 -4.03874 -1.36246
5.77937 -4.02056 -1.36243
5.7918 -4.00237 -1.3624
5.8042 -3.98416 -1.36238
5.81658 -3.96594 -1.36236
5.83203 -3.94979 -1.36308
5.8486 -3.93438 -1.36407
5.86519 -3.91893 -1.36507
5.88177 -3.90345 -1.36608
5.89836 -3.88793 -1.3671
5.91664 -3.87347 -1.36852
5.93913 -3.86169 -1.37092
5.96136 -3.84966 -1.37326
5.98366 -3.83758 -1.37563
6.00603 -3.82545 -1.37801
6.02846 -3.81328 -1.38041
6.05097 -3.80105 -1.38284
6.07354 -3.78878 -1.38528
6.09618 -3.77645 -1.38774
6.11889 -3.76407 -1.39022
6.14394 -3.75303 -1.39324
6.17717 -3.74684 -1.39811
6.21063 -3.7406 -1.40302
6.24431 -3.73431 -1.40799
6.27822 -3.72796 -1.413
6.31054 -3.72049 -1.41764
6.34106 -3.71179 -1.42188
6.37359 -3.7041 -1.42657
6.4122 -3.69975 -1.43261
6.45112 -3.69535 -1.43872
6.49037 -3.6909 -1.44489
6.52994 -3.68641 -1.45112
6.57186 -3.683 -1.45787
6.61429 -3.67963 -1.46472
6.65711 -3.67622 -1.47165
6.70033 -3.67277 -1.47865
6.7429 -3.66871 -1.48551
6.77983 -3.66135 -1.49111
6.82031 -3.65569 -1.49749
6.86368 -3.65133 -1.5045
6.90815 -3.6473 -1.51174
5.63323 -5.20082 -1.5499
5.55904 -5.1002 -1.52509
5.51319 -5.02644 -1.50819
5.49602 -4.97938 -1.49922
5.48341 -4.9368 -1.49156
5.47092 -4.89464 -1.48399
5.45855 -4.85291 -1.47651
5.44935 -4.81429 -1.46994
5.44531 -4.78046 -1.46481
5.44299 -4.74834 -1.46018
5.44067 -4.71642 -1.45559
5.43837 -4.6847 -1.45104
5.43607 -4.65316 -1.44654
5.43379 -4.62182 -1.44207
5.43151 -4.59067 -1.43765
5.42925 -4.55971 -1.43327
5.42703 -4.52896 -1.42893
5.42622 -4.49955 -1.42501
5.42865 -4.47297 -1.42196
5.43231 -4.44752 -1.41927
5.43595 -4.42216 -1.4166
5.43957 -4.39689 -1.41395
5.44318 -4.37171 -1.41132
5.44677 -4.34663 -1.40872
5.45034 -4.32163 -1.40614
5.4539 -4.29672 -1.40358
5.45744 -4.2719 -1.40105
5.46097 -4.24717 -1.39853
5.46448 -4.22252 -1.39604
5.47029 -4.19974 -1.39416
5.48415 -4.18317 -1.39435
5.49799 -4.16658 -1.39455
5.51181 -4.14996 -1.39475
5.52561 -4.13332 -1.39496
5.53939 -4.11666 -1.39518
5.55315 -4.09997 -1.39541
5.56689 -4.08326 -1.39565
5.58061 -4.06653 -1.39589
5.59432 -4.04978 -1.39614
5.60776 -4.03282 -1.39634
5.62008 -4.01506 -1.39627
5.63237 -3.99728 -1.39621
5.64539 -3.98002 -1.39634
5.66164 -3.965 -1.39729
5.67828 -3.95023 -1.39833
5.69836 -3.9378 -1.40024
5.71848 -3.92532 -1.40216
5.73865 -3.9128 -1.40409
5.75886 -3.90024 -1.40605
5.77912 -3.88763 -1.40801
5.79942 -3.87498 -1.41
5.81976 -3.86229 -1.412
5.84015 -3.84955 -1.41402
5.86059 -3.83677 -1.41605
5.88433 -3.82606 -1.41889
5.90846 -3.8155 -1.42182
5.93267 -3.80488 -1.42477
5.95697 -3.79421 -1.42775
5.98063 -3.78302 -1.43058
6.00287 -3.77084 -1.43307
6.02517 -3.75861 -1.43558
6.04755 -3.74633 -1.43811
6.06999 -3.73399 -1.44066
6.0925 -3.72161 -1.44323
6.12111 -3.71283 -1.44725
6.15407 -3.70653 -1.45229
6.18725 -3.70018 -1.45738
6.22064 -3.69377 -1.46252
6.25426 -3.68731 -1.4677
6.28811 -3.6808 -1.47294
6.3212 -3.67366 -1.47799
6.35389 -3.66611 -1.48294
6.39221 -3.6616 -1.48921
6.43085 -3.65705 -1.49553
6.4698 -3.65246 -1.50192
6.50907 -3.64781 -1.50838
6.54872 -3.64315 -1.51492
6.59081 -3.63961 -1.52202
6.63495 -3.63693 -1.52957
6.68007 -3.63453 -1.53735
6.72565 -3.63209 -1.54521
6.77169 -3.62963 -1.55317
6.82208 -3.62921 -1.56212
6.87132 -3.62786 -1.57079
5.60256 -5.20507 -1.6122
5.52907 -5.10466 -1.58645
5.49954 -5.0456 -1.57344
5.47972 -4.99593 -1.56329
5.46647 -4.95261 -1.55508
5.45407 -4.91039 -1.54718
5.4418 -4.8686 -1.53936
5.43495 -4.83193 -1.53314
5.4294 -4.79666 -1.52734
5.42713 -4.7645 -1.52249
5.42487 -4.73254 -1.5177
5.42262 -4.70077 -1.51295
5.42038 -4.6692 -1.50824
5.41815 -4.63782 -1.50357
5.41593 -4.60663 -1.49895
5.41406 -4.57592 -1.49446
5.41329 -4.54631 -1.49031
5.41252 -4.51685 -1.4862
5.41303 -4.48862 -1.48248
5.4154 -4.46205 -1.47929
5.41775 -4.4356 -1.47614
5.42121 -4.41017 -1.47331
5.42486 -4.38499 -1.47057
5.42848 -4.35991 -1.46784
5.43209 -4.33491 -1.46514
5.43568 -4.31001 -1.46247
5.43925 -4.28518 -1.45981
5.44281 -4.26045 -1.45718
5.44635 -4.23581 -1.45458
5.44988 -4.21124 -1.45199
5.45462 -4.18772 -1.44976
5.46161 -4.16598 -1.44814
5.46962 -4.14508 -1.44682
5.47761 -4.12422 -1.44551
5.48559 -4.10339 -1.44422
5.49354 -4.08259 -1.44295
5.50148 -4.06183 -1.44168
5.5094 -4.0411 -1.44044
5.51731 -4.0204 -1.43921
5.52519 -3.99974 -1.43799
5.53578 -3.98106 -1.4375
5.54975 -3.96482 -1.4379
5.56624 -3.95035 -1.43896
5.58594 -3.93811 -1.44086
5.60569 -3.92582 -1.44278
5.62547 -3.91349 -1.44471
5.64529 -3.90113 -1.44666
5.66516 -3.88872 -1.44863
5.68506 -3.87626 -1.45061
5.70501 -3.86377 -1.4526
5.725 -3.85123 -1.45462
5.74503 -3.83865 -1.45665
5.76511 -3.82602 -1.4587
5.78523 -3.81335 -1.46076
5.8065 -3.80136 -1.46312
5.8302 -3.79087 -1.4661
5.85399 -3.78032 -1.4691
5.87787 -3.76973 -1.47212
5.90183 -3.75909 -1.47517
5.92588 -3.74839 -1.47824
5.95002 -3.73764 -1.48134
5.97424 -3.72684 -1.48446
5.99856 -3.71598 -1.4876
6.02171 -3.70429 -1.49046
6.04396 -3.69196 -1.4931
6.06627 -3.67957 -1.49576
6.09834 -3.67297 -1.50083
6.13102 -3.66655 -1.50604
6.16392 -3.66009 -1.5113
6.19703 -3.65357 -1.51661
6.23037 -3.647 -1.52197
6.26466 -3.6408 -1.52755
6.30418 -3.63743 -1.53441
6.34528 -3.63472 -1.54164
6.38854 -3.63299 -1.54938
6.43223 -3.63124 -1.55721
6.47635 -3.62948 -1.56513
6.52153 -3.62802 -1.5733
6.56729 -3.62662 -1.58159
6.61169 -3.62418 -1.58955
6.65653 -3.62172 -1.59759
6.70182 -3.61923 -1.60574
6.75352 -3.61989 -1.6154
6.80577 -3.62053 -1.62518
6.8555 -3.61951 -1.63435
5.57165 -5.20894 -1.67432
5.50572 -5.1151 -1.64969
5.48575 -5.06466 -1.63895
5.46602 -5.01485 -1.62836
5.44943 -4.96831 -1.61878
5.43713 -4.92603 -1.61054
5.42625 -4.88534 -1.60278
5.42046 -4.8495 -1.59658
5.41471 -4.81394 -1.59044
5.41122 -4.78059 -1.58501
5.40901 -4.74859 -1.58
5.40681 -4.71678 -1.57504
5.40462 -4.68517 -1.57012
5.40245 -4.65375 -1.56525
5.40095 -4.6231 -1.56062
5.40022 -4.59327 -1.55625
5.39949 -4.5636 -1.55191
5.39876 -4.5341 -1.54762
5.39803 -4.50476 -1.54336
5.39987 -4.4777 -1.53987
5.40225 -4.45122 -1.53657
5.40463 -4.42486 -1.5333
5.40699 -4.3986 -1.53006
5.41017 -4.37312 -1.52708
5.41381 -4.34812 -1.52426
5.41743 -4.32322 -1.52146
5.42104 -4.2984 -1.51869
5.42463 -4.27367 -1.51594
5.42821 -4.24902 -1.51322
5.43177 -4.22446 -1.51052
5.43535 -4.20002 -1.50785
5.44081 -4.17711 -1.50573
5.44624 -4.15426 -1.50363
5.45412 -4.13333 -1.50223
5.4621 -4.11253 -1.50088
5.47007 -4.09177 -1.49954
5.47801 -4.07105 -1.49822
5.48594 -4.05035 -1.49691
5.49385 -4.02969 -1.49562
5.50175 -4.00906 -1.49435
5.51069 -3.98924 -1.49338
5.52012 -3.9698 -1.49256
5.53129 -3.95163 -1.49223
5.54522 -3.93543 -1.49266
5.55915 -3.91921 -1.4931
5.57308 -3.90298 -1.49355
5.58701 -3.88674 -1.49402
5.60096 -3.87049 -1.4945
5.6149 -3.85422 -1.495
5.63228 -3.84028 -1.49642
5.65197 -3.82785 -1.49846
5.6717 -3.81538 -1.50052
5.69148 -3.80286 -1.5026
5.71129 -3.79031 -1.50469
5.73115 -3.7777 -1.5068
5.75349 -3.76665 -1.50956
5.77687 -3.75619 -1.51261
5.80034 -3.74568 -1.51568
5.82389 -3.73511 -1.51877
5.84752 -3.72449 -1.52188
5.87123 -3.71382 -1.52502
5.89503 -3.7031 -1.52819
5.91892 -3.69232 -1.53138
5.94289 -3.68149 -1.53459
5.96695 -3.67061 -1.53783
5.99289 -3.66076 -1.54156
6.02144 -3.65238 -1.54595
6.05213 -3.64514 -1.5509
6.08943 -3.64168 -1.55753
6.12738 -3.63839 -1.56431
6.16565 -3.63507 -1.57117
6.20426 -3.63172 -1.57811
6.24321 -3.62833 -1.58512
6.2825 -3.62491 -1.5922
6.32213 -3.62146 -1.59937
6.36434 -3.61923 -1.60717
6.40774 -3.61742 -1.61527
6.45157 -3.61559 -1.62346
6.49725 -3.61452 -1.6321
6.54371 -3.61359 -1.64092
6.58851 -3.61147 -1.64931
6.63307 -3.60896 -1.65763
6.67962 -3.60724 -1.66643
6.7366 -3.61082 -1.67782
6.78947 -3.61186 -1.68817
6.83899 -3.61079 -1.69766
5.4917 -5.13419 -1.71591
5.47181 -5.0836 -1.70472
5.45218 -5.03367 -1.69368
5.43279 -4.98436 -1.68281
5.42009 -4.94156 -1.67407
5.41162 -4.90292 -1.66671
5.40589 -4.86701 -1.66025
5.4002 -4.83138 -1.65385
5.39523 -4.79662 -1.64772
5.39308 -4.76458 -1.6425
5.39094 -4.73273 -1.63733
5.38881 -4.70108 -1.63221
5.38769 -4.6705 -1.62744
5.387 -4.64045 -1.62284
5.38632 -4.61057 -1.61827
5.38563 -4.58086 -1.61375
5.38494 -4.55131 -1.60927
5.38426 -4.52192 -1.60483
5.3843 -4.4933 -1.60064
5.38672 -4.4668 -1.5972
5.38913 -4.44041 -1.59378
5.39152 -4.41413 -1.5904
5.3939 -4.38795 -1.58704
5.39627 -4.36189 -1.58372
5.39916 -4.33636 -1.58058
5.40281 -4.31154 -1.57768
5.40643 -4.28681 -1.57482
5.41004 -4.26217 -1.57197
5.41363 -4.23761 -1.56916
5.4172 -4.21313 -1.56636
5.42155 -4.18935 -1.56382
5.42701 -4.16652 -1.56163
5.43245 -4.14374 -1.55946
5.43864 -4.1216 -1.55752
5.44662 -4.10088 -1.55613
5.45457 -4.08018 -1.55474
5.46251 -4.05953 -1.55338
5.47043 -4.0389 -1.55203
5.47833 -4.01831 -1.55069
5.48694 -3.99827 -1.54958
5.49636 -3.97887 -1.54872
5.50577 -3.95948 -1.54787
5.51517 -3.94011 -1.54704
5.52676 -3.92233 -1.54684
5.54064 -3.90616 -1.54729
5.55452 -3.88999 -1.54776
5.5684 -3.8738 -1.54825
5.58229 -3.85759 -1.54875
5.59618 -3.84137 -1.54926
5.61008 -3.82514 -1.54978
5.62398 -3.80889 -1.55032
5.63789 -3.79263 -1.55088
5.6518 -3.77635 -1.55145
5.66572 -3.76006 -1.55203
5.68158 -3.74503 -1.55315
5.70842 -3.73715 -1.55729
5.7354 -3.72922 -1.56146
5.76252 -3.72126 -1.56566
5.78979 -3.71324 -1.56991
5.81721 -3.70519 -1.57419
5.84477 -3.69708 -1.57851
5.87248 -3.68893 -1.58287
5.90035 -3.68074 -1.58727
5.92837 -3.6725 -1.59171
5.95654 -3.66421 -1.59618
5.98484 -3.65584 -1.60069
6.01313 -3.64734 -1.6052
6.04158 -3.63878 -1.60974
6.07408 -3.6325 -1.61537
6.10988 -3.628 -1.62186
6.14597 -3.62347 -1.62842
6.1831 -3.61933 -1.63525
6.22182 -3.6159 -1.64249
6.26088 -3.61244 -1.64981
6.30028 -3.60894 -1.65721
6.34024 -3.60553 -1.66475
6.38335 -3.60365 -1.6731
6.4274 -3.60205 -1.68168
6.47307 -3.60107 -1.69067
6.51922 -3.60007 -1.69977
6.5654 -3.59881 -1.70887
6.6097 -3.59624 -1.71746
6.66297 -3.59825 -1.72837
6.71969 -3.60176 -1.74015
6.7732 -3.6032 -1.75108
6.82251 -3.60209 -1.7609
5.47752 -5.15315 -1.7824
5.45773 -5.10244 -1.77075
5.43819 -5.05236 -1.75927
5.41889 -5.00293 -1.74796
5.40293 -4.95697 -1.7378
5.3969 -4.92042 -1.7309
5.39124 -4.88445 -1.72417
5.38561 -4.84875 -1.71751
5.38001 -4.81332 -1.71091
5.37709 -4.78049 -1.70521
5.375 -4.7486 -1.69983
5.37429 -4.71811 -1.69493
5.37364 -4.68785 -1.69009
5.373 -4.65776 -1.6853
5.37235 -4.62783 -1.68054
5.37171 -4.59807 -1.67583
5.37106 -4.56847 -1.67116
5.37042 -4.53904 -1.66653
5.36977 -4.50976 -1.66195
5.37114 -4.48232 -1.65802
5.37359 -4.4559 -1.65446
5.37602 -4.4296 -1.65093
5.37843 -4.40341 -1.64744
5.38084 -4.37732 -1.64397
5.38323 -4.35134 -1.64053
5.3856 -4.32547 -1.63712
5.3882 -4.29989 -1.63381
5.39184 -4.27525 -1.63085
5.39547 -4.25069 -1.62792
5.39908 -4.22622 -1.62501
5.40267 -4.20183 -1.62212
5.40777 -4.1787 -1.61972
5.41323 -4.15594 -1.61745
5.41868 -4.13323 -1.61521
5.42411 -4.11059 -1.61299
5.43116 -4.08924 -1.61127
5.43911 -4.06862 -1.60984
5.44704 -4.04803 -1.60843
5.45495 -4.02747 -1.60704
5.46321 -4.00722 -1.60577
5.47264 -3.98785 -1.60487
5.48205 -3.9685 -1.60398
5.49144 -3.94917 -1.6031
5.50082 -3.92986 -1.60224
5.51019 -3.91057 -1.6014
5.52218 -3.89315 -1.60133
5.53601 -3.87702 -1.60182
5.54984 -3.86088 -1.60232
5.56368 -3.84473 -1.60283
5.57752 -3.82856 -1.60336
5.59136 -3.81238 -1.6039
5.60521 -3.79618 -1.60446
5.61906 -3.77997 -1.60503
5.63292 -3.76374 -1.60561
5.65324 -3.75178 -1.60805
5.67661 -3.74175 -1.61136
5.70098 -3.73227 -1.61495
5.7279 -3.72435 -1.61927
5.75497 -3.71638 -1.62363
5.78218 -3.70836 -1.62802
5.80954 -3.7003 -1.63246
5.83705 -3.6922 -1.63693
5.8647 -3.68404 -1.64145
5.89251 -3.67585 -1.646
5.92047 -3.6676 -1.6506
5.94844 -3.65922 -1.6552
5.97652 -3.65076 -1.65982
6.00475 -3.64225 -1.66449
6.03313 -3.63369 -1.6692
6.06168 -3.62509 -1.67395
6.09604 -3.61978 -1.6803
6.13199 -3.61522 -1.68708
6.16823 -3.61063 -1.69394
6.20477 -3.60599 -1.70086
6.2416 -3.60131 -1.70786
6.27873 -3.59659 -1.71493
6.31801 -3.59288 -1.72258
6.35906 -3.58994 -1.7307
6.4036 -3.58871 -1.73976
6.44898 -3.58766 -1.74903
6.49482 -3.5866 -1.75841
6.54116 -3.58552 -1.76791
6.59064 -3.58587 -1.77824
6.64635 -3.58927 -1.79023
6.70281 -3.59271 -1.8024
6.75694 -3.59455 -1.81393
6.80604 -3.59339 -1.82408
5.47541 -5.15117 -1.84783
5.44918 -5.09444 -1.83359
5.42563 -5.04069 -1.82035
5.40242 -4.98773 -1.80732
5.38936 -4.94452 -1.79776
5.38131 -4.9062 -1.78994
5.37332 -4.86822 -1.78221
5.36541 -4.83057 -1.77457
5.36132 -4.7966 -1.76824
5.36073 -4.76594 -1.76312
5.36013 -4.73546 -1.75804
5.35953 -4.70515 -1.753
5.35893 -4.67501 -1.74801
5.35833 -4.64504 -1.74307
5.35773 -4.61523 -1.73816
5.35712 -4.58558 -1.7333
5.35652 -4.5561 -1.72849
5.35592 -4.52678 -1.72371
5.35552 -4.49779 -1.71905
5.358 -4.47135 -1.71534
5.36046 -4.44503 -1.71167
5.36292 -4.41881 -1.70803
5.36535 -4.3927 -1.70442
5.36778 -4.3667 -1.70084
5.37019 -4.34081 -1.69729
5.37259 -4.31502 -1.69377
5.37497 -4.28933 -1.69029
5.37734 -4.26375 -1.68683
5.38092 -4.23923 -1.68378
5.38454 -4.21484 -1.68078
5.38851 -4.19082 -1.67791
5.394 -4.16806 -1.67555
5.39947 -4.14537 -1.67322
5.40492 -4.12274 -1.6709
5.41036 -4.10017 -1.6686
5.41577 -4.07765 -1.66633
5.42368 -4.05707 -1.66485
5.4316 -4.03655 -1.66339
5.43953 -4.01609 -1.66197
5.44895 -3.99676 -1.66102
5.45836 -3.97745 -1.66008
5.46775 -3.95816 -1.65916
5.47713 -3.93888 -1.65826
5.48649 -3.91963 -1.65737
5.49584 -3.90039 -1.6565
5.50518 -3.88117 -1.65565
5.51755 -3.8641 -1.65572
5.53133 -3.84801 -1.65624
5.54512 -3.8319 -1.65677
5.5589 -3.81578 -1.65731
5.57269 -3.79965 -1.65787
5.58649 -3.7835 -1.65844
5.60201 -3.76849 -1.65954
5.62517 -3.75855 -1.66291
5.64841 -3.74858 -1.6663
5.67175 -3.73855 -1.66973
5.69519 -3.72849 -1.67319
5.72039 -3.71947 -1.67716
5.7474 -3.71149 -1.68167
5.77456 -3.70347 -1.68622
5.80186 -3.69541 -1.6908
5.82931 -3.6873 -1.69543
5.85691 -3.67915 -1.7001
5.88461 -3.67092 -1.7048
5.91232 -3.66255 -1.7095
5.94018 -3.65414 -1.71424
5.96819 -3.64568 -1.71902
5.99636 -3.63716 -1.72385
6.02468 -3.6286 -1.72872
6.05316 -3.61999 -1.73363
6.0822 -3.61157 -1.7387
6.11802 -3.60699 -1.74571
6.15412 -3.60237 -1.75278
6.19051 -3.59771 -1.75993
6.2272 -3.59301 -1.76716
6.26418 -3.58826 -1.77446
6.34623 -3.60893 -1.79449
6.36231 -3.59177 -1.79585
6.40909 -3.59178 -1.80587
6.45639 -3.59179 -1.81603
6.50424 -3.5918 -1.82631
6.55262 -3.59181 -1.83673
6.68723 -3.63842 -1.87126
6.67996 -3.60742 -1.86606
6.68595 -3.58367 -1.86459
6.74069 -3.58591 -1.87672
6.78958 -3.58471 -1.8872
5.50312 -5.17723 -1.92391
5.45989 -5.10445 -1.9032
5.42981 -5.04458 -1.8872
5.40655 -4.99154 -1.87368
5.39278 -4.94766 -1.86354
5.38267 -4.90745 -1.85473
5.3745 -4.86929 -1.84665
5.36658 -4.83162 -1.83873
5.3604 -4.79577 -1.83146
5.35845 -4.76392 -1.82569
5.35652 -4.73227 -1.81998
5.35459 -4.70082 -1.81431
5.35268 -4.66956 -1.80871
5.35078 -4.6385 -1.80315
5.34889 -4.60762 -1.79765
5.34702 -4.57694 -1.79219
5.34515 -4.54644 -1.78679
5.3433 -4.51612 -1.78144
5.343 -4.48727 -1.77665
5.34486 -4.46039 -1.77262
5.34735 -4.43415 -1.76883
5.34983 -4.40802 -1.76508
5.35229 -4.38201 -1.76136
5.35473 -4.35609 -1.75767
5.35717 -4.33028 -1.75401
5.35958 -4.30457 -1.75038
5.36199 -4.27897 -1.74679
5.36438 -4.25347 -1.74322
5.36676 -4.22807 -1.73969
5.37003 -4.20348 -1.73647
5.37475 -4.18012 -1.73376
5.38025 -4.15744 -1.73133
5.38572 -4.13482 -1.72892
5.39118 -4.11226 -1.72653
5.39662 -4.08976 -1.72417
5.40204 -4.06731 -1.72183
5.40826 -4.04555 -1.71977
5.41618 -4.02509 -1.71827
5.4253 -4.00558 -1.71718
5.43471 -3.98631 -1.7162
5.4441 -3.96705 -1.71523
5.45347 -3.94782 -1.71429
5.46283 -3.9286 -1.71336
5.47218 -3.9094 -1.71244
5.48151 -3.89022 -1.71155
5.49083 -3.87105 -1.71067
5.50014 -3.85191 -1.7098
5.51287 -3.83516 -1.71002
5.5266 -3.81911 -1.71056
5.54034 -3.80304 -1.71112
5.55408 -3.78696 -1.7117
5.5742 -3.77518 -1.71425
5.59723 -3.76528 -1.7177
5.62036 -3.75534 -1.72118
5.64358 -3.74536 -1.7247
5.66689 -3.73535 -1.72824
5.6903 -3.72528 -1.73181
5.7138 -3.71518 -1.73542
5.73983 -3.7066 -1.7398
5.76693 -3.69858 -1.74449
5.79417 -3.69051 -1.74923
5.82156 -3.6824 -1.75401
5.84896 -3.67415 -1.7588
5.87645 -3.66583 -1.76361
5.9041 -3.65746 -1.76846
5.9319 -3.64905 -1.77336
5.95985 -3.64058 -1.7783
5.98796 -3.63207 -1.78328
6.01622 -3.62351 -1.78831
6.04464 -3.61489 -1.79339
6.07321 -3.60623 -1.79851
6.10405 -3.59875 -1.8043
6.14001 -3.59411 -1.8116
6.17626 -3.58943 -1.81897
6.23457 -3.59726 -1.83282
6.27029 -3.59176 -1.84
6.31605 -3.59177 -1.85012
6.36231 -3.59178 -1.86038
6.40909 -3.59178 -1.87076
6.4564 -3.59179 -1.88128
6.50424 -3.5918 -1.89193
6.55263 -3.59181 -1.90273
6.60157 -3.59182 -1.91367
6.65108 -3.59183 -1.92475
6.74952 -3.61775 -1.94995
6.74768 -3.58963 -1.94617
6.7866 -3.58313 -1.95415
5.48993 -5.13254 -1.98033
5.44466 -5.05838 -1.95828
5.41071 -4.99538 -1.94043
5.39665 -4.95121 -1.92983
5.38651 -4.91095 -1.9207
5.37647 -4.87108 -1.91167
5.36776 -4.83268 -1.90319
5.36106 -4.79636 -1.89548
5.35911 -4.7645 -1.88951
5.35717 -4.73285 -1.88359
5.35524 -4.70139 -1.87774
5.35333 -4.67013 -1.87193
5.35157 -4.63918 -1.86623
5.35168 -4.61002 -1.86123
5.35179 -4.58102 -1.85627
5.35191 -4.55218 -1.85136
5.35203 -4.52349 -1.8465
5.35187 -4.49472 -1.84158
5.35026 -4.46489 -1.83621
5.34865 -4.43523 -1.83089
5.34829 -4.40676 -1.82603
5.34984 -4.38 -1.82188
5.3514 -4.35337 -1.81776
5.35294 -4.32686 -1.81367
5.35448 -4.30047 -1.80962
5.35601 -4.2742 -1.80561
5.35753 -4.24804 -1.80164
5.35905 -4.22199 -1.79769
5.36056 -4.19607 -1.79379
5.36492 -4.17248 -1.79087
5.36969 -4.14928 -1.78812
5.37445 -4.12617 -1.7854
5.37919 -4.10311 -1.7827
5.38392 -4.08013 -1.78002
5.38864 -4.05722 -1.77738
5.39373 -4.03467 -1.77488
5.40168 -4.01432 -1.77336
5.41109 -3.99509 -1.77233
5.42048 -3.97587 -1.77132
5.42985 -3.95667 -1.77033
5.43921 -3.93749 -1.76936
5.44855 -3.91833 -1.7684
5.45788 -3.89919 -1.76746
5.4672 -3.88006 -1.76654
5.4765 -3.86095 -1.76563
5.48579 -3.84186 -1.76474
5.49507 -3.82278 -1.76387
5.50813 -3.80635 -1.76423
5.5237 -3.79162 -1.76541
5.54653 -3.78181 -1.76891
5.56944 -3.77195 -1.77244
5.59244 -3.76206 -1.77601
5.61554 -3.75212 -1.77961
5.63873 -3.74215 -1.78324
5.66201 -3.73213 -1.7869
5.68539 -3.72207 -1.79059
5.70886 -3.71197 -1.79431
5.73243 -3.70182 -1.79807
5.75928 -3.69368 -1.80286
5.78641 -3.68557 -1.80773
5.81356 -3.67734 -1.81261
5.84085 -3.66906 -1.81753
5.86829 -3.66074 -1.8225
5.89588 -3.65237 -1.82751
5.92361 -3.64395 -1.83256
5.95151 -3.63548 -1.83766
5.97954 -3.62697 -1.8428
6.00774 -3.6184 -1.84799
6.0361 -3.60979 -1.85323
6.06461 -3.60112 -1.85852
6.09331 -3.59242 -1.86386
6.1619 -3.60692 -1.88138
6.18026 -3.59175 -1.88354
6.22503 -3.59176 -1.89375
6.27029 -3.59176 -1.90409
6.31606 -3.59177 -1.91457
6.36232 -3.59178 -1.92517
6.4091 -3.59179 -1.93592
6.45641 -3.5918 -1.9468
6.50425 -3.5918 -1.95783
6.55264 -3.59181 -1.969
6.60158 -3.59182 -1.98032
6.65109 -3.59183 -1.99179
6.70118 -3.59184 -2.00342
6.78625 -3.61015 -2.02547
6.78636 -3.583 -2.02214
5.49216 -5.1025 -2.04214
5.4419 -5.02418 -2.0176
5.40676 -4.96048 -1.9988
5.39402 -4.9178 -1.9884
5.38165 -4.87577 -1.9782
5.37034 -4.83501 -1.96847
5.36171 -4.79695 -1.9598
5.36058 -4.76581 -1.95392
5.36065 -4.73593 -1.94854
5.36073 -4.70621 -1.94321
5.36082 -4.67666 -1.93792
5.3609 -4.64727 -1.93269
5.36099 -4.61805 -1.9275
5.36108 -4.58897 -1.92236
5.36117 -4.56006 -1.91726
5.36127 -4.5313 -1.91222
5.36137 -4.5027 -1.90722
5.35991 -4.47295 -1.90171
5.35828 -4.44321 -1.89619
5.35665 -4.41365 -1.89072
5.35504 -4.38426 -1.8853
5.35344 -4.35504 -1.87993
5.35351 -4.32732 -1.87518
5.35504 -4.30093 -1.871
5.35657 -4.27465 -1.86685
5.3581 -4.24849 -1.86274
5.35961 -4.22244 -1.85866
5.36112 -4.19651 -1.85462
5.3657 -4.17308 -1.85168
5.37047 -4.14989 -1.84884
5.37523 -4.12676 -1.84602
5.37997 -4.10371 -1.84323
5.38477 -4.08077 -1.84049
5.39008 -4.05831 -1.83795
5.39539 -4.03591 -1.83545
5.40213 -4.01465 -1.83346
5.41062 -3.99474 -1.83209
5.4191 -3.97486 -1.83074
5.42758 -3.95501 -1.82941
5.43603 -3.9352 -1.8281
5.44448 -3.9154 -1.82682
5.45292 -3.89564 -1.82555
5.46135 -3.8759 -1.8243
5.46976 -3.8562 -1.82307
5.47816 -3.83651 -1.82186
5.48739 -3.81743 -1.82095
5.50101 -3.80142 -1.82151
5.52369 -3.79161 -1.82508
5.54646 -3.78176 -1.82869
5.56933 -3.77188 -1.83233
5.59229 -3.76196 -1.836
5.61535 -3.752 -1.83971
5.6385 -3.742 -1.84345
5.66176 -3.73196 -1.84722
5.68511 -3.72189 -1.85103
5.70856 -3.71177 -1.85487
5.72966 -3.70004 -1.85796
5.75174 -3.68884 -1.86137
5.77871 -3.68067 -1.86636
5.80585 -3.67246 -1.8714
5.83313 -3.66421 -1.87649
5.86055 -3.65591 -1.88162
5.88813 -3.64757 -1.8868
5.91586 -3.63918 -1.89203
5.94374 -3.63074 -1.8973
5.97177 -3.62225 -1.90262
5.99996 -3.61371 -1.90799
6.02831 -3.60513 -1.91341
6.05681 -3.59649 -1.91888
6.12074 -3.60859 -1.93554
6.13598 -3.59175 -1.9368
6.18027 -3.59175 -1.94722
6.22504 -3.59176 -1.95778
6.2703 -3.59177 -1.96847
6.31606 -3.59178 -1.97929
6.36233 -3.59178 -1.99026
6.4091 -3.59179 -2.00137
6.45641 -3.5918 -2.01262
6.50425 -3.59181 -2.02402
6.55264 -3.59182 -2.03557
6.60159 -3.59182 -2.04727
6.65109 -3.59183 -2.05913
6.70118 -3.59184 -2.07115
6.75186 -3.59185 -2.08333
6.82218 -3.60191 -2.10153
5.49401 -5.07229 -2.10383
5.44448 -4.99509 -2.07886
5.42034 -4.94179 -2.06373
5.40448 -4.89645 -2.05185
5.39207 -4.85457 -2.04136
5.37979 -4.81312 -2.031
5.37439 -4.77809 -2.02331
5.37403 -4.74775 -2.01757
5.37368 -4.71758 -2.01188
5.37334 -4.68758 -2.00625
5.373 -4.65776 -2.00068
5.37267 -4.6281 -1.99515
5.37234 -4.59861 -1.98967
5.37202 -4.56929 -1.98425
5.37171 -4.54013 -1.97888
5.37121 -4.51096 -1.97348
5.36994 -4.48132 -1.96786
5.36798 -4.45126 -1.96202
5.36633 -4.42162 -1.95635
5.36469 -4.39216 -1.95073
5.36306 -4.36286 -1.94517
5.36144 -4.33373 -1.93965
5.35984 -4.30478 -1.93419
5.35824 -4.27598 -1.92877
5.35866 -4.24894 -1.92413
5.36018 -4.22289 -1.91992
5.3617 -4.19696 -1.91575
5.36648 -4.17369 -1.91279
5.37125 -4.15049 -1.90985
5.37645 -4.1277 -1.90709
5.38179 -4.1051 -1.90442
5.38712 -4.08256 -1.90178
5.39244 -4.06008 -1.89916
5.39774 -4.03767 -1.89657
5.40386 -4.01594 -1.89429
5.41236 -3.99602 -1.89288
5.42084 -3.97614 -1.89149
5.42932 -3.95628 -1.89011
5.43778 -3.93646 -1.88876
5.44623 -3.91666 -1.88743
5.45552 -3.89749 -1.88641
5.46551 -3.87886 -1.88566
5.4755 -3.86025 -1.88493
5.48549 -3.84164 -1.88422
5.49547 -3.82306 -1.88353
5.5111 -3.80839 -1.88479
5.53384 -3.79858 -1.8885
5.55667 -3.78872 -1.89223
5.5796 -3.77884 -1.89601
5.60263 -3.76891 -1.89981
5.62575 -3.75895 -1.90366
5.64591 -3.74691 -1.9065
5.6654 -3.73437 -1.90913
5.68496 -3.72179 -1.91178
5.70456 -3.70917 -1.91446
5.72422 -3.69652 -1.91717
5.7447 -3.68432 -1.92016
5.7716 -3.67614 -1.9253
5.79866 -3.66791 -1.93048
5.82585 -3.65964 -1.93571
5.85319 -3.65132 -1.94099
5.88069 -3.64296 -1.94632
5.90836 -3.63456 -1.9517
5.93618 -3.62612 -1.95714
5.96415 -3.61763 -1.96262
5.99228 -3.60909 -1.96815
6.02057 -3.6005 -1.97373
6.08384 -3.61254 -1.99075
6.09216 -3.59174 -1.98979
6.13598 -3.59175 -2.00042
6.18027 -3.59176 -2.01119
6.22505 -3.59176 -2.02209
6.27031 -3.59177 -2.03313
6.31607 -3.59178 -2.04431
6.36233 -3.59179 -2.05564
6.40911 -3.5918 -2.06711
6.45642 -3.5918 -2.07874
6.50426 -3.59181 -2.09051
6.55265 -3.59182 -2.10244
6.60159 -3.59183 -2.11452
6.6511 -3.59184 -2.12677
6.70119 -3.59185 -2.13918
6.75187 -3.59185 -2.15176
6.82191 -3.60177 -2.17048
5.49608 -5.04243 -2.16562
5.4503 -4.96911 -2.14145
5.43407 -4.92326 -2.12901
5.41803 -4.87794 -2.11673
5.40258 -4.83351 -2.10478
5.39027 -4.79221 -2.09413
5.38929 -4.76123 -2.08795
5.3889 -4.73094 -2.08205
5.38851 -4.70082 -2.07621
5.38813 -4.67087 -2.07042
5.38703 -4.64048 -2.06441
5.38512 -4.60954 -2.05813
5.38321 -4.57881 -2.05192
5.38132 -4.54825 -2.04576
5.37944 -4.51788 -2.03967
5.37849 -4.48845 -2.03397
5.37894 -4.46034 -2.02885
5.37938 -4.43238 -2.02377
5.37886 -4.40376 -2.01838
5.37663 -4.37391 -2.0124
5.37442 -4.34423 -2.00648
5.37223 -4.31473 -2.00061
5.37006 -4.28541 -1.9948
5.3679 -4.25627 -1.98904
5.36576 -4.22729 -1.98333
5.3639 -4.19868 -1.97778
5.36864 -4.17536 -1.9747
5.37346 -4.15219 -1.97168
5.37882 -4.12952 -1.9689
5.38416 -4.1069 -1.96614
5.38949 -4.08435 -1.96341
5.3948 -4.06187 -1.9607
5.40011 -4.03944 -1.95803
5.40561 -4.01724 -1.95545
5.41411 -3.99731 -1.95399
5.42353 -3.97811 -1.95289
5.43356 -3.95937 -1.95203
5.44359 -3.94066 -1.95119
5.45361 -3.92196 -1.95038
5.46362 -3.90328 -1.94958
5.47363 -3.88462 -1.94881
5.48363 -3.86598 -1.94805
5.49363 -3.84734 -1.94732
5.50362 -3.82873 -1.9466
5.52127 -3.81542 -1.94861
5.54395 -3.80552 -1.9524
5.56317 -3.79315 -1.95498
5.58244 -3.78076 -1.95759
5.60176 -3.76833 -1.96022
5.62113 -3.75586 -1.96287
5.64055 -3.74336 -1.96555
5.66002 -3.73082 -1.96826
5.67955 -3.71825 -1.97099
5.69913 -3.70564 -1.97376
5.71876 -3.69299 -1.97654
5.73844 -3.68031 -1.97936
5.76449 -3.67161 -1.98437
5.79149 -3.66338 -1.9897
5.81863 -3.6551 -1.99509
5.84591 -3.64678 -2.00052
5.87335 -3.63841 -2.006
5.90093 -3.63 -2.01153
5.92866 -3.62153 -2.01712
5.95655 -3.61302 -2.02275
5.98459 -3.60446 -2.02843
6.06572 -3.6275 -2.05207
6.06644 -3.60221 -2.04849
6.09217 -3.59174 -2.05337
6.13599 -3.59175 -2.06434
6.18028 -3.59176 -2.07545
6.22505 -3.59177 -2.0867
6.27031 -3.59178 -2.0981
6.31607 -3.59178 -2.10964
6.36234 -3.59179 -2.12133
6.40912 -3.5918 -2.13316
6.45643 -3.59181 -2.14516
6.50427 -3.59181 -2.15731
6.55266 -3.59182 -2.16962
6.6016 -3.59183 -2.18209
6.65111 -3.59184 -2.19473
6.7012 -3.59185 -2.20754
6.82162 -3.62896 -2.24346
6.82164 -3.60163 -2.23975
5.42755 -4.79502 -2.1682
5.40138 -4.7419 -2.1518
5.39939 -4.71031 -2.14513
5.39741 -4.67892 -2.13851
5.39545 -4.64773 -2.13196
5.3935 -4.61672 -2.12547
5.39157 -4.58592 -2.11905
5.38965 -4.55529 -2.11268
5.38775 -4.52486 -2.10637
5.38624 -4.49492 -2.10027
5.38666 -4.46675 -2.09498
5.38709 -4.43873 -2.08973
5.38752 -4.41085 -2.08453
5.38795 -4.38311 -2.07938
5.38838 -4.35551 -2.07428
5.38779 -4.32723 -2.06883
5.38557 -4.29779 -2.0628
5.38336 -4.26852 -2.05683
5.38117 -4.23943 -2.05091
5.379 -4.2105 -2.04505
5.38238 -4.18605 -2.04135
5.3871 -4.16273 -2.03819
5.39181 -4.13949 -2.03506
5.39651 -4.11633 -2.03196
5.40121 -4.09323 -2.0289
5.40596 -4.07026 -2.02589
5.41136 -4.04786 -2.02315
5.41674 -4.02552 -2.02045
5.42558 -4.00579 -2.01906
5.43561 -3.98697 -2.01814
5.44563 -3.96817 -2.01724
5.45564 -3.94939 -2.01636
5.46565 -3.93063 -2.0155
5.47566 -3.91189 -2.01467
5.48567 -3.89316 -2.01386
5.49567 -3.87446 -2.01307
5.5056 -3.85573 -2.01228
5.51548 -3.83698 -2.01149
5.53242 -3.82313 -2.0133
5.55131 -3.81057 -2.01582
5.57025 -3.79799 -2.01837
5.58925 -3.78537 -2.02096
5.6083 -3.77273 -2.02357
5.62741 -3.76005 -2.0262
5.64657 -3.74735 -2.02887
5.66579 -3.73462 -2.03157
5.68506 -3.72186 -2.03429
5.70439 -3.70907 -2.03705
5.72219 -3.69521 -2.03926
5.73882 -3.68055 -2.04107
5.76557 -3.6723 -2.04649
5.79335 -3.66456 -2.05227
5.82129 -3.65678 -2.0581
5.84939 -3.64895 -2.06399
5.87766 -3.64108 -2.06994
5.90609 -3.63317 -2.07593
5.9342 -3.62491 -2.08182
5.96152 -3.61603 -2.08742
6.0531 -3.64572 -2.11548
6.05384 -3.6204 -2.11177
6.05458 -3.59517 -2.1081
6.09217 -3.59175 -2.11726
6.13599 -3.59176 -2.12857
6.18029 -3.59176 -2.14003
6.22506 -3.59177 -2.15163
6.27032 -3.59178 -2.16338
6.31608 -3.59179 -2.17528
6.36234 -3.59179 -2.18733
6.40912 -3.5918 -2.19954
6.45643 -3.59181 -2.2119
6.50428 -3.59182 -2.22443
6.55266 -3.59183 -2.23713
6.60161 -3.59184 -2.24999
6.65111 -3.59184 -2.26302
6.7012 -3.59185 -2.27623
5.3942 -4.50156 -2.16716
5.39446 -4.47321 -2.16163
5.39487 -4.44513 -2.15621
5.39528 -4.4172 -2.15084
5.39569 -4.38941 -2.14552
5.3961 -4.36175 -2.14024
5.39651 -4.33423 -2.13502
5.39692 -4.30685 -2.12984
5.39734 -4.2796 -2.1247
5.39674 -4.25169 -2.11922
5.39452 -4.22265 -2.11315
5.39626 -4.19685 -2.10868
5.40097 -4.17345 -2.10541
5.40591 -4.15031 -2.10225
5.41132 -4.12762 -2.09933
5.41673 -4.105 -2.09643
5.42213 -4.08244 -2.09357
5.42752 -4.05995 -2.09073
5.43291 -4.03752 -2.08793
5.43993 -4.01638 -2.08579
5.44998 -3.99751 -2.08483
5.46001 -3.97865 -2.0839
5.47005 -3.95982 -2.08299
5.48008 -3.941 -2.08211
5.49004 -3.92216 -2.08122
5.49995 -3.9033 -2.08033
5.50986 -3.88447 -2.07947
5.51976 -3.86565 -2.07863
5.52966 -3.84685 -2.07782
5.54852 -3.83425 -2.08038
5.56748 -3.82167 -2.083
5.5865 -3.80906 -2.08565
5.60558 -3.79643 -2.08832
5.6247 -3.78376 -2.09103
5.64389 -3.77107 -2.09376
5.66165 -3.75736 -2.09598
5.67818 -3.74279 -2.09775
5.69474 -3.72819 -2.09955
5.71132 -3.71357 -2.10137
5.72794 -3.69892 -2.10321
5.74747 -3.6861 -2.10614
5.77516 -3.6784 -2.11206
5.80301 -3.67066 -2.11803
5.83102 -3.66289 -2.12406
5.85886 -3.65485 -2.13002
5.88578 -3.64612 -2.13566
5.91286 -3.63733 -2.14134
5.94008 -3.6285 -2.14707
5.96744 -3.61963 -2.15286
6.05625 -3.64762 -2.18077
6.05538 -3.62132 -2.17636
6.05451 -3.59513 -2.172
6.09218 -3.59175 -2.18147
6.136 -3.59176 -2.19313
6.18029 -3.59177 -2.20493
6.22506 -3.59177 -2.21688
6.27033 -3.59178 -2.22898
6.31609 -3.59179 -2.24124
6.36235 -3.5918 -2.25366
6.40913 -3.59181 -2.26624
6.45644 -3.59181 -2.27898
6.50428 -3.59182 -2.29189
6.55267 -3.59183 -2.30497
6.60161 -3.59184 -2.31822
6.65112 -3.59185 -2.33165
5.44298 -4.15176 -2.17408
5.43309 -4.1174 -2.16497
5.43849 -4.09476 -2.16201
5.44387 -4.07218 -2.15907
5.44925 -4.04967 -2.15617
5.45462 -4.02722 -2.15329
5.46449 -4.00816 -2.15223
5.47447 -3.98919 -2.15123
5.48441 -3.97022 -2.15025
5.49435 -3.95127 -2.14928
5.50429 -3.93234 -2.14835
5.51421 -3.91343 -2.14743
5.52414 -3.89454 -2.14654
5.53407 -3.87566 -2.14567
5.5458 -3.85807 -2.14553
5.56479 -3.8455 -2.14821
5.58383 -3.8329 -2.15092
5.60146 -3.81926 -2.1531
5.61789 -3.80477 -2.15483
5.63435 -3.79025 -2.15658
5.65084 -3.77571 -2.15836
5.66736 -3.76115 -2.16016
5.68391 -3.74656 -2.16199
5.70049 -3.73195 -2.16384
5.71709 -3.71732 -2.16572
5.73373 -3.70266 -2.16763
5.75705 -3.69225 -2.17206
5.7846 -3.68442 -2.1781
5.81115 -3.67581 -2.18375
5.83783 -3.66716 -2.18945
5.86465 -3.65847 -2.19521
5.89162 -3.64973 -2.20102
5.91874 -3.64095 -2.20688
5.946 -3.63212 -2.2128
6.07101 -3.68245 -2.25502
6.0701 -3.65596 -2.25042
6.0692 -3.62958 -2.24586
6.06831 -3.60332 -2.24135
6.09219 -3.59175 -2.24601
6.13601 -3.59176 -2.25801
6.1803 -3.59177 -2.27016
6.22507 -3.59178 -2.28247
6.27033 -3.59179 -2.29493
6.31609 -3.59179 -2.30755
6.36236 -3.5918 -2.32034
6.40914 -3.59181 -2.33329
6.45645 -3.59182 -2.34641
6.50429 -3.59183 -2.3597
6.55268 -3.59183 -2.37316
6.60162 -3.59184 -2.38681
6.12769 -3.79597 -2.35534
6.12361 -3.76698 -2.34923
6.11958 -3.73815 -2.34318
6.11558 -3.70948 -2.33719
6.11162 -3.68097 -2.33127
6.10771 -3.65261 -2.3254
6.10383 -3.62441 -2.3196
6.1 -3.59636 -2.31385
6.13601 -3.59177 -2.32324
6.1803 -3.59177 -2.33574
6.22508 -3.59178 -2.3484
6.27034 -3.59179 -2.36122
6.3161 -3.5918 -2.37421
6.36236 -3.5918 -2.38736
6.40914 -3.59181 -2.40069
6.45645 -3.59182 -2.41419
6.50429 -3.59183 -2.42786
6.55268 -3.59184 -2.44172
6.24293 -3.78673 -2.45321
6.22614 -3.74994 -2.44199
6.20959 -3.71354 -2.43093
6.19327 -3.67752 -2.42002
6.17718 -3.64187 -2.40927
6.16132 -3.60658 -2.39867
6.18031 -3.59178 -2.40167
6.22508 -3.59178 -2.41469
6.27034 -3.59179 -2.42788
6.3161 -3.5918 -2.44123
6.36237 -3.59181 -2.45476
6.40915 -3.59182 -2.46846
6.45646 -3.59182 -2.48234
7.30861 -5.00631 -1.03545
7.29152 -4.96097 -1.03081
7.27385 -4.91553 -1.02612
7.2521 -4.86765 -1.02089
7.23047 -4.8202 -1.0157
7.20895 -4.77316 -1.01056
7.19485 -4.73132 -1.00649
7.1968 -4.70023 -1.00469
7.19869 -4.66921 -1.0029
7.20049 -4.63825 -1.00111
7.20137 -4.60682 -0.999215
7.20089 -4.57463 -0.997146
7.20034 -4.54255 -0.995086
7.19973 -4.51055 -0.993035
7.2111 -4.48613 -0.99265
7.22858 -4.46551 -0.993117
7.24603 -4.44485 -0.993588
7.26345 -4.42414 -0.994063
7.28085 -4.40338 -0.994543
7.29822 -4.38258 -0.995026
7.31557 -4.36173 -0.995515
7.33288 -4.34083 -0.996007
7.35001 -4.31979 -0.996483
7.3666 -4.29841 -0.996892
7.38315 -4.27698 -0.997306
7.40162 -4.25662 -0.997986
7.42454 -4.23876 -0.999273
7.44748 -4.22084 -1.00057
7.47045 -4.20285 -1.00187
7.49343 -4.18479 -1.00318
7.52712 -4.17258 -1.00593
7.57055 -4.16557 -1.00998
7.61426 -4.15845 -1.01406
7.65824 -4.15124 -1.01817
7.70251 -4.14392 -1.02232
7.74706 -4.13651 -1.0265
7.7919 -4.12899 -1.03071
7.83998 -4.12292 -1.03535
7.88848 -4.11679 -1.04004
7.93733 -4.11056 -1.04477
6.83843 -5.0075 -1.06216
6.83292 -4.97051 -1.05886
6.82744 -4.93374 -1.0556
6.82195 -4.89717 -1.05237
6.81647 -4.8608 -1.04916
6.81097 -4.82462 -1.04597
6.80548 -4.78864 -1.04281
6.79998 -4.75284 -1.03967
6.80098 -4.72176 -1.03754
6.8026 -4.69122 -1.03553
6.80457 -4.66105 -1.03359
6.8065 -4.63097 -1.03167
6.80839 -4.60098 -1.02975
6.81025 -4.57108 -1.02785
6.81207 -4.54127 -1.02597
6.81385 -4.51155 -1.02409
6.82014 -4.48491 -1.02291
6.82943 -4.4603 -1.02219
6.83867 -4.43569 -1.02148
6.84788 -4.41111 -1.02078
6.85705 -4.38655 -1.02008
6.86618 -4.362 -1.0194
6.87527 -4.33746 -1.01871
6.88616 -4.3141 -1.01831
6.90219 -4.29395 -1.01868
6.91819 -4.27377 -1.01905
6.93425 -4.2536 -1.01944
6.95586 -4.23678 -1.02065
6.97748 -4.2199 -1.02187
6.99912 -4.20296 -1.02309
7.02053 -4.18582 -1.02429
7.04182 -4.16853 -1.02548
7.06312 -4.15118 -1.02667
7.08443 -4.13376 -1.02788
7.10575 -4.11628 -1.02909
7.12708 -4.09873 -1.0303
7.14842 -4.08112 -1.03152
7.16977 -4.06345 -1.03275
7.19113 -4.04571 -1.03399
7.2125 -4.0279 -1.03524
7.23388 -4.01003 -1.03649
7.25527 -3.99209 -1.03775
7.27855 -3.97511 -1.03928
7.31247 -3.96381 -1.04234
7.34666 -3.95248 -1.04544
7.38205 -3.94161 -1.0487
7.41763 -3.93066 -1.05199
7.45341 -3.91963 -1.05531
7.48938 -3.90851 -1.05866
7.52556 -3.89731 -1.06204
7.57224 -3.89131 -1.06689
7.61851 -3.88483 -1.07168
7.66068 -3.876 -1.07589
7.71107 -3.87107 -1.08125
7.76586 -3.86802 -1.08722
7.82124 -3.86493 -1.09327
7.87724 -3.86181 -1.09939
7.93385 -3.85864 -1.10559
7.99434 -3.857 -1.11232
6.62543 -5.04643 -1.11407
6.61424 -5.00509 -1.10953
6.60957 -4.96892 -1.10612
6.60489 -4.93295 -1.10273
6.60021 -4.89718 -1.09937
6.59559 -4.86164 -1.09605
6.59106 -4.82636 -1.09277
6.58652 -4.79127 -1.08951
6.58357 -4.75751 -1.08654
6.58538 -4.72735 -1.08438
6.58716 -4.69729 -1.08223
6.5889 -4.66732 -1.0801
6.5906 -4.63744 -1.07798
6.59227 -4.60766 -1.07587
6.59441 -4.57834 -1.07387
6.59674 -4.54925 -1.07191
6.59902 -4.52025 -1.06997
6.60333 -4.49274 -1.06837
6.61269 -4.46873 -1.0676
6.62202 -4.44474 -1.06684
6.63131 -4.42077 -1.06609
6.64055 -4.39681 -1.06535
6.64976 -4.37287 -1.06461
6.65928 -4.34917 -1.06394
6.66879 -4.32551 -1.06328
6.67827 -4.30186 -1.06263
6.68771 -4.27822 -1.06198
6.69711 -4.25459 -1.06134
6.708 -4.23194 -1.06095
6.72068 -4.21043 -1.06086
6.73333 -4.18891 -1.06077
6.74596 -4.16737 -1.06069
6.75857 -4.14583 -1.06061
6.77115 -4.12427 -1.06054
6.7837 -4.10271 -1.06048
6.79623 -4.08113 -1.06043
6.80873 -4.05954 -1.06038
6.82121 -4.03794 -1.06034
6.83366 -4.01632 -1.06031
6.84609 -3.99469 -1.06028
6.85854 -3.97308 -1.06027
6.87919 -3.95618 -1.06153
6.91032 -3.94519 -1.06441
6.94198 -3.93435 -1.06737
6.97379 -3.92343 -1.07036
7.00575 -3.91244 -1.07337
7.03807 -3.90149 -1.07644
7.07138 -3.89091 -1.07965
7.10486 -3.88025 -1.08289
7.14638 -3.87378 -1.08736
7.19352 -3.87009 -1.09267
7.24112 -3.86636 -1.09805
7.28918 -3.86259 -1.10349
7.3377 -3.85878 -1.10899
7.38671 -3.85493 -1.11456
7.4362 -3.85103 -1.12019
7.4869 -3.84746 -1.126
7.53858 -3.84407 -1.13195
7.59127 -3.84089 -1.13804
7.64465 -3.83772 -1.14423
7.6986 -3.83452 -1.15049
7.75313 -3.83128 -1.15683
7.80825 -3.82799 -1.16325
7.86399 -3.82467 -1.16976
7.92057 -3.82141 -1.17638
7.97915 -3.81876 -1.18329
8.04289 -3.8182 -1.19095
8.11515 -3.82126 -1.19986
8.18848 -3.82436 -1.20892
8.27699 -3.83401 -1.2202
8.39156 -3.85505 -1.2353
6.43828 -5.0988 -1.16815
6.40655 -5.04095 -1.15951
6.40281 -5.00546 -1.15598
6.39935 -4.97039 -1.15252
6.39588 -4.9355 -1.14909
6.3924 -4.9008 -1.14569
6.38892 -4.86628 -1.14232
6.38542 -4.83194 -1.13897
6.38216 -4.79796 -1.13569
6.38111 -4.76581 -1.13283
6.38279 -4.73586 -1.13047
6.38451 -4.70605 -1.12815
6.38619 -4.67635 -1.12584
6.38785 -4.64675 -1.12355
6.38947 -4.61725 -1.12127
6.39106 -4.58785 -1.11901
6.39262 -4.55856 -1.11677
6.39415 -4.52936 -1.11454
6.39564 -4.50026 -1.11233
6.4045 -4.47642 -1.11141
6.41426 -4.45326 -1.11067
6.42398 -4.43012 -1.10993
6.43367 -4.40699 -1.1092
6.44331 -4.38387 -1.10848
6.45292 -4.36076 -1.10777
6.46249 -4.33767 -1.10706
6.47203 -4.31458 -1.10636
6.48152 -4.29151 -1.10567
6.49098 -4.26845 -1.10499
6.5004 -4.24541 -1.10431
6.51075 -4.223 -1.10381
6.52327 -4.20201 -1.10369
6.53577 -4.18102 -1.10357
6.54824 -4.16001 -1.10346
6.56069 -4.139 -1.10335
6.57315 -4.118 -1.10326
6.58559 -4.09699 -1.10318
6.598 -4.07597 -1.10311
6.61038 -4.05493 -1.10304
6.62275 -4.03388 -1.10298
6.63508 -4.01282 -1.10292
6.64739 -3.99175 -1.10288
6.65967 -3.97067 -1.10284
6.67678 -3.95244 -1.1036
6.69501 -3.93483 -1.10457
6.71535 -3.9184 -1.10588
6.73622 -3.90222 -1.10729
6.75713 -3.88598 -1.10871
6.7848 -3.87353 -1.11125
6.82282 -3.86682 -1.11547
6.8624 -3.86077 -1.11995
6.90676 -3.85716 -1.12521
6.95153 -3.85351 -1.13052
6.99672 -3.84983 -1.13589
7.04234 -3.8461 -1.14133
7.08838 -3.84234 -1.14682
7.13485 -3.83853 -1.15238
7.18177 -3.83468 -1.15801
7.22915 -3.83078 -1.16369
7.27698 -3.82685 -1.16945
7.32527 -3.82286 -1.17527
7.37428 -3.81896 -1.1812
7.42468 -3.81548 -1.18734
7.4756 -3.81195 -1.19356
7.52704 -3.80839 -1.19986
7.57922 -3.80488 -1.20626
7.63235 -3.80152 -1.2128
7.68605 -3.79813 -1.21943
7.74033 -3.79469 -1.22614
7.79519 -3.79121 -1.23294
7.85066 -3.78768 -1.23982
7.90794 -3.78468 -1.24698
7.96625 -3.78182 -1.25429
8.02524 -3.77892 -1.2617
8.09146 -3.77904 -1.27023
8.16427 -3.7818 -1.27979
8.23818 -3.78459 -1.2895
8.31321 -3.78742 -1.29937
8.38937 -3.79028 -1.30941
8.47478 -3.7968 -1.32087
8.61812 -3.8285 -1.34132
6.25974 -5.08692 -1.21576
6.24129 -5.0394 -1.20909
6.2392 -5.00536 -1.20563
6.23724 -4.97161 -1.20222
6.23527 -4.93802 -1.19884
6.23328 -4.90461 -1.19548
6.23127 -4.87136 -1.19215
6.22924 -4.83827 -1.18885
6.2272 -4.80534 -1.18556
6.22619 -4.77338 -1.18251
6.22817 -4.74385 -1.18004
6.23011 -4.71442 -1.17759
6.23203 -4.68509 -1.17516
6.2339 -4.65587 -1.17275
6.23575 -4.62675 -1.17035
6.23758 -4.59775 -1.16797
6.23952 -4.56894 -1.16564
6.24143 -4.54024 -1.16332
6.2433 -4.51162 -1.16101
6.24878 -4.48572 -1.1594
6.25687 -4.46176 -1.15829
6.26493 -4.43783 -1.15719
6.27294 -4.41392 -1.1561
6.28092 -4.39005 -1.15502
6.28887 -4.36621 -1.15395
6.29677 -4.34239 -1.15289
6.30468 -4.31863 -1.15184
6.31258 -4.29492 -1.15081
6.32045 -4.27124 -1.14979
6.32829 -4.24759 -1.14878
6.33609 -4.22396 -1.14777
6.34593 -4.20174 -1.14715
6.35602 -4.17971 -1.1466
6.3662 -4.15776 -1.14607
6.37684 -4.13614 -1.14563
6.38745 -4.11452 -1.14521
6.39804 -4.09291 -1.14479
6.40859 -4.0713 -1.14438
6.41989 -4.05017 -1.14412
6.4321 -4.02963 -1.14403
6.44428 -4.00908 -1.14394
6.45643 -3.98851 -1.14387
6.46856 -3.96794 -1.1438
6.48442 -3.94963 -1.1444
6.50218 -3.93245 -1.14534
6.51994 -3.91522 -1.14629
6.53771 -3.89795 -1.14726
6.55766 -3.88192 -1.14861
6.58971 -3.87294 -1.15208
6.62621 -3.86639 -1.15633
6.66298 -3.85979 -1.16062
6.70002 -3.85313 -1.16495
6.73732 -3.84642 -1.16933
6.77489 -3.83966 -1.17375
6.81275 -3.83283 -1.17821
6.85207 -3.82662 -1.18292
6.89623 -3.82286 -1.18846
6.9408 -3.81906 -1.19407
6.98578 -3.81521 -1.19973
7.03118 -3.81133 -1.20546
7.077 -3.8074 -1.21126
7.12326 -3.80344 -1.21712
7.16996 -3.79942 -1.22305
7.21711 -3.79536 -1.22905
7.26471 -3.79126 -1.23512
7.31367 -3.78757 -1.24141
7.36334 -3.78396 -1.24781
7.41351 -3.7803 -1.2543
7.4642 -3.77659 -1.26085
7.51541 -3.77284 -1.26749
7.56715 -3.76905 -1.27421
7.61997 -3.76547 -1.2811
7.67341 -3.76188 -1.28809
7.72744 -3.75825 -1.29517
7.78204 -3.75458 -1.30234
7.83783 -3.75113 -1.30969
7.89521 -3.7481 -1.3173
7.95326 -3.74503 -1.32501
8.01197 -3.74192 -1.33282
8.07136 -3.73876 -1.34074
8.14003 -3.7395 -1.35019
8.21341 -3.74195 -1.3604
8.2879 -3.74444 -1.37078
8.3635 -3.74695 -1.38132
8.42962 -3.74476 -1.39029
8.49308 -3.741 -1.39881
6.14118 -5.12027 -1.27321
6.12578 -5.07483 -1.2667
6.11514 -5.03365 -1.26122
6.11127 -4.99828 -1.25717
6.10739 -4.96312 -1.25315
6.10351 -4.92816 -1.24917
6.09964 -4.8934 -1.24521
6.09576 -4.85884 -1.24129
6.09158 -4.82423 -1.23735
6.08711 -4.7896 -1.23337
6.08801 -4.75936 -1.23051
6.08949 -4.72972 -1.2278
6.09146 -4.70059 -1.22521
6.09341 -4.67157 -1.22263
6.09532 -4.64266 -1.22008
6.09721 -4.61385 -1.21754
6.09906 -4.58514 -1.21503
6.10089 -4.55653 -1.21253
6.10269 -4.52803 -1.21005
6.10446 -4.49962 -1.20759
6.11146 -4.47517 -1.20618
6.11844 -4.45077 -1.20479
6.12538 -4.42641 -1.2034
6.13229 -4.40209 -1.20203
6.13925 -4.37788 -1.20069
6.14732 -4.35452 -1.19958
6.15536 -4.33119 -1.19849
6.16336 -4.30788 -1.1974
6.17133 -4.28461 -1.19632
6.17926 -4.26136 -1.19525
6.18716 -4.23813 -1.1942
6.19526 -4.2151 -1.19319
6.20535 -4.19346 -1.19259
6.21541 -4.17182 -1.19199
6.22544 -4.1502 -1.19141
6.23544 -4.12858 -1.19083
6.24541 -4.10697 -1.19026
6.25535 -4.08537 -1.1897
6.26526 -4.06377 -1.18914
6.27514 -4.04218 -1.1886
6.28524 -4.02075 -1.18811
6.29565 -3.99955 -1.18769
6.30603 -3.97834 -1.18728
6.31638 -3.95714 -1.18688
6.33133 -3.93881 -1.18735
6.34638 -3.92053 -1.18785
6.3628 -3.90306 -1.18862
6.37922 -3.88555 -1.1894
6.4024 -3.8721 -1.19145
6.43406 -3.86365 -1.19507
6.4693 -3.85716 -1.19935
6.50864 -3.8529 -1.20439
6.54447 -3.84635 -1.20878
6.58056 -3.83975 -1.2132
6.61691 -3.8331 -1.21768
6.65351 -3.82639 -1.22219
6.69038 -3.81963 -1.22675
6.72752 -3.81281 -1.23135
6.76493 -3.80593 -1.236
6.80261 -3.799 -1.2407
6.84167 -3.79261 -1.24563
6.88562 -3.7887 -1.25146
6.92999 -3.78474 -1.25735
6.97475 -3.78075 -1.26331
7.01994 -3.77671 -1.26934
7.06555 -3.77262 -1.27543
7.11159 -3.76849 -1.28159
7.15807 -3.76431 -1.28783
7.20542 -3.76032 -1.29421
7.25389 -3.75662 -1.30079
7.30285 -3.75287 -1.30744
7.3523 -3.74908 -1.31418
7.40225 -3.74525 -1.32099
7.45271 -3.74137 -1.32789
7.50369 -3.73744 -1.33487
7.55519 -3.73346 -1.34194
7.60748 -3.72956 -1.34913
7.66068 -3.72579 -1.35648
7.71445 -3.72196 -1.36392
7.7688 -3.71809 -1.37145
7.82526 -3.71489 -1.37935
7.88238 -3.71165 -1.38735
7.94015 -3.70837 -1.39546
7.99859 -3.70505 -1.40367
8.0577 -3.70168 -1.412
8.11751 -3.69826 -1.42043
8.1886 -3.69958 -1.43083
8.26254 -3.70172 -1.4417
8.33473 -3.70261 -1.45226
8.3969 -3.69863 -1.46106
6.01589 -5.11285 -1.32455
6.00109 -5.06784 -1.31778
5.99369 -5.02936 -1.31267
5.99032 -4.99449 -1.30848
5.98652 -4.95947 -1.30424
5.98256 -4.92452 -1.29999
5.97861 -4.88979 -1.29578
5.97466 -4.85525 -1.29161
5.97071 -4.82092 -1.28747
5.96768 -4.78754 -1.28356
5.96951 -4.7582 -1.28073
5.9713 -4.72898 -1.27791
5.97307 -4.69986 -1.27512
5.9748 -4.67086 -1.27235
5.97651 -4.64197 -1.26959
5.97819 -4.61318 -1.26686
5.98014 -4.58474 -1.26421
5.98225 -4.55654 -1.26162
5.98433 -4.52843 -1.25904
5.98638 -4.50043 -1.25649
5.99334 -4.47621 -1.25499
6.00042 -4.45215 -1.25353
6.00747 -4.42813 -1.25208
6.01448 -4.40415 -1.25065
6.02145 -4.38022 -1.24923
6.02839 -4.35632 -1.24782
6.0353 -4.33247 -1.24642
6.04239 -4.30881 -1.24508
6.04944 -4.28519 -1.24374
6.05647 -4.2616 -1.24243
6.06346 -4.23805 -1.24112
6.07042 -4.21454 -1.23982
6.08023 -4.19306 -1.23912
6.0903 -4.17179 -1.2385
6.1002 -4.15042 -1.23785
6.10988 -4.12894 -1.23717
6.11953 -4.10747 -1.2365
6.12916 -4.08601 -1.23584
6.13875 -4.06456 -1.23519
6.14832 -4.04312 -1.23455
6.15787 -4.0217 -1.23392
6.16739 -4.00029 -1.2333
6.17688 -3.97888 -1.23268
6.18634 -3.95749 -1.23208
6.19852 -3.93784 -1.23203
6.21127 -3.91856 -1.23211
6.22402 -3.89927 -1.2322
6.23675 -3.87997 -1.23229
6.25874 -3.86639 -1.23423
6.28947 -3.85808 -1.23789
6.32038 -3.84971 -1.24158
6.35145 -3.84129 -1.2453
6.38271 -3.83281 -1.24906
6.41414 -3.82428 -1.25285
6.44968 -3.818 -1.25744
6.48967 -3.81415 -1.26289
6.53201 -3.81143 -1.26879
6.57134 -3.8067 -1.2741
6.60753 -3.79994 -1.27879
6.64397 -3.79313 -1.28352
6.68068 -3.78626 -1.28831
6.71765 -3.77933 -1.29314
6.75489 -3.77235 -1.29801
6.79241 -3.7653 -1.30294
6.83118 -3.75874 -1.3081
6.87493 -3.75468 -1.31421
6.91908 -3.75057 -1.32039
6.96364 -3.74642 -1.32663
7.00862 -3.74222 -1.33295
7.05401 -3.73798 -1.33934
7.09983 -3.73369 -1.3458
7.14715 -3.72991 -1.35254
7.19493 -3.72608 -1.35936
7.24319 -3.72221 -1.36625
7.29193 -3.7183 -1.37323
7.34116 -3.71434 -1.3803
7.39088 -3.71033 -1.38744
7.44111 -3.70627 -1.39468
7.49186 -3.70217 -1.402
7.54313 -3.69801 -1.40941
7.59493 -3.69381 -1.41691
7.64784 -3.68983 -1.4246
7.70136 -3.68581 -1.4324
7.75635 -3.68218 -1.44047
7.81257 -3.67878 -1.44875
7.86942 -3.67534 -1.45715
7.92692 -3.67185 -1.46564
7.98508 -3.66832 -1.47426
8.04392 -3.66474 -1.48298
8.10345 -3.6611 -1.49183
8.16374 -3.65745 -1.5008
8.23713 -3.65925 -1.51217
8.30263 -3.65711 -1.52207
5.84919 -5.06706 -1.36455
5.83324 -5.02119 -1.35713
5.83072 -4.98717 -1.35289
5.82818 -4.95332 -1.34868
5.82561 -4.91965 -1.34449
5.82302 -4.88615 -1.34034
5.82041 -4.85282 -1.33622
5.81503 -4.8174 -1.3315
5.81286 -4.78483 -1.32754
5.81733 -4.75788 -1.32514
5.82174 -4.73099 -1.32274
5.8261 -4.70417 -1.32037
5.83041 -4.67741 -1.318
5.83467 -4.65073 -1.31565
5.83888 -4.62411 -1.31331
5.84304 -4.59755 -1.31098
5.84715 -4.57107 -1.30867
5.85121 -4.54465 -1.30637
5.85556 -4.51856 -1.30416
5.86188 -4.49407 -1.30241
5.87166 -4.4723 -1.30145
5.88219 -4.45114 -1.30068
5.89267 -4.42998 -1.2999
5.90025 -4.40668 -1.29851
5.90753 -4.38323 -1.29707
5.91478 -4.35981 -1.29564
5.922 -4.33643 -1.29423
5.92918 -4.31309 -1.29282
5.93632 -4.28979 -1.29143
5.94344 -4.26652 -1.29005
5.95052 -4.2433 -1.28869
5.95756 -4.2201 -1.28733
5.96586 -4.19785 -1.28626
5.97592 -4.17687 -1.28559
5.98596 -4.15591 -1.28493
5.99597 -4.13495 -1.28428
6.00595 -4.114 -1.28364
6.0159 -4.09307 -1.283
6.02583 -4.07214 -1.28238
6.03548 -4.05105 -1.28172
6.04501 -4.02991 -1.28104
6.05452 -4.00879 -1.28038
6.064 -3.98768 -1.27972
6.07346 -3.96657 -1.27908
6.08365 -3.94597 -1.2786
6.09628 -3.92696 -1.27865
6.1089 -3.90795 -1.27871
6.12159 -3.88897 -1.2788
6.13476 -3.87029 -1.279
6.15796 -3.85789 -1.2813
6.18123 -3.84544 -1.28362
6.20458 -3.83293 -1.28596
6.23729 -3.82607 -1.29023
6.27049 -3.81933 -1.29461
6.30117 -3.81088 -1.29846
6.33203 -3.80238 -1.30235
6.36306 -3.79382 -1.30627
6.39427 -3.7852 -1.31022
6.43007 -3.77912 -1.31512
6.46962 -3.77502 -1.32077
6.50991 -3.77112 -1.32656
6.5523 -3.76818 -1.33278
6.59507 -3.76521 -1.33906
6.63436 -3.76001 -1.34463
6.6709 -3.75303 -1.34963
6.70771 -3.74599 -1.35469
6.74478 -3.7389 -1.35979
6.78213 -3.73175 -1.36495
6.82059 -3.725 -1.37032
6.86414 -3.72079 -1.37671
6.90809 -3.71653 -1.38317
6.95244 -3.71223 -1.38971
6.9972 -3.70787 -1.39632
7.043 -3.7038 -1.40312
7.08965 -3.6999 -1.41009
7.13676 -3.69596 -1.41714
7.18433 -3.69197 -1.42427
7.23238 -3.68793 -1.43149
7.2809 -3.68385 -1.43879
7.3299 -3.67971 -1.44618
7.3794 -3.67553 -1.45366
7.4294 -3.6713 -1.46122
7.47991 -3.66702 -1.46888
7.53094 -3.66269 -1.47663
7.58251 -3.6583 -1.48447
7.63489 -3.654 -1.49247
7.68846 -3.64995 -1.50069
7.74379 -3.6464 -1.50924
7.79975 -3.6428 -1.51791
7.85633 -3.63916 -1.52668
7.91356 -3.63546 -1.53557
7.97145 -3.63172 -1.54458
8.03001 -3.62793 -1.55371
8.08925 -3.62408 -1.56296
8.14918 -3.62018 -1.57233
8.21019 -3.61639 -1.58189
5.64239 -5.01362 -1.3957
5.64072 -4.98045 -1.3914
5.63901 -4.94746 -1.38714
5.63402 -4.91179 -1.3821
5.62868 -4.87604 -1.37702
5.62333 -4.84051 -1.37198
5.61797 -4.8052 -1.36697
5.61995 -4.77635 -1.36379
5.62484 -4.7501 -1.36134
5.62968 -4.72392 -1.35891
5.63447 -4.6978 -1.35649
5.63938 -4.67188 -1.35412
5.64545 -4.64703 -1.35206
5.65147 -4.62223 -1.35002
5.65744 -4.59747 -1.34798
5.66337 -4.57277 -1.34595
5.66924 -4.54811 -1.34394
5.67506 -4.5235 -1.34194
5.68092 -4.49901 -1.33997
5.69 -4.47713 -1.33878
5.69903 -4.45527 -1.3376
5.70802 -4.43343 -1.33643
