ply
format ascii 1.0
comment Created by Open3D
element vertex 1865
property double x
property double y
property double z
end_header
-1.92273 6.63197 -1.51577
-1.93536 6.59816 -1.50942
-1.66732 6.68059 -1.57157
-1.68126 6.64773 -1.56507
-1.69507 6.61505 -1.55862
-1.70874 6.58255 -1.55222
-1.72221 6.54998 -1.5458
-1.73531 6.51673 -1.53923
-1.74828 6.48365 -1.53271
-1.76112 6.45076 -1.52623
-1.77388 6.41829 -1.51985
-1.78868 6.39374 -1.51536
-1.80338 6.36928 -1.51089
-1.81797 6.34489 -1.50645
-1.83246 6.32058 -1.50204
-1.84684 6.29635 -1.49765
-1.48457 6.65412 -1.61583
-1.48966 6.57986 -1.59892
-1.4971 6.5178 -1.58497
-1.51121 6.486 -1.57838
-1.52518 6.45438 -1.57184
-1.53902 6.42293 -1.56535
-1.55376 6.39595 -1.55996
-1.56921 6.37243 -1.55541
-1.58455 6.34899 -1.55089
-1.59979 6.32561 -1.5464
-1.61492 6.3023 -1.54193
-1.63001 6.27926 -1.53754
-1.64505 6.25654 -1.53323
-1.66 6.23388 -1.52894
-1.67484 6.21129 -1.52468
-1.68959 6.18875 -1.52044
-1.70424 6.16629 -1.51623
-1.71878 6.14388 -1.51203
-1.73323 6.12154 -1.50786
-1.74759 6.09926 -1.50372
-1.76185 6.07704 -1.49959
-1.7767 6.05724 -1.49607
-1.39627 6.64944 -1.67008
-1.40234 6.5758 -1.65268
-1.40372 6.48265 -1.63036
-1.40697 6.40061 -1.61083
-1.42008 6.36508 -1.603
-1.43213 6.32575 -1.59422
-1.44363 6.28503 -1.58509
-1.45499 6.24471 -1.57606
-1.46621 6.20481 -1.56714
-1.47977 6.17569 -1.56095
-1.49501 6.15411 -1.55667
-1.51015 6.13258 -1.55242
-1.52518 6.11111 -1.54818
-1.54013 6.08969 -1.54397
-1.55497 6.06832 -1.53978
-1.571 6.05192 -1.53686
-1.58748 6.03756 -1.53447
-1.6039 6.02321 -1.53209
-1.62026 6.00886 -1.52973
-1.63656 5.9945 -1.52737
-1.65279 5.98016 -1.52503
-1.66897 5.96582 -1.5227
-1.68508 5.95148 -1.52038
-1.70114 5.93714 -1.51807
-1.71713 5.9228 -1.51577
-1.73317 5.90881 -1.51357
-1.29705 6.58637 -1.70931
-1.2976 6.48194 -1.68325
-1.30326 6.40586 -1.66455
-1.31689 6.37062 -1.65645
-1.33039 6.33568 -1.64845
-1.34374 6.30102 -1.64052
-1.35642 6.26417 -1.63202
-1.36824 6.22442 -1.62277
-1.37993 6.18507 -1.61363
-1.39147 6.14612 -1.6046
-1.40287 6.10754 -1.59567
-1.41413 6.06935 -1.58684
-1.42738 6.04052 -1.58046
-1.44103 6.01399 -1.5747
-1.45457 5.98763 -1.56898
-1.468 5.96142 -1.56331
-1.48384 5.94545 -1.56033
-1.50016 5.93166 -1.55794
-1.51642 5.91787 -1.55556
-1.53262 5.90408 -1.55319
-1.54876 5.8903 -1.55083
-1.56484 5.87651 -1.54849
-1.58086 5.86273 -1.54615
-1.59682 5.84895 -1.54383
-1.61272 5.83517 -1.54152
-1.62869 5.82182 -1.53933
-1.64466 5.80869 -1.53722
-1.66058 5.79556 -1.53511
-1.67644 5.78242 -1.53302
-1.69224 5.76929 -1.53093
-1.19109 6.4754 -1.73489
-1.19967 6.40913 -1.71814
-1.21382 6.37421 -1.70979
-1.22783 6.33959 -1.70152
-1.24169 6.30524 -1.69334
-1.25541 6.27118 -1.68524
-1.26898 6.23739 -1.67722
-1.28221 6.20282 -1.669
-1.29434 6.16404 -1.65965
-1.30634 6.12564 -1.6504
-1.31818 6.08761 -1.64126
-1.33068 6.05352 -1.63319
-1.34469 6.02716 -1.6272
-1.3586 6.00095 -1.62127
-1.3724 5.9749 -1.61539
-1.38609 5.949 -1.60955
-1.39968 5.92326 -1.60376
-1.41316 5.89767 -1.59803
-1.42653 5.87223 -1.59234
-1.43981 5.84693 -1.58669
-1.45298 5.82178 -1.58109
-1.46605 5.79677 -1.57554
-1.48005 5.77596 -1.57114
-1.49592 5.76271 -1.5688
-1.51173 5.74946 -1.56648
-1.52762 5.73677 -1.56432
-1.54349 5.72415 -1.56219
-1.5594 5.71186 -1.56016
-1.57554 5.70065 -1.55844
-1.59165 5.68943 -1.55673
-1.60771 5.6782 -1.55502
-1.62373 5.66696 -1.55333
-1.6397 5.65571 -1.55165
-1.65562 5.64445 -1.54997
-1.14009 6.4242 -1.77735
-1.14205 6.32003 -1.74951
-1.154 6.27374 -1.73769
-1.16807 6.24027 -1.72942
-1.182 6.20707 -1.72124
-1.19578 6.17414 -1.71314
-1.20944 6.14146 -1.70511
-1.22191 6.10384 -1.69572
-1.23419 6.06637 -1.68638
-1.24833 6.0389 -1.67983
-1.2626 6.01287 -1.67368
-1.27677 5.98698 -1.66758
-1.29082 5.96126 -1.66153
-1.30477 5.93567 -1.65553
-1.31861 5.91024 -1.64958
-1.33234 5.88496 -1.64368
-1.34597 5.85983 -1.63783
-1.35949 5.83483 -1.63203
-1.37268 5.80901 -1.626
-1.38576 5.78332 -1.62002
-1.39873 5.75777 -1.61408
-1.4116 5.73237 -1.60819
-1.42494 5.70943 -1.603
-1.43979 5.69297 -1.59964
-1.45458 5.67656 -1.5963
-1.46817 5.6558 -1.59175
-1.48163 5.63499 -1.58719
-1.49603 5.61811 -1.58375
-1.51197 5.60727 -1.58202
-1.52788 5.59642 -1.5803
-1.54374 5.58556 -1.57859
-1.55955 5.57469 -1.5769
-1.57532 5.56381 -1.57521
-1.59105 5.55291 -1.57353
-1.60673 5.54201 -1.57186
-1.62238 5.5311 -1.5702
-1.12769 6.3543 -1.81576
-1.12981 6.25232 -1.78762
-1.13187 6.15346 -1.76036
-1.13795 6.07938 -1.74018
-1.15193 6.04919 -1.73256
-1.1665 6.02296 -1.72609
-1.18084 5.99624 -1.71948
-1.19505 5.96969 -1.71293
-1.20915 5.9433 -1.70644
-1.22314 5.91707 -1.7
-1.23701 5.89099 -1.69362
-1.25077 5.86508 -1.68728
-1.26442 5.83932 -1.68101
-1.27796 5.81371 -1.67478
-1.29139 5.78825 -1.6686
-1.30472 5.76294 -1.66248
-1.31793 5.73778 -1.6564
-1.33105 5.71277 -1.65038
-1.34563 5.69457 -1.64633
-1.3606 5.67832 -1.64286
-1.37549 5.66213 -1.63941
-1.39032 5.64597 -1.63598
-1.40508 5.62986 -1.63258
-1.41977 5.61379 -1.62921
-1.43347 5.59416 -1.6248
-1.44688 5.5738 -1.6202
-1.46021 5.55353 -1.61563
-1.47346 5.53335 -1.61109
-1.48662 5.51325 -1.60659
-1.49971 5.49325 -1.60212
-1.51305 5.47453 -1.59804
-1.52858 5.464 -1.59635
-1.54407 5.45345 -1.59468
-1.55943 5.44257 -1.59292
-1.57474 5.43165 -1.59116
-1.59138 5.42543 -1.59079
-1.11312 6.38853 -1.88283
-1.11548 6.2855 -1.85349
-1.1176 6.18473 -1.8248
-1.11965 6.08704 -1.797
-1.12585 6.01473 -1.77669
-1.13317 5.95066 -1.7588
-1.1414 5.89337 -1.74292
-1.15553 5.86771 -1.73639
-1.16953 5.84221 -1.72992
-1.18343 5.81685 -1.7235
-1.19721 5.79165 -1.71714
-1.21089 5.76658 -1.71082
-1.22445 5.74167 -1.70456
-1.23791 5.7169 -1.69835
-1.2519 5.69516 -1.69305
-1.26704 5.6791 -1.68945
-1.28211 5.66308 -1.68587
-1.29711 5.6471 -1.68231
-1.31204 5.63116 -1.67878
-1.3269 5.61527 -1.67528
-1.34169 5.59942 -1.67179
-1.35642 5.58361 -1.66833
-1.37108 5.56784 -1.6649
-1.38567 5.55211 -1.66148
-1.39947 5.53354 -1.65723
-1.41283 5.51362 -1.65258
-1.42611 5.49377 -1.64796
-1.4393 5.47401 -1.64338
-1.45242 5.45434 -1.63884
-1.46545 5.43475 -1.63432
-1.48075 5.4238 -1.63242
-1.49639 5.41426 -1.63095
-1.512 5.40472 -1.62949
-1.52758 5.39519 -1.62805
-1.54313 5.38566 -1.62663
-1.55864 5.37614 -1.62522
-1.57506 5.36978 -1.62478
-1.10055 6.31633 -1.91948
-1.10291 6.2147 -1.88963
-1.1052 6.11613 -1.86071
-1.10989 6.03396 -1.83675
-1.1176 5.97068 -1.81855
-1.12507 5.90813 -1.80056
-1.13221 5.84586 -1.78266
-1.1392 5.7848 -1.76512
-1.14606 5.72493 -1.74794
-1.15866 5.6951 -1.73993
-1.1739 5.67885 -1.73608
-1.18914 5.66301 -1.73237
-1.20431 5.64722 -1.72868
-1.21941 5.63146 -1.72502
-1.23445 5.61575 -1.72138
-1.24941 5.60008 -1.71777
-1.2643 5.58445 -1.71418
-1.27913 5.56885 -1.71062
-1.2939 5.5533 -1.70708
-1.30859 5.53779 -1.70356
-1.32322 5.52231 -1.70007
-1.33778 5.50688 -1.6966
-1.35228 5.49148 -1.69315
-1.36616 5.47392 -1.68905
-1.37946 5.45441 -1.68436
-1.39268 5.43499 -1.6797
-1.40777 5.42312 -1.67739
-1.42344 5.41367 -1.67583
-1.43907 5.40421 -1.67429
-1.45467 5.39476 -1.67277
-1.47025 5.38532 -1.67126
-1.48578 5.37588 -1.66977
-1.50129 5.36644 -1.66829
-1.51677 5.35701 -1.66683
-1.53222 5.34758 -1.66538
-1.54763 5.33816 -1.66395
-1.56302 5.32874 -1.66253
-1.09452 6.28174 -1.96685
-1.09057 6.14514 -1.92514
-1.0938 6.05305 -1.89736
-1.1017 5.98944 -1.87849
-1.10944 5.92706 -1.86001
-1.11702 5.86589 -1.8419
-1.12421 5.80459 -1.82375
-1.13124 5.74435 -1.80593
-1.13889 5.68914 -1.78969
-1.15228 5.66375 -1.78282
-1.16556 5.63854 -1.77603
-1.17994 5.6192 -1.77109
-1.1944 5.60074 -1.76645
-1.20878 5.58237 -1.76184
-1.22309 5.56408 -1.75727
-1.23732 5.54588 -1.75273
-1.25147 5.52776 -1.74824
-1.26555 5.50972 -1.74378
-1.27956 5.49177 -1.73936
-1.29349 5.4739 -1.73497
-1.30735 5.4561 -1.73062
-1.32114 5.43839 -1.72631
-1.33558 5.42368 -1.72296
-1.35131 5.41442 -1.72136
-1.36701 5.40517 -1.71977
-1.38267 5.39593 -1.7182
-1.39831 5.3867 -1.71665
-1.41392 5.37748 -1.71511
-1.4295 5.36826 -1.71359
-1.44504 5.35906 -1.71209
-1.46056 5.34986 -1.71061
-1.47605 5.34068 -1.70914
-1.49151 5.3315 -1.70769
-1.50695 5.32232 -1.70626
-1.52235 5.31316 -1.70484
-1.53773 5.304 -1.70344
-1.55308 5.29485 -1.70206
-1.09204 6.2675 -2.02045
-1.08374 6.10666 -1.96968
-1.08567 6.00803 -1.93896
-1.09359 5.94534 -1.91982
-1.10135 5.88385 -1.90107
-1.10896 5.82354 -1.8827
-1.11629 5.76368 -1.86447
-1.12334 5.70426 -1.84638
-1.13531 5.67127 -1.83684
-1.14867 5.64602 -1.82982
-1.16193 5.62095 -1.82287
-1.17508 5.59608 -1.81599
-1.18814 5.57138 -1.80917
-1.2024 5.55289 -1.80438
-1.21665 5.53477 -1.79973
-1.23082 5.51674 -1.79511
-1.24491 5.4988 -1.79053
-1.25894 5.48093 -1.78599
-1.27289 5.46314 -1.78148
-1.28676 5.44543 -1.77701
-1.30057 5.4278 -1.77258
-1.31457 5.41134 -1.76854
-1.33012 5.40149 -1.76668
-1.34563 5.39165 -1.76483
-1.36116 5.38203 -1.76307
-1.37676 5.37285 -1.76146
-1.39234 5.36368 -1.75988
-1.40788 5.35452 -1.75831
-1.4234 5.34537 -1.75676
-1.43889 5.33622 -1.75523
-1.45435 5.32708 -1.75371
-1.46977 5.31795 -1.75222
-1.48517 5.30883 -1.75074
-1.50055 5.29972 -1.74927
-1.51589 5.29061 -1.74783
-1.53121 5.28151 -1.7464
-1.5465 5.27242 -1.74498
-1.0982 6.42181 -2.12884
-1.08955 6.25324 -2.07408
-1.07949 6.08272 -2.01864
-1.08416 5.99966 -1.99219
-1.08955 5.92338 -1.96798
-1.09481 5.84893 -1.94438
-1.10097 5.78158 -1.92313
-1.10844 5.72313 -1.90483
-1.11831 5.6787 -1.8912
-1.13174 5.65342 -1.88395
-1.14507 5.62831 -1.87677
-1.1583 5.60339 -1.86967
-1.17143 5.57866 -1.86263
-1.18445 5.5541 -1.85566
-1.19738 5.52972 -1.84876
-1.21024 5.50563 -1.84196
-1.22435 5.48776 -1.83726
-1.23839 5.46998 -1.8326
-1.25236 5.45228 -1.82797
-1.26625 5.43466 -1.82338
-1.28007 5.41711 -1.81884
-1.29382 5.39965 -1.81432
-1.3092 5.38922 -1.81219
-1.32469 5.37943 -1.81029
-1.34014 5.36966 -1.8084
-1.35556 5.3599 -1.80654
-1.37094 5.35015 -1.80469
-1.38638 5.34074 -1.80297
-1.40187 5.33163 -1.80137
-1.41732 5.32254 -1.79979
-1.43275 5.31345 -1.79823
-1.44815 5.30437 -1.79668
-1.46351 5.2953 -1.79515
-1.47885 5.28624 -1.79364
-1.49417 5.27718 -1.79215
-1.50945 5.26813 -1.79067
-1.52471 5.25909 -1.78922
-1.53994 5.25006 -1.78777
-1.09563 6.40677 -2.18381
-1.08564 6.23076 -2.12496
-1.07544 6.05989 -2.06783
-1.08226 5.98917 -2.04484
-1.08835 5.91684 -2.0213
-1.09362 5.84254 -1.99708
-1.09877 5.77001 -1.97346
-1.10379 5.69916 -1.9504
-1.11564 5.66516 -1.93995
-1.12865 5.63799 -1.93185
-1.14156 5.61105 -1.92383
-1.15467 5.58585 -1.91642
-1.16777 5.56125 -1.90923
-1.18077 5.53684 -1.90211
-1.19367 5.5126 -1.89506
-1.20648 5.48853 -1.88807
-1.21919 5.46463 -1.88116
-1.2319 5.44132 -1.87445
-1.24581 5.42378 -1.86975
-1.25965 5.40632 -1.86508
-1.27341 5.38894 -1.86045
-1.28837 5.3769 -1.85768
-1.30384 5.36716 -1.85572
-1.31927 5.35744 -1.85378
-1.33466 5.34773 -1.85185
-1.35003 5.33803 -1.84995
-1.36536 5.32835 -1.84807
-1.38065 5.31867 -1.8462
-1.39592 5.30901 -1.84436
-1.41126 5.29979 -1.84268
-1.42663 5.29076 -1.84109
-1.44197 5.28173 -1.83951
-1.45727 5.27272 -1.83796
-1.47255 5.26372 -1.83642
-1.4878 5.25472 -1.83489
-1.50303 5.24573 -1.83339
-1.51823 5.23674 -1.8319
-1.53398 5.22973 -1.83112
-1.09205 6.38585 -2.23677
-1.08089 6.20354 -2.17409
-1.0735 6.04898 -2.12109
-1.08033 5.97851 -2.09755
-1.08701 5.9096 -2.07456
-1.09242 5.83614 -2.04997
-1.09758 5.76376 -2.02574
-1.10261 5.69307 -2.0021
-1.11511 5.66246 -1.99256
-1.12799 5.63468 -1.98401
-1.14088 5.60774 -1.97578
-1.15368 5.58104 -1.96763
-1.16637 5.55457 -1.95958
-1.17895 5.52831 -1.95161
-1.19143 5.50226 -1.94372
-1.20382 5.47641 -1.93592
-1.2161 5.45078 -1.92819
-1.22829 5.42535 -1.92055
-1.24052 5.40077 -1.91321
-1.25308 5.37812 -1.90657
-1.26764 5.36452 -1.90315
-1.28309 5.35484 -1.90113
-1.29849 5.34517 -1.89913
-1.31387 5.3355 -1.89715
-1.3292 5.32586 -1.89519
-1.34451 5.31622 -1.89325
-1.35978 5.3066 -1.89134
-1.37502 5.29698 -1.88944
-1.39023 5.28738 -1.88756
-1.4054 5.27779 -1.88569
-1.42055 5.26821 -1.88385
-1.4358 5.25917 -1.88222
-1.45105 5.25021 -1.88063
-1.46627 5.24126 -1.87906
-1.48146 5.23232 -1.87751
-1.49757 5.22667 -1.87716
-1.51431 5.22322 -1.87762
-1.53105 5.21976 -1.87809
-1.07616 6.1764 -2.22306
-1.07156 6.03804 -2.17446
-1.0784 5.96782 -2.15038
-1.08509 5.89915 -2.12685
-1.09122 5.82971 -2.10304
-1.09638 5.75749 -2.07821
-1.10161 5.68793 -2.05434
-1.11461 5.65993 -2.04548
-1.12749 5.63217 -2.03671
-1.14025 5.60465 -2.02804
-1.153 5.57774 -2.0196
-1.16568 5.55129 -2.01134
-1.17826 5.52507 -2.00317
-1.19074 5.49905 -1.99507
-1.20312 5.47323 -1.98707
-1.2154 5.44762 -1.97914
-1.22758 5.42222 -1.9713
-1.23966 5.39701 -1.96354
-1.25165 5.372 -1.95586
-1.26599 5.35751 -1.95202
-1.28101 5.34618 -1.94934
-1.29608 5.33522 -1.94682
-1.3111 5.32428 -1.94431
-1.32609 5.31337 -1.94184
-1.34104 5.30248 -1.93939
-1.35595 5.29163 -1.93696
-1.37082 5.28079 -1.93456
-1.38566 5.26999 -1.93218
-1.40046 5.25921 -1.92983
-1.41522 5.24846 -1.9275
-1.42995 5.23773 -1.92519
-1.44485 5.22776 -1.92319
-1.46132 5.22356 -1.92332
-1.47801 5.22012 -1.92375
-1.49471 5.21668 -1.92419
-1.51141 5.21323 -1.92466
-1.52813 5.20978 -1.92514
-1.06962 6.02709 -2.22796
-1.07647 5.95711 -2.20333
-1.08317 5.88867 -2.17926
-1.08972 5.82172 -2.15573
-1.09518 5.75119 -2.13088
-1.10112 5.68535 -2.10775
-1.11411 5.65738 -2.09866
-1.12698 5.62964 -2.08968
-1.13975 5.60215 -2.08079
-1.1524 5.57488 -2.07199
-1.16499 5.54801 -2.06335
-1.17756 5.52181 -2.05497
-1.19004 5.49582 -2.04667
-1.20241 5.47003 -2.03846
-1.21469 5.44445 -2.03034
-1.22686 5.41907 -2.0223
-1.23894 5.39389 -2.01434
-1.25093 5.3689 -2.00646
-1.2658 5.35672 -2.00338
-1.28071 5.34493 -2.00046
-1.29562 5.33332 -1.99763
-1.31064 5.32239 -1.99506
-1.32562 5.31148 -1.99252
-1.34056 5.3006 -1.99001
-1.35547 5.28975 -1.98752
-1.37034 5.27893 -1.98505
-1.38517 5.26813 -1.98261
-1.39996 5.25736 -1.9802
-1.41472 5.24661 -1.97781
-1.42945 5.23588 -1.97545
-1.44448 5.22643 -1.97358
-1.46067 5.22125 -1.97334
-1.47686 5.21606 -1.97312
-1.49305 5.21087 -1.97292
-1.50923 5.20569 -1.97274
-1.52541 5.2005 -1.97257
-1.08124 5.87818 -2.2318
-1.0878 5.81145 -2.20775
-1.09398 5.74487 -2.18375
-1.10062 5.68277 -2.16144
-1.1136 5.65481 -2.15213
-1.12647 5.6271 -2.14291
-1.13923 5.59963 -2.1338
-1.15189 5.57239 -2.12478
-1.16444 5.54537 -2.11586
-1.17688 5.51859 -2.10704
-1.18933 5.49257 -2.09852
-1.20171 5.46681 -2.09011
-1.21398 5.44126 -2.08178
-1.22615 5.41591 -2.07354
-1.23822 5.39076 -2.06539
-1.25066 5.36774 -2.05806
-1.26561 5.35592 -2.05504
-1.28052 5.34414 -2.05205
-1.29539 5.33239 -2.04909
-1.31022 5.32068 -2.04615
-1.32514 5.30959 -2.04347
-1.34008 5.29871 -2.0409
-1.35498 5.28787 -2.03834
-1.36985 5.27705 -2.03582
-1.38468 5.26626 -2.03332
-1.39947 5.25549 -2.03084
-1.41422 5.24475 -2.0284
-1.42894 5.23403 -2.02597
-1.44441 5.22618 -2.02468
-1.4606 5.221 -2.02443
-1.47679 5.21581 -2.0242
-1.49297 5.21062 -2.024
-1.50915 5.20544 -2.02381
-1.52533 5.20025 -2.02364
-1.0923 5.73606 -2.23587
-1.10011 5.68017 -2.21541
-1.11309 5.65224 -2.20587
-1.12596 5.62455 -2.19643
-1.13872 5.5971 -2.1871
-1.15137 5.56988 -2.17786
-1.16391 5.54289 -2.16872
-1.17635 5.51612 -2.15968
-1.18869 5.48958 -2.15073
-1.201 5.46358 -2.14201
-1.21326 5.43805 -2.13348
-1.22543 5.41273 -2.12504
-1.2375 5.38761 -2.11669
-1.25047 5.36693 -2.1101
-1.26542 5.35512 -2.107
-1.28033 5.34334 -2.10394
-1.2952 5.3316 -2.1009
-1.31002 5.31988 -2.09789
-1.3248 5.3082 -2.09491
-1.3396 5.29681 -2.09207
-1.3545 5.28598 -2.08945
-1.36936 5.27516 -2.08686
-1.38418 5.26437 -2.0843
-1.39897 5.25361 -2.08177
-1.41372 5.24288 -2.07926
-1.42843 5.23217 -2.07677
-1.44434 5.22593 -2.07608
-1.46053 5.22074 -2.07583
-1.47672 5.21556 -2.0756
-1.4929 5.21037 -2.07539
-1.50908 5.20519 -2.0752
-1.52526 5.2 -2.07502
-1.1382 5.59456 -2.24068
-1.15085 5.56736 -2.23122
-1.16339 5.54039 -2.22187
-1.17583 5.51365 -2.21261
-1.18816 5.48713 -2.20345
-1.20039 5.46082 -2.19438
-1.21254 5.43483 -2.18546
-1.2247 5.40954 -2.17682
-1.23677 5.38444 -2.16827
-1.25028 5.36612 -2.16246
-1.26523 5.35431 -2.15929
-1.28014 5.34254 -2.15614
-1.295 5.33079 -2.15303
-1.30982 5.31908 -2.14995
-1.3246 5.30741 -2.1469
-1.33934 5.29576 -2.14387
-1.35403 5.28415 -2.14088
-1.36887 5.27326 -2.1382
-1.38368 5.26248 -2.13557
-1.39846 5.25173 -2.13298
-1.41321 5.241 -2.13041
-1.42808 5.23087 -2.1281
-1.44427 5.22568 -2.12782
-1.46046 5.22049 -2.12756
-1.47664 5.2153 -2.12732
-1.49283 5.21012 -2.1271
-1.50901 5.20493 -2.1269
-1.52519 5.19975 -2.12673
-1.19985 5.45837 -2.24718
-1.21198 5.4323 -2.238
-1.224 5.40644 -2.22891
-1.23604 5.38125 -2.22011
-1.25009 5.36531 -2.21514
-1.26504 5.3535 -2.21189
-1.27995 5.34173 -2.20867
-1.29481 5.32999 -2.20549
-1.30963 5.31828 -2.20233
-1.3244 5.30661 -2.1992
-1.33913 5.29497 -2.19611
-1.35383 5.28336 -2.19304
-1.36848 5.27178 -2.19001
-1.38318 5.26058 -2.18714
-1.39796 5.24983 -2.18448
-1.4127 5.23911 -2.18185
-1.42801 5.23061 -2.18017
-1.4442 5.22542 -2.17988
-1.46039 5.22024 -2.17962
-1.47657 5.21505 -2.17937
-1.49276 5.20986 -2.17915
-1.5089 5.20455 -2.17889
-1.52499 5.1991 -2.1786
-1.29461 5.32918 -2.25828
-1.30943 5.31747 -2.25505
-1.3242 5.3058 -2.25185
-1.33893 5.29416 -2.24868
-1.35362 5.28256 -2.24554
-1.36828 5.27098 -2.24243
-1.38288 5.25944 -2.23935
-1.39745 5.24793 -2.2363
-1.41219 5.23721 -2.23361
-1.42794 5.23035 -2.23259
-1.44413 5.22517 -2.23229
-1.46027 5.21982 -2.23195
-1.47638 5.21436 -2.23158
-1.49248 5.20891 -2.23124
-1.50858 5.20345 -2.23092
-1.52467 5.198 -2.23062
-3.44602 6.5885 -1.05757
-3.43732 6.52176 -1.04859
-3.42866 6.45593 -1.03974
-3.4201 6.3911 -1.03102
-3.41752 6.3382 -1.02422
-3.42686 6.30787 -1.02106
-3.43787 6.28088 -1.01844
-3.44879 6.25396 -1.01583
-3.45961 6.2271 -1.01324
-3.47034 6.20031 -1.01065
-3.48097 6.17358 -1.00808
-3.49158 6.14705 -1.00553
-3.50276 6.12175 -1.0032
-3.51386 6.0965 -1.00087
-3.52487 6.07129 -0.998549
-3.53993 6.05325 -0.997411
-3.55732 6.03923 -0.996942
-3.57466 6.02518 -0.996477
-3.59197 6.01111 -0.996017
-3.60924 5.99702 -0.995561
-3.62647 5.9829 -0.99511
-3.22524 6.66997 -1.1167
-3.20427 6.57368 -1.10226
-3.20143 6.51566 -1.09422
-3.20033 6.46188 -1.08688
-3.1992 6.40877 -1.07963
-3.19807 6.3563 -1.07249
-3.20371 6.31785 -1.0677
-3.21005 6.28122 -1.06321
-3.21607 6.24436 -1.05868
-3.22201 6.20777 -1.05419
-3.22789 6.17145 -1.04975
-3.23369 6.1354 -1.04534
-3.23943 6.09961 -1.04098
-3.24509 6.06408 -1.03666
-3.25672 6.03999 -1.03429
-3.26864 6.01662 -1.03204
-3.28048 5.99333 -1.02982
-3.29226 5.97011 -1.02761
-3.30398 5.94697 -1.02541
-3.31563 5.92391 -1.02323
-3.33169 5.90884 -1.02243
-3.34877 5.89563 -1.02197
-3.36581 5.88239 -1.02151
-3.38281 5.86913 -1.02105
-3.39978 5.85584 -1.0206
-3.41671 5.84254 -1.02015
-3.43361 5.82921 -1.01971
-3.45047 5.81585 -1.01927
-3.4673 5.80247 -1.01883
-3.48522 5.79094 -1.01873
-3.5037 5.78035 -1.0188
-3.05512 6.63539 -1.16321
-3.04881 6.56713 -1.15293
-3.04258 6.5 -1.14282
-3.0414 6.44451 -1.13474
-3.04151 6.39249 -1.12726
-3.04485 6.34787 -1.12108
-3.05197 6.31165 -1.11638
-3.05901 6.27568 -1.11171
-3.06598 6.23998 -1.1071
-3.07282 6.20443 -1.1025
-3.07938 6.16873 -1.09788
-3.08586 6.13328 -1.09329
-3.09227 6.09809 -1.08875
-3.09861 6.06315 -1.08425
-3.11069 6.03976 -1.08181
-3.12288 6.01677 -1.07945
-3.135 5.99386 -1.07711
-3.14706 5.97103 -1.07478
-3.15905 5.94826 -1.07247
-3.17097 5.92557 -1.07018
-3.18283 5.90295 -1.0679
-3.19463 5.8804 -1.06563
-3.20636 5.85792 -1.06338
-3.21802 5.8355 -1.06115
-3.22956 5.81302 -1.05891
-3.24103 5.79062 -1.05668
-3.2533 5.7698 -1.05475
-3.26665 5.75106 -1.0532
-3.27996 5.73235 -1.05166
-3.29321 5.71368 -1.05013
-3.30642 5.69504 -1.04862
-3.31959 5.67646 -1.04712
-3.33764 5.66629 -1.04717
-3.35569 5.65609 -1.04724
-3.37371 5.64586 -1.04731
-3.39172 5.6356 -1.04738
-3.40972 5.62531 -1.04746
-2.89934 6.62387 -1.21308
-2.89467 6.55687 -1.20247
-2.89005 6.49098 -1.19205
-2.88547 6.42611 -1.1818
-2.88664 6.3749 -1.17405
-2.89453 6.33908 -1.16913
-2.90232 6.30351 -1.16425
-2.91003 6.2682 -1.15942
-2.91766 6.23313 -1.15462
-2.92521 6.19831 -1.14988
-2.93267 6.16373 -1.14517
-2.93997 6.12922 -1.14047
-2.94704 6.09464 -1.13576
-2.95433 6.06092 -1.13121
-2.96686 6.03825 -1.12871
-2.97932 6.01564 -1.12624
-2.99171 5.99312 -1.12378
-3.00404 5.97065 -1.12134
-3.0163 5.94827 -1.11891
-3.02845 5.92587 -1.11649
-3.04051 5.90349 -1.11407
-3.0525 5.88118 -1.11167
-3.06443 5.85893 -1.10928
-3.07629 5.83676 -1.10692
-3.08809 5.81466 -1.10456
-3.09983 5.79262 -1.10223
-3.1115 5.77066 -1.09991
-3.12461 5.75151 -1.09813
-3.13805 5.73312 -1.0965
-3.15145 5.71477 -1.09488
-3.16479 5.69645 -1.09328
-3.17808 5.67816 -1.09169
-3.19133 5.6599 -1.0901
-3.20452 5.64167 -1.08853
-3.21766 5.62348 -1.08697
-3.23076 5.60532 -1.08542
-3.2438 5.58718 -1.08389
-3.25679 5.56908 -1.08236
-3.26974 5.55101 -1.08084
-3.28265 5.53299 -1.07934
-3.296 5.5158 -1.07801
-3.31067 5.50092 -1.07714
-3.32743 5.48954 -1.07696
-2.77294 6.67587 -1.27464
-2.77103 6.61238 -1.26418
-2.76795 6.54709 -1.25336
-2.7649 6.48285 -1.24272
-2.76188 6.41964 -1.23227
-2.76295 6.36678 -1.22379
-2.76799 6.32377 -1.21719
-2.7733 6.28195 -1.21082
-2.77855 6.24054 -1.20452
-2.78372 6.19952 -1.19829
-2.78883 6.15889 -1.19213
-2.79562 6.12246 -1.18677
-2.80354 6.08898 -1.18199
-2.81231 6.05771 -1.17763
-2.82509 6.03537 -1.17502
-2.83776 6.01302 -1.1724
-2.85036 5.99074 -1.1698
-2.86289 5.96853 -1.16722
-2.87535 5.94639 -1.16466
-2.88775 5.92432 -1.16211
-2.90007 5.90232 -1.15958
-2.91233 5.88038 -1.15707
-2.92452 5.85852 -1.15457
-2.93665 5.83672 -1.15209
-2.94872 5.81499 -1.14963
-2.96071 5.79333 -1.14719
-2.97264 5.77173 -1.14476
-2.98487 5.75088 -1.14249
-2.99846 5.73281 -1.14077
-3.012 5.71477 -1.13906
-3.02548 5.69676 -1.13737
-3.03891 5.67879 -1.13568
-3.05229 5.66084 -1.13401
-3.06562 5.64293 -1.13235
-3.0789 5.62505 -1.13071
-3.09246 5.6078 -1.12919
-3.1061 5.59079 -1.12773
-3.11968 5.57381 -1.12628
-3.13323 5.55685 -1.12485
-3.14672 5.53992 -1.12342
-3.16017 5.52301 -1.122
-3.17358 5.50612 -1.1206
-3.18724 5.48977 -1.11931
-3.20204 5.47545 -1.11844
-3.2168 5.46114 -1.11758
-3.23153 5.44683 -1.11673
-3.24623 5.43252 -1.11589
-3.26377 5.423 -1.11604
-3.28422 5.41826 -1.11719
-2.66581 6.71465 -1.33587
-2.66781 6.65844 -1.32636
-2.66976 6.60297 -1.31697
-2.6693 6.54243 -1.30657
-2.66719 6.47882 -1.29554
-2.66509 6.41623 -1.2847
-2.6685 6.36772 -1.27666
-2.67371 6.32418 -1.26961
-2.67884 6.28107 -1.26265
-2.68444 6.23963 -1.25601
-2.69013 6.19898 -1.24953
-2.69574 6.15872 -1.24312
-2.70129 6.11883 -1.23678
-2.70676 6.07932 -1.23051
-2.71524 6.04701 -1.2257
-2.72604 6.02022 -1.222
-2.73676 5.99356 -1.21833
-2.7474 5.96704 -1.2147
-2.75797 5.94066 -1.21109
-2.76847 5.91441 -1.20751
-2.7789 5.88829 -1.20396
-2.78925 5.8623 -1.20044
-2.79953 5.83644 -1.19694
-2.81133 5.81399 -1.19415
-2.82358 5.79269 -1.19159
-2.83577 5.77145 -1.18906
-2.8479 5.75028 -1.18654
-2.86106 5.73139 -1.1845
-2.87474 5.71367 -1.1827
-2.88867 5.69658 -1.18104
-2.90266 5.67972 -1.17943
-2.91659 5.6629 -1.17784
-2.93049 5.64609 -1.17626
-2.94433 5.62931 -1.17469
-2.95812 5.61255 -1.17313
-2.97187 5.59582 -1.17159
-2.98557 5.5791 -1.17005
-2.99922 5.56242 -1.16853
-3.01283 5.54575 -1.16702
-3.02639 5.52911 -1.16552
-3.0399 5.51249 -1.16403
-3.05337 5.4959 -1.16255
-3.0668 5.47932 -1.16108
-3.08095 5.46414 -1.15991
-3.09569 5.45008 -1.15899
-3.1104 5.43602 -1.15808
-3.12652 5.42447 -1.15771
-3.14546 5.4178 -1.1584
-3.16441 5.41111 -1.1591
-3.18395 5.40536 -1.16001
-3.20504 5.40218 -1.16149
-3.22619 5.39898 -1.16298
-3.24738 5.39577 -1.16448
-3.26863 5.39254 -1.16601
-2.56087 6.69515 -1.38718
-2.56368 6.63972 -1.37736
-2.56643 6.58502 -1.36768
-2.56912 6.53104 -1.35814
-2.56994 6.47317 -1.34779
-2.56876 6.41122 -1.33657
-2.57456 6.36751 -1.32914
-2.58032 6.32434 -1.32182
-2.586 6.28161 -1.31458
-2.5916 6.2393 -1.30743
-2.59713 6.19741 -1.30036
-2.60325 6.15751 -1.29371
-2.60929 6.11799 -1.28712
-2.61526 6.07884 -1.28061
-2.62414 6.04692 -1.27562
-2.63519 6.02037 -1.27177
-2.64616 5.99395 -1.26794
-2.65706 5.96767 -1.26415
-2.66788 5.94152 -1.26038
-2.67862 5.91551 -1.25665
-2.6893 5.88962 -1.25294
-2.6999 5.86387 -1.24927
-2.71042 5.83824 -1.24562
-2.72093 5.81284 -1.24203
-2.73148 5.7878 -1.23851
-2.74195 5.7629 -1.23502
-2.75236 5.7381 -1.23156
-2.76416 5.71644 -1.22877
-2.77623 5.69555 -1.22616
-2.78825 5.67473 -1.22356
-2.8002 5.65397 -1.22098
-2.81209 5.6333 -1.21842
-2.82569 5.61618 -1.21664
-2.83956 5.59972 -1.21501
-2.85337 5.58328 -1.21339
-2.86713 5.56686 -1.21178
-2.88085 5.55047 -1.21018
-2.89453 5.5341 -1.20859
-2.90815 5.51775 -1.20701
-2.92173 5.50141 -1.20545
-2.93527 5.48511 -1.2039
-2.94876 5.46882 -1.20235
-2.9622 5.45256 -1.20082
-2.97683 5.43858 -1.19981
-2.99193 5.4255 -1.19899
-3.01063 5.41895 -1.19964
-3.02933 5.41238 -1.20029
-3.04806 5.4058 -1.20095
-3.0668 5.3992 -1.20163
-3.08555 5.39259 -1.20232
-3.1063 5.38939 -1.20378
-3.12714 5.38623 -1.20527
-3.14801 5.38306 -1.20677
-3.16894 5.37988 -1.20829
-3.18991 5.37668 -1.20982
-3.21094 5.37346 -1.21137
-3.23202 5.37023 -1.21293
-3.25314 5.36699 -1.21451
-2.42874 6.7282 -1.44604
-2.43625 6.683 -1.43797
-2.44365 6.63821 -1.42998
-2.45093 6.59385 -1.42208
-2.45811 6.54989 -1.41426
-2.46518 6.50634 -1.40653
-2.47092 6.45997 -1.39818
-2.47473 6.40935 -1.38891
-2.48112 6.36613 -1.38123
-2.48742 6.32336 -1.37364
-2.49364 6.28099 -1.36614
-2.49978 6.23906 -1.35872
-2.50584 6.19754 -1.35139
-2.51181 6.15643 -1.34415
-2.51786 6.11609 -1.33707
-2.52431 6.0773 -1.33032
-2.53373 6.04612 -1.32523
-2.54503 6.01981 -1.32122
-2.55625 5.99364 -1.31724
-2.5674 5.96759 -1.31328
-2.57849 5.94173 -1.30937
-2.58963 5.9163 -1.30556
-2.60071 5.891 -1.30178
-2.61171 5.86582 -1.29803
-2.62263 5.84076 -1.2943
-2.63348 5.81582 -1.29061
-2.64426 5.791 -1.28694
-2.65497 5.7663 -1.28331
-2.66561 5.74172 -1.2797
-2.6767 5.71836 -1.27637
-2.68893 5.69766 -1.27363
-2.70109 5.67702 -1.27091
-2.7132 5.65646 -1.26822
-2.72524 5.63596 -1.26554
-2.73723 5.61553 -1.26288
-2.74915 5.59517 -1.26025
-2.76102 5.57487 -1.25763
-2.77283 5.55464 -1.25503
-2.78458 5.53448 -1.25245
-2.79628 5.51437 -1.24989
-2.80792 5.49434 -1.24735
-2.81949 5.47437 -1.24482
-2.83273 5.45774 -1.24306
-2.84623 5.44176 -1.24146
-2.86013 5.42663 -1.24006
-2.87831 5.41965 -1.24053
-2.89679 5.4132 -1.24114
-2.91528 5.40674 -1.24176
-2.93379 5.40026 -1.24238
-2.95231 5.39377 -1.24302
-2.97084 5.38726 -1.24368
-2.9894 5.38074 -1.24434
-3.00935 5.37669 -1.24559
-3.02988 5.37356 -1.24707
-3.05045 5.37043 -1.24857
-3.07107 5.36728 -1.25008
-3.09174 5.36412 -1.25161
-3.11245 5.36094 -1.25315
-3.13321 5.35776 -1.2547
-3.15402 5.35455 -1.25627
-3.17488 5.35133 -1.25786
-3.19579 5.3481 -1.25946
-3.21674 5.34486 -1.26108
-3.23775 5.3416 -1.26271
-2.25187 6.69716 -1.48957
-2.2606 6.65366 -1.48147
-2.26921 6.61054 -1.47346
-2.2777 6.56782 -1.46553
-2.28607 6.52547 -1.45768
-2.29433 6.48349 -1.44991
-2.30247 6.44189 -1.44222
-2.31263 6.40655 -1.43593
-2.32374 6.37436 -1.43035
-2.33474 6.34236 -1.42481
-2.34563 6.31055 -1.41932
-2.35642 6.27893 -1.41387
-2.36711 6.24749 -1.40846
-2.37769 6.21624 -1.4031
-2.38817 6.18517 -1.39778
-2.39855 6.15428 -1.3925
-2.40883 6.12357 -1.38726
-2.41965 6.09462 -1.38242
-2.43084 6.06699 -1.37789
-2.44362 6.04366 -1.37433
-2.45585 6.01928 -1.37054
-2.46747 5.99369 -1.36648
-2.47901 5.96824 -1.36245
-2.49047 5.94291 -1.35845
-2.50186 5.9177 -1.35448
-2.51317 5.89262 -1.35055
-2.5244 5.86766 -1.34664
-2.53556 5.84281 -1.34277
-2.54665 5.81809 -1.33892
-2.55766 5.79349 -1.33511
-2.5686 5.769 -1.33132
-2.57946 5.74462 -1.32757
-2.59026 5.72036 -1.32384
-2.60234 5.69918 -1.32083
-2.61465 5.67873 -1.31799
-2.62691 5.65835 -1.31518
-2.6391 5.63804 -1.31238
-2.65124 5.61779 -1.30961
-2.66331 5.59762 -1.30685
-2.67533 5.5775 -1.30412
-2.68728 5.55746 -1.3014
-2.69918 5.53747 -1.29871
-2.71102 5.51755 -1.29604
-2.72262 5.49733 -1.2933
-2.73401 5.47687 -1.2905
-2.74533 5.45647 -1.28773
-2.7566 5.43614 -1.28497
-2.76781 5.41587 -1.28223
-2.78575 5.40885 -1.28265
-2.80375 5.40191 -1.28309
-2.82175 5.39495 -1.28354
-2.83982 5.3881 -1.28403
-2.85815 5.38169 -1.28464
-2.87649 5.37527 -1.28527
-2.89484 5.36883 -1.2859
-2.91411 5.36404 -1.28695
-2.93435 5.36096 -1.28842
-2.95463 5.35786 -1.28991
-2.97495 5.35475 -1.29141
-2.99532 5.35163 -1.29293
-3.01574 5.34849 -1.29446
-3.0362 5.34534 -1.296
-3.05671 5.34218 -1.29757
-3.07726 5.339 -1.29914
-3.09786 5.33581 -1.30073
-3.1185 5.3326 -1.30234
-3.13919 5.32938 -1.30396
-3.15994 5.32615 -1.3056
-3.18073 5.3229 -1.30726
-3.20156 5.31964 -1.30893
-3.22257 5.31654 -1.31066
-1.90198 6.68717 -1.52616
-1.9149 6.65285 -1.5197
-1.92768 6.61874 -1.51328
-1.94033 6.58481 -1.50692
-1.9563 6.56265 -1.50325
-1.97225 6.54081 -1.49966
-1.98809 6.51898 -1.49609
-2.00384 6.49717 -1.49252
-2.01948 6.47536 -1.48897
-2.03501 6.45357 -1.48542
-2.05045 6.43179 -1.48189
-2.06798 6.41685 -1.47994
-2.08584 6.4031 -1.47828
-2.10364 6.38931 -1.47662
-2.12139 6.37551 -1.47497
-2.13907 6.36167 -1.47332
-2.15669 6.34782 -1.47167
-2.17426 6.33393 -1.47004
-2.19177 6.32002 -1.4684
-2.20647 6.29825 -1.46495
-2.21877 6.26996 -1.45999
-2.23096 6.24182 -1.45507
-2.24306 6.21383 -1.45018
-2.25506 6.18598 -1.44534
-2.26697 6.15828 -1.44052
-2.27879 6.13073 -1.43575
-2.29051 6.10331 -1.43101
-2.30214 6.07604 -1.42631
-2.314 6.04974 -1.42184
-2.32611 6.02443 -1.41761
-2.33812 5.99923 -1.41341
-2.35006 5.97414 -1.40923
-2.3619 5.94917 -1.40509
-2.3755 5.92889 -1.40206
-2.38987 5.91074 -1.39954
-2.40417 5.89261 -1.39704
-2.41841 5.87453 -1.39455
-2.43259 5.85647 -1.39208
-2.4467 5.83845 -1.38962
-2.4604 5.81963 -1.38698
-2.47164 5.79524 -1.38301
-2.4828 5.77096 -1.37908
-2.4939 5.7468 -1.37518
-2.50492 5.72276 -1.37131
-2.51643 5.70009 -1.36777
-2.5289 5.67983 -1.36481
-2.5413 5.65964 -1.36188
-2.55365 5.63951 -1.35896
-2.56577 5.6191 -1.35599
-2.57768 5.59844 -1.35295
-2.58953 5.57783 -1.34994
-2.60131 5.5573 -1.34695
-2.61304 5.53684 -1.34398
-2.62469 5.51645 -1.34103
-2.6363 5.49613 -1.3381
-2.64783 5.47587 -1.33519
-2.65931 5.45569 -1.33231
-2.67073 5.43556 -1.32944
-2.6821 5.4155 -1.3266
-2.69556 5.39985 -1.32484
-2.7134 5.39299 -1.32524
-2.73124 5.38612 -1.32566
-2.7491 5.37924 -1.3261
-2.76695 5.37235 -1.32654
-2.78482 5.36544 -1.32699
-2.80269 5.35851 -1.32746
-2.82021 5.35089 -1.32776
-2.83961 5.34678 -1.32896
-2.86033 5.34507 -1.33077
-2.88052 5.34227 -1.33232
-2.9006 5.33918 -1.33382
-2.92073 5.33609 -1.33534
-2.94091 5.33297 -1.33688
-2.96112 5.32985 -1.33843
-2.98138 5.32671 -1.33999
-3.00168 5.32356 -1.34157
-3.02203 5.32039 -1.34316
-3.04242 5.31721 -1.34478
-3.06286 5.31402 -1.3464
-3.08335 5.31081 -1.34804
-3.10388 5.30759 -1.3497
-3.12445 5.30436 -1.35138
-3.14508 5.30111 -1.35307
-3.16576 5.29784 -1.35477
-3.18647 5.29457 -1.35649
-3.20772 5.29205 -1.35843
-1.67186 6.6699 -1.56946
-1.68583 6.63692 -1.56294
-1.69967 6.60412 -1.55647
-1.71337 6.57149 -1.55004
-1.72677 6.53843 -1.54352
-1.7399 6.50504 -1.53692
-1.75289 6.47186 -1.53038
-1.76575 6.43886 -1.52389
-1.77935 6.40923 -1.51819
-1.7942 6.38458 -1.51368
-1.80893 6.36001 -1.5092
-1.82356 6.33552 -1.50475
-1.83809 6.31111 -1.50032
-1.85251 6.28676 -1.49591
-1.86682 6.26251 -1.49153
-1.88104 6.23832 -1.48718
-1.89515 6.21422 -1.48285
-1.90916 6.19018 -1.47854
-1.92627 6.17649 -1.47671
-1.94458 6.16677 -1.47584
-1.96284 6.15699 -1.47498
-1.98106 6.14713 -1.4741
-1.99922 6.1372 -1.47322
-2.01735 6.12721 -1.47234
-2.03542 6.11714 -1.47146
-2.05344 6.107 -1.47057
-2.07141 6.0968 -1.46968
-2.08933 6.08653 -1.46878
-2.10721 6.07619 -1.46788
-2.12503 6.06579 -1.46698
-2.14381 6.05815 -1.46676
-2.16311 6.052 -1.46691
-2.1824 6.04579 -1.46706
-2.19881 6.03168 -1.46531
-2.21122 6.00682 -1.46096
-2.22354 5.98207 -1.45664
-2.23577 5.95744 -1.45235
-2.24792 5.93292 -1.44809
-2.25998 5.9085 -1.44386
-2.27196 5.88418 -1.43966
-2.28385 5.85997 -1.43549
-2.29566 5.83588 -1.43135
-2.3099 5.81817 -1.42879
-2.32411 5.80061 -1.42627
-2.33826 5.78308 -1.42376
-2.35234 5.76557 -1.42127
-2.36636 5.7481 -1.41879
-2.38032 5.73065 -1.41633
-2.39422 5.71323 -1.41388
-2.40825 5.69628 -1.41156
-2.42284 5.68083 -1.40961
-2.43738 5.66538 -1.40768
-2.45194 5.65011 -1.4058
-2.46645 5.63486 -1.40393
-2.47929 5.61597 -1.40116
-2.49136 5.59553 -1.39801
-2.50336 5.57515 -1.39488
-2.51531 5.55483 -1.39178
-2.52718 5.53459 -1.38869
-2.539 5.51442 -1.38563
-2.55075 5.49431 -1.38259
-2.56244 5.47427 -1.37957
-2.57408 5.45429 -1.37658
-2.58565 5.43438 -1.3736
-2.59716 5.41454 -1.37065
-2.60861 5.39476 -1.36772
-2.62435 5.38395 -1.36706
-2.64204 5.37716 -1.36745
-2.65974 5.37037 -1.36785
-2.67745 5.36356 -1.36825
-2.69484 5.35611 -1.36851
-2.71212 5.34841 -1.36872
-2.7294 5.3407 -1.36894
-2.74703 5.33367 -1.36935
-2.76493 5.32712 -1.3699
-2.78336 5.32155 -1.37071
-2.80384 5.31984 -1.37254
-2.82439 5.31812 -1.37439
-2.84498 5.31638 -1.37625
-2.86562 5.31464 -1.37813
-2.88631 5.31288 -1.38002
-2.90706 5.31111 -1.38194
-2.92726 5.30823 -1.38358
-2.94736 5.30509 -1.38518
-2.96751 5.30194 -1.38679
-2.98771 5.29877 -1.38841
-3.00794 5.29559 -1.39006
-3.02822 5.2924 -1.39172
-3.04855 5.28919 -1.39339
-3.06892 5.28597 -1.39508
-3.08933 5.28273 -1.39679
-3.1098 5.27948 -1.39851
-3.13031 5.27621 -1.40026
-3.15087 5.27293 -1.40201
-3.17147 5.26964 -1.40379
-3.19296 5.2677 -1.40594
-1.48602 6.63311 -1.61104
-1.4911 6.55884 -1.59414
-1.50123 6.50849 -1.58304
-1.51538 6.47658 -1.57643
-1.52939 6.44484 -1.56987
-1.54326 6.41326 -1.56336
-1.55862 6.38857 -1.55853
-1.57412 6.36494 -1.55397
-1.58952 6.34139 -1.54943
-1.6048 6.3179 -1.54492
-1.61998 6.29448 -1.54043
-1.63516 6.2715 -1.53606
-1.65025 6.24867 -1.53174
-1.66524 6.22591 -1.52744
-1.68013 6.20322 -1.52316
-1.69492 6.18058 -1.51891
-1.70961 6.15802 -1.51468
-1.7242 6.13551 -1.51047
-1.7387 6.11307 -1.50629
-1.7531 6.09069 -1.50213
-1.76739 6.06838 -1.49799
-1.78313 6.05133 -1.49516
-1.7994 6.03633 -1.49285
-1.81561 6.02134 -1.49055
-1.83176 6.00636 -1.48826
-1.84801 5.99192 -1.48612
-1.86426 5.97765 -1.48403
-1.88044 5.96338 -1.48195
-1.89657 5.94912 -1.47988
-1.91265 5.93485 -1.47782
-1.93138 5.92895 -1.47786
-1.95022 5.92333 -1.47799
-1.96904 5.91767 -1.47811
-1.98785 5.91196 -1.47824
-2.00665 5.9062 -1.47838
-2.02544 5.90039 -1.47852
-2.04421 5.89454 -1.47866
-2.06297 5.88864 -1.4788
-2.07969 5.87694 -1.4775
-2.09629 5.86505 -1.47616
-2.11285 5.85312 -1.47483
-2.12936 5.84116 -1.4735
-2.14582 5.82917 -1.47217
-2.16224 5.81716 -1.47085
-2.1786 5.80512 -1.46954
-2.19492 5.79305 -1.46822
-2.20823 5.7732 -1.46495
-2.22008 5.74983 -1.46079
-2.23254 5.72832 -1.4571
-2.24666 5.71129 -1.45456
-2.26071 5.69429 -1.45204
-2.27545 5.67918 -1.45001
-2.29014 5.66408 -1.44799
-2.30478 5.649 -1.44598
-2.31936 5.63393 -1.44399
-2.33389 5.61887 -1.44201
-2.34838 5.60382 -1.44004
-2.3628 5.58879 -1.43808
-2.37719 5.57379 -1.43614
-2.39159 5.55895 -1.43425
-2.40594 5.54412 -1.43237
-2.42024 5.5293 -1.43051
-2.43449 5.51448 -1.42865
-2.44869 5.49969 -1.42681
-2.46284 5.48489 -1.42498
-2.47694 5.47012 -1.42316
-2.4896 5.45227 -1.42055
-2.50132 5.43258 -1.41747
-2.51298 5.41294 -1.4144
-2.52458 5.39338 -1.41136
-2.53654 5.37475 -1.40857
-2.55409 5.36806 -1.40892
-2.57142 5.36088 -1.40915
-2.58857 5.35331 -1.4093
-2.60572 5.34573 -1.40946
-2.62287 5.33814 -1.40963
-2.64002 5.33053 -1.40981
-2.65718 5.32297 -1.41002
-2.67492 5.31651 -1.41053
-2.69266 5.31004 -1.41106
-2.71041 5.30355 -1.4116
-2.72817 5.29705 -1.41215
-2.74819 5.29487 -1.41387
-2.7685 5.29314 -1.41573
-2.78886 5.2914 -1.41761
-2.80927 5.28965 -1.4195
-2.82973 5.28789 -1.42142
-2.85024 5.28612 -1.42335
-2.8708 5.28433 -1.42529
-2.89142 5.28253 -1.42726
-2.91209 5.28072 -1.42924
-2.93281 5.2789 -1.43124
-2.95359 5.27706 -1.43326
-2.97381 5.27412 -1.435
-2.99393 5.27092 -1.43669
-3.0141 5.26772 -1.4384
-3.03431 5.26449 -1.44012
-3.05458 5.26126 -1.44186
-3.07488 5.25801 -1.44362
-3.09523 5.25474 -1.44539
-3.11562 5.25146 -1.44718
-3.13607 5.24816 -1.44899
-3.15666 5.24503 -1.45086
-3.17828 5.24348 -1.4532
-1.39786 6.63023 -1.66553
-1.40392 6.55655 -1.64813
-1.40338 6.45468 -1.62363
-1.4106 6.39079 -1.60866
-1.42374 6.35514 -1.60081
-1.43544 6.31403 -1.59159
-1.44696 6.27321 -1.58244
-1.45834 6.2328 -1.5734
-1.46958 6.19281 -1.56446
-1.48448 6.16902 -1.55963
-1.49977 6.14734 -1.55533
-1.51496 6.12571 -1.55106
-1.53005 6.10414 -1.54681
-1.54504 6.08262 -1.54259
-1.56001 6.06147 -1.53846
-1.57663 6.04702 -1.53605
-1.59318 6.03259 -1.53365
-1.60967 6.01815 -1.53126
-1.6261 6.00372 -1.52888
-1.64246 5.98929 -1.52652
-1.65876 5.97487 -1.52417
-1.67501 5.96045 -1.52183
-1.69119 5.94603 -1.5195
-1.70731 5.93162 -1.51718
-1.72337 5.91721 -1.51488
-1.73954 5.9034 -1.51274
-1.75568 5.88967 -1.51063
-1.77177 5.87594 -1.50854
-1.7878 5.86222 -1.50645
-1.80377 5.84848 -1.50437
-1.81969 5.83475 -1.50231
-1.83555 5.82102 -1.50026
-1.85136 5.80729 -1.49821
-1.86711 5.79355 -1.49618
-1.8828 5.77982 -1.49416
-1.89845 5.76608 -1.49214
-1.91403 5.75234 -1.49014
-1.93171 5.74499 -1.48981
-1.94993 5.73924 -1.4899
-1.96626 5.72799 -1.48858
-1.98254 5.71671 -1.48727
-1.99878 5.7054 -1.48595
-2.01519 5.69466 -1.4848
-2.03224 5.68583 -1.48417
-2.04927 5.67698 -1.48353
-2.06627 5.66809 -1.4829
-2.08324 5.65917 -1.48228
-2.10019 5.65022 -1.48166
-2.1171 5.64124 -1.48105
-2.13399 5.63223 -1.48044
-2.15093 5.62339 -1.47989
-2.16794 5.61479 -1.47942
-2.18493 5.60616 -1.47895
-2.20189 5.5975 -1.47849
-2.21828 5.58741 -1.47766
-2.2328 5.57273 -1.47563
-2.24728 5.55806 -1.47362
-2.2617 5.5434 -1.47161
-2.27607 5.52876 -1.46962
-2.29039 5.51412 -1.46764
-2.30466 5.4995 -1.46567
-2.3189 5.48494 -1.46373
-2.33314 5.47049 -1.46183
-2.34732 5.45606 -1.45995
-2.36147 5.44163 -1.45807
-2.37556 5.42722 -1.4562
-2.3896 5.41281 -1.45435
-2.4036 5.39841 -1.45251
-2.41755 5.38402 -1.45068
-2.4321 5.37109 -1.44926
-2.4493 5.36402 -1.44942
-2.46649 5.35694 -1.4496
-2.48368 5.34985 -1.44979
-2.50084 5.34266 -1.44997
-2.51787 5.33519 -1.45009
-2.53489 5.3277 -1.45022
-2.55191 5.3202 -1.45036
-2.56893 5.31269 -1.45051
-2.58624 5.30578 -1.45084
-2.60383 5.29939 -1.45133
-2.62142 5.29299 -1.45183
-2.63901 5.28658 -1.45235
-2.65662 5.28015 -1.45288
-2.67424 5.27371 -1.45341
-2.69334 5.27015 -1.45476
-2.71342 5.26842 -1.45664
-2.73356 5.26668 -1.45853
-2.75374 5.26493 -1.46044
-2.77397 5.26316 -1.46237
-2.79426 5.26138 -1.46432
-2.81459 5.25959 -1.46628
-2.83497 5.25779 -1.46826
-2.8554 5.25598 -1.47026
-2.87588 5.25415 -1.47227
-2.89642 5.25231 -1.47431
-2.91701 5.25045 -1.47636
-2.93765 5.24858 -1.47843
-2.95835 5.2467 -1.48052
-2.9791 5.24481 -1.48262
-2.9999 5.2429 -1.48475
-3.02016 5.23993 -1.4866
-3.04031 5.23668 -1.48838
-3.0605 5.23341 -1.49019
-3.08073 5.23013 -1.49201
-3.10102 5.22684 -1.49385
-3.12135 5.22353 -1.49571
-3.14218 5.22096 -1.4978
-3.16368 5.21939 -1.5002
-1.29719 6.56133 -1.70306
-1.29773 6.45704 -1.67704
-1.30666 6.39709 -1.66253
-1.32033 6.36173 -1.65441
-1.33386 6.32667 -1.64638
-1.34725 6.2919 -1.63843
-1.35962 6.2534 -1.62951
-1.37148 6.21354 -1.62024
-1.38318 6.17409 -1.61109
-1.39475 6.13502 -1.60203
-1.40617 6.09635 -1.59308
-1.41773 6.05925 -1.58455
-1.43153 6.03247 -1.57871
-1.44522 6.00584 -1.57293
-1.45879 5.97938 -1.5672
-1.4727 5.95483 -1.56197
-1.48915 5.94097 -1.55956
-1.50554 5.9271 -1.55715
-1.52187 5.91324 -1.55476
-1.53813 5.89938 -1.55238
-1.55434 5.88552 -1.55002
-1.57049 5.87166 -1.54766
-1.58657 5.8578 -1.54532
-1.6026 5.84394 -1.54299
-1.61858 5.83011 -1.54068
-1.63467 5.81691 -1.53854
-1.65071 5.80371 -1.53642
-1.66669 5.7905 -1.5343
-1.68262 5.77729 -1.5322
-1.69849 5.76408 -1.53011
-1.71431 5.75087 -1.52803
-1.73007 5.73765 -1.52596
-1.74578 5.72443 -1.5239
-1.76144 5.71121 -1.52185
-1.7773 5.69883 -1.52003
-1.79332 5.68709 -1.5184
-1.80929 5.67534 -1.51678
-1.82522 5.66358 -1.51517
-1.84111 5.65182 -1.51356
-1.85684 5.63972 -1.51188
-1.87251 5.62755 -1.51019
-1.88813 5.61536 -1.50851
-1.9037 5.60318 -1.50684
-1.91923 5.59098 -1.50518
-1.93471 5.57878 -1.50353
-1.95138 5.57011 -1.50284
-1.96809 5.56157 -1.5022
-1.98476 5.553 -1.50157
-2.00142 5.54441 -1.50095
-2.01804 5.53578 -1.50032
-2.03464 5.52712 -1.49971
-2.05123 5.5185 -1.49912
-2.06794 5.51024 -1.49863
-2.08462 5.50194 -1.49815
-2.10129 5.49361 -1.49768
-2.11792 5.48525 -1.49721
-2.13454 5.47686 -1.49675
-2.15113 5.46844 -1.49629
-2.16769 5.45998 -1.49584
-2.18423 5.4515 -1.4954
-2.20075 5.44298 -1.49496
-2.21724 5.43444 -1.49452
-2.23371 5.42586 -1.49409
-2.2483 5.4128 -1.49244
-2.2624 5.39866 -1.4905
-2.2768 5.38537 -1.4888
-2.29388 5.37846 -1.48888
-2.31096 5.37153 -1.48897
-2.32803 5.36459 -1.48907
-2.3451 5.35763 -1.48918
-2.36217 5.35067 -1.48931
-2.37923 5.34369 -1.48945
-2.3962 5.33649 -1.48954
-2.41309 5.3291 -1.48959
-2.42997 5.32168 -1.48965
-2.44684 5.31426 -1.48972
-2.46371 5.30682 -1.4898
-2.48057 5.29936 -1.4899
-2.49743 5.29188 -1.49
-2.51629 5.28861 -1.4913
-2.53373 5.2823 -1.49177
-2.55118 5.27598 -1.49224
-2.56863 5.26964 -1.49273
-2.58609 5.26328 -1.49323
-2.60355 5.25692 -1.49375
-2.62102 5.25053 -1.49427
-2.63928 5.24567 -1.49525
-2.65914 5.24394 -1.49714
-2.67906 5.2422 -1.49904
-2.69902 5.24045 -1.50096
-2.71903 5.23868 -1.5029
-2.73908 5.2369 -1.50486
-2.75919 5.23511 -1.50684
-2.77934 5.2333 -1.50883
-2.79954 5.23148 -1.51084
-2.8198 5.22965 -1.51287
-2.8401 5.22781 -1.51492
-2.86045 5.22595 -1.51699
-2.88086 5.22408 -1.51907
-2.90131 5.2222 -1.52117
-2.92182 5.2203 -1.5233
-2.94238 5.21839 -1.52544
-2.963 5.21647 -1.52759
-2.98367 5.21453 -1.52977
-3.00439 5.21258 -1.53197
-3.02517 5.21061 -1.53419
-3.04601 5.20864 -1.53642
-3.06632 5.20566 -1.53839
-3.08649 5.20235 -1.54027
-3.1067 5.19902 -1.54218
-3.12777 5.19702 -1.5445
-3.14915 5.19542 -1.54697
-1.19158 6.4536 -1.72927
-1.20281 6.4014 -1.71629
-1.21701 6.36636 -1.70791
-1.23105 6.3316 -1.69962
-1.24496 6.29713 -1.69141
-1.25872 6.26295 -1.68329
-1.27233 6.22905 -1.67525
-1.2853 6.19295 -1.66662
-1.29747 6.15405 -1.65724
-1.30948 6.11554 -1.64797
-1.32136 6.0774 -1.63881
-1.33455 6.04624 -1.63153
-1.34861 6.01978 -1.62553
-1.36257 5.99347 -1.61958
-1.37641 5.96733 -1.61368
-1.39014 5.94133 -1.60782
-1.40377 5.91549 -1.60202
-1.41729 5.8898 -1.59627
-1.43071 5.86427 -1.59056
-1.44402 5.83888 -1.5849
-1.45723 5.81364 -1.57929
-1.47034 5.78854 -1.57372
-1.48539 5.77151 -1.57035
-1.50132 5.75819 -1.56801
-1.51723 5.74501 -1.56571
-1.53322 5.73232 -1.56356
-1.54915 5.71963 -1.56143
-1.56527 5.70779 -1.55953
-1.58149 5.69651 -1.5578
-1.59766 5.68523 -1.55609
-1.6138 5.67393 -1.55438
-1.62988 5.66263 -1.55268
-1.64592 5.65131 -1.55099
-1.66192 5.63999 -1.54931
-1.67787 5.62866 -1.54765
-1.69378 5.61731 -1.54599
-1.70965 5.60596 -1.54434
-1.72547 5.59459 -1.5427
-1.74124 5.58322 -1.54107
-1.75687 5.57149 -1.53935
-1.77243 5.55972 -1.53763
-1.78796 5.54794 -1.53592
-1.80343 5.53616 -1.53423
-1.81886 5.52436 -1.53254
-1.83425 5.51256 -1.53086
-1.84959 5.50075 -1.52919
-1.86489 5.48894 -1.52753
-1.88014 5.47712 -1.52589
-1.89535 5.46529 -1.52425
-1.91051 5.45345 -1.52262
-1.92564 5.44161 -1.521
-1.94071 5.42976 -1.51938
-1.95575 5.41789 -1.51778
-1.97309 5.41247 -1.518
-1.99064 5.40762 -1.51839
-2.0082 5.40275 -1.51879
-2.02576 5.39786 -1.5192
-2.04333 5.39295 -1.51962
-2.0609 5.38802 -1.52006
-2.07847 5.38306 -1.5205
-2.09605 5.37809 -1.52095
-2.11362 5.3731 -1.52142
-2.13121 5.36808 -1.52189
-2.14879 5.36305 -1.52237
-2.16638 5.35799 -1.52287
-2.18398 5.35292 -1.52337
-2.20162 5.34791 -1.52392
-2.21928 5.34293 -1.52448
-2.23695 5.33794 -1.52506
-2.25438 5.33233 -1.52548
-2.27114 5.32512 -1.52546
-2.28789 5.3179 -1.52545
-2.30463 5.31066 -1.52545
-2.32136 5.30341 -1.52546
-2.33809 5.29613 -1.52548
-2.35482 5.28885 -1.52551
-2.37153 5.28155 -1.52555
-2.38824 5.27423 -1.5256
-2.40495 5.26689 -1.52566
-2.42186 5.26001 -1.52587
-2.44077 5.25742 -1.52734
-2.45972 5.25481 -1.52883
-2.4787 5.25218 -1.53033
-2.4977 5.24954 -1.53185
-2.51653 5.24644 -1.53325
-2.53385 5.24015 -1.53373
-2.55118 5.23384 -1.53423
-2.56851 5.22752 -1.53474
-2.58598 5.22143 -1.53534
-2.60563 5.2197 -1.53724
-2.62533 5.21796 -1.53915
-2.64507 5.2162 -1.54109
-2.66486 5.21443 -1.54304
-2.6847 5.21265 -1.545
-2.70459 5.21086 -1.54699
-2.72452 5.20905 -1.549
-2.74449 5.20723 -1.55102
-2.76452 5.2054 -1.55306
-2.7846 5.20355 -1.55512
-2.80472 5.20169 -1.5572
-2.82489 5.19982 -1.55929
-2.84512 5.19794 -1.56141
-2.86539 5.19604 -1.56354
-2.88572 5.19413 -1.5657
-2.90609 5.1922 -1.56787
-2.92653 5.19026 -1.57006
-2.94701 5.18831 -1.57227
-2.96754 5.18634 -1.5745
-2.98813 5.18436 -1.57675
-3.00878 5.18237 -1.57902
-3.02947 5.18036 -1.5813
-3.05025 5.17837 -1.58362
-3.07198 5.17789 -1.58643
-3.09378 5.17739 -1.58926
-3.11567 5.17692 -1.59212
-3.13771 5.17654 -1.59503
-1.14277 6.30038 -1.74428
-1.15704 6.26652 -1.7359
-1.17115 6.23292 -1.72761
-1.18513 6.1996 -1.7194
-1.19896 6.16654 -1.71127
-1.21244 6.13267 -1.70293
-1.2249 6.09471 -1.69345
-1.23751 6.05859 -1.68448
-1.25196 6.03228 -1.67826
-1.26628 6.00615 -1.67209
-1.2805 5.98016 -1.66597
-1.2946 5.95433 -1.6599
-1.3086 5.92865 -1.65389
-1.32248 5.90313 -1.64792
-1.33626 5.87775 -1.642
-1.34993 5.85251 -1.63613
-1.36343 5.82716 -1.63024
-1.37665 5.80121 -1.62418
-1.38977 5.77542 -1.61818
-1.40278 5.74978 -1.61223
-1.41569 5.72429 -1.60632
-1.42977 5.70408 -1.60191
-1.44469 5.68754 -1.59853
-1.45918 5.66967 -1.59479
-1.47277 5.64868 -1.59019
-1.48628 5.6278 -1.58562
-1.50165 5.61429 -1.58314
-1.51767 5.60339 -1.58141
-1.53364 5.59248 -1.57968
-1.54957 5.58155 -1.57797
-1.56546 5.57062 -1.57626
-1.5813 5.55967 -1.57457
-1.5971 5.54872 -1.57288
-1.61285 5.53775 -1.57121
-1.62856 5.52677 -1.56954
-1.64422 5.51576 -1.56788
-1.65974 5.50439 -1.56612
-1.6752 5.49302 -1.56438
-1.69063 5.48163 -1.56265
-1.70601 5.47024 -1.56092
-1.72134 5.45884 -1.55921
-1.73664 5.44743 -1.55751
-1.75188 5.43601 -1.55581
-1.76709 5.42458 -1.55413
-1.78388 5.41811 -1.55388
-1.80074 5.41188 -1.55371
-1.81761 5.40563 -1.55355
-1.83445 5.39936 -1.5534
-1.8513 5.39308 -1.55327
-1.86813 5.38679 -1.55314
-1.88495 5.38048 -1.55303
-1.90175 5.37411 -1.55291
-1.91854 5.36771 -1.5528
-1.93531 5.36129 -1.5527
-1.95208 5.35485 -1.55261
-1.96884 5.34839 -1.55253
-1.98603 5.3431 -1.5528
-2.00339 5.33824 -1.55321
-2.02076 5.33337 -1.55364
-2.03812 5.32848 -1.55408
-2.05549 5.32356 -1.55453
-2.07287 5.31863 -1.55499
-2.09024 5.31367 -1.55545
-2.10763 5.30869 -1.55593
-2.12501 5.3037 -1.55642
-2.14245 5.2988 -1.55696
-2.1599 5.29391 -1.55751
-2.17736 5.28899 -1.55808
-2.19482 5.28405 -1.55865
-2.21229 5.27908 -1.55923
-2.22976 5.2741 -1.55983
-2.24724 5.2691 -1.56044
-2.26447 5.26347 -1.56088
-2.28104 5.25631 -1.56088
-2.29761 5.24913 -1.56089
-2.31416 5.24193 -1.56091
-2.33071 5.23472 -1.56094
-2.34779 5.22866 -1.56133
-2.36645 5.2261 -1.56278
-2.38515 5.22353 -1.56425
-2.40387 5.22094 -1.56574
-2.42263 5.21833 -1.56724
-2.44141 5.2157 -1.56875
-2.46023 5.21306 -1.57028
-2.47908 5.2104 -1.57182
-2.49796 5.20773 -1.57338
-2.51668 5.20464 -1.57484
-2.53389 5.19837 -1.57535
-2.55287 5.19568 -1.57696
-2.57236 5.19393 -1.57889
-2.59189 5.19218 -1.58083
-2.61148 5.19041 -1.58279
-2.63109 5.18863 -1.58476
-2.65077 5.18683 -1.58676
-2.67047 5.18503 -1.58877
-2.69024 5.18321 -1.5908
-2.71072 5.18267 -1.59325
-2.73131 5.18222 -1.59575
-2.75197 5.18177 -1.59827
-2.7727 5.18131 -1.60082
-2.79349 5.18086 -1.60339
-2.81434 5.18039 -1.60598
-2.83526 5.17993 -1.6086
-2.85625 5.17947 -1.61124
-2.87731 5.179 -1.61391
-2.89844 5.17853 -1.6166
-2.91964 5.17805 -1.61932
-2.94091 5.17758 -1.62206
-2.96225 5.1771 -1.62482
-2.98367 5.17662 -1.62762
-3.00516 5.17614 -1.63043
-3.02671 5.17565 -1.63328
-3.04835 5.17516 -1.63614
-3.07007 5.17467 -1.63904
-3.09186 5.17417 -1.64196
-3.11369 5.17363 -1.64489
-3.13561 5.17308 -1.64785
-1.13025 6.23134 -1.78183
-1.13231 6.13258 -1.7546
-1.14099 6.07239 -1.7384
-1.15525 6.04332 -1.73112
-1.16984 6.01675 -1.72455
-1.18422 5.98993 -1.71792
-1.19849 5.96327 -1.71135
-1.21263 5.93678 -1.70484
-1.22667 5.91044 -1.69838
-1.24059 5.88427 -1.69197
-1.25439 5.85825 -1.68562
-1.26809 5.83239 -1.67932
-1.28167 5.80668 -1.67307
-1.29515 5.78112 -1.66688
-1.30852 5.75572 -1.66073
-1.32177 5.73047 -1.65464
-1.33508 5.706 -1.64878
-1.35018 5.68964 -1.64527
-1.3652 5.67332 -1.64179
-1.38015 5.65705 -1.63833
-1.39504 5.64082 -1.6349
-1.40986 5.62464 -1.63148
-1.42444 5.60784 -1.62791
-1.43798 5.58731 -1.62325
-1.45144 5.56687 -1.61864
-1.46481 5.54652 -1.61405
-1.4781 5.52626 -1.6095
-1.49131 5.50609 -1.60499
-1.50444 5.486 -1.60051
-1.51878 5.47065 -1.59742
