ply
format ascii 1.0
comment Created by Open3D
element vertex 1939
property double x
property double y
property double z
end_header
4.87559 7.09194 -1.44386
4.84183 7.09033 -1.44044
4.81018 7.09161 -1.43763
4.77865 7.09289 -1.43485
4.74725 7.09417 -1.43209
4.71596 7.09543 -1.42935
4.68479 7.09667 -1.42663
4.65372 7.09791 -1.42394
4.62277 7.09913 -1.42127
4.59193 7.10033 -1.41863
4.56119 7.10153 -1.416
4.53057 7.10271 -1.4134
4.50005 7.10388 -1.41082
4.46964 7.10504 -1.40826
4.43942 7.10632 -1.40575
4.40948 7.10788 -1.40331
4.37963 7.10942 -1.4009
4.34988 7.11095 -1.39851
4.32024 7.11246 -1.39614
4.29071 7.11402 -1.3938
4.26136 7.11569 -1.3915
4.2321 7.11736 -1.38923
4.20293 7.119 -1.38697
4.17385 7.12064 -1.38473
4.14487 7.12226 -1.38251
6.64117 7.22487 -1.73038
6.55722 7.17858 -1.71436
6.47478 7.1331 -1.69864
6.39478 7.08949 -1.68347
6.3259 7.05748 -1.67116
6.28127 7.05203 -1.6652
6.23838 7.04824 -1.65968
6.19576 7.04446 -1.65421
6.15342 7.0407 -1.64878
6.11135 7.03696 -1.64341
6.06955 7.03323 -1.63809
6.028 7.02952 -1.63282
5.98746 7.02669 -1.62779
5.94878 7.02579 -1.62326
5.91031 7.02488 -1.61876
5.87204 7.02398 -1.6143
5.83398 7.02307 -1.60988
5.79612 7.02215 -1.6055
5.75845 7.02124 -1.60116
5.72286 7.02262 -1.59737
5.68547 7.02156 -1.59307
5.64828 7.02051 -1.58881
5.61242 7.02088 -1.5849
5.57806 7.02292 -1.58141
5.54384 7.02494 -1.57794
5.50975 7.02693 -1.5745
5.47352 7.02596 -1.57043
5.4378 7.02542 -1.5665
5.404 7.02715 -1.5631
5.37034 7.02886 -1.55973
5.33681 7.03055 -1.55638
5.30342 7.03222 -1.55306
5.27016 7.03388 -1.54977
5.23704 7.03551 -1.54651
5.20404 7.03713 -1.54327
5.17118 7.03874 -1.54006
5.13845 7.04032 -1.53688
5.10584 7.04189 -1.53372
5.07336 7.04345 -1.53059
5.041 7.04498 -1.52748
5.00877 7.0465 -1.5244
4.97665 7.04801 -1.52134
4.94371 7.04812 -1.51801
4.90979 7.04665 -1.51437
4.87606 7.04522 -1.51077
4.84443 7.04662 -1.50781
4.81292 7.048 -1.50487
4.78153 7.04938 -1.50196
4.75025 7.05074 -1.49907
4.71909 7.05208 -1.4962
4.68803 7.05341 -1.49336
4.6571 7.05473 -1.49054
4.62627 7.05604 -1.48774
4.59555 7.05733 -1.48497
4.56494 7.05861 -1.48222
4.53444 7.05987 -1.4795
4.50404 7.06112 -1.47679
4.47375 7.06236 -1.47411
4.44356 7.06359 -1.47145
4.41348 7.0648 -1.46882
4.38366 7.06626 -1.46626
4.35403 7.06786 -1.46375
4.3245 7.06945 -1.46126
4.29513 7.07113 -1.45882
4.2659 7.07288 -1.45642
4.23675 7.07461 -1.45403
4.2077 7.07633 -1.45167
4.17874 7.07803 -1.44932
4.14987 7.07972 -1.447
4.12109 7.0814 -1.44469
6.61638 7.15278 -1.80169
6.53327 7.10749 -1.78512
6.45165 7.063 -1.76885
6.38953 7.03917 -1.75786
6.34275 7.03181 -1.75105
6.29139 7.01898 -1.74294
6.24442 7.01066 -1.736
6.2019 7.00703 -1.73028
6.15966 7.00341 -1.72461
6.11767 6.9998 -1.71899
6.07633 6.99663 -1.71353
6.03546 6.99373 -1.70818
5.99483 6.99084 -1.70287
5.95602 6.9898 -1.69806
5.91763 6.989 -1.69335
5.88222 6.9915 -1.68948
5.84706 6.99409 -1.68567
5.81205 6.99667 -1.68189
5.7772 6.99923 -1.67815
5.74249 7.00178 -1.67444
5.70603 7.00197 -1.6702
5.6688 7.00097 -1.66571
5.63176 6.99998 -1.66127
5.59491 6.99898 -1.65686
5.55849 6.99829 -1.65256
5.52423 7.00009 -1.64889
5.49012 7.00188 -1.64525
5.4551 7.00232 -1.64133
5.42 7.00243 -1.63736
5.38507 7.00254 -1.63344
5.35032 7.00266 -1.62954
5.31573 7.00278 -1.62569
5.2813 7.00289 -1.62186
5.24704 7.00301 -1.61807
5.21292 7.00311 -1.61431
5.17896 7.00322 -1.61059
5.14516 7.00332 -1.60689
5.11152 7.00342 -1.60323
5.07802 7.00352 -1.5996
5.04467 7.00362 -1.59601
5.01146 7.00371 -1.59244
4.97841 7.0038 -1.5889
4.9455 7.00388 -1.5854
4.91273 7.00396 -1.58192
4.88018 7.00416 -1.5785
4.8479 7.00453 -1.57516
4.81575 7.0049 -1.57184
4.78429 7.00608 -1.56873
4.75314 7.00752 -1.56571
4.7221 7.00896 -1.56271
4.69118 7.01037 -1.55974
4.66036 7.01177 -1.5568
4.62966 7.01316 -1.55388
4.59906 7.01454 -1.55098
4.56857 7.0159 -1.54811
4.53819 7.01725 -1.54526
4.50792 7.01858 -1.54243
4.47775 7.0199 -1.53963
4.44768 7.02121 -1.53685
4.41771 7.0225 -1.5341
4.38785 7.02378 -1.53136
4.35809 7.02505 -1.52865
4.32865 7.02667 -1.52605
4.29943 7.02847 -1.5235
4.27032 7.03029 -1.52099
4.2413 7.03209 -1.5185
4.21236 7.03388 -1.51602
4.18352 7.03565 -1.51357
4.15476 7.03741 -1.51114
4.12609 7.03916 -1.50873
4.09751 7.04089 -1.50634
6.68601 7.13777 -1.89263
6.59246 7.08225 -1.87242
6.50931 7.03702 -1.85506
6.45625 7.02369 -1.8462
6.40906 7.01638 -1.83899
6.36224 7.00911 -1.83185
6.31238 6.99814 -1.8238
6.26136 6.98548 -1.81537
6.2108 6.97292 -1.80704
6.19153 6.99531 -1.80781
6.19339 7.04176 -1.81479
6.19528 7.0886 -1.82184
6.1972 7.13581 -1.82898
6.00743 6.96125 -1.7794
5.96985 6.96171 -1.77472
5.9518 6.98484 -1.77586
5.94611 7.02264 -1.78072
5.86608 6.97232 -1.76329
5.83105 6.97495 -1.75932
5.79618 6.97756 -1.75539
5.76146 6.98016 -1.75149
5.72653 6.98231 -1.74752
5.68925 6.98137 -1.74281
5.65271 6.9811 -1.73831
5.61807 6.98296 -1.73438
5.58357 6.98481 -1.73049
5.54924 6.98664 -1.72662
5.51505 6.98847 -1.72279
5.48098 6.99024 -1.71899
5.4458 6.99038 -1.71482
5.41078 6.99052 -1.71068
5.37593 6.99066 -1.70658
5.34125 6.99079 -1.70252
5.30673 6.99092 -1.69849
5.27237 6.99105 -1.6945
5.23818 6.99119 -1.69055
5.20414 6.99133 -1.68663
5.17027 6.99146 -1.68274
5.13654 6.99159 -1.67889
5.10297 6.99171 -1.67507
5.06954 6.99184 -1.67128
5.03627 6.99196 -1.66753
5.00314 6.99208 -1.66381
4.97016 6.99219 -1.66012
4.93732 6.9923 -1.65647
4.90462 6.9924 -1.65284
4.87201 6.99243 -1.64923
4.83955 6.99247 -1.64565
4.80722 6.9925 -1.6421
4.77515 6.9927 -1.63863
4.74335 6.99308 -1.63523
4.71167 6.99347 -1.63186
4.68012 6.99384 -1.62851
4.64869 6.99422 -1.6252
4.6174 6.99459 -1.62191
4.58622 6.99495 -1.61866
4.55517 6.99531 -1.61543
4.52424 6.99567 -1.61223
4.49343 6.99602 -1.60906
4.46274 6.99637 -1.60591
4.43216 6.99672 -1.60279
4.40171 6.99706 -1.5997
4.37137 6.99739 -1.59664
4.34114 6.99773 -1.5936
4.31138 6.99863 -1.59072
4.28185 6.99974 -1.58792
4.25243 7.00084 -1.58513
4.22311 7.00194 -1.58238
4.19389 7.00303 -1.57965
4.16476 7.00411 -1.57694
4.13574 7.00519 -1.57425
4.10681 7.00626 -1.5716
4.07798 7.00733 -1.56896
6.73675 7.1469 -1.98546
6.60828 7.05478 -1.9541
6.52364 7.00832 -1.93556
6.47572 7.00071 -1.92785
6.42848 6.99349 -1.9203
6.38161 6.98632 -1.91283
6.33327 6.9772 -1.90489
6.28217 6.96464 -1.89607
6.23013 6.95063 -1.88693
6.1914 6.95114 -1.88179
6.15289 6.95165 -1.8767
6.11457 6.95215 -1.87165
6.07646 6.95264 -1.86665
6.03856 6.95313 -1.86169
6.00084 6.95362 -1.85677
5.96333 6.9541 -1.8519
5.92601 6.95458 -1.84707
5.88889 6.95505 -1.84229
5.85195 6.95552 -1.83754
5.8152 6.95599 -1.83284
5.78559 6.96482 -1.83038
5.78267 7.00585 -1.83639
5.7134 6.9663 -1.82132
5.67808 6.96767 -1.81702
5.64322 6.96939 -1.81284
5.60866 6.97127 -1.80875
5.57425 6.97314 -1.80469
5.53999 6.97499 -1.80067
5.50588 6.97684 -1.79669
5.47161 6.97828 -1.79263
5.4365 6.97845 -1.78829
5.40157 6.97862 -1.78398
5.3668 6.97878 -1.77972
5.3322 6.97895 -1.77549
5.29776 6.9791 -1.77129
5.26348 6.97926 -1.76714
5.22935 6.97941 -1.76302
5.19539 6.97956 -1.75893
5.16157 6.9797 -1.75488
5.12792 6.97985 -1.75087
5.09443 6.98001 -1.7469
5.06108 6.98016 -1.74295
5.02788 6.9803 -1.73905
4.99482 6.98045 -1.73517
4.96192 6.98059 -1.73133
4.92915 6.98072 -1.72753
4.8965 6.98082 -1.72374
4.86396 6.98088 -1.71999
4.83157 6.98094 -1.71626
4.79932 6.98099 -1.71257
4.7672 6.98105 -1.70891
4.73522 6.98109 -1.70528
4.70336 6.98114 -1.70168
4.67176 6.98136 -1.69815
4.64041 6.98176 -1.6947
4.60919 6.98215 -1.69129
4.57808 6.98254 -1.68789
4.5471 6.98292 -1.68453
4.51624 6.98331 -1.6812
4.48551 6.98368 -1.6779
4.45488 6.98405 -1.67463
4.42438 6.98442 -1.67138
4.39399 6.98479 -1.66816
4.36372 6.98515 -1.66498
4.33365 6.98565 -1.66185
4.30408 6.98678 -1.6589
4.27462 6.98791 -1.65598
4.24526 6.98904 -1.65309
4.216 6.99015 -1.65022
4.18684 6.99126 -1.64737
4.15778 6.99237 -1.64455
4.12882 6.99346 -1.64176
4.09995 6.99455 -1.63899
4.07118 6.99564 -1.63624
6.70327 7.11138 -2.06027
6.57582 7.02012 -2.02786
6.51264 6.9965 -2.01513
6.45597 6.97936 -2.00435
6.40087 6.96345 -1.99401
6.35404 6.95614 -1.9862
6.33083 6.97451 -1.98578
6.26205 6.94234 -1.97102
6.22318 6.94288 -1.96562
6.18451 6.94341 -1.96027
6.14606 6.94393 -1.95497
6.1078 6.94445 -1.94972
6.06975 6.94497 -1.94451
6.03191 6.94548 -1.93935
5.99425 6.94598 -1.93424
5.9568 6.94648 -1.92917
5.91954 6.94698 -1.92414
5.88247 6.94747 -1.91916
5.84559 6.94796 -1.91423
5.8089 6.94845 -1.90934
5.77239 6.94893 -1.90449
5.73607 6.9494 -1.89968
5.70421 6.9551 -1.89634
5.70253 6.99767 -1.90306
5.636 6.96047 -1.88813
5.60107 6.96184 -1.88373
5.5663 6.9632 -1.87937
5.53169 6.96455 -1.87505
5.49724 6.9659 -1.87076
5.46273 6.96696 -1.86644
5.4273 6.96664 -1.86179
5.39236 6.96672 -1.85728
5.35767 6.96691 -1.85285
5.32315 6.9671 -1.84845
5.28879 6.96729 -1.84409
5.25458 6.96747 -1.83977
5.22054 6.96765 -1.83549
5.18665 6.96782 -1.83124
5.15291 6.96799 -1.82703
5.11933 6.96816 -1.82286
5.0859 6.96832 -1.81873
5.05261 6.96848 -1.81463
5.01948 6.96865 -1.81056
4.9865 6.96882 -1.80654
4.95367 6.96898 -1.80255
4.92097 6.96914 -1.79859
4.88838 6.96924 -1.79465
4.85592 6.96933 -1.79075
4.82359 6.96941 -1.78687
4.79141 6.96949 -1.78303
4.75936 6.96957 -1.77923
4.72745 6.96964 -1.77546
4.69566 6.96971 -1.77172
4.66401 6.96978 -1.76801
4.63249 6.96984 -1.76433
4.6011 6.96991 -1.76069
4.56995 6.97013 -1.75712
4.53904 6.97054 -1.75363
4.50825 6.97094 -1.75016
4.47758 6.97134 -1.74673
4.44703 6.97174 -1.74333
4.41659 6.97213 -1.73996
4.38627 6.97252 -1.73661
4.35607 6.9729 -1.7333
4.32629 6.97379 -1.73014
4.29679 6.97495 -1.72708
4.26739 6.97609 -1.72404
4.2381 6.97723 -1.72103
4.2089 6.97837 -1.71805
4.1798 6.9795 -1.71509
4.15079 6.98062 -1.71216
4.12189 6.98173 -1.70926
4.09309 6.98284 -1.70638
4.06437 6.98394 -1.70353
6.66999 7.07607 -2.13461
6.55875 7.00191 -2.10603
6.50164 6.98468 -2.0947
6.44512 6.96763 -2.08352
6.38873 6.95025 -2.07232
6.36225 6.96513 -2.07081
6.29406 6.934 -2.05567
6.25503 6.93456 -2.05002
6.21622 6.93511 -2.04441
6.17761 6.93566 -2.03886
6.13922 6.9362 -2.03335
6.10102 6.93674 -2.02789
6.06303 6.93728 -2.02248
6.02525 6.93781 -2.01712
5.98765 6.93834 -2.0118
5.95026 6.93886 -2.00654
5.91305 6.93937 -2.00132
5.87604 6.93989 -1.99614
5.83922 6.94039 -1.99102
5.80258 6.9409 -1.98593
5.76613 6.94139 -1.98089
5.72987 6.94189 -1.9759
5.69378 6.94238 -1.97095
5.65787 6.94286 -1.96604
5.65532 6.98433 -1.97275
5.59419 6.95329 -1.95903
5.56002 6.95534 -1.95468
5.52649 6.95801 -1.95055
5.4931 6.96066 -1.94646
5.45896 6.96215 -1.94208
5.42356 6.96183 -1.93724
5.38834 6.96152 -1.93245
5.35329 6.96121 -1.92769
5.31841 6.96089 -1.92298
5.2837 6.96058 -1.91831
5.24916 6.96027 -1.91368
5.21478 6.95996 -1.90909
5.18057 6.95965 -1.90454
5.14651 6.95934 -1.90003
5.11262 6.95903 -1.89557
5.07888 6.95872 -1.89113
5.04531 6.95841 -1.88674
5.01188 6.9581 -1.88239
4.97861 6.95779 -1.87808
4.94549 6.95748 -1.8738
4.91278 6.95755 -1.86966
4.88025 6.95766 -1.86557
4.84786 6.95778 -1.86152
4.81562 6.95788 -1.8575
4.7835 6.95799 -1.85352
4.75152 6.95809 -1.84957
4.71968 6.95819 -1.84565
4.68796 6.95828 -1.84177
4.65638 6.95837 -1.83792
4.62493 6.95846 -1.83411
4.5936 6.95854 -1.83033
4.5624 6.95863 -1.82658
4.53133 6.9587 -1.82286
4.50038 6.95878 -1.81917
4.46965 6.959 -1.81556
4.43917 6.95942 -1.81203
4.40881 6.95984 -1.80853
4.37855 6.96025 -1.80506
4.34848 6.96075 -1.80165
4.31893 6.96193 -1.79844
4.2895 6.9631 -1.79527
4.26016 6.96427 -1.79211
4.23093 6.96543 -1.78899
4.20179 6.96659 -1.7859
4.17275 6.96773 -1.78283
4.14381 6.96887 -1.77979
4.11497 6.97 -1.77677
4.08622 6.97113 -1.77379
4.05735 6.97187 -1.77073
6.63692 7.04099 -2.20848
6.54759 6.98999 -2.18603
6.49031 6.97251 -2.17419
6.43283 6.95434 -2.16223
6.37596 6.93636 -2.15041
6.32613 6.92559 -2.14092
6.28696 6.92618 -2.13499
6.24799 6.92676 -2.12913
6.20924 6.92733 -2.12331
6.1707 6.9279 -2.11755
6.13237 6.92847 -2.11183
6.09424 6.92903 -2.10617
6.05631 6.92958 -2.10056
6.01858 6.93013 -2.095
5.98104 6.93068 -2.08948
5.94371 6.93122 -2.08402
5.90656 6.93175 -2.0786
5.86961 6.93228 -2.07323
5.83284 6.93281 -2.06791
5.79626 6.93333 -2.06264
5.75986 6.93385 -2.05741
5.72366 6.93436 -2.05223
5.68762 6.93487 -2.0471
5.65176 6.93537 -2.04201
5.6312 6.95454 -2.04244
5.5886 6.94634 -2.03488
5.55543 6.9496 -2.03072
5.52239 6.95284 -2.0266
5.4892 6.95571 -2.02241
5.45517 6.95732 -2.0179
5.41981 6.95702 -2.01287
5.38462 6.95672 -2.00789
5.3496 6.95642 -2.00296
5.31476 6.95612 -1.99806
5.28001 6.95572 -1.99319
5.24541 6.9553 -1.98835
5.21098 6.95489 -1.98355
5.17671 6.95447 -1.97879
5.14261 6.95405 -1.97408
5.10866 6.95364 -1.9694
5.07488 6.95322 -1.96477
5.04125 6.95281 -1.96018
5.00777 6.9524 -1.95563
4.97445 6.95198 -1.95112
4.94129 6.95157 -1.94665
4.9083 6.9512 -1.94222
4.87554 6.95094 -1.93787
4.84292 6.95068 -1.93356
4.81045 6.95042 -1.92928
4.77812 6.95016 -1.92504
4.74593 6.9499 -1.92084
4.71388 6.94964 -1.91668
4.68197 6.94938 -1.91255
4.65019 6.94912 -1.90845
4.61854 6.94886 -1.9044
4.58704 6.9486 -1.90038
4.55566 6.94833 -1.89639
4.52441 6.94807 -1.89244
4.49328 6.94781 -1.88852
4.46231 6.94758 -1.88465
4.43167 6.94767 -1.88089
4.40115 6.94776 -1.87717
4.37083 6.94797 -1.87352
4.34106 6.94887 -1.87009
4.31158 6.95007 -1.86676
4.28193 6.95082 -1.86335
4.25234 6.95149 -1.85995
4.22287 6.95216 -1.85658
4.19349 6.95283 -1.85324
4.16422 6.95349 -1.84992
4.13505 6.95414 -1.84664
4.10598 6.95478 -1.84338
4.07701 6.95542 -1.84016
4.04814 6.95605 -1.83696
6.47718 6.9584 -2.25308
6.41988 6.94034 -2.2407
6.37378 6.93398 -2.23219
6.37402 6.97802 -2.23992
6.27985 6.91834 -2.21444
6.24095 6.91895 -2.20836
6.20226 6.91954 -2.20233
6.16378 6.92013 -2.19636
6.12551 6.92072 -2.19044
6.08744 6.9213 -2.18457
6.04957 6.92187 -2.17876
6.0119 6.92244 -2.173
5.97443 6.92301 -2.16728
5.93715 6.92357 -2.16162
5.90006 6.92412 -2.15601
5.86317 6.92467 -2.15045
5.82646 6.92522 -2.14494
5.78993 6.92576 -2.13947
5.75359 6.92629 -2.13406
5.71743 6.92683 -2.12869
5.68145 6.92735 -2.12337
5.64565 6.92787 -2.11809
5.61642 6.93629 -2.11527
5.58294 6.9393 -2.11084
5.54982 6.94257 -2.10654
5.51682 6.94582 -2.10227
5.48355 6.94855 -2.09788
5.44848 6.94879 -2.09278
5.41336 6.94874 -2.08765
5.37841 6.94869 -2.08256
5.34362 6.94864 -2.07751
5.309 6.94858 -2.07251
5.27455 6.94852 -2.06755
5.24025 6.94846 -2.06264
5.20612 6.9484 -2.05776
5.17211 6.94829 -2.05292
5.13805 6.94789 -2.04803
5.10415 6.94749 -2.04319
5.0704 6.94709 -2.03839
5.03681 6.94669 -2.03363
5.00338 6.94629 -2.02891
4.9701 6.9459 -2.02423
4.93697 6.9455 -2.0196
4.90403 6.94515 -2.01502
4.87131 6.94491 -2.01051
4.83873 6.94466 -2.00604
4.80629 6.94442 -2.0016
4.774 6.94417 -1.99721
4.74184 6.94392 -1.99285
4.70984 6.94368 -1.98854
4.67796 6.94343 -1.98426
4.6462 6.94316 -1.98001
4.61458 6.94289 -1.9758
4.58309 6.94262 -1.97162
4.55173 6.94234 -1.96748
4.5205 6.94207 -1.96338
4.4894 6.9418 -1.95931
4.45843 6.94152 -1.95528
4.42758 6.94125 -1.95129
4.39685 6.94097 -1.94732
4.36625 6.94069 -1.9434
4.33597 6.94073 -1.93959
4.30585 6.94084 -1.93584
4.27584 6.94094 -1.93212
4.24595 6.94104 -1.92844
4.21617 6.94114 -1.92478
4.18656 6.94134 -1.92119
4.15709 6.94158 -1.91764
4.12773 6.94182 -1.91412
4.09847 6.94206 -1.91064
4.06932 6.9423 -1.90718
4.04027 6.94253 -1.90376
6.27273 6.9105 -2.29401
6.23389 6.91112 -2.28772
6.19527 6.91174 -2.28149
6.15685 6.91235 -2.27531
6.11864 6.91296 -2.26918
6.08063 6.91356 -2.26311
6.04282 6.91415 -2.25709
6.00521 6.91474 -2.25113
5.9678 6.91532 -2.24522
5.93057 6.9159 -2.23936
5.89355 6.91648 -2.23356
5.85671 6.91705 -2.2278
5.82006 6.91761 -2.2221
5.78359 6.91817 -2.21644
5.7473 6.91873 -2.21084
5.7112 6.91927 -2.20528
5.67528 6.91982 -2.19977
5.63953 6.92036 -2.19431
5.6282 6.95083 -2.19837
5.57727 6.93226 -2.18696
5.54419 6.93553 -2.1825
5.5101 6.93737 -2.17763
5.47509 6.93783 -2.17238
5.44005 6.93803 -2.16709
5.405 6.93801 -2.16178
5.37012 6.93799 -2.15652
5.33541 6.93796 -2.1513
5.30086 6.93793 -2.14613
5.26648 6.9379 -2.141
5.23226 6.93786 -2.13592
5.1982 6.93783 -2.13088
5.16429 6.93779 -2.12589
5.13054 6.93774 -2.12094
5.09695 6.9377 -2.11603
5.06351 6.93765 -2.11116
5.03039 6.93783 -2.10641
4.99759 6.93825 -2.10177
4.96493 6.93867 -2.09717
4.93241 6.93909 -2.09262
4.89984 6.93922 -2.08802
4.8671 6.93892 -2.08332
4.83451 6.93861 -2.07867
4.80206 6.9383 -2.07406
4.76975 6.938 -2.06949
4.73759 6.93769 -2.06496
4.70559 6.93742 -2.06048
4.67373 6.93716 -2.05604
4.64201 6.9369 -2.05164
4.61042 6.93664 -2.04728
4.57897 6.93638 -2.04296
4.54765 6.93612 -2.03867
4.51646 6.93586 -2.03442
4.48539 6.9356 -2.03021
4.45445 6.93534 -2.02604
4.42364 6.93508 -2.0219
4.39295 6.93481 -2.0178
4.36239 6.93455 -2.01373
4.33218 6.93466 -2.00981
4.30209 6.93478 -2.00593
4.27212 6.93489 -2.00208
4.24225 6.935 -1.99826
4.21251 6.93511 -1.99448
4.18287 6.93522 -1.99073
4.15334 6.93533 -1.98701
4.12392 6.93543 -1.98333
4.09461 6.93553 -1.97968
4.06541 6.93563 -1.97606
4.03631 6.93573 -1.97247
6.22682 6.90328 -2.36723
6.18826 6.90392 -2.36079
6.14991 6.90455 -2.3544
6.11176 6.90518 -2.34807
6.07381 6.9058 -2.34179
6.03606 6.90641 -2.33557
5.99851 6.90702 -2.32941
5.96115 6.90763 -2.3233
5.92399 6.90823 -2.31725
5.88702 6.90882 -2.31124
5.85024 6.90941 -2.3053
5.81364 6.90999 -2.2994
5.77723 6.91057 -2.29355
5.741 6.91114 -2.28776
5.70496 6.91171 -2.28202
5.66909 6.91227 -2.27632
5.65077 6.93415 -2.27769
5.65439 6.98317 -2.28796
5.57159 6.92519 -2.26322
5.53666 6.92611 -2.25784
5.50155 6.92661 -2.25237
5.46662 6.92709 -2.24695
5.43161 6.92727 -2.24147
5.39664 6.92727 -2.23599
5.36205 6.92756 -2.23064
5.32777 6.92803 -2.22541
5.29365 6.92849 -2.22022
5.25969 6.92896 -2.21507
5.22589 6.92942 -2.20997
5.19224 6.92987 -2.20491
5.15874 6.93033 -2.1999
5.12539 6.93077 -2.19493
5.09219 6.93122 -2.19001
5.05914 6.93166 -2.18513
5.02623 6.9321 -2.18029
4.99346 6.93253 -2.17549
4.96084 6.93296 -2.17074
4.92836 6.93339 -2.16602
4.89583 6.93354 -2.16127
4.86313 6.93325 -2.15641
4.83057 6.93296 -2.1516
4.79816 6.93266 -2.14683
4.76589 6.93237 -2.1421
4.73375 6.93207 -2.13742
4.70176 6.93178 -2.13277
4.6699 6.93148 -2.12817
4.63818 6.93118 -2.1236
4.6066 6.93089 -2.11908
4.57515 6.93059 -2.11459
4.54383 6.9303 -2.11015
4.51264 6.93 -2.10574
4.48157 6.9297 -2.10137
4.45064 6.9294 -2.09704
4.41988 6.92918 -2.09277
4.38936 6.92915 -2.08859
4.35896 6.9291 -2.08445
4.32864 6.92899 -2.08032
4.29843 6.92888 -2.07624
4.26838 6.92883 -2.0722
4.23855 6.92895 -2.06825
4.20884 6.92907 -2.06434
4.17923 6.92919 -2.06046
4.14974 6.92931 -2.05662
4.12035 6.92942 -2.05281
4.09108 6.92954 -2.04904
4.0619 6.92965 -2.04529
4.03284 6.92976 -2.04159
6.10486 6.89739 -2.42711
6.06697 6.89803 -2.42063
6.02928 6.89866 -2.41421
5.9918 6.89929 -2.40785
5.9545 6.89991 -2.40154
5.91739 6.90053 -2.39529
5.88048 6.90115 -2.38909
5.84376 6.90175 -2.38295
5.80722 6.90235 -2.37686
5.77086 6.90295 -2.37082
5.73469 6.90354 -2.36484
5.70871 6.91626 -2.36305
5.71256 6.96528 -2.37367
5.71646 7.01477 -2.38442
5.72366 7.06873 -2.39665
4.98933 6.92679 -2.2494
4.95675 6.92724 -2.24449
4.9243 6.92768 -2.23962
4.89181 6.92785 -2.23471
4.85914 6.92757 -2.22969
4.82662 6.92729 -2.22472
4.79437 6.92718 -2.21985
4.7623 6.92716 -2.21505
4.73038 6.92713 -2.21029
4.6986 6.92711 -2.20557
4.66694 6.92708 -2.20089
4.63542 6.92705 -2.19626
4.60403 6.92703 -2.19166
4.57278 6.927 -2.18711
4.54165 6.92697 -2.18259
4.51065 6.92694 -2.17812
4.47977 6.92691 -2.17368
4.44902 6.92688 -2.16929
4.4184 6.92685 -2.16493
4.38789 6.92682 -2.16061
4.3575 6.92679 -2.15633
4.3272 6.92668 -2.15207
4.297 6.92658 -2.14784
4.26693 6.92647 -2.14365
4.23697 6.92636 -2.13949
4.20713 6.92625 -2.13537
4.1774 6.92615 -2.13129
4.14778 6.92604 -2.12725
4.11827 6.92593 -2.12324
4.08888 6.92582 -2.11927
4.0596 6.92571 -2.11533
4.03042 6.9256 -2.11143
4.44752 6.92454 -2.24187
4.41691 6.92452 -2.23736
4.38641 6.92449 -2.2329
4.35604 6.92446 -2.22848
4.32575 6.92437 -2.22407
4.29557 6.92426 -2.21971
4.26551 6.92416 -2.21538
4.23556 6.92406 -2.21108
4.20573 6.92396 -2.20683
4.17602 6.92385 -2.20262
4.14641 6.92375 -2.19844
4.11692 6.92364 -2.1943
4.08754 6.92354 -2.19019
4.05826 6.92343 -2.18612
4.02905 6.92325 -2.18207
4.66614 7.39304 -1.09557
4.63375 7.39319 -1.09342
4.60148 7.3933 -1.09129
4.56931 7.39339 -1.08918
4.53725 7.39344 -1.08707
4.50529 7.39347 -1.08499
4.47344 7.39346 -1.08292
4.44169 7.39343 -1.08086
4.41004 7.39337 -1.07881
4.3785 7.39328 -1.07679
4.34705 7.39316 -1.07477
4.31571 7.39301 -1.07277
4.28447 7.39284 -1.07078
4.25332 7.39264 -1.06881
4.22228 7.39241 -1.06685
4.19435 7.39748 -1.06567
4.16716 7.40374 -1.06468
4.14001 7.40997 -1.06369
4.11323 7.41677 -1.06281
4.08943 7.42888 -1.06269
4.06807 7.44545 -1.06322
4.04665 7.46198 -1.06376
4.02519 7.47847 -1.0643
4.00366 7.49491 -1.06484
3.98209 7.51132 -1.06539
3.96046 7.52768 -1.06593
3.93862 7.54369 -1.06644
3.91667 7.55954 -1.06693
3.89467 7.57535 -1.06743
3.87261 7.59113 -1.06793
3.85052 7.60686 -1.06843
3.82837 7.62255 -1.06894
3.80617 7.6382 -1.06945
3.78393 7.65382 -1.06996
3.76163 7.66939 -1.07048
3.73929 7.68492 -1.071
3.7177 7.70207 -1.07175
3.70006 7.72756 -1.07367
3.68232 7.75306 -1.0756
3.66447 7.77855 -1.07753
3.64651 7.80405 -1.07947
3.62844 7.82955 -1.08141
3.61027 7.85505 -1.08336
3.59199 7.88054 -1.08531
3.58087 7.92213 -1.08948
3.58299 7.99377 -1.09777
4.71897 7.27227 -1.15965
4.68608 7.2716 -1.15718
4.65433 7.2725 -1.15499
4.62288 7.27368 -1.15286
4.59164 7.27501 -1.15078
4.5605 7.27632 -1.14871
4.52948 7.27762 -1.14665
4.49856 7.27891 -1.14462
4.46774 7.28018 -1.14261
4.43703 7.28145 -1.14061
4.40642 7.28271 -1.13862
4.37591 7.28395 -1.13666
4.34551 7.28518 -1.13471
4.3152 7.28641 -1.13278
4.28499 7.28762 -1.13087
4.25489 7.28882 -1.12897
4.22497 7.29018 -1.12712
4.19516 7.29155 -1.12528
4.16557 7.29313 -1.1235
4.13616 7.29485 -1.12175
4.10683 7.29656 -1.12002
4.07759 7.29825 -1.1183
4.04843 7.29993 -1.1166
4.01936 7.3016 -1.11492
3.99038 7.30326 -1.11325
3.96147 7.30491 -1.11159
3.93265 7.30654 -1.10995
3.9039 7.30816 -1.10833
3.87525 7.30978 -1.10672
3.84666 7.31138 -1.10512
3.81816 7.31297 -1.10354
3.79119 7.31737 -1.1024
3.76505 7.32324 -1.10149
3.73892 7.32907 -1.10059
3.71284 7.33487 -1.0997
3.68698 7.34104 -1.09888
3.66122 7.34733 -1.09809
3.6355 7.35359 -1.09731
3.60979 7.35982 -1.09654
3.58411 7.36601 -1.09578
3.56169 7.37886 -1.09602
3.54029 7.39388 -1.09659
3.52007 7.41145 -1.09754
3.50487 7.43978 -1.1001
3.48959 7.46824 -1.10268
3.47427 7.49688 -1.10529
3.45885 7.52561 -1.10791
3.44335 7.55444 -1.11056
3.42774 7.58336 -1.11322
3.41205 7.61238 -1.11589
3.39626 7.6415 -1.11859
3.38037 7.67072 -1.1213
3.36755 7.70728 -1.12509
3.35554 7.74616 -1.12922
3.34342 7.78527 -1.13339
3.33127 7.82481 -1.13761
3.31955 7.86587 -1.14205
3.3077 7.90719 -1.14654
3.30236 7.96474 -1.15337
3.31248 8.06076 -1.16576
3.3261 8.1669 -1.17959
4.68982 7.22735 -1.22546
4.6582 7.22833 -1.22313
4.62669 7.22931 -1.22083
4.59529 7.23027 -1.21854
4.56427 7.23165 -1.21634
4.53337 7.23303 -1.21417
4.50258 7.2344 -1.21201
4.47189 7.23576 -1.20988
4.4413 7.2371 -1.20776
4.41082 7.23844 -1.20566
4.38044 7.23976 -1.20358
4.35016 7.24107 -1.20151
4.31997 7.24237 -1.19947
4.28988 7.24365 -1.19744
4.25991 7.24495 -1.19543
4.23013 7.24641 -1.19347
4.20044 7.24786 -1.19152
4.17085 7.24929 -1.18959
4.14134 7.25071 -1.18768
4.11193 7.25212 -1.18579
4.08261 7.25353 -1.18391
4.05358 7.25528 -1.18211
4.02463 7.25701 -1.18032
3.99577 7.25874 -1.17855
3.96699 7.26045 -1.1768
3.93828 7.26215 -1.17506
3.90966 7.26384 -1.17333
3.88112 7.26551 -1.17162
3.85266 7.26718 -1.16993
3.82428 7.26883 -1.16825
3.79597 7.27047 -1.16659
3.76774 7.2721 -1.16494
3.73959 7.27372 -1.16331
3.71151 7.27533 -1.16169
3.6835 7.27692 -1.16009
3.65557 7.2785 -1.1585
3.62771 7.28007 -1.15693
3.59992 7.28164 -1.15537
3.57221 7.28318 -1.15383
3.54503 7.28569 -1.15245
3.51864 7.28968 -1.15133
3.4923 7.29367 -1.15021
3.46601 7.29763 -1.14911
3.43977 7.30159 -1.14803
3.41357 7.30552 -1.14695
3.38741 7.30945 -1.14589
3.3651 7.32163 -1.14613
3.34389 7.33623 -1.14676
3.32294 7.35149 -1.14751
3.30301 7.36911 -1.14863
3.28302 7.38674 -1.14976
3.26475 7.40836 -1.15152
3.24899 7.43594 -1.15421
3.23315 7.46361 -1.15692
3.21721 7.49138 -1.15965
3.20118 7.51922 -1.1624
3.18505 7.54716 -1.16516
3.16882 7.57519 -1.16794
3.1525 7.60331 -1.17074
3.13609 7.63152 -1.17356
3.12011 7.66114 -1.1766
3.10727 7.69889 -1.18089
3.09633 7.74191 -1.18599
3.08528 7.78525 -1.19113
3.07411 7.82892 -1.19633
3.06282 7.87292 -1.20157
3.05142 7.91725 -1.20687
3.0529 7.99601 -1.2174
3.05966 8.09002 -1.23024
3.06672 8.18649 -1.24344
3.13365 8.44596 -1.28134
4.66196 7.18441 -1.29088
4.63058 7.18548 -1.28845
4.59931 7.18653 -1.28603
4.56814 7.18756 -1.28364
4.53717 7.1887 -1.28129
4.5065 7.19015 -1.27901
4.47593 7.19159 -1.27675
4.44547 7.19302 -1.27452
4.41511 7.19443 -1.2723
4.38486 7.19583 -1.2701
4.3547 7.19721 -1.26792
4.32463 7.19859 -1.26576
4.29467 7.19995 -1.26361
4.26484 7.20137 -1.2615
4.23518 7.2029 -1.25943
4.20562 7.20442 -1.25737
4.17614 7.20592 -1.25533
4.14676 7.20742 -1.25331
4.11746 7.2089 -1.25131
4.08826 7.21037 -1.24933
4.05914 7.21182 -1.24736
4.03011 7.21327 -1.24541
4.00117 7.2147 -1.24348
3.97239 7.21628 -1.24159
3.94382 7.21804 -1.23975
3.91531 7.2198 -1.23793
3.88689 7.22154 -1.23612
3.85855 7.22326 -1.23433
3.83029 7.22498 -1.23256
3.8021 7.22668 -1.2308
3.77399 7.22837 -1.22906
3.74595 7.23005 -1.22734
3.71799 7.23172 -1.22563
3.69011 7.23337 -1.22393
3.66229 7.23501 -1.22225
3.63455 7.23665 -1.22059
3.60688 7.23827 -1.21894
3.57928 7.23987 -1.21731
3.55175 7.24147 -1.21569
3.52519 7.24491 -1.2144
3.49897 7.24892 -1.21322
3.47279 7.25292 -1.21206
3.44667 7.25691 -1.2109
3.42059 7.26088 -1.20976
3.39455 7.26483 -1.20864
3.36856 7.26877 -1.20752
3.34261 7.2727 -1.20642
3.31671 7.27661 -1.20533
3.29085 7.28051 -1.20426
3.26503 7.28439 -1.20319
3.23926 7.28826 -1.20214
3.21353 7.29212 -1.2011
3.18783 7.29596 -1.20008
3.1614 7.29799 -1.19877
3.13655 7.30355 -1.19805
3.11545 7.31786 -1.19879
3.09619 7.33661 -1.20026
3.07687 7.35537 -1.20174
3.0582 7.37587 -1.20351
3.04181 7.4021 -1.20622
3.02719 7.43297 -1.20969
3.01247 7.46399 -1.21319
2.99788 7.49574 -1.21681
2.98359 7.52865 -1.22062
2.96919 7.56172 -1.22446
2.95469 7.59497 -1.22833
2.94008 7.62838 -1.23224
2.92692 7.66604 -1.23683
2.91511 7.70782 -1.24208
2.90317 7.7499 -1.24738
2.89112 7.79229 -1.25273
2.87894 7.835 -1.25814
2.86664 7.87803 -1.26359
2.85424 7.92143 -1.26911
2.85817 8.01134 -1.28206
2.86324 8.10608 -1.29578
2.86838 8.20275 -1.30978
2.92006 8.43566 -1.34549
4.63437 7.14188 -1.3557
4.60322 7.14302 -1.35316
4.57218 7.14414 -1.35064
4.54125 7.14525 -1.34814
4.51044 7.14635 -1.34566
4.47988 7.14768 -1.34325
4.44954 7.14918 -1.34089
4.4193 7.15067 -1.33856
4.38917 7.15215 -1.33624
4.35913 7.15361 -1.33394
4.32919 7.15506 -1.33167
4.29935 7.1565 -1.32941
4.26967 7.15804 -1.32719
4.24013 7.15964 -1.32501
4.21068 7.16123 -1.32284
4.18133 7.16281 -1.3207
4.15206 7.16437 -1.31857
4.12288 7.16592 -1.31646
4.09379 7.16746 -1.31437
4.0648 7.16899 -1.3123
4.03588 7.1705 -1.31024
4.00705 7.172 -1.3082
3.97831 7.17349 -1.30619
3.94965 7.17497 -1.30418
3.92108 7.17643 -1.3022
3.89259 7.17788 -1.30023
3.86433 7.17962 -1.29834
3.83619 7.1814 -1.29647
3.80812 7.18316 -1.29462
3.78012 7.18491 -1.29278
3.75221 7.18665 -1.29097
3.72436 7.18838 -1.28916
3.69659 7.19009 -1.28738
3.66889 7.1918 -1.28561
3.64127 7.19349 -1.28386
3.61371 7.19517 -1.28212
3.58623 7.19683 -1.2804
3.55882 7.19848 -1.27869
3.53163 7.20044 -1.27706
3.50552 7.20449 -1.27581
3.47947 7.20852 -1.27458
3.45345 7.21253 -1.27336
3.42749 7.21653 -1.27216
3.40157 7.22052 -1.27097
3.3757 7.22449 -1.26979
3.34987 7.22844 -1.26863
3.32408 7.23238 -1.26748
3.29834 7.23631 -1.26634
3.27264 7.24022 -1.26521
3.24698 7.24412 -1.2641
3.22019 7.24535 -1.26254
3.19314 7.24585 -1.26087
3.1665 7.24713 -1.25936
3.13999 7.24856 -1.25788
3.11528 7.25403 -1.25712
3.09063 7.25956 -1.25639
3.066 7.26508 -1.25567
3.0414 7.27058 -1.25496
3.01682 7.27607 -1.25426
2.99227 7.28154 -1.25357
2.96774 7.287 -1.2529
2.94345 7.29298 -1.25233
2.92606 7.31615 -1.25472
2.90907 7.34061 -1.25734
2.89201 7.36515 -1.25997
2.87657 7.39415 -1.26338
2.86235 7.4267 -1.2674
2.84803 7.45943 -1.27144
2.83361 7.49233 -1.27553
2.81908 7.52542 -1.27964
2.80445 7.55869 -1.28379
2.78952 7.59163 -1.28789
2.7743 7.62426 -1.29194
2.76201 7.66548 -1.29744
2.75065 7.70997 -1.3035
2.73919 7.75487 -1.30963
2.72797 7.8012 -1.316
2.71662 7.84794 -1.32243
2.70514 7.89509 -1.32894
2.70056 7.96336 -1.33899
2.70268 8.05285 -1.3526
2.70651 8.14922 -1.36735
2.74704 8.35911 -1.40111
4.60702 7.09974 -1.41992
4.57611 7.10095 -1.41727
4.5453 7.10214 -1.41465
4.51461 7.10333 -1.41205
4.48402 7.10449 -1.40947
4.45354 7.10565 -1.40691
4.42339 7.10716 -1.40444
4.39337 7.10871 -1.40201
4.36346 7.11025 -1.3996
4.33364 7.11178 -1.39721
4.30392 7.11329 -1.39484
4.27439 7.11495 -1.39252
4.24497 7.11663 -1.39022
4.21564 7.11829 -1.38795
4.1864 7.11993 -1.3857
4.15725 7.12157 -1.38346
4.12819 7.12319 -1.38124
4.09922 7.1248 -1.37905
4.07034 7.12639 -1.37687
4.04154 7.12797 -1.37471
4.01283 7.12954 -1.37257
3.9842 7.1311 -1.37045
3.95566 7.13264 -1.36835
3.9272 7.13417 -1.36626
3.89882 7.13569 -1.36419
3.87052 7.13719 -1.36215
3.8423 7.13869 -1.36012
3.81416 7.14017 -1.3581
3.78615 7.14172 -1.35613
3.75834 7.14352 -1.35421
3.73062 7.1453 -1.35232
3.70296 7.14708 -1.35044
3.67538 7.14884 -1.34858
3.64787 7.15059 -1.34674
3.62043 7.15233 -1.34492
3.59306 7.15405 -1.34311
3.56576 7.15576 -1.34131
3.53853 7.15746 -1.33954
3.51196 7.16034 -1.338
3.48602 7.16441 -1.33671
3.46013 7.16845 -1.33542
3.43428 7.17248 -1.33415
3.40848 7.1765 -1.3329
3.38272 7.1805 -1.33166
3.35701 7.18448 -1.33043
3.33134 7.18845 -1.32922
3.30571 7.19241 -1.32802
3.27889 7.19364 -1.32633
3.25186 7.19424 -1.32455
3.22489 7.19482 -1.32278
3.19809 7.19563 -1.32107
3.17167 7.19713 -1.31951
3.1453 7.19862 -1.31796
3.119 7.2001 -1.31643
3.09424 7.20504 -1.31554
3.06977 7.21057 -1.31478
3.04532 7.21608 -1.31403
3.0209 7.22157 -1.31329
2.9965 7.22705 -1.31257
2.97212 7.23251 -1.31186
2.94692 7.23588 -1.31078
2.92164 7.23894 -1.30966
2.89754 7.24486 -1.30908
2.87528 7.25534 -1.30933
2.853 7.26582 -1.30959
2.83071 7.27629 -1.30987
2.80841 7.28675 -1.31015
2.79053 7.30883 -1.31254
2.77327 7.33279 -1.31526
2.75599 7.35701 -1.31805
2.74041 7.3861 -1.32171
2.7258 7.41824 -1.32591
2.71109 7.45055 -1.33016
2.69593 7.48208 -1.33427
2.68065 7.51375 -1.3384
2.66527 7.54559 -1.34257
2.64977 7.5776 -1.34678
2.63417 7.60977 -1.35101
2.62115 7.64995 -1.35668
2.60915 7.69381 -1.36299
2.59397 7.72895 -1.36776
2.57789 7.76195 -1.37216
2.56169 7.79509 -1.37659
2.54536 7.82838 -1.38105
2.5289 7.86182 -1.38553
2.51424 7.90148 -1.39112
2.5052 7.95969 -1.39997
2.50269 8.04 -1.41271
2.50164 8.12666 -1.42654
4.57992 7.05798 -1.48357
4.54924 7.05926 -1.48082
4.51866 7.06052 -1.47809
4.4882 7.06177 -1.47539
4.45784 7.06301 -1.47271
4.42758 7.06423 -1.47005
4.39746 7.06551 -1.46743
4.36767 7.06713 -1.4649
4.33797 7.06873 -1.4624
4.30839 7.07034 -1.45992
4.27899 7.0721 -1.45749
4.24969 7.07384 -1.45509
4.22048 7.07557 -1.4527
4.19136 7.07729 -1.45034
4.16233 7.079 -1.448
4.13339 7.08069 -1.44568
4.10453 7.08236 -1.44337
4.07576 7.08402 -1.44109
4.04708 7.08567 -1.43883
4.01849 7.08731 -1.43659
3.98997 7.08893 -1.43436
3.96154 7.09054 -1.43216
3.9332 7.09214 -1.42997
3.90493 7.09372 -1.42781
3.87675 7.09529 -1.42566
3.84864 7.09685 -1.42353
3.82061 7.09839 -1.42142
3.79267 7.09992 -1.41933
3.7648 7.10144 -1.41726
3.737 7.10295 -1.4152
3.70929 7.10444 -1.41317
3.68175 7.10613 -1.41119
3.65436 7.10794 -1.40926
3.62703 7.10974 -1.40735
3.59978 7.11152 -1.40545
3.57259 7.11329 -1.40357
3.54548 7.11504 -1.40171
3.51842 7.11679 -1.39986
3.49245 7.12058 -1.39844
3.46667 7.12466 -1.39709
3.44095 7.12872 -1.39576
3.41526 7.13277 -1.39444
3.38962 7.1368 -1.39313
3.36402 7.14081 -1.39184
3.33716 7.14201 -1.39002
3.31014 7.1427 -1.38812
3.28318 7.14338 -1.38624
3.25629 7.14405 -1.38437
3.22947 7.14471 -1.38252
3.20299 7.14597 -1.38081
3.17671 7.14753 -1.37917
3.15049 7.14908 -1.37755
3.12433 7.15062 -1.37595
3.09822 7.15214 -1.37436
3.07343 7.15658 -1.37334
3.04913 7.1621 -1.37255
3.02486 7.1676 -1.37178
3.00062 7.17308 -1.37101
2.97596 7.1775 -1.37006
2.9508 7.18062 -1.36888
2.92567 7.18372 -1.3677
2.90059 7.1868 -1.36655
2.87555 7.18987 -1.3654
2.85229 7.19732 -1.36511
2.83019 7.2077 -1.36538
2.80807 7.21807 -1.36566
2.78594 7.22844 -1.36596
2.76379 7.2388 -1.36626
2.74163 7.24914 -1.36658
2.71946 7.25949 -1.36691
2.69727 7.26982 -1.36725
2.67506 7.28015 -1.3676
2.6566 7.30081 -1.36991
2.63853 7.32277 -1.37246
2.61807 7.33834 -1.37383
2.59756 7.35391 -1.37521
2.57769 7.37146 -1.37696
2.55963 7.39442 -1.37974
2.54148 7.41742 -1.38253
2.52324 7.44048 -1.38534
2.50491 7.46358 -1.38817
2.48648 7.48672 -1.39101
2.46797 7.50992 -1.39387
2.44906 7.53223 -1.39658
2.42933 7.55229 -1.39887
2.40951 7.57237 -1.40118
2.38962 7.59247 -1.4035
2.36965 7.6126 -1.40583
2.35291 7.64353 -1.41017
2.33621 7.67509 -1.41463
2.31937 7.70678 -1.41912
2.30392 7.74367 -1.42457
2.2887 7.78202 -1.43029
2.27332 7.8206 -1.43606
2.2578 7.85941 -1.44188
2.24213 7.89845 -1.44774
2.23149 7.95622 -1.45703
2.22199 8.01933 -1.4673
2.21232 8.08321 -1.47771
2.20247 8.14785 -1.48825
4.55306 7.01659 -1.54665
4.52261 7.01793 -1.5438
4.49226 7.01927 -1.54098
4.46202 7.02058 -1.53818
4.43188 7.02189 -1.5354
4.40185 7.02318 -1.53264
4.37191 7.02446 -1.52991
4.3422 7.0259 -1.52724
4.31275 7.02763 -1.52466
4.28348 7.02947 -1.52213
4.2543 7.03128 -1.51961
4.22521 7.03309 -1.51712
4.1962 7.03487 -1.51465
4.16729 7.03665 -1.5122
4.13846 7.03841 -1.50977
4.10973 7.04015 -1.50736
4.08107 7.04188 -1.50498
4.05251 7.0436 -1.50261
4.02402 7.0453 -1.50026
3.99563 7.04699 -1.49794
3.96731 7.04867 -1.49563
3.93907 7.05033 -1.49335
3.91092 7.05198 -1.49108
3.88285 7.05361 -1.48883
3.85486 7.05523 -1.48661
3.82694 7.05684 -1.4844
3.79911 7.05844 -1.48221
3.77135 7.06002 -1.48005
3.74367 7.06159 -1.4779
3.71606 7.06314 -1.47577
3.68853 7.06468 -1.47366
3.66107 7.06621 -1.47157
3.63368 7.06773 -1.46949
3.60637 7.06924 -1.46744
3.5793 7.07106 -1.46547
3.55229 7.07287 -1.46352
3.52536 7.07467 -1.46159
3.49877 7.07703 -1.4598
3.47311 7.08114 -1.45838
3.4475 7.08523 -1.45698
3.42193 7.08931 -1.4556
3.39499 7.09043 -1.45363
3.36798 7.09122 -1.45161
3.34103 7.092 -1.44961
3.31415 7.09277 -1.44763
3.28735 7.09353 -1.44566
3.26061 7.09427 -1.44372
3.23397 7.09507 -1.4418
3.20777 7.09671 -1.44007
3.18164 7.09833 -1.43836
3.15556 7.09994 -1.43667
3.12954 7.10153 -1.43499
3.10357 7.10312 -1.43333
3.07766 7.10468 -1.43169
3.05284 7.10863 -1.43054
3.02872 7.11413 -1.42972
3.0046 7.11957 -1.42891
2.97956 7.12274 -1.42765
2.95456 7.1259 -1.42641
2.9296 7.12904 -1.42519
2.90468 7.13216 -1.42398
2.87979 7.13526 -1.42278
2.85494 7.13835 -1.4216
2.83013 7.14142 -1.42043
2.80766 7.15034 -1.42044
2.78572 7.16062 -1.42073
2.76376 7.17089 -1.42104
2.74178 7.18115 -1.42135
2.7198 7.1914 -1.42168
2.69779 7.20165 -1.42202
2.67578 7.21189 -1.42237
2.65319 7.22063 -1.42244
2.63032 7.22859 -1.42237
2.60745 7.23653 -1.42231
2.58458 7.24446 -1.42227
2.56254 7.25477 -1.4227
2.54084 7.26606 -1.42334
2.51911 7.27735 -1.42399
2.49735 7.28864 -1.42465
2.47557 7.29992 -1.42533
2.45376 7.31119 -1.42601
2.43193 7.32246 -1.42671
2.41007 7.33373 -1.42742
2.38818 7.34499 -1.42814
2.36627 7.35624 -1.42888
2.34432 7.3675 -1.42962
2.32306 7.381 -1.43082
2.30258 7.39715 -1.43254
2.28394 7.41947 -1.43546
2.26447 7.4394 -1.43793
2.24471 7.45868 -1.44028
2.22487 7.47798 -1.44265
2.20649 7.50251 -1.44604
2.19188 7.54044 -1.45201
2.17715 7.57867 -1.45805
2.16479 7.62598 -1.46583
2.15635 7.68832 -1.4765
2.14779 7.75155 -1.48733
2.13911 7.8157 -1.49835
2.13088 7.88299 -1.50995
2.13747 8.00734 -1.53248
4.53937 6.9955 -1.61379
4.50838 6.99585 -1.61059
4.4775 6.99621 -1.60742
4.44675 6.99655 -1.60428
4.41611 6.9969 -1.60116
4.38559 6.99724 -1.59807
4.35518 6.99757 -1.59501
4.32502 6.99811 -1.59202
4.29532 6.99923 -1.58919
4.26573 7.00034 -1.58639
4.23624 7.00145 -1.58361
4.20686 7.00254 -1.58086
4.17757 7.00364 -1.57813
4.14838 7.00472 -1.57542
4.11929 7.0058 -1.57274
4.0903 7.00687 -1.57008
4.0614 7.00794 -1.56745
4.0326 7.009 -1.56484
4.00389 7.01006 -1.56226
3.97528 7.01111 -1.55969
3.94675 7.01215 -1.55715
3.91832 7.01318 -1.55464
3.88998 7.01421 -1.55214
3.86173 7.01524 -1.54967
3.83356 7.01626 -1.54723
3.80548 7.01727 -1.5448
3.77778 7.01881 -1.54251
3.7502 7.02044 -1.54027
3.72271 7.02205 -1.53805
3.69528 7.02366 -1.53584
3.66794 7.02525 -1.53366
3.64066 7.02682 -1.53149
3.61346 7.02839 -1.52935
3.58632 7.02994 -1.52722
3.55926 7.03148 -1.52511
3.53227 7.033 -1.52302
3.5054 7.03463 -1.52098
3.47942 7.03789 -1.51931
3.45239 7.03889 -1.51717
3.42538 7.03978 -1.51503
3.39844 7.04067 -1.51291
3.37158 7.04153 -1.51081
3.34478 7.04239 -1.50873
3.31805 7.04323 -1.50667
3.29139 7.04406 -1.50462
3.2648 7.04488 -1.50259
3.23848 7.04613 -1.50068
3.21243 7.04783 -1.49888
3.18644 7.04951 -1.4971
3.1605 7.05118 -1.49533
3.13462 7.05283 -1.49358
3.1088 7.05447 -1.49185
3.08303 7.05609 -1.49013
3.05731 7.0577 -1.48843
3.03245 7.06117 -1.48714
3.00792 7.0653 -1.48601
2.98304 7.06851 -1.4847
2.95821 7.0717 -1.48341
2.9334 7.07487 -1.48213
2.90864 7.07803 -1.48087
2.88391 7.08117 -1.47962
2.85922 7.0843 -1.47839
2.83457 7.08741 -1.47717
2.80995 7.0905 -1.47596
2.78543 7.09372 -1.4748
2.76365 7.1039 -1.4751
2.74186 7.11408 -1.47541
2.72006 7.12424 -1.47574
2.69796 7.13366 -1.47592
2.6753 7.14159 -1.47582
2.65263 7.14951 -1.47572
2.62997 7.15742 -1.47563
2.6073 7.16531 -1.47556
2.58463 7.17319 -1.4755
2.56195 7.18105 -1.47545
2.53927 7.1889 -1.47542
2.51659 7.19673 -1.47539
2.49417 7.20532 -1.47553
2.47262 7.21646 -1.47621
2.45104 7.22759 -1.47691
2.42944 7.23872 -1.47761
2.40781 7.24984 -1.47833
2.38616 7.26096 -1.47906
2.36448 7.27207 -1.4798
2.34276 7.28318 -1.48055
2.32103 7.29428 -1.48131
2.29926 7.30538 -1.48209
2.27924 7.32216 -1.48403
2.26042 7.34307 -1.48682
2.24153 7.36405 -1.48963
2.22459 7.39184 -1.49383
2.20987 7.42753 -1.49963
2.19541 7.46482 -1.50575
2.18083 7.5024 -1.51194
2.16612 7.54028 -1.5182
2.15256 7.58291 -1.52541
2.14302 7.64079 -1.53568
2.13442 7.70328 -1.54689
2.12569 7.76668 -1.55827
2.11775 7.83445 -1.57052
2.11402 7.91952 -1.58623
4.53134 6.98312 -1.68283
4.50042 6.9835 -1.6795
4.46961 6.98388 -1.6762
4.43893 6.98425 -1.67293
4.40836 6.98461 -1.66968
4.3779 6.98498 -1.66647
4.34756 6.98534 -1.66328
4.3177 6.98626 -1.66026
4.28806 6.9874 -1.65731
4.25854 6.98853 -1.65439
4.22911 6.98965 -1.6515
4.19979 6.99077 -1.64863
4.17056 6.99188 -1.64579
4.14143 6.99299 -1.64297
4.1124 6.99408 -1.64018
4.08347 6.99517 -1.63742
4.05463 6.99626 -1.63467
4.02589 6.99734 -1.63196
3.99724 6.99841 -1.62926
3.96868 6.99948 -1.6266
3.94022 7.00053 -1.62395
3.91185 7.00159 -1.62133
3.88356 7.00264 -1.61874
3.85536 7.00368 -1.61616
3.82726 7.00471 -1.61362
3.79923 7.00574 -1.61109
3.7713 7.00677 -1.60859
3.74345 7.00778 -1.60611
3.71568 7.0088 -1.60365
3.688 7.0098 -1.60122
3.6604 7.0108 -1.59881
3.63273 7.01151 -1.59635
3.60502 7.01198 -1.59387
3.5774 7.01244 -1.59141
3.54986 7.0129 -1.58897
3.5224 7.01335 -1.58655
3.49503 7.0138 -1.58416
3.46704 7.01285 -1.58147
3.43926 7.01211 -1.57885
3.41247 7.01326 -1.57668
3.38576 7.01439 -1.57454
3.35912 7.01551 -1.57241
3.33255 7.01663 -1.5703
3.30605 7.01774 -1.56821
3.27961 7.01884 -1.56614
3.25318 7.0198 -1.56406
3.22644 7.01994 -1.56182
3.19988 7.0203 -1.55966
3.17353 7.02096 -1.55757
3.14725 7.0216 -1.55551
3.12103 7.02224 -1.55347
3.09488 7.02288 -1.55145
3.06879 7.02351 -1.54945
3.04277 7.02413 -1.54746
3.01714 7.02552 -1.54567
2.99174 7.02728 -1.54398
2.96638 7.02902 -1.5423
2.94108 7.03076 -1.54064
2.91583 7.03249 -1.539
2.89063 7.03421 -1.53738
2.86549 7.03592 -1.53578
2.84039 7.03763 -1.53419
2.81534 7.03933 -1.53262
2.79034 7.04101 -1.53107
2.7656 7.04323 -1.52965
2.74184 7.04784 -1.52877
2.71938 7.05575 -1.52862
2.69692 7.06366 -1.52849
2.67447 7.07154 -1.52837
2.652 7.07941 -1.52826
2.62954 7.08727 -1.52816
2.60707 7.09511 -1.52807
2.5846 7.10293 -1.528
2.56213 7.11074 -1.52793
2.53965 7.11854 -1.52788
2.51717 7.12632 -1.52785
2.49469 7.13408 -1.52782
2.4722 7.14183 -1.52781
2.4497 7.14957 -1.5278
2.4272 7.15729 -1.52781
2.40552 7.16745 -1.52836
2.38409 7.17842 -1.52909
2.36264 7.1894 -1.52984
2.34315 7.20649 -1.5319
2.32468 7.22697 -1.53469
2.30615 7.24751 -1.5375
2.28754 7.26813 -1.54034
2.26886 7.28881 -1.5432
2.25011 7.30956 -1.54609
2.23128 7.33039 -1.549
2.21498 7.35989 -1.55375
2.19918 7.3916 -1.55898
2.1844 7.42738 -1.56507
2.16985 7.46462 -1.57147
2.15517 7.50216 -1.57793
2.1414 7.5436 -1.58522
2.12981 7.59369 -1.59433
2.12117 7.65545 -1.60589
2.11239 7.71811 -1.61763
2.10475 7.78634 -1.63054
2.09853 7.86146 -1.64488
4.52331 6.97075 -1.75186
4.49246 6.97115 -1.74839
4.46172 6.97155 -1.74496
4.43111 6.97194 -1.74156
4.4006 6.97233 -1.73819
4.37022 6.97272 -1.73485
4.34004 6.97325 -1.73158
4.31037 6.97441 -1.72849
4.28081 6.97557 -1.72543
4.25134 6.97672 -1.72239
4.22197 6.97786 -1.71939
4.19271 6.979 -1.7164
4.16355 6.98013 -1.71345
4.13448 6.98125 -1.71052
4.10551 6.98236 -1.70762
4.07664 6.98347 -1.70475
4.04786 6.98458 -1.7019
4.01918 6.98567 -1.69907
3.99059 6.98676 -1.69627
3.96209 6.98784 -1.6935
3.93368 6.98892 -1.69075
3.90537 6.98999 -1.68803
3.87714 6.99106 -1.68533
3.8489 6.99193 -1.68261
3.82056 6.99246 -1.67984
3.79232 6.99299 -1.67709
3.76416 6.99351 -1.67437
3.7361 6.99403 -1.67167
3.70813 6.99454 -1.66899
3.68023 6.99505 -1.66634
3.65243 6.99555 -1.66371
3.62471 6.99604 -1.66111
3.59708 6.99653 -1.65853
3.56953 6.99702 -1.65597
3.54207 6.9975 -1.65344
3.51468 6.99797 -1.65093
3.48738 6.99844 -1.64844
3.45963 6.99786 -1.64573
3.43137 6.99602 -1.64275
3.40319 6.99419 -1.6398
3.37601 6.99419 -1.6373
3.34946 6.99534 -1.63509
3.32298 6.99648 -1.63291
3.29656 6.99761 -1.63074
3.27022 6.99874 -1.6286
3.24366 6.99927 -1.62634
3.21702 6.99943 -1.62401
3.19044 6.99959 -1.62171
3.16394 6.99974 -1.61943
3.13772 7.00035 -1.61728
3.11159 7.00102 -1.61516
3.08554 7.00168 -1.61307
3.05954 7.00233 -1.61099
3.03372 7.00323 -1.60899
3.00834 7.00501 -1.60722
2.98301 7.00678 -1.60546
2.95774 7.00855 -1.60373
2.93252 7.0103 -1.60201
2.90736 7.01205 -1.60031
2.88224 7.01379 -1.59863
2.85717 7.01552 -1.59696
2.83221 7.01736 -1.59535
2.80767 7.02014 -1.59396
2.78317 7.02291 -1.59259
2.75871 7.02567 -1.59124
2.7357 7.03205 -1.59073
2.71281 7.03869 -1.59029
2.68993 7.04533 -1.58987
2.66702 7.05185 -1.58944
2.64411 7.05835 -1.58902
2.62122 7.06485 -1.58862
2.59834 7.07135 -1.58823
2.57547 7.07783 -1.58786
2.55261 7.08431 -1.58751
2.52975 7.09079 -1.58717
2.50691 7.09726 -1.58684
2.48407 7.10372 -1.58653
2.46124 7.11018 -1.58623
2.43842 7.11663 -1.58595
2.4156 7.12308 -1.58569
2.39279 7.12953 -1.58544
2.37089 7.13868 -1.5858
2.3509 7.15368 -1.58749
2.33257 7.17394 -1.59035
2.31417 7.19427 -1.59323
2.29569 7.21466 -1.59614
2.27715 7.23513 -1.59907
2.25854 7.25565 -1.60203
2.23985 7.27625 -1.60501
2.2211 7.29692 -1.60802
2.20542 7.32812 -1.61336
2.18965 7.35959 -1.61876
2.17377 7.39127 -1.62422
2.15894 7.4271 -1.63059
2.14429 7.4643 -1.63727
2.13032 7.50457 -1.64462
2.11856 7.55357 -1.65389
2.10804 7.60806 -1.66436
2.09922 7.66997 -1.67645
2.09186 7.73867 -1.69002
2.08557 7.81291 -1.70479
4.51553 6.95874 -1.82098
4.48451 6.95882 -1.81729
4.45383 6.95922 -1.81373
4.42329 6.95964 -1.8102
4.39285 6.96005 -1.8067
4.36254 6.96046 -1.80324
4.33266 6.96138 -1.79993
4.30305 6.96256 -1.79673
4.27354 6.96374 -1.79355
4.24414 6.96491 -1.7904
4.21484 6.96607 -1.78728
4.18564 6.96722 -1.78419
4.15654 6.96837 -1.78112
4.12753 6.96951 -1.77808
4.09862 6.97064 -1.77507
4.06972 6.97161 -1.77205
4.0407 6.97222 -1.76896
4.01178 6.97282 -1.7659
3.98296 6.97341 -1.76287
3.95424 6.974 -1.75986
3.92561 6.97458 -1.75688
3.89708 6.97515 -1.75393
3.86864 6.97572 -1.751
3.84029 6.97629 -1.7481
3.81203 6.97685 -1.74523
3.78386 6.9774 -1.74238
3.75578 6.97794 -1.73955
3.7278 6.97849 -1.73675
3.6999 6.97902 -1.73398
3.67208 6.97955 -1.73123
3.64435 6.98007 -1.72851
3.61671 6.98059 -1.72581
3.58915 6.98111 -1.72313
3.56167 6.98161 -1.72048
3.53428 6.98212 -1.71786
3.50696 6.98261 -1.71525
3.47973 6.9831 -1.71268
3.45223 6.98288 -1.70995
3.42403 6.98108 -1.70686
3.39594 6.97927 -1.7038
3.36794 6.97747 -1.70076
3.34004 6.97568 -1.69775
3.31343 6.97637 -1.69537
3.2871 6.97753 -1.69313
3.2608 6.97858 -1.69089
3.23417 6.97878 -1.68846
3.20761 6.97897 -1.68606
3.18113 6.97916 -1.68368
3.15472 6.97934 -1.68132
3.12838 6.97951 -1.67898
3.10218 6.97985 -1.6767
3.07622 6.98053 -1.67453
3.05031 6.98121 -1.67238
3.02484 6.98275 -1.67046
2.99955 6.98455 -1.66863
2.97431 6.98634 -1.66681
2.94912 6.98812 -1.66501
2.92413 6.99023 -1.66331
2.89948 6.99305 -1.66181
2.87487 6.99587 -1.66031
2.85031 6.99867 -1.65884
2.82579 7.00147 -1.65739
2.80131 7.00425 -1.65595
2.77687 7.00703 -1.65454
2.75359 7.01263 -1.6538
2.73073 7.01927 -1.65333
2.70788 7.0259 -1.65288
2.68504 7.03253 -1.65244
2.66222 7.03915 -1.65202
2.6394 7.04576 -1.65162
2.61657 7.05231 -1.65121
2.59373 7.05879 -1.65081
2.5709 7.06527 -1.65042
2.54808 7.07174 -1.65005
2.52526 7.07821 -1.6497
2.50246 7.08467 -1.64936
2.47966 7.09112 -1.64904
2.45687 7.09757 -1.64873
2.4341 7.10402 -1.64844
2.41132 7.11046 -1.64817
2.38927 7.11904 -1.64841
2.36741 7.12819 -1.64879
2.34554 7.13735 -1.6492
2.32365 7.14652 -1.64961
2.30371 7.16176 -1.65145
2.2853 7.182 -1.65445
2.26682 7.20231 -1.65748
2.24828 7.22268 -1.66053
2.22966 7.24312 -1.66361
2.21153 7.26547 -1.66713
2.1959 7.29651 -1.67266
2.18017 7.32773 -1.67824
2.16433 7.35917 -1.68387
2.14839 7.39081 -1.68955
2.13349 7.42668 -1.69621
2.11932 7.46581 -1.70362
2.10756 7.51433 -1.71317
2.09566 7.56338 -1.72284
2.08617 7.62228 -1.73475
2.07909 7.69141 -1.74898
2.07272 7.76478 -1.76418
4.50851 6.94794 -1.89044
4.47733 6.94767 -1.88652
4.44641 6.94762 -1.8827
4.41571 6.94771 -1.87895
4.38512 6.9478 -1.87523
4.35492 6.9483 -1.87165
4.32527 6.94951 -1.8683
4.2956 6.9505 -1.86493
4.26584 6.95119 -1.8615
4.23619 6.95186 -1.8581
4.20665 6.95253 -1.85473
4.17721 6.95319 -1.85139
4.14788 6.95385 -1.84808
4.11864 6.9545 -1.8448
4.08951 6.95514 -1.84155
4.06048 6.95578 -1.83832
4.03154 6.95641 -1.83513
4.0027 6.95704 -1.83196
3.97396 6.95766 -1.82882
3.94532 6.95827 -1.82571
3.91677 6.95888 -1.82262
3.88832 6.95948 -1.81956
3.85995 6.96007 -1.81653
3.83168 6.96066 -1.81353
3.8035 6.96124 -1.81055
3.77541 6.96182 -1.80761
3.74741 6.96239 -1.80468
3.7195 6.96295 -1.80178
3.69168 6.96351 -1.79891
3.66393 6.96406 -1.79607
3.63628 6.96461 -1.79325
3.60871 6.96515 -1.79045
3.58122 6.96569 -1.78769
3.55382 6.96622 -1.78494
3.5265 6.96674 -1.78222
3.49925 6.96726 -1.77953
3.47209 6.96778 -1.77686
3.44483 6.96792 -1.77412
3.41671 6.96614 -1.77092
3.38868 6.96437 -1.76775
3.36076 6.9626 -1.76461
3.33294 6.96083 -1.76149
3.30521 6.95906 -1.75841
3.27766 6.95749 -1.75539
3.25123 6.95811 -1.75296
3.22469 6.95834 -1.75045
3.19823 6.95856 -1.74797
3.17184 6.95877 -1.7455
3.14552 6.95898 -1.74306
3.11927 6.95918 -1.74065
3.09309 6.95938 -1.73825
3.06698 6.95957 -1.73588
3.04126 6.96049 -1.73371
3.01625 6.96291 -1.73194
2.99149 6.96577 -1.73031
2.96677 6.96863 -1.72869
2.9421 6.97148 -1.72709
2.91747 6.97432 -1.72551
2.89288 6.97715 -1.72395
2.86834 6.97997 -1.72241
2.84384 6.98278 -1.72088
2.81938 6.98559 -1.71938
2.79497 6.98838 -1.71789
2.7714 6.99322 -1.71693
2.74857 6.99986 -1.71642
2.72576 7.00649 -1.71594
2.70295 7.01311 -1.71547
2.68015 7.01973 -1.71502
2.65737 7.02634 -1.71458
2.6346 7.03295 -1.71416
2.61183 7.03955 -1.71375
2.58908 7.04614 -1.71337
2.56632 7.0527 -1.71299
2.54355 7.05917 -1.71261
2.52078 7.06563 -1.71224
2.49801 7.07208 -1.71189
2.47526 7.07852 -1.71156
2.45251 7.08496 -1.71124
2.42977 7.0914 -1.71094
2.40758 7.09942 -1.71104
2.38576 7.10856 -1.71142
2.36393 7.11771 -1.71182
2.34209 7.12685 -1.71224
2.32023 7.13599 -1.71268
2.29836 7.14514 -1.71313
2.27648 7.15429 -1.71359
2.25655 7.16967 -1.71557
2.23807 7.18989 -1.71871
2.21951 7.21018 -1.72188
2.20202 7.23426 -1.72597
2.18644 7.26505 -1.73167
2.17074 7.29604 -1.73742
2.15494 7.32723 -1.74322
2.13903 7.35863 -1.74908
2.12301 7.39022 -1.75499
2.10839 7.42731 -1.76221
2.09663 7.47536 -1.77204
2.08473 7.52394 -1.78199
2.07323 7.575 -1.79253
2.06643 7.64456 -1.80744
2.05999 7.71708 -1.82305
4.50462 6.94193 -1.9613
