ply
format ascii 1.0
comment Created by Open3D
element vertex 1793
property double x
property double y
property double z
end_header
-7.30876 -3.59979 -1.85954
-7.25425 -3.60128 -1.84854
-7.20038 -3.60275 -1.83768
-7.14714 -3.6042 -1.82697
-7.09451 -3.60563 -1.8164
-7.04249 -3.60705 -1.80597
-6.99106 -3.60845 -1.79568
-6.94021 -3.60983 -1.78552
-6.88992 -3.6112 -1.77549
-6.8402 -3.61255 -1.76559
-6.78892 -3.61276 -1.75527
-6.73567 -3.61159 -1.74442
-6.68306 -3.61043 -1.73372
-6.63582 -3.61186 -1.7244
-6.59346 -3.61567 -1.71633
-6.54935 -3.61827 -1.7078
-6.50019 -3.61778 -1.69793
-6.45158 -3.61729 -1.68819
-6.40637 -3.61841 -1.67933
-6.36918 -3.62382 -1.67255
-6.33228 -3.62918 -1.66584
-6.29597 -3.63467 -1.65928
-6.262 -3.64131 -1.65334
-6.22905 -3.64835 -1.64765
-6.19631 -3.65534 -1.64202
-6.17025 -3.66612 -1.63815
-6.14872 -3.67949 -1.63549
-6.12724 -3.6928 -1.63285
-6.1058 -3.70606 -1.63023
-6.08442 -3.71926 -1.62763
-6.06308 -3.7324 -1.62505
-6.04172 -3.74545 -1.62247
-6.02038 -3.75842 -1.6199
-5.99908 -3.77134 -1.61734
-5.97783 -3.78421 -1.61481
-5.95662 -3.79702 -1.61229
-5.93546 -3.80979 -1.60979
-5.91435 -3.8225 -1.60731
-5.89328 -3.83516 -1.60485
-5.87226 -3.84777 -1.6024
-5.85129 -3.86032 -1.59998
-5.83204 -3.87395 -1.59803
-5.8202 -3.89246 -1.59813
-9.35366 -3.59185 -2.37469
-9.26669 -3.59187 -2.35546
-9.18112 -3.59188 -2.33656
-9.0969 -3.59189 -2.31798
-9.01401 -3.59191 -2.29973
-8.93242 -3.59192 -2.28177
-8.85209 -3.59193 -2.26412
-8.75116 -3.583 -2.24117
-8.6774 -3.58464 -2.22515
-8.60468 -3.58626 -2.20938
-8.53298 -3.58785 -2.19385
-8.46229 -3.58942 -2.17856
-8.3913 -3.59042 -2.16317
-8.31795 -3.58996 -2.14716
-8.24568 -3.58951 -2.1314
-8.17446 -3.58907 -2.11589
-8.10428 -3.58864 -2.10063
-8.03543 -3.58835 -2.0857
-7.96887 -3.58867 -2.07133
-7.90401 -3.58933 -2.05739
-7.84099 -3.59044 -2.04391
-7.7788 -3.59154 -2.03063
-7.71741 -3.59262 -2.01754
-7.65681 -3.59369 -2.00463
-7.59686 -3.59469 -1.99188
-7.53752 -3.5956 -1.97927
-7.47892 -3.59651 -1.96684
-7.42105 -3.5974 -1.95458
-7.36402 -3.59834 -1.94252
-7.30809 -3.59946 -1.93074
-7.25261 -3.60047 -1.91906
-7.19694 -3.60103 -1.90731
-7.14195 -3.60159 -1.89572
-7.08763 -3.60214 -1.88429
-7.03471 -3.60307 -1.87322
-6.98338 -3.60449 -1.86256
-6.93263 -3.60589 -1.85203
-6.88244 -3.60728 -1.84164
-6.83283 -3.60865 -1.83138
-6.78078 -3.60843 -1.82046
-6.72765 -3.60728 -1.80922
-6.67514 -3.60615 -1.79814
-6.62328 -3.60503 -1.78721
-6.57658 -3.60642 -1.77765
-6.52965 -3.60738 -1.76802
-6.48075 -3.60696 -1.75783
-6.4324 -3.60654 -1.74778
-6.38459 -3.60612 -1.73786
-6.33732 -3.6057 -1.72806
-6.30088 -3.61119 -1.72121
-6.26687 -3.61787 -1.71501
-6.23309 -3.6245 -1.70887
-6.1999 -3.63128 -1.70289
-6.16741 -3.6383 -1.69709
-6.13514 -3.64526 -1.69135
-6.10308 -3.65218 -1.68566
-6.07122 -3.65904 -1.68003
-6.03957 -3.66585 -1.67445
-6.00876 -3.67301 -1.66909
-5.98781 -3.68607 -1.66648
-5.96684 -3.69903 -1.66386
-5.94587 -3.71191 -1.66126
-5.92495 -3.72474 -1.65867
-5.90601 -3.73875 -1.65665
-5.88833 -3.75349 -1.65498
-5.87066 -3.76819 -1.65333
-5.85302 -3.78286 -1.6517
-5.8354 -3.79749 -1.65008
-5.81781 -3.81209 -1.64848
-5.80024 -3.82665 -1.6469
-5.78269 -3.84117 -1.64533
-5.76517 -3.85566 -1.64378
-9.26669 -3.59187 -2.44287
-9.18112 -3.59188 -2.42327
-9.0969 -3.59189 -2.40401
-9.01401 -3.59191 -2.38507
-8.93242 -3.59192 -2.36645
-8.91014 -3.61549 -2.36355
-8.91261 -3.6491 -2.36723
-8.9151 -3.68283 -2.37095
-8.91762 -3.71668 -2.37471
-8.92016 -3.75064 -2.37851
-8.92274 -3.78472 -2.38235
-8.39205 -3.59074 -2.24365
-8.3233 -3.59227 -2.22828
-8.25547 -3.59378 -2.21313
-8.1866 -3.5944 -2.19768
-8.11623 -3.59392 -2.1818
-8.04686 -3.59346 -2.16618
-7.9785 -3.593 -2.1508
-7.91097 -3.59249 -2.13562
-7.84415 -3.59189 -2.12062
-7.78121 -3.59265 -2.10664
-7.71954 -3.59361 -2.09299
-7.65868 -3.59457 -2.07953
-7.59882 -3.59562 -2.06633
-7.53972 -3.59666 -2.05332
-7.48134 -3.59768 -2.04049
-7.42344 -3.59856 -2.02777
-7.36638 -3.59949 -2.01526
-7.31042 -3.60061 -2.00303
-7.25513 -3.60172 -1.99097
-7.2005 -3.60281 -1.97907
-7.14652 -3.60389 -1.96733
-7.09245 -3.60459 -1.95555
-7.03872 -3.60512 -1.94385
-6.98562 -3.60564 -1.9323
-6.93315 -3.60616 -1.92091
-6.8813 -3.60668 -1.90967
-6.83005 -3.60718 -1.89858
-6.77477 -3.60523 -1.88635
-6.72178 -3.60414 -1.87473
-6.66943 -3.60307 -1.86328
-6.61772 -3.602 -1.85198
-6.5869 -3.61207 -1.84652
-6.58979 -3.64061 -1.85052
-6.45442 -3.59231 -1.81566
-6.40703 -3.59232 -1.8055
-6.36017 -3.59232 -1.79546
-6.31383 -3.59233 -1.78555
-6.30471 -3.61338 -1.78617
-6.29802 -3.63586 -1.7875
-6.2044 -3.60781 -1.76413
-6.17112 -3.61442 -1.75788
-6.13867 -3.62134 -1.75187
-6.10665 -3.62833 -1.74597
-6.07483 -3.63527 -1.74013
-6.04321 -3.64216 -1.73434
-6.0118 -3.649 -1.7286
-5.98405 -3.6579 -1.72392
-5.95683 -3.667 -1.71938
-5.92711 -3.6744 -1.71412
-5.90732 -3.68784 -1.71174
-5.88823 -3.70166 -1.70956
-5.86918 -3.71543 -1.70741
-5.85016 -3.72916 -1.70527
-5.83119 -3.74286 -1.70316
-5.81226 -3.75651 -1.70106
-5.79336 -3.77013 -1.69899
-5.77577 -3.78454 -1.6973
-5.75836 -3.79902 -1.69568
-5.74098 -3.81346 -1.69408
-5.72362 -3.82787 -1.6925
-8.05694 -3.59796 -2.24682
-7.99016 -3.59825 -2.23133
-7.92249 -3.59772 -2.21558
-7.85548 -3.59708 -2.19999
-7.78942 -3.59644 -2.18463
-7.72428 -3.59582 -2.16952
-7.66206 -3.59616 -2.1552
-7.60192 -3.59709 -2.14145
-7.54255 -3.59801 -2.1279
-7.48392 -3.59891 -2.11453
-7.42601 -3.59981 -2.10135
-7.36829 -3.60043 -2.08821
-7.31227 -3.60152 -2.07552
-7.25743 -3.60286 -2.06316
-7.20278 -3.60395 -2.05082
-7.14876 -3.60502 -2.03866
-7.0954 -3.60608 -2.02666
-7.04265 -3.60713 -2.01481
-6.99034 -3.60808 -2.00308
-6.93781 -3.60858 -1.99126
-6.88589 -3.60908 -1.9796
-6.83459 -3.60958 -1.9681
-6.77658 -3.60619 -1.95464
-6.71957 -3.60295 -1.94145
-6.66725 -3.60189 -1.92959
-6.64429 -3.61647 -1.92622
-6.55083 -3.59229 -1.90239
-6.50236 -3.5923 -1.89157
-6.45442 -3.59231 -1.8809
-6.40703 -3.59232 -1.87037
-6.36018 -3.59232 -1.85997
-6.31383 -3.59233 -1.8497
-6.26799 -3.59234 -1.83957
-6.22265 -3.59234 -1.82956
-6.17781 -3.59235 -1.81969
-6.16946 -3.61345 -1.82056
-6.11008 -3.60448 -1.80636
-6.07929 -3.61208 -1.8006
-6.05161 -3.62138 -1.79576
-6.02408 -3.63063 -1.79096
-5.99669 -3.63982 -1.78621
-5.96943 -3.64897 -1.78149
-5.94143 -3.65751 -1.77655
-5.91153 -3.66474 -1.77104
-5.88181 -3.67192 -1.76558
-5.86218 -3.68528 -1.76315
-5.84324 -3.69901 -1.76094
-5.82435 -3.71271 -1.75875
-5.80549 -3.72636 -1.75658
-5.78667 -3.73998 -1.75443
-5.76789 -3.75356 -1.7523
-5.74915 -3.7671 -1.75019
-5.73045 -3.7806 -1.7481
-5.71178 -3.79407 -1.74602
-5.69316 -3.8075 -1.74397
-7.73535 -3.60097 -2.2483
-7.67093 -3.60032 -2.23285
-7.60741 -3.59968 -2.21764
-7.54586 -3.59959 -2.20298
-7.48719 -3.60049 -2.18914
-7.42924 -3.60137 -2.17549
-7.37142 -3.60196 -2.16186
-7.31237 -3.60157 -2.14784
-7.25406 -3.60119 -2.13402
-7.19902 -3.60207 -2.12115
-7.14627 -3.60376 -2.10893
-7.09413 -3.60544 -2.09687
-7.04257 -3.60709 -2.08497
-6.99159 -3.60872 -2.07321
-6.94112 -3.61031 -2.0616
-6.89015 -3.61132 -2.04982
-6.83914 -3.61199 -2.03801
-6.78102 -3.60855 -2.02405
-6.72122 -3.60384 -2.00957
-6.69384 -3.61625 -2.00476
-6.59986 -3.59229 -1.97998
-6.55083 -3.59229 -1.96865
-6.50235 -3.5923 -1.95746
-6.45443 -3.59231 -1.94641
-6.40703 -3.59232 -1.93551
-6.36018 -3.59232 -1.92475
-6.31383 -3.59233 -1.91413
-6.26799 -3.59234 -1.90364
-6.22265 -3.59235 -1.89329
-6.17781 -3.59235 -1.88307
-6.13345 -3.59236 -1.87297
-6.1008 -3.599 -1.86644
-6.06425 -3.60314 -1.85871
-6.03668 -3.61244 -1.85372
-6.00925 -3.62169 -1.84878
-5.98197 -3.63089 -1.84389
-5.95482 -3.64004 -1.83903
-5.92573 -3.64785 -1.83357
-5.89596 -3.65509 -1.8279
-5.86637 -3.66227 -1.82228
-5.83695 -3.66942 -1.81671
-5.81743 -3.68267 -1.81423
-5.79865 -3.69633 -1.81198
-5.77991 -3.70994 -1.80975
-5.76121 -3.72352 -1.80754
-5.74254 -3.73706 -1.80536
-5.72391 -3.75056 -1.80319
-5.70532 -3.76402 -1.80105
-5.68677 -3.77745 -1.79893
-5.66826 -3.79085 -1.79683
-7.43248 -3.60294 -2.25001
-7.37457 -3.60349 -2.2359
-7.31547 -3.6031 -2.22139
-7.25712 -3.6027 -2.2071
-7.19952 -3.60232 -2.19301
-7.14265 -3.60193 -2.17912
-7.08851 -3.60258 -2.16604
-7.03703 -3.60425 -2.15376
-6.98612 -3.6059 -2.14163
-6.93579 -3.60753 -2.12966
-6.886 -3.60914 -2.11784
-6.83677 -3.61074 -2.10617
-6.78179 -3.60896 -2.09271
-6.72116 -3.6038 -2.07748
-6.64946 -3.59228 -2.0588
-6.59986 -3.59229 -2.04692
-6.55083 -3.59229 -2.0352
-6.50235 -3.5923 -2.02363
-6.45442 -3.59231 -2.01221
-6.40703 -3.59232 -2.00094
-6.36018 -3.59232 -1.98982
-6.31383 -3.59233 -1.97884
-6.26799 -3.59234 -1.968
-6.22265 -3.59235 -1.95729
-6.17781 -3.59235 -1.94673
-6.13345 -3.59236 -1.93629
-6.08955 -3.59237 -1.92598
-6.04969 -3.59449 -1.91693
-6.02176 -3.60351 -1.91165
-5.99444 -3.61276 -1.90657
-5.96726 -3.62196 -1.90153
-5.93987 -3.6309 -1.89643
-5.91004 -3.63819 -1.89054
-5.8804 -3.64544 -1.88471
-5.85093 -3.65264 -1.87893
-5.82164 -3.65979 -1.8732
-5.79252 -3.6669 -1.86753
-5.77307 -3.68002 -1.86497
-5.75444 -3.69359 -1.86269
-5.73585 -3.70713 -1.86043
-5.7173 -3.72063 -1.85819
-5.69887 -3.73415 -1.856
-5.68097 -3.74796 -1.85399
-5.66311 -3.76173 -1.852
-5.64527 -3.77547 -1.85004
-7.20255 -3.60383 -2.266
-7.14563 -3.60344 -2.25164
-7.08944 -3.60305 -2.23748
-7.03395 -3.60267 -2.22353
-6.98064 -3.60307 -2.21024
-6.93037 -3.60472 -2.1979
-6.88066 -3.60634 -2.18571
-6.83141 -3.6079 -2.17365
-6.78159 -3.60886 -2.16139
-6.7211 -3.60377 -2.1457
-6.64947 -3.59228 -2.12643
-6.59986 -3.59229 -2.11416
-6.55083 -3.59229 -2.10205
-6.50235 -3.5923 -2.0901
-6.45443 -3.59231 -2.07831
-6.40703 -3.59232 -2.06667
-6.36017 -3.59232 -2.05518
-6.31383 -3.59233 -2.04384
-6.26799 -3.59234 -2.03264
-6.22265 -3.59235 -2.02159
-6.17781 -3.59235 -2.01067
-6.13345 -3.59236 -1.99989
-6.08955 -3.59237 -1.98924
-6.04613 -3.59237 -1.97873
-6.01314 -3.59836 -1.97162
-5.97963 -3.60384 -1.96433
-5.95255 -3.61304 -1.95915
-5.92407 -3.62124 -1.95351
-5.89437 -3.62855 -1.94746
-5.86485 -3.6358 -1.94147
-5.83551 -3.64301 -1.93553
-5.80634 -3.65018 -1.92965
-5.77735 -3.6573 -1.92382
-5.74851 -3.66437 -1.91804
-5.72926 -3.67743 -1.91545
-5.71136 -3.6913 -1.91333
-5.6935 -3.70515 -1.91124
-5.67567 -3.71895 -1.90916
-5.65787 -3.73272 -1.9071
-5.6401 -3.74645 -1.90507
-5.62237 -3.76016 -1.90305
-6.92785 -3.6034 -2.2673
-6.8753 -3.60353 -2.25379
-6.82589 -3.60499 -2.24129
-6.77615 -3.60596 -2.22866
-6.72103 -3.60374 -2.21425
-6.64946 -3.59228 -2.19437
-6.59986 -3.59229 -2.18171
-6.55083 -3.59229 -2.16922
-6.50235 -3.5923 -2.15689
-6.45443 -3.59231 -2.14472
-6.40703 -3.59232 -2.13271
-6.36017 -3.59232 -2.12085
-6.31383 -3.59233 -2.10915
-6.26799 -3.59234 -2.09759
-6.22265 -3.59235 -2.08618
-6.17781 -3.59235 -2.07492
-6.13345 -3.59236 -2.06379
-6.08955 -3.59237 -2.05281
-6.04613 -3.59237 -2.04196
-6.00315 -3.59238 -2.03124
-5.98671 -3.60811 -2.0295
-5.93785 -3.60411 -2.01676
-5.90828 -3.61159 -2.01056
-5.8794 -3.61933 -2.00459
-5.85232 -3.62804 -1.99923
-5.8254 -3.6367 -1.99392
-5.79861 -3.64532 -1.98866
-5.77197 -3.65389 -1.98344
-5.74546 -3.66242 -1.97827
-5.72381 -3.67393 -1.97478
-5.70549 -3.68751 -1.97244
-5.68722 -3.70106 -1.97013
-5.66899 -3.71457 -1.96784
-5.65079 -3.72805 -1.96558
-5.63264 -3.7415 -1.96334
-5.61454 -3.75492 -1.96113
-6.72212 -3.60432 -2.28351
-6.64947 -3.59228 -2.26265
-6.59986 -3.59229 -2.24959
-6.55083 -3.59229 -2.23671
-6.50236 -3.5923 -2.224
-6.45443 -3.59231 -2.21145
-6.40703 -3.59232 -2.19907
-6.36018 -3.59232 -2.18684
-6.31383 -3.59233 -2.17477
-6.26799 -3.59234 -2.16286
-6.22265 -3.59235 -2.15109
-6.17782 -3.59235 -2.13948
-6.13345 -3.59236 -2.12801
-6.08956 -3.59237 -2.11668
-6.04613 -3.59237 -2.10549
-6.00315 -3.59238 -2.09444
-5.97497 -3.60103 -2.08854
-5.97423 -3.6262 -2.09225
-5.90608 -3.61024 -2.07234
-5.87904 -3.61911 -2.06683
-5.85197 -3.62782 -2.06131
-5.82505 -3.63648 -2.05583
-5.79827 -3.6451 -2.05041
-5.77163 -3.65367 -2.04503
-5.74512 -3.6622 -2.0397
-5.72187 -3.67269 -2.03553
-5.70356 -3.68626 -2.03312
-5.68529 -3.6998 -2.03074
-5.66707 -3.71331 -2.02838
-5.64888 -3.72679 -2.02605
-5.63075 -3.74024 -2.02375
-5.61265 -3.75365 -2.02146
-6.59986 -3.59229 -2.31781
-6.55083 -3.59229 -2.30454
-6.50236 -3.5923 -2.29144
-6.45443 -3.59231 -2.27851
-6.40704 -3.59232 -2.26575
-6.36017 -3.59232 -2.25316
-6.31383 -3.59233 -2.24072
-6.26799 -3.59234 -2.22845
-6.22265 -3.59235 -2.21632
-6.17782 -3.59235 -2.20436
-6.13345 -3.59236 -2.19254
-6.08955 -3.59237 -2.18087
-6.04613 -3.59237 -2.16934
-6.00315 -3.59238 -2.15796
-5.96638 -3.59585 -2.14879
-5.96726 -3.62196 -2.15319
-5.90456 -3.60931 -2.13464
-5.87799 -3.61846 -2.12913
-5.85155 -3.62756 -2.12366
-5.8247 -3.63626 -2.11805
-5.79792 -3.64488 -2.11246
-5.77128 -3.65346 -2.10692
-5.74478 -3.66198 -2.10143
-5.71992 -3.67143 -2.09654
-5.70162 -3.685 -2.09406
-5.68336 -3.69854 -2.09161
-5.66514 -3.71205 -2.08918
-5.64697 -3.72553 -2.08678
-5.62884 -3.73897 -2.08441
-5.61127 -3.75274 -2.08226
-6.55083 -3.59229 -2.37272
-6.50235 -3.5923 -2.35923
-6.45443 -3.59231 -2.34592
-6.40704 -3.59232 -2.33278
-6.36018 -3.59232 -2.31982
-6.31383 -3.59233 -2.30701
-6.26799 -3.59234 -2.29437
-6.22265 -3.59235 -2.28189
-6.17782 -3.59235 -2.26957
-6.13345 -3.59236 -2.2574
-6.08955 -3.59237 -2.24539
-6.04613 -3.59237 -2.23352
-6.00315 -3.59238 -2.2218
-5.98003 -3.60408 -2.21742
-5.98094 -3.63027 -2.22197
-5.90304 -3.60838 -2.19722
-5.87647 -3.61753 -2.19155
-5.85005 -3.62663 -2.18593
-5.82376 -3.63568 -2.18036
-5.79757 -3.64466 -2.17482
-5.77093 -3.65324 -2.16912
-5.74443 -3.66176 -2.16347
-5.71807 -3.67025 -2.15787
-5.69966 -3.68374 -2.15528
-5.68141 -3.69728 -2.15275
-5.66321 -3.71078 -2.15026
-5.64535 -3.72446 -2.1479
-5.62791 -3.73836 -2.14572
-5.6105 -3.75222 -2.14356
-6.50236 -3.5923 -2.42738
-6.45443 -3.59231 -2.41369
-6.40704 -3.59232 -2.40017
-6.36018 -3.59232 -2.38683
-6.31383 -3.59233 -2.37365
-6.26799 -3.59234 -2.36065
-6.22266 -3.59235 -2.34781
-6.17782 -3.59235 -2.33513
-6.13345 -3.59236 -2.32261
-6.08955 -3.59237 -2.31025
-6.04613 -3.59237 -2.29804
-6.00315 -3.59238 -2.28598
-5.9999 -3.61606 -2.28905
-6.00381 -3.64415 -2.29489
-5.90151 -3.60745 -2.26011
-5.87496 -3.61659 -2.25427
-5.84854 -3.62569 -2.24849
-5.82226 -3.63474 -2.24276
-5.79611 -3.64375 -2.23709
-5.7701 -3.65271 -2.23146
-5.74409 -3.66154 -2.22583
-5.71773 -3.67003 -2.22007
-5.69771 -3.68248 -2.21677
-5.67956 -3.69608 -2.21422
-5.66205 -3.71003 -2.21192
-5.64457 -3.72395 -2.20965
-5.62713 -3.73784 -2.2074
-5.60973 -3.7517 -2.20518
-6.40704 -3.59232 -2.46792
-6.36018 -3.59232 -2.4542
-6.31383 -3.59233 -2.44066
-6.26799 -3.59234 -2.42728
-6.22266 -3.59235 -2.41408
-6.17782 -3.59235 -2.40105
-6.13345 -3.59236 -2.38817
-6.08955 -3.59237 -2.37546
-6.05035 -3.59488 -2.36456
-6.05436 -3.62303 -2.37056
-6.05842 -3.65132 -2.37662
-6.06252 -3.67978 -2.38275
-6.06666 -3.7084 -2.38894
-6.0751 -3.7398 -2.39687
-6.09216 -3.77672 -2.40827
-6.18456 -3.59628 -2.47003
-6.34253 -5.14153 -1.50974
-6.11389 -4.95618 -1.52306
-6.11318 -4.98765 -1.5268
-6.11243 -5.01925 -1.53056
-6.11163 -5.05095 -1.53434
-6.11079 -5.08279 -1.53815
-6.10989 -5.11475 -1.54198
-5.92855 -4.80593 -1.54281
-5.92393 -4.83324 -1.54556
-5.92073 -4.86183 -1.54873
-5.92017 -4.89272 -1.55261
-5.91957 -4.92374 -1.55652
-5.91892 -4.95488 -1.56045
-5.91822 -4.98613 -1.5644
-5.91747 -5.01751 -1.56838
-5.91667 -5.04901 -1.57239
-5.91538 -5.08025 -1.57629
-5.91381 -5.11141 -1.58017
-5.76912 -4.67669 -1.56567
-5.76524 -4.70377 -1.56864
-5.76265 -4.73202 -1.57199
-5.76003 -4.76038 -1.57536
-5.75738 -4.78883 -1.57876
-5.7547 -4.81741 -1.58219
-5.751 -4.84525 -1.58537
-5.756 -4.8806 -1.59098
-5.75804 -4.91364 -1.59582
-5.76007 -4.94686 -1.6007
-5.76209 -4.98027 -1.60562
-5.7641 -5.01387 -1.61058
-5.7661 -5.04766 -1.61558
-5.7681 -5.08163 -1.62063
-5.77008 -5.11581 -1.62571
-5.86741 -5.23526 -1.65778
-5.68522 -4.60868 -1.60654
-5.68253 -4.63629 -1.60991
-5.6798 -4.66399 -1.6133
-5.67705 -4.69179 -1.61671
-5.67426 -4.71969 -1.62015
-5.67133 -4.74762 -1.62358
-5.66697 -4.77446 -1.62664
-5.66257 -4.80138 -1.62972
-5.65814 -4.82838 -1.63282
-5.65449 -4.85619 -1.63618
-5.66008 -4.89211 -1.64225
-5.66568 -4.92826 -1.64838
-5.6713 -4.96467 -1.65457
-5.67693 -5.00132 -1.6608
-5.68108 -5.03689 -1.66666
-5.68275 -5.07049 -1.67183
-5.6844 -5.10427 -1.67705
-5.714 -5.1635 -1.69058
-5.60469 -4.5434 -1.64676
-5.60187 -4.57048 -1.65016
-5.59901 -4.59765 -1.65358
-5.59613 -4.62492 -1.65703
-5.59321 -4.65228 -1.6605
-5.58952 -4.67913 -1.66378
-5.58507 -4.70545 -1.66687
-5.58058 -4.73186 -1.66998
-5.57606 -4.75834 -1.67311
-5.57149 -4.78491 -1.67626
-5.56689 -4.81156 -1.67943
-5.56225 -4.83829 -1.68263
-5.55925 -4.86658 -1.68636
-5.56436 -4.90214 -1.69259
-5.56947 -4.93795 -1.69888
-5.57459 -4.97399 -1.70522
-5.57973 -5.01028 -1.71162
-5.58487 -5.04681 -1.71807
-5.59131 -5.08476 -1.72498
-5.52917 -4.48218 -1.68693
-5.52317 -4.50627 -1.68943
-5.5202 -4.53293 -1.69288
-5.51719 -4.55968 -1.69636
-5.51415 -4.58652 -1.69987
-5.50974 -4.61235 -1.70299
-5.50521 -4.63817 -1.7061
-5.50064 -4.66407 -1.70924
-5.49603 -4.69005 -1.71239
-5.49138 -4.71611 -1.71557
-5.48669 -4.74225 -1.71877
-5.48197 -4.76846 -1.722
-5.4772 -4.79476 -1.72525
-5.4724 -4.82113 -1.72852
-5.46756 -4.84759 -1.73181
-5.465 -4.87621 -1.73586
-5.47191 -4.91346 -1.74297
-5.49946 -4.96964 -1.75673
-5.52743 -5.02668 -1.77072
-5.55584 -5.08463 -1.78495
-5.58469 -5.14351 -1.79943
-5.45987 -4.426 -1.7276
-5.4537 -4.44959 -1.73008
-5.4475 -4.47323 -1.73258
-5.44078 -4.49653 -1.73495
-5.43647 -4.52191 -1.73812
-5.4319 -4.54718 -1.74123
-5.42902 -4.57398 -1.74493
-5.42923 -4.60353 -1.74966
-5.42944 -4.63323 -1.75443
-5.42965 -4.66309 -1.75924
-5.42985 -4.69312 -1.76409
-5.43005 -4.7233 -1.76899
-5.43025 -4.75365 -1.77393
-5.43045 -4.78417 -1.77892
-5.43064 -4.81485 -1.78395
-5.43083 -4.84572 -1.78903
-5.43493 -4.88026 -1.79544
-5.4544 -4.92892 -1.807
-5.47412 -4.9782 -1.81873
-5.4941 -5.02812 -1.83062
-5.52035 -5.08425 -1.84471
-5.54879 -5.14289 -1.85963
-5.42259 -4.39578 -1.77745
-5.42044 -4.42246 -1.78132
-5.41815 -4.44914 -1.78517
-5.41585 -4.47592 -1.78905
-5.41376 -4.50302 -1.79305
-5.41402 -4.53222 -1.79786
-5.41429 -4.56156 -1.80272
-5.41454 -4.59107 -1.80762
-5.4148 -4.62073 -1.81256
-5.41505 -4.65055 -1.81755
-5.41523 -4.68048 -1.82256
-5.41539 -4.71054 -1.8276
-5.41555 -4.74078 -1.83269
-5.4157 -4.77117 -1.83783
-5.41585 -4.80174 -1.84301
-5.41599 -4.83248 -1.84824
-5.41614 -4.86338 -1.85352
-5.43019 -4.90704 -1.86362
-5.44967 -4.95596 -1.87566
-5.46939 -5.00552 -1.88787
-5.48937 -5.05572 -1.90026
-5.5096 -5.10657 -1.91283
-5.53367 -5.16143 -1.92684
-5.40899 -4.38475 -1.83475
-5.40668 -4.41123 -1.83868
-5.40437 -4.43782 -1.84264
-5.40204 -4.46451 -1.84664
-5.39969 -4.49132 -1.85068
-5.39905 -4.51968 -1.85533
-5.39927 -4.54891 -1.86033
-5.39948 -4.5783 -1.86537
-5.3997 -4.60784 -1.87046
-5.39991 -4.63755 -1.87559
-5.40011 -4.66741 -1.88077
-5.40032 -4.69743 -1.88599
-5.40052 -4.72762 -1.89126
-5.40072 -4.75797 -1.89658
-5.40091 -4.78849 -1.90194
-5.4011 -4.81919 -1.90736
-5.40128 -4.85004 -1.91281
-5.40609 -4.88526 -1.91997
-5.42863 -4.93683 -1.93349
-5.4531 -4.99061 -1.94781
-5.47794 -5.04519 -1.96236
-5.50314 -5.10059 -1.97714
-5.52873 -5.15682 -1.99217
-5.39526 -4.37362 -1.89196
-5.39293 -4.40001 -1.896
-5.39059 -4.4265 -1.90008
-5.38824 -4.45311 -1.90419
-5.38587 -4.47982 -1.90834
-5.38408 -4.50716 -1.91274
-5.38426 -4.53627 -1.91788
-5.38444 -4.56555 -1.92306
-5.38461 -4.59497 -1.92829
-5.38478 -4.62456 -1.93357
-5.38563 -4.6549 -1.93914
-5.38737 -4.68617 -1.94508
-5.38912 -4.71764 -1.95107
-5.39088 -4.74931 -1.95712
-5.39265 -4.78117 -1.96323
-5.39443 -4.81323 -1.9694
-5.39622 -4.84549 -1.97562
-5.40083 -4.88051 -1.98294
-5.4241 -4.93271 -1.99719
-5.44832 -4.98624 -2.01189
-5.4731 -5.04073 -2.0269
-5.49825 -5.09605 -2.04216
-5.52378 -5.1522 -2.05767
-5.38411 -4.36459 -1.95007
-5.38235 -4.39138 -1.95444
-5.38058 -4.41828 -1.95885
-5.3788 -4.4453 -1.9633
-5.37697 -4.47242 -1.96777
-5.37462 -4.49924 -1.9721
-5.37656 -4.52978 -1.97804
-5.3785 -4.56051 -1.98404
-5.3802 -4.59121 -1.99
-5.38191 -4.62209 -1.99602
-5.38363 -4.65317 -2.00209
-5.38537 -4.68443 -2.00822
-5.38711 -4.71588 -2.01441
-5.38886 -4.74753 -2.02066
-5.39062 -4.77937 -2.02696
-5.39239 -4.81142 -2.03333
-5.39417 -4.84366 -2.03975
-5.39745 -4.87745 -2.0468
-5.42068 -4.9296 -2.0615
-5.44425 -4.98251 -2.07643
-5.46825 -5.03627 -2.09163
-5.49334 -5.0915 -2.10736
-5.51881 -5.14757 -2.12335
-5.38235 -4.36316 -2.01172
-5.38058 -4.38993 -2.01623
-5.3786 -4.41666 -2.0207
-5.37627 -4.44322 -2.02508
-5.37393 -4.46989 -2.0295
-5.37157 -4.49668 -2.03396
-5.37307 -4.52684 -2.03992
-5.37519 -4.5577 -2.04618
-5.37733 -4.58875 -2.05249
-5.37948 -4.62 -2.05887
-5.38163 -4.65143 -2.0653
-5.38335 -4.68268 -2.07162
-5.38509 -4.71412 -2.078
-5.38683 -4.74574 -2.08444
-5.38858 -4.77757 -2.09094
-5.39035 -4.8096 -2.0975
-5.39213 -4.84182 -2.10413
-5.39406 -4.87438 -2.11087
-5.41725 -4.92648 -2.12602
-5.44078 -4.97933 -2.14141
-5.46466 -5.03296 -2.15705
-5.48888 -5.08737 -2.17293
-5.51382 -5.14292 -2.18922
-5.3802 -4.36142 -2.07349
-5.37788 -4.38773 -2.07792
-5.37556 -4.41416 -2.08239
-5.37322 -4.44069 -2.0869
-5.37087 -4.46734 -2.09145
-5.36851 -4.49412 -2.09605
-5.36956 -4.52389 -2.10202
-5.37168 -4.55473 -2.10846
-5.3738 -4.58575 -2.11496
-5.37594 -4.61696 -2.12153
-5.37809 -4.64837 -2.12815
-5.38025 -4.67997 -2.13484
-5.38242 -4.71178 -2.14159
-5.38461 -4.74378 -2.1484
-5.38654 -4.77576 -2.15518
-5.3883 -4.80777 -2.16194
-5.39007 -4.83997 -2.16877
-5.39185 -4.87239 -2.17566
-5.41381 -4.92335 -2.19077
-5.4373 -4.97615 -2.20662
-5.46113 -5.02971 -2.22272
-5.48531 -5.08406 -2.23908
-5.37715 -4.35895 -2.13516
-5.37483 -4.38524 -2.13972
-5.3725 -4.41165 -2.14432
-5.37015 -4.43816 -2.14896
-5.3678 -4.46479 -2.15364
-5.36543 -4.49154 -2.15837
-5.36605 -4.52093 -2.16435
-5.36815 -4.55174 -2.17098
-5.37026 -4.58273 -2.17767
-5.37239 -4.61391 -2.18442
-5.37452 -4.64529 -2.19124
-5.37667 -4.67686 -2.19812
-5.37883 -4.70864 -2.20506
-5.381 -4.74061 -2.21207
-5.38319 -4.77278 -2.21915
-5.38539 -4.80517 -2.2263
-5.3876 -4.83776 -2.23351
-5.38977 -4.87051 -2.24077
-5.37409 -4.35646 -2.19707
-5.37176 -4.38274 -2.20176
-5.36942 -4.40912 -2.20649
-5.36708 -4.43562 -2.21127
-5.36472 -4.46222 -2.21608
-5.36234 -4.48896 -2.22095
-5.36252 -4.51795 -2.22691
-5.36461 -4.54873 -2.23373
-5.36671 -4.57969 -2.24061
-8.67484 -4.08676 -1.04012
-8.63497 -4.10103 -1.03687
-8.59527 -4.11519 -1.03364
-8.55574 -4.12922 -1.03044
-8.51638 -4.14313 -1.02726
-8.47665 -4.15665 -1.02403
-8.43484 -4.16894 -1.02055
-8.39324 -4.18111 -1.01709
-8.35185 -4.19316 -1.01366
-8.31066 -4.20509 -1.01025
-8.2697 -4.21691 -1.00687
-8.22892 -4.22862 -1.00352
-8.18835 -4.24021 -1.00018
-8.14798 -4.25169 -0.99687
-8.10781 -4.26306 -0.993583
-8.0787 -4.28007 -0.991651
-8.06312 -4.30418 -0.991387
-8.04751 -4.32825 -0.991127
-8.03186 -4.35229 -0.990872
-8.01617 -4.3763 -0.990622
-8.00046 -4.40027 -0.990376
-7.9847 -4.4242 -0.990135
-7.96892 -4.4481 -0.989899
-7.9531 -4.47197 -0.989667
-7.93724 -4.4958 -0.98944
-7.93539 -4.52761 -0.99097
-7.93648 -4.5612 -0.992883
-7.9375 -4.59489 -0.994805
-7.93848 -4.62867 -0.996737
-7.9394 -4.66256 -0.99868
-7.94141 -4.69723 -1.00078
-7.94344 -4.73204 -1.00289
-7.95597 -4.7733 -1.00636
-7.97773 -4.82036 -1.01101
-7.9996 -4.86781 -1.01571
-8.0216 -4.91566 -1.02045
-8.04372 -4.9639 -1.02523
-8.06627 -5.01273 -1.0301
-9.03342 -3.88167 -1.14921
-8.93753 -3.87364 -1.13854
-8.85098 -3.86907 -1.12906
-8.76584 -3.86457 -1.11973
-8.69238 -3.86471 -1.11189
-8.62563 -3.86741 -1.10489
-8.55972 -3.87006 -1.09799
-8.49461 -3.87268 -1.09119
-8.43028 -3.87526 -1.08448
-8.37439 -3.88136 -1.07885
-8.32353 -3.88947 -1.07386
-8.2731 -3.89749 -1.06892
-8.2231 -3.90542 -1.06403
-8.17352 -3.91326 -1.0592
-8.12434 -3.92102 -1.05441
-8.07558 -3.92869 -1.04967
-8.0391 -3.94209 -1.04653
-8.00444 -3.95621 -1.04362
-7.96993 -3.97024 -1.04074
-7.94584 -3.98931 -1.03922
-7.92407 -4.00947 -1.038
-7.90231 -4.02957 -1.0368
-7.88056 -4.0496 -1.0356
-7.85882 -4.06957 -1.03442
-7.83711 -4.08947 -1.03324
-7.8154 -4.10931 -1.03207
-7.79372 -4.12908 -1.0309
-7.77239 -4.14898 -1.02979
-7.75112 -4.16885 -1.0287
-7.72985 -4.18865 -1.02761
-7.7086 -4.20838 -1.02653
-7.68735 -4.22806 -1.02546
-7.67178 -4.25082 -1.02515
-7.65631 -4.27361 -1.02487
-7.64081 -4.29637 -1.02458
-7.62528 -4.31909 -1.02431
-7.61101 -4.34252 -1.02421
-7.60293 -4.3695 -1.02496
-7.59481 -4.39651 -1.02572
-7.58667 -4.42355 -1.02648
-7.57849 -4.45061 -1.02725
-7.57028 -4.47771 -1.02803
-7.56363 -4.50578 -1.02904
-7.56439 -4.53836 -1.03107
-7.56512 -4.57105 -1.03312
-7.56584 -4.60386 -1.03518
-7.56653 -4.63679 -1.03725
-7.5672 -4.66983 -1.03934
-7.56785 -4.70299 -1.04145
-7.56848 -4.73627 -1.04357
-7.56895 -4.7696 -1.04568
-7.57367 -4.80575 -1.04841
-7.58102 -4.84375 -1.05152
-7.58839 -4.88195 -1.05465
-7.59577 -4.92038 -1.05782
-7.60317 -4.95902 -1.061
-7.61059 -4.99786 -1.06421
-7.62824 -5.04369 -1.06888
-9.34678 -3.84424 -1.2665
-9.24466 -3.8361 -1.25429
-9.14501 -3.82833 -1.24239
-9.07871 -3.83401 -1.235
-8.99444 -3.83163 -1.22516
-8.90713 -3.82741 -1.2149
-8.82125 -3.82325 -1.20481
-8.73891 -3.82008 -1.19519
-8.67173 -3.82308 -1.18763
-8.60538 -3.82603 -1.18018
-8.53983 -3.82894 -1.17283
-8.4751 -3.83181 -1.16558
-8.41115 -3.83464 -1.15843
-8.34796 -3.83742 -1.15137
-8.28552 -3.84017 -1.14441
-8.22382 -3.84288 -1.13754
-8.16285 -3.84555 -1.13077
-8.10332 -3.84853 -1.12419
-8.0448 -3.85164 -1.11773
-7.98763 -3.85504 -1.11146
-7.93112 -3.85841 -1.10527
-7.87523 -3.86174 -1.09916
-7.81995 -3.86502 -1.09313
-7.76524 -3.86827 -1.08717
-7.7296 -3.88075 -1.08387
-7.69969 -3.89594 -1.08138
-7.66989 -3.91105 -1.07891
-7.64018 -3.92608 -1.07645
-7.61176 -3.94163 -1.07418
-7.59711 -3.96424 -1.07386
-7.58569 -3.98853 -1.07401
-7.57425 -4.01281 -1.07416
-7.56278 -4.03709 -1.07432
-7.55129 -4.06137 -1.07449
-7.53978 -4.08565 -1.07466
-7.52824 -4.10992 -1.07484
-7.51668 -4.13419 -1.07504
-7.5051 -4.15846 -1.07523
-7.49349 -4.18273 -1.07544
-7.48186 -4.20699 -1.07566
-7.47352 -4.23313 -1.07636
-7.46568 -4.2596 -1.07714
-7.4578 -4.2861 -1.07793
-7.44986 -4.3126 -1.07873
-7.44176 -4.33906 -1.07952
-7.43363 -4.36554 -1.08032
-7.42547 -4.39206 -1.08112
-7.41728 -4.41859 -1.08194
-7.40905 -4.44517 -1.08276
-7.40079 -4.47176 -1.08359
-7.3925 -4.49838 -1.08443
-7.39229 -4.53001 -1.08648
-7.3926 -4.56208 -1.08862
-7.39289 -4.59427 -1.09077
-7.39315 -4.62656 -1.09294
-7.39339 -4.65897 -1.09513
-7.39338 -4.69135 -1.09729
-7.39331 -4.72381 -1.09947
-7.39321 -4.75639 -1.10166
-7.39308 -4.78908 -1.10387
-7.39796 -4.82517 -1.10685
-7.40457 -4.86257 -1.11011
-7.41119 -4.90018 -1.11339
-7.41782 -4.93798 -1.11671
-7.42588 -4.97695 -1.12026
-7.43628 -5.01772 -1.12419
-7.44673 -5.05875 -1.12816
-7.46518 -5.10549 -1.13337
-9.72057 -3.85646 -1.39888
-9.46195 -3.78816 -1.36337
-9.35737 -3.7803 -1.34999
-9.26644 -3.77734 -1.33857
-9.17035 -3.77167 -1.32639
-9.10167 -3.77676 -1.31816
-9.03775 -3.78343 -1.31061
-8.96336 -3.7853 -1.30153
-8.87676 -3.78149 -1.29067
-8.79155 -3.77774 -1.27999
-8.71782 -3.77842 -1.27097
-8.65103 -3.78167 -1.26296
-8.58508 -3.78488 -1.25505
-8.51992 -3.78804 -1.24725
-8.45555 -3.79115 -1.23956
-8.39197 -3.79422 -1.23197
-8.32915 -3.79725 -1.22449
-8.26744 -3.80041 -1.21716
-8.20718 -3.80386 -1.21003
-8.14761 -3.80727 -1.203
-8.08872 -3.81063 -1.19606
-8.03049 -3.81394 -1.18921
-7.97362 -3.81756 -1.18255
-7.91738 -3.82113 -1.17598
-7.86175 -3.82466 -1.16949
-7.80672 -3.82814 -1.16308
-7.75229 -3.83158 -1.15675
-7.69843 -3.83498 -1.15049
-7.64534 -3.83844 -1.14435
-7.59394 -3.84244 -1.13845
-7.55017 -3.85 -1.13369
-7.51341 -3.86093 -1.12998
-7.49237 -3.8798 -1.12863
-7.47625 -3.90117 -1.12804
-7.46013 -3.92251 -1.12745
-7.44691 -3.94535 -1.12732
-7.43436 -3.96854 -1.12729
-7.4218 -3.99172 -1.12727
-7.40921 -4.0149 -1.12726
-7.39661 -4.03806 -1.12726
-7.38443 -4.06145 -1.12734
-7.37302 -4.08528 -1.12754
-7.36159 -4.10911 -1.12776
-7.35014 -4.13293 -1.12798
-7.33866 -4.15675 -1.12821
-7.32716 -4.18057 -1.12844
-7.31689 -4.20512 -1.12888
-7.30903 -4.23108 -1.12971
-7.30114 -4.25706 -1.13054
-7.29321 -4.28307 -1.13138
-7.28524 -4.30911 -1.13224
-7.27725 -4.33518 -1.13309
-7.26922 -4.36128 -1.13396
-7.26116 -4.38739 -1.13484
-7.25304 -4.41352 -1.13573
-7.24476 -4.43961 -1.1366
-7.23645 -4.46572 -1.13748
-7.22811 -4.49186 -1.13837
-7.22543 -4.5216 -1.14017
-7.22534 -4.55306 -1.1424
-7.22515 -4.58459 -1.14463
-7.22475 -4.61611 -1.14685
-7.22432 -4.64774 -1.14909
-7.22387 -4.67946 -1.15134
-7.22339 -4.71131 -1.15361
-7.22288 -4.74326 -1.15589
-7.22235 -4.77532 -1.15819
-7.22178 -4.80749 -1.16051
-7.22667 -4.84344 -1.16372
-7.23267 -4.88033 -1.16714
-7.24213 -4.91976 -1.17115
-7.25163 -4.95944 -1.17519
-7.26116 -4.99938 -1.17926
-7.27073 -5.03958 -1.18337
-7.28033 -5.08003 -1.18752
-7.29467 -5.12404 -1.19246
-9.3675 -3.71638 -1.43343
-9.28766 -3.71838 -1.42298
-9.19537 -3.71486 -1.41062
-9.12656 -3.72032 -1.40184
-9.05939 -3.72604 -1.39331
-8.99702 -3.73334 -1.3855
-8.93231 -3.7393 -1.37733
-8.84638 -3.7359 -1.36588
-8.7639 -3.73342 -1.35494
-8.69668 -3.73697 -1.34635
-8.63029 -3.74048 -1.33788
-8.56472 -3.74394 -1.32952
-8.49995 -3.74735 -1.32128
-8.43598 -3.75071 -1.31316
-8.37388 -3.75453 -1.30531
-8.31252 -3.7583 -1.29757
-8.25187 -3.76202 -1.28994
-8.19191 -3.76569 -1.2824
-8.13264 -3.76931 -1.27496
-8.07403 -3.77289 -1.26762
-8.0161 -3.77642 -1.26037
-7.95953 -3.78024 -1.25333
-7.90356 -3.78402 -1.24638
-7.8482 -3.78774 -1.23951
-7.79343 -3.79142 -1.23273
-7.73925 -3.79506 -1.22603
-7.68619 -3.79891 -1.2195
-7.63427 -3.80302 -1.21314
-7.58288 -3.80709 -1.20687
-7.53663 -3.81343 -1.2014
-7.49342 -3.82106 -1.19641
-7.45055 -3.82863 -1.19147
-7.40926 -3.83677 -1.18678
-7.37784 -3.84982 -1.18367
-7.34658 -3.8628 -1.18059
-7.32896 -3.88286 -1.17971
-7.31373 -3.90415 -1.17922
-7.30137 -3.92696 -1.1792
-7.28899 -3.94975 -1.17919
-7.2766 -3.97254 -1.17919
-7.26418 -3.99531 -1.1792
-7.25174 -4.01808 -1.17921
-7.23928 -4.04084 -1.17924
-7.22681 -4.06358 -1.17927
-7.21431 -4.08631 -1.17931
-7.2018 -4.10904 -1.17936
-7.18926 -4.13177 -1.17942
-7.17733 -4.15484 -1.17959
-7.16592 -4.17823 -1.17986
-7.15738 -4.2033 -1.18061
-7.14946 -4.2288 -1.18148
-7.14152 -4.25432 -1.18236
-7.13353 -4.27987 -1.18325
-7.12552 -4.30543 -1.18415
-7.11747 -4.33103 -1.18506
-7.10939 -4.35665 -1.18598
-7.10127 -4.3823 -1.18691
-7.09312 -4.40798 -1.18784
-7.08493 -4.43367 -1.18879
-7.07833 -4.46043 -1.19002
-7.07193 -4.48737 -1.1913
-7.06905 -4.51663 -1.19319
-7.06934 -4.54802 -1.19563
-7.06961 -4.57954 -1.1981
-7.06986 -4.61117 -1.20058
-7.0701 -4.64292 -1.20308
-7.07032 -4.6748 -1.2056
-7.07052 -4.70679 -1.20814
-7.07071 -4.73891 -1.2107
-7.07088 -4.77116 -1.21328
-7.07119 -4.80363 -1.21591
-7.07361 -4.83769 -1.21892
-7.07975 -4.87448 -1.2226
-7.08592 -4.91148 -1.22631
-7.0921 -4.94869 -1.23006
-7.0983 -4.9861 -1.23383
-7.10451 -5.02374 -1.23764
-7.11075 -5.0616 -1.24148
-7.11755 -5.10008 -1.24544
-9.22006 -3.65788 -1.49507
-9.15112 -3.66372 -1.48575
-9.08302 -3.66947 -1.47655
-9.01827 -3.67617 -1.46788
-8.9565 -3.68372 -1.4597
-8.8954 -3.69117 -1.45161
-8.81602 -3.69061 -1.44054
-8.74229 -3.69194 -1.43037
-8.67548 -3.69575 -1.42133
-8.60949 -3.69951 -1.4124
-8.54513 -3.70357 -1.40374
-8.48188 -3.70773 -1.39525
-8.41938 -3.71183 -1.38687
-8.35761 -3.71587 -1.3786
-8.29655 -3.71986 -1.37045
-8.23621 -3.7238 -1.3624
-8.17656 -3.72768 -1.35445
-8.11758 -3.73152 -1.34661
-8.05926 -3.73531 -1.33887
-8.00165 -3.73906 -1.33124
-7.94535 -3.74309 -1.32381
-7.88966 -3.74706 -1.31648
-7.83456 -3.75098 -1.30924
-7.78007 -3.75486 -1.30209
-7.72702 -3.75911 -1.29517
-7.6748 -3.76345 -1.28838
-7.62312 -3.76774 -1.28168
-7.57195 -3.77198 -1.27506
-7.52304 -3.77704 -1.2688
-7.48003 -3.7848 -1.26354
-7.43739 -3.79249 -1.25834
-7.39506 -3.80012 -1.25318
-7.35308 -3.80768 -1.24808
-7.31143 -3.81517 -1.24303
-7.27668 -3.82605 -1.23915
-7.24604 -3.83893 -1.23597
-7.21554 -3.85173 -1.23282
-7.18612 -3.86497 -1.22985
-7.17234 -3.88654 -1.22957
-7.16014 -3.90896 -1.22957
-7.14792 -3.93137 -1.22958
-7.13568 -3.95377 -1.2296
-7.12342 -3.97616 -1.22962
-7.11118 -3.99856 -1.22966
-7.10179 -4.02258 -1.23021
-7.09238 -4.04662 -1.23077
-7.08295 -4.07067 -1.23133
-7.07349 -4.09473 -1.23191
-7.06401 -4.1188 -1.2325
-7.05451 -4.14289 -1.2331
-7.04498 -4.167 -1.2337
-7.03801 -4.19266 -1.23477
-7.0315 -4.21865 -1.23594
-7.02497 -4.24467 -1.23712
-7.0187 -4.27092 -1.23837
-7.01243 -4.29723 -1.23963
-7.00613 -4.32358 -1.2409
-6.9998 -4.34999 -1.24218
-6.99345 -4.37642 -1.24348
-6.98706 -4.40291 -1.24479
-6.98065 -4.42945 -1.24611
-6.9742 -4.45603 -1.24744
-6.96773 -4.48266 -1.24878
-6.96349 -4.5108 -1.25055
-6.96352 -4.54182 -1.2531
-6.96354 -4.57295 -1.25567
-6.96353 -4.60419 -1.25826
-6.96351 -4.63556 -1.26087
-6.96347 -4.66704 -1.2635
-6.96341 -4.69864 -1.26615
-6.96391 -4.73075 -1.26893
-6.96439 -4.763 -1.27173
-6.96486 -4.79537 -1.27455
-6.96531 -4.82788 -1.27739
-6.96941 -4.86308 -1.28092
-6.97513 -4.89959 -1.28479
-6.98087 -4.93631 -1.28868
-6.98662 -4.97324 -1.29261
-6.99238 -5.01038 -1.29657
-6.99792 -5.04756 -1.30052
-7.00144 -5.08348 -1.30412
-7.00496 -5.11959 -1.30776
-7.00848 -5.15588 -1.31142
-9.14735 -3.62904 -1.56703
-9.07152 -3.63185 -1.55598
-8.99605 -3.63433 -1.54498
-8.91873 -3.6356 -1.53365
-8.85567 -3.64225 -1.52476
-8.78785 -3.64655 -1.51504
-8.72111 -3.65088 -1.50549
-8.65588 -3.65545 -1.4962
-8.59145 -3.65995 -1.48704
-8.52778 -3.6644 -1.47799
-8.46486 -3.66878 -1.46907
-8.40268 -3.67311 -1.46027
-8.34123 -3.67737 -1.45158
-8.2805 -3.68159 -1.44301
-8.22045 -3.68574 -1.43455
-8.1611 -3.68984 -1.4262
-8.10243 -3.69389 -1.41796
-8.0444 -3.69788 -1.40982
-7.9871 -3.70186 -1.4018
-7.93107 -3.70608 -1.394
-7.87565 -3.71025 -1.38629
-7.82091 -3.71441 -1.37869
-7.76784 -3.71903 -1.37138
-7.7153 -3.7236 -1.36416
-7.66331 -3.72812 -1.35702
-7.61185 -3.73258 -1.34997
-7.56091 -3.73699 -1.343
-7.51047 -3.74136 -1.33612
-7.4666 -3.7487 -1.33039
-7.42415 -3.75652 -1.32491
-7.38204 -3.76427 -1.3195
-7.34026 -3.77196 -1.31413
-7.29881 -3.77957 -1.30882
-7.25768 -3.78712 -1.30357
-7.21687 -3.79461 -1.29836
-7.17775 -3.80274 -1.29346
-7.14771 -3.81552 -1.29019
-7.11839 -3.82854 -1.28705
-7.08984 -3.84184 -1.28406
-7.06301 -3.85593 -1.28138
-7.05465 -3.88007 -1.28206
-7.04626 -3.90423 -1.28275
-7.03769 -3.92831 -1.28342
-7.02841 -3.95202 -1.28397
-7.01909 -3.97574 -1.28454
-7.00975 -3.99947 -1.28511
-7.00039 -4.02322 -1.2857
-6.99101 -4.04698 -1.28629
-6.9816 -4.07075 -1.2869
-6.97217 -4.09454 -1.28752
-6.96271 -4.11834 -1.28814
-6.95323 -4.14215 -1.28878
-6.94443 -4.16641 -1.28956
-6.9379 -4.19207 -1.29078
-6.93134 -4.21776 -1.29201
-6.92474 -4.2435 -1.29325
-6.91812 -4.26928 -1.2945
-6.91148 -4.29509 -1.29576
-6.9048 -4.32095 -1.29704
-6.89809 -4.34685 -1.29833
-6.89147 -4.37287 -1.29965
-6.88502 -4.39905 -1.30102
-6.87853 -4.42527 -1.30241
-6.87202 -4.45154 -1.3038
-6.86547 -4.47787 -1.30521
-6.85989 -4.50488 -1.30683
-6.85967 -4.53552 -1.30948
-6.85944 -4.56628 -1.31216
-6.85919 -4.59715 -1.31486
-6.8593 -4.6284 -1.31765
-6.85957 -4.65988 -1.32049
-6.85982 -4.69148 -1.32336
-6.86005 -4.72321 -1.32625
-6.86027 -4.75507 -1.32916
-6.86046 -4.78706 -1.3321
-6.86064 -4.81916 -1.33505
-6.86116 -4.85166 -1.3381
-6.86645 -4.8877 -1.34211
-6.87175 -4.92395 -1.34615
-6.8764 -4.95992 -1.35009
-6.87953 -4.99497 -1.35377
-6.88265 -5.0302 -1.35747
-6.88577 -5.06561 -1.36121
-6.88889 -5.1012 -1.36497
-6.892 -5.13697 -1.36877
-6.8951 -5.17293 -1.37259
-9.10411 -3.61188 -1.64321
-9.0315 -3.61582 -1.63213
-8.95372 -3.61723 -1.62012
-8.87707 -3.61862 -1.60829
-8.81155 -3.6241 -1.59846
-8.73837 -3.62601 -1.58724
-8.66286 -3.6265 -1.57558
-8.58576 -3.62583 -1.56361
-8.51032 -3.62539 -1.55193
-8.44773 -3.63 -1.54258
-8.38588 -3.63455 -1.53335
-8.32475 -3.63904 -1.52425
-8.26433 -3.64347 -1.51527
-8.20459 -3.64784 -1.5064
-8.14554 -3.65215 -1.49765
-8.08716 -3.65641 -1.48901
-8.02943 -3.66061 -1.48048
-7.97245 -3.66481 -1.47209
-7.9167 -3.66923 -1.4639
-7.862 -3.67381 -1.45591
-7.80861 -3.67867 -1.44815
-7.75577 -3.68347 -1.44048
-7.70348 -3.68822 -1.4329
-7.65172 -3.69291 -1.42541
-7.60048 -3.69755 -1.41802
-7.54976 -3.70214 -1.41071
-7.49955 -3.70667 -1.40349
-7.45309 -3.71277 -1.39696
-7.41085 -3.72072 -1.39122
-7.36894 -3.72859 -1.38554
-7.32738 -3.7364 -1.37991
-7.28612 -3.74414 -1.37434
-7.2452 -3.75181 -1.36883
-7.20458 -3.75941 -1.36337
-7.16194 -3.76572 -1.35753
-7.11755 -3.77085 -1.35134
-7.08211 -3.7805 -1.34685
-7.05537 -3.79465 -1.34402
-7.02766 -3.80814 -1.341
-6.99963 -3.82133 -1.33793
-6.9717 -3.83445 -1.33488
-6.95951 -3.85616 -1.33485
-6.95115 -3.88001 -1.33557
-6.94278 -3.90387 -1.3363
-6.93437 -3.92775 -1.33704
-6.92594 -3.95165 -1.33779
-6.91748 -3.97557 -1.33855
-6.909 -3.99951 -1.33933
-6.90049 -4.02346 -1.34011
-6.89152 -4.04717 -1.34082
-6.88213 -4.07068 -1.34147
-6.87272 -4.09419 -1.34212
-6.86329 -4.11773 -1.34279
-6.85383 -4.14127 -1.34347
-6.84618 -4.16594 -1.34452
-6.83959 -4.19132 -1.34579
-6.83297 -4.21672 -1.34708
-6.82632 -4.24217 -1.34838
-6.81964 -4.26766 -1.34969
-6.81293 -4.29319 -1.35102
-6.80619 -4.31876 -1.35235
-6.79943 -4.34436 -1.3537
-6.79263 -4.37001 -1.35506
-6.78581 -4.3957 -1.35644
-6.77895 -4.42143 -1.35783
-6.77206 -4.44721 -1.35923
-6.76515 -4.47302 -1.36064
-6.75844 -4.49904 -1.36212
-6.75794 -4.52929 -1.36487
-6.758 -4.56004 -1.36776
-6.75805 -4.59091 -1.37067
-6.75808 -4.6219 -1.3736
-6.75809 -4.65301 -1.37655
-6.75808 -4.68424 -1.37953
-6.75805 -4.7156 -1.38253
-6.758 -4.74707 -1.38555
-6.75793 -4.77867 -1.3886
-6.75784 -4.81039 -1.39166
-6.75678 -4.84157 -1.39456
-6.75708 -4.87385 -1.39776
-6.7601 -4.90826 -1.40155
-6.7631 -4.94283 -1.40538
-6.76608 -4.97756 -1.40922
-6.76904 -5.01245 -1.4131
-6.77198 -5.04751 -1.417
-6.7749 -5.08274 -1.42094
-6.77779 -5.11814 -1.4249
-6.7806 -5.15365 -1.42887
-6.7833 -5.18926 -1.43285
-9.06395 -3.59595 -1.7194
-8.98877 -3.59872 -1.70727
-8.91828 -3.60292 -1.69601
-8.85504 -3.60964 -1.68612
-8.78646 -3.61378 -1.67521
-8.71358 -3.61573 -1.66346
-8.6417 -3.61764 -1.6519
-8.57081 -3.61952 -1.6405
-8.49549 -3.61908 -1.62824
-8.42091 -3.61847 -1.61611
-8.34741 -3.61788 -1.60417
-8.275 -3.61729 -1.59242
-8.20364 -3.61671 -1.58086
-8.1333 -3.61614 -1.56948
-8.07177 -3.61908 -1.55978
-8.01434 -3.62349 -1.55087
-7.95769 -3.6279 -1.5421
-7.90305 -3.6329 -1.5337
-7.84934 -3.63801 -1.52548
-7.79619 -3.64305 -1.51736
-7.7436 -3.64804 -1.50934
-7.69153 -3.65296 -1.50141
-7.64 -3.65783 -1.49358
-7.589 -3.66264 -1.48584
-7.53849 -3.6674 -1.47819
-7.4885 -3.6721 -1.47063
-7.43951 -3.67699 -1.46327
-7.39748 -3.68507 -1.45726
-7.35578 -3.69307 -1.45131
-7.31441 -3.701 -1.44543
-7.27336 -3.70886 -1.4396
-7.23021 -3.71541 -1.43336
-7.18534 -3.72081 -1.42676
-7.14086 -3.72616 -1.42024
-7.09678 -3.73146 -1.41379
-7.05309 -3.7367 -1.40741
-7.01766 -3.7461 -1.40267
-6.98915 -3.75903 -1.39931
-6.96212 -3.77262 -1.39626
-6.93658 -3.78691 -1.39351
-6.91113 -3.80114 -1.39078
-6.88376 -3.81419 -1.38766
-6.86633 -3.83266 -1.38656
-6.85801 -3.85621 -1.38731
-6.84966 -3.87977 -1.38807
-6.84129 -3.90335 -1.38884
-6.83288 -3.92695 -1.38962
-6.82446 -3.95057 -1.39042
-6.81601 -3.9742 -1.39122
-6.80753 -3.99785 -1.39204
-6.79902 -4.02152 -1.39286
-6.79048 -4.0452 -1.3937
-6.78192 -4.06891 -1.39455
-6.77334 -4.09263 -1.39541
-6.76472 -4.11638 -1.39628
-6.75432 -4.13907 -1.3968
-6.74484 -4.16234 -1.39753
-6.73541 -4.18568 -1.39828
-6.72596 -4.20903 -1.39905
-6.71646 -4.23239 -1.39982
-6.70693 -4.25577 -1.4006
-6.69736 -4.27915 -1.40139
-6.68775 -4.30254 -1.40219
-6.67811 -4.32594 -1.403
-6.66843 -4.34935 -1.40382
-6.65872 -4.37277 -1.40465
-6.65267 -4.39866 -1.40627
-6.64715 -4.42496 -1.40802
-6.64159 -4.45131 -1.40979
-6.63599 -4.47771 -1.41157
-6.63053 -4.50428 -1.41339
-6.62598 -4.53155 -1.41544
-6.62139 -4.55889 -1.4175
-6.61676 -4.58629 -1.41957
-6.61209 -4.61375 -1.42166
-6.60739 -4.64127 -1.42377
-6.60265 -4.66887 -1.42589
-6.59787 -4.69652 -1.42802
-6.59334 -4.72446 -1.43024
-6.5916 -4.75449 -1.43308
-6.58982 -4.78462 -1.43594
-6.58799 -4.81485 -1.43882
-6.58613 -4.84517 -1.44171
-6.5854 -4.87647 -1.44489
-6.58754 -4.91003 -1.44872
-6.58965 -4.94376 -1.45258
-6.59173 -4.97764 -1.45646
-6.5938 -5.01167 -1.46038
-6.59583 -5.04585 -1.46432
-6.59785 -5.0802 -1.46829
-6.60002 -5.11485 -1.47232
-6.60221 -5.14969 -1.4764
-9.07184 -3.59908 -1.80466
-8.96252 -3.58821 -1.78513
-8.89879 -3.59504 -1.77467
-8.83488 -3.60142 -1.76417
-8.76135 -3.60346 -1.75173
-8.68885 -3.60547 -1.73948
-8.61735 -3.60744 -1.72742
-8.54683 -3.60939 -1.71553
-8.47727 -3.61131 -1.70383
-8.40683 -3.61242 -1.69194
-8.33356 -3.61188 -1.67946
-8.26137 -3.61133 -1.66718
-8.19023 -3.6108 -1.65509
-8.1201 -3.61027 -1.6432
-8.05096 -3.60975 -1.63148
-7.98281 -3.60923 -1.61995
-7.9182 -3.6099 -1.60913
-7.85575 -3.61116 -1.59872
-7.79408 -3.6124 -1.58847
-7.73321 -3.61362 -1.57836
-7.67945 -3.61782 -1.56969
-7.62816 -3.62287 -1.56151
-7.57738 -3.62785 -1.55343
-7.52711 -3.63278 -1.54545
-7.47733 -3.63765 -1.53756
-7.42806 -3.64246 -1.52977
-7.38403 -3.64957 -1.52304
-7.34253 -3.65769 -1.51684
-7.2988 -3.66446 -1.51016
-7.25344 -3.67015 -1.50315
-7.2085 -3.67578 -1.49621
-7.16394 -3.68135 -1.48934
-7.11977 -3.68686 -1.48255
-7.076 -3.69232 -1.47584
-7.03261 -3.69772 -1.46919
-6.9896 -3.70306 -1.46262
-6.95419 -3.71222 -1.45763
-6.92608 -3.72511 -1.45418
-6.8981 -3.73794 -1.45075
-6.87079 -3.75099 -1.44747
-6.84571 -3.76515 -1.44466
-6.82071 -3.77925 -1.44187
-6.79579 -3.79329 -1.43911
-6.77158 -3.80761 -1.4365
-6.76032 -3.82917 -1.43664
-6.74904 -3.85072 -1.4368
-6.73772 -3.87226 -1.43696
-6.72638 -3.89379 -1.43714
-6.71501 -3.91531 -1.43732
-6.70362 -3.93682 -1.43751
-6.69219 -3.95833 -1.43771
-6.68074 -3.97983 -1.43791
-6.66926 -4.00132 -1.43813
-6.65785 -4.02286 -1.43838
-6.64647 -4.04442 -1.43865
-6.63506 -4.06598 -1.43893
-6.62363 -4.08754 -1.43921
-6.61215 -4.10908 -1.43951
-6.60066 -4.13062 -1.43981
-6.59093 -4.15329 -1.44051
-6.58151 -4.17619 -1.4413
-6.57205 -4.19908 -1.4421
-6.56255 -4.22199 -1.44291
-6.55605 -4.24687 -1.4444
-6.55059 -4.27249 -1.44613
-6.5451 -4.29816 -1.44788
-6.53957 -4.32388 -1.44964
-6.53401 -4.34964 -1.45142
-6.5284 -4.37545 -1.45321
-6.52276 -4.40131 -1.45501
-6.51708 -4.42722 -1.45683
-6.51137 -4.45317 -1.45866
-6.50561 -4.47918 -1.4605
-6.50003 -4.50538 -1.46241
-6.49528 -4.53224 -1.46452
-6.48956 -4.5585 -1.46644
-6.47985 -4.58203 -1.46748
-6.47008 -4.60556 -1.46852
-6.46025 -4.62909 -1.46957
-6.45037 -4.65262 -1.47063
-6.44042 -4.67615 -1.47169
-6.43041 -4.69968 -1.47275
-6.42034 -4.72321 -1.47382
-6.4102 -4.74674 -1.4749
-6.40001 -4.77026 -1.47598
-6.38975 -4.7938 -1.47707
-6.37944 -4.81732 -1.47816
-6.36906 -4.84085 -1.47926
-6.35862 -4.86438 -1.48036
-6.35597 -4.89396 -1.4833
-6.3542 -4.92434 -1.48648
-6.35235 -4.9548 -1.48967
-6.35044 -4.98535 -1.49287
-6.34846 -5.01598 -1.49609
-6.34664 -5.04688 -1.49937
-6.34534 -5.07834 -1.50281
-6.34397 -5.10989 -1.50627
-9.05374 -3.5919 -1.88491
-8.97178 -3.59191 -1.87018
-8.87932 -3.58717 -1.85323
-8.80945 -3.59105 -1.84099
-8.73631 -3.59316 -1.82804
-8.66419 -3.59523 -1.8153
-8.59306 -3.59727 -1.80274
-8.5229 -3.59929 -1.79038
-8.4537 -3.60127 -1.7782
-8.38542 -3.60322 -1.7662
-8.31804 -3.60515 -1.75438
-8.24774 -3.60538 -1.74192
-8.17681 -3.60489 -1.72931
-8.10689 -3.6044 -1.7169
-8.03797 -3.60392 -1.70468
-7.97002 -3.60345 -1.69266
-7.90595 -3.60431 -1.68144
-7.84366 -3.6056 -1.67058
-7.78217 -3.60688 -1.65988
-7.72146 -3.60813 -1.64933
-7.66151 -3.60937 -1.63893
-7.60232 -3.61059 -1.62868
-7.54386 -3.6118 -1.61857
-7.48611 -3.61299 -1.60859
-7.42907 -3.61416 -1.59876
-7.37313 -3.61552 -1.58915
-7.32185 -3.61883 -1.58053
-7.2764 -3.62475 -1.57316
-7.23138 -3.63061 -1.56587
-7.18675 -3.6364 -1.55866
-7.14252 -3.64213 -1.55154
-7.09867 -3.64781 -1.54448
-7.0552 -3.65342 -1.5375
-7.01211 -3.65898 -1.5306
-6.96939 -3.66448 -1.52377
-6.92705 -3.66992 -1.51702
-6.89166 -3.67884 -1.51178
-6.86396 -3.6917 -1.50823
-6.83636 -3.70449 -1.50471
-6.8089 -3.7172 -1.50121
-6.77452 -3.726 -1.4962
-6.75123 -3.74075 -1.49363
-6.728 -3.75544 -1.49108
-6.70483 -3.77007 -1.48856
-6.67999 -3.78366 -1.48566
-6.65509 -3.79712 -1.48276
-6.63027 -3.81051 -1.47988
-6.60908 -3.82589 -1.47781
-6.59789 -3.84703 -1.478
-6.58668 -3.86815 -1.47819
-6.57546 -3.88929 -1.4784
-6.56435 -3.91049 -1.47864
-6.5532 -3.93169 -1.4789
-6.54203 -3.95287 -1.47916
-6.53083 -3.97405 -1.47943
-6.51959 -3.99522 -1.47971
-6.50713 -4.01565 -1.47972
-6.49151 -4.03411 -1.47904
-6.47588 -4.05254 -1.47836
-6.46022 -4.07093 -1.47768
-6.44483 -4.08946 -1.47708
-6.42976 -4.10817 -1.47657
-6.41466 -4.12684 -1.47606
-6.40317 -4.14784 -1.47639
-6.39313 -4.16979 -1.47708
-6.38303 -4.19173 -1.47777
-6.37288 -4.21366 -1.47846
-6.36268 -4.23559 -1.47916
-6.35242 -4.2575 -1.47987
-6.3421 -4.2794 -1.48058
-6.33005 -4.30016 -1.4809
-6.31275 -4.31734 -1.48
-6.29542 -4.33446 -1.47911
-6.27806 -4.35153 -1.47823
-6.26068 -4.36854 -1.47735
-6.24327 -4.3855 -1.47647
-6.22583 -4.4024 -1.47559
-6.20835 -4.41926 -1.47472
-6.19647 -4.44007 -1.47519
-6.18527 -4.46141 -1.47584
-6.17416 -4.48283 -1.47653
-6.16479 -4.50555 -1.47765
-6.16064 -4.53216 -1.48005
-6.15695 -4.55921 -1.48259
-6.15329 -4.58637 -1.48515
-6.14958 -4.61361 -1.48773
-6.14581 -4.64091 -1.49033
-6.142 -4.66827 -1.49294
-6.13813 -4.6957 -1.49556
-6.13421 -4.7232 -1.4982
-6.13023 -4.75077 -1.50085
-6.1262 -4.7784 -1.50352
-6.12212 -4.80611 -1.5062
-6.11799 -4.83388 -1.5089
-6.11422 -4.86205 -1.51171
-6.11436 -4.89348 -1.51553
-6.11446 -4.92502 -1.51936
-9.05374 -3.5919 -1.96903
-8.97178 -3.59191 -1.95364
-8.8951 -3.59355 -1.93938
-8.79051 -3.58333 -1.91901
-8.71325 -3.58367 -1.90459
-8.63959 -3.58502 -1.89093
-8.56883 -3.58713 -1.87789
-8.49903 -3.58921 -1.86504
-8.43018 -3.59125 -1.85239
-8.36225 -3.59327 -1.83992
-8.29521 -3.59526 -1.82764
-8.22907 -3.59721 -1.81554
-8.1634 -3.59897 -1.80353
-8.09369 -3.59853 -1.7906
-8.02497 -3.59809 -1.77788
-7.95722 -3.59766 -1.76536
-7.89368 -3.59872 -1.75375
-7.83157 -3.60005 -1.74245
-7.77025 -3.60135 -1.7313
-7.70971 -3.60264 -1.72032
-7.64993 -3.60391 -1.70949
-7.5909 -3.60517 -1.69881
-7.53327 -3.60673 -1.68843
-7.47643 -3.60831 -1.67821
-7.42026 -3.60988 -1.66813
-7.36469 -3.61139 -1.65817
-7.30964 -3.6128 -1.64831
-7.25522 -3.6142 -1.63858
-7.20144 -3.61558 -1.62898
-7.14828 -3.61694 -1.61951
-7.09574 -3.61828 -1.61016
-7.04379 -3.61961 -1.60094
-6.99243 -3.62092 -1.59183
-6.94916 -3.62613 -1.58456
-6.90711 -3.63173 -1.57755
-6.86541 -3.63727 -1.57062
-6.83005 -3.64595 -1.56513
-6.80074 -3.65769 -1.56103
-6.76451 -3.66555 -1.55534
-6.72855 -3.67334 -1.54971
-6.69281 -3.68106 -1.54412
-6.66495 -3.69295 -1.54035
-6.64216 -3.70753 -1.53776
-6.61943 -3.72206 -1.53518
-6.59676 -3.73652 -1.53263
-6.57414 -3.75093 -1.53009
-6.55157 -3.76528 -1.52758
-6.52656 -3.77812 -1.52449
-6.50042 -3.79019 -1.52115
-6.4746 -3.80233 -1.51788
-6.44896 -3.81447 -1.51466
-6.42342 -3.82653 -1.51147
-6.39795 -3.83854 -1.5083
-6.3805 -3.85527 -1.50702
-6.36545 -3.87342 -1.50632
-6.35038 -3.89153 -1.50563
-6.33528 -3.9096 -1.50494
-6.32016 -3.92763 -1.50426
-6.30554 -3.94594 -1.50371
-6.29097 -3.96427 -1.50319
-6.27638 -3.98257 -1.50267
-6.26175 -4.00082 -1.50216
-6.2471 -4.01904 -1.50165
-6.23242 -4.03723 -1.50115
-6.21906 -4.05626 -1.50099
-6.20688 -4.07605 -1.50112
-6.19468 -4.09584 -1.50126
-6.18245 -4.11561 -1.50141
-6.16977 -4.13509 -1.50147
-6.15871 -4.15566 -1.50193
-6.14805 -4.17652 -1.50251
-6.13735 -4.19738 -1.5031
-6.12661 -4.21823 -1.50369
-6.11583 -4.23908 -1.50429
-6.10501 -4.25993 -1.50491
-6.09416 -4.28076 -1.50552
-6.08326 -4.3016 -1.50615
-6.07233 -4.32243 -1.50678
-6.06135 -4.34326 -1.50742
-6.05034 -4.36408 -1.50807
-6.03959 -4.38512 -1.50881
-6.02907 -4.40636 -1.50962
-6.01851 -4.4276 -1.51043
-6.00791 -4.44884 -1.51126
-5.99727 -4.47008 -1.51209
-5.98659 -4.49133 -1.51294
-5.97946 -4.51529 -1.5147
-5.97491 -4.54128 -1.51714
-5.9703 -4.56732 -1.51959
-5.96565 -4.59342 -1.52206
-5.96094 -4.61958 -1.52454
-5.95618 -4.64579 -1.52703
-5.95137 -4.67206 -1.52954
-5.9465 -4.69839 -1.53206
-5.94198 -4.72509 -1.53469
-5.93756 -4.75198 -1.53738
-5.93308 -4.77892 -1.54009
-9.05374 -3.5919 -2.05343
-8.97178 -3.59191 -2.03738
-8.89108 -3.59193 -2.0216
-8.79014 -3.58318 -2.00119
-8.71288 -3.58352 -1.98614
-8.63678 -3.58386 -1.97134
-8.56179 -3.58419 -1.95677
