ply
format ascii 1.0
comment Created by Open3D
element vertex 1863
property double x
property double y
property double z
end_header
2.93658 -6.92312 -1.5854
2.96165 -6.92158 -1.58718
2.98678 -6.92004 -1.58897
3.01196 -6.91848 -1.59078
3.03719 -6.91692 -1.59261
3.06298 -6.91647 -1.59472
3.08885 -6.91603 -1.59685
3.11477 -6.91559 -1.599
3.14077 -6.91514 -1.60117
3.16684 -6.91468 -1.60336
3.19308 -6.91444 -1.60563
3.21954 -6.91451 -1.60799
3.24607 -6.91456 -1.61037
3.27245 -6.91414 -1.61266
3.29869 -6.91324 -1.61486
3.32499 -6.91234 -1.61709
3.35137 -6.91144 -1.61933
3.37782 -6.91053 -1.6216
3.40434 -6.90961 -1.62389
3.4318 -6.91043 -1.62661
3.45998 -6.91252 -1.62966
3.48782 -6.91372 -1.63252
3.51503 -6.91349 -1.63507
3.54233 -6.91327 -1.63764
3.56971 -6.91304 -1.64024
3.59718 -6.91281 -1.64286
3.62474 -6.91258 -1.64551
3.65238 -6.91234 -1.64818
3.68012 -6.9121 -1.65087
3.70794 -6.91186 -1.65359
3.73585 -6.91162 -1.65634
3.76386 -6.91137 -1.65911
3.79181 -6.91086 -1.66184
3.81972 -6.91008 -1.66453
3.84771 -6.9093 -1.66725
3.87579 -6.90852 -1.67
3.90397 -6.90774 -1.67277
3.93224 -6.90695 -1.67556
3.96061 -6.90615 -1.67839
3.98907 -6.90535 -1.68123
4.01762 -6.90455 -1.68411
4.04628 -6.90375 -1.68701
4.07503 -6.90294 -1.68993
4.10388 -6.90212 -1.69289
4.13283 -6.90131 -1.69586
4.16189 -6.90048 -1.69887
4.19104 -6.89966 -1.70191
4.2203 -6.89883 -1.70497
4.24967 -6.89799 -1.70806
4.27914 -6.89715 -1.71117
4.30872 -6.89631 -1.71432
4.33841 -6.89546 -1.71749
4.36862 -6.89528 -1.72086
4.39904 -6.89522 -1.72429
4.42959 -6.89516 -1.72775
4.46025 -6.89511 -1.73124
4.49104 -6.89505 -1.73477
4.52196 -6.89499 -1.73832
4.553 -6.89492 -1.74191
4.58416 -6.89486 -1.74553
4.61546 -6.89479 -1.74918
4.64709 -6.89503 -1.75294
4.6789 -6.89533 -1.75674
4.71085 -6.89563 -1.76059
4.74294 -6.89593 -1.76446
4.77517 -6.89623 -1.76838
4.80754 -6.89653 -1.77232
4.84006 -6.89683 -1.7763
4.87272 -6.89713 -1.78032
4.90553 -6.89743 -1.78437
4.93845 -6.89768 -1.78845
4.97151 -6.89791 -1.79255
5.00472 -6.89814 -1.79669
5.03808 -6.89837 -1.80087
5.0716 -6.8986 -1.80509
5.10529 -6.89884 -1.80934
5.13913 -6.89909 -1.81364
5.17314 -6.89934 -1.81797
5.20731 -6.89958 -1.82234
5.24164 -6.89983 -1.82676
5.27614 -6.90007 -1.83121
5.31081 -6.90032 -1.8357
5.34565 -6.90057 -1.84023
5.38066 -6.90081 -1.8448
5.41584 -6.90106 -1.84941
5.4512 -6.90131 -1.85406
5.48644 -6.90119 -1.85865
5.52084 -6.89979 -1.86294
5.55579 -6.89887 -1.8674
5.5909 -6.89794 -1.8719
5.62618 -6.89701 -1.87644
5.66164 -6.89607 -1.88103
5.71617 -6.918 -1.8919
5.72668 -6.88649 -1.8882
5.76342 -6.88649 -1.89317
5.80036 -6.8865 -1.89817
5.83749 -6.88651 -1.90323
5.87483 -6.88651 -1.90833
5.91236 -6.88652 -1.91347
5.9501 -6.88652 -1.91867
5.98804 -6.88653 -1.92391
6.02619 -6.88654 -1.92919
6.06455 -6.88654 -1.93453
6.10312 -6.88655 -1.93992
6.14191 -6.88656 -1.94535
6.18092 -6.88656 -1.95083
6.22015 -6.88657 -1.95637
6.2596 -6.88658 -1.96195
6.31138 -6.89981 -1.97137
6.35825 -6.90729 -1.97921
6.40563 -6.91499 -1.98718
6.45764 -6.9273 -1.99655
6.51598 -6.94595 -2.00782
6.58899 -6.97965 -2.02354
6.73176 -7.0861 -2.06053
2.4203 -7.02101 -1.63023
2.44286 -7.01476 -1.63055
2.46543 -7.00851 -1.63089
2.48801 -7.00225 -1.63125
2.5106 -6.99599 -1.63162
2.53319 -6.98973 -1.63201
2.5558 -6.98346 -1.63242
2.57842 -6.97718 -1.63284
2.60105 -6.9709 -1.63328
2.62369 -6.96462 -1.63373
2.64634 -6.95833 -1.6342
2.66898 -6.95195 -1.63466
2.69161 -6.94553 -1.63514
2.71426 -6.93912 -1.63563
2.73693 -6.93269 -1.63613
2.7596 -6.92626 -1.63666
2.78347 -6.92277 -1.63789
2.80776 -6.9202 -1.63937
2.83209 -6.91762 -1.64086
2.85646 -6.91504 -1.64237
2.88087 -6.91244 -1.6439
2.9056 -6.91047 -1.64559
2.93056 -6.90892 -1.64741
2.95557 -6.90737 -1.64925
2.98064 -6.90581 -1.65111
3.00576 -6.90424 -1.65299
3.03094 -6.90267 -1.65488
3.05644 -6.9017 -1.65695
3.08224 -6.90125 -1.65916
3.10811 -6.90078 -1.66139
3.13406 -6.90035 -1.66365
3.1603 -6.90039 -1.66605
3.18662 -6.90044 -1.66847
3.21301 -6.90048 -1.67092
3.23948 -6.90052 -1.67339
3.26596 -6.90042 -1.67584
3.29213 -6.89951 -1.67813
3.31838 -6.89859 -1.68044
3.34469 -6.89767 -1.68277
3.3717 -6.89803 -1.68544
3.39965 -6.90009 -1.68854
3.42768 -6.90215 -1.69168
3.45583 -6.90423 -1.69484
3.48333 -6.90481 -1.69767
3.5105 -6.90457 -1.70031
3.53775 -6.90433 -1.70299
3.56509 -6.90409 -1.70569
3.59252 -6.90385 -1.70841
3.62003 -6.9036 -1.71116
3.64763 -6.90335 -1.71393
3.67532 -6.9031 -1.71673
3.7031 -6.90284 -1.71955
3.73097 -6.90258 -1.7224
3.75893 -6.90232 -1.72528
3.78698 -6.90205 -1.72818
3.81513 -6.90178 -1.73111
3.84337 -6.90151 -1.73407
3.87171 -6.90123 -1.73705
3.90014 -6.90095 -1.74006
3.92867 -6.90067 -1.7431
3.9573 -6.90039 -1.74616
3.98603 -6.9001 -1.74925
4.01465 -6.89944 -1.75227
4.04327 -6.89862 -1.75529
4.072 -6.89781 -1.75833
4.10082 -6.89698 -1.7614
4.12975 -6.89616 -1.7645
4.15878 -6.89533 -1.76763
4.18791 -6.89449 -1.77078
4.21714 -6.89365 -1.77396
4.24648 -6.89281 -1.77717
4.27592 -6.89196 -1.78041
4.30547 -6.89111 -1.78368
4.33513 -6.89025 -1.78698
4.36515 -6.88979 -1.79042
4.39554 -6.88973 -1.79398
4.42605 -6.88966 -1.79758
4.45668 -6.88959 -1.80121
4.48744 -6.88952 -1.80488
4.51832 -6.88945 -1.80857
4.54956 -6.88972 -1.81239
4.58094 -6.89001 -1.81625
4.61245 -6.8903 -1.82014
4.6441 -6.89059 -1.82407
4.67588 -6.89087 -1.82803
4.7078 -6.89116 -1.83202
4.73986 -6.89145 -1.83605
4.77206 -6.89174 -1.84012
4.80441 -6.89203 -1.84422
4.8369 -6.89232 -1.84836
4.86953 -6.89262 -1.85254
4.90231 -6.89291 -1.85675
4.93522 -6.89316 -1.861
4.96825 -6.89338 -1.86527
5.00144 -6.89362 -1.86958
5.03478 -6.89385 -1.87393
5.06829 -6.89409 -1.87832
5.10202 -6.89443 -1.88277
5.13624 -6.8952 -1.88738
5.17062 -6.89597 -1.89204
5.20517 -6.89675 -1.89673
5.2399 -6.89753 -1.90147
5.2748 -6.89832 -1.90625
5.30987 -6.89911 -1.91108
5.34513 -6.8999 -1.91595
5.38057 -6.9007 -1.92086
5.41619 -6.9015 -1.92581
5.452 -6.90231 -1.93082
5.48707 -6.90198 -1.93554
5.52079 -6.89973 -1.93977
5.55476 -6.89759 -1.94407
5.58986 -6.89666 -1.94876
5.62514 -6.89572 -1.95348
5.66972 -6.90591 -1.96141
5.69013 -6.88649 -1.96097
5.72668 -6.88649 -1.96609
5.76342 -6.8865 -1.97126
5.80036 -6.8865 -1.97647
5.8375 -6.88651 -1.98173
5.87483 -6.88652 -1.98704
5.91236 -6.88652 -1.9924
5.9501 -6.88653 -1.99781
5.98804 -6.88653 -2.00327
6.02619 -6.88654 -2.00877
6.06455 -6.88655 -2.01433
6.10313 -6.88655 -2.01994
6.14192 -6.88656 -2.02559
6.18093 -6.88657 -2.0313
6.22015 -6.88657 -2.03707
6.25961 -6.88658 -2.04289
6.29929 -6.88659 -2.04875
6.361 -6.91028 -2.06175
6.39938 -6.90824 -2.06713
6.45707 -6.92668 -2.07872
6.5154 -6.94533 -2.09045
6.57812 -6.96814 -2.10353
6.72588 -7.07991 -2.14366
2.41791 -7.01408 -1.69337
2.44045 -7.00784 -1.69371
2.463 -7.0016 -1.69406
2.48555 -6.99534 -1.69443
2.50812 -6.98909 -1.69482
2.53069 -6.98283 -1.69522
2.55328 -6.97656 -1.69564
2.57587 -6.97029 -1.69608
2.59847 -6.96398 -1.69653
2.62104 -6.95759 -1.69697
2.64363 -6.95119 -1.69743
2.66623 -6.94479 -1.6979
2.68884 -6.93838 -1.6984
2.71147 -6.93196 -1.69891
2.7341 -6.92555 -1.69943
2.75675 -6.91912 -1.69998
2.77951 -6.91291 -1.70059
2.80375 -6.91033 -1.70212
2.82805 -6.90775 -1.70366
2.85238 -6.90516 -1.70523
2.87675 -6.90256 -1.70681
2.90118 -6.89995 -1.70842
2.92564 -6.89734 -1.71004
2.95016 -6.89472 -1.71168
2.97472 -6.89209 -1.71334
2.99956 -6.89001 -1.71516
3.02468 -6.88842 -1.71713
3.04991 -6.88695 -1.71914
3.07564 -6.88647 -1.72143
3.10161 -6.88636 -1.72383
3.12772 -6.88639 -1.72629
3.1539 -6.88641 -1.72878
3.18015 -6.88644 -1.73129
3.20648 -6.88646 -1.73382
3.23288 -6.88647 -1.73638
3.25936 -6.88649 -1.73896
3.28558 -6.88578 -1.74138
3.31218 -6.88571 -1.74399
3.33988 -6.88774 -1.74715
3.36767 -6.88978 -1.75035
3.39557 -6.89182 -1.75357
3.42357 -6.89387 -1.75683
3.45167 -6.89592 -1.76011
3.47883 -6.89589 -1.76288
3.50596 -6.89564 -1.76563
3.53317 -6.89539 -1.7684
3.56046 -6.89513 -1.7712
3.58785 -6.89487 -1.77402
3.61532 -6.89461 -1.77687
3.64287 -6.89435 -1.77975
3.67052 -6.89408 -1.78265
3.69825 -6.89381 -1.78558
3.72608 -6.89353 -1.78854
3.75399 -6.89326 -1.79152
3.782 -6.89298 -1.79453
3.8101 -6.89269 -1.79757
3.8383 -6.8924 -1.80063
3.86659 -6.89211 -1.80372
3.89497 -6.89182 -1.80685
3.92346 -6.89152 -1.80999
3.95204 -6.89122 -1.81317
3.98073 -6.89092 -1.81638
4.00951 -6.89061 -1.81961
4.03839 -6.8903 -1.82287
4.06738 -6.88998 -1.82617
4.09647 -6.88966 -1.82949
4.12567 -6.88934 -1.83284
4.15497 -6.88902 -1.83622
4.18438 -6.88869 -1.83963
4.2139 -6.88835 -1.84308
4.24328 -6.88762 -1.84644
4.27269 -6.88676 -1.84981
4.30221 -6.8859 -1.8532
4.33184 -6.88503 -1.85662
4.36167 -6.8843 -1.86012
4.39203 -6.88422 -1.86382
4.42253 -6.88418 -1.86756
4.45336 -6.88446 -1.87143
4.48432 -6.88474 -1.87533
4.51542 -6.88502 -1.87927
4.54664 -6.8853 -1.88324
4.57799 -6.88558 -1.88724
4.60948 -6.88585 -1.89129
4.64116 -6.88623 -1.89539
4.67319 -6.88691 -1.89961
4.70536 -6.88759 -1.90387
4.73767 -6.88827 -1.90817
4.77013 -6.88895 -1.91251
4.80274 -6.88964 -1.91688
4.8355 -6.89034 -1.9213
4.86841 -6.89103 -1.92575
4.90148 -6.89173 -1.93025
4.93475 -6.89252 -1.93481
4.96825 -6.89338 -1.93943
5.0019 -6.89426 -1.94409
5.03572 -6.89513 -1.94879
5.0697 -6.89602 -1.95354
5.10385 -6.8969 -1.95833
5.13817 -6.89779 -1.96316
5.17266 -6.89869 -1.96804
5.20725 -6.8995 -1.97293
5.24199 -6.90029 -1.97786
5.27691 -6.90108 -1.98284
5.31201 -6.90188 -1.98786
5.34729 -6.90268 -1.99292
5.38274 -6.90349 -1.99804
5.41838 -6.9043 -2.00319
5.45421 -6.90512 -2.0084
5.4888 -6.90416 -2.01313
5.52253 -6.90191 -2.01753
5.55627 -6.89946 -2.02191
5.58982 -6.8966 -2.02622
5.63538 -6.90828 -2.03485
5.65377 -6.88648 -2.03366
5.69013 -6.88649 -2.03893
5.72669 -6.8865 -2.04426
5.76343 -6.8865 -2.04963
5.80036 -6.88651 -2.05505
5.8375 -6.88651 -2.06053
5.87483 -6.88652 -2.06605
5.91236 -6.88653 -2.07162
5.9501 -6.88653 -2.07724
5.98804 -6.88654 -2.08291
6.02619 -6.88655 -2.08864
6.06456 -6.88655 -2.09442
6.10313 -6.88656 -2.10025
6.14192 -6.88656 -2.10613
6.18093 -6.88657 -2.11207
6.22016 -6.88658 -2.11806
6.25961 -6.88658 -2.12411
6.29929 -6.88659 -2.13021
6.36691 -6.9167 -2.14571
6.39703 -6.9057 -2.14853
6.45585 -6.92538 -2.16096
6.51481 -6.9447 -2.17337
6.5738 -6.96355 -2.18573
6.71999 -7.07371 -2.22693
2.41614 -7.00896 -1.75708
2.43804 -7.00091 -1.75698
2.46056 -6.99467 -1.75735
2.48309 -6.98842 -1.75773
2.50564 -6.98217 -1.75813
2.52819 -6.97592 -1.75855
2.55071 -6.96955 -1.75896
2.57324 -6.96318 -1.75939
2.59579 -6.95679 -1.75983
2.61834 -6.95041 -1.76029
2.6409 -6.94401 -1.76076
2.66348 -6.93762 -1.76126
2.68606 -6.93121 -1.76177
2.70867 -6.9248 -1.76229
2.73128 -6.91839 -1.76284
2.75391 -6.91197 -1.7634
2.77654 -6.90554 -1.76398
2.79975 -6.90045 -1.76492
2.824 -6.89786 -1.76652
2.84829 -6.89527 -1.76815
2.87263 -6.89266 -1.76979
2.89701 -6.89005 -1.77145
2.92144 -6.88743 -1.77313
2.94591 -6.88481 -1.77483
2.97044 -6.88217 -1.77655
2.995 -6.87953 -1.77829
3.04615 -6.93733 -1.7957
3.06243 -6.91523 -1.79246
3.07863 -6.89316 -1.78924
3.10148 -6.88607 -1.78993
3.12757 -6.88607 -1.79248
3.15374 -6.88608 -1.79505
3.17999 -6.88608 -1.79765
3.20984 -6.89368 -1.80226
3.24352 -6.90914 -1.80896
3.37998 -7.14132 -1.87252
3.36875 -7.06009 -1.85399
3.30822 -6.87748 -1.80876
3.33588 -6.8795 -1.81205
3.36363 -6.88152 -1.81536
3.39149 -6.88354 -1.81869
3.41945 -6.88557 -1.82206
3.44732 -6.88722 -1.82536
3.47432 -6.88696 -1.82818
3.50141 -6.8867 -1.83102
3.52858 -6.88643 -1.8339
3.55583 -6.88616 -1.83679
3.58317 -6.88589 -1.83972
3.6106 -6.88561 -1.84267
3.63811 -6.88533 -1.84565
3.66571 -6.88505 -1.84865
3.6934 -6.88477 -1.85169
3.72118 -6.88448 -1.85475
3.74905 -6.88419 -1.85784
3.77701 -6.88389 -1.86096
3.80507 -6.88359 -1.8641
3.83322 -6.88329 -1.86727
3.86147 -6.88298 -1.87048
3.88981 -6.88267 -1.87371
3.91825 -6.88236 -1.87697
3.94678 -6.88204 -1.88026
3.97541 -6.88172 -1.88358
4.00415 -6.8814 -1.88693
4.03299 -6.88107 -1.89031
4.06193 -6.88074 -1.89372
4.09097 -6.8804 -1.89716
4.12011 -6.88007 -1.90063
4.14963 -6.88017 -1.90425
4.17927 -6.88028 -1.90791
4.20903 -6.88039 -1.91161
4.2389 -6.88051 -1.91534
4.26888 -6.88062 -1.9191
4.29905 -6.88083 -1.92292
4.32937 -6.8811 -1.92679
4.35982 -6.88138 -1.9307
4.39063 -6.88204 -1.93475
4.42159 -6.88272 -1.93884
4.45268 -6.8834 -1.94296
4.4839 -6.88408 -1.94713
4.51525 -6.88477 -1.95133
4.54673 -6.88544 -1.95557
4.57834 -6.88611 -1.95984
4.61009 -6.88678 -1.96414
4.64199 -6.88745 -1.96849
4.67402 -6.88813 -1.97288
4.7062 -6.88881 -1.9773
4.73852 -6.8895 -1.98177
4.77099 -6.89019 -1.98627
4.80361 -6.89088 -1.99082
4.83637 -6.89158 -1.99541
4.86929 -6.89228 -2.00003
4.90237 -6.89298 -2.0047
4.93566 -6.89378 -2.00944
4.96916 -6.89465 -2.01424
5.00282 -6.89553 -2.01908
5.03665 -6.89641 -2.02397
5.07064 -6.89729 -2.0289
5.1048 -6.89818 -2.03388
5.13912 -6.89908 -2.0389
5.17362 -6.89998 -2.04396
5.20829 -6.90088 -2.04907
5.24313 -6.90179 -2.05423
5.27816 -6.90271 -2.05943
5.31329 -6.90354 -2.06466
5.34838 -6.90409 -2.06984
5.38365 -6.90465 -2.07508
5.41909 -6.9052 -2.08036
5.45472 -6.90576 -2.08569
5.48957 -6.90512 -2.09069
5.52283 -6.90228 -2.09508
5.55625 -6.89944 -2.09952
5.5898 -6.89658 -2.10399
5.62093 -6.89056 -2.10754
5.65377 -6.88649 -2.11172
5.69014 -6.88649 -2.1172
5.72669 -6.8865 -2.12273
5.76343 -6.88651 -2.12831
5.80037 -6.88651 -2.13394
5.8375 -6.88652 -2.13962
5.87483 -6.88652 -2.14535
5.91237 -6.88653 -2.15114
5.95011 -6.88654 -2.15698
5.98805 -6.88654 -2.16287
6.0262 -6.88655 -2.16881
6.06456 -6.88656 -2.17481
6.10313 -6.88656 -2.18086
6.14192 -6.88657 -2.18697
6.18093 -6.88657 -2.19314
6.22016 -6.88658 -2.19936
6.25961 -6.88659 -2.20564
6.29929 -6.88659 -2.21198
6.37285 -6.92316 -2.23015
6.39448 -6.90295 -2.23011
6.45327 -6.92261 -2.24301
6.51273 -6.94249 -2.25607
6.57289 -6.9626 -2.26932
2.41442 -7.00396 -1.82099
2.43598 -6.99501 -1.82065
2.45812 -6.98773 -1.82076
2.48061 -6.98143 -1.82114
2.50309 -6.97508 -1.82153
2.52558 -6.96871 -1.82193
2.54807 -6.96235 -1.82235
2.57058 -6.95597 -1.82279
2.5931 -6.94959 -1.82325
2.61563 -6.94321 -1.82372
2.63817 -6.93682 -1.82422
2.66072 -6.93043 -1.82473
2.68328 -6.92403 -1.82526
2.70586 -6.91763 -1.8258
2.72845 -6.91122 -1.82637
2.75105 -6.9048 -1.82695
2.77366 -6.89838 -1.82755
2.7963 -6.89195 -1.82817
2.81995 -6.88797 -1.82945
2.8442 -6.88537 -1.83113
2.8685 -6.88276 -1.83283
2.91592 -6.93501 -1.84918
2.92649 -6.89935 -1.84211
2.94644 -6.88605 -1.84103
2.97211 -6.88605 -1.84352
2.99784 -6.88606 -1.84603
3.02364 -6.88606 -1.84858
3.04952 -6.88607 -1.85114
3.07546 -6.88607 -1.85374
3.10148 -6.88607 -1.85635
3.12758 -6.88608 -1.859
3.15374 -6.88608 -1.86167
3.17999 -6.88609 -1.86436
3.20631 -6.88609 -1.86709
3.23271 -6.8861 -1.86984
3.25918 -6.8861 -1.87261
3.28574 -6.8861 -1.87541
3.31237 -6.88611 -1.87824
3.33909 -6.88611 -1.8811
3.44457 -7.0471 -1.92803
3.43636 -6.97462 -1.91114
3.41598 -6.87859 -1.88777
3.44285 -6.87829 -1.89065
3.46981 -6.87802 -1.89356
3.49685 -6.87774 -1.89651
3.52408 -6.87765 -1.89953
3.55149 -6.87776 -1.90263
3.57899 -6.87786 -1.90577
3.60659 -6.87797 -1.90893
3.63427 -6.87807 -1.91212
3.66205 -6.87818 -1.91535
3.68993 -6.87828 -1.9186
3.71789 -6.87839 -1.92188
3.74596 -6.8785 -1.92519
3.77411 -6.87861 -1.92854
3.80238 -6.87871 -1.93191
3.83073 -6.87882 -1.93532
3.85919 -6.87893 -1.93875
3.88775 -6.87904 -1.94222
3.91642 -6.87915 -1.94572
3.94519 -6.87926 -1.94925
3.97406 -6.87937 -1.95281
4.00304 -6.87948 -1.95641
4.03212 -6.87959 -1.96004
4.06131 -6.8797 -1.9637
4.09063 -6.87984 -1.9674
4.12013 -6.8801 -1.97117
4.14976 -6.88037 -1.97498
4.17949 -6.88064 -1.97882
4.20934 -6.88091 -1.9827
4.23931 -6.88118 -1.98661
4.26939 -6.88145 -1.99056
4.2996 -6.88173 -1.99454
4.32994 -6.882 -1.99855
4.36039 -6.88228 -2.00261
4.39121 -6.88294 -2.00681
4.42217 -6.88362 -2.01105
4.45326 -6.8843 -2.01533
4.48448 -6.88498 -2.01965
4.51584 -6.88567 -2.02401
4.54734 -6.88636 -2.02841
4.57897 -6.88706 -2.03285
4.61075 -6.88775 -2.03732
4.64266 -6.88846 -2.04184
4.67471 -6.88916 -2.0464
4.70692 -6.88987 -2.051
4.73926 -6.89058 -2.05564
4.77175 -6.89129 -2.06032
4.80439 -6.89201 -2.06504
4.83718 -6.89274 -2.06981
4.87013 -6.89347 -2.07462
4.90327 -6.89425 -2.07948
4.9362 -6.89453 -2.08424
4.96932 -6.89487 -2.08906
5.00273 -6.8954 -2.09398
5.0363 -6.89593 -2.09894
5.07003 -6.89646 -2.10394
5.10392 -6.89699 -2.10899
5.13797 -6.89753 -2.11409
5.17219 -6.89807 -2.11923
5.20657 -6.8986 -2.12441
5.24112 -6.89914 -2.12965
5.27584 -6.89969 -2.13493
5.31074 -6.90023 -2.14025
5.34581 -6.90078 -2.14563
5.38105 -6.90132 -2.15105
5.41647 -6.90187 -2.15652
5.45208 -6.90242 -2.16204
5.48756 -6.90259 -2.16749
5.52281 -6.90226 -2.17283
5.55622 -6.89941 -2.17742
5.62549 -6.94061 -2.196
5.62366 -6.89392 -2.18681
5.65378 -6.88649 -2.19009
5.69014 -6.8865 -2.19577
5.72669 -6.8865 -2.20151
5.76343 -6.88651 -2.20729
5.80037 -6.88652 -2.21313
5.83751 -6.88652 -2.21902
5.87484 -6.88653 -2.22497
5.91237 -6.88653 -2.23097
5.95011 -6.88654 -2.23702
5.98805 -6.88655 -2.24313
6.0262 -6.88655 -2.2493
6.06456 -6.88656 -2.25552
6.10314 -6.88657 -2.2618
6.14193 -6.88657 -2.26814
6.18094 -6.88658 -2.27453
6.22016 -6.88659 -2.28098
6.25962 -6.88659 -2.2875
2.41448 -7.00413 -1.88647
2.43478 -6.99156 -1.88513
2.45578 -6.98108 -1.88438
2.47821 -6.97469 -1.88475
2.50065 -6.9683 -1.88514
2.52311 -6.96192 -1.88555
2.54559 -6.95555 -1.88599
2.56807 -6.94917 -1.88644
2.59056 -6.94279 -1.88691
2.61306 -6.9364 -1.8874
2.63557 -6.93001 -1.8879
2.6581 -6.92361 -1.88843
2.68064 -6.91721 -1.88897
2.70319 -6.9108 -1.88954
2.72575 -6.90439 -1.89012
2.74833 -6.89797 -1.89072
2.77092 -6.89154 -1.89134
2.83627 -6.99048 -1.92093
2.84309 -6.9445 -1.91074
2.84982 -6.89898 -1.90067
2.86987 -6.88604 -1.89959
2.89533 -6.88604 -1.90209
2.92085 -6.88605 -1.90462
2.94645 -6.88605 -1.90717
2.97211 -6.88606 -1.90976
2.99784 -6.88606 -1.91236
3.02364 -6.88606 -1.915
3.04952 -6.88607 -1.91765
3.07546 -6.88607 -1.92034
3.10149 -6.88608 -1.92305
3.12758 -6.88608 -1.92579
3.15375 -6.88609 -1.92856
3.17999 -6.88609 -1.93135
3.20631 -6.88609 -1.93417
3.23271 -6.8861 -1.93702
3.25918 -6.8861 -1.93989
3.28574 -6.88611 -1.9428
3.31237 -6.88611 -1.94573
3.33909 -6.88612 -1.94869
3.36588 -6.88612 -1.95168
3.39276 -6.88612 -1.95469
3.47419 -6.99581 -1.98892
3.46579 -6.92414 -1.97163
3.46946 -6.87732 -1.9614
3.49669 -6.87742 -1.96456
3.52401 -6.87752 -1.96774
3.55142 -6.87763 -1.97096
3.57893 -6.87773 -1.97421
3.60652 -6.87784 -1.97748
3.63421 -6.87795 -1.98079
3.66198 -6.87805 -1.98413
3.68986 -6.87816 -1.9875
3.71782 -6.87826 -1.9909
3.74589 -6.87837 -1.99433
3.77405 -6.87848 -1.99779
3.80231 -6.87859 -2.00129
3.83066 -6.87869 -2.00481
3.85912 -6.8788 -2.00837
3.88768 -6.87891 -2.01197
3.91641 -6.87914 -2.01563
3.94527 -6.8794 -2.01933
3.97423 -6.87966 -2.02307
4.00329 -6.87993 -2.02684
4.03247 -6.88019 -2.03064
4.06176 -6.88046 -2.03448
4.09115 -6.88072 -2.03835
4.12067 -6.88099 -2.04226
4.15029 -6.88126 -2.04621
4.18003 -6.88153 -2.05019
4.20989 -6.8818 -2.0542
4.23986 -6.88207 -2.05826
4.26995 -6.88235 -2.06234
4.30017 -6.88263 -2.06647
4.3305 -6.8829 -2.07063
4.36096 -6.88318 -2.07483
4.39178 -6.88384 -2.07918
4.42275 -6.88452 -2.08358
4.45387 -6.88524 -2.08803
4.48513 -6.88598 -2.09252
4.51653 -6.88672 -2.09705
4.54807 -6.88747 -2.10163
4.57974 -6.88822 -2.10624
4.61156 -6.88897 -2.1109
4.64352 -6.88973 -2.1156
4.67562 -6.89049 -2.12033
4.70786 -6.89125 -2.12512
4.74025 -6.89202 -2.12994
4.77279 -6.8928 -2.13481
4.80548 -6.89358 -2.13972
4.83832 -6.89436 -2.14468
4.87132 -6.89514 -2.14968
4.90446 -6.89593 -2.15472
4.93731 -6.8961 -2.15962
4.97024 -6.89614 -2.16452
5.0033 -6.89619 -2.16946
5.03653 -6.89624 -2.17445
5.0699 -6.89629 -2.17948
5.10343 -6.89634 -2.18456
5.13712 -6.89639 -2.18968
5.17097 -6.89644 -2.19485
5.20497 -6.89649 -2.20007
5.23915 -6.89654 -2.20533
5.27348 -6.8966 -2.21064
5.30819 -6.89691 -2.21609
5.34323 -6.89745 -2.22165
5.37845 -6.89799 -2.22726
5.41385 -6.89853 -2.23292
5.44944 -6.89907 -2.23864
5.48487 -6.89921 -2.24427
5.52042 -6.89926 -2.24992
5.55615 -6.89932 -2.25563
5.64556 -6.96537 -2.28302
5.64065 -6.91474 -2.27223
5.65378 -6.8865 -2.26878
5.69014 -6.8865 -2.27467
5.7267 -6.88651 -2.28061
5.76344 -6.88651 -2.2866
5.80037 -6.88652 -2.29265
5.83751 -6.88653 -2.29875
5.87484 -6.88653 -2.30491
5.91237 -6.88654 -2.31113
5.95011 -6.88654 -2.3174
5.98805 -6.88655 -2.32373
6.0262 -6.88656 -2.33012
6.06457 -6.88656 -2.33656
6.10314 -6.88657 -2.34307
6.14193 -6.88658 -2.34963
6.18094 -6.88658 -2.35626
6.22017 -6.88659 -2.36294
2.41236 -6.99797 -1.95046
2.43264 -6.98541 -1.94908
2.45351 -6.97464 -1.94822
2.47593 -6.96826 -1.9486
2.49835 -6.96187 -1.949
2.52078 -6.95548 -1.94942
2.54322 -6.94908 -1.94986
2.56567 -6.94268 -1.95032
2.58813 -6.93627 -1.9508
2.61061 -6.92989 -1.9513
2.6331 -6.9235 -1.95183
2.6556 -6.91711 -1.95237
2.67812 -6.91071 -1.95293
2.70065 -6.90431 -1.95351
2.72319 -6.89789 -1.95411
2.74574 -6.89148 -1.95473
2.79885 -6.96102 -1.97694
2.80584 -6.91546 -1.9665
2.81916 -6.88603 -1.96065
2.84448 -6.88604 -1.96318
2.86987 -6.88604 -1.96575
2.89533 -6.88605 -1.96834
2.92085 -6.88605 -1.97096
2.94645 -6.88606 -1.9736
2.97211 -6.88606 -1.97627
2.99784 -6.88606 -1.97897
3.02365 -6.88607 -1.9817
3.04952 -6.88607 -1.98445
3.07547 -6.88608 -1.98723
3.10149 -6.88608 -1.99003
3.12758 -6.88609 -1.99287
3.15375 -6.88609 -1.99573
3.17999 -6.88609 -1.99862
3.20631 -6.8861 -2.00154
3.23271 -6.8861 -2.00449
3.25919 -6.88611 -2.00746
3.28574 -6.88611 -2.01047
3.31237 -6.88612 -2.0135
3.33909 -6.88612 -2.01656
3.36588 -6.88612 -2.01965
3.39277 -6.88613 -2.02278
3.41973 -6.88613 -2.02593
3.44677 -6.88614 -2.02911
3.50383 -6.94545 -2.04982
3.49663 -6.87729 -2.03294
3.52395 -6.8774 -2.03624
3.55136 -6.8775 -2.03957
3.57886 -6.87761 -2.04293
3.60645 -6.87771 -2.04632
3.63414 -6.87782 -2.04974
3.66192 -6.87792 -2.0532
3.68979 -6.87803 -2.05668
3.7178 -6.87822 -2.06023
3.74594 -6.87848 -2.06382
3.77418 -6.87873 -2.06745
3.80253 -6.87899 -2.07111
3.83097 -6.87924 -2.07481
3.85951 -6.8795 -2.07854
3.88816 -6.87976 -2.0823
3.91692 -6.88002 -2.0861
3.94577 -6.88028 -2.08993
3.97477 -6.88061 -2.09382
4.00399 -6.88112 -2.0978
4.03331 -6.88163 -2.10181
4.06275 -6.88214 -2.10586
4.0923 -6.88265 -2.10994
4.12197 -6.88317 -2.11407
4.15176 -6.88369 -2.11823
4.18167 -6.88422 -2.12243
4.21169 -6.88475 -2.12666
4.24184 -6.88528 -2.13094
4.27211 -6.88582 -2.13525
4.3025 -6.88636 -2.13961
4.33302 -6.8869 -2.144
4.36365 -6.88744 -2.14843
4.39438 -6.88791 -2.15288
4.42523 -6.88838 -2.15737
4.45621 -6.88886 -2.1619
4.48733 -6.88935 -2.16647
4.51858 -6.88983 -2.17108
4.54996 -6.89032 -2.17573
4.58147 -6.89082 -2.18043
4.61313 -6.89131 -2.18516
4.64492 -6.89181 -2.18995
4.67686 -6.89232 -2.19477
4.709 -6.89292 -2.19967
4.7414 -6.89369 -2.20466
4.77395 -6.89447 -2.2097
4.80665 -6.89525 -2.21479
4.8395 -6.89604 -2.21992
4.87251 -6.89683 -2.2251
4.90566 -6.89761 -2.23032
4.93844 -6.89766 -2.23535
4.97137 -6.89772 -2.24042
5.00445 -6.89777 -2.24554
5.03768 -6.89782 -2.2507
5.07107 -6.89787 -2.25591
5.10461 -6.89793 -2.26117
5.13831 -6.89798 -2.26647
5.71989 -7.05708 -2.39364
5.71074 -7.00067 -2.38059
5.70231 -6.9456 -2.36795
5.69398 -6.89115 -2.35548
5.7267 -6.88651 -2.36004
5.76344 -6.88652 -2.36625
5.80038 -6.88652 -2.37251
5.83751 -6.88653 -2.37882
5.87485 -6.88654 -2.3852
5.91238 -6.88654 -2.39163
5.95012 -6.88655 -2.39812
5.98806 -6.88656 -2.40467
6.02621 -6.88656 -2.41128
6.06457 -6.88657 -2.41795
6.10314 -6.88657 -2.42468
6.14193 -6.88658 -2.43147
2.41141 -6.99524 -2.0156
2.43099 -6.98067 -2.0136
2.45125 -6.9682 -2.01222
2.47364 -6.96182 -2.01261
2.49604 -6.95543 -2.01303
2.51845 -6.94904 -2.01346
2.54087 -6.94265 -2.01391
2.56329 -6.93625 -2.01439
2.58573 -6.92985 -2.01488
2.60818 -6.92344 -2.01539
2.63064 -6.91703 -2.01592
2.65311 -6.91061 -2.01647
2.67559 -6.90419 -2.01705
2.6981 -6.89779 -2.01765
2.77079 -7.01847 -2.05548
2.77361 -6.96143 -2.04133
2.7764 -6.90518 -2.02738
2.7939 -6.88603 -2.02433
2.81916 -6.88604 -2.02693
2.84448 -6.88604 -2.02955
2.86987 -6.88605 -2.0322
2.89533 -6.88605 -2.03488
2.92085 -6.88605 -2.03759
2.94645 -6.88606 -2.04032
2.97211 -6.88606 -2.04308
2.99785 -6.88607 -2.04587
3.02365 -6.88607 -2.04869
3.04952 -6.88608 -2.05153
3.07547 -6.88608 -2.05441
3.10149 -6.88608 -2.05731
3.12758 -6.88609 -2.06024
3.15375 -6.88609 -2.0632
3.17999 -6.8861 -2.06619
3.20631 -6.8861 -2.06921
3.23271 -6.88611 -2.07225
3.25919 -6.88611 -2.07533
3.28574 -6.88611 -2.07843
3.31238 -6.88612 -2.08157
3.33909 -6.88612 -2.08474
3.36588 -6.88613 -2.08793
3.39277 -6.88613 -2.09116
3.41973 -6.88614 -2.09442
3.44678 -6.88614 -2.0977
3.52779 -6.99295 -2.13361
3.52785 -6.9387 -2.12044
3.52791 -6.88513 -2.10744
3.5515 -6.87778 -2.1086
3.57926 -6.87837 -2.11223
3.60711 -6.87896 -2.11588
3.63504 -6.87952 -2.11956
3.66302 -6.88 -2.12325
3.6911 -6.88048 -2.12697
3.71928 -6.88096 -2.13072
3.74756 -6.88144 -2.13451
3.77594 -6.88193 -2.13834
3.80443 -6.88242 -2.1422
3.83301 -6.88292 -2.14609
3.86171 -6.88341 -2.15003
3.89051 -6.88392 -2.154
3.91942 -6.88442 -2.158
3.94844 -6.88493 -2.16204
3.97756 -6.88544 -2.16612
4.0068 -6.88595 -2.17024
4.03615 -6.88647 -2.17439
4.06562 -6.88699 -2.17858
4.0952 -6.88752 -2.18281
4.12489 -6.88805 -2.18708
4.15471 -6.88858 -2.19139
4.18464 -6.88911 -2.19574
4.21469 -6.88965 -2.20012
4.24486 -6.8902 -2.20455
4.27516 -6.89074 -2.20901
4.30558 -6.89129 -2.21352
4.33613 -6.89185 -2.21807
4.36678 -6.89237 -2.22265
4.39754 -6.89286 -2.22726
4.42842 -6.89334 -2.2319
4.45943 -6.89383 -2.23659
4.49057 -6.89433 -2.24132
4.52185 -6.89482 -2.2461
4.55326 -6.89533 -2.25092
4.58481 -6.89583 -2.25578
4.61649 -6.89634 -2.26068
5.82196 -6.91214 -2.46183
5.83752 -6.88653 -2.45924
5.87485 -6.88654 -2.46583
5.91238 -6.88655 -2.47248
5.95012 -6.88655 -2.47919
5.98806 -6.88656 -2.48596
2.41549 -7.00705 -2.08533
2.4342 -6.98988 -2.08249
2.4542 -6.97659 -2.08082
2.47647 -6.96978 -2.0811
2.49874 -6.96297 -2.0814
2.52103 -6.95617 -2.08173
2.54332 -6.94936 -2.08208
2.56562 -6.94256 -2.08245
2.58793 -6.93575 -2.08284
2.61025 -6.92895 -2.08325
2.63249 -6.9219 -2.08361
2.65455 -6.91437 -2.08384
2.67661 -6.90683 -2.0841
2.7562 -7.04633 -2.1288
2.75914 -6.98896 -2.11408
2.76203 -6.93237 -2.09958
2.7687 -6.88603 -2.08817
2.7939 -6.88604 -2.09083
2.81916 -6.88604 -2.09351
2.84448 -6.88605 -2.09622
2.86987 -6.88605 -2.09896
2.89533 -6.88605 -2.10173
2.92086 -6.88606 -2.10452
2.94645 -6.88606 -2.10735
2.97211 -6.88607 -2.1102
2.99785 -6.88607 -2.11308
3.02365 -6.88607 -2.11599
3.04952 -6.88608 -2.11893
3.07547 -6.88608 -2.12189
3.10149 -6.88609 -2.12489
3.12758 -6.88609 -2.12792
3.15375 -6.8861 -2.13097
3.18 -6.8861 -2.13406
3.20632 -6.8861 -2.13718
3.23271 -6.88611 -2.14032
3.25919 -6.88611 -2.1435
3.28574 -6.88612 -2.14671
3.31238 -6.88612 -2.14995
3.33909 -6.88613 -2.15322
3.36589 -6.88613 -2.15652
3.39277 -6.88614 -2.15985
3.41973 -6.88614 -2.16322
3.44678 -6.88614 -2.16661
3.52752 -6.99241 -2.20353
3.52758 -6.93817 -2.18992
3.52764 -6.8846 -2.17651
3.5514 -6.87758 -2.17781
3.57915 -6.87817 -2.18155
3.607 -6.87876 -2.18532
3.63495 -6.87935 -2.18913
3.66299 -6.87994 -2.19298
3.69113 -6.88054 -2.19686
3.71937 -6.88114 -2.20077
3.74772 -6.88174 -2.20472
3.77616 -6.88234 -2.20871
3.80471 -6.88294 -2.21273
3.83337 -6.88355 -2.21679
3.86212 -6.88416 -2.22089
3.89099 -6.88477 -2.22503
3.91997 -6.88538 -2.2292
3.94905 -6.886 -2.23341
3.97824 -6.88661 -2.23766
4.00755 -6.88723 -2.24194
4.03696 -6.88786 -2.24627
4.0665 -6.88848 -2.25063
4.09614 -6.88911 -2.25503
2.418 -7.01435 -2.15421
2.43673 -6.99715 -2.15127
2.45723 -6.9852 -2.14996
2.47952 -6.97838 -2.15025
2.50183 -6.97157 -2.15056
2.52414 -6.96476 -2.1509
2.54621 -6.95725 -2.15105
2.56827 -6.94971 -2.1512
2.59033 -6.94217 -2.15138
2.61239 -6.93463 -2.15158
2.63446 -6.92709 -2.1518
2.65654 -6.91955 -2.15204
2.67862 -6.91201 -2.15231
2.76686 -7.07357 -2.20532
2.76272 -6.99803 -2.18446
2.75867 -6.92392 -2.16402
2.7687 -6.88604 -2.1549
2.7939 -6.88604 -2.15764
2.81916 -6.88604 -2.16041
2.84448 -6.88605 -2.1632
2.86987 -6.88605 -2.16603
2.89533 -6.88606 -2.16889
2.92086 -6.88606 -2.17177
2.94645 -6.88607 -2.17468
2.97212 -6.88607 -2.17763
2.99785 -6.88607 -2.1806
3.02365 -6.88608 -2.1836
3.04952 -6.88608 -2.18663
3.07547 -6.88609 -2.1897
3.10149 -6.88609 -2.19279
3.12758 -6.8861 -2.19591
3.15375 -6.8861 -2.19907
3.18 -6.8861 -2.20225
3.20632 -6.88611 -2.20547
3.23271 -6.88611 -2.20872
3.25919 -6.88612 -2.21199
3.28575 -6.88612 -2.2153
3.31238 -6.88613 -2.21865
3.33909 -6.88613 -2.22202
3.36589 -6.88613 -2.22543
3.39277 -6.88614 -2.22887
3.41973 -6.88614 -2.23234
3.44678 -6.88615 -2.23584
3.52737 -6.88407 -2.24588
3.55129 -6.87738 -2.24733
3.57905 -6.87797 -2.25119
3.6069 -6.87855 -2.25508
2.54813 -6.96249 -2.21964
2.5702 -6.95494 -2.2198
2.59228 -6.94739 -2.21999
2.61436 -6.93985 -2.22019
2.63645 -6.9323 -2.22042
2.65854 -6.92476 -2.22067
2.77885 -7.03888 -2.26558
2.77462 -6.96396 -2.24426
2.77047 -6.89044 -2.22336
2.7939 -6.88604 -2.22477
2.81916 -6.88605 -2.22763
2.84449 -6.88605 -2.23051
2.86988 -6.88606 -2.23342
2.89533 -6.88606 -2.23637
2.92086 -6.88607 -2.23934
2.94646 -6.88607 -2.24235
2.97212 -6.88607 -2.24538
2.99785 -6.88608 -2.24845
3.02365 -6.88608 -2.25154
3.04953 -6.88609 -2.25467
3.07547 -6.88609 -2.25783
3.10149 -6.88609 -2.26102
3.12759 -6.8861 -2.26424
3.15376 -6.8861 -2.26749
3.18 -6.88611 -2.27077
3.20632 -6.88611 -2.27409
3.23272 -6.88612 -2.27744
3.25919 -6.88612 -2.28082
3.28575 -6.88612 -2.28423
3.31238 -6.88613 -2.28768
3.3391 -6.88613 -2.29116
3.36589 -6.88614 -2.29467
3.39277 -6.88614 -2.29822
3.41974 -6.88615 -2.3018
2.81476 -7.00059 -2.32741
2.7939 -6.88605 -2.29224
2.81916 -6.88605 -2.29518
2.84449 -6.88606 -2.29815
2.86988 -6.88606 -2.30115
2.89533 -6.88606 -2.30419
2.92086 -6.88607 -2.30725
2.94646 -6.88607 -2.31035
2.97212 -6.88608 -2.31347
2.99785 -6.88608 -2.31663
3.02365 -6.88609 -2.31982
3.04953 -6.88609 -2.32304
3.07548 -6.88609 -2.3263
3.10149 -6.8861 -2.32958
3.12759 -6.8861 -2.3329
3.15376 -6.88611 -2.33625
3.18 -6.88611 -2.33964
3.20632 -6.88612 -2.34305
3.23272 -6.88612 -2.3465
3.25919 -6.88612 -2.34998
3.28575 -6.88613 -2.3535
3.31238 -6.88613 -2.35705
3.3391 -6.88614 -2.36064
3.36589 -6.88614 -2.36426
2.84449 -6.88606 -2.36614
2.86988 -6.88606 -2.36923
2.89534 -6.88607 -2.37236
2.92086 -6.88607 -2.37551
2.94646 -6.88608 -2.3787
2.97212 -6.88608 -2.38192
2.99785 -6.88608 -2.38517
3.02365 -6.88609 -2.38845
3.04953 -6.88609 -2.39177
3.07548 -6.8861 -2.39512
3.10149 -6.8861 -2.3985
3.12759 -6.88611 -2.40192
3.15376 -6.88611 -2.40537
3.18 -6.88611 -2.40885
3.20632 -6.88612 -2.41237
3.23272 -6.88612 -2.41592
3.25919 -6.88613 -2.41951
3.28575 -6.88613 -2.42313
3.31238 -6.88614 -2.42678
2.94646 -6.88608 -2.44741
2.97212 -6.88608 -2.45072
2.99785 -6.88609 -2.45407
3.02366 -6.88609 -2.45745
3.04953 -6.8861 -2.46086
3.07548 -6.8861 -2.46431
3.1015 -6.8861 -2.46779
3.12759 -6.88611 -2.4713
3.15376 -6.88611 -2.47485
3.18 -6.88612 -2.47844
6.26477 -7.35073 -1.53793
6.32295 -7.37178 -1.5465
6.3817 -7.39297 -1.55516
6.44104 -7.41431 -1.56392
6.50097 -7.4358 -1.57277
6.02365 -7.06782 -1.55799
6.06819 -7.07476 -1.56373
6.1131 -7.0818 -1.56954
6.15827 -7.08881 -1.57539
6.20363 -7.0957 -1.58126
6.2493 -7.10262 -1.58718
6.29529 -7.10955 -1.59316
6.34161 -7.11652 -1.5992
6.38825 -7.12351 -1.60529
6.43523 -7.13052 -1.61143
6.49681 -7.15327 -1.6212
5.92019 -6.94643 -1.60933
5.95826 -6.9466 -1.61372
5.99655 -6.94679 -1.61814
6.04039 -6.95312 -1.62405
6.08462 -6.95958 -1.63003
6.12915 -6.96606 -1.63607
6.17399 -6.97256 -1.64216
6.21913 -6.97908 -1.6483
6.2646 -6.98562 -1.65451
6.31036 -6.99215 -1.66076
6.35627 -6.99853 -1.66703
6.42954 -7.0345 -1.68042
6.50552 -7.07271 -1.69443
6.58297 -7.11177 -1.70876
6.66623 -7.15632 -1.72451
5.89154 -6.91281 -1.67949
5.93031 -6.91402 -1.68432
5.96931 -6.91523 -1.68919
6.0093 -6.91734 -1.69433
6.05058 -6.92065 -1.69981
6.0923 -6.92419 -1.70539
6.13471 -6.9282 -1.71113
6.1774 -6.93224 -1.71693
6.22037 -6.93629 -1.72278
6.26362 -6.94037 -1.72869
6.31207 -6.94986 -1.73601
6.36233 -6.96096 -1.74378
6.41639 -6.97581 -1.75256
6.49628 -7.01812 -1.76833
6.57759 -7.06116 -1.7844
6.66412 -7.10897 -1.80178
5.87968 -6.89889 -1.75415
5.91541 -6.89665 -1.75831
6.16485 -7.14176 -1.82575
6.20144 -7.13851 -1.82991
6.19479 -7.0856 -1.82134
6.133 -6.97043 -1.7967
6.1074 -6.89736 -1.78282
6.14921 -6.90061 -1.78867
6.19165 -6.90427 -1.79467
6.23895 -6.91303 -1.80205
6.29071 -6.92635 -1.81068
6.34297 -6.93979 -1.81942
6.39082 -6.94801 -1.82685
6.43873 -6.95594 -1.83426
6.49108 -6.96829 -1.84291
6.57198 -7.01068 -1.85959
6.6617 -7.06162 -1.87867
5.86913 -6.88651 -1.82914
5.90672 -6.88652 -1.83408
5.94453 -6.88652 -1.83907
5.98254 -6.88653 -1.8441
6.02076 -6.88654 -1.84918
6.05918 -6.88654 -1.8543
6.09783 -6.88655 -1.85947
6.13669 -6.88655 -1.86469
6.17577 -6.88656 -1.86995
6.24339 -6.91795 -1.88381
6.26943 -6.90292 -1.88509
6.32141 -6.9162 -1.89416
6.37162 -6.92714 -1.90265
6.41931 -6.93496 -1.91034
6.46737 -6.94284 -1.91812
6.51583 -6.95078 -1.92599
6.5852 -6.98053 -1.93997
6.71917 -7.07769 -1.97285
5.86913 -6.88651 -1.90755
5.90673 -6.88652 -1.9127
5.94453 -6.88653 -1.9179
5.98254 -6.88653 -1.92315
6.02076 -6.88654 -1.92844
6.05919 -6.88654 -1.93378
6.09783 -6.88655 -1.93918
6.13669 -6.88656 -1.94462
6.17577 -6.88656 -1.95011
6.21507 -6.88657 -1.95565
6.25459 -6.88657 -1.96124
6.31237 -6.9063 -1.97252
6.35212 -6.90594 -1.97813
6.39994 -6.91404 -1.98622
6.45088 -6.92513 -1.99524
6.5093 -6.94381 -2.00653
6.57437 -6.96905 -2.0198
6.71332 -7.07153 -2.05563
5.86913 -6.88651 -1.98623
5.90673 -6.88652 -1.9916
5.94453 -6.88653 -1.99701
5.98254 -6.88653 -2.00247
6.02076 -6.88654 -2.00799
6.05919 -6.88654 -2.01355
6.09783 -6.88655 -2.01916
6.13669 -6.88656 -2.02483
6.17577 -6.88656 -2.03055
6.21507 -6.88657 -2.03632
6.25459 -6.88658 -2.04214
6.29434 -6.88658 -2.04802
6.36107 -6.91566 -2.06263
6.39255 -6.90605 -2.06576
6.4503 -6.92451 -2.07736
6.50871 -6.94318 -2.08911
6.56778 -6.96206 -2.10101
6.70745 -7.06535 -2.13855
5.86913 -6.88652 -2.0652
5.90673 -6.88652 -2.07078
5.94453 -6.88653 -2.07641
5.98254 -6.88653 -2.08209
6.02076 -6.88654 -2.08782
6.05919 -6.88655 -2.09361
6.09783 -6.88655 -2.09944
6.13669 -6.88656 -2.10533
6.17577 -6.88656 -2.11128
6.21507 -6.88657 -2.11728
6.25459 -6.88658 -2.12334
6.29434 -6.88658 -2.12945
6.36698 -6.9221 -2.14663
6.39005 -6.90336 -2.14705
6.44894 -6.92306 -2.1595
6.50812 -6.94255 -2.17197
6.56718 -6.96143 -2.18434
6.70158 -7.05917 -2.22163
5.86913 -6.88652 -2.14447
5.90673 -6.88652 -2.15027
5.94453 -6.88653 -2.15611
5.98254 -6.88653 -2.16201
6.02076 -6.88654 -2.16796
6.05919 -6.88655 -2.17397
6.09783 -6.88655 -2.18003
6.13669 -6.88656 -2.18615
6.17577 -6.88657 -2.19232
6.21507 -6.88657 -2.19855
6.25459 -6.88658 -2.20484
6.29435 -6.88658 -2.21119
6.37293 -6.92856 -2.23111
6.38751 -6.90061 -2.22858
6.44636 -6.92028 -2.24149
6.5059 -6.94019 -2.25457
6.56613 -6.96032 -2.26782
5.86913 -6.88652 -2.22406
5.90673 -6.88652 -2.23006
5.94453 -6.88653 -2.23613
5.98254 -6.88654 -2.24224
6.02076 -6.88654 -2.24842
6.05919 -6.88655 -2.25465
6.09783 -6.88655 -2.26093
6.13669 -6.88656 -2.26728
6.17577 -6.88657 -2.27368
6.21507 -6.88657 -2.28014
6.25459 -6.88658 -2.28666
5.86913 -6.88652 -2.30397
5.90673 -6.88652 -2.31019
5.94453 -6.88653 -2.31647
5.98254 -6.88654 -2.32281
6.02076 -6.88654 -2.3292
6.05919 -6.88655 -2.33565
6.09783 -6.88656 -2.34217
6.13669 -6.88656 -2.34874
6.17577 -6.88657 -2.35537
6.21507 -6.88657 -2.36207
5.86913 -6.88652 -2.38422
5.90673 -6.88653 -2.39066
5.94454 -6.88653 -2.39715
5.98254 -6.88654 -2.40371
6.02076 -6.88654 -2.41033
6.05919 -6.88655 -2.41701
6.09784 -6.88656 -2.42375
6.13669 -6.88656 -2.43055
5.86914 -6.88652 -2.46482
5.90673 -6.88653 -2.47147
5.94454 -6.88653 -2.47819
5.98254 -6.88654 -2.48497
3.56865 -8.24229 -1.04981
3.56462 -8.16284 -1.0411
3.56061 -8.08459 -1.03254
3.56262 -8.02103 -1.02584
3.57244 -7.9758 -1.02148
3.58216 -7.93089 -1.01716
3.59309 -7.88922 -1.01325
3.60921 -7.85933 -1.01086
3.62521 -7.82948 -1.00847
3.64039 -7.79819 -1.0059
3.66257 -7.78209 -1.0053
3.68587 -7.76843 -1.00502
3.70914 -7.75473 -1.00474
3.73237 -7.74099 -1.00447
3.75545 -7.72699 -1.00417
3.7785 -7.71293 -1.00388
3.80151 -7.69884 -1.00359
3.82448 -7.68471 -1.0033
3.84742 -7.67054 -1.00302
3.87032 -7.65633 -1.00274
3.89318 -7.64209 -1.00246
3.91601 -7.6278 -1.00219
3.9388 -7.61347 -1.00192
3.96155 -7.59911 -1.00166
3.98427 -7.58471 -1.0014
4.00695 -7.57026 -1.00114
4.0296 -7.55578 -1.00089
4.05421 -7.54498 -1.00113
4.0789 -7.53431 -1.00141
4.10359 -7.5236 -1.00168
4.12828 -7.51286 -1.00197
4.15296 -7.50207 -1.00226
4.17764 -7.49124 -1.00255
4.20231 -7.48037 -1.00285
4.23196 -7.47826 -1.00434
4.264 -7.48019 -1.00638
4.29615 -7.48209 -1.00844
4.32841 -7.48395 -1.01051
4.36078 -7.48578 -1.0126
4.39325 -7.48757 -1.01469
4.42583 -7.48932 -1.0168
4.45853 -7.49103 -1.01892
4.49133 -7.49271 -1.02106
4.52425 -7.49436 -1.02321
4.55727 -7.49596 -1.02537
4.59041 -7.49753 -1.02754
4.62367 -7.49905 -1.02973
4.65717 -7.50076 -1.03196
3.27713 -8.04788 -1.08894
3.28731 -8.00112 -1.084
3.29737 -7.95472 -1.0791
3.30732 -7.90868 -1.07426
3.31794 -7.86486 -1.06971
3.32866 -7.82186 -1.06527
3.34159 -7.78456 -1.06161
3.35876 -7.7575 -1.05935
3.37583 -7.73052 -1.0571
3.39282 -7.70361 -1.05487
3.40972 -7.67679 -1.05265
3.42653 -7.65003 -1.05045
3.44326 -7.62336 -1.04826
3.46009 -7.59718 -1.04614
3.47688 -7.57115 -1.04405
3.49358 -7.5452 -1.04197
3.51207 -7.52331 -1.04046
3.53079 -7.50209 -1.03905
3.54945 -7.48091 -1.03765
3.56805 -7.45975 -1.03626
3.58658 -7.43862 -1.03488
3.61014 -7.428 -1.03497
3.63409 -7.41816 -1.03517
3.65804 -7.40828 -1.03539
3.68198 -7.39836 -1.03561
3.7059 -7.3884 -1.03583
3.72982 -7.3784 -1.03606
3.75373 -7.36836 -1.03629
3.77764 -7.35827 -1.03653
3.80153 -7.34815 -1.03677
3.82542 -7.33798 -1.03702
3.8493 -7.32777 -1.03728
3.87318 -7.31752 -1.03754
3.89705 -7.30723 -1.0378
3.9209 -7.2969 -1.03807
3.94476 -7.28653 -1.03835
3.9686 -7.27611 -1.03863
3.99394 -7.26837 -1.0393
4.02065 -7.26306 -1.04033
4.04741 -7.25772 -1.04138
4.07422 -7.25235 -1.04243
4.1013 -7.24738 -1.04356
4.12845 -7.24239 -1.04469
4.15564 -7.23738 -1.04584
4.18289 -7.23233 -1.047
4.21018 -7.22726 -1.04816
4.23906 -7.22477 -1.04972
4.26964 -7.225 -1.05169
4.30032 -7.22521 -1.05367
4.3311 -7.2254 -1.05567
4.36199 -7.22557 -1.05769
4.39298 -7.22572 -1.05971
4.42408 -7.22585 -1.06176
4.45528 -7.22596 -1.06382
4.4866 -7.22604 -1.06589
4.51802 -7.2261 -1.06798
4.54955 -7.22615 -1.07008
4.58012 -7.22447 -1.07195
4.61074 -7.2227 -1.07382
4.64145 -7.2209 -1.07571
4.67225 -7.21906 -1.07761
4.72469 -7.25026 -1.08447
4.81367 -7.33653 -1.09962
4.91076 -7.43369 -1.11648
3.13267 -7.69311 -1.11113
3.15023 -7.66748 -1.10885
3.16771 -7.64193 -1.10658
3.18511 -7.61644 -1.10433
3.20241 -7.59102 -1.10209
3.21964 -7.56566 -1.09986
3.23677 -7.54037 -1.09765
3.25466 -7.51707 -1.09574
3.2736 -7.49641 -1.09422
3.29247 -7.47578 -1.0927
3.31129 -7.45517 -1.0912
3.33003 -7.43459 -1.08971
3.34871 -7.41404 -1.08822
3.36733 -7.39351 -1.08675
3.38588 -7.37301 -1.08529
3.4044 -7.35258 -1.08384
3.42284 -7.33218 -1.08241
3.44123 -7.31179 -1.08099
3.45956 -7.29144 -1.07957
3.47782 -7.27111 -1.07817
3.49797 -7.25484 -1.07737
3.51962 -7.24175 -1.07706
3.54171 -7.22957 -1.07689
3.56377 -7.21737 -1.07673
3.58768 -7.20889 -1.07713
3.61337 -7.20393 -1.07807
3.6391 -7.19893 -1.07902
3.66486 -7.19391 -1.07998
3.6907 -7.18893 -1.08096
3.71675 -7.18426 -1.08201
3.74284 -7.17957 -1.08306
3.76897 -7.17485 -1.08412
3.7952 -7.17021 -1.08521
3.82325 -7.16887 -1.08681
3.85138 -7.16751 -1.08842
3.87959 -7.16615 -1.09006
3.90788 -7.16478 -1.0917
3.93625 -7.1634 -1.09336
3.96471 -7.16201 -1.09504
3.99326 -7.16061 -1.09673
4.02189 -7.1592 -1.09843
4.0506 -7.15778 -1.10016
4.0794 -7.15635 -1.10189
4.10829 -7.15491 -1.10364
4.13728 -7.15347 -1.10541
4.16635 -7.15201 -1.10719
4.19559 -7.15068 -1.10902
4.22505 -7.14955 -1.11089
4.25462 -7.14844 -1.11277
4.28439 -7.14747 -1.11471
4.31425 -7.1465 -1.11665
4.34422 -7.14552 -1.11862
4.37429 -7.14453 -1.1206
4.40446 -7.14353 -1.1226
4.43474 -7.14253 -1.12462
4.46513 -7.14151 -1.12665
4.49562 -7.14048 -1.1287
4.52622 -7.13945 -1.13077
4.55693 -7.13841 -1.13286
4.58775 -7.13735 -1.13496
4.61868 -7.13629 -1.13709
4.64977 -7.13529 -1.13924
4.68121 -7.13464 -1.14147
4.71347 -7.13504 -1.14389
4.74708 -7.13726 -1.14662
4.78084 -7.13948 -1.14937
4.81608 -7.14367 -1.15247
4.85427 -7.15195 -1.15625
4.89623 -7.16543 -1.1609
4.95737 -7.2064 -1.17004
5.04309 -7.28211 -1.18489
5.13095 -7.35968 -1.20012
3.04805 -7.4853 -1.14957
3.06508 -7.46021 -1.14718
3.08239 -7.43609 -1.14495
3.09973 -7.41229 -1.14277
3.117 -7.38855 -1.14061
3.13573 -7.36849 -1.13902
3.15445 -7.34859 -1.13747
3.17311 -7.32872 -1.13592
3.19171 -7.30888 -1.13439
3.21024 -7.28905 -1.13287
3.22871 -7.26925 -1.13135
3.24813 -7.25174 -1.1302
3.26909 -7.23776 -1.12961
3.29003 -7.22378 -1.12903
3.31093 -7.20979 -1.12846
3.33252 -7.19734 -1.12814
3.35435 -7.18546 -1.12791
3.37617 -7.17356 -1.1277
3.40116 -7.16836 -1.12855
3.42696 -7.16478 -1.12967
3.45282 -7.16119 -1.1308
3.47872 -7.15759 -1.13194
3.50468 -7.15398 -1.1331
3.53068 -7.15036 -1.13427
3.55678 -7.1468 -1.13547
3.58406 -7.14549 -1.13703
3.61142 -7.14417 -1.13862
3.63885 -7.14284 -1.14021
3.66635 -7.1415 -1.14182
3.69393 -7.14016 -1.14345
3.72158 -7.1388 -1.14509
3.74932 -7.13743 -1.14675
3.77712 -7.13605 -1.14842
3.80501 -7.13467 -1.15011
3.83298 -7.13327 -1.15181
3.86103 -7.13186 -1.15353
3.88916 -7.13045 -1.15526
3.91737 -7.12902 -1.15701
3.94566 -7.12759 -1.15877
3.97404 -7.12614 -1.16056
4.0025 -7.12469 -1.16235
4.03104 -7.12322 -1.16416
4.05967 -7.12174 -1.16599
4.08839 -7.12026 -1.16784
4.1174 -7.1191 -1.16976
4.1465 -7.11794 -1.17169
4.17569 -7.11677 -1.17364
4.20498 -7.11558 -1.17561
4.23436 -7.11439 -1.1776
4.26384 -7.1132 -1.1796
4.29353 -7.11217 -1.18165
4.32332 -7.11114 -1.18372
4.35321 -7.11009 -1.18581
4.3832 -7.10904 -1.18791
4.41329 -7.10797 -1.19004
4.44349 -7.1069 -1.19218
4.47379 -7.10582 -1.19434
4.5042 -7.10472 -1.19652
4.53472 -7.10362 -1.19872
4.56535 -7.10251 -1.20093
4.59609 -7.10139 -1.20317
4.6272 -7.10066 -1.20549
4.65844 -7.09994 -1.20784
4.6898 -7.09921 -1.2102
4.72128 -7.09847 -1.21259
4.75401 -7.09941 -1.21529
4.78767 -7.10153 -1.21821
4.82149 -7.10365 -1.22115
4.85547 -7.10577 -1.22412
4.88962 -7.1079 -1.22712
4.92392 -7.11003 -1.23014
4.9584 -7.11217 -1.23319
4.99384 -7.11545 -1.23646
5.03291 -7.12363 -1.24061
5.07225 -7.13186 -1.2448
5.11184 -7.14012 -1.24903
5.15169 -7.14843 -1.25329
2.98006 -7.31833 -1.19101
2.99725 -7.29514 -1.18875
3.01442 -7.27211 -1.18653
3.03176 -7.24974 -1.18442
3.05126 -7.23273 -1.1832
3.07098 -7.21635 -1.18208
3.09111 -7.20103 -1.18115
3.11119 -7.18572 -1.18023
3.13153 -7.17109 -1.17943
3.15606 -7.16604 -1.18022
3.18185 -7.16376 -1.18148
3.20716 -7.16026 -1.18255
3.23251 -7.15676 -1.18364
3.2579 -7.15325 -1.18474
3.28334 -7.14972 -1.18585
3.30883 -7.14618 -1.18697
3.33436 -7.14262 -1.18811
3.35993 -7.13906 -1.18926
3.38556 -7.13548 -1.19042
3.41123 -7.13189 -1.1916
3.43695 -7.12829 -1.19278
3.46272 -7.12467 -1.19399
3.48854 -7.12104 -1.1952
3.51441 -7.1174 -1.19643
3.54032 -7.11374 -1.19767
3.5672 -7.11187 -1.19923
3.5944 -7.11051 -1.20089
3.62168 -7.10914 -1.20257
3.64903 -7.10776 -1.20426
3.67645 -7.10637 -1.20596
3.70395 -7.10497 -1.20769
3.73152 -7.10356 -1.20943
3.75917 -7.10214 -1.21118
3.78691 -7.10071 -1.21295
3.81471 -7.09927 -1.21474
3.8426 -7.09782 -1.21654
3.87056 -7.09636 -1.21836
3.89861 -7.09489 -1.2202
3.92674 -7.09341 -1.22205
3.95495 -7.09192 -1.22392
3.98325 -7.09042 -1.2258
4.01174 -7.08911 -1.22774
4.04039 -7.08792 -1.22972
4.06914 -7.08673 -1.23171
4.09798 -7.08552 -1.23373
4.12691 -7.08431 -1.23576
4.15593 -7.08309 -1.23781
4.18504 -7.08186 -1.23987
4.21426 -7.08061 -1.24196
4.24356 -7.07936 -1.24406
4.27296 -7.0781 -1.24618
4.30257 -7.077 -1.24835
4.33227 -7.0759 -1.25054
4.36208 -7.07479 -1.25275
4.39199 -7.07367 -1.25498
4.42201 -7.07254 -1.25723
4.45213 -7.0714 -1.2595
4.48235 -7.07025 -1.26178
4.51268 -7.06909 -1.26409
4.54312 -7.06792 -1.26641
4.57387 -7.06705 -1.26882
4.60479 -7.06627 -1.27126
4.63584 -7.06549 -1.27372
4.667 -7.0647 -1.2762
4.69828 -7.0639 -1.27871
4.72968 -7.06309 -1.28123
4.7612 -7.06227 -1.28378
4.79439 -7.06372 -1.28676
4.82812 -7.06574 -1.28988
4.862 -7.06776 -1.29301
4.89604 -7.06978 -1.29618
4.93025 -7.0718 -1.29937
4.96462 -7.07383 -1.30259
4.99916 -7.07586 -1.30584
5.03387 -7.07789 -1.30912
5.06875 -7.07993 -1.31242
5.10379 -7.08197 -1.31575
5.13902 -7.08401 -1.31911
5.17492 -7.08676 -1.32263
5.2169 -7.09751 -1.32768
5.25874 -7.10774 -1.33266
5.3009 -7.11803 -1.33769
5.34336 -7.12839 -1.34277
5.86577 -7.77452 -1.46794
5.89474 -7.76229 -1.4691
5.92371 -7.74998 -1.47027
5.95268 -7.73759 -1.47145
5.98166 -7.72513 -1.47263
6.01063 -7.71258 -1.47381
6.03961 -7.69996 -1.47501
6.06858 -7.68726 -1.4762
6.11093 -7.6913 -1.48064
6.17739 -7.7252 -1.49088
6.2518 -7.76831 -1.50297
2.9264 -7.18657 -1.2356
2.94437 -7.16642 -1.23372
2.96797 -7.16007 -1.23422
2.99218 -7.1551 -1.23497
3.01641 -7.15013 -1.23573
3.04068 -7.14514 -1.23651
3.06497 -7.14014 -1.23729
3.08928 -7.13512 -1.23809
3.11363 -7.13009 -1.2389
3.138 -7.12504 -1.23973
3.16387 -7.12327 -1.24114
3.19008 -7.12214 -1.24267
3.21672 -7.12182 -1.24437
3.24306 -7.12067 -1.24593
3.26837 -7.11712 -1.24709
3.29373 -7.11357 -1.24827
3.31913 -7.11 -1.24946
3.34457 -7.10642 -1.25066
3.37006 -7.10283 -1.25188
3.3956 -7.09922 -1.25311
3.42119 -7.0956 -1.25436
3.44682 -7.09197 -1.25561
3.47251 -7.08832 -1.25689
3.49824 -7.08466 -1.25817
3.52403 -7.08099 -1.25947
3.55045 -7.07848 -1.26099
3.5775 -7.07708 -1.26273
3.60463 -7.07567 -1.26449
3.63182 -7.07425 -1.26626
3.65909 -7.07282 -1.26804
3.68644 -7.07138 -1.26985
3.71386 -7.06993 -1.27167
3.74135 -7.06847 -1.2735
3.76892 -7.067 -1.27536
3.79657 -7.06552 -1.27723
3.8243 -7.06402 -1.27911
3.85211 -7.06252 -1.28102
3.87999 -7.06101 -1.28294
3.90799 -7.05954 -1.28489
3.93622 -7.05834 -1.2869
3.96454 -7.05713 -1.28894
3.99295 -7.0559 -1.29099
4.02144 -7.05467 -1.29306
4.05002 -7.05343 -1.29515
4.0787 -7.05218 -1.29725
4.10746 -7.05092 -1.29938
4.13631 -7.04965 -1.30152
4.16525 -7.04836 -1.30369
4.19429 -7.04707 -1.30587
4.22342 -7.04577 -1.30807
4.25265 -7.04446 -1.31029
4.28197 -7.04313 -1.31253
4.31149 -7.04195 -1.31482
4.34112 -7.04079 -1.31713
4.37085 -7.03962 -1.31946
4.40068 -7.03843 -1.32181
4.43062 -7.03724 -1.32418
4.46065 -7.03603 -1.32658
4.4908 -7.03481 -1.32899
4.52119 -7.0338 -1.33146
4.55181 -7.03297 -1.334
4.58255 -7.03214 -1.33655
4.6134 -7.03129 -1.33913
4.64437 -7.03044 -1.34172
4.67545 -7.02958 -1.34434
4.70666 -7.0287 -1.34699
4.73798 -7.02782 -1.34965
4.76942 -7.02693 -1.35234
4.801 -7.02605 -1.35505
4.83463 -7.02796 -1.35833
4.86841 -7.02988 -1.36164
4.90236 -7.03179 -1.36497
4.93647 -7.03371 -1.36834
4.97074 -7.03563 -1.37173
5.00518 -7.03755 -1.37515
5.03978 -7.03947 -1.3786
5.07455 -7.0414 -1.38208
5.10821 -7.04155 -1.38524
5.14117 -7.04053 -1.3882
5.17426 -7.0395 -1.39118
5.20749 -7.03846 -1.39419
5.24085 -7.03741 -1.39722
5.2788 -7.04226 -1.40145
5.31986 -7.05098 -1.40649
5.36236 -7.06125 -1.41188
5.40656 -7.07339 -1.41769
5.45111 -7.08562 -1.42355
5.49601 -7.09792 -1.42947
5.57181 -7.14951 -1.44336
5.64658 -7.19888 -1.45689
5.72391 -7.25065 -1.47098
5.79081 -7.28839 -1.4823
5.82592 -7.28566 -1.48545
5.86113 -7.28287 -1.48861
5.89644 -7.28 -1.49179
5.93193 -7.27715 -1.495
5.96833 -7.2752 -1.49843
6.00484 -7.27319 -1.50187
6.04147 -7.2711 -1.50534
6.08928 -7.28218 -1.51157
6.14776 -7.30554 -1.5204
6.20684 -7.32908 -1.52934
2.90173 -7.12598 -1.29084
2.92555 -7.12063 -1.29152
2.9505 -7.11791 -1.2927
2.97518 -7.11445 -1.29375
2.99926 -7.10948 -1.29455
3.02338 -7.10449 -1.29536
3.04752 -7.09949 -1.29618
3.07169 -7.09448 -1.29701
3.09588 -7.08945 -1.29786
3.12019 -7.08459 -1.29875
3.14614 -7.08335 -1.30032
3.17214 -7.0821 -1.3019
3.19821 -7.08083 -1.3035
3.22468 -7.0803 -1.30526
3.25128 -7.0799 -1.30705
3.27795 -7.07949 -1.30886
3.304 -7.07759 -1.31042
3.32931 -7.07399 -1.31167
3.35467 -7.07038 -1.31294
3.38008 -7.06676 -1.31423
3.40553 -7.06313 -1.31553
3.43103 -7.05948 -1.31684
3.45659 -7.05582 -1.31817
3.48218 -7.05214 -1.31951
3.50783 -7.04845 -1.32087
3.53382 -7.04532 -1.32234
3.56072 -7.04388 -1.32416
3.58769 -7.04243 -1.32599
3.61474 -7.04097 -1.32784
3.64186 -7.0395 -1.3297
3.66905 -7.03802 -1.33158
3.69631 -7.03653 -1.33348
