ply
format ascii 1.0
comment Created by Open3D
element vertex 1852
property double x
property double y
property double z
end_header
1.50858 -3.99302 -1.04919
1.51937 -3.9838 -1.04802
1.53014 -3.97457 -1.04685
1.54087 -3.96535 -1.04568
1.55157 -3.95612 -1.04453
1.56224 -3.94689 -1.04338
1.57288 -3.93766 -1.04224
1.58349 -3.92843 -1.0411
1.59497 -3.92144 -1.04057
1.60736 -3.91669 -1.04064
1.61974 -3.9119 -1.04071
1.63211 -3.90709 -1.04079
1.64447 -3.90225 -1.04086
1.65682 -3.89739 -1.04095
1.66916 -3.8925 -1.04103
1.6815 -3.88758 -1.04112
1.69382 -3.88264 -1.04121
1.70614 -3.87767 -1.04131
1.71845 -3.87267 -1.04141
1.73075 -3.86765 -1.04151
1.74303 -3.86261 -1.04162
1.75532 -3.85753 -1.04173
1.76759 -3.85243 -1.04184
1.77985 -3.8473 -1.04196
1.79211 -3.84215 -1.04208
1.80435 -3.83697 -1.0422
1.81659 -3.83177 -1.04233
1.82882 -3.82653 -1.04246
1.84103 -3.82127 -1.0426
1.85324 -3.81599 -1.04273
1.86545 -3.81068 -1.04287
1.87782 -3.80571 -1.04312
1.89107 -3.80249 -1.04386
1.90433 -3.79925 -1.0446
1.91761 -3.79599 -1.04535
1.93089 -3.79271 -1.04611
1.94419 -3.78941 -1.04687
1.9575 -3.78609 -1.04765
1.97082 -3.78275 -1.04843
1.98415 -3.77939 -1.04921
1.9975 -3.77601 -1.05001
2.01095 -3.7728 -1.05086
2.02443 -3.76958 -1.05173
2.03793 -3.76634 -1.0526
2.05144 -3.76309 -1.05348
2.06496 -3.75981 -1.05437
2.0785 -3.75651 -1.05527
2.09205 -3.7532 -1.05617
2.10562 -3.74986 -1.05708
2.11921 -3.7465 -1.058
0.968729 -4.45872 -1.16182
0.978956 -4.4387 -1.15739
0.989096 -4.41879 -1.15301
0.99915 -4.39899 -1.14865
1.00912 -4.3793 -1.14433
1.019 -4.35971 -1.14004
1.02881 -4.34024 -1.13578
1.03919 -4.32363 -1.13229
1.05025 -4.31015 -1.12961
1.06125 -4.2967 -1.12695
1.07218 -4.28328 -1.12431
1.08307 -4.2699 -1.12168
1.09389 -4.25655 -1.11907
1.10465 -4.24325 -1.11648
1.11602 -4.23243 -1.11455
1.12741 -4.22193 -1.11271
1.13876 -4.21144 -1.11087
1.15006 -4.20095 -1.10905
1.16132 -4.19046 -1.10724
1.17253 -4.17998 -1.10544
1.1837 -4.16951 -1.10364
1.19482 -4.15904 -1.10186
1.2059 -4.14858 -1.10008
1.21694 -4.13813 -1.09832
1.22793 -4.12768 -1.09656
1.23889 -4.11723 -1.09481
1.24979 -4.10679 -1.09307
1.26066 -4.09636 -1.09134
1.27148 -4.08594 -1.08962
1.28226 -4.07551 -1.0879
1.29299 -4.0651 -1.0862
1.30416 -4.05616 -1.0849
1.3153 -4.04724 -1.08361
1.32641 -4.03832 -1.08233
1.33748 -4.02941 -1.08106
1.34852 -4.02048 -1.07979
1.35953 -4.01156 -1.07854
1.3705 -4.00264 -1.07729
1.38145 -3.99371 -1.07604
1.39235 -3.98478 -1.07481
1.40323 -3.97585 -1.07358
1.41407 -3.96691 -1.07236
1.42488 -3.95797 -1.07114
1.43566 -3.94903 -1.06994
1.4464 -3.94009 -1.06874
1.45711 -3.93115 -1.06754
1.46779 -3.9222 -1.06636
1.47844 -3.91325 -1.06518
1.48906 -3.9043 -1.06401
1.49964 -3.89535 -1.06284
1.51019 -3.88639 -1.06169
1.52071 -3.87744 -1.06053
1.53121 -3.86847 -1.05939
1.54166 -3.85951 -1.05825
1.55209 -3.85055 -1.05712
1.56249 -3.84158 -1.056
1.57286 -3.83261 -1.05489
1.58319 -3.82363 -1.05378
1.59398 -3.81581 -1.05299
1.60605 -3.81108 -1.05307
1.61811 -3.80632 -1.05315
1.6306 -3.80258 -1.05352
1.64348 -3.79969 -1.05415
1.65637 -3.79679 -1.05477
1.66927 -3.79386 -1.05541
1.68217 -3.79092 -1.05605
1.69508 -3.78796 -1.0567
1.70801 -3.78498 -1.05736
1.72094 -3.78198 -1.05802
1.73388 -3.77897 -1.05869
1.74683 -3.77593 -1.05937
1.75979 -3.77287 -1.06006
1.77276 -3.7698 -1.06075
1.78574 -3.7667 -1.06145
1.79873 -3.76359 -1.06215
1.81173 -3.76046 -1.06287
1.82474 -3.7573 -1.06359
1.83776 -3.75413 -1.06431
1.85082 -3.75098 -1.06506
1.86395 -3.74796 -1.06586
1.8771 -3.74493 -1.06666
1.89027 -3.74187 -1.06747
1.90344 -3.73879 -1.06829
1.91663 -3.7357 -1.06912
1.92983 -3.73258 -1.06995
1.94305 -3.72945 -1.07079
1.95628 -3.72629 -1.07164
1.96952 -3.72312 -1.0725
1.98277 -3.71992 -1.07336
1.99604 -3.71671 -1.07423
2.00932 -3.71347 -1.07511
2.02262 -3.71022 -1.076
2.03592 -3.70694 -1.0769
2.05036 -3.70565 -1.07838
2.06494 -3.70455 -1.07994
2.07956 -3.70345 -1.08151
2.09423 -3.70234 -1.0831
0.938224 -4.31832 -1.16442
0.949495 -4.30512 -1.16166
0.960707 -4.29196 -1.15892
0.971859 -4.27884 -1.15619
0.982953 -4.26574 -1.15348
0.993988 -4.25269 -1.15079
1.00497 -4.23966 -1.14811
1.01588 -4.22667 -1.14545
1.02675 -4.2137 -1.1428
1.03755 -4.20078 -1.14017
1.0483 -4.18788 -1.13755
1.059 -4.17501 -1.13496
1.06964 -4.16218 -1.13237
1.08022 -4.14938 -1.12981
1.09075 -4.13661 -1.12725
1.10122 -4.12387 -1.12472
1.11193 -4.11224 -1.12249
1.12301 -4.10215 -1.12069
1.13405 -4.09207 -1.1189
1.14504 -4.082 -1.11712
1.15599 -4.07192 -1.11535
1.1669 -4.06185 -1.11359
1.178 -4.05258 -1.11205
1.18925 -4.04397 -1.11071
1.20047 -4.03535 -1.10937
1.21165 -4.02673 -1.10804
1.2228 -4.0181 -1.10671
1.23392 -4.00948 -1.1054
1.245 -4.00085 -1.10409
1.25605 -3.99221 -1.10279
1.26706 -3.98358 -1.10149
1.27805 -3.97494 -1.10021
1.289 -3.9663 -1.09893
1.29991 -3.95765 -1.09765
1.3108 -3.94901 -1.09639
1.32165 -3.94036 -1.09513
1.33247 -3.93172 -1.09389
1.34326 -3.92307 -1.09265
1.35402 -3.91442 -1.09141
1.36474 -3.90576 -1.09019
1.37544 -3.89711 -1.08897
1.3861 -3.88845 -1.08776
1.39673 -3.87978 -1.08655
1.40733 -3.87112 -1.08536
1.4179 -3.86245 -1.08417
1.42843 -3.85378 -1.08298
1.43894 -3.8451 -1.08181
1.44941 -3.83642 -1.08064
1.45986 -3.82774 -1.07948
1.47027 -3.81905 -1.07832
1.48065 -3.81036 -1.07717
1.491 -3.80167 -1.07603
1.50208 -3.79488 -1.07543
1.51321 -3.78827 -1.0749
1.5246 -3.78234 -1.07457
1.53605 -3.77658 -1.07429
1.54749 -3.7708 -1.07402
1.55892 -3.76501 -1.07376
1.57034 -3.75921 -1.07351
1.58228 -3.75467 -1.07362
1.59494 -3.75184 -1.07423
1.60762 -3.74898 -1.07485
1.6203 -3.7461 -1.07548
1.633 -3.74321 -1.07611
1.6457 -3.7403 -1.07675
1.6584 -3.73736 -1.0774
1.67112 -3.73441 -1.07805
1.68385 -3.73144 -1.07871
1.69658 -3.72845 -1.07938
1.70939 -3.72559 -1.0801
1.72223 -3.72275 -1.08083
1.73508 -3.71989 -1.08157
1.74794 -3.717 -1.08232
1.76081 -3.7141 -1.08308
1.77369 -3.71118 -1.08384
1.78658 -3.70825 -1.08462
1.7998 -3.70595 -1.08559
1.81369 -3.70496 -1.08696
1.82762 -3.70397 -1.08834
1.84158 -3.70298 -1.08974
1.85558 -3.70197 -1.09115
1.8696 -3.70096 -1.09257
1.88366 -3.69994 -1.09401
1.89776 -3.69891 -1.09546
1.91189 -3.69788 -1.09692
1.92606 -3.69683 -1.0984
1.94026 -3.69578 -1.09989
1.9545 -3.69472 -1.10139
1.96877 -3.69366 -1.1029
1.98308 -3.69258 -1.10443
1.99743 -3.6915 -1.10598
2.01182 -3.69041 -1.10753
2.02624 -3.68931 -1.1091
2.0407 -3.6882 -1.11069
2.0552 -3.68709 -1.11228
2.06974 -3.68596 -1.1139
2.08432 -3.68483 -1.11552
0.917262 -4.22184 -1.17689
0.928332 -4.20917 -1.17417
0.939344 -4.19653 -1.17146
0.9503 -4.18392 -1.16876
0.961199 -4.17134 -1.16608
0.972042 -4.15879 -1.16342
0.98283 -4.14627 -1.16078
0.993561 -4.13378 -1.15815
1.00424 -4.12132 -1.15553
1.01486 -4.10889 -1.15293
1.02543 -4.09649 -1.15035
1.03594 -4.08412 -1.14778
1.0464 -4.07177 -1.14523
1.05681 -4.05946 -1.14269
1.06732 -4.04776 -1.14033
1.07802 -4.03697 -1.13824
1.08867 -4.0262 -1.13616
1.09939 -4.01587 -1.13421
1.11009 -4.00563 -1.13229
1.12121 -3.99702 -1.13085
1.13236 -3.98869 -1.12949
1.14349 -3.98036 -1.12814
1.15458 -3.97202 -1.1268
1.16564 -3.96369 -1.12546
1.17667 -3.95534 -1.12413
1.18766 -3.947 -1.12281
1.19862 -3.93864 -1.1215
1.20955 -3.93029 -1.1202
1.22044 -3.92193 -1.1189
1.2313 -3.91357 -1.11761
1.24213 -3.9052 -1.11633
1.25293 -3.89683 -1.11505
1.2637 -3.88846 -1.11378
1.27443 -3.88008 -1.11252
1.28513 -3.8717 -1.11127
1.29581 -3.86331 -1.11002
1.30645 -3.85492 -1.10878
1.31705 -3.84653 -1.10755
1.32763 -3.83813 -1.10632
1.33818 -3.82973 -1.1051
1.34869 -3.82132 -1.10389
1.35917 -3.81291 -1.10269
1.36963 -3.8045 -1.10149
1.38017 -3.79642 -1.1004
1.39131 -3.79003 -1.0998
1.40243 -3.78363 -1.09921
1.41353 -3.77722 -1.09863
1.42462 -3.7708 -1.09806
1.43585 -3.76479 -1.09762
1.44722 -3.75919 -1.0973
1.45858 -3.75358 -1.09699
1.46993 -3.74796 -1.09669
1.48127 -3.74232 -1.09639
1.4926 -3.73667 -1.0961
1.50391 -3.73101 -1.09582
1.51521 -3.72534 -1.09554
1.5265 -3.71966 -1.09527
1.53778 -3.71396 -1.09501
1.54905 -3.70825 -1.09475
1.56126 -3.7048 -1.09517
1.57456 -3.70388 -1.09635
1.5879 -3.70299 -1.09756
1.60127 -3.7021 -1.09878
1.61467 -3.70121 -1.10001
1.6281 -3.7003 -1.10125
1.64155 -3.69939 -1.1025
1.65504 -3.69847 -1.10377
1.66855 -3.69755 -1.10505
1.68209 -3.69662 -1.10634
1.69567 -3.69568 -1.10764
1.70927 -3.69473 -1.10896
1.7229 -3.69378 -1.11029
1.73656 -3.69281 -1.11163
1.75025 -3.69185 -1.11298
1.76398 -3.69087 -1.11435
1.77773 -3.68989 -1.11573
1.79152 -3.68889 -1.11712
1.80534 -3.6879 -1.11853
1.81919 -3.68689 -1.11995
1.83308 -3.68587 -1.12138
1.84699 -3.68485 -1.12282
1.86094 -3.68382 -1.12428
1.87493 -3.68278 -1.12575
1.88895 -3.68174 -1.12723
1.903 -3.68069 -1.12873
1.91709 -3.67962 -1.13024
1.93121 -3.67856 -1.13177
1.94537 -3.67748 -1.13331
1.95957 -3.67639 -1.13486
1.9738 -3.6753 -1.13643
1.98807 -3.6742 -1.13801
2.00237 -3.67309 -1.1396
2.01672 -3.67197 -1.14121
2.0311 -3.67084 -1.14283
2.04552 -3.66971 -1.14447
2.05997 -3.66856 -1.14612
2.07447 -3.66741 -1.14778
0.897229 -4.12963 -1.18901
0.908104 -4.11745 -1.18631
0.918923 -4.10529 -1.18363
0.929686 -4.09316 -1.18097
0.940396 -4.08106 -1.17832
0.951052 -4.06898 -1.17569
0.961653 -4.05693 -1.17307
0.972335 -4.04547 -1.17063
0.983183 -4.03491 -1.16847
0.993984 -4.02437 -1.16631
1.00474 -4.01385 -1.16417
1.01545 -4.00334 -1.16203
1.02612 -3.99284 -1.15991
1.03674 -3.98236 -1.15781
1.04732 -3.97189 -1.15571
1.0579 -3.96166 -1.15369
1.06852 -3.9517 -1.15177
1.0791 -3.94176 -1.14985
1.08964 -3.93183 -1.14794
1.10014 -3.92191 -1.14605
1.11059 -3.91201 -1.14416
1.12111 -3.90246 -1.14239
1.13201 -3.89437 -1.14106
1.14288 -3.88629 -1.13973
1.15372 -3.8782 -1.13841
1.16452 -3.8701 -1.1371
1.17529 -3.862 -1.1358
1.18604 -3.85389 -1.1345
1.19675 -3.84578 -1.13322
1.20743 -3.83767 -1.13193
1.21807 -3.82955 -1.13066
1.22869 -3.82143 -1.12939
1.23927 -3.8133 -1.12813
1.24983 -3.80517 -1.12688
1.26035 -3.79703 -1.12563
1.27126 -3.79013 -1.12476
1.28239 -3.78394 -1.12412
1.2935 -3.77775 -1.12347
1.3046 -3.77155 -1.12284
1.31568 -3.76533 -1.12221
1.32673 -3.75911 -1.12159
1.33777 -3.75287 -1.12097
1.34888 -3.74688 -1.12044
1.36019 -3.74144 -1.12008
1.37148 -3.73599 -1.11973
1.38275 -3.73053 -1.11939
1.39402 -3.72506 -1.11905
1.40527 -3.71958 -1.11872
1.41651 -3.71408 -1.1184
1.42773 -3.70857 -1.11808
1.43993 -3.70559 -1.11854
1.45257 -3.70369 -1.11934
1.46523 -3.70179 -1.12014
1.4779 -3.69989 -1.12096
1.49059 -3.69797 -1.12179
1.5033 -3.69605 -1.12263
1.51602 -3.69412 -1.12348
1.52876 -3.69218 -1.12434
1.54152 -3.69023 -1.12522
1.5543 -3.68828 -1.1261
1.56745 -3.68715 -1.12725
1.58072 -3.68625 -1.12849
1.59403 -3.68535 -1.12973
1.60736 -3.68444 -1.13099
1.62072 -3.68352 -1.13226
1.6341 -3.68259 -1.13355
1.64752 -3.68166 -1.13484
1.66096 -3.68072 -1.13615
1.67443 -3.67977 -1.13747
1.68793 -3.67882 -1.13881
1.70146 -3.67786 -1.14016
1.71502 -3.67689 -1.14152
1.72861 -3.67591 -1.14289
1.74223 -3.67492 -1.14427
1.75588 -3.67393 -1.14567
1.76956 -3.67293 -1.14708
1.78328 -3.67192 -1.14851
1.79702 -3.67091 -1.14995
1.8108 -3.66988 -1.1514
1.82461 -3.66885 -1.15286
1.83845 -3.66781 -1.15434
1.85233 -3.66677 -1.15583
1.86624 -3.66571 -1.15734
1.88018 -3.66465 -1.15886
1.89416 -3.66358 -1.16039
1.90817 -3.6625 -1.16194
1.92221 -3.66141 -1.1635
1.9363 -3.66031 -1.16507
1.95041 -3.65921 -1.16666
1.96456 -3.6581 -1.16826
1.97875 -3.65698 -1.16988
1.99298 -3.65585 -1.17151
2.00724 -3.65471 -1.17316
2.02154 -3.65357 -1.17482
2.03588 -3.65241 -1.17649
2.05025 -3.65125 -1.17818
2.06466 -3.65008 -1.17988
0.878125 -4.0417 -1.20087
0.889121 -4.03138 -1.19863
0.900071 -4.02107 -1.1964
0.910975 -4.01078 -1.19418
0.921834 -4.0005 -1.19197
0.932647 -3.99024 -1.18978
0.943414 -3.97999 -1.1876
0.954136 -3.96975 -1.18543
0.964814 -3.95953 -1.18327
0.975448 -3.94932 -1.18113
0.986036 -3.93913 -1.179
0.996583 -3.92895 -1.17688
1.00708 -3.91878 -1.17478
1.01754 -3.90863 -1.17269
1.02808 -3.89897 -1.17074
1.03859 -3.8893 -1.16882
1.04904 -3.87965 -1.1669
1.05946 -3.87001 -1.16499
1.06984 -3.86038 -1.16309
1.08018 -3.85075 -1.16121
1.09048 -3.84114 -1.15933
1.10074 -3.83153 -1.15747
1.11096 -3.82194 -1.15562
1.12114 -3.81235 -1.15377
1.13154 -3.80366 -1.15221
1.14217 -3.7958 -1.15091
1.15295 -3.78858 -1.14981
1.1641 -3.78261 -1.1491
1.17523 -3.77663 -1.1484
1.18634 -3.77064 -1.1477
1.19743 -3.76464 -1.14701
1.2085 -3.75863 -1.14633
1.21955 -3.75261 -1.14565
1.23059 -3.74658 -1.14498
1.2416 -3.74054 -1.14432
1.2526 -3.73449 -1.14366
1.26363 -3.72859 -1.14306
1.27487 -3.72331 -1.14267
1.28609 -3.71803 -1.14227
1.29729 -3.71273 -1.14189
1.30859 -3.70769 -1.1416
1.32102 -3.70587 -1.14231
1.33346 -3.70404 -1.14302
1.34592 -3.70221 -1.14375
1.3584 -3.70037 -1.1445
1.37089 -3.69852 -1.14525
1.38339 -3.69666 -1.14601
1.39591 -3.6948 -1.14678
1.40844 -3.69293 -1.14756
1.42099 -3.69105 -1.14836
1.43355 -3.68916 -1.14916
1.44613 -3.68727 -1.14998
1.45873 -3.68536 -1.15081
1.47134 -3.68345 -1.15164
1.48397 -3.68153 -1.15249
1.49661 -3.67961 -1.15335
1.50927 -3.67767 -1.15422
1.52195 -3.67573 -1.1551
1.53465 -3.67378 -1.15599
1.54736 -3.67182 -1.1569
1.56037 -3.6705 -1.15802
1.57358 -3.66959 -1.15928
1.58681 -3.66867 -1.16056
1.60007 -3.66774 -1.16184
1.61336 -3.66681 -1.16314
1.62668 -3.66587 -1.16446
1.64003 -3.66492 -1.16578
1.6534 -3.66397 -1.16712
1.6668 -3.663 -1.16847
1.68023 -3.66203 -1.16984
1.69369 -3.66106 -1.17121
1.70718 -3.66007 -1.1726
1.7207 -3.65908 -1.17401
1.73425 -3.65808 -1.17542
1.74782 -3.65707 -1.17685
1.76143 -3.65605 -1.1783
1.77507 -3.65503 -1.17976
1.78875 -3.654 -1.18123
1.80245 -3.65296 -1.18271
1.81618 -3.65191 -1.18421
1.82995 -3.65085 -1.18572
1.84375 -3.64979 -1.18724
1.85759 -3.64872 -1.18878
1.87145 -3.64764 -1.19034
1.88535 -3.64655 -1.1919
1.89929 -3.64545 -1.19348
1.91325 -3.64435 -1.19508
1.92726 -3.64323 -1.19669
1.9413 -3.64211 -1.19831
1.95537 -3.64098 -1.19995
1.96948 -3.63984 -1.2016
1.98362 -3.63869 -1.20327
1.99781 -3.63754 -1.20495
2.01203 -3.63637 -1.20665
2.02629 -3.63522 -1.20837
2.04068 -3.63421 -1.21015
2.05511 -3.63319 -1.21195
0.862165 -3.96824 -1.21573
0.872677 -3.95682 -1.21306
0.883305 -3.94617 -1.21064
0.894036 -3.93621 -1.20844
0.904724 -3.92625 -1.20625
0.915368 -3.91631 -1.20407
0.925967 -3.90639 -1.2019
0.936523 -3.89647 -1.19975
0.947035 -3.88657 -1.19761
0.957505 -3.87668 -1.19548
0.967931 -3.8668 -1.19336
0.978316 -3.85693 -1.19126
0.98873 -3.84736 -1.18925
0.999149 -3.83797 -1.18731
1.00953 -3.82859 -1.18538
1.01987 -3.81922 -1.18346
1.03017 -3.80985 -1.18156
1.04043 -3.8005 -1.17966
1.05065 -3.79115 -1.17777
1.06123 -3.7832 -1.17633
1.07195 -3.7759 -1.1751
1.08266 -3.7686 -1.17388
1.09351 -3.76191 -1.17286
1.10435 -3.75527 -1.17186
1.11517 -3.74863 -1.17087
1.12597 -3.74197 -1.16989
1.13674 -3.73532 -1.16892
1.14749 -3.72866 -1.16795
1.15822 -3.72199 -1.16699
1.16903 -3.71564 -1.16615
1.18002 -3.7099 -1.1655
1.19203 -3.70741 -1.16589
1.20429 -3.70565 -1.16652
1.21656 -3.70389 -1.16716
1.22885 -3.70212 -1.16781
1.24115 -3.70035 -1.16847
1.25346 -3.69856 -1.16914
1.26578 -3.69677 -1.16982
1.27811 -3.69498 -1.17051
1.29046 -3.69317 -1.17122
1.30282 -3.69136 -1.17193
1.31519 -3.68954 -1.17265
1.32758 -3.68771 -1.17339
1.33998 -3.68587 -1.17414
1.3524 -3.68403 -1.17489
1.36483 -3.68218 -1.17566
1.37727 -3.68032 -1.17644
1.38973 -3.67845 -1.17723
1.4022 -3.67658 -1.17803
1.41469 -3.67469 -1.17884
1.4272 -3.6728 -1.17966
1.43971 -3.67091 -1.1805
1.45225 -3.669 -1.18134
1.4648 -3.66709 -1.1822
1.47737 -3.66516 -1.18307
1.48995 -3.66323 -1.18394
1.50255 -3.66129 -1.18483
1.51517 -3.65935 -1.18573
1.5278 -3.65739 -1.18665
1.54045 -3.65543 -1.18757
1.55332 -3.65392 -1.18865
1.56646 -3.65299 -1.18994
1.57963 -3.65206 -1.19125
1.59282 -3.65112 -1.19256
1.60604 -3.65017 -1.19389
1.61929 -3.64922 -1.19523
1.63257 -3.64826 -1.19659
1.64587 -3.64729 -1.19795
1.6592 -3.64631 -1.19934
1.67256 -3.64532 -1.20073
1.68595 -3.64433 -1.20214
1.69937 -3.64333 -1.20356
1.71282 -3.64232 -1.20499
1.72629 -3.64131 -1.20644
1.7398 -3.64028 -1.2079
1.75334 -3.63925 -1.20938
1.76691 -3.63821 -1.21086
1.7805 -3.63716 -1.21237
1.79413 -3.6361 -1.21388
1.8078 -3.63504 -1.21541
1.82149 -3.63397 -1.21696
1.83521 -3.63289 -1.21851
1.84897 -3.6318 -1.22009
1.86276 -3.6307 -1.22167
1.87659 -3.62959 -1.22327
1.89044 -3.62848 -1.22489
1.90434 -3.62736 -1.22652
1.91826 -3.62623 -1.22816
1.93222 -3.62509 -1.22982
1.94622 -3.62394 -1.23149
1.96025 -3.62278 -1.23318
1.97432 -3.62162 -1.23489
1.98847 -3.62053 -1.23664
2.0027 -3.61952 -1.23843
2.01697 -3.6185 -1.24023
2.03128 -3.61746 -1.24206
2.04563 -3.61642 -1.24389
0.848128 -3.90364 -1.2322
0.858501 -3.89254 -1.22954
0.868823 -3.88147 -1.2269
0.879096 -3.87043 -1.22428
0.889322 -3.85941 -1.22167
0.899499 -3.84842 -1.21907
0.909628 -3.83746 -1.2165
0.919709 -3.82652 -1.21394
0.929816 -3.8159 -1.21149
0.940126 -3.80631 -1.20937
0.950418 -3.79683 -1.2073
0.960758 -3.78771 -1.20535
0.971475 -3.78022 -1.20393
0.982259 -3.77309 -1.20264
0.993016 -3.76597 -1.20135
1.00375 -3.75884 -1.20007
1.01445 -3.75171 -1.19881
1.02512 -3.74457 -1.19755
1.03587 -3.73779 -1.19641
1.04667 -3.7313 -1.19538
1.05745 -3.72481 -1.19435
1.06821 -3.71831 -1.19334
1.07894 -3.7118 -1.19233
1.0898 -3.7058 -1.19149
1.10171 -3.70338 -1.19182
1.11363 -3.70096 -1.19216
1.12555 -3.69853 -1.19251
1.13748 -3.6961 -1.19286
1.14941 -3.69365 -1.19323
1.16143 -3.69148 -1.1937
1.17392 -3.69075 -1.19465
1.18654 -3.69034 -1.19571
1.19901 -3.6894 -1.19662
1.21122 -3.68764 -1.19727
1.22345 -3.68586 -1.19793
1.23569 -3.68409 -1.19861
1.24794 -3.6823 -1.1993
1.26021 -3.68051 -1.19999
1.27249 -3.67871 -1.2007
1.28478 -3.6769 -1.20142
1.29708 -3.67509 -1.20215
1.30939 -3.67327 -1.20289
1.32172 -3.67143 -1.20364
1.33407 -3.6696 -1.2044
1.34642 -3.66775 -1.20517
1.35879 -3.6659 -1.20596
1.37118 -3.66404 -1.20675
1.38358 -3.66217 -1.20756
1.39599 -3.66029 -1.20838
1.40842 -3.6584 -1.20921
1.42086 -3.65651 -1.21005
1.43332 -3.65461 -1.2109
1.4458 -3.6527 -1.21176
1.45829 -3.65078 -1.21263
1.4708 -3.64886 -1.21352
1.48332 -3.64692 -1.21442
1.49586 -3.64498 -1.21532
1.50841 -3.64303 -1.21624
1.52098 -3.64107 -1.21717
1.53357 -3.6391 -1.21812
1.5463 -3.6374 -1.21916
1.55937 -3.63646 -1.22048
1.57247 -3.63552 -1.22181
1.5856 -3.63456 -1.22316
1.59875 -3.6336 -1.22451
1.61193 -3.63263 -1.22588
1.62514 -3.63166 -1.22726
1.63837 -3.63067 -1.22866
1.65164 -3.62968 -1.23007
1.66493 -3.62868 -1.23149
1.67825 -3.62767 -1.23293
1.69159 -3.62666 -1.23438
1.70497 -3.62563 -1.23585
1.71838 -3.6246 -1.23732
1.73181 -3.62356 -1.23881
1.74528 -3.62252 -1.24032
1.75877 -3.62146 -1.24184
1.7723 -3.6204 -1.24337
1.78585 -3.61932 -1.24492
1.79944 -3.61824 -1.24648
1.81306 -3.61715 -1.24806
1.82671 -3.61606 -1.24965
1.8404 -3.61495 -1.25125
1.85411 -3.61384 -1.25287
1.86786 -3.61272 -1.25451
1.88164 -3.61158 -1.25616
1.89546 -3.61044 -1.25782
1.90931 -3.6093 -1.2595
1.92319 -3.60814 -1.26119
1.93711 -3.60697 -1.2629
1.95115 -3.60596 -1.26468
1.96523 -3.60494 -1.26648
1.97934 -3.60392 -1.26829
1.9935 -3.60288 -1.27012
2.00769 -3.60184 -1.27196
2.02192 -3.60079 -1.27382
2.03619 -3.59973 -1.2757
0.834472 -3.84078 -1.24823
0.844707 -3.83 -1.24558
0.854893 -3.81924 -1.24295
0.865032 -3.80851 -1.24033
0.875124 -3.79779 -1.23773
0.885168 -3.78711 -1.23514
0.895483 -3.77778 -1.23301
0.905894 -3.76904 -1.23108
0.916268 -3.7603 -1.22916
0.926606 -3.75158 -1.22725
0.936908 -3.74286 -1.22535
0.947237 -3.7344 -1.22355
0.957912 -3.72744 -1.22224
0.96856 -3.72047 -1.22095
0.979215 -3.71363 -1.2197
0.98998 -3.70729 -1.21863
1.00107 -3.70222 -1.21799
1.01288 -3.69987 -1.21826
1.0247 -3.69752 -1.21853
1.03653 -3.69515 -1.21882
1.04836 -3.69278 -1.21911
1.06019 -3.6904 -1.21942
1.07203 -3.68801 -1.21973
1.08387 -3.68562 -1.22006
1.09571 -3.68321 -1.22039
1.10756 -3.6808 -1.22074
1.11941 -3.67838 -1.22109
1.13127 -3.67595 -1.22146
1.14314 -3.67351 -1.22183
1.1553 -3.67201 -1.22253
1.16773 -3.67127 -1.2235
1.18017 -3.67052 -1.22447
1.19272 -3.67006 -1.22556
1.20533 -3.66968 -1.22669
1.21795 -3.66929 -1.22783
1.23026 -3.66789 -1.22864
1.24245 -3.6661 -1.22934
1.25466 -3.66431 -1.23005
1.26688 -3.66251 -1.23078
1.27911 -3.6607 -1.23151
1.29136 -3.65888 -1.23225
1.30362 -3.65705 -1.23301
1.31589 -3.65522 -1.23377
1.32817 -3.65338 -1.23455
1.34047 -3.65153 -1.23534
1.35278 -3.64968 -1.23614
1.36511 -3.64781 -1.23695
1.37745 -3.64594 -1.23778
1.3898 -3.64406 -1.23861
1.40217 -3.64217 -1.23946
1.41456 -3.64028 -1.24031
1.42696 -3.63837 -1.24118
1.43937 -3.63646 -1.24206
1.4518 -3.63454 -1.24295
1.46425 -3.63261 -1.24386
1.47671 -3.63068 -1.24477
1.48919 -3.62873 -1.2457
1.50168 -3.62678 -1.24664
1.51419 -3.62481 -1.24759
1.52672 -3.62284 -1.24855
1.53931 -3.62095 -1.24956
1.55231 -3.62 -1.2509
1.56535 -3.61904 -1.25226
1.57841 -3.61808 -1.25363
1.59149 -3.6171 -1.25501
1.6046 -3.61612 -1.25641
1.61774 -3.61513 -1.25782
1.63091 -3.61413 -1.25925
1.6441 -3.61312 -1.26068
1.65732 -3.61211 -1.26214
1.67057 -3.61108 -1.2636
1.68385 -3.61005 -1.26508
1.69715 -3.60902 -1.26657
1.71049 -3.60797 -1.26808
1.72385 -3.60691 -1.2696
1.73725 -3.60585 -1.27114
1.75067 -3.60478 -1.27269
1.76412 -3.6037 -1.27425
1.77761 -3.60261 -1.27583
1.79112 -3.60152 -1.27743
1.80467 -3.60041 -1.27903
1.81825 -3.5993 -1.28066
1.83186 -3.59818 -1.28229
1.8455 -3.59705 -1.28394
1.85917 -3.59591 -1.28561
1.87288 -3.59476 -1.28729
1.88661 -3.5936 -1.28899
1.90043 -3.59251 -1.29073
1.91432 -3.5915 -1.29251
1.92825 -3.59048 -1.29431
1.94221 -3.58945 -1.29613
1.95621 -3.58841 -1.29797
1.97025 -3.58737 -1.29981
1.98433 -3.58632 -1.30168
1.99844 -3.58525 -1.30356
2.01259 -3.58418 -1.30546
2.02678 -3.5831 -1.30737
0.821268 -3.78001 -1.26397
0.831781 -3.77139 -1.26195
0.842257 -3.76279 -1.25995
0.852696 -3.7542 -1.25796
0.863099 -3.74561 -1.25598
0.873465 -3.73704 -1.25402
0.883795 -3.72847 -1.25207
0.894088 -3.71992 -1.25013
0.904348 -3.71138 -1.24821
0.91458 -3.70289 -1.24631
0.925619 -3.69776 -1.24555
0.936834 -3.69339 -1.24507
0.948533 -3.69095 -1.24524
0.960385 -3.68907 -1.24561
0.972128 -3.68675 -1.24585
0.983876 -3.68443 -1.2461
0.995624 -3.6821 -1.24636
1.00738 -3.67976 -1.24663
1.01913 -3.67741 -1.24691
1.03089 -3.67505 -1.24721
1.04265 -3.67269 -1.24751
1.05442 -3.67032 -1.24782
1.06619 -3.66794 -1.24814
1.07796 -3.66555 -1.24847
1.08974 -3.66315 -1.24881
1.10153 -3.66075 -1.24916
1.11331 -3.65833 -1.24952
1.12511 -3.65591 -1.24989
1.1369 -3.65348 -1.25027
1.14921 -3.65265 -1.25121
1.16157 -3.6519 -1.2522
1.17393 -3.65114 -1.25319
1.18632 -3.65037 -1.2542
1.19881 -3.64985 -1.2553
1.21136 -3.64944 -1.25646
1.22393 -3.64903 -1.25763
1.23653 -3.64861 -1.25882
1.24913 -3.64816 -1.26001
1.26129 -3.64636 -1.26074
1.27347 -3.64455 -1.26149
1.28566 -3.64273 -1.26225
1.29786 -3.6409 -1.26302
1.31007 -3.63907 -1.2638
1.3223 -3.63722 -1.2646
1.33454 -3.63538 -1.2654
1.34679 -3.63352 -1.26622
1.35906 -3.63165 -1.26704
1.37134 -3.62978 -1.26788
1.38364 -3.62789 -1.26873
1.39595 -3.626 -1.2696
1.40827 -3.62411 -1.27047
1.42061 -3.6222 -1.27136
1.43297 -3.62028 -1.27225
1.44534 -3.61836 -1.27316
1.45772 -3.61643 -1.27409
1.47012 -3.61449 -1.27502
1.48254 -3.61254 -1.27596
1.49498 -3.61058 -1.27692
1.50743 -3.60861 -1.27789
1.51989 -3.60664 -1.27887
1.53238 -3.60466 -1.27986
1.54528 -3.6036 -1.2812
1.55825 -3.60263 -1.28259
1.57124 -3.60165 -1.28398
1.58426 -3.60066 -1.2854
1.5973 -3.59966 -1.28682
1.61037 -3.59866 -1.28826
1.62347 -3.59765 -1.28971
1.63659 -3.59663 -1.29118
1.64975 -3.5956 -1.29266
1.66293 -3.59456 -1.29415
1.67613 -3.59351 -1.29566
1.68937 -3.59246 -1.29718
1.70263 -3.5914 -1.29872
1.71593 -3.59033 -1.30027
1.72925 -3.58925 -1.30184
1.7426 -3.58817 -1.30342
1.75598 -3.58707 -1.30501
1.76939 -3.58597 -1.30662
1.78284 -3.58486 -1.30825
1.79631 -3.58373 -1.30988
1.80981 -3.58261 -1.31154
1.82335 -3.58147 -1.31321
1.83692 -3.58032 -1.31489
1.85051 -3.57917 -1.31659
1.86422 -3.57815 -1.31836
1.87797 -3.57714 -1.32015
1.89175 -3.57612 -1.32195
1.90557 -3.57509 -1.32377
1.91943 -3.57405 -1.32561
1.93331 -3.573 -1.32746
1.94724 -3.57195 -1.32933
1.9612 -3.57089 -1.33122
1.9752 -3.56981 -1.33312
1.98923 -3.56873 -1.33504
2.00331 -3.56764 -1.33697
2.01741 -3.56654 -1.33892
0.810539 -3.73062 -1.28267
0.820941 -3.72224 -1.28066
0.831308 -3.71387 -1.27867
0.841638 -3.70551 -1.27669
0.852396 -3.69916 -1.27542
0.863608 -3.69486 -1.27487
0.874807 -3.69056 -1.27432
0.885995 -3.68625 -1.27378
0.897172 -3.68193 -1.27326
0.908337 -3.67761 -1.27274
0.919491 -3.67329 -1.27224
0.931178 -3.67109 -1.27248
0.943097 -3.66979 -1.27305
0.955023 -3.66847 -1.27362
0.966847 -3.66672 -1.27406
0.978529 -3.66441 -1.27432
0.990213 -3.66208 -1.27458
1.0019 -3.65975 -1.27486
1.01359 -3.65741 -1.27514
1.02528 -3.65506 -1.27544
1.03698 -3.65271 -1.27574
1.04868 -3.65034 -1.27606
1.06039 -3.64797 -1.27638
1.0721 -3.64559 -1.27672
1.08381 -3.6432 -1.27707
1.09553 -3.6408 -1.27742
1.10725 -3.6384 -1.27779
1.11897 -3.63598 -1.27817
1.13089 -3.63414 -1.27876
1.14315 -3.63338 -1.27975
1.15543 -3.63262 -1.28075
1.16773 -3.63185 -1.28176
1.18005 -3.63107 -1.28278
1.19239 -3.63028 -1.28382
1.20481 -3.62971 -1.28494
1.21731 -3.62928 -1.28614
1.22983 -3.62884 -1.28734
1.24236 -3.6284 -1.28856
1.25493 -3.62794 -1.28979
1.26751 -3.62748 -1.29103
1.27998 -3.62663 -1.29215
1.29212 -3.6248 -1.29293
1.30428 -3.62297 -1.29373
1.31644 -3.62112 -1.29454
1.32863 -3.61927 -1.29536
1.34082 -3.61741 -1.29619
1.35303 -3.61554 -1.29703
1.36526 -3.61367 -1.29789
1.37749 -3.61178 -1.29875
1.38974 -3.60989 -1.29963
1.40201 -3.60799 -1.30052
1.41429 -3.60608 -1.30143
1.42659 -3.60416 -1.30234
1.4389 -3.60223 -1.30327
1.45122 -3.6003 -1.30421
1.46356 -3.59835 -1.30516
1.47592 -3.5964 -1.30612
1.48829 -3.59444 -1.3071
1.50068 -3.59247 -1.30808
1.51309 -3.59049 -1.30908
1.52551 -3.58851 -1.3101
1.53827 -3.58726 -1.31139
1.55117 -3.58628 -1.3128
1.5641 -3.58528 -1.31423
1.57705 -3.58428 -1.31567
1.59003 -3.58327 -1.31712
1.60303 -3.58225 -1.31858
1.61606 -3.58122 -1.32006
1.62912 -3.58019 -1.32156
1.6422 -3.57915 -1.32307
1.65531 -3.5781 -1.32459
1.66845 -3.57704 -1.32613
1.68161 -3.57597 -1.32768
1.69481 -3.57489 -1.32924
1.70803 -3.57381 -1.33082
1.72128 -3.57272 -1.33242
1.73456 -3.57161 -1.33403
1.74787 -3.5705 -1.33565
1.76121 -3.56939 -1.33729
1.77458 -3.56826 -1.33895
1.78798 -3.56712 -1.34062
1.80141 -3.56598 -1.3423
1.81491 -3.56489 -1.34403
1.82848 -3.56388 -1.3458
1.84209 -3.56287 -1.34759
1.85573 -3.56185 -1.3494
1.86941 -3.56082 -1.35122
1.88311 -3.55978 -1.35306
1.89686 -3.55874 -1.35492
1.91064 -3.55768 -1.35679
1.92445 -3.55662 -1.35867
1.9383 -3.55555 -1.36058
1.95218 -3.55446 -1.3625
1.9661 -3.55337 -1.36444
1.98006 -3.55227 -1.36639
1.99405 -3.55117 -1.36836
2.00808 -3.55005 -1.37035
0.802067 -3.69164 -1.3043
0.813256 -3.68739 -1.3037
0.824431 -3.68315 -1.3031
0.835594 -3.6789 -1.30252
0.846746 -3.67464 -1.30194
0.857885 -3.67038 -1.30138
0.869014 -3.66611 -1.30083
0.880129 -3.66184 -1.30028
0.891234 -3.65756 -1.29975
0.902328 -3.65328 -1.29923
0.914003 -3.65136 -1.29956
0.925844 -3.65006 -1.30012
0.937692 -3.64876 -1.30069
0.949547 -3.64744 -1.30128
0.961414 -3.64611 -1.30188
0.97321 -3.64449 -1.30238
0.98483 -3.64218 -1.30265
0.996452 -3.63985 -1.30293
1.00808 -3.63752 -1.30322
1.01971 -3.63518 -1.30352
1.03134 -3.63283 -1.30383
1.04297 -3.63048 -1.30415
1.05461 -3.62811 -1.30448
1.06626 -3.62574 -1.30482
1.07791 -3.62336 -1.30517
1.08956 -3.62097 -1.30554
1.10121 -3.61857 -1.30591
1.11287 -3.61616 -1.30629
1.12492 -3.61498 -1.30713
1.13712 -3.61422 -1.30814
1.14934 -3.61344 -1.30916
1.16156 -3.61266 -1.31018
1.17381 -3.61187 -1.31123
1.18608 -3.61107 -1.31228
1.19836 -3.61026 -1.31334
1.21072 -3.60963 -1.31449
1.22316 -3.60917 -1.31571
1.23563 -3.60871 -1.31695
1.24811 -3.60825 -1.3182
1.26062 -3.60777 -1.31946
1.27315 -3.60729 -1.32074
1.2857 -3.60679 -1.32202
1.29827 -3.60629 -1.32333
1.31061 -3.60508 -1.32438
1.32274 -3.60322 -1.32521
1.33487 -3.60136 -1.32606
1.34702 -3.59949 -1.32692
1.35919 -3.59761 -1.32779
1.37137 -3.59572 -1.32867
1.38356 -3.59383 -1.32957
1.39577 -3.59192 -1.33048
1.40799 -3.59001 -1.3314
1.42022 -3.58809 -1.33233
1.43248 -3.58616 -1.33327
1.44474 -3.58422 -1.33423
1.45702 -3.58228 -1.3352
1.46932 -3.58032 -1.33618
1.48163 -3.57836 -1.33717
1.49396 -3.57638 -1.33818
1.50631 -3.5744 -1.33919
1.51867 -3.57241 -1.34023
1.53129 -3.57098 -1.34148
1.54412 -3.56998 -1.34292
1.55698 -3.56897 -1.34437
1.56987 -3.56796 -1.34583
1.58278 -3.56693 -1.34731
1.59571 -3.5659 -1.3488
1.60868 -3.56486 -1.35031
1.62166 -3.56381 -1.35183
1.63468 -3.56276 -1.35337
1.64772 -3.56169 -1.35492
1.66079 -3.56062 -1.35648
1.67389 -3.55954 -1.35806
1.68701 -3.55845 -1.35965
1.70016 -3.55735 -1.36126
1.71334 -3.55624 -1.36289
1.72655 -3.55512 -1.36453
1.73979 -3.554 -1.36618
1.75306 -3.55287 -1.36785
1.76636 -3.55172 -1.36954
1.77976 -3.55071 -1.37129
1.7932 -3.54971 -1.37307
1.80667 -3.5487 -1.37486
1.82017 -3.54768 -1.37667
1.8337 -3.54665 -1.37849
1.84727 -3.54561 -1.38033
1.86087 -3.54457 -1.38219
1.87451 -3.54351 -1.38406
1.88817 -3.54245 -1.38595
1.90188 -3.54137 -1.38785
1.91561 -3.54029 -1.38977
1.92939 -3.5392 -1.39171
1.9432 -3.5381 -1.39367
1.95704 -3.53699 -1.39564
1.97092 -3.53588 -1.39763
1.98484 -3.53475 -1.39964
1.99879 -3.53361 -1.40166
0.796745 -3.66714 -1.33065
0.807862 -3.66294 -1.33004
0.818966 -3.65873 -1.32944
0.830057 -3.65452 -1.32885
0.841138 -3.6503 -1.32827
0.852206 -3.64608 -1.32769
0.863262 -3.64185 -1.32713
0.874307 -3.63762 -1.32658
0.885342 -3.63338 -1.32604
0.897009 -3.63174 -1.32646
0.908769 -3.63045 -1.32703
0.92054 -3.62915 -1.3276
0.932317 -3.62784 -1.32818
0.944102 -3.62653 -1.32878
0.955898 -3.6252 -1.32938
0.967702 -3.62386 -1.33
0.979474 -3.62237 -1.33057
0.991032 -3.62006 -1.33085
1.00259 -3.61773 -1.33115
1.01416 -3.6154 -1.33145
1.02573 -3.61306 -1.33177
1.0373 -3.61071 -1.33209
1.04887 -3.60836 -1.33243
1.06045 -3.60599 -1.33278
1.07203 -3.60362 -1.33314
1.08362 -3.60123 -1.3335
1.09521 -3.59884 -1.33388
1.10688 -3.59669 -1.33436
1.11899 -3.59592 -1.33537
1.13112 -3.59514 -1.33639
1.14326 -3.59436 -1.33743
1.15542 -3.59356 -1.33847
1.1676 -3.59276 -1.33953
1.1798 -3.59195 -1.3406
1.19201 -3.59113 -1.34168
1.20424 -3.59031 -1.34278
1.21653 -3.58961 -1.34393
1.22892 -3.58913 -1.34519
1.24133 -3.58865 -1.34646
1.25377 -3.58816 -1.34774
1.26622 -3.58766 -1.34904
1.2787 -3.58715 -1.35035
1.29119 -3.58663 -1.35167
1.30371 -3.5861 -1.35301
1.31626 -3.58557 -1.35435
1.32882 -3.58503 -1.35572
1.34104 -3.58349 -1.35671
1.35314 -3.5816 -1.3576
1.36526 -3.57972 -1.3585
1.3774 -3.57782 -1.35941
1.38955 -3.57591 -1.36034
1.40171 -3.574 -1.36127
1.41388 -3.57207 -1.36222
1.42608 -3.57014 -1.36318
1.43828 -3.5682 -1.36415
1.45051 -3.56625 -1.36514
1.46274 -3.56429 -1.36614
1.475 -3.56233 -1.36715
1.48726 -3.56035 -1.36817
1.49955 -3.55836 -1.36921
1.51185 -3.55637 -1.37026
1.52433 -3.55475 -1.37147
1.5371 -3.55374 -1.37293
1.54989 -3.55272 -1.3744
1.56271 -3.55169 -1.37589
1.57555 -3.55065 -1.3774
1.58842 -3.54961 -1.37892
1.60132 -3.54856 -1.38045
1.61424 -3.54749 -1.382
1.62718 -3.54642 -1.38356
1.64016 -3.54534 -1.38514
1.65316 -3.54426 -1.38673
1.66619 -3.54316 -1.38834
1.67924 -3.54206 -1.38996
1.69232 -3.54094 -1.3916
1.70543 -3.53982 -1.39325
1.71857 -3.53869 -1.39492
1.73177 -3.53762 -1.39663
1.74505 -3.53663 -1.39839
1.75835 -3.53562 -1.40016
1.77169 -3.53461 -1.40196
1.78505 -3.53359 -1.40376
1.79845 -3.53256 -1.40559
1.81188 -3.53153 -1.40743
1.82534 -3.53048 -1.40928
1.83884 -3.52943 -1.41115
1.85237 -3.52836 -1.41304
1.86593 -3.52729 -1.41495
1.87952 -3.52621 -1.41687
1.89315 -3.52512 -1.41881
1.90681 -3.52402 -1.42077
1.92051 -3.52291 -1.42274
1.93424 -3.5218 -1.42473
1.94801 -3.52067 -1.42674
1.96181 -3.51954 -1.42876
1.97565 -3.51839 -1.4308
1.98952 -3.51724 -1.43286
0.791463 -3.64283 -1.35681
0.802508 -3.63866 -1.35619
0.813541 -3.6345 -1.35558
0.824561 -3.63032 -1.35498
0.835571 -3.62614 -1.35439
0.846568 -3.62196 -1.35382
0.857554 -3.61777 -1.35325
0.868528 -3.61357 -1.35269
0.88019 -3.61224 -1.35321
0.891873 -3.61095 -1.35377
0.903565 -3.60966 -1.35434
0.915266 -3.60836 -1.35493
0.926973 -3.60705 -1.35552
0.938688 -3.60573 -1.35612
0.950414 -3.6044 -1.35673
0.962148 -3.60306 -1.35736
0.973889 -3.60171 -1.35799
0.98564 -3.60036 -1.35864
0.997138 -3.59804 -1.35894
1.00864 -3.59572 -1.35925
1.02014 -3.59339 -1.35957
1.03165 -3.59105 -1.3599
1.04316 -3.5887 -1.36024
1.05467 -3.58634 -1.3606
1.06619 -3.58398 -1.36096
1.07771 -3.5816 -1.36133
1.08924 -3.57922 -1.36172
1.10104 -3.57772 -1.36245
1.11309 -3.57694 -1.36348
1.12515 -3.57616 -1.36452
1.13722 -3.57536 -1.36557
1.14931 -3.57456 -1.36663
1.16142 -3.57374 -1.3677
1.17355 -3.57292 -1.36879
1.18569 -3.57209 -1.36989
1.19785 -3.57125 -1.371
1.21002 -3.57041 -1.37212
1.22225 -3.56965 -1.3733
1.23459 -3.56915 -1.37459
1.24695 -3.56864 -1.37589
1.25933 -3.56813 -1.3772
1.27173 -3.5676 -1.37853
1.28415 -3.56707 -1.37987
1.2966 -3.56652 -1.38123
1.30906 -3.56597 -1.3826
1.32155 -3.56542 -1.38398
1.33406 -3.56485 -1.38538
1.34659 -3.56427 -1.38679
1.35915 -3.56369 -1.38821
1.37125 -3.56186 -1.38916
1.38334 -3.55995 -1.3901
1.39544 -3.55803 -1.39105
1.40756 -3.5561 -1.39202
1.4197 -3.55417 -1.393
1.43185 -3.55223 -1.39399
1.44401 -3.55027 -1.39499
1.45619 -3.54831 -1.396
1.46838 -3.54634 -1.39703
1.48059 -3.54436 -1.39807
1.49281 -3.54238 -1.39913
1.50505 -3.54038 -1.4002
1.51739 -3.53857 -1.40136
1.5301 -3.53755 -1.40284
1.54283 -3.53652 -1.40434
1.55558 -3.53548 -1.40586
1.56835 -3.53443 -1.40739
1.58116 -3.53337 -1.40893
1.59398 -3.5323 -1.41049
1.60684 -3.53123 -1.41207
1.61971 -3.53014 -1.41366
1.63262 -3.52905 -1.41526
1.64555 -3.52795 -1.41688
1.65851 -3.52684 -1.41852
1.6715 -3.52572 -1.42017
1.68451 -3.52459 -1.42183
1.69762 -3.52361 -1.42357
1.71077 -3.52262 -1.42533
1.72394 -3.52162 -1.4271
1.73715 -3.52061 -1.42889
1.75038 -3.51959 -1.4307
1.76364 -3.51856 -1.43252
1.77694 -3.51753 -1.43436
1.79026 -3.51648 -1.43622
1.80362 -3.51543 -1.43809
1.81701 -3.51437 -1.43998
1.83043 -3.5133 -1.44188
1.84389 -3.51222 -1.4438
1.85738 -3.51113 -1.44574
1.8709 -3.51003 -1.44769
1.88445 -3.50892 -1.44967
1.89804 -3.50781 -1.45166
1.91166 -3.50668 -1.45366
1.92532 -3.50555 -1.45569
1.93901 -3.5044 -1.45773
1.95273 -3.50325 -1.45979
1.96649 -3.50209 -1.46186
1.98029 -3.50091 -1.46396
0.786219 -3.61869 -1.38278
0.797193 -3.61456 -1.38216
0.808155 -3.61044 -1.38154
0.819105 -3.6063 -1.38093
0.830044 -3.60216 -1.38033
0.840971 -3.59801 -1.37975
0.851944 -3.5941 -1.37927
0.863543 -3.59284 -1.37981
0.875151 -3.59156 -1.38037
0.886766 -3.59027 -1.38094
0.898388 -3.58898 -1.38151
0.91002 -3.58768 -1.3821
0.921658 -3.58637 -1.3827
0.933304 -3.58504 -1.38332
0.944959 -3.58371 -1.38394
0.956623 -3.58237 -1.38457
0.968294 -3.58103 -1.38522
0.979975 -3.57967 -1.38587
0.991666 -3.5783 -1.38654
1.00314 -3.57613 -1.38691
1.01458 -3.57381 -1.38724
1.02603 -3.57148 -1.38757
1.03747 -3.56914 -1.38792
1.04892 -3.56679 -1.38828
1.06037 -3.56443 -1.38865
1.07183 -3.56206 -1.38902
1.08329 -3.55969 -1.38942
1.09523 -3.55884 -1.39042
1.10721 -3.55805 -1.39146
1.1192 -3.55726 -1.39251
1.13121 -3.55645 -1.39358
1.14323 -3.55564 -1.39466
1.15527 -3.55481 -1.39575
1.16732 -3.55398 -1.39685
1.1794 -3.55314 -1.39796
1.19149 -3.55229 -1.39909
1.20359 -3.55143 -1.40023
1.21572 -3.55057 -1.40139
1.22788 -3.54974 -1.40257
1.24016 -3.54922 -1.4039
1.25247 -3.54869 -1.40523
1.26479 -3.54815 -1.40658
1.27714 -3.5476 -1.40794
1.28951 -3.54704 -1.40932
1.3019 -3.54647 -1.4107
1.31432 -3.5459 -1.41211
1.32675 -3.54531 -1.41352
1.33921 -3.54472 -1.41495
1.35169 -3.54412 -1.4164
1.36419 -3.54351 -1.41786
1.37671 -3.54289 -1.41933
1.3892 -3.54211 -1.42075
1.40126 -3.54018 -1.42173
1.41334 -3.53824 -1.42273
1.42543 -3.5363 -1.42373
1.43753 -3.53434 -1.42475
1.44965 -3.53238 -1.42578
1.46178 -3.53041 -1.42683
1.47393 -3.52842 -1.42789
1.48609 -3.52643 -1.42896
1.49827 -3.52443 -1.43005
1.51048 -3.52245 -1.43115
1.52312 -3.52141 -1.43266
1.53578 -3.52037 -1.43419
1.54847 -3.51931 -1.43573
1.56118 -3.51825 -1.43729
1.57391 -3.51718 -1.43886
1.58667 -3.5161 -1.44044
1.59946 -3.51501 -1.44204
1.61227 -3.51391 -1.44366
1.62511 -3.51281 -1.44529
1.63797 -3.51169 -1.44694
1.6509 -3.51066 -1.44863
1.66389 -3.50967 -1.45037
1.67691 -3.50868 -1.45213
1.68995 -3.50768 -1.4539
1.70303 -3.50668 -1.45569
1.71613 -3.50566 -1.45749
1.72926 -3.50464 -1.45931
1.74243 -3.5036 -1.46114
1.75562 -3.50256 -1.463
1.76885 -3.50151 -1.46487
1.7821 -3.50045 -1.46675
1.79539 -3.49938 -1.46865
1.80871 -3.4983 -1.47057
1.82206 -3.49722 -1.47251
1.83544 -3.49612 -1.47446
1.84885 -3.49501 -1.47643
1.8623 -3.4939 -1.47842
1.87578 -3.49278 -1.48042
1.88929 -3.49164 -1.48245
1.90284 -3.4905 -1.48449
1.91642 -3.48935 -1.48654
1.93003 -3.48819 -1.48862
1.94368 -3.48702 -1.49071
1.95737 -3.48584 -1.49282
1.97109 -3.48465 -1.49495
0.781011 -3.59472 -1.40857
0.791915 -3.59064 -1.40793
0.802807 -3.58654 -1.40731
0.813686 -3.58245 -1.4067
0.824556 -3.57834 -1.40609
0.835544 -3.57479 -1.40572
0.847069 -3.57354 -1.40626
0.8586 -3.57227 -1.40681
0.87014 -3.57099 -1.40738
0.881686 -3.56971 -1.40795
0.893239 -3.56841 -1.40854
0.904802 -3.56711 -1.40914
0.916371 -3.56579 -1.40975
0.927948 -3.56447 -1.41037
0.939533 -3.56314 -1.411
0.951128 -3.5618 -1.41164
0.962729 -3.56045 -1.41229
0.97434 -3.55909 -1.41296
0.985961 -3.55772 -1.41363
0.99759 -3.55634 -1.41432
1.00905 -3.55433 -1.41477
1.02043 -3.552 -1.41511
1.03181 -3.54967 -1.41546
1.0432 -3.54733 -1.41583
1.05459 -3.54498 -1.4162
1.06598 -3.54262 -1.41659
1.07756 -3.54083 -1.41722
1.08945 -3.54004 -1.41826
1.10136 -3.53925 -1.41932
1.11328 -3.53844 -1.42038
1.12522 -3.53762 -1.42146
1.13717 -3.5368 -1.42256
1.14914 -3.53596 -1.42367
1.16113 -3.53512 -1.42478
1.17313 -3.53427 -1.42592
1.18515 -3.53341 -1.42706
1.19719 -3.53254 -1.42822
1.20925 -3.53167 -1.42939
1.22132 -3.53078 -1.43057
1.23341 -3.52989 -1.43177
1.24564 -3.52934 -1.43312
1.25789 -3.52879 -1.43449
1.27017 -3.52822 -1.43587
1.28246 -3.52765 -1.43727
1.29478 -3.52707 -1.43868
1.30712 -3.52648 -1.4401
1.31948 -3.52588 -1.44154
1.33186 -3.52527 -1.44299
1.34426 -3.52465 -1.44445
1.35669 -3.52402 -1.44593
1.36913 -3.52339 -1.44742
1.3816 -3.52274 -1.44893
1.3941 -3.52209 -1.45045
1.40662 -3.52142 -1.45198
1.41902 -3.52042 -1.45339
1.43107 -3.51846 -1.45443
1.44313 -3.51649 -1.45548
1.4552 -3.51452 -1.45654
1.46729 -3.51253 -1.45762
1.47939 -3.51054 -1.45871
1.49151 -3.50853 -1.45981
1.50365 -3.50652 -1.46093
1.51616 -3.50532 -1.4624
1.52875 -3.50426 -1.46395
1.54137 -3.5032 -1.46551
1.55402 -3.50212 -1.46709
1.56669 -3.50104 -1.46869
1.57938 -3.49995 -1.4703
1.5921 -3.49884 -1.47193
1.60486 -3.49776 -1.47358
1.61769 -3.49679 -1.4753
1.63056 -3.49581 -1.47703
1.64345 -3.49482 -1.47878
1.65638 -3.49382 -1.48055
1.66932 -3.49282 -1.48234
1.6823 -3.49181 -1.48414
1.69531 -3.49078 -1.48595
1.70834 -3.48975 -1.48778
1.72141 -3.48871 -1.48963
1.7345 -3.48766 -1.4915
1.74763 -3.48661 -1.49338
1.76078 -3.48554 -1.49528
1.77396 -3.48446 -1.4972
1.78718 -3.48338 -1.49913
1.80043 -3.48229 -1.50108
1.8137 -3.48118 -1.50305
1.82701 -3.48007 -1.50503
1.84035 -3.47895 -1.50703
1.85373 -3.47782 -1.50905
1.86713 -3.47668 -1.51109
1.88057 -3.47553 -1.51314
1.89404 -3.47437 -1.51522
1.90755 -3.4732 -1.51731
1.92109 -3.47202 -1.51941
1.93466 -3.47083 -1.52154
1.94827 -3.46964 -1.52368
1.96192 -3.46843 -1.52585
0.77584 -3.57092 -1.43418
0.786674 -3.56687 -1.43354
0.797496 -3.56282 -1.4329
0.808306 -3.55876 -1.43228
0.819311 -3.55558 -1.43203
0.830761 -3.55433 -1.43257
0.842218 -3.55307 -1.43312
0.853682 -3.55181 -1.43368
0.865153 -3.55053 -1.43425
0.876631 -3.54924 -1.43483
0.888116 -3.54795 -1.43543
0.89961 -3.54664 -1.43603
0.911111 -3.54532 -1.43665
0.922618 -3.544 -1.43728
0.934136 -3.54267 -1.43792
0.945661 -3.54132 -1.43857
0.957194 -3.53997 -1.43923
0.968735 -3.53861 -1.4399
0.980287 -3.53724 -1.44059
0.991845 -3.53586 -1.44129
1.00341 -3.53447 -1.44199
1.01486 -3.53261 -1.44253
1.02618 -3.53029 -1.44288
1.0375 -3.52795 -1.44325
1.04883 -3.52561 -1.44363
1.06016 -3.52326 -1.44402
1.07186 -3.52213 -1.44493
1.08369 -3.52133 -1.44598
1.09553 -3.52052 -1.44706
1.10738 -3.5197 -1.44814
1.11926 -3.51888 -1.44923
1.13114 -3.51804 -1.45034
1.14304 -3.5172 -1.45147
1.15496 -3.51635 -1.4526
1.1669 -3.51548 -1.45375
1.17885 -3.51461 -1.45491
1.19082 -3.51374 -1.45608
1.2028 -3.51285 -1.45727
1.2148 -3.51195 -1.45847
1.22682 -3.51105 -1.45968
1.23886 -3.51013 -1.46091
1.25102 -3.50952 -1.46228
1.26322 -3.50894 -1.46368
1.27545 -3.50835 -1.46509
1.28769 -3.50775 -1.46652
1.29995 -3.50714 -1.46796
1.31223 -3.50653 -1.46942
1.32454 -3.5059 -1.47089
1.33687 -3.50527 -1.47237
1.34922 -3.50462 -1.47387
1.36159 -3.50397 -1.47539
1.37398 -3.50331 -1.47691
1.3864 -3.50264 -1.47845
1.39884 -3.50196 -1.48001
1.4113 -3.50127 -1.48158
1.42379 -3.50057 -1.48317
1.4363 -3.49986 -1.48477
1.44864 -3.49867 -1.48618
1.46067 -3.49668 -1.48727
1.47271 -3.49468 -1.48838
1.48477 -3.49268 -1.4895
1.49685 -3.49066 -1.49063
1.50922 -3.48927 -1.49205
1.52175 -3.4882 -1.49362
1.5343 -3.48713 -1.49521
1.54688 -3.48604 -1.49682
1.55949 -3.48494 -1.49844
1.57216 -3.48395 -1.50012
1.58488 -3.48298 -1.50184
1.59763 -3.48201 -1.50357
1.6104 -3.48102 -1.50532
1.6232 -3.48003 -1.50708
1.63603 -3.47903 -1.50886
1.64888 -3.47802 -1.51065
1.66176 -3.477 -1.51246
1.67467 -3.47597 -1.51429
1.68761 -3.47493 -1.51614
1.70058 -3.47389 -1.518
1.71357 -3.47283 -1.51988
1.7266 -3.47177 -1.52177
1.73965 -3.4707 -1.52368
1.75273 -3.46961 -1.52561
1.76585 -3.46852 -1.52756
1.77899 -3.46742 -1.52952
1.79217 -3.46631 -1.5315
1.80537 -3.4652 -1.5335
1.81861 -3.46407 -1.53552
1.83188 -3.46293 -1.53755
1.84518 -3.46178 -1.5396
1.85851 -3.46063 -1.54167
1.87188 -3.45946 -1.54375
1.88527 -3.45828 -1.54586
1.89871 -3.4571 -1.54798
1.91217 -3.4559 -1.55012
1.92567 -3.4547 -1.55228
1.9392 -3.45348 -1.55446
1.95277 -3.45226 -1.55665
0.770703 -3.54728 -1.45962
0.781468 -3.54327 -1.45897
0.792221 -3.53925 -1.45833
0.803243 -3.53647 -1.45821
0.81462 -3.53523 -1.45874
0.826003 -3.53397 -1.45929
0.837392 -3.53271 -1.45984
0.848788 -3.53145 -1.46041
0.860192 -3.53017 -1.46099
0.871602 -3.52888 -1.46158
0.883019 -3.52758 -1.46218
0.894445 -3.52628 -1.4628
0.905877 -3.52496 -1.46342
0.917316 -3.52363 -1.46406
0.928765 -3.5223 -1.4647
0.940222 -3.52095 -1.46536
0.951686 -3.5196 -1.46603
0.963158 -3.51824 -1.46672
0.974639 -3.51686 -1.46741
0.986129 -3.51548 -1.46811
0.997627 -3.51409 -1.46883
1.00914 -3.51269 -1.46956
1.02057 -3.51099 -1.47018
1.03183 -3.50867 -1.47055
1.04309 -3.50633 -1.47094
1.05445 -3.50429 -1.47146
1.06619 -3.50349 -1.47252
1.07795 -3.50269 -1.47359
1.08973 -3.50187 -1.47468
1.10151 -3.50104 -1.47578
1.11332 -3.50021 -1.47689
1.12514 -3.49936 -1.47801
1.13697 -3.49851 -1.47915
1.14882 -3.49765 -1.4803
1.16069 -3.49677 -1.48147
1.17257 -3.49589 -1.48264
1.18447 -3.49501 -1.48383
1.19638 -3.49411 -1.48503
1.20832 -3.4932 -1.48625
1.22027 -3.49228 -1.48748
1.23223 -3.49136 -1.48872
1.24422 -3.49042 -1.48998
1.25631 -3.48973 -1.49136
1.26846 -3.48913 -1.49279
1.28063 -3.48852 -1.49424
1.29282 -3.48789 -1.4957
1.30503 -3.48726 -1.49718
1.31726 -3.48662 -1.49867
1.32951 -3.48597 -1.50017
1.34178 -3.48531 -1.50169
1.35408 -3.48464 -1.50322
1.3664 -3.48397 -1.50477
1.37874 -3.48328 -1.50633
1.3911 -3.48258 -1.50791
1.40349 -3.48188 -1.5095
1.4159 -3.48116 -1.51111
1.42833 -3.48044 -1.51273
1.44079 -3.4797 -1.51436
1.45327 -3.47896 -1.51601
1.46577 -3.47821 -1.51768
1.47805 -3.47686 -1.51911
1.49007 -3.47484 -1.52026
1.50229 -3.47327 -1.52162
1.51476 -3.47219 -1.52322
1.52728 -3.47116 -1.52486
1.53986 -3.4702 -1.52655
1.55246 -3.46924 -1.52826
1.56509 -3.46827 -1.52999
1.57774 -3.46729 -1.53173
1.59042 -3.4663 -1.53348
1.60313 -3.4653 -1.53526
1.61586 -3.46429 -1.53705
1.62862 -3.46328 -1.53885
1.64141 -3.46225 -1.54068
1.65422 -3.46122 -1.54252
1.66706 -3.46018 -1.54437
1.67993 -3.45912 -1.54624
1.69283 -3.45806 -1.54813
1.70582 -3.45713 -1.5501
1.7191 -3.45669 -1.55231
1.73241 -3.45624 -1.55454
1.74575 -3.4558 -1.55679
1.75914 -3.45535 -1.55907
1.77257 -3.4549 -1.56136
1.78603 -3.45445 -1.56368
1.79954 -3.45399 -1.56602
1.81308 -3.45353 -1.56838
1.82667 -3.45307 -1.57076
1.84029 -3.45261 -1.57317
1.85396 -3.45215 -1.5756
1.86767 -3.45168 -1.57805
1.88142 -3.45121 -1.58052
1.89521 -3.45073 -1.58301
1.90905 -3.45026 -1.58553
1.92293 -3.44978 -1.58807
1.93685 -3.4493 -1.59064
1.95082 -3.44882 -1.59323
0.765601 -3.52379 -1.48488
0.776296 -3.51982 -1.48423
0.787338 -3.51744 -1.48426
0.798641 -3.5162 -1.48479
0.809951 -3.51496 -1.48533
0.821267 -3.51371 -1.48588
0.832588 -3.51245 -1.48644
0.843918 -3.51118 -1.48702
0.855254 -3.5099 -1.4876
0.866596 -3.50861 -1.4882
0.877946 -3.50732 -1.48881
0.889304 -3.50601 -1.48943
0.900668 -3.50469 -1.49006
0.91204 -3.50337 -1.49071
0.923421 -3.50203 -1.49136
0.934809 -3.50068 -1.49203
0.946204 -3.49933 -1.49271
0.957607 -3.49796 -1.4934
0.96902 -3.49659 -1.4941
0.980441 -3.4952 -1.49481
0.99187 -3.49381 -1.49554
1.00331 -3.49241 -1.49628
1.01476 -3.49099 -1.49703
1.02618 -3.48946 -1.49774
1.03738 -3.48714 -1.49813
1.04887 -3.48574 -1.49894
1.06055 -3.48494 -1.50001
1.07224 -3.48412 -1.5011
1.08394 -3.48329 -1.5022
1.09567 -3.48245 -1.50331
1.1074 -3.48161 -1.50444
1.11915 -3.48076 -1.50558
1.13092 -3.47989 -1.50673
1.1427 -3.47902 -1.50789
1.1545 -3.47814 -1.50907
1.16632 -3.47725 -1.51026
1.17815 -3.47635 -1.51147
1.18999 -3.47544 -1.51269
1.20186 -3.47452 -1.51392
1.21374 -3.4736 -1.51517
1.22563 -3.47266 -1.51643
1.23755 -3.47171 -1.5177
1.24954 -3.47094 -1.51906
1.26169 -3.47051 -1.5206
1.27382 -3.46998 -1.52211
1.28598 -3.46946 -1.52364
1.29816 -3.46893 -1.52519
1.31037 -3.46839 -1.52675
1.3226 -3.46785 -1.52833
1.33485 -3.46731 -1.52993
1.34713 -3.46677 -1.53154
1.35944 -3.46621 -1.53317
1.37176 -3.46566 -1.53482
1.38412 -3.4651 -1.53649
1.3965 -3.46454 -1.53817
1.4089 -3.46397 -1.53987
1.42134 -3.4634 -1.54159
1.4338 -3.46282 -1.54332
1.44628 -3.46224 -1.54508
1.45879 -3.46165 -1.54685
1.47134 -3.46107 -1.54864
1.4839 -3.46047 -1.55045
1.49686 -3.4607 -1.55264
1.50966 -3.46049 -1.55466
1.52249 -3.46027 -1.5567
1.53532 -3.45997 -1.55872
1.54813 -3.45956 -1.56071
1.56097 -3.45914 -1.56273
1.57384 -3.45872 -1.56476
1.58675 -3.4583 -1.56681
1.59969 -3.45788 -1.56888
1.61267 -3.45745 -1.57097
1.62568 -3.45703 -1.57308
1.63873 -3.4566 -1.57522
1.65181 -3.45616 -1.57737
1.66492 -3.45573 -1.57955
1.67807 -3.45529 -1.58174
1.69126 -3.45485 -1.58396
1.70448 -3.45441 -1.5862
1.71774 -3.45397 -1.58846
1.73104 -3.45352 -1.59074
1.74438 -3.45307 -1.59304
1.75775 -3.45262 -1.59537
1.77116 -3.45217 -1.59772
1.78462 -3.45171 -1.60009
1.79811 -3.45125 -1.60248
1.81164 -3.45079 -1.60489
1.82521 -3.45033 -1.60733
1.83882 -3.44986 -1.60979
1.85248 -3.44939 -1.61227
1.86617 -3.44892 -1.61477
1.87991 -3.44844 -1.6173
1.89369 -3.44797 -1.61985
1.90751 -3.44749 -1.62243
1.92138 -3.447 -1.62503
1.93529 -3.44652 -1.62765
1.94925 -3.44603 -1.6303
0.76053 -3.50046 -1.50999
0.771593 -3.49849 -1.51018
0.782824 -3.49727 -1.5107
0.79406 -3.49604 -1.51124
0.805304 -3.4948 -1.51178
0.816553 -3.49354 -1.51234
0.827808 -3.49228 -1.51291
0.83907 -3.49101 -1.51349
0.850339 -3.48973 -1.51409
0.861614 -3.48845 -1.51469
0.872897 -3.48715 -1.51531
0.884187 -3.48584 -1.51594
0.895485 -3.48452 -1.51658
0.906788 -3.48319 -1.51723
0.9181 -3.48186 -1.51789
0.929421 -3.48051 -1.51857
0.940748 -3.47915 -1.51925
0.952083 -3.47779 -1.51995
0.963428 -3.47641 -1.52066
0.97478 -3.47502 -1.52138
0.986141 -3.47363 -1.52212
0.99751 -3.47222 -1.52287
1.00889 -3.47081 -1.52362
1.02036 -3.46966 -1.52452
1.03195 -3.46889 -1.52559
1.04371 -3.46859 -1.52689
1.05549 -3.46831 -1.52822
1.06728 -3.46802 -1.52955
1.0791 -3.46773 -1.53091
1.09094 -3.46743 -1.53228
1.1028 -3.46713 -1.53367
1.11467 -3.46682 -1.53507
1.12657 -3.46652 -1.53649
1.13849 -3.4662 -1.53792
1.15043 -3.46589 -1.53938
1.1624 -3.46557 -1.54084
1.17438 -3.46524 -1.54233
1.18639 -3.46492 -1.54383
1.19842 -3.46459 -1.54535
1.21047 -3.46425 -1.54688
1.22255 -3.46391 -1.54843
1.23469 -3.46369 -1.55006
1.2469 -3.46359 -1.55175
1.25909 -3.46337 -1.55342
1.2712 -3.46284 -1.55496
1.28333 -3.46231 -1.55652
1.29549 -3.46177 -1.55809
1.30766 -3.46123 -1.55969
1.31986 -3.46069 -1.5613
1.33209 -3.46014 -1.56292
1.34434 -3.45958 -1.56457
1.35662 -3.45903 -1.56623
1.36892 -3.45846 -1.56791
1.38124 -3.4579 -1.56961
1.39359 -3.45733 -1.57133
1.40597 -3.45675 -1.57306
