ply
format ascii 1.0
comment Created by Open3D
element vertex 1792
property double x
property double y
property double z
end_header
-7.17143 -2.59205 -2.35215
-7.17268 -2.61797 -2.35524
-7.175 -2.64436 -2.35872
-7.17735 -2.67083 -2.36223
-7.17973 -2.69739 -2.36579
-6.82168 -2.58732 -2.25047
-6.76119 -2.58867 -2.23319
-6.70162 -2.59 -2.21618
-6.64295 -2.59131 -2.19946
-6.58467 -2.5924 -2.18284
-6.52283 -2.59172 -2.16503
-6.462 -2.59106 -2.14753
-6.40215 -2.5904 -2.13033
-6.34325 -2.58976 -2.11342
-6.28529 -2.58913 -2.09681
-6.22908 -2.58886 -2.08075
-6.17558 -2.58938 -2.06558
-6.1237 -2.59024 -2.05094
-6.07254 -2.59109 -2.03652
-6.02211 -2.59193 -2.02232
-5.97237 -2.59276 -2.00834
-5.92332 -2.59358 -1.99457
-5.87473 -2.5943 -1.98094
-5.82673 -2.59498 -1.96749
-5.77939 -2.59566 -1.95425
-5.73267 -2.59632 -1.9412
-5.68658 -2.59697 -1.92834
-5.64112 -2.59763 -1.91568
-5.59666 -2.59847 -1.90334
-5.55183 -2.59886 -1.89085
-5.5083 -2.59958 -1.8788
-5.46659 -2.6009 -1.86734
-5.42539 -2.6022 -1.85605
-5.38468 -2.60349 -1.84491
-5.34446 -2.60475 -1.83392
-5.3047 -2.60601 -1.82307
-5.26542 -2.60724 -1.81237
-5.22658 -2.60847 -1.80181
-5.1882 -2.60967 -1.7914
-5.15026 -2.61086 -1.78111
-5.11274 -2.61204 -1.77096
-5.07513 -2.61293 -1.76077
-5.03488 -2.61222 -1.74964
-4.99513 -2.61152 -1.73866
-4.95587 -2.61083 -1.72784
-4.92021 -2.6118 -1.71826
-4.88905 -2.61495 -1.71023
-4.85817 -2.61806 -1.70229
-4.82691 -2.6208 -1.69421
-4.79111 -2.62085 -1.68453
-4.75571 -2.62091 -1.67496
-4.72071 -2.62096 -1.66552
-4.69253 -2.6246 -1.65848
-4.66606 -2.62905 -1.65203
-4.6398 -2.63346 -1.64565
-4.61372 -2.63784 -1.63933
-4.58784 -2.64217 -1.63307
-4.56241 -2.64662 -1.62696
-4.54175 -2.65371 -1.62255
-4.52672 -2.66402 -1.62016
-4.51172 -2.67428 -1.61779
-4.49675 -2.68451 -1.61543
-4.4818 -2.69469 -1.61309
-4.46688 -2.70484 -1.61077
-4.45199 -2.71494 -1.60846
-4.43711 -2.72501 -1.60617
-4.42227 -2.73503 -1.60389
-4.40745 -2.74502 -1.60163
-4.39265 -2.75497 -1.59939
-4.37788 -2.76488 -1.59716
-4.36307 -2.77472 -1.59493
-4.34828 -2.7845 -1.59271
-4.33351 -2.79425 -1.5905
-4.31876 -2.80397 -1.58831
-4.30404 -2.81364 -1.58613
-4.28934 -2.82328 -1.58397
-4.27467 -2.83288 -1.58183
-4.26002 -2.84245 -1.5797
-4.24539 -2.85197 -1.57758
-4.23078 -2.86146 -1.57548
-4.21939 -2.87309 -1.57459
-4.21076 -2.8866 -1.57474
-4.20211 -2.90008 -1.5749
-4.19344 -2.91356 -1.57507
-4.18474 -2.92702 -1.57524
-4.17594 -2.94043 -1.5754
-4.16696 -2.9537 -1.57549
-4.15795 -2.96695 -1.5756
-4.14891 -2.9802 -1.57571
-7.31465 -2.59205 -2.46456
-7.30342 -2.61388 -2.46353
-7.31184 -2.6428 -2.46915
-6.58471 -2.59242 -2.24743
-6.52778 -2.59369 -2.23077
-6.47168 -2.59494 -2.21437
-6.41287 -2.59474 -2.19702
-6.35379 -2.59406 -2.17956
-6.29565 -2.5934 -2.1624
-6.23841 -2.59274 -2.14552
-6.18195 -2.59205 -2.12889
-6.12615 -2.59128 -2.11246
-6.07452 -2.59193 -2.09745
-6.02376 -2.59264 -2.08272
-5.97399 -2.59347 -2.06832
-5.92491 -2.59428 -2.05413
-5.8765 -2.59508 -2.04016
-5.82874 -2.59588 -2.0264
-5.78145 -2.59658 -2.01278
-5.73471 -2.59724 -1.99933
-5.68858 -2.59789 -1.98608
-5.64309 -2.59854 -1.97304
-5.59861 -2.59937 -1.96033
-5.55469 -2.6002 -1.9478
-5.51133 -2.60101 -1.93544
-5.4678 -2.60147 -1.92301
-5.42454 -2.60179 -1.91066
-5.38183 -2.6021 -1.89848
-5.33966 -2.60242 -1.88648
-5.29847 -2.60295 -1.8748
-5.25927 -2.6042 -1.86381
-5.22052 -2.60544 -1.85297
-5.18221 -2.60666 -1.84226
-5.14435 -2.60787 -1.8317
-5.10691 -2.60906 -1.82128
-5.06868 -2.60962 -1.81056
-5.02853 -2.60893 -1.79913
-4.98887 -2.60825 -1.78785
-4.9497 -2.60758 -1.77674
-4.91101 -2.60691 -1.76578
-4.87612 -2.60803 -1.75617
-4.84538 -2.61117 -1.74804
-4.812 -2.6127 -1.73895
-4.77639 -2.6128 -1.72903
-4.74118 -2.6129 -1.71925
-4.70637 -2.61299 -1.70958
-4.67194 -2.61308 -1.70005
-4.64262 -2.61585 -1.69236
-4.61658 -2.62029 -1.68585
-4.59073 -2.62469 -1.67941
-4.56533 -2.62921 -1.67313
-4.54138 -2.63442 -1.66737
-4.51773 -2.63968 -1.66172
-4.49469 -2.64517 -1.65629
-4.47179 -2.65062 -1.65091
-4.44903 -2.65602 -1.64558
-4.42953 -2.66327 -1.64145
-4.41486 -2.67334 -1.63911
-4.40021 -2.68337 -1.63679
-4.38559 -2.69336 -1.63448
-4.37099 -2.70332 -1.63219
-4.35641 -2.71323 -1.62992
-4.34185 -2.72311 -1.62766
-4.32732 -2.73295 -1.62542
-4.31276 -2.74272 -1.62318
-4.29821 -2.75244 -1.62094
-4.28368 -2.76212 -1.61872
-4.26917 -2.77177 -1.61652
-4.25468 -2.78137 -1.61433
-4.24022 -2.79095 -1.61215
-4.22578 -2.80048 -1.61
-4.21136 -2.80998 -1.60785
-4.19696 -2.81944 -1.60573
-4.18258 -2.82887 -1.60361
-4.16823 -2.83826 -1.60152
-4.1539 -2.84761 -1.59943
-4.13958 -2.85693 -1.59736
-4.12529 -2.86622 -1.59531
-4.11458 -2.87795 -1.59465
-4.10596 -2.89115 -1.59482
-4.09712 -2.90419 -1.59492
-4.08826 -2.91722 -1.59502
-4.07937 -2.93024 -1.59513
-6.3615 -2.59721 -2.24524
-6.30611 -2.5977 -2.22856
-6.24869 -2.59701 -2.21113
-6.1921 -2.5963 -2.19398
-6.13612 -2.5955 -2.17702
-6.08101 -2.5947 -2.16034
-6.02674 -2.59393 -2.14395
-5.97664 -2.59462 -2.12901
-5.92724 -2.5953 -2.1143
-5.87852 -2.59598 -2.09982
-5.83046 -2.59664 -2.08555
-5.78315 -2.59735 -2.07153
-5.73664 -2.59811 -2.05778
-5.69059 -2.59881 -2.04418
-5.64507 -2.59945 -2.03074
-5.60056 -2.60028 -2.01765
-5.55662 -2.6011 -2.00475
-5.51323 -2.60191 -1.99204
-5.47039 -2.60271 -1.9795
-5.4281 -2.6035 -1.96714
-5.38583 -2.60404 -1.95477
-5.3436 -2.60434 -1.9424
-5.30191 -2.60463 -1.93021
-5.26074 -2.60493 -1.91819
-5.22007 -2.60522 -1.90633
-5.17991 -2.6055 -1.89464
-5.14025 -2.60579 -1.88311
-5.10106 -2.60607 -1.87174
-5.06223 -2.60629 -1.86048
-5.02216 -2.60562 -1.84875
-4.98259 -2.60497 -1.83718
-4.94351 -2.60432 -1.82578
-4.90491 -2.60367 -1.81453
-4.86678 -2.60303 -1.80344
-4.83259 -2.60428 -1.79379
-4.7971 -2.6046 -1.78364
-4.76169 -2.60475 -1.7735
-4.72666 -2.6049 -1.76349
-4.69204 -2.60504 -1.75361
-4.65779 -2.60517 -1.74386
-4.62391 -2.6053 -1.73423
-4.59348 -2.60717 -1.72587
-4.56813 -2.61177 -1.71942
-4.5442 -2.61704 -1.71349
-4.52044 -2.62227 -1.70763
-4.49683 -2.62747 -1.70181
-4.47372 -2.63283 -1.69618
-4.45099 -2.63829 -1.6907
-4.42841 -2.64371 -1.68526
-4.40596 -2.64909 -1.67987
-4.38365 -2.65443 -1.67453
-4.36147 -2.65974 -1.66924
-4.33942 -2.66501 -1.66399
-4.32062 -2.67216 -1.65999
-4.30628 -2.68201 -1.65771
-4.29196 -2.69182 -1.65544
-4.27766 -2.70158 -1.65318
-4.26334 -2.71129 -1.65093
-4.24902 -2.72094 -1.64868
-4.23472 -2.73055 -1.64645
-4.22044 -2.74013 -1.64423
-4.20619 -2.74967 -1.64203
-4.19195 -2.75918 -1.63984
-4.17774 -2.76865 -1.63767
-4.16355 -2.77808 -1.63552
-4.14938 -2.78747 -1.63338
-4.13523 -2.79683 -1.63125
-4.12278 -2.8073 -1.62981
-4.11046 -2.81783 -1.62842
-4.09815 -2.82833 -1.62706
-4.08585 -2.83881 -1.6257
-4.07357 -2.84927 -1.62436
-4.06129 -2.8597 -1.62304
-4.04902 -2.8701 -1.62172
-4.04263 -2.88467 -1.62278
-4.03643 -2.89939 -1.62393
-6.14619 -2.59975 -2.24214
-6.0909 -2.59893 -2.22494
-6.03647 -2.59811 -2.20802
-5.98285 -2.59732 -2.19138
-5.93016 -2.59658 -2.17505
-5.88139 -2.59725 -2.16014
-5.83329 -2.5979 -2.14546
-5.78584 -2.59855 -2.13099
-5.73902 -2.59919 -2.11674
-5.69282 -2.59982 -2.1027
-5.64716 -2.60041 -2.08884
-5.60211 -2.601 -2.07518
-5.55855 -2.60201 -2.06206
-5.51514 -2.60281 -2.04898
-5.47228 -2.6036 -2.03608
-5.42995 -2.60439 -2.02336
-5.38815 -2.60516 -2.01082
-5.34686 -2.60593 -1.99845
-5.30582 -2.60656 -1.98616
-5.2646 -2.60684 -1.97378
-5.22388 -2.60712 -1.96157
-5.18367 -2.60739 -1.94953
-5.14395 -2.60766 -1.93766
-5.10471 -2.60794 -1.92595
-5.06176 -2.60605 -1.91282
-5.01964 -2.60432 -1.89998
-4.97988 -2.60355 -1.88802
-4.94062 -2.60279 -1.87622
-4.90184 -2.60205 -1.86459
-4.86355 -2.60131 -1.85312
-4.86139 -2.6198 -1.85541
-4.86452 -2.64121 -1.85976
-4.86769 -2.66274 -1.86416
-4.70766 -2.59442 -1.80598
-4.69074 -2.60431 -1.80261
-4.67378 -2.61412 -1.79924
-4.65679 -2.62383 -1.79586
-4.63978 -2.63346 -1.79248
-4.62273 -2.64299 -1.78909
-4.52316 -2.60492 -1.7537
-4.49958 -2.61017 -1.74773
-4.47614 -2.61538 -1.7418
-4.45286 -2.62055 -1.73593
-4.43027 -2.62601 -1.73033
-4.40786 -2.63144 -1.72479
-4.38558 -2.63684 -1.7193
-4.36343 -2.6422 -1.71386
-4.34142 -2.64752 -1.70847
-4.31954 -2.6528 -1.70313
-4.29778 -2.65804 -1.69783
-4.27616 -2.66325 -1.69258
-4.25466 -2.66842 -1.68737
-4.23329 -2.67356 -1.68221
-4.2165 -2.6815 -1.67888
-4.20418 -2.69222 -1.67733
-4.19187 -2.70292 -1.67579
-4.17957 -2.7136 -1.67427
-4.16729 -2.72425 -1.67277
-4.15502 -2.73487 -1.67128
-4.14276 -2.74546 -1.6698
-4.13051 -2.75603 -1.66834
-4.11827 -2.76658 -1.66689
-4.10604 -2.7771 -1.66546
-4.09383 -2.78759 -1.66405
-4.08162 -2.79806 -1.66264
-4.06942 -2.80851 -1.66126
-4.05723 -2.81893 -1.65988
-4.04506 -2.82933 -1.65853
-4.03289 -2.8397 -1.65718
-4.02073 -2.85005 -1.65585
-4.00859 -2.86037 -1.65454
-3.99727 -2.87127 -1.65357
-5.99251 -2.60151 -2.25551
-5.93954 -2.60069 -2.23864
-5.88737 -2.59989 -2.22204
-5.83613 -2.59917 -2.20576
-5.78864 -2.59981 -2.19088
-5.74178 -2.60044 -2.17623
-5.69554 -2.60107 -2.16178
-5.64981 -2.60163 -2.14751
-5.60263 -2.60124 -2.13267
-5.55609 -2.60086 -2.11805
-5.51279 -2.6017 -2.10465
-5.47135 -2.60316 -2.09193
-5.4304 -2.6046 -2.07939
-5.38994 -2.60603 -2.06702
-5.34868 -2.60681 -2.05432
-5.30787 -2.60756 -2.04178
-5.26756 -2.6083 -2.02941
-5.22771 -2.60903 -2.0172
-5.18745 -2.60929 -2.00481
-5.14768 -2.60955 -1.9926
-5.10838 -2.60981 -1.98055
-5.06537 -2.60791 -1.96703
-5.01947 -2.60423 -1.95237
-4.97812 -2.60263 -1.93945
-4.93889 -2.60188 -1.92734
-4.90631 -2.60442 -1.91781
-4.84643 -2.59215 -1.89757
-4.81009 -2.59215 -1.88651
-4.77416 -2.59215 -1.87561
-4.73866 -2.59216 -1.86484
-4.70355 -2.59216 -1.85422
-4.66884 -2.59216 -1.84373
-4.63452 -2.59216 -1.83338
-4.60059 -2.59216 -1.82316
-4.56703 -2.59216 -1.81308
-4.53384 -2.59216 -1.80312
-4.5129 -2.59902 -1.79803
-4.50745 -2.61474 -1.79912
-4.45553 -2.60334 -1.78165
-4.43243 -2.60853 -1.77567
-4.40963 -2.61377 -1.76982
-4.38739 -2.61922 -1.76418
-4.36528 -2.62463 -1.75859
-4.3433 -2.63 -1.75305
-4.32145 -2.63534 -1.74756
-4.29973 -2.64063 -1.74212
-4.27928 -2.6466 -1.73719
-4.26014 -2.65327 -1.73279
-4.24108 -2.65991 -1.72842
-4.22212 -2.66651 -1.7241
-4.20132 -2.67185 -1.71902
-4.18427 -2.67947 -1.71547
-4.17093 -2.68942 -1.71345
-4.15763 -2.69935 -1.71146
-4.14434 -2.70924 -1.70948
-4.13108 -2.71911 -1.70752
-4.11785 -2.72895 -1.70558
-4.10463 -2.73877 -1.70366
-4.09144 -2.74856 -1.70175
-4.07828 -2.75832 -1.69987
-4.06513 -2.76806 -1.698
-4.05302 -2.77846 -1.69658
-4.04094 -2.78885 -1.69517
-4.02886 -2.79921 -1.69378
-4.01679 -2.80955 -1.6924
-4.00473 -2.81987 -1.69104
-3.99268 -2.83016 -1.68969
-3.98064 -2.84043 -1.68836
-3.9686 -2.85068 -1.68704
-5.79445 -2.60242 -2.25234
-5.74456 -2.6017 -2.23611
-5.69828 -2.60232 -2.22126
-5.65247 -2.60286 -2.20658
-5.60525 -2.60246 -2.19132
-5.55868 -2.60207 -2.17629
-5.51274 -2.60168 -2.16149
-5.46743 -2.6013 -2.14692
-5.42574 -2.60237 -2.13374
-5.38534 -2.6038 -2.12106
-5.34542 -2.60522 -2.10854
-5.30595 -2.60662 -2.09619
-5.26696 -2.60801 -2.08401
-5.2284 -2.60937 -2.07198
-5.19011 -2.61063 -2.06004
-5.15121 -2.61135 -2.04784
-5.11209 -2.61171 -2.03554
-5.069 -2.60978 -2.02163
-5.02304 -2.60608 -2.00655
-4.97776 -2.60244 -1.99171
-4.95545 -2.6106 -1.98605
-4.8832 -2.59215 -1.96035
-4.84643 -2.59215 -1.94884
-4.81009 -2.59215 -1.93749
-4.77416 -2.59215 -1.92628
-4.73866 -2.59216 -1.91523
-4.70355 -2.59216 -1.90432
-4.66884 -2.59216 -1.89355
-4.63452 -2.59216 -1.88292
-4.60059 -2.59216 -1.87243
-4.56703 -2.59216 -1.86207
-4.53384 -2.59216 -1.85184
-4.50101 -2.59217 -1.84175
-4.46854 -2.59217 -1.83178
-4.43641 -2.59217 -1.82193
-4.43267 -2.60867 -1.82375
-4.38928 -2.60171 -1.80925
-4.36699 -2.60704 -1.80342
-4.3458 -2.61292 -1.79805
-4.32635 -2.61974 -1.79339
-4.307 -2.62652 -1.78878
-4.28774 -2.63327 -1.7842
-4.26858 -2.63998 -1.77966
-4.24951 -2.64665 -1.77517
-4.23053 -2.65329 -1.77071
-4.21086 -2.65939 -1.76596
-4.19011 -2.66472 -1.76075
-4.16948 -2.67 -1.75559
-4.15245 -2.67751 -1.75195
-4.13923 -2.6874 -1.74992
-4.12602 -2.69727 -1.74791
-4.11284 -2.70711 -1.74591
-4.09968 -2.71692 -1.74394
-4.08655 -2.7267 -1.74198
-4.07344 -2.73646 -1.74004
-4.06035 -2.74619 -1.73812
-4.04728 -2.7559 -1.73622
-4.03424 -2.76558 -1.73434
-4.02121 -2.77524 -1.73248
-4.00821 -2.78487 -1.73063
-3.99523 -2.79447 -1.7288
-3.98227 -2.80406 -1.72699
-3.96933 -2.81361 -1.7252
-3.95641 -2.82314 -1.72342
-3.94351 -2.83265 -1.72167
-5.65516 -2.60409 -2.26605
-5.60789 -2.60369 -2.25037
-5.56128 -2.60328 -2.23494
-5.5153 -2.60289 -2.21973
-5.46995 -2.6025 -2.20475
-5.42521 -2.60211 -2.19
-5.38106 -2.60173 -2.17546
-5.34086 -2.603 -2.1625
-5.30146 -2.60441 -2.14984
-5.26252 -2.60581 -2.13735
-5.22403 -2.60719 -2.12503
-5.18597 -2.60855 -2.11287
-5.14835 -2.60989 -2.10087
-5.11114 -2.61122 -2.08902
-5.07065 -2.61063 -2.07581
-5.02418 -2.60667 -2.06012
-4.97839 -2.60277 -2.04468
-4.92041 -2.59215 -2.0242
-4.8832 -2.59215 -2.01223
-4.84643 -2.59215 -2.00042
-4.81009 -2.59215 -1.98876
-4.77417 -2.59215 -1.97726
-4.73866 -2.59216 -1.96591
-4.70355 -2.59216 -1.95471
-4.66884 -2.59216 -1.94366
-4.63452 -2.59216 -1.93275
-4.60059 -2.59216 -1.92198
-4.56703 -2.59216 -1.91135
-4.53384 -2.59216 -1.90085
-4.50101 -2.59217 -1.89049
-4.46854 -2.59217 -1.88026
-4.43641 -2.59217 -1.87015
-4.40463 -2.59217 -1.86017
-4.38526 -2.59933 -1.85543
-4.38209 -2.61606 -1.85755
-4.33478 -2.60629 -1.84095
-4.31541 -2.61312 -1.8362
-4.29613 -2.6199 -1.83148
-4.27695 -2.62664 -1.82681
-4.25786 -2.63335 -1.82218
-4.23887 -2.64003 -1.81758
-4.21996 -2.64666 -1.81303
-4.19955 -2.65225 -1.80782
-4.17889 -2.65758 -1.80251
-4.15835 -2.66288 -1.79724
-4.13793 -2.66814 -1.79203
-4.12088 -2.67549 -1.78827
-4.10776 -2.68532 -1.78622
-4.09465 -2.69513 -1.78419
-4.08158 -2.70492 -1.78218
-4.06852 -2.71467 -1.78019
-4.05549 -2.7244 -1.77822
-4.04248 -2.7341 -1.77627
-4.02948 -2.74378 -1.77433
-4.01652 -2.75343 -1.77242
-4.00357 -2.76306 -1.77052
-3.99064 -2.77266 -1.76864
-3.97773 -2.78224 -1.76678
-3.96485 -2.79179 -1.76494
-3.95198 -2.80132 -1.76312
-3.93914 -2.81082 -1.76131
-3.92631 -2.8203 -1.75952
-5.47249 -2.60371 -2.26299
-5.42772 -2.60331 -2.24784
-5.38353 -2.60293 -2.23291
-5.33993 -2.60255 -2.2182
-5.29694 -2.60219 -2.20373
-5.25806 -2.6036 -2.19094
-5.21962 -2.60499 -2.17832
-5.18162 -2.60636 -2.16586
-5.14406 -2.60772 -2.15357
-5.10691 -2.60906 -2.14143
-5.06942 -2.60999 -2.12913
-5.02413 -2.60665 -2.11353
-4.97834 -2.60275 -2.0977
-4.92041 -2.59215 -2.07671
-4.8832 -2.59215 -2.06442
-4.84643 -2.59215 -2.0523
-4.81009 -2.59215 -2.04035
-4.77416 -2.59215 -2.02855
-4.73866 -2.59216 -2.01691
-4.70355 -2.59216 -2.00542
-4.66884 -2.59216 -1.99408
-4.63452 -2.59216 -1.98288
-4.60059 -2.59216 -1.97183
-4.56703 -2.59216 -1.96093
-4.53384 -2.59216 -1.95016
-4.50101 -2.59217 -1.93953
-4.46854 -2.59217 -1.92903
-4.43642 -2.59217 -1.91866
-4.40464 -2.59217 -1.90843
-4.37319 -2.59217 -1.89831
-4.34208 -2.59217 -1.88833
-4.33617 -2.60713 -1.88931
-4.30446 -2.60648 -1.87904
-4.28526 -2.61327 -1.87423
-4.26615 -2.62001 -1.86946
-4.24714 -2.62672 -1.86473
-4.22822 -2.63339 -1.86004
-4.20892 -2.63974 -1.85519
-4.18824 -2.64511 -1.84972
-4.16766 -2.65044 -1.8443
-4.14721 -2.65574 -1.83893
-4.12687 -2.66101 -1.8336
-4.10664 -2.66625 -1.82832
-4.08954 -2.67342 -1.82443
-4.07652 -2.6832 -1.82237
-4.06352 -2.69295 -1.82032
-4.05054 -2.70268 -1.8183
-4.03758 -2.71237 -1.81629
-4.02465 -2.72205 -1.81431
-4.01173 -2.73169 -1.81234
-3.99884 -2.74132 -1.81039
-3.98597 -2.75091 -1.80846
-3.97312 -2.76049 -1.80655
-3.96029 -2.77003 -1.80466
-3.94748 -2.77956 -1.80279
-3.93482 -2.78915 -1.80099
-3.92241 -2.79888 -1.79932
-3.91002 -2.8086 -1.79767
-5.29931 -2.60335 -2.2608
-5.2568 -2.60298 -2.24614
-5.21521 -2.60279 -2.23184
-5.17726 -2.60417 -2.21909
-5.13976 -2.60554 -2.20651
-5.10262 -2.60687 -2.19407
-5.06504 -2.60774 -2.18141
-5.02408 -2.60662 -2.16728
-4.97829 -2.60272 -2.15104
-4.92041 -2.59215 -2.12954
-4.8832 -2.59215 -2.11694
-4.84643 -2.59215 -2.10452
-4.81009 -2.59215 -2.09226
-4.77416 -2.59215 -2.08016
-4.73866 -2.59216 -2.06822
-4.70355 -2.59216 -2.05643
-4.66884 -2.59216 -2.04481
-4.63452 -2.59216 -2.03333
-4.60059 -2.59216 -2.022
-4.56703 -2.59216 -2.01081
-4.53384 -2.59216 -1.99977
-4.50101 -2.59217 -1.98887
-4.46854 -2.59217 -1.9781
-4.43641 -2.59217 -1.96747
-4.40464 -2.59217 -1.95698
-4.37319 -2.59217 -1.94661
-4.34208 -2.59217 -1.93637
-4.31143 -2.59226 -1.92632
-4.30956 -2.60957 -1.92913
-4.27437 -2.60663 -1.91703
-4.25534 -2.61337 -1.91216
-4.2364 -2.62008 -1.90734
-4.21756 -2.62675 -1.90255
-4.19751 -2.63258 -1.89723
-4.17691 -2.63796 -1.89165
-4.15643 -2.6433 -1.88612
-4.13606 -2.64861 -1.88064
-4.11581 -2.65388 -1.87521
-4.09567 -2.65912 -1.86982
-4.07564 -2.66433 -1.86448
-4.05843 -2.67129 -1.86044
-4.04551 -2.68101 -1.85836
-4.03261 -2.69071 -1.8563
-4.01973 -2.70038 -1.85426
-4.00687 -2.71002 -1.85224
-3.99403 -2.71964 -1.85024
-3.98121 -2.72923 -1.84826
-3.96842 -2.7388 -1.8463
-3.95587 -2.7485 -1.84447
-3.94348 -2.75828 -1.84272
-3.93111 -2.76803 -1.84098
-3.91875 -2.77776 -1.83927
-3.90641 -2.78746 -1.83757
-3.89408 -2.79715 -1.83589
-5.13543 -2.60335 -2.25969
-5.09817 -2.60459 -2.24688
-5.06064 -2.60547 -2.23394
-5.02354 -2.60634 -2.22116
-4.98237 -2.60485 -2.20655
-4.92041 -2.59215 -2.18271
-4.8832 -2.59215 -2.1698
-4.84643 -2.59215 -2.15706
-4.81009 -2.59215 -2.14449
-4.77417 -2.59215 -2.13209
-4.73866 -2.59216 -2.11986
-4.70355 -2.59216 -2.10778
-4.66884 -2.59216 -2.09586
-4.63452 -2.59216 -2.0841
-4.60059 -2.59216 -2.07248
-4.56703 -2.59216 -2.06102
-4.53384 -2.59216 -2.0497
-4.50101 -2.59217 -2.03852
-4.46854 -2.59217 -2.02749
-4.43641 -2.59217 -2.01659
-4.40464 -2.59217 -2.00584
-4.37319 -2.59217 -1.99521
-4.34208 -2.59217 -1.98472
-4.31129 -2.59217 -1.97435
-4.28493 -2.59466 -1.96599
-4.28301 -2.61189 -1.96887
-4.24451 -2.60673 -1.95492
-4.22565 -2.61343 -1.95
-4.20671 -2.62 -1.94504
-4.18609 -2.62542 -1.9393
-4.16558 -2.6308 -1.93362
-4.14518 -2.63615 -1.92798
-4.12491 -2.64146 -1.92239
-4.10474 -2.64674 -1.91685
-4.08468 -2.65199 -1.91137
-4.06474 -2.6572 -1.90592
-4.0449 -2.66239 -1.90053
-4.02754 -2.66911 -1.8963
-4.01472 -2.67878 -1.89421
-4.00192 -2.68841 -1.89214
-3.98914 -2.69803 -1.89009
-3.97671 -2.70785 -1.88822
-3.96434 -2.71766 -1.88638
-3.95198 -2.72745 -1.88456
-3.93963 -2.73722 -1.88276
-3.92731 -2.74697 -1.88098
-3.915 -2.75669 -1.87922
-3.90271 -2.76639 -1.87747
-3.89043 -2.77606 -1.87575
-3.87817 -2.78572 -1.87404
-5.01918 -2.60408 -2.27364
-4.98812 -2.60786 -2.26326
-4.92042 -2.59215 -2.23622
-4.8832 -2.59215 -2.223
-4.84643 -2.59215 -2.20995
-4.81009 -2.59215 -2.19707
-4.77417 -2.59215 -2.18437
-4.73866 -2.59216 -2.17183
-4.70355 -2.59216 -2.15946
-4.66884 -2.59216 -2.14725
-4.63452 -2.59216 -2.13519
-4.60059 -2.59216 -2.1233
-4.56703 -2.59216 -2.11155
-4.53384 -2.59216 -2.09995
-4.50101 -2.59217 -2.08851
-4.46854 -2.59217 -2.0772
-4.43642 -2.59217 -2.06604
-4.40464 -2.59217 -2.05502
-4.37319 -2.59217 -2.04413
-4.34208 -2.59217 -2.03338
-4.31129 -2.59217 -2.02276
-4.28083 -2.59218 -2.01227
-4.25942 -2.59751 -2.00603
-4.25872 -2.61545 -2.00956
-4.21489 -2.60678 -1.99272
-4.19519 -2.61282 -1.98727
-4.17465 -2.61824 -1.98142
-4.15423 -2.62363 -1.97563
-4.13393 -2.62899 -1.96989
-4.11374 -2.63431 -1.96419
-4.09365 -2.63959 -1.95855
-4.07368 -2.64485 -1.95296
-4.05382 -2.65007 -1.94741
-4.03461 -2.65561 -1.94217
-4.01615 -2.66156 -1.9373
-4.0004 -2.66922 -1.93373
-3.98755 -2.67876 -1.93157
-3.97473 -2.68828 -1.92944
-3.96194 -2.69779 -1.92733
-3.94917 -2.70727 -1.92524
-3.93643 -2.71673 -1.92317
-3.92372 -2.72617 -1.92113
-3.91117 -2.73568 -1.91918
-3.89892 -2.74537 -1.91739
-3.8867 -2.75504 -1.91562
-3.87449 -2.76469 -1.91386
-3.86229 -2.77431 -1.91213
-4.8832 -2.59215 -2.27655
-4.84643 -2.59215 -2.26319
-4.81009 -2.59215 -2.25001
-4.77417 -2.59215 -2.237
-4.73866 -2.59216 -2.22416
-4.70355 -2.59216 -2.21149
-4.66884 -2.59216 -2.19898
-4.63452 -2.59216 -2.18664
-4.60059 -2.59216 -2.17445
-4.56703 -2.59216 -2.16242
-4.53384 -2.59217 -2.15055
-4.50101 -2.59217 -2.13882
-4.46854 -2.59217 -2.12725
-4.43641 -2.59217 -2.11581
-4.40464 -2.59217 -2.10453
-4.37319 -2.59217 -2.09338
-4.34208 -2.59217 -2.08237
-4.31129 -2.59217 -2.07149
-4.28083 -2.59218 -2.06075
-4.25068 -2.59218 -2.05014
-4.24994 -2.61005 -2.05373
-4.24922 -2.628 -2.05735
-4.18548 -2.60677 -2.03044
-4.16624 -2.61297 -2.02508
-4.14711 -2.61913 -2.01976
-4.12807 -2.62526 -2.01449
-4.10914 -2.63136 -2.00927
-4.0903 -2.63743 -2.00409
-4.07156 -2.64347 -1.99896
-4.05291 -2.64947 -1.99388
-4.03436 -2.65545 -1.98884
-4.0159 -2.66139 -1.98385
-3.99896 -2.66826 -1.9796
-3.98611 -2.6778 -1.9774
-3.9733 -2.68732 -1.97521
-3.96051 -2.69682 -1.97305
-3.94776 -2.7063 -1.97091
-3.93502 -2.71575 -1.9688
-3.92232 -2.72519 -1.96671
-3.90964 -2.73461 -1.96465
-3.89698 -2.744 -1.9626
-3.88436 -2.75338 -1.96059
-3.87176 -2.76274 -1.95859
-3.85918 -2.77207 -1.95662
-4.8832 -2.59215 -2.33048
-4.84643 -2.59215 -2.3168
-4.81009 -2.59215 -2.3033
-4.77417 -2.59215 -2.28998
-4.73866 -2.59216 -2.27684
-4.70355 -2.59216 -2.26387
-4.66884 -2.59216 -2.25107
-4.63452 -2.59216 -2.23843
-4.60059 -2.59216 -2.22596
-4.56703 -2.59216 -2.21365
-4.53384 -2.59217 -2.20149
-4.50101 -2.59217 -2.18949
-4.46854 -2.59217 -2.17763
-4.43642 -2.59217 -2.16593
-4.40464 -2.59217 -2.15438
-4.37319 -2.59217 -2.14297
-4.34208 -2.59217 -2.13169
-4.3113 -2.59217 -2.12056
-4.28083 -2.59218 -2.10957
-4.25068 -2.59218 -2.0987
-4.24113 -2.60464 -2.09801
-4.24039 -2.62255 -2.10171
-4.18472 -2.6063 -2.07816
-4.16595 -2.61279 -2.0729
-4.14684 -2.61897 -2.06747
-4.12781 -2.6251 -2.06208
-4.10888 -2.63119 -2.05673
-4.09004 -2.63726 -2.05143
-4.0713 -2.6433 -2.04618
-4.05265 -2.6493 -2.04098
-4.0341 -2.65528 -2.03582
-4.01565 -2.66122 -2.03071
-3.99751 -2.66729 -2.02576
-3.98467 -2.67683 -2.0235
-3.97187 -2.68635 -2.02127
-3.95908 -2.69584 -2.01906
-3.94633 -2.70532 -2.01687
-3.93361 -2.71477 -2.01471
-3.92091 -2.72421 -2.01257
-3.90823 -2.73362 -2.01046
-3.89558 -2.74302 -2.00837
-3.88296 -2.75239 -2.00631
-3.87037 -2.76175 -2.00426
-3.8578 -2.77108 -2.00225
-4.84643 -2.59215 -2.37079
-4.81009 -2.59215 -2.35698
-4.77417 -2.59215 -2.34335
-4.73866 -2.59216 -2.3299
-4.70355 -2.59216 -2.31662
-4.66884 -2.59216 -2.30352
-4.63452 -2.59216 -2.29059
-4.60059 -2.59216 -2.27783
-4.56703 -2.59216 -2.26523
-4.53384 -2.59217 -2.25279
-4.50101 -2.59217 -2.24051
-4.46854 -2.59217 -2.22838
-4.43641 -2.59217 -2.2164
-4.40464 -2.59217 -2.20458
-4.37319 -2.59217 -2.1929
-4.34208 -2.59217 -2.18137
-4.31129 -2.59217 -2.16998
-4.28083 -2.59218 -2.15872
-4.25068 -2.59218 -2.14761
-4.23328 -2.59982 -2.14293
-4.23419 -2.61872 -2.14754
-4.18357 -2.60558 -2.126
-4.16481 -2.61207 -2.12062
-4.14615 -2.61853 -2.11529
-4.12754 -2.62493 -2.10999
-4.10861 -2.63103 -2.10452
-4.08978 -2.63709 -2.0991
-4.07104 -2.64313 -2.09373
-4.0524 -2.64913 -2.0884
-4.03384 -2.65511 -2.08313
-4.01539 -2.66105 -2.0779
-3.99703 -2.66697 -2.07272
-3.98322 -2.67586 -2.0699
-3.97042 -2.68537 -2.06762
-3.95764 -2.69486 -2.06535
-3.9449 -2.70434 -2.06312
-3.93218 -2.71379 -2.06091
-3.91948 -2.72322 -2.05873
-3.90682 -2.73263 -2.05656
-3.89418 -2.74203 -2.05443
-3.88156 -2.7514 -2.05232
-3.86932 -2.761 -2.05041
-3.8572 -2.77066 -2.04859
-4.81009 -2.59215 -2.41103
-4.77417 -2.59215 -2.39709
-4.73866 -2.59216 -2.38333
-4.70355 -2.59216 -2.36975
-4.66884 -2.59216 -2.35635
-4.63452 -2.59216 -2.34313
-4.60059 -2.59216 -2.33007
-4.56703 -2.59216 -2.31718
-4.53384 -2.59217 -2.30445
-4.50101 -2.59217 -2.29189
-4.46854 -2.59217 -2.27949
-4.43642 -2.59217 -2.26724
-4.40464 -2.59217 -2.25514
-4.37319 -2.59217 -2.24319
-4.34208 -2.59217 -2.2314
-4.3113 -2.59217 -2.21975
-4.28083 -2.59218 -2.20823
-4.25068 -2.59218 -2.19686
-4.24418 -2.60652 -2.19772
-4.24512 -2.62547 -2.20246
-4.18241 -2.60486 -2.17416
-4.16366 -2.61135 -2.16866
-4.145 -2.6178 -2.16321
-4.12644 -2.62423 -2.15781
-4.10797 -2.63062 -2.15245
-4.08951 -2.63692 -2.1471
-4.07077 -2.64296 -2.14161
-4.05213 -2.64896 -2.13616
-4.03358 -2.65494 -2.13077
-4.01513 -2.66088 -2.12542
-3.99677 -2.6668 -2.12012
-3.98176 -2.67487 -2.1166
-3.96897 -2.68439 -2.11426
-3.9562 -2.69388 -2.11195
-3.94346 -2.70335 -2.10967
-3.93074 -2.7128 -2.10741
-3.91805 -2.72223 -2.10517
-3.90539 -2.73164 -2.10297
-3.89305 -2.74123 -2.10094
-3.88089 -2.75092 -2.09902
-3.86875 -2.76059 -2.09713
-3.85664 -2.77025 -2.09526
-4.73866 -2.59216 -2.43716
-4.70354 -2.59216 -2.42328
-4.66884 -2.59216 -2.40957
-4.63452 -2.59216 -2.39605
-4.60059 -2.59216 -2.3827
-4.56703 -2.59216 -2.36952
-4.53384 -2.59217 -2.3565
-4.50101 -2.59217 -2.34366
-4.46854 -2.59217 -2.33097
-4.43641 -2.59217 -2.31844
-4.40464 -2.59217 -2.30608
-4.37319 -2.59217 -2.29386
-4.34208 -2.59217 -2.2818
-4.31129 -2.59218 -2.26988
-4.28083 -2.59218 -2.25811
-4.25425 -2.59436 -2.24837
-4.25521 -2.61329 -2.2532
-4.25618 -2.63231 -2.25808
-4.18124 -2.60413 -2.22264
-4.1625 -2.61062 -2.21702
-4.14385 -2.61708 -2.21145
-4.1253 -2.6235 -2.20593
-4.10684 -2.62989 -2.20046
-4.08846 -2.63625 -2.19504
-4.07018 -2.64258 -2.18966
-4.05187 -2.64879 -2.18427
-4.03332 -2.65477 -2.17875
-4.01487 -2.66071 -2.17328
-3.99651 -2.66663 -2.16786
-3.98029 -2.67389 -2.1636
-3.9675 -2.68339 -2.16122
-3.95474 -2.69289 -2.15886
-3.942 -2.70235 -2.15652
-3.9293 -2.7118 -2.15421
-3.91685 -2.72139 -2.15206
-3.90465 -2.73112 -2.15005
-3.89247 -2.74083 -2.14807
-3.88031 -2.75051 -2.14611
-3.86818 -2.76018 -2.14418
-3.85606 -2.76984 -2.14227
-4.66884 -2.59216 -2.4632
-4.63453 -2.59216 -2.44937
-4.60059 -2.59216 -2.43572
-4.56703 -2.59216 -2.42225
-4.53384 -2.59217 -2.40894
-4.50101 -2.59217 -2.39581
-4.46854 -2.59217 -2.38284
-4.43642 -2.59217 -2.37004
-4.40464 -2.59217 -2.35739
-4.37319 -2.59217 -2.34491
-4.34208 -2.59217 -2.33257
-4.3113 -2.59218 -2.32039
-4.28091 -2.59222 -2.3084
-4.28552 -2.61342 -2.3153
-4.29018 -2.63477 -2.32227
-4.29489 -2.65625 -2.32932
-4.18007 -2.6034 -2.27146
-4.16133 -2.60989 -2.26572
-4.1427 -2.61635 -2.26003
-4.12415 -2.62277 -2.25439
-4.1057 -2.62916 -2.2488
-4.08733 -2.63552 -2.24326
-4.06906 -2.64184 -2.23777
-4.05087 -2.64814 -2.23233
-4.03277 -2.6544 -2.22693
-4.01461 -2.66054 -2.2215
-3.99626 -2.66645 -2.21596
-3.97881 -2.67289 -2.21093
-3.96603 -2.6824 -2.20849
-3.95327 -2.69189 -2.20608
-3.94073 -2.70148 -2.2038
-3.92849 -2.71124 -2.2017
-3.91626 -2.72099 -2.19962
-3.90407 -2.73071 -2.19757
-3.89189 -2.74042 -2.19554
-3.87974 -2.7501 -2.19354
-3.8676 -2.75977 -2.19157
-3.85549 -2.76943 -2.18962
-4.60059 -2.59216 -2.48915
-4.56703 -2.59216 -2.47538
-4.53384 -2.59217 -2.46179
-4.50101 -2.59217 -2.44837
-4.46854 -2.59217 -2.43512
-4.43642 -2.59217 -2.42203
-4.40464 -2.59217 -2.40911
-4.37319 -2.59217 -2.39634
-4.34208 -2.59217 -2.38374
-4.32969 -2.60324 -2.38141
-4.33447 -2.62466 -2.38856
-4.35233 -2.65417 -2.40297
-4.3925 -2.69761 -2.42982
-4.43378 -2.74215 -2.4574
-4.01365 -2.6599 -2.26969
-3.99573 -2.66611 -2.26428
-3.97773 -2.67216 -2.25881
-3.96469 -2.6815 -2.25618
-3.9524 -2.69129 -2.25398
-3.94014 -2.70107 -2.2518
-3.9279 -2.71083 -2.24966
-3.91568 -2.72058 -2.24753
-3.90348 -2.7303 -2.24544
-3.8913 -2.74 -2.24337
-3.87915 -2.74969 -2.24133
-3.86702 -2.75936 -2.23931
-3.85491 -2.76901 -2.23732
-6.94889 -3.2216 -1.02457
-6.92012 -3.2347 -1.02182
-6.88994 -3.24698 -1.01886
-6.86217 -3.26026 -1.01626
-6.83895 -3.27559 -1.01434
-6.81574 -3.29081 -1.01243
-6.79253 -3.30595 -1.01052
-6.76933 -3.32098 -1.00861
-6.74616 -3.33592 -1.00671
-6.72299 -3.35078 -1.00482
-6.69983 -3.36554 -1.00293
-6.67668 -3.3802 -1.00105
-6.65239 -3.39418 -0.999005
-6.62753 -3.40776 -0.996872
-6.60269 -3.42124 -0.994747
-6.57788 -3.43462 -0.992629
-6.55311 -3.44791 -0.990519
-6.52837 -3.46111 -0.988417
-6.50366 -3.47421 -0.986323
-6.47899 -3.48722 -0.984236
-6.45465 -3.5003 -0.982203
-6.4551 -3.52681 -0.983952
-6.45543 -3.55335 -0.985697
-6.4556 -3.57989 -0.987434
-6.45563 -3.60646 -0.989165
-6.45549 -3.63302 -0.990888
-6.45524 -3.6596 -0.992607
-6.45482 -3.6862 -0.994317
-6.45208 -3.71154 -0.995685
-6.4479 -3.73612 -0.996844
-6.49478 -3.79058 -1.00593
-6.54532 -3.84767 -1.01562
-6.59658 -3.90572 -1.02547
-6.62856 -3.95282 -1.03237
-6.6583 -3.99894 -1.03895
-7.16899 -2.94824 -1.10255
-7.05378 -2.92678 -1.08624
-6.97402 -2.91939 -1.07537
-6.93358 -2.92808 -1.07054
-6.89347 -2.93667 -1.06577
-6.85366 -2.94517 -1.06104
-6.81418 -2.95358 -1.05635
-6.77501 -2.9619 -1.05172
-6.73613 -2.97013 -1.04713
-6.70107 -2.97983 -1.04312
-6.67491 -2.99333 -1.04051
-6.64881 -3.00673 -1.03791
-6.62279 -3.02004 -1.03532
-6.59683 -3.03326 -1.03275
-6.57095 -3.04638 -1.03019
-6.54513 -3.05941 -1.02764
-6.51784 -3.07163 -1.02486
-6.49041 -3.08364 -1.02207
-6.46306 -3.09555 -1.01929
-6.43581 -3.10737 -1.01652
-6.40865 -3.11911 -1.01377
-6.38157 -3.13075 -1.01104
-6.35459 -3.1423 -1.00832
-6.33752 -3.15866 -1.00718
-6.32115 -3.17531 -1.00616
-6.30477 -3.19191 -1.00514
-6.28839 -3.20846 -1.00413
-6.27202 -3.22496 -1.00313
-6.25564 -3.24141 -1.00213
-6.24016 -3.25829 -1.00129
-6.22814 -3.27693 -1.00101
-6.2161 -3.29555 -1.00073
-6.20402 -3.31414 -1.00045
-6.19191 -3.3327 -1.00018
-6.17982 -3.35125 -0.999922
-6.16792 -3.36991 -0.999705
-6.156 -3.38853 -0.999492
-6.14405 -3.40713 -0.999284
-6.13206 -3.4257 -0.999079
-6.12005 -3.44424 -0.998878
-6.108 -3.46275 -0.998681
-6.09592 -3.48124 -0.998488
-6.08381 -3.49969 -0.998299
-6.08217 -3.52421 -0.99984
-6.08065 -3.54888 -1.00142
-6.07908 -3.57359 -1.003
-6.07746 -3.59836 -1.00459
-6.0765 -3.6236 -1.00631
-6.07552 -3.64892 -1.00804
-6.0745 -3.67431 -1.00978
-6.07342 -3.69975 -1.01152
-6.07228 -3.72524 -1.01328
-6.0711 -3.7508 -1.01504
-6.07636 -3.78046 -1.0179
-6.08594 -3.81297 -1.02151
-6.09554 -3.84569 -1.02514
-6.10514 -3.87859 -1.02879
-6.11593 -3.91244 -1.03268
-6.12786 -3.94725 -1.03678
-6.13983 -3.98229 -1.04092
-6.15183 -4.01756 -1.04508
-7.50132 -2.86686 -1.2104
-7.41456 -2.86042 -1.19784
-7.35016 -2.86211 -1.18889
-7.27592 -2.85954 -1.17832
-7.20296 -2.85701 -1.16796
-7.13127 -2.85451 -1.15778
-7.0608 -2.85205 -1.14779
-6.99463 -2.8509 -1.13848
-6.93992 -2.85404 -1.13103
-6.88592 -2.85713 -1.12368
-6.83259 -2.86018 -1.11644
-6.77993 -2.86319 -1.1093
-6.72793 -2.86615 -1.10226
-6.67657 -2.86907 -1.09531
-6.62584 -2.87195 -1.08846
-6.57574 -2.87478 -1.08171
-6.53115 -2.87975 -1.07586
-6.49444 -2.88795 -1.0713
-6.45801 -2.89606 -1.06678
-6.42184 -2.90409 -1.06231
-6.38595 -2.91204 -1.05788
-6.35032 -2.91991 -1.05349
-6.32041 -2.93023 -1.05005
-6.29463 -2.94232 -1.0473
-6.26897 -2.95434 -1.04456
-6.2434 -2.96628 -1.04185
-6.22228 -2.98022 -1.03988
-6.20626 -2.99655 -1.03877
-6.19026 -3.01282 -1.03767
-6.17425 -3.02904 -1.03658
-6.15824 -3.04521 -1.03549
-6.14224 -3.06133 -1.03441
-6.12623 -3.0774 -1.03334
-6.11023 -3.09342 -1.03227
-6.09423 -3.1094 -1.03121
-6.07839 -3.1254 -1.03019
-6.06271 -3.14144 -1.02919
-6.04702 -3.15743 -1.02821
-6.03133 -3.17338 -1.02723
-6.01563 -3.18927 -1.02626
-5.99994 -3.20512 -1.02529
-5.98424 -3.22093 -1.02433
-5.97016 -3.23756 -1.02366
-5.95846 -3.25546 -1.0234
-5.94673 -3.27334 -1.02314
-5.93497 -3.29118 -1.02289
-5.92318 -3.309 -1.02264
-5.91136 -3.32679 -1.0224
-5.89951 -3.34455 -1.02216
-5.88763 -3.36229 -1.02193
-5.87751 -3.38102 -1.02201
-5.87089 -3.40179 -1.02271
-5.86425 -3.42258 -1.02342
-5.85758 -3.44338 -1.02414
-5.85089 -3.4642 -1.02486
-5.84416 -3.48505 -1.0256
-5.8392 -3.50699 -1.02665
-5.83877 -3.53172 -1.02852
-5.83831 -3.55652 -1.0304
-5.83783 -3.58141 -1.0323
-5.83732 -3.60637 -1.0342
-5.83679 -3.63141 -1.03613
-5.83623 -3.65652 -1.03806
-5.83565 -3.68172 -1.04001
-5.83505 -3.707 -1.04197
-5.83442 -3.73236 -1.04394
-5.83373 -3.75778 -1.04593
-5.83301 -3.78328 -1.04792
-5.83695 -3.81192 -1.05077
-5.84088 -3.84069 -1.05365
-5.8448 -3.86962 -1.05654
-5.84872 -3.89868 -1.05946
-5.85264 -3.92788 -1.06239
-5.85655 -3.95723 -1.06535
-5.86046 -3.98673 -1.06834
-5.86437 -4.01637 -1.07134
-5.86896 -4.04664 -1.0745
-5.89614 -4.09275 -1.08182
-8.3299 -3.03456 -1.4117
-7.70683 -2.83502 -1.30761
-7.60358 -2.82416 -1.29159
-7.51772 -2.81917 -1.2785
-7.43088 -2.81324 -1.26523
-7.3742 -2.81828 -1.25707
-7.32229 -2.82482 -1.24973
-7.24875 -2.82262 -1.23869
-7.17642 -2.82043 -1.22783
-7.10531 -2.81827 -1.21718
-7.03541 -2.81614 -1.20671
-6.97667 -2.81807 -1.19815
-6.9223 -2.82142 -1.19032
-6.86862 -2.82472 -1.18261
-6.81562 -2.82797 -1.17501
-6.76328 -2.83117 -1.16751
-6.71159 -2.83433 -1.16012
-6.66055 -2.83744 -1.15283
-6.61011 -2.84051 -1.14564
-6.56031 -2.84354 -1.13855
-6.5111 -2.84652 -1.13155
-6.46247 -2.84946 -1.12465
-6.41443 -2.85237 -1.11785
-6.36732 -2.85539 -1.11119
-6.32119 -2.85857 -1.1047
-6.27605 -2.86193 -1.09838
-6.23153 -2.86529 -1.09216
-6.18749 -2.86861 -1.08601
-6.14394 -2.87188 -1.07994
-6.12004 -2.88416 -1.07733
-6.09793 -2.89717 -1.07503
-6.07589 -2.91011 -1.07275
-6.05391 -2.92298 -1.07049
-6.02995 -2.93479 -1.06787
-6.00571 -2.94635 -1.06521
-5.98157 -2.95784 -1.06257
-5.96438 -2.97269 -1.06117
-5.94902 -2.98838 -1.0601
-5.93366 -3.00403 -1.05904
-5.9183 -3.01963 -1.05799
-5.90293 -3.03519 -1.05694
-5.88757 -3.05069 -1.0559
-5.87602 -3.06815 -1.05555
-5.8671 -3.08697 -1.05568
-5.85816 -3.10578 -1.05582
-5.84919 -3.1246 -1.05597
-5.84021 -3.14341 -1.05612
-5.83121 -3.16221 -1.05629
-5.82218 -3.18101 -1.05646
-5.81314 -3.19981 -1.05663
-5.80456 -3.21887 -1.0569
-5.79824 -3.23921 -1.0576
-5.7919 -3.25956 -1.0583
-5.78548 -3.2799 -1.05901
-5.77897 -3.30023 -1.05971
-5.77243 -3.32057 -1.06041
-5.76586 -3.34093 -1.06113
-5.75927 -3.36131 -1.06185
-5.75265 -3.3817 -1.06258
-5.746 -3.4021 -1.06332
-5.73932 -3.42253 -1.06407
-5.73261 -3.44297 -1.06483
-5.72588 -3.46343 -1.06559
-5.71911 -3.48392 -1.06636
-5.71363 -3.50521 -1.06738
-5.71291 -3.5295 -1.06931
-5.71216 -3.55387 -1.07126
-5.71139 -3.57831 -1.07321
-5.7106 -3.60282 -1.07519
-5.70977 -3.62742 -1.07717
-5.70893 -3.65208 -1.07917
-5.70805 -3.67683 -1.08118
-5.70705 -3.70158 -1.08318
-5.70593 -3.72636 -1.08519
-5.70479 -3.75121 -1.0872
-5.70362 -3.77615 -1.08924
-5.70379 -3.80207 -1.09154
-5.70722 -3.83029 -1.09449
-5.71064 -3.85864 -1.09747
-5.71406 -3.88713 -1.10046
-5.71746 -3.91576 -1.10348
-5.72086 -3.94453 -1.10652
-5.72425 -3.97343 -1.10958
-5.72999 -4.00413 -1.11313
-5.73602 -4.03521 -1.11676
-5.74208 -4.06647 -1.12041
-5.7558 -4.10338 -1.1256
-8.00143 -2.82984 -1.42388
-7.85651 -2.80636 -1.39965
-7.67677 -2.76936 -1.36917
-7.61053 -2.7725 -1.3589
-7.53359 -2.77129 -1.34671
-7.45022 -2.7672 -1.33336
-7.39358 -2.77261 -1.32477
-7.33903 -2.77847 -1.31655
-7.28787 -2.78528 -1.30894
-7.22156 -2.78596 -1.29859
-7.14984 -2.78411 -1.28726
-7.07934 -2.78228 -1.27613
-7.01337 -2.78181 -1.26581
-6.95864 -2.78541 -1.2575
-6.90461 -2.78896 -1.24932
-6.85126 -2.79246 -1.24124
-6.79858 -2.79591 -1.23328
-6.74657 -2.79932 -1.22544
-6.69519 -2.80267 -1.2177
-6.64445 -2.80597 -1.21006
-6.59433 -2.80923 -1.20253
-6.5448 -2.81245 -1.19511
-6.4961 -2.81571 -1.18782
-6.44858 -2.81919 -1.18075
-6.40161 -2.82263 -1.17376
-6.35518 -2.82602 -1.16687
-6.30929 -2.82937 -1.16007
-6.2644 -2.83289 -1.15345
-6.2201 -2.83641 -1.14692
-6.17629 -2.83989 -1.14048
-6.13295 -2.84332 -1.13412
-6.09008 -2.84671 -1.12784
-6.04768 -2.85006 -1.12164
-6.00572 -2.85336 -1.11552
-5.96422 -2.85663 -1.10947
-5.92315 -2.85985 -1.10349
-5.88264 -2.8631 -1.09761
-5.86512 -2.87738 -1.09603
-5.85285 -2.89419 -1.09542
-5.84057 -2.91098 -1.09483
-5.82829 -2.92774 -1.09425
-5.81615 -2.94454 -1.0937
-5.80652 -2.9626 -1.09363
-5.79687 -2.98065 -1.09357
-5.78738 -2.99878 -1.09355
-5.77862 -3.01729 -1.09368
-5.76983 -3.03579 -1.09382
-5.76103 -3.05429 -1.09396
-5.7522 -3.07279 -1.09411
-5.74335 -3.09127 -1.09427
-5.73449 -3.10976 -1.09443
-5.7256 -3.12824 -1.0946
-5.71668 -3.14671 -1.09478
-5.70775 -3.16518 -1.09497
-5.6988 -3.18365 -1.09516
-5.68982 -3.20212 -1.09537
-5.68308 -3.22185 -1.09601
-5.67672 -3.24184 -1.09674
-5.67034 -3.26184 -1.09748
-5.66392 -3.28186 -1.09823
-5.65748 -3.3019 -1.09898
-5.65101 -3.32195 -1.09975
-5.64452 -3.34202 -1.10052
-5.63791 -3.36206 -1.10128
-5.63125 -3.3821 -1.10205
-5.62456 -3.40215 -1.10283
-5.61785 -3.42223 -1.10361
-5.6111 -3.44231 -1.1044
-5.60433 -3.46242 -1.1052
-5.59752 -3.48255 -1.10601
-5.59147 -3.50317 -1.10698
-5.59047 -3.52704 -1.10897
-5.58945 -3.55098 -1.11098
-5.5884 -3.57498 -1.11299
-5.58733 -3.59906 -1.11503
-5.58623 -3.62322 -1.11707
-5.58493 -3.64733 -1.11909
-5.58359 -3.67151 -1.12113
-5.58222 -3.69577 -1.12318
-5.58083 -3.7201 -1.12524
-5.57941 -3.7445 -1.12732
-5.57796 -3.76899 -1.12941
-5.57648 -3.79354 -1.13152
-5.57737 -3.81981 -1.13413
-5.58031 -3.84762 -1.13718
-5.58324 -3.87555 -1.14025
-5.58615 -3.90362 -1.14334
-5.59038 -3.93276 -1.14673
-5.59582 -3.96289 -1.15039
-5.60126 -3.99321 -1.15408
-5.60671 -4.02371 -1.1578
-5.61216 -4.05437 -1.16155
-5.61762 -4.08521 -1.16533
-5.62928 -4.12078 -1.17042
-8.04406 -2.75996 -1.49955
-7.92193 -2.74588 -1.47838
-7.75031 -2.71367 -1.44794
-7.68317 -2.71728 -1.43698
-7.61703 -2.72082 -1.4262
-7.54889 -2.72323 -1.41504
-7.46938 -2.72108 -1.40172
-7.41265 -2.7268 -1.39268
-7.35662 -2.73244 -1.38376
-7.30424 -2.73911 -1.37552
-7.25359 -2.74612 -1.36759
-7.19436 -2.74955 -1.35805
-7.12323 -2.74803 -1.34624
-7.05333 -2.74653 -1.33465
-6.99492 -2.7491 -1.32523
-6.94053 -2.75291 -1.31656
-6.88684 -2.75667 -1.30801
-6.83383 -2.76037 -1.29958
-6.78147 -2.76402 -1.29126
-6.72978 -2.76762 -1.28307
-6.67871 -2.77116 -1.27499
-6.62834 -2.77469 -1.26703
-6.57937 -2.77849 -1.25933
-6.53098 -2.78224 -1.25173
-6.48314 -2.78595 -1.24423
-6.43587 -2.7896 -1.23683
-6.38915 -2.79321 -1.22953
-6.34295 -2.79677 -1.22233
-6.29729 -2.80028 -1.21522
-6.25267 -2.80398 -1.2083
-6.20859 -2.80765 -1.20148
-6.16499 -2.81128 -1.19474
-6.12187 -2.81487 -1.18809
-6.07921 -2.81841 -1.18152
-6.03701 -2.8219 -1.17504
-5.99527 -2.82536 -1.16863
-5.95396 -2.82877 -1.16231
-5.91349 -2.83233 -1.15614
-5.87388 -2.83606 -1.15013
-5.83817 -2.84146 -1.14488
-5.80493 -2.84785 -1.14011
-5.7762 -2.85629 -1.13622
-5.75437 -2.86802 -1.13369
-5.74232 -2.88455 -1.1331
-5.73027 -2.90106 -1.13251
-5.71821 -2.91754 -1.13193
-5.70765 -2.93478 -1.13166
-5.69814 -2.95254 -1.13161
-5.68861 -2.97029 -1.13156
-5.67907 -2.98804 -1.13152
-5.66951 -3.00577 -1.13149
-5.65993 -3.0235 -1.13147
-5.65033 -3.04121 -1.13145
-5.64072 -3.05891 -1.13145
-5.6319 -3.07705 -1.13161
-5.62312 -3.09521 -1.13179
-5.61432 -3.11337 -1.13198
-5.6055 -3.13153 -1.13218
-5.59665 -3.14968 -1.13238
-5.58779 -3.16783 -1.1326
-5.5789 -3.18598 -1.13282
-5.57127 -3.20486 -1.13331
-5.5649 -3.22449 -1.13406
-5.55851 -3.24414 -1.13483
-5.55209 -3.2638 -1.13561
-5.54564 -3.28347 -1.13639
-5.53915 -3.30317 -1.13718
-5.53265 -3.32287 -1.13798
-5.52611 -3.3426 -1.13879
-5.51954 -3.36234 -1.1396
-5.51294 -3.3821 -1.14043
-5.50632 -3.40187 -1.14126
-5.49966 -3.42166 -1.1421
-5.49287 -3.4414 -1.14293
-5.48606 -3.46117 -1.14377
-5.47922 -3.48094 -1.14462
-5.47255 -3.50087 -1.14551
-5.47129 -3.52432 -1.14756
-5.47 -3.54784 -1.14962
-5.46863 -3.57139 -1.15168
-5.46711 -3.59492 -1.15373
-5.46557 -3.61854 -1.1558
-5.46399 -3.64222 -1.15788
-5.46239 -3.66597 -1.15997
-5.46076 -3.68979 -1.16208
-5.45909 -3.71368 -1.1642
-5.4574 -3.73765 -1.16634
-5.45568 -3.76169 -1.16849
-5.45393 -3.7858 -1.17065
-5.45215 -3.80998 -1.17283
-5.45361 -3.83654 -1.17573
-5.45644 -3.86419 -1.17895
-5.46131 -3.89344 -1.18264
-5.46618 -3.92286 -1.18635
-5.47106 -3.95243 -1.1901
-5.47593 -3.98218 -1.19387
-5.48081 -4.01209 -1.19768
-5.4857 -4.04218 -1.20151
-5.49058 -4.07243 -1.20537
-5.49547 -4.10287 -1.20927
-8.0892 -2.71879 -1.57799
-7.84318 -2.66354 -1.53162
-7.7561 -2.66116 -1.51624
-7.68908 -2.66517 -1.50477
-7.62305 -2.66911 -1.49348
-7.55795 -2.67299 -1.48236
-7.4882 -2.6748 -1.47032
-7.43137 -2.68084 -1.46081
-7.37524 -2.68679 -1.45142
-7.32029 -2.69283 -1.44227
-7.2696 -2.70012 -1.43394
-7.21946 -2.70732 -1.42572
-7.16711 -2.71338 -1.41706
-7.0966 -2.71219 -1.4048
-7.03112 -2.71249 -1.39351
-6.97638 -2.71656 -1.38435
-6.92234 -2.72058 -1.37531
-6.86898 -2.72454 -1.3664
-6.8163 -2.72844 -1.35762
-6.76428 -2.73228 -1.34896
-6.71371 -2.7364 -1.34058
-6.66382 -2.74049 -1.33233
-6.61452 -2.74452 -1.32419
-6.5658 -2.7485 -1.31616
-6.51766 -2.75243 -1.30823
-6.47009 -2.75631 -1.30042
-6.42305 -2.76013 -1.2927
-6.37658 -2.7639 -1.28508
-6.33063 -2.76762 -1.27757
-6.28519 -2.7713 -1.27015
-6.24083 -2.77517 -1.26294
-6.19698 -2.779 -1.25582
-6.1536 -2.78279 -1.2488
-6.11069 -2.78652 -1.24186
-6.06825 -2.79021 -1.23501
-6.02625 -2.79386 -1.22824
-5.98471 -2.79745 -1.22156
-5.9443 -2.80134 -1.2151
-5.90446 -2.80525 -1.20875
-5.86503 -2.80912 -1.20247
-5.82736 -2.8136 -1.19656
-5.79427 -2.82009 -1.19157
-5.76146 -2.82652 -1.18664
-5.7289 -2.8329 -1.18176
-5.69787 -2.83986 -1.1772
-5.67427 -2.85037 -1.17416
-5.65078 -2.86081 -1.17116
-5.63493 -2.87505 -1.16974
-5.62308 -2.89129 -1.16916
-5.61152 -2.90766 -1.16864
-5.60214 -2.92514 -1.1686
-5.59275 -2.94262 -1.16856
-5.58333 -2.96008 -1.16853
-5.5739 -2.97754 -1.1685
-5.56445 -2.99498 -1.16849
-5.55499 -3.01242 -1.16848
-5.5455 -3.02984 -1.16848
-5.536 -3.04726 -1.16849
-5.52648 -3.06466 -1.1685
-5.51694 -3.08206 -1.16853
-5.50739 -3.09944 -1.16856
-5.49781 -3.11682 -1.1686
-5.48872 -3.13448 -1.16875
-5.47994 -3.15232 -1.16898
-5.47113 -3.17015 -1.16922
-5.46266 -3.1882 -1.16955
-5.45629 -3.20748 -1.17033
-5.44988 -3.22678 -1.17112
-5.44345 -3.24609 -1.17193
-5.43699 -3.26542 -1.17274
-5.43049 -3.28476 -1.17355
-5.42397 -3.30413 -1.17438
-5.41742 -3.3235 -1.17522
-5.41084 -3.34289 -1.17606
-5.40423 -3.36229 -1.17691
-5.3976 -3.38171 -1.17777
-5.39093 -3.40115 -1.17864
-5.38423 -3.4206 -1.17952
-5.37751 -3.44007 -1.1804
-5.37075 -3.45955 -1.1813
-5.36396 -3.47906 -1.1822
-5.35712 -3.49856 -1.18311
-5.35508 -3.52125 -1.18509
-5.35336 -3.54426 -1.18717
-5.35179 -3.56743 -1.1893
-5.35111 -3.59129 -1.19165
-5.35041 -3.61524 -1.19402
-5.34969 -3.63926 -1.1964
-5.34896 -3.66338 -1.1988
-5.3482 -3.68758 -1.20122
-5.34742 -3.71186 -1.20366
-5.34662 -3.73624 -1.20611
-5.34581 -3.7607 -1.20858
-5.34497 -3.78525 -1.21107
-5.3443 -3.81002 -1.21363
-5.34527 -3.83608 -1.21658
-5.3486 -3.86397 -1.22009
-5.35194 -3.89201 -1.22363
-5.35528 -3.9202 -1.2272
-5.35862 -3.94854 -1.2308
-5.36196 -3.97703 -1.23443
-5.3653 -4.00569 -1.23809
-5.36865 -4.03449 -1.24178
-5.37199 -4.06345 -1.2455
-5.37533 -4.09258 -1.24924
-5.37868 -4.12186 -1.25302
-7.98581 -2.68405 -1.63035
-7.76059 -2.63549 -1.58605
-7.67943 -2.63485 -1.57115
-7.60108 -2.63467 -1.5568
-7.52468 -2.63467 -1.54284
-7.45807 -2.63767 -1.53087
-7.39351 -2.64098 -1.51932
-7.33801 -2.64715 -1.50961
-7.28526 -2.654 -1.50046
-7.23508 -2.66148 -1.49184
-7.18546 -2.66886 -1.48333
-7.13637 -2.67616 -1.47493
-7.0699 -2.67658 -1.46292
-7.01214 -2.67991 -1.4527
-6.95774 -2.68418 -1.44317
-6.90405 -2.6884 -1.43378
-6.85177 -2.69284 -1.42467
-6.80029 -2.69729 -1.41572
-6.74945 -2.70168 -1.40689
-6.69923 -2.706 -1.39819
-6.6496 -2.71027 -1.3896
-6.60057 -2.71448 -1.38113
-6.55213 -2.71864 -1.37277
-6.50424 -2.72273 -1.36452
-6.45692 -2.72678 -1.35638
-6.41014 -2.73077 -1.34835
-6.36389 -2.73471 -1.34042
-6.31819 -2.73859 -1.3326
-6.27301 -2.74244 -1.32488
-6.22889 -2.74647 -1.31738
-6.18526 -2.75046 -1.30997
-6.1421 -2.75439 -1.30265
-6.09941 -2.75828 -1.29543
-6.05717 -2.76212 -1.28829
-6.01554 -2.76597 -1.28128
-5.97505 -2.77012 -1.2745
-5.93498 -2.77421 -1.26781
-5.89533 -2.77826 -1.26119
-5.85606 -2.78226 -1.25465
-5.8172 -2.78621 -1.2482
-5.78355 -2.79245 -1.24285
-5.7509 -2.79898 -1.23771
-5.7185 -2.80545 -1.23263
-5.68636 -2.81187 -1.2276
-5.65447 -2.81823 -1.22262
-5.62283 -2.82453 -1.21769
-5.5981 -2.83414 -1.21426
-5.57506 -2.8445 -1.21119
-5.55213 -2.85481 -1.20815
-5.53052 -2.86568 -1.2054
-5.51887 -2.88166 -1.20482
-5.50875 -2.89843 -1.2046
-5.49948 -2.91563 -1.20457
-5.4902 -2.93282 -1.20454
-5.48089 -2.95001 -1.20453
-5.47157 -2.96718 -1.20452
-5.46223 -2.98434 -1.20452
-5.45286 -3.0015 -1.20453
-5.44349 -3.01864 -1.20454
-5.43409 -3.03577 -1.20457
-5.42467 -3.0529 -1.2046
-5.41524 -3.07001 -1.20464
-5.40579 -3.08712 -1.20468
-5.39632 -3.10422 -1.20474
-5.38683 -3.1213 -1.2048
-5.37732 -3.13839 -1.20487
-5.36879 -3.15605 -1.20518
-5.36137 -3.17437 -1.20574
-5.35595 -3.19392 -1.20677
-5.3509 -3.21372 -1.2079
-5.34583 -3.23355 -1.20904
-5.34073 -3.25341 -1.21019
-5.3356 -3.2733 -1.21135
-5.33046 -3.29322 -1.21253
-5.32528 -3.31317 -1.21371
-5.32009 -3.33315 -1.2149
-5.31487 -3.35316 -1.21611
-5.30962 -3.3732 -1.21733
-5.30435 -3.39327 -1.21855
-5.29905 -3.41337 -1.21979
-5.29373 -3.4335 -1.22104
-5.28838 -3.45367 -1.2223
-5.28301 -3.47387 -1.22358
-5.27761 -3.4941 -1.22486
-5.27546 -3.51654 -1.22692
-5.27464 -3.53996 -1.22931
-5.2738 -3.56347 -1.23171
-5.27294 -3.58705 -1.23413
-5.27206 -3.61071 -1.23658
-5.27116 -3.63446 -1.23903
-5.27024 -3.65829 -1.24151
-5.2693 -3.68221 -1.24401
-5.26834 -3.7062 -1.24652
-5.26735 -3.73028 -1.24905
-5.26676 -3.75474 -1.2517
-5.26616 -3.77931 -1.25437
-5.26554 -3.80396 -1.25706
-5.2649 -3.82871 -1.25977
-5.2671 -3.85565 -1.26319
-5.27013 -3.88334 -1.26684
-5.27316 -3.91117 -1.27051
-5.27619 -3.93915 -1.27421
-5.27921 -3.96728 -1.27794
-5.28224 -3.99556 -1.2817
-5.28526 -4.024 -1.2855
-5.28828 -4.05259 -1.28932
-5.29018 -4.08047 -1.2929
-5.29153 -4.10806 -1.29637
-5.29285 -4.13579 -1.29987
-7.87983 -2.64843 -1.68051
-7.71904 -2.62138 -1.64796
-7.63238 -2.61871 -1.63121
-7.55494 -2.61867 -1.61641
-7.4842 -2.6205 -1.60303
-7.41826 -2.62359 -1.59066
-7.35357 -2.62671 -1.57855
-7.29077 -2.63011 -1.56683
-7.22431 -2.6318 -1.55432
-7.15891 -2.63346 -1.54202
-7.10298 -2.63823 -1.53174
-7.04778 -2.64294 -1.52162
-6.9937 -2.64773 -1.51174
-6.94058 -2.65256 -1.50205
-6.88811 -2.65732 -1.49249
-6.83631 -2.66202 -1.48307
-6.78513 -2.66665 -1.47377
-6.73457 -2.67122 -1.4646
-6.68462 -2.67573 -1.45556
-6.63528 -2.68017 -1.44664
-6.58651 -2.68456 -1.43784
-6.53833 -2.68888 -1.42916
-6.4907 -2.69315 -1.42059
-6.44363 -2.69736 -1.41213
-6.3971 -2.70152 -1.40379
-6.35111 -2.70562 -1.39555
-6.30563 -2.70967 -1.38742
-6.26073 -2.71369 -1.37941
-6.21684 -2.71788 -1.37161
-6.17343 -2.72202 -1.36391
-6.13049 -2.7261 -1.35631
-6.08802 -2.73014 -1.3488
-6.04645 -2.73433 -1.34149
-6.00573 -2.73866 -1.33436
-5.96545 -2.74294 -1.32731
-5.92556 -2.74717 -1.32035
-5.88608 -2.75135 -1.31347
-5.847 -2.75548 -1.30668
-5.80831 -2.75957 -1.29996
-5.77275 -2.76492 -1.29394
-5.74026 -2.77155 -1.2886
-5.70803 -2.77811 -1.28331
-5.67605 -2.78462 -1.27808
-5.64432 -2.79108 -1.27291
-5.61283 -2.79747 -1.26778
-5.58159 -2.80381 -1.2627
-5.55059 -2.81009 -1.25768
-5.52353 -2.81822 -1.25355
-5.50094 -2.82849 -1.25043
-5.47845 -2.8387 -1.24734
-5.45606 -2.84886 -1.24427
-5.43376 -2.85897 -1.24123
-5.41786 -2.87235 -1.23965
-5.40871 -2.8893 -1.23962
-5.39954 -2.90622 -1.23961
-5.39036 -2.92314 -1.2396
-5.38136 -2.94016 -1.23965
-5.37419 -2.95819 -1.24013
-5.367 -2.97622 -1.24062
-5.35978 -2.99426 -1.24112
-5.35255 -3.01231 -1.24163
-5.3453 -3.03036 -1.24214
-5.33803 -3.04842 -1.24267
-5.33073 -3.06649 -1.24321
-5.32342 -3.08456 -1.24376
-5.31609 -3.10265 -1.24431
-5.30874 -3.12074 -1.24488
-5.30136 -3.13884 -1.24545
-5.29397 -3.15695 -1.24604
-5.28734 -3.17555 -1.24682
-5.28205 -3.19497 -1.24793
-5.27673 -3.21443 -1.24905
-5.27139 -3.23391 -1.25019
-5.26603 -3.25342 -1.25133
-5.26064 -3.27295 -1.25249
-5.25541 -3.29263 -1.2537
-5.25019 -3.31235 -1.25492
-5.24495 -3.33211 -1.25616
-5.23967 -3.35189 -1.25742
-5.23438 -3.37171 -1.25868
-5.22905 -3.39156 -1.25995
-5.22371 -3.41143 -1.26124
-5.21833 -3.43134 -1.26254
-5.21293 -3.45128 -1.26385
-5.20751 -3.47125 -1.26517
-5.20206 -3.49125 -1.2665
-5.19911 -3.513 -1.26846
-5.19812 -3.53615 -1.27092
-5.1971 -3.55938 -1.2734
-5.19607 -3.58269 -1.27589
-5.19502 -3.60607 -1.27841
-5.19394 -3.62954 -1.28094
-5.19284 -3.65309 -1.28349
-5.19194 -3.67687 -1.28612
-5.19121 -3.70088 -1.28881
-5.19046 -3.72498 -1.29152
-5.18969 -3.74916 -1.29425
-5.18889 -3.77344 -1.297
-5.18808 -3.79781 -1.29977
-5.18725 -3.82226 -1.30256
-5.18698 -3.84725 -1.30552
-5.18971 -3.87459 -1.30926
-5.19244 -3.90207 -1.31303
-5.19516 -3.9297 -1.31683
-5.19788 -3.95747 -1.32067
-5.2006 -3.98539 -1.32453
-5.2022 -4.0126 -1.32814
-5.20328 -4.03956 -1.33165
-5.20435 -4.06664 -1.33518
-5.20541 -4.09384 -1.33874
-5.20645 -4.12119 -1.34233
-5.20748 -4.14866 -1.34595
-8.11191 -2.69811 -1.80227
-7.77601 -2.61353 -1.72945
-7.67779 -2.60737 -1.70942
-7.58575 -2.60271 -1.69074
-7.51029 -2.6032 -1.67573
-7.44402 -2.60643 -1.66276
-7.38057 -2.61026 -1.65041
