ply
format ascii 1.0
comment Created by Open3D
element vertex 1939
property double x
property double y
property double z
end_header
1.21366 5.35821 -1.79519
1.19789 5.36704 -1.79688
1.18583 5.39293 -1.80428
1.1741 5.42098 -1.81242
1.16227 5.44929 -1.82065
1.15032 5.47786 -1.82898
1.13826 5.5067 -1.8374
1.1261 5.5358 -1.84591
1.11382 5.56518 -1.85453
1.10226 5.59911 -1.86467
1.09236 5.64259 -1.878
1.08232 5.68671 -1.89154
1.07259 5.73394 -1.90611
1.06531 5.79603 -1.92562
1.07505 5.95454 -1.97715
1.08612 6.12621 -2.03301
1.09606 6.29771 -2.08876
1.80248 5.15754 -1.83562
1.78589 5.16224 -1.83528
1.7693 5.16694 -1.83496
1.75271 5.17164 -1.83465
1.73613 5.17633 -1.83437
1.71956 5.18102 -1.8341
1.70299 5.1857 -1.83385
1.68642 5.19039 -1.83362
1.66986 5.19507 -1.8334
1.6533 5.19974 -1.8332
1.63674 5.20442 -1.83302
1.62018 5.20909 -1.83286
1.60363 5.21376 -1.83272
1.58708 5.21842 -1.83259
1.57052 5.22308 -1.83248
1.55398 5.22774 -1.83239
1.53743 5.2324 -1.83231
1.52088 5.23706 -1.83225
1.50433 5.24171 -1.83221
1.48779 5.24636 -1.83219
1.47124 5.25101 -1.83218
1.45468 5.25564 -1.83219
1.4384 5.26126 -1.83256
1.42238 5.26787 -1.83329
1.40634 5.27448 -1.83404
1.39047 5.28176 -1.83504
1.37463 5.28928 -1.83614
1.35878 5.2968 -1.83725
1.34291 5.30434 -1.83839
1.32702 5.31189 -1.83955
1.31111 5.31945 -1.84073
1.29518 5.32702 -1.84193
1.27923 5.33461 -1.84315
1.26326 5.34222 -1.84439
1.24727 5.34983 -1.84565
1.23126 5.35746 -1.84693
1.21522 5.3651 -1.84824
1.2001 5.37696 -1.85101
1.18782 5.40196 -1.85832
1.17544 5.42716 -1.8657
1.16296 5.45256 -1.87317
1.15097 5.48096 -1.88167
1.13891 5.50983 -1.89034
1.12674 5.53896 -1.89911
1.11446 5.56837 -1.90797
1.10338 5.60477 -1.91924
1.09348 5.64833 -1.93297
1.08343 5.69254 -1.94692
1.07323 5.73739 -1.96109
1.07855 5.86803 -2.00458
1.08801 6.02629 -2.05746
1.09858 6.19652 -2.11438
1.83585 5.25301 -1.92121
1.78405 5.15693 -1.884
1.76748 5.16164 -1.88368
1.75092 5.16634 -1.88337
1.73436 5.17103 -1.88308
1.7178 5.17572 -1.88281
1.70125 5.18042 -1.88255
1.6847 5.1851 -1.88232
1.66816 5.18979 -1.8821
1.65162 5.19447 -1.8819
1.63508 5.19914 -1.88172
1.61854 5.20382 -1.88156
1.60201 5.20849 -1.88141
1.58548 5.21316 -1.88128
1.56894 5.21783 -1.88117
1.55242 5.2225 -1.88108
1.53589 5.22716 -1.88101
1.51936 5.23182 -1.88095
1.50283 5.23648 -1.88091
1.48631 5.24115 -1.8809
1.46979 5.24583 -1.88091
1.45326 5.2505 -1.88093
1.43762 5.2584 -1.88213
1.42236 5.26778 -1.88387
1.40706 5.27717 -1.88564
1.39174 5.28659 -1.88742
1.37638 5.29601 -1.88923
1.361 5.30546 -1.89106
1.34515 5.3132 -1.8923
1.32924 5.32077 -1.89349
1.3133 5.32835 -1.89471
1.29735 5.33594 -1.89594
1.28137 5.34355 -1.8972
1.26538 5.35117 -1.89848
1.24936 5.3588 -1.89978
1.23332 5.36645 -1.90111
1.21726 5.37412 -1.90245
1.20299 5.38989 -1.90669
1.19069 5.415 -1.91423
1.17829 5.44032 -1.92186
1.16579 5.46583 -1.92957
1.1532 5.49156 -1.93736
1.1405 5.51751 -1.94523
1.1277 5.54367 -1.95319
1.1151 5.57159 -1.96178
1.1045 5.61047 -1.97423
1.0962 5.66237 -1.99127
1.08788 5.71595 -2.0089
1.08212 5.78489 -2.03192
1.09467 5.95579 -2.09072
1.09543 6.06742 -2.12869
1.81566 5.19524 -1.95142
1.80878 5.2284 -1.96172
1.80181 5.26189 -1.97215
1.74921 5.16129 -1.93237
1.73267 5.16598 -1.93207
1.71612 5.17067 -1.93179
1.69959 5.17536 -1.93153
1.68306 5.18004 -1.93129
1.66653 5.18472 -1.93107
1.65001 5.1894 -1.93086
1.63348 5.19407 -1.93068
1.61696 5.19874 -1.93051
1.60045 5.20341 -1.93036
1.58393 5.20808 -1.93023
1.56741 5.21274 -1.93012
1.55091 5.21741 -1.93003
1.5344 5.22209 -1.92996
1.51789 5.22677 -1.92991
1.50139 5.23145 -1.92988
1.48488 5.23613 -1.92987
1.46838 5.2408 -1.92988
1.45187 5.24547 -1.9299
1.43628 5.2535 -1.93118
1.42103 5.26286 -1.93297
1.40575 5.27224 -1.93478
1.39044 5.28164 -1.93661
1.3751 5.29105 -1.93846
1.35973 5.30048 -1.94033
1.34433 5.30993 -1.94223
1.32889 5.31939 -1.94415
1.31343 5.32887 -1.94609
1.29794 5.33837 -1.94806
1.28241 5.34789 -1.95004
1.26685 5.35742 -1.95205
1.25126 5.36697 -1.95409
1.23541 5.37553 -1.95578
1.21932 5.38321 -1.95716
1.20591 5.40296 -1.96295
1.19359 5.42818 -1.97074
1.18141 5.45475 -1.97902
1.16919 5.48175 -1.98747
1.15686 5.509 -1.99602
1.14442 5.5365 -2.00467
1.13188 5.56424 -2.01341
1.12063 5.59922 -2.02478
1.11189 5.64802 -2.04115
1.10365 5.70088 -2.05899
1.09535 5.75518 -2.07734
1.10124 5.88708 -2.12368
1.10171 5.99405 -2.16101
1.80137 5.15435 -1.9873
1.78888 5.1709 -1.99149
1.78189 5.20372 -2.00196
1.77835 5.24728 -2.01656
1.73097 5.16091 -1.98126
1.71444 5.1656 -1.98097
1.69792 5.17028 -1.9807
1.68141 5.17496 -1.98046
1.6649 5.17964 -1.98023
1.64839 5.18431 -1.98002
1.63188 5.18898 -1.97983
1.61538 5.19366 -1.97966
1.59889 5.19834 -1.97952
1.58239 5.20303 -1.97939
1.5659 5.20771 -1.97928
1.54941 5.21239 -1.9792
1.53292 5.21706 -1.97913
1.51643 5.22174 -1.97908
1.49994 5.22641 -1.97905
1.48345 5.23108 -1.97904
1.46696 5.23575 -1.97904
1.45047 5.24042 -1.97907
1.43493 5.24857 -1.98043
1.41969 5.25792 -1.98226
1.40443 5.26729 -1.98411
1.38913 5.27668 -1.98599
1.3738 5.28608 -1.98789
1.35845 5.29549 -1.98981
1.34306 5.30492 -1.99175
1.32795 5.3156 -1.99418
1.313 5.32714 -1.99695
1.29802 5.33872 -1.99974
1.283 5.35033 -2.00257
1.26793 5.36199 -2.00542
1.25283 5.37368 -2.00831
1.23768 5.38542 -2.01123
1.22275 5.39836 -2.01461
1.21085 5.4251 -2.02316
1.19883 5.45203 -2.03178
1.18667 5.47902 -2.04044
1.17441 5.50625 -2.04919
1.16205 5.53373 -2.05804
1.14958 5.56146 -2.067
1.13762 5.59245 -2.07717
1.12902 5.64115 -2.09393
1.12029 5.69066 -2.11098
1.11141 5.74099 -2.12835
1.80137 5.15435 -2.03885
1.78316 5.15435 -2.03661
1.77297 5.17765 -2.0436
1.7699 5.22235 -2.05903
1.76678 5.26771 -2.07471
1.76362 5.31376 -2.09065
1.69625 5.16518 -2.03008
1.67975 5.16987 -2.02983
1.66326 5.17456 -2.0296
1.64678 5.17925 -2.0294
1.6303 5.18394 -2.02921
1.61383 5.18869 -2.02907
1.59747 5.19372 -2.02906
1.58109 5.19876 -2.02907
1.56472 5.2038 -2.0291
1.54836 5.20884 -2.02915
1.53199 5.21388 -2.02923
1.51562 5.21893 -2.02932
1.49925 5.22399 -2.02944
1.48287 5.22904 -2.02958
1.4665 5.2341 -2.02974
1.45012 5.23916 -2.02992
1.43536 5.25014 -2.03241
1.42116 5.26335 -2.03578
1.40642 5.27477 -2.03847
1.39163 5.28618 -2.04117
1.3768 5.29763 -2.04391
1.36194 5.30911 -2.04667
1.34704 5.32063 -2.04947
1.33209 5.33219 -2.05229
1.31711 5.34379 -2.05515
1.30209 5.35542 -2.05803
1.28702 5.3671 -2.06095
1.27191 5.37882 -2.0639
1.25677 5.39057 -2.06688
1.24158 5.40237 -2.06989
1.22808 5.42188 -2.07588
1.21615 5.44884 -2.08472
1.20411 5.47604 -2.09366
1.19197 5.50349 -2.10271
1.17972 5.53112 -2.11184
1.16732 5.55883 -2.121
1.15482 5.58679 -2.13027
1.14619 5.63455 -2.14709
1.13759 5.68397 -2.16455
1.80137 5.15435 -2.09072
1.78316 5.15435 -2.08843
1.76499 5.15435 -2.08616
1.76148 5.1975 -2.10137
1.75831 5.24245 -2.11729
1.75509 5.28809 -2.13348
1.75697 5.35008 -2.15624
1.68094 5.17353 -2.08294
1.66472 5.17911 -2.08306
1.6485 5.18468 -2.0832
1.63228 5.19025 -2.08337
1.61596 5.19553 -2.08343
1.59957 5.20057 -2.08342
1.58318 5.20561 -2.08343
1.56679 5.21066 -2.08346
1.5504 5.21571 -2.08352
1.53401 5.22076 -2.0836
1.51762 5.22582 -2.08369
1.50122 5.23088 -2.08381
1.48483 5.23594 -2.08396
1.46844 5.24101 -2.08412
1.45204 5.24608 -2.08431
1.43701 5.25617 -2.0865
1.42279 5.2694 -2.08997
1.40853 5.28268 -2.09346
1.39422 5.29601 -2.09699
1.37986 5.30939 -2.10056
1.36545 5.32281 -2.10415
1.351 5.33628 -2.10779
1.33629 5.34899 -2.11113
1.32126 5.36064 -2.11408
1.3062 5.37234 -2.11706
1.29109 5.38408 -2.12007
1.27594 5.39585 -2.12311
1.26075 5.40767 -2.12619
1.24552 5.41953 -2.12929
1.23349 5.44575 -2.13806
1.22152 5.47293 -2.14721
1.20946 5.50036 -2.15646
1.19729 5.52804 -2.16582
1.18502 5.55596 -2.17529
1.80137 5.15435 -2.14292
1.78316 5.15435 -2.14057
1.76499 5.15435 -2.13825
1.75488 5.17802 -2.14576
1.76019 5.24806 -2.17247
1.76565 5.31989 -2.1999
1.7765 5.40955 -2.23465
1.68229 5.17769 -2.13666
1.66606 5.18326 -2.13679
1.64983 5.18884 -2.13693
1.63359 5.19441 -2.1371
1.61735 5.2 -2.13728
1.60111 5.20558 -2.1375
1.58487 5.21117 -2.13773
1.56862 5.21676 -2.13798
1.55237 5.22235 -2.13826
1.53605 5.2277 -2.13846
1.51963 5.23277 -2.13856
1.50322 5.23783 -2.13868
1.48681 5.2429 -2.13883
1.47039 5.24798 -2.139
1.45397 5.25305 -2.13919
1.43867 5.26224 -2.14107
1.42444 5.2755 -2.14463
1.41016 5.28881 -2.14822
1.39584 5.30216 -2.15185
1.38147 5.31557 -2.15551
1.36705 5.32902 -2.15921
1.35258 5.34251 -2.16294
1.33806 5.35606 -2.1667
1.32348 5.36966 -2.17051
1.30886 5.38331 -2.17434
1.29419 5.39701 -2.17822
1.27947 5.41076 -2.18213
1.26469 5.42456 -2.18608
1.80137 5.15435 -2.19546
1.78316 5.15435 -2.19305
1.76499 5.15435 -2.19067
1.76882 5.21915 -2.21583
1.77435 5.29027 -2.24364
1.78003 5.36323 -2.27219
1.66741 5.18745 -2.19095
1.65116 5.19303 -2.19109
1.63491 5.19861 -2.19126
1.61866 5.2042 -2.19146
1.60241 5.20979 -2.19167
1.58615 5.21538 -2.19191
1.56989 5.22098 -2.19217
1.55363 5.22657 -2.19246
1.53736 5.23218 -2.19276
1.52109 5.23778 -2.19309
1.50481 5.24339 -2.19344
1.48854 5.249 -2.19382
1.47225 5.25462 -2.19421
1.45592 5.2601 -2.19457
1.44035 5.26837 -2.19612
1.4261 5.28166 -2.19978
1.80137 5.15435 -2.24835
1.78316 5.15435 -2.24589
1.77746 5.19079 -2.25931
1.81768 5.36332 -2.3319
1.80137 5.15435 -2.30161
1.37504 6.25134 -1.34941
1.35978 6.2756 -1.35372
1.3444 6.29995 -1.35806
1.3289 6.32439 -1.36242
1.3133 6.34892 -1.36681
1.30192 6.39486 -1.37582
1.29283 6.45361 -1.38758
1.28355 6.51321 -1.39952
1.27268 6.56643 -1.41009
1.32512 6.02439 -1.35406
1.30897 6.04112 -1.35689
1.29274 6.05787 -1.35974
1.27713 6.07801 -1.36335
1.26168 6.09941 -1.36726
1.24614 6.12087 -1.37119
1.23049 6.1424 -1.37514
1.21473 6.164 -1.37912
1.19888 6.18566 -1.38312
1.18292 6.2074 -1.38714
1.16686 6.2292 -1.39119
1.16405 6.32365 -1.41146
1.28712 5.85162 -1.36752
1.27136 5.86752 -1.3703
1.25551 5.88344 -1.37309
1.2396 5.89937 -1.3759
1.22361 5.91533 -1.37872
1.20754 5.93131 -1.38155
1.19141 5.94731 -1.3844
1.17519 5.96334 -1.38727
1.1589 5.97938 -1.39015
1.14493 6.00803 -1.39597
1.13615 6.06525 -1.40843
1.14256 6.20689 -1.44048
1.15008 6.35963 -1.47509
1.25707 5.71501 -1.38686
1.24047 5.72497 -1.38833
1.22382 5.73492 -1.3898
1.20713 5.74485 -1.39129
1.1904 5.75478 -1.39278
1.17362 5.7647 -1.39429
1.16448 5.81292 -1.40506
1.15552 5.86353 -1.41641
1.14641 5.91495 -1.42796
1.13715 5.96721 -1.4397
1.12794 6.02144 -1.45193
1.12341 6.10285 -1.4707
1.12866 6.24117 -1.50318
1.23269 5.60416 -1.41043
1.21809 5.62171 -1.41388
1.2057 5.65002 -1.42004
1.1932 5.67855 -1.42627
1.18058 5.70733 -1.43256
1.16785 5.73635 -1.43892
1.15678 5.77448 -1.44757
1.14782 5.82444 -1.45918
1.13871 5.8752 -1.471
1.12944 5.92678 -1.48302
1.12003 5.97924 -1.49526
1.11251 6.04366 -1.51049
1.11047 6.14058 -1.53384
1.11453 6.2753 -1.56661
1.22449 5.56689 -1.45139
1.21224 5.5947 -1.45764
1.19988 5.62274 -1.46396
1.18741 5.65102 -1.47035
1.17483 5.67954 -1.47681
1.16214 5.7083 -1.48333
1.15026 5.74192 -1.49112
1.14019 5.78571 -1.50156
1.13107 5.83582 -1.51364
1.12181 5.88673 -1.52592
1.1124 5.93846 -1.53842
1.10466 6.00099 -1.55371
1.09737 6.06814 -1.5702
1.09733 6.17841 -1.59784
1.10018 6.30925 -1.63077
1.21941 5.54378 -1.49571
1.20642 5.56783 -1.50117
1.19409 5.59562 -1.50765
1.18166 5.62364 -1.51419
1.16912 5.6519 -1.52081
1.15646 5.6804 -1.52749
1.14415 5.71144 -1.53487
1.13321 5.75033 -1.54436
1.12351 5.7968 -1.55588
1.11425 5.84705 -1.56843
1.10484 5.89811 -1.58118
1.09688 5.95875 -1.59651
1.08915 6.02269 -1.61272
1.08425 6.10481 -1.63379
1.08398 6.21634 -1.66272
1.08559 6.34296 -1.69567
1.2145 5.52146 -1.54005
1.20149 5.54507 -1.54557
1.18838 5.56884 -1.55115
1.17594 5.59641 -1.5578
1.16343 5.62441 -1.56457
1.15081 5.65265 -1.57142
1.13809 5.68114 -1.57834
1.12716 5.71964 -1.58804
1.11611 5.7586 -1.59788
1.10676 5.80774 -1.61055
1.09735 5.85813 -1.62356
1.08918 5.91692 -1.6389
1.08142 5.97999 -1.65542
1.07351 6.04432 -1.67229
1.07094 6.14155 -1.69825
1.07042 6.25432 -1.7285
1.07406 6.39611 -1.76675
1.20961 5.49923 -1.58423
1.19663 5.52266 -1.58989
1.18356 5.54625 -1.59561
1.17039 5.57 -1.60138
1.15777 5.59707 -1.60811
1.14519 5.62505 -1.61511
1.1325 5.65327 -1.62218
1.12115 5.68914 -1.63146
1.11012 5.7277 -1.64151
1.09933 5.76877 -1.65229
1.08993 5.81851 -1.66555
1.08155 5.87548 -1.68088
1.07378 5.93769 -1.6977
1.06584 6.00113 -1.71488
1.05815 6.06821 -1.73309
1.05741 6.17832 -1.76358
1.06502 6.34226 -1.80942
1.20473 5.47708 -1.62827
1.19179 5.50033 -1.63406
1.17875 5.52374 -1.63991
1.16562 5.54732 -1.64582
1.15239 5.57106 -1.65178
1.1396 5.59759 -1.65858
1.12695 5.62555 -1.66581
1.11518 5.65882 -1.67462
1.10417 5.697 -1.68489
1.09302 5.73563 -1.69529
1.08257 5.77924 -1.70717
1.074 5.83444 -1.72247
1.0662 5.89579 -1.73959
1.05825 5.95836 -1.75706
1.05032 6.02332 -1.77524
1.05417 6.15937 -1.81436
1.06592 6.3476 -1.86881
1.19988 5.45499 -1.67216
1.18697 5.47807 -1.67808
1.17397 5.50131 -1.68407
1.16087 5.52471 -1.69011
1.14768 5.54827 -1.69621
1.13439 5.57199 -1.70236
1.12142 5.59797 -1.70922
1.10924 5.62869 -1.71753
1.09825 5.66647 -1.728
1.08712 5.70471 -1.73861
1.07586 5.74341 -1.74937
1.06651 5.79377 -1.76368
1.06002 5.86163 -1.78332
1.05544 5.94255 -1.80692
1.05792 6.06691 -1.84372
1.05969 6.19166 -1.88061
1.06682 6.35296 -1.92858
1.19503 5.43297 -1.71591
1.18216 5.45588 -1.72197
1.1692 5.47895 -1.72808
1.15614 5.50217 -1.73426
1.14298 5.52556 -1.74049
1.12973 5.5491 -1.74678
1.11638 5.5728 -1.75313
1.10333 5.59872 -1.76019
1.09237 5.63612 -1.77086
1.08219 5.67881 -1.7832
1.0726 5.72603 -1.79697
1.06489 5.78494 -1.8144
1.06042 5.86384 -1.83809
1.05851 5.95984 -1.86714
1.06682 6.11797 -1.91562
1.06879 6.24482 -1.95428
1.19021 5.41102 -1.75954
1.17737 5.43376 -1.76572
1.16444 5.45666 -1.77197
1.15142 5.4797 -1.77827
1.1383 5.50291 -1.78464
1.12608 5.53117 -1.79265
1.11388 5.56032 -1.80096
1.10177 5.59079 -1.8097
1.09201 5.63426 -1.82265
1.08257 5.6808 -1.8366
1.07298 5.72806 -1.85078
1.06529 5.78712 -1.86878
1.06083 5.86607 -1.89319
1.07226 6.03728 -1.94735
1.07826 6.18356 -1.99344
1.08436 6.33577 -2.0414
1.18609 5.39231 -1.8041
1.17443 5.42019 -1.81219
1.16266 5.44834 -1.82037
1.15079 5.47673 -1.82865
1.13881 5.50539 -1.83701
1.12672 5.53431 -1.84548
1.11452 5.5635 -1.85404
1.10288 5.5964 -1.86384
1.09304 5.6396 -1.87708
1.08307 5.68341 -1.89052
1.07337 5.7301 -1.90492
1.06569 5.7893 -1.92348
1.07266 5.93153 -1.96961
1.08461 6.10684 -2.02669
1.09537 6.28168 -2.08356
1.18809 5.40139 -1.85815
1.17578 5.42644 -1.86549
1.16338 5.45169 -1.87291
1.15144 5.47983 -1.88133
1.13946 5.50852 -1.88994
1.12736 5.53747 -1.89866
1.11516 5.56669 -1.90747
1.10399 5.60206 -1.91839
1.09415 5.64533 -1.93203
1.08418 5.68924 -1.94588
1.07405 5.73377 -1.95995
1.07633 5.84709 -1.99752
1.08798 6.0162 -2.05412
1.09703 6.17671 -2.10774
1.19096 5.41443 -1.91406
1.17863 5.43959 -1.92164
1.16621 5.46496 -1.9293
1.15369 5.49053 -1.93704
1.14107 5.51632 -1.94487
1.12835 5.54232 -1.95278
1.1158 5.56991 -1.96126
1.10511 5.60775 -1.97335
1.09675 5.65871 -1.99007
1.0885 5.71191 -2.00757
1.0801 5.76605 -2.0254
1.09463 5.94654 -2.08758
1.09499 6.055 -2.12444
1.19385 5.42761 -1.97056
1.18175 5.45397 -1.97878
1.16959 5.48081 -1.98718
1.15734 5.5079 -1.99567
1.14498 5.53522 -2.00426
1.13252 5.56279 -2.01295
1.12111 5.59642 -2.02384
1.11243 5.64489 -2.0401
1.1042 5.69717 -2.05773
1.09596 5.75107 -2.07595
1.10119 5.87864 -2.12074
1.10166 5.98469 -2.15774
1.19909 5.45141 -2.03158
1.18701 5.47823 -2.04018
1.17482 5.5053 -2.04888
1.16253 5.53261 -2.05768
1.15014 5.56017 -2.06658
1.13804 5.58993 -2.07631
1.1295 5.63831 -2.09295
1.12083 5.68748 -2.10989
1.11201 5.73747 -2.12713
1.10765 5.81242 -2.15362
1.20437 5.47541 -2.09346
1.1923 5.50269 -2.10245
1.18012 5.53016 -2.11152
1.16781 5.5577 -2.12063
1.15538 5.58549 -2.12984
1.14661 5.63201 -2.1462
1.13807 5.68109 -2.16353
1.20972 5.49972 -2.15624
1.19762 5.52723 -2.16555
1.18542 5.55499 -2.17496
5.51738 5.9004 -1.56326
5.46811 5.8845 -1.55451
5.4193 5.86868 -1.54585
5.37092 5.85292 -1.53726
5.32519 5.83965 -1.52939
5.28058 5.82724 -1.52181
5.23633 5.81487 -1.51429
5.19242 5.80251 -1.50684
5.14886 5.79019 -1.49945
5.10565 5.7779 -1.49212
5.07281 5.77705 -1.4878
5.05117 5.78884 -1.48675
5.02952 5.80056 -1.48572
5.00786 5.81222 -1.48468
4.98619 5.82381 -1.48365
5.49985 5.59422 -1.5859
5.45785 5.58635 -1.57882
5.41616 5.57848 -1.5718
5.37476 5.57061 -1.56483
5.33367 5.56273 -1.55793
5.29271 5.55471 -1.55103
5.25095 5.5455 -1.54387
5.20949 5.53631 -1.53677
5.16835 5.52713 -1.52972
5.12751 5.51796 -1.52274
5.08698 5.5088 -1.51581
5.04908 5.5022 -1.50964
5.02216 5.50735 -1.50673
4.9953 5.51243 -1.50384
4.96849 5.51744 -1.50096
4.9419 5.52256 -1.49814
4.91571 5.52799 -1.49543
4.88956 5.53335 -1.49274
4.86347 5.53865 -1.49006
4.83742 5.54388 -1.48738
4.81143 5.54904 -1.48472
4.78549 5.55413 -1.48207
4.73837 5.53436 -1.47283
5.48841 5.41062 -1.62478
5.43661 5.3932 -1.61443
5.39931 5.38982 -1.60836
5.36227 5.38644 -1.60233
5.32548 5.38306 -1.59637
5.28893 5.37968 -1.59045
5.25264 5.3763 -1.58458
5.21659 5.37292 -1.57877
5.18078 5.36955 -1.57301
5.1452 5.36617 -1.5673
5.10979 5.36272 -1.56161
5.07455 5.35921 -1.55596
5.03955 5.3557 -1.55036
5.00759 5.35522 -1.54567
4.97716 5.35616 -1.54145
4.94688 5.35708 -1.53725
4.91674 5.35798 -1.53308
4.88674 5.35885 -1.52895
4.85688 5.35969 -1.52485
4.82717 5.3605 -1.52078
4.79759 5.36129 -1.51674
4.76832 5.36225 -1.51278
4.7366 5.36025 -1.50803
4.70269 5.35555 -1.50256
4.66901 5.35086 -1.49714
4.63555 5.34619 -1.49176
4.60096 5.33995 -1.486
4.56608 5.33313 -1.48012
5.61918 5.40257 -1.71114
5.55332 5.37278 -1.69619
5.48856 5.34347 -1.68151
5.42488 5.31463 -1.66709
5.36912 5.29302 -1.65503
5.33267 5.29009 -1.64889
5.29647 5.28715 -1.6428
5.2605 5.28421 -1.63677
5.22465 5.28114 -1.63074
5.18903 5.27806 -1.62477
5.15365 5.27498 -1.61885
5.1185 5.2719 -1.61299
5.08359 5.26882 -1.60717
5.04889 5.26573 -1.6014
5.01443 5.26264 -1.59568
4.98349 5.26304 -1.59107
4.95351 5.26427 -1.58675
4.92367 5.26547 -1.58246
4.89416 5.26684 -1.57826
4.86479 5.26818 -1.5741
4.83555 5.2695 -1.56996
4.80644 5.27079 -1.56586
4.77747 5.27205 -1.56178
4.74863 5.27328 -1.55774
4.71624 5.27038 -1.55252
4.68283 5.26611 -1.54694
4.64964 5.26184 -1.5414
4.61666 5.25758 -1.53591
4.58558 5.25526 -1.53104
4.55845 5.25726 -1.52746
4.53142 5.25925 -1.52391
4.50451 5.26122 -1.52039
5.68715 5.39985 -1.78996
5.60651 5.35674 -1.76984
5.53353 5.32022 -1.75205
5.46199 5.28441 -1.73462
5.39182 5.24929 -1.71755
5.34128 5.23273 -1.70666
5.30009 5.22497 -1.69871
5.26416 5.22212 -1.69242
5.22848 5.21929 -1.68619
5.19307 5.21647 -1.68003
5.1579 5.21367 -1.67392
5.12298 5.21088 -1.66787
5.08831 5.20811 -1.66188
5.05388 5.20534 -1.65594
5.0198 5.20271 -1.6501
4.98672 5.20089 -1.64457
4.95506 5.20033 -1.63948
4.92358 5.19978 -1.63444
4.8923 5.19922 -1.62945
4.86119 5.19865 -1.6245
4.83027 5.19809 -1.61959
4.79954 5.19752 -1.61473
4.76897 5.19695 -1.60991
4.73957 5.19745 -1.60546
4.70982 5.1974 -1.60088
4.67943 5.19644 -1.59607
4.65125 5.19775 -1.592
4.624 5.19995 -1.58823
4.59686 5.20212 -1.5845
4.56985 5.20427 -1.58079
4.54295 5.20639 -1.57711
4.51616 5.20849 -1.57346
4.48948 5.21057 -1.56984
4.4577 5.20654 -1.56441
5.67839 5.35786 -1.85032
5.59565 5.31297 -1.82876
5.52315 5.27709 -1.81045
5.45208 5.2419 -1.79252
5.40403 5.22834 -1.78209
5.36387 5.22207 -1.77423
5.32169 5.21354 -1.76566
5.27739 5.20259 -1.75636
5.23837 5.19654 -1.74877
5.20297 5.19382 -1.74237
5.16781 5.19111 -1.73603
5.13291 5.18841 -1.72975
5.09826 5.18574 -1.72353
5.06434 5.18357 -1.71754
5.03065 5.18142 -1.7116
4.99719 5.17927 -1.70572
4.96522 5.17846 -1.70033
4.93375 5.17798 -1.69509
4.90248 5.17749 -1.6899
4.87268 5.17837 -1.68521
4.84406 5.18033 -1.68091
4.81559 5.18228 -1.67664
4.78725 5.18422 -1.67242
4.75906 5.18615 -1.66823
4.731 5.18806 -1.66407
4.70053 5.18715 -1.65906
4.67023 5.18622 -1.65408
4.6401 5.1853 -1.64915
4.61015 5.18438 -1.64426
4.58038 5.18346 -1.63941
4.55078 5.18255 -1.63461
4.52161 5.18194 -1.62995
4.49418 5.18315 -1.6259
4.46614 5.18349 -1.62162
4.43784 5.18334 -1.61722
5.66932 5.31587 -1.91029
5.58563 5.27033 -1.88763
5.51253 5.23405 -1.86845
5.46739 5.22381 -1.85869
5.42674 5.21754 -1.8504
5.38643 5.21132 -1.84221
5.34642 5.20509 -1.83409
5.30193 5.19417 -1.82439
5.25789 5.18337 -1.81481
5.21431 5.17267 -1.80534
5.1776 5.1685 -1.79822
5.14313 5.16631 -1.79185
5.10898 5.16422 -1.78558
5.1946 5.28373 -1.82127
5.20083 5.32328 -1.82928
5.20714 5.3632 -1.8374
5.21353 5.40349 -1.8456
5.07947 5.29762 -1.80401
4.92127 5.16487 -1.75355
4.89243 5.16688 -1.74903
4.86375 5.16888 -1.74454
4.8352 5.17086 -1.7401
4.8068 5.17283 -1.73569
4.77854 5.17479 -1.73133
4.75042 5.17674 -1.727
4.72165 5.1778 -1.72242
4.69125 5.1769 -1.71723
4.66103 5.17601 -1.71209
4.63099 5.17512 -1.70699
4.60152 5.17467 -1.70209
4.57371 5.17591 -1.69778
4.54603 5.17714 -1.69351
4.51849 5.17837 -1.68928
4.49109 5.17958 -1.68508
4.463 5.17984 -1.68062
4.43472 5.1797 -1.67606
5.63482 5.28352 -1.96688
5.53139 5.21915 -1.93647
5.49022 5.21287 -1.92775
5.44942 5.20664 -1.91914
5.40897 5.20046 -1.91061
5.36888 5.19433 -1.90218
5.32645 5.18564 -1.89289
5.28222 5.17487 -1.88292
5.23846 5.16421 -1.87306
5.23974 5.1979 -1.87933
5.16328 5.15421 -1.85768
5.13108 5.15421 -1.85189
5.09907 5.15421 -1.84615
5.06727 5.15421 -1.84046
5.03566 5.15421 -1.83483
5.00424 5.15421 -1.82924
4.97301 5.15421 -1.82371
4.94197 5.15422 -1.81823
4.91112 5.15422 -1.81281
4.88045 5.15422 -1.80743
4.85824 5.16302 -1.80518
4.84769 5.18422 -1.80728
4.79801 5.16337 -1.79477
4.76983 5.16535 -1.79026
4.74178 5.16732 -1.78579
4.71227 5.16752 -1.78076
4.68253 5.16728 -1.77562
4.65432 5.16855 -1.77104
4.62624 5.16981 -1.76651
4.59831 5.17106 -1.76201
4.57052 5.17231 -1.75755
4.54287 5.17355 -1.75314
4.51536 5.17478 -1.74876
4.48799 5.176 -1.74442
4.45986 5.17619 -1.73977
4.4316 5.17606 -1.73506
5.62099 5.27055 -2.03039
5.53041 5.21823 -2.00356
5.47837 5.20162 -1.99059
5.43148 5.1895 -1.97944
5.39125 5.18342 -1.97068
5.35096 5.177 -1.96187
5.30654 5.16626 -1.9515
5.29807 5.19039 -1.95434
5.22831 5.1542 -1.93455
5.19569 5.15421 -1.92844
5.16329 5.15421 -1.92238
5.13108 5.15421 -1.91639
5.09907 5.15421 -1.91045
5.06727 5.15421 -1.90456
5.03566 5.15421 -1.89873
5.00424 5.15421 -1.89296
4.97301 5.15421 -1.88723
4.94197 5.15422 -1.88156
4.91112 5.15422 -1.87595
4.88045 5.15422 -1.87038
4.84996 5.15422 -1.86487
4.81965 5.15422 -1.8594
4.78951 5.15422 -1.85399
4.7705 5.16608 -1.85288
4.76454 5.19212 -1.85686
4.70846 5.16334 -1.84129
4.67967 5.16413 -1.83634
4.65104 5.16492 -1.83144
4.62299 5.16618 -1.82675
4.59509 5.16744 -1.82211
4.56733 5.1687 -1.8175
4.53971 5.16994 -1.81294
4.51222 5.17118 -1.80841
4.48487 5.17242 -1.80393
4.4567 5.17253 -1.7991
4.42848 5.17241 -1.79423
5.60718 5.2576 -2.09387
5.52983 5.21768 -2.07108
5.4778 5.20108 -2.05767
5.42644 5.18468 -2.04446
5.37573 5.1685 -2.03144
5.35738 5.1832 -2.03062
5.29415 5.1542 -2.01276
5.26112 5.1542 -2.00632
5.2283 5.1542 -1.99995
5.19569 5.15421 -1.99363
5.16328 5.15421 -1.98737
5.13108 5.15421 -1.98117
5.09907 5.15421 -1.97503
5.06727 5.15421 -1.96895
5.03566 5.15421 -1.96292
5.00424 5.15421 -1.95695
4.97301 5.15421 -1.95103
4.94197 5.15422 -1.94517
4.91112 5.15422 -1.93937
4.88045 5.15422 -1.93361
4.84995 5.15422 -1.92791
4.81965 5.15422 -1.92226
4.78951 5.15422 -1.91667
4.75955 5.15422 -1.91112
4.72976 5.15423 -1.90562
4.70819 5.16305 -1.90343
4.70474 5.1918 -1.90859
4.65012 5.16389 -1.89298
4.62164 5.16467 -1.88796
4.59332 5.16545 -1.88298
4.56514 5.16622 -1.87804
4.53712 5.16699 -1.87315
4.50923 5.16776 -1.86831
4.48175 5.16882 -1.86361
4.45353 5.16886 -1.85859
4.42534 5.16875 -1.85357
5.59336 5.24465 -2.15733
5.52925 5.21713 -2.13888
5.47723 5.20053 -2.12504
5.42563 5.18391 -2.1113
5.37381 5.16666 -2.09742
5.3635 5.18913 -2.09972
5.29415 5.1542 -2.07888
5.26112 5.1542 -2.07223
5.22831 5.1542 -2.06564
5.19569 5.1542 -2.05912
5.16329 5.15421 -2.05265
5.13108 5.15421 -2.04625
5.09907 5.15421 -2.03991
5.06727 5.15421 -2.03363
5.03566 5.15421 -2.0274
5.00424 5.15421 -2.02123
4.97301 5.15421 -2.01512
4.94197 5.15422 -2.00907
4.91112 5.15422 -2.00307
4.88045 5.15422 -1.99713
4.84996 5.15422 -1.99124
4.81965 5.15422 -1.98541
4.78951 5.15422 -1.97962
4.75955 5.15422 -1.9739
4.72976 5.15422 -1.96822
4.70015 5.15423 -1.9626
4.67201 5.15568 -1.95758
4.66847 5.18427 -1.96288
4.62073 5.16365 -1.94958
4.59241 5.16443 -1.94445
4.56424 5.1652 -1.93935
4.53644 5.16623 -1.9344
4.50945 5.168 -1.92977
4.48258 5.16977 -1.92518
4.45432 5.16977 -1.91999
4.42562 5.16908 -1.91458
5.58136 5.23339 -2.22148
5.52867 5.21658 -2.207
5.4756 5.19898 -2.19229
5.42313 5.18153 -2.17776
5.37136 5.1643 -2.16345
5.36837 5.19383 -2.16878
5.29415 5.1542 -2.1453
5.26112 5.1542 -2.13844
5.22831 5.1542 -2.13165
5.19569 5.1542 -2.12491
5.16329 5.15421 -2.11824
5.13108 5.15421 -2.11164
5.09907 5.15421 -2.10509
5.06727 5.15421 -2.09861
5.03566 5.15421 -2.09218
5.00424 5.15421 -2.08582
4.97301 5.15421 -2.07951
4.94197 5.15422 -2.07327
4.91112 5.15422 -2.06708
4.88045 5.15422 -2.06094
4.84996 5.15422 -2.05487
4.81965 5.15422 -2.04885
4.78951 5.15422 -2.04288
4.75955 5.15422 -2.03697
4.72977 5.15422 -2.03111
4.70015 5.15423 -2.02531
4.6707 5.15423 -2.01956
4.64142 5.15423 -2.01386
4.63823 5.18321 -2.0195
4.59217 5.16415 -2.00647
4.56511 5.16619 -2.0017
4.53797 5.16796 -1.99688
4.51096 5.16974 -1.9921
4.48408 5.1715 -1.98737
4.45626 5.17202 -1.9822
4.42754 5.17132 -1.97661
5.47305 5.19656 -2.25945
5.42063 5.17913 -2.24448
5.37277 5.16565 -2.23135
5.37326 5.19857 -2.2383
5.29415 5.1542 -2.21205
5.26112 5.1542 -2.20498
5.2283 5.1542 -2.19797
5.19569 5.1542 -2.19103
5.16328 5.15421 -2.18415
5.13108 5.15421 -2.17734
5.09907 5.15421 -2.17059
5.06727 5.15421 -2.1639
5.03566 5.15421 -2.15728
5.00424 5.15421 -2.15072
4.97301 5.15421 -2.14421
4.94197 5.15422 -2.13777
4.91112 5.15422 -2.13139
4.88044 5.15422 -2.12507
4.84996 5.15422 -2.1188
4.81965 5.15422 -2.11259
4.78951 5.15422 -2.10644
4.75955 5.15422 -2.10035
4.72977 5.15422 -2.09431
4.70015 5.15423 -2.08832
4.6707 5.15423 -2.08239
4.64142 5.15423 -2.07652
4.62675 5.17038 -2.07718
4.59214 5.16413 -2.06889
4.56532 5.16642 -2.06407
4.53862 5.1687 -2.0593
4.51204 5.17097 -2.05457
4.48558 5.17323 -2.04989
4.45821 5.17428 -2.04476
4.42947 5.17357 -2.039
5.29415 5.1542 -2.27913
5.26113 5.1542 -2.27184
5.22831 5.1542 -2.26462
5.19569 5.1542 -2.25747
5.16329 5.15421 -2.25038
5.13108 5.15421 -2.24337
5.09907 5.15421 -2.23641
5.06727 5.15421 -2.22952
5.03566 5.15421 -2.2227
5.00424 5.15421 -2.21594
4.97301 5.15421 -2.20924
4.94197 5.15422 -2.2026
4.91112 5.15422 -2.19602
4.88045 5.15422 -2.18951
4.84996 5.15422 -2.18305
4.81964 5.15422 -2.17666
4.78951 5.15422 -2.17032
4.75955 5.15422 -2.16404
4.72976 5.15422 -2.15782
4.70015 5.15423 -2.15165
4.6707 5.15423 -2.14554
4.64142 5.15423 -2.13949
4.61528 5.15756 -2.13487
4.61461 5.18939 -2.14206
4.5653 5.1664 -2.12666
4.5386 5.16868 -2.12174
4.51202 5.17095 -2.11687
4.48519 5.17278 -2.11186
4.45686 5.17271 -2.10613
4.42842 5.17234 -2.10033
5.22831 5.1542 -2.33162
5.19569 5.1542 -2.32426
5.16329 5.15421 -2.31696
5.13108 5.15421 -2.30973
5.09907 5.15421 -2.30257
5.06727 5.15421 -2.29548
5.03566 5.15421 -2.28845
5.00424 5.15421 -2.28149
4.97301 5.15421 -2.2746
4.94197 5.15422 -2.26776
4.91112 5.15422 -2.26099
4.88045 5.15422 -2.25428
4.84996 5.15422 -2.24764
4.81965 5.15422 -2.24105
4.78951 5.15422 -2.23453
4.75955 5.15422 -2.22806
4.72976 5.15422 -2.22166
4.70015 5.15423 -2.21531
4.6707 5.15423 -2.20902
4.64142 5.15423 -2.20278
4.62683 5.17047 -2.20353
4.62854 5.20505 -2.21208
4.56528 5.16637 -2.18956
4.53858 5.16865 -2.1845
4.51123 5.17005 -2.17912
4.48284 5.17007 -2.1732
4.45455 5.17003 -2.16732
4.42613 5.16966 -2.16135
5.19569 5.1542 -2.39139
5.16328 5.15421 -2.38389
5.13108 5.15421 -2.37645
5.09907 5.15421 -2.36909
5.06727 5.15421 -2.36179
5.03566 5.15421 -2.35456
5.00423 5.15421 -2.34739
4.97301 5.15421 -2.3403
4.94197 5.15422 -2.33327
4.91112 5.15422 -2.3263
4.88044 5.15422 -2.3194
4.84995 5.15422 -2.31256
4.81964 5.15422 -2.30579
4.78951 5.15422 -2.29907
4.75955 5.15422 -2.29242
4.72977 5.15422 -2.28583
4.70015 5.15423 -2.2793
4.6707 5.15423 -2.27283
4.64142 5.15423 -2.26641
4.64086 5.18615 -2.27405
4.64676 5.22555 -2.28494
4.56526 5.16635 -2.2528
4.53738 5.16729 -2.24701
4.50885 5.16732 -2.24088
4.48049 5.16735 -2.23481
4.45222 5.16733 -2.22876
4.42383 5.16697 -2.22263
5.13108 5.15421 -2.44353
5.09907 5.15421 -2.43596
5.06727 5.15421 -2.42846
5.03566 5.15421 -2.42102
5.00423 5.15421 -2.41366
4.97301 5.15421 -2.40636
4.94197 5.15421 -2.39913
4.91111 5.15422 -2.39197
4.88045 5.15422 -2.38487
4.84995 5.15422 -2.37784
4.81965 5.15422 -2.37088
4.78951 5.15422 -2.36397
4.75955 5.15422 -2.35713
4.72976 5.15422 -2.35035
4.70015 5.15423 -2.34364
4.68697 5.17219 -2.34513
4.69515 5.2139 -2.35737
4.70345 5.25609 -2.36978
4.71185 5.29875 -2.38235
4.72759 5.35006 -2.39876
5.00424 5.15421 -2.48029
4.97301 5.15421 -2.47279
4.94197 5.15421 -2.46536
4.91112 5.15422 -2.458
4.88045 5.15422 -2.45071
4.84996 5.15422 -2.44349
4.81965 5.15422 -2.43633
4.78951 5.15422 -2.42923
4.77264 5.16839 -2.42887
4.82514 5.25815 -2.46394
3.67668 6.1446 -1.0185
3.64899 6.14217 -1.01618
3.62132 6.13957 -1.01386
3.59367 6.13679 -1.01153
3.56603 6.13384 -1.00918
3.81654 5.94489 -1.06481
3.69021 5.78815 -1.03465
3.65822 5.77806 -1.03078
3.63329 5.77889 -1.02888
3.60842 5.77967 -1.02699
3.58362 5.78042 -1.02511
3.55889 5.78112 -1.02324
3.53423 5.78179 -1.02138
3.50963 5.78241 -1.01953
3.4851 5.78299 -1.01769
3.46063 5.78353 -1.01586
3.43623 5.78404 -1.01405
3.41189 5.7845 -1.01224
3.38761 5.78492 -1.01044
3.3634 5.78531 -1.00865
4.15528 6.04479 -1.16804
4.01141 5.87507 -1.1328
3.89796 5.74772 -1.10587
3.83834 5.69837 -1.09404
3.77993 5.64999 -1.08246
3.72268 5.60254 -1.07111
3.67474 5.56837 -1.06236
3.65013 5.56918 -1.06032
3.6256 5.56996 -1.05829
3.60114 5.57069 -1.05626
3.57675 5.57138 -1.05425
3.55243 5.57204 -1.05225
3.52817 5.57265 -1.05027
3.50398 5.57323 -1.04829
3.47987 5.57376 -1.04632
3.45581 5.57426 -1.04437
3.43183 5.57472 -1.04242
3.40791 5.57514 -1.04049
3.38406 5.57553 -1.03856
3.36028 5.57587 -1.03665
3.33656 5.57618 -1.03475
3.3129 5.57645 -1.03286
3.28931 5.57669 -1.03097
3.26593 5.57712 -1.02915
3.24279 5.57785 -1.02739
4.18308 5.76822 -1.19542
4.10716 5.70124 -1.17885
4.04916 5.65823 -1.16731
3.99224 5.616 -1.156
3.93635 5.57448 -1.14489
3.88147 5.53369 -1.134
3.82758 5.49359 -1.12331
3.78554 5.46992 -1.11602
3.74474 5.44757 -1.10905
3.70544 5.42696 -1.10247
3.67859 5.42425 -1.09956
3.65437 5.42525 -1.09742
3.63029 5.42632 -1.09532
3.60629 5.42738 -1.09323
3.58239 5.42843 -1.09117
3.55857 5.42948 -1.08912
3.53483 5.43051 -1.08708
3.51118 5.43153 -1.08507
3.48762 5.43255 -1.08307
3.46495 5.43482 -1.08134
3.44247 5.43729 -1.07967
3.42005 5.43972 -1.07801
3.39768 5.44213 -1.07636
3.37537 5.4445 -1.07472
3.35311 5.44684 -1.07309
3.3309 5.44914 -1.07147
3.30864 5.45126 -1.06983
3.28571 5.45213 -1.06796
3.26284 5.45299 -1.06611
3.24005 5.45382 -1.06427
3.21929 5.45798 -1.0631
3.19873 5.46237 -1.06199
3.1782 5.46674 -1.06089
4.16416 5.55582 -1.22426
4.10664 5.51519 -1.21246
4.05016 5.47527 -1.20087
4.0005 5.44393 -1.19122
3.96046 5.42519 -1.18439
3.93027 5.4196 -1.18046
3.90026 5.41404 -1.17656
3.87044 5.4085 -1.1727
3.84093 5.40315 -1.16891
3.81442 5.40182 -1.16602
3.78804 5.40049 -1.16315
3.76179 5.39917 -1.16031
3.73565 5.39784 -1.15749
3.70964 5.39651 -1.15469
3.68503 5.39705 -1.15231
3.66069 5.39786 -1.15002
3.63647 5.39867 -1.14775
3.61254 5.39979 -1.14556
3.58869 5.40089 -1.14339
3.56493 5.40199 -1.14123
3.54126 5.40308 -1.1391
3.51768 5.40415 -1.13699
3.49417 5.40522 -1.13489
3.47075 5.40628 -1.13281
3.44742 5.40733 -1.13075
3.42416 5.40837 -1.1287
3.40098 5.4094 -1.12668
3.37789 5.41042 -1.12467
3.35487 5.41143 -1.12267
3.33193 5.41243 -1.1207
3.30907 5.41343 -1.11874
3.28628 5.41442 -1.1168
3.26357 5.41539 -1.11487
3.24097 5.41643 -1.11298
3.21849 5.41752 -1.11111
3.19608 5.41861 -1.10927
3.1738 5.4198 -1.10746
3.15169 5.42114 -1.1057
5.35536 6.40013 -1.5431
5.1801 6.2305 -1.49825
5.08093 6.15051 -1.47516
5.06548 6.17131 -1.47631
5.04993 6.19205 -1.47746
5.03429 6.21273 -1.4786
5.01854 6.23335 -1.47974
5.00271 6.25392 -1.48087
4.98677 6.27443 -1.482
4.9667 6.28976 -1.48192
4.93901 6.29537 -1.47957
4.91133 6.30088 -1.47722
4.1954 5.41751 -1.26701
4.163 5.4108 -1.26237
4.1317 5.40527 -1.25803
4.1006 5.39976 -1.25374
4.0697 5.39428 -1.24948
4.039 5.38882 -1.24526
4.0085 5.38339 -1.24108
3.97976 5.38009 -1.23743
3.95267 5.37885 -1.23427
3.92573 5.3776 -1.23114
3.89891 5.37636 -1.22804
3.87222 5.37511 -1.22496
3.84567 5.37387 -1.22191
3.81923 5.37263 -1.21888
3.79293 5.37138 -1.21588
3.76675 5.37014 -1.21291
3.74069 5.36889 -1.20996
3.71573 5.36905 -1.20735
3.69137 5.36993 -1.20493
3.6671 5.37079 -1.20252
3.64292 5.37165 -1.20014
3.61883 5.3725 -1.19777
3.59491 5.37344 -1.19545
3.57121 5.37459 -1.1932
3.5476 5.37572 -1.19096
3.52408 5.37685 -1.18875
3.50064 5.37797 -1.18655
3.47728 5.37908 -1.18437
3.454 5.38019 -1.18221
3.43081 5.38128 -1.18007
3.40769 5.38236 -1.17795
3.38466 5.38343 -1.17584
3.3617 5.38449 -1.17376
3.33882 5.38555 -1.17169
3.31602 5.38659 -1.16963
3.29329 5.38763 -1.1676
3.27064 5.38865 -1.16558
3.24811 5.38974 -1.1636
3.22569 5.39089 -1.16165
3.20333 5.39202 -1.15971
3.18106 5.39315 -1.15779
3.15885 5.39426 -1.15589
3.13671 5.39537 -1.154
5.4932 5.89276 -1.55899
5.4438 5.87678 -1.55022
5.39486 5.86088 -1.54153
5.34711 5.84587 -1.53314
5.30201 5.83336 -1.52547
5.25727 5.82088 -1.51787
5.21288 5.80842 -1.51033
5.16885 5.796 -1.50286
5.12517 5.7836 -1.49545
5.08245 5.77193 -1.48828
5.06066 5.78382 -1.48723
5.03886 5.79566 -1.48618
5.01705 5.80743 -1.48514
4.99522 5.81913 -1.4841
4.97098 5.82794 -1.48235
4.94485 5.83444 -1.48003
4.91873 5.84083 -1.47771
4.89263 5.84713 -1.4754
4.86654 5.85333 -1.47309
4.84047 5.85943 -1.47078
4.74145 5.77654 -1.44621
4.67493 5.73224 -1.43142
4.6125 5.69222 -1.41779
4.56042 5.66433 -1.40726
4.3131 5.39183 -1.33618
4.2797 5.38478 -1.33108
4.24655 5.37777 -1.32604
4.21364 5.3708 -1.32104
4.18096 5.36386 -1.31608
4.14885 5.3574 -1.31128
4.12103 5.35625 -1.30782
4.09334 5.35509 -1.30438
4.0658 5.35394 -1.30097
4.03839 5.35279 -1.29759
4.01112 5.35163 -1.29424
3.98399 5.35047 -1.29092
3.95699 5.34932 -1.28763
3.93012 5.34816 -1.28436
3.90338 5.347 -1.28112
3.87678 5.34584 -1.27791
3.8503 5.34468 -1.27473
3.82394 5.34352 -1.27157
3.79772 5.34235 -1.26844
3.77161 5.34119 -1.26534
3.74631 5.341 -1.26249
3.72192 5.34194 -1.25993
3.69761 5.34287 -1.2574
3.6734 5.3438 -1.25489
3.64929 5.34471 -1.25239
3.62526 5.34561 -1.24992
3.60133 5.34651 -1.24747
3.57748 5.34739 -1.24504
3.55385 5.34845 -1.24268
3.53039 5.34964 -1.24036
3.50701 5.35081 -1.23806
3.48371 5.35197 -1.23579
3.4605 5.35312 -1.23353
3.43736 5.35426 -1.23129
3.41431 5.3554 -1.22907
3.39133 5.35652 -1.22687
3.36844 5.35763 -1.22469
3.34562 5.35874 -1.22253
3.32288 5.35983 -1.22038
3.30021 5.36091 -1.21825
3.27762 5.36199 -1.21614
3.25515 5.36314 -1.21407
3.23279 5.36433 -1.21203
3.2105 5.36551 -1.21001
3.18828 5.36668 -1.208
3.16613 5.36784 -1.20601
3.14405 5.36899 -1.20404
3.12204 5.37014 -1.20208
5.48162 5.59092 -1.58284
5.43945 5.583 -1.57573
5.39759 5.57507 -1.56869
5.35604 5.56714 -1.5617
5.31478 5.55921 -1.55477
5.27308 5.5505 -1.54768
5.23117 5.54124 -1.5405
5.18957 5.53199 -1.53337
5.14828 5.52275 -1.52631
5.1073 5.51352 -1.5193
5.06663 5.5043 -1.51235
5.03529 5.50496 -1.50817
5.00821 5.51012 -1.50525
4.98119 5.5152 -1.50234
4.95422 5.52021 -1.49945
4.92773 5.52562 -1.49669
4.90138 5.53105 -1.49398
4.87507 5.53642 -1.49127
4.84882 5.54171 -1.48857
4.82262 5.54694 -1.48589
4.79647 5.5521 -1.48321
4.7601 5.54522 -1.47736
4.7077 5.51927 -1.46649
4.65644 5.49414 -1.4559
4.60653 5.47011 -1.44568
4.55726 5.44634 -1.4356
4.46651 5.37218 -1.41234
4.43219 5.36521 -1.40682
4.39712 5.35704 -1.40104
4.36227 5.34886 -1.3953
4.32769 5.34073 -1.38961
4.29338 5.33265 -1.38399
4.26106 5.32678 -1.37897
4.22901 5.32101 -1.37402
4.2019 5.32123 -1.37065
4.17575 5.3225 -1.36758
4.1497 5.32376 -1.36454
4.12377 5.32501 -1.36152
4.09715 5.32521 -1.35827
4.06969 5.32414 -1.35472
4.04236 5.32308 -1.3512
4.01517 5.32201 -1.34771
3.98812 5.32094 -1.34425
3.9612 5.31987 -1.34082
3.93442 5.3188 -1.33742
3.90775 5.31772 -1.33405
3.88123 5.31664 -1.3307
3.85482 5.31557 -1.32738
3.82855 5.31449 -1.3241
3.8024 5.31341 -1.32084
3.77677 5.31289 -1.31774
3.75234 5.3139 -1.31505
3.728 5.3149 -1.31239
3.70376 5.31589 -1.30974
3.67961 5.31686 -1.30712
3.65556 5.31783 -1.30452
3.63159 5.31879 -1.30194
3.60772 5.31974 -1.29939
3.58393 5.32068 -1.29685
3.56024 5.32161 -1.29434
3.53663 5.32253 -1.29185
3.51328 5.32371 -1.28944
3.49005 5.32493 -1.28706
3.46689 5.32613 -1.28471
3.44382 5.32733 -1.28237
3.42083 5.32851 -1.28006
3.39792 5.32968 -1.27776
3.37508 5.33085 -1.27548
3.35232 5.332 -1.27322
3.32964 5.33314 -1.27099
3.30703 5.33428 -1.26877
3.2845 5.3354 -1.26657
3.2621 5.33661 -1.26441
3.2398 5.33784 -1.26227
3.21757 5.33907 -1.26016
3.19541 5.34029 -1.25806
3.17332 5.3415 -1.25599
3.1513 5.34269 -1.25393
3.12934 5.34388 -1.25189
3.10746 5.34506 -1.24986
5.52789 5.4289 -1.63342
5.46265 5.39874 -1.61916
5.42142 5.39187 -1.61196
5.38395 5.38846 -1.60587
5.34675 5.38506 -1.59982
5.3098 5.38166 -1.59383
5.27311 5.37825 -1.5879
5.23666 5.37485 -1.58201
5.20046 5.37145 -1.57618
5.1645 5.36805 -1.5704
5.12878 5.36465 -1.56467
5.09316 5.36111 -1.55895
5.05778 5.35758 -1.55328
5.02331 5.35476 -1.54787
4.99259 5.35573 -1.54359
4.96201 5.35667 -1.53935
4.93158 5.35759 -1.53514
4.9013 5.35847 -1.53096
4.87116 5.35933 -1.52682
4.84117 5.36017 -1.5227
4.81131 5.36098 -1.51862
4.78168 5.36185 -1.51459
4.75193 5.36241 -1.51051
4.71768 5.35768 -1.50498
4.68366 5.35295 -1.4995
4.64986 5.34823 -1.49407
4.61571 5.34287 -1.4885
4.58048 5.33598 -1.48255
4.54551 5.32912 -1.47666
4.51081 5.32231 -1.47083
4.47584 5.31491 -1.46488
4.44063 5.30696 -1.45882
4.40744 5.30114 -1.4534
4.3746 5.29549 -1.44806
4.34198 5.28986 -1.44277
4.30959 5.28426 -1.43754
4.28097 5.28308 -1.43354
4.25459 5.28447 -1.43027
4.22832 5.28586 -1.42703
4.20216 5.28722 -1.42382
4.17612 5.28858 -1.42063
4.15018 5.28992 -1.41747
4.12435 5.29124 -1.41434
4.09863 5.29255 -1.41123
4.07302 5.29385 -1.40815
4.04622 5.29345 -1.40464
4.01912 5.29247 -1.40102
3.99215 5.29148 -1.39742
3.96531 5.2905 -1.39385
3.9386 5.28951 -1.39031
3.91202 5.28852 -1.38681
3.88557 5.28753 -1.38333
3.85924 5.28653 -1.37988
3.83305 5.28554 -1.37646
3.8071 5.28471 -1.37312
3.78263 5.28579 -1.37029
3.75827 5.28686 -1.36749
3.73399 5.28791 -1.36472
3.70981 5.28896 -1.36196
3.68573 5.29 -1.35923
3.66173 5.29102 -1.35653
3.63783 5.29204 -1.35384
3.61401 5.29304 -1.35118
3.59029 5.29404 -1.34854
3.56665 5.29502 -1.34592
3.5431 5.296 -1.34332
3.51964 5.29697 -1.34075
3.49628 5.29796 -1.3382
3.47319 5.29921 -1.33575
3.45018 5.30046 -1.33332
3.42725 5.30169 -1.33091
3.4044 5.30292 -1.32851
3.38162 5.30413 -1.32614
3.35893 5.30533 -1.32379
3.33631 5.30653 -1.32146
3.31376 5.30771 -1.31915
3.29129 5.30888 -1.31685
3.26896 5.31014 -1.3146
3.24671 5.31143 -1.31238
3.22454 5.3127 -1.31018
3.20244 5.31397 -1.308
3.18041 5.31522 -1.30583
3.15845 5.31646 -1.30369
3.13655 5.3177 -1.30156
3.11473 5.31892 -1.29945
3.09297 5.32013 -1.29736
5.66461 5.42462 -1.72168
5.59461 5.39149 -1.70556
5.5287 5.36166 -1.69061
5.46389 5.33233 -1.67593
5.40017 5.30347 -1.6615
5.35454 5.29189 -1.65258
5.31793 5.28894 -1.64641
5.28156 5.28598 -1.64031
5.24538 5.28296 -1.63423
5.20937 5.27986 -1.62819
5.1736 5.27676 -1.6222
5.13807 5.27366 -1.61626
5.10278 5.27056 -1.61037
5.06771 5.26745 -1.60453
5.03288 5.26434 -1.59875
4.9994 5.26242 -1.59337
4.96913 5.26368 -1.589
4.93901 5.2649 -1.58467
4.90912 5.26619 -1.58039
4.87946 5.26756 -1.57618
4.84995 5.2689 -1.572
4.82057 5.27021 -1.56786
4.79132 5.27149 -1.56374
4.76221 5.27275 -1.55965
4.73183 5.27242 -1.55514
4.69808 5.26811 -1.54949
4.66455 5.2638 -1.54389
4.63124 5.25951 -1.53835
4.59815 5.25522 -1.53285
4.57005 5.25643 -1.52899
4.54278 5.25844 -1.52541
4.51563 5.26043 -1.52185
4.4886 5.2624 -1.51832
4.45606 5.25771 -1.51291
4.42308 5.25226 -1.50732
4.39033 5.24684 -1.50179
4.36032 5.24446 -1.49717
4.3337 5.24599 -1.4937
4.3072 5.24749 -1.49025
4.28081 5.24898 -1.48684
4.25454 5.25046 -1.48345
4.22838 5.25192 -1.48009
4.20233 5.25336 -1.47676
4.17639 5.25479 -1.47346
4.15056 5.25621 -1.47018
4.12484 5.25761 -1.46693
4.09922 5.259 -1.46371
4.07371 5.26038 -1.46051
4.04831 5.26173 -1.45734
4.02295 5.263 -1.45417
3.99606 5.2621 -1.45044
3.9693 5.2612 -1.44673
3.94267 5.2603 -1.44306
3.91617 5.25939 -1.43942
3.8898 5.25848 -1.43581
3.86355 5.25757 -1.43223
3.83743 5.25666 -1.42868
3.81279 5.25761 -1.42567
3.78839 5.25875 -1.42273
3.76409 5.25987 -1.41982
3.73988 5.26099 -1.41693
3.71576 5.26209 -1.41407
3.69173 5.26319 -1.41123
3.6678 5.26427 -1.40842
3.64395 5.26534 -1.40562
3.6202 5.2664 -1.40286
3.59654 5.26745 -1.40011
3.57296 5.26849 -1.39739
3.54947 5.26952 -1.39469
3.52607 5.27054 -1.39201
3.50275 5.27155 -1.38935
3.47951 5.27255 -1.38672
3.45644 5.27366 -1.38414
3.43357 5.27494 -1.38163
3.41078 5.27622 -1.37914
3.38807 5.27748 -1.37668
3.36543 5.27873 -1.37423
3.34287 5.27997 -1.3718
3.32039 5.28121 -1.3694
3.29798 5.28243 -1.36702
3.27571 5.28375 -1.36468
3.25353 5.28508 -1.36237
3.23142 5.2864 -1.36008
3.20937 5.28771 -1.35781
3.1874 5.28901 -1.35555
3.1655 5.2903 -1.35332
3.14366 5.29158 -1.35111
3.12189 5.29284 -1.34891
3.10019 5.2941 -1.34674
3.07856 5.29535 -1.34458
5.65667 5.38295 -1.78226
5.57975 5.34337 -1.76332
5.50679 5.30685 -1.74554
5.43526 5.27105 -1.72812
5.36581 5.23661 -1.71128
5.32395 5.22861 -1.70317
5.28567 5.22384 -1.69619
5.24959 5.22098 -1.68988
5.21377 5.21813 -1.68363
5.1782 5.2153 -1.67744
5.14289 5.21248 -1.67132
5.10783 5.20968 -1.66525
5.07302 5.20689 -1.65924
5.03845 5.20412 -1.65329
5.00445 5.2017 -1.6475
4.97198 5.20064 -1.6422
4.94018 5.20008 -1.6371
4.90857 5.19952 -1.63204
4.87715 5.19895 -1.62703
4.84591 5.19839 -1.62207
4.81486 5.19782 -1.61715
4.78399 5.19724 -1.61228
4.7533 5.19667 -1.60744
4.7244 5.19786 -1.6032
4.6937 5.19689 -1.59833
4.66393 5.19676 -1.59376
4.63643 5.19898 -1.58995
4.60905 5.20117 -1.58618
4.58179 5.20335 -1.58243
4.55464 5.2055 -1.57871
4.52761 5.20762 -1.57502
4.5007 5.20973 -1.57136
4.47123 5.20871 -1.5668
4.43995 5.20536 -1.56157
4.41309 5.20701 -1.55789
4.38634 5.20864 -1.55423
4.35972 5.21026 -1.55061
4.33322 5.21186 -1.54702
4.30682 5.21345 -1.54345
4.28055 5.21502 -1.53992
4.25438 5.21658 -1.53641
4.22833 5.21812 -1.53293
4.20239 5.21964 -1.52948
4.17656 5.22115 -1.52606
4.15084 5.22264 -1.52267
4.12522 5.22412 -1.5193
4.09971 5.22559 -1.51596
4.07431 5.22704 -1.51265
4.04901 5.22847 -1.50937
4.02381 5.22989 -1.50611
3.99872 5.2313 -1.50288
3.97318 5.23197 -1.49947
3.94663 5.23115 -1.49566
3.92021 5.23033 -1.49189
3.89392 5.22951 -1.48815
3.86775 5.22868 -1.48443
3.84282 5.22935 -1.48118
3.81838 5.23056 -1.47811
3.79405 5.23176 -1.47506
3.7698 5.23294 -1.47204
3.74565 5.23412 -1.46904
3.7216 5.23528 -1.46607
3.69764 5.23643 -1.46312
3.67376 5.23757 -1.4602
3.64998 5.2387 -1.4573
3.62629 5.23981 -1.45442
3.60269 5.24092 -1.45157
3.57917 5.24201 -1.44875
3.55574 5.2431 -1.44594
3.5324 5.24417 -1.44316
3.50914 5.24524 -1.44041
3.48596 5.24629 -1.43767
3.46287 5.24733 -1.43496
3.43986 5.24836 -1.43227
3.41706 5.24958 -1.42966
3.39441 5.25089 -1.42709
3.37184 5.25219 -1.42455
3.34934 5.25349 -1.42203
3.32691 5.25477 -1.41954
3.30456 5.25604 -1.41706
3.28237 5.25742 -1.41464
3.26024 5.2588 -1.41224
3.23819 5.26016 -1.40986
3.21621 5.26152 -1.4075
3.19429 5.26286 -1.40516
3.17245 5.2642 -1.40284
3.15067 5.26552 -1.40054
3.12896 5.26683 -1.39826
3.10732 5.26813 -1.396
3.08574 5.26943 -1.39376
3.06423 5.27071 -1.39153
5.6487 5.34156 -1.84255
5.56959 5.30009 -1.82218
5.4971 5.26421 -1.80388
5.42944 5.23231 -1.78708
5.38877 5.22597 -1.7791
5.34845 5.21967 -1.77122
5.30422 5.20923 -1.76199
5.25978 5.19825 -1.75266
5.22392 5.19544 -1.74616
5.18836 5.19271 -1.73974
5.15306 5.18998 -1.73337
5.11801 5.18727 -1.72707
5.08344 5.1848 -1.72091
5.04938 5.18263 -1.7149
5.01554 5.18046 -1.70894
4.98236 5.17873 -1.70319
4.95057 5.17825 -1.69789
4.91897 5.17776 -1.69264
4.88764 5.17735 -1.68746
4.85874 5.17933 -1.68311
4.82999 5.1813 -1.6788
4.80138 5.18326 -1.67452
4.77291 5.18521 -1.67028
4.74459 5.18714 -1.66608
4.71507 5.1876 -1.66145
4.68446 5.18667 -1.65642
4.65404 5.18573 -1.65143
4.62379 5.1848 -1.64648
4.59372 5.18388 -1.64158
4.56383 5.18296 -1.63673
4.53411 5.18204 -1.63192
4.50588 5.18264 -1.62763
4.47808 5.18355 -1.62348
4.4495 5.1834 -1.61903
4.42109 5.18326 -1.61463
4.39284 5.18312 -1.61027
4.36473 5.18298 -1.60594
4.33678 5.18284 -1.60166
4.30897 5.1827 -1.59741
4.28131 5.18257 -1.5932
4.25412 5.18283 -1.58915
4.22818 5.18445 -1.58556
4.20235 5.18605 -1.58199
4.17662 5.18764 -1.57845
4.15101 5.18921 -1.57494
4.1255 5.19076 -1.57146
4.1001 5.1923 -1.56801
4.0748 5.19383 -1.56458
4.0496 5.19534 -1.56119
4.02451 5.19683 -1.55782
3.99952 5.19831 -1.55448
3.97462 5.19978 -1.55116
3.94983 5.20123 -1.54787
3.92413 5.20134 -1.54422
3.89792 5.20059 -1.54034
3.87271 5.20102 -1.53685
3.84824 5.2023 -1.53364
3.82387 5.20356 -1.53045
3.79959 5.20482 -1.52729
3.77541 5.20606 -1.52416
3.75132 5.20729 -1.52105
3.72733 5.20851 -1.51797
3.70343 5.20972 -1.51491
3.67962 5.21092 -1.51188
3.6559 5.2121 -1.50887
3.63227 5.21327 -1.50589
3.60873 5.21444 -1.50294
3.58527 5.21559 -1.50001
3.5619 5.21673 -1.4971
3.53862 5.21785 -1.49421
3.51542 5.21897 -1.49135
3.49231 5.22008 -1.48852
3.46927 5.22117 -1.48571
3.44632 5.22226 -1.48292
3.42346 5.22333 -1.48015
3.40067 5.22439 -1.47741
3.37813 5.22571 -1.47477
3.3557 5.22705 -1.47215
3.33333 5.22838 -1.46956
3.31105 5.22971 -1.46699
3.28891 5.23114 -1.46448
3.26685 5.23257 -1.46199
3.24486 5.23398 -1.45952
3.22293 5.23538 -1.45708
3.20108 5.23677 -1.45465
3.1793 5.23815 -1.45224
3.15758 5.23952 -1.44986
3.13593 5.24088 -1.44749
3.11434 5.24223 -1.44514
3.09283 5.24356 -1.44282
3.07137 5.24489 -1.44051
3.04998 5.2462 -1.43823
5.64041 5.30016 -1.90246
5.55918 5.2569 -1.88064
5.49371 5.22788 -1.86406
5.45253 5.22153 -1.85566
5.41171 5.21523 -1.84735
5.37125 5.20898 -1.83913
5.32919 5.20087 -1.83033
5.28455 5.18992 -1.82061
5.24039 5.17908 -1.811
5.19839 5.17006 -1.80211
5.16323 5.16755 -1.79556
5.1287 5.16544 -1.7892
5.0944 5.16334 -1.7829
5.19728 5.30091 -1.82474
5.20359 5.34091 -1.83286
5.20998 5.38129 -1.84107
5.10011 5.30113 -1.80814
4.93675 5.16379 -1.75599
4.90763 5.16583 -1.75141
4.87866 5.16784 -1.74687
4.84984 5.16985 -1.74238
4.82117 5.17184 -1.73792
4.79263 5.17382 -1.7335
4.76424 5.17579 -1.72912
4.73599 5.17774 -1.72478
4.70574 5.17734 -1.7197
4.67522 5.17644 -1.7145
4.64489 5.17554 -1.70935
4.61473 5.17464 -1.70424
4.58617 5.17536 -1.69971
4.55824 5.1766 -1.69539
4.53044 5.17784 -1.69111
4.50278 5.17906 -1.68687
4.47493 5.17991 -1.68254
4.44638 5.17976 -1.67794
4.41799 5.17962 -1.67337
4.38975 5.17948 -1.66885
4.36166 5.17934 -1.66437
4.33373 5.1792 -1.65993
4.30596 5.17908 -1.65553
4.27832 5.17895 -1.65117
4.25083 5.17882 -1.64685
4.22348 5.17869 -1.64257
4.19627 5.17856 -1.63833
4.16921 5.17842 -1.63412
4.14228 5.17829 -1.62995
4.11548 5.17816 -1.62582
4.08882 5.17803 -1.62173
4.0623 5.1779 -1.61767
4.0359 5.17777 -1.61365
4.00964 5.17763 -1.60966
3.9835 5.1775 -1.60571
3.95749 5.17737 -1.60179
3.93161 5.17723 -1.59791
3.90584 5.17709 -1.59406
3.88027 5.17704 -1.59027
3.85494 5.17716 -1.58657
3.82973 5.17728 -1.5829
3.80503 5.17793 -1.57943
3.78091 5.17923 -1.57618
3.75689 5.18052 -1.57296
3.73296 5.1818 -1.56977
3.70912 5.18306 -1.56661
3.68537 5.18431 -1.56347
3.66171 5.18555 -1.56036
3.63814 5.18678 -1.55727
3.61466 5.188 -1.55421
3.59127 5.18921 -1.55117
3.56796 5.1904 -1.54816
3.54474 5.19158 -1.54517
3.5216 5.19275 -1.54221
3.49854 5.19391 -1.53927
3.47557 5.19506 -1.53636
3.45268 5.1962 -1.53347
3.42987 5.19732 -1.53061
3.40714 5.19844 -1.52777
3.38449 5.19954 -1.52495
3.36195 5.20068 -1.52217
3.33965 5.20206 -1.51949
3.31743 5.20344 -1.51683
3.29536 5.20493 -1.51423
3.27335 5.2064 -1.51165
3.25142 5.20786 -1.50909
3.22956 5.20931 -1.50655
3.20776 5.21074 -1.50404
3.18604 5.21217 -1.50154
3.16438 5.21358 -1.49907
3.14279 5.21498 -1.49662
3.12126 5.21637 -1.49419
3.0998 5.21775 -1.49178
3.07841 5.21912 -1.48939
3.05708 5.22048 -1.48702
3.03581 5.22182 -1.48467
5.58262 5.24585 -1.95062
