ply
format ascii 1.0
comment Created by Open3D
element vertex 1751
property double x
property double y
property double z
end_header
-0.326626 -6.11909 -1.56033
-0.307421 -6.11913 -1.56009
-0.28822 -6.11915 -1.55985
-0.269027 -6.11917 -1.55964
-0.249835 -6.11918 -1.55943
-0.23065 -6.11918 -1.55924
-0.21147 -6.11918 -1.55906
-0.192293 -6.11916 -1.5589
-0.173119 -6.11915 -1.55875
-0.153953 -6.11932 -1.55866
-0.134794 -6.11964 -1.55863
-0.115634 -6.11995 -1.55861
-0.0964746 -6.12025 -1.5586
-0.0773141 -6.12055 -1.55861
-0.058157 -6.12084 -1.55863
-0.0389958 -6.12112 -1.55866
-0.0198339 -6.1214 -1.55871
-0.000670896 -6.12167 -1.55877
0.0184936 -6.12193 -1.55884
-2.12734 -6.23496 -1.73591
-2.10217 -6.2249 -1.73127
-2.07714 -6.21488 -1.72667
-2.05347 -6.20865 -1.72314
-2.02995 -6.20259 -1.71969
-2.00652 -6.19655 -1.71626
-1.98318 -6.19053 -1.71287
-1.95993 -6.18454 -1.7095
-1.93678 -6.17856 -1.70617
-1.9137 -6.1726 -1.70286
-1.89069 -6.16655 -1.69955
-1.86777 -6.16053 -1.69627
-1.84493 -6.15452 -1.69301
-1.82218 -6.14854 -1.68979
-1.79951 -6.14257 -1.6866
-1.77693 -6.13663 -1.68343
-1.75443 -6.13071 -1.68029
-1.73202 -6.1248 -1.67718
-1.71058 -6.12213 -1.67497
-1.68947 -6.12042 -1.67305
-1.6684 -6.11871 -1.67114
-1.64737 -6.11699 -1.66926
-1.6264 -6.11528 -1.66739
-1.60547 -6.11357 -1.66555
-1.58459 -6.11187 -1.66372
-1.56401 -6.1112 -1.6622
-1.5435 -6.11062 -1.66072
-1.52302 -6.11004 -1.65926
-1.50258 -6.10946 -1.65782
-1.48217 -6.10887 -1.65639
-1.46179 -6.10828 -1.65498
-1.44162 -6.10843 -1.65379
-1.42152 -6.10874 -1.65266
-1.40145 -6.10905 -1.65155
-1.38141 -6.10936 -1.65046
-1.36138 -6.10966 -1.64938
-1.34144 -6.11021 -1.64839
-1.32155 -6.11086 -1.64744
-1.30167 -6.1115 -1.6465
-1.28182 -6.11213 -1.64558
-1.26199 -6.11277 -1.64468
-1.24217 -6.11339 -1.6438
-1.22226 -6.11341 -1.64276
-1.20236 -6.11332 -1.64172
-1.18247 -6.11323 -1.6407
-1.16261 -6.11314 -1.63969
-1.14278 -6.11305 -1.63869
-1.12297 -6.11295 -1.63772
-1.10318 -6.11285 -1.63676
-1.08361 -6.11387 -1.63612
-1.06418 -6.11562 -1.63568
-1.04477 -6.11736 -1.63527
-1.02536 -6.1191 -1.63486
-1.00574 -6.11945 -1.63411
-0.986104 -6.11965 -1.63333
-0.966488 -6.11984 -1.63257
-0.946891 -6.12003 -1.63182
-0.927313 -6.12022 -1.63109
-0.90775 -6.12041 -1.63037
-0.888204 -6.12059 -1.62967
-0.868676 -6.12077 -1.62899
-0.849163 -6.12095 -1.62832
-0.829665 -6.12113 -1.62767
-0.810181 -6.1213 -1.62703
-0.790669 -6.12114 -1.62632
-0.771152 -6.12079 -1.62558
-0.751653 -6.12045 -1.62486
-0.73217 -6.1201 -1.62415
-0.712704 -6.11976 -1.62346
-0.693253 -6.11941 -1.62278
-0.673819 -6.11906 -1.62212
-0.654399 -6.11871 -1.62148
-0.634997 -6.11836 -1.62085
-0.615609 -6.11801 -1.62024
-0.596234 -6.11765 -1.61964
-0.576873 -6.1173 -1.61906
-0.557526 -6.11694 -1.6185
-0.538193 -6.11659 -1.61795
-0.518871 -6.11623 -1.61742
-0.499561 -6.11587 -1.6169
-0.480266 -6.11552 -1.6164
-0.460979 -6.11516 -1.61592
-0.441707 -6.1148 -1.61545
-0.422444 -6.11444 -1.615
-0.403191 -6.11407 -1.61456
-0.383949 -6.11371 -1.61414
-0.364716 -6.11335 -1.61373
-0.345494 -6.11298 -1.61334
-0.32628 -6.11261 -1.61297
-0.307075 -6.11225 -1.61261
-0.287877 -6.11188 -1.61227
-0.26869 -6.11151 -1.61194
-0.249507 -6.11114 -1.61163
-0.230332 -6.11077 -1.61133
-0.211166 -6.11039 -1.61105
-0.192005 -6.11002 -1.61079
-0.172851 -6.10965 -1.61054
-0.153709 -6.10961 -1.61039
-0.134577 -6.10975 -1.61031
-0.115444 -6.10989 -1.61024
-0.0963133 -6.11003 -1.61019
-0.0771829 -6.11016 -1.61016
-0.0580553 -6.1103 -1.61014
-0.0389276 -6.11043 -1.61013
-0.0197979 -6.11056 -1.61014
-0.000669812 -6.11069 -1.61017
0.0184594 -6.11082 -1.61021
-2.12531 -6.22902 -1.79288
-2.10017 -6.21898 -1.78809
-2.07517 -6.20899 -1.78335
-2.05102 -6.20124 -1.77927
-2.02753 -6.1952 -1.7757
-2.00413 -6.18918 -1.77217
-1.98082 -6.18318 -1.76867
-1.95758 -6.1771 -1.76517
-1.93442 -6.17103 -1.7617
-1.91134 -6.16499 -1.75825
-1.88837 -6.15896 -1.75484
-1.86547 -6.15296 -1.75146
-1.84267 -6.14698 -1.7481
-1.81995 -6.14101 -1.74478
-1.79731 -6.13507 -1.74148
-1.77476 -6.12915 -1.73822
-1.7523 -6.12325 -1.73498
-1.72991 -6.11736 -1.73177
-1.70805 -6.11305 -1.72903
-1.68696 -6.11135 -1.72704
-1.66593 -6.10965 -1.72508
-1.64494 -6.10795 -1.72314
-1.624 -6.10626 -1.72122
-1.6031 -6.10456 -1.71932
-1.58225 -6.10286 -1.71743
-1.56144 -6.10117 -1.71557
-1.54068 -6.09947 -1.71373
-1.51996 -6.09778 -1.71191
-1.49952 -6.09705 -1.71038
-1.47916 -6.09647 -1.70891
-1.45883 -6.0959 -1.70746
-1.43869 -6.096 -1.70622
-1.41864 -6.09633 -1.70506
-1.39862 -6.09671 -1.70393
-1.37869 -6.09737 -1.7029
-1.35879 -6.09803 -1.70189
-1.33891 -6.09868 -1.7009
-1.31905 -6.09933 -1.69992
-1.29922 -6.09998 -1.69896
-1.2794 -6.10062 -1.69801
-1.25961 -6.10125 -1.69708
-1.23984 -6.10189 -1.69617
-1.21997 -6.10192 -1.69511
-1.2001 -6.10184 -1.69404
-1.18026 -6.10176 -1.69298
-1.16043 -6.10168 -1.69194
-1.14075 -6.1022 -1.69109
-1.12131 -6.10396 -1.69059
-1.10189 -6.10571 -1.69011
-1.08247 -6.10746 -1.68965
-1.06307 -6.1092 -1.6892
-1.04367 -6.11094 -1.68877
-1.02417 -6.11199 -1.68817
-1.00454 -6.11219 -1.68735
-0.984934 -6.11239 -1.68654
-0.965342 -6.11259 -1.68576
-0.945769 -6.11278 -1.68498
-0.926215 -6.11297 -1.68423
-0.906674 -6.11316 -1.68349
-0.887154 -6.11335 -1.68277
-0.867649 -6.11353 -1.68206
-0.848159 -6.11371 -1.68138
-0.828683 -6.11389 -1.6807
-0.809225 -6.11407 -1.68005
-0.789779 -6.11425 -1.67941
-0.770348 -6.11442 -1.67878
-0.750933 -6.11459 -1.67818
-0.73153 -6.11476 -1.67759
-0.712141 -6.11492 -1.67701
-0.692763 -6.11509 -1.67646
-0.673368 -6.11497 -1.67584
-0.653962 -6.11462 -1.67517
-0.634573 -6.11427 -1.67452
-0.615197 -6.11392 -1.67389
-0.595834 -6.11357 -1.67328
-0.576487 -6.11322 -1.67268
-0.557154 -6.11286 -1.6721
-0.537833 -6.11251 -1.67153
-0.518525 -6.11215 -1.67098
-0.499228 -6.1118 -1.67045
-0.479945 -6.11144 -1.66993
-0.460672 -6.11108 -1.66943
-0.441413 -6.11072 -1.66895
-0.422163 -6.11036 -1.66848
-0.402922 -6.11 -1.66803
-0.383694 -6.10964 -1.66759
-0.364475 -6.10928 -1.66718
-0.345264 -6.10892 -1.66677
-0.326062 -6.10855 -1.66639
-0.306871 -6.10818 -1.66602
-0.287686 -6.10782 -1.66566
-0.26851 -6.10745 -1.66533
-0.249341 -6.10708 -1.665
-0.230179 -6.10671 -1.6647
-0.211025 -6.10634 -1.66441
-0.191877 -6.10596 -1.66414
-0.172735 -6.10559 -1.66388
-0.153605 -6.10543 -1.6637
-0.134484 -6.10557 -1.66361
-0.115366 -6.10571 -1.66354
-0.0962474 -6.10584 -1.66349
-0.07713 -6.10598 -1.66345
-0.0580156 -6.10611 -1.66343
-0.0389002 -6.10625 -1.66343
-0.0197851 -6.10638 -1.66344
-0.000669298 -6.10651 -1.66346
0.0184468 -6.10664 -1.66351
-2.12564 -6.22999 -1.85206
-2.09944 -6.21681 -1.84619
-2.07341 -6.20373 -1.84036
-2.04856 -6.19381 -1.83551
-2.02507 -6.18769 -1.83181
-2.00167 -6.18158 -1.82814
-1.97836 -6.17549 -1.8245
-1.95514 -6.16943 -1.82089
-1.93202 -6.16338 -1.81731
-1.90898 -6.15736 -1.81376
-1.88603 -6.15136 -1.81025
-1.86317 -6.14537 -1.80676
-1.8404 -6.13941 -1.8033
-1.81771 -6.13347 -1.79988
-1.79511 -6.12755 -1.79648
-1.77259 -6.12165 -1.79312
-1.75016 -6.11577 -1.78978
-1.7278 -6.10991 -1.78648
-1.70553 -6.10407 -1.7832
-1.68446 -6.10227 -1.78112
-1.66346 -6.10058 -1.7791
-1.6425 -6.0989 -1.7771
-1.62159 -6.09721 -1.77512
-1.60073 -6.09553 -1.77317
-1.57991 -6.09385 -1.77123
-1.55914 -6.09216 -1.76931
-1.53841 -6.09048 -1.76742
-1.51773 -6.0888 -1.76554
-1.49708 -6.08712 -1.76369
-1.47648 -6.08544 -1.76185
-1.45592 -6.08376 -1.76004
-1.43581 -6.0838 -1.75874
-1.41588 -6.08448 -1.75765
-1.39597 -6.08515 -1.75657
-1.37608 -6.08582 -1.75551
-1.35622 -6.08648 -1.75447
-1.33638 -6.08714 -1.75344
-1.31656 -6.0878 -1.75244
-1.29676 -6.08845 -1.75145
-1.27699 -6.08909 -1.75047
-1.25723 -6.08974 -1.74952
-1.2375 -6.09037 -1.74858
-1.21767 -6.09043 -1.74749
-1.19786 -6.09049 -1.74643
-1.17841 -6.09225 -1.74587
-1.15898 -6.09401 -1.74532
-1.13955 -6.09577 -1.74479
-1.12013 -6.09752 -1.74428
-1.10073 -6.09927 -1.74379
-1.08133 -6.10102 -1.74331
-1.06195 -6.10277 -1.74285
-1.04257 -6.10451 -1.74241
-1.02295 -6.10471 -1.74155
-1.00335 -6.10492 -1.7407
-0.983762 -6.10512 -1.73987
-0.964194 -6.10532 -1.73906
-0.944645 -6.10551 -1.73826
-0.925113 -6.10571 -1.73749
-0.905597 -6.1059 -1.73673
-0.886101 -6.10609 -1.73598
-0.866619 -6.10628 -1.73526
-0.847151 -6.10646 -1.73455
-0.8277 -6.10664 -1.73385
-0.808265 -6.10682 -1.73318
-0.788842 -6.107 -1.73252
-0.769435 -6.10718 -1.73188
-0.750042 -6.10735 -1.73125
-0.730664 -6.10752 -1.73064
-0.711298 -6.10769 -1.73005
-0.691944 -6.10785 -1.72948
-0.672603 -6.10802 -1.72892
-0.653273 -6.10818 -1.72838
-0.633955 -6.10834 -1.72785
-0.61465 -6.10849 -1.72734
-0.595355 -6.10865 -1.72685
-0.576071 -6.1088 -1.72638
-0.55678 -6.10877 -1.72587
-0.537472 -6.10842 -1.72528
-0.518178 -6.10806 -1.72472
-0.498893 -6.10771 -1.72417
-0.479625 -6.10735 -1.72363
-0.460364 -6.107 -1.72312
-0.441118 -6.10664 -1.72262
-0.42188 -6.10628 -1.72214
-0.402653 -6.10592 -1.72167
-0.383438 -6.10556 -1.72122
-0.36423 -6.1052 -1.72079
-0.345033 -6.10484 -1.72038
-0.325844 -6.10447 -1.71998
-0.306667 -6.10411 -1.7196
-0.287494 -6.10374 -1.71923
-0.268331 -6.10337 -1.71888
-0.249174 -6.10301 -1.71855
-0.230025 -6.10264 -1.71823
-0.210884 -6.10227 -1.71794
-0.191749 -6.10189 -1.71765
-0.172619 -6.10152 -1.71739
-0.153498 -6.10123 -1.71716
-0.134391 -6.10137 -1.71708
-0.115285 -6.10151 -1.71701
-0.0961801 -6.10165 -1.71695
-0.0770763 -6.10178 -1.71691
-0.0579746 -6.10192 -1.71689
-0.0388734 -6.10205 -1.71689
-0.0197707 -6.10218 -1.7169
-0.000668487 -6.10231 -1.71692
0.0184363 -6.10244 -1.71697
-2.12664 -6.23291 -1.91214
-2.09938 -6.21662 -1.90512
-2.07231 -6.20045 -1.89817
-2.04625 -6.18681 -1.89202
-2.02275 -6.18058 -1.88817
-1.99934 -6.17438 -1.88435
-1.97604 -6.16824 -1.88058
-1.95283 -6.16213 -1.87685
-1.92972 -6.15604 -1.87314
-1.90669 -6.14997 -1.86947
-1.88375 -6.14392 -1.86583
-1.86091 -6.1379 -1.86222
-1.83815 -6.1319 -1.85865
-1.81547 -6.12592 -1.8551
-1.7929 -6.12002 -1.85161
-1.77041 -6.11414 -1.84814
-1.74801 -6.10828 -1.84471
-1.72569 -6.10244 -1.8413
-1.70345 -6.09661 -1.83793
-1.68195 -6.09318 -1.8353
-1.66098 -6.0915 -1.83322
-1.64006 -6.08983 -1.83116
-1.61918 -6.08816 -1.82912
-1.66683 -6.34723 -1.90538
-1.61765 -6.2394 -1.87148
-1.57215 -6.14301 -1.84109
-1.5388 -6.09203 -1.82436
-1.51853 -6.09203 -1.82292
-1.49829 -6.09203 -1.82151
-1.47808 -6.09203 -1.82012
-1.4579 -6.09204 -1.81875
-1.43776 -6.09204 -1.81739
-1.41764 -6.09204 -1.81606
-1.39755 -6.09204 -1.81475
-1.37749 -6.09204 -1.81346
-1.35746 -6.09204 -1.81218
-1.33745 -6.09204 -1.81093
-1.31748 -6.09204 -1.80969
-1.29753 -6.09204 -1.80848
-1.27761 -6.09204 -1.80728
-1.25929 -6.09968 -1.80837
-1.24453 -6.12497 -1.8147
-1.23131 -6.15866 -1.82353
-1.19659 -6.08404 -1.80032
-1.17717 -6.0858 -1.79974
-1.15775 -6.08756 -1.79918
-1.13834 -6.08932 -1.79864
-1.11895 -6.09107 -1.79812
-1.09956 -6.09282 -1.79761
-1.08019 -6.09457 -1.79712
-1.06083 -6.09632 -1.79664
-1.04132 -6.09721 -1.79594
-1.02173 -6.09742 -1.79505
-1.00215 -6.09762 -1.79418
-0.982586 -6.09783 -1.79332
-0.963042 -6.09803 -1.79249
-0.943519 -6.09823 -1.79167
-0.924009 -6.09843 -1.79087
-0.904518 -6.09862 -1.79008
-0.885043 -6.09881 -1.78932
-0.865586 -6.09901 -1.78857
-0.846144 -6.09919 -1.78784
-0.826715 -6.09938 -1.78713
-0.807303 -6.09956 -1.78643
-0.787905 -6.09974 -1.78575
-0.768522 -6.09992 -1.78509
-0.749151 -6.10009 -1.78445
-0.729796 -6.10027 -1.78382
-0.710454 -6.10044 -1.78321
-0.691123 -6.10061 -1.78262
-0.671804 -6.10077 -1.78205
-0.652498 -6.10093 -1.78149
-0.633204 -6.10109 -1.78095
-0.613922 -6.10125 -1.78042
-0.594651 -6.10141 -1.77992
-0.575388 -6.10156 -1.77943
-0.556138 -6.10172 -1.77896
-0.536897 -6.10186 -1.7785
-0.517664 -6.10201 -1.77806
-0.49844 -6.10216 -1.77764
-0.479226 -6.1023 -1.77724
-0.46002 -6.10244 -1.77685
-0.440821 -6.10254 -1.77647
-0.421597 -6.10219 -1.77597
-0.402383 -6.10183 -1.77549
-0.383181 -6.10147 -1.77503
-0.363985 -6.10111 -1.77459
-0.344802 -6.10075 -1.77416
-0.325626 -6.10038 -1.77375
-0.306461 -6.10002 -1.77335
-0.287301 -6.09965 -1.77298
-0.268151 -6.09929 -1.77262
-0.249007 -6.09892 -1.77228
-0.229872 -6.09855 -1.77195
-0.210742 -6.09818 -1.77164
-0.19162 -6.09781 -1.77135
-0.172505 -6.09744 -1.77108
-0.153393 -6.09707 -1.77082
-0.134298 -6.09716 -1.77072
-0.115206 -6.0973 -1.77065
-0.0961149 -6.09744 -1.77059
-0.0770231 -6.09757 -1.77055
-0.0579346 -6.09771 -1.77053
-0.0388473 -6.09784 -1.77052
-0.0197571 -6.09797 -1.77054
-0.00066842 -6.0981 -1.77056
0.0184222 -6.09823 -1.77061
-2.12375 -6.22444 -1.96896
-2.09654 -6.20821 -1.96174
-2.06952 -6.19209 -1.95459
-2.04396 -6.17988 -1.9487
-2.02048 -6.17367 -1.94474
-1.99711 -6.16749 -1.94081
-1.97382 -6.16133 -1.93692
-1.95063 -6.15519 -1.93306
-1.92754 -6.1491 -1.92925
-1.90454 -6.14305 -1.92547
-1.88164 -6.13703 -1.92172
-1.85882 -6.13102 -1.91801
-1.83609 -6.12504 -1.91433
-1.81344 -6.11907 -1.91068
-1.79088 -6.11313 -1.90707
-1.76841 -6.10721 -1.90348
-1.74602 -6.1013 -1.89993
-1.72371 -6.09542 -1.89641
-1.73107 -6.19547 -1.92584
-1.75207 -6.34722 -1.9713
-1.73071 -6.34722 -1.96961
-1.64065 -6.09203 -1.88882
-1.62021 -6.09203 -1.88723
-1.59981 -6.09203 -1.88567
-1.57944 -6.09203 -1.88413
-1.55911 -6.09203 -1.88262
-1.5388 -6.09203 -1.88112
-1.51853 -6.09203 -1.87964
-1.49829 -6.09203 -1.87818
-1.47808 -6.09203 -1.87675
-1.4579 -6.09204 -1.87534
-1.43776 -6.09204 -1.87394
-1.41764 -6.09204 -1.87257
-1.39755 -6.09204 -1.87121
-1.37749 -6.09204 -1.86988
-1.35746 -6.09204 -1.86857
-1.33745 -6.09204 -1.86727
-1.31748 -6.09204 -1.866
-1.29753 -6.09204 -1.86475
-1.2776 -6.09204 -1.86351
-1.25771 -6.09204 -1.8623
-1.23784 -6.09205 -1.86111
-1.21799 -6.09205 -1.85993
-1.19817 -6.09205 -1.85878
-1.17893 -6.09494 -1.85853
-1.16547 -6.12814 -1.86753
-1.15186 -6.16161 -1.87662
-1.11776 -6.0846 -1.85209
-1.0984 -6.08635 -1.85157
-1.07904 -6.0881 -1.85106
-1.05967 -6.08967 -1.85052
-1.04008 -6.08989 -1.84959
-1.0205 -6.0901 -1.84868
-1.00095 -6.09031 -1.84778
-0.981409 -6.09052 -1.8469
-0.961889 -6.09073 -1.84604
-0.942388 -6.09093 -1.8452
-0.922904 -6.09113 -1.84438
-0.903437 -6.09133 -1.84357
-0.883984 -6.09152 -1.84278
-0.864551 -6.09172 -1.84202
-0.845132 -6.09191 -1.84126
-0.825727 -6.09209 -1.84053
-0.80634 -6.09228 -1.83981
-0.786965 -6.09246 -1.83912
-0.767605 -6.09264 -1.83844
-0.748259 -6.09282 -1.83777
-0.728927 -6.09299 -1.83713
-0.709607 -6.09317 -1.8365
-0.690298 -6.09334 -1.83589
-0.671005 -6.09351 -1.8353
-0.65172 -6.09367 -1.83473
-0.632451 -6.09383 -1.83417
-0.613191 -6.09399 -1.83364
-0.593943 -6.09415 -1.83311
-0.574705 -6.09431 -1.83261
-0.555477 -6.09446 -1.83212
-0.536256 -6.09461 -1.83166
-0.517047 -6.09476 -1.83121
-0.497847 -6.09491 -1.83077
-0.478657 -6.09505 -1.83036
-0.459475 -6.09519 -1.82996
-0.440301 -6.09533 -1.82958
-0.421133 -6.09547 -1.82921
-0.401973 -6.0956 -1.82887
-0.38282 -6.09573 -1.82854
-0.363673 -6.09586 -1.82823
-0.344534 -6.09599 -1.82793
-0.325398 -6.09611 -1.82765
-0.306255 -6.09592 -1.8273
-0.287107 -6.09555 -1.82691
-0.267971 -6.09519 -1.82654
-0.24884 -6.09482 -1.82619
-0.229718 -6.09445 -1.82586
-0.210601 -6.09408 -1.82554
-0.191491 -6.09371 -1.82524
-0.172389 -6.09334 -1.82496
-0.153291 -6.09297 -1.82469
-0.134205 -6.09294 -1.82455
-0.115127 -6.09308 -1.82447
-0.0960483 -6.09321 -1.82441
-0.0769705 -6.09335 -1.82437
-0.0578944 -6.09348 -1.82435
-0.0388197 -6.09362 -1.82435
-0.0197434 -6.09375 -1.82436
-0.000667554 -6.09394 -1.82441
0.0184116 -6.09425 -1.82451
-2.12697 -6.23388 -2.03174
-2.09682 -6.20904 -2.0215
-2.06697 -6.18445 -2.01137
-2.04166 -6.17293 -2.00554
-2.01822 -6.16674 -2.00147
-1.99487 -6.16058 -1.99743
-1.97162 -6.15444 -1.99343
-1.94846 -6.14833 -1.98946
-1.92539 -6.14223 -1.98553
-1.90241 -6.13616 -1.98163
-1.87952 -6.13011 -1.97777
-1.85673 -6.12412 -1.97395
-1.83403 -6.11816 -1.97017
-1.81141 -6.11221 -1.96642
-1.78888 -6.10629 -1.9627
-1.76643 -6.10039 -1.95902
-1.77182 -6.19148 -1.98648
-1.79491 -6.34722 -2.03464
-1.77347 -6.34722 -2.03285
-1.68163 -6.09203 -1.94942
-1.66112 -6.09203 -1.94774
-1.64065 -6.09203 -1.94609
-1.62021 -6.09203 -1.94446
-1.59981 -6.09203 -1.94286
-1.57944 -6.09203 -1.94127
-1.55911 -6.09203 -1.93971
-1.5388 -6.09203 -1.93816
-1.51853 -6.09203 -1.93664
-1.49829 -6.09203 -1.93514
-1.47808 -6.09203 -1.93366
-1.4579 -6.09204 -1.9322
-1.43776 -6.09204 -1.93077
-1.41764 -6.09204 -1.92935
-1.39755 -6.09204 -1.92796
-1.37749 -6.09204 -1.92658
-1.35746 -6.09204 -1.92523
-1.33745 -6.09204 -1.9239
-1.31748 -6.09204 -1.92259
-1.29753 -6.09204 -1.9213
-1.27761 -6.09204 -1.92002
-1.25771 -6.09204 -1.91877
-1.23784 -6.09205 -1.91754
-1.21799 -6.09205 -1.91634
-1.19817 -6.09205 -1.91515
-1.17838 -6.09205 -1.91398
-1.1586 -6.09205 -1.91283
-1.13885 -6.09205 -1.9117
-1.11965 -6.09489 -1.91148
-1.1094 -6.14732 -1.92683
-1.09897 -6.20057 -1.94243
-1.05855 -6.08323 -1.90462
-1.03895 -6.08331 -1.90362
-1.01938 -6.08339 -1.90264
-0.999822 -6.08347 -1.90168
-0.980285 -6.08355 -1.90073
-0.960767 -6.08362 -1.89981
-0.941271 -6.0837 -1.8989
-0.921796 -6.08381 -1.89803
-0.902351 -6.08401 -1.8972
-0.882924 -6.08421 -1.89639
-0.863515 -6.08441 -1.8956
-0.844119 -6.0846 -1.89483
-0.824738 -6.08479 -1.89407
-0.805374 -6.08498 -1.89334
-0.786022 -6.08516 -1.89262
-0.766686 -6.08535 -1.89192
-0.747362 -6.08553 -1.89124
-0.728055 -6.0857 -1.89058
-0.708758 -6.08588 -1.88993
-0.689475 -6.08605 -1.88931
-0.670203 -6.08622 -1.8887
-0.650943 -6.08639 -1.88811
-0.631694 -6.08655 -1.88754
-0.612458 -6.08672 -1.88698
-0.593235 -6.08688 -1.88645
-0.574018 -6.08703 -1.88593
-0.554814 -6.08719 -1.88543
-0.535618 -6.08734 -1.88495
-0.51643 -6.08749 -1.88449
-0.497254 -6.08764 -1.88404
-0.478086 -6.08778 -1.88361
-0.458926 -6.08793 -1.8832
-0.439775 -6.08807 -1.88281
-0.420631 -6.0882 -1.88244
-0.401494 -6.08834 -1.88208
-0.382363 -6.08847 -1.88174
-0.363239 -6.0886 -1.88142
-0.344123 -6.08873 -1.88112
-0.325011 -6.08885 -1.88084
-0.305906 -6.08898 -1.88057
-0.286804 -6.0891 -1.88032
-0.267709 -6.08922 -1.88009
-0.248615 -6.08933 -1.87987
-0.229527 -6.08944 -1.87968
-0.210444 -6.08955 -1.8795
-0.191362 -6.0896 -1.87932
-0.172271 -6.08923 -1.87903
-0.153188 -6.08886 -1.87876
-0.134113 -6.0887 -1.87857
-0.115046 -6.08884 -1.87849
-0.095982 -6.08901 -1.87844
-0.0769182 -6.08933 -1.87846
-0.0578591 -6.08964 -1.87849
-0.0387964 -6.08996 -1.87854
-0.0197321 -6.09027 -1.87861
-0.000667259 -6.09058 -1.8787
0.0183999 -6.0909 -1.8788
-2.13651 -6.26186 -2.10124
-2.10431 -6.23124 -2.08874
-2.0725 -6.20099 -2.07642
-2.04406 -6.18019 -2.0673
-2.01998 -6.17212 -2.06247
-1.99601 -6.16409 -2.05769
-1.97214 -6.15609 -2.05295
-1.9484 -6.14814 -2.04826
-1.92476 -6.14023 -2.04361
-1.90123 -6.13236 -2.03899
-1.87781 -6.12453 -2.03443
-1.85465 -6.11727 -2.03008
-1.83197 -6.11128 -2.02618
-1.80937 -6.10534 -2.02232
-1.80597 -6.16464 -2.04008
-1.80873 -6.24647 -2.06527
-1.81156 -6.33035 -2.09112
-1.79491 -6.34722 -2.09483
-1.70217 -6.09203 -2.00884
-1.68163 -6.09203 -2.00709
-1.66112 -6.09203 -2.00537
-1.64065 -6.09203 -2.00367
-1.62021 -6.09203 -2.00199
-1.59981 -6.09203 -2.00033
-1.57944 -6.09203 -1.9987
-1.55911 -6.09203 -1.99709
-1.5388 -6.09203 -1.9955
-1.51853 -6.09203 -1.99393
-1.49829 -6.09203 -1.99239
-1.47808 -6.09203 -1.99087
-1.4579 -6.09204 -1.98937
-1.43776 -6.09204 -1.98789
-1.41764 -6.09204 -1.98643
-1.39755 -6.09204 -1.98499
-1.37749 -6.09204 -1.98358
-1.35746 -6.09204 -1.98219
-1.33745 -6.09204 -1.98081
-1.31747 -6.09204 -1.97946
-1.29753 -6.09204 -1.97814
-1.27761 -6.09204 -1.97683
-1.25771 -6.09204 -1.97554
-1.23784 -6.09205 -1.97427
-1.21799 -6.09205 -1.97303
-1.19817 -6.09205 -1.9718
-1.17838 -6.09205 -1.9706
-1.1586 -6.09205 -1.96942
-1.13885 -6.09205 -1.96826
-1.11913 -6.09205 -1.96712
-1.09942 -6.09205 -1.96599
-1.08165 -6.10279 -1.96836
-1.07108 -6.15523 -1.98418
-1.03893 -6.0832 -1.9599
-1.01936 -6.08328 -1.95889
-0.999805 -6.08336 -1.9579
-0.980268 -6.08344 -1.95693
-0.960752 -6.08352 -1.95598
-0.941254 -6.0836 -1.95504
-0.921776 -6.08367 -1.95413
-0.902313 -6.08375 -1.95324
-0.882871 -6.08383 -1.95237
-0.863444 -6.08391 -1.95152
-0.844035 -6.08399 -1.95068
-0.82464 -6.08406 -1.94987
-0.805261 -6.08414 -1.94908
-0.7859 -6.08422 -1.94831
-0.766553 -6.0843 -1.94755
-0.747222 -6.08437 -1.94682
-0.727905 -6.08445 -1.94611
-0.708601 -6.08453 -1.94541
-0.68931 -6.0846 -1.94474
-0.670033 -6.08468 -1.94408
-0.650768 -6.08476 -1.94345
-0.631518 -6.08483 -1.94283
-0.612277 -6.08491 -1.94223
-0.59305 -6.08499 -1.94165
-0.573833 -6.08506 -1.9411
-0.554626 -6.08514 -1.94056
-0.53543 -6.08522 -1.94004
-0.516245 -6.08529 -1.93954
-0.497069 -6.08537 -1.93906
-0.477903 -6.08544 -1.93859
-0.458744 -6.08552 -1.93815
-0.439597 -6.0856 -1.93773
-0.420456 -6.08567 -1.93732
-0.401324 -6.08575 -1.93694
-0.382197 -6.08582 -1.93657
-0.363079 -6.0859 -1.93622
-0.343969 -6.08598 -1.9359
-0.324862 -6.08605 -1.93559
-0.305763 -6.08613 -1.9353
-0.286668 -6.0862 -1.93503
-0.267581 -6.08632 -1.93479
-0.248499 -6.08645 -1.93457
-0.229421 -6.08659 -1.93438
-0.210348 -6.08673 -1.9342
-0.191277 -6.08686 -1.93405
-0.172209 -6.087 -1.93391
-0.153143 -6.08714 -1.93379
-0.134082 -6.08735 -1.93372
-0.115025 -6.08773 -1.93371
-0.0959668 -6.08811 -1.93373
-0.0769092 -6.0885 -1.93377
-0.0578519 -6.08888 -1.93382
-0.038792 -6.08927 -1.9339
-0.0197297 -6.08963 -1.93398
-0.000667269 -6.08999 -1.93409
0.0183977 -6.09035 -1.93421
-2.14096 -6.27488 -2.16643
-2.10867 -6.24413 -2.15352
-2.07676 -6.21374 -2.14079
-2.04726 -6.18987 -2.13035
-2.02313 -6.18176 -2.12537
-1.99912 -6.1737 -2.12043
-1.97521 -6.16567 -2.11554
-1.95142 -6.15769 -2.1107
-1.92774 -6.14974 -2.10589
-1.90417 -6.14184 -2.10113
-1.88053 -6.13343 -2.09623
-1.85698 -6.12493 -2.09133
-1.83353 -6.11648 -2.08648
-1.81057 -6.10937 -2.08211
-1.81336 -6.18984 -2.10759
-1.81622 -6.27232 -2.13372
-1.81639 -6.34722 -2.15726
-1.72275 -6.09202 -2.06868
-1.70217 -6.09203 -2.06686
-1.68163 -6.09203 -2.06507
-1.66112 -6.09203 -2.0633
-1.64065 -6.09203 -2.06155
-1.62021 -6.09203 -2.05982
-1.59981 -6.09203 -2.05812
-1.57944 -6.09203 -2.05644
-1.55911 -6.09203 -2.05478
-1.5388 -6.09203 -2.05314
-1.51853 -6.09203 -2.05153
-1.49829 -6.09203 -2.04994
-1.47808 -6.09203 -2.04838
-1.4579 -6.09204 -2.04683
-1.43776 -6.09204 -2.04531
-1.41764 -6.09204 -2.04381
-1.39755 -6.09204 -2.04233
-1.37749 -6.09204 -2.04088
-1.35746 -6.09204 -2.03944
-1.33745 -6.09204 -2.03803
-1.31748 -6.09204 -2.03664
-1.29753 -6.09204 -2.03528
-1.27761 -6.09204 -2.03393
-1.25771 -6.09204 -2.03261
-1.23784 -6.09205 -2.0313
-1.21799 -6.09205 -2.03002
-1.19817 -6.09205 -2.02876
-1.17837 -6.09205 -2.02752
-1.1586 -6.09205 -2.02631
-1.13885 -6.09205 -2.02511
-1.11913 -6.09205 -2.02394
-1.09942 -6.09205 -2.02278
-1.07974 -6.09205 -2.02165
-1.06008 -6.09205 -2.02054
-1.05098 -6.15374 -2.0399
-1.04555 -6.23955 -2.06725
-0.999788 -6.08325 -2.01442
-0.980252 -6.08333 -2.01342
-0.960736 -6.08341 -2.01244
-0.941238 -6.08349 -2.01148
-0.92176 -6.08357 -2.01054
-0.902298 -6.08365 -2.00963
-0.882855 -6.08372 -2.00873
-0.863429 -6.0838 -2.00785
-0.844019 -6.08388 -2.007
-0.824626 -6.08396 -2.00616
-0.805249 -6.08403 -2.00535
-0.785887 -6.08411 -2.00455
-0.766539 -6.08419 -2.00378
-0.747209 -6.08427 -2.00302
-0.727892 -6.08434 -2.00229
-0.708588 -6.08442 -2.00157
-0.689298 -6.0845 -2.00088
-0.670021 -6.08458 -2.0002
-0.650757 -6.08465 -1.99955
-0.631507 -6.08473 -1.99891
-0.612267 -6.08481 -1.9983
-0.59304 -6.08488 -1.99771
-0.573824 -6.08496 -1.99713
-0.554618 -6.08503 -1.99658
-0.535421 -6.08512 -1.99604
-0.516242 -6.08525 -1.99555
-0.49707 -6.08538 -1.99507
-0.47791 -6.08552 -1.99462
-0.458755 -6.08565 -1.99418
-0.439611 -6.08579 -1.99376
-0.420474 -6.08592 -1.99337
-0.401344 -6.08606 -1.99299
-0.382222 -6.08619 -1.99263
-0.363106 -6.08633 -1.99229
-0.343996 -6.08647 -1.99198
-0.324892 -6.0866 -1.99168
-0.305794 -6.08674 -1.9914
-0.286701 -6.08687 -1.99114
-0.267611 -6.08701 -1.9909
-0.248528 -6.08715 -1.99068
-0.229447 -6.08729 -1.99048
-0.210372 -6.08742 -1.9903
-0.1913 -6.08756 -1.99014
-0.17223 -6.0877 -1.99
-0.153161 -6.08784 -1.98988
-0.134098 -6.08803 -1.9898
-0.115038 -6.08842 -1.9898
-0.0959787 -6.0888 -1.98981
-0.0769179 -6.08918 -1.98985
-0.0578584 -6.08957 -1.98991
-0.0387971 -6.08995 -1.98998
-0.0197324 -6.09034 -1.99008
-0.000667615 -6.09072 -1.99019
0.0184006 -6.09111 -1.99033
-2.05049 -6.19964 -2.19394
-2.02625 -6.1913 -2.18873
-2.00198 -6.18252 -2.1834
-1.97781 -6.17379 -2.17812
-1.95377 -6.1651 -2.17289
-1.92985 -6.15646 -2.1677
-1.90603 -6.14786 -2.16256
-1.88234 -6.1393 -2.15747
-1.85875 -6.13079 -2.15242
-1.83527 -6.12231 -2.14742
-1.81795 -6.13428 -2.14961
-1.82084 -6.21539 -2.17603
-1.82381 -6.29853 -2.20312
-1.74336 -6.09202 -2.12897
-1.72275 -6.09202 -2.12708
-1.70217 -6.09203 -2.12521
-1.68163 -6.09203 -2.12336
-1.66112 -6.09203 -2.12154
-1.64065 -6.09203 -2.11974
-1.62021 -6.09203 -2.11796
-1.59981 -6.09203 -2.11621
-1.57944 -6.09203 -2.11449
-1.55911 -6.09203 -2.11278
-1.5388 -6.09203 -2.1111
-1.51853 -6.09203 -2.10944
-1.49829 -6.09203 -2.10781
-1.47808 -6.09204 -2.1062
-1.4579 -6.09204 -2.10461
-1.43776 -6.09204 -2.10304
-1.41764 -6.09204 -2.1015
-1.39755 -6.09204 -2.09998
-1.37749 -6.09204 -2.09849
-1.35746 -6.09204 -2.09701
-1.33745 -6.09204 -2.09556
-1.31747 -6.09204 -2.09413
-1.29753 -6.09204 -2.09273
-1.27761 -6.09204 -2.09134
-1.25771 -6.09204 -2.08998
-1.23784 -6.09205 -2.08864
-1.21799 -6.09205 -2.08732
-1.19817 -6.09205 -2.08603
-1.17838 -6.09205 -2.08476
-1.1586 -6.09205 -2.08351
-1.13885 -6.09205 -2.08228
-1.11913 -6.09205 -2.08107
-1.09942 -6.09205 -2.07988
-1.07974 -6.09205 -2.07872
-1.06008 -6.09205 -2.07758
-1.04278 -6.10573 -2.08112
-1.03728 -6.19022 -2.1088
-1.03162 -6.27697 -2.13724
-0.980234 -6.08323 -2.07022
-0.960716 -6.0833 -2.06921
-0.941221 -6.08338 -2.06823
-0.921743 -6.08346 -2.06726
-0.902282 -6.08354 -2.06632
-0.882838 -6.08362 -2.0654
-0.863414 -6.08369 -2.06449
-0.844005 -6.08377 -2.06362
-0.82461 -6.08385 -2.06276
-0.805239 -6.08396 -2.06193
-0.785884 -6.08409 -2.06113
-0.766544 -6.08422 -2.06035
-0.74722 -6.08436 -2.05959
-0.727909 -6.08449 -2.05886
-0.708612 -6.08462 -2.05814
-0.689327 -6.08475 -2.05744
-0.670055 -6.08489 -2.05677
-0.650796 -6.08502 -2.05612
-0.631549 -6.08515 -2.05548
-0.612315 -6.08528 -2.05487
-0.593093 -6.08542 -2.05428
-0.573878 -6.08555 -2.05371
-0.554676 -6.08568 -2.05316
-0.535483 -6.08582 -2.05263
-0.516302 -6.08595 -2.05212
-0.497127 -6.08609 -2.05163
-0.477963 -6.08622 -2.05116
-0.458807 -6.08635 -2.05071
-0.439661 -6.08649 -2.05028
-0.420523 -6.08662 -2.04987
-0.40139 -6.08676 -2.04948
-0.382265 -6.08689 -2.04912
-0.363147 -6.08703 -2.04877
-0.344034 -6.08717 -2.04844
-0.324928 -6.0873 -2.04814
-0.305829 -6.08744 -2.04785
-0.286732 -6.08757 -2.04758
-0.267643 -6.08771 -2.04734
-0.248556 -6.08785 -2.04711
-0.229474 -6.08798 -2.04691
-0.210395 -6.08812 -2.04672
-0.191321 -6.08826 -2.04656
-0.172249 -6.0884 -2.04641
-0.153178 -6.08853 -2.04629
-0.134112 -6.08872 -2.0462
-0.115052 -6.08911 -2.0462
-0.0959895 -6.08949 -2.04621
-0.0769266 -6.08987 -2.04625
-0.0578649 -6.09026 -2.04631
-0.0388008 -6.09064 -2.04639
-0.0197346 -6.09103 -2.04649
-0.000667674 -6.09141 -2.04661
0.0184027 -6.0918 -2.04674
-1.90788 -6.1538 -2.22441
-1.88415 -6.14522 -2.21917
-1.86054 -6.13669 -2.21397
-1.83704 -6.12819 -2.20882
-1.82543 -6.15953 -2.21805
-1.72275 -6.09202 -2.1858
-1.70217 -6.09203 -2.18388
-1.68163 -6.09203 -2.18198
-1.66112 -6.09203 -2.18011
-1.64065 -6.09203 -2.17826
-1.62021 -6.09203 -2.17643
-1.59981 -6.09203 -2.17463
-1.57944 -6.09203 -2.17286
-1.55911 -6.09203 -2.17111
-1.5388 -6.09203 -2.16938
-1.51853 -6.09203 -2.16768
-1.49829 -6.09203 -2.166
-1.47808 -6.09204 -2.16434
-1.4579 -6.09204 -2.16271
-1.43776 -6.09204 -2.1611
-1.41764 -6.09204 -2.15952
-1.39755 -6.09204 -2.15796
-1.37749 -6.09204 -2.15642
-1.35746 -6.09204 -2.15491
-1.33745 -6.09204 -2.15341
-1.31748 -6.09204 -2.15195
-1.29753 -6.09204 -2.1505
-1.2776 -6.09204 -2.14908
-1.25771 -6.09204 -2.14768
-1.23784 -6.09205 -2.1463
-1.21799 -6.09205 -2.14495
-1.19817 -6.09205 -2.14362
-1.17837 -6.09205 -2.14231
-1.1586 -6.09205 -2.14103
-1.13885 -6.09205 -2.13976
-1.11913 -6.09205 -2.13852
-1.09942 -6.09205 -2.1373
-1.07974 -6.09205 -2.13611
-1.06008 -6.09205 -2.13493
-1.04045 -6.09205 -2.13378
-1.0357 -6.18082 -2.16373
-1.04317 -6.34725 -2.22084
-1.02278 -6.34725 -2.2197
-0.960728 -6.08337 -2.12636
-0.941282 -6.08379 -2.12547
-0.921857 -6.08421 -2.12459
-0.902442 -6.08463 -2.12374
-0.883045 -6.08505 -2.12291
-0.863664 -6.08546 -2.12211
-0.844271 -6.0857 -2.12126
-0.824874 -6.0858 -2.12038
-0.805494 -6.0859 -2.11953
-0.786131 -6.086 -2.11869
-0.766781 -6.0861 -2.11788
-0.747446 -6.08621 -2.1171
-0.728127 -6.08632 -2.11633
-0.708823 -6.08642 -2.11558
-0.689527 -6.08653 -2.11486
-0.670249 -6.08664 -2.11416
-0.650982 -6.08675 -2.11348
-0.631727 -6.08687 -2.11282
-0.612485 -6.08698 -2.11219
-0.593256 -6.0871 -2.11157
-0.574035 -6.08721 -2.11098
-0.554825 -6.08733 -2.11041
-0.535628 -6.08745 -2.10986
-0.516438 -6.08757 -2.10933
-0.497259 -6.08769 -2.10882
-0.47809 -6.08782 -2.10834
-0.458927 -6.08794 -2.10787
-0.439775 -6.08807 -2.10743
-0.42063 -6.0882 -2.10701
-0.401493 -6.08833 -2.1066
-0.382364 -6.08846 -2.10623
-0.36324 -6.08859 -2.10587
-0.344122 -6.08872 -2.10553
-0.325011 -6.08886 -2.10522
-0.305907 -6.08899 -2.10492
-0.286806 -6.08913 -2.10465
-0.26771 -6.08927 -2.1044
-0.248619 -6.08941 -2.10416
-0.229532 -6.08955 -2.10395
-0.210449 -6.08969 -2.10377
-0.191369 -6.08984 -2.1036
-0.172292 -6.08998 -2.10345
-0.153218 -6.09013 -2.10333
-0.134146 -6.09026 -2.10322
-0.115075 -6.09037 -2.10312
-0.096005 -6.09047 -2.10304
-0.0769375 -6.09074 -2.10304
-0.0578732 -6.09113 -2.1031
-0.0388058 -6.09152 -2.10319
-0.0197374 -6.09191 -2.10329
-0.00066703 -6.0923 -2.10341
0.018407 -6.09269 -2.10356
-1.72275 -6.09202 -2.24486
-1.70217 -6.09203 -2.24288
-1.68163 -6.09203 -2.24094
-1.66112 -6.09203 -2.23901
-1.64065 -6.09203 -2.23711
-1.62021 -6.09203 -2.23524
-1.59981 -6.09203 -2.23339
-1.57944 -6.09203 -2.23157
-1.55911 -6.09203 -2.22977
-1.5388 -6.09203 -2.228
-1.51853 -6.09203 -2.22625
-1.49829 -6.09203 -2.22452
-1.47808 -6.09204 -2.22282
-1.4579 -6.09204 -2.22115
-1.43776 -6.09204 -2.2195
-1.41764 -6.09204 -2.21787
-1.39755 -6.09204 -2.21627
-1.37749 -6.09204 -2.21469
-1.35746 -6.09204 -2.21313
-1.33745 -6.09204 -2.2116
-1.31748 -6.09204 -2.21009
-1.29753 -6.09204 -2.20861
-1.27761 -6.09204 -2.20715
-1.25771 -6.09204 -2.20571
-1.23784 -6.09205 -2.2043
-1.21799 -6.09205 -2.20291
-1.19817 -6.09205 -2.20154
-1.17838 -6.09205 -2.2002
-1.1586 -6.09205 -2.19887
-1.13885 -6.09205 -2.19758
-1.11913 -6.09205 -2.1963
-1.09942 -6.09205 -2.19505
-1.07974 -6.09205 -2.19382
-1.06008 -6.09205 -2.19262
-1.04177 -6.09979 -2.19422
-1.056 -6.30197 -2.26575
-0.960701 -6.0832 -2.18375
-0.941257 -6.08362 -2.18284
-0.921829 -6.08404 -2.18194
-0.902416 -6.08446 -2.18107
-0.88302 -6.08488 -2.18021
-0.863642 -6.0853 -2.17938
-0.844274 -6.08572 -2.17858
-0.824918 -6.08613 -2.17779
-0.805582 -6.08655 -2.17703
-0.786254 -6.08697 -2.17629
-0.76694 -6.08738 -2.17557
-0.74764 -6.0878 -2.17487
-0.728354 -6.08822 -2.17419
-0.709077 -6.08863 -2.17354
-0.689813 -6.08905 -2.1729
-0.670557 -6.08946 -2.17229
-0.651315 -6.08987 -2.1717
-0.632079 -6.09029 -2.17113
-0.612859 -6.0907 -2.17058
-0.593632 -6.09097 -2.17001
-0.574402 -6.09109 -2.1694
-0.555179 -6.09121 -2.16881
-0.535968 -6.09132 -2.16824
-0.516768 -6.09144 -2.1677
-0.497575 -6.09157 -2.16718
-0.478393 -6.09169 -2.16668
-0.45922 -6.09181 -2.1662
-0.440056 -6.09194 -2.16574
-0.420898 -6.09207 -2.16531
-0.401747 -6.09219 -2.1649
-0.382606 -6.09232 -2.16451
-0.36347 -6.09245 -2.16414
-0.344342 -6.09259 -2.16379
-0.325217 -6.09272 -2.16347
-0.306101 -6.09286 -2.16317
-0.286988 -6.09299 -2.16289
-0.26788 -6.09313 -2.16263
-0.248777 -6.09327 -2.16239
-0.229678 -6.09341 -2.16217
-0.210584 -6.09355 -2.16198
-0.191492 -6.0937 -2.16181
-0.172404 -6.09384 -2.16166
-0.153316 -6.09399 -2.16153
-0.134231 -6.09412 -2.16141
-0.115147 -6.09422 -2.16131
-0.0960647 -6.09432 -2.16123
-0.0769834 -6.09443 -2.16117
-0.0579056 -6.09453 -2.16113
-0.0388262 -6.09464 -2.16112
-0.0197474 -6.09475 -2.16112
-0.000667708 -6.09486 -2.16115
0.0184137 -6.09497 -2.1612
-1.68163 -6.09203 -2.30024
-1.66112 -6.09203 -2.29827
-1.64065 -6.09203 -2.29632
-1.62021 -6.09203 -2.2944
-1.59981 -6.09203 -2.2925
-1.57944 -6.09203 -2.29063
-1.55911 -6.09203 -2.28878
-1.5388 -6.09203 -2.28696
-1.51853 -6.09203 -2.28516
-1.49829 -6.09203 -2.28339
-1.47808 -6.09204 -2.28165
-1.4579 -6.09204 -2.27993
-1.43776 -6.09204 -2.27823
-1.41764 -6.09204 -2.27656
-1.39755 -6.09204 -2.27492
-1.37749 -6.09204 -2.2733
-1.35746 -6.09204 -2.2717
-1.33745 -6.09204 -2.27013
-1.31748 -6.09204 -2.26858
-1.29753 -6.09204 -2.26706
-1.2776 -6.09204 -2.26556
-1.25771 -6.09205 -2.26408
-1.23784 -6.09205 -2.26263
-1.21799 -6.09205 -2.2612
-1.19817 -6.09205 -2.2598
-1.17838 -6.09205 -2.25842
-1.1586 -6.09205 -2.25707
-1.13885 -6.09205 -2.25574
-1.11913 -6.09205 -2.25443
-1.09942 -6.09205 -2.25314
-1.07974 -6.09205 -2.25188
-1.06008 -6.09205 -2.25064
-0.960675 -6.08303 -2.24148
-0.941234 -6.08345 -2.24054
-0.921804 -6.08387 -2.23962
-0.90239 -6.08429 -2.23873
-0.882994 -6.08471 -2.23785
-0.863618 -6.08513 -2.237
-0.844249 -6.08555 -2.23617
-0.824896 -6.08596 -2.23536
-0.80556 -6.08638 -2.23458
-0.786232 -6.0868 -2.23382
-0.76692 -6.08722 -2.23308
-0.74762 -6.08763 -2.23236
-0.728334 -6.08805 -2.23167
-0.709058 -6.08846 -2.231
-0.689792 -6.08888 -2.23035
-0.670541 -6.08929 -2.22972
-0.651299 -6.08971 -2.22911
-0.632064 -6.09012 -2.22853
-0.612844 -6.09054 -2.22797
-0.593629 -6.09095 -2.22743
-0.574426 -6.09136 -2.22691
-0.55523 -6.09178 -2.22642
-0.536043 -6.09219 -2.22594
-0.516865 -6.0926 -2.22549
-0.497691 -6.09301 -2.22506
-0.47853 -6.09343 -2.22465
-0.459372 -6.09384 -2.22427
-0.44022 -6.09425 -2.22391
-0.421078 -6.09466 -2.22356
-0.401939 -6.09507 -2.22324
-0.382801 -6.09549 -2.22295
-0.363674 -6.0959 -2.22267
-0.344551 -6.09631 -2.22242
-0.325426 -6.09661 -2.22214
-0.306297 -6.09675 -2.22183
-0.287171 -6.09688 -2.22154
-0.268051 -6.09702 -2.22128
-0.248936 -6.09716 -2.22103
-0.229825 -6.0973 -2.22081
-0.210718 -6.09745 -2.22061
-0.191614 -6.09759 -2.22044
-0.172512 -6.09773 -2.22028
-0.153413 -6.09788 -2.22015
-0.134316 -6.098 -2.22003
-0.115219 -6.0981 -2.21992
-0.0961258 -6.0982 -2.21984
-0.0770324 -6.09831 -2.21978
-0.0579424 -6.09841 -2.21974
-0.0388509 -6.09852 -2.21973
-0.0197593 -6.09863 -2.21973
-0.000668505 -6.09874 -2.21976
0.0184255 -6.09885 -2.21981
-1.66112 -6.09203 -2.35788
-1.64065 -6.09203 -2.35588
-1.62021 -6.09203 -2.35391
-1.59981 -6.09203 -2.35196
-1.57944 -6.09203 -2.35004
-1.55911 -6.09203 -2.34815
-1.5388 -6.09203 -2.34628
-1.51853 -6.09203 -2.34444
-1.49829 -6.09203 -2.34262
-1.47808 -6.09204 -2.34083
-1.4579 -6.09204 -2.33907
-1.43776 -6.09204 -2.33733
-1.41764 -6.09204 -2.33561
-1.39755 -6.09204 -2.33393
-1.37749 -6.09204 -2.33226
-1.35746 -6.09204 -2.33063
-1.33745 -6.09204 -2.32901
-1.31748 -6.09204 -2.32742
-1.29753 -6.09204 -2.32586
-1.2776 -6.09204 -2.32432
-1.25771 -6.09205 -2.32281
-1.23784 -6.09205 -2.32132
-1.21799 -6.09205 -2.31986
-1.19817 -6.09205 -2.31842
-1.17838 -6.09205 -2.317
-1.1586 -6.09205 -2.31561
-1.13885 -6.09205 -2.31425
-1.11913 -6.09205 -2.31291
-1.09942 -6.09205 -2.31159
-1.59981 -6.09203 -2.4118
-1.57944 -6.09203 -2.40983
-1.55911 -6.09203 -2.40789
-1.5388 -6.09203 -2.40597
-1.51853 -6.09203 -2.40408
-1.49829 -6.09203 -2.40222
-1.47808 -6.09204 -2.40038
-1.4579 -6.09204 -2.39857
-1.43776 -6.09204 -2.39679
-1.41764 -6.09204 -2.39503
-1.39755 -6.09204 -2.3933
-1.37749 -6.09204 -2.3916
-1.35746 -6.09204 -2.38992
-1.33745 -6.09204 -2.38826
-1.31748 -6.09204 -2.38663
-1.29753 -6.09204 -2.38503
-1.2776 -6.09204 -2.38345
-1.25771 -6.09205 -2.3819
-1.23784 -6.09205 -2.38038
-1.21799 -6.09205 -2.37888
-1.19817 -6.09205 -2.3774
-1.17838 -6.09205 -2.37595
-1.1586 -6.09205 -2.37452
-1.13885 -6.09205 -2.37312
-1.51853 -6.09203 -2.46411
-1.49829 -6.09203 -2.4622
-1.47808 -6.09204 -2.46032
-1.4579 -6.09204 -2.45846
-1.43776 -6.09204 -2.45663
-1.41764 -6.09204 -2.45483
-1.39755 -6.09204 -2.45306
-1.37749 -6.09204 -2.45131
-1.35746 -6.09204 -2.44959
-1.33745 -6.09204 -2.44789
-1.31748 -6.09204 -2.44622
-1.29753 -6.09204 -2.44458
-1.2776 -6.09204 -2.44296
-1.25771 -6.09205 -2.44137
-1.23784 -6.09205 -2.43981
-1.21799 -6.09205 -2.43827
-0.998662 -7.24297 -1.03996
-0.965608 -7.16908 -1.02891
-0.933875 -7.1015 -1.01879
-0.904175 -7.04626 -1.01045
-0.880785 -7.03851 -1.00894
-0.857454 -7.03066 -1.00743
-0.834091 -7.022 -1.00581
-0.810602 -7.01162 -1.00395
-0.787182 -7.00113 -1.00209
-0.764497 -6.9966 -1.00109
-0.741928 -6.99277 -1.00021
-0.719397 -6.98891 -0.999329
-0.696896 -6.985 -0.998454
-0.674434 -6.98105 -0.997583
-0.652003 -6.97706 -0.996716
-0.629609 -6.97303 -0.995853
-0.607247 -6.96896 -0.994996
-0.584921 -6.96485 -0.994142
-0.562628 -6.96069 -0.993293
-0.54037 -6.9565 -0.992448
-0.518145 -6.95227 -0.991607
-0.495957 -6.94799 -0.990771
-0.473799 -6.94367 -0.98994
-0.451678 -6.93932 -0.989112
-0.429589 -6.93492 -0.988289
-0.407532 -6.93049 -0.98747
-0.385511 -6.92601 -0.986656
-0.363524 -6.9215 -0.985845
-0.34157 -6.91694 -0.985039
-0.31965 -6.91235 -0.984238
-0.297763 -6.90771 -0.98344
-0.276373 -6.91459 -0.984291
-0.255002 -6.9231 -0.985385
-0.233585 -6.93159 -0.986484
-0.212116 -6.94005 -0.987589
-0.190598 -6.94848 -0.988699
-0.169029 -6.95688 -0.989814
-0.147412 -6.96526 -0.990935
-0.125744 -6.9736 -0.992061
-0.104025 -6.98192 -0.993193
-0.0822572 -6.99021 -0.99433
-0.0604381 -6.99846 -0.995473
-0.0386213 -7.01623 -0.997978
-0.0166995 -7.03617 -1.0008
0.00534691 -7.0561 -1.00363
0.02752 -7.07602 -1.00648
0.0498306 -7.0982 -1.00965
0.0722883 -7.12057 -1.01286
0.0948789 -7.14295 -1.01608
0.117619 -7.16534 -1.01931
0.140504 -7.18774 -1.02255
0.163528 -7.21016 -1.02581
0.187308 -7.25641 -1.03247
-1.3258 -7.25069 -1.11098
-1.28806 -7.17112 -1.09817
-1.25114 -7.09318 -1.08563
-1.21667 -7.02627 -1.0748
-1.18705 -6.98523 -1.06795
-1.16039 -6.96028 -1.06357
-1.13395 -6.93547 -1.05923
-1.10771 -6.91079 -1.05493
-1.08167 -6.88625 -1.05066
-1.05583 -6.86186 -1.04643
-1.03019 -6.83759 -1.04223
-1.00475 -6.81347 -1.03807
-0.979498 -6.78947 -1.03394
-0.954491 -6.76598 -1.02991
-0.930021 -6.74515 -1.02629
-0.906889 -6.73313 -1.02402
-0.885225 -6.73153 -1.02335
-0.86358 -6.72991 -1.02269
-0.84192 -6.72792 -1.02198
-0.820282 -6.72586 -1.02127
-0.798667 -6.72377 -1.02057
-0.777078 -6.72164 -1.01987
-0.755517 -6.71948 -1.01918
-0.733977 -6.71729 -1.01849
-0.712463 -6.71507 -1.01781
-0.690975 -6.71281 -1.01714
-0.669511 -6.71051 -1.01647
-0.648072 -6.70819 -1.0158
-0.626657 -6.70583 -1.01515
-0.605267 -6.70344 -1.01449
-0.583899 -6.70102 -1.01384
-0.562557 -6.69856 -1.0132
-0.541239 -6.69607 -1.01256
-0.519946 -6.69355 -1.01193
-0.498674 -6.69099 -1.0113
-0.477427 -6.68841 -1.01068
-0.456204 -6.68579 -1.01006
-0.435003 -6.68314 -1.00945
-0.413825 -6.68045 -1.00885
-0.39267 -6.67774 -1.00825
-0.371539 -6.67499 -1.00765
-0.35043 -6.67221 -1.00706
-0.329346 -6.66939 -1.00647
-0.308285 -6.66655 -1.00589
-0.287297 -6.6649 -1.00551
-0.266619 -6.67061 -1.00624
-0.245912 -6.6763 -1.00697
-0.225171 -6.68196 -1.00771
-0.204399 -6.68759 -1.00846
-0.183594 -6.69319 -1.00922
-0.162759 -6.69877 -1.00998
-0.141891 -6.70433 -1.01074
-0.120989 -6.70985 -1.01151
-0.100054 -6.71535 -1.01229
-0.0790888 -6.72083 -1.01307
-0.0580866 -6.72627 -1.01386
-0.0370551 -6.73169 -1.01466
-0.0159898 -6.73709 -1.01546
0.0051098 -6.74391 -1.01648
0.0262561 -6.7515 -1.01763
0.0474485 -6.75905 -1.01879
0.0686924 -6.76657 -1.01995
0.0899815 -6.77407 -1.02112
0.11132 -6.78153 -1.02229
0.132707 -6.78897 -1.02347
0.154144 -6.79638 -1.02465
0.175625 -6.80375 -1.02584
0.197697 -6.82966 -1.02984
0.220149 -6.86232 -1.03486
0.242821 -6.89527 -1.03994
0.265714 -6.92848 -1.04507
0.288834 -6.96198 -1.05025
0.312179 -6.99576 -1.05549
0.338791 -7.09334 -1.07037
0.366581 -7.20185 -1.08691
-1.549 -7.19101 -1.17134
-1.48522 -7.00134 -1.13968
-1.45349 -6.95904 -1.13205
-1.42238 -6.91829 -1.12469
-1.3919 -6.87918 -1.11761
-1.36488 -6.85599 -1.11315
-1.33806 -6.83292 -1.10872
-1.31144 -6.80998 -1.10432
-1.28502 -6.78715 -1.09996
-1.25879 -6.76445 -1.09564
-1.23276 -6.74187 -1.09135
-1.20762 -6.72328 -1.08772
-1.18302 -6.70695 -1.08448
-1.15856 -6.69068 -1.08125
-1.13423 -6.67446 -1.07805
-1.11005 -6.6583 -1.07488
-1.086 -6.64218 -1.07172
-1.06208 -6.62612 -1.06859
-1.03829 -6.61011 -1.06548
-1.01464 -6.59415 -1.06239
-0.991117 -6.57824 -1.05932
-0.967721 -6.56238 -1.05627
-0.944456 -6.54657 -1.05325
-0.921317 -6.53081 -1.05024
-0.899303 -6.52237 -1.04842
-0.878315 -6.521 -1.04776
-0.857353 -6.51959 -1.04709
-0.836407 -6.51815 -1.04644
-0.815484 -6.51666 -1.04578
-0.794582 -6.51515 -1.04514
-0.773703 -6.5136 -1.04449
-0.752842 -6.51201 -1.04386
-0.732008 -6.51039 -1.04322
-0.711188 -6.50873 -1.0426
-0.690392 -6.50704 -1.04197
-0.669618 -6.50531 -1.04136
-0.648861 -6.50355 -1.04074
-0.628127 -6.50175 -1.04014
-0.607413 -6.49991 -1.03953
-0.58672 -6.49804 -1.03894
-0.566047 -6.49614 -1.03834
-0.545394 -6.4942 -1.03775
-0.524761 -6.49223 -1.03717
-0.50415 -6.49022 -1.03659
-0.483556 -6.48817 -1.03602
-0.462986 -6.48609 -1.03545
-0.442432 -6.48398 -1.03489
-0.4219 -6.48183 -1.03433
-0.401386 -6.47965 -1.03377
-0.380913 -6.47781 -1.03328
-0.360505 -6.47674 -1.03293
-0.340108 -6.47566 -1.03258
-0.319725 -6.47457 -1.03224
-0.299364 -6.47366 -1.03194
-0.279113 -6.47506 -1.03202
-0.258936 -6.47836 -1.03241
-0.238828 -6.48395 -1.03318
-0.218685 -6.48951 -1.03395
-0.198514 -6.49505 -1.03473
-0.17831 -6.50056 -1.03552
-0.158076 -6.50605 -1.03631
-0.137809 -6.51151 -1.0371
-0.11751 -6.51695 -1.03791
-0.0971779 -6.52237 -1.03871
-0.0768153 -6.52776 -1.03953
-0.0564186 -6.53312 -1.04035
-0.0359915 -6.53846 -1.04118
-0.015531 -6.54378 -1.04201
0.00496259 -6.54906 -1.04285
0.0254893 -6.55433 -1.0437
0.0460493 -6.55957 -1.04455
0.0666439 -6.56478 -1.04541
0.0872704 -6.56997 -1.04627
0.107933 -6.57513 -1.04714
0.128627 -6.58027 -1.04802
0.149358 -6.58538 -1.0489
0.17012 -6.59047 -1.04979
0.191162 -6.6039 -1.05202
0.212568 -6.62599 -1.05564
0.234122 -6.64821 -1.05929
0.255821 -6.67053 -1.06297
0.277675 -6.69299 -1.06668
0.299742 -6.71702 -1.07066
0.322334 -6.74872 -1.07587
0.345143 -6.78068 -1.08113
0.368176 -6.8129 -1.08645
0.39142 -6.84516 -1.09178
0.414882 -6.87758 -1.09715
0.438576 -6.91026 -1.10258
0.462498 -6.94321 -1.10806
0.486659 -6.97644 -1.1136
0.512583 -7.03093 -1.12255
0.54264 -7.13502 -1.13944
0.573286 -7.23816 -1.15619
-1.4393 -6.68175 -1.14671
-1.4119 -6.65571 -1.14147
-1.38501 -6.63119 -1.13652
-1.36017 -6.61568 -1.13313
-1.33547 -6.60023 -1.12976
-1.3109 -6.58482 -1.12641
-1.28647 -6.56946 -1.12309
-1.26217 -6.55414 -1.11979
-1.23801 -6.53888 -1.11651
-1.21398 -6.52366 -1.11326
-1.19008 -6.50848 -1.11003
-1.16632 -6.49335 -1.10682
-1.14268 -6.47826 -1.10363
-1.11943 -6.46475 -1.10073
-1.09702 -6.45549 -1.09856
-1.0747 -6.44624 -1.09641
-1.05255 -6.43762 -1.09438
-1.0307 -6.43038 -1.09259
-1.00892 -6.42313 -1.09082
-0.987212 -6.41589 -1.08906
-0.965565 -6.40865 -1.08731
-0.943983 -6.40141 -1.08558
-0.922878 -6.397 -1.08433
-0.902367 -6.39649 -1.08376
-0.881876 -6.39597 -1.0832
-0.861403 -6.39542 -1.08265
-0.84095 -6.39486 -1.0821
-0.820515 -6.39429 -1.08157
-0.800117 -6.39386 -1.08106
-0.779737 -6.39342 -1.08057
-0.759373 -6.39296 -1.08008
-0.739024 -6.39248 -1.07961
-0.718692 -6.39198 -1.07914
-0.698376 -6.39146 -1.07868
-0.678073 -6.39093 -1.07822
-0.657786 -6.39037 -1.07778
-0.637514 -6.3898 -1.07734
-0.617257 -6.38922 -1.07691
-0.597013 -6.38861 -1.07649
-0.576784 -6.38798 -1.07607
-0.556568 -6.38734 -1.07566
-0.536365 -6.38668 -1.07526
-0.516176 -6.386 -1.07487
-0.496001 -6.38531 -1.07449
-0.475838 -6.38459 -1.07411
-0.455688 -6.38386 -1.07374
-0.435551 -6.38311 -1.07338
-0.415425 -6.38235 -1.07303
-0.395312 -6.38156 -1.07268
-0.375209 -6.38076 -1.07235
-0.355116 -6.37994 -1.07202
-0.335036 -6.3791 -1.07169
-0.314969 -6.37824 -1.07138
-0.294911 -6.37737 -1.07107
-0.274874 -6.3767 -1.07081
-0.254866 -6.37649 -1.07064
-0.234918 -6.37783 -1.07073
-0.215006 -6.3803 -1.07103
-0.195082 -6.38273 -1.07133
-0.175144 -6.38515 -1.07164
-0.155196 -6.38754 -1.07195
-0.135236 -6.38991 -1.07227
-0.115262 -6.39226 -1.0726
-0.0952752 -6.39458 -1.07294
-0.0752752 -6.39688 -1.07328
-0.0552618 -6.39916 -1.07363
-0.035237 -6.40141 -1.07398
-0.0151985 -6.40364 -1.07434
0.00485404 -6.40584 -1.07471
0.0249211 -6.40803 -1.07508
0.0450006 -6.41019 -1.07546
0.0650961 -6.41232 -1.07585
0.0852044 -6.41443 -1.07624
0.105329 -6.41652 -1.07664
0.125467 -6.41859 -1.07705
0.145622 -6.42063 -1.07746
0.165788 -6.42265 -1.07788
0.186079 -6.42829 -1.07892
0.2067 -6.4431 -1.08151
0.22752 -6.46074 -1.08459
0.248531 -6.48044 -1.08802
0.269713 -6.50106 -1.09162
0.291053 -6.52233 -1.09534
0.312543 -6.54371 -1.09909
0.334174 -6.56519 -1.10287
0.355956 -6.58679 -1.10668
0.377887 -6.6085 -1.11052
0.399967 -6.63033 -1.11439
0.422202 -6.65227 -1.11829
0.444587 -6.67432 -1.12223
0.467131 -6.6965 -1.1262
0.490465 -6.7275 -1.13167
0.514034 -6.75889 -1.13721
0.537833 -6.79054 -1.14281
0.561862 -6.82244 -1.14847
0.586125 -6.8546 -1.15419
-1.38891 -6.44783 -1.163
-1.36525 -6.43584 -1.16006
-1.34217 -6.42605 -1.15754
-1.31935 -6.41717 -1.15519
-1.29663 -6.40829 -1.15285
-1.27399 -6.39942 -1.15053
-1.2516 -6.3914 -1.14838
-1.22949 -6.38447 -1.14644
-1.2075 -6.37775 -1.14455
-1.18649 -6.37591 -1.14354
-1.16551 -6.37406 -1.14255
-1.14456 -6.37222 -1.14157
-1.12365 -6.37037 -1.14061
-1.10277 -6.36852 -1.13965
-1.08193 -6.36666 -1.13871
-1.06112 -6.3648 -1.13778
-1.04034 -6.36295 -1.13686
-1.0196 -6.36108 -1.13595
-0.998885 -6.35922 -1.13505
-0.978203 -6.35735 -1.13416
-0.957554 -6.35548 -1.13329
-0.937024 -6.35422 -1.13254
-0.916697 -6.35416 -1.13201
-0.896386 -6.3541 -1.13149
-0.876095 -6.35404 -1.13099
-0.855819 -6.35396 -1.13049
-0.835562 -6.35389 -1.13001
-0.81532 -6.3538 -1.12953
-0.795092 -6.35372 -1.12907
-0.774882 -6.35362 -1.12862
-0.754689 -6.35352 -1.12817
-0.734509 -6.35342 -1.12774
-0.714344 -6.35331 -1.12732
-0.694194 -6.35319 -1.12691
-0.674057 -6.35307 -1.12651
-0.653934 -6.35295 -1.12611
-0.633823 -6.35281 -1.12573
-0.613726 -6.35268 -1.12536
-0.593642 -6.35254 -1.125
-0.573569 -6.35239 -1.12465
-0.553508 -6.35223 -1.12431
-0.533459 -6.35208 -1.12398
-0.51342 -6.35191 -1.12367
-0.493394 -6.35174 -1.12336
-0.473376 -6.35157 -1.12306
-0.45337 -6.35139 -1.12277
-0.433374 -6.3512 -1.12249
-0.413385 -6.35101 -1.12222
-0.393406 -6.35082 -1.12197
-0.373434 -6.35061 -1.12172
-0.353473 -6.35041 -1.12148
-0.333521 -6.35024 -1.12126
-0.313585 -6.35023 -1.12108
-0.293656 -6.35022 -1.12091
-0.273732 -6.3502 -1.12075
-0.253812 -6.35018 -1.1206
-0.233902 -6.35024 -1.12048
-0.213997 -6.35033 -1.12037
-0.194095 -6.35041 -1.12027
-0.174194 -6.3505 -1.12018
-0.154299 -6.35057 -1.12011
-0.134406 -6.35064 -1.12004
-0.114513 -6.35071 -1.11998
-0.0946224 -6.35077 -1.11994
-0.0747332 -6.35082 -1.1199
-0.0548448 -6.35087 -1.11987
-0.0349602 -6.35091 -1.11985
-0.0150734 -6.35095 -1.11985
0.00481246 -6.35099 -1.11985
0.0246987 -6.35101 -1.11986
0.0445853 -6.35104 -1.11989
0.0644742 -6.35105 -1.11992
0.0843627 -6.35107 -1.11996
0.104254 -6.35107 -1.12002
0.124147 -6.35108 -1.12008
0.144044 -6.35107 -1.12015
0.163942 -6.35114 -1.12025
0.183852 -6.35138 -1.12039
0.203802 -6.35278 -1.12074
0.223787 -6.35475 -1.12121
0.243814 -6.35745 -1.12181
0.263974 -6.36274 -1.12289
0.284398 -6.37319 -1.12488
0.305087 -6.38762 -1.12759
0.325872 -6.40209 -1.13032
0.34676 -6.41661 -1.13307
0.367897 -6.43379 -1.1363
0.389277 -6.45311 -1.13993
0.410793 -6.47253 -1.14358
0.432445 -6.49203 -1.14726
0.454235 -6.51163 -1.15097
0.476163 -6.53133 -1.15471
0.498234 -6.55112 -1.15847
0.520445 -6.571 -1.16227
0.5428 -6.59098 -1.1661
0.5653 -6.61106 -1.16996
-1.36995 -6.35981 -1.20296
-1.34851 -6.35691 -1.20161
-1.32764 -6.35651 -1.20074
-1.30706 -6.35738 -1.20013
-1.28608 -6.35616 -1.19913
-1.26502 -6.35436 -1.19804
-1.24399 -6.35256 -1.19696
-1.223 -6.35076 -1.19589
-1.20205 -6.34896 -1.19484
-1.18114 -6.34715 -1.19379
-1.16025 -6.34534 -1.19276
-1.13941 -6.34353 -1.19175
-1.11859 -6.34171 -1.19074
-1.09781 -6.33989 -1.18975
-1.07707 -6.33807 -1.18877
-1.05636 -6.33624 -1.1878
-1.03568 -6.33441 -1.18684
-1.01503 -6.33258 -1.1859
-0.994412 -6.33075 -1.18497
-0.973827 -6.32891 -1.18405
-0.953274 -6.32707 -1.18314
-0.932994 -6.32689 -1.18255
