ply
format ascii 1.0
comment Created by Open3D
element vertex 1749
property double x
property double y
property double z
end_header
-0.42862 -4.10209 -1.7791
-0.415568 -4.10187 -1.77843
-0.402528 -4.10165 -1.77778
-0.389494 -4.10143 -1.77714
-0.37647 -4.10121 -1.77653
-0.363455 -4.10099 -1.77593
-0.350448 -4.10077 -1.77535
-0.33745 -4.10054 -1.77478
-0.32446 -4.10032 -1.77423
-0.311477 -4.10009 -1.7737
-0.298502 -4.09986 -1.77319
-0.285533 -4.09964 -1.77269
-0.272574 -4.09941 -1.77221
-0.25962 -4.09917 -1.77175
-0.246673 -4.09894 -1.77131
-0.233732 -4.09871 -1.77088
-0.220797 -4.09847 -1.77047
-0.207867 -4.09824 -1.77008
-0.194944 -4.098 -1.7697
-0.182025 -4.09776 -1.76934
-0.169112 -4.09752 -1.769
-0.156204 -4.09728 -1.76868
-0.143308 -4.09727 -1.76847
-0.130419 -4.09737 -1.76833
-0.117531 -4.09747 -1.7682
-0.104645 -4.09757 -1.7681
-0.0917612 -4.09767 -1.768
-0.0788794 -4.09776 -1.76793
-0.065996 -4.09786 -1.76787
-0.0531159 -4.09795 -1.76783
-0.0402339 -4.09804 -1.76781
-2.24213 -4.35985 -2.16327
-2.21027 -4.33131 -2.14566
-2.17893 -4.30325 -2.12835
-2.14601 -4.2715 -2.1093
-2.11326 -4.23947 -2.0902
-2.0811 -4.20803 -2.07146
-2.05124 -4.18068 -2.05481
-2.03158 -4.17373 -2.04825
-2.01204 -4.16682 -2.04175
-1.99263 -4.15997 -2.03531
-1.97335 -4.15316 -2.02893
-1.95418 -4.14639 -2.02261
-1.9361 -4.14173 -2.01736
-1.91817 -4.13722 -2.01222
-1.90033 -4.13274 -2.00712
-1.88258 -4.12828 -2.00207
-1.86492 -4.12383 -1.99707
-1.84736 -4.11943 -1.99211
-1.82989 -4.11507 -1.98721
-1.8125 -4.11072 -1.98235
-1.7952 -4.10639 -1.97753
-1.77798 -4.10208 -1.97276
-1.76084 -4.09779 -1.96802
-1.79521 -4.21424 -2.02123
-1.80703 -4.27926 -2.04968
-1.80896 -4.32167 -2.06726
-1.80362 -4.34722 -2.07676
-1.68268 -4.09203 -1.95231
-1.66767 -4.09203 -1.9498
-1.65269 -4.09203 -1.94732
-1.63775 -4.09203 -1.94486
-1.62285 -4.09203 -1.94242
-1.60798 -4.09203 -1.94001
-1.59315 -4.09203 -1.93763
-1.57836 -4.09203 -1.93527
-1.5636 -4.09203 -1.93294
-1.54888 -4.09203 -1.93063
-1.53419 -4.09203 -1.92835
-1.51954 -4.09203 -1.92609
-1.50492 -4.09203 -1.92385
-1.49034 -4.09203 -1.92164
-1.47579 -4.09203 -1.91945
-1.46127 -4.09204 -1.91729
-1.44678 -4.09204 -1.91515
-1.43233 -4.09204 -1.91303
-1.41791 -4.09204 -1.91094
-1.40352 -4.09204 -1.90887
-1.38916 -4.09204 -1.90682
-1.37483 -4.09204 -1.9048
-1.36053 -4.09204 -1.9028
-1.34627 -4.09204 -1.90083
-1.33203 -4.09204 -1.89887
-1.31782 -4.09204 -1.89694
-1.30363 -4.09204 -1.89503
-1.28948 -4.09204 -1.89315
-1.27536 -4.09204 -1.89128
-1.26126 -4.09204 -1.88944
-1.24719 -4.09204 -1.88762
-1.23315 -4.09205 -1.88582
-1.21913 -4.09205 -1.88405
-1.20514 -4.09205 -1.8823
-1.19118 -4.09205 -1.88057
-1.17724 -4.09205 -1.87886
-1.16333 -4.09205 -1.87717
-1.1506 -4.09621 -1.87741
-1.14144 -4.11318 -1.88353
-1.13313 -4.13363 -1.89126
-1.1057 -4.08385 -1.86688
-1.09228 -4.08514 -1.86589
-1.07887 -4.08642 -1.86492
-1.06547 -4.08771 -1.86397
-1.05185 -4.08805 -1.86261
-1.03823 -4.0883 -1.86123
-1.02462 -4.08855 -1.85987
-1.01104 -4.08879 -1.85852
-0.99747 -4.08904 -1.8572
-0.983921 -4.08928 -1.85589
-0.970388 -4.08951 -1.85461
-0.956877 -4.08975 -1.85334
-0.943382 -4.08998 -1.85209
-0.929903 -4.09021 -1.85086
-0.916443 -4.09043 -1.84965
-0.903 -4.09066 -1.84846
-0.889575 -4.09088 -1.84729
-0.876164 -4.09109 -1.84613
-0.86277 -4.09131 -1.845
-0.84939 -4.09152 -1.84388
-0.836029 -4.09173 -1.84278
-0.822681 -4.09194 -1.8417
-0.809349 -4.09215 -1.84064
-0.796031 -4.09235 -1.8396
-0.782729 -4.09255 -1.83857
-0.76944 -4.09275 -1.83756
-0.756164 -4.09294 -1.83658
-0.742904 -4.09313 -1.83561
-0.729656 -4.09332 -1.83465
-0.716422 -4.09351 -1.83372
-0.7032 -4.09369 -1.8328
-0.689992 -4.09388 -1.8319
-0.676796 -4.09406 -1.83102
-0.663611 -4.09423 -1.83016
-0.650438 -4.09441 -1.82932
-0.637278 -4.09458 -1.82849
-0.624129 -4.09475 -1.82768
-0.610991 -4.09492 -1.82689
-0.597864 -4.09508 -1.82611
-0.584747 -4.09525 -1.82536
-0.571641 -4.09541 -1.82462
-0.558545 -4.09556 -1.8239
-0.545459 -4.09572 -1.8232
-0.532384 -4.09587 -1.82251
-0.519315 -4.09602 -1.82184
-0.506257 -4.09617 -1.82119
-0.493208 -4.09631 -1.82056
-0.480168 -4.09646 -1.81994
-0.467137 -4.0966 -1.81934
-0.454113 -4.09674 -1.81876
-0.441098 -4.09687 -1.8182
-0.428089 -4.09701 -1.81765
-0.415089 -4.09714 -1.81712
-0.402096 -4.09727 -1.81661
-0.389111 -4.09739 -1.81611
-0.376131 -4.09752 -1.81563
-0.363158 -4.09764 -1.81517
-0.350191 -4.09776 -1.81473
-0.337202 -4.09755 -1.81416
-0.324223 -4.09732 -1.8136
-0.311249 -4.0971 -1.81306
-0.298285 -4.09687 -1.81253
-0.285326 -4.09664 -1.81203
-0.272375 -4.09641 -1.81154
-0.25943 -4.09618 -1.81107
-0.246493 -4.09595 -1.81061
-0.233561 -4.09572 -1.81018
-0.220636 -4.09549 -1.80976
-0.207716 -4.09525 -1.80936
-0.194802 -4.09501 -1.80897
-0.181893 -4.09478 -1.80861
-0.168989 -4.09454 -1.80826
-0.156091 -4.0943 -1.80793
-0.1432 -4.0942 -1.80767
-0.130321 -4.0943 -1.80753
-0.117443 -4.0944 -1.8074
-0.104567 -4.09449 -1.80729
-0.0916919 -4.09459 -1.80719
-0.0788191 -4.09469 -1.80712
-0.0659464 -4.09478 -1.80706
-0.0530755 -4.09487 -1.80702
-0.0402037 -4.09496 -1.80699
-2.18647 -4.31814 -2.18395
-2.15293 -4.28528 -2.1639
-2.12001 -4.25302 -2.14424
-2.08769 -4.22136 -2.12496
-2.05594 -4.19026 -2.10604
-2.03556 -4.1819 -2.09861
-2.01597 -4.17496 -2.09193
-1.99651 -4.16806 -2.08533
-1.97717 -4.16121 -2.07878
-1.95796 -4.15441 -2.07229
-1.93886 -4.14765 -2.06587
-1.91989 -4.14094 -2.05952
-1.90104 -4.13427 -2.05322
-1.88229 -4.12765 -2.04698
-1.86367 -4.12107 -2.0408
-1.84516 -4.11453 -2.03468
-1.82748 -4.10965 -2.02942
-1.81011 -4.1053 -2.02445
-1.7979 -4.11256 -2.02524
-1.80711 -4.16929 -2.05036
-1.80898 -4.20983 -2.06749
-1.81089 -4.25105 -2.08493
-1.81283 -4.29299 -2.1027
-1.71283 -4.09202 -2.00162
-1.69774 -4.09203 -1.999
-1.68268 -4.09203 -1.9964
-1.66767 -4.09203 -1.99384
-1.65269 -4.09203 -1.9913
-1.63775 -4.09203 -1.98878
-1.62284 -4.09203 -1.98629
-1.60798 -4.09203 -1.98383
-1.59315 -4.09203 -1.98139
-1.57836 -4.09203 -1.97898
-1.5636 -4.09203 -1.9766
-1.54888 -4.09203 -1.97424
-1.53419 -4.09203 -1.9719
-1.51954 -4.09203 -1.96959
-1.50492 -4.09203 -1.9673
-1.49034 -4.09203 -1.96504
-1.47579 -4.09203 -1.9628
-1.46127 -4.09204 -1.96059
-1.44678 -4.09204 -1.9584
-1.43233 -4.09204 -1.95624
-1.41791 -4.09204 -1.9541
-1.40352 -4.09204 -1.95198
-1.38916 -4.09204 -1.94989
-1.37483 -4.09204 -1.94782
-1.36053 -4.09204 -1.94578
-1.34627 -4.09204 -1.94376
-1.33203 -4.09204 -1.94176
-1.31782 -4.09204 -1.93979
-1.30364 -4.09204 -1.93783
-1.28948 -4.09204 -1.9359
-1.27536 -4.09204 -1.934
-1.26126 -4.09204 -1.93212
-1.24719 -4.09204 -1.93026
-1.23315 -4.09205 -1.92842
-1.21913 -4.09205 -1.9266
-1.20514 -4.09205 -1.92481
-1.19118 -4.09205 -1.92304
-1.17724 -4.09205 -1.92129
-1.16333 -4.09205 -1.91957
-1.14944 -4.09205 -1.91786
-1.13557 -4.09205 -1.91618
-1.12173 -4.09205 -1.91452
-1.11292 -4.11051 -1.92151
-1.10595 -4.1363 -1.93193
-1.09891 -4.16234 -1.94247
-1.0643 -4.08321 -1.90397
-1.05062 -4.08327 -1.90245
-1.03696 -4.08332 -1.90095
-1.02333 -4.08338 -1.89947
-1.00971 -4.08344 -1.89801
-0.996157 -4.08366 -1.89665
-0.982626 -4.0839 -1.89532
-0.969115 -4.08414 -1.894
-0.955621 -4.08438 -1.89271
-0.942144 -4.08461 -1.89144
-0.928685 -4.08484 -1.89019
-0.915244 -4.08507 -1.88895
-0.901817 -4.0853 -1.88774
-0.888411 -4.08552 -1.88654
-0.875018 -4.08575 -1.88536
-0.861642 -4.08596 -1.8842
-0.848282 -4.08618 -1.88306
-0.834937 -4.08639 -1.88194
-0.821608 -4.0866 -1.88084
-0.808293 -4.08681 -1.87976
-0.794994 -4.08702 -1.8787
-0.781709 -4.08722 -1.87765
-0.768438 -4.08742 -1.87662
-0.75518 -4.08762 -1.87561
-0.741938 -4.08781 -1.87463
-0.728709 -4.088 -1.87365
-0.715492 -4.08819 -1.8727
-0.702288 -4.08838 -1.87177
-0.689097 -4.08857 -1.87085
-0.675916 -4.08875 -1.86995
-0.662751 -4.08893 -1.86907
-0.649595 -4.0891 -1.86821
-0.636453 -4.08928 -1.86737
-0.623322 -4.08945 -1.86654
-0.610201 -4.08962 -1.86573
-0.59709 -4.08979 -1.86495
-0.583991 -4.08995 -1.86417
-0.570902 -4.09011 -1.86342
-0.557822 -4.09027 -1.86269
-0.544754 -4.09043 -1.86197
-0.531695 -4.09058 -1.86127
-0.518645 -4.09074 -1.86059
-0.505605 -4.09089 -1.85992
-0.492573 -4.09103 -1.85928
-0.47955 -4.09118 -1.85865
-0.466535 -4.09132 -1.85804
-0.453528 -4.09146 -1.85744
-0.440529 -4.0916 -1.85687
-0.427538 -4.09173 -1.85631
-0.414555 -4.09186 -1.85577
-0.40158 -4.09199 -1.85525
-0.38861 -4.09212 -1.85474
-0.375646 -4.09225 -1.85425
-0.36269 -4.09237 -1.85378
-0.349742 -4.09249 -1.85333
-0.336796 -4.09261 -1.8529
-0.323859 -4.09272 -1.85248
-0.310926 -4.09284 -1.85208
-0.297998 -4.09295 -1.8517
-0.285075 -4.09305 -1.85133
-0.272159 -4.09316 -1.85098
-0.25924 -4.09317 -1.85061
-0.246312 -4.09294 -1.85015
-0.233389 -4.09271 -1.8497
-0.220474 -4.09248 -1.84927
-0.207563 -4.09225 -1.84887
-0.194659 -4.09201 -1.84847
-0.181758 -4.09177 -1.8481
-0.168864 -4.09154 -1.84774
-0.155976 -4.0913 -1.8474
-0.143091 -4.0911 -1.8471
-0.130223 -4.0912 -1.84696
-0.117353 -4.0913 -1.84682
-0.104488 -4.0914 -1.84671
-0.0916226 -4.0915 -1.84662
-0.0787596 -4.09159 -1.84654
-0.0658973 -4.09169 -1.84648
-0.0530354 -4.09178 -1.84644
-0.0401738 -4.09191 -1.84643
-2.12687 -4.26677 -2.19904
-2.09438 -4.23488 -2.1792
-2.06247 -4.20356 -2.15974
-2.03958 -4.19016 -2.14955
-2.01994 -4.18318 -2.1427
-2.00043 -4.17624 -2.13592
-1.98104 -4.16936 -2.1292
-1.96178 -4.16251 -2.12254
-1.94264 -4.15572 -2.11595
-1.92362 -4.14897 -2.10943
-1.90471 -4.14226 -2.10297
-1.88576 -4.13523 -2.09638
-1.8669 -4.12821 -2.08983
-1.84817 -4.12123 -2.08335
-1.82955 -4.1143 -2.07693
-1.81104 -4.10742 -2.07057
-1.81093 -4.14237 -2.08531
-1.81282 -4.18247 -2.10262
-1.81475 -4.22325 -2.12024
-1.81671 -4.26472 -2.13818
-1.72797 -4.09202 -2.04887
-1.71283 -4.09202 -2.04616
-1.69774 -4.09203 -2.04348
-1.68268 -4.09203 -2.04083
-1.66767 -4.09203 -2.03821
-1.65269 -4.09203 -2.03561
-1.63775 -4.09203 -2.03304
-1.62285 -4.09203 -2.0305
-1.60798 -4.09203 -2.02798
-1.59315 -4.09203 -2.02549
-1.57836 -4.09203 -2.02302
-1.5636 -4.09203 -2.02058
-1.54888 -4.09203 -2.01817
-1.53419 -4.09203 -2.01578
-1.51954 -4.09203 -2.01342
-1.50492 -4.09203 -2.01108
-1.49034 -4.09203 -2.00877
-1.47579 -4.09203 -2.00648
-1.46127 -4.09204 -2.00422
-1.44678 -4.09204 -2.00199
-1.43233 -4.09204 -1.99977
-1.41791 -4.09204 -1.99759
-1.40352 -4.09204 -1.99542
-1.38916 -4.09204 -1.99328
-1.37483 -4.09204 -1.99117
-1.36053 -4.09204 -1.98908
-1.34627 -4.09204 -1.98701
-1.33203 -4.09204 -1.98497
-1.31782 -4.09204 -1.98295
-1.30364 -4.09204 -1.98096
-1.28948 -4.09204 -1.97899
-1.27536 -4.09204 -1.97704
-1.26126 -4.09204 -1.97511
-1.24719 -4.09204 -1.97321
-1.23315 -4.09205 -1.97133
-1.21913 -4.09205 -1.96948
-1.20514 -4.09205 -1.96764
-1.19118 -4.09205 -1.96584
-1.17724 -4.09205 -1.96405
-1.16333 -4.09205 -1.96228
-1.14944 -4.09205 -1.96054
-1.13557 -4.09205 -1.95882
-1.12173 -4.09205 -1.95713
-1.10792 -4.09205 -1.95545
-1.09412 -4.09205 -1.9538
-1.08583 -4.11278 -1.96205
-1.07871 -4.1385 -1.9727
-1.07152 -4.16448 -1.98347
-1.03695 -4.08324 -1.94321
-1.02331 -4.0833 -1.9417
-1.00969 -4.08336 -1.94021
-0.996097 -4.08341 -1.93874
-0.982523 -4.08347 -1.93729
-0.968967 -4.08352 -1.93586
-0.955434 -4.08358 -1.93445
-0.941919 -4.08363 -1.93307
-0.928422 -4.08369 -1.9317
-0.914947 -4.08375 -1.93036
-0.901486 -4.0838 -1.92904
-0.888047 -4.08386 -1.92773
-0.874625 -4.08391 -1.92645
-0.861221 -4.08397 -1.92519
-0.847833 -4.08402 -1.92395
-0.834464 -4.08408 -1.92273
-0.82111 -4.08413 -1.92153
-0.807775 -4.08418 -1.92036
-0.794455 -4.08424 -1.9192
-0.78115 -4.08429 -1.91806
-0.767861 -4.08435 -1.91694
-0.754588 -4.0844 -1.91585
-0.741328 -4.08446 -1.91477
-0.728086 -4.08451 -1.91371
-0.714856 -4.08456 -1.91268
-0.701641 -4.08462 -1.91166
-0.68844 -4.08467 -1.91066
-0.675252 -4.08472 -1.90968
-0.662078 -4.08478 -1.90873
-0.648916 -4.08483 -1.90779
-0.635769 -4.08488 -1.90687
-0.622633 -4.08494 -1.90597
-0.60951 -4.08499 -1.9051
-0.596398 -4.08504 -1.90424
-0.583298 -4.0851 -1.9034
-0.570209 -4.08515 -1.90258
-0.557132 -4.0852 -1.90178
-0.544065 -4.08526 -1.901
-0.53101 -4.08531 -1.90023
-0.517973 -4.08543 -1.89952
-0.50495 -4.08558 -1.89885
-0.491933 -4.08573 -1.89819
-0.478927 -4.08587 -1.89754
-0.465931 -4.08602 -1.89692
-0.452941 -4.08616 -1.89632
-0.439958 -4.0863 -1.89573
-0.426986 -4.08643 -1.89516
-0.414018 -4.08657 -1.89461
-0.40106 -4.0867 -1.89408
-0.388108 -4.08683 -1.89356
-0.375162 -4.08695 -1.89307
-0.362222 -4.08708 -1.89259
-0.34929 -4.0872 -1.89213
-0.336362 -4.08732 -1.89168
-0.323441 -4.08743 -1.89126
-0.310524 -4.08755 -1.89085
-0.297615 -4.08766 -1.89046
-0.284708 -4.08777 -1.89008
-0.271807 -4.08787 -1.88973
-0.258912 -4.08798 -1.88939
-0.24602 -4.08808 -1.88907
-0.233133 -4.08818 -1.88877
-0.220247 -4.08828 -1.88849
-0.207368 -4.08837 -1.88822
-0.19449 -4.08846 -1.88797
-0.181616 -4.08855 -1.88774
-0.16874 -4.08851 -1.88747
-0.155861 -4.08828 -1.88712
-0.142985 -4.08804 -1.88679
-0.130124 -4.08809 -1.88662
-0.117265 -4.08819 -1.88649
-0.104411 -4.08837 -1.88641
-0.091558 -4.08859 -1.88637
-0.0787059 -4.08881 -1.88635
-0.0658549 -4.08902 -1.88634
-0.0530024 -4.08923 -1.88635
-0.0401495 -4.08945 -1.88638
-2.04352 -4.19827 -2.20095
-2.02364 -4.19083 -2.19371
-2.00388 -4.18345 -2.18654
-1.98425 -4.17611 -2.17943
-1.96476 -4.16883 -2.1724
-1.94538 -4.16159 -2.16543
-1.92614 -4.1544 -2.15853
-1.90701 -4.14726 -2.15169
-1.88801 -4.14017 -2.14492
-1.86913 -4.13313 -2.13822
-1.85036 -4.12613 -2.13158
-1.83171 -4.11917 -2.125
-1.81475 -4.11583 -2.12032
-1.81667 -4.1555 -2.13781
-1.81861 -4.19584 -2.15561
-1.8206 -4.23686 -2.17373
-1.82262 -4.27859 -2.19219
-1.72797 -4.09202 -2.09381
-1.71284 -4.09202 -2.09105
-1.69774 -4.09203 -2.08831
-1.68268 -4.09203 -2.0856
-1.66767 -4.09203 -2.08292
-1.65269 -4.09203 -2.08027
-1.63775 -4.09203 -2.07764
-1.62284 -4.09203 -2.07504
-1.60798 -4.09203 -2.07247
-1.59315 -4.09203 -2.06992
-1.57836 -4.09203 -2.0674
-1.5636 -4.09203 -2.06491
-1.54888 -4.09203 -2.06244
-1.53419 -4.09203 -2.06
-1.51954 -4.09203 -2.05759
-1.50492 -4.09203 -2.0552
-1.49034 -4.09203 -2.05284
-1.47579 -4.09203 -2.0505
-1.46127 -4.09204 -2.04819
-1.44678 -4.09204 -2.0459
-1.43233 -4.09204 -2.04364
-1.41791 -4.09204 -2.04141
-1.40352 -4.09204 -2.0392
-1.38916 -4.09204 -2.03701
-1.37483 -4.09204 -2.03485
-1.36053 -4.09204 -2.03271
-1.34627 -4.09204 -2.0306
-1.33203 -4.09204 -2.02851
-1.31782 -4.09204 -2.02645
-1.30364 -4.09204 -2.02441
-1.28948 -4.09204 -2.0224
-1.27536 -4.09204 -2.02041
-1.26126 -4.09204 -2.01844
-1.24719 -4.09204 -2.0165
-1.23315 -4.09205 -2.01458
-1.21913 -4.09205 -2.01268
-1.20514 -4.09205 -2.01081
-1.19118 -4.09205 -2.00896
-1.17724 -4.09205 -2.00713
-1.16333 -4.09205 -2.00533
-1.14944 -4.09205 -2.00355
-1.13557 -4.09205 -2.00179
-1.12173 -4.09205 -2.00006
-1.10792 -4.09205 -1.99835
-1.09412 -4.09205 -1.99666
-1.08035 -4.09205 -1.99499
-1.06661 -4.09205 -1.99335
-1.05868 -4.11457 -2.00268
-1.05489 -4.1539 -2.02021
-1.02329 -4.08322 -1.98425
-1.00967 -4.08328 -1.98273
-0.996076 -4.08333 -1.98123
-0.982504 -4.08339 -1.97975
-0.968949 -4.08344 -1.97829
-0.955415 -4.0835 -1.97685
-0.9419 -4.08355 -1.97543
-0.928403 -4.08361 -1.97404
-0.914929 -4.08367 -1.97267
-0.901469 -4.08372 -1.97131
-0.88803 -4.08378 -1.96998
-0.874609 -4.08383 -1.96867
-0.861204 -4.08389 -1.96739
-0.847816 -4.08394 -1.96612
-0.834448 -4.084 -1.96487
-0.821094 -4.08405 -1.96365
-0.807758 -4.08411 -1.96244
-0.794438 -4.08416 -1.96126
-0.781135 -4.08421 -1.9601
-0.767846 -4.08427 -1.95896
-0.754573 -4.08432 -1.95784
-0.741314 -4.08438 -1.95673
-0.72807 -4.08443 -1.95565
-0.714842 -4.08448 -1.95459
-0.701628 -4.08454 -1.95356
-0.688426 -4.08459 -1.95254
-0.675239 -4.08465 -1.95154
-0.662064 -4.0847 -1.95056
-0.648905 -4.08475 -1.9496
-0.635755 -4.08481 -1.94866
-0.622621 -4.08486 -1.94775
-0.609498 -4.08491 -1.94685
-0.596387 -4.08497 -1.94597
-0.583287 -4.08502 -1.94511
-0.570198 -4.08507 -1.94428
-0.557121 -4.08512 -1.94346
-0.544054 -4.08518 -1.94266
-0.531 -4.08523 -1.94188
-0.517954 -4.08528 -1.94112
-0.504918 -4.08533 -1.94038
-0.491892 -4.08539 -1.93966
-0.478877 -4.08544 -1.93897
-0.46587 -4.08549 -1.93829
-0.452873 -4.08554 -1.93763
-0.439883 -4.0856 -1.93699
-0.426904 -4.08565 -1.93636
-0.41393 -4.0857 -1.93576
-0.400967 -4.08575 -1.93518
-0.38801 -4.0858 -1.93462
-0.37506 -4.08586 -1.93407
-0.362118 -4.08591 -1.93355
-0.349183 -4.08596 -1.93305
-0.336254 -4.08601 -1.93256
-0.323333 -4.08606 -1.9321
-0.310415 -4.08611 -1.93165
-0.297506 -4.08617 -1.93122
-0.2846 -4.08622 -1.93081
-0.2717 -4.08627 -1.93042
-0.258806 -4.08632 -1.93006
-0.245918 -4.08641 -1.92972
-0.233036 -4.0865 -1.92941
-0.220157 -4.08659 -1.92912
-0.207281 -4.08668 -1.92884
-0.194411 -4.08677 -1.92859
-0.181541 -4.08687 -1.92835
-0.168676 -4.08696 -1.92814
-0.155814 -4.08705 -1.92794
-0.142953 -4.08714 -1.92776
-0.1301 -4.08735 -1.92766
-0.117248 -4.08761 -1.9276
-0.104397 -4.08787 -1.92755
-0.0915476 -4.08813 -1.92753
-0.0786989 -4.08839 -1.92753
-0.0658483 -4.08864 -1.92754
-0.0529988 -4.0889 -1.92757
-0.0401478 -4.08914 -1.92762
-1.94775 -4.16666 -2.21497
-1.92847 -4.15945 -2.2079
-1.90932 -4.15228 -2.2009
-1.89028 -4.14516 -2.19397
-1.87137 -4.13809 -2.1871
-1.85258 -4.13107 -2.1803
-1.8339 -4.12409 -2.17357
-1.82052 -4.12891 -2.17308
-1.82249 -4.16882 -2.19106
-1.82449 -4.2094 -2.20936
-1.82653 -4.25067 -2.228
-1.74314 -4.09202 -2.14196
-1.72797 -4.09202 -2.13911
-1.71283 -4.09202 -2.13628
-1.69774 -4.09203 -2.13349
-1.68268 -4.09203 -2.13072
-1.66767 -4.09203 -2.12798
-1.65269 -4.09203 -2.12527
-1.63775 -4.09203 -2.12259
-1.62284 -4.09203 -2.11993
-1.60798 -4.09203 -2.1173
-1.59315 -4.09203 -2.1147
-1.57836 -4.09203 -2.11213
-1.5636 -4.09203 -2.10958
-1.54888 -4.09203 -2.10706
-1.53419 -4.09203 -2.10457
-1.51954 -4.09203 -2.1021
-1.50492 -4.09203 -2.09966
-1.49034 -4.09203 -2.09725
-1.47579 -4.09204 -2.09486
-1.46127 -4.09204 -2.0925
-1.44678 -4.09204 -2.09016
-1.43233 -4.09204 -2.08785
-1.41791 -4.09204 -2.08557
-1.40352 -4.09204 -2.08331
-1.38916 -4.09204 -2.08108
-1.37483 -4.09204 -2.07887
-1.36053 -4.09204 -2.07669
-1.34627 -4.09204 -2.07453
-1.33203 -4.09204 -2.0724
-1.31782 -4.09204 -2.07029
-1.30364 -4.09204 -2.06821
-1.28948 -4.09204 -2.06615
-1.27536 -4.09204 -2.06412
-1.26126 -4.09204 -2.06211
-1.24719 -4.09204 -2.06012
-1.23315 -4.09205 -2.05816
-1.21913 -4.09205 -2.05622
-1.20514 -4.09205 -2.05431
-1.19118 -4.09205 -2.05242
-1.17724 -4.09205 -2.05055
-1.16333 -4.09205 -2.04871
-1.14944 -4.09205 -2.04689
-1.13557 -4.09205 -2.0451
-1.12173 -4.09205 -2.04333
-1.10792 -4.09205 -2.04158
-1.09412 -4.09205 -2.03985
-1.08035 -4.09205 -2.03815
-1.06661 -4.09205 -2.03647
-1.05288 -4.09205 -2.03481
-1.04863 -4.12926 -2.05167
-1.04496 -4.1697 -2.07012
-1.04122 -4.21088 -2.08892
-0.996057 -4.08325 -2.02405
-0.982484 -4.08331 -2.02254
-0.968929 -4.08336 -2.02105
-0.955396 -4.08342 -2.01958
-0.941881 -4.08347 -2.01813
-0.928386 -4.08353 -2.01671
-0.914911 -4.08359 -2.0153
-0.90145 -4.08364 -2.01392
-0.888012 -4.0837 -2.01256
-0.874591 -4.08375 -2.01123
-0.861187 -4.08381 -2.00991
-0.8478 -4.08386 -2.00862
-0.834432 -4.08392 -2.00734
-0.821078 -4.08397 -2.00609
-0.807742 -4.08403 -2.00486
-0.794422 -4.08408 -2.00365
-0.781119 -4.08413 -2.00246
-0.767831 -4.08419 -2.0013
-0.754556 -4.08424 -2.00015
-0.7413 -4.0843 -1.99903
-0.728056 -4.08435 -1.99792
-0.714828 -4.0844 -1.99684
-0.701613 -4.08446 -1.99578
-0.688412 -4.08451 -1.99474
-0.675226 -4.08457 -1.99372
-0.662052 -4.08462 -1.99272
-0.648891 -4.08467 -1.99174
-0.635743 -4.08473 -1.99078
-0.622608 -4.08478 -1.98985
-0.609487 -4.08483 -1.98893
-0.596375 -4.08489 -1.98803
-0.583275 -4.08494 -1.98716
-0.570187 -4.08499 -1.9863
-0.557109 -4.08504 -1.98546
-0.544043 -4.0851 -1.98465
-0.530989 -4.08515 -1.98385
-0.517943 -4.0852 -1.98308
-0.504908 -4.08526 -1.98232
-0.491883 -4.08531 -1.98159
-0.478867 -4.08536 -1.98088
-0.465862 -4.08543 -1.98019
-0.452869 -4.08552 -1.97953
-0.439883 -4.0856 -1.97889
-0.426907 -4.08569 -1.97828
-0.413938 -4.08578 -1.97768
-0.400977 -4.08587 -1.9771
-0.388024 -4.08595 -1.97654
-0.375077 -4.08604 -1.97601
-0.362137 -4.08613 -1.97549
-0.349205 -4.08622 -1.97499
-0.336278 -4.08631 -1.97451
-0.323358 -4.08639 -1.97406
-0.310443 -4.08648 -1.97362
-0.297534 -4.08657 -1.9732
-0.284631 -4.08666 -1.9728
-0.271732 -4.08675 -1.97242
-0.258839 -4.08684 -1.97206
-0.24595 -4.08693 -1.97172
-0.233065 -4.08702 -1.9714
-0.220185 -4.08711 -1.9711
-0.207308 -4.0872 -1.97082
-0.194435 -4.08729 -1.97056
-0.181564 -4.08739 -1.97032
-0.168697 -4.08748 -1.9701
-0.155833 -4.08757 -1.9699
-0.142972 -4.08766 -1.96972
-0.130116 -4.08787 -1.96961
-0.117263 -4.08812 -1.96955
-0.104411 -4.08838 -1.9695
-0.0915586 -4.08864 -1.96948
-0.0787077 -4.0889 -1.96947
-0.0658559 -4.08916 -1.96949
-0.0530048 -4.08942 -1.96952
-0.0401518 -4.08968 -1.96958
-1.85482 -4.13607 -2.22954
-1.83611 -4.12907 -2.22264
-1.82637 -4.14218 -2.2266
-1.72797 -4.09202 -2.18477
-1.71284 -4.09203 -2.18189
-1.69774 -4.09203 -2.17903
-1.68268 -4.09203 -2.1762
-1.66767 -4.09203 -2.17341
-1.65269 -4.09203 -2.17064
-1.63775 -4.09203 -2.1679
-1.62284 -4.09203 -2.16518
-1.60798 -4.09203 -2.1625
-1.59315 -4.09203 -2.15984
-1.57836 -4.09203 -2.15721
-1.5636 -4.09203 -2.15461
-1.54888 -4.09203 -2.15204
-1.53419 -4.09203 -2.14949
-1.51954 -4.09203 -2.14697
-1.50492 -4.09203 -2.14448
-1.49034 -4.09203 -2.14202
-1.47579 -4.09204 -2.13958
-1.46127 -4.09204 -2.13717
-1.44678 -4.09204 -2.13478
-1.43233 -4.09204 -2.13242
-1.41791 -4.09204 -2.13009
-1.40352 -4.09204 -2.12778
-1.38916 -4.09204 -2.1255
-1.37483 -4.09204 -2.12325
-1.36053 -4.09204 -2.12102
-1.34627 -4.09204 -2.11881
-1.33203 -4.09204 -2.11664
-1.31782 -4.09204 -2.11449
-1.30364 -4.09204 -2.11236
-1.28948 -4.09204 -2.11026
-1.27536 -4.09204 -2.10818
-1.26126 -4.09204 -2.10612
-1.24719 -4.09204 -2.1041
-1.23315 -4.09205 -2.10209
-1.21913 -4.09205 -2.10012
-1.20514 -4.09205 -2.09816
-1.19118 -4.09205 -2.09623
-1.17724 -4.09205 -2.09433
-1.16333 -4.09205 -2.09245
-1.14944 -4.09205 -2.09059
-1.13557 -4.09205 -2.08876
-1.12173 -4.09205 -2.08694
-1.10792 -4.09205 -2.08516
-1.09413 -4.09205 -2.0834
-1.08035 -4.09205 -2.08166
-1.06661 -4.09205 -2.07994
-1.05288 -4.09205 -2.07825
-1.0424 -4.10471 -2.083
-1.03869 -4.14469 -2.10163
-1.03492 -4.18539 -2.1206
-1.03108 -4.22681 -2.13994
-0.982464 -4.08323 -2.06567
-0.96891 -4.08328 -2.06415
-0.955377 -4.08334 -2.06265
-0.941861 -4.08339 -2.06117
-0.928368 -4.08345 -2.05971
-0.914892 -4.0835 -2.05828
-0.901433 -4.08356 -2.05687
-0.887995 -4.08362 -2.05548
-0.874573 -4.08367 -2.05412
-0.86117 -4.08373 -2.05277
-0.847783 -4.08378 -2.05145
-0.834414 -4.08384 -2.05015
-0.821062 -4.08389 -2.04887
-0.807727 -4.08395 -2.04762
-0.794407 -4.084 -2.04638
-0.781104 -4.08405 -2.04517
-0.767816 -4.08411 -2.04398
-0.754542 -4.08416 -2.04281
-0.741285 -4.08422 -2.04166
-0.728043 -4.08427 -2.04053
-0.714816 -4.08434 -2.03944
-0.701608 -4.08443 -2.03837
-0.688412 -4.08451 -2.03732
-0.67523 -4.08459 -2.03629
-0.662061 -4.08468 -2.03529
-0.648905 -4.08476 -2.0343
-0.635763 -4.08485 -2.03334
-0.622632 -4.08493 -2.0324
-0.609513 -4.08501 -2.03147
-0.596404 -4.0851 -2.03057
-0.58331 -4.08518 -2.0297
-0.570225 -4.08527 -2.02884
-0.557152 -4.08535 -2.028
-0.54409 -4.08544 -2.02718
-0.531038 -4.08553 -2.02639
-0.517996 -4.08561 -2.02561
-0.504963 -4.0857 -2.02486
-0.49194 -4.08578 -2.02412
-0.478927 -4.08587 -2.02341
-0.465923 -4.08596 -2.02272
-0.452927 -4.08604 -2.02205
-0.439941 -4.08613 -2.0214
-0.426962 -4.08622 -2.02076
-0.413991 -4.0863 -2.02016
-0.401029 -4.08639 -2.01956
-0.388075 -4.08648 -2.019
-0.375126 -4.08657 -2.01845
-0.362183 -4.08666 -2.01792
-0.34925 -4.08674 -2.01741
-0.336321 -4.08683 -2.01692
-0.3234 -4.08692 -2.01645
-0.310483 -4.08701 -2.01601
-0.297573 -4.0871 -2.01558
-0.284667 -4.08719 -2.01517
-0.271767 -4.08728 -2.01478
-0.258872 -4.08737 -2.01442
-0.245982 -4.08746 -2.01407
-0.233095 -4.08755 -2.01374
-0.220213 -4.08764 -2.01344
-0.207334 -4.08773 -2.01315
-0.19446 -4.08782 -2.01289
-0.181587 -4.08791 -2.01264
-0.168719 -4.088 -2.01241
-0.155854 -4.08809 -2.01221
-0.14299 -4.08818 -2.01202
-0.130133 -4.08838 -2.01191
-0.117278 -4.08864 -2.01184
-0.104424 -4.0889 -2.0118
-0.0915707 -4.08916 -2.01177
-0.078717 -4.08942 -2.01177
-0.0658649 -4.08967 -2.01179
-0.0530115 -4.08993 -2.01182
-0.0401568 -4.09019 -2.01188
-1.72797 -4.09202 -2.23081
-1.71283 -4.09203 -2.22786
-1.69774 -4.09203 -2.22495
-1.68268 -4.09203 -2.22206
-1.66767 -4.09203 -2.2192
-1.65269 -4.09203 -2.21638
-1.63775 -4.09203 -2.21358
-1.62284 -4.09203 -2.21081
-1.60798 -4.09203 -2.20807
-1.59315 -4.09203 -2.20535
-1.57836 -4.09203 -2.20267
-1.5636 -4.09203 -2.20001
-1.54888 -4.09203 -2.19739
-1.53419 -4.09203 -2.19479
-1.51954 -4.09203 -2.19221
-1.50492 -4.09203 -2.18967
-1.49034 -4.09203 -2.18715
-1.47579 -4.09204 -2.18466
-1.46127 -4.09204 -2.1822
-1.44678 -4.09204 -2.17977
-1.43233 -4.09204 -2.17736
-1.41791 -4.09204 -2.17497
-1.40352 -4.09204 -2.17262
-1.38916 -4.09204 -2.17029
-1.37483 -4.09204 -2.16799
-1.36053 -4.09204 -2.16571
-1.34627 -4.09204 -2.16346
-1.33203 -4.09204 -2.16124
-1.31782 -4.09204 -2.15904
-1.30364 -4.09204 -2.15687
-1.28948 -4.09204 -2.15472
-1.27536 -4.09204 -2.1526
-1.26126 -4.09204 -2.15051
-1.24719 -4.09204 -2.14843
-1.23315 -4.09205 -2.14639
-1.21913 -4.09205 -2.14437
-1.20514 -4.09205 -2.14237
-1.19118 -4.09205 -2.1404
-1.17724 -4.09205 -2.13846
-1.16333 -4.09205 -2.13654
-1.14944 -4.09205 -2.13464
-1.13557 -4.09205 -2.13277
-1.12173 -4.09205 -2.13092
-1.10792 -4.09205 -2.1291
-1.09412 -4.09205 -2.1273
-1.08035 -4.09205 -2.12552
-1.06661 -4.09205 -2.12377
-1.05288 -4.09205 -2.12204
-1.03918 -4.09205 -2.12034
-1.03245 -4.11978 -2.13301
-1.03681 -4.19304 -2.16925
-1.04643 -4.28974 -2.21756
-1.04599 -4.34725 -2.24558
-0.968904 -4.08325 -2.10763
-0.955424 -4.08354 -2.10622
-0.94196 -4.08382 -2.10482
-0.928453 -4.08383 -2.10331
-0.914967 -4.08384 -2.10183
-0.901497 -4.08385 -2.10036
-0.888049 -4.08386 -2.09892
-0.874621 -4.08389 -2.09752
-0.861222 -4.08398 -2.09616
-0.847841 -4.08406 -2.09482
-0.834477 -4.08414 -2.09351
-0.821128 -4.08422 -2.09222
-0.807797 -4.0843 -2.09095
-0.794482 -4.08438 -2.0897
-0.781183 -4.08447 -2.08848
-0.767899 -4.08455 -2.08727
-0.75463 -4.08463 -2.08609
-0.741375 -4.08471 -2.08493
-0.728136 -4.0848 -2.0838
-0.714911 -4.08488 -2.08268
-0.7017 -4.08496 -2.08159
-0.688503 -4.08504 -2.08052
-0.675319 -4.08513 -2.07947
-0.662148 -4.08521 -2.07845
-0.64899 -4.0853 -2.07744
-0.635846 -4.08538 -2.07646
-0.622713 -4.08546 -2.07549
-0.609593 -4.08555 -2.07455
-0.596484 -4.08563 -2.07363
-0.583387 -4.08572 -2.07274
-0.5703 -4.0858 -2.07186
-0.557225 -4.08589 -2.071
-0.54416 -4.08597 -2.07017
-0.531107 -4.08606 -2.06936
-0.518064 -4.08614 -2.06857
-0.505029 -4.08623 -2.06779
-0.492004 -4.08631 -2.06705
-0.478989 -4.0864 -2.06632
-0.465984 -4.08649 -2.06561
-0.452988 -4.08657 -2.06492
-0.439998 -4.08666 -2.06426
-0.427018 -4.08675 -2.06362
-0.414044 -4.08683 -2.06299
-0.401081 -4.08692 -2.06239
-0.388125 -4.08701 -2.06181
-0.375175 -4.0871 -2.06125
-0.362231 -4.08719 -2.06071
-0.349295 -4.08727 -2.06019
-0.336365 -4.08736 -2.05969
-0.323442 -4.08745 -2.05921
-0.310524 -4.08754 -2.05875
-0.297611 -4.08763 -2.05832
-0.284704 -4.08772 -2.0579
-0.271803 -4.08781 -2.05751
-0.258905 -4.0879 -2.05713
-0.246012 -4.08799 -2.05678
-0.233126 -4.08808 -2.05644
-0.220242 -4.08817 -2.05613
-0.207361 -4.08826 -2.05584
-0.194484 -4.08835 -2.05557
-0.18161 -4.08844 -2.05532
-0.168741 -4.08853 -2.05508
-0.155874 -4.08862 -2.05487
-0.143008 -4.08871 -2.05468
-0.13015 -4.0889 -2.05456
-0.117293 -4.08916 -2.0545
-0.104436 -4.08942 -2.05445
-0.0915819 -4.08968 -2.05443
-0.078727 -4.08994 -2.05442
-0.0658726 -4.0902 -2.05444
-0.0530183 -4.09046 -2.05448
-0.040162 -4.09071 -2.05453
-1.71283 -4.09203 -2.27423
-1.69774 -4.09203 -2.27125
-1.68268 -4.09203 -2.2683
-1.66767 -4.09203 -2.26539
-1.65269 -4.09203 -2.2625
-1.63775 -4.09203 -2.25964
-1.62284 -4.09203 -2.25682
-1.60798 -4.09203 -2.25402
-1.59315 -4.09203 -2.25125
-1.57836 -4.09203 -2.24851
-1.5636 -4.09203 -2.2458
-1.54888 -4.09203 -2.24311
-1.53419 -4.09203 -2.24046
-1.51954 -4.09203 -2.23783
-1.50492 -4.09203 -2.23524
-1.49034 -4.09203 -2.23267
-1.47579 -4.09204 -2.23013
-1.46127 -4.09204 -2.22761
-1.44678 -4.09204 -2.22513
-1.43233 -4.09204 -2.22267
-1.41791 -4.09204 -2.22024
-1.40352 -4.09204 -2.21783
-1.38916 -4.09204 -2.21546
-1.37483 -4.09204 -2.21311
-1.36053 -4.09204 -2.21078
-1.34627 -4.09204 -2.20849
-1.33203 -4.09204 -2.20622
-1.31782 -4.09204 -2.20397
-1.30364 -4.09204 -2.20175
-1.28948 -4.09204 -2.19956
-1.27536 -4.09204 -2.1974
-1.26126 -4.09204 -2.19526
-1.24719 -4.09205 -2.19314
-1.23315 -4.09205 -2.19106
-1.21913 -4.09205 -2.18899
-1.20514 -4.09205 -2.18696
-1.19118 -4.09205 -2.18495
-1.17724 -4.09205 -2.18296
-1.16333 -4.09205 -2.181
-1.14944 -4.09205 -2.17906
-1.13557 -4.09205 -2.17715
-1.12173 -4.09205 -2.17527
-1.10792 -4.09205 -2.1734
-1.09413 -4.09205 -2.17157
-1.08035 -4.09205 -2.16975
-1.06661 -4.09205 -2.16797
-1.05288 -4.09205 -2.1662
-1.03918 -4.09205 -2.16446
-1.04276 -4.16091 -2.19914
-1.05243 -4.25619 -2.24774
-0.968872 -4.08312 -2.15142
-0.955394 -4.08341 -2.14998
-0.941934 -4.08371 -2.14856
-0.928492 -4.084 -2.14717
-0.915067 -4.08429 -2.1458
-0.901659 -4.08458 -2.14446
-0.888268 -4.08487 -2.14313
-0.874894 -4.08517 -2.14183
-0.861536 -4.08546 -2.14055
-0.848191 -4.08575 -2.1393
-0.834864 -4.08604 -2.13807
-0.821553 -4.08632 -2.13686
-0.808256 -4.08661 -2.13567
-0.79497 -4.0869 -2.1345
-0.781669 -4.08701 -2.13326
-0.768365 -4.08703 -2.13201
-0.755078 -4.08706 -2.13077
-0.741806 -4.08709 -2.12956
-0.728549 -4.08711 -2.12837
-0.715308 -4.08714 -2.1272
-0.702081 -4.08718 -2.12606
-0.688867 -4.08721 -2.12494
-0.675668 -4.08724 -2.12385
-0.662483 -4.08728 -2.12277
-0.649312 -4.08732 -2.12172
-0.636153 -4.08736 -2.12069
-0.623008 -4.0874 -2.11969
-0.609875 -4.08744 -2.1187
-0.596754 -4.08748 -2.11774
-0.583644 -4.08753 -2.11681
-0.570547 -4.08757 -2.11589
-0.557461 -4.08762 -2.115
-0.544386 -4.08767 -2.11413
-0.531323 -4.08772 -2.11328
-0.518269 -4.08777 -2.11245
-0.505225 -4.08782 -2.11165
-0.492191 -4.08787 -2.11087
-0.479168 -4.08793 -2.11011
-0.466154 -4.08799 -2.10937
-0.453151 -4.08805 -2.10865
-0.440153 -4.0881 -2.10796
-0.427167 -4.08817 -2.10729
-0.414187 -4.08823 -2.10664
-0.401216 -4.08829 -2.10601
-0.388253 -4.08836 -2.10541
-0.375295 -4.08842 -2.10482
-0.362347 -4.08849 -2.10426
-0.349406 -4.08856 -2.10372
-0.336469 -4.08863 -2.1032
-0.323541 -4.0887 -2.10271
-0.310617 -4.08878 -2.10223
-0.2977 -4.08885 -2.10178
-0.284789 -4.08893 -2.10135
-0.271882 -4.08901 -2.10094
-0.258981 -4.08909 -2.10055
-0.246085 -4.08917 -2.10019
-0.233192 -4.08925 -2.09984
-0.220304 -4.08933 -2.09952
-0.20742 -4.08942 -2.09922
-0.19454 -4.0895 -2.09894
-0.181662 -4.08959 -2.09868
-0.168788 -4.08968 -2.09844
-0.155918 -4.08977 -2.09823
-0.143048 -4.08986 -2.09803
-0.130182 -4.08993 -2.09785
-0.117317 -4.09 -2.09768
-0.104455 -4.09006 -2.09754
-0.0915975 -4.09032 -2.09751
-0.0787414 -4.09058 -2.09751
-0.0658847 -4.09085 -2.09753
-0.053027 -4.09111 -2.09757
-0.040169 -4.09137 -2.09762
-1.68268 -4.09203 -2.31494
-1.66767 -4.09203 -2.31196
-1.65269 -4.09203 -2.30902
-1.63775 -4.09203 -2.3061
-1.62284 -4.09203 -2.30322
-1.60798 -4.09203 -2.30036
-1.59315 -4.09203 -2.29753
-1.57836 -4.09203 -2.29474
-1.5636 -4.09203 -2.29197
-1.54888 -4.09203 -2.28923
-1.53419 -4.09203 -2.28653
-1.51954 -4.09203 -2.28385
-1.50492 -4.09203 -2.28119
-1.49034 -4.09203 -2.27857
-1.47579 -4.09204 -2.27598
-1.46127 -4.09204 -2.27341
-1.44678 -4.09204 -2.27088
-1.43233 -4.09204 -2.26837
-1.41791 -4.09204 -2.26588
-1.40352 -4.09204 -2.26343
-1.38916 -4.09204 -2.26101
-1.37483 -4.09204 -2.25861
-1.36053 -4.09204 -2.25624
-1.34627 -4.09204 -2.25389
-1.33203 -4.09204 -2.25158
-1.31782 -4.09204 -2.24929
-1.30364 -4.09204 -2.24702
-1.28948 -4.09204 -2.24479
-1.27536 -4.09204 -2.24258
-1.26126 -4.09204 -2.24039
-1.24719 -4.09205 -2.23824
-1.23315 -4.09205 -2.23611
-1.21913 -4.09205 -2.234
-1.20514 -4.09205 -2.23192
-1.19118 -4.09205 -2.22987
-1.17724 -4.09205 -2.22784
-1.16333 -4.09205 -2.22584
-1.14944 -4.09205 -2.22387
-1.13557 -4.09205 -2.22192
-1.12173 -4.09205 -2.21999
-1.10792 -4.09205 -2.21809
-1.09412 -4.09205 -2.21622
-1.08035 -4.09205 -2.21437
-1.06661 -4.09205 -2.21254
-1.05288 -4.09205 -2.21074
-1.04876 -4.12978 -2.22933
-0.96884 -4.08299 -2.19558
-0.955365 -4.08329 -2.19412
-0.941907 -4.08358 -2.19267
-0.928463 -4.08387 -2.19125
-0.915039 -4.08416 -2.18985
-0.901631 -4.08446 -2.18848
-0.88824 -4.08475 -2.18713
-0.874864 -4.08504 -2.1858
-0.861509 -4.08533 -2.1845
-0.848163 -4.08562 -2.18322
-0.834839 -4.08591 -2.18196
-0.821525 -4.0862 -2.18072
-0.80823 -4.08649 -2.17951
-0.794948 -4.08677 -2.17832
-0.78168 -4.08706 -2.17715
-0.768424 -4.08735 -2.17601
-0.755185 -4.08764 -2.17489
-0.741958 -4.08792 -2.17379
-0.728744 -4.08821 -2.17271
-0.715544 -4.0885 -2.17166
-0.702359 -4.08878 -2.17063
-0.689179 -4.08907 -2.16962
-0.676017 -4.08935 -2.16863
-0.662865 -4.08964 -2.16767
-0.649726 -4.08992 -2.16672
-0.636598 -4.09021 -2.1658
-0.623464 -4.09039 -2.16485
-0.610321 -4.09043 -2.16385
-0.59719 -4.09047 -2.16287
-0.584071 -4.09052 -2.16191
-0.570964 -4.09056 -2.16097
-0.557869 -4.09061 -2.16006
-0.544784 -4.09065 -2.15917
-0.531711 -4.0907 -2.1583
-0.518647 -4.09075 -2.15746
-0.505594 -4.0908 -2.15664
-0.492551 -4.09086 -2.15584
-0.479518 -4.09091 -2.15506
-0.466495 -4.09097 -2.15431
-0.45348 -4.09102 -2.15358
-0.440475 -4.09108 -2.15287
-0.427477 -4.09114 -2.15218
-0.414488 -4.0912 -2.15152
-0.401507 -4.09127 -2.15088
-0.388535 -4.09133 -2.15026
-0.375569 -4.0914 -2.14966
-0.36261 -4.09147 -2.14909
-0.34966 -4.09153 -2.14854
-0.336714 -4.0916 -2.14801
-0.323776 -4.09168 -2.1475
-0.310843 -4.09175 -2.14702
-0.297917 -4.09182 -2.14655
-0.284996 -4.0919 -2.14611
-0.27208 -4.09198 -2.14569
-0.259169 -4.09205 -2.1453
-0.246263 -4.09213 -2.14492
-0.233361 -4.09222 -2.14457
-0.220464 -4.0923 -2.14424
-0.20757 -4.09238 -2.14393
-0.194681 -4.09247 -2.14364
-0.181793 -4.09256 -2.14338
-0.168911 -4.09265 -2.14314
-0.15603 -4.09274 -2.14292
-0.143152 -4.09283 -2.14272
-0.130276 -4.09289 -2.14253
-0.117401 -4.09296 -2.14236
-0.104529 -4.09302 -2.14221
-0.0916581 -4.09308 -2.14208
-0.0787895 -4.09315 -2.14198
-0.065922 -4.09322 -2.14189
-0.053055 -4.09328 -2.14183
-0.0401879 -4.09336 -2.14179
-1.65269 -4.09203 -2.35594
-1.63775 -4.09203 -2.35297
-1.62284 -4.09203 -2.35002
-1.60798 -4.09203 -2.34711
-1.59315 -4.09203 -2.34423
-1.57836 -4.09203 -2.34137
-1.5636 -4.09203 -2.33855
-1.54888 -4.09203 -2.33576
-1.53419 -4.09203 -2.33299
-1.51954 -4.09203 -2.33026
-1.50492 -4.09203 -2.32755
-1.49034 -4.09203 -2.32488
-1.47579 -4.09204 -2.32223
-1.46127 -4.09204 -2.31961
-1.44678 -4.09204 -2.31703
-1.43233 -4.09204 -2.31446
-1.41791 -4.09204 -2.31193
-1.40352 -4.09204 -2.30943
-1.38916 -4.09204 -2.30695
-1.37483 -4.09204 -2.30451
-1.36053 -4.09204 -2.30209
-1.34627 -4.09204 -2.2997
-1.33203 -4.09204 -2.29733
-1.31782 -4.09204 -2.295
-1.30364 -4.09204 -2.29269
-1.28948 -4.09204 -2.2904
-1.27536 -4.09204 -2.28815
-1.26126 -4.09204 -2.28592
-1.24719 -4.09205 -2.28372
-1.23315 -4.09205 -2.28155
-1.21913 -4.09205 -2.2794
-1.20514 -4.09205 -2.27728
-1.19118 -4.09205 -2.27518
-1.17724 -4.09205 -2.27312
-1.16333 -4.09205 -2.27108
-1.14944 -4.09205 -2.26906
-1.13557 -4.09205 -2.26707
-1.12173 -4.09205 -2.26511
-1.10792 -4.09205 -2.26317
-1.09412 -4.09205 -2.26125
-1.08035 -4.09205 -2.25937
-1.06661 -4.09205 -2.2575
-1.05483 -4.09961 -2.25983
-0.968811 -4.08286 -2.24013
-0.955335 -4.08316 -2.23863
-0.941875 -4.08345 -2.23716
-0.928434 -4.08374 -2.23571
-0.915013 -4.08403 -2.23428
-0.901603 -4.08433 -2.23288
-0.888214 -4.08462 -2.23151
-0.874839 -4.08491 -2.23015
-0.861479 -4.0852 -2.22882
-0.848138 -4.08549 -2.22751
-0.834812 -4.08578 -2.22623
-0.8215 -4.08607 -2.22497
-0.808204 -4.08636 -2.22373
-0.794924 -4.08665 -2.22252
-0.781655 -4.08693 -2.22133
-0.7684 -4.08722 -2.22016
-0.755163 -4.08751 -2.21902
-0.741935 -4.0878 -2.2179
-0.728722 -4.08808 -2.2168
-0.715523 -4.08837 -2.21572
-0.702338 -4.08865 -2.21467
-0.68916 -4.08894 -2.21364
-0.675996 -4.08923 -2.21263
-0.662845 -4.08951 -2.21165
-0.649705 -4.0898 -2.21069
-0.636578 -4.09008 -2.20975
-0.623463 -4.09036 -2.20883
-0.610354 -4.09065 -2.20794
-0.597256 -4.09093 -2.20707
-0.584172 -4.09121 -2.20622
-0.571097 -4.0915 -2.20539
-0.55803 -4.09178 -2.20459
-0.544971 -4.09206 -2.20381
-0.531924 -4.09234 -2.20305
-0.518885 -4.09263 -2.20231
-0.505854 -4.09291 -2.2016
-0.492833 -4.09319 -2.2009
-0.47982 -4.09347 -2.20023
-0.466814 -4.09375 -2.19958
-0.453815 -4.09403 -2.19896
-0.440798 -4.09409 -2.19824
-0.427791 -4.09415 -2.19753
-0.414792 -4.09421 -2.19686
-0.401803 -4.09427 -2.1962
-0.388821 -4.09434 -2.19557
-0.375845 -4.0944 -2.19496
-0.362877 -4.09447 -2.19437
-0.349916 -4.09454 -2.19381
-0.33696 -4.09461 -2.19327
-0.324013 -4.09468 -2.19275
-0.311071 -4.09475 -2.19225
-0.298136 -4.09482 -2.19178
-0.285204 -4.0949 -2.19133
-0.27228 -4.09497 -2.1909
-0.259359 -4.09505 -2.1905
-0.246444 -4.09513 -2.19011
-0.233532 -4.09521 -2.18975
-0.220626 -4.0953 -2.18942
-0.207723 -4.09538 -2.1891
-0.194823 -4.09547 -2.18881
-0.181926 -4.09555 -2.18854
-0.169034 -4.09564 -2.18829
-0.156145 -4.09573 -2.18807
-0.143258 -4.09582 -2.18786
-0.130372 -4.09588 -2.18767
-0.117486 -4.09594 -2.18749
-0.104605 -4.09601 -2.18734
-0.091725 -4.09607 -2.18721
-0.0788481 -4.09614 -2.1871
-0.0659694 -4.0962 -2.18702
-0.0530937 -4.09627 -2.18695
-0.0402172 -4.09634 -2.18691
-1.62285 -4.09203 -2.39725
-1.60798 -4.09203 -2.39427
-1.59315 -4.09203 -2.39133
-1.57836 -4.09203 -2.38842
-1.5636 -4.09203 -2.38554
-1.54888 -4.09203 -2.38269
-1.53419 -4.09203 -2.37987
-1.51954 -4.09203 -2.37708
-1.50492 -4.09203 -2.37432
-1.49034 -4.09203 -2.3716
-1.47579 -4.09204 -2.3689
-1.46127 -4.09204 -2.36623
-1.44678 -4.09204 -2.36359
-1.43233 -4.09204 -2.36097
-1.41791 -4.09204 -2.35839
-1.40352 -4.09204 -2.35584
-1.38916 -4.09204 -2.35331
-1.37483 -4.09204 -2.35082
-1.36053 -4.09204 -2.34835
-1.34627 -4.09204 -2.34591
-1.33203 -4.09204 -2.3435
-1.31782 -4.09204 -2.34111
-1.30364 -4.09204 -2.33876
-1.28948 -4.09204 -2.33643
-1.27536 -4.09204 -2.33413
-1.26126 -4.09204 -2.33186
-1.24719 -4.09205 -2.32961
-1.23315 -4.09205 -2.32739
-1.21913 -4.09205 -2.3252
-1.20514 -4.09205 -2.32304
-1.19118 -4.09205 -2.3209
-1.17724 -4.09205 -2.31879
-1.16333 -4.09205 -2.31671
-1.14944 -4.09205 -2.31466
-1.13557 -4.09205 -2.31263
-1.12173 -4.09205 -2.31062
-1.10792 -4.09205 -2.30864
-1.09412 -4.09205 -2.30669
-1.08035 -4.09205 -2.30477
-0.675975 -4.0891 -2.25702
-0.662824 -4.08938 -2.25602
-0.649685 -4.08967 -2.25504
-0.636556 -4.08995 -2.25408
-0.623441 -4.09023 -2.25315
-0.610336 -4.09052 -2.25224
-0.597239 -4.0908 -2.25135
-0.584152 -4.09108 -2.25048
-0.571078 -4.09137 -2.24964
-0.558012 -4.09165 -2.24882
-0.544956 -4.09193 -2.24802
-0.531908 -4.09222 -2.24725
-0.51887 -4.0925 -2.2465
-0.50584 -4.09278 -2.24577
-0.492816 -4.09306 -2.24506
-0.479803 -4.09334 -2.24438
-0.466796 -4.09362 -2.24371
-0.453799 -4.0939 -2.24308
-0.440808 -4.09418 -2.24246
-0.427824 -4.09446 -2.24186
-0.414846 -4.09474 -2.24129
-0.401877 -4.09502 -2.24074
-0.388913 -4.0953 -2.24022
-0.375953 -4.09558 -2.23971
-0.362998 -4.09586 -2.23923
-0.350054 -4.09614 -2.23877
-0.337111 -4.09642 -2.23833
-0.324174 -4.0967 -2.23792
-0.31124 -4.09698 -2.23752
-0.298312 -4.09726 -2.23715
-0.285386 -4.09753 -2.2368
-0.272466 -4.09781 -2.23648
-0.259551 -4.09808 -2.23617
-0.246625 -4.09816 -2.23578
-0.233705 -4.09824 -2.23541
-0.220789 -4.09833 -2.23506
-0.207876 -4.09841 -2.23474
-0.194968 -4.09849 -2.23444
-0.182061 -4.09858 -2.23417
-0.169159 -4.09867 -2.23392
-0.156261 -4.09876 -2.23369
-0.143363 -4.09884 -2.23348
-0.130468 -4.0989 -2.23327
-0.117574 -4.09896 -2.23309
-0.104683 -4.09903 -2.23294
-0.0917921 -4.09909 -2.2328
-0.0789044 -4.09916 -2.23269
-0.0660187 -4.09922 -2.23261
-0.0531333 -4.09929 -2.23254
-0.0402476 -4.09936 -2.2325
-1.5636 -4.09203 -2.43296
-1.54888 -4.09203 -2.43006
-1.53419 -4.09203 -2.42718
-1.51954 -4.09203 -2.42434
-1.50492 -4.09203 -2.42152
-1.49034 -4.09203 -2.41874
-1.47579 -4.09204 -2.41599
-1.46127 -4.09204 -2.41326
-1.44678 -4.09204 -2.41057
-1.43233 -4.09204 -2.40791
-1.41791 -4.09204 -2.40527
-1.40352 -4.09204 -2.40267
-1.38916 -4.09204 -2.40009
-1.37483 -4.09204 -2.39755
-1.36053 -4.09204 -2.39503
-1.34627 -4.09204 -2.39254
-1.33203 -4.09204 -2.39008
-1.31782 -4.09204 -2.38765
-1.30364 -4.09204 -2.38525
-1.28948 -4.09204 -2.38287
-1.27536 -4.09204 -2.38053
-1.26126 -4.09204 -2.37821
-1.24719 -4.09205 -2.37592
-1.23315 -4.09205 -2.37366
-1.21913 -4.09205 -2.37143
-1.20514 -4.09205 -2.36922
-1.19118 -4.09205 -2.36704
-1.17724 -4.09205 -2.36489
-1.16333 -4.09205 -2.36276
-1.14944 -4.09205 -2.36067
-1.13557 -4.09205 -2.3586
-1.12173 -4.09205 -2.35655
-1.50492 -4.09203 -2.46916
-1.49034 -4.09203 -2.46632
-1.47579 -4.09204 -2.46351
-1.46127 -4.09204 -2.46073
-1.44678 -4.09204 -2.45799
-1.43233 -4.09204 -2.45527
-1.41791 -4.09204 -2.45259
-1.40352 -4.09204 -2.44993
-1.38916 -4.09204 -2.4473
-1.37483 -4.09204 -2.44471
-1.36053 -4.09204 -2.44214
-1.34627 -4.09204 -2.43961
-1.33203 -4.09204 -2.4371
-1.31782 -4.09204 -2.43462
-1.30364 -4.09204 -2.43217
-1.28948 -4.09204 -2.42975
-1.27536 -4.09204 -2.42736
-1.26126 -4.09204 -2.42499
-1.24719 -4.09205 -2.42266
-1.23315 -4.09205 -2.42035
-1.21913 -4.09205 -2.41807
-1.20514 -4.09205 -2.41583
-1.19118 -4.09205 -2.4136
-1.17724 -4.09205 -2.41141
-1.16333 -4.09205 -2.40924
-1.38916 -4.09204 -2.49497
-1.37483 -4.09204 -2.49232
-1.36053 -4.09204 -2.4897
-1.34627 -4.09204 -2.48712
-1.33203 -4.09204 -2.48456
-1.31782 -4.09204 -2.48203
-1.30364 -4.09204 -2.47953
-1.28948 -4.09204 -2.47707
-1.27536 -4.09204 -2.47463
-1.26126 -4.09204 -2.47222
-1.05537 -5.48136 -1.08022
-1.02095 -5.39405 -1.06238
-0.987813 -5.31047 -1.0453
-0.957969 -5.24182 -1.03119
-0.935667 -5.21257 -1.02485
-0.913852 -5.1849 -1.01884
-0.896438 -5.18152 -1.01761
-0.879342 -5.1798 -1.01672
-0.862263 -5.178 -1.01583
-0.845205 -5.17612 -1.01494
-0.828163 -5.17418 -1.01404
-0.81114 -5.17216 -1.01314
-0.794134 -5.17007 -1.01224
-0.777147 -5.16791 -1.01133
-0.760181 -5.16568 -1.01042
-0.743231 -5.16338 -1.00951
-0.726303 -5.16101 -1.00859
-0.709398 -5.15857 -1.00767
-0.692511 -5.15606 -1.00675
-0.675642 -5.15348 -1.00582
-0.658798 -5.15082 -1.0049
-0.641975 -5.1481 -1.00397
-0.625174 -5.14531 -1.00303
-0.608395 -5.14245 -1.0021
-0.591639 -5.13952 -1.00116
-0.574905 -5.13653 -1.00022
-0.558196 -5.13346 -0.999273
-0.541432 -5.1296 -0.998183
-0.524694 -5.12563 -0.997084
-0.507983 -5.12158 -0.995981
-0.491301 -5.11747 -0.994876
-0.474648 -5.11329 -0.993767
-0.458026 -5.10904 -0.992655
-0.441434 -5.10471 -0.99154
-0.424872 -5.10032 -0.990422
-0.408344 -5.09586 -0.989301
-0.391844 -5.09133 -0.988178
-0.375375 -5.08674 -0.987051
-0.35894 -5.08207 -0.985922
-0.342536 -5.07734 -0.98479
-0.326164 -5.07254 -0.983655
-0.309826 -5.06768 -0.982517
-0.293671 -5.06534 -0.98188
-0.278207 -5.07524 -0.983624
-0.262684 -5.08511 -0.985371
-0.247103 -5.09494 -0.987121
-0.231463 -5.10473 -0.988872
-0.215764 -5.11449 -0.990626
-0.200006 -5.12421 -0.992382
-0.184191 -5.1339 -0.99414
-0.168314 -5.14354 -0.995901
-0.15238 -5.15315 -0.997663
-0.136394 -5.16284 -0.999451
-0.120361 -5.17318 -1.00137
-0.104266 -5.18349 -1.0033
-0.0881058 -5.19375 -1.00523
-0.0718829 -5.20398 -1.00716
-0.0556 -5.21417 -1.00909
-0.0392459 -5.22432 -1.01103
-0.0228345 -5.23443 -1.01297
-0.00635871 -5.24451 -1.01491
0.0101803 -5.25454 -1.01685
0.026789 -5.26487 -1.01886
0.0435285 -5.28409 -1.0226
0.0603968 -5.30328 -1.02635
0.0773801 -5.32245 -1.0301
0.0945838 -5.3469 -1.03488
0.111986 -5.37354 -1.0401
0.129562 -5.40023 -1.04534
0.14731 -5.42699 -1.05061
0.165229 -5.45377 -1.05589
0.183763 -5.49372 -1.06373
-1.35096 -5.50597 -1.14607
-1.31147 -5.41872 -1.12704
-1.27324 -5.33417 -1.10862
-1.23871 -5.26288 -1.09299
-1.21425 -5.23283 -1.08595
-1.19008 -5.20305 -1.07898
-1.1662 -5.17355 -1.0721
-1.14259 -5.14431 -1.06529
-1.11969 -5.1173 -1.05896
-1.09727 -5.0916 -1.05292
-1.07509 -5.06609 -1.04694
-1.05313 -5.04078 -1.04102
-1.03141 -5.01566 -1.03515
-1.01079 -4.99509 -1.03025
-0.991812 -4.98199 -1.02689
-0.972948 -4.96892 -1.02356
-0.954198 -4.9559 -1.02026
-0.93556 -4.94291 -1.01697
-0.917033 -4.92996 -1.01371
-0.899932 -4.92426 -1.01195
-0.883796 -4.9236 -1.01123
-0.867675 -4.9229 -1.01053
-0.851567 -4.92216 -1.00982
-0.835475 -4.92139 -1.00911
-0.819399 -4.92058 -1.00841
-0.803338 -4.91972 -1.00772
-0.787293 -4.91883 -1.00702
-0.771265 -4.9179 -1.00633
-0.755252 -4.91694 -1.00564
-0.739254 -4.91593 -1.00495
-0.723274 -4.91489 -1.00427
-0.707305 -4.91381 -1.00359
-0.691357 -4.91269 -1.00291
-0.675426 -4.91153 -1.00223
-0.659481 -4.91015 -1.00152
-0.643556 -4.90873 -1.00081
-0.627649 -4.90728 -1.00011
-0.611758 -4.90579 -0.999408
-0.595886 -4.90427 -0.998711
-0.580031 -4.90271 -0.998016
-0.564193 -4.90111 -0.997324
-0.548372 -4.89948 -0.996636
-0.532572 -4.89781 -0.995951
-0.516787 -4.89611 -0.995269
-0.501022 -4.89438 -0.99459
-0.485271 -4.8926 -0.993914
-0.469539 -4.8908 -0.993242
-0.453823 -4.88896 -0.992572
-0.438127 -4.88708 -0.991906
-0.422449 -4.88517 -0.991243
-0.406786 -4.88322 -0.990583
-0.391145 -4.88124 -0.989927
-0.37552 -4.87922 -0.989273
-0.359911 -4.87717 -0.988623
-0.34432 -4.87509 -0.987976
-0.328748 -4.87297 -0.987332
-0.313194 -4.87082 -0.98669
-0.297655 -4.86863 -0.986052
-0.282436 -4.87157 -0.986462
-0.267316 -4.87656 -0.987297
-0.252167 -4.88152 -0.988137
-0.236992 -4.88646 -0.988979
-0.221788 -4.89136 -0.989826
-0.206556 -4.89624 -0.990677
-0.191298 -4.90109 -0.991531
-0.176011 -4.90591 -0.992389
-0.160695 -4.9107 -0.993251
-0.145352 -4.91546 -0.994116
-0.129982 -4.92019 -0.994986
-0.114583 -4.9249 -0.995859
-0.0991573 -4.92957 -0.996736
-0.0837023 -4.93422 -0.997617
-0.0682199 -4.93883 -0.998502
-0.0527089 -4.94342 -0.99939
-0.0371705 -4.94797 -1.00028
-0.0216033 -4.9525 -1.00118
-0.0060088 -4.957 -1.00208
0.00961318 -4.96146 -1.00298
0.0252653 -4.9659 -1.00389
0.0409439 -4.97031 -1.0048
0.0566527 -4.97468 -1.00572
0.0723874 -4.97903 -1.00664
0.0881519 -4.98334 -1.00756
0.103944 -4.98763 -1.00849
0.119765 -4.99188 -1.00942
0.135615 -4.99611 -1.01036
0.1515 -5.00055 -1.01135
0.167524 -5.00823 -1.013
0.183625 -5.01655 -1.0148
0.201056 -5.05692 -1.02309
0.218843 -5.09958 -1.03185
0.236929 -5.14288 -1.04076
0.25533 -5.18686 -1.04982
0.27405 -5.23144 -1.05901
0.293003 -5.27515 -1.06804
0.315582 -5.3758 -1.08861
-1.34329 -5.05955 -1.10361
-1.31932 -5.03312 -1.09693
-1.29622 -5.0093 -1.09084
-1.27508 -4.99239 -1.08628
-1.25521 -4.97994 -1.0827
-1.23545 -4.96752 -1.07915
-1.21581 -4.95513 -1.07562
-1.19628 -4.94278 -1.07212
-1.17687 -4.93045 -1.06864
-1.15757 -4.91816 -1.06518
-1.13839 -4.90589 -1.06174
-1.11932 -4.89366 -1.05832
-1.10036 -4.88146 -1.05493
-1.08151 -4.86929 -1.05156
-1.06277 -4.85715 -1.04821
-1.04414 -4.84504 -1.04488
-1.02561 -4.83296 -1.04157
-1.0072 -4.8209 -1.03829
-0.988886 -4.80888 -1.03502
-0.970682 -4.79689 -1.03178
-0.95258 -4.78493 -1.02855
-0.934584 -4.77299 -1.02535
-0.916689 -4.76108 -1.02217
-0.900738 -4.75893 -1.02109
-0.885137 -4.75848 -1.02039
-0.86955 -4.758 -1.01969
-0.853976 -4.75747 -1.019
-0.838418 -4.75691 -1.01831
-0.822871 -4.75631 -1.01762
-0.80734 -4.75568 -1.01693
-0.791837 -4.75508 -1.01627
-0.776371 -4.75458 -1.01563
-0.760919 -4.75406 -1.01501
-0.745482 -4.75351 -1.01438
-0.730059 -4.75293 -1.01376
-0.71465 -4.75232 -1.01315
-0.699255 -4.75168 -1.01254
-0.683872 -4.75101 -1.01193
-0.668506 -4.75031 -1.01133
-0.653154 -4.74958 -1.01073
-0.637814 -4.74883 -1.01014
-0.622489 -4.74804 -1.00955
-0.607178 -4.74723 -1.00896
-0.591881 -4.74639 -1.00838
-0.576597 -4.74552 -1.00781
-0.561327 -4.74462 -1.00723
-0.546072 -4.74369 -1.00667
-0.530828 -4.74273 -1.0061
-0.515602 -4.74175 -1.00555
-0.500386 -4.74073 -1.00499
-0.485185 -4.73969 -1.00444
-0.469999 -4.73862 -1.0039
-0.454823 -4.73752 -1.00335
-0.439661 -4.73639 -1.00282
-0.424515 -4.73524 -1.00228
-0.409381 -4.73405 -1.00176
-0.39426 -4.73284 -1.00123
-0.379153 -4.7316 -1.00071
-0.36406 -4.73033 -1.0002
-0.348979 -4.72904 -0.999685
-0.333911 -4.72771 -0.999178
-0.318856 -4.72636 -0.998675
-0.303816 -4.72498 -0.998176
-0.288795 -4.72369 -0.997706
-0.274072 -4.72731 -0.998285
-0.259333 -4.73092 -0.998867
