ply
format ascii 1.0
comment Created by Open3D
element vertex 1865
property double x
property double y
property double z
end_header
-1.62019 8.11318 -2.25373
-1.64668 8.11304 -2.25512
-1.6732 8.1129 -2.25653
-1.69976 8.11275 -2.25797
-1.09532 8.10827 -2.30203
-1.12126 8.10817 -2.303
-1.14721 8.10807 -2.30398
-1.17319 8.10797 -2.30499
-1.1992 8.10787 -2.30602
-1.22522 8.10777 -2.30707
-1.25127 8.10766 -2.30815
-1.27734 8.10755 -2.30925
-1.30344 8.10744 -2.31037
-1.32956 8.10732 -2.31152
-1.35571 8.1072 -2.31269
-1.38188 8.10709 -2.31388
-1.40809 8.10696 -2.3151
-1.43432 8.10684 -2.31634
-1.46057 8.10671 -2.3176
-1.48686 8.10658 -2.31889
-1.51317 8.10645 -2.3202
-1.53952 8.10632 -2.32153
-1.56589 8.10618 -2.32289
-1.59229 8.10604 -2.32427
-1.61873 8.1059 -2.32568
-1.6452 8.10576 -2.32711
-1.6717 8.10561 -2.32856
-1.14619 8.10085 -2.37548
-1.17215 8.10074 -2.37652
-1.19813 8.10064 -2.37758
-1.22413 8.10053 -2.37866
-1.25015 8.10042 -2.37977
-1.2762 8.1003 -2.38091
-1.30227 8.10019 -2.38206
-1.32837 8.10007 -2.38324
-1.3545 8.09995 -2.38445
-1.38064 8.09983 -2.38568
-1.40683 8.0997 -2.38693
-1.43303 8.09957 -2.38821
-1.45926 8.09944 -2.38951
-1.48552 8.09931 -2.39084
-1.51181 8.09918 -2.39218
-1.53813 8.09904 -2.39356
-1.56448 8.0989 -2.39496
-1.59087 8.09875 -2.39638
-1.24903 8.09316 -2.45162
-1.27506 8.09304 -2.45278
-1.30111 8.09292 -2.45397
-1.32718 8.0928 -2.45519
-1.35328 8.09267 -2.45643
-1.3794 8.09255 -2.45769
-1.40556 8.09242 -2.45898
-1.43174 8.09229 -2.4603
-1.45795 8.09215 -2.46164
-1.48419 8.09202 -2.463
-1.45654 8.481 -1.22397
-1.48779 8.50299 -1.22781
-1.52 8.52935 -1.2323
-1.55256 8.55661 -1.23693
-1.59291 8.62486 -1.24751
-1.63598 8.70509 -1.25986
-1.6799 8.78686 -1.27245
-1.74495 8.97438 -1.30039
-1.44644 8.42218 -1.28802
-1.4744 8.42644 -1.28938
-1.50242 8.4307 -1.29074
-1.53049 8.43496 -1.29212
-1.55821 8.437 -1.29318
-1.58615 8.43994 -1.29439
-1.61571 8.45106 -1.29686
-1.64537 8.46221 -1.29936
-1.67632 8.47932 -1.30279
-1.71202 8.51938 -1.30976
-1.75028 8.57045 -1.31845
-1.79444 8.64823 -1.33127
-1.83822 8.72162 -1.34345
-1.88279 8.79627 -1.35585
-1.92573 8.86094 -1.36675
-1.96693 8.91566 -1.37613
-2.00866 8.97098 -1.38564
-2.05484 9.04407 -1.39792
-1.43645 8.36403 -1.35136
-1.46421 8.3682 -1.35277
-1.49202 8.37237 -1.35419
-1.51986 8.37638 -1.3556
-1.54725 8.37762 -1.35658
-1.57467 8.37885 -1.35757
-1.60213 8.38007 -1.35858
-1.62973 8.38178 -1.35968
-1.65919 8.3927 -1.36229
-1.68876 8.40364 -1.36492
-1.71845 8.41461 -1.36757
-1.74824 8.42561 -1.37024
-1.77816 8.43664 -1.37293
-1.80818 8.4477 -1.37565
-1.83833 8.45878 -1.37839
-1.8701 8.47679 -1.38227
-1.90158 8.49272 -1.38583
-1.9332 8.50868 -1.38942
-1.96498 8.52469 -1.39304
-1.99691 8.54073 -1.39667
-2.02901 8.55683 -1.40034
-2.06353 8.58242 -1.40558
-2.09905 8.61118 -1.41136
-2.13483 8.6401 -1.41719
-2.16966 8.66426 -1.42226
-2.20406 8.68591 -1.42695
-2.23867 8.70765 -1.43166
-2.27349 8.72945 -1.43641
-2.30853 8.75133 -1.4412
-1.42657 8.30652 -1.41398
-1.45413 8.3106 -1.41545
-1.48174 8.31468 -1.41693
-1.50921 8.31772 -1.41825
-1.5364 8.31891 -1.41926
-1.56363 8.32009 -1.4203
-1.59089 8.32127 -1.42134
-1.61819 8.32243 -1.4224
-1.64553 8.32358 -1.42347
-1.6729 8.32472 -1.42456
-1.70213 8.33472 -1.42717
-1.73162 8.34546 -1.42994
-1.76121 8.35623 -1.43272
-1.79091 8.36702 -1.43553
-1.82074 8.37784 -1.43836
-1.84987 8.38508 -1.44059
-1.87904 8.39207 -1.4428
-1.90829 8.39907 -1.44502
-1.93763 8.40606 -1.44726
-1.96745 8.41473 -1.44981
-1.99817 8.42676 -1.45296
-2.029 8.43882 -1.45612
-2.05998 8.45091 -1.45932
-2.09107 8.46303 -1.46254
-2.12231 8.47519 -1.46578
-2.15368 8.48738 -1.46905
-2.18519 8.49961 -1.47235
-2.21682 8.51186 -1.47567
-2.25543 8.55003 -1.4835
-2.32615 8.7073 -1.51205
-1.41772 8.25497 -1.47688
-1.44433 8.25458 -1.47762
-1.47157 8.25763 -1.47898
-1.49869 8.25972 -1.48019
-1.52568 8.26086 -1.48125
-1.55271 8.26199 -1.48231
-1.57977 8.26312 -1.4834
-1.60687 8.26423 -1.48449
-1.63401 8.26533 -1.48561
-1.66119 8.26642 -1.48673
-1.68841 8.2675 -1.48787
-1.71566 8.26857 -1.48903
-1.74454 8.27712 -1.49154
-1.77393 8.28766 -1.49444
-1.80289 8.29571 -1.4969
-1.83165 8.30249 -1.49915
-1.86051 8.30929 -1.50143
-1.88944 8.31609 -1.50372
-1.91846 8.32289 -1.50603
-1.94757 8.32969 -1.50836
-1.97676 8.33651 -1.51071
-2.00604 8.34332 -1.51308
-2.03541 8.35014 -1.51546
-2.06516 8.35815 -1.51809
-2.09595 8.36993 -1.52141
-2.12687 8.38173 -1.52476
-2.1592 8.3985 -1.52904
-2.19783 8.43891 -1.53764
-2.2369 8.47977 -1.54636
-2.27829 8.52812 -1.55647
-2.35335 8.69954 -1.5891
-1.41052 8.21303 -1.5409
-1.437 8.21271 -1.54168
-1.46351 8.21238 -1.54247
-1.49024 8.21315 -1.54348
-1.51704 8.21405 -1.54454
-1.54386 8.21494 -1.54561
-1.57073 8.21583 -1.5467
-1.59763 8.21671 -1.5478
-1.62458 8.21759 -1.54892
-1.65155 8.21847 -1.55005
-1.67857 8.21934 -1.5512
-1.70563 8.22021 -1.55237
-1.73274 8.22113 -1.55356
-1.76053 8.22507 -1.55534
-1.78918 8.23263 -1.55782
-1.81789 8.24013 -1.56031
-1.8467 8.24765 -1.56283
-1.87561 8.2552 -1.56536
-1.9046 8.26276 -1.56792
-1.93369 8.27035 -1.57051
-1.96288 8.27796 -1.57311
-1.99216 8.28559 -1.57574
-2.02154 8.29324 -1.5784
-2.05102 8.30091 -1.58107
-2.0806 8.30861 -1.58378
-2.11037 8.31668 -1.58657
-2.14174 8.33062 -1.5905
-2.17996 8.37032 -1.59938
-2.21861 8.41046 -1.60837
-2.25769 8.45104 -1.61748
-2.30573 8.52352 -1.63273
-1.4067 8.19079 -1.60827
-1.43311 8.19046 -1.60908
-1.45954 8.19013 -1.60991
-1.48621 8.19094 -1.61097
-1.51293 8.19182 -1.61207
-1.53968 8.19269 -1.61319
-1.56648 8.19356 -1.61432
-1.5933 8.19443 -1.61547
-1.62017 8.19529 -1.61663
-1.64713 8.19646 -1.61787
-1.67437 8.19875 -1.61935
-1.70165 8.20104 -1.62085
-1.72898 8.20333 -1.62237
-1.75715 8.20928 -1.62463
-1.78575 8.21688 -1.62723
-1.81444 8.22449 -1.62986
-1.84323 8.23213 -1.63251
-1.87207 8.23966 -1.63516
-1.90101 8.24718 -1.63783
-1.93004 8.25473 -1.64052
-1.95917 8.2623 -1.64324
-1.98839 8.26989 -1.64598
-2.01771 8.2775 -1.64875
-2.04712 8.28513 -1.65154
-2.07664 8.29279 -1.65435
-2.10679 8.30259 -1.65762
-2.13771 8.31494 -1.66142
-2.16877 8.32735 -1.66525
-2.20057 8.34206 -1.66956
-2.23923 8.38192 -1.67894
-2.27833 8.42222 -1.68843
-2.33308 8.51852 -1.7092
-1.40289 8.16861 -1.6755
-1.42922 8.16827 -1.67634
-1.45559 8.16793 -1.6772
-1.48219 8.16878 -1.67832
-1.50883 8.16964 -1.67946
-1.53551 8.1705 -1.68062
-1.56234 8.17194 -1.68191
-1.58937 8.1742 -1.6834
-1.61645 8.17647 -1.6849
-1.64357 8.17874 -1.68642
-1.67074 8.18101 -1.68796
-1.69797 8.18328 -1.68952
-1.72532 8.18596 -1.69118
-1.75377 8.19349 -1.69387
-1.78231 8.20105 -1.69658
-1.81094 8.20862 -1.69931
-1.83967 8.21622 -1.70207
-1.86848 8.22384 -1.70485
-1.89739 8.23148 -1.70766
-1.92639 8.23912 -1.71049
-1.95546 8.24665 -1.71332
-1.98461 8.2542 -1.71617
-2.01387 8.26177 -1.71905
-2.04322 8.26936 -1.72196
-2.07268 8.27697 -1.72489
-2.10321 8.2885 -1.72866
-2.13408 8.3008 -1.73261
-2.16507 8.31315 -1.7366
-2.19622 8.32556 -1.74062
-2.2275 8.33802 -1.74468
-2.25969 8.35331 -1.74935
-2.30021 8.39851 -1.76032
-2.36033 8.5131 -1.78588
-1.39922 8.14725 -1.74275
-1.4254 8.14643 -1.74352
-1.45165 8.14582 -1.74435
-1.47834 8.14755 -1.74571
-1.50517 8.1498 -1.7472
-1.53204 8.15205 -1.7487
-1.55897 8.1543 -1.75022
-1.58593 8.15655 -1.75176
-1.61295 8.1588 -1.75333
-1.64001 8.16105 -1.75491
-1.66713 8.1633 -1.75651
-1.69429 8.16555 -1.75812
-1.72201 8.17022 -1.76029
-1.75039 8.17772 -1.76307
-1.77888 8.18524 -1.76589
-1.80744 8.19277 -1.76873
-1.83611 8.20033 -1.7716
-1.86486 8.2079 -1.77449
-1.89371 8.2155 -1.77741
-1.92265 8.22312 -1.78035
-1.95169 8.23076 -1.78332
-1.98082 8.23842 -1.78632
-2.01004 8.24604 -1.78933
-2.03933 8.25359 -1.79235
-2.06898 8.26221 -1.79562
-2.09964 8.27441 -1.79969
-2.13044 8.28666 -1.8038
-2.16137 8.29895 -1.80794
-2.19246 8.31131 -1.81213
-2.22368 8.32371 -1.81634
-2.25532 8.33718 -1.82081
-2.28757 8.35236 -1.82569
-2.34471 8.45676 -1.85011
-1.39911 8.1466 -1.81449
-1.42542 8.14652 -1.81546
-1.45176 8.14644 -1.81644
-1.47812 8.14635 -1.81745
-1.50452 8.14626 -1.81847
-1.53094 8.14618 -1.81952
-1.60544 8.39739 -1.87674
-1.63274 8.39729 -1.87786
-1.66008 8.3972 -1.87899
-1.63646 8.14337 -1.82333
-1.66351 8.1456 -1.82499
-1.69061 8.14783 -1.82667
-1.71869 8.15449 -1.82937
-1.74702 8.16195 -1.83226
-1.77544 8.16942 -1.83518
-1.80395 8.17692 -1.83812
-1.83255 8.18443 -1.8411
-1.86124 8.19197 -1.8441
-1.89003 8.19953 -1.84712
-1.91891 8.20714 -1.85018
-1.9479 8.21479 -1.85328
-1.97698 8.22246 -1.8564
-2.00617 8.23016 -1.85955
-2.03545 8.2379 -1.86273
-2.06615 8.2509 -1.86713
-2.09861 8.27036 -1.87301
-2.13016 8.28555 -1.87795
-2.16176 8.30044 -1.88286
-2.19354 8.31541 -1.8878
-2.22548 8.33046 -1.8928
-2.2576 8.3456 -1.89784
-2.28988 8.36081 -1.90292
-2.34748 8.46677 -1.9287
-1.39806 8.1405 -1.88522
-1.42435 8.14042 -1.88622
-1.45067 8.14033 -1.88725
-1.47701 8.14024 -1.88829
-1.50339 8.14015 -1.88935
-1.52979 8.14006 -1.89044
-1.55623 8.13996 -1.89154
-1.58269 8.13987 -1.89266
-1.60919 8.13977 -1.8938
-1.63572 8.13967 -1.89497
-1.71356 8.39067 -1.95464
-1.74097 8.39057 -1.95588
-1.7198 8.15977 -1.90333
-1.74378 8.14682 -1.90158
-1.77215 8.15431 -1.90461
-1.80061 8.16181 -1.90767
-1.82917 8.16934 -1.91077
-1.85781 8.17689 -1.91389
-1.88655 8.18446 -1.91703
-1.91538 8.19205 -1.92021
-1.94432 8.19967 -1.92341
-1.97335 8.20735 -1.92666
-2.00249 8.21506 -1.92993
-2.03172 8.22279 -1.93324
-2.06185 8.23374 -1.93732
-2.09423 8.2531 -1.94341
-2.12682 8.27259 -1.94956
-2.15961 8.29218 -1.95577
-2.19261 8.3119 -1.96203
-2.22583 8.33175 -1.96836
-2.25925 8.35172 -1.97474
-2.29848 8.3922 -1.986
-2.36092 8.51522 -2.01686
-1.39701 8.13439 -1.95611
-1.42328 8.1343 -1.95715
-1.44958 8.13421 -1.95821
-1.4759 8.13411 -1.9593
-1.50226 8.13402 -1.9604
-1.52864 8.13392 -1.96152
-1.55506 8.13383 -1.96267
-1.5815 8.13373 -1.96383
-1.60797 8.13363 -1.96501
-1.63448 8.13352 -1.96622
-1.66103 8.13342 -1.96744
-1.6876 8.13331 -1.96869
-1.76708 8.38411 -2.03073
-1.79156 8.37007 -2.02867
-1.76892 8.13941 -1.97411
-1.79732 8.14688 -1.97727
-1.82582 8.15437 -1.98047
-1.8544 8.16189 -1.9837
-1.8831 8.16945 -1.98697
-1.91188 8.17705 -1.99026
-1.94076 8.18468 -1.99359
-1.96974 8.19233 -1.99695
-1.99881 8.2 -2.00034
-2.02798 8.20769 -2.00376
-2.05756 8.21659 -2.00749
-2.09082 8.23967 -2.01473
-2.12492 8.26519 -2.02259
-2.15928 8.29091 -2.03053
-2.19392 8.31685 -2.03856
-2.22883 8.34299 -2.04667
-2.26403 8.36936 -2.05487
-2.32102 8.4745 -2.08246
-1.39596 8.12825 -2.02717
-1.42221 8.12816 -2.02825
-1.44849 8.12807 -2.02935
-1.47479 8.12797 -2.03047
-1.50112 8.12788 -2.03162
-1.52748 8.12778 -2.03278
-1.55388 8.12768 -2.03396
-1.5803 8.12757 -2.03517
-1.60676 8.12747 -2.03639
-1.63324 8.12736 -2.03764
-1.65976 8.12725 -2.03891
-1.68632 8.12714 -2.0402
-1.7129 8.12703 -2.04151
-1.79318 8.37763 -2.10586
-1.81108 8.33341 -2.09616
-1.80882 8.199 -2.06377
-1.82369 8.14485 -2.05157
-1.8527 8.15437 -2.05542
-1.8817 8.16341 -2.05918
-1.91081 8.17249 -2.06297
-1.94003 8.1816 -2.0668
-1.96936 8.19074 -2.07066
-1.9988 8.19993 -2.07456
-2.02834 8.20914 -2.07849
-2.05873 8.22129 -2.08319
-2.09432 8.25346 -2.09299
-2.13026 8.28595 -2.10292
-2.16556 8.31505 -2.11201
-2.20033 8.34116 -2.12039
-2.23537 8.36747 -2.12885
-2.28099 8.43205 -2.14709
-1.3949 8.12211 -2.09842
-1.42113 8.12201 -2.09954
-1.44739 8.12191 -2.10068
-1.47367 8.12182 -2.10184
-1.49998 8.12172 -2.10302
-1.52632 8.12161 -2.10422
-1.5527 8.12151 -2.10544
-1.5791 8.1214 -2.10669
-1.60554 8.12129 -2.10796
-1.632 8.12118 -2.10925
-1.6585 8.12107 -2.11056
-1.68503 8.12096 -2.11189
-1.7116 8.12084 -2.11325
-1.7382 8.12073 -2.11463
-1.81928 8.37112 -2.18131
-1.81766 8.23905 -2.14837
-1.82368 8.14482 -2.12528
-1.85279 8.15476 -2.12938
-1.88201 8.16474 -2.13351
-1.91134 8.17475 -2.13769
-1.94079 8.18481 -2.1419
-1.97036 8.1949 -2.14615
-1.99982 8.2041 -2.15019
-2.02938 8.21333 -2.15426
-2.06 8.22636 -2.15937
-2.09562 8.25858 -2.16954
-2.13159 8.29112 -2.17983
-2.16789 8.32395 -2.19024
-2.20454 8.35712 -2.20078
-1.39385 8.11594 -2.16986
-1.42005 8.11584 -2.17102
-1.44629 8.11574 -2.17219
-1.47255 8.11564 -2.17339
-1.49884 8.11554 -2.17461
-1.52516 8.11543 -2.17585
-1.55152 8.11532 -2.17712
-1.5779 8.11522 -2.17841
-1.60431 8.1151 -2.17972
-1.63076 8.11499 -2.18105
-1.65724 8.11487 -2.18241
-1.68375 8.11476 -2.18378
-1.71029 8.11464 -2.18518
-1.79045 8.36485 -2.25406
-1.81788 8.36472 -2.25556
-1.82662 8.27968 -2.23416
-1.82414 8.14686 -2.19985
-1.85278 8.15473 -2.20354
-1.882 8.1647 -2.20782
-1.91133 8.17472 -2.21213
-1.94079 8.18477 -2.21649
-1.39278 8.10976 -2.24151
-1.41897 8.10966 -2.2427
-1.44519 8.10956 -2.24391
-1.47143 8.10945 -2.24515
-1.4977 8.10934 -2.24641
-1.524 8.10924 -2.24769
-1.55033 8.10912 -2.249
-1.57669 8.10901 -2.25033
-1.60309 8.1089 -2.25168
-1.62951 8.10878 -2.25306
-1.65597 8.10866 -2.25446
-1.68246 8.10854 -2.25588
-1.70898 8.10841 -2.25732
-1.39172 8.10356 -2.31337
-1.41788 8.10346 -2.3146
-1.44408 8.10335 -2.31585
-1.4703 8.10324 -2.31712
-1.49655 8.10313 -2.31842
-1.52283 8.10302 -2.31975
-1.54914 8.1029 -2.32109
-1.57548 8.10279 -2.32246
-1.60186 8.10267 -2.32386
-1.62826 8.10255 -2.32528
-1.65469 8.10242 -2.32672
-1.39065 8.09734 -2.38546
-1.41679 8.09724 -2.38672
-1.44297 8.09713 -2.38801
-1.46917 8.09701 -2.38933
-1.4954 8.0969 -2.39066
-1.52166 8.09678 -2.39203
-1.54795 8.09666 -2.39342
-1.57427 8.09654 -2.39483
-1.60062 8.09642 -2.39627
-1.38958 8.0911 -2.45778
-1.4157 8.09099 -2.45908
-1.44186 8.09088 -2.46041
-1.46803 8.09076 -2.46177
-1.49425 8.09065 -2.46314
2.01082 9.02933 -1.63112
1.97017 8.98026 -1.62112
1.92998 8.9316 -1.61123
1.89024 8.88337 -1.60144
1.85183 8.83977 -1.59252
1.81437 8.79922 -1.58418
1.77728 8.75897 -1.57591
2.08479 8.71141 -1.6563
2.03557 8.62588 -1.63881
1.98411 8.52807 -1.61903
1.95 8.50296 -1.61309
1.91585 8.47673 -1.60696
1.88261 8.45359 -1.60144
1.85288 8.4456 -1.59881
1.82324 8.43761 -1.5962
1.79369 8.42962 -1.59361
1.76423 8.42162 -1.59104
1.73486 8.41363 -1.58848
1.70558 8.40563 -1.58595
2.21607 8.65442 -1.72882
2.17212 8.59555 -1.71568
2.12881 8.53748 -1.70274
2.0771 8.44349 -1.68268
2.04412 8.42393 -1.67749
2.01134 8.40446 -1.67234
1.97875 8.38509 -1.66723
1.94636 8.36582 -1.66217
1.91415 8.34664 -1.65715
1.88319 8.3322 -1.6531
1.85387 8.32454 -1.65041
1.82464 8.31689 -1.64774
1.7955 8.30922 -1.6451
1.76644 8.30156 -1.64247
1.73744 8.29374 -1.63983
1.70853 8.28592 -1.63721
1.67971 8.2781 -1.63461
2.32834 8.63772 -1.80848
2.28216 8.57397 -1.79361
2.23673 8.51123 -1.779
2.19203 8.44948 -1.76464
2.15498 8.41585 -1.75619
2.12191 8.39687 -1.75082
2.08904 8.37799 -1.7455
2.05637 8.35921 -1.74023
2.02389 8.34053 -1.735
1.99159 8.32195 -1.72982
1.95949 8.30347 -1.72469
1.92757 8.28508 -1.7196
1.89584 8.26679 -1.71455
1.86459 8.24991 -1.70982
1.83604 8.24448 -1.70748
1.80703 8.23661 -1.70467
1.77905 8.23313 -1.70278
1.75117 8.22978 -1.70093
1.72334 8.22643 -1.69911
1.69557 8.22308 -1.6973
1.66786 8.21973 -1.69552
2.36252 8.65574 -1.89155
2.29895 8.52868 -1.86219
2.25249 8.46247 -1.84617
2.20788 8.40144 -1.83133
2.17379 8.3792 -1.82498
2.14027 8.35838 -1.81896
2.10715 8.33846 -1.81317
2.07455 8.31989 -1.8077
2.04215 8.30141 -1.80228
2.00993 8.28303 -1.7969
1.9779 8.26475 -1.79157
1.94606 8.24656 -1.78629
1.91622 8.23628 -1.78274
1.88768 8.23121 -1.78035
1.85922 8.22614 -1.77797
1.83055 8.21982 -1.77535
1.80163 8.21202 -1.77243
1.77281 8.20424 -1.76953
1.74408 8.19648 -1.76666
1.71616 8.19216 -1.76456
1.68851 8.18886 -1.76269
1.66093 8.18556 -1.76084
2.33479 8.55413 -1.94645
2.27238 8.43011 -1.91659
2.22611 8.36338 -1.89981
2.19243 8.34265 -1.89353
2.15896 8.32204 -1.88729
2.12571 8.30156 -1.88112
2.09268 8.28119 -1.875
2.06022 8.26238 -1.86926
2.02808 8.24421 -1.86369
1.99648 8.2276 -1.8585
1.9678 8.22255 -1.85595
1.9392 8.2175 -1.85342
1.91068 8.21247 -1.85091
1.88223 8.20744 -1.84843
1.85386 8.20242 -1.84597
1.82507 8.19523 -1.84305
1.79625 8.1875 -1.84003
1.76753 8.17978 -1.83703
1.73889 8.17208 -1.83406
1.71035 8.1644 -1.83112
1.73157 8.39768 -1.8822
1.70578 8.40661 -1.88299
2.3937 8.66228 -2.0512
2.32475 8.51734 -2.01514
2.25926 8.38144 -1.98129
2.21812 8.33335 -1.96826
2.18352 8.30875 -1.96081
2.14918 8.28433 -1.95344
2.11509 8.26008 -1.94613
2.08127 8.23602 -1.93891
2.04857 8.21569 -1.93259
2.01934 8.2087 -1.92944
1.99068 8.20369 -1.92678
1.96209 8.19869 -1.92414
1.93358 8.19369 -1.92152
1.90515 8.18871 -1.91893
1.87679 8.18372 -1.91637
1.84843 8.17839 -1.91375
1.81961 8.1707 -1.91059
1.79088 8.16303 -1.90747
1.77237 8.20222 -1.91531
1.73382 8.14828 -1.90143
1.707 8.1484 -1.90019
1.6802 8.14852 -1.89897
1.65344 8.14865 -1.89777
2.385 8.6308 -2.1222
2.31573 8.48429 -2.08437
2.25064 8.34947 -2.04949
2.21508 8.32196 -2.04101
2.1801 8.29575 -2.03289
2.14583 8.27141 -2.02525
2.11181 8.24726 -2.0177
2.07805 8.22328 -2.01022
2.0465 8.20739 -2.00474
2.01676 8.1982 -2.00094
1.98713 8.18905 -1.99716
1.9576 8.17993 -1.99342
1.92819 8.17085 -1.98972
1.89963 8.16499 -1.98682
1.87136 8.16006 -1.98417
1.84288 8.15385 -1.98124
1.83604 8.24446 -2.00184
1.78602 8.14085 -1.9753
1.75914 8.14098 -1.97398
1.7323 8.14112 -1.97268
1.7055 8.14125 -1.97139
1.67872 8.14137 -1.97013
1.65199 8.1415 -1.96889
2.37633 8.59942 -2.19296
2.30674 8.45137 -2.15333
2.24761 8.33824 -2.12269
2.21215 8.31093 -2.11395
2.17697 8.28384 -2.1053
2.14248 8.25849 -2.09713
2.10852 8.23442 -2.08932
2.07482 8.21053 -2.08159
2.04443 8.19906 -2.07703
2.01472 8.18991 -2.07309
1.98512 8.18078 -2.06919
1.95563 8.17169 -2.06532
1.92625 8.16262 -2.06148
1.89698 8.15359 -2.05768
1.86772 8.14416 -2.0538
1.86195 8.23824 -2.07603
1.81133 8.13352 -2.04819
1.78444 8.13367 -2.0468
1.75759 8.1338 -2.04543
1.73077 8.13394 -2.04408
1.70399 8.13408 -2.04275
1.67725 8.13421 -2.04145
1.65054 8.13434 -2.04016
2.36769 8.56815 -2.26349
2.29834 8.42059 -2.22258
2.24462 8.32712 -2.19603
2.20921 8.29989 -2.18699
2.17409 8.27288 -2.17806
2.13926 8.24608 -2.16922
2.10523 8.22157 -2.16101
2.07214 8.19989 -2.15358
2.04235 8.19073 -2.14947
2.01267 8.18159 -2.1454
1.98311 8.17249 -2.14136
1.95359 8.16315 -2.13729
1.92412 8.15359 -2.13318
1.89476 8.14407 -2.12912
1.86614 8.1373 -2.1258
1.86745 8.26258 -2.15698
1.80972 8.12632 -2.1199
1.78286 8.12646 -2.11846
1.75603 8.12661 -2.11705
1.72924 8.12675 -2.11565
1.70249 8.12689 -2.11428
1.67577 8.12703 -2.11293
1.64908 8.12716 -2.1116
2.20626 8.28882 -2.26015
2.1712 8.26189 -2.25093
2.13643 8.23518 -2.24181
2.10194 8.20871 -2.23278
2.07002 8.19151 -2.22632
2.04024 8.18225 -2.22204
2.01046 8.17262 -2.21769
1.98081 8.16302 -2.21338
1.95127 8.15346 -2.20911
1.92184 8.14393 -2.20487
1.89252 8.13443 -2.20067
1.87162 8.16116 -2.20629
1.87301 8.28717 -2.23875
1.80811 8.11909 -2.19179
1.78128 8.11925 -2.1903
1.75448 8.11939 -2.18884
1.72771 8.11954 -2.1874
1.70098 8.11968 -2.18598
1.67428 8.11983 -2.18459
1.64762 8.11996 -2.18321
1.77969 8.11201 -2.26233
1.75291 8.11216 -2.26082
1.72617 8.11231 -2.25933
1.69947 8.11246 -2.25787
1.67279 8.11261 -2.25643
1.64616 8.11275 -2.25501
1.75135 8.10491 -2.333
1.72463 8.10506 -2.33146
1.69795 8.10522 -2.32996
1.6713 8.10537 -2.32847
1.64469 8.10551 -2.32701
1.6698 8.09811 -2.40072
1.64322 8.09826 -2.39922
-2.36634 8.53477 -1.79043
-2.35183 8.48241 -1.85572
-2.3523 8.48412 -1.93265
-2.36505 8.53009 -2.02038
2.01087 8.9681 -1.62058
2.09584 8.70594 -1.6558
2.05207 8.64304 -1.6426
1.99671 8.52868 -1.61967
1.96245 8.50227 -1.61348
1.92922 8.47944 -1.60799
1.89575 8.45466 -1.60216
2.31441 8.87712 -1.77531
2.22658 8.65117 -1.72872
2.18374 8.5962 -1.71636
2.14149 8.54193 -1.70417
2.09134 8.45409 -1.68533
2.05469 8.41901 -1.67705
2.02218 8.39998 -1.67199
1.98986 8.38104 -1.66697
1.95774 8.36219 -1.66199
1.92579 8.34344 -1.65706
1.89454 8.32699 -1.6526
1.86546 8.31956 -1.64996
2.34177 8.64826 -1.81124
2.29388 8.57785 -1.79498
2.24888 8.51639 -1.78064
2.20458 8.45587 -1.76653
2.16472 8.41081 -1.75569
2.13177 8.39161 -1.75028
2.09913 8.37299 -1.74502
2.06669 8.35447 -1.7398
2.03444 8.33604 -1.73463
2.00238 8.31771 -1.7295
1.9705 8.29948 -1.72442
1.93881 8.28134 -1.71938
1.9073 8.26329 -1.71438
1.87596 8.24534 -1.70943
1.84649 8.23498 -1.70607
2.37849 8.67605 -1.89657
2.31528 8.55043 -1.86751
2.26486 8.46933 -1.84824
2.22065 8.40949 -1.83366
2.18363 8.37552 -1.82475
2.15035 8.35497 -1.81879
2.11733 8.33478 -1.81295
2.08496 8.31645 -1.80753
2.05278 8.29822 -1.80216
2.02079 8.28008 -1.79684
1.98898 8.26204 -1.79156
1.95735 8.24409 -1.78633
1.9262 8.22748 -1.78142
1.89786 8.22244 -1.77903
1.86961 8.2174 -1.77666
1.84138 8.21217 -1.77428
2.35155 8.57775 -1.95243
2.2893 8.45447 -1.92272
2.23647 8.36315 -1.90035
2.20237 8.34026 -1.89357
2.16914 8.31991 -1.8874
2.13611 8.29968 -1.88128
2.1033 8.27956 -1.87522
2.07093 8.26047 -1.86942
2.039 8.24253 -1.8639
2.00726 8.22467 -1.85844
1.97761 8.21481 -1.8548
1.94921 8.20979 -1.85228
1.92089 8.20479 -1.84978
1.89264 8.19978 -1.84731
1.86446 8.19479 -1.84486
1.83611 8.18871 -1.84218
2.34306 8.54681 -2.02273
2.27732 8.41025 -1.98871
2.22808 8.33179 -1.9685
2.19358 8.30696 -1.961
2.15941 8.2826 -1.95364
2.1255 8.25843 -1.94636
2.09184 8.23443 -1.93915
2.05842 8.2106 -1.93201
2.02899 8.20204 -1.92849
2.00052 8.19705 -1.92583
1.97213 8.19207 -1.9232
1.94382 8.18709 -1.9206
1.91558 8.18213 -1.91801
1.88742 8.17717 -1.91546
1.85933 8.17222 -1.91292
1.83087 8.16529 -1.90995
2.3346 8.51594 -2.09278
2.26924 8.3804 -2.05772
2.22549 8.32212 -2.04168
2.19049 8.29526 -2.0334
2.15638 8.27098 -2.02579
2.12253 8.24688 -2.01824
2.08893 8.22296 -2.01078
2.0563 8.20213 -2.0041
2.02674 8.19296 -2.0003
1.99729 8.18383 -1.99653
1.96796 8.17473 -1.9928
1.93873 8.16566 -1.98909
1.91029 8.15951 -1.98613
1.88221 8.1546 -1.98349
1.85416 8.14951 -1.98083
1.82562 8.14193 -1.97758
2.397 8.63735 -2.2033
2.32682 8.48755 -2.16321
2.26118 8.35064 -2.1265
2.2229 8.31243 -2.11499
2.18788 8.28538 -2.10635
2.15335 8.25935 -2.09801
2.11955 8.23533 -2.09021
2.08601 8.21148 -2.08249
2.0545 8.19496 -2.07666
2.02497 8.18582 -2.07272
1.99556 8.17671 -2.06882
1.96625 8.16762 -2.06496
1.93705 8.15858 -2.06112
1.90795 8.14956 -2.05733
1.87894 8.14044 -2.05353
1.8611 8.18 -2.06203
1.86248 8.30627 -2.09238
2.38897 8.6084 -2.27481
2.31916 8.45962 -2.23356
2.25557 8.32994 -2.19745
2.22031 8.30273 -2.18842
2.18534 8.27575 -2.1795
2.15065 8.24898 -2.17066
2.11658 8.22376 -2.16227
2.08309 8.19999 -2.15429
2.0527 8.18778 -2.14939
2.0232 8.17866 -2.14532
1.99381 8.16957 -2.14128
1.96453 8.16051 -2.13728
1.93524 8.15098 -2.13319
1.90606 8.14147 -2.12913
1.87699 8.13199 -2.1251
1.86659 8.20417 -2.14242
1.82065 8.11975 -2.11888
2.21771 8.29301 -2.262
2.18279 8.2661 -2.25278
2.14815 8.23941 -2.24366
2.11379 8.21292 -2.23463
2.08048 8.18972 -2.22653
2.0509 8.18058 -2.22229
2.02134 8.17112 -2.21799
1.99185 8.16153 -2.21368
1.96248 8.15198 -2.20942
1.93322 8.14246 -2.20518
1.90407 8.13297 -2.20099
1.87503 8.12352 -2.19683
1.87215 8.22858 -2.22364
1.8737 8.35633 -2.25657
1.87617 8.12844 -2.27247
-0.208675 9.1329 -1.06776
-0.236632 9.10432 -1.0645
-0.264422 9.07576 -1.06125
-0.292038 9.04726 -1.05802
-0.320918 9.05943 -1.05956
-0.350046 9.07578 -1.06159
-0.379276 9.09206 -1.06363
-0.408622 9.10827 -1.06567
-0.438068 9.12442 -1.06772
-0.467624 9.14049 -1.06977
0.304688 9.03873 -1.13334
0.272987 8.93146 -1.11978
0.242377 8.83909 -1.1081
0.213285 8.78506 -1.10123
0.184542 8.73161 -1.09446
0.156785 8.71379 -1.09216
0.12922 8.70147 -1.09055
0.101739 8.68912 -1.08896
0.0743352 8.67674 -1.08737
0.0470118 8.66433 -1.0858
0.0197702 8.6519 -1.08423
-0.00739831 8.63944 -1.08266
-0.0344825 8.62695 -1.0811
-0.0614982 8.61443 -1.07955
-0.0884728 8.60633 -1.07857
-0.115446 8.60168 -1.07803
-0.142396 8.597 -1.07749
-0.169315 8.59231 -1.07696
-0.196215 8.58759 -1.07644
-0.223077 8.58284 -1.07593
-0.249922 8.57808 -1.07543
-0.27674 8.57334 -1.07494
-0.303762 8.57512 -1.07527
-0.330805 8.57688 -1.07562
-0.357857 8.57861 -1.07597
-0.384936 8.58032 -1.07633
-0.412025 8.58201 -1.0767
-0.439137 8.58367 -1.07708
-0.466262 8.58531 -1.07746
-0.493404 8.58692 -1.07785
-0.520591 8.58883 -1.07829
-0.547795 8.59078 -1.07875
-0.575026 8.5927 -1.07921
-0.602276 8.59459 -1.07968
-0.629549 8.59646 -1.08016
-0.656844 8.5983 -1.08064
-0.684157 8.60012 -1.08114
-0.711502 8.60191 -1.08164
-0.738863 8.60367 -1.08215
-0.76625 8.60541 -1.08266
-0.793661 8.60713 -1.08319
-0.821094 8.60882 -1.08372
-0.848558 8.61048 -1.08426
-0.876042 8.61212 -1.08481
-0.903553 8.61373 -1.08536
-0.934745 8.64917 -1.09019
0.564618 9.09992 -1.21961
0.529481 8.99047 -1.20471
0.495076 8.8815 -1.18989
0.462857 8.80094 -1.1789
0.432517 8.74788 -1.1716
0.402548 8.69541 -1.1644
0.37317 8.6489 -1.15801
0.344199 8.60493 -1.15197
0.315554 8.56226 -1.14612
0.287655 8.53345 -1.14214
0.259946 8.50479 -1.13819
0.232884 8.49295 -1.1365
0.20611 8.48958 -1.13596
0.179385 8.4876 -1.13561
0.15271 8.48734 -1.13551
0.12604 8.48733 -1.13545
0.0993766 8.48732 -1.1354
0.0727112 8.4873 -1.13536
0.04605 8.48727 -1.13533
0.0193924 8.48723 -1.13531
-0.00726793 8.48719 -1.1353
-0.0339247 8.48714 -1.13531
-0.0605891 8.48709 -1.13532
-0.0872463 8.48703 -1.13534
-0.113907 8.48696 -1.13538
-0.140572 8.48688 -1.13542
-0.167237 8.4868 -1.13547
-0.193908 8.48671 -1.13554
-0.220577 8.48661 -1.13561
-0.247254 8.48651 -1.13569
-0.27394 8.48657 -1.13581
-0.300628 8.48663 -1.13594
-0.327325 8.48669 -1.13608
-0.354036 8.48699 -1.13626
-0.380764 8.48733 -1.13646
-0.407497 8.48767 -1.13668
-0.434243 8.488 -1.1369
-0.460994 8.48832 -1.13713
-0.487757 8.48864 -1.13737
-0.514536 8.48895 -1.13762
-0.541322 8.48925 -1.13789
-0.568125 8.48955 -1.13816
-0.594936 8.48984 -1.13844
-0.621763 8.49012 -1.13874
-0.648602 8.4904 -1.13904
-0.675452 8.49067 -1.13936
-0.702323 8.49093 -1.13968
-0.729204 8.49118 -1.14002
-0.756103 8.49143 -1.14037
-0.783015 8.49167 -1.14072
-0.809944 8.49191 -1.14109
-0.836894 8.49213 -1.14147
-0.863858 8.49236 -1.14186
-0.890843 8.49257 -1.14226
-0.917845 8.49277 -1.14267
0.763217 9.0694 -1.29456
0.719183 8.87988 -1.26718
0.682184 8.76511 -1.25049
0.651157 8.7205 -1.24382
0.620461 8.67631 -1.23724
0.590082 8.63252 -1.23072
0.560013 8.58912 -1.22428
0.530255 8.54612 -1.21791
0.50114 8.50923 -1.21242
0.47316 8.48838 -1.20923
0.446001 8.48043 -1.20789
0.418901 8.47249 -1.20657
0.391861 8.46455 -1.20526
0.365032 8.4603 -1.20448
0.338302 8.45751 -1.20393
0.311591 8.45472 -1.20338
0.284908 8.45193 -1.20285
0.258244 8.44913 -1.20233
0.231606 8.44632 -1.20182
0.20503 8.44505 -1.20155
0.178478 8.4447 -1.20141
0.151936 8.44434 -1.20129
0.125396 8.44398 -1.20117
0.0988684 8.44375 -1.20109
0.0723364 8.44373 -1.20105
0.0458146 8.4437 -1.20102
0.0192944 8.44367 -1.201
-0.00723161 8.44362 -1.20099
-0.0337505 8.44358 -1.20099
-0.0602761 8.44352 -1.20101
-0.0867985 8.44346 -1.20103
-0.113322 8.44339 -1.20106
-0.139851 8.44331 -1.20111
-0.166378 8.44323 -1.20117
-0.192914 8.44313 -1.20123
-0.219444 8.44304 -1.20131
-0.245986 8.443 -1.20141
-0.272535 8.44306 -1.20153
-0.299084 8.44311 -1.20167
-0.325647 8.44316 -1.20182
-0.352209 8.4432 -1.20197
-0.378786 8.44324 -1.20214
-0.405365 8.44327 -1.20232
-0.431955 8.44329 -1.20251
-0.458557 8.44347 -1.20274
-0.48518 8.44377 -1.20299
-0.511817 8.44407 -1.20326
-0.538459 8.44436 -1.20353
-0.565119 8.44464 -1.20382
-0.591787 8.44492 -1.20412
-0.618472 8.44519 -1.20443
-0.645167 8.44545 -1.20475
-0.671874 8.44571 -1.20508
-0.698601 8.44596 -1.20542
-0.725341 8.4462 -1.20578
-0.752096 8.44643 -1.20614
-0.778864 8.44666 -1.20652
-0.805649 8.44687 -1.2069
-0.832456 8.44709 -1.2073
-0.859275 8.44729 -1.20771
-0.886114 8.44749 -1.20813
-0.91297 8.44768 -1.20856
0.90587 9.05942 -1.3723
0.859786 8.88024 -1.34474
0.819387 8.74939 -1.32453
0.784784 8.67326 -1.31262
0.750788 8.59841 -1.30093
0.71739 8.52483 -1.28945
0.686422 8.47539 -1.28164
0.658976 8.46692 -1.28004
0.631638 8.4591 -1.27855
0.604369 8.45128 -1.27708
0.57716 8.44347 -1.27562
0.550007 8.43566 -1.27417
0.5231 8.43079 -1.27318
0.49636 8.42808 -1.27253
0.469647 8.42535 -1.27189
0.44296 8.42263 -1.27126
0.416299 8.41989 -1.27064
0.389667 8.41716 -1.27004
0.363053 8.41441 -1.26945
0.336468 8.41166 -1.26887
0.309903 8.40891 -1.2683
0.283364 8.40615 -1.26774
0.256846 8.40338 -1.2672
0.230411 8.40281 -1.26699
0.203996 8.40247 -1.26684
0.177576 8.40213 -1.2667
0.15117 8.40177 -1.26657
0.124764 8.40141 -1.26645
0.0983665 8.40105 -1.26634
0.0719675 8.40067 -1.26624
0.0455801 8.40048 -1.26619
0.0191956 8.40044 -1.26617
-0.00719462 8.4004 -1.26616
-0.0335787 8.40035 -1.26616
-0.0599695 8.4003 -1.26617
-0.0863542 8.40024 -1.2662
-0.112742 8.40016 -1.26623
-0.139135 8.40009 -1.26628
-0.165527 8.4 -1.26634
-0.191925 8.39991 -1.26641
-0.218322 8.3998 -1.26649
-0.24473 8.39983 -1.26661
-0.271142 8.39989 -1.26674
-0.297557 8.39994 -1.26688
-0.323981 8.39998 -1.26703
-0.350408 8.40002 -1.2672
-0.376849 8.40005 -1.26738
-0.403291 8.40007 -1.26756
-0.429745 8.40008 -1.26776
-0.456202 8.40009 -1.26797
-0.48267 8.40009 -1.2682
-0.509151 8.40008 -1.26843
-0.535634 8.40006 -1.26868
-0.562139 8.40011 -1.26894
-0.588664 8.40037 -1.26926
-0.615208 8.40063 -1.26958
-0.641763 8.40088 -1.26992
-0.668328 8.40112 -1.27026
-0.694913 8.40135 -1.27062
-0.721509 8.40158 -1.27099
-0.748122 8.4018 -1.27138
-0.774747 8.40201 -1.27177
-0.801389 8.40221 -1.27218
-0.828053 8.40241 -1.27259
-0.854727 8.4026 -1.27302
-0.881425 8.40278 -1.27346
-0.908136 8.40295 -1.27391
1.04877 9.05042 -1.4508
1.00102 8.88221 -1.42332
0.957108 8.73917 -1.39992
0.921287 8.66345 -1.38732
0.88483 8.57678 -1.37298
0.849104 8.49169 -1.35893
0.817613 8.44465 -1.35098
0.790014 8.43572 -1.34915
0.762485 8.4268 -1.34733
0.735025 8.41789 -1.34553
0.70763 8.40882 -1.34372
0.680243 8.39909 -1.34182
0.65353 8.39695 -1.34114
0.626908 8.39573 -1.34063
0.600206 8.39307 -1.33989
0.573533 8.39041 -1.33918
0.546883 8.38774 -1.33847
0.520264 8.38507 -1.33778
0.493669 8.38239 -1.33709
0.467103 8.3797 -1.33642
0.440562 8.37701 -1.33577
0.414047 8.37432 -1.33512
0.387559 8.37162 -1.33449
0.361089 8.36891 -1.33387
0.334649 8.36619 -1.33327
0.308228 8.36347 -1.33267
0.281848 8.36118 -1.33216
0.255546 8.36087 -1.33198
0.229254 8.36055 -1.3318
0.20297 8.36021 -1.33164
0.176685 8.35988 -1.33149
0.15041 8.35953 -1.33136
0.124137 8.35918 -1.33123
0.097872 8.35881 -1.33112
0.0716083 8.35845 -1.33102
0.04535 8.35807 -1.33093
0.019098 8.35768 -1.33085
-0.00715689 8.35751 -1.33082
-0.0334053 8.35746 -1.33082
-0.0596633 8.35741 -1.33084
-0.0859133 8.35734 -1.33086
-0.112166 8.35727 -1.3309
-0.138424 8.35719 -1.33095
-0.16468 8.35711 -1.33101
-0.190946 8.35701 -1.33109
-0.217207 8.35694 -1.33118
-0.24348 8.357 -1.3313
-0.269759 8.35705 -1.33144
-0.296039 8.3571 -1.33159
-0.322328 8.35714 -1.33175
-0.348621 8.35717 -1.33192
-0.374926 8.35719 -1.33211
-0.401234 8.3572 -1.3323
-0.427551 8.35721 -1.33251
-0.453874 8.35721 -1.33273
-0.480204 8.3572 -1.33297
-0.50655 8.35718 -1.33321
-0.532899 8.35716 -1.33347
-0.559262 8.35712 -1.33373
-0.585633 8.35708 -1.33401
-0.612016 8.35703 -1.33431
-0.638409 8.35698 -1.33461
-0.664809 8.35691 -1.33493
-0.691254 8.35711 -1.3353
-0.717707 8.35732 -1.33569
-0.74418 8.35753 -1.33609
-0.770664 8.35772 -1.3365
-0.797165 8.35791 -1.33692
-0.823686 8.35809 -1.33736
-0.850219 8.35826 -1.33781
-0.876772 8.35843 -1.33827
-0.90334 8.35858 -1.33874
1.515 9.42721 -1.60189
1.47847 9.38801 -1.59444
1.44222 9.34883 -1.587
1.40626 9.30973 -1.57961
1.37058 9.27063 -1.57224
1.3352 9.23159 -1.5649
1.28486 9.08494 -1.53934
1.21851 8.81539 -1.49302
1.18166 8.75133 -1.48153
1.14743 8.70401 -1.4729
1.11424 8.66207 -1.46521
1.08147 8.62129 -1.45773
1.04908 8.58126 -1.45039
1.01643 8.53674 -1.44232
0.979514 8.45274 -1.4276
0.948195 8.41349 -1.42046
0.920396 8.40398 -1.41836
0.892588 8.39357 -1.41613
0.864858 8.38319 -1.41391
0.837217 8.37281 -1.41171
0.809818 8.36414 -1.40981
0.782558 8.35611 -1.40804
0.755378 8.34828 -1.40631
0.728913 8.34789 -1.40585
0.702467 8.3475 -1.40541
0.676032 8.34709 -1.40497
0.649618 8.34668 -1.40455
0.623213 8.34625 -1.40415
0.596826 8.34582 -1.40375
0.570428 8.34498 -1.4033
0.543923 8.34235 -1.40257
0.517449 8.33972 -1.40184
0.491 8.33707 -1.40113
0.464579 8.33443 -1.40043
0.438182 8.33177 -1.39975
0.411813 8.32911 -1.39908
0.385468 8.32645 -1.39842
0.359142 8.32378 -1.39778
0.332845 8.3211 -1.39714
0.306608 8.31952 -1.39671
0.280435 8.31922 -1.39651
0.254264 8.31891 -1.39631
0.228102 8.31859 -1.39613
0.201952 8.31827 -1.39596
0.175799 8.31794 -1.39581
0.149658 8.3176 -1.39567
0.123513 8.31725 -1.39554
0.0973811 8.31689 -1.39542
0.0712482 8.31653 -1.39531
0.0451216 8.31616 -1.39522
0.019002 8.31578 -1.39514
-0.00712183 8.31539 -1.39507
-0.0332365 8.31499 -1.39501
-0.05936 8.31484 -1.39501
-0.0854762 8.31478 -1.39504
-0.111596 8.31471 -1.39508
-0.13772 8.31463 -1.39513
-0.163842 8.31454 -1.3952
-0.189972 8.31444 -1.39527
-0.216102 8.31443 -1.39538
-0.242242 8.31449 -1.39551
-0.268386 8.31454 -1.39565
-0.294533 8.31458 -1.39581
-0.320689 8.31461 -1.39598
-0.346847 8.31464 -1.39616
-0.373018 8.31465 -1.39635
-0.399191 8.31466 -1.39655
-0.425375 8.31466 -1.39677
-0.451561 8.31465 -1.397
-0.477759 8.31464 -1.39724
-0.50397 8.31461 -1.3975
-0.530185 8.31458 -1.39777
-0.556411 8.31454 -1.39805
-0.582645 8.31449 -1.39834
-0.608895 8.31443 -1.39864
-0.635155 8.31436 -1.39896
-0.66142 8.31429 -1.39929
-0.687705 8.31421 -1.39963
-0.713998 8.31412 -1.39999
-0.740306 8.31402 -1.40036
-0.766624 8.31391 -1.40074
-0.792973 8.31396 -1.40116
-0.819352 8.31412 -1.40161
-0.845743 8.31428 -1.40208
-0.872157 8.31443 -1.40256
-0.898585 8.31456 -1.40306
1.74164 8.72446 -1.56871
1.70784 8.69737 -1.56287
1.67427 8.67038 -1.55706
1.64048 8.6411 -1.55087
1.60692 8.61185 -1.54471
1.57361 8.58275 -1.5386
1.54245 8.5644 -1.53443
1.51295 8.55456 -1.53181
1.48354 8.54467 -1.52919
1.45431 8.5353 -1.52669
1.42534 8.52697 -1.52439
1.39644 8.51858 -1.5221
1.36762 8.51012 -1.51982
1.33887 8.50161 -1.51754
1.3102 8.49303 -1.51526
1.28159 8.48439 -1.513
1.25106 8.46213 -1.50832
1.21835 8.42372 -1.50078
1.18971 8.41216 -1.49805
1.16147 8.40273 -1.49571
1.13331 8.39332 -1.4934
1.10524 8.38391 -1.4911
1.07725 8.37452 -1.48882
1.04934 8.36514 -1.48656
1.02152 8.35577 -1.48432
0.99377 8.34641 -1.48209
0.966067 8.3367 -1.47982
0.93865 8.32881 -1.47789
0.911299 8.32091 -1.47597
0.884022 8.31302 -1.47407
0.856805 8.30514 -1.47219
0.829879 8.29944 -1.47071
0.803522 8.2991 -1.4702
0.777184 8.29875 -1.4697
0.750864 8.29839 -1.46921
0.724559 8.29803 -1.46873
0.698272 8.29765 -1.46827
0.671996 8.29726 -1.46782
0.645739 8.29687 -1.46738
0.619494 8.29646 -1.46696
0.593268 8.29604 -1.46655
0.567053 8.29562 -1.46615
0.540848 8.29518 -1.46577
0.514657 8.29473 -1.4654
0.488353 8.29212 -1.46466
0.462075 8.28951 -1.46393
0.435823 8.28689 -1.46322
0.409595 8.28427 -1.46252
0.383393 8.28164 -1.46184
0.35721 8.279 -1.46117
0.331127 8.27813 -1.46082
0.305073 8.27785 -1.4606
0.279029 8.27755 -1.46039
0.252991 8.27725 -1.46018
0.226961 8.27695 -1.46
0.20094 8.27663 -1.45982
0.174919 8.2763 -1.45966
0.148907 8.27597 -1.45951
0.122896 8.27563 -1.45938
0.0968938 8.27527 -1.45925
0.0708902 8.27492 -1.45914
0.0448959 8.27455 -1.45905
0.018907 8.27417 -1.45896
-0.00708626 8.27379 -1.45889
-0.0330713 8.27339 -1.45883
-0.0590607 8.27299 -1.45879
-0.085042 8.27258 -1.45876
-0.111029 8.27245 -1.45879
-0.137021 8.27237 -1.45884
-0.163009 8.27228 -1.45891
-0.189006 8.27218 -1.45899
-0.215005 8.27224 -1.45911
-0.241013 8.27229 -1.45925
-0.267025 8.27234 -1.45939
-0.293038 8.27238 -1.45956
-0.319061 8.2724 -1.45973
-0.345087 8.27242 -1.45992
-0.371123 8.27243 -1.46012
-0.397164 8.27243 -1.46033
-0.423214 8.27243 -1.46056
-0.449267 8.27241 -1.4608
-0.475332 8.27239 -1.46105
-0.501409 8.27236 -1.46131
-0.52749 8.27231 -1.46159
-0.553583 8.27226 -1.46188
-0.579687 8.27221 -1.46219
-0.605798 8.27214 -1.46251
-0.631921 8.27206 -1.46284
-0.658055 8.27198 -1.46318
-0.684205 8.27189 -1.46354
-0.710362 8.27179 -1.46391
-0.736535 8.27168 -1.46429
-0.762719 8.27156 -1.46468
-0.788916 8.27143 -1.46509
-0.815133 8.2713 -1.46552
-0.841357 8.27115 -1.46595
-0.867602 8.271 -1.4664
-0.893863 8.27089 -1.46687
1.67639 8.39761 -1.58343
1.64742 8.38964 -1.58095
1.6185 8.38157 -1.57846
1.58967 8.37345 -1.57598
1.56092 8.36533 -1.57352
1.53225 8.35721 -1.57108
1.50414 8.35171 -1.56915
1.47637 8.34769 -1.56752
1.44864 8.34365 -1.5659
1.42096 8.3396 -1.56429
1.39334 8.33552 -1.5627
1.36578 8.3315 -1.56113
1.3383 8.32767 -1.55962
1.31087 8.32382 -1.55812
1.2835 8.31995 -1.55663
1.25617 8.31607 -1.55516
1.22848 8.30943 -1.55319
1.20049 8.30026 -1.55076
1.17259 8.29109 -1.54835
1.14477 8.28191 -1.54596
1.11721 8.27402 -1.54383
1.09065 8.27325 -1.54303
1.06412 8.27247 -1.54226
1.03761 8.27167 -1.54149
1.01114 8.27086 -1.54074
0.98465 8.26981 -1.53996
0.957419 8.26207 -1.53796
0.930259 8.25434 -1.53597
0.903626 8.25084 -1.53478
0.877377 8.25055 -1.5342
0.851144 8.25025 -1.53364
0.824931 8.24994 -1.5331
0.798731 8.24963 -1.53256
0.772555 8.2493 -1.53204
0.746392 8.24896 -1.53154
0.720244 8.24861 -1.53105
0.694116 8.24825 -1.53057
0.667996 8.24788 -1.5301
0.641899 8.2475 -1.52965
0.615809 8.24711 -1.52921
0.58974 8.24671 -1.52879
0.563682 8.2463 -1.52837
0.537633 8.24588 -1.52798
0.511602 8.24545 -1.52759
0.48558 8.24501 -1.52722
0.459572 8.24456 -1.52686
0.433481 8.24237 -1.52619
0.407395 8.23978 -1.52547
0.38134 8.23728 -1.52478
0.355399 8.23702 -1.52452
0.329471 8.23675 -1.52427
0.303548 8.23647 -1.52403
0.277634 8.23619 -1.52381
0.251727 8.23589 -1.5236
0.225827 8.23559 -1.52341
0.199936 8.23528 -1.52323
0.174045 8.23496 -1.52306
0.148163 8.23463 -1.5229
0.122282 8.2343 -1.52276
0.09641 8.23395 -1.52264
0.0705378 8.2336 -1.52252
0.0446716 8.23323 -1.52242
0.0188127 8.23286 -1.52233
-0.00705074 8.23248 -1.52226
-0.0329051 8.23209 -1.5222
-0.058766 8.23169 -1.52215
-0.0846173 8.23129 -1.52212
-0.11047 8.23087 -1.5221
-0.136325 8.23045 -1.52209
-0.162182 8.23033 -1.52216
-0.18805 8.2303 -1.52225
-0.213916 8.23036 -1.52238
-0.239794 8.2304 -1.52252
-0.265672 8.23044 -1.52268
-0.291554 8.23047 -1.52284
-0.317444 8.2305 -1.52303
-0.343339 8.23051 -1.52322
-0.369243 8.23051 -1.52343
-0.395151 8.23051 -1.52365
-0.421069 8.2305 -1.52388
-0.446989 8.23047 -1.52413
-0.472922 8.23044 -1.52439
-0.498865 8.2304 -1.52467
-0.524813 8.23036 -1.52496
-0.550775 8.2303 -1.52526
-0.576742 8.23023 -1.52558
-0.602724 8.23015 -1.52591
-0.628715 8.23007 -1.52625
-0.654712 8.22998 -1.52661
-0.680728 8.22988 -1.52698
-0.706753 8.22976 -1.52736
-0.732793 8.22964 -1.52776
-0.758842 8.22952 -1.52817
-0.784904 8.22938 -1.52859
-0.810986 8.22923 -1.52903
-0.837076 8.22907 -1.52948
-0.863187 8.22891 -1.52995
-0.889307 8.22873 -1.53043
1.65097 8.27025 -1.63202
1.62244 8.26245 -1.62947
1.59399 8.25465 -1.62693
1.56564 8.24685 -1.62442
1.53735 8.23905 -1.62192
1.50962 8.23376 -1.61994
1.48247 8.23134 -1.61854
1.45551 8.22976 -1.61732
1.42859 8.22818 -1.61612
1.40171 8.22659 -1.61494
1.37486 8.22499 -1.61377
1.34806 8.2234 -1.61261
1.32129 8.22179 -1.61148
1.29455 8.22018 -1.61036
1.26786 8.21857 -1.60925
1.24159 8.21959 -1.60868
1.21517 8.21937 -1.60788
1.1886 8.21807 -1.60689
1.16208 8.21676 -1.60591
1.13558 8.21545 -1.60495
1.10912 8.21414 -1.60401
1.08268 8.21282 -1.60308
1.05628 8.21151 -1.60217
1.0299 8.21019 -1.60127
1.00356 8.20887 -1.60039
0.977424 8.20912 -1.59983
0.95125 8.20884 -1.59919
0.925099 8.20856 -1.59856
0.898964 8.20828 -1.59795
0.872852 8.208 -1.59735
0.846754 8.20771 -1.59677
0.820678 8.20742 -1.5962
0.794618 8.20713 -1.59565
0.768579 8.20684 -1.59512
0.742554 8.20655 -1.5946
0.716546 8.20625 -1.5941
0.690556 8.20595 -1.59361
0.664576 8.20565 -1.59314
0.638618 8.20534 -1.59268
0.612668 8.20504 -1.59224
0.586737 8.20473 -1.59182
0.56082 8.20442 -1.59141
0.53491 8.20411 -1.59101
0.509015 8.20379 -1.59063
0.483132 8.20347 -1.59027
0.457261 8.20315 -1.58992
0.431402 8.20283 -1.58959
0.405553 8.2025 -1.58927
0.379714 8.20215 -1.58896
0.353889 8.20202 -1.58871
0.328077 8.20188 -1.58848
0.302268 8.20174 -1.58826
0.27647 8.2016 -1.58806
0.250674 8.20146 -1.58787
0.224886 8.20131 -1.5877
0.199108 8.20116 -1.58754
0.173325 8.20101 -1.5874
0.147554 8.20085 -1.58727
0.121782 8.20069 -1.58715
0.0960186 8.20053 -1.58706
0.0702515 8.20037 -1.58698
0.0444927 8.2002 -1.58691
0.0187379 8.20003 -1.58686
-0.00702284 8.19986 -1.58682
-0.0327755 8.19969 -1.5868
-0.0585361 8.19951 -1.58679
-0.0842886 8.19933 -1.5868
-0.110044 8.19914 -1.58682
-0.135804 8.19896 -1.58686
-0.16156 8.19877 -1.58692
-0.187338 8.1991 -1.58709
-0.213118 8.1996 -1.5873
-0.238909 8.2001 -1.58754
-0.264709 8.20059 -1.58779
-0.290513 8.20109 -1.58805
-0.316329 8.20158 -1.58833
-0.342152 8.20206 -1.58863
-0.367988 8.20255 -1.58894
-0.393831 8.20303 -1.58926
-0.419687 8.20351 -1.5896
-0.445551 8.20399 -1.58996
-0.471429 8.20446 -1.59033
-0.497322 8.20493 -1.59072
-0.523221 8.2054 -1.59112
-0.54914 8.20587 -1.59153
-0.575068 8.20634 -1.59197
-0.601014 8.2068 -1.59242
-0.62697 8.20726 -1.59288
-0.65294 8.20772 -1.59336
-0.678934 8.20817 -1.59385
-0.704939 8.20862 -1.59436
-0.730962 8.20907 -1.59489
-0.756998 8.20952 -1.59543
-0.783055 8.20997 -1.59599
-0.809131 8.21041 -1.59656
-0.835224 8.21085 -1.59715
-0.861328 8.21119 -1.59773
-0.887389 8.21095 -1.59822
1.64022 8.2164 -1.69375
1.61274 8.21306 -1.69201
1.58532 8.20972 -1.69029
1.558 8.2066 -1.68863
1.53076 8.20371 -1.68704
1.50358 8.20082 -1.68547
1.47658 8.19867 -1.68406
1.44974 8.19712 -1.6828
1.42293 8.19557 -1.68156
1.39615 8.19401 -1.68033
1.36979 8.19462 -1.67956
1.34356 8.19595 -1.67896
1.31735 8.19728 -1.67838
1.29115 8.1986 -1.67781
1.26498 8.19992 -1.67726
1.23882 8.20123 -1.67672
1.21241 8.20073 -1.67583
1.18591 8.19944 -1.6748
1.15944 8.19814 -1.67378
1.13301 8.19685 -1.67278
1.10661 8.19555 -1.6718
1.08023 8.19425 -1.67084
1.05419 8.19524 -1.67035
1.02815 8.19623 -1.66989
1.00214 8.19723 -1.66944
0.976084 8.19787 -1.66894
0.949947 8.19759 -1.66827
0.923831 8.19731 -1.66761
0.897731 8.19702 -1.66697
0.871656 8.19673 -1.66635
0.845592 8.19644 -1.66574
0.819553 8.19615 -1.66515
0.793528 8.19587 -1.66458
0.767525 8.19558 -1.66402
0.741537 8.19529 -1.66348
0.715564 8.195 -1.66296
0.689609 8.1947 -1.66245
0.663665 8.1944 -1.66196
0.637743 8.1941 -1.66148
0.611829 8.1938 -1.66102
0.585934 8.19349 -1.66058
0.560052 8.19319 -1.66015
0.534176 8.19288 -1.65974
0.50832 8.19256 -1.65935
0.482471 8.19225 -1.65897
0.456638 8.19193 -1.6586
0.430812 8.19161 -1.65826
0.404997 8.19128 -1.65792
0.379193 8.1909 -1.6576
0.353392 8.19052 -1.65729
0.327607 8.19013 -1.65699
0.301827 8.18974 -1.65672
0.276057 8.18935 -1.65645
0.250297 8.18912 -1.65624
0.224549 8.18897 -1.65606
0.198809 8.18882 -1.65589
0.173067 8.18867 -1.65574
0.147335 8.18852 -1.65561
0.1216 8.18836 -1.65549
0.0958744 8.1882 -1.65539
0.0701473 8.18804 -1.65531
0.0444266 8.18787 -1.65524
0.0187096 8.1877 -1.65518
-0.00701019 8.18753 -1.65514
-0.0327262 8.18736 -1.65512
-0.0584479 8.18718 -1.65512
-0.0841619 8.187 -1.65512
-0.109878 8.18682 -1.65515
-0.135598 8.18663 -1.65519
-0.161318 8.18644 -1.65525
-0.187059 8.18693 -1.65546
-0.212801 8.18743 -1.65568
-0.238555 8.18793 -1.65593
-0.264315 8.18842 -1.65619
-0.290081 8.18891 -1.65646
-0.315858 8.1894 -1.65675
-0.341642 8.18988 -1.65706
-0.367442 8.19036 -1.65738
-0.393247 8.19084 -1.65772
-0.419065 8.19132 -1.65808
-0.444889 8.19179 -1.65845
-0.470727 8.19226 -1.65883
-0.496581 8.19273 -1.65924
-0.522443 8.1932 -1.65965
-0.548323 8.19366 -1.66009
-0.574212 8.19412 -1.66054
-0.600119 8.19458 -1.66101
-0.626038 8.19503 -1.66149
-0.651969 8.19549 -1.66199
-0.677923 8.19594 -1.6625
-0.703872 8.19622 -1.663
-0.729797 8.196 -1.66341
-0.755731 8.19578 -1.66384
-0.781679 8.19556 -1.66429
-0.807645 8.19533 -1.66475
-0.83362 8.1951 -1.66522
-0.859616 8.19486 -1.66572
-0.88562 8.19462 -1.66622
1.63344 8.18243 -1.75905
1.60617 8.17959 -1.75735
1.57895 8.17674 -1.75566
1.55179 8.1739 -1.754
1.5701 8.41452 -1.80456
1.54278 8.41463 -1.80354
1.51549 8.41473 -1.80253
1.48824 8.41483 -1.80154
1.41911 8.17358 -1.74893
1.39291 8.17493 -1.74827
1.36672 8.17627 -1.74763
1.34055 8.17761 -1.74701
1.3144 8.17894 -1.7464
1.28826 8.18026 -1.74581
1.26215 8.18158 -1.74524
1.23605 8.18289 -1.74468
1.20965 8.18211 -1.7437
1.18322 8.18083 -1.74263
1.15687 8.17995 -1.74165
1.13082 8.18096 -1.7411
1.10478 8.18196 -1.74057
1.07875 8.18297 -1.74006
1.05274 8.18397 -1.73956
1.02674 8.18496 -1.73907
1.00076 8.18596 -1.73861
0.974744 8.18662 -1.73809
0.948644 8.18634 -1.73739
0.922564 8.18606 -1.73671
0.896501 8.18578 -1.73604
0.870461 8.1855 -1.73539
0.844434 8.18521 -1.73476
0.81843 8.18492 -1.73415
0.79244 8.18463 -1.73355
0.766472 8.18434 -1.73297
0.740519 8.18404 -1.7324
0.714581 8.18374 -1.73186
0.688664 8.18344 -1.73133
0.662754 8.18315 -1.73082
0.636867 8.18285 -1.73032
0.61099 8.18255 -1.72985
0.58513 8.18225 -1.72938
0.559284 8.18195 -1.72894
0.533445 8.18164 -1.72851
0.507623 8.18133 -1.7281
0.48181 8.18102 -1.72771
0.456012 8.18071 -1.72733
0.430222 8.18039 -1.72697
0.404443 8.18005 -1.72662
0.378674 8.17967 -1.72628
0.352908 8.17929 -1.72596
0.327158 8.17891 -1.72565
0.301414 8.17853 -1.72536
0.275678 8.17814 -1.72509
0.24995 8.17775 -1.72483
0.22423 8.17736 -1.72459
0.198521 8.17696 -1.72437
0.172811 8.17657 -1.72416
0.147113 8.17618 -1.72398
0.121417 8.17602 -1.72386
0.0957319 8.17586 -1.72375
0.0700419 8.1757 -1.72366
0.0443598 8.17554 -1.72359
0.0186813 8.17537 -1.72353
-0.00700166 8.1752 -1.72349
-0.0326759 8.17502 -1.72347
-0.0583599 8.17485 -1.72346
-0.0840353 8.17467 -1.72347
-0.109713 8.17448 -1.7235
-0.135393 8.1743 -1.72354
-0.161077 8.17427 -1.72363
-0.186781 8.17476 -1.72385
-0.212484 8.17526 -1.72409
-0.2382 8.17575 -1.72434
-0.26392 8.17624 -1.72461
-0.28965 8.17673 -1.7249
-0.315389 8.17721 -1.7252
-0.341134 8.17769 -1.72552
-0.366895 8.17817 -1.72585
-0.392661 8.17865 -1.72621
-0.418441 8.17912 -1.72657
-0.444229 8.17959 -1.72696
-0.470027 8.18006 -1.72736
-0.495841 8.18052 -1.72778
-0.521664 8.18099 -1.72822
-0.547485 8.18116 -1.72861
-0.573289 8.18096 -1.72894
-0.599106 8.18076 -1.72928
-0.624932 8.18056 -1.72965
-0.650763 8.18035 -1.73003
-0.676616 8.18014 -1.73042
-0.702474 8.17992 -1.73084
-0.728348 8.1797 -1.73126
-0.754228 8.17948 -1.73171
-0.780123 8.17925 -1.73217
-0.806037 8.17902 -1.73265
-0.831961 8.17878 -1.73315
-0.857902 8.17854 -1.73366
-0.883856 8.1783 -1.73419
1.62814 8.15591 -1.82568
1.60154 8.15602 -1.82457
1.57497 8.15614 -1.82347
1.54843 8.15625 -1.8224
1.52193 8.15635 -1.82135
1.49545 8.15646 -1.82031
1.469 8.15656 -1.8193
1.44258 8.15666 -1.8183
1.41619 8.15676 -1.81732
1.38983 8.15686 -1.81636
1.36349 8.15696 -1.81542
1.33718 8.15705 -1.8145
1.31178 8.16262 -1.81481
1.29834 8.24425 -1.83205
1.28464 8.32734 -1.8496
1.2701 8.40829 -1.86669
1.20739 8.1668 -1.81223
1.18131 8.16765 -1.81158
1.15527 8.16866 -1.81099
1.12926 8.16967 -1.81042
1.10325 8.17068 -1.80987
1.07726 8.17168 -1.80933
1.05129 8.17268 -1.80881
1.02532 8.17368 -1.80831
0.999377 8.17468 -1.80783
0.973403 8.17536 -1.8073
0.947339 8.17508 -1.80657
0.921296 8.17481 -1.80586
0.895268 8.17453 -1.80517
0.869265 8.17425 -1.80449
0.843274 8.17397 -1.80384
0.817307 8.17369 -1.8032
0.791353 8.1734 -1.80258
0.76542 8.17311 -1.80198
0.739503 8.17282 -1.80139
0.713601 8.17252 -1.80082
0.687718 8.17222 -1.80027
0.661845 8.17192 -1.79974
0.635993 8.17162 -1.79922
0.610151 8.17131 -1.79872
0.584326 8.17101 -1.79824
0.558515 8.1707 -1.79778
0.532712 8.1704 -1.79734
0.506925 8.17009 -1.79691
0.48115 8.16978 -1.7965
0.455386 8.16947 -1.79611
0.42963 8.16916 -1.79574
0.403888 8.16881 -1.79537
0.378153 8.16844 -1.79502
0.352424 8.16806 -1.79469
0.326709 8.16768 -1.79437
0.300998 8.1673 -1.79407
0.275302 8.16691 -1.79378
0.249607 8.16653 -1.79352
0.223924 8.16614 -1.79327
0.198249 8.16574 -1.79304
0.172574 8.16535 -1.79282
0.146911 8.16495 -1.79262
0.121246 8.16455 -1.79244
0.0955926 8.16415 -1.79228
0.0699392 8.16374 -1.79214
0.0442933 8.16333 -1.792
0.0186532 8.16303 -1.79192
-0.00699032 8.16286 -1.79188
-0.0326276 8.16268 -1.79185
-0.0582699 8.16251 -1.79184
-0.0839081 8.16233 -1.79185
-0.109547 8.16215 -1.79188
-0.135189 8.16196 -1.79192
-0.160838 8.16209 -1.79205
-0.186502 8.16259 -1.79228
-0.212167 8.16308 -1.79253
-0.237845 8.16357 -1.79279
-0.263529 8.16406 -1.79307
-0.289218 8.16454 -1.79337
-0.314919 8.16502 -1.79368
-0.340625 8.1655 -1.79401
-0.366347 8.16598 -1.79436
-0.392053 8.16599 -1.79463
-0.41776 8.16582 -1.79487
-0.44347 8.16564 -1.79513
-0.469187 8.16546 -1.7954
-0.494917 8.16527 -1.7957
