ply
format ascii 1.0
comment Created by Open3D
element vertex 1793
property double x
property double y
property double z
end_header
-4.62911 -1.66503 -1.47279
-4.59611 -1.66951 -1.46395
-4.5635 -1.67393 -1.45523
-4.53126 -1.6783 -1.44663
-4.49968 -1.68272 -1.43823
-4.46857 -1.68713 -1.42998
-4.4378 -1.69148 -1.42183
-4.40737 -1.69578 -1.41378
-4.37734 -1.70005 -1.40585
-4.34814 -1.70447 -1.39819
-4.31925 -1.70884 -1.39062
-4.29066 -1.71316 -1.38315
-4.26236 -1.71743 -1.37576
-4.23435 -1.72165 -1.36846
-4.20662 -1.72582 -1.36125
-4.17917 -1.72993 -1.35412
-4.152 -1.73401 -1.34707
-4.1251 -1.73803 -1.34011
-4.09845 -1.74201 -1.33323
-4.07208 -1.74594 -1.32643
-4.04598 -1.74984 -1.31972
-4.02391 -1.75534 -1.31431
-4.00201 -1.7608 -1.30896
-3.98027 -1.7662 -1.30366
-3.9587 -1.77156 -1.29842
-3.9373 -1.77687 -1.29322
-3.91606 -1.78213 -1.28808
-3.89497 -1.78735 -1.28299
-3.87404 -1.79252 -1.27795
-3.85326 -1.79764 -1.27295
-3.83264 -1.80272 -1.26801
-3.81217 -1.80776 -1.26311
-3.7924 -1.81303 -1.25844
-3.77775 -1.82064 -1.25547
-3.76315 -1.82822 -1.25253
-3.74861 -1.83575 -1.2496
-3.73412 -1.84324 -1.2467
-3.71969 -1.8507 -1.24382
-3.70532 -1.85811 -1.24096
-3.69286 -1.86642 -1.23875
-3.68631 -1.8777 -1.23853
-3.68021 -1.8892 -1.23847
-3.67411 -1.90069 -1.23842
-3.66798 -1.91217 -1.23838
-3.66184 -1.92365 -1.23835
-3.65569 -1.93512 -1.23832
-3.64955 -1.94659 -1.23831
-3.64459 -1.95869 -1.23871
-3.63961 -1.9708 -1.23912
-3.63462 -1.98291 -1.23953
-3.62961 -1.99502 -1.23996
-3.62459 -2.00713 -1.2404
-3.61955 -2.01925 -1.24084
-3.61449 -2.03136 -1.24129
-3.60942 -2.04348 -1.24175
-3.60433 -2.0556 -1.24222
-3.59923 -2.06772 -1.24269
-3.5941 -2.07985 -1.24318
-3.58897 -2.09197 -1.24367
-3.58382 -2.1041 -1.24418
-3.57865 -2.11624 -1.24469
-3.57346 -2.12837 -1.24521
-3.56826 -2.14051 -1.24573
-3.56304 -2.15265 -1.24627
-3.5578 -2.16479 -1.24681
-3.55345 -2.17749 -1.24768
-3.54945 -2.19043 -1.24869
-3.54543 -2.20338 -1.24971
-3.54138 -2.21634 -1.25074
-3.53732 -2.22932 -1.25177
-3.53324 -2.24231 -1.25282
-3.52914 -2.25531 -1.25387
-3.52502 -2.26833 -1.25494
-3.52088 -2.28136 -1.25601
-3.51684 -2.29448 -1.25714
-3.51278 -2.30761 -1.25828
-3.50869 -2.32077 -1.25942
-3.5046 -2.33394 -1.26058
-3.50047 -2.34712 -1.26175
-3.49633 -2.36033 -1.26293
-3.49217 -2.37354 -1.26411
-3.48798 -2.38677 -1.26531
-3.48378 -2.40002 -1.26652
-3.47955 -2.41329 -1.26774
-3.47531 -2.42657 -1.26896
-3.47104 -2.43987 -1.2702
-3.46675 -2.45319 -1.27145
-3.46244 -2.46652 -1.27271
-3.45811 -2.47987 -1.27398
-3.45375 -2.49324 -1.27526
-3.45065 -2.50755 -1.27702
-3.44884 -2.52285 -1.27928
-3.44701 -2.53819 -1.28155
-3.44515 -2.55358 -1.28384
-3.44327 -2.56901 -1.28615
-3.44138 -2.58449 -1.28847
-3.43945 -2.60001 -1.29081
-3.43751 -2.61558 -1.29316
-3.43555 -2.63119 -1.29553
-3.43365 -2.64691 -1.29795
-3.43189 -2.66281 -1.30044
-3.43011 -2.67876 -1.30296
-3.42831 -2.69476 -1.30548
-3.42648 -2.71081 -1.30803
-3.42463 -2.7269 -1.31059
-3.42276 -2.74305 -1.31317
-3.42087 -2.75926 -1.31577
-3.41896 -2.77551 -1.31839
-3.41702 -2.79182 -1.32102
-3.41506 -2.80818 -1.32367
-3.41308 -2.82459 -1.32634
-3.41107 -2.84106 -1.32903
-3.41027 -2.85861 -1.33221
-3.41024 -2.87691 -1.33573
-3.4102 -2.89528 -1.33928
-3.41014 -2.91374 -1.34285
-6.06752 -1.59586 -1.93524
-5.97646 -1.59203 -1.90778
-5.90177 -1.59203 -1.88553
-5.82879 -1.59203 -1.8638
-5.75748 -1.59204 -1.84259
-5.68777 -1.59204 -1.82188
-5.62097 -1.59242 -1.80207
-5.53345 -1.58646 -1.77561
-5.48769 -1.59204 -1.76252
-5.4426 -1.59754 -1.74964
-5.39815 -1.60295 -1.73697
-5.35073 -1.60721 -1.72333
-5.29797 -1.60954 -1.70796
-5.24611 -1.61184 -1.69287
-5.19517 -1.61409 -1.67806
-5.1451 -1.6163 -1.66352
-5.09588 -1.61847 -1.64925
-5.04245 -1.61898 -1.63359
-4.98876 -1.61907 -1.61784
-4.93611 -1.61916 -1.60241
-4.88443 -1.61925 -1.58728
-4.83372 -1.61933 -1.57245
-4.7871 -1.62048 -1.55893
-4.75233 -1.62539 -1.54927
-4.71797 -1.63024 -1.53973
-4.68401 -1.63502 -1.53032
-4.65046 -1.63974 -1.52103
-4.61729 -1.64439 -1.51187
-4.58451 -1.64898 -1.50283
-4.55209 -1.65352 -1.4939
-4.52005 -1.65799 -1.48509
-4.48872 -1.66254 -1.47651
-4.45781 -1.66706 -1.46805
-4.42722 -1.67151 -1.45971
-4.39737 -1.67607 -1.4516
-4.36803 -1.68064 -1.44365
-4.33899 -1.68516 -1.4358
-4.31026 -1.68963 -1.42804
-4.28182 -1.69404 -1.42038
-4.25368 -1.6984 -1.41281
-4.22582 -1.70271 -1.40533
-4.19823 -1.70696 -1.39793
-4.17093 -1.71117 -1.39063
-4.1439 -1.71533 -1.38341
-4.11714 -1.71945 -1.37627
-4.09064 -1.72351 -1.36922
-4.06439 -1.72753 -1.36225
-4.03841 -1.73151 -1.35536
-4.01527 -1.73656 -1.34942
-3.99349 -1.74208 -1.34393
-3.97188 -1.74754 -1.3385
-3.95043 -1.75296 -1.33313
-3.92914 -1.75833 -1.3278
-3.90801 -1.76365 -1.32253
-3.88704 -1.76892 -1.31731
-3.86622 -1.77416 -1.31214
-3.84556 -1.77934 -1.30702
-3.82505 -1.78448 -1.30195
-3.80469 -1.78958 -1.29693
-3.78447 -1.79463 -1.29196
-3.7644 -1.79964 -1.28703
-3.74447 -1.8046 -1.28215
-3.72985 -1.81204 -1.27909
-3.71552 -1.81954 -1.27613
-3.70123 -1.82701 -1.2732
-3.687 -1.83443 -1.27028
-3.67283 -1.84182 -1.26739
-3.65871 -1.84917 -1.26452
-3.64512 -1.85672 -1.26183
-3.63596 -1.86648 -1.26069
-3.63147 -1.87863 -1.26117
-3.62668 -1.89064 -1.26157
-3.6218 -1.90262 -1.26195
-3.61691 -1.91459 -1.26234
-3.61201 -1.92656 -1.26273
-3.60708 -1.93854 -1.26314
-3.60214 -1.95052 -1.26355
-3.59719 -1.96249 -1.26397
-3.59222 -1.97447 -1.2644
-3.58724 -1.98645 -1.26484
-3.58224 -1.99843 -1.26529
-3.57722 -2.01042 -1.26574
-3.57218 -2.0224 -1.26621
-3.56713 -2.03439 -1.26668
-3.56207 -2.04638 -1.26716
-3.55699 -2.05837 -1.26765
-3.55189 -2.07036 -1.26815
-3.54677 -2.08236 -1.26866
-3.54164 -2.09435 -1.26917
-3.5365 -2.10636 -1.2697
-3.53133 -2.11836 -1.27023
-3.52615 -2.13036 -1.27077
-3.52095 -2.14237 -1.27132
-3.51574 -2.15438 -1.27188
-3.51081 -2.16658 -1.27255
-3.5068 -2.17937 -1.27358
-3.50277 -2.19217 -1.27461
-3.49872 -2.20499 -1.27566
-3.49465 -2.21782 -1.27671
-3.49057 -2.23066 -1.27778
-3.48646 -2.24351 -1.27885
-3.48233 -2.25638 -1.27993
-3.47818 -2.26926 -1.28103
-3.47402 -2.28215 -1.28213
-3.46983 -2.29506 -1.28324
-3.46562 -2.30798 -1.28437
-3.4614 -2.32092 -1.2855
-3.45715 -2.33388 -1.28664
-3.45294 -2.34688 -1.28782
-3.44877 -2.35994 -1.28902
-3.44457 -2.37301 -1.29024
-3.44036 -2.3861 -1.29147
-3.43612 -2.39921 -1.2927
-3.43186 -2.41233 -1.29395
-3.42758 -2.42547 -1.29521
-3.42328 -2.43863 -1.29647
-3.41896 -2.4518 -1.29775
-3.41462 -2.46499 -1.29904
-3.41025 -2.47819 -1.30034
-3.40587 -2.49142 -1.30165
-3.40234 -2.5053 -1.30331
-3.40043 -2.52043 -1.3056
-3.3985 -2.5356 -1.30792
-3.39654 -2.55082 -1.31025
-3.39457 -2.56608 -1.3126
-3.39257 -2.58138 -1.31496
-3.39055 -2.59673 -1.31733
-3.38867 -2.61224 -1.31979
-3.38685 -2.62786 -1.32229
-3.385 -2.64354 -1.32481
-3.38314 -2.65925 -1.32735
-3.38125 -2.67502 -1.32991
-3.37934 -2.69084 -1.33248
-3.37741 -2.7067 -1.33507
-3.37545 -2.72262 -1.33767
-3.37347 -2.73859 -1.3403
-3.37147 -2.7546 -1.34294
-3.36945 -2.77067 -1.3456
-3.3674 -2.78679 -1.34827
-3.36533 -2.80296 -1.35097
-3.36323 -2.81918 -1.35368
-3.36111 -2.83546 -1.35641
-3.35897 -2.85179 -1.35916
-3.35862 -2.86972 -1.36266
-6.11689 -1.60884 -2.0087
-5.97647 -1.59203 -1.96422
-5.90176 -1.59203 -1.94131
-5.82879 -1.59203 -1.91894
-5.75748 -1.59204 -1.8971
-5.68777 -1.59204 -1.87578
-5.61962 -1.59204 -1.85494
-5.55295 -1.59205 -1.83458
-5.47249 -1.58763 -1.80964
-5.42763 -1.59314 -1.79645
-5.38341 -1.59857 -1.78347
-5.33086 -1.60124 -1.76772
-5.27846 -1.60362 -1.75201
-5.22697 -1.60596 -1.73659
-5.17638 -1.60825 -1.72145
-5.12666 -1.6105 -1.7066
-5.07777 -1.61271 -1.692
-5.02971 -1.61489 -1.67767
-4.97772 -1.61549 -1.66202
-4.92528 -1.61561 -1.6462
-4.87382 -1.61573 -1.63069
-4.82332 -1.61585 -1.61549
-4.77375 -1.61596 -1.60058
-4.72509 -1.61608 -1.58596
-4.67729 -1.61618 -1.57161
-4.63828 -1.61905 -1.56021
-4.60532 -1.62382 -1.55083
-4.57275 -1.62853 -1.54158
-4.54054 -1.63317 -1.53245
-4.50869 -1.63775 -1.52343
-4.47762 -1.64243 -1.51467
-4.44703 -1.6471 -1.50607
-4.41724 -1.65188 -1.49773
-4.38775 -1.65661 -1.48949
-4.35857 -1.66128 -1.48135
-4.3297 -1.66589 -1.47331
-4.30112 -1.67045 -1.46537
-4.27284 -1.67496 -1.45753
-4.24485 -1.67941 -1.44977
-4.21714 -1.68381 -1.44211
-4.18971 -1.68816 -1.43454
-4.16255 -1.69246 -1.42706
-4.13566 -1.69671 -1.41966
-4.10904 -1.70091 -1.41235
-4.08268 -1.70506 -1.40513
-4.05658 -1.70916 -1.39799
-4.03073 -1.71322 -1.39093
-4.00653 -1.71784 -1.38444
-3.98488 -1.72342 -1.37882
-3.96338 -1.72894 -1.37326
-3.94205 -1.73442 -1.36775
-3.92088 -1.73985 -1.3623
-3.89987 -1.74523 -1.3569
-3.87901 -1.75056 -1.35155
-3.85831 -1.75585 -1.34626
-3.83776 -1.76109 -1.34101
-3.81736 -1.76629 -1.33582
-3.7971 -1.77144 -1.33067
-3.777 -1.77655 -1.32558
-3.75703 -1.78162 -1.32053
-3.73721 -1.78664 -1.31554
-3.71753 -1.79162 -1.31059
-3.69798 -1.79656 -1.30568
-3.68284 -1.80354 -1.30233
-3.66889 -1.81105 -1.29941
-3.65535 -1.81868 -1.29663
-3.64185 -1.82629 -1.29388
-3.62841 -1.83385 -1.29114
-3.615 -1.84138 -1.28843
-3.60165 -1.84887 -1.28573
-3.5923 -1.85837 -1.28448
-3.58782 -1.87039 -1.28498
-3.58333 -1.88241 -1.28548
-3.57883 -1.89443 -1.286
-3.57431 -1.90645 -1.28652
-3.56976 -1.91848 -1.28705
-3.56521 -1.93051 -1.28759
-3.56034 -1.94239 -1.28803
-3.55541 -1.95424 -1.28847
-3.55046 -1.96609 -1.28891
-3.5455 -1.97794 -1.28936
-3.54052 -1.98979 -1.28982
-3.53553 -2.00165 -1.29029
-3.53051 -2.0135 -1.29077
-3.52549 -2.02536 -1.29125
-3.52044 -2.03722 -1.29174
-3.51538 -2.04908 -1.29225
-3.51031 -2.06095 -1.29276
-3.50521 -2.07281 -1.29328
-3.5001 -2.08468 -1.29381
-3.49498 -2.09655 -1.29434
-3.48984 -2.10842 -1.29489
-3.48468 -2.1203 -1.29544
-3.4795 -2.13218 -1.29601
-3.47431 -2.14406 -1.29658
-3.4691 -2.15594 -1.29716
-3.46479 -2.16841 -1.29809
-3.46076 -2.18106 -1.29915
-3.4567 -2.19373 -1.30021
-3.45263 -2.20642 -1.30128
-3.44854 -2.21911 -1.30236
-3.44442 -2.23182 -1.30345
-3.44029 -2.24454 -1.30455
-3.43614 -2.25727 -1.30567
-3.43196 -2.27001 -1.30679
-3.42777 -2.28277 -1.30792
-3.42355 -2.29555 -1.30906
-3.41932 -2.30834 -1.31021
-3.41507 -2.32114 -1.31137
-3.41079 -2.33395 -1.31254
-3.40649 -2.34678 -1.31372
-3.40218 -2.35963 -1.31492
-3.39784 -2.37248 -1.31612
-3.39348 -2.38535 -1.31733
-3.38911 -2.39824 -1.31855
-3.38481 -2.41122 -1.31983
-3.3805 -2.42421 -1.32111
-3.37616 -2.43723 -1.32241
-3.37181 -2.45026 -1.32372
-3.36743 -2.4633 -1.32503
-3.36304 -2.47636 -1.32636
-3.35862 -2.48944 -1.3277
-3.35465 -2.50289 -1.32924
-3.35264 -2.51785 -1.33158
-3.35061 -2.53285 -1.33393
-3.34856 -2.5479 -1.3363
-3.34649 -2.56298 -1.33868
-3.34463 -2.57829 -1.34117
-3.34275 -2.59365 -1.34369
-3.34085 -2.60905 -1.34621
-3.33892 -2.6245 -1.34876
-3.33697 -2.63999 -1.35132
-3.335 -2.65553 -1.3539
-3.33301 -2.67113 -1.35649
-3.331 -2.68676 -1.35911
-3.32896 -2.70245 -1.36174
-3.3269 -2.71818 -1.36438
-3.32481 -2.73397 -1.36705
-3.3227 -2.7498 -1.36973
-3.32057 -2.76568 -1.37244
-3.31842 -2.78161 -1.37515
-3.31624 -2.7976 -1.37789
-3.31403 -2.81364 -1.38065
-3.31181 -2.82972 -1.38342
-6.05294 -1.59202 -2.04512
-5.97647 -1.59203 -2.02096
-5.90177 -1.59203 -1.99738
-5.82879 -1.59203 -1.97437
-5.75748 -1.59204 -1.9519
-5.68777 -1.59204 -1.92996
-5.61962 -1.59204 -1.90852
-5.55295 -1.59205 -1.88757
-5.45729 -1.58322 -1.85674
-5.41266 -1.58875 -1.84325
-5.364 -1.59281 -1.82837
-5.31103 -1.59528 -1.81202
-5.25901 -1.59771 -1.79598
-5.20787 -1.60009 -1.78022
-5.15763 -1.60242 -1.76476
-5.10825 -1.60472 -1.74959
-5.05969 -1.60697 -1.73468
-5.01195 -1.60919 -1.72004
-4.96501 -1.61136 -1.70566
-4.91446 -1.61206 -1.69003
-4.86321 -1.61221 -1.67414
-4.81291 -1.61236 -1.65856
-4.76355 -1.61251 -1.64329
-4.71508 -1.61265 -1.62831
-4.66747 -1.61279 -1.61362
-4.62072 -1.61293 -1.5992
-4.57479 -1.61306 -1.58505
-4.52967 -1.61318 -1.57117
-4.49724 -1.61759 -1.56168
-4.46687 -1.62256 -1.5529
-4.43692 -1.6275 -1.54426
-4.40729 -1.63238 -1.53572
-4.37798 -1.6372 -1.5273
-4.34896 -1.64197 -1.51897
-4.32025 -1.64668 -1.51074
-4.29184 -1.65133 -1.50262
-4.26371 -1.65592 -1.49459
-4.23588 -1.66047 -1.48665
-4.20832 -1.66496 -1.47881
-4.18104 -1.66939 -1.47106
-4.15403 -1.67378 -1.46341
-4.12729 -1.67812 -1.45584
-4.10081 -1.6824 -1.44836
-4.07459 -1.68664 -1.44096
-4.04862 -1.69083 -1.43365
-4.02291 -1.69497 -1.42643
-3.99768 -1.69918 -1.41938
-3.97615 -1.70481 -1.41363
-3.95478 -1.7104 -1.40793
-3.93357 -1.71593 -1.4023
-3.91252 -1.72142 -1.39672
-3.89162 -1.72686 -1.39119
-3.87088 -1.73225 -1.38572
-3.85029 -1.7376 -1.3803
-3.82985 -1.7429 -1.37493
-3.80956 -1.74815 -1.36961
-3.78942 -1.75336 -1.36435
-3.76942 -1.75853 -1.35913
-3.74956 -1.76365 -1.35397
-3.72985 -1.76872 -1.34885
-3.71027 -1.77376 -1.34378
-3.68962 -1.77817 -1.33832
-3.66863 -1.7823 -1.33273
-3.65102 -1.78796 -1.32837
-3.63839 -1.79599 -1.32583
-3.62504 -1.80361 -1.32302
-3.61172 -1.81118 -1.32024
-3.59845 -1.81871 -1.31747
-3.58522 -1.82621 -1.31472
-3.57204 -1.83367 -1.312
-3.5589 -1.84109 -1.30929
-3.54932 -1.85032 -1.30791
-3.54487 -1.8622 -1.30842
-3.54039 -1.87409 -1.30893
-3.5359 -1.88597 -1.30946
-3.5314 -1.89786 -1.31
-3.52687 -1.90976 -1.31054
-3.52233 -1.92165 -1.31109
-3.51777 -1.93355 -1.31165
-3.5132 -1.94545 -1.31222
-3.5086 -1.95735 -1.3128
-3.50399 -1.96926 -1.31339
-3.49936 -1.98117 -1.31398
-3.49445 -1.99293 -1.31449
-3.48946 -2.00466 -1.31497
-3.48445 -2.0164 -1.31547
-3.47943 -2.02813 -1.31598
-3.47439 -2.03986 -1.31649
-3.46934 -2.0516 -1.31702
-3.46427 -2.06334 -1.31755
-3.45918 -2.07508 -1.31809
-3.45407 -2.08682 -1.31864
-3.44895 -2.09856 -1.3192
-3.44382 -2.11031 -1.31977
-3.43866 -2.12206 -1.32034
-3.43349 -2.13381 -1.32093
-3.4283 -2.14557 -1.32152
-3.42342 -2.15753 -1.32225
-3.41938 -2.17005 -1.32332
-3.41532 -2.18257 -1.3244
-3.41124 -2.1951 -1.32549
-3.40714 -2.20766 -1.32659
-3.40302 -2.22022 -1.3277
-3.39888 -2.23279 -1.32881
-3.39472 -2.24538 -1.32994
-3.39054 -2.25798 -1.33108
-3.38634 -2.27059 -1.33223
-3.38211 -2.28322 -1.33339
-3.37787 -2.29586 -1.33456
-3.37361 -2.30851 -1.33574
-3.36933 -2.32118 -1.33693
-3.36503 -2.33386 -1.33813
-3.36071 -2.34655 -1.33934
-3.35636 -2.35926 -1.34056
-3.352 -2.37198 -1.34179
-3.34761 -2.38472 -1.34303
-3.3432 -2.39747 -1.34428
-3.33878 -2.41024 -1.34554
-3.33433 -2.42301 -1.34681
-3.32985 -2.43581 -1.3481
-3.32536 -2.44862 -1.34939
-3.32087 -2.46146 -1.3507
-3.31644 -2.47438 -1.35206
-3.31199 -2.48732 -1.35343
-3.30756 -2.50031 -1.35483
-3.30546 -2.5151 -1.3572
-3.30341 -2.52999 -1.35962
-3.30149 -2.54504 -1.36212
-3.29956 -2.56013 -1.36464
-3.2976 -2.57528 -1.36717
-3.29562 -2.59046 -1.36972
-3.29362 -2.60569 -1.37229
-3.29159 -2.62097 -1.37487
-3.28954 -2.63629 -1.37747
-3.28747 -2.65165 -1.38009
-3.28537 -2.66707 -1.38273
-3.28212 -2.6816 -1.3849
-3.27861 -2.69598 -1.387
-3.27508 -2.71039 -1.3891
-3.27151 -2.72482 -1.39122
-3.26791 -2.73928 -1.39334
-3.26427 -2.75376 -1.39548
-3.26061 -2.76828 -1.39763
-3.2569 -2.78281 -1.39979
-6.05294 -1.59202 -2.10285
-5.97647 -1.59203 -2.07801
-5.90176 -1.59203 -2.05377
-5.82879 -1.59203 -2.0301
-5.75748 -1.59204 -2.007
-5.68777 -1.59204 -1.98444
-5.61962 -1.59204 -1.9624
-5.55295 -1.59205 -1.94085
-5.48773 -1.59205 -1.9198
-5.39737 -1.58426 -1.88992
-5.34384 -1.58682 -1.87292
-5.29124 -1.58934 -1.85623
-5.23958 -1.59181 -1.83985
-5.18881 -1.59423 -1.82378
-5.13891 -1.59661 -1.808
-5.08986 -1.59894 -1.7925
-5.04164 -1.60124 -1.77728
-4.99422 -1.60349 -1.76234
-4.94759 -1.60571 -1.74765
-4.90173 -1.60788 -1.73323
-4.85258 -1.60869 -1.71763
-4.80249 -1.60887 -1.70169
-4.75333 -1.60905 -1.68605
-4.70505 -1.60922 -1.67072
-4.65764 -1.60939 -1.65567
-4.61107 -1.60956 -1.64091
-4.56533 -1.60972 -1.62642
-4.52038 -1.60988 -1.61221
-4.4777 -1.61057 -1.59878
-4.43734 -1.61184 -1.58618
-4.39762 -1.61309 -1.57378
-4.36804 -1.61784 -1.56501
-4.3392 -1.6227 -1.5565
-4.31065 -1.6275 -1.54809
-4.2824 -1.63225 -1.53978
-4.25443 -1.63693 -1.53157
-4.22675 -1.64157 -1.52345
-4.19935 -1.64615 -1.51544
-4.17222 -1.65067 -1.50751
-4.14536 -1.65515 -1.49968
-4.11876 -1.65957 -1.49194
-4.09243 -1.66394 -1.48429
-4.06635 -1.66827 -1.47673
-4.04052 -1.67254 -1.46925
-4.01494 -1.67677 -1.46186
-3.98961 -1.68095 -1.45456
-3.96731 -1.68627 -1.44835
-3.94606 -1.69191 -1.44253
-3.92497 -1.69751 -1.43677
-3.90404 -1.70305 -1.43106
-3.88326 -1.70855 -1.42541
-3.86264 -1.714 -1.41981
-3.84216 -1.7194 -1.41426
-3.82184 -1.72476 -1.40877
-3.80166 -1.73007 -1.40333
-3.78162 -1.73533 -1.39795
-3.76174 -1.74055 -1.39261
-3.74159 -1.74554 -1.38718
-3.72026 -1.74986 -1.38131
-3.6991 -1.75414 -1.37549
-3.6781 -1.75838 -1.36973
-3.65727 -1.76258 -1.36403
-3.63659 -1.76673 -1.35839
-3.61967 -1.7726 -1.35414
-3.60618 -1.78009 -1.35119
-3.59378 -1.78805 -1.34864
-3.58171 -1.79612 -1.34622
-3.56883 -1.80374 -1.34351
-3.55577 -1.8112 -1.34073
-3.54275 -1.81863 -1.33797
-3.52978 -1.82603 -1.33524
-3.51685 -1.83339 -1.33252
-3.50701 -1.84232 -1.33098
-3.50257 -1.85407 -1.33151
-3.49812 -1.86582 -1.33204
-3.49364 -1.87757 -1.33258
-3.48915 -1.88933 -1.33312
-3.48464 -1.90109 -1.33368
-3.48012 -1.91285 -1.33424
-3.47557 -1.92462 -1.33482
-3.47101 -1.93638 -1.3354
-3.46643 -1.94816 -1.33599
-3.46184 -1.95993 -1.33659
-3.45723 -1.9717 -1.33719
-3.45259 -1.98349 -1.33781
-3.44795 -1.99527 -1.33843
-3.44328 -2.00705 -1.33907
-3.4386 -2.01884 -1.33971
-3.4339 -2.03064 -1.34036
-3.42897 -2.04231 -1.34094
-3.42392 -2.05392 -1.34148
-3.41885 -2.06554 -1.34204
-3.41376 -2.07715 -1.3426
-3.40866 -2.08877 -1.34317
-3.40355 -2.10039 -1.34375
-3.39841 -2.11201 -1.34434
-3.39326 -2.12364 -1.34494
-3.38809 -2.13527 -1.34554
-3.3829 -2.1469 -1.34616
-3.3786 -2.15911 -1.34715
-3.37454 -2.17149 -1.34824
-3.37045 -2.18389 -1.34935
-3.36635 -2.19629 -1.35046
-3.36222 -2.20871 -1.35159
-3.35807 -2.22114 -1.35272
-3.35391 -2.23359 -1.35387
-3.34972 -2.24604 -1.35503
-3.34552 -2.25851 -1.35619
-3.34129 -2.27099 -1.35737
-3.33704 -2.28349 -1.35855
-3.33277 -2.29599 -1.35975
-3.32849 -2.30851 -1.36096
-3.32418 -2.32105 -1.36217
-3.31985 -2.33359 -1.3634
-3.3155 -2.34615 -1.36464
-3.31112 -2.35873 -1.36589
-3.30673 -2.37132 -1.36715
-3.30232 -2.38392 -1.36841
-3.29788 -2.39653 -1.36969
-3.29343 -2.40917 -1.37099
-3.28895 -2.42181 -1.37229
-3.28445 -2.43447 -1.3736
-3.27993 -2.44714 -1.37492
-3.27457 -2.45922 -1.37591
-3.26857 -2.47083 -1.37665
-3.26268 -2.48254 -1.37745
-3.25833 -2.49546 -1.37892
-3.25422 -2.50859 -1.38051
-3.25022 -2.52185 -1.38218
-3.2462 -2.53513 -1.38385
-3.24215 -2.54843 -1.38553
-3.23862 -2.56218 -1.38746
-3.23524 -2.5761 -1.38948
-3.23184 -2.59005 -1.39151
-3.22841 -2.60401 -1.39356
-3.22494 -2.61801 -1.39561
-3.22144 -2.63202 -1.39767
-3.21791 -2.64607 -1.39974
-3.21435 -2.66013 -1.40183
-3.21076 -2.67422 -1.40392
-3.20713 -2.68833 -1.40603
-3.20347 -2.70248 -1.40815
-3.19978 -2.71664 -1.41027
-3.19606 -2.73082 -1.41241
-6.05294 -1.59202 -2.1609
-5.97647 -1.59203 -2.13537
-5.90176 -1.59203 -2.11046
-5.82879 -1.59203 -2.08615
-5.75748 -1.59204 -2.06241
-5.68777 -1.59204 -2.03922
-5.61962 -1.59204 -2.01657
-5.55295 -1.59205 -1.99444
-5.48773 -1.59205 -1.9728
-5.42392 -1.59205 -1.95165
-5.33239 -1.58342 -1.9205
-5.27246 -1.58369 -1.9007
-5.2202 -1.58592 -1.88365
-5.16978 -1.58838 -1.86725
-5.12023 -1.5908 -1.85115
-5.07151 -1.59318 -1.83534
-5.02361 -1.59552 -1.81982
-4.97652 -1.59781 -1.80457
-4.9302 -1.60006 -1.78959
-4.88464 -1.60228 -1.77487
-4.8398 -1.60445 -1.76041
-4.79206 -1.60538 -1.74487
-4.74309 -1.60559 -1.72887
-4.69502 -1.60579 -1.71318
-4.64779 -1.60599 -1.69778
-4.60141 -1.60619 -1.68268
-4.55585 -1.60638 -1.66785
-4.51107 -1.60656 -1.6533
-4.46894 -1.60742 -1.63971
-4.42873 -1.60871 -1.6268
-4.38915 -1.60998 -1.61412
-4.35017 -1.61123 -1.60164
-4.3118 -1.61246 -1.58937
-4.274 -1.61367 -1.5773
-4.24499 -1.61799 -1.56847
-4.21747 -1.62271 -1.56018
-4.19022 -1.62738 -1.55198
-4.16325 -1.63199 -1.54389
-4.13653 -1.63656 -1.53588
-4.11009 -1.64107 -1.52797
-4.0839 -1.64552 -1.52015
-4.05796 -1.64993 -1.51242
-4.03227 -1.65429 -1.50478
-4.00683 -1.6586 -1.49723
-3.98163 -1.66286 -1.48976
-3.95836 -1.66778 -1.483
-3.93723 -1.67348 -1.47705
-3.91626 -1.67914 -1.47116
-3.89545 -1.68474 -1.46533
-3.87479 -1.69029 -1.45955
-3.85428 -1.6958 -1.45382
-3.83392 -1.70126 -1.44816
-3.81371 -1.70667 -1.44254
-3.79364 -1.71204 -1.43698
-3.77235 -1.71673 -1.43096
-3.75084 -1.72121 -1.42484
-3.72951 -1.72564 -1.4188
-3.70834 -1.73003 -1.41281
-3.68733 -1.73438 -1.40688
-3.66649 -1.73868 -1.401
-3.64582 -1.74295 -1.39519
-3.6253 -1.74717 -1.38944
-3.60494 -1.75135 -1.38374
-3.58868 -1.75743 -1.37961
-3.57538 -1.76489 -1.37663
-3.56213 -1.7723 -1.37366
-3.54992 -1.78018 -1.37111
-3.53805 -1.78818 -1.36869
-3.5262 -1.79615 -1.36629
-3.51378 -1.80376 -1.36367
-3.50097 -1.81113 -1.3609
-3.48821 -1.81845 -1.35815
-3.47548 -1.82575 -1.35543
-3.46535 -1.83436 -1.35372
-3.46092 -1.84598 -1.35426
-3.45648 -1.8576 -1.3548
-3.45202 -1.86923 -1.35535
-3.44755 -1.88085 -1.35591
-3.44305 -1.89248 -1.35648
-3.43854 -1.90411 -1.35705
-3.43402 -1.91574 -1.35764
-3.42947 -1.92738 -1.35823
-3.42491 -1.93902 -1.35883
-3.42033 -1.95066 -1.35944
-3.41573 -1.96231 -1.36006
-3.41111 -1.97395 -1.36069
-3.40648 -1.9856 -1.36133
-3.40183 -1.99726 -1.36197
-3.39716 -2.00891 -1.36263
-3.39247 -2.02057 -1.36329
-3.38777 -2.03224 -1.36396
-3.38304 -2.0439 -1.36464
-3.3783 -2.05557 -1.36533
-3.37354 -2.06725 -1.36603
-3.36877 -2.07893 -1.36674
-3.36386 -2.09054 -1.36741
-3.35874 -2.10203 -1.36801
-3.35361 -2.11353 -1.36862
-3.34846 -2.12504 -1.36924
-3.34329 -2.13654 -1.36987
-3.33842 -2.14825 -1.37063
-3.33435 -2.16049 -1.37175
-3.33026 -2.17275 -1.37287
-3.32615 -2.18502 -1.374
-3.32202 -2.19729 -1.37514
-3.31786 -2.20958 -1.37629
-3.31369 -2.22189 -1.37746
-3.3095 -2.2342 -1.37863
-3.30529 -2.24652 -1.37981
-3.30106 -2.25886 -1.381
-3.2968 -2.27121 -1.38221
-3.29253 -2.28358 -1.38342
-3.28824 -2.29595 -1.38465
-3.28302 -2.30771 -1.3855
-3.27732 -2.31914 -1.38617
-3.2716 -2.33057 -1.38684
-3.26585 -2.342 -1.38752
-3.26008 -2.35343 -1.38821
-3.25429 -2.36485 -1.3889
-3.24847 -2.37628 -1.3896
-3.24262 -2.3877 -1.39031
-3.23676 -2.39912 -1.39102
-3.23087 -2.41054 -1.39174
-3.22495 -2.42195 -1.39247
-3.22053 -2.43452 -1.39386
-3.21622 -2.4472 -1.39532
-3.21189 -2.45989 -1.39679
-3.20753 -2.4726 -1.39827
-3.20315 -2.48533 -1.39976
-3.19874 -2.49807 -1.40126
-3.19463 -2.51108 -1.40292
-3.19055 -2.52415 -1.40461
-3.18645 -2.53725 -1.40631
-3.18232 -2.55036 -1.40802
-3.17816 -2.56349 -1.40974
-3.17398 -2.57664 -1.41147
-3.16977 -2.5898 -1.41322
-3.16553 -2.60299 -1.41497
-3.16126 -2.61619 -1.41674
-3.15696 -2.62942 -1.41851
-3.15264 -2.64266 -1.4203
-3.14829 -2.65592 -1.42209
-3.14391 -2.6692 -1.4239
-3.1395 -2.6825 -1.42572
-6.05294 -1.59202 -2.21929
-5.97647 -1.59203 -2.19307
-5.90177 -1.59203 -2.16749
-5.82879 -1.59203 -2.14251
-5.75748 -1.59204 -2.11813
-5.68777 -1.59204 -2.09432
-5.61962 -1.59204 -2.07106
-5.55295 -1.59205 -2.04832
-5.48773 -1.59205 -2.02611
-5.42392 -1.59205 -2.00438
-5.33206 -1.58333 -1.97227
-5.27214 -1.5836 -1.95194
-5.21345 -1.58387 -1.93205
-5.15594 -1.58413 -1.91257
-5.10157 -1.58501 -1.89424
-5.05319 -1.58742 -1.87812
-5.00562 -1.5898 -1.86229
-4.95884 -1.59213 -1.84674
-4.91283 -1.59443 -1.83147
-4.86757 -1.59668 -1.81646
-4.82303 -1.59889 -1.80171
-4.77921 -1.60107 -1.78721
-4.73285 -1.60212 -1.77175
-4.68497 -1.60235 -1.7557
-4.63793 -1.60258 -1.73996
-4.59173 -1.60281 -1.72451
-4.54635 -1.60303 -1.70935
-4.50175 -1.60324 -1.69447
-4.46016 -1.60426 -1.6807
-4.42009 -1.60557 -1.6675
-4.38066 -1.60686 -1.65452
-4.34183 -1.60814 -1.64176
-4.30359 -1.60939 -1.62921
-4.26593 -1.61062 -1.61686
-4.22882 -1.61183 -1.60471
-4.19228 -1.61302 -1.59276
-4.15626 -1.61419 -1.581
-4.12755 -1.61801 -1.57201
-4.10126 -1.6226 -1.56393
-4.07521 -1.62714 -1.55594
-4.04942 -1.63163 -1.54804
-4.02388 -1.63607 -1.54024
-3.99857 -1.64046 -1.53252
-3.97352 -1.6448 -1.52489
-3.94928 -1.64935 -1.51758
-3.92828 -1.65511 -1.5115
-3.90743 -1.66082 -1.50548
-3.88674 -1.66648 -1.49952
-3.8662 -1.67209 -1.49362
-3.84581 -1.67765 -1.48777
-3.82489 -1.68287 -1.48172
-3.80303 -1.68755 -1.4753
-3.78135 -1.69219 -1.46895
-3.75984 -1.69678 -1.46266
-3.7385 -1.70133 -1.45643
-3.71733 -1.70583 -1.45027
-3.69632 -1.71029 -1.44417
-3.67548 -1.7147 -1.43812
-3.6548 -1.71907 -1.43214
-3.63428 -1.72341 -1.42622
-3.61391 -1.7277 -1.42035
-3.5937 -1.73194 -1.41454
-3.57365 -1.73615 -1.40879
-3.55804 -1.74243 -1.40479
-3.54492 -1.74985 -1.40178
-3.53185 -1.75724 -1.39879
-3.51882 -1.76459 -1.39582
-3.5068 -1.77239 -1.39326
-3.49511 -1.78031 -1.39083
-3.48346 -1.7882 -1.38843
-3.47184 -1.79605 -1.38604
-3.45987 -1.80368 -1.38352
-3.4473 -1.81095 -1.38077
-3.43477 -1.81817 -1.37803
-3.42431 -1.82645 -1.37613
-3.4199 -1.83794 -1.37668
-3.41547 -1.84943 -1.37723
-3.41103 -1.86093 -1.37779
-3.40657 -1.87243 -1.37836
-3.40209 -1.88392 -1.37894
-3.39759 -1.89542 -1.37953
-3.39308 -1.90693 -1.38013
-3.38855 -1.91844 -1.38073
-3.384 -1.92994 -1.38135
-3.37944 -1.94146 -1.38197
-3.37485 -1.95297 -1.3826
-3.37025 -1.96449 -1.38324
-3.36563 -1.97601 -1.38389
-3.361 -1.98753 -1.38455
-3.35634 -1.99905 -1.38521
-3.35167 -2.01058 -1.38589
-3.34698 -2.02211 -1.38657
-3.34227 -2.03365 -1.38727
-3.33754 -2.04519 -1.38797
-3.3328 -2.05673 -1.38868
-3.32804 -2.06828 -1.3894
-3.32325 -2.07983 -1.39013
-3.31845 -2.09138 -1.39086
-3.31364 -2.10294 -1.39161
-3.3088 -2.1145 -1.39237
-3.30394 -2.12606 -1.39313
-3.29907 -2.13763 -1.3939
-3.29445 -2.14939 -1.3948
-3.28907 -2.16066 -1.3954
-3.28367 -2.17193 -1.396
-3.27824 -2.18319 -1.3966
-3.27279 -2.19446 -1.39721
-3.26731 -2.20572 -1.39783
-3.26182 -2.21698 -1.39846
-3.2563 -2.22823 -1.39909
-3.25075 -2.23949 -1.39973
-3.24518 -2.25074 -1.40037
-3.23959 -2.26199 -1.40102
-3.23398 -2.27324 -1.40168
-3.22834 -2.28448 -1.40234
-3.22268 -2.29573 -1.40302
-3.217 -2.30697 -1.40369
-3.21129 -2.3182 -1.40438
-3.20556 -2.32944 -1.40507
-3.1998 -2.34068 -1.40577
-3.19402 -2.35191 -1.40647
-3.18822 -2.36314 -1.40718
-3.18362 -2.37528 -1.40844
-3.17938 -2.38772 -1.40988
-3.17511 -2.40018 -1.41133
-3.17082 -2.41265 -1.41279
-3.1665 -2.42513 -1.41426
-3.16216 -2.43762 -1.41574
-3.15778 -2.45013 -1.41723
-3.15339 -2.46265 -1.41872
-3.14897 -2.47519 -1.42023
-3.14452 -2.48774 -1.42175
-3.14005 -2.5003 -1.42328
-3.13593 -2.51318 -1.42498
-3.13177 -2.52607 -1.4267
-3.12759 -2.53898 -1.42843
-3.12339 -2.55191 -1.43017
-3.11915 -2.56486 -1.43191
-3.11489 -2.57782 -1.43367
-3.1106 -2.5908 -1.43544
-3.10628 -2.6038 -1.43722
-3.10194 -2.61682 -1.43902
-3.09756 -2.62985 -1.44082
-3.09316 -2.6429 -1.44263
-5.97647 -1.59203 -2.25111
-5.90177 -1.59203 -2.22485
-5.82879 -1.59203 -2.19921
-5.75748 -1.59204 -2.17419
-5.68777 -1.59204 -2.14975
-5.61962 -1.59204 -2.12587
-5.55295 -1.59205 -2.10253
-5.48773 -1.59205 -2.07973
-5.42392 -1.59205 -2.05743
-5.33174 -1.58323 -2.02434
-5.27182 -1.5835 -2.00347
-5.21314 -1.58377 -1.98306
-5.15563 -1.58404 -1.96307
-5.09928 -1.58429 -1.9435
-5.04403 -1.58455 -1.92433
-4.98986 -1.58479 -1.90556
-4.94118 -1.58646 -1.88887
-4.89548 -1.58879 -1.8733
-4.85052 -1.59109 -1.858
-4.80627 -1.59334 -1.84296
-4.76273 -1.59555 -1.82818
-4.71988 -1.59773 -1.81365
-4.6749 -1.59891 -1.79829
-4.62805 -1.59917 -1.7822
-4.58204 -1.59942 -1.76641
-4.53684 -1.59967 -1.75091
-4.49241 -1.59992 -1.7357
-4.45136 -1.60109 -1.72178
-4.41145 -1.60243 -1.70828
-4.37215 -1.60374 -1.69501
-4.33346 -1.60504 -1.68196
-4.29537 -1.60631 -1.66913
-4.25783 -1.60756 -1.6565
-4.22086 -1.60879 -1.64408
-4.18444 -1.61 -1.63186
-4.14855 -1.6112 -1.61983
-4.11318 -1.61237 -1.60799
-4.07833 -1.61353 -1.59634
-4.04397 -1.61467 -1.58487
-4.01532 -1.61789 -1.57563
-3.99016 -1.62236 -1.56776
-3.96524 -1.62679 -1.55997
-3.94055 -1.63116 -1.55226
-3.9192 -1.63678 -1.54588
-3.89848 -1.64255 -1.53973
-3.87789 -1.64826 -1.53364
-3.85567 -1.65316 -1.5269
-3.83363 -1.658 -1.52023
-3.81177 -1.6628 -1.51363
-3.79009 -1.66756 -1.5071
-3.76858 -1.67226 -1.50063
-3.74724 -1.67692 -1.49422
-3.72606 -1.68154 -1.48788
-3.70506 -1.68611 -1.48161
-3.68421 -1.69063 -1.47539
-3.66353 -1.69512 -1.46924
-3.64301 -1.69955 -1.46314
-3.62265 -1.70395 -1.45711
-3.60244 -1.70831 -1.45114
-3.58238 -1.71262 -1.44522
-3.56247 -1.71689 -1.43936
-3.54272 -1.72113 -1.43356
-3.52775 -1.72759 -1.42969
-3.5148 -1.73498 -1.42665
-3.5019 -1.74234 -1.42363
-3.48905 -1.74966 -1.42064
-3.47623 -1.75694 -1.41766
-3.46438 -1.76466 -1.41509
-3.45289 -1.7725 -1.41266
-3.44142 -1.78032 -1.41026
-3.42997 -1.7881 -1.40786
-3.41856 -1.79585 -1.40549
-3.40704 -1.80349 -1.40308
-3.39471 -1.81066 -1.40034
-3.38387 -1.81858 -1.39822
-3.37948 -1.82994 -1.39878
-3.37506 -1.84131 -1.39934
-3.37064 -1.85268 -1.39992
-3.36619 -1.86405 -1.4005
-3.36173 -1.87542 -1.40109
-3.35725 -1.88679 -1.40169
-3.35275 -1.89817 -1.4023
-3.34823 -1.90954 -1.40292
-3.3437 -1.92093 -1.40354
-3.33915 -1.93231 -1.40418
-3.33458 -1.94369 -1.40482
-3.32999 -1.95508 -1.40547
-3.32539 -1.96647 -1.40613
-3.32077 -1.97787 -1.4068
-3.31613 -1.98926 -1.40748
-3.31147 -2.00066 -1.40817
-3.30679 -2.01206 -1.40886
-3.30147 -2.02309 -1.4093
-3.29551 -2.03372 -1.40948
-3.28954 -2.04435 -1.40967
-3.28354 -2.05497 -1.40986
-3.27752 -2.06558 -1.41006
-3.27149 -2.07619 -1.41027
-3.26543 -2.08679 -1.41048
-3.25938 -2.09739 -1.41071
-3.25334 -2.10801 -1.41096
-3.24729 -2.11862 -1.41122
-3.24121 -2.12922 -1.41148
-3.23525 -2.1399 -1.41181
-3.22988 -2.15099 -1.41241
-3.22449 -2.16207 -1.41302
-3.21908 -2.17316 -1.41364
-3.21364 -2.18423 -1.41426
-3.20818 -2.19531 -1.41489
-3.20269 -2.20638 -1.41553
-3.19719 -2.21745 -1.41617
-3.19166 -2.22852 -1.41682
-3.1861 -2.23958 -1.41748
-3.18053 -2.25065 -1.41814
-3.17493 -2.26171 -1.41881
-3.16931 -2.27277 -1.41948
-3.16366 -2.28382 -1.42016
-3.15799 -2.29487 -1.42085
-3.15229 -2.30593 -1.42155
-3.14755 -2.31769 -1.42269
-3.14337 -2.3299 -1.42411
-3.13917 -2.34212 -1.42553
-3.13495 -2.35436 -1.42697
-3.13069 -2.36661 -1.42842
-3.12642 -2.37887 -1.42987
-3.12212 -2.39114 -1.43134
-3.11779 -2.40342 -1.43281
-3.11343 -2.41572 -1.4343
-3.10905 -2.42803 -1.43579
-3.10465 -2.44035 -1.4373
-3.10021 -2.45268 -1.43881
-3.09575 -2.46503 -1.44033
-3.09127 -2.47739 -1.44187
-3.08676 -2.48976 -1.44341
-3.08228 -2.5022 -1.44499
-3.07808 -2.51489 -1.44672
-3.07386 -2.52761 -1.44846
-3.0696 -2.54034 -1.45022
-3.06532 -2.55309 -1.45198
-3.06101 -2.56585 -1.45376
-3.05667 -2.57863 -1.45554
-3.0523 -2.59143 -1.45734
-3.04791 -2.60424 -1.45914
-5.97647 -1.59203 -2.3095
-5.90177 -1.59203 -2.28256
-5.82879 -1.59203 -2.25626
-5.75748 -1.59204 -2.23059
-5.68777 -1.59204 -2.20551
-5.61962 -1.59204 -2.18101
-5.55295 -1.59205 -2.15707
-5.48773 -1.59205 -2.13367
-5.42392 -1.59205 -2.1108
-5.37073 -1.59481 -2.09204
-5.2715 -1.58341 -2.05532
-5.21283 -1.58368 -2.03437
-5.15532 -1.58394 -2.01387
-5.09898 -1.5842 -1.99379
-5.04373 -1.58445 -1.97413
-4.98957 -1.5847 -1.95487
-4.93646 -1.58495 -1.93601
-4.88436 -1.58518 -1.91752
-4.83349 -1.5855 -1.8995
-4.78953 -1.58779 -1.88418
-4.74628 -1.59004 -1.86912
-4.7037 -1.59225 -1.85432
-4.66179 -1.59443 -1.83977
-4.61816 -1.59575 -1.82452
-4.57233 -1.59604 -1.80839
-4.52731 -1.59631 -1.79256
-4.48306 -1.59659 -1.77702
-4.44255 -1.59792 -1.76294
-4.40278 -1.59928 -1.74915
-4.36363 -1.60062 -1.73559
-4.32508 -1.60193 -1.72225
-4.28712 -1.60323 -1.70913
-4.24972 -1.6045 -1.69623
-4.21288 -1.60575 -1.68353
-4.17659 -1.60698 -1.67104
-4.14082 -1.6082 -1.65875
-4.10558 -1.60939 -1.64665
-4.07084 -1.61057 -1.63474
-4.0366 -1.61172 -1.62302
-4.00284 -1.61286 -1.61148
-3.96956 -1.61399 -1.60011
-3.93674 -1.61509 -1.58892
-3.90875 -1.618 -1.57968
-3.88635 -1.62306 -1.57268
-3.86414 -1.62808 -1.56575
-3.8421 -1.63305 -1.5589
-3.82024 -1.63797 -1.55211
-3.79856 -1.64283 -1.5454
-3.77705 -1.64766 -1.53875
-3.75571 -1.65243 -1.53216
-3.73454 -1.65716 -1.52565
-3.71353 -1.66184 -1.51919
-3.69269 -1.66648 -1.5128
-3.67201 -1.67107 -1.50648
-3.65149 -1.67562 -1.50021
-3.63113 -1.68012 -1.49401
-3.61092 -1.68458 -1.48787
-3.59087 -1.689 -1.48179
-3.57096 -1.69338 -1.47577
-3.5512 -1.69772 -1.4698
-3.5316 -1.70201 -1.4639
-3.51213 -1.70627 -1.45805
-3.49779 -1.71292 -1.45432
-3.48502 -1.72028 -1.45125
-3.47229 -1.7276 -1.44821
-3.4596 -1.73489 -1.44519
-3.44695 -1.74214 -1.44219
-3.43435 -1.74936 -1.43921
-3.42267 -1.75699 -1.43662
-3.41135 -1.76476 -1.43419
-3.40005 -1.7725 -1.43178
-3.38879 -1.78021 -1.42939
-3.37754 -1.78788 -1.42701
-3.36633 -1.79553 -1.42466
-3.35514 -1.80314 -1.42231
-3.34402 -1.81074 -1.42001
-3.33964 -1.82198 -1.42057
-3.33524 -1.83322 -1.42115
-3.33083 -1.84446 -1.42173
-3.3264 -1.85571 -1.42233
-3.32195 -1.86695 -1.42293
-3.31748 -1.8782 -1.42354
-3.31291 -1.8894 -1.42412
-3.30722 -1.89997 -1.42424
-3.30151 -1.91053 -1.42436
-3.29578 -1.92108 -1.42449
-3.29004 -1.93162 -1.42463
-3.28427 -1.94216 -1.42477
-3.27849 -1.95268 -1.42492
-3.27268 -1.9632 -1.42507
-3.26686 -1.97371 -1.42523
-3.26102 -1.98421 -1.4254
-3.25516 -1.9947 -1.42557
-3.24928 -2.00519 -1.42575
-3.24338 -2.01566 -1.42594
-3.23746 -2.02613 -1.42613
-3.23152 -2.03659 -1.42633
-3.22558 -2.04705 -1.42655
-3.21965 -2.05753 -1.42678
-3.21371 -2.068 -1.42703
-3.20775 -2.07847 -1.42728
-3.20177 -2.08892 -1.42753
-3.19577 -2.09937 -1.42779
-3.18975 -2.10981 -1.42806
-3.18371 -2.12024 -1.42834
-3.17765 -2.13067 -1.42862
-3.17196 -2.14135 -1.42908
-3.16658 -2.15225 -1.4297
-3.16118 -2.16315 -1.43033
-3.15576 -2.17404 -1.43096
-3.15031 -2.18494 -1.4316
-3.14484 -2.19583 -1.43225
-3.13935 -2.20672 -1.4329
-3.13383 -2.2176 -1.43356
-3.12829 -2.22849 -1.43423
-3.12273 -2.23937 -1.4349
-3.11715 -2.25024 -1.43558
-3.11229 -2.26166 -1.43661
-3.10818 -2.27365 -1.43801
-3.10404 -2.28565 -1.43942
-3.09988 -2.29766 -1.44083
-3.0957 -2.30969 -1.44226
-3.09149 -2.32172 -1.44369
-3.08725 -2.33377 -1.44513
-3.08299 -2.34582 -1.44658
-3.0787 -2.35789 -1.44805
-3.07439 -2.36997 -1.44952
-3.07005 -2.38206 -1.451
-3.06569 -2.39416 -1.45249
-3.0613 -2.40627 -1.45399
-3.05688 -2.4184 -1.4555
-3.05244 -2.43054 -1.45702
-3.04797 -2.44269 -1.45855
-3.04348 -2.45486 -1.46008
-3.03896 -2.46703 -1.46163
-3.03441 -2.47922 -1.46319
-3.02984 -2.49142 -1.46476
-3.02469 -2.50317 -1.46606
-3.01815 -2.5138 -1.46672
-3.01158 -2.52441 -1.46738
-3.00497 -2.53502 -1.46804
-2.99834 -2.54561 -1.4687
-2.99167 -2.55619 -1.46937
-5.97647 -1.59203 -2.36826
-5.90177 -1.59203 -2.34063
-5.82879 -1.59203 -2.31366
-5.75748 -1.59204 -2.28733
-5.68777 -1.59204 -2.26162
-5.61962 -1.59204 -2.2365
-5.55295 -1.59205 -2.21195
-5.48773 -1.59205 -2.18795
-5.42392 -1.59205 -2.1645
-5.36142 -1.59204 -2.14154
-5.27284 -1.58381 -2.10814
-5.21288 -1.58369 -2.08615
-5.15504 -1.58385 -2.06499
-5.09867 -1.58411 -2.04439
-5.04345 -1.58436 -2.02424
-4.98928 -1.58461 -2.00449
-4.93617 -1.58485 -1.98515
-4.88408 -1.58509 -1.96619
-4.83297 -1.58533 -1.94762
-4.78281 -1.58556 -1.9294
-4.73359 -1.58579 -1.91155
-4.68753 -1.58678 -1.89496
-4.64589 -1.58899 -1.88013
-4.60488 -1.59116 -1.86555
-4.5626 -1.59264 -1.85045
-4.51776 -1.59295 -1.83428
-4.47395 -1.59334 -1.81852
-4.43372 -1.59475 -1.8042
-4.3941 -1.59613 -1.79011
-4.35509 -1.59748 -1.77626
-4.31668 -1.59882 -1.76263
-4.27885 -1.60013 -1.74924
-4.24159 -1.60143 -1.73605
-4.20488 -1.6027 -1.72308
-4.16871 -1.60395 -1.71032
-4.13308 -1.60519 -1.69777
-4.09797 -1.60641 -1.68541
-4.06366 -1.60772 -1.67337
-4.02983 -1.60902 -1.66152
-3.99647 -1.6103 -1.64985
-3.96358 -1.61156 -1.63835
-3.93114 -1.6128 -1.62703
-3.89904 -1.61398 -1.61584
-3.86733 -1.61512 -1.60479
-3.83604 -1.61624 -1.59391
-3.80675 -1.61802 -1.58385
-3.78524 -1.62296 -1.57702
-3.7639 -1.62785 -1.57025
-3.74274 -1.63269 -1.56356
-3.72174 -1.63748 -1.55693
-3.7009 -1.64223 -1.55037
-3.68022 -1.64693 -1.54387
-3.65971 -1.65159 -1.53743
-3.63935 -1.6562 -1.53106
-3.61914 -1.66077 -1.52475
-3.5991 -1.6653 -1.51851
-3.57919 -1.66978 -1.51232
-3.55945 -1.67422 -1.50619
-3.53984 -1.67862 -1.50012
-3.52038 -1.68298 -1.49411
-3.50106 -1.6873 -1.48816
-3.48189 -1.69158 -1.48226
-3.46815 -1.69841 -1.47868
-3.45555 -1.70573 -1.47559
-3.44299 -1.71303 -1.47252
-3.43047 -1.72028 -1.46947
-3.41799 -1.7275 -1.46645
-3.40555 -1.73469 -1.46345
-3.39315 -1.74184 -1.46046
-3.38162 -1.74938 -1.45786
-3.37047 -1.75708 -1.45543
-3.35935 -1.76474 -1.45302
-3.34825 -1.77238 -1.45063
-3.33718 -1.77998 -1.44825
-3.32614 -1.78755 -1.44589
-3.31493 -1.79499 -1.44346
-3.30372 -1.80239 -1.44104
-3.29462 -1.81089 -1.43955
-3.2891 -1.82136 -1.43964
-3.28356 -1.83181 -1.43973
-3.27801 -1.84226 -1.43983
-3.27243 -1.8527 -1.43993
-3.26684 -1.86312 -1.44004
-3.26122 -1.87354 -1.44016
-3.25559 -1.88396 -1.44028
-3.24994 -1.89436 -1.44041
-3.24427 -1.90475 -1.44055
-3.23858 -1.91514 -1.44069
-3.23287 -1.92552 -1.44084
-3.22714 -1.93588 -1.44099
-3.2214 -1.94624 -1.44115
-3.21563 -1.95659 -1.44132
-3.20985 -1.96694 -1.44149
-3.20404 -1.97727 -1.44167
-3.19822 -1.9876 -1.44186
-3.19238 -1.99792 -1.44205
-3.18658 -2.00827 -1.44228
-3.18075 -2.0186 -1.44251
-3.1749 -2.02893 -1.44274
-3.16904 -2.03925 -1.44299
-3.16315 -2.04957 -1.44323
-3.15724 -2.05987 -1.44349
-3.15132 -2.07017 -1.44375
-3.14538 -2.08046 -1.44402
-3.13941 -2.09074 -1.44429
-3.13343 -2.10101 -1.44457
-3.12742 -2.11128 -1.44486
-3.1214 -2.12154 -1.44516
-3.11536 -2.13179 -1.44546
-3.1099 -2.14245 -1.44604
-3.10451 -2.15317 -1.44668
-3.0991 -2.16389 -1.44732
-3.09367 -2.17461 -1.44797
-3.08821 -2.18532 -1.44863
-3.08273 -2.19603 -1.44929
-3.0778 -2.20714 -1.45023
-3.07375 -2.21892 -1.45161
-3.06968 -2.2307 -1.45299
-3.06558 -2.2425 -1.45438
-3.06146 -2.2543 -1.45579
-3.05732 -2.26611 -1.4572
-3.05315 -2.27794 -1.45862
-3.04895 -2.28978 -1.46005
-3.04473 -2.30162 -1.46149
-3.04049 -2.31348 -1.46294
-3.03622 -2.32535 -1.4644
-3.03192 -2.33723 -1.46586
-3.02711 -2.34874 -1.4671
-3.02068 -2.35901 -1.46757
-3.01421 -2.36927 -1.46805
-3.00772 -2.37951 -1.46852
-3.0012 -2.38974 -1.469
-2.99465 -2.39996 -1.46948
-2.98807 -2.41016 -1.46997
-2.98146 -2.42035 -1.47045
-2.97482 -2.43052 -1.47094
-2.96644 -2.43928 -1.47059
-2.95785 -2.44786 -1.47014
-2.94925 -2.45641 -1.4697
-2.94062 -2.46493 -1.46926
-2.93197 -2.47343 -1.46881
-2.9233 -2.4819 -1.46838
-2.91461 -2.49034 -1.46794
-5.90177 -1.59203 -2.39907
-5.82879 -1.59203 -2.37143
-5.75748 -1.59204 -2.34444
-5.68777 -1.59204 -2.31808
-5.61962 -1.59204 -2.29234
-5.55295 -1.59205 -2.26717
-5.48773 -1.59205 -2.24258
-5.42392 -1.59205 -2.21854
-5.373 -1.59548 -2.19975
-5.27236 -1.58367 -2.16058
-5.21691 -1.58492 -2.13989
-5.16091 -1.58566 -2.11896
-5.1004 -1.58464 -2.09615
-5.04481 -1.58479 -2.07534
-4.9903 -1.58493 -2.05496
-4.93687 -1.58508 -2.035
-4.88446 -1.58522 -2.01544
-4.83306 -1.58536 -1.99628
-4.78261 -1.58549 -1.97749
-4.73332 -1.5857 -1.95917
-4.68501 -1.58592 -1.94122
-4.63757 -1.58614 -1.92362
-4.59097 -1.58636 -1.90636
-4.54913 -1.58794 -1.89105
-4.50819 -1.58957 -1.8761
-4.46495 -1.59013 -1.86018
-4.42486 -1.59156 -1.84555
-4.38539 -1.59296 -1.83117
-4.34652 -1.59434 -1.81703
-4.30825 -1.5957 -1.80312
-4.27073 -1.59709 -1.7895
-4.23392 -1.59853 -1.77618
-4.19765 -1.59995 -1.76307
-4.16192 -1.60134 -1.75017
-4.1267 -1.60271 -1.73747
-4.09199 -1.60406 -1.72497
-4.05777 -1.60539 -1.71267
-4.02403 -1.60671 -1.70055
-3.99077 -1.608 -1.68862
-3.95796 -1.60927 -1.67687
-3.9256 -1.61053 -1.66531
-3.89357 -1.61171 -1.65386
-3.86193 -1.61286 -1.64257
-3.83073 -1.614 -1.63145
-3.79994 -1.61513 -1.62049
-3.76955 -1.61623 -1.60969
-3.73957 -1.61732 -1.59905
-3.70998 -1.6184 -1.58857
-3.68816 -1.62271 -1.58141
-3.66765 -1.62748 -1.5748
-3.6473 -1.6322 -1.56826
-3.6271 -1.63688 -1.56178
-3.60706 -1.64151 -1.55537
-3.58717 -1.6461 -1.54901
-3.56742 -1.65064 -1.54272
-3.54782 -1.65515 -1.53649
-3.52837 -1.65961 -1.53032
-3.50906 -1.66403 -1.52421
-3.48989 -1.66841 -1.51815
-3.47086 -1.67274 -1.51216
-3.45197 -1.67704 -1.50622
-3.43883 -1.68404 -1.50279
-3.42639 -1.69134 -1.49967
-3.414 -1.6986 -1.49658
-3.40164 -1.70583 -1.49351
-3.38932 -1.71301 -1.49046
-3.37705 -1.72017 -1.48743
-3.36481 -1.72729 -1.48443
-3.35261 -1.73437 -1.48144
-3.3412 -1.74182 -1.47881
-3.33001 -1.74933 -1.47629
-3.31885 -1.75681 -1.47379
-3.30772 -1.76426 -1.4713
-3.29661 -1.77168 -1.46883
-3.28552 -1.77907 -1.46638
-3.27446 -1.78642 -1.46394
-3.26343 -1.79375 -1.46153
-3.25242 -1.80104 -1.45913
-3.24144 -1.80831 -1.45674
-3.23277 -1.81684 -1.45541
-3.22727 -1.82713 -1.45552
-3.22175 -1.83741 -1.45563
-3.21621 -1.84769 -1.45574
-3.21065 -1.85795 -1.45586
-3.20508 -1.86821 -1.45599
-3.19948 -1.87845 -1.45613
-3.19386 -1.88869 -1.45627
-3.18823 -1.89893 -1.45642
-3.18258 -1.90915 -1.45657
-3.1769 -1.91936 -1.45673
-3.17121 -1.92957 -1.4569
-3.1655 -1.93976 -1.45707
-3.15977 -1.94995 -1.45725
-3.15408 -1.96017 -1.45746
-3.14836 -1.97037 -1.45768
-3.14263 -1.98057 -1.4579
-3.13687 -1.99076 -1.45813
-3.1311 -2.00094 -1.45837
-3.12531 -2.01111 -1.45861
-3.1195 -2.02128 -1.45885
-3.11367 -2.03144 -1.45911
-3.10782 -2.04159 -1.45937
-3.10195 -2.05173 -1.45964
-3.09606 -2.06187 -1.45991
-3.09014 -2.07199 -1.46019
-3.08422 -2.08211 -1.46048
-3.07827 -2.09222 -1.46077
-3.0723 -2.10233 -1.46107
-3.06631 -2.11242 -1.46137
-3.0603 -2.12251 -1.46169
-3.05439 -2.13267 -1.46206
-3.04901 -2.14322 -1.46271
-3.04403 -2.15406 -1.46356
-3.04005 -2.16562 -1.46491
-3.03604 -2.1772 -1.46627
-3.03201 -2.18879 -1.46765
-3.02666 -2.19944 -1.4684
-3.02063 -2.20961 -1.46884
-3.01456 -2.21977 -1.46928
-3.00847 -2.22991 -1.46972
-3.00235 -2.24004 -1.47016
-2.9962 -2.25016 -1.47061
-2.99002 -2.26027 -1.47106
-2.98381 -2.27036 -1.47151
-2.97758 -2.28044 -1.47197
-2.97131 -2.29051 -1.47243
-2.96502 -2.30056 -1.47289
-2.9587 -2.31061 -1.47335
-2.95235 -2.32064 -1.47382
-2.94597 -2.33065 -1.47428
-2.93956 -2.34066 -1.47476
-2.93312 -2.35065 -1.47523
-2.92666 -2.36062 -1.47571
-2.91922 -2.36982 -1.47571
-2.91087 -2.37828 -1.47526
-2.90251 -2.38671 -1.47482
-2.89413 -2.39512 -1.47438
-2.88572 -2.4035 -1.47395
-2.8773 -2.41185 -1.47351
-2.86885 -2.42019 -1.47308
-2.86039 -2.42849 -1.47265
-2.8519 -2.43677 -1.47222
-5.82879 -1.59203 -2.42957
-5.75748 -1.59204 -2.40192
-5.68777 -1.59204 -2.37492
-5.61962 -1.59204 -2.34854
-5.55295 -1.59205 -2.32276
-5.48773 -1.59205 -2.29757
-5.42392 -1.59205 -2.27293
-5.3847 -1.59896 -2.2586
-5.27188 -1.58352 -2.21335
-5.21644 -1.58477 -2.19216
-5.16203 -1.586 -2.17138
-5.10865 -1.58721 -2.15102
-5.0526 -1.58724 -2.12951
-4.99435 -1.58622 -2.10705
-4.93878 -1.58569 -2.0857
-4.88634 -1.58583 -2.06565
-4.8349 -1.58596 -2.046
-4.78441 -1.58609 -2.02674
-4.73488 -1.58622 -2.00786
-4.68625 -1.58634 -1.98935
-4.63853 -1.58647 -1.97119
-4.59165 -1.58659 -1.95339
-4.54562 -1.58671 -1.93592
-4.50041 -1.58683 -1.91878
-4.45643 -1.5871 -1.90215
-4.41668 -1.58862 -1.8873
-4.37769 -1.59017 -1.87277
-4.33929 -1.59169 -1.85848
-4.30147 -1.59319 -1.84442
-4.26423 -1.59466 -1.83059
-4.22753 -1.59612 -1.81698
-4.19136 -1.59755 -1.80359
-4.15573 -1.59896 -1.79041
-4.12061 -1.60034 -1.77744
-4.08599 -1.60171 -1.76467
-4.05186 -1.60306 -1.7521
-4.01822 -1.60438 -1.73973
-3.98503 -1.60569 -1.72754
-3.95232 -1.60698 -1.71554
-3.92004 -1.60824 -1.70372
-3.88807 -1.60944 -1.69202
-3.85652 -1.6106 -1.68048
-3.82539 -1.61176 -1.66912
-3.79468 -1.61289 -1.65792
-3.76437 -1.61401 -1.64689
-3.73447 -1.61512 -1.63603
-3.70495 -1.61621 -1.62532
-3.67582 -1.61728 -1.61476
-3.64706 -1.61834 -1.60435
-3.61866 -1.61938 -1.59409
-3.59487 -1.62233 -1.58585
-3.57514 -1.62698 -1.5794
-3.55554 -1.63159 -1.573
-3.5361 -1.63615 -1.56667
-3.5168 -1.64067 -1.5604
-3.49764 -1.64515 -1.55419
-3.47862 -1.64959 -1.54803
-3.45974 -1.65399 -1.54194
-3.44099 -1.65835 -1.5359
-3.42238 -1.66266 -1.52992
-3.40981 -1.66983 -1.52664
-3.39753 -1.6771 -1.5235
-3.3853 -1.68433 -1.52038
-3.37311 -1.69152 -1.51729
-3.36096 -1.69868 -1.51422
-3.34884 -1.7058 -1.51117
-3.33475 -1.71186 -1.50724
-3.3195 -1.71724 -1.50278
-3.30549 -1.7232 -1.49888
-3.29555 -1.73123 -1.49684
-3.28563 -1.73922 -1.49481
-3.27571 -1.74719 -1.49279
-3.26581 -1.75513 -1.49078
-3.25591 -1.76303 -1.48879
-3.24553 -1.77064 -1.48659
-3.23465 -1.77793 -1.48415
-3.22378 -1.78519 -1.48174
-3.21294 -1.79241 -1.47934
-3.20212 -1.79961 -1.47696
-3.19132 -1.80678 -1.47459
-3.18055 -1.81391 -1.47225
-3.17214 -1.82237 -1.471
-3.16666 -1.83249 -1.47112
-3.16115 -1.8426 -1.47125
-3.15563 -1.85271 -1.47138
-3.15009 -1.86281 -1.47152
-3.14452 -1.87289 -1.47167
-3.13894 -1.88297 -1.47183
-3.13334 -1.89304 -1.47199
-3.12773 -1.90311 -1.47215
-3.12214 -1.91319 -1.47235
-3.11653 -1.92327 -1.47255
-3.11091 -1.93334 -1.47276
-3.10526 -1.9434 -1.47297
-3.0996 -1.95345 -1.4732
-3.09392 -1.9635 -1.47342
-3.08822 -1.97354 -1.47366
-3.0825 -1.98357 -1.4739
-3.07676 -1.99359 -1.47415
-3.071 -2.0036 -1.4744
-3.06522 -2.01361 -1.47466
-3.05943 -2.02361 -1.47493
-3.05361 -2.0336 -1.4752
-3.04777 -2.04358 -1.47548
-3.04192 -2.05356 -1.47576
-3.03476 -2.06265 -1.47543
-3.0275 -2.07167 -1.47506
-3.02023 -2.08068 -1.4747
-3.01293 -2.08966 -1.47434
-3.00562 -2.09862 -1.47399
-2.99845 -2.10767 -1.47371
-2.99127 -2.11672 -1.47345
-2.98408 -2.12575 -1.4732
-2.9774 -2.13514 -1.47321
-2.97152 -2.14512 -1.47363
-2.96562 -2.15508 -1.47406
-2.95969 -2.16503 -1.47449
-2.95373 -2.17497 -1.47492
-2.94774 -2.1849 -1.47536
-2.94173 -2.19481 -1.4758
-2.93568 -2.20471 -1.47624
-2.92961 -2.2146 -1.47668
-2.92351 -2.22447 -1.47712
-2.91738 -2.23434 -1.47757
-2.91122 -2.24419 -1.47802
-2.90504 -2.25403 -1.47848
-2.89883 -2.26385 -1.47893
-2.89259 -2.27366 -1.47939
-2.88632 -2.28346 -1.47985
-2.88002 -2.29325 -1.48031
-2.87343 -2.30281 -1.48064
-2.86533 -2.31116 -1.48021
-2.8572 -2.31948 -1.47977
-2.84905 -2.32777 -1.47933
-2.84088 -2.33604 -1.4789
-2.8327 -2.34428 -1.47847
-2.82449 -2.3525 -1.47804
-2.81626 -2.36069 -1.47762
-2.80801 -2.36886 -1.47719
-2.79974 -2.377 -1.47677
-2.79146 -2.38512 -1.47635
-5.75748 -1.59204 -2.45979
-5.68778 -1.59204 -2.43214
-5.61963 -1.59204 -2.40513
-5.55295 -1.59205 -2.37872
-5.48773 -1.59205 -2.35292
-5.42392 -1.59205 -2.32769
-5.42357 -1.6105 -2.32971
-5.42562 -1.6297 -2.33278
-5.21596 -1.58463 -2.24477
-5.16157 -1.58586 -2.22349
-5.1082 -1.58707 -2.20264
-5.05582 -1.58825 -2.1822
-5.00439 -1.58941 -2.16215
-4.94843 -1.58879 -2.14012
-4.89235 -1.58778 -2.11802
-4.83743 -1.58679 -2.09639
-4.78623 -1.58669 -2.07636
-4.73666 -1.58682 -2.05701
-4.688 -1.58694 -2.03804
-4.64024 -1.58705 -2.01943
-4.59333 -1.58717 -2.00118
-4.54727 -1.58729 -1.98328
-4.50203 -1.5874 -1.96572
-4.45798 -1.58765 -1.94866
-4.41581 -1.5883 -1.9324
-4.37415 -1.58888 -1.91634
-4.33303 -1.5894 -1.90051
-4.29485 -1.59073 -1.88595
-4.25771 -1.59223 -1.87183
-4.22111 -1.5937 -1.85793
-4.18505 -1.59514 -1.84426
-4.14951 -1.59657 -1.83081
-4.11449 -1.59797 -1.81756
-4.07996 -1.59935 -1.80452
-4.04593 -1.60071 -1.79169
-4.01237 -1.60205 -1.77905
-3.97928 -1.60337 -1.76661
-3.94665 -1.60467 -1.75435
-3.91446 -1.60595 -1.74228
-3.88256 -1.60715 -1.73032
-3.85109 -1.60834 -1.71855
-3.82004 -1.6095 -1.70694
-3.7894 -1.61065 -1.69551
-3.75918 -1.61178 -1.68424
-3.72935 -1.6129 -1.67314
-3.6999 -1.614 -1.6622
-3.67084 -1.61509 -1.65142
-3.64215 -1.61616 -1.64079
-3.61382 -1.61722 -1.63032
-3.58585 -1.61826 -1.61999
-3.55824 -1.61929 -1.6098
-3.53096 -1.62031 -1.59976
-3.50512 -1.62182 -1.59036
-3.48611 -1.62636 -1.58405
-3.46724 -1.63085 -1.5778
-3.4485 -1.63531 -1.5716
-3.4299 -1.63972 -1.56547
-3.41143 -1.6441 -1.55939
-3.39323 -1.6485 -1.55343
-3.38108 -1.65577 -1.55025
-3.36897 -1.663 -1.54709
-3.3569 -1.67019 -1.54395
-3.34487 -1.67736 -1.54084
-3.32975 -1.6829 -1.5363
-3.31461 -1.68836 -1.53176
-3.29954 -1.69378 -1.52725
-3.28455 -1.69916 -1.52278
-3.26963 -1.70451 -1.51834
-3.25916 -1.71211 -1.51597
-3.24939 -1.72004 -1.51394
-3.23963 -1.72795 -1.51192
-3.22988 -1.73582 -1.50991
-3.22014 -1.74367 -1.50791
-3.21042 -1.75148 -1.50593
-3.2007 -1.75927 -1.50396
-3.191 -1.76703 -1.50201
-3.1813 -1.77476 -1.50007
-3.17162 -1.78247 -1.49814
-3.16195 -1.79014 -1.49622
-3.15228 -1.79779 -1.49431
-3.14217 -1.80515 -1.4922
-3.13158 -1.81219 -1.48988
-3.12101 -1.8192 -1.48756
-3.11268 -1.82749 -1.48633
-3.10721 -1.83745 -1.48647
-3.10172 -1.8474 -1.48661
-3.09621 -1.85734 -1.48677
-3.09072 -1.86729 -1.48694
-3.08522 -1.87725 -1.48713
-3.07971 -1.88719 -1.48733
-3.07418 -1.89713 -1.48753
-3.06862 -1.90706 -1.48774
-3.06305 -1.91698 -1.48796
-3.05713 -1.92669 -1.48802
-3.05023 -1.93577 -1.48762
-3.04331 -1.94484 -1.48722
-3.03638 -1.95389 -1.48682
-3.02942 -1.96291 -1.48643
-3.02244 -1.97192 -1.48605
-3.01544 -1.98091 -1.48566
-3.00843 -1.98988 -1.48528
