ply
format ascii 1.0
comment Created by Open3D
element vertex 1861
property double x
property double y
property double z
end_header
-4.25763 3.13791 -1.53565
-4.26705 3.12427 -1.53551
-4.27645 3.11062 -1.53538
-4.28583 3.09696 -1.53526
-4.29518 3.08328 -1.53514
-4.3045 3.06959 -1.53503
-4.31381 3.05587 -1.53492
-4.32308 3.04215 -1.53482
-4.3322 3.02832 -1.53469
-4.34118 3.01439 -1.53451
-4.35013 3.00045 -1.53435
-4.35905 2.9865 -1.53419
-4.36795 2.97253 -1.53403
-4.37682 2.95854 -1.53389
-4.38567 2.94455 -1.53375
-4.39449 2.93054 -1.53361
-4.40328 2.91651 -1.53348
-4.41205 2.90248 -1.53336
-4.4208 2.88843 -1.53325
-4.42951 2.87436 -1.53314
-4.43821 2.86028 -1.53304
-4.4523 2.84967 -1.53482
-4.46758 2.83975 -1.53701
-4.48287 2.82979 -1.53922
-4.49812 2.81975 -1.54141
-4.5134 2.80967 -1.54362
-4.52871 2.79955 -1.54585
-4.54515 2.79007 -1.54847
-4.56206 2.78081 -1.55126
-4.57901 2.7715 -1.55406
-4.596 2.76215 -1.55688
-4.61304 2.75275 -1.55972
-4.63011 2.74331 -1.56258
-4.64723 2.73382 -1.56546
-4.66439 2.72428 -1.56836
-4.68178 2.7148 -1.57134
-4.69924 2.70529 -1.57435
-4.71674 2.69572 -1.57738
-4.73429 2.68611 -1.58042
-4.75189 2.67645 -1.58349
-4.76953 2.66674 -1.58658
-4.78722 2.65698 -1.58968
-4.80496 2.64717 -1.59281
-4.8233 2.63761 -1.59614
-4.85403 2.63469 -1.60357
-4.88488 2.63165 -1.61104
-4.91601 2.62859 -1.61858
-4.94744 2.62549 -1.62621
-4.97916 2.62237 -1.63393
-5.01118 2.61921 -1.64173
-5.04872 2.61872 -1.65134
-5.08819 2.619 -1.66155
-5.12539 2.61787 -1.67102
-5.16302 2.61673 -1.6806
-5.20109 2.61557 -1.69032
-5.23959 2.6144 -1.70016
-5.27855 2.61322 -1.71014
-5.31797 2.61202 -1.72025
-5.35786 2.61081 -1.7305
-5.39823 2.60959 -1.74089
-5.43909 2.60835 -1.75142
-5.48045 2.60709 -1.7621
-5.52231 2.60582 -1.77293
-5.56468 2.60453 -1.7839
-5.60758 2.60323 -1.79503
-5.651 2.6019 -1.80631
-5.69479 2.60047 -1.8177
-5.73914 2.59902 -1.82924
-5.78404 2.59755 -1.84095
-5.82953 2.59606 -1.85283
-5.8756 2.59455 -1.86488
-5.92228 2.59302 -1.87711
-5.96956 2.59147 -1.88952
-6.01844 2.5903 -1.90241
-6.06904 2.58958 -1.91583
-6.12034 2.58883 -1.92945
-6.1721 2.58796 -1.94321
-6.22533 2.58738 -1.9574
-6.28025 2.58716 -1.97211
-6.33602 2.58694 -1.98707
-6.39263 2.58672 -2.00227
-6.45013 2.5865 -2.01773
-6.50852 2.58627 -2.03345
-6.56782 2.58604 -2.04944
-6.62806 2.58581 -2.0657
-4.04677 3.30783 -1.56476
-4.05508 3.29349 -1.56398
-4.06336 3.27914 -1.5632
-4.07161 3.26478 -1.56243
-4.07982 3.25042 -1.56167
-4.088 3.23605 -1.56091
-4.09615 3.22168 -1.56016
-4.10428 3.20731 -1.55942
-4.11269 3.19318 -1.55881
-4.12106 3.17903 -1.5582
-4.1294 3.16488 -1.5576
-4.13778 3.15077 -1.55702
-4.14717 3.13745 -1.55685
-4.15654 3.12412 -1.55669
-4.16589 3.11076 -1.55653
-4.17521 3.0974 -1.55638
-4.18451 3.08402 -1.55624
-4.19378 3.07062 -1.5561
-4.20302 3.05721 -1.55597
-4.21224 3.04379 -1.55584
-4.22144 3.03034 -1.55573
-4.23061 3.01689 -1.55562
-4.23976 3.00342 -1.55551
-4.24888 2.98993 -1.55541
-4.25781 2.97632 -1.55526
-4.26664 2.96264 -1.55509
-4.27545 2.94894 -1.55493
-4.28423 2.93523 -1.55477
-4.29298 2.92151 -1.55461
-4.3017 2.90777 -1.55447
-4.31041 2.89402 -1.55433
-4.31908 2.88025 -1.55419
-4.32773 2.86647 -1.55407
-4.34051 2.85542 -1.55544
-4.35544 2.84572 -1.55758
-4.37038 2.83599 -1.55974
-4.38535 2.82622 -1.56192
-4.40035 2.81641 -1.56411
-4.41537 2.80657 -1.56632
-4.4304 2.79667 -1.56853
-4.44541 2.7867 -1.57074
-4.46043 2.7767 -1.57297
-4.47549 2.76665 -1.57522
-4.49056 2.75656 -1.57748
-4.50567 2.74644 -1.57975
-4.5208 2.73627 -1.58204
-4.53595 2.72607 -1.58435
-4.55116 2.71583 -1.58668
-4.56789 2.70644 -1.58955
-4.58467 2.69701 -1.59244
-4.60148 2.68754 -1.59535
-4.61843 2.67806 -1.59831
-4.63553 2.66861 -1.60132
-4.65267 2.6591 -1.60436
-4.66986 2.64955 -1.60742
-4.6908 2.64204 -1.61177
-4.71746 2.63762 -1.61808
-4.74433 2.63317 -1.62446
-4.77165 2.62882 -1.63099
-4.80721 2.62881 -1.64032
-4.84137 2.62782 -1.64915
-4.87208 2.62476 -1.65681
-4.90307 2.62167 -1.66454
-4.93436 2.61855 -1.67237
-4.96593 2.6154 -1.68029
-5.00259 2.61472 -1.68991
-5.04239 2.61545 -1.70058
-5.08246 2.61605 -1.71132
-5.11958 2.61491 -1.72106
-5.15714 2.61375 -1.73092
-5.19513 2.61258 -1.74091
-5.23356 2.61139 -1.75104
-5.27243 2.61019 -1.7613
-5.31177 2.60897 -1.7717
-5.35156 2.60774 -1.78224
-5.39184 2.6065 -1.79293
-5.43259 2.60523 -1.80376
-5.47385 2.60395 -1.81474
-5.5156 2.60266 -1.82587
-5.55787 2.60135 -1.83716
-5.60067 2.60002 -1.8486
-5.64402 2.59868 -1.86021
-5.68771 2.59723 -1.87192
-5.73196 2.59577 -1.8838
-5.77771 2.59471 -1.89615
-5.82498 2.59403 -1.90899
-5.87289 2.59335 -1.92202
-5.92146 2.59266 -1.93525
-5.97069 2.59196 -1.94867
-6.02059 2.59123 -1.9623
-6.07094 2.59039 -1.97606
-6.12201 2.58954 -1.99003
-6.1738 2.58867 -2.00422
-6.22713 2.58812 -2.01889
-6.28209 2.58792 -2.03407
-6.33788 2.5877 -2.0495
-6.39453 2.58749 -2.06518
-6.45206 2.58727 -2.08113
-6.51131 2.58738 -2.09762
-6.57286 2.58803 -2.11483
-6.63544 2.58869 -2.13234
-3.99537 3.26582 -1.59174
-4.00081 3.2494 -1.58984
-4.00621 3.23301 -1.58795
-4.01159 3.21665 -1.58608
-4.01693 3.20032 -1.58422
-4.02225 3.18401 -1.58238
-4.02755 3.16772 -1.58055
-4.03326 3.15181 -1.57891
-4.04013 3.13685 -1.57775
-4.04897 3.12343 -1.57737
-4.05827 3.11037 -1.57719
-4.06754 3.09729 -1.57701
-4.07678 3.0842 -1.57684
-4.086 3.0711 -1.57668
-4.09519 3.05798 -1.57652
-4.10436 3.04484 -1.57637
-4.11351 3.03169 -1.57623
-4.12263 3.01853 -1.57609
-4.13172 3.00535 -1.57596
-4.14079 2.99216 -1.57583
-4.14984 2.97895 -1.57572
-4.15886 2.96572 -1.57561
-4.16786 2.95248 -1.5755
-4.17683 2.93923 -1.57541
-4.18558 2.92583 -1.57524
-4.19427 2.91238 -1.57507
-4.20293 2.89892 -1.57491
-4.21157 2.88545 -1.57475
-4.22018 2.87196 -1.57459
-4.23198 2.86064 -1.57565
-4.24657 2.85116 -1.57775
-4.26118 2.84164 -1.57986
-4.27582 2.83209 -1.58199
-4.29048 2.8225 -1.58413
-4.30516 2.81287 -1.58629
-4.31986 2.80321 -1.58846
-4.33459 2.79351 -1.59065
-4.34934 2.78377 -1.59286
-4.36412 2.77399 -1.59508
-4.3789 2.76416 -1.59731
-4.39365 2.75426 -1.59954
-4.40843 2.74433 -1.60178
-4.42324 2.73435 -1.60404
-4.43806 2.72434 -1.60631
-4.45292 2.71428 -1.6086
-4.4678 2.70419 -1.61091
-4.4827 2.69406 -1.61323
-4.49763 2.68389 -1.61557
-4.51258 2.67367 -1.61792
-4.52756 2.66342 -1.62029
-4.54257 2.65313 -1.62268
-4.56359 2.64627 -1.62722
-4.58908 2.64187 -1.63335
-4.61494 2.63754 -1.63961
-4.64098 2.63317 -1.64592
-4.66723 2.62876 -1.6523
-4.69367 2.62432 -1.65874
-4.72213 2.62085 -1.66589
-4.7571 2.6208 -1.67532
-4.79247 2.62075 -1.68488
-4.82824 2.62069 -1.69456
-4.85928 2.61786 -1.70257
-4.89013 2.61475 -1.7105
-4.92127 2.61161 -1.71852
-4.95711 2.61076 -1.72817
-4.99634 2.61145 -1.73898
-5.03605 2.61216 -1.74995
-5.07628 2.61287 -1.76107
-5.11376 2.61193 -1.77123
-5.15125 2.61076 -1.78137
-5.18916 2.60957 -1.79165
-5.22751 2.60837 -1.80206
-5.2663 2.60715 -1.8126
-5.30555 2.60592 -1.8233
-5.34526 2.60467 -1.83413
-5.38545 2.60341 -1.84511
-5.42612 2.60213 -1.85624
-5.46728 2.60083 -1.86753
-5.50894 2.59952 -1.87897
-5.55245 2.59881 -1.89102
-5.59723 2.59842 -1.90349
-5.64164 2.59759 -1.91582
-5.68706 2.59694 -1.92847
-5.73311 2.59629 -1.94131
-5.77976 2.59563 -1.95435
-5.82706 2.59496 -1.96758
-5.875 2.59428 -1.98102
-5.92354 2.59357 -1.99463
-5.97253 2.59276 -2.00839
-6.02222 2.59193 -2.02235
-6.0726 2.5911 -2.03654
-6.12369 2.59025 -2.05094
-6.17551 2.58939 -2.06557
-6.22894 2.58888 -2.08072
-6.28507 2.58914 -2.09674
-6.34296 2.58978 -2.11334
-6.40179 2.59043 -2.13023
-6.46157 2.59109 -2.14741
-6.52232 2.59176 -2.16489
-6.58407 2.59244 -2.18268
-6.64233 2.59137 -2.19929
-3.94854 3.22753 -1.61962
-3.95353 3.21101 -1.61753
-3.9585 3.19451 -1.61546
-3.96343 3.17804 -1.6134
-3.96834 3.1616 -1.61136
-3.97434 3.14608 -1.60979
-3.9825 3.13229 -1.60911
-3.99064 3.11851 -1.60844
-3.99876 3.10472 -1.60779
-4.00674 3.09085 -1.60709
-4.01323 3.07584 -1.60582
-4.01969 3.06085 -1.60456
-4.02612 3.04588 -1.60331
-4.03253 3.03091 -1.60208
-4.03892 3.01596 -1.60086
-4.04529 3.00102 -1.59965
-4.05164 2.98609 -1.59845
-4.05796 2.97118 -1.59726
-4.06425 2.95627 -1.59609
-4.07138 2.942 -1.59526
-4.08028 2.92901 -1.59514
-4.08915 2.91601 -1.59503
-4.098 2.903 -1.59493
-4.10682 2.88997 -1.59483
-4.11541 2.87678 -1.59465
-4.12654 2.86535 -1.59548
-4.14082 2.85608 -1.59753
-4.15511 2.84677 -1.5996
-4.16943 2.83743 -1.60168
-4.18377 2.82805 -1.60378
-4.19812 2.81863 -1.60589
-4.2125 2.80918 -1.60802
-4.22691 2.79969 -1.61016
-4.24133 2.79017 -1.61231
-4.25578 2.78061 -1.61449
-4.27024 2.77101 -1.61667
-4.28474 2.76138 -1.61888
-4.29925 2.75171 -1.6211
-4.31379 2.742 -1.62333
-4.32832 2.73224 -1.62557
-4.34284 2.72241 -1.62781
-4.35737 2.71254 -1.63007
-4.37194 2.70264 -1.63234
-4.38652 2.6927 -1.63462
-4.40113 2.68272 -1.63693
-4.41576 2.67269 -1.63925
-4.43041 2.66264 -1.64158
-4.45027 2.65562 -1.64585
-4.473 2.65023 -1.65118
-4.49588 2.64479 -1.65656
-4.51891 2.63931 -1.66198
-4.54256 2.63407 -1.66764
-4.56648 2.62886 -1.67339
-4.59193 2.62439 -1.6797
-4.61776 2.61999 -1.68613
-4.64378 2.61556 -1.69263
-4.67337 2.61297 -1.70043
-4.70778 2.61288 -1.70996
-4.74256 2.61279 -1.71961
-4.77774 2.61269 -1.72939
-4.81332 2.61259 -1.7393
-4.84649 2.61097 -1.74832
-4.87719 2.60783 -1.75644
-4.91228 2.60684 -1.76613
-4.95094 2.60751 -1.77708
-4.99008 2.60818 -1.78819
-5.0297 2.60886 -1.79945
-5.06983 2.60955 -1.81087
-5.10793 2.60895 -1.82155
-5.14533 2.60776 -1.83197
-5.18317 2.60656 -1.84252
-5.22144 2.60534 -1.85321
-5.26015 2.60411 -1.86405
-5.29932 2.60286 -1.87503
-5.34049 2.60235 -1.88671
-5.38262 2.60204 -1.8987
-5.42529 2.60173 -1.91087
-5.46851 2.60142 -1.92321
-5.51199 2.60096 -1.93562
-5.5553 2.60015 -1.94796
-5.59917 2.59933 -1.96048
-5.64361 2.5985 -1.97318
-5.68906 2.59785 -1.98622
-5.73514 2.59721 -1.99945
-5.78183 2.59655 -2.01288
-5.82906 2.59585 -2.02649
-5.87677 2.59507 -2.04024
-5.92513 2.59427 -2.05419
-5.97415 2.59346 -2.06836
-6.02387 2.59264 -2.08275
-6.07457 2.59194 -2.09746
-6.12613 2.59128 -2.11246
-6.18186 2.59206 -2.12886
-6.23827 2.59275 -2.14548
-6.29544 2.59341 -2.16233
-6.35351 2.59408 -2.17948
-6.41251 2.59477 -2.19692
-6.47129 2.59498 -2.21426
-6.52731 2.59374 -2.23064
-6.58416 2.59248 -2.24728
-3.89995 3.18782 -1.64589
-3.90494 3.17154 -1.6438
-3.90991 3.1553 -1.64172
-3.91628 3.14023 -1.64026
-3.92442 3.12661 -1.63955
-3.93253 3.11298 -1.63886
-3.94062 3.09935 -1.63818
-3.94869 3.08573 -1.63751
-3.95674 3.0721 -1.63685
-3.96477 3.05848 -1.6362
-3.97278 3.04485 -1.63556
-3.98026 3.03083 -1.63472
-3.98667 3.01603 -1.63346
-3.99304 3.00123 -1.63222
-3.9994 2.98645 -1.63098
-4.00574 2.97168 -1.62976
-4.01205 2.95691 -1.62855
-4.01834 2.94217 -1.62735
-4.0246 2.92743 -1.62617
-4.03084 2.91271 -1.625
-4.03706 2.89799 -1.62384
-4.04326 2.88329 -1.62269
-4.05014 2.86909 -1.62183
-4.06239 2.8587 -1.62314
-4.07465 2.84828 -1.62447
-4.08692 2.83784 -1.62581
-4.0992 2.82738 -1.62716
-4.11149 2.81689 -1.62853
-4.1238 2.80637 -1.62991
-4.13639 2.79602 -1.63142
-4.15052 2.78667 -1.63354
-4.16468 2.77728 -1.63568
-4.17885 2.76786 -1.63783
-4.19305 2.7584 -1.64
-4.20726 2.74891 -1.64219
-4.2215 2.73938 -1.64439
-4.23576 2.72981 -1.6466
-4.25004 2.72021 -1.64883
-4.26435 2.71057 -1.65108
-4.27864 2.70088 -1.65333
-4.29292 2.69112 -1.65558
-4.30722 2.68132 -1.65785
-4.32155 2.67149 -1.66013
-4.34072 2.66458 -1.66428
-4.36275 2.65932 -1.66953
-4.38491 2.65402 -1.67482
-4.4072 2.64869 -1.68015
-4.42963 2.64331 -1.68554
-4.45219 2.63789 -1.69097
-4.4749 2.63244 -1.69645
-4.49801 2.6271 -1.70209
-4.52161 2.62192 -1.7079
-4.54535 2.61669 -1.71376
-4.56925 2.61143 -1.71968
-4.59464 2.60688 -1.72615
-4.62537 2.60518 -1.73462
-4.65921 2.60505 -1.74424
-4.69344 2.60492 -1.75399
-4.72803 2.60479 -1.76386
-4.76302 2.60464 -1.77386
-4.79841 2.6045 -1.784
-4.83369 2.60408 -1.79407
-4.86807 2.60296 -1.8038
-4.90618 2.6036 -1.81488
-4.94474 2.60424 -1.82612
-4.9838 2.6049 -1.83752
-5.02333 2.60556 -1.84908
-5.06337 2.60623 -1.8608
-5.10211 2.60598 -1.87203
-5.14127 2.6057 -1.8834
-5.1809 2.60542 -1.89492
-5.22103 2.60514 -1.9066
-5.26165 2.60485 -1.91844
-5.30279 2.60456 -1.93045
-5.34444 2.60427 -1.94264
-5.38662 2.60398 -1.955
-5.42883 2.60343 -1.96735
-5.4711 2.60264 -1.9797
-5.51389 2.60185 -1.99222
-5.55723 2.60105 -2.00493
-5.60113 2.60023 -2.01782
-5.6456 2.59941 -2.03089
-5.69107 2.59877 -2.04431
-5.73707 2.59808 -2.0579
-5.78353 2.59732 -2.07164
-5.83079 2.59662 -2.08564
-5.8788 2.59596 -2.09989
-5.92747 2.59529 -2.11437
-5.97681 2.59461 -2.12906
-6.02685 2.59393 -2.14398
-6.08105 2.5947 -2.16036
-6.13611 2.5955 -2.17702
-6.19202 2.59631 -2.19395
-6.24855 2.59703 -2.21109
-6.30589 2.59772 -2.22849
-6.36125 2.59725 -2.24517
-3.85228 3.14886 -1.67167
-3.85906 3.13428 -1.67034
-3.86717 3.12081 -1.66961
-3.87526 3.10734 -1.66889
-3.88332 3.09387 -1.66818
-3.89137 3.0804 -1.66749
-3.8994 3.06693 -1.6668
-3.9074 3.05346 -1.66612
-3.91538 3.03999 -1.66546
-3.92334 3.02652 -1.6648
-3.93129 3.01304 -1.66416
-3.93921 2.99957 -1.66353
-3.9471 2.9861 -1.6629
-3.95411 2.97197 -1.66193
-3.96044 2.95735 -1.66068
-3.96674 2.94274 -1.65945
-3.97302 2.92815 -1.65823
-3.97927 2.91357 -1.65702
-3.98551 2.89899 -1.65583
-3.99172 2.88443 -1.65465
-3.9979 2.86988 -1.65348
-4.0097 2.85936 -1.65464
-4.02184 2.84904 -1.65596
-4.03398 2.83871 -1.65729
-4.04613 2.82835 -1.65863
-4.05829 2.81796 -1.65999
-4.07046 2.80755 -1.66136
-4.08264 2.79712 -1.66275
-4.09484 2.78666 -1.66415
-4.10704 2.77618 -1.66557
-4.11925 2.76567 -1.667
-4.13148 2.75514 -1.66844
-4.14371 2.74459 -1.6699
-4.15596 2.734 -1.67138
-4.16821 2.72339 -1.67287
-4.18048 2.71276 -1.67437
-4.19276 2.7021 -1.67589
-4.20505 2.69142 -1.67743
-4.21736 2.6807 -1.67898
-4.23466 2.67311 -1.68252
-4.25601 2.66798 -1.68768
-4.27749 2.66281 -1.69288
-4.2991 2.65761 -1.69813
-4.32083 2.65237 -1.70342
-4.34269 2.6471 -1.70876
-4.36469 2.64178 -1.71415
-4.38681 2.63643 -1.71959
-4.40908 2.63104 -1.72507
-4.43146 2.62561 -1.73061
-4.45406 2.62018 -1.73622
-4.47732 2.61502 -1.74208
-4.50073 2.60981 -1.748
-4.52429 2.60457 -1.75397
-4.62375 2.64258 -1.78932
-4.64078 2.63305 -1.7927
-4.65777 2.62343 -1.79608
-4.67473 2.61373 -1.79945
-4.69166 2.60393 -1.80282
-4.70855 2.59405 -1.80618
-4.86761 2.66184 -1.86399
-4.86445 2.64035 -1.8596
-4.86133 2.61897 -1.85526
-4.86484 2.60123 -1.85349
-4.90312 2.60197 -1.86495
-4.94185 2.60272 -1.87658
-4.98109 2.60348 -1.88837
-5.02081 2.60425 -1.90032
-5.06305 2.60606 -1.91321
-5.10577 2.60785 -1.92626
-5.14497 2.60758 -1.93795
-5.18466 2.60731 -1.94982
-5.22483 2.60704 -1.96185
-5.26551 2.60676 -1.97404
-5.3067 2.60649 -1.98641
-5.34768 2.60585 -1.99869
-5.38893 2.60509 -2.01104
-5.43069 2.60432 -2.02357
-5.47298 2.60354 -2.03628
-5.5158 2.60275 -2.04917
-5.55917 2.60195 -2.06224
-5.60266 2.60095 -2.07534
-5.64771 2.60038 -2.089
-5.6933 2.59979 -2.10284
-5.73945 2.59916 -2.11687
-5.78621 2.59852 -2.1311
-5.83362 2.59788 -2.14556
-5.88166 2.59723 -2.16023
-5.93038 2.59657 -2.17512
-5.98302 2.59731 -2.19143
-6.03658 2.59811 -2.20805
-6.09095 2.59893 -2.22496
-6.14617 2.59976 -2.24214
-3.81073 3.11489 -1.69929
-3.81879 3.10158 -1.69855
-3.82684 3.08826 -1.69781
-3.83486 3.07495 -1.69709
-3.84286 3.06163 -1.69638
-3.85084 3.04832 -1.69567
-3.8588 3.035 -1.69498
-3.86674 3.02168 -1.6943
-3.87465 3.00836 -1.69363
-3.88255 2.99504 -1.69297
-3.89042 2.98172 -1.69233
-3.89828 2.9684 -1.69169
-3.90611 2.95508 -1.69106
-3.91392 2.94176 -1.69045
-3.92171 2.92843 -1.68984
-3.92828 2.91422 -1.68873
-3.93453 2.89978 -1.6875
-3.94075 2.88536 -1.68628
-3.94695 2.87095 -1.68508
-3.95772 2.85986 -1.68584
-3.96973 2.84965 -1.68715
-3.98174 2.83942 -1.68847
-3.99377 2.82916 -1.6898
-4.00581 2.81888 -1.69115
-4.01785 2.80858 -1.69251
-4.0299 2.79825 -1.69389
-4.04197 2.7879 -1.69528
-4.05404 2.77752 -1.69668
-4.0662 2.76717 -1.69813
-4.07933 2.75745 -1.7
-4.09248 2.7477 -1.70189
-4.10565 2.73792 -1.70379
-4.11885 2.72812 -1.70571
-4.13207 2.71829 -1.70765
-4.14532 2.70844 -1.70961
-4.15858 2.69855 -1.71159
-4.17188 2.68864 -1.71358
-4.18519 2.6787 -1.71559
-4.20268 2.67137 -1.71932
-4.22334 2.66596 -1.72435
-4.24228 2.65937 -1.72867
-4.26131 2.65274 -1.73304
-4.28044 2.64608 -1.73743
-4.30101 2.6402 -1.74242
-4.32271 2.63492 -1.74785
-4.34454 2.62959 -1.75334
-4.3665 2.62422 -1.75888
-4.38859 2.61882 -1.76446
-4.41081 2.61338 -1.7701
-4.43361 2.60815 -1.77596
-4.4567 2.60297 -1.78193
-4.50784 2.61394 -1.79909
-4.51329 2.59824 -1.79801
-4.53532 2.59203 -1.80355
-4.56848 2.59204 -1.8135
-4.60203 2.59204 -1.82358
-4.63593 2.59204 -1.83378
-4.67023 2.59204 -1.84413
-4.7049 2.59204 -1.85461
-4.73998 2.59204 -1.86522
-4.77546 2.59204 -1.87598
-4.81136 2.59205 -1.88688
-4.84767 2.59205 -1.89793
-4.90626 2.60364 -1.91766
-4.94012 2.60181 -1.92771
-4.97933 2.60256 -1.93981
-5.02078 2.60424 -1.95278
-5.06666 2.60792 -1.96743
-5.10944 2.60973 -1.98086
-5.1487 2.60947 -1.9929
-5.18844 2.60921 -2.00511
-5.22867 2.60895 -2.01749
-5.26846 2.60822 -2.02967
-5.30873 2.60748 -2.04203
-5.3495 2.60674 -2.05456
-5.3907 2.60595 -2.06724
-5.43113 2.60453 -2.0796
-5.47203 2.60309 -2.09214
-5.51344 2.60164 -2.10484
-5.55674 2.60082 -2.11825
-5.60322 2.60121 -2.13285
-5.65036 2.6016 -2.14768
-5.69602 2.60103 -2.16193
-5.74221 2.60041 -2.17636
-5.78902 2.59978 -2.191
-5.83646 2.59915 -2.20586
-5.88766 2.59987 -2.22212
-5.93978 2.60068 -2.23871
-5.99268 2.6015 -2.25557
-3.77114 3.08253 -1.72708
-3.77914 3.06937 -1.72633
-3.78712 3.05621 -1.72559
-3.79507 3.04304 -1.72486
-3.80301 3.02988 -1.72414
-3.81092 3.01671 -1.72344
-3.81881 3.00355 -1.72274
-3.82668 2.99038 -1.72206
-3.83453 2.97721 -1.72138
-3.84236 2.96405 -1.72072
-3.85017 2.95087 -1.72007
-3.85796 2.9377 -1.71943
-3.86572 2.92453 -1.7188
-3.87347 2.91136 -1.71818
-3.88119 2.89818 -1.71757
-3.8889 2.885 -1.71697
-3.89656 2.8718 -1.71637
-3.90641 2.86022 -1.71676
-3.91898 2.8506 -1.71835
-3.93182 2.84115 -1.72007
-3.94469 2.83168 -1.72181
-3.95757 2.82218 -1.72356
-3.97048 2.81266 -1.72534
-3.9834 2.80312 -1.72713
-3.99635 2.79355 -1.72894
-4.00931 2.78395 -1.73077
-4.0223 2.77434 -1.73261
-4.03531 2.76469 -1.73448
-4.04834 2.75502 -1.73636
-4.06139 2.74533 -1.73826
-4.07447 2.73561 -1.74018
-4.08756 2.72586 -1.74211
-4.10068 2.71609 -1.74407
-4.11382 2.70629 -1.74605
-4.12699 2.69646 -1.74804
-4.14017 2.68661 -1.75005
-4.15339 2.67673 -1.75208
-4.17085 2.66952 -1.75591
-4.19146 2.66424 -1.76107
-4.21219 2.65893 -1.76627
-4.23172 2.65275 -1.77096
-4.25068 2.64612 -1.77542
-4.26973 2.63946 -1.77991
-4.28888 2.63276 -1.78445
-4.30812 2.62602 -1.78902
-4.32745 2.61924 -1.79363
-4.34688 2.61243 -1.79828
-4.36818 2.60664 -1.80371
-4.39047 2.60133 -1.80954
-4.43294 2.60776 -1.82367
-4.43796 2.59203 -1.82238
-4.47007 2.59203 -1.83222
-4.50251 2.59203 -1.84218
-4.53532 2.59203 -1.85228
-4.56848 2.59204 -1.8625
-4.60202 2.59204 -1.87285
-4.63593 2.59204 -1.88333
-4.67023 2.59204 -1.89396
-4.7049 2.59204 -1.90472
-4.73997 2.59204 -1.91562
-4.77546 2.59204 -1.92667
-4.81136 2.59205 -1.93787
-4.84767 2.59205 -1.94921
-4.88442 2.59205 -1.96071
-4.95539 2.60985 -1.98591
-4.97912 2.60245 -1.99214
-5.02436 2.60609 -2.00697
-5.0703 2.60979 -2.02204
-5.11315 2.61162 -2.03586
-5.15222 2.61125 -2.04815
-5.19109 2.61054 -2.06034
-5.22932 2.60927 -2.07225
-5.26783 2.60791 -2.08427
-5.30679 2.60653 -2.09644
-5.34622 2.60514 -2.10878
-5.3861 2.60372 -2.12129
-5.42646 2.60229 -2.13396
-5.46816 2.60125 -2.14714
-5.51343 2.60164 -2.16171
-5.55933 2.60203 -2.1765
-5.60584 2.60242 -2.19151
-5.65302 2.60283 -2.20675
-5.69876 2.60228 -2.22141
-5.74499 2.60167 -2.23624
-5.79484 2.6024 -2.25246
-3.74544 3.06153 -1.7607
-3.75384 3.04882 -1.76015
-3.76222 3.03611 -1.75961
-3.77059 3.02341 -1.75909
-3.77895 3.01072 -1.75858
-3.78731 2.99802 -1.75808
-3.79564 2.98533 -1.75761
-3.80398 2.97264 -1.75714
-3.8123 2.95995 -1.75669
-3.82061 2.94726 -1.75626
-3.82891 2.93458 -1.75584
-3.8372 2.92189 -1.75544
-3.84548 2.90921 -1.75505
-3.85375 2.89653 -1.75467
-3.86201 2.88385 -1.75431
-3.87026 2.87117 -1.75397
-3.87851 2.8585 -1.75363
-3.88991 2.84813 -1.75475
-3.9023 2.83847 -1.75632
-3.91471 2.82878 -1.7579
-3.92748 2.81933 -1.75966
-3.94029 2.80986 -1.76145
-3.95312 2.80037 -1.76326
-3.96598 2.79085 -1.76508
-3.97885 2.78131 -1.76692
-3.99174 2.77175 -1.76878
-4.00465 2.76216 -1.77066
-4.01758 2.75255 -1.77256
-4.03054 2.7429 -1.77447
-4.04351 2.73324 -1.7764
-4.05651 2.72355 -1.77836
-4.06953 2.71383 -1.78033
-4.08257 2.70409 -1.78232
-4.09563 2.69432 -1.78433
-4.10872 2.68452 -1.78636
-4.12182 2.6747 -1.7884
-4.1393 2.66765 -1.79235
-4.15971 2.66239 -1.79757
-4.18024 2.6571 -1.80283
-4.20087 2.65178 -1.80814
-4.22115 2.64613 -1.81329
-4.24004 2.6395 -1.81784
-4.25902 2.63283 -1.82243
-4.27808 2.62613 -1.82706
-4.29725 2.61939 -1.83173
-4.3165 2.61262 -1.83644
-4.33585 2.60581 -1.84119
-4.38236 2.6151 -1.85746
-4.38553 2.5984 -1.85534
-4.4062 2.59203 -1.86064
-4.43796 2.59203 -1.87061
-4.47006 2.59203 -1.88071
-4.50251 2.59203 -1.89094
-4.53532 2.59203 -1.9013
-4.56848 2.59204 -1.91179
-4.60202 2.59204 -1.92241
-4.63593 2.59204 -1.93317
-4.67023 2.59204 -1.94408
-4.7049 2.59204 -1.95512
-4.73998 2.59204 -1.96632
-4.77546 2.59204 -1.97766
-4.81136 2.59205 -1.98915
-4.84767 2.59205 -2.0008
-4.88442 2.59205 -2.0126
-4.92159 2.59205 -2.02456
-4.97977 2.60279 -2.04513
-5.02551 2.60669 -2.06055
-5.07196 2.61065 -2.07624
-5.11215 2.61111 -2.08933
-5.14932 2.60979 -2.10117
-5.18691 2.60844 -2.11316
-5.22493 2.60709 -2.12531
-5.26339 2.60571 -2.13762
-5.3023 2.60432 -2.1501
-5.34166 2.60292 -2.16274
-5.38188 2.60168 -2.17572
-5.42599 2.60206 -2.19024
-5.47069 2.60245 -2.20499
-5.516 2.60285 -2.21995
-5.56193 2.60325 -2.23514
-5.60849 2.60365 -2.25056
-5.65571 2.60406 -2.26623
-3.73311 3.05145 -1.80042
-3.73987 3.03747 -1.79908
-3.74723 3.02401 -1.79806
-3.75557 3.01137 -1.79752
-3.7639 2.99872 -1.79701
-3.77222 2.98608 -1.7965
-3.78053 2.97344 -1.79602
-3.78884 2.9608 -1.79555
-3.79713 2.94817 -1.79509
-3.80541 2.93554 -1.79465
-3.81368 2.92291 -1.79422
-3.82194 2.91027 -1.79381
-3.83019 2.89765 -1.79341
-3.83843 2.88502 -1.79303
-3.84666 2.87239 -1.79266
-3.85489 2.85977 -1.79231
-3.8631 2.84714 -1.79198
-3.87413 2.83658 -1.79296
-3.88645 2.82694 -1.79455
-3.89879 2.81729 -1.79617
-3.91115 2.80761 -1.7978
-3.92353 2.79791 -1.79945
-3.93592 2.78818 -1.80112
-3.94859 2.77862 -1.80293
-3.96139 2.76911 -1.8048
-3.97421 2.75958 -1.80669
-3.98705 2.75002 -1.8086
-3.9999 2.74043 -1.81053
-4.01278 2.73082 -1.81248
-4.02568 2.72119 -1.81444
-4.0386 2.71152 -1.81643
-4.05154 2.70184 -1.81843
-4.0645 2.69212 -1.82046
-4.07749 2.68238 -1.8225
-4.09049 2.67262 -1.82456
-4.10803 2.66575 -1.82865
-4.12824 2.66052 -1.83393
-4.14856 2.65526 -1.83925
-4.169 2.64996 -1.84462
-4.18955 2.64464 -1.85004
-4.21022 2.63927 -1.85551
-4.22938 2.63286 -1.86031
-4.24829 2.6262 -1.86499
-4.26728 2.6195 -1.86972
-4.28636 2.61276 -1.87449
-4.30555 2.60599 -1.8793
-4.33636 2.60611 -1.88917
-4.34369 2.59203 -1.88882
-4.37478 2.59203 -1.8988
-4.4062 2.59203 -1.9089
-4.43796 2.59203 -1.91913
-4.47007 2.59203 -1.9295
-4.50251 2.59203 -1.93999
-4.53532 2.59203 -1.95061
-4.56848 2.59204 -1.96137
-4.60202 2.59204 -1.97228
-4.63593 2.59204 -1.98332
-4.67023 2.59204 -1.99451
-4.7049 2.59204 -2.00584
-4.73997 2.59204 -2.01732
-4.77546 2.59204 -2.02896
-4.81136 2.59205 -2.04075
-4.84767 2.59205 -2.05269
-4.88442 2.59205 -2.06481
-4.92159 2.59205 -2.07708
-4.97972 2.60277 -2.09816
-5.02546 2.60666 -2.11398
-5.07049 2.60989 -2.12947
-5.10792 2.60895 -2.14175
-5.14504 2.60761 -2.15387
-5.18257 2.60626 -2.16616
-5.22053 2.60489 -2.1786
-5.25893 2.60351 -2.19121
-5.29779 2.60211 -2.204
-5.34079 2.60249 -2.21848
-5.38435 2.60288 -2.23318
-5.42849 2.60327 -2.24809
-5.47324 2.60366 -2.26323
-3.72547 3.0452 -1.84245
-3.73222 3.03126 -1.84108
-3.73896 3.01734 -1.83973
-3.74568 3.00344 -1.8384
-3.75239 2.98955 -1.83709
-3.75909 2.97568 -1.83579
-3.76577 2.96183 -1.83452
-3.77372 2.94899 -1.83388
-3.78198 2.93641 -1.83342
-3.79023 2.92383 -1.83297
-3.79848 2.91125 -1.83253
-3.80671 2.89868 -1.83211
-3.81493 2.8861 -1.83171
-3.82314 2.87353 -1.83132
-3.83135 2.86095 -1.83095
-3.83954 2.84838 -1.83059
-3.84772 2.83581 -1.83025
-3.85837 2.82505 -1.83109
-3.87064 2.81544 -1.83272
-3.88291 2.80581 -1.83436
-3.89521 2.79616 -1.83602
-3.90752 2.78649 -1.8377
-3.91985 2.77679 -1.8394
-3.93219 2.76708 -1.84111
-3.94455 2.75734 -1.84285
-3.95692 2.74758 -1.8446
-3.96949 2.73791 -1.84645
-3.98227 2.72835 -1.84841
-3.99507 2.71877 -1.85039
-4.00789 2.70916 -1.85238
-4.02074 2.69953 -1.8544
-4.0336 2.68987 -1.85644
-4.04649 2.68019 -1.8585
-4.05939 2.67048 -1.86057
-4.07704 2.66383 -1.86483
-4.09705 2.65862 -1.87016
-4.11718 2.65339 -1.87554
-4.13741 2.64812 -1.88097
-4.15776 2.64282 -1.88645
-4.17822 2.63748 -1.89198
-4.1988 2.63211 -1.89755
-4.21872 2.62622 -1.90282
-4.23754 2.61956 -1.90761
-4.25646 2.61286 -1.91243
-4.27547 2.60612 -1.91729
-4.30976 2.60853 -1.92899
-4.31292 2.59203 -1.92676
-4.34369 2.59203 -1.93687
-4.37478 2.59203 -1.9471
-4.40621 2.59203 -1.95747
-4.43796 2.59203 -1.96796
-4.47007 2.59203 -1.97858
-4.50251 2.59203 -1.98934
-4.53532 2.59203 -2.00024
-4.56848 2.59204 -2.01127
-4.60203 2.59204 -2.02245
-4.63593 2.59204 -2.03377
-4.67023 2.59204 -2.04525
-4.7049 2.59204 -2.05687
-4.73998 2.59204 -2.06864
-4.77546 2.59204 -2.08057
-4.81136 2.59205 -2.09266
-4.84767 2.59205 -2.10492
-4.88442 2.59205 -2.11734
-4.92159 2.59205 -2.12992
-4.97967 2.60274 -2.15152
-5.02541 2.60664 -2.16774
-5.0661 2.60763 -2.18176
-5.10365 2.60677 -2.1944
-5.14073 2.60543 -2.20682
-5.1782 2.60406 -2.21939
-5.21611 2.60268 -2.23214
-5.25774 2.60291 -2.24645
-5.30021 2.6033 -2.2611
-3.71782 3.03894 -1.88457
-3.72456 3.02504 -1.88317
-3.73128 3.01115 -1.88179
-3.738 2.99728 -1.88044
-3.7447 2.98342 -1.8791
-3.75139 2.96959 -1.87777
-3.75806 2.95577 -1.87647
-3.76473 2.94197 -1.87519
-3.77138 2.92818 -1.87392
-3.77802 2.91441 -1.87268
-3.78465 2.90065 -1.87145
-3.7915 2.8871 -1.87036
-3.79969 2.87458 -1.86994
-3.80788 2.86206 -1.86955
-3.81605 2.84953 -1.86917
-3.82421 2.83701 -1.86881
-3.83237 2.82449 -1.86846
-3.84265 2.81353 -1.86916
-3.85485 2.80396 -1.87082
-3.86706 2.79436 -1.87249
-3.87929 2.78473 -1.87417
-3.89154 2.77509 -1.87588
-3.9038 2.76543 -1.87761
-3.91608 2.75574 -1.87935
-3.92837 2.74603 -1.88111
-3.94068 2.7363 -1.88289
-3.95301 2.72654 -1.88469
-3.96535 2.71676 -1.88651
-3.97771 2.70696 -1.88835
-3.99015 2.69717 -1.89023
-4.00292 2.68757 -1.89228
-4.01571 2.67794 -1.89435
-4.02852 2.66829 -1.89644
-4.04631 2.66188 -1.90088
-4.06613 2.6567 -1.90627
-4.08606 2.65149 -1.91171
-4.1061 2.64625 -1.9172
-4.12624 2.64098 -1.92273
-4.14651 2.63567 -1.92832
-4.16688 2.63032 -1.93395
-4.18737 2.62495 -1.93963
-4.20797 2.61954 -1.94537
-4.22679 2.61291 -1.95027
-4.24563 2.60621 -1.95519
-4.28321 2.61084 -1.96872
-4.28513 2.59363 -1.96585
-4.31292 2.59202 -1.97487
-4.34369 2.59203 -1.98523
-4.37478 2.59203 -1.99572
-4.4062 2.59203 -2.00634
-4.43796 2.59203 -2.01709
-4.47007 2.59203 -2.02798
-4.50251 2.59203 -2.03901
-4.53532 2.59203 -2.05018
-4.56848 2.59204 -2.06149
-4.60203 2.59204 -2.07295
-4.63593 2.59204 -2.08455
-4.67023 2.59204 -2.09631
-4.7049 2.59204 -2.10822
-4.73998 2.59204 -2.12029
-4.77546 2.59204 -2.13252
-4.81136 2.59205 -2.14491
-4.84767 2.59205 -2.15747
-4.88442 2.59205 -2.1702
-4.92159 2.59205 -2.1831
-4.98243 2.60418 -2.20645
-5.02463 2.60623 -2.22151
-5.0617 2.60537 -2.23429
-5.0992 2.60449 -2.24722
-5.1364 2.60323 -2.26001
-3.71087 3.03327 -1.92717
-3.71746 3.01928 -1.92567
-3.72404 3.0053 -1.92419
-3.73061 2.99135 -1.92273
-3.73716 2.97742 -1.92129
-3.74371 2.96351 -1.91988
-3.75034 2.9497 -1.91853
-3.757 2.93592 -1.91722
-3.76364 2.92217 -1.91593
-3.77027 2.90843 -1.91465
-3.77689 2.89471 -1.9134
-3.7835 2.881 -1.91217
-3.79009 2.86731 -1.91095
-3.79667 2.85364 -1.90975
-3.80325 2.83997 -1.90858
-3.80981 2.82632 -1.90742
-3.81704 2.81319 -1.90661
-3.82695 2.80204 -1.90717
-3.83909 2.79249 -1.90885
-3.85124 2.78292 -1.91055
-3.8634 2.77333 -1.91226
-3.87558 2.76372 -1.914
-3.88778 2.75408 -1.91575
-3.89999 2.74442 -1.91752
-3.91222 2.73474 -1.91931
-3.92477 2.72525 -1.92127
-3.93747 2.71583 -1.92331
-3.9502 2.70638 -1.92538
-3.96295 2.69691 -1.92746
-3.97573 2.68742 -1.92957
-3.98853 2.67791 -1.93171
-4.00137 2.66838 -1.93386
-4.01748 2.66098 -1.93762
-4.03593 2.65504 -1.94249
-4.05521 2.64956 -1.94777
-4.07505 2.64435 -1.95331
-4.09501 2.6391 -1.9589
-4.11507 2.63382 -1.96454
-4.13524 2.62851 -1.97023
-4.15552 2.62316 -1.97597
-4.17593 2.61777 -1.98176
-4.19644 2.61236 -1.9876
-4.21602 2.60625 -1.993
-4.25885 2.61432 -2.00936
-4.25955 2.59641 -2.00584
-4.28248 2.59202 -2.01281
-4.31292 2.59202 -2.02329
-4.34369 2.59203 -2.03391
-4.37478 2.59203 -2.04465
-4.4062 2.59203 -2.05553
-4.43796 2.59203 -2.06655
-4.47006 2.59203 -2.0777
-4.50251 2.59203 -2.089
-4.53532 2.59203 -2.10044
-4.56849 2.59204 -2.11203
-4.60202 2.59204 -2.12377
-4.63593 2.59204 -2.13566
-4.67023 2.59204 -2.14771
-4.7049 2.59204 -2.15991
-4.73997 2.59204 -2.17228
-4.77546 2.59204 -2.18481
-4.81136 2.59205 -2.1975
-4.84767 2.59205 -2.21037
-4.88442 2.59205 -2.22341
-4.92159 2.59205 -2.23662
-4.98818 2.60719 -2.26316
-5.02026 2.60397 -2.27401
-3.70946 3.03211 -1.97285
-3.71605 3.01813 -1.97131
-3.72262 3.00416 -1.9698
-3.72919 2.99021 -1.96831
-3.73574 2.97629 -1.96684
-3.74229 2.96239 -1.96539
-3.74882 2.9485 -1.96396
-3.75535 2.93464 -1.96255
-3.76186 2.92079 -1.96116
-3.76837 2.90696 -1.9598
-3.77487 2.89316 -1.95845
-3.78135 2.87937 -1.95713
-3.78783 2.8656 -1.95582
-3.79429 2.85185 -1.95454
-3.80075 2.83811 -1.95328
-3.8072 2.82439 -1.95203
-3.81364 2.81069 -1.95081
-3.8232 2.79929 -1.95121
-3.83525 2.7897 -1.95288
-3.84776 2.78041 -1.95481
-3.8603 2.7711 -1.95676
-3.87286 2.76178 -1.95873
-3.88545 2.75243 -1.96073
-3.89807 2.74307 -1.96275
-3.91071 2.73368 -1.96479
-3.92337 2.72428 -1.96686
-3.93606 2.71485 -1.96894
-3.94878 2.70541 -1.97106
-3.96153 2.69594 -1.97319
-3.9743 2.68645 -1.97535
-3.9871 2.67695 -1.97754
-3.99993 2.66742 -1.97974
-4.01723 2.66081 -1.98417
-4.03567 2.65487 -1.98916
-4.05421 2.64891 -1.9942
-4.07283 2.64291 -1.99928
-4.09156 2.63688 -2.00441
-4.11038 2.63082 -2.00958
-4.1293 2.62473 -2.0148
-4.14831 2.61861 -2.02006
-4.16743 2.61245 -2.02538
-4.18665 2.60626 -2.03074
-4.24934 2.62685 -2.05714
-4.25006 2.60893 -2.05353
-4.25234 2.59202 -2.05069
-4.28248 2.59202 -2.0613
-4.31292 2.59202 -2.07204
-4.34369 2.59203 -2.08291
-4.37478 2.59203 -2.09391
-4.4062 2.59203 -2.10505
-4.43796 2.59203 -2.11634
-4.47007 2.59203 -2.12776
-4.50251 2.59203 -2.13933
-4.53532 2.59203 -2.15105
-4.56848 2.59204 -2.16292
-4.60203 2.59204 -2.17494
-4.63593 2.59204 -2.18712
-4.67023 2.59204 -2.19946
-4.7049 2.59204 -2.21195
-4.73998 2.59204 -2.22461
-4.77546 2.59204 -2.23745
-4.81136 2.59205 -2.25045
-4.84767 2.59205 -2.26362
-4.88442 2.59205 -2.27698
-3.70804 3.03095 -2.01881
-3.71462 3.01697 -2.01724
-3.7212 3.00301 -2.01569
-3.72776 2.98907 -2.01416
-3.73432 2.97515 -2.01266
-3.74086 2.96125 -2.01117
-3.74739 2.94738 -2.00971
-3.75392 2.93352 -2.00827
-3.76043 2.91968 -2.00685
-3.76693 2.90586 -2.00545
-3.77343 2.89206 -2.00408
-3.77991 2.87827 -2.00272
-3.78639 2.86451 -2.00139
-3.79285 2.85076 -2.00008
-3.79931 2.83703 -1.99878
-3.80576 2.82332 -1.99751
-3.8122 2.80962 -1.99626
-3.82265 2.79889 -1.99714
-3.8347 2.7893 -1.99885
-3.84676 2.77969 -2.00059
-3.85892 2.77011 -2.00239
-3.87148 2.76079 -2.00441
-3.88406 2.75144 -2.00645
-3.89667 2.74208 -2.00852
-3.9093 2.7327 -2.01061
-3.92196 2.7233 -2.01272
-3.93464 2.71387 -2.01486
-3.94736 2.70443 -2.01702
-3.9601 2.69497 -2.0192
-3.97286 2.68548 -2.02141
-3.98565 2.67598 -2.02365
-3.99863 2.66655 -2.02598
-4.01698 2.66064 -2.03104
-4.03542 2.65471 -2.03615
-4.05395 2.64874 -2.04131
-4.07257 2.64274 -2.04651
-4.0913 2.63671 -2.05175
-4.11012 2.63065 -2.05705
-4.12903 2.62456 -2.06239
-4.14805 2.61844 -2.06778
-4.16711 2.61225 -2.07319
-4.18586 2.60577 -2.07845
-4.24052 2.6214 -2.1015
-4.24125 2.60352 -2.09781
-4.25234 2.59202 -2.09927
-4.28248 2.59202 -2.11013
-4.31292 2.59202 -2.12112
-4.3437 2.59203 -2.13225
-4.37478 2.59203 -2.14351
-4.4062 2.59203 -2.15492
-4.43796 2.59203 -2.16647
-4.47007 2.59203 -2.17816
-4.50251 2.59203 -2.19001
-4.53532 2.59203 -2.202
-4.56848 2.59204 -2.21415
-4.60203 2.59204 -2.22646
-4.63593 2.59204 -2.23892
-4.67023 2.59204 -2.25155
-4.7049 2.59204 -2.26434
-4.73998 2.59204 -2.27731
-4.77546 2.59204 -2.29044
-4.81136 2.59205 -2.30375
-4.84767 2.59205 -2.31724
-4.88442 2.59205 -2.33091
-3.70692 3.03004 -2.06523
-3.71337 3.01595 -2.06355
-3.71981 3.00189 -2.06189
-3.72633 2.98792 -2.0603
-3.73288 2.97401 -2.05876
-3.73942 2.96012 -2.05725
-3.74595 2.94624 -2.05575
-3.75248 2.93239 -2.05428
-3.75899 2.91856 -2.05283
-3.76549 2.90474 -2.0514
-3.77198 2.89095 -2.04999
-3.77847 2.87717 -2.0486
-3.78494 2.86341 -2.04724
-3.7914 2.84967 -2.0459
-3.79786 2.83595 -2.04458
-3.80431 2.82224 -2.04328
-3.81074 2.80855 -2.042
-3.8221 2.79848 -2.04338
-3.83414 2.78889 -2.04513
-3.8462 2.77928 -2.04691
-3.85828 2.76965 -2.04871
-3.87039 2.76001 -2.05054
-3.88266 2.75045 -2.05246
-3.89526 2.74109 -2.05458
-3.90788 2.73171 -2.05671
-3.92054 2.72231 -2.05887
-3.93322 2.71289 -2.06106
-3.94592 2.70345 -2.06327
-3.95866 2.69399 -2.0655
-3.97142 2.68451 -2.06776
-3.9842 2.675 -2.07005
-3.99837 2.66638 -2.07306
-4.01672 2.66047 -2.07824
-4.03516 2.65454 -2.08346
-4.05369 2.64857 -2.08874
-4.07231 2.64257 -2.09406
-4.09103 2.63654 -2.09943
-4.10985 2.63048 -2.10484
-4.12877 2.62439 -2.11031
-4.14732 2.61798 -2.11559
-4.16597 2.61153 -2.12092
-4.18471 2.60505 -2.1263
-4.23421 2.6175 -2.14727
-4.23329 2.59864 -2.14267
-4.25234 2.59202 -2.14819
-4.28248 2.59202 -2.1593
-4.31292 2.59202 -2.17054
-4.34369 2.59203 -2.18193
-4.37478 2.59203 -2.19346
-4.40621 2.59203 -2.20513
-4.43796 2.59203 -2.21695
-4.47006 2.59203 -2.22892
-4.50251 2.59203 -2.24104
-4.53532 2.59203 -2.25331
-4.56848 2.59204 -2.26574
-4.60202 2.59204 -2.27834
-4.63593 2.59204 -2.29109
-4.67023 2.59204 -2.30402
-4.7049 2.59204 -2.31711
-4.73997 2.59204 -2.33037
-4.77546 2.59204 -2.34381
-4.81136 2.59205 -2.35744
-4.84767 2.59205 -2.37124
-3.70586 3.02917 -2.11199
-3.71231 3.01509 -2.11027
-3.71874 3.00103 -2.10857
-3.72517 2.98699 -2.1069
-3.73159 2.97298 -2.10525
-3.73799 2.95899 -2.10362
-3.7445 2.9451 -2.10209
-3.75103 2.93126 -2.10058
-3.75754 2.91743 -2.0991
-3.76404 2.90362 -2.09764
-3.77053 2.88983 -2.0962
-3.77701 2.87606 -2.09478
-3.78348 2.86231 -2.09339
-3.78994 2.84858 -2.09202
-3.7964 2.83486 -2.09067
-3.80284 2.82116 -2.08934
-3.80952 2.80765 -2.08816
-3.82154 2.79807 -2.08994
-3.83358 2.78848 -2.09173
-3.84564 2.77887 -2.09355
-3.85772 2.76925 -2.09539
-3.86982 2.75961 -2.09726
-3.88194 2.74995 -2.09915
-3.89409 2.74027 -2.10107
-3.90646 2.73071 -2.10312
-3.91911 2.72132 -2.10532
-3.93178 2.7119 -2.10756
-3.94448 2.70246 -2.10982
-3.95721 2.693 -2.1121
-3.96996 2.68352 -2.11441
-3.98274 2.67402 -2.11674
-3.99812 2.66621 -2.12047
-4.01646 2.6603 -2.12577
-4.0349 2.65437 -2.13111
-4.05343 2.6484 -2.13651
-4.07205 2.6424 -2.14195
-4.09077 2.63637 -2.14744
-4.10918 2.63006 -2.15277
-4.12764 2.62367 -2.15812
-4.14618 2.61726 -2.16352
-4.16482 2.61081 -2.16897
-4.18355 2.60433 -2.17446
-4.24513 2.62425 -2.20218
-4.24419 2.60533 -2.19745
-4.25234 2.59202 -2.19745
-4.28247 2.59202 -2.20882
-4.31292 2.59202 -2.22032
-4.34369 2.59203 -2.23197
-4.37478 2.59203 -2.24376
-4.4062 2.59203 -2.2557
-4.43796 2.59203 -2.2678
-4.47006 2.59203 -2.28004
-4.50251 2.59203 -2.29244
-4.53532 2.59203 -2.30499
-4.56848 2.59204 -2.31771
-4.60202 2.59204 -2.33059
-4.63593 2.59204 -2.34364
-4.67023 2.59204 -2.35686
-4.7049 2.59204 -2.37025
-4.73998 2.59204 -2.38382
-4.77546 2.59204 -2.39757
-4.81136 2.59205 -2.4115
-3.70479 3.02829 -2.15906
-3.71123 3.01422 -2.15731
-3.71767 3.00016 -2.15557
-3.7241 2.98613 -2.15387
-3.73051 2.97212 -2.15218
-3.73692 2.95813 -2.15052
-3.74331 2.94417 -2.14888
-3.7497 2.93022 -2.14726
-3.75607 2.9163 -2.14567
-3.76257 2.9025 -2.14418
-3.76906 2.88871 -2.14271
-3.77554 2.87494 -2.14126
-3.78201 2.8612 -2.13984
-3.78847 2.84747 -2.13844
-3.79493 2.83376 -2.13706
-3.80137 2.82006 -2.1357
-3.80896 2.80723 -2.13501
-3.82097 2.79766 -2.13682
-3.83301 2.78807 -2.13866
-3.84507 2.77846 -2.14052
-3.85715 2.76884 -2.1424
-3.86925 2.7592 -2.14431
-3.88137 2.74954 -2.14625
-3.89351 2.73986 -2.14821
-3.90568 2.73017 -2.15019
-3.91786 2.72046 -2.15219
-3.93033 2.7109 -2.15437
-3.94303 2.70147 -2.15667
-3.95575 2.69201 -2.15901
-3.96849 2.68253 -2.16137
-3.98127 2.67303 -2.16375
-3.99786 2.66604 -2.16822
-4.0162 2.66013 -2.17364
-4.03464 2.65419 -2.1791
-4.05316 2.64823 -2.18462
-4.07143 2.642 -2.18999
-4.0897 2.63568 -2.19537
-4.10805 2.62933 -2.20079
-4.1265 2.62295 -2.20625
-4.14503 2.61653 -2.21177
-4.16366 2.61009 -2.21734
-4.18238 2.60361 -2.22295
-4.25619 2.63109 -2.25779
-4.25523 2.6121 -2.25293
-4.25427 2.5932 -2.24811
-4.28248 2.59202 -2.25871
-4.31292 2.59202 -2.27047
-4.34369 2.59203 -2.28239
-4.37478 2.59203 -2.29444
-4.4062 2.59203 -2.30665
-4.43796 2.59203 -2.31902
-4.47006 2.59203 -2.33153
-4.50251 2.59203 -2.34421
-4.53532 2.59203 -2.35705
-4.56848 2.59204 -2.37006
-4.60202 2.59204 -2.38323
-4.63593 2.59204 -2.39657
-4.67023 2.59204 -2.41009
-4.7049 2.59204 -2.42378
-4.73997 2.59204 -2.43766
-3.70371 3.02741 -2.20647
-3.71016 3.01334 -2.20467
-3.71659 2.99929 -2.2029
-3.72302 2.98527 -2.20116
-3.72943 2.97126 -2.19943
-3.73583 2.95728 -2.19774
-3.74223 2.94331 -2.19606
-3.74861 2.92937 -2.19441
-3.75498 2.91545 -2.19278
-3.76135 2.90155 -2.19118
-3.7677 2.88767 -2.1896
-3.77407 2.87382 -2.18806
-3.78054 2.86008 -2.1866
-3.787 2.84636 -2.18517
-3.79345 2.83265 -2.18376
-3.79989 2.81897 -2.18238
-3.80839 2.80682 -2.1822
-3.82041 2.79725 -2.18405
-3.83244 2.78766 -2.18593
-3.84449 2.77805 -2.18783
-3.85657 2.76843 -2.18975
-3.86867 2.75879 -2.19171
-3.88079 2.74913 -2.19368
-3.89293 2.73945 -2.19568
-3.90509 2.72976 -2.19771
-3.91728 2.72005 -2.19976
-3.92949 2.71032 -2.20183
-3.94172 2.70057 -2.20394
-3.95428 2.69101 -2.20624
-3.96702 2.68153 -2.20865
-3.97979 2.67204 -2.21108
-3.9976 2.66586 -2.21633
-4.01594 2.65996 -2.22186
-4.03406 2.65381 -2.22728
-4.05214 2.64755 -2.23267
-4.0703 2.64127 -2.23811
-4.08856 2.63495 -2.2436
-4.10691 2.6286 -2.24913
-4.12534 2.62221 -2.25472
-4.14387 2.6158 -2.26036
-4.16249 2.60935 -2.26604
-4.18121 2.60287 -2.27178
-4.29464 2.65486 -2.32888
-4.28994 2.63341 -2.32185
-4.2853 2.61211 -2.3149
-4.28248 2.59202 -2.30897
-4.31292 2.59202 -2.321
-4.3437 2.59203 -2.33318
-4.37478 2.59203 -2.3455
-4.4062 2.59203 -2.35798
-4.43796 2.59203 -2.37062
-4.47007 2.59203 -2.38342
-4.50251 2.59203 -2.39638
-4.53532 2.59203 -2.40951
-4.56848 2.59204 -2.4228
-4.60202 2.59204 -2.43627
-4.63593 2.59204 -2.44991
-4.67023 2.59204 -2.46373
-3.72193 2.98439 -2.24878
-3.72834 2.97039 -2.24702
-3.73474 2.95641 -2.24529
-3.74113 2.94245 -2.24358
-3.74752 2.92852 -2.24189
-3.75389 2.9146 -2.24023
-3.76025 2.9007 -2.2386
-3.7666 2.88683 -2.23698
-3.77295 2.87297 -2.23539
-3.77928 2.85913 -2.23383
-3.7856 2.84531 -2.23229
-3.79196 2.83154 -2.23079
-3.7984 2.81786 -2.22937
-3.80782 2.8064 -2.22973
-3.81983 2.79683 -2.23163
-3.83187 2.78724 -2.23354
-3.84392 2.77763 -2.23549
-3.856 2.76801 -2.23745
-3.86809 2.75837 -2.23945
-3.88021 2.74872 -2.24147
-3.89235 2.73904 -2.24351
-3.90451 2.72935 -2.24558
-3.91669 2.71964 -2.24768
-3.9289 2.70991 -2.2498
-3.94112 2.70016 -2.25194
-3.95338 2.69039 -2.25412
-3.96565 2.68061 -2.25632
-3.97909 2.67157 -2.25919
-3.99705 2.6655 -2.26463
-4.01495 2.6593 -2.27005
-4.43102 2.73916 -2.45555
-4.38989 2.69477 -2.42807
-4.34987 2.65147 -2.40132
-4.33424 2.62335 -2.38814
-4.32948 2.60198 -2.38102
-4.34369 2.59203 -2.38436
-4.37478 2.59203 -2.39695
-4.40621 2.59203 -2.40971
-4.43796 2.59203 -2.42262
-4.47007 2.59203 -2.4357
-4.50251 2.59203 -2.44895
-4.53532 2.59203 -2.46236
-4.56848 2.59204 -2.47595
-4.60202 2.59204 -2.48971
-6.67189 4.02042 -1.04199
-6.64218 3.97424 -1.0354
-6.61261 3.92849 -1.02887
-6.5692 3.87492 -1.02022
-6.51842 3.81752 -1.01048
-6.46837 3.76105 -1.00089
-6.4499 3.72335 -0.996222
-6.454 3.69883 -0.995062
-6.45485 3.67252 -0.993416
-6.45519 3.64601 -0.991706
-6.45538 3.61952 -0.98999
-6.45543 3.59302 -0.988267
-6.45531 3.56654 -0.986537
-6.45507 3.54007 -0.9848
-6.45466 3.51361 -0.983057
-6.46635 3.49378 -0.983165
-6.49094 3.48086 -0.985241
-6.51556 3.46784 -0.987326
-6.54021 3.45473 -0.989418
-6.56489 3.44153 -0.991517
-6.5896 3.42823 -0.993625
-6.61436 3.41484 -0.99574
-6.63915 3.40136 -0.997863
-6.66396 3.38778 -0.999994
-6.68736 3.37337 -1.00192
-6.71044 3.3587 -1.00379
-6.73353 3.34394 -1.00568
-6.75664 3.32909 -1.00757
-6.77977 3.31415 -1.00946
-6.8029 3.29911 -1.01136
-6.82602 3.28397 -1.01327
-6.84919 3.26875 -1.01518
-6.8731 3.25379 -1.01721
-6.90313 3.24159 -1.02015
-6.93289 3.22912 -1.02305
-6.96114 3.21579 -1.02573
-6.14496 3.99757 -1.04271
-6.13302 3.96253 -1.03857
-6.1211 3.92772 -1.03447
-6.10931 3.89322 -1.03041
-6.09974 3.86032 -1.02675
-6.09018 3.82762 -1.02312
-6.08061 3.7951 -1.01951
-6.07105 3.76278 -1.01593
-6.07168 3.73692 -1.01408
-6.07284 3.71146 -1.01232
-6.07394 3.68607 -1.01058
-6.07499 3.66073 -1.00884
-6.07598 3.63546 -1.00711
-6.07693 3.61024 -1.00539
-6.07826 3.58533 -1.00375
-6.07985 3.56066 -1.00216
-6.08139 3.53604 -1.00059
-6.08287 3.51147 -0.99902
-6.08998 3.49021 -0.998388
-6.10204 3.47179 -0.998579
-6.11407 3.45334 -0.998773
-6.12607 3.43487 -0.998972
-6.13804 3.41637 -0.999174
-6.14997 3.39784 -0.999381
-6.16188 3.37928 -0.999591
-6.17375 3.3607 -0.999806
-6.18568 3.34213 -1.00004
-6.19777 3.32364 -1.00031
-6.20983 3.30512 -1.00058
-6.22186 3.28657 -1.00085
-6.23386 3.26799 -1.00113
-6.24703 3.25001 -1.00161
-6.26336 3.23363 -1.0026
-6.27969 3.2172 -1.0036
-6.29602 3.20072 -1.0046
-6.31235 3.1842 -1.00561
-6.32868 3.16762 -1.00663
-6.34501 3.15099 -1.00765
-6.36682 3.13702 -1.00955
-6.39377 3.12546 -1.01227
-6.4208 3.11381 -1.015
-6.44793 3.10207 -1.01775
-6.47514 3.09024 -1.02051
-6.50245 3.07832 -1.02329
-6.52985 3.0663 -1.02609
-6.55632 3.05372 -1.02874
-6.5821 3.04069 -1.03128
-6.60794 3.02756 -1.03384
-6.63384 3.01435 -1.03642
-6.65983 3.00103 -1.039
-6.68588 2.98763 -1.0416
-6.7137 2.97489 -1.04448
-6.75229 2.96673 -1.04903
-6.79118 2.95849 -1.05363
-6.83037 2.95016 -1.05828
-6.86988 2.94174 -1.06296
-6.9097 2.93323 -1.0677
-6.94984 2.92462 -1.07248
-6.99344 2.91724 -1.0778
-7.0941 2.93319 -1.09189
-7.22868 2.96237 -1.11117
-5.93205 4.12893 -1.08938
-5.8753 4.06219 -1.07661
-5.86592 4.02862 -1.07258
-5.86203 3.999 -1.06957
-5.85814 3.96952 -1.06659
-5.85424 3.9402 -1.06363
-5.85034 3.91102 -1.06069
-5.84643 3.88198 -1.05777
-5.84252 3.85309 -1.05488
-5.8386 3.82433 -1.05201
-5.83469 3.79572 -1.04915
-5.83331 3.76889 -1.04678
-5.8341 3.74356 -1.04481
-5.83474 3.71824 -1.04284
-5.83535 3.69299 -1.04088
-5.83594 3.66784 -1.03893
-5.83651 3.64275 -1.03699
-5.83705 3.61775 -1.03507
-5.83757 3.59283 -1.03317
-5.83806 3.56798 -1.03127
-5.83853 3.54321 -1.02939
-5.83898 3.51851 -1.02752
-5.84097 3.49484 -1.02594
-5.84769 3.47405 -1.02521
-5.85438 3.45327 -1.02448
-5.86104 3.43252 -1.02376
-5.86768 3.41178 -1.02305
-5.87429 3.39106 -1.02234
-5.88179 3.37089 -1.02181
-5.89365 3.35322 -1.02204
-5.90548 3.33553 -1.02228
-5.91728 3.3178 -1.02252
-5.92905 3.30005 -1.02276
-5.94079 3.28227 -1.02301
-5.95251 3.26446 -1.02326
-5.96419 3.24662 -1.02352
-5.97619 3.22895 -1.02384
-5.99185 3.21321 -1.02479
-6.0075 3.19743 -1.02575
-6.02316 3.18161 -1.02672
-6.0388 3.16573 -1.02769
-6.05445 3.14982 -1.02867
-6.07009 3.13385 -1.02966
-6.08573 3.11783 -1.03065
-6.10168 3.10193 -1.0317
-6.11763 3.08598 -1.03276
-6.13359 3.06998 -1.03383
-6.14955 3.05393 -1.0349
-6.16551 3.03783 -1.03598
-6.18147 3.02168 -1.03707
-6.19743 3.00549 -1.03816
-6.2134 2.98924 -1.03926
-6.22937 2.97294 -1.04037
-6.25467 2.96102 -1.04305
-6.28021 2.94908 -1.04576
-6.30585 2.93706 -1.04849
-6.33161 2.92497 -1.05125
-6.3656 2.91653 -1.05537
-6.40124 2.90865 -1.05977
-6.43715 2.90069 -1.0642
-6.47333 2.89265 -1.06868
-6.50978 2.88453 -1.0732
-6.54682 2.87645 -1.07782
-6.59644 2.87365 -1.0845
-6.64666 2.87081 -1.09128
-6.69751 2.86793 -1.09814
-6.74899 2.865 -1.10511
-6.80111 2.86204 -1.11217
-6.85389 2.85903 -1.11933
-6.90735 2.85597 -1.1266
-6.96149 2.85287 -1.13397
-7.01858 2.85064 -1.14181
-7.08815 2.85308 -1.15167
-7.1589 2.85555 -1.1617
-7.2309 2.85807 -1.17193
-7.30414 2.86061 -1.18234
-7.37663 2.86241 -1.19262
-7.44703 2.86293 -1.20255
-7.53422 2.86941 -1.21517
-5.7616 4.11833 -1.12773
-5.74686 4.08067 -1.12234
-5.7384 4.04771 -1.11821
-5.73237 4.01664 -1.11458
-5.72636 3.98576 -1.11098
-5.7222 3.95633 -1.10777
-5.71882 3.92759 -1.10473
-5.71543 3.89899 -1.10171
-5.71203 3.87052 -1.09871
-5.70863 3.8422 -1.09574
-5.70521 3.81401 -1.09279
-5.70307 3.78679 -1.0901
-5.70425 3.7619 -1.08807
-5.70541 3.73708 -1.08605
-5.70653 3.71235 -1.08405
-5.70763 3.68769 -1.08206
-5.70851 3.66298 -1.08005
-5.70937 3.63835 -1.07805
-5.7102 3.61379 -1.07607
-5.71101 3.58932 -1.07409
-5.71179 3.56491 -1.07214
-5.71255 3.54058 -1.07019
-5.71328 3.51633 -1.06826
-5.71596 3.49335 -1.06671
-5.72272 3.47293 -1.06594
-5.72945 3.45251 -1.06518
-5.73615 3.43212 -1.06442
-5.74282 3.41175 -1.06367
-5.74947 3.39139 -1.06293
-5.75608 3.37105 -1.0622
-5.76268 3.35072 -1.06147
-5.76924 3.33042 -1.06076
-5.77577 3.31013 -1.06005
-5.78228 3.28986 -1.05935
-5.78875 3.26959 -1.05865
-5.79509 3.24929 -1.05795
-5.8014 3.229 -1.05725
-5.80858 3.20922 -1.05672
-5.81761 3.19048 -1.05654
-5.82662 3.17174 -1.05637
-5.83561 3.15299 -1.0562
-5.84458 3.13424 -1.05605
-5.85353 3.11548 -1.0559
-5.86246 3.09672 -1.05575
-5.87136 3.07796 -1.05562
-5.88025 3.05919 -1.05549
-5.8948 3.04335 -1.05638
-5.91012 3.02786 -1.05742
-5.92544 3.01233 -1.05847
-5.94076 2.99675 -1.05953
-5.95608 2.98113 -1.06059
-5.9714 2.96545 -1.06166
-5.99253 2.9526 -1.06377
-6.01665 2.94111 -1.06641
-6.04086 2.92956 -1.06907
-6.0637 2.91722 -1.07149
-6.08565 2.90435 -1.07376
-6.10765 2.89142 -1.07604
-6.12973 2.87841 -1.07834
-6.16286 2.87047 -1.08258
-6.20652 2.86718 -1.08867
-6.25064 2.86386 -1.09483
-6.29525 2.86049 -1.10107
-6.34073 2.85724 -1.10745
-6.38696 2.85406 -1.11396
-6.43452 2.85118 -1.12069
-6.48268 2.84827 -1.12752
-6.53141 2.84533 -1.13444
-6.58074 2.84234 -1.14146
-6.63067 2.8393 -1.14857
-6.68121 2.83623 -1.15578
-6.73237 2.83311 -1.1631
-6.78417 2.82995 -1.17051
-6.83665 2.82674 -1.17803
-6.88977 2.82348 -1.18565
-6.94357 2.82018 -1.19339
-6.99807 2.81682 -1.20123
-7.06233 2.81704 -1.21074
-7.13252 2.81918 -1.22126
-7.20389 2.82135 -1.23196
-7.27651 2.82355 -1.24286
-7.3417 2.82244 -1.25248
-7.39526 2.81648 -1.26011
-7.4629 2.81553 -1.27012
-7.55016 2.82148 -1.28347
-7.62772 2.82329 -1.29514
-7.80692 2.86186 -1.32404
-5.60337 4.00522 -1.15554
-5.59794 3.97493 -1.15185
-5.59252 3.94481 -1.14819
-5.58729 3.91498 -1.14459
-5.58439 3.88694 -1.1415
-5.58148 3.85904 -1.13843
-5.57855 3.83126 -1.13538
-5.57582 3.80375 -1.13239
-5.57731 3.77923 -1.13029
-5.57877 3.75479 -1.12819
-5.5802 3.73043 -1.12612
-5.5816 3.70614 -1.12405
-5.58297 3.68192 -1.122
-5.58432 3.65777 -1.11997
-5.58564 3.63371 -1.11795
-5.58682 3.60964 -1.11592
-5.58791 3.58559 -1.11388
-5.58897 3.56162 -1.11187
-5.59 3.53772 -1.10986
-5.591 3.5139 -1.10787
-5.59441 3.49165 -1.10638
-5.60121 3.47157 -1.10557
-5.60798 3.45152 -1.10477
-5.61472 3.43148 -1.10397
-5.62143 3.41146 -1.10319
-5.62811 3.39145 -1.10241
-5.63476 3.37146 -1.10164
-5.64139 3.35149 -1.10088
-5.64791 3.33149 -1.10011
-5.65437 3.31149 -1.09934
-5.66081 3.2915 -1.09859
-5.66722 3.27153 -1.09784
-5.6736 3.25158 -1.0971
-5.67995 3.23164 -1.09636
-5.68628 3.21172 -1.09564
-5.69434 3.1928 -1.09526
-5.70328 3.17439 -1.09506
-5.7122 3.15597 -1.09487
-5.72109 3.13755 -1.09469
-5.72997 3.11912 -1.09452
-5.73882 3.1007 -1.09435
-5.74766 3.08226 -1.09419
-5.75647 3.06382 -1.09403
-5.76526 3.04538 -1.09389
-5.77403 3.02694 -1.09375
-5.78278 3.00849 -1.09362
-5.79178 2.99016 -1.09354
-5.80141 2.97217 -1.0936
-5.81102 2.95416 -1.09366
-5.82171 2.9367 -1.09394
-5.83396 2.92001 -1.09452
-5.8462 2.90328 -1.0951
-5.85844 2.88653 -1.0957
-5.87067 2.86976 -1.0963
-5.90071 2.86159 -1.10023
-5.94143 2.8584 -1.10615
-5.98259 2.85517 -1.11214
-6.02418 2.8519 -1.11821
-6.06622 2.84859 -1.12435
-6.1087 2.84524 -1.13057
-6.15166 2.84184 -1.13687
-6.19509 2.83841 -1.14325
-6.23899 2.83493 -1.1497
