ply
format ascii 1.0
comment Created by Open3D
element vertex 1863
property double x
property double y
property double z
end_header
-1.89659 3.57047 -1.39585
-1.91025 3.56898 -1.39762
-1.92395 3.56748 -1.3994
-1.93732 3.56532 -1.40094
-1.95063 3.56299 -1.40244
-1.96397 3.56065 -1.40395
-1.97734 3.5583 -1.40547
-1.99073 3.55595 -1.40701
-2.00415 3.55357 -1.40857
-2.01759 3.55119 -1.41014
-2.03107 3.5488 -1.41173
-2.04456 3.54639 -1.41333
-2.05808 3.54398 -1.41494
-2.07164 3.54155 -1.41658
-2.08522 3.53911 -1.41822
-2.09883 3.53666 -1.41989
-2.11246 3.53419 -1.42156
-2.12613 3.53172 -1.42326
-2.13982 3.52923 -1.42497
-2.15355 3.52673 -1.42669
-2.16741 3.5244 -1.42851
-2.1819 3.52302 -1.43073
-2.19644 3.52163 -1.43297
-2.21102 3.52023 -1.43524
-2.22564 3.51883 -1.43752
-2.2403 3.51741 -1.43981
-2.25501 3.51598 -1.44213
-2.26976 3.51454 -1.44447
-2.28456 3.51309 -1.44683
-2.29939 3.51162 -1.44921
-2.31428 3.51015 -1.4516
-2.32921 3.50867 -1.45402
-2.34418 3.50717 -1.45646
-2.35921 3.50567 -1.45891
-2.37427 3.50415 -1.46139
-2.38939 3.50262 -1.46389
-2.40455 3.50108 -1.46641
-2.41976 3.49953 -1.46895
-2.43502 3.49797 -1.47151
-2.45033 3.49639 -1.47409
-2.46569 3.4948 -1.47669
-2.4811 3.49321 -1.47931
-2.49656 3.4916 -1.48196
-2.51207 3.48997 -1.48462
-2.52763 3.48834 -1.48731
-2.54324 3.48669 -1.49002
-2.55891 3.48503 -1.49275
-2.57463 3.48336 -1.49551
-2.5904 3.48168 -1.49829
-2.60623 3.47998 -1.50108
-2.62212 3.47829 -1.50391
-2.63818 3.47672 -1.50682
-2.65429 3.47515 -1.50976
-2.67046 3.47356 -1.51272
-2.68672 3.47199 -1.51572
-2.70309 3.47047 -1.51877
-2.71951 3.46894 -1.52185
-2.736 3.46739 -1.52495
-2.75255 3.46583 -1.52807
-2.76916 3.46426 -1.53122
-2.78584 3.46268 -1.5344
-2.80258 3.46108 -1.5376
-2.81938 3.45947 -1.54082
-2.83625 3.45784 -1.54408
-2.85319 3.4562 -1.54735
-2.87019 3.45455 -1.55066
-2.88726 3.45289 -1.55399
-2.9044 3.45121 -1.55735
-2.92161 3.44951 -1.56074
-2.93971 3.44878 -1.56459
-2.9586 3.44885 -1.56885
-2.97759 3.44892 -1.57314
-2.99668 3.44898 -1.57747
-3.01588 3.44904 -1.58184
-3.03518 3.44911 -1.58626
-3.05458 3.44917 -1.59071
-3.0741 3.44923 -1.5952
-3.09373 3.44929 -1.59973
-3.11347 3.44935 -1.6043
-3.13332 3.44941 -1.60892
-3.15328 3.44947 -1.61358
-3.17337 3.44952 -1.61828
-3.19355 3.44958 -1.62302
-3.21387 3.44964 -1.6278
-3.2343 3.44969 -1.63264
-3.25485 3.44974 -1.63751
-3.27531 3.44957 -1.64232
-3.29537 3.44885 -1.64692
-3.31554 3.44813 -1.65156
-3.33583 3.4474 -1.65624
-3.35623 3.44666 -1.66096
-3.37674 3.44592 -1.66573
-3.39737 3.44517 -1.67054
-3.41812 3.44442 -1.67539
-3.43899 3.44366 -1.68029
-3.45998 3.44289 -1.68523
-3.48109 3.44212 -1.69022
-3.50232 3.44134 -1.69525
-3.52368 3.44055 -1.70033
-3.54449 3.4391 -1.70513
-3.56456 3.43682 -1.70956
-3.58473 3.43452 -1.71403
-3.605 3.4322 -1.71854
-1.77894 3.56313 -1.41215
-1.79228 3.56171 -1.41382
-1.80565 3.56028 -1.41551
-1.81906 3.55884 -1.41721
-1.83249 3.55739 -1.41892
-1.84595 3.55593 -1.42066
-1.85943 3.55446 -1.4224
-1.87296 3.55297 -1.42417
-1.8865 3.55148 -1.42594
-1.90008 3.54998 -1.42774
-1.91369 3.54846 -1.42955
-1.92733 3.54693 -1.43138
-1.941 3.54539 -1.43322
-1.9547 3.54385 -1.43508
-1.96814 3.54175 -1.43673
-1.98146 3.53938 -1.4383
-1.9948 3.537 -1.43988
-2.00817 3.53462 -1.44148
-2.02157 3.53221 -1.4431
-2.03499 3.5298 -1.44472
-2.04845 3.52738 -1.44637
-2.06192 3.52494 -1.44803
-2.07543 3.52249 -1.44971
-2.08896 3.52003 -1.4514
-2.10252 3.51756 -1.4531
-2.11611 3.51508 -1.45483
-2.12973 3.51258 -1.45657
-2.14338 3.51007 -1.45832
-2.15739 3.50809 -1.46032
-2.1718 3.5067 -1.46258
-2.18625 3.50529 -1.46486
-2.20075 3.50387 -1.46716
-2.21528 3.50245 -1.46948
-2.22986 3.50101 -1.47182
-2.24448 3.49956 -1.47418
-2.25915 3.4981 -1.47656
-2.27385 3.49663 -1.47896
-2.2886 3.49515 -1.48138
-2.3034 3.49365 -1.48382
-2.31824 3.49215 -1.48628
-2.33313 3.49063 -1.48876
-2.34806 3.48911 -1.49126
-2.36304 3.48757 -1.49378
-2.37806 3.48602 -1.49632
-2.39313 3.48446 -1.49888
-2.40825 3.48288 -1.50146
-2.42342 3.4813 -1.50406
-2.43863 3.4797 -1.50669
-2.4539 3.4781 -1.50934
-2.46922 3.47648 -1.51201
-2.48458 3.47484 -1.5147
-2.49999 3.4732 -1.51741
-2.51546 3.47154 -1.52014
-2.53097 3.46987 -1.5229
-2.54654 3.46819 -1.52568
-2.56216 3.4665 -1.52848
-2.57784 3.46479 -1.5313
-2.59356 3.46307 -1.53415
-2.60934 3.46134 -1.53702
-2.62518 3.4596 -1.53992
-2.64107 3.45784 -1.54283
-2.65706 3.45613 -1.5458
-2.67319 3.4545 -1.54883
-2.68944 3.45295 -1.55193
-2.70575 3.45139 -1.55506
-2.72213 3.44981 -1.55821
-2.73856 3.44823 -1.56139
-2.75506 3.44662 -1.56459
-2.77167 3.44507 -1.56784
-2.78967 3.44514 -1.57187
-2.80776 3.4452 -1.57593
-2.82593 3.44526 -1.58003
-2.84421 3.44533 -1.58416
-2.86257 3.44539 -1.58833
-2.88104 3.44545 -1.59254
-2.8996 3.44551 -1.59679
-2.91826 3.44557 -1.60107
-2.93702 3.44563 -1.6054
-2.95588 3.44569 -1.60976
-2.97485 3.44574 -1.61416
-2.99391 3.4458 -1.6186
-3.01309 3.44585 -1.62308
-3.03236 3.44591 -1.6276
-3.05174 3.44596 -1.63217
-3.07124 3.44601 -1.63677
-3.09084 3.44606 -1.64142
-3.11055 3.44611 -1.64611
-3.13037 3.44616 -1.65084
-3.15031 3.44621 -1.65561
-3.17036 3.44626 -1.66043
-3.19052 3.44631 -1.66529
-3.21054 3.44607 -1.67006
-3.23024 3.44535 -1.67464
-3.25003 3.44464 -1.67926
-3.26994 3.44391 -1.68393
-3.28995 3.44318 -1.68864
-3.31008 3.44244 -1.69339
-3.33031 3.4417 -1.69818
-3.35066 3.44095 -1.70301
-3.37113 3.44019 -1.70789
-3.39171 3.43943 -1.71282
-3.4124 3.43866 -1.71778
-3.43322 3.43788 -1.72279
-3.45416 3.4371 -1.72785
-3.47521 3.43631 -1.73296
-3.4964 3.43551 -1.73811
-3.5177 3.43471 -1.7433
-3.53913 3.4339 -1.74855
-3.5595 3.43194 -1.75326
-3.57963 3.42963 -1.75783
-3.59985 3.4273 -1.76245
-1.76956 3.54436 -1.44188
-1.78283 3.54293 -1.44358
-1.79612 3.54148 -1.44529
-1.80944 3.54003 -1.44702
-1.82279 3.53856 -1.44876
-1.83616 3.53708 -1.45052
-1.84957 3.53559 -1.4523
-1.863 3.5341 -1.45409
-1.87647 3.53259 -1.45589
-1.88996 3.53107 -1.45772
-1.90348 3.52953 -1.45955
-1.91704 3.52799 -1.46141
-1.93062 3.52644 -1.46328
-1.94424 3.52487 -1.46517
-1.95789 3.52329 -1.46707
-1.97156 3.52171 -1.46899
-1.98527 3.52011 -1.47093
-1.99879 3.5181 -1.47271
-2.01211 3.51569 -1.47436
-2.02546 3.51327 -1.47601
-2.03884 3.51084 -1.47768
-2.05224 3.50839 -1.47937
-2.06567 3.50594 -1.48108
-2.07913 3.50347 -1.4828
-2.09262 3.50099 -1.48453
-2.10613 3.4985 -1.48628
-2.11967 3.49599 -1.48805
-2.13324 3.49348 -1.48984
-2.14739 3.49185 -1.49202
-2.16172 3.49043 -1.49432
-2.17609 3.48901 -1.49664
-2.19051 3.48757 -1.49898
-2.20496 3.48612 -1.50134
-2.21945 3.48467 -1.50372
-2.23399 3.4832 -1.50612
-2.24857 3.48172 -1.50854
-2.26319 3.48023 -1.51098
-2.27785 3.47872 -1.51344
-2.29256 3.47721 -1.51592
-2.30731 3.47569 -1.51842
-2.32211 3.47415 -1.52094
-2.33696 3.4726 -1.52348
-2.35185 3.47105 -1.52604
-2.36678 3.46948 -1.52863
-2.38176 3.46789 -1.53123
-2.39679 3.4663 -1.53386
-2.41186 3.46469 -1.5365
-2.42698 3.46308 -1.53917
-2.44216 3.46145 -1.54187
-2.45738 3.45981 -1.54458
-2.47264 3.45815 -1.54731
-2.48796 3.45649 -1.55007
-2.50333 3.45481 -1.55285
-2.51875 3.45312 -1.55565
-2.53422 3.45141 -1.55848
-2.54975 3.4497 -1.56133
-2.56532 3.44797 -1.5642
-2.58095 3.44623 -1.56709
-2.59663 3.44447 -1.57001
-2.61256 3.44297 -1.57307
-2.62941 3.44257 -1.57667
-2.64633 3.44217 -1.5803
-2.66333 3.44177 -1.58396
-2.68066 3.44168 -1.5878
-2.69819 3.44174 -1.59175
-2.71581 3.4418 -1.59573
-2.73351 3.44186 -1.59975
-2.7513 3.44192 -1.6038
-2.76918 3.44198 -1.60789
-2.78715 3.44203 -1.61201
-2.80522 3.44209 -1.61618
-2.82337 3.44215 -1.62037
-2.84163 3.4422 -1.62461
-2.85997 3.44225 -1.62888
-2.87841 3.44231 -1.6332
-2.89695 3.44236 -1.63755
-2.91559 3.44241 -1.64194
-2.93432 3.44246 -1.64637
-2.95316 3.44251 -1.65084
-2.9721 3.44256 -1.65535
-2.99114 3.4426 -1.6599
-3.01028 3.44265 -1.66449
-3.02954 3.44269 -1.66912
-3.04889 3.44274 -1.67379
-3.06836 3.44278 -1.67851
-3.08793 3.44282 -1.68327
-3.10761 3.44286 -1.68807
-3.12741 3.4429 -1.69292
-3.14699 3.44258 -1.69764
-3.16633 3.44188 -1.7022
-3.18576 3.44116 -1.70681
-3.2053 3.44044 -1.71146
-3.22495 3.43971 -1.71615
-3.24469 3.43898 -1.72088
-3.26455 3.43824 -1.72565
-3.28452 3.43749 -1.73046
-3.3046 3.43674 -1.73532
-3.32478 3.43598 -1.74023
-3.34508 3.43522 -1.74517
-3.3655 3.43445 -1.75016
-3.38603 3.43367 -1.7552
-3.40667 3.43288 -1.76028
-3.42744 3.43209 -1.76541
-3.44833 3.43129 -1.77058
-3.46933 3.43049 -1.7758
-3.49046 3.42968 -1.78107
-3.5117 3.42886 -1.78639
-3.53308 3.42803 -1.79175
-3.55442 3.42704 -1.79709
-3.57451 3.42472 -1.80178
-3.59469 3.42239 -1.8065
-1.76023 3.52567 -1.47148
-1.77341 3.52422 -1.47321
-1.78663 3.52276 -1.47494
-1.79986 3.52129 -1.4767
-1.81313 3.51981 -1.47847
-1.82643 3.51832 -1.48025
-1.83974 3.51682 -1.48205
-1.8531 3.5153 -1.48387
-1.86648 3.51378 -1.48571
-1.87989 3.51224 -1.48756
-1.89332 3.5107 -1.48942
-1.90679 3.50914 -1.4913
-1.92029 3.50757 -1.4932
-1.93382 3.50599 -1.49512
-1.94738 3.50439 -1.49705
-1.96097 3.50279 -1.499
-1.9746 3.50117 -1.50097
-1.98825 3.49955 -1.50295
-2.00194 3.49791 -1.50495
-2.01565 3.49626 -1.50697
-2.02926 3.49435 -1.50889
-2.0426 3.4919 -1.51061
-2.05595 3.48944 -1.51234
-2.06933 3.48696 -1.51409
-2.08274 3.48447 -1.51585
-2.09618 3.48197 -1.51764
-2.10965 3.47946 -1.51943
-2.12322 3.47707 -1.52131
-2.13743 3.47565 -1.52363
-2.15168 3.47422 -1.52596
-2.16597 3.47277 -1.52832
-2.1803 3.47132 -1.5307
-2.19467 3.46985 -1.5331
-2.20907 3.46838 -1.53552
-2.22353 3.46689 -1.53795
-2.23802 3.46539 -1.54041
-2.25256 3.46388 -1.54289
-2.26713 3.46236 -1.54539
-2.28176 3.46083 -1.54791
-2.29642 3.45928 -1.55045
-2.31113 3.45773 -1.55301
-2.32589 3.45616 -1.5556
-2.34069 3.45458 -1.5582
-2.35553 3.45299 -1.56083
-2.37042 3.45139 -1.56347
-2.38536 3.44977 -1.56614
-2.40034 3.44815 -1.56883
-2.41537 3.44651 -1.57154
-2.43045 3.44486 -1.57428
-2.44599 3.44378 -1.5773
-2.4621 3.4434 -1.58068
-2.47827 3.44302 -1.58408
-2.49452 3.44264 -1.58752
-2.51083 3.44226 -1.59099
-2.52722 3.44187 -1.59448
-2.54367 3.44148 -1.59801
-2.5602 3.44109 -1.60157
-2.5768 3.44069 -1.60516
-2.59348 3.44029 -1.60878
-2.61023 3.43989 -1.61243
-2.62706 3.43949 -1.61612
-2.64396 3.43908 -1.61984
-2.66094 3.43867 -1.62359
-2.67827 3.43861 -1.62754
-2.69577 3.43866 -1.63158
-2.71337 3.43871 -1.63566
-2.73105 3.43877 -1.63977
-2.74882 3.43882 -1.64392
-2.76668 3.43887 -1.64811
-2.78463 3.43892 -1.65233
-2.80267 3.43897 -1.65659
-2.8208 3.43901 -1.66089
-2.83903 3.43906 -1.66523
-2.85735 3.4391 -1.66961
-2.87577 3.43915 -1.67402
-2.89429 3.43919 -1.67848
-2.9129 3.43923 -1.68297
-2.93161 3.43928 -1.68751
-2.95042 3.43932 -1.69209
-2.96934 3.43936 -1.69671
-2.98835 3.43939 -1.70136
-3.00747 3.43943 -1.70607
-3.0267 3.43947 -1.71081
-3.04602 3.4395 -1.7156
-3.06546 3.43954 -1.72043
-3.08461 3.43912 -1.72507
-3.1036 3.43841 -1.72962
-3.12268 3.4377 -1.73421
-3.14187 3.43698 -1.73884
-3.16116 3.43626 -1.74351
-3.18055 3.43553 -1.74822
-3.20004 3.4348 -1.75297
-3.21964 3.43406 -1.75777
-3.23934 3.43331 -1.7626
-3.25915 3.43255 -1.76748
-3.27907 3.43179 -1.77241
-3.2991 3.43103 -1.77738
-3.31924 3.43025 -1.78239
-3.33949 3.42947 -1.78744
-3.35985 3.42869 -1.79255
-3.38033 3.42789 -1.7977
-3.40093 3.42709 -1.80289
-3.42164 3.42629 -1.80814
-3.44248 3.42547 -1.81343
-3.46342 3.42465 -1.81877
-3.4845 3.42382 -1.82415
-3.50569 3.42299 -1.82959
-3.52701 3.42214 -1.83507
-3.54846 3.42129 -1.84061
-3.56937 3.4198 -1.84586
-3.58952 3.41746 -1.85069
-1.75094 3.50706 -1.50096
-1.76405 3.5056 -1.5027
-1.77717 3.50413 -1.50447
-1.79033 3.50264 -1.50625
-1.80351 3.50115 -1.50804
-1.81673 3.49964 -1.50985
-1.82996 3.49812 -1.51168
-1.84323 3.4966 -1.51352
-1.85653 3.49506 -1.51538
-1.86986 3.49351 -1.51726
-1.88321 3.49194 -1.51915
-1.8966 3.49037 -1.52106
-1.91001 3.48878 -1.52299
-1.92345 3.48719 -1.52493
-1.93693 3.48558 -1.52689
-1.95043 3.48396 -1.52887
-1.96397 3.48233 -1.53086
-1.97753 3.48068 -1.53288
-1.99113 3.47903 -1.53491
-2.00476 3.47736 -1.53695
-2.01843 3.47568 -1.53901
-2.03212 3.47399 -1.5411
-2.04585 3.47229 -1.54319
-2.05957 3.47051 -1.54528
-2.0729 3.46801 -1.54707
-2.08627 3.4655 -1.54888
-2.09966 3.46299 -1.55071
-2.11338 3.46094 -1.55277
-2.1275 3.4595 -1.55513
-2.14167 3.45805 -1.5575
-2.15588 3.45659 -1.5599
-2.17012 3.45512 -1.56232
-2.18441 3.45363 -1.56475
-2.19873 3.45214 -1.56721
-2.2131 3.45063 -1.56969
-2.22751 3.44912 -1.57218
-2.24196 3.44759 -1.5747
-2.25645 3.44605 -1.57724
-2.27117 3.44477 -1.57992
-2.28656 3.44442 -1.58306
-2.302 3.44406 -1.58623
-2.31751 3.4437 -1.58942
-2.33308 3.44335 -1.59264
-2.3487 3.44298 -1.59589
-2.3644 3.44262 -1.59917
-2.38016 3.44225 -1.60248
-2.39598 3.44188 -1.60582
-2.41187 3.44151 -1.60918
-2.42782 3.44113 -1.61258
-2.44384 3.44075 -1.61601
-2.45993 3.44037 -1.61946
-2.47609 3.43999 -1.62295
-2.49231 3.4396 -1.62647
-2.50861 3.43921 -1.63002
-2.52498 3.43882 -1.6336
-2.54141 3.43842 -1.63721
-2.55792 3.43802 -1.64085
-2.5745 3.43762 -1.64452
-2.59116 3.43721 -1.64823
-2.60789 3.43681 -1.65197
-2.62469 3.43639 -1.65574
-2.64158 3.43598 -1.65955
-2.65853 3.43556 -1.66339
-2.67587 3.43552 -1.66745
-2.69335 3.43557 -1.67158
-2.71093 3.43562 -1.67576
-2.72859 3.43566 -1.67997
-2.74633 3.4357 -1.68422
-2.76417 3.43575 -1.6885
-2.7821 3.43579 -1.69282
-2.80012 3.43583 -1.69719
-2.81822 3.43587 -1.70159
-2.83643 3.43591 -1.70603
-2.85473 3.43594 -1.71051
-2.87312 3.43598 -1.71503
-2.89161 3.43601 -1.71959
-2.9102 3.43605 -1.72419
-2.92889 3.43608 -1.72883
-2.94767 3.43611 -1.73352
-2.96656 3.43614 -1.73824
-2.98555 3.43617 -1.74301
-3.00464 3.4362 -1.74782
-3.02335 3.43566 -1.75239
-3.042 3.43496 -1.75692
-3.06076 3.43425 -1.76149
-3.0796 3.43354 -1.76609
-3.09855 3.43282 -1.77074
-3.11759 3.4321 -1.77543
-3.13674 3.43137 -1.78016
-3.15598 3.43063 -1.78493
-3.17532 3.42989 -1.78975
-3.19477 3.42914 -1.7946
-3.21432 3.42838 -1.7995
-3.23398 3.42762 -1.80445
-3.25374 3.42685 -1.80944
-3.27361 3.42608 -1.81447
-3.29359 3.4253 -1.81955
-3.31368 3.42451 -1.82467
-3.33388 3.42371 -1.82984
-3.35419 3.42291 -1.83505
-3.37462 3.4221 -1.84032
-3.39516 3.42129 -1.84563
-3.41583 3.42046 -1.85099
-3.43661 3.41963 -1.85639
-3.4575 3.4188 -1.86185
-3.47852 3.41795 -1.86735
-3.49966 3.4171 -1.87291
-3.52093 3.41624 -1.87851
-3.54232 3.41537 -1.88417
-3.56384 3.4145 -1.88988
-3.61859 3.44515 -1.91315
-1.74169 3.48853 -1.5303
-1.75471 3.48706 -1.53207
-1.76776 3.48557 -1.53386
-1.78084 3.48407 -1.53567
-1.79394 3.48256 -1.53749
-1.80707 3.48104 -1.53933
-1.82023 3.47951 -1.54118
-1.83341 3.47797 -1.54305
-1.84663 3.47641 -1.54493
-1.85987 3.47485 -1.54684
-1.87314 3.47327 -1.54876
-1.88644 3.47168 -1.55069
-1.89977 3.47008 -1.55265
-1.91313 3.46847 -1.55462
-1.92652 3.46685 -1.55661
-1.93994 3.46521 -1.55861
-1.95338 3.46356 -1.56063
-1.96686 3.4619 -1.56267
-1.98038 3.46023 -1.56473
-1.99392 3.45855 -1.5668
-2.00749 3.45685 -1.5689
-2.0211 3.45515 -1.57101
-2.03473 3.45343 -1.57313
-2.04841 3.45169 -1.57528
-2.06211 3.44995 -1.57744
-2.07585 3.44819 -1.57963
-2.08962 3.44642 -1.58182
-2.10398 3.44556 -1.58447
-2.11872 3.44523 -1.58738
-2.13352 3.44489 -1.59032
-2.14837 3.44456 -1.59328
-2.16328 3.44422 -1.59627
-2.17824 3.44388 -1.59929
-2.19326 3.44354 -1.60234
-2.20833 3.4432 -1.60541
-2.22347 3.44285 -1.60851
-2.23865 3.4425 -1.61164
-2.2539 3.44215 -1.61479
-2.26921 3.44179 -1.61797
-2.28458 3.44144 -1.62119
-2.30001 3.44108 -1.62442
-2.3155 3.44071 -1.62769
-2.33105 3.44035 -1.63099
-2.34666 3.43998 -1.63431
-2.36233 3.43961 -1.63767
-2.37807 3.43924 -1.64105
-2.39388 3.43886 -1.64447
-2.40975 3.43848 -1.64791
-2.42568 3.4381 -1.65139
-2.44169 3.43771 -1.65489
-2.45775 3.43733 -1.65843
-2.47389 3.43694 -1.662
-2.4901 3.43654 -1.6656
-2.50637 3.43615 -1.66923
-2.52272 3.43575 -1.67289
-2.53914 3.43534 -1.67658
-2.55563 3.43494 -1.68031
-2.57219 3.43453 -1.68407
-2.58883 3.43412 -1.68786
-2.60553 3.4337 -1.69169
-2.62232 3.43329 -1.69555
-2.63918 3.43286 -1.69944
-2.65612 3.43244 -1.70337
-2.67346 3.43243 -1.70754
-2.69092 3.43247 -1.71177
-2.70847 3.4325 -1.71604
-2.72611 3.43254 -1.72035
-2.74383 3.43258 -1.72469
-2.76165 3.43261 -1.72908
-2.77955 3.43264 -1.7335
-2.79755 3.43268 -1.73797
-2.81563 3.43271 -1.74247
-2.83381 3.43274 -1.74701
-2.85209 3.43277 -1.75159
-2.87046 3.43279 -1.75622
-2.88893 3.43282 -1.76089
-2.90749 3.43284 -1.76559
-2.92615 3.43287 -1.77034
-2.94491 3.43289 -1.77513
-2.96317 3.43221 -1.77961
-2.9815 3.43152 -1.78411
-2.99993 3.43081 -1.78866
-3.01846 3.43011 -1.79324
-3.03707 3.42939 -1.79787
-3.05578 3.42867 -1.80253
-3.07459 3.42795 -1.80724
-3.09349 3.42721 -1.81199
-3.11249 3.42648 -1.81678
-3.13159 3.42573 -1.82161
-3.15079 3.42498 -1.82649
-3.17008 3.42423 -1.8314
-3.18948 3.42346 -1.83637
-3.20899 3.42269 -1.84137
-3.2286 3.42192 -1.84642
-3.24831 3.42113 -1.85152
-3.26813 3.42034 -1.85666
-3.28806 3.41955 -1.86185
-3.3081 3.41874 -1.86708
-3.32826 3.41793 -1.87236
-3.34852 3.41712 -1.87769
-3.36889 3.41629 -1.88306
-3.38938 3.41546 -1.88849
-3.41 3.41462 -1.89396
-3.4309 3.41395 -1.89958
-3.45251 3.41386 -1.90558
-3.47426 3.41376 -1.91163
-3.49615 3.41367 -1.91774
-3.51817 3.41357 -1.92391
-3.54035 3.41347 -1.93014
-3.59228 3.44175 -1.95253
-3.59516 3.42284 -1.94822
-1.73248 3.47008 -1.55953
-1.74542 3.46859 -1.56133
-1.75839 3.46709 -1.56314
-1.77138 3.46558 -1.56497
-1.78441 3.46405 -1.56681
-1.79746 3.46252 -1.56868
-1.81053 3.46097 -1.57055
-1.82364 3.45942 -1.57245
-1.83677 3.45785 -1.57436
-1.84993 3.45627 -1.57629
-1.86311 3.45468 -1.57824
-1.87633 3.45307 -1.5802
-1.88957 3.45146 -1.58218
-1.90285 3.44983 -1.58418
-1.91615 3.44819 -1.58619
-1.93015 3.44774 -1.58877
-1.94425 3.44737 -1.59142
-1.9584 3.447 -1.5941
-1.97259 3.44663 -1.59679
-1.98683 3.44626 -1.59951
-2.00112 3.44588 -1.60226
-2.01546 3.44551 -1.60503
-2.02984 3.44513 -1.60783
-2.04428 3.44474 -1.61065
-2.05877 3.44436 -1.6135
-2.07331 3.44397 -1.61637
-2.08789 3.44358 -1.61927
-2.10252 3.44317 -1.62219
-2.1172 3.44274 -1.62513
-2.13192 3.44232 -1.62809
-2.1467 3.44188 -1.63108
-2.16154 3.44145 -1.6341
-2.17643 3.44102 -1.63714
-2.19137 3.44058 -1.64021
-2.20643 3.44023 -1.64336
-2.22155 3.43988 -1.64653
-2.23672 3.43952 -1.64972
-2.25195 3.43917 -1.65295
-2.26724 3.43881 -1.65621
-2.28259 3.43844 -1.65949
-2.298 3.43808 -1.6628
-2.31347 3.43771 -1.66614
-2.32901 3.43734 -1.66952
-2.3446 3.43696 -1.67292
-2.36026 3.43659 -1.67635
-2.37598 3.43621 -1.67981
-2.39176 3.43583 -1.6833
-2.40761 3.43544 -1.68682
-2.42353 3.43505 -1.69038
-2.43952 3.43466 -1.69396
-2.45557 3.43427 -1.69758
-2.47169 3.43387 -1.70123
-2.48787 3.43347 -1.70491
-2.50413 3.43307 -1.70862
-2.52046 3.43266 -1.71237
-2.53685 3.43225 -1.71614
-2.55332 3.43184 -1.71996
-2.56986 3.43143 -1.7238
-2.58648 3.43101 -1.72768
-2.60317 3.43059 -1.73159
-2.61993 3.43016 -1.73554
-2.63677 3.42973 -1.73952
-2.65369 3.4293 -1.74354
-2.67103 3.42932 -1.74782
-2.68847 3.42935 -1.75215
-2.706 3.42938 -1.75651
-2.72362 3.42941 -1.76092
-2.74132 3.42943 -1.76536
-2.75911 3.42946 -1.76985
-2.77699 3.42949 -1.77437
-2.79497 3.42951 -1.77894
-2.81303 3.42953 -1.78354
-2.83119 3.42955 -1.78819
-2.84943 3.42957 -1.79287
-2.86778 3.42959 -1.7976
-2.88609 3.42946 -1.80229
-2.90404 3.42877 -1.80673
-2.92207 3.42808 -1.81122
-2.94018 3.42738 -1.81574
-2.95839 3.42668 -1.8203
-2.97669 3.42597 -1.8249
-2.99507 3.42526 -1.82954
-3.01356 3.42453 -1.83422
-3.03212 3.42381 -1.83895
-3.05079 3.42307 -1.84371
-3.06955 3.42234 -1.84852
-3.08841 3.42159 -1.85337
-3.10736 3.42084 -1.85826
-3.12642 3.42008 -1.86319
-3.14557 3.41932 -1.86817
-3.16482 3.41855 -1.87319
-3.18418 3.41777 -1.87826
-3.20364 3.41698 -1.88337
-3.2232 3.41619 -1.88853
-3.24286 3.4154 -1.89373
-3.26264 3.4146 -1.89899
-3.28322 3.41451 -1.90468
-3.30391 3.41442 -1.91044
-3.32474 3.41433 -1.91624
-3.34569 3.41424 -1.9221
-3.36677 3.41414 -1.92802
-3.38798 3.41405 -1.93399
-3.40933 3.41396 -1.94002
-3.43081 3.41386 -1.94611
-3.45242 3.41377 -1.95225
-3.47417 3.41367 -1.95845
-3.49606 3.41358 -1.96471
-3.51809 3.41348 -1.97103
-3.56603 3.43824 -1.99181
-3.57195 3.42227 -1.98908
-3.59457 3.42227 -1.99565
-1.7233 3.4517 -1.58864
-1.73628 3.45042 -1.59057
-1.74976 3.45008 -1.59295
-1.76329 3.44974 -1.59535
-1.77685 3.44939 -1.59777
-1.79046 3.44905 -1.60022
-1.80411 3.4487 -1.60269
-1.8178 3.44835 -1.60518
-1.83153 3.44799 -1.6077
-1.8453 3.44764 -1.61024
-1.85912 3.44728 -1.6128
-1.87299 3.44692 -1.61539
-1.88689 3.44656 -1.618
-1.90084 3.4462 -1.62063
-1.91484 3.44583 -1.62329
-1.92888 3.44546 -1.62598
-1.94297 3.44509 -1.62869
-1.9571 3.44472 -1.63142
-1.97128 3.44434 -1.63418
-1.98551 3.44397 -1.63696
-1.99979 3.44359 -1.63977
-2.01411 3.44321 -1.64261
-2.02849 3.44282 -1.64547
-2.04291 3.44244 -1.64835
-2.05739 3.44205 -1.65127
-2.07191 3.44166 -1.65421
-2.08649 3.44127 -1.65717
-2.1011 3.44085 -1.66015
-2.11577 3.44042 -1.66315
-2.13048 3.43999 -1.66619
-2.14525 3.43955 -1.66925
-2.16007 3.43911 -1.67233
-2.17495 3.43868 -1.67544
-2.18988 3.43823 -1.67858
-2.20486 3.43779 -1.68175
-2.21991 3.43734 -1.68495
-2.23501 3.43689 -1.68818
-2.25016 3.43644 -1.69143
-2.26538 3.43598 -1.69471
-2.28065 3.43553 -1.69803
-2.29599 3.43506 -1.70137
-2.31144 3.43469 -1.70479
-2.32696 3.43431 -1.70823
-2.34253 3.43393 -1.71171
-2.35817 3.43355 -1.71522
-2.37388 3.43317 -1.71876
-2.38964 3.43278 -1.72233
-2.40547 3.43239 -1.72593
-2.42138 3.43199 -1.72956
-2.43734 3.43159 -1.73323
-2.45337 3.43119 -1.73692
-2.46947 3.43079 -1.74065
-2.48564 3.43039 -1.74441
-2.50187 3.42998 -1.74821
-2.51818 3.42956 -1.75204
-2.53456 3.42915 -1.7559
-2.55101 3.42873 -1.7598
-2.56753 3.42831 -1.76373
-2.58412 3.42788 -1.76769
-2.60079 3.42746 -1.77169
-2.61754 3.42702 -1.77573
-2.63436 3.42659 -1.7798
-2.65126 3.42617 -1.78391
-2.6686 3.42619 -1.7883
-2.68602 3.42621 -1.79272
-2.70353 3.42624 -1.79719
-2.72112 3.42626 -1.80169
-2.7388 3.42628 -1.80623
-2.75656 3.4263 -1.81081
-2.77442 3.42631 -1.81544
-2.79237 3.42633 -1.82011
-2.81041 3.42634 -1.82481
-2.82827 3.42602 -1.82938
-2.84591 3.42533 -1.8338
-2.86365 3.42465 -1.83826
-2.88147 3.42396 -1.84275
-2.89937 3.42326 -1.84729
-2.91736 3.42255 -1.85186
-2.93543 3.42184 -1.85648
-2.9536 3.42113 -1.86114
-2.97185 3.42041 -1.86583
-2.9902 3.41968 -1.87057
-3.00864 3.41894 -1.87535
-3.02716 3.4182 -1.88017
-3.04579 3.41746 -1.88503
-3.0645 3.4167 -1.88994
-3.08332 3.41595 -1.89489
-3.10226 3.41521 -1.8999
-3.12189 3.41513 -1.90532
-3.14164 3.41504 -1.91079
-3.16149 3.41495 -1.91631
-3.18147 3.41487 -1.92188
-3.20157 3.41478 -1.9275
-3.22178 3.41469 -1.93318
-3.24211 3.4146 -1.93891
-3.26256 3.41451 -1.94469
-3.28313 3.41442 -1.95052
-3.30383 3.41433 -1.95641
-3.32466 3.41424 -1.96236
-3.34561 3.41415 -1.96836
-3.36669 3.41406 -1.97442
-3.3879 3.41396 -1.98053
-3.40924 3.41387 -1.98671
-3.43072 3.41378 -1.99294
-3.45233 3.41368 -1.99923
-3.47408 3.41359 -2.00558
-3.49597 3.41349 -2.01199
-3.55149 3.4459 -2.03768
-3.5526 3.42529 -2.03211
-3.57195 3.42227 -2.037
-3.59457 3.42227 -2.04374
-1.72172 3.44852 -1.62478
-1.73515 3.44818 -1.62719
-1.74863 3.44784 -1.62962
-1.76214 3.44749 -1.63207
-1.77569 3.44714 -1.63455
-1.78929 3.44679 -1.63705
-1.80293 3.44644 -1.63958
-1.81661 3.44608 -1.64213
-1.83033 3.44573 -1.6447
-1.84409 3.44537 -1.64729
-1.8579 3.44501 -1.64991
-1.87175 3.44465 -1.65256
-1.88564 3.44428 -1.65523
-1.89958 3.44391 -1.65792
-1.91357 3.44354 -1.66064
-1.9276 3.44317 -1.66339
-1.94167 3.4428 -1.66616
-1.9558 3.44242 -1.66895
-1.96997 3.44204 -1.67177
-1.98418 3.44166 -1.67462
-1.99845 3.44128 -1.67749
-2.01276 3.4409 -1.68039
-2.02712 3.44051 -1.68331
-2.04154 3.44012 -1.68626
-2.056 3.43973 -1.68924
-2.07051 3.43933 -1.69224
-2.08507 3.43894 -1.69527
-2.09968 3.43851 -1.69832
-2.11433 3.43808 -1.70139
-2.12903 3.43764 -1.70449
-2.14379 3.43721 -1.70762
-2.1586 3.43676 -1.71077
-2.17346 3.43632 -1.71396
-2.18837 3.43588 -1.71717
-2.20335 3.43543 -1.72041
-2.21838 3.43497 -1.72367
-2.23346 3.43452 -1.72697
-2.24861 3.43406 -1.7303
-2.26381 3.4336 -1.73366
-2.27907 3.43314 -1.73704
-2.29439 3.43268 -1.74046
-2.30977 3.43221 -1.74391
-2.32521 3.43174 -1.74739
-2.34071 3.43126 -1.75089
-2.35627 3.43079 -1.75443
-2.3719 3.43031 -1.758
-2.38759 3.42982 -1.76161
-2.40334 3.42934 -1.76524
-2.4192 3.42891 -1.76894
-2.43515 3.42851 -1.77269
-2.45116 3.42811 -1.77646
-2.46724 3.4277 -1.78028
-2.48339 3.42728 -1.78412
-2.4996 3.42687 -1.788
-2.5159 3.42645 -1.79191
-2.53225 3.42603 -1.79586
-2.54868 3.4256 -1.79984
-2.56518 3.42517 -1.80385
-2.58176 3.42474 -1.80791
-2.5984 3.42431 -1.81199
-2.61513 3.42387 -1.81612
-2.63193 3.42343 -1.82028
-2.64884 3.42303 -1.8245
-2.66615 3.42305 -1.82898
-2.68355 3.42307 -1.8335
-2.70103 3.42308 -1.83806
-2.7186 3.42309 -1.84266
-2.73626 3.4231 -1.8473
-2.75401 3.42311 -1.85199
-2.7714 3.42258 -1.85642
-2.78876 3.4219 -1.86081
-2.80621 3.42122 -1.86524
-2.82374 3.42053 -1.86971
-2.84135 3.41984 -1.87422
-2.85904 3.41914 -1.87877
-2.87682 3.41843 -1.88336
-2.89468 3.41772 -1.88799
-2.91263 3.41701 -1.89266
-2.93066 3.41628 -1.89737
-2.94899 3.41579 -1.90225
-2.96777 3.41571 -1.90741
-2.98666 3.41563 -1.91261
-3.00565 3.41555 -1.91786
-3.02474 3.41546 -1.92316
-3.04394 3.41538 -1.92851
-3.06324 3.4153 -1.93391
-3.08265 3.41521 -1.93936
-3.10218 3.41513 -1.94485
-3.12181 3.41504 -1.9504
-3.14156 3.41495 -1.956
-3.16142 3.41487 -1.96165
-3.18139 3.41478 -1.96735
-3.20149 3.41469 -1.97311
-3.2217 3.4146 -1.97892
-3.24203 3.41451 -1.98478
-3.26248 3.41442 -1.9907
-3.28305 3.41433 -1.99668
-3.30375 3.41424 -2.00271
-3.32457 3.41415 -2.00879
-3.34552 3.41406 -2.01493
-3.3666 3.41397 -2.02114
-3.38781 3.41388 -2.0274
-3.40915 3.41378 -2.03371
-3.43063 3.41369 -2.04009
-3.45224 3.41359 -2.04653
-3.47399 3.4135 -2.05303
-3.54175 3.4582 -2.08663
-3.54289 3.43756 -2.0809
-3.54947 3.42227 -2.07842
-3.57195 3.42227 -2.08525
-3.59457 3.42227 -2.09214
-1.72059 3.44627 -1.66155
-1.73402 3.44593 -1.66401
-1.74748 3.44558 -1.6665
-1.76098 3.44523 -1.66901
-1.77453 3.44488 -1.67154
-1.78812 3.44452 -1.6741
-1.80174 3.44417 -1.67668
-1.81541 3.44381 -1.67928
-1.82912 3.44345 -1.68191
-1.84287 3.44309 -1.68456
-1.85667 3.44272 -1.68724
-1.87051 3.44236 -1.68994
-1.88439 3.44199 -1.69267
-1.89832 3.44162 -1.69542
-1.91229 3.44125 -1.6982
-1.92631 3.44087 -1.70101
-1.94037 3.44049 -1.70384
-1.95448 3.44011 -1.70669
-1.96864 3.43973 -1.70958
-1.98285 3.43935 -1.71248
-1.9971 3.43896 -1.71542
-2.0114 3.43857 -1.71838
-2.02575 3.43818 -1.72137
-2.04015 3.43779 -1.72438
-2.0546 3.43739 -1.72743
-2.06911 3.43699 -1.7305
-2.08365 3.43659 -1.7336
-2.09824 3.43616 -1.73671
-2.11288 3.43573 -1.73985
-2.12757 3.43529 -1.74301
-2.14231 3.43485 -1.74621
-2.15711 3.4344 -1.74943
-2.17196 3.43395 -1.75269
-2.18686 3.4335 -1.75597
-2.20183 3.43305 -1.75928
-2.21684 3.43259 -1.76262
-2.23191 3.43214 -1.76599
-2.24704 3.43167 -1.76939
-2.26223 3.43121 -1.77282
-2.27748 3.43074 -1.77628
-2.29279 3.43027 -1.77977
-2.30815 3.4298 -1.78329
-2.32358 3.42933 -1.78685
-2.33906 3.42885 -1.79043
-2.35461 3.42837 -1.79405
-2.37022 3.42788 -1.7977
-2.38589 3.42739 -1.80138
-2.40163 3.4269 -1.80509
-2.41744 3.42641 -1.80884
-2.4333 3.42591 -1.81262
-2.44924 3.42541 -1.81643
-2.46523 3.42491 -1.82028
-2.4813 3.4244 -1.82416
-2.49744 3.42389 -1.82807
-2.51364 3.42338 -1.83202
-2.52993 3.42289 -1.83602
-2.54634 3.42246 -1.84009
-2.56282 3.42202 -1.84419
-2.57938 3.42159 -1.84833
-2.596 3.42114 -1.8525
-2.6127 3.4207 -1.85671
-2.62948 3.42025 -1.86096
-2.6464 3.41988 -1.86529
-2.66369 3.41989 -1.86987
-2.68107 3.4199 -1.87449
-2.69845 3.41981 -1.87909
-2.71546 3.41914 -1.88342
-2.73256 3.41847 -1.88779
-2.74972 3.41779 -1.89219
-2.76697 3.41711 -1.89664
-2.7843 3.41643 -1.90113
-2.80222 3.41635 -1.90599
-2.82022 3.41627 -1.9109
-2.83832 3.41619 -1.91585
-2.85651 3.41611 -1.92085
-2.8748 3.41603 -1.92589
-2.89318 3.41595 -1.93098
-2.91166 3.41587 -1.93612
-2.93024 3.41579 -1.9413
-2.94892 3.41571 -1.94653
-2.9677 3.41563 -1.95181
-2.98658 3.41555 -1.95713
-3.00557 3.41546 -1.96251
-3.02466 3.41538 -1.96793
-3.04386 3.4153 -1.9734
-3.06316 3.41521 -1.97892
-3.08258 3.41513 -1.9845
-3.1021 3.41504 -1.99012
-3.12173 3.41496 -1.9958
-3.14148 3.41487 -2.00153
-3.16134 3.41478 -2.00731
-3.18131 3.41469 -2.01315
-3.2014 3.41461 -2.01904
-3.22161 3.41452 -2.02498
-3.24194 3.41443 -2.03098
-3.26239 3.41434 -2.03704
-3.28297 3.41425 -2.04315
-3.30366 3.41416 -2.04932
-3.32449 3.41406 -2.05555
-3.34543 3.41397 -2.06183
-3.36651 3.41388 -2.06818
-3.38772 3.41379 -2.07458
-3.40906 3.41369 -2.08105
-3.43054 3.4136 -2.08758
-3.45215 3.4135 -2.09417
-3.53195 3.47045 -2.13592
-3.53312 3.44977 -2.13004
-3.53428 3.4292 -2.12421
-3.54947 3.42227 -2.12685
-3.57195 3.42227 -2.13384
-3.59457 3.42227 -2.1409
-1.71946 3.444 -1.69854
-1.73287 3.44366 -1.70106
-1.74633 3.44331 -1.7036
-1.75982 3.44295 -1.70616
-1.77335 3.4426 -1.70874
-1.78693 3.44224 -1.71136
-1.80054 3.44188 -1.71399
-1.8142 3.44152 -1.71665
-1.8279 3.44116 -1.71934
-1.84164 3.44079 -1.72205
-1.85543 3.44043 -1.72479
-1.86926 3.44006 -1.72755
-1.88313 3.43968 -1.73033
-1.89704 3.43931 -1.73315
-1.91101 3.43893 -1.73599
-1.92501 3.43855 -1.73885
-1.93907 3.43817 -1.74174
-1.95316 3.43779 -1.74466
-1.96731 3.4374 -1.7476
-1.9815 3.43702 -1.75057
-1.99575 3.43663 -1.75357
-2.01004 3.43623 -1.7566
-2.02437 3.43584 -1.75965
-2.03876 3.43544 -1.76273
-2.0532 3.43504 -1.76584
-2.06769 3.43464 -1.76898
-2.08222 3.43423 -1.77214
-2.0968 3.4338 -1.77532
-2.11143 3.43336 -1.77853
-2.1261 3.43292 -1.78176
-2.14084 3.43247 -1.78503
-2.15562 3.43202 -1.78832
-2.17045 3.43157 -1.79164
-2.18534 3.43112 -1.79499
-2.20029 3.43066 -1.79837
-2.2153 3.4302 -1.80179
-2.23035 3.42974 -1.80523
-2.24547 3.42927 -1.8087
-2.26065 3.4288 -1.8122
-2.27588 3.42833 -1.81574
-2.29117 3.42786 -1.81931
-2.30652 3.42738 -1.82291
-2.32194 3.4269 -1.82654
-2.3374 3.42642 -1.8302
-2.35294 3.42593 -1.83389
-2.36854 3.42544 -1.83762
-2.38419 3.42495 -1.84138
-2.39992 3.42446 -1.84517
-2.41571 3.42396 -1.849
-2.43156 3.42346 -1.85286
-2.44747 3.42295 -1.85676
-2.46346 3.42244 -1.86069
-2.47951 3.42193 -1.86465
-2.49563 3.42142 -1.86865
-2.51182 3.4209 -1.87268
-2.52808 3.42038 -1.87675
-2.5444 3.41985 -1.88086
-2.5608 3.41933 -1.885
-2.57727 3.41879 -1.88918
-2.59381 3.41826 -1.89339
-2.61043 3.41772 -1.89764
-2.62716 3.41722 -1.90196
-2.64418 3.41701 -1.90647
-2.66139 3.41694 -1.91111
-2.6787 3.41688 -1.91579
-2.69609 3.41681 -1.9205
-2.71356 3.41674 -1.92527
-2.73112 3.41667 -1.93007
-2.74877 3.41661 -1.93492
-2.76651 3.41654 -1.93981
-2.78434 3.41647 -1.94475
-2.80226 3.4164 -1.94973
-2.82028 3.41634 -1.95476
-2.83838 3.41627 -1.95983
-2.85658 3.4162 -1.96495
-2.87488 3.41613 -1.97012
-2.89327 3.41606 -1.97533
-2.91177 3.41599 -1.98059
-2.93036 3.41593 -1.9859
-2.94905 3.41586 -1.99126
-2.96784 3.41579 -1.99666
-2.98674 3.41572 -2.00212
-3.00574 3.41565 -2.00763
-3.02484 3.41558 -2.01318
-3.04405 3.41551 -2.01879
-3.06337 3.41544 -2.02445
-3.0828 3.41537 -2.03016
-3.10234 3.4153 -2.03592
-3.12199 3.41523 -2.04174
-3.14175 3.41516 -2.04761
-3.16163 3.41509 -2.05354
-3.18162 3.41502 -2.05952
-3.20173 3.41495 -2.06555
-3.22196 3.41488 -2.07165
-3.24231 3.41481 -2.07779
-3.26278 3.41474 -2.084
-3.28337 3.41467 -2.09027
-3.30409 3.4146 -2.09659
-3.32525 3.41486 -2.10318
-3.34657 3.41513 -2.10983
-3.36801 3.4154 -2.11655
-3.38905 3.41512 -2.123
-3.41003 3.41466 -2.12938
-3.43114 3.41419 -2.13583
-3.45236 3.41371 -2.14233
-3.54113 3.47946 -2.19059
-3.5396 3.45609 -2.18289
-3.53808 3.43288 -2.17527
-3.54947 3.42227 -2.17563
-3.57195 3.42227 -2.18278
-3.59457 3.42227 -2.19
-1.71834 3.44175 -1.73577
-1.73174 3.4414 -1.73834
-1.74518 3.44104 -1.74093
-1.75866 3.44068 -1.74354
-1.77218 3.44032 -1.74618
-1.78575 3.43996 -1.74885
-1.79934 3.43959 -1.75154
-1.81299 3.43922 -1.75425
-1.82668 3.43885 -1.75699
-1.8404 3.43848 -1.75976
-1.85418 3.43811 -1.76256
-1.868 3.43774 -1.76538
-1.88186 3.43736 -1.76822
-1.89576 3.43699 -1.77109
-1.90971 3.43661 -1.77399
-1.92371 3.43622 -1.77692
-1.93775 3.43584 -1.77987
-1.95184 3.43545 -1.78285
-1.96597 3.43506 -1.78586
-1.98015 3.43467 -1.78889
-1.99438 3.43428 -1.79195
-2.00866 3.43388 -1.79504
-2.02298 3.43348 -1.79816
-2.03736 3.43308 -1.80131
-2.05179 3.43268 -1.80448
-2.06626 3.43227 -1.80768
-2.08079 3.43186 -1.81091
-2.09535 3.43143 -1.81416
-2.10996 3.43098 -1.81744
-2.12463 3.43053 -1.82074
-2.13934 3.43008 -1.82407
-2.15411 3.42963 -1.82743
-2.16894 3.42918 -1.83083
-2.18381 3.42872 -1.83425
-2.19875 3.42826 -1.8377
-2.21374 3.42779 -1.84119
-2.22879 3.42733 -1.8447
-2.24389 3.42686 -1.84825
-2.25905 3.42638 -1.85183
-2.27427 3.42591 -1.85544
-2.28955 3.42543 -1.85908
-2.30488 3.42495 -1.86275
-2.32028 3.42446 -1.86646
-2.33574 3.42397 -1.8702
-2.35126 3.42348 -1.87397
-2.36684 3.42299 -1.87778
-2.38248 3.42249 -1.88162
-2.39819 3.42199 -1.88549
-2.41397 3.42149 -1.8894
-2.4298 3.42098 -1.89334
-2.44575 3.42054 -1.89736
-2.46192 3.42031 -1.90153
-2.47817 3.42008 -1.90573
-2.49448 3.41984 -1.90997
-2.51087 3.4196 -1.91425
-2.52733 3.41937 -1.91857
-2.54386 3.41913 -1.92293
-2.56047 3.41889 -1.92733
-2.57713 3.41861 -1.93174
-2.59386 3.41833 -1.93619
-2.61068 3.41804 -1.94069
-2.62757 3.41776 -1.94522
-2.64459 3.41754 -1.94984
-2.66181 3.41748 -1.95458
-2.67912 3.41741 -1.95936
-2.69651 3.41735 -1.96419
-2.71399 3.41728 -1.96906
-2.73155 3.41721 -1.97398
-2.74921 3.41715 -1.97894
-2.76695 3.41708 -1.98394
-2.78478 3.41702 -1.98899
-2.80271 3.41695 -1.99409
-2.82073 3.41688 -1.99923
-2.83884 3.41682 -2.00442
-2.85704 3.41675 -2.00966
-2.87534 3.41668 -2.01494
-2.89374 3.41662 -2.02027
-2.91224 3.41655 -2.02566
-2.93083 3.41648 -2.03109
-2.94953 3.41642 -2.03657
-2.96833 3.41635 -2.04209
-2.98723 3.41628 -2.04768
-3.00623 3.41621 -2.05331
-3.02534 3.41615 -2.05899
-3.04456 3.41608 -2.06473
-3.06388 3.41601 -2.07052
-3.08332 3.41594 -2.07636
-3.10286 3.41587 -2.08225
-3.12251 3.41581 -2.0882
-3.14228 3.41574 -2.09421
-3.16245 3.41599 -2.10047
-3.18276 3.41624 -2.10679
-3.20318 3.4165 -2.11316
-3.22373 3.41676 -2.1196
-3.24441 3.41703 -2.1261
-3.26522 3.4173 -2.13267
-3.28588 3.41728 -2.13911
-3.30625 3.41683 -2.14535
-3.32673 3.41637 -2.15163
-3.34733 3.41591 -2.15798
-3.36806 3.41545 -2.16439
-3.38891 3.41499 -2.17086
-3.40989 3.41452 -2.17739
-3.431 3.41405 -2.18398
-3.45222 3.41358 -2.19063
-3.55238 3.49053 -2.24719
-3.55081 3.46704 -2.23926
-3.54925 3.44372 -2.23142
-3.54947 3.42227 -2.22477
-3.57195 3.42227 -2.23208
-3.59457 3.42227 -2.23946
-1.7172 3.43948 -1.77323
-1.73059 3.43913 -1.77585
-1.74403 3.43877 -1.77849
-1.7575 3.4384 -1.78116
-1.77101 3.43804 -1.78386
-1.78456 3.43767 -1.78658
-1.79815 3.43731 -1.78933
-1.81178 3.43693 -1.7921
-1.82546 3.43656 -1.7949
-1.83918 3.43619 -1.79772
-1.85294 3.43581 -1.80057
-1.86674 3.43543 -1.80345
-1.88059 3.43505 -1.80635
-1.89448 3.43466 -1.80928
-1.90842 3.43428 -1.81224
-1.9224 3.43389 -1.81523
-1.93643 3.4335 -1.81824
-1.9505 3.4331 -1.82128
-1.96462 3.43271 -1.82435
-1.97879 3.43231 -1.82744
-1.99301 3.43192 -1.83057
-2.00728 3.43152 -1.83372
-2.02159 3.43111 -1.83691
-2.03595 3.43071 -1.84012
-2.05036 3.4303 -1.84336
-2.06483 3.42989 -1.84663
-2.07934 3.42948 -1.84992
-2.09389 3.42904 -1.85324
-2.10849 3.42859 -1.85658
-2.12314 3.42814 -1.85995
-2.13785 3.42768 -1.86336
-2.1526 3.42722 -1.86679
-2.16741 3.42676 -1.87025
-2.18228 3.4263 -1.87375
-2.1972 3.42584 -1.87727
-2.21218 3.42537 -1.88083
-2.22721 3.4249 -1.88442
-2.2423 3.42442 -1.88804
-2.25746 3.42398 -1.89171
-2.27284 3.42375 -1.89553
-2.28828 3.42353 -1.8994
-2.30378 3.4233 -1.90329
-2.31934 3.42307 -1.90722
-2.33497 3.42285 -1.91119
-2.35066 3.42262 -1.91519
-2.36643 3.42239 -1.91923
-2.38225 3.42216 -1.9233
-2.39815 3.42193 -1.92742
-2.41411 3.4217 -1.93156
-2.43015 3.42147 -1.93575
-2.44625 3.42124 -1.93997
-2.46242 3.421 -1.94424
-2.47867 3.42077 -1.94853
-2.49497 3.42051 -1.95286
-2.51133 3.42024 -1.95721
-2.52777 3.41996 -1.96161
-2.54428 3.41968 -1.96604
-2.56086 3.41941 -1.97051
-2.57752 3.41913 -1.97503
-2.59426 3.41885 -1.97958
-2.61108 3.41857 -1.98418
-2.62797 3.41828 -1.98881
-2.64501 3.41808 -1.99354
-2.66223 3.41802 -1.99839
-2.67954 3.41795 -2.00328
-2.69694 3.41789 -2.00822
-2.71442 3.41783 -2.0132
-2.73199 3.41776 -2.01823
-2.74965 3.4177 -2.0233
-2.7674 3.41763 -2.02842
-2.78523 3.41757 -2.03358
-2.80316 3.4175 -2.03879
-2.82118 3.41744 -2.04405
-2.8393 3.41737 -2.04936
-2.85751 3.41731 -2.05471
-2.87582 3.41724 -2.06012
-2.89422 3.41717 -2.06557
-2.91272 3.41711 -2.07107
-2.93131 3.41704 -2.07663
-2.95002 3.41698 -2.08223
-2.96882 3.41691 -2.08788
-2.9878 3.41694 -2.09365
-3.00708 3.41718 -2.09959
-3.02647 3.41742 -2.10559
-3.04597 3.41766 -2.11165
-3.06559 3.41791 -2.11777
-3.08532 3.41816 -2.12395
-3.10517 3.41842 -2.13018
-3.12513 3.41867 -2.13647
-3.14522 3.41894 -2.14282
-3.16543 3.4192 -2.14923
-3.18567 3.41937 -2.15564
-3.20546 3.41893 -2.16173
-3.22536 3.41849 -2.16787
-3.24538 3.41804 -2.17406
-3.26551 3.4176 -2.18032
-3.28575 3.41714 -2.18663
-3.30612 3.41669 -2.193
-3.3266 3.41623 -2.19943
-3.3472 3.41578 -2.20592
-3.36793 3.41531 -2.21247
-3.38877 3.41485 -2.21908
-3.40975 3.41438 -2.22575
-3.43086 3.41391 -2.23249
-3.45208 3.41344 -2.23929
-3.58656 3.52411 -2.3193
-3.57817 3.49375 -2.30674
-3.56989 3.46375 -2.29435
-3.56173 3.4341 -2.28213
-3.57195 3.42227 -2.28175
-3.59457 3.42227 -2.2893
-1.71606 3.4372 -1.81092
-1.72945 3.43684 -1.8136
-1.74286 3.43648 -1.8163
-1.75632 3.43611 -1.81902
-1.76983 3.43575 -1.82177
-1.78337 3.43538 -1.82455
-1.79695 3.435 -1.82735
-1.81057 3.43463 -1.83018
-1.82423 3.43425 -1.83304
-1.83794 3.43388 -1.83592
-1.85169 3.4335 -1.83883
-1.86548 3.43311 -1.84177
-1.87932 3.43273 -1.84473
-1.8932 3.43234 -1.84772
-1.90713 3.43195 -1.85074
-1.9211 3.43156 -1.85379
-1.93511 3.43116 -1.85686
-1.94917 3.43076 -1.85996
-1.96328 3.43036 -1.86309
-1.97744 3.42996 -1.86625
-1.99164 3.42956 -1.86944
-2.00589 3.42915 -1.87266
-2.02019 3.42874 -1.8759
-2.03454 3.42833 -1.87918
-2.04894 3.42792 -1.88248
-2.06339 3.4275 -1.88582
-2.07803 3.42731 -1.88931
-2.0927 3.42708 -1.89281
-2.10743 3.42686 -1.89636
-2.12222 3.42665 -1.89993
-2.13706 3.42643 -1.90354
-2.15196 3.42621 -1.90717
-2.16692 3.42599 -1.91085
-2.18194 3.42577 -1.91455
-2.19701 3.42555 -1.91829
-2.21215 3.42533 -1.92206
-2.22734 3.4251 -1.92587
-2.2426 3.42488 -1.92971
-2.25791 3.42466 -1.93359
-2.27329 3.42444 -1.9375
-2.28873 3.42421 -1.94145
-2.30424 3.42399 -1.94543
-2.31981 3.42376 -1.94945
-2.33544 3.42354 -1.95351
-2.35114 3.42331 -1.9576
-2.3669 3.42308 -1.96173
-2.38273 3.42285 -1.96589
-2.39863 3.42263 -1.9701
-2.4146 3.42238 -1.97433
-2.43061 3.42211 -1.97859
-2.44668 3.42184 -1.98288
-2.46284 3.42157 -1.98722
-2.47906 3.4213 -1.99159
-2.49535 3.42103 -1.996
-2.51172 3.42076 -2.00045
-2.52815 3.42048 -2.00494
-2.54466 3.42021 -2.00948
-2.56126 3.41993 -2.01405
-2.57792 3.41965 -2.01866
-2.59466 3.41937 -2.02332
-2.61148 3.41909 -2.02802
-2.62838 3.41881 -2.03276
-2.64543 3.41863 -2.0376
-2.66266 3.41856 -2.04255
-2.67997 3.4185 -2.04755
-2.69737 3.41844 -2.0526
-2.71486 3.41837 -2.05769
-2.73243 3.41831 -2.06283
-2.75009 3.41825 -2.06802
-2.76784 3.41818 -2.07325
-2.78569 3.41812 -2.07853
-2.80362 3.41806 -2.08386
-2.82164 3.41799 -2.08923
-2.83999 3.4182 -2.09483
-2.85845 3.41843 -2.10048
-2.87701 3.41866 -2.10618
-2.89567 3.41889 -2.11194
-2.91444 3.41913 -2.11775
-2.93331 3.41937 -2.12362
-2.95229 3.41961 -2.12954
-2.97137 3.41985 -2.13552
-2.99056 3.42009 -2.14155
-3.00987 3.42034 -2.14764
-3.02928 3.4206 -2.15378
-3.04881 3.42085 -2.15999
-3.06845 3.42111 -2.16625
-3.08821 3.42137 -2.17257
-3.10749 3.42098 -2.17853
-3.12684 3.42055 -2.18453
-3.14631 3.42011 -2.19058
-3.16587 3.41968 -2.19668
-3.18555 3.41924 -2.20284
-3.20534 3.4188 -2.20906
-3.22523 3.41835 -2.21533
-3.24525 3.41791 -2.22166
-3.26538 3.41746 -2.22806
-3.28562 3.41701 -2.23451
-3.30598 3.41655 -2.24102
-3.32646 3.4161 -2.24758
-3.34707 3.41564 -2.25422
-3.62982 3.52189 -2.38403
-3.6212 3.49143 -2.37113
-3.61269 3.46131 -2.3584
-3.60431 3.43155 -2.34585
-1.71492 3.43491 -1.84887
-1.72829 3.43454 -1.85159
-1.7417 3.43418 -1.85435
-1.75515 3.43381 -1.85713
-1.76864 3.43344 -1.85994
-1.78217 3.43306 -1.86277
-1.79573 3.43269 -1.86563
-1.80935 3.43231 -1.86852
-1.823 3.43193 -1.87143
-1.8367 3.43155 -1.87437
-1.85043 3.43117 -1.87734
-1.86421 3.43078 -1.88033
-1.87817 3.43062 -1.88349
-1.89218 3.43049 -1.88668
-1.90624 3.43036 -1.88991
-1.92035 3.43023 -1.89316
-1.93451 3.4301 -1.89645
-1.94872 3.42997 -1.89976
-1.96298 3.42984 -1.90311
-1.97729 3.42971 -1.90649
-1.99165 3.42959 -1.9099
-2.00603 3.4294 -1.91331
-2.02041 3.42911 -1.9167
-2.03484 3.42883 -1.92012
-2.04932 3.42855 -1.92357
-2.06385 3.42827 -1.92705
-2.07844 3.42799 -1.93057
-2.09311 3.42775 -1.93414
-2.10785 3.42754 -1.93776
-2.12264 3.42732 -1.94142
-2.13748 3.4271 -1.9451
-2.15239 3.42689 -1.94882
-2.16735 3.42667 -1.95257
-2.18237 3.42645 -1.95636
-2.19745 3.42623 -1.96018
-2.21259 3.42601 -1.96404
-2.22779 3.42579 -1.96793
-2.24305 3.42557 -1.97186
-2.25837 3.42535 -1.97582
-2.27375 3.42512 -1.97982
-2.28919 3.4249 -1.98385
-2.3047 3.42468 -1.98792
-2.32028 3.42445 -1.99203
-2.33591 3.42423 -1.99617
-2.35159 3.42396 -2.00033
-2.36733 3.4237 -2.00453
-2.38314 3.42343 -2.00876
-2.39901 3.42317 -2.01304
-2.41496 3.4229 -2.01735
-2.43098 3.42263 -2.0217
-2.44706 3.42237 -2.02609
-2.46321 3.4221 -2.03052
-2.47943 3.42183 -2.03499
-2.49573 3.42155 -2.03949
-2.5121 3.42128 -2.04404
-2.52854 3.42101 -2.04864
-2.54506 3.42073 -2.05327
-2.56165 3.42046 -2.05794
-2.57832 3.42018 -2.06266
-2.59506 3.41991 -2.06741
-2.61189 3.41963 -2.07221
-2.62879 3.41935 -2.07706
-2.64585 3.41917 -2.08201
-2.66309 3.41911 -2.08708
-2.68061 3.41932 -2.09235
-2.69824 3.41953 -2.09768
-2.71595 3.41975 -2.10306
-2.73375 3.41997 -2.10848
-2.75165 3.42019 -2.11396
-2.76964 3.42041 -2.11948
-2.78773 3.42063 -2.12506
-2.80591 3.42086 -2.13068
-2.8242 3.42109 -2.13636
-2.84258 3.42132 -2.1421
-2.86106 3.42156 -2.14788
-2.87965 3.42179 -2.15372
-2.89833 3.42204 -2.15962
-2.91712 3.42228 -2.16557
-2.93602 3.42253 -2.17157
-2.95502 3.42278 -2.17763
-2.97413 3.42303 -2.18375
-2.99335 3.42328 -2.18992
-3.01217 3.42296 -2.19578
-3.031 3.42254 -2.20163
-3.04994 3.42212 -2.20754
-3.06898 3.4217 -2.2135
-3.08812 3.42127 -2.21951
-3.10737 3.42084 -2.22558
-3.12672 3.42041 -2.2317
-3.14618 3.41998 -2.23788
-3.16574 3.41954 -2.24412
-3.18542 3.4191 -2.25041
-3.20521 3.41866 -2.25676
-1.71428 3.43363 -1.88763
-1.72776 3.4335 -1.89054
-1.74129 3.43336 -1.89348
-1.75485 3.43323 -1.89645
-1.76846 3.4331 -1.89945
-1.78212 3.43297 -1.90248
-1.79581 3.43284 -1.90554
-1.80956 3.43271 -1.90862
-1.82335 3.43258 -1.91174
-1.83718 3.43246 -1.91489
-1.85106 3.43233 -1.91806
-1.86499 3.4322 -1.92127
-1.87896 3.43207 -1.9245
-1.89298 3.43194 -1.92777
-1.90705 3.43181 -1.93106
-1.92117 3.43169 -1.93439
-1.93528 3.43146 -1.93769
-1.94941 3.43118 -1.941
-1.96359 3.43091 -1.94434
-1.97782 3.43063 -1.9477
-1.9921 3.43035 -1.9511
-2.00643 3.43007 -1.95454
-2.02081 3.42979 -1.958
-2.03524 3.42951 -1.96149
-2.04972 3.42923 -1.96502
-2.06426 3.42895 -1.96858
-2.07885 3.42867 -1.97217
-2.09352 3.42843 -1.97582
-2.10826 3.42822 -1.97952
-2.12306 3.428 -1.98325
-2.13791 3.42779 -1.98702
-2.15282 3.42757 -1.99082
-2.16779 3.42735 -1.99465
-2.18281 3.42713 -1.99852
-2.19789 3.42692 -2.00243
-2.21303 3.4267 -2.00637
-2.22824 3.42648 -2.01034
-2.2435 3.42626 -2.01435
-2.25882 3.42604 -2.0184
-2.27419 3.42579 -2.02247
-2.28961 3.42553 -2.02657
-2.3051 3.42527 -2.03071
-2.32065 3.42501 -2.03488
-2.33626 3.42475 -2.03909
-2.35194 3.42448 -2.04334
-2.36769 3.42422 -2.04763
-2.3835 3.42396 -2.05195
-2.39938 3.42369 -2.05632
-2.41533 3.42343 -2.06073
-2.43135 3.42316 -2.06517
-2.44743 3.42289 -2.06966
-2.46359 3.42262 -2.07418
-2.47982 3.42235 -2.07875
-2.49612 3.42209 -2.08335
-2.51252 3.42185 -2.08803
-2.529 3.42162 -2.09274
-2.54555 3.42139 -2.0975
-2.56218 3.42116 -2.1023
-2.57892 3.42098 -2.10718
-2.59606 3.42123 -2.11236
-2.6133 3.42148 -2.11759
-2.63062 3.42173 -2.12287
-2.64801 3.42196 -2.12819
-2.66547 3.42218 -2.13354
-2.68302 3.4224 -2.13894
-2.70067 3.42262 -2.14439
-2.7184 3.42284 -2.14989
-2.73623 3.42306 -2.15544
-2.75415 3.42329 -2.16104
-2.77216 3.42352 -2.16669
-2.79027 3.42375 -2.1724
-2.80848 3.42399 -2.17816
-2.82679 3.42423 -2.18397
-2.84519 3.42447 -2.18984
-2.8637 3.42471 -2.19576
-2.88231 3.42496 -2.20173
-2.90102 3.42521 -2.20776
-2.91935 3.4249 -2.21348
-2.9377 3.42449 -2.21919
-2.95614 3.42408 -2.22496
-2.97468 3.42366 -2.23077
-2.99332 3.42325 -2.23664
-3.01206 3.42283 -2.24257
-3.03089 3.42241 -2.24854
-3.04982 3.42199 -2.25457
-1.71499 3.43506 -1.92821
-1.72848 3.43493 -1.93119
-1.74201 3.4348 -1.93419
-1.75559 3.43467 -1.93723
-1.7692 3.43454 -1.94029
-1.78287 3.43442 -1.94339
-1.79657 3.43429 -1.94651
-1.81032 3.43416 -1.94967
-1.82412 3.43403 -1.95285
-1.83796 3.43391 -1.95606
-1.85184 3.43377 -1.9593
-1.86569 3.4335 -1.9625
-1.87959 3.43323 -1.96572
-1.89354 3.43296 -1.96897
-1.90753 3.43268 -1.97226
-1.92157 3.43241 -1.97557
-1.93566 3.43213 -1.97892
-1.94979 3.43186 -1.98229
-1.96398 3.43158 -1.9857
-1.97821 3.43131 -1.98914
-1.9925 3.43103 -1.99261
-2.00683 3.43075 -1.99612
-2.02121 3.43047 -1.99965
-2.03565 3.43019 -2.00322
-2.05013 3.42992 -2.00683
-2.06468 3.42964 -2.01046
-2.07927 3.42935 -2.01413
-2.09394 3.42912 -2.01786
-2.10869 3.4289 -2.02164
-2.12348 3.42869 -2.02545
-2.13834 3.42847 -2.0293
-2.15325 3.42826 -2.03318
-2.16822 3.42804 -2.03709
-2.18325 3.42783 -2.04105
-2.19832 3.42758 -2.04502
-2.21344 3.42733 -2.04902
-2.22862 3.42707 -2.05306
-2.24386 3.42682 -2.05714
-2.25917 3.42656 -2.06125
-2.27453 3.4263 -2.0654
-2.28996 3.42605 -2.06959
-2.30545 3.42579 -2.07381
-2.321 3.42553 -2.07808
-2.33664 3.4253 -2.08239
-2.35235 3.42508 -2.08676
-2.36813 3.42485 -2.09116
-2.38397 3.42463 -2.09561
-2.39988 3.4244 -2.10009
-2.41586 3.42418 -2.10461
-2.43191 3.42395 -2.10918
-2.44803 3.42373 -2.11378
-2.46422 3.4235 -2.11843
-2.48048 3.42328 -2.12312
-2.49682 3.42305 -2.12785
-2.51339 3.42304 -2.13276
-2.53022 3.42328 -2.13788
-2.54714 3.42353 -2.14304
-2.56414 3.42378 -2.14824
-2.58122 3.42403 -2.1535
-2.59839 3.42429 -2.1588
-2.61564 3.42455 -2.16416
-2.63299 3.42481 -2.16956
-2.6504 3.42505 -2.175
-2.66788 3.42527 -2.18047
-2.68546 3.4255 -2.18599
-2.70313 3.42573 -2.19157
-2.72088 3.42596 -2.19719
-2.73873 3.42619 -2.20287
-2.75667 3.42643 -2.2086
-2.77471 3.42667 -2.21438
-2.79285 3.42691 -2.22022
-2.81108 3.42715 -2.22611
-2.82889 3.42677 -2.23165
-2.84678 3.42638 -2.23723
-2.86476 3.42598 -2.24285
-2.88283 3.42557 -2.24853
-2.90099 3.42517 -2.25426
-1.71571 3.4365 -1.96916
-1.72921 3.43638 -1.9722
-1.74275 3.43625 -1.97528
-1.75633 3.43612 -1.97838
-1.76995 3.436 -1.98151
-1.78358 3.43579 -1.98462
-1.79722 3.43552 -1.98773
-1.8109 3.43526 -1.99087
-1.82462 3.43499 -1.99404
-1.83839 3.43472 -1.99724
-1.8522 3.43445 -2.00047
-1.86606 3.43418 -2.00373
-1.87996 3.43391 -2.00702
-1.89391 3.43363 -2.01034
-1.90791 3.43336 -2.0137
-1.92195 3.43309 -2.01708
-1.93604 3.43282 -2.0205
-1.95018 3.43254 -2.02395
-1.96437 3.43227 -2.02743
-1.9786 3.43199 -2.03094
-1.99289 3.43172 -2.03449
-2.00723 3.43144 -2.03806
-2.02162 3.43116 -2.04168
-2.03606 3.43088 -2.04532
-2.05055 3.43061 -2.049
-2.06509 3.43033 -2.05271
-2.07969 3.43005 -2.05646
-2.09436 3.42981 -2.06027
-2.10911 3.4296 -2.06412
-2.1239 3.42935 -2.068
-2.13873 3.4291 -2.07191
-2.15363 3.42887 -2.07586
-2.16861 3.42865 -2.07985
-2.18363 3.42843 -2.08389
-2.19873 3.42822 -2.08796
-2.21387 3.428 -2.09207
-2.22908 3.42778 -2.09622
-2.24435 3.42757 -2.1004
-2.25969 3.42735 -2.10463
-2.27508 3.42713 -2.10889
-2.29054 3.42691 -2.11319
-2.30606 3.42669 -2.11753
-2.32164 3.42647 -2.1219
-2.33729 3.42625 -2.12632
-2.35301 3.42603 -2.13078
-2.36879 3.42581 -2.13528
-2.38464 3.42559 -2.13981
-2.40055 3.42536 -2.14439
-2.41654 3.42514 -2.14902
-2.4326 3.42492 -2.15368
-2.44902 3.42511 -2.15864
-2.46555 3.42535 -2.16369
-2.48217 3.4256 -2.16877
-2.49886 3.42584 -2.17391
-2.51563 3.42609 -2.17909
-2.53249 3.42635 -2.18432
-2.54942 3.4266 -2.1896
-2.56644 3.42686 -2.19492
-2.58355 3.42712 -2.2003
-2.60074 3.42738 -2.20572
-2.61801 3.42765 -2.21119
-2.63538 3.42792 -2.21672
-2.65281 3.42817 -2.22228
-2.67032 3.4284 -2.22788
-2.68792 3.42863 -2.23353
-2.7056 3.42887 -2.23923
-2.72329 3.42899 -2.2449
-2.74066 3.42861 -2.2503
-2.75811 3.42822 -2.25574
