ply
format ascii 1.0
comment Created by Open3D
element vertex 1752
property double x
property double y
property double z
end_header
-3.40368 0.719556 -1.56974
-3.3947 0.706535 -1.56457
-3.38576 0.693594 -1.55944
-3.37677 0.680715 -1.55431
-3.36778 0.667909 -1.54919
-3.35882 0.655181 -1.54412
-3.34989 0.642532 -1.53908
-3.34835 0.631346 -1.53745
-3.34781 0.620369 -1.5363
-3.34725 0.609402 -1.53516
-3.34666 0.598449 -1.53402
-3.34606 0.587508 -1.53289
-3.34543 0.57658 -1.53177
-3.34477 0.565664 -1.53065
-3.3441 0.554758 -1.52954
-3.3434 0.543866 -1.52843
-3.34268 0.532986 -1.52733
-3.34194 0.522114 -1.52623
-3.34117 0.511258 -1.52514
-3.34038 0.500411 -1.52406
-3.33957 0.489579 -1.52298
-3.33874 0.478757 -1.5219
-3.33788 0.467946 -1.52084
-3.337 0.457146 -1.51978
-3.3361 0.44636 -1.51872
-3.33518 0.435585 -1.51767
-3.33424 0.424823 -1.51663
-3.3332 0.414063 -1.51556
-3.33207 0.403306 -1.51446
-3.33091 0.392562 -1.51337
-3.32974 0.381831 -1.51228
-3.32854 0.371113 -1.5112
-3.32732 0.360407 -1.51013
-3.32686 0.349796 -1.50941
-3.32649 0.339202 -1.50875
-3.32609 0.328616 -1.5081
-3.32567 0.318038 -1.50745
-3.32523 0.307467 -1.5068
-3.32476 0.296902 -1.50616
-3.32428 0.286344 -1.50553
-3.32377 0.275793 -1.50489
-3.32323 0.265248 -1.50427
-3.32268 0.254711 -1.50365
-3.3221 0.244181 -1.50303
-3.3215 0.233657 -1.50242
-3.32087 0.223139 -1.50181
-3.32023 0.212629 -1.50121
-3.31956 0.202126 -1.50061
-3.31886 0.191631 -1.50002
-3.31815 0.181142 -1.49943
-3.31741 0.170659 -1.49885
-3.31665 0.160183 -1.49827
-3.31587 0.149716 -1.4977
-3.31506 0.139254 -1.49713
-3.31423 0.1288 -1.49657
-3.31338 0.118352 -1.49601
-3.31251 0.107912 -1.49545
-3.31161 0.0974768 -1.4949
-3.3107 0.0870502 -1.49436
-3.3098 0.0766315 -1.49384
-3.309 0.0662228 -1.49338
-3.30818 0.0558184 -1.49292
-3.30734 0.0454207 -1.49247
-3.30648 0.0350298 -1.49202
-3.30559 0.024644 -1.49158
-3.30469 0.0142642 -1.49114
-3.30376 0.00389034 -1.49071
-3.30398 -0.00648145 -1.49081
-3.3049 -0.0168568 -1.49125
-3.3058 -0.0272396 -1.49169
-3.30669 -0.037626 -1.49213
-3.30754 -0.04802 -1.49258
-3.30838 -0.0584183 -1.49303
-3.30919 -0.0688242 -1.49349
-3.30998 -0.0792344 -1.49395
-3.31091 -0.0896556 -1.49449
-3.31183 -0.100084 -1.49504
-3.31272 -0.110519 -1.49559
-3.31358 -0.120961 -1.49614
-3.31443 -0.13141 -1.4967
-3.31525 -0.141869 -1.49727
-3.31605 -0.152332 -1.49784
-3.31683 -0.162802 -1.49841
-3.31758 -0.173279 -1.49899
-3.31832 -0.183762 -1.49958
-3.31903 -0.194253 -1.50016
-3.31971 -0.204751 -1.50076
-3.32038 -0.215256 -1.50136
-3.32102 -0.225766 -1.50196
-3.32164 -0.236285 -1.50257
-3.32224 -0.246809 -1.50318
-3.32281 -0.257341 -1.5038
-3.32336 -0.267883 -1.50442
-3.32389 -0.278425 -1.50505
-3.32439 -0.288982 -1.50568
-3.32487 -0.29954 -1.50632
-3.32533 -0.310108 -1.50696
-3.32577 -0.32068 -1.5076
-3.32618 -0.331261 -1.50826
-3.32657 -0.341846 -1.50891
-3.32694 -0.352442 -1.50957
-3.32761 -0.363077 -1.51038
-3.32882 -0.373786 -1.51146
-3.33001 -0.384507 -1.51254
-3.33119 -0.395242 -1.51363
-3.33234 -0.405989 -1.51472
-3.33346 -0.41675 -1.51582
-3.33446 -0.427509 -1.51688
-3.3354 -0.438274 -1.51793
-3.33631 -0.449052 -1.51898
-3.33721 -0.459842 -1.52003
-3.33808 -0.470643 -1.5211
-3.33893 -0.481456 -1.52217
-3.33976 -0.492281 -1.52324
-3.34057 -0.503118 -1.52432
-3.34135 -0.513967 -1.52541
-3.34211 -0.524826 -1.5265
-3.34285 -0.535702 -1.5276
-3.34356 -0.546585 -1.5287
-3.34426 -0.557482 -1.52981
-3.34493 -0.56839 -1.53092
-3.34557 -0.57931 -1.53204
-3.3462 -0.590241 -1.53317
-3.3468 -0.601186 -1.5343
-3.34738 -0.612141 -1.53544
-3.34793 -0.623109 -1.53659
-3.34846 -0.634088 -1.53774
-3.352 -0.645661 -1.54028
-3.36094 -0.658334 -1.54533
-3.36991 -0.67108 -1.55042
-3.37891 -0.683905 -1.55554
-3.38788 -0.696798 -1.56067
-3.39683 -0.70976 -1.56581
-3.40582 -0.722801 -1.57099
-3.41483 -0.735922 -1.57621
-3.42388 -0.749125 -1.58146
-3.43296 -0.76241 -1.58675
-3.44207 -0.775779 -1.59208
-3.45122 -0.789232 -1.59745
-3.46039 -0.802769 -1.60285
-3.46961 -0.816392 -1.6083
-3.47885 -0.8301 -1.61379
-3.48813 -0.843895 -1.61931
-3.50891 0.869354 -1.66746
-3.43028 0.838451 -1.62883
-3.42137 0.824901 -1.62336
-3.41249 0.811434 -1.61793
-3.40363 0.79805 -1.61253
-3.39481 0.784749 -1.60718
-3.38602 0.771528 -1.60186
-3.37726 0.75839 -1.59658
-3.36852 0.74533 -1.59134
-3.35982 0.73235 -1.58613
-3.35115 0.719446 -1.58096
-3.34245 0.706612 -1.57581
-3.33373 0.693844 -1.57066
-3.32503 0.681153 -1.56555
-3.31637 0.668539 -1.56047
-3.30773 0.656 -1.55543
-3.29912 0.643537 -1.55043
-3.29573 0.632144 -1.5479
-3.29527 0.621337 -1.54675
-3.29477 0.610542 -1.54561
-3.29426 0.599755 -1.54448
-3.29372 0.588983 -1.54336
-3.29317 0.578222 -1.54224
-3.29258 0.567473 -1.54112
-3.29198 0.556735 -1.54001
-3.29135 0.546008 -1.53891
-3.2907 0.535294 -1.53782
-3.29003 0.524592 -1.53672
-3.28934 0.513897 -1.53564
-3.28862 0.503217 -1.53456
-3.28788 0.492546 -1.53349
-3.28712 0.481889 -1.53242
-3.28634 0.471242 -1.53135
-3.28553 0.460607 -1.5303
-3.28468 0.449978 -1.52924
-3.28369 0.439347 -1.52813
-3.28268 0.428728 -1.52702
-3.28165 0.418122 -1.52592
-3.28059 0.407528 -1.52483
-3.27952 0.396945 -1.52374
-3.27842 0.386375 -1.52266
-3.2773 0.375818 -1.52159
-3.27615 0.365272 -1.52052
-3.27516 0.354757 -1.51953
-3.27484 0.344326 -1.51887
-3.2745 0.3339 -1.51822
-3.27413 0.323483 -1.51757
-3.27374 0.313071 -1.51693
-3.27332 0.302667 -1.51629
-3.27289 0.29227 -1.51566
-3.27243 0.281878 -1.51503
-3.27195 0.271493 -1.5144
-3.27145 0.261114 -1.51378
-3.27092 0.250744 -1.51317
-3.27037 0.240379 -1.51256
-3.2698 0.23002 -1.51195
-3.26921 0.219668 -1.51135
-3.26859 0.209322 -1.51075
-3.26795 0.198984 -1.51016
-3.26729 0.188653 -1.50957
-3.2666 0.178328 -1.50899
-3.2659 0.168009 -1.50841
-3.26517 0.157697 -1.50784
-3.26442 0.147393 -1.50727
-3.26364 0.137094 -1.50671
-3.26285 0.126803 -1.50615
-3.26204 0.116518 -1.5056
-3.26136 0.106246 -1.50513
-3.26066 0.0959769 -1.50466
-3.25993 0.0857154 -1.50419
-3.25918 0.0754596 -1.50373
-3.25842 0.0652104 -1.50327
-3.25762 0.0549653 -1.50282
-3.25681 0.0447268 -1.50237
-3.25598 0.0344947 -1.50193
-3.25512 0.0242677 -1.50149
-3.25424 0.0140465 -1.50106
-3.25334 0.00383097 -1.50063
-3.25355 -0.00638252 -1.50073
-3.25445 -0.0165994 -1.50116
-3.25532 -0.0268236 -1.5016
-3.25617 -0.0370513 -1.50203
-3.257 -0.0472863 -1.50248
-3.25781 -0.0575254 -1.50293
-3.2586 -0.0677719 -1.50338
-3.25936 -0.0780226 -1.50384
-3.2601 -0.0882797 -1.5043
-3.26083 -0.0985427 -1.50477
-3.26152 -0.108811 -1.50524
-3.26222 -0.119087 -1.50573
-3.26304 -0.129372 -1.50628
-3.26383 -0.139668 -1.50684
-3.2646 -0.149968 -1.50741
-3.26534 -0.160274 -1.50798
-3.26606 -0.170588 -1.50855
-3.26677 -0.180908 -1.50913
-3.26745 -0.191234 -1.50971
-3.2681 -0.201567 -1.5103
-3.26874 -0.211908 -1.5109
-3.26935 -0.222254 -1.51149
-3.26993 -0.232607 -1.5121
-3.2705 -0.242966 -1.5127
-3.27104 -0.253332 -1.51331
-3.27157 -0.263708 -1.51393
-3.27206 -0.274084 -1.51455
-3.27254 -0.284474 -1.51518
-3.27299 -0.294866 -1.51581
-3.27342 -0.305267 -1.51644
-3.27383 -0.315671 -1.51708
-3.27421 -0.326086 -1.51773
-3.27458 -0.336503 -1.51838
-3.27491 -0.346931 -1.51903
-3.27526 -0.357366 -1.51971
-3.27642 -0.367903 -1.52077
-3.27756 -0.37845 -1.52185
-3.27867 -0.389011 -1.52292
-3.27977 -0.399584 -1.52401
-3.28084 -0.410171 -1.52509
-3.28189 -0.420768 -1.52619
-3.28292 -0.431378 -1.52729
-3.28392 -0.442 -1.5284
-3.28489 -0.452633 -1.5295
-3.28572 -0.46326 -1.53055
-3.28652 -0.473898 -1.53161
-3.2873 -0.484548 -1.53268
-3.28805 -0.495209 -1.53375
-3.28879 -0.505882 -1.53482
-3.2895 -0.516565 -1.5359
-3.29019 -0.527262 -1.53699
-3.29085 -0.537968 -1.53808
-3.2915 -0.548688 -1.53918
-3.29212 -0.559417 -1.54028
-3.29272 -0.570158 -1.54139
-3.2933 -0.58091 -1.54251
-3.29385 -0.591674 -1.54363
-3.29438 -0.602449 -1.54476
-3.29489 -0.613236 -1.54589
-3.29537 -0.624034 -1.54703
-3.29583 -0.634843 -1.54818
-3.30115 -0.646622 -1.55162
-3.30977 -0.659104 -1.55663
-3.31841 -0.671661 -1.56168
-3.32709 -0.684293 -1.56677
-3.33579 -0.697004 -1.57189
-3.34452 -0.709793 -1.57705
-3.3532 -0.72264 -1.5822
-3.36188 -0.735561 -1.58738
-3.37059 -0.74856 -1.59259
-3.37933 -0.761639 -1.59784
-3.3881 -0.774797 -1.60313
-3.3969 -0.788039 -1.60846
-3.40574 -0.801363 -1.61382
-3.4146 -0.814767 -1.61923
-3.42349 -0.828255 -1.62467
-3.43241 -0.841827 -1.63015
-3.46713 0.870558 -1.68505
-3.37582 0.836376 -1.63939
-3.36725 0.823043 -1.63397
-3.3587 0.809792 -1.62858
-3.35019 0.796621 -1.62323
-3.3417 0.783529 -1.61792
-3.33324 0.770515 -1.61264
-3.32481 0.75758 -1.60741
-3.3164 0.744723 -1.6022
-3.308 0.731937 -1.59703
-3.29954 0.719209 -1.59184
-3.2911 0.706556 -1.5867
-3.2827 0.69398 -1.58159
-3.27432 0.681479 -1.57651
-3.26597 0.669054 -1.57147
-3.25765 0.656701 -1.56647
-3.24935 0.644422 -1.5615
-3.24427 0.632838 -1.5581
-3.24387 0.622197 -1.55696
-3.24345 0.611568 -1.55583
-3.24301 0.600949 -1.5547
-3.24254 0.590339 -1.55358
-3.24205 0.579742 -1.55247
-3.24153 0.569156 -1.55136
-3.241 0.558582 -1.55025
-3.24044 0.548019 -1.54916
-3.23986 0.537466 -1.54807
-3.23926 0.526925 -1.54698
-3.23863 0.516396 -1.5459
-3.23798 0.505874 -1.54482
-3.23731 0.495366 -1.54376
-3.23662 0.484867 -1.54269
-3.23579 0.474364 -1.54158
-3.23492 0.46387 -1.54046
-3.23403 0.453386 -1.53935
-3.23311 0.442914 -1.53825
-3.23217 0.432454 -1.53715
-3.23122 0.422007 -1.53605
-3.23024 0.411572 -1.53497
-3.22923 0.401148 -1.53388
-3.22821 0.390735 -1.53281
-3.22716 0.380335 -1.53174
-3.2261 0.369946 -1.53067
-3.22501 0.359569 -1.52961
-3.22434 0.349251 -1.52877
-3.22404 0.338985 -1.52812
-3.22373 0.328723 -1.52747
-3.22339 0.318469 -1.52683
-3.22302 0.308221 -1.52619
-3.22264 0.297981 -1.52556
-3.22223 0.287745 -1.52493
-3.2218 0.277517 -1.5243
-3.22135 0.267294 -1.52369
-3.22087 0.257077 -1.52307
-3.22037 0.246869 -1.52246
-3.21985 0.236665 -1.52186
-3.21931 0.226468 -1.52126
-3.21874 0.216277 -1.52066
-3.21816 0.206092 -1.52007
-3.21755 0.195915 -1.51948
-3.21691 0.185744 -1.5189
-3.21626 0.175579 -1.51833
-3.21558 0.165421 -1.51775
-3.21488 0.155268 -1.51719
-3.21431 0.14513 -1.51669
-3.21372 0.134997 -1.51621
-3.21311 0.12487 -1.51573
-3.21248 0.114747 -1.51525
-3.21182 0.104632 -1.51478
-3.21114 0.0945195 -1.51431
-3.21044 0.0844142 -1.51385
-3.20972 0.0743144 -1.51339
-3.20898 0.064221 -1.51294
-3.20822 0.0541316 -1.51249
-3.20743 0.0440486 -1.51205
-3.20662 0.0339719 -1.51161
-3.20579 0.0239 -1.51118
-3.20494 0.0138337 -1.51075
-3.20406 0.00377218 -1.51032
-3.20427 -0.00628585 -1.51042
-3.20514 -0.0163479 -1.51085
-3.20599 -0.0264171 -1.51128
-3.20681 -0.0364896 -1.51171
-3.20762 -0.0465692 -1.51215
-3.2084 -0.0566529 -1.5126
-3.20916 -0.0667436 -1.51305
-3.20989 -0.0768384 -1.5135
-3.21061 -0.0869395 -1.51396
-3.2113 -0.0970461 -1.51442
-3.21198 -0.107158 -1.51489
-3.21263 -0.117276 -1.51537
-3.21325 -0.127399 -1.51584
-3.21386 -0.13753 -1.51632
-3.21444 -0.147664 -1.51681
-3.21505 -0.157806 -1.51732
-3.21574 -0.167959 -1.51789
-3.21641 -0.178119 -1.51846
-3.21706 -0.188285 -1.51904
-3.21769 -0.198458 -1.51963
-3.21829 -0.208638 -1.52021
-3.21888 -0.218822 -1.5208
-3.21944 -0.229015 -1.5214
-3.21997 -0.239212 -1.522
-3.22049 -0.249416 -1.52261
-3.22098 -0.25963 -1.52322
-3.22145 -0.269845 -1.52383
-3.2219 -0.280072 -1.52445
-3.22232 -0.290301 -1.52508
-3.22273 -0.300539 -1.52571
-3.22311 -0.310781 -1.52634
-3.22346 -0.321032 -1.52698
-3.2238 -0.331285 -1.52763
-3.22411 -0.341549 -1.52827
-3.2244 -0.351816 -1.52893
-3.22526 -0.362158 -1.52987
-3.22634 -0.372537 -1.53093
-3.22741 -0.382928 -1.53199
-3.22845 -0.393332 -1.53307
-3.22947 -0.403748 -1.53415
-3.23046 -0.414175 -1.53523
-3.23144 -0.424613 -1.53632
-3.23239 -0.435064 -1.53741
-3.23332 -0.445527 -1.53851
-3.23423 -0.456001 -1.53962
-3.23512 -0.466487 -1.54073
-3.23598 -0.476984 -1.54185
-3.23678 -0.487487 -1.54295
-3.23747 -0.497987 -1.54401
-3.23813 -0.508498 -1.54508
-3.23877 -0.519023 -1.54616
-3.23939 -0.529556 -1.54724
-3.23999 -0.540101 -1.54833
-3.24057 -0.550657 -1.54942
-3.24112 -0.561222 -1.55052
-3.24165 -0.5718 -1.55163
-3.24216 -0.582389 -1.55274
-3.24264 -0.592988 -1.55385
-3.24311 -0.603599 -1.55498
-3.24355 -0.61422 -1.5561
-3.24396 -0.624852 -1.55724
-3.24436 -0.635498 -1.55838
-3.2513 -0.64746 -1.56268
-3.2596 -0.659758 -1.56766
-3.26793 -0.672128 -1.57267
-3.27629 -0.684573 -1.57772
-3.28468 -0.697092 -1.5828
-3.29309 -0.709686 -1.58792
-3.30153 -0.722356 -1.59308
-3.31 -0.735102 -1.59827
-3.31838 -0.747902 -1.60344
-3.3268 -0.760778 -1.60866
-3.33524 -0.773734 -1.6139
-3.34371 -0.786768 -1.61919
-3.3522 -0.799879 -1.62451
-3.36073 -0.81307 -1.62987
-3.36928 -0.826343 -1.63527
-3.37786 -0.839695 -1.6407
-3.42614 0.871708 -1.70251
-3.32247 0.834237 -1.64968
-3.31423 0.821117 -1.6443
-3.30601 0.808076 -1.63896
-3.29782 0.795114 -1.63366
-3.28966 0.782228 -1.62839
-3.28152 0.769418 -1.62315
-3.2734 0.756683 -1.61796
-3.26521 0.744 -1.61274
-3.25704 0.731393 -1.60757
-3.24889 0.718859 -1.60242
-3.24077 0.706399 -1.59732
-3.23267 0.694011 -1.59224
-3.2246 0.681697 -1.58721
-3.21655 0.669456 -1.5822
-3.20853 0.657287 -1.57724
-3.20053 0.645188 -1.5723
-3.19392 0.63343 -1.56807
-3.19359 0.622952 -1.56694
-3.19323 0.612484 -1.56581
-3.19285 0.602027 -1.56469
-3.19245 0.591581 -1.56358
-3.19203 0.581143 -1.56247
-3.19158 0.570718 -1.56136
-3.19111 0.560303 -1.56027
-3.19062 0.549899 -1.55917
-3.1901 0.539506 -1.55809
-3.18957 0.529123 -1.55701
-3.18901 0.518751 -1.55593
-3.18834 0.508377 -1.55482
-3.18761 0.498003 -1.55369
-3.18685 0.487645 -1.55257
-3.18608 0.477295 -1.55145
-3.18528 0.466959 -1.55034
-3.18446 0.456634 -1.54924
-3.18361 0.446319 -1.54814
-3.18275 0.436014 -1.54705
-3.18186 0.425723 -1.54596
-3.18095 0.415442 -1.54488
-3.18002 0.405174 -1.5438
-3.17907 0.394917 -1.54273
-3.1781 0.384669 -1.54166
-3.1771 0.374435 -1.5406
-3.17609 0.364212 -1.53955
-3.17505 0.353999 -1.5385
-3.17469 0.343873 -1.53779
-3.17442 0.333767 -1.53715
-3.17412 0.323665 -1.5365
-3.17381 0.313571 -1.53587
-3.17347 0.303483 -1.53524
-3.17311 0.293402 -1.53461
-3.17273 0.283325 -1.53399
-3.17233 0.273255 -1.53337
-3.1719 0.263192 -1.53276
-3.17145 0.253133 -1.53215
-3.17098 0.243082 -1.53154
-3.17049 0.233037 -1.53095
-3.16997 0.222998 -1.53035
-3.16944 0.212964 -1.52976
-3.16888 0.202936 -1.52918
-3.16829 0.192916 -1.5286
-3.16782 0.18291 -1.52808
-3.16734 0.172909 -1.52758
-3.16685 0.162914 -1.52709
-3.16632 0.152923 -1.5266
-3.16578 0.142939 -1.52611
-3.16522 0.132959 -1.52563
-3.16463 0.122986 -1.52516
-3.16402 0.113017 -1.52468
-3.16339 0.103054 -1.52422
-3.16274 0.0930947 -1.52375
-3.16206 0.0831421 -1.5233
-3.16137 0.0731949 -1.52284
-3.16065 0.0632538 -1.52239
-3.15991 0.0533166 -1.52195
-3.15915 0.0433856 -1.52151
-3.15837 0.0334607 -1.52107
-3.15756 0.0235404 -1.52064
-3.15674 0.0136256 -1.52022
-3.15589 0.00371622 -1.5198
-3.15609 -0.00619133 -1.5199
-3.15693 -0.016102 -1.52032
-3.15775 -0.0260197 -1.52075
-3.15855 -0.0359405 -1.52118
-3.15933 -0.0458682 -1.52161
-3.16009 -0.0557998 -1.52205
-3.16082 -0.0657383 -1.5225
-3.16153 -0.0756807 -1.52295
-3.16222 -0.0856292 -1.5234
-3.16289 -0.0955831 -1.52386
-3.16354 -0.105542 -1.52433
-3.16416 -0.115507 -1.5248
-3.16477 -0.125476 -1.52527
-3.16535 -0.135454 -1.52575
-3.16591 -0.145434 -1.52623
-3.16645 -0.15542 -1.52672
-3.16696 -0.165411 -1.52721
-3.16746 -0.175408 -1.5277
-3.16793 -0.18541 -1.5282
-3.16843 -0.19542 -1.52873
-3.16901 -0.205442 -1.52932
-3.16956 -0.21547 -1.5299
-3.17009 -0.225505 -1.53049
-3.1706 -0.235545 -1.53109
-3.17109 -0.245591 -1.53169
-3.17156 -0.255647 -1.53229
-3.172 -0.265702 -1.5329
-3.17242 -0.275771 -1.53352
-3.17282 -0.285841 -1.53414
-3.1732 -0.29592 -1.53476
-3.17355 -0.306003 -1.53539
-3.17388 -0.316094 -1.53602
-3.17419 -0.326187 -1.53666
-3.17448 -0.336291 -1.5373
-3.17474 -0.346398 -1.53795
-3.17529 -0.356547 -1.53875
-3.17632 -0.366761 -1.5398
-3.17733 -0.376987 -1.54086
-3.17832 -0.387225 -1.54192
-3.17929 -0.397476 -1.54298
-3.18024 -0.407736 -1.54406
-3.18116 -0.418007 -1.54514
-3.18207 -0.428291 -1.54622
-3.18295 -0.438586 -1.54731
-3.18381 -0.448891 -1.5484
-3.18464 -0.459209 -1.54951
-3.18546 -0.469537 -1.55061
-3.18625 -0.479877 -1.55172
-3.18703 -0.490229 -1.55284
-3.18778 -0.500591 -1.55396
-3.1885 -0.510967 -1.55509
-3.18913 -0.52134 -1.55619
-3.18969 -0.531715 -1.55727
-3.19022 -0.542101 -1.55835
-3.19073 -0.552498 -1.55944
-3.19121 -0.562903 -1.56053
-3.19168 -0.573321 -1.56163
-3.19212 -0.583749 -1.56274
-3.19254 -0.594187 -1.56385
-3.19294 -0.604636 -1.56496
-3.19331 -0.615095 -1.56609
-3.19366 -0.625568 -1.56721
-3.19442 -0.636134 -1.56856
-3.2024 -0.648181 -1.57347
-3.21041 -0.660296 -1.57841
-3.21844 -0.672485 -1.58339
-3.22649 -0.684744 -1.5884
-3.23457 -0.697074 -1.59345
-3.24267 -0.709479 -1.59853
-3.2508 -0.721956 -1.60365
-3.25895 -0.734508 -1.6088
-3.26713 -0.747134 -1.61398
-3.27531 -0.759832 -1.61919
-3.28343 -0.772586 -1.6244
-3.29158 -0.785415 -1.62964
-3.29976 -0.79832 -1.63492
-3.30795 -0.811302 -1.64024
-3.31618 -0.824362 -1.64559
-3.32971 -0.838832 -1.6536
-3.47189 -0.886249 -1.72559
-3.38866 0.873507 -1.72121
-3.27021 0.832034 -1.65971
-3.26228 0.819123 -1.65437
-3.25438 0.806289 -1.64908
-3.2465 0.793531 -1.64382
-3.23865 0.780847 -1.63859
-3.23073 0.768216 -1.63336
-3.22282 0.755656 -1.62815
-3.21493 0.743168 -1.62298
-3.20707 0.730753 -1.61784
-3.19923 0.718412 -1.61274
-3.19141 0.706141 -1.60767
-3.18361 0.69394 -1.60264
-3.17583 0.681809 -1.59764
-3.16808 0.669749 -1.59267
-3.16035 0.657758 -1.58774
-3.15264 0.645837 -1.58284
-3.14495 0.633983 -1.57797
-3.14437 0.623602 -1.57669
-3.14408 0.613293 -1.57557
-3.14376 0.602995 -1.57446
-3.14342 0.592706 -1.57335
-3.14306 0.582428 -1.57225
-3.14268 0.572158 -1.57115
-3.14227 0.5619 -1.57006
-3.14184 0.551652 -1.56897
-3.14133 0.541405 -1.56786
-3.14073 0.531156 -1.56672
-3.14011 0.520919 -1.56559
-3.13947 0.510693 -1.56446
-3.13881 0.500479 -1.56334
-3.13812 0.490272 -1.56222
-3.13741 0.48008 -1.56111
-3.13668 0.469896 -1.56001
-3.13593 0.459725 -1.55891
-3.13516 0.449565 -1.55781
-3.13436 0.439414 -1.55673
-3.13355 0.429274 -1.55564
-3.13271 0.419146 -1.55457
-3.13185 0.409029 -1.55349
-3.13096 0.398923 -1.55243
-3.13006 0.388828 -1.55137
-3.12914 0.378743 -1.55031
-3.12819 0.36867 -1.54926
-3.12722 0.358608 -1.54822
-3.12638 0.348573 -1.54725
-3.12616 0.338617 -1.54661
-3.12591 0.328668 -1.54597
-3.12565 0.318722 -1.54533
-3.12536 0.308784 -1.5447
-3.12504 0.298852 -1.54408
-3.12471 0.288926 -1.54346
-3.12435 0.279005 -1.54284
-3.12397 0.26909 -1.54223
-3.12357 0.259182 -1.54162
-3.12315 0.249278 -1.54102
-3.12271 0.239382 -1.54042
-3.12224 0.229491 -1.53983
-3.12187 0.219614 -1.5393
-3.12151 0.209744 -1.53879
-3.12112 0.199878 -1.53828
-3.12071 0.190018 -1.53778
-3.12027 0.180164 -1.53728
-3.11982 0.170315 -1.53678
-3.11934 0.16047 -1.53629
-3.11884 0.15063 -1.5358
-3.11832 0.140797 -1.53532
-3.11778 0.130967 -1.53485
-3.11722 0.121144 -1.53438
-3.11663 0.111324 -1.53391
-3.11603 0.101511 -1.53344
-3.1154 0.0917013 -1.53299
-3.11475 0.081898 -1.53253
-3.11408 0.0720999 -1.53208
-3.11338 0.0623079 -1.53164
-3.11267 0.0525195 -1.5312
-3.11193 0.0427371 -1.53076
-3.11118 0.0329607 -1.53033
-3.1104 0.0231888 -1.5299
-3.1096 0.0134221 -1.52948
-3.10877 0.00366 -1.52907
-3.10897 -0.00609889 -1.52916
-3.10979 -0.0158616 -1.52958
-3.11058 -0.025631 -1.53
-3.11135 -0.0354034 -1.53043
-3.11211 -0.0451826 -1.53086
-3.11284 -0.0549655 -1.5313
-3.11355 -0.0647551 -1.53174
-3.11423 -0.0745485 -1.53219
-3.1149 -0.0843478 -1.53264
-3.11555 -0.0941523 -1.53309
-3.11617 -0.103962 -1.53355
-3.11677 -0.113777 -1.53402
-3.11735 -0.123596 -1.53449
-3.11791 -0.133424 -1.53496
-3.11845 -0.143254 -1.53544
-3.11896 -0.153089 -1.53592
-3.11945 -0.16293 -1.53641
-3.11992 -0.172776 -1.5369
-3.12037 -0.182627 -1.5374
-3.1208 -0.192482 -1.5379
-3.12121 -0.202344 -1.5384
-3.12159 -0.212209 -1.53891
-3.12195 -0.22208 -1.53943
-3.12235 -0.231959 -1.53997
-3.12281 -0.241851 -1.54057
-3.12325 -0.251753 -1.54117
-3.12367 -0.261653 -1.54177
-3.12406 -0.271568 -1.54238
-3.12443 -0.281482 -1.54299
-3.12479 -0.291406 -1.54361
-3.12511 -0.301332 -1.54423
-3.12542 -0.311268 -1.54486
-3.12571 -0.321205 -1.54549
-3.12597 -0.331152 -1.54612
-3.12621 -0.341103 -1.54676
-3.12646 -0.351063 -1.54743
-3.12744 -0.361117 -1.54847
-3.12841 -0.371182 -1.54951
-3.12935 -0.381258 -1.55056
-3.13027 -0.391347 -1.55162
-3.13117 -0.401444 -1.55268
-3.13204 -0.411553 -1.55375
-3.1329 -0.421673 -1.55482
-3.13373 -0.431804 -1.5559
-3.13454 -0.441946 -1.55699
-3.13533 -0.452099 -1.55808
-3.1361 -0.462262 -1.55917
-3.13685 -0.472436 -1.56027
-3.13757 -0.482622 -1.56138
-3.13828 -0.492818 -1.56249
-3.13896 -0.503027 -1.56361
-3.13962 -0.513245 -1.56473
-3.14025 -0.523475 -1.56586
-3.14087 -0.533715 -1.56699
-3.14146 -0.543966 -1.56813
-3.14194 -0.554211 -1.56923
-3.14236 -0.564462 -1.57032
-3.14276 -0.574722 -1.57141
-3.14314 -0.584993 -1.57251
-3.14349 -0.595273 -1.57362
-3.14383 -0.605564 -1.57473
-3.14414 -0.615868 -1.57585
-3.14443 -0.626178 -1.57697
-3.14674 -0.636914 -1.57912
-3.15444 -0.648784 -1.584
-3.16215 -0.660724 -1.58891
-3.16989 -0.672731 -1.59385
-3.17765 -0.684807 -1.59882
-3.18543 -0.696954 -1.60383
-3.19323 -0.709171 -1.60887
-3.20106 -0.72146 -1.61395
-3.20891 -0.733819 -1.61906
-3.21678 -0.746254 -1.62421
-3.22468 -0.75876 -1.62939
-3.2326 -0.77134 -1.6346
-3.24049 -0.783983 -1.63983
-3.24835 -0.796685 -1.64507
-3.25624 -0.809463 -1.65034
-3.26414 -0.822315 -1.65565
-3.29504 -0.841105 -1.67265
-3.42867 -0.88669 -1.74189
-3.3514 0.875129 -1.73957
-3.23235 0.833212 -1.67641
-3.21136 0.817062 -1.66419
-3.20376 0.80443 -1.65893
-3.19612 0.791855 -1.65368
-3.18847 0.779345 -1.64845
-3.18084 0.766908 -1.64325
-3.17322 0.754541 -1.63809
-3.16563 0.742246 -1.63296
-3.15806 0.730021 -1.62786
-3.15051 0.717866 -1.6228
-3.14298 0.705782 -1.61777
-3.13547 0.693764 -1.61278
-3.12798 0.681815 -1.60782
-3.12051 0.669932 -1.60289
-3.11306 0.658118 -1.59799
-3.10563 0.64637 -1.59313
-3.09822 0.63469 -1.5883
-3.09618 0.624151 -1.58624
-3.09594 0.613998 -1.58512
-3.09569 0.603854 -1.58401
-3.09541 0.593721 -1.58291
-3.09511 0.583597 -1.58181
-3.09474 0.573474 -1.5807
-3.09428 0.563346 -1.57955
-3.09379 0.553231 -1.57841
-3.09328 0.543125 -1.57727
-3.09275 0.533032 -1.57614
-3.09219 0.522948 -1.57501
-3.09162 0.512874 -1.57389
-3.09102 0.502812 -1.57277
-3.0904 0.492761 -1.57166
-3.08976 0.482717 -1.57056
-3.0891 0.472686 -1.56946
-3.08841 0.462664 -1.56837
-3.0877 0.452655 -1.56728
-3.08698 0.442655 -1.56619
-3.08623 0.432666 -1.56512
-3.08545 0.422686 -1.56405
-3.08466 0.412718 -1.56298
-3.08385 0.40276 -1.56192
-3.08301 0.392813 -1.56086
-3.08215 0.382877 -1.55981
-3.08127 0.37295 -1.55877
-3.08037 0.363035 -1.55773
-3.07945 0.35313 -1.55669
-3.07891 0.343281 -1.55587
-3.07871 0.333477 -1.55523
-3.07849 0.323681 -1.5546
-3.07825 0.313889 -1.55397
-3.07798 0.304103 -1.55335
-3.07769 0.294323 -1.55273
-3.07738 0.284549 -1.55211
-3.07705 0.274781 -1.5515
-3.07669 0.265018 -1.55089
-3.07644 0.255271 -1.55036
-3.07618 0.245529 -1.54983
-3.0759 0.235794 -1.54931
-3.0756 0.226062 -1.54879
-3.07527 0.216336 -1.54828
-3.07493 0.206614 -1.54777
-3.07456 0.196896 -1.54726
-3.07417 0.187185 -1.54676
-3.07376 0.177478 -1.54627
-3.07332 0.167776 -1.54578
-3.07287 0.158079 -1.54529
-3.07239 0.148387 -1.54481
-3.0719 0.1387 -1.54434
-3.07138 0.129017 -1.54386
-3.07084 0.119341 -1.5434
-3.07027 0.109668 -1.54293
-3.06969 0.100002 -1.54247
-3.06908 0.0903379 -1.54202
-3.06846 0.0806808 -1.54157
-3.06781 0.0710287 -1.54112
-3.06714 0.0613824 -1.54068
-3.06645 0.0517396 -1.54025
-3.06574 0.0421027 -1.53982
-3.065 0.0324715 -1.53939
-3.06425 0.0228447 -1.53897
-3.06347 0.013223 -1.53855
-3.06267 0.00360645 -1.53813
-3.06286 -0.00600845 -1.53823
-3.06365 -0.0156263 -1.53864
-3.06442 -0.0252507 -1.53906
-3.06517 -0.0348779 -1.53949
-3.0659 -0.0445118 -1.53992
-3.06661 -0.0541492 -1.54035
-3.0673 -0.0637932 -1.54079
-3.06796 -0.0734408 -1.54123
-3.0686 -0.0830941 -1.54167
-3.06922 -0.0927525 -1.54213
-3.06983 -0.102416 -1.54258
-3.0704 -0.112084 -1.54304
-3.07096 -0.121757 -1.54351
-3.0715 -0.131438 -1.54397
-3.07201 -0.141121 -1.54445
-3.0725 -0.150809 -1.54493
-3.07297 -0.160502 -1.54541
-3.07342 -0.170201 -1.5459
-3.07385 -0.179904 -1.54639
-3.07426 -0.189611 -1.54688
-3.07464 -0.199325 -1.54739
-3.07501 -0.209042 -1.54789
-3.07535 -0.218765 -1.5484
-3.07567 -0.228492 -1.54891
-3.07597 -0.238224 -1.54943
-3.07624 -0.247964 -1.54996
-3.0765 -0.257702 -1.55049
-3.07677 -0.267457 -1.55104
-3.07712 -0.27722 -1.55165
-3.07745 -0.286991 -1.55226
-3.07775 -0.296766 -1.55287
-3.07804 -0.306548 -1.5535
-3.0783 -0.316334 -1.55412
-3.07854 -0.326127 -1.55475
-3.07875 -0.335925 -1.55538
-3.07895 -0.345729 -1.55602
-3.07966 -0.3556 -1.55694
-3.08058 -0.365507 -1.55798
-3.08147 -0.375426 -1.55902
-3.08235 -0.385356 -1.56006
-3.0832 -0.395295 -1.56112
-3.08403 -0.405244 -1.56217
-3.08484 -0.415205 -1.56323
-3.08563 -0.425176 -1.5643
-3.08639 -0.435157 -1.56538
-3.08714 -0.445149 -1.56645
-3.08786 -0.455151 -1.56754
-3.08856 -0.465164 -1.56863
-3.08924 -0.475188 -1.56972
-3.0899 -0.485221 -1.57082
-3.09054 -0.495267 -1.57193
-3.09115 -0.505322 -1.57304
-3.09174 -0.515389 -1.57416
-3.09232 -0.525465 -1.57528
-3.09286 -0.535551 -1.57641
-3.09339 -0.545648 -1.57754
-3.09389 -0.555757 -1.57868
-3.09438 -0.565874 -1.57983
-3.09484 -0.576003 -1.58098
-3.09517 -0.586123 -1.58208
-3.09547 -0.59625 -1.58318
-3.09574 -0.606387 -1.58428
-3.09599 -0.616532 -1.58539
-3.09622 -0.626687 -1.58651
-3.09994 -0.637576 -1.58944
-3.10736 -0.649275 -1.59428
-3.1148 -0.661039 -1.59915
-3.12225 -0.672869 -1.60405
-3.12973 -0.684766 -1.60899
-3.13722 -0.696732 -1.61396
-3.14474 -0.708765 -1.61896
-3.15227 -0.720867 -1.624
-3.15983 -0.733041 -1.62907
-3.16741 -0.745284 -1.63417
-3.175 -0.757597 -1.63931
-3.18262 -0.769981 -1.64448
-3.19026 -0.782437 -1.64969
-3.19792 -0.794965 -1.65493
-3.20554 -0.807551 -1.66018
-3.21314 -0.820199 -1.66545
-3.25974 -0.843001 -1.69096
-3.38448 -0.886602 -1.7571
-3.31348 0.876345 -1.75713
-3.19708 0.834832 -1.694
-3.16137 0.814918 -1.67372
-3.15397 0.802462 -1.66846
-3.1466 0.790076 -1.66324
-3.13923 0.777761 -1.65805
-3.13189 0.765517 -1.6529
-3.12457 0.753342 -1.64778
-3.11727 0.741236 -1.64269
-3.10998 0.729198 -1.63764
-3.10271 0.717227 -1.63261
-3.09546 0.705324 -1.62763
-3.08823 0.693488 -1.62267
-3.08102 0.681716 -1.61775
-3.07383 0.67001 -1.61286
-3.06665 0.658368 -1.608
-3.05949 0.646792 -1.60317
-3.05235 0.63528 -1.59838
-3.04897 0.624599 -1.59558
-3.04879 0.614599 -1.59447
-3.04856 0.6046 -1.59334
-3.04822 0.594596 -1.59219
-3.04786 0.584601 -1.59103
-3.04748 0.574617 -1.58988
-3.04708 0.564643 -1.58874
-3.04666 0.554677 -1.58761
-3.04621 0.544723 -1.58647
-3.04574 0.534779 -1.58535
-3.04525 0.524846 -1.58423
-3.04474 0.514923 -1.58311
-3.04421 0.505009 -1.582
-3.04365 0.495107 -1.5809
-3.04308 0.485215 -1.5798
-3.04248 0.47533 -1.57871
-3.04186 0.465458 -1.57762
-3.04121 0.455594 -1.57654
-3.04055 0.445743 -1.57546
-3.03987 0.4359 -1.57439
-3.03916 0.426068 -1.57332
-3.03843 0.416244 -1.57226
-3.03768 0.406432 -1.57121
-3.03691 0.39663 -1.57016
-3.03612 0.386839 -1.56911
-3.03531 0.377058 -1.56807
-3.03447 0.367285 -1.56704
-3.03361 0.357525 -1.56601
-3.03274 0.347773 -1.56498
-3.03248 0.338104 -1.5643
-3.0323 0.328451 -1.56366
-3.0321 0.318804 -1.56304
-3.03188 0.309161 -1.56241
-3.03164 0.299525 -1.5618
-3.03151 0.289907 -1.56125
-3.03136 0.280294 -1.56071
-3.03118 0.270685 -1.56018
-3.03098 0.26108 -1.55965
-3.03076 0.25148 -1.55912
-3.03052 0.241885 -1.5586
-3.03026 0.232295 -1.55808
-3.02998 0.222709 -1.55757
-3.02967 0.213128 -1.55706
-3.02935 0.203551 -1.55656
-3.029 0.193978 -1.55606
-3.02863 0.184411 -1.55556
-3.02824 0.17485 -1.55507
-3.02782 0.165292 -1.55459
-3.02739 0.15574 -1.5541
-3.02693 0.146191 -1.55363
-3.02646 0.136649 -1.55315
-3.02596 0.12711 -1.55269
-3.02544 0.117577 -1.55222
-3.0249 0.108047 -1.55176
-3.02434 0.0985241 -1.55131
-3.02375 0.0890037 -1.55086
-3.02315 0.0794895 -1.55041
-3.02252 0.0699802 -1.54997
-3.02188 0.0604765 -1.54954
-3.02121 0.0509763 -1.5491
-3.02052 0.0414817 -1.54868
-3.01981 0.0319927 -1.54825
-3.01908 0.022508 -1.54783
-3.01832 0.0130282 -1.54742
-3.01755 0.00355332 -1.54701
-3.01773 -0.00591992 -1.5471
-3.0185 -0.015396 -1.54752
-3.01925 -0.0248784 -1.54793
-3.01998 -0.0343636 -1.54835
-3.02068 -0.0438552 -1.54878
-3.02136 -0.0533503 -1.5492
-3.02203 -0.0628517 -1.54964
-3.02267 -0.0723566 -1.55008
-3.02329 -0.0818671 -1.55052
-3.02389 -0.0913824 -1.55097
-3.02447 -0.100903 -1.55142
-3.02502 -0.110428 -1.55187
-3.02556 -0.119957 -1.55233
-3.02607 -0.129494 -1.5528
-3.02657 -0.139033 -1.55327
-3.02704 -0.148578 -1.55374
-3.02749 -0.158127 -1.55422
-3.02792 -0.167681 -1.5547
-3.02833 -0.177239 -1.55519
-3.02871 -0.186802 -1.55568
-3.02908 -0.196371 -1.55618
-3.02942 -0.205943 -1.55668
-3.02974 -0.215521 -1.55718
-3.03004 -0.225102 -1.55769
-3.03032 -0.234688 -1.55821
-3.03058 -0.244283 -1.55872
-3.03081 -0.253875 -1.55925
-3.03102 -0.26348 -1.55978
-3.03122 -0.273084 -1.56031
-3.03139 -0.282696 -1.56085
-3.03154 -0.292309 -1.56139
-3.03169 -0.301933 -1.56195
-3.03193 -0.311568 -1.56256
-3.03215 -0.321213 -1.56319
-3.03234 -0.330861 -1.56382
-3.03251 -0.340515 -1.56445
-3.03294 -0.350204 -1.56523
-3.03381 -0.359958 -1.56625
-3.03466 -0.369722 -1.56728
-3.03549 -0.379497 -1.56832
-3.0363 -0.389281 -1.56936
-3.03708 -0.399075 -1.57041
-3.03785 -0.40888 -1.57146
-3.03859 -0.418695 -1.57252
-3.03932 -0.428519 -1.57358
-3.04002 -0.438355 -1.57465
-3.0407 -0.448199 -1.57572
-3.04136 -0.458055 -1.5768
-3.042 -0.46792 -1.57788
-3.04261 -0.477795 -1.57897
-3.0432 -0.487682 -1.58007
-3.04377 -0.497577 -1.58117
-3.04433 -0.507484 -1.58227
-3.04485 -0.5174 -1.58338
-3.04536 -0.527326 -1.5845
-3.04584 -0.537261 -1.58562
-3.04631 -0.547208 -1.58675
-3.04675 -0.557164 -1.58788
-3.04717 -0.567131 -1.58902
-3.04756 -0.577107 -1.59016
-3.04794 -0.587093 -1.59131
-3.04829 -0.597093 -1.59247
-3.04862 -0.607099 -1.59362
-3.04882 -0.617095 -1.59474
-3.04899 -0.627097 -1.59585
-3.054 -0.638125 -1.59951
-3.06115 -0.649653 -1.60431
-3.06831 -0.661244 -1.60915
-3.07549 -0.672901 -1.61401
-3.08269 -0.684622 -1.61891
-3.08991 -0.696409 -1.62384
-3.09715 -0.708263 -1.6288
-3.1044 -0.720183 -1.6338
-3.11168 -0.732171 -1.63883
-3.11897 -0.744226 -1.64389
-3.12628 -0.756349 -1.64899
-3.1336 -0.768542 -1.65412
-3.14095 -0.780803 -1.65928
-3.14832 -0.793135 -1.66448
-3.1557 -0.805536 -1.66971
-3.1631 -0.81801 -1.67498
-3.2238 -0.844512 -1.70852
-3.34241 -0.886802 -1.77284
-3.27495 0.877163 -1.77388
-3.19492 0.844989 -1.72909
-3.13806 0.819422 -1.69692
-3.12485 0.805504 -1.6884
-3.11408 0.792312 -1.68123
-3.10614 0.779917 -1.67561
-3.09823 0.767602 -1.67004
-3.09036 0.755364 -1.66451
-3.08252 0.743204 -1.65902
-3.07472 0.731118 -1.65358
-3.06694 0.719107 -1.64818
-3.05921 0.70717 -1.64282
-3.0515 0.695307 -1.6375
-3.04383 0.683516 -1.63223
-3.03619 0.671797 -1.62699
-3.02859 0.66015 -1.6218
-3.02101 0.648571 -1.61664
-3.01347 0.637063 -1.61153
-3.00799 0.626048 -1.60754
-3.00729 0.616062 -1.60612
-3.00659 0.60609 -1.60472
-3.00586 0.596133 -1.60333
-3.00513 0.58619 -1.60195
-3.00438 0.576262 -1.60058
-3.00363 0.566347 -1.59922
-3.00285 0.556447 -1.59787
-3.00207 0.546559 -1.59653
-3.00127 0.536687 -1.59521
-3.00046 0.526828 -1.59389
-2.99964 0.516984 -1.59258
-2.9988 0.507154 -1.59129
-2.99796 0.497336 -1.59
-2.99733 0.487571 -1.58885
-2.99679 0.477835 -1.58776
-2.99624 0.468105 -1.58668
-2.99566 0.458389 -1.5856
-2.99505 0.448679 -1.58453
-2.99443 0.438982 -1.58346
-2.99379 0.429293 -1.5824
-2.99312 0.419614 -1.58135
-2.99244 0.409943 -1.5803
-2.99173 0.400283 -1.57925
-2.991 0.390634 -1.57821
-2.99025 0.380995 -1.57718
-2.98948 0.371364 -1.57615
-2.98869 0.361743 -1.57512
-2.98787 0.352134 -1.57411
-2.98719 0.34255 -1.57317
-2.98708 0.333042 -1.57256
-2.98705 0.323549 -1.572
-2.987 0.314062 -1.57145
-2.98693 0.304577 -1.5709
-2.98684 0.295098 -1.57035
-2.98672 0.285624 -1.56981
-2.98658 0.276154 -1.56928
-2.98643 0.266688 -1.56875
-2.98625 0.257227 -1.56822
-2.98605 0.24777 -1.5677
-2.98582 0.238318 -1.56718
-2.98558 0.22887 -1.56667
-2.98532 0.219426 -1.56616
-2.98503 0.209988 -1.56566
-2.98472 0.200552 -1.56516
-2.98439 0.191122 -1.56466
-2.98404 0.181697 -1.56417
-2.98367 0.172277 -1.56369
-2.98328 0.162861 -1.56321
-2.98286 0.153449 -1.56273
-2.98243 0.144042 -1.56226
-2.98197 0.13464 -1.56179
-2.98149 0.125242 -1.56133
-2.981 0.11585 -1.56087
-2.98048 0.106461 -1.56041
-2.97994 0.0970777 -1.55996
-2.97937 0.0876973 -1.55951
-2.97879 0.0783231 -1.55907
-2.97819 0.0689537 -1.55864
-2.97756 0.0595896 -1.5582
-2.97691 0.0502289 -1.55778
-2.97625 0.0408737 -1.55735
-2.97556 0.0315239 -1.55693
-2.97485 0.0221783 -1.55652
-2.97412 0.0128374 -1.55611
-2.97337 0.00350129 -1.5557
-2.97355 -0.00583323 -1.55579
-2.97429 -0.0151705 -1.5562
-2.97502 -0.0245139 -1.55661
-2.97572 -0.0338601 -1.55703
-2.9764 -0.0432124 -1.55745
-2.97707 -0.0525681 -1.55787
-2.97771 -0.0619299 -1.5583
-2.97833 -0.0712951 -1.55874
-2.97892 -0.0806657 -1.55918
-2.9795 -0.0900411 -1.55962
-2.98006 -0.0994211 -1.56007
-2.9806 -0.108806 -1.56052
-2.98111 -0.118195 -1.56097
-2.9816 -0.127591 -1.56143
-2.98208 -0.136989 -1.5619
-2.98253 -0.146393 -1.56237
-2.98296 -0.155801 -1.56284
-2.98337 -0.165213 -1.56332
-2.98375 -0.174631 -1.5638
-2.98412 -0.184052 -1.56429
-2.98447 -0.193479 -1.56478
-2.98479 -0.202909 -1.56528
-2.98509 -0.212344 -1.56578
-2.98537 -0.221784 -1.56628
-2.98563 -0.231228 -1.56679
-2.98587 -0.240679 -1.56731
-2.98609 -0.250129 -1.56783
-2.98628 -0.259591 -1.56835
-2.98646 -0.269052 -1.56888
-2.98661 -0.27852 -1.56941
-2.98674 -0.28799 -1.56994
-2.98685 -0.297467 -1.57048
-2.98694 -0.306945 -1.57103
-2.98701 -0.316431 -1.57158
-2.98705 -0.325919 -1.57213
-2.98708 -0.335413 -1.57269
-2.98723 -0.344926 -1.57333
-2.98805 -0.35453 -1.57435
-2.98886 -0.364142 -1.57537
-2.98965 -0.373767 -1.57639
-2.99042 -0.383399 -1.57742
-2.99116 -0.393041 -1.57846
-2.99189 -0.402694 -1.5795
-2.99259 -0.412355 -1.58055
-2.99327 -0.422027 -1.5816
-2.99393 -0.431709 -1.58266
-2.99457 -0.4414 -1.58372
-2.99519 -0.451101 -1.58479
-2.99578 -0.460812 -1.58586
-2.99636 -0.470531 -1.58694
-2.99691 -0.480264 -1.58802
-2.99744 -0.490003 -1.58911
-2.99816 -0.499789 -1.59032
-2.99901 -0.50961 -1.59161
-2.99984 -0.519444 -1.59291
-3.00066 -0.529292 -1.59421
-3.00147 -0.539154 -1.59554
-3.00226 -0.549029 -1.59687
-3.00305 -0.558919 -1.59821
-3.00381 -0.568823 -1.59956
-3.00457 -0.578741 -1.60092
-3.00531 -0.588675 -1.60229
-3.00604 -0.598621 -1.60368
-3.00676 -0.608581 -1.60507
-3.00747 -0.618556 -1.60648
-3.00816 -0.628547 -1.60789
-3.01524 -0.63991 -1.61274
-3.02279 -0.651435 -1.61787
-3.03037 -0.663028 -1.62303
-3.03799 -0.674693 -1.62823
-3.04564 -0.68643 -1.63348
-3.05331 -0.698238 -1.63877
-3.06103 -0.710121 -1.64409
-3.06878 -0.722077 -1.64946
-3.07656 -0.734106 -1.65488
-3.08437 -0.746211 -1.66033
-3.09222 -0.758391 -1.66583
-3.1001 -0.770648 -1.67137
-3.10802 -0.782983 -1.67696
-3.11597 -0.795395 -1.68259
-3.12799 -0.808929 -1.69044
-3.14122 -0.82288 -1.69898
-3.21084 -0.851896 -1.73807
-3.30316 -0.887497 -1.78954
-3.27872 0.889212 -1.81355
-3.20979 0.859712 -1.77392
-3.12189 0.825675 -1.7239
-3.10884 0.811791 -1.71528
-3.0959 0.798039 -1.70675
-3.08307 0.784422 -1.69831
-3.07036 0.770933 -1.68997
-3.06249 0.758747 -1.68432
-3.05482 0.746679 -1.67881
-3.04719 0.734686 -1.67334
-3.03959 0.722766 -1.66791
-3.03202 0.710918 -1.66252
-3.02448 0.699143 -1.65718
-3.01698 0.68744 -1.65188
-3.0095 0.675807 -1.64661
-3.00206 0.664245 -1.64139
-2.99465 0.652751 -1.63621
-2.98726 0.641325 -1.63107
-2.97991 0.629969 -1.62596
-2.9791 0.620036 -1.62445
-2.97844 0.610151 -1.62304
-2.97776 0.60028 -1.62164
-2.97707 0.590423 -1.62024
-2.97637 0.58058 -1.61886
-2.97566 0.570752 -1.61749
-2.97493 0.560937 -1.61613
-2.97419 0.551135 -1.61478
-2.97343 0.541346 -1.61344
-2.97267 0.531573 -1.61211
-2.97189 0.521812 -1.61079
-2.9711 0.512066 -1.60949
-2.97029 0.502332 -1.60819
-2.96948 0.492612 -1.6069
-2.96865 0.482905 -1.60562
-2.96781 0.473213 -1.60436
-2.96695 0.46353 -1.6031
-2.96608 0.453863 -1.60185
-2.9652 0.444207 -1.60062
-2.96431 0.434566 -1.59939
-2.96341 0.424936 -1.59818
-2.96249 0.415319 -1.59697
-2.96156 0.405713 -1.59578
-2.96062 0.396121 -1.59459
-2.95966 0.386541 -1.59341
-2.9586 0.376962 -1.5922
-2.95691 0.367319 -1.59066
-2.95521 0.357692 -1.58913
-2.9535 0.348082 -1.58762
-2.9533 0.338664 -1.58693
-2.95357 0.329305 -1.58651
-2.95375 0.319942 -1.58606
-2.95366 0.310556 -1.58548
-2.95355 0.301173 -1.58491
-2.95342 0.291797 -1.58434
-2.95329 0.282426 -1.58378
-2.95313 0.273061 -1.58324
-2.95297 0.2637 -1.58269
-2.95278 0.254345 -1.58216
-2.95259 0.244994 -1.58164
-2.95238 0.235648 -1.58112
-2.95216 0.226307 -1.58061
-2.95192 0.216972 -1.58011
-2.95166 0.20764 -1.57962
-2.9514 0.198313 -1.57914
-2.95112 0.188991 -1.57866
-2.95082 0.179674 -1.57819
-2.95051 0.170362 -1.57774
-2.95019 0.161054 -1.57728
-2.94985 0.151751 -1.57684
-2.9495 0.142451 -1.57641
-2.94914 0.133158 -1.57598
-2.94876 0.123867 -1.57556
-2.94836 0.114581 -1.57515
-2.94796 0.105299 -1.57475
-2.94753 0.0960221 -1.57436
-2.9471 0.0867473 -1.57397
-2.94665 0.077478 -1.57359
-2.94618 0.0682127 -1.57322
-2.94571 0.0589521 -1.57286
-2.94521 0.049694 -1.57251
-2.94471 0.0404405 -1.57216
-2.94419 0.0311916 -1.57182
-2.94365 0.0219457 -1.57149
-2.9431 0.0127035 -1.57117
-2.94254 0.00346499 -1.57086
-2.94267 -0.00577267 -1.57093
-2.94323 -0.0150121 -1.57125
-2.94378 -0.0242565 -1.57157
-2.94431 -0.0335026 -1.5719
-2.94483 -0.0427539 -1.57224
-2.94533 -0.0520077 -1.57259
-2.94582 -0.0612667 -1.57295
-2.94629 -0.0705283 -1.57331
-2.94675 -0.0797946 -1.57368
-2.9472 -0.0890649 -1.57406
-2.94763 -0.0983393 -1.57445
-2.94805 -0.107618 -1.57485
-2.94846 -0.1169 -1.57525
-2.94885 -0.126189 -1.57566
-2.94922 -0.13548 -1.57608
-2.94959 -0.144776 -1.57651
-2.94993 -0.154076 -1.57695
-2.95027 -0.163381 -1.57739
-2.95059 -0.17269 -1.57785
-2.95089 -0.182002 -1.57831
-2.95119 -0.191321 -1.57878
-2.95146 -0.200643 -1.57926
-2.95173 -0.209971 -1.57974
-2.95198 -0.219303 -1.58024
-2.95221 -0.228639 -1.58074
-2.95243 -0.237984 -1.58125
-2.95264 -0.247327 -1.58177
-2.95283 -0.256683 -1.58229
-2.95301 -0.266038 -1.58283
-2.95317 -0.275402 -1.58337
-2.95332 -0.284768 -1.58392
-2.95346 -0.294141 -1.58448
-2.95358 -0.303517 -1.58505
-2.95368 -0.312901 -1.58563
-2.95377 -0.322287 -1.58621
-2.95351 -0.331643 -1.58662
-2.95324 -0.341002 -1.58704
-2.9539 -0.350477 -1.58798
-2.95561 -0.360091 -1.5895
-2.95731 -0.369723 -1.59103
-2.95893 -0.379362 -1.59253
-2.95989 -0.388932 -1.5937
-2.96084 -0.398516 -1.59488
-2.96178 -0.408111 -1.59607
-2.96271 -0.417719 -1.59727
-2.96363 -0.427339 -1.59847
-2.96453 -0.436972 -1.59969
-2.96542 -0.446617 -1.60092
-2.96629 -0.456276 -1.60216
-2.96716 -0.465946 -1.60341
-2.96801 -0.475633 -1.60467
-2.96885 -0.485329 -1.60594
-2.96968 -0.49504 -1.60722
-2.97049 -0.504764 -1.60851
-2.97129 -0.5145 -1.60981
-2.97208 -0.52425 -1.61112
-2.97286 -0.534015 -1.61244
-2.97362 -0.543791 -1.61377
-2.97437 -0.553582 -1.61512
-2.97511 -0.563387 -1.61647
-2.97583 -0.573205 -1.61783
-2.97655 -0.583039 -1.61921
-2.97725 -0.592886 -1.62059
-2.97793 -0.602746 -1.62199
-2.9786 -0.61262 -1.62339
-2.97926 -0.62251 -1.62481
-2.98163 -0.632777 -1.62717
-2.98899 -0.64415 -1.63229
-2.99638 -0.655591 -1.63744
-3.0038 -0.667102 -1.64263
-3.01126 -0.678681 -1.64786
-3.01874 -0.690331 -1.65313
-3.02625 -0.702053 -1.65845
-3.0338 -0.713847 -1.6638
-3.04138 -0.725712 -1.6692
-3.04899 -0.737651 -1.67464
-3.05663 -0.749663 -1.68012
-3.0643 -0.76175 -1.68565
-3.07336 -0.774253 -1.69196
-3.0861 -0.787771 -1.70032
-3.09896 -0.801422 -1.70878
-3.11193 -0.815205 -1.71734
-3.15915 -0.83818 -1.74484
-3.2259 -0.866738 -1.7832
-3.30585 0.907719 -1.8669
-3.22433 0.874461 -1.81931
-3.15769 0.845757 -1.7802
-3.09269 0.817951 -1.74209
-3.0799 0.804234 -1.73346
-3.06722 0.790647 -1.72492
-3.05465 0.777191 -1.71647
-3.04219 0.763862 -1.70812
-3.02984 0.750659 -1.69985
-3.01979 0.738116 -1.6929
-3.01236 0.726287 -1.68745
-3.00496 0.71453 -1.68204
-2.99758 0.702844 -1.67667
-2.99024 0.691228 -1.67134
-2.98293 0.679681 -1.66605
-2.97565 0.668204 -1.6608
-2.96839 0.656795 -1.6556
-2.96117 0.645453 -1.65043
-2.95397 0.634177 -1.6453
-2.95113 0.623885 -1.64262
-2.95052 0.614086 -1.6412
-2.94988 0.604301 -1.63978
-2.94924 0.59453 -1.63838
-2.94858 0.584772 -1.63698
-2.94791 0.575028 -1.6356
-2.94722 0.565298 -1.63423
-2.94653 0.555581 -1.63287
-2.94582 0.545878 -1.63152
-2.94509 0.536186 -1.63018
-2.94436 0.52651 -1.62885
-2.94361 0.516846 -1.62753
-2.94285 0.507197 -1.62622
-2.94208 0.49756 -1.62492
-2.94129 0.487936 -1.62363
-2.94049 0.478325 -1.62235
-2.93968 0.468728 -1.62108
-2.93885 0.45914 -1.61983
-2.93802 0.449568 -1.61858
-2.93717 0.440006 -1.61734
-2.9363 0.43046 -1.61612
-2.93517 0.420887 -1.61476
-2.93359 0.411268 -1.61317
-2.932 0.401663 -1.6116
-2.9304 0.392078 -1.61003
-2.92878 0.382508 -1.60848
-2.92716 0.372956 -1.60693
-2.92552 0.36342 -1.6054
-2.92386 0.353898 -1.60387
-2.92296 0.344483 -1.60277
-2.92325 0.335218 -1.60235
-2.92352 0.325956 -1.60193
-2.92378 0.316696 -1.60152
-2.92402 0.30744 -1.60112
-2.92425 0.298186 -1.60072
-2.92434 0.288924 -1.60027
-2.92422 0.279646 -1.59971
-2.92408 0.270374 -1.59916
-2.92392 0.261106 -1.59862
-2.92375 0.251844 -1.59809
-2.92357 0.242586 -1.59756
-2.92337 0.233333 -1.59704
-2.92316 0.224084 -1.59654
-2.92293 0.214841 -1.59604
-2.92269 0.205602 -1.59554
-2.92243 0.196367 -1.59506
-2.92216 0.187137 -1.59459
-2.92188 0.177912 -1.59412
-2.92158 0.168692 -1.59366
-2.92127 0.159476 -1.59321
-2.92095 0.150264 -1.59277
-2.92061 0.141056 -1.59233
-2.92025 0.131853 -1.5919
-2.91988 0.122654 -1.59149
-2.9195 0.11346 -1.59108
-2.9191 0.104268 -1.59067
-2.91869 0.0950826 -1.59028
-2.91827 0.0858987 -1.58989
-2.91783 0.0767203 -1.58951
-2.91738 0.0675458 -1.58914
-2.91691 0.0583758 -1.58878
-2.91643 0.0492084 -1.58843
-2.91593 0.0400454 -1.58808
-2.91543 0.0308868 -1.58774
-2.9149 0.0217313 -1.58741
-2.91437 0.0125794 -1.58709
-2.91381 0.00343116 -1.58678
-2.91394 -0.00571631 -1.58685
-2.91449 -0.0148655 -1.58717
-2.91502 -0.0240196 -1.58749
-2.91554 -0.0331753 -1.58782
-2.91605 -0.0423362 -1.58816
-2.91654 -0.0514994 -1.58851
-2.91702 -0.0606678 -1.58887
-2.91748 -0.0698387 -1.58923
-2.91793 -0.0790141 -1.5896
-2.91837 -0.0881936 -1.58998
-2.91879 -0.097377 -1.59037
-2.9192 -0.106565 -1.59077
-2.91959 -0.115755 -1.59117
-2.91997 -0.124953 -1.59159
-2.92034 -0.134153 -1.59201
-2.92069 -0.143357 -1.59244
-2.92102 -0.152566 -1.59287
-2.92135 -0.161779 -1.59332
-2.92165 -0.170996 -1.59377
-2.92195 -0.180217 -1.59423
-2.92223 -0.189444 -1.5947
-2.9225 -0.198674 -1.59518
-2.92275 -0.20791 -1.59567
-2.92299 -0.217149 -1.59616
-2.92321 -0.226393 -1.59666
-2.92342 -0.235645 -1.59717
-2.92361 -0.244896 -1.59769
-2.92379 -0.254159 -1.59822
-2.92396 -0.263421 -1.59875
-2.92411 -0.272692 -1.5993
-2.92425 -0.281964 -1.59985
-2.92437 -0.291245 -1.60041
-2.92421 -0.300498 -1.60082
-2.92397 -0.309753 -1.60122
-2.92372 -0.31901 -1.60162
-2.92346 -0.328269 -1.60204
-2.92318 -0.337532 -1.60246
-2.92289 -0.346798 -1.60289
-2.92425 -0.35627 -1.60424
-2.9259 -0.365796 -1.60576
-2.92754 -0.375337 -1.6073
-2.92916 -0.384894 -1.60885
-2.93077 -0.394468 -1.61041
-2.93237 -0.404058 -1.61197
-2.93396 -0.413665 -1.61355
-2.93554 -0.423289 -1.61514
-2.93651 -0.432842 -1.61642
-2.93737 -0.442393 -1.61765
-2.93822 -0.451957 -1.61889
-2.93905 -0.461532 -1.62014
-2.93987 -0.471124 -1.6214
-2.94068 -0.480725 -1.62267
-2.94148 -0.49034 -1.62395
-2.94226 -0.499967 -1.62524
-2.94304 -0.509608 -1.62654
-2.94379 -0.51926 -1.62785
-2.94454 -0.528928 -1.62918
-2.94527 -0.538607 -1.63051
-2.94599 -0.548301 -1.63185
-2.9467 -0.558007 -1.63321
-2.94739 -0.567727 -1.63457
-2.94808 -0.577463 -1.63594
-2.94874 -0.58721 -1.63733
-2.9494 -0.596971 -1.63873
-2.95004 -0.606745 -1.64013
-2.95067 -0.616535 -1.64155
-2.95129 -0.626338 -1.64298
-2.95565 -0.636965 -1.64651
-2.96285 -0.648255 -1.65165
-2.97009 -0.659613 -1.65683
-2.97735 -0.671039 -1.66205
-2.98464 -0.682533 -1.6673
-2.99196 -0.694098 -1.6726
-2.99931 -0.705732 -1.67794
-3.00669 -0.717436 -1.68332
-3.0141 -0.729211 -1.68875
-3.02154 -0.741058 -1.69421
-3.03275 -0.753907 -1.70181
-3.04513 -0.767141 -1.7101
-3.05762 -0.7805 -1.71848
-3.07021 -0.793988 -1.72695
-3.08292 -0.807606 -1.73552
-3.09574 -0.821356 -1.74418
-3.17322 -0.852585 -1.78933
-3.23851 0.889228 -1.86523
-3.17124 0.860063 -1.82492
-3.0764 0.823984 -1.76885
-3.06376 0.810301 -1.76011
-3.05123 0.796749 -1.75147
-3.03881 0.783325 -1.74292
-3.0265 0.770029 -1.73446
-3.01429 0.756856 -1.72609
-3.00219 0.743807 -1.71782
-2.99018 0.73088 -1.70963
-2.97828 0.718072 -1.70153
-2.9708 0.706408 -1.69597
-2.96362 0.694879 -1.69062
-2.95646 0.683419 -1.68531
-2.94934 0.672028 -1.68004
-2.94224 0.660703 -1.6748
-2.93517 0.649445 -1.66961
-2.92813 0.638253 -1.66446
-2.92338 0.627611 -1.66063
-2.92281 0.617897 -1.65919
-2.92222 0.608197 -1.65777
-2.92162 0.598511 -1.65635
-2.921 0.588838 -1.65495
-2.92037 0.579179 -1.65355
-2.91973 0.569532 -1.65217
-2.91908 0.5599 -1.6508
-2.91841 0.55028 -1.64944
-2.91773 0.540674 -1.64808
-2.91704 0.531078 -1.64674
-2.91633 0.521498 -1.64541
-2.91561 0.51193 -1.64409
-2.91488 0.502377 -1.64278
-2.91414 0.492835 -1.64148
-2.91338 0.483306 -1.64019
-2.91261 0.47379 -1.63891
-2.91134 0.464209 -1.63737
-2.90987 0.454612 -1.63573
-2.90839 0.445035 -1.63411
-2.9069 0.435472 -1.63249
-2.90539 0.425928 -1.63089
-2.90388 0.4164 -1.6293
-2.90234 0.406887 -1.62771
-2.9008 0.397389 -1.62614
-2.89925 0.38791 -1.62458
-2.89768 0.378446 -1.62303
-2.8961 0.368998 -1.62148
-2.8945 0.359567 -1.61995
-2.89293 0.350153 -1.61845
-2.89324 0.340981 -1.61802
-2.89353 0.33181 -1.61759
-2.89381 0.322643 -1.61717
-2.89408 0.313478 -1.61676
-2.89433 0.304318 -1.61636
-2.89456 0.295158 -1.61597
-2.89478 0.286003 -1.61558
-2.89499 0.276851 -1.6152
-2.89518 0.267702 -1.61483
-2.89519 0.25854 -1.61437
-2.89503 0.249369 -1.61384
-2.89485 0.240203 -1.61332
-2.89467 0.231042 -1.6128
-2.89447 0.221885 -1.61229
-2.89425 0.212733 -1.61179
-2.89402 0.203585 -1.6113
-2.89378 0.194442 -1.61082
-2.89352 0.185302 -1.61034
-2.89325 0.176168 -1.60987
-2.89296 0.167039 -1.60941
-2.89266 0.157914 -1.60896
-2.89234 0.148792 -1.60852
-2.89201 0.139675 -1.60809
-2.89167 0.130563 -1.60766
-2.89131 0.121454 -1.60724
-2.89094 0.11235 -1.60683
-2.89056 0.103249 -1.60643
-2.89016 0.094153 -1.60603
-2.88974 0.0850591 -1.60565
-2.88932 0.0759705 -1.60527
-2.88887 0.0668858 -1.6049
-2.88842 0.0578056 -1.60454
-2.88795 0.0487278 -1.60418
-2.88746 0.0396544 -1.60384
-2.88697 0.0305853 -1.6035
-2.88645 0.0215192 -1.60317
-2.88593 0.0124567 -1.60285
-2.88539 0.00339769 -1.60253
-2.88551 -0.00566054 -1.60261
-2.88605 -0.0147204 -1.60292
-2.88657 -0.0237852 -1.60325
-2.88708 -0.0328515 -1.60358
-2.88758 -0.0419228 -1.60392
-2.88806 -0.0509964 -1.60427
-2.88852 -0.0600751 -1.60462
-2.88898 -0.0691563 -1.60499
-2.88942 -0.0782419 -1.60536
-2.88984 -0.0873315 -1.60574
-2.89025 -0.0964249 -1.60613
-2.89065 -0.105522 -1.60652
-2.89103 -0.114623 -1.60693
-2.8914 -0.123731 -1.60734
-2.89175 -0.13284 -1.60776
-2.89209 -0.141954 -1.60819
-2.89242 -0.151072 -1.60863
-2.89273 -0.160194 -1.60907
-2.89303 -0.169321 -1.60953
-2.89331 -0.178451 -1.60999
-2.89358 -0.187587 -1.61046
-2.89384 -0.196726 -1.61093
-2.89408 -0.20587 -1.61142
-2.8943 -0.215018 -1.61191
-2.89451 -0.224171 -1.61242
-2.89471 -0.233331 -1.61293
-2.8949 -0.242491 -1.61345
-2.89507 -0.251662 -1.61397
-2.89522 -0.260832 -1.61451
-2.89514 -0.26999 -1.61492
-2.89494 -0.279138 -1.6153
-2.89474 -0.288293 -1.61568
-2.89451 -0.297447 -1.61607
-2.89427 -0.306607 -1.61646
-2.89402 -0.315769 -1.61687
-2.89375 -0.324934 -1.61728
-2.89347 -0.334101 -1.6177
-2.89317 -0.343272 -1.61813
-2.89327 -0.352496 -1.61879
-2.89487 -0.361918 -1.62032
-2.89646 -0.371354 -1.62185
-2.89804 -0.380805 -1.6234
-2.89961 -0.390273 -1.62495
-2.90116 -0.399758 -1.62652
-2.9027 -0.409258 -1.62809
-2.90423 -0.418774 -1.62968
-2.90574 -0.428307 -1.63128
-2.90725 -0.437855 -1.63288
-2.90874 -0.447422 -1.6345
-2.91021 -0.457004 -1.63613
-2.91168 -0.466605 -1.63777
-2.9128 -0.476166 -1.63923
