ply
format ascii 1.0
comment Created by Open3D
element vertex 1863
property double x
property double y
property double z
end_header
-5.84694 3.65307 -1.87807
-5.87651 3.64586 -1.88387
-5.90626 3.63859 -1.88972
-5.9362 3.63128 -1.89563
-5.96407 3.62256 -1.90088
-5.99135 3.61334 -1.90593
-6.01878 3.60406 -1.91103
-6.04974 3.59675 -1.91726
-6.08502 3.59183 -1.92484
-6.12907 3.59184 -1.93519
-6.1736 3.59185 -1.94566
-6.21861 3.59185 -1.95627
-6.2641 3.59186 -1.96701
-6.31012 3.59187 -1.9779
-6.35663 3.59187 -1.98892
-6.40367 3.59188 -2.00009
-6.45124 3.59189 -2.0114
-6.49935 3.5919 -2.02286
-6.54801 3.5919 -2.03448
-6.59725 3.59191 -2.04625
-6.64705 3.59192 -2.05817
-6.71849 3.60322 -2.07677
-6.77937 3.60841 -2.09206
-6.83513 3.6105 -2.10575
-6.88457 3.60891 -2.11746
-6.93456 3.60731 -2.12933
-6.98511 3.60569 -2.14136
-7.03624 3.60405 -2.15354
-7.08796 3.60239 -2.16588
-7.14228 3.60173 -2.179
-7.19941 3.60213 -2.19296
-7.25729 3.60254 -2.20712
-7.3159 3.60295 -2.22148
-7.3753 3.60337 -2.23606
-7.43347 3.60282 -2.25024
-5.51937 5.14852 -2.12365
-5.49397 5.09255 -2.10769
-5.46894 5.03741 -2.09199
-5.44497 4.9837 -2.0768
-5.42146 4.93089 -2.0619
-5.39828 4.87882 -2.04723
-5.39415 4.84429 -2.03986
-5.39238 4.81209 -2.03345
-5.39062 4.78009 -2.02709
-5.38887 4.7483 -2.0208
-5.38713 4.71669 -2.01456
-5.3854 4.68528 -2.00839
-5.38368 4.65407 -2.00227
-5.38197 4.62304 -1.9962
-5.38027 4.59219 -1.9902
-5.37858 4.56153 -1.98424
-5.37669 4.53088 -1.97827
-5.37457 4.50021 -1.97226
-5.37684 4.47337 -1.96791
-5.3787 4.44631 -1.96346
-5.38049 4.41932 -1.95902
-5.38227 4.39246 -1.95462
-5.38404 4.36571 -1.95025
-5.3858 4.33908 -1.94593
-5.38755 4.31257 -1.94164
-5.3893 4.28618 -1.9374
-5.39104 4.2599 -1.93319
-5.39302 4.23393 -1.9291
-5.39529 4.2083 -1.92516
-5.39755 4.18278 -1.92126
-5.39979 4.15735 -1.91738
-5.40195 4.13197 -1.91352
-5.40986 4.11106 -1.91172
-5.41924 4.09132 -1.91047
-5.42861 4.07161 -1.90924
-5.43797 4.05191 -1.90803
-5.44731 4.03224 -1.90684
-5.45663 4.01259 -1.90567
-5.46594 3.99296 -1.90452
-5.47524 3.97336 -1.90339
-5.48452 3.95377 -1.90227
-5.49379 3.93421 -1.90118
-5.50304 3.91466 -1.9001
-5.51228 3.89513 -1.89905
-5.52151 3.87563 -1.89801
-5.53072 3.85614 -1.89699
-5.54018 3.83685 -1.89608
-5.55166 3.81897 -1.89588
-5.56605 3.80309 -1.89669
-5.58377 3.78944 -1.89865
-5.60152 3.77576 -1.90063
-5.61929 3.76205 -1.90263
-5.6371 3.7483 -1.90465
-5.65494 3.73452 -1.90669
-5.67281 3.7207 -1.90876
-5.69071 3.70686 -1.91084
-5.70864 3.69297 -1.91295
-5.72661 3.67905 -1.91507
-5.74493 3.6653 -1.91733
-5.77315 3.65776 -1.92289
-5.80226 3.65063 -1.92874
-5.83153 3.64345 -1.93465
-5.86098 3.63622 -1.94061
-5.8906 3.62895 -1.94662
-5.92041 3.62162 -1.95269
-5.94937 3.61363 -1.95848
-5.97655 3.60441 -1.96368
-6.01318 3.60071 -1.97197
-6.04145 3.59182 -1.97752
-6.08502 3.59183 -1.98807
-6.12908 3.59184 -1.99876
-6.1736 3.59185 -2.00957
-6.2186 3.59185 -2.02053
-6.2641 3.59186 -2.03163
-6.31012 3.59187 -2.04287
-6.35663 3.59187 -2.05425
-6.40367 3.59188 -2.06579
-6.45125 3.59189 -2.07747
-6.49935 3.5919 -2.08931
-6.54801 3.5919 -2.1013
-6.59725 3.59191 -2.11346
-6.64705 3.59192 -2.12578
-6.71842 3.60318 -2.14496
-6.77931 3.60838 -2.16076
-6.82972 3.60764 -2.17319
-6.87922 3.60611 -2.18532
-6.92914 3.60449 -2.19756
-6.97963 3.60286 -2.20996
-7.03308 3.60243 -2.22328
-7.08883 3.60283 -2.2373
-7.14527 3.60323 -2.25152
-7.20243 3.60365 -2.26595
-5.51439 5.14388 -2.18953
-5.48948 5.08839 -2.17326
-5.46532 5.03408 -2.15741
-5.4415 4.98053 -2.1418
-5.41803 4.92777 -2.12644
-5.39489 4.87575 -2.11132
-5.3921 4.84245 -2.10424
-5.39034 4.81026 -2.09763
-5.38859 4.77828 -2.09108
-5.38684 4.74651 -2.08459
-5.38511 4.71492 -2.07816
-5.38339 4.68353 -2.07179
-5.38168 4.65233 -2.06548
-5.37957 4.62097 -2.05907
-5.37743 4.58977 -2.05271
-5.37531 4.55875 -2.0464
-5.3732 4.52794 -2.04016
-5.37143 4.49758 -2.0341
-5.3738 4.47083 -2.02965
-5.37614 4.4442 -2.02523
-5.37848 4.41767 -2.02086
-5.3805 4.39101 -2.01641
-5.38227 4.36427 -2.01191
-5.38404 4.33766 -2.00745
-5.38579 4.31116 -2.00303
-5.38754 4.28478 -1.99865
-5.38928 4.25851 -1.99431
-5.39101 4.23235 -1.99
-5.39274 4.20631 -1.98574
-5.39445 4.18038 -1.98151
-5.39616 4.15456 -1.97732
-5.39786 4.12884 -1.97317
-5.40626 4.10833 -1.97149
-5.41536 4.08839 -1.97011
-5.4246 4.06859 -1.96879
-5.43386 4.04885 -1.96751
-5.44311 4.02913 -1.96626
-5.45235 4.00944 -1.96502
-5.46157 3.98977 -1.9638
-5.47079 3.97013 -1.96261
-5.47999 3.9505 -1.96144
-5.48918 3.93091 -1.96028
-5.49836 3.91132 -1.95915
-5.50753 3.89177 -1.95804
-5.51668 3.87224 -1.95695
-5.52583 3.85273 -1.95587
-5.53497 3.83324 -1.95482
-5.54409 3.81376 -1.95379
-5.55751 3.79725 -1.95429
-5.57514 3.78359 -1.95629
-5.59324 3.77018 -1.95846
-5.61138 3.75675 -1.96066
-5.62956 3.74329 -1.96288
-5.64778 3.72979 -1.96513
-5.66604 3.71627 -1.9674
-5.68435 3.70271 -1.96969
-5.70269 3.68912 -1.97201
-5.72108 3.6755 -1.97436
-5.74153 3.66313 -1.97742
-5.76813 3.65458 -1.98261
-5.79487 3.64598 -1.98784
-5.82175 3.63734 -1.99312
-5.84878 3.62865 -1.99845
-5.87595 3.61992 -2.00382
-5.90463 3.61197 -2.00971
-5.93448 3.60459 -2.016
-5.9869 3.61065 -2.02993
-5.99833 3.59182 -2.02996
-6.04145 3.59182 -2.04071
-6.08502 3.59183 -2.0516
-6.12908 3.59184 -2.06262
-6.1736 3.59185 -2.07379
-6.21861 3.59185 -2.08509
-6.2641 3.59186 -2.09654
-6.31012 3.59187 -2.10815
-6.35663 3.59187 -2.11989
-6.40367 3.59188 -2.13179
-6.45125 3.59189 -2.14386
-6.49936 3.5919 -2.15607
-6.54801 3.5919 -2.16845
-6.59725 3.59191 -2.18099
-6.64705 3.59192 -2.19371
-6.71836 3.60315 -2.21349
-6.77424 3.60568 -2.22814
-6.82419 3.60472 -2.24082
-6.87386 3.6033 -2.25339
-6.9265 3.60312 -2.26692
-5.48591 5.08508 -2.23942
-5.46179 5.03083 -2.2231
-5.43802 4.97734 -2.20702
-5.41459 4.92464 -2.19121
-5.39181 4.87296 -2.17576
-5.39004 4.8406 -2.16889
-5.38829 4.80844 -2.16207
-5.38654 4.77647 -2.15532
-5.38465 4.74457 -2.14857
-5.38247 4.71261 -2.14177
-5.38031 4.68085 -2.13503
-5.37817 4.6493 -2.12835
-5.37603 4.61793 -2.12174
-5.37391 4.58676 -2.11518
-5.37179 4.55577 -2.10869
-5.36969 4.52499 -2.10226
-5.36837 4.49502 -2.09619
-5.37074 4.46829 -2.0916
-5.37309 4.44168 -2.08706
-5.37544 4.41517 -2.08256
-5.37777 4.38879 -2.07809
-5.38009 4.3625 -2.07367
-5.38227 4.33624 -2.06923
-5.38403 4.30975 -2.06468
-5.38578 4.28337 -2.06016
-5.38752 4.25712 -2.05569
-5.38926 4.23097 -2.05125
-5.39098 4.20494 -2.04686
-5.3927 4.17902 -2.0425
-5.39442 4.15321 -2.03818
-5.39612 4.12751 -2.0339
-5.40485 4.10725 -2.0323
-5.41395 4.08733 -2.03087
-5.42304 4.06743 -2.02946
-5.43211 4.04755 -2.02808
-5.44119 4.02771 -2.02672
-5.45042 4.00802 -2.02544
-5.45965 3.98836 -2.02419
-5.46886 3.96873 -2.02296
-5.47806 3.94911 -2.02175
-5.48725 3.92952 -2.02056
-5.49643 3.90995 -2.0194
-5.50559 3.8904 -2.01825
-5.51475 3.87088 -2.01712
-5.52389 3.85137 -2.01602
-5.53302 3.83189 -2.01494
-5.54215 3.81242 -2.01387
-5.55676 3.79674 -2.01483
-5.57414 3.78291 -2.0168
-5.59156 3.76905 -2.01879
-5.60948 3.75549 -2.02098
-5.62766 3.74202 -2.02327
-5.64587 3.72853 -2.02559
-5.66413 3.71501 -2.02793
-5.68242 3.70146 -2.03029
-5.70076 3.68787 -2.03268
-5.71914 3.67425 -2.0351
-5.74119 3.66291 -2.03882
-5.76778 3.65436 -2.04417
-5.79453 3.64576 -2.04957
-5.82141 3.63712 -2.05501
-5.84843 3.62844 -2.0605
-5.8756 3.6197 -2.06605
-5.90282 3.61086 -2.07161
-5.92964 3.60165 -2.07703
-5.97516 3.60357 -2.08898
-5.99834 3.59182 -2.09312
-6.04145 3.59182 -2.10421
-6.08502 3.59183 -2.11543
-6.12908 3.59184 -2.1268
-6.1736 3.59185 -2.13831
-6.2186 3.59185 -2.14997
-6.2641 3.59186 -2.16178
-6.31011 3.59187 -2.17374
-6.35663 3.59187 -2.18585
-6.40367 3.59188 -2.19812
-6.45125 3.59189 -2.21056
-6.49936 3.5919 -2.22315
-6.54802 3.5919 -2.23592
-6.59725 3.59191 -2.24885
-6.64705 3.59192 -2.26196
-6.72242 3.60533 -2.28373
-5.38974 4.87109 -2.24088
-5.3876 4.8384 -2.23364
-5.3854 4.80586 -2.22644
-5.38322 4.77352 -2.21931
-5.38104 4.7414 -2.21225
-5.37888 4.70947 -2.20524
-5.37674 4.67774 -2.19831
-5.3746 4.64622 -2.19144
-5.37248 4.61488 -2.18464
-5.37037 4.58374 -2.17789
-5.36827 4.55278 -2.17121
-5.36618 4.52203 -2.1646
-5.3653 4.49244 -2.15852
-5.36767 4.46573 -2.1538
-5.37003 4.43914 -2.14912
-5.37238 4.41266 -2.14449
-5.37472 4.38629 -2.13989
-5.37704 4.36003 -2.13534
-5.37936 4.3339 -2.13083
-5.38166 4.30786 -2.12635
-5.38396 4.28193 -2.12192
-5.38575 4.25572 -2.11733
-5.38749 4.22959 -2.11276
-5.38922 4.20357 -2.10824
-5.39094 4.17766 -2.10375
-5.39266 4.15186 -2.09931
-5.39437 4.12617 -2.0949
-5.40344 4.10618 -2.09338
-5.41253 4.08625 -2.09191
-5.42162 4.06636 -2.09046
-5.43069 4.04649 -2.08903
-5.43975 4.02664 -2.08763
-5.44879 4.00682 -2.08624
-5.45783 3.98704 -2.08488
-5.46692 3.96732 -2.08357
-5.47612 3.94771 -2.08232
-5.48531 3.92813 -2.0811
-5.49448 3.90857 -2.0799
-5.50365 3.88903 -2.07872
-5.5128 3.86951 -2.07756
-5.52194 3.85001 -2.07642
-5.53107 3.83054 -2.07531
-5.5402 3.81108 -2.07421
-5.556 3.79622 -2.07564
-5.57338 3.78239 -2.07767
-5.5908 3.76853 -2.07973
-5.60824 3.75465 -2.08181
-5.62575 3.74076 -2.08392
-5.64396 3.72727 -2.0863
-5.6622 3.71375 -2.08871
-5.68049 3.7002 -2.09115
-5.69882 3.68661 -2.09361
-5.71719 3.673 -2.0961
-5.74084 3.66269 -2.10053
-5.76744 3.65414 -2.10603
-5.79418 3.64554 -2.11159
-5.82105 3.6369 -2.1172
-5.84808 3.62822 -2.12286
-5.87463 3.61911 -2.12835
-5.90131 3.60994 -2.13388
-5.96765 3.62473 -2.15373
-5.96677 3.59851 -2.14931
-5.99834 3.59182 -2.15659
-6.04145 3.59182 -2.16802
-6.08502 3.59183 -2.17958
-6.12908 3.59184 -2.19129
-6.1736 3.59185 -2.20316
-6.21861 3.59185 -2.21517
-6.2641 3.59186 -2.22733
-6.31012 3.59187 -2.23966
-6.35663 3.59187 -2.25214
-6.40366 3.59188 -2.26478
-6.45124 3.59189 -2.27759
-6.49936 3.5919 -2.29057
-6.54801 3.5919 -2.30372
-6.59725 3.59191 -2.31705
-5.36682 4.5807 -2.24084
-5.36473 4.54978 -2.23397
-5.36265 4.51905 -2.22717
-5.36221 4.48986 -2.2211
-5.36459 4.46317 -2.21625
-5.36695 4.4366 -2.21144
-5.36931 4.41014 -2.20667
-5.37165 4.38379 -2.20194
-5.37398 4.35755 -2.19726
-5.3763 4.33143 -2.19262
-5.37861 4.30541 -2.18802
-5.38091 4.27951 -2.18346
-5.3832 4.25371 -2.17894
-5.38548 4.22801 -2.17446
-5.38745 4.20219 -2.1699
-5.38918 4.17629 -2.16528
-5.3909 4.1505 -2.1607
-5.3929 4.12505 -2.15629
-5.40201 4.1051 -2.15475
-5.41111 4.08518 -2.15323
-5.42019 4.06529 -2.15174
-5.42926 4.04542 -2.15027
-5.43832 4.02558 -2.14882
-5.44736 4.00577 -2.1474
-5.4564 3.98599 -2.146
-5.46542 3.96623 -2.14462
-5.47443 3.94649 -2.14326
-5.48342 3.92678 -2.14193
-5.49253 3.90718 -2.14067
-5.50169 3.88765 -2.13946
-5.51084 3.86814 -2.13827
-5.51999 3.84865 -2.13709
-5.52911 3.82918 -2.13595
-5.53823 3.80973 -2.13482
-5.55524 3.79571 -2.13676
-5.57262 3.78188 -2.13885
-5.59003 3.76802 -2.14096
-5.60747 3.75414 -2.1431
-5.62495 3.74022 -2.14527
-5.64246 3.72628 -2.14746
-5.66027 3.71248 -2.14977
-5.67855 3.69893 -2.15228
-5.69687 3.68535 -2.15481
-5.71523 3.67174 -2.15737
-5.7405 3.66247 -2.16254
-5.76709 3.65392 -2.16821
-5.79383 3.64532 -2.17393
-5.82021 3.63638 -2.17952
-5.8466 3.6273 -2.18511
-5.87312 3.61818 -2.19075
-5.89978 3.60901 -2.19644
-5.98133 3.63304 -2.22253
-5.98043 3.60674 -2.21796
-5.99834 3.59182 -2.22039
-6.04145 3.59182 -2.23215
-6.08502 3.59183 -2.24406
-6.12907 3.59184 -2.25612
-6.17359 3.59185 -2.26833
-6.2186 3.59185 -2.2807
-6.2641 3.59186 -2.29322
-6.31012 3.59187 -2.30591
-6.35663 3.59187 -2.31877
-6.40367 3.59188 -2.33178
-6.45124 3.59189 -2.34497
-6.49935 3.5919 -2.35834
-6.54801 3.5919 -2.37187
-5.38015 4.2513 -2.24061
-5.38243 4.22562 -2.236
-5.38471 4.20005 -2.23144
-5.38697 4.17457 -2.22691
-5.38912 4.14914 -2.22239
-5.39147 4.12395 -2.21799
-5.40058 4.10401 -2.2164
-5.40968 4.0841 -2.21484
-5.41876 4.06422 -2.21331
-5.42783 4.04435 -2.2118
-5.43688 4.02452 -2.21031
-5.44593 4.00472 -2.20884
-5.45496 3.98494 -2.2074
-5.46398 3.96518 -2.20599
-5.47298 3.94545 -2.20459
-5.48198 3.92575 -2.20322
-5.49096 3.90606 -2.20188
-5.49993 3.88641 -2.20055
-5.50889 3.86677 -2.19925
-5.51802 3.84728 -2.19804
-5.52715 3.82782 -2.19686
-5.53715 3.80898 -2.19606
-5.55448 3.79519 -2.19818
-5.57185 3.78136 -2.20033
-5.58926 3.7675 -2.2025
-5.6067 3.75362 -2.2047
-5.62418 3.73971 -2.20693
-5.64169 3.72577 -2.20918
-5.65923 3.7118 -2.21146
-5.67681 3.6978 -2.21377
-5.69491 3.68409 -2.21629
-5.7137 3.67075 -2.21909
-5.74015 3.66225 -2.22487
-5.76635 3.65345 -2.23055
-5.79247 3.64447 -2.2362
-5.81871 3.63544 -2.2419
-5.84509 3.62636 -2.24765
-5.8716 3.61724 -2.25345
-5.89826 3.60807 -2.25931
-6.00457 3.64715 -2.29562
-6.00065 3.61894 -2.28975
-5.99834 3.59182 -2.28453
-6.04145 3.59182 -2.29663
-6.08502 3.59183 -2.30888
-6.12907 3.59184 -2.32129
-6.1736 3.59185 -2.33386
-6.21861 3.59185 -2.34658
-6.26411 3.59186 -2.35947
-6.31012 3.59187 -2.37252
-6.35663 3.59187 -2.38575
-6.40367 3.59188 -2.39914
-6.45125 3.59189 -2.41271
-6.49935 3.5919 -2.42646
-6.09467 3.7812 -2.40978
-6.07754 3.74411 -2.39833
-6.06743 3.71156 -2.38971
-6.06328 3.68282 -2.3835
-6.05918 3.65424 -2.37735
-6.05511 3.62582 -2.37126
-6.05109 3.59755 -2.36523
-6.08502 3.59183 -2.37406
-6.12908 3.59184 -2.38682
-6.1736 3.59185 -2.39974
-6.2186 3.59185 -2.41282
-6.2641 3.59186 -2.42607
-6.31012 3.59187 -2.4395
-6.35663 3.59187 -2.45309
-6.40367 3.59188 -2.46686
-9.3098 3.84258 -1.26214
-9.14384 3.77409 -1.32323
-9.22685 3.77435 -1.33352
-9.32804 3.78146 -1.34641
-9.40869 3.77966 -1.35633
-9.65497 3.8433 -1.39008
-9.97329 3.93363 -1.43412
-9.03529 3.72928 -1.39031
-9.10081 3.72279 -1.39858
-9.16986 3.71734 -1.40739
-9.24962 3.71576 -1.41782
-9.3394 3.71768 -1.42978
-9.41998 3.71539 -1.44031
-9.53474 3.72597 -1.45606
-9.71518 3.76121 -1.48179
-9.90628 3.79933 -1.50911
-8.93284 3.687 -1.45659
-8.99484 3.67945 -1.4648
-9.05802 3.672 -1.47319
-9.12637 3.66625 -1.48242
-9.19556 3.66042 -1.49178
-9.27093 3.65661 -1.50213
-9.35029 3.65389 -1.51312
-9.4308 3.65111 -1.52427
-9.51246 3.64829 -1.53561
-9.71827 3.69212 -1.56694
-8.83244 3.64556 -1.52154
-8.89319 3.63786 -1.53002
-8.9672 3.63518 -1.54077
-9.04527 3.63367 -1.55221
-9.12031 3.63047 -1.56312
-9.19746 3.62763 -1.57437
-9.27797 3.62563 -1.58619
-9.36738 3.62656 -1.59951
-9.46015 3.62823 -1.61339
-9.63241 3.6595 -1.64079
-8.78309 3.62519 -1.59412
-8.85042 3.62037 -1.60426
-8.92509 3.61811 -1.61572
-9.00309 3.61672 -1.62777
-9.07828 3.61374 -1.63929
-9.15194 3.60967 -1.65053
-9.22948 3.60668 -1.66246
-9.31525 3.60638 -1.67585
-9.41552 3.61111 -1.69183
-9.54155 3.62498 -1.71242
-9.83255 3.70012 -1.76254
-8.75805 3.61485 -1.67065
-8.83124 3.61252 -1.68243
-8.89471 3.6058 -1.69235
-8.96059 3.59965 -1.70271
-9.03831 3.59783 -1.71532
-9.11134 3.59366 -1.72702
-9.18537 3.58944 -1.7389
-9.26465 3.58679 -1.75176
-9.37118 3.5941 -1.76975
-9.47992 3.60157 -1.78813
-9.74073 3.66556 -1.83514
-8.73307 3.60454 -1.74697
-8.8068 3.60252 -1.75944
-8.8753 3.59793 -1.77085
-8.93927 3.59109 -1.78134
-9.00399 3.58417 -1.79198
-9.1079 3.59231 -1.8104
-9.19274 3.59232 -1.825
-9.27897 3.59233 -1.83986
-9.3666 3.59235 -1.85498
-9.49318 3.6066 -1.87779
-9.6531 3.63259 -1.90715
-8.70816 3.59426 -1.82309
-8.7815 3.59218 -1.83606
-8.85589 3.59006 -1.84924
-8.95869 3.59889 -1.86833
-9.02441 3.59229 -1.87966
-9.10791 3.59231 -1.89468
-9.19274 3.59232 -1.90997
-9.27897 3.59233 -1.92552
-9.3666 3.59235 -1.94134
-9.45569 3.59236 -1.95745
-9.56818 3.60063 -1.97838
-8.68351 3.58409 -1.89906
-8.76095 3.58377 -1.91351
-8.83959 3.58345 -1.92821
-8.94224 3.59228 -1.94812
-9.02441 3.59229 -1.96355
-9.1079 3.59231 -1.97924
-9.19273 3.59232 -1.9952
-9.27897 3.59233 -2.01145
-9.3666 3.59235 -2.02798
-9.45568 3.59236 -2.04481
-9.60413 3.61416 -2.07444
-8.68314 3.58393 -1.98037
-8.76058 3.58362 -1.99545
-8.86134 3.59227 -2.01581
-8.94224 3.59228 -2.03163
-9.02441 3.59229 -2.04771
-9.1079 3.59231 -2.06408
-9.19274 3.59232 -2.08073
-9.27897 3.59233 -2.09767
-9.3666 3.59235 -2.11491
-9.45568 3.59236 -2.13246
-9.68441 3.64437 -2.18145
-8.68277 3.58378 -2.06197
-8.7602 3.58346 -2.07767
-8.86134 3.59227 -2.09896
-8.94224 3.59228 -2.11543
-9.02441 3.59229 -2.13218
-9.1079 3.59231 -2.14922
-9.19274 3.59232 -2.16656
-9.27897 3.59233 -2.1842
-9.3666 3.59235 -2.20215
-9.45568 3.59236 -2.22042
-8.68569 3.58499 -2.14468
-8.75995 3.58336 -2.16021
-8.86134 3.59227 -2.18241
-8.94224 3.59228 -2.19954
-9.02441 3.59229 -2.21695
-9.1079 3.59231 -2.23467
-9.19274 3.59232 -2.2527
-9.27897 3.59233 -2.27104
-9.3666 3.59235 -2.2897
-9.45568 3.59236 -2.3087
-8.68513 3.58476 -2.22686
-8.75939 3.58313 -2.24299
-8.86134 3.59227 -2.26618
-8.94224 3.59228 -2.28396
-9.02441 3.59229 -2.30205
-9.1079 3.59231 -2.32045
-9.19274 3.59232 -2.33916
-9.27897 3.59233 -2.35821
-9.3666 3.59235 -2.37759
-8.91518 3.67971 -2.37067
-8.9127 3.64584 -2.36694
-8.91024 3.61209 -2.36325
-8.94225 3.59228 -2.36873
-9.02441 3.59229 -2.38748
-9.1079 3.59231 -2.40656
-9.19274 3.59232 -2.42597
-9.27897 3.59233 -2.44573
-7.00617 5.13156 -1.30897
-7.00265 5.09537 -1.30532
-6.99914 5.05937 -1.30171
-6.89308 5.14891 -1.37004
-6.88998 5.11307 -1.36624
-6.88687 5.0774 -1.36246
-6.88376 5.04191 -1.35872
-6.88064 5.0066 -1.355
-6.87752 4.97146 -1.35131
-6.78156 5.16556 -1.43021
-6.77886 5.13004 -1.42624
-6.77609 5.09466 -1.4223
-6.77318 5.05935 -1.41835
-6.77026 5.02422 -1.41444
-6.76731 4.98925 -1.41055
-6.76434 4.95444 -1.4067
-6.76136 4.9198 -1.40286
-6.75835 4.88531 -1.39906
-6.60317 5.16164 -1.47783
-6.60099 5.12672 -1.47374
-6.59879 5.09196 -1.46968
-6.59675 5.05751 -1.46569
-6.59473 5.02325 -1.46174
-6.59268 4.98915 -1.45782
-6.59061 4.9552 -1.45392
-6.58851 4.9214 -1.45005
-6.58639 4.88777 -1.44621
-6.58572 4.85537 -1.44272
-6.5876 4.82499 -1.43982
-6.58945 4.79471 -1.43693
-6.59125 4.76452 -1.43406
-6.34256 5.15279 -1.51105
-6.34403 5.12108 -1.50757
-6.34543 5.08948 -1.50411
-6.34676 5.05797 -1.50066
-6.34828 5.02676 -1.4973
-6.35029 4.99608 -1.49407
-6.35223 4.96548 -1.49086
-6.3541 4.93497 -1.48767
-6.3559 4.90454 -1.48449
-6.35764 4.87419 -1.48132
-6.36586 4.84892 -1.47969
-6.37627 4.82538 -1.47859
-6.38662 4.80183 -1.4775
-6.3969 4.77828 -1.47641
-6.40713 4.75474 -1.47532
-6.41729 4.73119 -1.47425
-6.42739 4.70764 -1.47317
-6.43743 4.6841 -1.47211
-6.44741 4.66055 -1.47104
-6.10994 5.12465 -1.54322
-6.11085 5.0929 -1.53941
-6.11171 5.06128 -1.53563
-6.11252 5.02977 -1.53187
-6.11329 4.99837 -1.52813
-6.11401 4.96711 -1.52442
-6.11468 4.93595 -1.52072
-6.11479 4.90449 -1.51692
-6.11467 4.87301 -1.5131
-6.11687 4.84352 -1.50988
-6.12103 4.81571 -1.50718
-6.12513 4.78796 -1.50449
-6.12918 4.76028 -1.50182
-6.13318 4.73268 -1.49916
-6.13713 4.70513 -1.49652
-6.14102 4.67766 -1.49389
-6.14486 4.65025 -1.49127
-6.14865 4.62291 -1.48867
-6.15239 4.59564 -1.48608
-6.15608 4.56844 -1.48351
-6.15971 4.54129 -1.48095
-6.16374 4.51454 -1.47852
-6.17079 4.49008 -1.47683
-6.18171 4.46849 -1.47609
-5.91373 5.11992 -1.58128
-5.9153 5.08897 -1.57743
-5.91682 5.05811 -1.5736
-5.91762 5.02682 -1.56962
-5.91839 4.99564 -1.56567
-5.9191 4.96459 -1.56174
-5.91977 4.93365 -1.55783
-5.92039 4.90284 -1.55395
-5.92096 4.87214 -1.55008
-5.92267 4.84252 -1.54655
-5.92728 4.81541 -1.54381
-5.93184 4.78835 -1.54109
-5.93634 4.76136 -1.53838
-5.94079 4.73444 -1.53568
-5.94519 4.70757 -1.533
-5.95002 4.68117 -1.53046
-5.95486 4.65486 -1.52795
-5.95964 4.62861 -1.52545
-5.96437 4.60241 -1.52296
-5.96905 4.57628 -1.52049
-5.97368 4.5502 -1.51803
-5.97826 4.52417 -1.51559
-5.98315 4.49848 -1.51325
-5.99386 4.47722 -1.5124
-6.00452 4.45597 -1.51157
-6.01515 4.43471 -1.51074
-6.02573 4.41346 -1.50992
-6.03627 4.3922 -1.50911
-6.04685 4.371 -1.50832
-5.90902 5.27994 -1.67059
-5.77066 5.12391 -1.62693
-5.7687 5.08995 -1.62188
-5.76674 5.05619 -1.61687
-5.76476 5.02262 -1.6119
-5.76278 4.98923 -1.60697
-5.76078 4.95603 -1.60207
-5.75878 4.92301 -1.59722
-5.75677 4.89017 -1.59241
-5.75288 4.85594 -1.58712
-5.75399 4.8261 -1.58325
-5.75667 4.79772 -1.57985
-5.75931 4.76945 -1.57647
-5.76193 4.74128 -1.57311
-5.76452 4.71321 -1.56978
-5.76761 4.68569 -1.56662
-5.77284 4.66 -1.56407
-5.77801 4.63437 -1.56153
-5.78313 4.60879 -1.559
-5.7882 4.58326 -1.55649
-5.79321 4.5578 -1.554
-5.79817 4.53238 -1.55151
-5.80308 4.50701 -1.54904
-5.81213 4.48493 -1.5477
-5.82285 4.46418 -1.54683
-5.83352 4.44344 -1.54596
-5.84415 4.42268 -1.5451
-5.85474 4.40194 -1.54425
-5.86529 4.38119 -1.5434
-5.8758 4.36044 -1.54257
-5.88627 4.33969 -1.54174
-5.89669 4.31894 -1.54092
-5.90707 4.29819 -1.54011
-5.91742 4.27744 -1.53931
-5.75157 5.2044 -1.70272
-5.68489 5.11177 -1.67823
-5.68326 5.07821 -1.67304
-5.68161 5.04484 -1.6679
-5.6786 5.01045 -1.6624
-5.67302 4.97401 -1.6562
-5.66745 4.93783 -1.65005
-5.66189 4.90189 -1.64396
-5.65635 4.86619 -1.63792
-5.65697 4.83598 -1.6337
-5.66139 4.80916 -1.63062
-5.66577 4.78241 -1.62756
-5.67012 4.75576 -1.62453
-5.67352 4.72842 -1.62125
-5.6763 4.7007 -1.61783
-5.67905 4.67308 -1.61444
-5.68178 4.64556 -1.61107
-5.68447 4.61814 -1.60772
-5.68712 4.59081 -1.6044
-5.68975 4.56358 -1.6011
-5.69235 4.53644 -1.59783
-5.69492 4.5094 -1.59458
-5.70008 4.48453 -1.59208
-5.70669 4.46087 -1.59002
-5.71327 4.43726 -1.58798
-5.71982 4.4137 -1.58595
-5.72633 4.39018 -1.58393
-5.7328 4.36672 -1.58193
-5.73924 4.34329 -1.57995
-5.74565 4.31991 -1.57798
-5.75203 4.29658 -1.57603
-5.75837 4.27329 -1.5741
-5.76468 4.25005 -1.57217
-5.77263 4.22808 -1.57073
-5.78286 4.20781 -1.56992
-5.79305 4.18754 -1.56912
-5.59772 5.09716 -1.72796
-5.58626 5.05481 -1.71953
-5.58116 5.0185 -1.71311
-5.57608 4.98244 -1.70676
-5.571 4.94662 -1.70045
-5.56593 4.91105 -1.6942
-5.56087 4.87569 -1.68801
-5.56113 4.8452 -1.68347
-5.56575 4.81865 -1.6803
-5.57033 4.79219 -1.67714
-5.57488 4.7658 -1.67401
-5.57939 4.7395 -1.6709
-5.58386 4.71327 -1.66781
-5.58829 4.68713 -1.66474
-5.59244 4.66086 -1.66162
-5.59536 4.63367 -1.65817
-5.59824 4.60659 -1.65474
-5.60109 4.57959 -1.65133
-5.6039 4.55269 -1.64795
-5.60669 4.52588 -1.6446
-5.60952 4.49922 -1.64129
-5.61624 4.47579 -1.63914
-5.62294 4.45241 -1.63702
-5.62959 4.42907 -1.63491
-5.63621 4.40578 -1.63282
-5.6428 4.38253 -1.63075
-5.64936 4.35933 -1.62869
-5.65587 4.33617 -1.62664
-5.66236 4.31306 -1.62462
-5.66881 4.28999 -1.62261
-5.67523 4.26696 -1.62061
-5.6816 4.24397 -1.61863
-5.68718 4.22047 -1.61645
-5.69274 4.19701 -1.61428
-5.69825 4.1736 -1.61213
-5.7038 4.15028 -1.61002
-5.71462 4.13085 -1.60941
-5.59063 5.15511 -1.80233
-5.56196 5.09654 -1.78793
-5.53372 5.03888 -1.77377
-5.5059 4.9821 -1.75985
-5.4785 4.92619 -1.74615
-5.4664 4.88444 -1.73741
-5.4665 4.85383 -1.7326
-5.47132 4.82756 -1.72933
-5.4761 4.80136 -1.72608
-5.48084 4.77525 -1.72285
-5.48555 4.74921 -1.71965
-5.49021 4.72326 -1.71647
-5.49484 4.69738 -1.71331
-5.49943 4.67158 -1.71017
-5.50398 4.64585 -1.70705
-5.5085 4.6202 -1.70396
-5.51298 4.59463 -1.70088
-5.51639 4.56828 -1.69752
-5.51939 4.54171 -1.69406
-5.52236 4.51522 -1.69062
-5.5269 4.49013 -1.6877
-5.53371 4.46697 -1.68549
-5.54048 4.44385 -1.68331
-5.54721 4.42078 -1.68114
-5.55391 4.39775 -1.67899
-5.56057 4.37477 -1.67685
-5.56689 4.35159 -1.67464
-5.57275 4.32813 -1.67232
-5.57857 4.30471 -1.67001
-5.58436 4.28134 -1.66772
-5.59011 4.25803 -1.66545
-5.59583 4.23476 -1.6632
-5.60151 4.21154 -1.66096
-5.60716 4.18836 -1.65874
-5.61277 4.16524 -1.65653
-5.61877 4.14248 -1.65446
-5.62953 4.12327 -1.65382
-5.64028 4.10406 -1.6532
-5.65099 4.08486 -1.65258
-5.55445 5.15402 -1.8625
-5.52618 5.09567 -1.84766
-5.49834 5.03825 -1.83307
-5.47847 4.98857 -1.82123
-5.45887 4.93955 -1.80957
-5.43951 4.89113 -1.79806
-5.43082 4.85265 -1.79016
-5.43064 4.82199 -1.78511
-5.43046 4.79151 -1.78011
-5.43028 4.76119 -1.77516
-5.43009 4.73103 -1.77025
-5.4299 4.70104 -1.76538
-5.42971 4.67121 -1.76055
-5.42951 4.64153 -1.75576
-5.42931 4.61201 -1.75102
-5.42911 4.58265 -1.74632
-5.43065 4.5549 -1.74222
-5.4352 4.52981 -1.73912
-5.43933 4.50446 -1.73592
-5.44554 4.48093 -1.73341
-5.45175 4.45748 -1.73094
-5.45788 4.43406 -1.72847
-5.46398 4.41068 -1.72602
-5.47005 4.38736 -1.72359
-5.47607 4.36408 -1.72117
-5.48206 4.34086 -1.71877
-5.48801 4.31769 -1.71639
-5.49393 4.29456 -1.71403
-5.49981 4.27148 -1.71168
-5.50566 4.24844 -1.70935
-5.51147 4.22546 -1.70704
-5.51724 4.20252 -1.70474
-5.52298 4.17963 -1.70247
-5.52869 4.15679 -1.7002
-5.53517 4.13459 -1.69821
-5.54589 4.11561 -1.69753
-5.55659 4.09663 -1.69687
-5.56726 4.07765 -1.69623
-5.57791 4.05868 -1.69559
-5.58853 4.0397 -1.69496
-5.53836 5.17146 -1.92945
-5.51352 5.11604 -1.91521
-5.49342 5.06546 -1.9027
-5.47357 5.01555 -1.89038
-5.45397 4.96627 -1.87823
-5.43462 4.9176 -1.86626
-5.41611 4.87009 -1.85465
-5.41598 4.83939 -1.84941
-5.41584 4.80886 -1.84421
-5.41571 4.77849 -1.83906
-5.41556 4.74828 -1.83396
-5.41542 4.71825 -1.82889
-5.41527 4.68837 -1.82388
-5.41512 4.65866 -1.8189
-5.41489 4.62903 -1.81395
-5.41465 4.59955 -1.80903
-5.4144 4.57023 -1.80416
-5.41415 4.54106 -1.79933
-5.4139 4.51205 -1.79454
-5.41511 4.4844 -1.79028
-5.41741 4.45778 -1.78642
-5.41969 4.43127 -1.78259
-5.42188 4.40481 -1.77876
-5.424 4.37841 -1.77495
-5.42611 4.35212 -1.77117
-5.42821 4.32594 -1.76743
-5.43029 4.29986 -1.76371
-5.43236 4.2739 -1.76003
-5.43442 4.24804 -1.75638
-5.43646 4.22228 -1.75276
-5.4385 4.19662 -1.74917
-5.44052 4.17107 -1.74561
-5.44596 4.14823 -1.74318
-5.45296 4.12664 -1.74127
-5.46364 4.10788 -1.74057
-5.47429 4.08912 -1.73987
-5.48492 4.07037 -1.73919
-5.49627 4.05217 -1.73876
-5.50789 4.03417 -1.73843
-5.5195 4.01618 -1.73812
-5.5311 3.99819 -1.73782
-5.53341 5.16684 -1.99487
-5.50798 5.1109 -1.97992
-5.48293 5.0558 -1.96522
-5.45825 5.00151 -1.95075
-5.43393 4.94801 -1.93651
-5.41048 4.89576 -1.92268
-5.40125 4.85673 -1.91399
-5.4011 4.82609 -1.90857
-5.40092 4.79561 -1.90319
-5.40074 4.76529 -1.89786
-5.40055 4.73513 -1.89257
-5.40037 4.70513 -1.88734
-5.40017 4.6753 -1.88214
-5.39998 4.64563 -1.87699
-5.39978 4.61612 -1.87189
-5.39958 4.58675 -1.86683
-5.39937 4.55755 -1.86182
-5.39916 4.52849 -1.85685
-5.39895 4.4996 -1.85192
-5.40129 4.47296 -1.84791
-5.40362 4.44644 -1.84393
-5.40593 4.42002 -1.83999
-5.40823 4.39371 -1.83608
-5.41051 4.36752 -1.8322
-5.41278 4.34143 -1.82836
-5.41497 4.31539 -1.82453
-5.41707 4.2894 -1.8207
-5.41917 4.26352 -1.81691
-5.42125 4.23774 -1.81315
-5.42331 4.21206 -1.80942
-5.42537 4.18649 -1.80572
-5.42741 4.16102 -1.80206
-5.42944 4.13565 -1.79842
-5.43702 4.11458 -1.79666
-5.44636 4.09489 -1.7955
-5.45569 4.07522 -1.79436
-5.46499 4.05558 -1.79323
-5.47477 4.03631 -1.79228
-5.48635 4.01839 -1.79195
-5.49792 4.00047 -1.79162
-5.50947 3.98256 -1.79132
-5.52845 5.1622 -2.06046
-5.50308 5.10635 -2.04503
-5.47808 5.05133 -2.02986
-5.45346 4.99712 -2.01493
-5.42921 4.94372 -2.00024
-5.40607 4.89177 -1.98606
-5.39654 4.8525 -1.97697
-5.39477 4.82044 -1.97078
-5.39302 4.78859 -1.96465
-5.39127 4.75693 -1.95858
-5.38953 4.72546 -1.95256
-5.3878 4.69419 -1.9466
-5.38609 4.6631 -1.94069
-5.38484 4.63261 -1.93501
-5.38469 4.60321 -1.92976
-5.38452 4.57397 -1.92456
-5.38436 4.54488 -1.91941
-5.38419 4.51594 -1.9143
-5.38513 4.48807 -1.90963
-5.38749 4.46153 -1.9055
-5.38984 4.4351 -1.90141
-5.39217 4.40877 -1.89735
-5.39449 4.38256 -1.89333
-5.3968 4.35645 -1.88934
-5.39909 4.33045 -1.88539
-5.40137 4.30455 -1.88147
-5.40364 4.27876 -1.87758
-5.40589 4.25307 -1.87373
-5.40808 4.22745 -1.86989
-5.41017 4.20186 -1.86606
-5.41225 4.17636 -1.86225
-5.41431 4.15097 -1.85848
-5.41708 4.12623 -1.85499
-5.42642 4.10656 -1.85377
-5.43575 4.08691 -1.85258
-5.44507 4.06729 -1.85141
-5.45436 4.04769 -1.85025
-5.46365 4.02811 -1.84911
-5.47292 4.00856 -1.84799
-5.48217 3.98902 -1.84689
-5.49142 3.9695 -1.84581
-5.52347 5.15756 -2.12623
-5.49817 5.10179 -2.11033
-5.47323 5.04685 -2.09468
-5.44921 4.99323 -2.07949
-5.42578 4.9406 -2.06464
-5.40269 4.88871 -2.05001
-5.3945 4.85066 -2.04113
-5.39274 4.81862 -2.03475
-5.39099 4.78679 -2.02842
-5.38925 4.75515 -2.02216
-5.38752 4.72369 -2.01595
-5.3858 4.69244 -2.00979
-5.38409 4.66137 -2.0037
-5.38239 4.6305 -1.99766
-5.38069 4.5998 -1.99168
-5.37901 4.56928 -1.98575
-5.37724 4.53886 -1.97984
-5.37513 4.50834 -1.97385
-5.3762 4.48064 -1.96908
-5.3782 4.45384 -1.9647
-5.37998 4.42699 -1.96028
-5.38175 4.40025 -1.95589
-5.38351 4.37364 -1.95154
-5.38527 4.34714 -1.94724
-5.38701 4.32076 -1.94296
-5.38875 4.29449 -1.93873
-5.39048 4.26834 -1.93454
-5.39228 4.24236 -1.93041
-5.39454 4.21686 -1.92648
-5.39678 4.19146 -1.92259
-5.39902 4.16616 -1.91872
-5.40122 4.14093 -1.91489
-5.40649 4.11816 -1.91218
-5.41582 4.09853 -1.91093
-5.42514 4.07893 -1.9097
-5.43444 4.05935 -1.90849
-5.44373 4.0398 -1.9073
-5.453 4.02026 -1.90613
-5.46226 4.00075 -1.90498
-5.4715 3.98125 -1.90384
-5.48073 3.96178 -1.90273
-5.51848 5.1529 -2.19219
-5.49353 5.09749 -2.17592
-5.46945 5.04337 -2.16012
-5.44573 4.99004 -2.14457
-5.42235 4.93747 -2.12926
-5.39929 4.88563 -2.11419
-5.39245 4.84882 -2.10555
-5.3907 4.8168 -2.09897
-5.38895 4.78498 -2.09245
-5.38722 4.75336 -2.08598
-5.3855 4.72192 -2.07958
-5.38378 4.69068 -2.07324
-5.38208 4.65963 -2.06695
-5.38009 4.62852 -2.06061
-5.37796 4.59746 -2.05427
-5.37585 4.5666 -2.04799
-5.37374 4.53592 -2.04177
-5.37165 4.50542 -2.03561
-5.37316 4.4781 -2.03085
-5.37549 4.4516 -2.02646
-5.37782 4.42521 -2.0221
-5.37998 4.3988 -2.01772
-5.38175 4.37221 -2.01324
-5.3835 4.34572 -2.0088
-5.38525 4.31935 -2.00439
-5.38699 4.29309 -2.00003
-5.38872 4.26695 -1.9957
-5.39045 4.24093 -1.99141
-5.39216 4.21501 -1.98716
-5.39387 4.1892 -1.98295
-5.39557 4.1635 -1.97877
-5.39727 4.1379 -1.97463
-5.40299 4.1155 -1.972
-5.41204 4.09567 -1.97061
-5.42115 4.07594 -1.96927
-5.43036 4.05631 -1.96799
-5.43956 4.03671 -1.96674
-5.44874 4.01712 -1.9655
-5.45792 3.99757 -1.96428
-5.46708 3.97803 -1.96309
-5.47623 3.95852 -1.96191
-5.48995 5.09417 -2.24216
-5.46592 5.04011 -2.22589
-5.44224 4.98684 -2.20988
-5.4189 4.93432 -2.19411
-5.39588 4.88255 -2.17859
-5.39039 4.84697 -2.17024
-5.38865 4.81496 -2.16345
-5.38691 4.78316 -2.15673
-5.38512 4.7515 -2.15005
-5.38296 4.7197 -2.14327
-5.38081 4.68809 -2.13656
-5.37867 4.65668 -2.12991
-5.37655 4.62547 -2.12333
-5.37443 4.59445 -2.1168
-5.37233 4.56361 -2.11033
-5.37024 4.53296 -2.10393
-5.36816 4.50249 -2.09758
-5.3701 4.47555 -2.09285
-5.37244 4.44907 -2.08832
-5.37477 4.4227 -2.08383
-5.37709 4.39644 -2.07939
-5.3794 4.3703 -2.07498
-5.3817 4.34427 -2.07061
-5.38348 4.31793 -2.06608
-5.38523 4.29169 -2.06158
-5.38696 4.26555 -2.05712
-5.38869 4.23954 -2.0527
-5.39041 4.21363 -2.04832
-5.39212 4.18784 -2.04398
-5.39382 4.16215 -2.03967
-5.39552 4.13657 -2.03541
-5.40158 4.11442 -2.03282
-5.41063 4.09461 -2.03139
-5.41966 4.07482 -2.02999
-5.42869 4.05505 -2.0286
-5.43769 4.03532 -2.02723
-5.44682 4.01571 -2.02594
-5.45599 3.99616 -2.02469
-5.46515 3.97663 -2.02345
-5.4743 3.95713 -2.02224
-5.39245 4.87945 -2.24323
-5.38804 4.84485 -2.23507
-5.38585 4.81247 -2.2279
-5.38368 4.78029 -2.2208
-5.38151 4.74832 -2.21377
-5.37936 4.71655 -2.20679
-5.37723 4.68497 -2.19989
-5.3751 4.65359 -2.19305
-5.37299 4.62241 -2.18627
-5.37089 4.59142 -2.17955
-5.3688 4.56061 -2.1729
-5.36672 4.52999 -2.16631
-5.36467 4.49956 -2.15978
-5.36703 4.47299 -2.15508
-5.36937 4.44653 -2.15042
-5.37171 4.42018 -2.1458
-5.37404 4.39394 -2.14123
-5.37635 4.36783 -2.13669
-5.37866 4.34181 -2.13219
-5.38095 4.3159 -2.12773
-5.38324 4.2901 -2.12331
-5.38519 4.26415 -2.11881
-5.38692 4.23815 -2.11426
-5.38864 4.21226 -2.10975
-5.39036 4.18647 -2.10528
-5.39207 4.16079 -2.10084
-5.39377 4.13522 -2.09645
-5.40016 4.11335 -2.09392
-5.40921 4.09353 -2.09245
-5.41824 4.07375 -2.091
-5.42726 4.05399 -2.08957
-5.43627 4.03427 -2.08816
-5.44527 4.01456 -2.08678
-5.45425 3.99488 -2.08542
-5.46322 3.97523 -2.08408
-5.47236 3.95573 -2.08283
-5.36734 4.58838 -2.24255
-5.36526 4.5576 -2.23571
-5.36319 4.52701 -2.22893
-5.36158 4.49697 -2.22239
-5.36394 4.47042 -2.21756
-5.3663 4.44398 -2.21277
-5.36864 4.41766 -2.20802
-5.37097 4.39144 -2.20331
-5.37329 4.36534 -2.19865
-5.3756 4.33934 -2.19402
-5.3779 4.31345 -2.18944
-5.38019 4.28767 -2.18489
-5.38247 4.262 -2.18039
-5.38474 4.23643 -2.17592
-5.38687 4.21087 -2.17145
-5.38859 4.1851 -2.16685
-5.3903 4.15943 -2.16229
-5.392 4.13387 -2.15777
-5.39874 4.11226 -2.1553
-5.40779 4.09246 -2.15378
-5.41682 4.07268 -2.15229
-5.42584 4.05293 -2.15082
-5.43484 4.03321 -2.14937
-5.44383 4.01351 -2.14795
-5.45282 3.99383 -2.14655
-5.46179 3.97418 -2.14517
-5.47074 3.95456 -2.14382
-5.37941 4.25958 -2.2421
-5.38169 4.23403 -2.23751
-5.38395 4.20859 -2.23296
-5.3862 4.18324 -2.22845
-5.38844 4.158 -2.22398
-5.39023 4.13251 -2.21937
-5.39731 4.11117 -2.21697
-5.40635 4.09137 -2.21541
-5.41539 4.0716 -2.21388
-5.4244 4.05185 -2.21236
-5.43341 4.03214 -2.21088
-5.4424 4.01245 -2.20941
-5.45138 3.99278 -2.20797
-5.46035 3.97314 -2.20655
-5.4693 3.95352 -2.20516
-8.05027 4.97739 -1.02661
-8.02801 4.92878 -1.02179
-8.00587 4.88056 -1.01701
-7.98385 4.83275 -1.01228
-7.96196 4.78533 -1.00759
-7.94438 4.74079 -1.00347
-7.94235 4.70576 -1.00134
-7.94028 4.67083 -0.999216
-7.93916 4.63661 -0.997235
-7.93819 4.60261 -0.995289
-7.93718 4.5687 -0.993354
-7.9361 4.5349 -0.991429
-7.93497 4.50119 -0.989514
-7.95033 4.4769 -0.989668
-7.96626 4.4529 -0.9899
-7.98214 4.42887 -0.990138
-7.99799 4.40481 -0.99038
-8.01381 4.38071 -0.990627
-8.02959 4.35658 -0.990878
-8.04534 4.33241 -0.991134
-8.06105 4.30821 -0.991395
-8.07673 4.28397 -0.99166
-8.10341 4.26549 -0.993282
-8.14295 4.25364 -0.996484
-8.18353 4.24211 -0.999812
-8.22432 4.23047 -1.00316
-8.26531 4.21872 -1.00654
-8.30651 4.20685 -1.00994
-8.34791 4.19487 -1.01336
-8.38953 4.18276 -1.01681
-8.43136 4.17054 -1.02029
-8.4734 4.15821 -1.02378
-8.5136 4.14475 -1.02706
-8.55319 4.13077 -1.03026
-8.59294 4.11667 -1.03349
-8.63287 4.10245 -1.03673
-8.67297 4.0881 -1.04
-7.6137 5.01091 -1.06536
-7.60565 4.97139 -1.06203
-7.59821 4.93247 -1.05882
-7.59079 4.89377 -1.05564
-7.58339 4.85529 -1.05248
-7.576 4.81702 -1.04935
-7.56918 4.7793 -1.04631
-7.5688 4.74581 -1.04419
-7.56818 4.71231 -1.04205
-7.56754 4.67893 -1.03993
-7.56688 4.64568 -1.03783
-7.5662 4.61253 -1.03574
-7.5655 4.57951 -1.03366
-7.56477 4.54661 -1.03161
-7.56402 4.51381 -1.02956
-7.56848 4.48424 -1.02824
-7.57676 4.45699 -1.02746
-7.58499 4.42977 -1.02668
-7.59319 4.40258 -1.02591
-7.60137 4.37541 -1.02515
-7.60951 4.34827 -1.02439
-7.62245 4.3239 -1.0243
-7.63808 4.30106 -1.02458
-7.65368 4.27818 -1.02486
-7.66924 4.25526 -1.02514
-7.68478 4.23231 -1.02543
-7.70519 4.212 -1.02638
-7.72657 4.19217 -1.02747
-7.74796 4.17227 -1.02856
-7.76935 4.15231 -1.02966
-7.79076 4.13228 -1.03077
-7.81255 4.11239 -1.03194
-7.83437 4.09245 -1.03312
-7.85622 4.07244 -1.0343
-7.87808 4.05237 -1.03549
-7.89996 4.03224 -1.0367
-7.92185 4.01203 -1.03791
-7.94375 3.99177 -1.03913
-7.96656 3.97188 -1.04047
-8.00124 3.95779 -1.04337
-8.0361 3.94361 -1.04629
-8.07158 3.92956 -1.04929
-8.12062 3.92186 -1.05406
-8.17006 3.91408 -1.05887
-8.21992 3.90621 -1.06374
-8.2702 3.89825 -1.06865
-8.32091 3.8902 -1.07362
-8.37206 3.88206 -1.07864
-8.42755 3.87561 -1.08421
-8.49223 3.87303 -1.09096
-8.55773 3.87042 -1.0978
-8.62404 3.86777 -1.10474
-8.69118 3.86508 -1.11178
-8.76481 3.86484 -1.11963
-8.85049 3.86939 -1.12902
-8.93758 3.87402 -1.13857
-9.03485 3.88246 -1.1494
-7.47377 5.12363 -1.13554
-7.45053 5.0733 -1.12958
-7.44002 5.03195 -1.12558
-7.42955 4.99087 -1.12161
-7.42019 4.95076 -1.11784
-7.41353 4.91268 -1.1145
-7.40688 4.8748 -1.11119
-7.40024 4.83712 -1.10791
-7.39361 4.79965 -1.10465
-7.39332 4.76646 -1.10236
-7.39344 4.73367 -1.10015
-7.39353 4.701 -1.09796
-7.39359 4.66843 -1.09578
-7.39341 4.63583 -1.09358
-7.39315 4.60333 -1.0914
-7.39288 4.57093 -1.08923
-7.39258 4.53866 -1.08707
-7.39225 4.50649 -1.08494
-7.39883 4.47862 -1.08383
-7.40715 4.45187 -1.08299
-7.41544 4.42515 -1.08216
-7.42369 4.39846 -1.08134
-7.43192 4.37179 -1.08053
-7.4401 4.34515 -1.07972
-7.44826 4.31854 -1.07893
-7.4563 4.2919 -1.07813
-7.46423 4.26526 -1.07733
-7.47213 4.23864 -1.07654
-7.48 4.21205 -1.07576
-7.49144 4.1875 -1.07551
-7.50313 4.16309 -1.0753
-7.51479 4.13869 -1.0751
-7.52642 4.11428 -1.07491
-7.53803 4.08987 -1.07472
-7.54962 4.06546 -1.07454
-7.56119 4.04106 -1.07437
-7.57273 4.01664 -1.07421
-7.58425 3.99221 -1.07406
-7.59574 3.96779 -1.07391
-7.60974 3.94468 -1.07413
-7.63658 3.92815 -1.07617
-7.66645 3.91305 -1.07864
-7.69643 3.89787 -1.08113
-7.7265 3.8826 -1.08363
-7.75949 3.86864 -1.08654
-7.81446 3.8654 -1.09253
-7.87004 3.86211 -1.0986
-7.92621 3.85878 -1.10474
-7.98303 3.85541 -1.11096
-8.04048 3.852 -1.11726
-8.09928 3.84888 -1.12375
-8.15907 3.84587 -1.13036
-8.22038 3.8432 -1.13717
-8.28242 3.8405 -1.14408
-8.34522 3.83775 -1.15108
-8.40877 3.83497 -1.15817
-8.4731 3.83215 -1.16537
-8.53822 3.82928 -1.17266
-8.60415 3.82637 -1.18005
-8.6709 3.82342 -1.18755
-8.7385 3.82043 -1.19516
-8.82122 3.82358 -1.20482
-8.90765 3.8278 -1.21497
-8.99554 3.83207 -1.22531
-9.07998 3.83433 -1.23516
-9.1468 3.82868 -1.24261
-9.24797 3.83687 -1.25471
-9.34987 3.84471 -1.26688
-7.28407 5.09531 -1.18909
-7.27441 5.05454 -1.18492
-7.26479 5.01403 -1.18077
-7.2552 4.97379 -1.17667
-7.24565 4.93379 -1.17259
-7.23614 4.89406 -1.16855
-7.22887 4.85606 -1.16491
-7.22295 4.81916 -1.1615
-7.22232 4.78597 -1.15897
-7.22287 4.75369 -1.15666
-7.2234 4.72153 -1.15436
-7.2239 4.68948 -1.15207
-7.22437 4.65754 -1.1498
-7.22481 4.62571 -1.14755
-7.22523 4.59399 -1.14532
-7.22551 4.5623 -1.14308
-7.22561 4.53062 -1.14084
-7.22592 4.4992 -1.13864
-7.23433 4.47291 -1.13774
-7.2427 4.44664 -1.13686
-7.25104 4.4204 -1.13597
-7.25926 4.39414 -1.13509
-7.26738 4.36787 -1.13421
-7.27548 4.34162 -1.13333
-7.28353 4.31541 -1.13246
-7.29155 4.28922 -1.13161
-7.29953 4.26306 -1.13076
-7.30749 4.23692 -1.12992
-7.31541 4.21081 -1.12909
-7.32492 4.18565 -1.12852
-7.3365 4.1617 -1.12828
-7.34805 4.13774 -1.12805
-7.35958 4.11379 -1.12783
-7.37109 4.08983 -1.12761
-7.38256 4.06587 -1.1274
-7.39459 4.04221 -1.12729
-7.40727 4.01893 -1.12729
-7.41994 3.99563 -1.1273
-7.43258 3.97232 -1.12732
-7.4452 3.949 -1.12734
-7.45794 3.92573 -1.1274
-7.47416 3.90428 -1.12798
-7.49038 3.8828 -1.12858
-7.5093 3.86268 -1.12959
-7.54475 3.85093 -1.1331
-7.58876 3.84334 -1.13789
-7.6395 3.83888 -1.14368
-7.69272 3.83536 -1.14984
-7.74686 3.83196 -1.15612
-7.80158 3.82851 -1.16248
-7.85688 3.82503 -1.16892
-7.91281 3.8215 -1.17545
-7.96936 3.81793 -1.18206
-8.02652 3.81431 -1.18875
-8.08502 3.81097 -1.19563
-8.14424 3.80761 -1.20261
-8.20415 3.8042 -1.20968
-8.26476 3.80075 -1.21685
-8.32676 3.79757 -1.22421
-8.38996 3.79454 -1.23174
-8.45392 3.79147 -1.23938
-8.51866 3.78836 -1.24711
-8.58421 3.7852 -1.25496
-8.65058 3.782 -1.26292
-8.71777 3.77874 -1.27098
-8.79198 3.77809 -1.28006
-8.87775 3.78189 -1.29081
-8.96494 3.78575 -1.30175
-9.03934 3.78369 -1.31082
-9.1038 3.77706 -1.31844
-9.17295 3.77195 -1.32672
-9.27098 3.7782 -1.33918
-9.36138 3.78074 -1.35051
-9.47948 3.79379 -1.36582
-9.74417 3.86419 -1.4022
-7.12119 5.11607 -1.24719
-7.11323 5.07648 -1.24299
-7.10697 5.03834 -1.23912
-7.10072 5.00041 -1.23528
-7.09449 4.9627 -1.23148
-7.08828 4.92521 -1.2277
-7.08209 4.88793 -1.22396
-7.07591 4.85087 -1.22025
-7.07153 4.81523 -1.21687
-7.07101 4.78238 -1.21419
-7.07086 4.74991 -1.21159
-7.07068 4.71757 -1.20901
-7.07049 4.68536 -1.20645
-7.07028 4.65327 -1.20391
-7.07006 4.62131 -1.20139
-7.06982 4.58946 -1.19889
-7.06956 4.55773 -1.19641
-7.06929 4.52613 -1.19394
-7.07012 4.49537 -1.19169
-7.07657 4.46826 -1.1904
-7.08299 4.4412 -1.18913
-7.091 4.41519 -1.18813
-7.09921 4.38936 -1.18719
-7.10739 4.36357 -1.18625
-7.11553 4.33779 -1.18533
-7.12364 4.31205 -1.18441
-7.13171 4.28633 -1.18351
-7.13976 4.26063 -1.18261
-7.14776 4.23497 -1.18172
-7.15573 4.20933 -1.18084
-7.16367 4.18371 -1.17998
-7.17497 4.16009 -1.17968
-7.1867 4.13673 -1.17946
-7.19932 4.11388 -1.1794
-7.21192 4.09103 -1.17935
-7.2245 4.06817 -1.1793
-7.23705 4.0453 -1.17927
-7.24959 4.02242 -1.17924
-7.26211 3.99953 -1.17923
-7.2746 3.97663 -1.17922
-7.28708 3.95371 -1.17922
-7.29954 3.93079 -1.17923
-7.31197 3.90786 -1.17924
-7.32672 3.88615 -1.17964
-7.34263 3.86503 -1.18024
-7.37344 3.85167 -1.18324
-7.40503 3.83856 -1.18636
-7.44495 3.82958 -1.19083
-7.48804 3.82199 -1.19579
-7.53148 3.81433 -1.2008
-7.57709 3.80752 -1.20616
-7.62874 3.80346 -1.21247
-7.68092 3.79934 -1.21886
-7.73415 3.79543 -1.2254
-7.7886 3.79179 -1.23213
-7.84366 3.78811 -1.23895
-7.89933 3.78438 -1.24585
-7.95559 3.7806 -1.25285
-8.01248 3.77678 -1.25993
-8.07068 3.77322 -1.26721
-8.12961 3.76964 -1.27459
-8.18923 3.76602 -1.28207
-8.24953 3.76234 -1.28965
-8.31054 3.75862 -1.29734
-8.37226 3.75485 -1.30512
-8.43472 3.75103 -1.31301
-8.49905 3.74765 -1.32118
-8.56422 3.74424 -1.32947
-8.63019 3.74078 -1.33788
-8.697 3.73727 -1.34641
-8.76466 3.73371 -1.35506
-8.84783 3.7363 -1.36609
-8.93434 3.73974 -1.37762
-8.99892 3.73354 -1.38576
-9.06171 3.72621 -1.39362
-9.1295 3.72054 -1.40224
-9.19878 3.71507 -1.41108
-9.29266 3.71902 -1.42368
-9.37241 3.71676 -1.43409
-9.45331 3.71446 -1.44468
-9.62739 3.74793 -1.46947
-9.77618 3.77047 -1.49036
-7.00644 5.1346 -1.30927
-7.00291 5.09822 -1.30561
-6.99938 5.06202 -1.30197
-6.99474 5.02522 -1.29816
-6.98895 4.98779 -1.29417
-6.98317 4.95058 -1.29021
-6.97741 4.91357 -1.28628
-6.97166 4.87678 -1.28238
-6.96593 4.8402 -1.27852
-6.9651 4.80719 -1.27559
-6.96465 4.7746 -1.27275
-6.96418 4.74213 -1.26993
-6.96369 4.70979 -1.26713
-6.96357 4.67784 -1.26442
-6.96362 4.64614 -1.26177
-6.96366 4.61457 -1.25914
-6.96367 4.5831 -1.25653
-6.96367 4.55177 -1.25394
-6.96365 4.52054 -1.25137
-6.96583 4.49086 -1.24921
-6.97235 4.46407 -1.24786
-6.97885 4.43733 -1.24651
-6.98531 4.41064 -1.24518
-6.99175 4.38398 -1.24387
-6.99815 4.35738 -1.24256
-7.00453 4.33082 -1.24127
-7.01088 4.30432 -1.23998
-7.0172 4.27785 -1.23871
-7.02349 4.25142 -1.23746
-7.03001 4.2252 -1.23626
-7.03657 4.19906 -1.23508
-7.0431 4.17296 -1.23392
-7.05242 4.14855 -1.23326
-7.06199 4.12433 -1.23265
-7.07153 4.10011 -1.23206
-7.08106 4.07591 -1.23148
-7.09055 4.05173 -1.23091
-7.10003 4.02756 -1.23035
-7.10948 4.0034 -1.2298
-7.12123 3.98056 -1.22966
-7.13357 3.95804 -1.22963
-7.14589 3.93552 -1.22961
-7.15818 3.91299 -1.2296
-7.17046 3.89044 -1.2296
-7.18372 3.86843 -1.22978
-7.2107 3.85374 -1.23232
-7.24136 3.84087 -1.23549
-7.27216 3.82794 -1.23868
-7.30546 3.81616 -1.2423
-7.34732 3.80864 -1.24738
-7.38952 3.80106 -1.2525
-7.43205 3.79341 -1.25768
-7.47494 3.78569 -1.26292
-7.51815 3.77791 -1.2682
-7.56646 3.77241 -1.27434
-7.61789 3.76816 -1.281
-7.66984 3.76387 -1.28774
-7.72233 3.75953 -1.29456
-7.77555 3.75521 -1.3015
-7.83036 3.75134 -1.30869
-7.88574 3.74741 -1.31597
-7.94174 3.74343 -1.32334
-7.99836 3.7394 -1.33081
-8.05625 3.73562 -1.33848
-8.1149 3.73183 -1.34626
-8.17421 3.728 -1.35415
-8.23422 3.7241 -1.36214
-8.29492 3.72016 -1.37024
-8.35633 3.71617 -1.37845
-8.41847 3.71212 -1.38676
-8.48136 3.70801 -1.39519
-8.545 3.70385 -1.40374
-8.60976 3.69978 -1.41246
-8.67617 3.69602 -1.42144
-8.74341 3.6922 -1.43054
-8.81791 3.69101 -1.44082
-8.89722 3.69135 -1.45188
-8.95872 3.68386 -1.46001
-9.0209 3.67629 -1.46826
-9.08628 3.66964 -1.47701
-9.15485 3.66387 -1.48628
-9.22427 3.65802 -1.49567
-9.3033 3.65552 -1.50661
-9.38297 3.65278 -1.51764
-9.46379 3.64999 -1.52885
-9.55099 3.64914 -1.54107
-9.83408 3.72188 -1.58485
-6.89337 5.15245 -1.37042
-6.89025 5.11641 -1.36659
-6.88713 5.08055 -1.36279
-6.88401 5.04487 -1.35903
-6.88087 5.00937 -1.35529
-6.87774 4.97404 -1.35158
-6.87396 4.93845 -1.34778
-6.86864 4.90192 -1.3437
-6.86332 4.86561 -1.33966
-6.86078 4.83144 -1.33619
-6.86062 4.7991 -1.33321
-6.86043 4.76689 -1.33026
-6.86023 4.73481 -1.32732
-6.86002 4.70287 -1.32441
-6.85978 4.67104 -1.32152
-6.85952 4.63934 -1.31865
-6.85925 4.60777 -1.31581
-6.8595 4.57667 -1.31308
-6.85974 4.54571 -1.31039
-6.85997 4.51485 -1.30771
-6.86347 4.48627 -1.30568
-6.87007 4.45979 -1.30426
-6.87664 4.43336 -1.30285
-6.88317 4.40697 -1.30145
-6.88968 4.38063 -1.30007
-6.89625 4.3544 -1.29872
-6.90301 4.32834 -1.29742
-6.90974 4.30233 -1.29614
-6.91644 4.27636 -1.29486
-6.92311 4.25043 -1.2936
-6.92975 4.22454 -1.29235
-6.93637 4.19869 -1.29111
-6.94295 4.17288 -1.28989
-6.95103 4.14801 -1.28896
-6.96058 4.12406 -1.28832
-6.9701 4.10013 -1.28768
-6.97959 4.07621 -1.28706
-6.98907 4.0523 -1.28645
-6.99852 4.0284 -1.28585
-7.00794 4.00452 -1.28526
-7.01734 3.98065 -1.28468
-7.02672 3.9568 -1.28411
-7.03607 3.93296 -1.28355
-7.04488 3.90883 -1.28291
-7.05332 3.88454 -1.28221
-7.06174 3.86026 -1.28153
-7.08495 3.84405 -1.28354
-7.11366 3.8307 -1.28655
-7.14292 3.81751 -1.28966
-7.17311 3.80468 -1.29295
-7.21077 3.79562 -1.29757
-7.25177 3.78811 -1.3028
-7.2931 3.78054 -1.30808
-7.33476 3.7729 -1.31342
-7.37676 3.76519 -1.31881
-7.41909 3.75741 -1.32426
-7.46175 3.74957 -1.32976
-7.50504 3.74178 -1.33537
-7.55573 3.73742 -1.34229
-7.60693 3.733 -1.34929
-7.65866 3.72853 -1.35638
-7.71093 3.724 -1.36356
-7.76375 3.71943 -1.37082
-7.81711 3.71479 -1.37817
-7.87207 3.71059 -1.3858
-7.9278 3.70641 -1.39355
-7.98414 3.70218 -1.4014
-8.04172 3.69818 -1.40945
-8.10008 3.69418 -1.41764
-8.1591 3.69013 -1.42593
-8.2188 3.68602 -1.43433
-8.27919 3.68186 -1.44284
-8.3403 3.67765 -1.45146
-8.40213 3.67337 -1.4602
-8.46468 3.66904 -1.46906
-8.528 3.66465 -1.47804
-8.59207 3.66019 -1.48714
-8.65693 3.65568 -1.49637
-8.72258 3.6511 -1.50572
-8.78977 3.64677 -1.51533
-8.8578 3.64236 -1.52508
-8.92184 3.63591 -1.53413
-8.99969 3.63466 -1.54554
-9.07552 3.63212 -1.55659
-9.15189 3.62931 -1.56772
-9.22936 3.62646 -1.57903
-9.3142 3.62601 -1.59159
-9.40405 3.62695 -1.60498
-9.50456 3.6314 -1.62018
-9.747 3.68892 -1.65952
-6.78185 5.16959 -1.43065
-6.77913 5.13388 -1.42667
-6.77636 5.09831 -1.4227
-6.77344 5.06281 -1.41874
-6.77051 5.02749 -1.4148
-6.76755 4.99233 -1.41089
-6.76456 4.95734 -1.40701
-6.76156 4.92251 -1.40316
-6.75855 4.88784 -1.39933
-6.75639 4.85398 -1.39572
-6.75784 4.82285 -1.39288
-6.75799 4.79094 -1.38979
-6.75807 4.75911 -1.38672
-6.75814 4.72741 -1.38368
-6.75818 4.69585 -1.38065
-6.75821 4.6644 -1.37765
-6.75821 4.63308 -1.37468
-6.7582 4.60187 -1.37172
-6.75817 4.57079 -1.36879
-6.75811 4.53983 -1.36588
-6.75817 4.50907 -1.36302
-6.76298 4.48158 -1.36113
-6.76991 4.45558 -1.3597
-6.77685 4.42965 -1.35829
-6.78376 4.40376 -1.35689
-6.79064 4.37791 -1.3555
-6.79749 4.35211 -1.35413
-6.80431 4.32636 -1.35277
-6.8111 4.30063 -1.35142
-6.81786 4.27495 -1.35009
-6.82459 4.24932 -1.34877
-6.83129 4.22371 -1.34746
-6.83796 4.19815 -1.34616
-6.8446 4.17263 -1.34488
-6.85152 4.14732 -1.34366
-6.86104 4.12365 -1.34298
-6.87054 4.09998 -1.34231
-6.88002 4.07633 -1.34165
-6.88947 4.0527 -1.34099
-6.89871 4.02897 -1.34032
-6.90728 4.00488 -1.33953
-6.91582 3.9808 -1.33875
-6.92434 3.95675 -1.33798
-6.93283 3.93271 -1.33722
-6.94129 3.90869 -1.33648
-6.94973 3.88469 -1.33574
-6.95814 3.8607 -1.33502
-6.96657 3.83676 -1.33431
-6.99464 3.82359 -1.33738
-7.02283 3.81034 -1.34047
-7.05108 3.797 -1.34357
-7.07746 3.78253 -1.34632
-7.11058 3.77151 -1.35036
-7.1552 3.76637 -1.35658
-7.19872 3.7604 -1.36258
-7.23954 3.75277 -1.36806
-7.28067 3.74508 -1.3736
-7.32214 3.73731 -1.3792
-7.36393 3.72948 -1.38485
-7.40605 3.72157 -1.39056
-7.44851 3.7136 -1.39634
-7.49442 3.70709 -1.40275
-7.54488 3.70255 -1.41001
-7.59586 3.69796 -1.41735
-7.64737 3.69331 -1.42479
-7.69942 3.68861 -1.43231
-7.75199 3.68385 -1.43993
-7.80512 3.67903 -1.44764
-7.85881 3.67416 -1.45545
-7.91374 3.66954 -1.46348
-7.96982 3.66511 -1.47171
-8.02708 3.66089 -1.48015
-8.08515 3.65668 -1.48872
-8.14387 3.65242 -1.49741
-8.20327 3.6481 -1.50622
-8.26336 3.64372 -1.51514
-8.32415 3.63928 -1.52418
-8.38566 3.63479 -1.53334
-8.4479 3.63023 -1.54262
-8.51088 3.62561 -1.55203
-8.58685 3.62609 -1.5638
-8.66448 3.62678 -1.57585
-8.74036 3.62627 -1.58756
-8.8137 3.62423 -1.59881
-8.88013 3.61892 -1.60878
-8.9573 3.61754 -1.62069
-9.03552 3.61611 -1.63278
-9.10842 3.61208 -1.64389
-9.18354 3.60846 -1.65539
-9.26263 3.60593 -1.66759
-9.35154 3.6067 -1.68155
-9.45953 3.61419 -1.69891
-9.65761 3.65509 -1.73241
-6.60343 5.16629 -1.47837
-6.60125 5.13118 -1.47426
-6.59904 5.09622 -1.47018
-6.59696 5.06156 -1.46616
-6.59493 5.02712 -1.46219
-6.59288 4.99283 -1.45824
-6.5908 4.9587 -1.45432
-6.58869 4.92472 -1.45043
-6.58656 4.8909 -1.44657
-6.58553 4.85806 -1.44297
-6.58742 4.82752 -1.44005
-6.58928 4.79708 -1.43715
-6.59109 4.76674 -1.43427
-6.59287 4.7365 -1.4314
-6.5961 4.70743 -1.42888
-6.60093 4.67959 -1.42673
-6.60572 4.65182 -1.4246
