ply
format ascii 1.0
comment Created by Open3D
element vertex 1861
property double x
property double y
property double z
end_header
4.83299 -2.6236 -1.59667
4.86515 -2.62137 -1.60457
4.89762 -2.6191 -1.61257
4.93042 -2.61682 -1.62066
4.96354 -2.6145 -1.62885
5.00371 -2.61567 -1.63934
5.04506 -2.61721 -1.65019
5.08181 -2.6161 -1.65952
5.11896 -2.61498 -1.66897
5.15654 -2.61384 -1.67855
5.19455 -2.61269 -1.68825
5.23299 -2.61152 -1.69807
5.27188 -2.61034 -1.70803
5.31123 -2.60914 -1.71812
5.35104 -2.60792 -1.72835
5.39132 -2.60669 -1.73872
5.43208 -2.60544 -1.74922
5.47334 -2.60417 -1.75987
5.5151 -2.60289 -1.77067
5.55737 -2.60158 -1.78162
5.60016 -2.60026 -1.79271
5.64348 -2.59892 -1.80397
5.68734 -2.59756 -1.81538
5.73176 -2.59618 -1.82695
5.77642 -2.59464 -1.83859
5.82112 -2.59283 -1.85022
5.86638 -2.59101 -1.86202
5.91222 -2.58916 -1.87399
5.96124 -2.5884 -1.88695
6.01302 -2.58853 -1.90076
6.06826 -2.58981 -1.91565
6.12438 -2.59112 -1.93079
6.1814 -2.59245 -1.9462
6.23934 -2.59379 -1.96187
6.29821 -2.59516 -1.97782
6.35805 -2.59656 -1.99405
6.41889 -2.59797 -2.01057
6.48077 -2.59943 -2.02739
6.54448 -2.60122 -2.04476
6.60929 -2.60303 -2.06245
6.67329 -2.60413 -2.07987
6.73722 -2.60479 -2.09724
6.80222 -2.60546 -2.11492
6.86833 -2.60614 -2.13293
6.93556 -2.60683 -2.15126
7.00397 -2.60754 -2.16994
7.07162 -2.60754 -2.18836
7.13077 -2.604 -2.20413
7.19249 -2.60104 -2.22067
7.23872 -2.59215 -2.23243
7.31079 -2.59215 -2.25214
7.38414 -2.59216 -2.27223
7.45882 -2.59216 -2.29269
7.53485 -2.59216 -2.31356
7.61229 -2.59217 -2.33483
7.69115 -2.59217 -2.35652
7.77151 -2.59217 -2.37864
4.14997 -2.74891 -1.49026
4.16622 -2.74094 -1.49301
4.18253 -2.73294 -1.49578
4.19888 -2.72489 -1.49857
4.21528 -2.71681 -1.50138
4.23173 -2.70869 -1.50421
4.24823 -2.70054 -1.50706
4.26479 -2.69234 -1.50993
4.28139 -2.6841 -1.51282
4.29761 -2.67556 -1.51559
4.31295 -2.6664 -1.51805
4.33205 -2.65949 -1.52183
4.35396 -2.6542 -1.5266
4.37599 -2.64887 -1.53141
4.40037 -2.64483 -1.53703
4.42719 -2.64211 -1.5435
4.45424 -2.63937 -1.55004
4.48151 -2.63659 -1.55665
4.50901 -2.6338 -1.56333
4.53674 -2.63097 -1.57008
4.5647 -2.62812 -1.5769
4.59291 -2.62524 -1.58379
4.62296 -2.62324 -1.59132
4.65375 -2.62147 -1.59908
4.68483 -2.61969 -1.60693
4.71621 -2.61788 -1.61488
4.74852 -2.61639 -1.62313
4.78178 -2.61523 -1.63169
4.81539 -2.61405 -1.64035
4.84778 -2.61201 -1.64859
4.88005 -2.60971 -1.65678
4.91265 -2.60738 -1.66506
4.94852 -2.60659 -1.67445
4.99068 -2.60886 -1.68594
5.03256 -2.61072 -1.69732
5.06914 -2.60958 -1.70689
5.10613 -2.60842 -1.71659
5.14354 -2.60725 -1.72641
5.18137 -2.60606 -1.73636
5.21964 -2.60486 -1.74644
5.25836 -2.60364 -1.75666
5.29752 -2.6024 -1.76701
5.33715 -2.60115 -1.7775
5.37724 -2.59988 -1.78813
5.41781 -2.59859 -1.79891
5.45887 -2.59729 -1.80983
5.50043 -2.59596 -1.82091
5.5425 -2.59462 -1.83213
5.58508 -2.59326 -1.84351
5.62819 -2.59188 -1.85506
5.67184 -2.59048 -1.86676
5.71603 -2.58906 -1.87863
5.76079 -2.58762 -1.89066
5.80663 -2.58638 -1.90304
5.8563 -2.58655 -1.91665
5.90751 -2.58709 -1.93075
5.96065 -2.58815 -1.94546
6.0151 -2.58943 -1.96058
6.0704 -2.59073 -1.97595
6.12658 -2.59205 -1.99158
6.18366 -2.59339 -2.00748
6.24165 -2.59476 -2.02366
6.30059 -2.59614 -2.04013
6.3605 -2.59755 -2.05688
6.42139 -2.59899 -2.07393
6.48332 -2.60045 -2.09129
6.54316 -2.60069 -2.10795
6.60396 -2.60093 -2.12491
6.66601 -2.60128 -2.14224
6.7298 -2.60192 -2.16011
6.79467 -2.60257 -2.17831
6.86064 -2.60322 -2.19683
6.92773 -2.60389 -2.21569
6.99599 -2.60457 -2.2349
7.06366 -2.6046 -2.2539
7.13071 -2.60398 -2.27268
7.21753 -2.6101 -2.29774
7.23871 -2.59215 -2.30189
7.31079 -2.59215 -2.32221
7.38415 -2.59216 -2.34292
7.45882 -2.59216 -2.36403
7.53486 -2.59216 -2.38554
7.61229 -2.59217 -2.40748
7.69115 -2.59217 -2.42984
4.11391 -2.72502 -1.52211
4.12996 -2.71708 -1.52489
4.14605 -2.7091 -1.5277
4.16219 -2.70109 -1.53052
4.17838 -2.69303 -1.53336
4.19462 -2.68494 -1.53623
4.21091 -2.67681 -1.53912
4.22893 -2.6697 -1.54264
4.24886 -2.66371 -1.54686
4.26889 -2.65768 -1.55111
4.28904 -2.65162 -1.55541
4.30916 -2.64544 -1.55969
4.33355 -2.64176 -1.56552
4.35902 -2.63859 -1.57172
4.38547 -2.63587 -1.57828
4.41214 -2.63312 -1.5849
4.43902 -2.63035 -1.59159
4.46614 -2.62755 -1.59835
4.49347 -2.62472 -1.60519
4.52104 -2.62187 -1.61209
4.54884 -2.61899 -1.61907
4.57688 -2.61608 -1.62613
4.60534 -2.61324 -1.63332
4.63592 -2.61143 -1.64126
4.66679 -2.6096 -1.64929
4.69796 -2.60775 -1.65741
4.73062 -2.60653 -1.66604
4.76366 -2.60532 -1.6748
4.79705 -2.60409 -1.68366
4.83046 -2.60267 -1.69252
4.86253 -2.60034 -1.70089
4.89491 -2.59797 -1.70936
4.93569 -2.59983 -1.72075
4.97766 -2.60206 -1.73253
5.02005 -2.60423 -1.74444
5.05647 -2.60305 -1.75425
5.09329 -2.60186 -1.7642
5.13053 -2.60066 -1.77426
5.1682 -2.59944 -1.78447
5.2063 -2.5982 -1.7948
5.24483 -2.59694 -1.80527
5.28381 -2.59567 -1.81588
5.32326 -2.59438 -1.82664
5.36317 -2.59307 -1.83753
5.40354 -2.59175 -1.84858
5.44441 -2.59041 -1.85977
5.48577 -2.58904 -1.87112
5.52763 -2.58766 -1.88263
5.57001 -2.58626 -1.89429
5.6146 -2.58562 -1.9067
5.66155 -2.58578 -1.91988
5.70915 -2.58594 -1.93327
5.75763 -2.5862 -1.94693
5.80742 -2.58673 -1.96102
5.85795 -2.58728 -1.97533
5.90921 -2.58784 -1.98988
5.96241 -2.58891 -2.00505
6.01689 -2.5902 -2.02063
6.07222 -2.5915 -2.03648
6.12843 -2.59283 -2.0526
6.18554 -2.59418 -2.06899
6.24374 -2.59563 -2.08573
6.30318 -2.59721 -2.10286
6.36361 -2.59883 -2.12029
6.42505 -2.60047 -2.13804
6.48664 -2.60178 -2.15581
6.54653 -2.60203 -2.173
6.60739 -2.60228 -2.19048
6.66924 -2.60254 -2.20827
6.73209 -2.60281 -2.22637
6.79599 -2.60308 -2.2448
6.86097 -2.60335 -2.26356
7.29984 -2.74375 -2.4055
7.29154 -2.7146 -2.39995
7.28334 -2.6856 -2.39447
7.27948 -2.65831 -2.39046
7.27715 -2.63166 -2.38697
7.27485 -2.60509 -2.38353
7.31079 -2.59215 -2.39263
7.38415 -2.59216 -2.41397
7.45882 -2.59216 -2.43572
7.53485 -2.59216 -2.45789
7.61229 -2.59217 -2.48048
4.08686 -2.70711 -1.55684
4.10603 -2.70134 -1.56091
4.1253 -2.69554 -1.56502
4.14467 -2.68971 -1.56916
4.16414 -2.68385 -1.57335
4.18371 -2.67795 -1.57756
4.20339 -2.67203 -1.58182
4.22317 -2.66607 -1.58611
4.24306 -2.66007 -1.59045
4.26298 -2.654 -1.59479
4.28294 -2.64785 -1.59915
4.30301 -2.64166 -1.60354
4.32367 -2.63573 -1.60816
4.34865 -2.63232 -1.61437
4.37382 -2.62887 -1.62066
4.39919 -2.6254 -1.627
4.42476 -2.6219 -1.63341
4.45079 -2.61852 -1.63998
4.47797 -2.61567 -1.64697
4.50537 -2.61278 -1.65403
4.53301 -2.60987 -1.66117
4.56088 -2.60693 -1.66838
4.58899 -2.60396 -1.67567
4.61814 -2.60141 -1.68333
4.6488 -2.59954 -1.69153
4.68028 -2.59793 -1.70002
4.71277 -2.59669 -1.70886
4.74559 -2.59544 -1.7178
4.77876 -2.59416 -1.72686
4.81227 -2.59287 -1.73603
4.84503 -2.59098 -1.74491
4.88166 -2.59093 -1.75517
4.92287 -2.59308 -1.76706
4.96464 -2.59525 -1.77912
5.00698 -2.59745 -1.79137
5.0438 -2.59653 -1.80163
5.08046 -2.59531 -1.81181
5.11753 -2.59407 -1.82212
5.15503 -2.59281 -1.83257
5.19295 -2.59154 -1.84316
5.23131 -2.59025 -1.85389
5.27011 -2.58894 -1.86476
5.30937 -2.58761 -1.87577
5.34909 -2.58627 -1.88693
5.38928 -2.58491 -1.89824
5.43285 -2.5849 -1.91073
5.47731 -2.58505 -1.92351
5.52238 -2.58521 -1.93649
5.56806 -2.58536 -1.94965
5.61437 -2.58552 -1.96302
5.66173 -2.58586 -1.97674
5.71014 -2.58639 -1.99081
5.75926 -2.58693 -2.00509
5.80908 -2.58747 -2.01961
5.85963 -2.58803 -2.03436
5.91092 -2.58859 -2.04934
5.96418 -2.58968 -2.06498
6.01869 -2.59097 -2.08103
6.0744 -2.59244 -2.09748
6.13109 -2.59396 -2.11424
6.1887 -2.59551 -2.13129
6.24724 -2.59708 -2.14864
6.30674 -2.59868 -2.16629
6.36723 -2.60031 -2.18426
6.42873 -2.60196 -2.20255
6.48997 -2.60312 -2.22073
6.54993 -2.60338 -2.23844
6.61084 -2.60364 -2.25646
4.08138 -2.70347 -1.59966
4.10051 -2.69771 -1.60384
4.11973 -2.69191 -1.60805
4.13906 -2.68607 -1.61231
4.15849 -2.68021 -1.6166
4.17802 -2.67431 -1.62093
4.19766 -2.66839 -1.62529
4.2174 -2.66242 -1.6297
4.2371 -2.65634 -1.63409
4.25691 -2.65022 -1.63852
4.27682 -2.64407 -1.64299
4.29685 -2.63788 -1.6475
4.31698 -2.63166 -1.65205
4.33867 -2.62628 -1.6572
4.36375 -2.62282 -1.66363
4.38902 -2.61933 -1.67013
4.41448 -2.61581 -1.67669
4.44015 -2.61226 -1.68332
4.46601 -2.60868 -1.69002
4.49207 -2.60507 -1.69679
4.51834 -2.60143 -1.70363
4.54491 -2.5978 -1.71057
4.57285 -2.59481 -1.71801
4.60103 -2.59178 -1.72554
4.63086 -2.58951 -1.73368
4.66268 -2.58816 -1.74255
4.69495 -2.58688 -1.75157
4.72756 -2.58557 -1.76071
4.7605 -2.58425 -1.76995
4.86182 -2.61957 -1.80457
4.85303 -2.59526 -1.79828
4.86903 -2.58423 -1.8012
4.91004 -2.58632 -1.81336
4.95162 -2.58844 -1.82571
4.99375 -2.59059 -1.83825
5.03112 -2.59001 -1.84901
5.06762 -2.58875 -1.85944
5.10453 -2.58748 -1.86999
5.14185 -2.58618 -1.88069
5.1796 -2.58488 -1.89153
5.21885 -2.58408 -1.9029
5.2605 -2.58422 -1.91512
5.3027 -2.58436 -1.92753
5.34544 -2.5845 -1.94011
5.38874 -2.58465 -1.95288
5.43262 -2.5848 -1.96584
5.47709 -2.58495 -1.97899
5.52216 -2.5851 -1.99234
5.56846 -2.58555 -2.00612
5.61556 -2.58607 -2.02015
5.66332 -2.58659 -2.03441
5.71176 -2.58712 -2.04889
5.7609 -2.58767 -2.0636
5.81075 -2.58822 -2.07854
5.86213 -2.58913 -2.09401
5.91561 -2.59064 -2.11021
5.96964 -2.59205 -2.12657
6.02447 -2.59346 -2.1432
6.08017 -2.5949 -2.16012
6.13676 -2.59636 -2.17732
6.19427 -2.59784 -2.19483
6.25271 -2.59935 -2.21264
6.3121 -2.60089 -2.23076
6.37249 -2.60245 -2.24921
4.07588 -2.69983 -1.6426
4.09497 -2.69406 -1.64688
4.11415 -2.68826 -1.65121
4.13344 -2.68243 -1.65557
4.15283 -2.67656 -1.65997
4.17232 -2.67066 -1.66441
4.19184 -2.66469 -1.66886
4.2114 -2.65863 -1.67332
4.23106 -2.65255 -1.67782
4.25082 -2.64643 -1.68236
4.27069 -2.64028 -1.68695
4.29067 -2.63409 -1.69157
4.31075 -2.62786 -1.69624
4.33094 -2.6216 -1.70094
4.35366 -2.61676 -1.70664
4.37884 -2.61325 -1.71329
4.4042 -2.60972 -1.72
4.42976 -2.60615 -1.72679
4.45552 -2.60256 -1.73365
4.48149 -2.59893 -1.74057
4.50765 -2.59527 -1.74757
4.53403 -2.59158 -1.75464
4.56062 -2.58786 -1.76178
4.58741 -2.58411 -1.769
4.64546 -2.59767 -1.78824
4.66966 -2.59204 -1.79442
4.70433 -2.59204 -1.80461
4.73938 -2.59204 -1.81494
4.77485 -2.59204 -1.8254
4.81073 -2.59204 -1.83601
4.84703 -2.59205 -1.84675
4.99258 -2.64981 -1.89904
4.986 -2.62634 -1.8934
4.97676 -2.60158 -1.88678
4.98053 -2.58373 -1.88513
5.01845 -2.58348 -1.89641
5.05722 -2.58344 -1.908
5.09682 -2.58357 -1.91988
5.13692 -2.5837 -1.93192
5.17752 -2.58384 -1.94414
5.21865 -2.58398 -1.95653
5.2603 -2.58412 -1.96911
5.30249 -2.58426 -1.98186
5.34523 -2.5844 -1.9948
5.38853 -2.58455 -2.00793
5.4325 -2.58474 -2.02129
5.47771 -2.58524 -2.03509
5.52355 -2.58575 -2.0491
5.57002 -2.58627 -2.06332
5.61714 -2.58679 -2.07776
5.66516 -2.58743 -2.09252
5.71563 -2.58888 -2.10815
5.76687 -2.59035 -2.12405
5.81889 -2.59184 -2.14021
5.87172 -2.59336 -2.15664
5.92532 -2.59489 -2.17334
5.97948 -2.59632 -2.19021
6.03448 -2.59777 -2.20736
6.09034 -2.59924 -2.22481
6.14711 -2.60074 -2.24256
6.2048 -2.60226 -2.26062
4.07036 -2.69618 -1.68566
4.08941 -2.69041 -1.69005
4.10856 -2.6846 -1.69448
4.1278 -2.67877 -1.69895
4.14714 -2.6729 -1.70346
4.16646 -2.66691 -1.70795
4.18587 -2.66089 -1.71248
4.20538 -2.65484 -1.71706
4.225 -2.64875 -1.72167
4.24472 -2.64263 -1.72633
4.26454 -2.63647 -1.73102
4.28447 -2.63028 -1.73576
4.30451 -2.62406 -1.74054
4.32466 -2.61779 -1.74536
4.34491 -2.6115 -1.75023
4.36865 -2.60717 -1.75649
4.39391 -2.60362 -1.76336
4.41937 -2.60004 -1.7703
4.44503 -2.59643 -1.77731
4.47089 -2.59279 -1.7844
4.49695 -2.58911 -1.79155
4.5463 -2.5986 -1.80796
4.56797 -2.59203 -1.81334
4.60149 -2.59204 -1.82341
4.63538 -2.59204 -1.83362
4.66966 -2.59204 -1.84396
4.70432 -2.59204 -1.85443
4.73939 -2.59204 -1.86504
4.77485 -2.59204 -1.8758
4.81073 -2.59204 -1.88669
4.84703 -2.59205 -1.89773
4.88375 -2.59205 -1.90893
4.92091 -2.59205 -1.92027
5.02019 -2.62429 -1.95579
5.01828 -2.60331 -1.95186
5.01791 -2.5832 -1.94856
5.05702 -2.58334 -1.9606
5.09662 -2.58347 -1.9728
5.13672 -2.5836 -1.98518
5.17732 -2.58374 -1.99774
5.21844 -2.58387 -2.01047
5.26009 -2.58401 -2.02339
5.30227 -2.58415 -2.03649
5.34534 -2.58446 -2.04991
5.38937 -2.58495 -2.06368
5.43399 -2.58545 -2.07766
5.47923 -2.58596 -2.09185
5.52676 -2.58726 -2.10689
5.57519 -2.58867 -2.12225
5.62433 -2.59011 -2.13786
5.67421 -2.59156 -2.15372
5.72483 -2.59305 -2.16984
5.77623 -2.59455 -2.18623
5.82841 -2.59608 -2.20289
5.88139 -2.59764 -2.21983
5.93508 -2.59917 -2.23701
5.9894 -2.60063 -2.25441
4.06483 -2.69251 -1.72886
4.08384 -2.68674 -1.73335
4.10295 -2.68094 -1.73789
4.12207 -2.67505 -1.74243
4.14124 -2.66909 -1.747
4.16051 -2.6631 -1.7516
4.17988 -2.65708 -1.75624
4.19935 -2.65103 -1.76092
4.21892 -2.64494 -1.76565
4.23859 -2.63882 -1.77041
4.25837 -2.63266 -1.77522
4.27826 -2.62647 -1.78007
4.29825 -2.62024 -1.78497
4.31835 -2.61398 -1.78991
4.33856 -2.60768 -1.79489
4.35888 -2.60134 -1.79991
4.38361 -2.59752 -1.80676
4.40897 -2.59392 -1.81385
4.43453 -2.59029 -1.82102
4.49061 -2.60422 -1.84069
4.50202 -2.59203 -1.84203
4.53481 -2.59203 -1.85212
4.56797 -2.59203 -1.86234
4.60149 -2.59204 -1.87268
4.63538 -2.59204 -1.88316
4.66966 -2.59204 -1.89378
4.70432 -2.59204 -1.90454
4.73938 -2.59204 -1.91544
4.77485 -2.59204 -1.92648
4.81073 -2.59204 -1.93767
4.84703 -2.59205 -1.94901
4.88375 -2.59205 -1.9605
4.92091 -2.59205 -1.97215
4.95852 -2.59205 -1.98396
4.99658 -2.59205 -1.99593
5.04815 -2.59877 -2.01327
5.05683 -2.58323 -2.01349
5.09642 -2.58337 -2.02603
5.13651 -2.5835 -2.03874
5.17712 -2.58363 -2.05163
5.21823 -2.58377 -2.06471
5.26044 -2.58419 -2.0782
5.30334 -2.58467 -2.09193
5.34806 -2.58577 -2.10637
5.39391 -2.58713 -2.12123
5.44042 -2.58851 -2.13632
5.4876 -2.58991 -2.15165
5.53547 -2.59133 -2.16723
5.58404 -2.59278 -2.18305
5.63333 -2.59425 -2.19913
5.68302 -2.59559 -2.21535
5.73269 -2.5966 -2.23153
5.7831 -2.59764 -2.24797
4.05928 -2.68884 -1.77219
4.07823 -2.68305 -1.77678
4.09716 -2.67716 -1.78137
4.11619 -2.67123 -1.786
4.13532 -2.66528 -1.79067
4.15455 -2.65929 -1.79538
4.17387 -2.65326 -1.80013
4.1933 -2.64721 -1.80492
4.21282 -2.64112 -1.80975
4.23245 -2.63499 -1.81463
4.25219 -2.62884 -1.81956
4.27203 -2.62264 -1.82452
4.29197 -2.61641 -1.82953
4.31202 -2.61015 -1.83458
4.33219 -2.60385 -1.83968
4.35246 -2.59751 -1.84483
4.3733 -2.5914 -1.85021
4.43958 -2.61193 -1.87479
4.44274 -2.59509 -1.87268
4.46959 -2.59203 -1.88056
4.50202 -2.59203 -1.89078
4.53481 -2.59203 -1.90114
4.56797 -2.59203 -1.91162
4.60149 -2.59204 -1.92224
4.63538 -2.59204 -1.933
4.66966 -2.59204 -1.9439
4.70433 -2.59204 -1.95494
4.73939 -2.59204 -1.96613
4.77485 -2.59204 -1.97746
4.81073 -2.59204 -1.98895
4.84703 -2.59205 -2.00059
4.88375 -2.59205 -2.01239
4.92091 -2.59205 -2.02435
4.95852 -2.59205 -2.03647
4.99658 -2.59205 -2.04875
5.08051 -2.61543 -2.0798
5.07849 -2.5943 -2.07563
5.09622 -2.58326 -2.07956
5.13644 -2.58346 -2.09266
5.17866 -2.5844 -2.10655
5.22216 -2.58571 -2.12094
5.2659 -2.58687 -2.13541
5.30969 -2.58777 -2.14987
5.35407 -2.58868 -2.16455
5.39906 -2.5896 -2.17945
5.44468 -2.59053 -2.19457
5.49093 -2.59148 -2.20994
5.53784 -2.59244 -2.22553
5.58541 -2.59342 -2.24138
5.63367 -2.5944 -2.25747
4.05362 -2.68509 -1.81562
4.07242 -2.67923 -1.82027
4.09131 -2.67333 -1.82496
4.1103 -2.66741 -1.8297
4.12938 -2.66145 -1.83447
4.14856 -2.65546 -1.83929
4.16784 -2.64943 -1.84415
4.18723 -2.64338 -1.84906
4.20672 -2.63729 -1.85401
4.22636 -2.6312 -1.85902
4.2461 -2.62507 -1.86408
4.26594 -2.61891 -1.86918
4.2859 -2.61271 -1.87433
4.30596 -2.60648 -1.87952
4.32613 -2.60021 -1.88476
4.34641 -2.5939 -1.89005
4.40447 -2.60987 -1.91173
4.4063 -2.59235 -1.90899
4.4375 -2.59203 -1.91898
4.46959 -2.59203 -1.92934
4.50202 -2.59203 -1.93983
4.53481 -2.59203 -1.95045
4.56797 -2.59203 -1.96121
4.60148 -2.59204 -1.9721
4.63538 -2.59204 -1.98314
4.66966 -2.59204 -1.99432
4.70433 -2.59204 -2.00565
4.73939 -2.59204 -2.01713
4.77485 -2.59204 -2.02876
4.81073 -2.59204 -2.04054
4.84703 -2.59205 -2.05248
4.88375 -2.59205 -2.06459
4.92091 -2.59205 -2.07685
4.95852 -2.59205 -2.08929
4.99658 -2.59205 -2.10189
5.08986 -2.62024 -2.13767
5.08987 -2.60012 -2.13425
5.09616 -2.58324 -2.13348
5.13768 -2.58408 -2.14746
5.17974 -2.58495 -2.16165
5.22237 -2.58582 -2.17605
5.26556 -2.5867 -2.19066
5.30934 -2.5876 -2.20549
5.35371 -2.58851 -2.22054
5.3987 -2.58943 -2.23583
5.44431 -2.59036 -2.25135
4.04802 -2.68138 -1.85924
4.06682 -2.67555 -1.86402
4.08572 -2.66968 -1.86884
4.10472 -2.66379 -1.8737
4.12381 -2.65786 -1.87861
4.143 -2.6519 -1.88356
4.16229 -2.6459 -1.88855
4.18168 -2.63988 -1.89359
4.20118 -2.63382 -1.89867
4.22077 -2.62772 -1.90379
4.24047 -2.62159 -1.90897
4.26028 -2.61543 -1.91419
4.28019 -2.60923 -1.91945
4.3002 -2.60299 -1.92476
4.32033 -2.59672 -1.93012
4.37755 -2.61248 -1.95202
4.37942 -2.59503 -1.94922
4.40576 -2.59203 -1.95732
4.4375 -2.59203 -1.9678
4.46959 -2.59203 -1.97842
4.50202 -2.59203 -1.98918
4.53481 -2.59203 -2.00007
4.56797 -2.59203 -2.0111
4.60148 -2.59204 -2.02227
4.63538 -2.59204 -2.03359
4.66966 -2.59204 -2.04506
4.70433 -2.59204 -2.05667
4.73939 -2.59204 -2.06844
4.77485 -2.59204 -2.08037
4.81073 -2.59205 -2.09245
4.84703 -2.59205 -2.1047
4.88375 -2.59205 -2.11711
4.92091 -2.59205 -2.12969
4.95852 -2.59205 -2.14244
4.99658 -2.59205 -2.15537
5.08965 -2.62014 -2.19196
5.08966 -2.60001 -2.18845
5.09584 -2.58307 -2.18762
5.13735 -2.58392 -2.20195
5.17941 -2.58478 -2.2165
5.22203 -2.58565 -2.23126
5.26521 -2.58653 -2.24624
4.04284 -2.67795 -1.90322
4.06159 -2.6721 -1.9081
4.08043 -2.66622 -1.91301
4.09937 -2.66031 -1.91798
4.11841 -2.65437 -1.92299
4.13756 -2.64841 -1.92805
4.15681 -2.64242 -1.93315
4.17616 -2.63639 -1.9383
4.19561 -2.63033 -1.9435
4.21516 -2.62423 -1.94874
4.23482 -2.6181 -1.95402
4.25459 -2.61193 -1.95936
4.27446 -2.60573 -1.96474
4.29443 -2.5995 -1.97017
4.35069 -2.61497 -1.99221
4.3526 -2.5976 -1.98935
4.37435 -2.59203 -1.99557
4.40576 -2.59203 -2.00619
4.4375 -2.59203 -2.01694
4.46959 -2.59203 -2.02782
4.50202 -2.59203 -2.03884
4.53481 -2.59203 -2.05001
4.56797 -2.59203 -2.06131
4.60149 -2.59204 -2.07276
4.63538 -2.59204 -2.08437
4.66966 -2.59204 -2.09612
4.70433 -2.59204 -2.10802
4.73939 -2.59204 -2.12009
4.77485 -2.59204 -2.13231
4.81073 -2.59205 -2.1447
4.84703 -2.59205 -2.15725
4.88375 -2.59205 -2.16997
4.92092 -2.59205 -2.18286
4.95852 -2.59205 -2.19593
4.99658 -2.59205 -2.20918
5.08944 -2.62003 -2.2466
5.08945 -2.5999 -2.243
5.09551 -2.5829 -2.24209
5.13702 -2.58375 -2.25678
4.03766 -2.67452 -1.94739
4.05637 -2.66867 -1.95237
4.07518 -2.66279 -1.9574
4.09407 -2.65688 -1.96247
4.11307 -2.65093 -1.96758
4.13216 -2.64496 -1.97274
4.15135 -2.63895 -1.97795
4.17064 -2.63291 -1.9832
4.19003 -2.62683 -1.9885
4.20954 -2.62073 -1.99385
4.22915 -2.6146 -1.99925
4.24888 -2.60843 -2.0047
4.2687 -2.60223 -2.0102
4.33631 -2.62485 -2.03816
4.33701 -2.60675 -2.03464
4.34327 -2.59202 -2.03376
4.37435 -2.59203 -2.0445
4.40576 -2.59203 -2.05538
4.4375 -2.59203 -2.06639
4.46959 -2.59203 -2.07754
4.50202 -2.59203 -2.08883
4.53481 -2.59203 -2.10027
4.56797 -2.59203 -2.11185
4.60149 -2.59204 -2.12359
4.63538 -2.59204 -2.13547
4.66966 -2.59204 -2.14751
4.70433 -2.59204 -2.15971
4.73939 -2.59204 -2.17207
4.77485 -2.59204 -2.18459
4.81073 -2.59205 -2.19728
4.84703 -2.59205 -2.21014
4.88375 -2.59205 -2.22317
4.92092 -2.59205 -2.23638
4.95852 -2.59205 -2.24977
4.99658 -2.59205 -2.26335
4.03246 -2.67107 -1.99174
4.05114 -2.66522 -1.99683
4.0699 -2.65934 -2.00196
4.08876 -2.65343 -2.00714
4.10772 -2.64749 -2.01237
4.12677 -2.64151 -2.01764
4.14592 -2.6355 -2.02295
4.16533 -2.62955 -2.02839
4.18569 -2.62411 -2.0343
4.20617 -2.61863 -2.04025
4.22677 -2.61312 -2.04627
4.24696 -2.60725 -2.05208
4.32668 -2.63757 -2.0866
4.3274 -2.61946 -2.08298
4.32811 -2.6014 -2.07939
4.34327 -2.59202 -2.08276
4.37435 -2.59203 -2.09376
4.40575 -2.59203 -2.1049
4.4375 -2.59203 -2.11617
4.46959 -2.59203 -2.12759
4.50202 -2.59203 -2.13916
4.53481 -2.59203 -2.15087
4.56797 -2.59203 -2.16273
4.60149 -2.59204 -2.17475
4.63538 -2.59204 -2.18692
4.66966 -2.59204 -2.19925
4.70433 -2.59204 -2.21174
4.73939 -2.59204 -2.2244
4.77485 -2.59204 -2.23722
4.81073 -2.59205 -2.25022
4.84703 -2.59205 -2.26339
4.88375 -2.59205 -2.27674
4.92091 -2.59205 -2.29026
4.95852 -2.59205 -2.30398
4.03334 -2.67165 -2.03936
4.05294 -2.66641 -2.04503
4.07265 -2.66114 -2.05076
4.09247 -2.65584 -2.05655
4.11241 -2.65051 -2.06239
4.13247 -2.64516 -2.06828
4.15265 -2.63977 -2.07423
4.17295 -2.63436 -2.08024
4.19298 -2.62867 -2.08611
4.21239 -2.6225 -2.09167
4.2319 -2.6163 -2.09728
4.31699 -2.65024 -2.13532
4.31773 -2.63211 -2.1316
4.31846 -2.61405 -2.12791
4.31919 -2.59604 -2.12425
4.34327 -2.59203 -2.13209
4.37435 -2.59203 -2.14335
4.40576 -2.59203 -2.15475
4.4375 -2.59203 -2.1663
4.46959 -2.59203 -2.17799
4.50202 -2.59203 -2.18983
4.53481 -2.59203 -2.20182
4.56797 -2.59203 -2.21396
4.60148 -2.59204 -2.22626
4.63538 -2.59204 -2.23872
4.66966 -2.59204 -2.25134
4.70433 -2.59204 -2.26413
4.73939 -2.59204 -2.27709
4.77485 -2.59204 -2.29022
4.81073 -2.59205 -2.30352
4.84703 -2.59205 -2.317
4.88375 -2.59205 -2.33067
4.92091 -2.59205 -2.34451
4.04063 -2.67649 -2.09065
4.06029 -2.67125 -2.09648
4.08006 -2.66598 -2.10237
4.09994 -2.66068 -2.10831
4.11994 -2.65536 -2.11431
4.13978 -2.64983 -2.12022
4.15891 -2.64375 -2.12576
4.17814 -2.63764 -2.13136
4.19748 -2.6315 -2.13701
4.21693 -2.62533 -2.14272
4.23648 -2.61912 -2.14847
4.32583 -2.65567 -2.18955
4.3249 -2.63649 -2.1849
4.32399 -2.61739 -2.18028
4.32308 -2.59837 -2.17571
4.34327 -2.59203 -2.18177
4.37435 -2.59203 -2.1933
4.40576 -2.59203 -2.20496
4.4375 -2.59203 -2.21678
4.46959 -2.59203 -2.22874
4.50203 -2.59203 -2.24086
4.53481 -2.59203 -2.25312
4.56797 -2.59203 -2.26555
4.60149 -2.59204 -2.27814
4.63538 -2.59204 -2.29089
4.66966 -2.59204 -2.30381
4.70433 -2.59204 -2.31689
4.73939 -2.59204 -2.33015
4.77485 -2.59204 -2.34358
4.81073 -2.59205 -2.3572
4.84703 -2.59205 -2.37099
4.88376 -2.59205 -2.38497
4.04801 -2.68137 -2.1425
4.06772 -2.67614 -2.14849
4.08734 -2.67074 -2.15442
4.1062 -2.66475 -2.15996
4.12516 -2.65873 -2.16554
4.14423 -2.65268 -2.17118
4.16339 -2.6466 -2.17686
4.18266 -2.64049 -2.1826
4.20204 -2.63435 -2.1884
4.22151 -2.62818 -2.19424
4.33792 -2.68184 -2.25037
4.33696 -2.66251 -2.24554
4.33601 -2.64326 -2.24075
4.33507 -2.6241 -2.236
4.33413 -2.60502 -2.2313
4.34327 -2.59203 -2.23181
4.37435 -2.59203 -2.2436
4.40576 -2.59203 -2.25553
4.4375 -2.59203 -2.26762
4.46959 -2.59203 -2.27986
4.50202 -2.59203 -2.29225
4.53481 -2.59203 -2.3048
4.56797 -2.59203 -2.31751
4.60148 -2.59204 -2.33039
4.63538 -2.59204 -2.34343
4.66966 -2.59204 -2.35664
4.70433 -2.59204 -2.37003
4.73939 -2.59204 -2.38359
4.77485 -2.59204 -2.39733
4.81073 -2.59205 -2.41126
4.84703 -2.59205 -2.42537
4.05424 -2.6855 -2.19427
4.07294 -2.67957 -2.19984
4.09174 -2.67361 -2.20546
4.11063 -2.66762 -2.21113
4.12963 -2.66161 -2.21685
4.14873 -2.65556 -2.22262
4.16792 -2.64948 -2.22845
4.18722 -2.64337 -2.23434
4.38054 -2.74626 -2.33289
4.37581 -2.72425 -2.32582
4.37114 -2.70238 -2.31882
4.36652 -2.68065 -2.31191
4.36195 -2.65907 -2.30507
4.35743 -2.63764 -2.2983
4.35296 -2.61634 -2.29161
4.34854 -2.59517 -2.28499
4.37435 -2.59203 -2.29427
4.40576 -2.59203 -2.30648
4.4375 -2.59203 -2.31884
4.46959 -2.59203 -2.33135
4.50202 -2.59203 -2.34402
4.53481 -2.59203 -2.35686
4.56797 -2.59204 -2.36986
4.60149 -2.59204 -2.38302
4.63538 -2.59204 -2.39636
4.66966 -2.59204 -2.40987
4.70433 -2.59204 -2.42356
4.73939 -2.59204 -2.43743
4.77485 -2.59204 -2.45148
4.81073 -2.59205 -2.46572
4.49228 -2.79676 -2.44086
4.45464 -2.754 -2.4157
4.42037 -2.71371 -2.3925
4.41559 -2.69177 -2.38533
4.41085 -2.66997 -2.37825
4.40617 -2.64831 -2.37124
4.40154 -2.6268 -2.36431
4.39696 -2.60543 -2.35745
4.40576 -2.59203 -2.35781
4.4375 -2.59203 -2.37044
4.46959 -2.59203 -2.38323
4.50202 -2.59203 -2.39618
4.53481 -2.59203 -2.4093
4.56797 -2.59204 -2.42259
4.60148 -2.59204 -2.43605
4.63538 -2.59204 -2.44969
4.66966 -2.59204 -2.4635
4.70433 -2.59204 -2.47749
4.51319 -2.59846 -2.45482
4.53481 -2.59203 -2.46216
4.56797 -2.59204 -2.47574
6.1384 -3.79722 -1.02666
6.10458 -3.74977 -1.01902
6.10938 -3.72628 -1.01786
6.11398 -3.70273 -1.01668
6.11836 -3.67911 -1.01547
6.12252 -3.65541 -1.01425
6.12647 -3.63166 -1.013
6.1302 -3.60784 -1.01174
6.13372 -3.58396 -1.01045
6.13703 -3.56002 -1.00915
6.14199 -3.5371 -1.00813
6.14733 -3.51446 -1.00718
6.16049 -3.49629 -1.00753
6.18765 -3.486 -1.01017
6.2153 -3.47584 -1.01289
6.24379 -3.46602 -1.01575
5.5809 -4.01164 -1.03596
5.57535 -3.98109 -1.03259
5.56977 -3.95069 -1.02925
5.5632 -3.91976 -1.02575
5.55501 -3.88788 -1.02198
5.54681 -3.85618 -1.01823
5.53859 -3.82467 -1.01451
5.53037 -3.79333 -1.01081
5.52213 -3.76217 -1.00713
5.51746 -3.73361 -1.00414
5.52133 -3.71094 -1.00271
5.52513 -3.6883 -1.00128
5.52887 -3.66568 -0.999865
5.5325 -3.64307 -0.998444
5.53484 -3.61968 -0.996803
5.53711 -3.59633 -0.995169
5.53932 -3.57302 -0.99354
5.54147 -3.54976 -0.991917
5.54357 -3.52654 -0.990299
5.5456 -3.50336 -0.988688
5.55714 -3.48622 -0.988784
5.57029 -3.47008 -0.989174
5.58341 -3.4539 -0.989569
5.59651 -3.43769 -0.989967
5.60958 -3.42144 -0.990369
5.62262 -3.40516 -0.990774
5.63564 -3.38884 -0.991183
5.64863 -3.37248 -0.991596
5.6616 -3.35609 -0.992012
5.67454 -3.33966 -0.992432
5.68745 -3.3232 -0.992856
5.70034 -3.3067 -0.993283
5.7132 -3.29017 -0.993714
5.72568 -3.2734 -0.994088
5.73981 -3.25754 -0.994756
5.75652 -3.24311 -0.995877
5.7733 -3.22866 -0.997017
5.80144 -3.22046 -1.00012
5.8297 -3.21218 -1.00324
5.85807 -3.20382 -1.00639
5.88657 -3.19537 -1.00955
5.91519 -3.18683 -1.01273
5.94393 -3.17822 -1.01593
5.97279 -3.16951 -1.01916
6.00178 -3.16072 -1.0224
6.03089 -3.15184 -1.02566
6.06012 -3.14286 -1.02895
6.09025 -3.1342 -1.03238
6.12161 -3.126 -1.03602
6.15314 -3.11772 -1.03969
6.18482 -3.10934 -1.04339
6.21667 -3.10087 -1.04711
5.23196 -4.0165 -1.05031
5.22841 -3.98768 -1.04707
5.22481 -3.95898 -1.04385
5.22117 -3.93041 -1.04064
5.21748 -3.90196 -1.03745
5.21374 -3.87363 -1.03428
5.20996 -3.84542 -1.03112
5.20614 -3.81734 -1.02798
5.20227 -3.78938 -1.02486
5.19771 -3.76108 -1.02162
5.19677 -3.73552 -1.01912
5.20137 -3.71405 -1.01772
5.20591 -3.6926 -1.01633
5.21039 -3.67118 -1.01495
5.2148 -3.64977 -1.01356
5.21915 -3.6284 -1.01218
5.22344 -3.60704 -1.01081
5.22767 -3.58571 -1.00944
5.23184 -3.5644 -1.00807
5.23595 -3.54312 -1.00671
5.23947 -3.5215 -1.00525
5.24251 -3.49964 -1.00371
5.25535 -3.48434 -1.00406
5.26815 -3.469 -1.00442
5.28093 -3.45363 -1.00478
5.29336 -3.43802 -1.00508
5.3057 -3.42233 -1.00537
5.31801 -3.40661 -1.00567
5.33028 -3.39086 -1.00596
5.34253 -3.37507 -1.00626
5.35475 -3.35925 -1.00657
5.36694 -3.34339 -1.00688
5.37909 -3.32751 -1.00719
5.39122 -3.31159 -1.0075
5.40332 -3.29564 -1.00782
5.41539 -3.27965 -1.00814
5.42743 -3.26364 -1.00846
5.44204 -3.24914 -1.00927
5.458 -3.2354 -1.01034
5.47396 -3.22161 -1.01141
5.48991 -3.20778 -1.01249
5.50587 -3.1939 -1.01357
5.52183 -3.17996 -1.01466
5.53779 -3.16598 -1.01576
5.55376 -3.15195 -1.01686
5.56972 -3.13787 -1.01797
5.58569 -3.12374 -1.01908
5.60166 -3.10956 -1.02021
5.61762 -3.09533 -1.02133
5.63359 -3.08105 -1.02247
5.64956 -3.06672 -1.02361
5.66554 -3.05233 -1.02476
5.68151 -3.0379 -1.02591
5.69749 -3.02342 -1.02707
5.71347 -3.00888 -1.02824
5.72936 -2.99425 -1.0294
5.745 -2.97944 -1.03052
5.77041 -2.9696 -1.0334
5.80371 -2.96367 -1.03768
5.83776 -2.95792 -1.0421
5.87208 -2.95211 -1.04656
5.90664 -2.94623 -1.05107
5.94148 -2.94029 -1.05561
5.97658 -2.93427 -1.0602
6.01195 -2.92818 -1.06484
6.0476 -2.92202 -1.06952
6.07853 -2.9134 -1.07336
6.10881 -2.9043 -1.07708
6.13926 -2.89512 -1.08084
6.16988 -2.88585 -1.08463
6.20067 -2.87649 -1.08844
6.23164 -2.86706 -1.09229
5.07959 -4.10691 -1.0959
5.03798 -4.0471 -1.08416
5.02881 -4.01375 -1.07947
5.02744 -3.98682 -1.07647
5.02606 -3.96001 -1.0735
5.02477 -3.93342 -1.07058
5.02345 -3.90694 -1.06767
5.0221 -3.88059 -1.06478
5.02074 -3.85435 -1.06191
5.01934 -3.82823 -1.05907
5.01793 -3.80222 -1.05624
5.01649 -3.77633 -1.05343
5.01575 -3.75109 -1.05079
5.01843 -3.72852 -1.04888
5.02107 -3.70601 -1.04699
5.02368 -3.68355 -1.04511
5.02674 -3.66152 -1.04335
5.02978 -3.63956 -1.04159
5.03278 -3.61765 -1.03985
5.03575 -3.59579 -1.03812
5.03868 -3.57399 -1.0364
5.04157 -3.55223 -1.03469
5.04443 -3.53053 -1.03299
5.04725 -3.50889 -1.0313
5.05288 -3.48925 -1.0302
5.06047 -3.47102 -1.02951
5.06803 -3.4528 -1.02884
5.07556 -3.43458 -1.02816
5.08305 -3.41637 -1.0275
5.09052 -3.39817 -1.02684
5.09795 -3.37998 -1.02619
5.10535 -3.3618 -1.02554
5.11271 -3.34362 -1.0249
5.12005 -3.32545 -1.02427
5.12735 -3.30729 -1.02364
5.13462 -3.28914 -1.02302
5.14186 -3.27099 -1.02241
5.14968 -3.25324 -1.02192
5.16475 -3.24005 -1.02288
5.17978 -3.2268 -1.02384
5.1948 -3.21351 -1.02481
5.20983 -3.20017 -1.02578
5.22484 -3.18678 -1.02675
5.23985 -3.17335 -1.02773
5.25486 -3.15987 -1.02872
5.26987 -3.14634 -1.02971
5.28487 -3.13277 -1.03071
5.29986 -3.11915 -1.03172
5.31485 -3.10549 -1.03273
5.32984 -3.09178 -1.03374
5.34482 -3.07802 -1.03476
5.35979 -3.06422 -1.03579
5.37477 -3.05037 -1.03682
5.38974 -3.03647 -1.03786
5.4047 -3.02252 -1.03891
5.41966 -3.00853 -1.03996
5.43461 -2.99449 -1.04101
5.44956 -2.9804 -1.04207
5.47065 -2.9696 -1.04431
5.49435 -2.96011 -1.04705
5.51816 -2.95056 -1.04981
5.54217 -2.941 -1.05261
5.56698 -2.93174 -1.05557
5.59191 -2.92242 -1.05855
5.61696 -2.91303 -1.06155
5.64212 -2.90358 -1.06457
5.6674 -2.89406 -1.06762
5.69281 -2.88447 -1.07068
5.72067 -2.87599 -1.07422
5.75862 -2.8724 -1.07964
5.79724 -2.86891 -1.08518
5.83721 -2.86584 -1.09097
5.87773 -2.86281 -1.09685
5.91869 -2.85974 -1.10281
5.96008 -2.85663 -1.10884
6.00192 -2.85348 -1.11495
6.04421 -2.85029 -1.12113
6.08696 -2.84707 -1.12739
6.13018 -2.8438 -1.13374
6.17388 -2.84048 -1.14016
6.21853 -2.83734 -1.14675
6.26451 -2.83453 -1.15358
6.31966 -2.83554 -1.16208
6.37643 -2.83693 -1.17087
6.43838 -2.84025 -1.1806
6.52291 -2.85304 -1.19445
4.89782 -4.08909 -1.12503
4.87693 -4.04566 -1.1173
4.87135 -4.01521 -1.11312
4.8706 -3.98891 -1.11008
4.86982 -3.96273 -1.10705
4.86902 -3.93666 -1.10405
4.86819 -3.91071 -1.10106
4.86733 -3.88487 -1.0981
4.86653 -3.85921 -1.09517
4.86573 -3.83369 -1.09227
4.8649 -3.80827 -1.08938
4.86404 -3.78297 -1.08652
4.86423 -3.7586 -1.08391
4.86727 -3.73653 -1.08196
4.87027 -3.71452 -1.08002
4.87322 -3.69257 -1.0781
4.87614 -3.67068 -1.07618
4.87902 -3.64884 -1.07428
4.88187 -3.62706 -1.07238
4.88481 -3.60543 -1.07053
4.88807 -3.58412 -1.06877
4.89128 -3.56286 -1.06701
4.89446 -3.54164 -1.06527
4.89761 -3.52048 -1.06354
4.90084 -3.49946 -1.06184
4.9085 -3.48165 -1.06112
4.91613 -3.46384 -1.06041
4.92372 -3.44605 -1.0597
4.93128 -3.42827 -1.059
4.93881 -3.41048 -1.0583
4.94631 -3.39272 -1.05762
4.95377 -3.37495 -1.05693
4.9612 -3.3572 -1.05626
4.9687 -3.33952 -1.05561
4.97631 -3.32194 -1.055
4.9839 -3.30436 -1.0544
4.99145 -3.2868 -1.0538
4.99897 -3.26923 -1.05321
5.00646 -3.25168 -1.05263
5.01523 -3.23497 -1.05233
5.02488 -3.21884 -1.05222
5.03452 -3.20271 -1.05212
5.04413 -3.18656 -1.05203
5.05372 -3.17041 -1.05194
5.06329 -3.15424 -1.05186
5.07284 -3.13806 -1.05179
5.08236 -3.12187 -1.05172
5.09186 -3.10567 -1.05166
5.10134 -3.08946 -1.0516
5.11079 -3.07323 -1.05155
5.12023 -3.057 -1.05151
5.12964 -3.04075 -1.05147
5.13903 -3.0245 -1.05144
5.1484 -3.00823 -1.05141
5.16047 -2.99353 -1.05195
5.17482 -2.98012 -1.05295
5.19341 -2.96909 -1.05483
5.21566 -2.96007 -1.05745
5.23799 -2.95098 -1.06009
5.26041 -2.94183 -1.06275
5.28293 -2.93263 -1.06542
5.30553 -2.92336 -1.06812
5.32822 -2.91404 -1.07084
5.35143 -2.90488 -1.07366
5.37506 -2.89584 -1.07656
5.39879 -2.88673 -1.07949
5.42264 -2.87757 -1.08244
5.45605 -2.87332 -1.0873
5.49137 -2.86988 -1.09253
5.52702 -2.86639 -1.09783
5.56301 -2.86286 -1.10318
5.59934 -2.8593 -1.10859
5.63601 -2.8557 -1.11407
5.67305 -2.85205 -1.11961
5.71044 -2.84837 -1.12521
5.74896 -2.84501 -1.13103
5.78803 -2.8417 -1.13695
5.8276 -2.83839 -1.14297
5.86794 -2.83522 -1.14912
5.9087 -2.832 -1.15535
5.94989 -2.82875 -1.16166
5.99153 -2.82545 -1.16805
6.03361 -2.82211 -1.17451
6.07616 -2.81873 -1.18106
6.11917 -2.81531 -1.18769
6.16266 -2.81184 -1.19441
6.2078 -2.80887 -1.20144
6.25357 -2.80589 -1.20858
6.30042 -2.80312 -1.21592
6.35677 -2.80425 -1.22509
6.41396 -2.80539 -1.2344
6.47201 -2.80654 -1.24387
6.53095 -2.8077 -1.25349
6.59078 -2.80888 -1.26327
6.6665 -2.81638 -1.27608
6.76216 -2.83174 -1.29268
4.73761 -4.08358 -1.15654
4.72004 -4.04261 -1.14914
4.71847 -4.01558 -1.14567
4.71831 -3.9899 -1.14258
4.71811 -3.96433 -1.1395
4.71789 -3.93887 -1.13645
4.71764 -3.91352 -1.13342
4.71735 -3.88828 -1.1304
4.71704 -3.86315 -1.12741
4.71669 -3.83812 -1.12443
4.71632 -3.8132 -1.12147
4.71596 -3.78842 -1.11855
4.71717 -3.76502 -1.11602
4.72055 -3.74344 -1.11402
4.72388 -3.72193 -1.11204
4.72718 -3.70046 -1.11007
4.73044 -3.67906 -1.10811
4.73366 -3.6577 -1.10616
4.73684 -3.6364 -1.10422
4.73998 -3.61516 -1.10229
4.74309 -3.59396 -1.10038
4.74615 -3.57282 -1.09848
4.74918 -3.55173 -1.09658
4.75244 -3.5309 -1.09476
4.75585 -3.51025 -1.093
4.76141 -3.49125 -1.09174
4.7691 -3.47386 -1.09099
4.77676 -3.45647 -1.09025
4.7844 -3.4391 -1.08952
4.79222 -3.4219 -1.08884
4.80001 -3.4047 -1.08817
4.80778 -3.3875 -1.08751
4.8155 -3.37031 -1.08685
4.8232 -3.35313 -1.0862
4.83087 -3.33595 -1.08556
4.8385 -3.31877 -1.08492
4.8461 -3.3016 -1.08429
4.85367 -3.28443 -1.08366
4.86121 -3.26727 -1.08304
4.86872 -3.25012 -1.08243
4.87658 -3.23321 -1.08191
4.88614 -3.21745 -1.08178
4.89569 -3.20169 -1.08166
4.90521 -3.18591 -1.08154
4.9147 -3.17013 -1.08143
4.92418 -3.15433 -1.08132
4.93363 -3.13852 -1.08122
4.94306 -3.12271 -1.08113
4.95246 -3.10688 -1.08104
4.96185 -3.09104 -1.08096
4.97121 -3.07519 -1.08088
4.98056 -3.05934 -1.08082
4.98991 -3.04348 -1.08076
4.99923 -3.02762 -1.08071
5.00854 -3.01175 -1.08067
5.01782 -2.99586 -1.08063
5.02708 -2.97996 -1.0806
5.03789 -2.96497 -1.08091
5.05124 -2.95146 -1.08178
5.06635 -2.93893 -1.08302
5.08155 -2.92641 -1.0843
5.09676 -2.91384 -1.08558
5.112 -2.90124 -1.08688
5.12725 -2.88859 -1.08818
5.14864 -2.87933 -1.09079
5.1771 -2.87388 -1.0949
5.20979 -2.87061 -1.0999
5.24276 -2.8673 -1.10495
5.27603 -2.86396 -1.11005
5.30961 -2.86058 -1.11522
5.34348 -2.85716 -1.12044
5.37767 -2.8537 -1.12572
5.41217 -2.85021 -1.13105
5.44699 -2.84668 -1.13645
5.48214 -2.84311 -1.14191
5.51762 -2.83951 -1.14743
5.55343 -2.83586 -1.15302
5.58958 -2.83217 -1.15867
5.62608 -2.82844 -1.16438
5.66323 -2.82482 -1.17023
5.70134 -2.82145 -1.17626
5.73984 -2.81804 -1.18237
5.77873 -2.81459 -1.18854
5.81802 -2.8111 -1.1948
5.85805 -2.80773 -1.2012
5.89861 -2.80437 -1.2077
5.93961 -2.80097 -1.21428
5.98104 -2.79752 -1.22095
6.02292 -2.79404 -1.22769
6.06526 -2.79051 -1.23453
6.10806 -2.78693 -1.24145
6.15196 -2.7836 -1.24858
6.19698 -2.7805 -1.25594
6.24253 -2.77736 -1.26339
6.2886 -2.77418 -1.27094
6.33704 -2.77175 -1.27896
6.39381 -2.77263 -1.28865
6.45143 -2.77352 -1.2985
6.50992 -2.77442 -1.3085
6.56931 -2.77532 -1.31868
6.6296 -2.77623 -1.32902
6.69075 -2.77711 -1.33952
6.741 -2.77312 -1.34783
6.82482 -2.78252 -1.36283
6.94791 -2.80722 -1.38563
7.49828 -3.00217 -1.4935
7.52899 -2.987 -1.49774
4.6172 -4.10823 -1.196
4.60189 -4.06873 -1.18871
4.59343 -4.03555 -1.18324
4.59338 -4.00996 -1.17997
4.59331 -3.98448 -1.17672
4.59321 -3.95912 -1.17349
4.59308 -3.93388 -1.17029
4.59293 -3.90875 -1.16711
4.59307 -3.884 -1.16403
4.59335 -3.8595 -1.16102
4.59361 -3.83511 -1.15803
4.59384 -3.81082 -1.15506
4.59404 -3.78664 -1.1521
4.59601 -3.76403 -1.14962
4.59881 -3.74219 -1.14737
4.60158 -3.72043 -1.14513
4.60436 -3.69877 -1.14292
4.60718 -3.67723 -1.14074
4.60997 -3.65575 -1.13858
4.61272 -3.63435 -1.13642
4.61544 -3.613 -1.13429
4.61813 -3.59171 -1.13216
4.62079 -3.57049 -1.13005
4.62342 -3.54933 -1.12796
4.62601 -3.52824 -1.12588
4.62858 -3.5072 -1.12381
4.63384 -3.48828 -1.12241
4.64051 -3.47047 -1.12138
4.64716 -3.45268 -1.12035
4.65377 -3.4349 -1.11933
4.66035 -3.41715 -1.11832
4.6669 -3.39942 -1.11732
4.67444 -3.38243 -1.11657
4.68219 -3.36563 -1.11589
4.68991 -3.34884 -1.11521
4.69759 -3.33205 -1.11453
4.70525 -3.31526 -1.11387
4.71288 -3.29848 -1.11321
4.72047 -3.28171 -1.11256
4.72803 -3.26493 -1.11191
4.73556 -3.24816 -1.11127
4.74306 -3.2314 -1.11064
4.75211 -3.21571 -1.11038
4.76157 -3.2003 -1.11023
4.77101 -3.18489 -1.11009
4.78042 -3.16946 -1.10995
4.78983 -3.15403 -1.10983
4.79923 -3.13861 -1.10971
4.8086 -3.12317 -1.1096
4.81795 -3.10772 -1.10949
4.82728 -3.09226 -1.10939
4.83658 -3.07679 -1.1093
4.84587 -3.06131 -1.10921
4.85513 -3.04581 -1.10913
4.86436 -3.03031 -1.10906
4.87358 -3.0148 -1.10899
4.88277 -2.99927 -1.10893
4.89194 -2.98373 -1.10887
4.90109 -2.96818 -1.10882
4.91364 -2.95468 -1.10955
4.9267 -2.94145 -1.1104
4.93976 -2.9282 -1.11126
4.95429 -2.91577 -1.11246
4.96912 -2.90347 -1.11373
4.98396 -2.89114 -1.11501
4.99881 -2.87876 -1.1163
5.02397 -2.87223 -1.1199
5.05134 -2.86681 -1.12398
5.0789 -2.86135 -1.1281
5.10665 -2.85584 -1.13227
5.13699 -2.85161 -1.137
5.16923 -2.84826 -1.14214
5.20177 -2.84488 -1.14735
5.23459 -2.84146 -1.15261
5.2677 -2.838 -1.15793
5.30112 -2.83451 -1.1633
5.33483 -2.83097 -1.16874
5.36886 -2.8274 -1.17424
5.40319 -2.82379 -1.1798
5.43785 -2.82014 -1.18542
5.47282 -2.81645 -1.19111
5.50813 -2.81272 -1.19686
5.54376 -2.80895 -1.20267
5.57974 -2.80514 -1.20855
5.61681 -2.80166 -1.21467
5.65437 -2.7982 -1.22088
5.6923 -2.7947 -1.22716
5.73062 -2.79116 -1.23352
5.76933 -2.78757 -1.23996
5.80843 -2.78394 -1.24647
5.84805 -2.78033 -1.25309
5.88842 -2.77683 -1.25986
5.92922 -2.77328 -1.26672
5.97045 -2.7697 -1.27366
6.01212 -2.76606 -1.28068
6.05425 -2.76238 -1.2878
6.09693 -2.7587 -1.29502
6.14123 -2.75549 -1.30258
6.18604 -2.75223 -1.31024
6.23136 -2.74892 -1.318
6.27721 -2.74558 -1.32587
6.3236 -2.74218 -1.33384
6.37359 -2.74006 -1.34255
6.43078 -2.74069 -1.35278
6.48883 -2.74132 -1.36317
6.54776 -2.74195 -1.37372
6.60759 -2.74259 -1.38446
6.66364 -2.7413 -1.39439
6.71343 -2.7371 -1.403
6.76383 -2.73285 -1.41172
6.81485 -2.72854 -1.42057
6.88225 -2.73041 -1.43282
4.49772 -4.10455 -1.23093
4.48891 -4.07069 -1.22501
4.48196 -4.03874 -1.21964
4.48074 -4.01216 -1.21586
4.47951 -3.98572 -1.21212
4.48021 -3.96114 -1.20893
4.48095 -3.93673 -1.20578
4.48167 -3.91243 -1.20265
4.48236 -3.88824 -1.19954
4.48302 -3.86414 -1.19646
4.48365 -3.84015 -1.19339
4.48426 -3.81626 -1.19035
4.48483 -3.79247 -1.18733
4.48676 -3.76994 -1.18469
4.48983 -3.74847 -1.18238
4.49286 -3.72706 -1.18008
4.49586 -3.70571 -1.1778
4.49882 -3.68443 -1.17553
4.50176 -3.66322 -1.17328
4.50465 -3.64206 -1.17104
4.50752 -3.62097 -1.16882
4.51039 -3.59997 -1.16661
4.51329 -3.57909 -1.16445
4.51617 -3.55827 -1.16229
4.51901 -3.53751 -1.16015
4.52183 -3.51681 -1.15803
4.52533 -3.49673 -1.1561
4.53209 -3.47922 -1.15502
4.53881 -3.46173 -1.15395
4.5455 -3.44425 -1.15289
4.55216 -3.42679 -1.15184
4.5588 -3.40935 -1.15079
4.5654 -3.39193 -1.14976
4.57196 -3.37452 -1.14873
4.5785 -3.35714 -1.14771
4.58501 -3.33976 -1.14671
4.59149 -3.32241 -1.1457
4.59794 -3.30507 -1.14471
4.60438 -3.28777 -1.14373
4.61081 -3.27049 -1.14277
4.61721 -3.25323 -1.14181
4.62358 -3.23599 -1.14086
4.63022 -3.21896 -1.13999
4.63807 -3.20281 -1.13944
4.6459 -3.18666 -1.13889
4.65408 -3.17077 -1.13844
4.66226 -3.15491 -1.13801
4.67042 -3.13904 -1.13758
4.67872 -3.12327 -1.1372
4.68799 -3.10817 -1.13707
4.69723 -3.09306 -1.13695
4.70646 -3.07794 -1.13683
4.71566 -3.0628 -1.13672
4.72484 -3.04766 -1.13661
4.73399 -3.0325 -1.13651
4.74313 -3.01734 -1.13642
4.75224 -3.00216 -1.13633
4.76132 -2.98697 -1.13625
4.77039 -2.97177 -1.13617
4.78086 -2.95744 -1.13644
4.79364 -2.94452 -1.13727
4.80642 -2.93157 -1.13811
4.81919 -2.91859 -1.13895
4.83197 -2.90557 -1.1398
4.84599 -2.89327 -1.14096
4.86046 -2.88119 -1.14222
4.8833 -2.87399 -1.14546
4.90962 -2.86871 -1.14951
4.93613 -2.86339 -1.1536
4.96281 -2.85803 -1.15773
4.98968 -2.85262 -1.16189
5.01674 -2.84717 -1.1661
5.04398 -2.84168 -1.17035
5.07142 -2.83614 -1.17464
5.09905 -2.83056 -1.17897
5.12918 -2.82619 -1.18387
5.16128 -2.82273 -1.18922
5.19366 -2.81924 -1.19463
5.22633 -2.81571 -1.2001
5.25928 -2.81214 -1.20563
5.29254 -2.80853 -1.21122
5.32609 -2.80488 -1.21687
5.35995 -2.8012 -1.22259
5.39413 -2.79747 -1.22837
5.42861 -2.7937 -1.23421
5.46342 -2.78989 -1.24012
5.49855 -2.78604 -1.2461
5.53433 -2.78231 -1.25222
5.57099 -2.77881 -1.25853
5.60801 -2.77526 -1.26491
5.6454 -2.77167 -1.27137
5.68315 -2.76804 -1.2779
5.72129 -2.76436 -1.28451
5.75982 -2.76064 -1.29121
5.79873 -2.75688 -1.29798
5.83805 -2.75307 -1.30483
5.87812 -2.74939 -1.31185
5.91872 -2.7457 -1.31897
5.95975 -2.74196 -1.32619
6.00122 -2.73818 -1.33349
6.04313 -2.73436 -1.34088
6.0863 -2.73084 -1.34855
6.13039 -2.72747 -1.35641
6.17497 -2.72405 -1.36437
6.22007 -2.72058 -1.37243
6.2657 -2.71707 -1.3806
6.31185 -2.71351 -1.38889
6.35855 -2.70991 -1.39728
6.41005 -2.70804 -1.40671
6.46766 -2.70841 -1.41748
6.52613 -2.70878 -1.42842
6.5855 -2.70915 -1.43954
6.63655 -2.70576 -1.44883
6.6859 -2.70136 -1.45774
6.73583 -2.6969 -1.46677
6.78638 -2.69238 -1.47592
4.40496 -4.09681 -1.26821
4.39679 -4.06347 -1.26217
4.39248 -4.03393 -1.25728
4.39162 -4.00772 -1.25341
4.39074 -3.98166 -1.24958
4.38984 -3.95573 -1.24577
4.38892 -3.92994 -1.242
4.38799 -3.90429 -1.23825
4.38705 -3.87877 -1.23453
4.38608 -3.85338 -1.23084
4.3851 -3.82813 -1.22718
4.384 -3.80291 -1.22351
4.38375 -3.77858 -1.22012
4.38635 -3.75681 -1.21754
4.38918 -3.73535 -1.21506
4.39199 -3.71396 -1.21259
4.39477 -3.69264 -1.21014
4.39751 -3.67139 -1.20771
4.40023 -3.65021 -1.20529
4.40291 -3.6291 -1.20289
4.40557 -3.60806 -1.20051
4.40841 -3.58726 -1.1982
4.41142 -3.56668 -1.19596
4.4144 -3.54617 -1.19374
4.41735 -3.52571 -1.19152
4.42029 -3.50534 -1.18934
4.4261 -3.4873 -1.18794
4.43291 -3.47011 -1.18683
4.43972 -3.45296 -1.18574
4.4465 -3.43582 -1.18465
4.45325 -3.41869 -1.18358
4.45996 -3.40159 -1.18251
4.46665 -3.3845 -1.18145
4.4733 -3.36743 -1.1804
4.47993 -3.35037 -1.17936
4.48652 -3.33333 -1.17833
4.49309 -3.31631 -1.17731
4.49962 -3.2993 -1.17629
4.50613 -3.2823 -1.17528
4.5126 -3.26533 -1.17429
4.51905 -3.24836 -1.1733
4.52546 -3.23142 -1.17231
4.53228 -3.21479 -1.17145
4.54012 -3.19891 -1.17087
4.54793 -3.18304 -1.17029
4.55572 -3.16717 -1.16973
4.56348 -3.15131 -1.16917
4.57122 -3.13544 -1.16862
4.57893 -3.11958 -1.16807
4.58662 -3.10372 -1.16753
4.59449 -3.088 -1.16706
4.60252 -3.07241 -1.16663
4.61053 -3.05681 -1.16622
4.61851 -3.04122 -1.16581
4.62647 -3.02563 -1.16541
4.63441 -3.01003 -1.16502
4.64232 -2.99443 -1.16463
4.65021 -2.97883 -1.16425
4.65808 -2.96323 -1.16388
4.66821 -2.94908 -1.16409
4.68014 -2.93604 -1.16475
4.69207 -2.92297 -1.16542
4.70399 -2.90989 -1.1661
4.71591 -2.89677 -1.16679
4.72783 -2.88364 -1.16749
4.74814 -2.87555 -1.17026
4.77349 -2.87041 -1.17428
4.79901 -2.86522 -1.17833
4.8247 -2.85999 -1.18242
4.85055 -2.85472 -1.18655
4.87659 -2.84941 -1.19072
4.90279 -2.84406 -1.19492
4.92918 -2.83866 -1.19917
4.95575 -2.83322 -1.20346
4.9825 -2.82774 -1.20778
5.00943 -2.82221 -1.21215
5.03655 -2.81664 -1.21657
5.06387 -2.81102 -1.22102
5.09137 -2.80536 -1.22552
5.12128 -2.80086 -1.23059
5.15323 -2.79729 -1.23614
5.18546 -2.79369 -1.24176
5.21797 -2.79005 -1.24743
5.25077 -2.78637 -1.25317
5.28387 -2.78264 -1.25897
5.31726 -2.77888 -1.26484
5.35096 -2.77508 -1.27077
5.38496 -2.77124 -1.27677
5.41928 -2.76736 -1.28283
5.45391 -2.76343 -1.28896
5.48962 -2.75984 -1.29534
5.52576 -2.75625 -1.30182
5.56225 -2.75262 -1.30837
5.5991 -2.74894 -1.31499
5.63631 -2.74522 -1.32169
5.67389 -2.74146 -1.32848
5.71185 -2.73766 -1.33534
5.75019 -2.7338 -1.34228
5.78892 -2.72991 -1.34931
5.82805 -2.72597 -1.35643
5.86771 -2.72203 -1.36366
5.90811 -2.71821 -1.37105
5.94894 -2.71433 -1.37853
5.99019 -2.7104 -1.38611
6.03217 -2.70655 -1.39384
6.07555 -2.70307 -1.40189
6.11941 -2.69954 -1.41005
6.16378 -2.69596 -1.41831
6.20866 -2.69234 -1.42668
6.25405 -2.68866 -1.43516
6.29997 -2.68494 -1.44375
6.34644 -2.68117 -1.45245
6.39346 -2.67734 -1.46128
6.44639 -2.67569 -1.47144
6.50441 -2.6758 -1.48276
6.56116 -2.67502 -1.49377
6.60949 -2.67049 -1.50285
6.65838 -2.66589 -1.51205
6.70786 -2.66123 -1.52138
4.32185 -4.12223 -1.31107
4.31387 -4.08876 -1.30473
4.3062 -4.05583 -1.29854
4.30453 -4.02876 -1.29421
4.304 -4.00292 -1.29026
4.30346 -3.97723 -1.28633
4.3029 -3.95167 -1.28244
4.30233 -3.92624 -1.27858
4.30142 -3.90066 -1.27465
4.30046 -3.8752 -1.27075
4.29949 -3.84987 -1.26688
4.29851 -3.82467 -1.26303
4.29751 -3.7996 -1.25922
4.29871 -3.77662 -1.25608
4.30142 -3.75507 -1.25341
4.3041 -3.73361 -1.25076
4.30676 -3.71221 -1.24813
4.30938 -3.69089 -1.24552
4.31209 -3.66974 -1.24295
4.315 -3.64885 -1.24047
4.31788 -3.62804 -1.23801
4.32073 -3.60729 -1.23557
4.32355 -3.5866 -1.23314
4.32634 -3.56598 -1.23073
4.3291 -3.54543 -1.22833
4.33183 -3.52494 -1.22595
4.33453 -3.50452 -1.22359
4.33979 -3.48623 -1.22197
4.34577 -3.46858 -1.22057
4.35172 -3.45096 -1.21918
4.35764 -3.43337 -1.21781
4.36353 -3.4158 -1.21644
4.36939 -3.39826 -1.21509
4.37522 -3.38074 -1.21374
4.38103 -3.36325 -1.21241
4.3868 -3.34579 -1.21109
4.39255 -3.32835 -1.20978
4.39826 -3.31094 -1.20847
4.40395 -3.29355 -1.20718
4.41028 -3.27668 -1.20608
4.41679 -3.25999 -1.20505
4.42328 -3.24332 -1.20403
4.42974 -3.22667 -1.20302
4.43676 -3.21045 -1.20217
4.44458 -3.19484 -1.20156
4.45238 -3.17924 -1.20096
4.46016 -3.16363 -1.20036
4.46791 -3.14803 -1.19978
4.47563 -3.13244 -1.1992
4.48333 -3.11685 -1.19862
4.491 -3.10125 -1.19806
4.49865 -3.08567 -1.1975
4.50628 -3.07008 -1.19695
4.51388 -3.0545 -1.19641
4.52145 -3.03891 -1.19588
4.529 -3.02333 -1.19535
4.53656 -3.00778 -1.19484
4.54444 -2.99245 -1.19443
4.5523 -2.97712 -1.19403
4.56014 -2.96179 -1.19363
4.56996 -2.94776 -1.19377
4.58076 -2.93435 -1.19417
4.59155 -2.92091 -1.19458
4.60277 -2.90774 -1.19511
4.6145 -2.89486 -1.19578
4.62622 -2.88196 -1.19646
4.64299 -2.87216 -1.19846
4.66516 -2.8656 -1.20184
4.68744 -2.859 -1.20526
4.70985 -2.85236 -1.2087
4.73638 -2.84809 -1.21321
4.76552 -2.84522 -1.21837
4.79256 -2.84094 -1.22299
4.81813 -2.83564 -1.22723
4.84388 -2.8303 -1.23151
4.86979 -2.82491 -1.23584
4.89588 -2.81949 -1.2402
4.92215 -2.81402 -1.2446
4.9486 -2.8085 -1.24905
4.97523 -2.80294 -1.25354
5.00204 -2.79734 -1.25807
5.02904 -2.79169 -1.26264
5.05623 -2.786 -1.26726
5.0836 -2.78026 -1.27192
5.11328 -2.77561 -1.27715
5.14508 -2.77194 -1.28291
5.17716 -2.76822 -1.28873
5.20952 -2.76447 -1.29461
5.24216 -2.76068 -1.30056
5.2751 -2.75685 -1.30657
5.30833 -2.75297 -1.31265
5.34186 -2.74906 -1.31879
5.3757 -2.7451 -1.325
5.41019 -2.74128 -1.33137
5.44548 -2.73765 -1.33793
5.48111 -2.73397 -1.34456
5.51708 -2.73026 -1.35127
5.5534 -2.7265 -1.35806
5.59007 -2.7227 -1.36492
5.62711 -2.71886 -1.37187
5.66452 -2.71497 -1.3789
5.70229 -2.71103 -1.38601
5.74045 -2.70705 -1.3932
5.779 -2.70302 -1.40049
5.81793 -2.69894 -1.40786
5.85727 -2.69482 -1.41532
5.89737 -2.6908 -1.42295
5.93799 -2.68678 -1.43071
5.97905 -2.68271 -1.43856
6.02149 -2.67902 -1.44673
6.06465 -2.67538 -1.45507
6.1083 -2.6717 -1.46352
6.15245 -2.66796 -1.47208
6.1971 -2.66418 -1.48074
6.24226 -2.66034 -1.48953
6.28796 -2.65646 -1.49843
6.33419 -2.65252 -1.50745
6.38095 -2.64852 -1.51659
6.42828 -2.64448 -1.52585
6.4826 -2.64299 -1.53676
6.53454 -2.64021 -1.54709
6.58242 -2.63548 -1.55646
6.63088 -2.63069 -1.56595
4.23171 -4.11327 -1.34695
4.22434 -4.08032 -1.34051
4.21821 -4.04881 -1.33451
4.21783 -4.023 -1.33038
4.21731 -3.99723 -1.32624
4.21677 -3.9716 -1.32213
4.21622 -3.9461 -1.31806
4.21564 -3.92074 -1.31401
4.21505 -3.89551 -1.31
4.21443 -3.87041 -1.30601
4.2138 -3.84545 -1.30206
4.21315 -3.82062 -1.29814
4.21248 -3.79592 -1.29424
4.21512 -3.77431 -1.29139
4.21804 -3.75307 -1.28866
4.22092 -3.73189 -1.28595
4.22378 -3.71079 -1.28325
4.2266 -3.68976 -1.28057
4.22939 -3.6688 -1.27792
4.23216 -3.64791 -1.27527
4.23489 -3.62709 -1.27265
4.23759 -3.60634 -1.27004
4.24039 -3.58577 -1.26749
4.24337 -3.56543 -1.26502
4.24631 -3.54516 -1.26257
4.24923 -3.52495 -1.26013
4.25211 -3.5048 -1.2577
4.25741 -3.48672 -1.25602
4.26347 -3.46932 -1.25458
4.26949 -3.45193 -1.25315
4.27549 -3.43458 -1.25172
4.28145 -3.41725 -1.25032
4.28739 -3.39994 -1.24892
4.29329 -3.38267 -1.24753
4.29916 -3.36541 -1.24615
4.30501 -3.34818 -1.24478
4.31083 -3.33098 -1.24343
4.31665 -3.31383 -1.24209
4.32254 -3.29678 -1.24079
4.3284 -3.27975 -1.23951
4.33423 -3.26274 -1.23823
4.34003 -3.24575 -1.23696
