ply
format ascii 1.0
comment Created by Open3D
element vertex 1755
property double x
property double y
property double z
end_header
-7.47913 0.777527 -1.58525
-7.44568 0.7504 -1.57765
-7.41251 0.723526 -1.57013
-7.3796 0.696902 -1.56269
-7.34659 0.670491 -1.55524
-7.31379 0.644316 -1.54786
-7.30298 0.620234 -1.54515
-7.29737 0.596659 -1.54356
-7.29174 0.573129 -1.54198
-7.28608 0.549641 -1.54041
-7.28039 0.526202 -1.53885
-7.27468 0.502807 -1.5373
-7.26894 0.479452 -1.53577
-7.26298 0.456129 -1.5342
-7.25665 0.432836 -1.53256
-7.25028 0.409586 -1.53094
-7.2439 0.386386 -1.52933
-7.23749 0.363233 -1.52773
-7.23302 0.340212 -1.52655
-7.22961 0.31728 -1.52561
-7.22618 0.294371 -1.52468
-7.22271 0.27149 -1.52376
-7.2192 0.248632 -1.52285
-7.21566 0.225802 -1.52195
-7.21209 0.202999 -1.52105
-7.20849 0.180223 -1.52017
-7.20497 0.157472 -1.51931
-7.2019 0.134751 -1.51857
-7.1988 0.112058 -1.51783
-7.19566 0.0893846 -1.5171
-7.19249 0.0667326 -1.51638
-7.18929 0.0440982 -1.51567
-7.18605 0.0214898 -1.51497
-7.18302 -0.0011046 -1.51432
-7.18629 -0.0236974 -1.51502
-7.18953 -0.0463092 -1.51573
-7.19273 -0.0689455 -1.51644
-7.1959 -0.0915976 -1.51716
-7.19904 -0.114274 -1.51789
-7.20214 -0.136969 -1.51863
-7.20521 -0.159687 -1.51937
-7.20877 -0.182445 -1.52024
-7.21238 -0.205227 -1.52113
-7.21595 -0.228031 -1.52202
-7.21949 -0.250863 -1.52293
-7.22299 -0.273723 -1.52384
-7.22646 -0.296607 -1.52476
-7.2299 -0.319517 -1.52569
-7.2333 -0.342453 -1.52663
-7.238 -0.365487 -1.52786
-7.24441 -0.388646 -1.52946
-7.2508 -0.411853 -1.53108
-7.25716 -0.435104 -1.5327
-7.40375 0.840343 -1.63567
-7.37108 0.813172 -1.62788
-7.33868 0.786256 -1.62018
-7.30654 0.759585 -1.61254
-7.27447 0.733144 -1.60495
-7.24243 0.706925 -1.59738
-7.21065 0.680947 -1.58989
-7.17914 0.655208 -1.58248
-7.15181 0.630046 -1.57601
-7.14651 0.606946 -1.57442
-7.14118 0.583888 -1.57283
-7.13583 0.560874 -1.57126
-7.13013 0.537876 -1.56962
-7.1242 0.514913 -1.56795
-7.11824 0.491994 -1.56629
-7.11225 0.469117 -1.56464
-7.10624 0.446286 -1.56301
-7.10021 0.423505 -1.56138
-7.09415 0.400766 -1.55976
-7.08806 0.378075 -1.55815
-7.08195 0.355427 -1.55655
-7.07781 0.332912 -1.55541
-7.07458 0.310476 -1.55448
-7.07131 0.288062 -1.55355
-7.06812 0.265679 -1.55266
-7.06536 0.243333 -1.55188
-7.06256 0.221011 -1.5511
-7.05974 0.198711 -1.55034
-7.05687 0.176432 -1.54958
-7.05398 0.154171 -1.54883
-7.05104 0.131928 -1.54809
-7.04808 0.109712 -1.54735
-7.04508 0.087514 -1.54662
-7.04205 0.0653367 -1.54591
-7.03898 0.0431762 -1.5452
-7.03588 0.0210407 -1.54449
-7.03296 -0.00108153 -1.54385
-7.0361 -0.0232021 -1.54454
-7.0392 -0.0453409 -1.54525
-7.04227 -0.0675032 -1.54596
-7.0453 -0.0896806 -1.54668
-7.0483 -0.111882 -1.54741
-7.05126 -0.1341 -1.54814
-7.0542 -0.15634 -1.54889
-7.05709 -0.178606 -1.54964
-7.05996 -0.20089 -1.5504
-7.06279 -0.223191 -1.55117
-7.06558 -0.245515 -1.55194
-7.06834 -0.267863 -1.55273
-7.07157 -0.29025 -1.55363
-7.07483 -0.312664 -1.55455
-7.07807 -0.335104 -1.55549
-7.08242 -0.357631 -1.55668
-7.08853 -0.380283 -1.55828
-7.09462 -0.402982 -1.55989
-7.10068 -0.425722 -1.56151
-7.37083 0.860083 -1.69376
-7.23381 0.821055 -1.66167
-7.20264 0.79459 -1.65393
-7.17135 0.768328 -1.64618
-7.14031 0.742303 -1.63851
-7.10952 0.71652 -1.63092
-7.07896 0.690969 -1.62341
-7.04865 0.665648 -1.61597
-7.02245 0.640908 -1.60949
-7.00828 0.617402 -1.60579
-7.00391 0.594834 -1.60435
-6.99952 0.572306 -1.60292
-6.99512 0.549815 -1.60151
-6.99071 0.527359 -1.60012
-6.98629 0.504946 -1.59873
-6.98186 0.482568 -1.59736
-6.97741 0.460223 -1.59601
-6.97296 0.437915 -1.59467
-6.96849 0.415648 -1.59334
-6.96401 0.393414 -1.59202
-6.95906 0.371194 -1.59062
-6.95186 0.348898 -1.58871
-6.95036 0.326917 -1.58813
-6.94917 0.304973 -1.58763
-6.94754 0.28302 -1.58705
-6.9459 0.261085 -1.58647
-6.94423 0.239161 -1.58591
-6.94255 0.217256 -1.58537
-6.94085 0.195364 -1.58483
-6.93913 0.173488 -1.5843
-6.93739 0.151623 -1.58379
-6.93563 0.129768 -1.58329
-6.93385 0.107934 -1.5828
-6.93205 0.08611 -1.58232
-6.93024 0.0642993 -1.58185
-6.9284 0.0424979 -1.58139
-6.92655 0.0207138 -1.58095
-6.9248 -0.0010649 -1.58054
-6.92668 -0.0228413 -1.58098
-6.92853 -0.0446281 -1.58142
-6.93037 -0.0664307 -1.58188
-6.93219 -0.0882408 -1.58235
-6.93399 -0.110067 -1.58284
-6.93577 -0.131903 -1.58333
-6.93753 -0.153755 -1.58383
-6.93928 -0.175625 -1.58435
-6.941 -0.197505 -1.58488
-6.94271 -0.219396 -1.58542
-6.94439 -0.241304 -1.58597
-6.94606 -0.263229 -1.58653
-6.94771 -0.285166 -1.5871
-6.94934 -0.307118 -1.58769
-6.95046 -0.329062 -1.58817
-6.95242 -0.351066 -1.58887
-6.95963 -0.373367 -1.59077
-6.9644 -0.395585 -1.59214
-6.96888 -0.41782 -1.59346
-7.35501 0.881688 -1.75565
-7.1846 0.838352 -1.71433
-7.11973 0.808106 -1.69824
-7.08745 0.781882 -1.68995
-7.06158 0.756568 -1.6832
-7.03738 0.731603 -1.67688
-7.01335 0.706826 -1.67061
-6.98947 0.682234 -1.66441
-6.96575 0.657819 -1.65826
-6.94218 0.633582 -1.65216
-6.93541 0.610982 -1.65009
-6.93114 0.588655 -1.64862
-6.92687 0.566365 -1.64717
-6.92258 0.544113 -1.64574
-6.91827 0.521895 -1.64432
-6.91396 0.499718 -1.64291
-6.90964 0.477576 -1.64152
-6.90275 0.455298 -1.63954
-6.89576 0.433067 -1.63754
-6.88876 0.410893 -1.63557
-6.88176 0.388768 -1.63361
-6.87476 0.366697 -1.63166
-6.86985 0.344782 -1.63023
-6.86932 0.323106 -1.62986
-6.86878 0.301445 -1.6295
-6.86821 0.279789 -1.62915
-6.86762 0.258143 -1.62881
-6.86701 0.236502 -1.62848
-6.86545 0.214843 -1.62794
-6.86379 0.193195 -1.62739
-6.86212 0.171563 -1.62686
-6.86042 0.149941 -1.62634
-6.85871 0.128329 -1.62583
-6.85697 0.106737 -1.62533
-6.85522 0.0851556 -1.62484
-6.85344 0.0635869 -1.62437
-6.85165 0.0420272 -1.6239
-6.84984 0.0204844 -1.62345
-6.84813 -0.00105311 -1.62304
-6.84997 -0.0225883 -1.62348
-6.85178 -0.0441337 -1.62393
-6.85358 -0.0656945 -1.6244
-6.85535 -0.0872627 -1.62488
-6.85711 -0.108847 -1.62537
-6.85885 -0.13044 -1.62587
-6.86056 -0.152049 -1.62638
-6.86226 -0.173675 -1.62691
-6.86394 -0.195312 -1.62744
-6.8656 -0.21696 -1.62799
-6.8671 -0.238618 -1.62851
-6.86771 -0.26026 -1.62884
-6.8683 -0.281907 -1.62919
-6.86887 -0.303562 -1.62954
-6.86942 -0.325226 -1.62991
-6.86995 -0.346902 -1.63028
-6.8753 -0.368843 -1.63182
-6.88231 -0.390922 -1.63377
-6.88931 -0.413049 -1.63573
-7.36869 0.906832 -1.82489
-7.21939 0.865431 -1.78723
-7.09874 0.828333 -1.75671
-7.0631 0.801679 -1.74725
-7.03135 0.775693 -1.73879
-6.99989 0.749958 -1.73042
-6.96871 0.724464 -1.72214
-6.93783 0.699217 -1.71395
-6.90959 0.674436 -1.70645
-6.88643 0.650328 -1.70021
-6.86791 0.626803 -1.69515
-6.86376 0.60467 -1.69364
-6.8596 0.582578 -1.69216
-6.85334 0.560354 -1.69017
-6.84657 0.538137 -1.68808
-6.83979 0.515974 -1.686
-6.833 0.493867 -1.68393
-6.82621 0.47181 -1.68188
-6.81941 0.449802 -1.67985
-6.8126 0.427845 -1.67784
-6.80579 0.405944 -1.67584
-6.79898 0.384091 -1.67385
-6.79215 0.362291 -1.67188
-6.79035 0.340792 -1.67117
-6.78985 0.319367 -1.67079
-6.78933 0.297958 -1.67042
-6.78879 0.276553 -1.67007
-6.78822 0.255158 -1.66972
-6.78763 0.233768 -1.66939
-6.78702 0.212389 -1.66907
-6.78639 0.191017 -1.66876
-6.78574 0.169654 -1.66846
-6.78486 0.14829 -1.66811
-6.78318 0.126916 -1.6676
-6.78149 0.105562 -1.66709
-6.77978 0.0842184 -1.6666
-6.77804 0.0628873 -1.66611
-6.77629 0.0415649 -1.66564
-6.77452 0.0202575 -1.66518
-6.77285 -0.00104153 -1.66476
-6.77464 -0.0223399 -1.66521
-6.77642 -0.0436483 -1.66568
-6.77817 -0.0649717 -1.66615
-6.7799 -0.0863024 -1.66663
-6.78162 -0.107649 -1.66713
-6.78331 -0.129004 -1.66764
-6.78499 -0.150374 -1.66816
-6.78582 -0.171741 -1.66849
-6.78647 -0.193108 -1.66879
-6.7871 -0.214479 -1.6691
-6.78771 -0.235859 -1.66943
-6.7883 -0.257251 -1.66976
-6.78887 -0.278647 -1.67011
-6.78942 -0.300051 -1.67047
-6.78994 -0.321463 -1.67084
-6.79045 -0.342887 -1.67122
-6.79266 -0.36441 -1.67204
-6.79949 -0.386218 -1.67401
-6.80631 -0.408073 -1.67599
-7.25424 0.892747 -1.86109
-7.15643 0.857883 -1.8353
-7.03864 0.821321 -1.80442
-7.00713 0.795327 -1.79569
-6.9759 0.769576 -1.78706
-6.94496 0.744073 -1.77852
-6.91429 0.718806 -1.77008
-6.88389 0.69378 -1.76173
-6.85377 0.668988 -1.75348
-6.82544 0.644569 -1.7457
-6.81099 0.621608 -1.7415
-6.79874 0.598942 -1.73788
-6.78653 0.576373 -1.73428
-6.77437 0.553897 -1.73072
-6.76417 0.53166 -1.72768
-6.75757 0.509772 -1.72558
-6.75097 0.487937 -1.72349
-6.74435 0.466152 -1.72142
-6.73773 0.444414 -1.71937
-6.73111 0.422727 -1.71733
-6.72447 0.401094 -1.7153
-6.71783 0.379507 -1.7133
-6.71282 0.358059 -1.71172
-6.71236 0.336878 -1.71133
-6.71188 0.3157 -1.71094
-6.71138 0.294537 -1.71057
-6.71086 0.273379 -1.71021
-6.71032 0.25223 -1.70986
-6.70975 0.231086 -1.70953
-6.70917 0.209952 -1.7092
-6.70856 0.188826 -1.70889
-6.70793 0.167708 -1.70858
-6.70728 0.146594 -1.70829
-6.7066 0.125483 -1.70801
-6.70591 0.104385 -1.70774
-6.70519 0.083292 -1.70748
-6.70399 0.0622002 -1.70712
-6.70227 0.0411109 -1.70664
-6.70054 0.0200363 -1.70618
-6.6989 -0.00103016 -1.70575
-6.70066 -0.0220959 -1.70621
-6.70239 -0.0431715 -1.70667
-6.70411 -0.0642618 -1.70715
-6.70525 -0.0853521 -1.70751
-6.70597 -0.106448 -1.70777
-6.70667 -0.127546 -1.70804
-6.70735 -0.148653 -1.70832
-6.708 -0.169771 -1.70861
-6.70863 -0.190893 -1.70892
-6.70924 -0.212019 -1.70924
-6.70983 -0.233153 -1.70956
-6.7104 -0.254298 -1.7099
-6.71094 -0.275448 -1.71025
-6.71147 -0.296606 -1.71062
-6.71197 -0.317772 -1.71099
-6.71245 -0.338949 -1.71138
-6.71291 -0.360132 -1.71177
-6.71832 -0.381608 -1.71345
-6.72497 -0.403196 -1.71546
-7.19037 0.884887 -1.90896
-7.05632 0.845883 -1.87265
-6.98281 0.814806 -1.85246
-6.95182 0.789048 -1.84357
-6.9211 0.76353 -1.83477
-6.89065 0.738255 -1.82608
-6.86224 0.713395 -1.81794
-6.83407 0.688758 -1.8099
-6.80613 0.664339 -1.80194
-6.79057 0.641276 -1.79728
-6.77841 0.618635 -1.79354
-6.76629 0.596083 -1.78982
-6.75421 0.573628 -1.78614
-6.74217 0.551264 -1.78249
-6.73017 0.52899 -1.77887
-6.71821 0.506802 -1.77528
-6.70629 0.484708 -1.77172
-6.6944 0.4627 -1.76819
-6.68256 0.440775 -1.76468
-6.67075 0.418936 -1.76121
-6.65898 0.397187 -1.75776
-6.64896 0.375616 -1.75479
-6.64545 0.354465 -1.75357
-6.64462 0.333478 -1.75306
-6.64379 0.312497 -1.75257
-6.64295 0.291534 -1.7521
-6.64211 0.270578 -1.75165
-6.64126 0.249635 -1.75121
-6.64042 0.228698 -1.75079
-6.63957 0.207774 -1.75038
-6.63871 0.18686 -1.74999
-6.63785 0.165956 -1.74962
-6.63699 0.145058 -1.74927
-6.63612 0.124165 -1.74893
-6.63526 0.103286 -1.7486
-6.63438 0.0824124 -1.7483
-6.63351 0.0615462 -1.748
-6.63263 0.0406837 -1.74773
-6.63174 0.0198306 -1.74747
-6.63088 -0.0010197 -1.74724
-6.63181 -0.0218689 -1.74749
-6.63269 -0.0427223 -1.74775
-6.63358 -0.0635853 -1.74803
-6.63446 -0.0844502 -1.74832
-6.63534 -0.105326 -1.74863
-6.63622 -0.126206 -1.74896
-6.63709 -0.147096 -1.7493
-6.63795 -0.167998 -1.74966
-6.63882 -0.188906 -1.75004
-6.63968 -0.20982 -1.75043
-6.64054 -0.230745 -1.75084
-6.64139 -0.251683 -1.75126
-6.64224 -0.272628 -1.7517
-6.64309 -0.293584 -1.75216
-6.64393 -0.31455 -1.75264
-6.64477 -0.335531 -1.75313
-6.64561 -0.356521 -1.75364
-6.64964 -0.377707 -1.75501
-6.65982 -0.39929 -1.75802
-7.11479 0.875586 -1.95275
-6.9584 0.834144 -1.90909
-6.92788 0.808397 -1.90002
-6.89917 0.783073 -1.89146
-6.8707 0.757971 -1.88299
-6.84247 0.733092 -1.87461
-6.81447 0.708429 -1.86632
-6.7867 0.683985 -1.85812
-6.77011 0.660822 -1.853
-6.75803 0.638203 -1.84913
-6.746 0.615678 -1.8453
-6.734 0.593239 -1.8415
-6.72205 0.570896 -1.83773
-6.71013 0.548644 -1.83399
-6.69934 0.526566 -1.83058
-6.69003 0.504677 -1.8276
-6.68075 0.482862 -1.82464
-6.6715 0.461117 -1.82171
-6.66227 0.439437 -1.8188
-6.65306 0.417825 -1.81592
-6.64388 0.396287 -1.81306
-6.63473 0.374812 -1.81023
-6.63205 0.35375 -1.80919
-6.63123 0.332806 -1.80867
-6.6304 0.311867 -1.80817
-6.62957 0.290946 -1.80769
-6.62873 0.270033 -1.80722
-6.62789 0.249132 -1.80677
-6.62705 0.228237 -1.80633
-6.6262 0.207356 -1.80591
-6.62535 0.186484 -1.80551
-6.6245 0.165622 -1.80513
-6.62364 0.144766 -1.80476
-6.62277 0.123915 -1.80441
-6.62182 0.103076 -1.80406
-6.62087 0.0822444 -1.80372
-6.61991 0.0614201 -1.80339
-6.61894 0.0405998 -1.80309
-6.61798 0.019791 -1.8028
-6.61707 -0.00101757 -1.80254
-6.61804 -0.0218235 -1.80282
-6.61902 -0.0426344 -1.80311
-6.61998 -0.0634554 -1.80342
-6.62095 -0.084279 -1.80375
-6.62191 -0.105113 -1.80409
-6.62287 -0.125953 -1.80445
-6.62374 -0.1468 -1.8048
-6.6246 -0.167661 -1.80517
-6.62546 -0.188526 -1.80556
-6.62632 -0.209398 -1.80596
-6.62717 -0.23028 -1.80638
-6.62802 -0.251176 -1.80682
-6.62886 -0.272079 -1.80728
-6.6297 -0.292992 -1.80775
-6.63054 -0.313916 -1.80824
-6.63137 -0.334854 -1.80874
-6.6322 -0.355802 -1.80926
-6.63541 -0.376898 -1.81045
-6.64457 -0.398376 -1.81328
-7.04121 0.866531 -1.99603
-6.93772 0.831665 -1.96595
-6.90273 0.805462 -1.95531
-6.86814 0.779551 -1.9448
-6.83391 0.753912 -1.93443
-6.80005 0.728547 -1.92418
-6.76715 0.70351 -1.91424
-6.75038 0.680323 -1.90888
-6.74093 0.657974 -1.90562
-6.73151 0.635698 -1.90238
-6.72212 0.613498 -1.89917
-6.71275 0.591366 -1.89599
-6.70341 0.569313 -1.89283
-6.69409 0.547333 -1.88971
-6.6848 0.525424 -1.88661
-6.67554 0.503583 -1.88354
-6.66631 0.481818 -1.8805
-6.65709 0.460121 -1.87748
-6.64791 0.438489 -1.87449
-6.63874 0.416926 -1.87153
-6.62961 0.395435 -1.8686
-6.62049 0.374008 -1.86569
-6.61865 0.353036 -1.86485
-6.61783 0.332134 -1.86431
-6.617 0.311237 -1.86379
-6.61618 0.290359 -1.86329
-6.61535 0.269488 -1.86281
-6.61451 0.248629 -1.86235
-6.61361 0.227775 -1.86188
-6.61268 0.206933 -1.86143
-6.61175 0.186101 -1.86099
-6.61081 0.16528 -1.86058
-6.60988 0.144465 -1.86017
-6.60893 0.123656 -1.85979
-6.60799 0.102861 -1.85942
-6.60704 0.0820727 -1.85907
-6.60608 0.0612918 -1.85874
-6.60512 0.040515 -1.85843
-6.60416 0.0197497 -1.85813
-6.60325 -0.00101545 -1.85787
-6.60423 -0.021778 -1.85815
-6.60519 -0.0425454 -1.85845
-6.60616 -0.0633229 -1.85877
-6.60712 -0.0841029 -1.8591
-6.60807 -0.104894 -1.85946
-6.60903 -0.125689 -1.85983
-6.60997 -0.146495 -1.86021
-6.61092 -0.167314 -1.86062
-6.61186 -0.188139 -1.86104
-6.6128 -0.208971 -1.86148
-6.61373 -0.229814 -1.86194
-6.61464 -0.250669 -1.86241
-6.61548 -0.27153 -1.86287
-6.61631 -0.292401 -1.86336
-6.61714 -0.313282 -1.86386
-6.61797 -0.334178 -1.86438
-6.6188 -0.355083 -1.86492
-6.62117 -0.376089 -1.86591
-6.63029 -0.397519 -1.86882
-7.1783 0.906318 -2.10074
-7.0395 0.866321 -2.05932
-6.93331 0.831137 -2.02748
-6.89838 0.804954 -2.01651
-6.86383 0.779062 -2.00569
-6.82965 0.753441 -1.99499
-6.79582 0.728095 -1.98444
-6.76403 0.703185 -1.9745
-6.7464 0.679924 -1.96872
-6.7361 0.657503 -1.9651
-6.72584 0.635163 -1.96151
-6.71562 0.612905 -1.95796
-6.70544 0.590722 -1.95444
-6.69529 0.568624 -1.95095
-6.68517 0.546603 -1.94749
-6.67509 0.524661 -1.94407
-6.66505 0.502792 -1.94067
-6.65504 0.481004 -1.93731
-6.64506 0.459289 -1.93397
-6.63511 0.437646 -1.93067
-6.6252 0.416076 -1.92739
-6.61532 0.394583 -1.92415
-6.60626 0.373204 -1.92116
-6.60518 0.352318 -1.92052
-6.60428 0.331454 -1.91995
-6.60338 0.310597 -1.91939
-6.60248 0.289758 -1.91885
-6.60157 0.268927 -1.91833
-6.60065 0.248108 -1.91783
-6.59973 0.227297 -1.91735
-6.59881 0.206499 -1.91688
-6.59789 0.185711 -1.91643
-6.59696 0.164934 -1.916
-6.59602 0.144163 -1.91559
-6.59509 0.123397 -1.9152
-6.59415 0.102646 -1.91482
-6.5932 0.0819008 -1.91446
-6.59225 0.0611635 -1.91412
-6.5913 0.0404302 -1.9138
-6.59034 0.0197084 -1.91349
-6.58943 -0.00101332 -1.91322
-6.5904 -0.0217324 -1.91351
-6.59137 -0.0424563 -1.91382
-6.59233 -0.0631903 -1.91415
-6.59328 -0.0839268 -1.91449
-6.59423 -0.104674 -1.91485
-6.59518 -0.125426 -1.91523
-6.59612 -0.146188 -1.91563
-6.59706 -0.166964 -1.91605
-6.598 -0.187745 -1.91648
-6.59893 -0.208533 -1.91693
-6.59986 -0.229332 -1.9174
-6.60078 -0.250144 -1.91789
-6.6017 -0.270964 -1.91839
-6.60262 -0.291795 -1.91892
-6.60353 -0.312637 -1.91946
-6.60443 -0.333495 -1.92002
-6.60534 -0.354361 -1.9206
-6.60693 -0.37528 -1.92139
-6.61606 -0.396666 -1.9244
-7.17543 0.905956 -2.16524
-7.03779 0.86611 -2.12287
-6.9289 0.830608 -2.08923
-6.89401 0.804444 -2.07793
-6.85951 0.778571 -2.06679
-6.82537 0.752969 -2.05578
-6.79343 0.727839 -2.04546
-6.76241 0.703017 -2.03544
-6.74369 0.679651 -2.02915
-6.7334 0.657239 -2.02543
-6.72315 0.634909 -2.02173
-6.71294 0.61266 -2.01807
-6.70276 0.590487 -2.01445
-6.69262 0.568397 -2.01085
-6.68252 0.546386 -2.00729
-6.67244 0.524451 -2.00376
-6.66241 0.502593 -2.00026
-6.65241 0.480813 -1.99679
-6.64244 0.459108 -1.99336
-6.6325 0.437473 -1.98995
-6.62279 0.415924 -1.98664
-6.61314 0.394453 -1.98336
-6.60353 0.37305 -1.98012
-6.60222 0.352159 -1.97938
-6.60097 0.331287 -1.97869
-6.59972 0.310424 -1.97801
-6.59846 0.289581 -1.97735
-6.59721 0.268749 -1.97671
-6.59596 0.247932 -1.9761
-6.59471 0.227124 -1.9755
-6.59346 0.206332 -1.97492
-6.59221 0.185551 -1.97436
-6.59096 0.164784 -1.97382
-6.58971 0.144025 -1.9733
-6.58846 0.123273 -1.9728
-6.58721 0.102538 -1.97232
-6.58596 0.0818109 -1.97186
-6.58471 0.0610935 -1.97142
-6.58346 0.0403821 -1.971
-6.58198 0.0196834 -1.97052
-6.58046 -0.00101164 -1.97006
-6.58208 -0.0217047 -1.97056
-6.58355 -0.042406 -1.97103
-6.58481 -0.0631182 -1.97145
-6.58607 -0.0838349 -1.9719
-6.58732 -0.104564 -1.97236
-6.58858 -0.125301 -1.97285
-6.58983 -0.146049 -1.97335
-6.59109 -0.166812 -1.97387
-6.59235 -0.187584 -1.97442
-6.5936 -0.208364 -1.97498
-6.59486 -0.229158 -1.97556
-6.59612 -0.249968 -1.97617
-6.59737 -0.270787 -1.97679
-6.59863 -0.291619 -1.97743
-6.59989 -0.312465 -1.97809
-6.60115 -0.333329 -1.97877
-6.60241 -0.354204 -1.97947
-6.60424 -0.375128 -1.98037
-6.61387 -0.396535 -1.98362
-7.03254 0.865463 -2.18561
-6.92526 0.830172 -2.15145
-6.88962 0.803932 -2.13959
-6.85516 0.778078 -2.12811
-6.8231 0.752719 -2.11741
-6.79179 0.727663 -2.10698
-6.76078 0.702848 -2.09666
-6.74096 0.679376 -2.08984
-6.73069 0.656974 -2.08601
-6.72045 0.634654 -2.08221
-6.71025 0.612414 -2.07844
-6.70008 0.59025 -2.0747
-6.68994 0.56817 -2.071
-6.67985 0.546168 -2.06734
-6.66979 0.524244 -2.0637
-6.65976 0.502393 -2.0601
-6.64998 0.480638 -2.0566
-6.64025 0.458956 -2.05313
-6.63054 0.437344 -2.0497
-6.62087 0.415804 -2.04629
-6.61123 0.394339 -2.04292
-6.60167 0.372945 -2.03959
-6.60042 0.352063 -2.03885
-6.59917 0.331197 -2.03814
-6.59792 0.31034 -2.03744
-6.59667 0.289503 -2.03676
-6.59542 0.268676 -2.0361
-6.59417 0.247864 -2.03547
-6.59292 0.227062 -2.03485
-6.59167 0.206276 -2.03426
-6.59043 0.185501 -2.03368
-6.58918 0.164739 -2.03313
-6.58793 0.143986 -2.03259
-6.58668 0.123239 -2.03208
-6.58532 0.102508 -2.03155
-6.58371 0.0817829 -2.03096
-6.5821 0.0610693 -2.0304
-6.58049 0.0403639 -2.02985
-6.57888 0.0196741 -2.02932
-6.57737 -0.0010113 -2.02885
-6.57899 -0.0216949 -2.02936
-6.5806 -0.0423869 -2.02989
-6.58222 -0.0630935 -2.03044
-6.58384 -0.0838065 -2.03101
-6.58545 -0.104534 -2.0316
-6.58679 -0.125267 -2.03212
-6.58805 -0.146009 -2.03264
-6.5893 -0.166767 -2.03318
-6.59056 -0.187533 -2.03374
-6.59182 -0.208308 -2.03432
-6.59307 -0.229096 -2.03492
-6.59433 -0.2499 -2.03554
-6.59558 -0.270713 -2.03618
-6.59684 -0.29154 -2.03684
-6.5981 -0.31238 -2.03752
-6.59935 -0.333238 -2.03822
-6.60061 -0.354107 -2.03895
-6.60234 -0.37502 -2.03983
-6.61195 -0.39642 -2.04318
-7.02585 0.86464 -2.24813
-6.92359 0.829971 -2.21457
-6.88522 0.803418 -2.20147
-6.85304 0.777837 -2.19039
-6.82143 0.752535 -2.17952
-6.79014 0.727486 -2.16878
-6.75915 0.702678 -2.15817
-6.73823 0.679099 -2.1508
-6.72796 0.656708 -2.14685
-6.71773 0.634397 -2.14294
-6.70754 0.612167 -2.13906
-6.69738 0.590012 -2.13522
-6.68727 0.567943 -2.13142
-6.67741 0.545969 -2.12772
-6.66759 0.524071 -2.12405
-6.6578 0.502245 -2.12042
-6.64804 0.480498 -2.11682
-6.63831 0.458823 -2.11325
-6.62861 0.437217 -2.10972
-6.61895 0.415683 -2.10622
-6.60931 0.394225 -2.10275
-6.59987 0.372843 -2.09936
-6.59862 0.351968 -2.0986
-6.59737 0.331107 -2.09786
-6.59612 0.310255 -2.09714
-6.59487 0.289424 -2.09645
-6.59362 0.268603 -2.09577
-6.59238 0.247797 -2.09512
-6.59113 0.227 -2.09448
-6.58988 0.206219 -2.09387
-6.58863 0.18545 -2.09328
-6.58704 0.164686 -2.09259
-6.58543 0.143931 -2.09193
-6.58382 0.123186 -2.09128
-6.58221 0.10246 -2.09066
-6.5806 0.0817443 -2.09006
-6.57899 0.0610405 -2.08948
-6.57738 0.0403448 -2.08891
-6.57577 0.0196648 -2.08837
-6.57426 -0.00101084 -2.08788
-6.57588 -0.0216846 -2.08841
-6.57749 -0.042367 -2.08895
-6.57911 -0.0630636 -2.08952
-6.58072 -0.0837669 -2.09011
-6.58234 -0.104485 -2.09071
-6.58395 -0.125213 -2.09134
-6.58557 -0.145954 -2.09199
-6.58718 -0.166713 -2.09266
-6.58876 -0.187482 -2.09334
-6.59002 -0.208251 -2.09393
-6.59127 -0.229033 -2.09455
-6.59253 -0.249832 -2.09519
-6.59379 -0.270639 -2.09585
-6.59504 -0.29146 -2.09653
-6.5963 -0.312295 -2.09723
-6.59755 -0.333147 -2.09795
-6.59881 -0.35401 -2.09869
-6.60042 -0.374911 -2.09957
-6.61003 -0.396305 -2.10301
-7.28144 0.896095 -2.39722
-7.27875 0.872546 -2.39542
-6.88325 0.803189 -2.26442
-6.85135 0.777645 -2.25311
-6.81976 0.752351 -2.24193
-6.78848 0.727308 -2.23089
-6.75751 0.702507 -2.21997
-6.73549 0.678822 -2.21202
-6.72523 0.656441 -2.20797
-6.71506 0.634145 -2.20396
-6.7051 0.611943 -2.20005
-6.69518 0.589819 -2.19618
-6.6853 0.567775 -2.19234
-6.67544 0.545808 -2.18854
-6.66562 0.523915 -2.18477
-6.65584 0.502097 -2.18103
-6.64608 0.480357 -2.17733
-6.63636 0.458688 -2.17366
-6.62667 0.437089 -2.17002
-6.61701 0.415561 -2.16642
-6.60739 0.39411 -2.16286
-6.59806 0.372741 -2.15941
-6.59681 0.35187 -2.15863
-6.59556 0.331016 -2.15787
-6.59431 0.31017 -2.15713
-6.59307 0.289344 -2.15641
-6.59182 0.268529 -2.15572
-6.59033 0.24772 -2.15497
-6.58872 0.226917 -2.1542
-6.58712 0.206133 -2.15345
-6.58551 0.185362 -2.15272
-6.5839 0.164607 -2.15202
-6.5823 0.143862 -2.15133
-6.58069 0.123127 -2.15067
-6.57908 0.102411 -2.15003
-6.57747 0.0817055 -2.14941
-6.57587 0.0610115 -2.14881
-6.57426 0.0403257 -2.14823
-6.57265 0.0196539 -2.14768
-6.57114 -0.00101037 -2.14718
-6.57276 -0.0216739 -2.14771
-6.57437 -0.0423471 -2.14827
-6.57598 -0.0630339 -2.14886
-6.5776 -0.0837271 -2.14946
-6.57921 -0.104435 -2.15008
-6.58082 -0.125153 -2.15073
-6.58244 -0.145884 -2.15139
-6.58405 -0.166634 -2.15208
-6.58567 -0.187394 -2.15279
-6.58728 -0.208164 -2.15352
-6.58889 -0.228951 -2.15427
-6.5905 -0.249755 -2.15505
-6.59198 -0.270565 -2.1558
-6.59323 -0.29138 -2.1565
-6.59449 -0.312209 -2.15722
-6.59574 -0.333056 -2.15796
-6.597 -0.353913 -2.15872
-6.5985 -0.374802 -2.15959
-6.60811 -0.396189 -2.16313
-6.67346 0.545646 -2.24965
-6.66365 0.523761 -2.24577
-6.65387 0.501949 -2.24193
-6.64412 0.480215 -2.23813
-6.63441 0.458553 -2.23436
-6.62472 0.43696 -2.23062
-6.61507 0.415439 -2.22692
-6.60545 0.393994 -2.22326
-6.59624 0.372638 -2.21975
-6.59499 0.351773 -2.21895
-6.59359 0.330917 -2.21812
-6.59199 0.310061 -2.21724
-6.59038 0.289227 -2.21638
-6.58878 0.268406 -2.21555
-6.58717 0.247601 -2.21474
-6.58557 0.226809 -2.21394
-6.58396 0.206034 -2.21318
-6.58236 0.185274 -2.21243
-6.58076 0.164529 -2.21171
-6.57915 0.143794 -2.211
-6.57755 0.123069 -2.21032
-6.57594 0.102362 -2.20967
-6.57434 0.0816664 -2.20903
-6.57273 0.0609824 -2.20841
-6.57112 0.0403064 -2.20782
-6.56952 0.0196461 -2.20725
-6.56801 -0.00101045 -2.20673
-6.56962 -0.0216638 -2.20729
-6.57123 -0.0423269 -2.20786
-6.57285 -0.0630031 -2.20846
-6.57446 -0.0836872 -2.20908
-6.57607 -0.104386 -2.20972
-6.57768 -0.125093 -2.21038
-6.57929 -0.145815 -2.21107
-6.5809 -0.166555 -2.21177
-6.58252 -0.187304 -2.2125
-6.58413 -0.208065 -2.21325
-6.58574 -0.228841 -2.21402
-6.58735 -0.249635 -2.21482
-6.58896 -0.270441 -2.21564
-6.59057 -0.291263 -2.21648
-6.59218 -0.312101 -2.21734
-6.59379 -0.332957 -2.21822
-6.59518 -0.353816 -2.21905
-6.59657 -0.374692 -2.2199
-6.60617 -0.396073 -2.22354
-9.80194 0.564078 -1.06494
-9.58431 0.52131 -1.04111
-9.53092 0.488343 -1.03514
-9.47797 0.455742 -1.02923
-9.41683 0.423117 -1.02244
-9.35285 0.39077 -1.01536
-9.29028 0.358885 -1.00844
-9.26896 0.328868 -1.00601
-9.24767 0.298987 -1.00359
-9.22643 0.269249 -1.00119
-9.20657 0.239691 -0.998944
-9.19674 0.210485 -0.997801
-9.18702 0.18135 -0.996679
-9.17792 0.152292 -0.995636
-9.1688 0.123294 -0.994598
-9.15963 0.0943578 -0.993568
-9.15044 0.0654764 -0.992542
-9.1412 0.036656 -0.991524
-9.13194 0.00789473 -0.990511
-9.13613 -0.0208456 -0.990968
-9.14539 -0.0496293 -0.991984
-9.15461 -0.0784805 -0.993006
-9.1638 -0.107387 -0.994035
-9.17295 -0.136352 -0.995069
-9.18207 -0.165377 -0.996109
-9.19138 -0.194469 -0.997181
-9.20123 -0.223635 -0.998321
-9.21486 -0.25297 -0.999882
-9.23608 -0.282629 -1.00228
-9.25735 -0.312431 -1.00469
-9.27866 -0.342372 -1.00711
-9.3181 -0.373179 -1.01151
-9.38174 -0.40529 -1.01855
-9.44609 -0.437842 -1.02569
-9.50196 -0.470388 -1.03191
-9.55513 -0.503154 -1.03785
-9.67591 -0.540039 -1.05115
-9.91099 -0.584439 -1.07688
-9.15354 0.613478 -1.07229
-9.09441 0.580782 -1.06515
-9.02989 0.548153 -1.05739
-8.99186 0.51746 -1.05274
-8.97094 0.487947 -1.0501
-8.95008 0.458584 -1.04749
-8.92926 0.429357 -1.04489
-8.9085 0.400277 -1.0423
-8.88778 0.37134 -1.03974
-8.86711 0.342537 -1.03719
-8.84648 0.313878 -1.03466
-8.8259 0.28535 -1.03214
-8.81729 0.257309 -1.03103
-8.8131 0.229447 -1.03045
-8.80889 0.201608 -1.02988
-8.80466 0.173802 -1.02932
-8.80041 0.146028 -1.02876
-8.79615 0.118283 -1.02822
-8.79186 0.0905692 -1.02768
-8.78756 0.0628797 -1.02714
-8.78324 0.0352207 -1.02662
-8.7789 0.00758935 -1.02611
-8.78085 -0.020035 -1.02634
-8.78519 -0.0476746 -1.02686
-8.78951 -0.0753506 -1.02738
-8.79381 -0.103051 -1.02792
-8.79809 -0.13078 -1.02846
-8.80236 -0.158538 -1.02901
-8.8066 -0.186328 -1.02957
-8.81083 -0.214146 -1.03014
-8.81504 -0.241994 -1.03072
-8.81923 -0.269873 -1.0313
-8.83517 -0.298183 -1.03327
-8.85577 -0.326768 -1.0358
-8.87643 -0.35549 -1.03834
-8.89713 -0.384355 -1.0409
-8.91788 -0.413359 -1.04347
-8.93867 -0.442503 -1.04606
-8.95952 -0.471791 -1.04867
-8.98042 -0.501222 -1.05129
-9.00136 -0.5308 -1.05394
-9.05897 -0.562802 -1.06088
-9.12394 -0.59565 -1.06871
-8.77672 0.615955 -1.10257
-8.75984 0.587092 -1.10021
-8.74302 0.558342 -1.09787
-8.73232 0.530089 -1.09632
-8.72167 0.501911 -1.09477
-8.71305 0.47392 -1.0935
-8.70443 0.445998 -1.09224
-8.6958 0.418132 -1.09098
-8.68717 0.390333 -1.08974
-8.67854 0.362597 -1.08851
-8.6699 0.334919 -1.08729
-8.66125 0.307306 -1.08608
-8.65482 0.279819 -1.08516
-8.65101 0.252457 -1.08457
-8.64719 0.225127 -1.084
-8.64335 0.19782 -1.08343
-8.63938 0.170539 -1.08286
-8.6353 0.143288 -1.08229
-8.6312 0.116065 -1.08173
-8.62708 0.0888717 -1.08117
-8.62294 0.0617017 -1.08062
-8.61878 0.0345611 -1.08008
-8.6146 0.00744739 -1.07955
-8.61647 -0.0196599 -1.07979
-8.62065 -0.0467817 -1.08032
-8.62481 -0.0739386 -1.08087
-8.62894 -0.101119 -1.08142
-8.63306 -0.128327 -1.08198
-8.63715 -0.155563 -1.08255
-8.64123 -0.182829 -1.08313
-8.64511 -0.210118 -1.08369
-8.64895 -0.237435 -1.08426
-8.65277 -0.26478 -1.08484
-8.65657 -0.292155 -1.08543
-8.66519 -0.319736 -1.08663
-8.67384 -0.347376 -1.08784
-8.68248 -0.375083 -1.08907
-8.69112 -0.402848 -1.09031
-8.69976 -0.430676 -1.09156
-8.70839 -0.458567 -1.09281
-8.71701 -0.48652 -1.09408
-8.72652 -0.514593 -1.09547
-8.73724 -0.542814 -1.09703
-8.75066 -0.57128 -1.09893
-8.76753 -0.600085 -1.10128
-8.78444 -0.629007 -1.10365
-8.72742 0.667698 -1.17085
-8.6212 0.632303 -1.15633
-8.60496 0.603901 -1.15389
-8.59095 0.575773 -1.15176
-8.58067 0.547974 -1.15015
-8.57039 0.520259 -1.14854
-8.56012 0.492614 -1.14695
-8.54984 0.465043 -1.14538
-8.53958 0.437549 -1.14381
-8.53005 0.410162 -1.14236
-8.52177 0.382901 -1.14108
-8.51348 0.355701 -1.13982
-8.50519 0.328557 -1.13856
-8.49769 0.301503 -1.13742
-8.49407 0.274622 -1.13682
-8.49042 0.247771 -1.13622
-8.48675 0.22095 -1.13563
-8.48306 0.194151 -1.13505
-8.47935 0.167381 -1.13448
-8.47562 0.140639 -1.13391
-8.47186 0.113922 -1.13336
-8.46803 0.0872333 -1.1328
-8.46405 0.0605647 -1.13224
-8.46004 0.0339245 -1.13168
-8.45602 0.00731016 -1.13114
-8.45781 -0.0192979 -1.13138
-8.46184 -0.0459198 -1.13193
-8.46584 -0.0725758 -1.13249
-8.46979 -0.0992539 -1.13305
-8.47356 -0.125956 -1.13361
-8.47731 -0.152684 -1.13417
-8.48104 -0.17944 -1.13474
-8.48475 -0.206221 -1.13531
-8.48843 -0.233028 -1.1359
-8.4921 -0.259863 -1.13649
-8.49574 -0.286727 -1.13709
-8.50065 -0.313665 -1.13788
-8.50895 -0.340773 -1.13913
-8.51725 -0.367945 -1.14039
-8.52554 -0.395173 -1.14166
-8.53397 -0.422469 -1.14296
-8.54425 -0.449923 -1.14452
-8.55452 -0.477451 -1.14609
-8.5648 -0.505056 -1.14768
-8.57509 -0.53274 -1.14927
-8.58537 -0.56049 -1.15088
-8.59611 -0.588352 -1.15257
-8.61234 -0.616684 -1.15499
-8.64743 -0.646544 -1.15997
-8.60049 0.685205 -1.22718
-8.49365 0.649814 -1.21164
-8.45502 0.620114 -1.20584
-8.44365 0.59258 -1.20395
-8.43377 0.565238 -1.20228
-8.42389 0.537961 -1.20062
-8.41401 0.510766 -1.19898
-8.40414 0.483637 -1.19735
-8.39426 0.456581 -1.19573
-8.38439 0.429597 -1.19413
-8.37452 0.402683 -1.19254
-8.36465 0.375841 -1.19096
-8.35478 0.34907 -1.18939
-8.34627 0.322418 -1.18803
-8.34232 0.29599 -1.18733
-8.33884 0.269603 -1.18671
-8.33534 0.243245 -1.18609
-8.33181 0.216917 -1.18549
-8.32827 0.190609 -1.18489
-8.3247 0.164328 -1.18431
-8.32111 0.138075 -1.18373
-8.3175 0.111847 -1.18316
-8.31387 0.0856452 -1.1826
-8.31022 0.0594641 -1.18204
-8.30654 0.0333091 -1.1815
-8.30283 0.00717773 -1.18097
-8.30449 -0.0189481 -1.1812
-8.30818 -0.045086 -1.18174
-8.31185 -0.0712557 -1.18229
-8.3155 -0.0974458 -1.18285
-8.31913 -0.12366 -1.18341
-8.32274 -0.1499 -1.18399
-8.32632 -0.176167 -1.18457
-8.32988 -0.202457 -1.18516
-8.33342 -0.228773 -1.18576
-8.33694 -0.255115 -1.18637
-8.34044 -0.281486 -1.18699
-8.34391 -0.307881 -1.18762
-8.34987 -0.334402 -1.18861
-8.35923 -0.361118 -1.19009
-8.3691 -0.387922 -1.19167
-8.37898 -0.414796 -1.19326
-8.38886 -0.441741 -1.19485
-8.39874 -0.468757 -1.19647
-8.40862 -0.495846 -1.19809
-8.41851 -0.523013 -1.19973
-8.42839 -0.550241 -1.20138
-8.43828 -0.57755 -1.20304
-8.44816 -0.604928 -1.20471
-8.46209 -0.632686 -1.20698
-8.52481 -0.664351 -1.21622
-8.70984 -0.706338 -1.24292
-8.72388 0.750294 -1.31977
-8.47624 0.702144 -1.28196
-8.37491 0.667234 -1.26631
-8.31403 0.636072 -1.2568
-8.30751 0.609296 -1.25552
-8.30059 0.582541 -1.25419
-8.29367 0.555849 -1.25287
-8.28674 0.529203 -1.25157
-8.27981 0.50262 -1.25028
-8.27288 0.476084 -1.249
-8.26594 0.449601 -1.24773
-8.259 0.423175 -1.24648
-8.25205 0.396794 -1.24523
-8.2451 0.370469 -1.244
-8.23815 0.344197 -1.24278
-8.23298 0.318041 -1.24185
-8.2297 0.291994 -1.24121
-8.2264 0.265968 -1.24058
-8.22321 0.239973 -1.23998
-8.22029 0.214013 -1.23943
-8.21736 0.18807 -1.23889
-8.21441 0.162151 -1.23836
-8.21145 0.136255 -1.23785
-8.20847 0.11038 -1.23734
-8.20548 0.0845285 -1.23684
-8.20247 0.0586931 -1.23635
-8.19944 0.0328796 -1.23588
-8.1964 0.00708584 -1.23541
-8.19775 -0.0187046 -1.23562
-8.20079 -0.0445032 -1.23609
-8.20381 -0.0703296 -1.23657
-8.20682 -0.0961722 -1.23706
-8.20981 -0.122035 -1.23757
-8.21279 -0.14792 -1.23808
-8.21576 -0.173827 -1.2386
-8.2187 -0.199755 -1.23914
-8.22164 -0.225704 -1.23968
-8.22462 -0.251678 -1.24024
-8.22793 -0.277688 -1.24087
-8.23122 -0.303723 -1.2415
-8.2345 -0.329782 -1.24215
-8.2413 -0.356024 -1.24334
-8.24826 -0.382321 -1.24456
-8.25522 -0.408669 -1.2458
-8.26217 -0.43507 -1.24705
-8.26912 -0.461522 -1.24831
-8.27606 -0.488029 -1.24958
-8.283 -0.514594 -1.25087
-8.28994 -0.541202 -1.25217
-8.29687 -0.567871 -1.25348
-8.3038 -0.594591 -1.2548
-8.31072 -0.62137 -1.25614
-8.33765 -0.649766 -1.26051
-8.40509 -0.681624 -1.27102
-8.58207 -0.723155 -1.29812
-8.58826 0.765851 -1.37299
-8.32786 0.716235 -1.33099
-8.26849 0.684935 -1.32115
-8.21274 0.654314 -1.31191
-8.20733 0.627909 -1.31073
-8.20191 0.601551 -1.30955
-8.19648 0.575234 -1.30839
-8.19104 0.54897 -1.30724
-8.18517 0.522717 -1.30603
-8.17843 0.496465 -1.3047
-8.17168 0.47026 -1.30338
-8.16493 0.444107 -1.30208
-8.15818 0.418009 -1.30078
-8.15141 0.391955 -1.2995
-8.14465 0.365956 -1.29823
-8.13803 0.340014 -1.297
-8.13485 0.31425 -1.29633
-8.13166 0.288516 -1.29567
-8.12845 0.262801 -1.29502
-8.12523 0.237113 -1.29438
-8.12199 0.211454 -1.29376
-8.11874 0.185813 -1.29314
-8.11547 0.160198 -1.29253
-8.11243 0.134612 -1.29197
-8.10952 0.10905 -1.29145
-8.10661 0.08351 -1.29094
-8.10367 0.0579862 -1.29043
-8.10072 0.0324838 -1.28994
-8.09776 0.00700056 -1.28946
-8.09907 -0.0184794 -1.28967
-8.10203 -0.0439673 -1.29016
-8.10498 -0.0694823 -1.29066
-8.10791 -0.0950132 -1.29116
-8.11083 -0.120564 -1.29168
-8.11373 -0.146136 -1.29221
-8.11695 -0.171737 -1.2928
-8.12022 -0.197361 -1.29342
-8.12347 -0.223009 -1.29404
-8.1267 -0.248682 -1.29467
-8.12993 -0.274381 -1.29532
-8.13313 -0.300104 -1.29597
-8.13633 -0.32585 -1.29664
-8.14094 -0.351688 -1.29754
-8.14771 -0.37766 -1.29881
-8.15449 -0.403683 -1.30008
-8.16125 -0.429756 -1.30137
-8.16801 -0.455879 -1.30267
-8.17477 -0.482056 -1.30398
-8.18152 -0.50829 -1.30531
-8.18812 -0.534555 -1.30662
-8.19357 -0.560801 -1.30777
-8.19902 -0.587088 -1.30892
-8.20445 -0.613424 -1.31009
-8.20987 -0.639808 -1.31127
-8.23573 -0.66789 -1.31573
-8.29491 -0.698959 -1.32553
-8.457 -0.739418 -1.3518
-8.8785 -0.804416 -1.41957
-8.46225 0.781453 -1.42575
-8.21634 0.732685 -1.38392
-8.16788 0.702475 -1.37538
-8.11355 0.672101 -1.36587
-8.10832 0.645993 -1.36464
-8.10307 0.619932 -1.36342
-8.09781 0.593916 -1.36222
-8.09254 0.567939 -1.36102
-8.08726 0.542015 -1.35984
-8.08196 0.516126 -1.35867
-8.07666 0.490288 -1.35751
-8.07135 0.464486 -1.35637
-8.06602 0.438727 -1.35523
-8.05953 0.412954 -1.35392
-8.05294 0.38722 -1.3526
-8.04635 0.361539 -1.3513
-8.04187 0.335997 -1.35036
-8.03878 0.310539 -1.34967
-8.03567 0.28511 -1.34899
-8.03255 0.259701 -1.34832
-8.02941 0.234317 -1.34767
-8.02626 0.208961 -1.34702
-8.02309 0.183624 -1.34638
-8.01991 0.158311 -1.34576
-8.01671 0.133024 -1.34515
-8.01349 0.107759 -1.34454
-8.01026 0.0825176 -1.34395
-8.00702 0.0572944 -1.34337
-8.0041 0.0320963 -1.34286
-8.0012 0.00691709 -1.34236
-8.00248 -0.018259 -1.34258
-8.00537 -0.0434427 -1.34308
-8.00846 -0.0686548 -1.34363
-8.0117 -0.0938857 -1.34421
-8.01493 -0.119139 -1.34481
-8.01815 -0.144414 -1.34542
-8.02135 -0.169714 -1.34604
-8.02453 -0.195035 -1.34667
-8.02769 -0.22038 -1.34731
-8.03085 -0.245748 -1.34796
-8.03398 -0.271143 -1.34863
-8.0371 -0.29656 -1.3493
-8.04021 -0.322001 -1.34999
-8.0433 -0.34747 -1.35068
-8.04933 -0.3731 -1.35188
-8.05592 -0.398803 -1.3532
-8.06251 -0.424556 -1.35452
-8.06846 -0.450323 -1.35575
-8.07379 -0.476102 -1.35689
-8.07911 -0.501927 -1.35804
-8.08441 -0.527785 -1.35921
-8.0897 -0.553692 -1.36038
-8.09499 -0.579639 -1.36157
-8.10026 -0.605634 -1.36277
-8.10552 -0.631675 -1.36398
-8.11077 -0.657756 -1.36521
-8.13687 -0.685641 -1.36996
-8.18865 -0.715955 -1.37905
-8.24389 -0.74692 -1.38874
-8.56772 -0.803439 -1.44371
-8.5716 0.845971 -1.51875
-8.16949 0.78034 -1.44706
-8.1089 0.748823 -1.4359
-8.06269 0.718984 -1.42731
-8.01638 0.689446 -1.41872
-8.01131 0.663631 -1.41745
-8.00623 0.637861 -1.41619
-8.00113 0.612134 -1.41494
-7.99603 0.586451 -1.4137
-7.99091 0.560807 -1.41248
-7.98579 0.535214 -1.41127
-7.98065 0.509656 -1.41007
-7.9755 0.484147 -1.40888
-7.96902 0.458597 -1.40748
-7.96191 0.433064 -1.40597
-7.95479 0.407587 -1.40448
-7.94766 0.382158 -1.40301
-7.94115 0.356812 -1.40165
-7.93719 0.331623 -1.40076
-7.9332 0.306461 -1.39988
-7.92919 0.281332 -1.39901
-7.92515 0.256228 -1.39815
-7.92108 0.231156 -1.39729
-7.91698 0.206117 -1.39645
-7.91286 0.181101 -1.39562
-7.90872 0.156117 -1.39479
-7.90455 0.131163 -1.39398
-7.90035 0.106237 -1.39317
-7.89613 0.0813418 -1.39237
-7.89479 0.0564915 -1.3921
-7.89428 0.0316559 -1.39199
-7.89375 0.0068242 -1.39188
-7.89399 -0.0180115 -1.39193
-7.89452 -0.0428412 -1.39204
-7.89501 -0.0676823 -1.39215
-7.89799 -0.0925525 -1.39272
-7.90221 -0.117463 -1.39353
-7.9064 -0.142401 -1.39434
-7.91056 -0.16737 -1.39516
-7.9147 -0.192366 -1.39599
-7.91881 -0.217391 -1.39683
-7.9229 -0.242445 -1.39767
-7.92696 -0.267531 -1.39853
-7.931 -0.292645 -1.3994
-7.935 -0.317787 -1.40028
-7.93899 -0.342963 -1.40116
-7.94381 -0.368209 -1.40221
-7.95084 -0.3936 -1.40366
-7.95798 -0.419051 -1.40515
-7.9651 -0.444554 -1.40665
-7.9722 -0.47011 -1.40816
-7.97786 -0.495637 -1.40942
-7.98301 -0.521165 -1.41062
-7.98816 -0.546742 -1.41182
-7.99329 -0.572356 -1.41304
-7.9984 -0.598018 -1.41427
-8.00351 -0.623725 -1.41551
-8.0086 -0.649471 -1.41677
-8.01369 -0.675264 -1.41804
-8.03746 -0.702737 -1.42263
-8.08284 -0.732328 -1.43106
-8.13563 -0.762921 -1.44082
-8.29545 -0.804235 -1.46957
-8.1765 0.832956 -1.51973
-8.06265 0.79574 -1.4981
-8.00035 0.764184 -1.48607
-7.95658 0.734757 -1.4775
-7.91033 0.705397 -1.4685
-7.87619 0.677389 -1.46176
-7.86954 0.651887 -1.46013
-7.86287 0.626439 -1.45852
-7.85619 0.601045 -1.45693
-7.84948 0.575703 -1.45534
-7.84276 0.55041 -1.45377
-7.83611 0.525183 -1.45222
-7.82953 0.500005 -1.4507
-7.82295 0.474886 -1.4492
-7.81634 0.449811 -1.4477
-7.80971 0.424786 -1.44622
-7.80306 0.399814 -1.44475
-7.7964 0.374885 -1.44329
-7.79163 0.350094 -1.4422
-7.78783 0.325383 -1.4413
-7.78401 0.300697 -1.44041
-7.78016 0.276045 -1.43953
-7.77684 0.251433 -1.43876
-7.77656 0.226938 -1.43857
-7.77625 0.202453 -1.43839
-7.77591 0.177967 -1.43821
-7.77555 0.153488 -1.43805
-7.77516 0.129016 -1.4379
-7.77475 0.104548 -1.43775
-7.77432 0.0800869 -1.43762
-7.77386 0.0556261 -1.43749
-7.77337 0.0311711 -1.43738
-7.77285 0.00671968 -1.43727
-7.77308 -0.0177356 -1.43732
-7.77359 -0.0421849 -1.43743
-7.77407 -0.0666455 -1.43755
-7.77453 -0.0911064 -1.43768
-7.77496 -0.115572 -1.43782
-7.77536 -0.140041 -1.43797
-7.77574 -0.164518 -1.43813
-7.7761 -0.188997 -1.4383
-7.77642 -0.213482 -1.43847
-7.77673 -0.237972 -1.43866
-7.77802 -0.262504 -1.43905
-7.78189 -0.287143 -1.43992
-7.78573 -0.311809 -1.44081
-7.78954 -0.336507 -1.4417
-7.79333 -0.361234 -1.44261
-7.79937 -0.386103 -1.44394
-7.80603 -0.41105 -1.44541
-7.81267 -0.436047 -1.44688
-7.81929 -0.461094 -1.44837
-7.8259 -0.486196 -1.44987
-7.83249 -0.511338 -1.45138
-7.83906 -0.536537 -1.4529
-7.84579 -0.561795 -1.45447
-7.85251 -0.58711 -1.45605
-7.85921 -0.612479 -1.45765
-7.86589 -0.637896 -1.45925
-7.87256 -0.663369 -1.46087
-7.88465 -0.689376 -1.46351
-7.93064 -0.718539 -1.47245
-7.97717 -0.748061 -1.48152
-8.02959 -0.77846 -1.49171
-8.08902 -0.809916 -1.50321
-8.44714 -0.87262 -1.57027
-8.01621 0.84211 -1.55982
-7.88797 0.803563 -1.53436
-7.85284 0.775033 -1.52705
-7.81799 0.746765 -1.51981
-7.78345 0.718769 -1.51265
-7.74918 0.691027 -1.50556
-7.71522 0.663544 -1.49854
-7.707 0.638423 -1.49655
-7.69875 0.613363 -1.49457
-7.69047 0.588366 -1.49259
-7.68215 0.56343 -1.49063
-7.6738 0.538552 -1.48867
-7.66542 0.513743 -1.48672
-7.657 0.488987 -1.48479
-7.64856 0.4643 -1.48286
-7.64007 0.439668 -1.48094
-7.63237 0.41514 -1.47918
-7.62465 0.390672 -1.47744
-7.61739 0.366277 -1.4758
-7.61743 0.342267 -1.4756
-7.61743 0.318263 -1.4754
-7.61738 0.29426 -1.4752
-7.61727 0.270265 -1.47501
-7.61711 0.246269 -1.47482
-7.6169 0.222279 -1.47463
-7.61664 0.198297 -1.47446
-7.61633 0.174314 -1.47428
-7.61596 0.150338 -1.47411
-7.61554 0.126367 -1.47395
-7.61406 0.102387 -1.47359
-7.60676 0.0783608 -1.47212
-7.59941 0.0543779 -1.47066
-7.592 0.0304438 -1.4692
-7.58454 0.00655688 -1.46774
-7.58777 -0.0173125 -1.46837
-7.59521 -0.0412187 -1.46983
-7.60259 -0.0651764 -1.47129
-7.60992 -0.0891783 -1.47276
-7.61529 -0.113198 -1.47386
-7.61574 -0.137166 -1.47402
-7.61613 -0.161141 -1.47419
-7.61648 -0.185118 -1.47436
-7.61677 -0.209099 -1.47454
-7.61701 -0.233085 -1.47472
-7.6172 -0.257077 -1.4749
-7.61734 -0.281071 -1.47509
-7.61743 -0.305069 -1.47529
-7.61746 -0.329074 -1.47549
-7.61744 -0.353081 -1.47569
-7.62027 -0.377237 -1.47646
-7.62802 -0.401676 -1.4782
-7.63573 -0.42617 -1.47995
-7.64377 -0.450744 -1.48178
-7.65224 -0.475407 -1.4837
-7.66068 -0.500121 -1.48563
-7.66908 -0.524903 -1.48758
-7.67745 -0.549741 -1.48953
-7.68579 -0.574645 -1.49149
-7.6941 -0.599612 -1.49346
-7.70237 -0.624636 -1.49544
-7.71061 -0.649723 -1.49743
-7.7248 -0.6754 -1.50059
-7.76416 -0.703455 -1.50866
-7.79858 -0.731313 -1.51579
-7.83327 -0.759426 -1.52299
-7.86826 -0.787812 -1.53026
-7.92655 -0.81884 -1.54209
-8.04223 -0.856361 -1.56511
-7.77784 0.841813 -1.58151
-7.73547 0.812618 -1.57236
-7.68839 0.783231 -1.56228
-7.64184 0.754209 -1.55234
-7.59722 0.725677 -1.5428
-7.55327 0.697513 -1.53342
-7.50979 0.66968 -1.52416
-7.47215 0.64264 -1.5161
-7.46495 0.618372 -1.51424
-7.45805 0.594187 -1.51246
-7.45111 0.570054 -1.51068
-7.44414 0.545974 -1.50891
-7.4381 0.52201 -1.50734
-7.43207 0.498104 -1.5058
-7.42602 0.474236 -1.50426
-7.41994 0.450422 -1.50273
-7.41383 0.426648 -1.50122
-7.4077 0.40292 -1.49971
-7.40155 0.379241 -1.49822
-7.39576 0.35562 -1.49681
-7.39219 0.332146 -1.49587
-7.38858 0.308702 -1.49494
-7.38495 0.285281 -1.49401
-7.38127 0.261892 -1.4931
-7.37757 0.238524 -1.49219
-7.37383 0.215186 -1.49129
-7.37006 0.191878 -1.49039
-7.36625 0.168591 -1.48951
-7.36241 0.145333 -1.48863
-7.35854 0.122103 -1.48777
-7.35463 0.0988988 -1.48691
-7.3507 0.075723 -1.48605
-7.34673 0.0525698 -1.48521
-7.34329 0.0294465 -1.48449
-7.33989 0.00634538 -1.48379
-7.34135 -0.0167505 -1.48409
-7.34475 -0.0398577 -1.48479
-7.34844 -0.0629967 -1.48557
-7.3524 -0.0861594 -1.48642
-7.35632 -0.109348 -1.48728
-7.36022 -0.132564 -1.48814
-7.36408 -0.155807 -1.48901
-7.36791 -0.179076 -1.48989
-7.3717 -0.202371 -1.49078
-7.37546 -0.225694 -1.49168
-7.37919 -0.249044 -1.49258
-7.38288 -0.27242 -1.4935
-7.38654 -0.295822 -1.49442
-7.39017 -0.319255 -1.49535
-7.39376 -0.342713 -1.49629
-7.39785 -0.366226 -1.49734
-7.40424 -0.389893 -1.49887
-7.41039 -0.413594 -1.50037
-7.41651 -0.437343 -1.50188
-7.42261 -0.461141 -1.50341
-7.42868 -0.484976 -1.50494
-7.43472 -0.508863 -1.50648
-7.44074 -0.532792 -1.50803
-7.44717 -0.556804 -1.50968
-7.45413 -0.580911 -1.51145
-7.46105 -0.605067 -1.51324
-7.46794 -0.629275 -1.51503
-7.4853 -0.65446 -1.51896
-7.52854 -0.682107 -1.52816
-7.57226 -0.710091 -1.53748
-7.61645 -0.738406 -1.54692
-7.662 -0.767161 -1.55665
-7.70883 -0.796349 -1.56667
-7.75619 -0.825905 -1.57681
-7.79681 -0.855044 -1.58561
-7.5789 0.844406 -1.60767
-7.53415 0.815441 -1.59762
-7.4911 0.786947 -1.58796
-7.4571 0.759669 -1.58024
-7.42381 0.73269 -1.57269
-7.39079 0.705959 -1.56521
-7.35781 0.679463 -1.55777
-7.3249 0.653192 -1.55036
-7.30486 0.628252 -1.54569
-7.29926 0.604647 -1.5441
-7.29363 0.581087 -1.54251
-7.28798 0.557573 -1.54094
-7.2823 0.534104 -1.53937
-7.27659 0.510675 -1.53782
-7.27085 0.487299 -1.53628
-7.26508 0.463959 -1.53474
-7.25875 0.440637 -1.53311
-7.2524 0.417358 -1.53148
-7.24602 0.394125 -1.52986
-7.23961 0.370943 -1.52825
-7.23412 0.347848 -1.52686
-7.23073 0.324891 -1.52592
-7.2273 0.301963 -1.52499
-7.22384 0.279058 -1.52406
-7.22035 0.256182 -1.52315
-7.21682 0.233327 -1.52224
-7.21325 0.2105 -1.52134
-7.20966 0.187702 -1.52045
-7.20603 0.164924 -1.51957
-7.20289 0.142184 -1.51881
-7.1998 0.119468 -1.51807
-7.19667 0.0967747 -1.51734
-7.19351 0.0741038 -1.51661
-7.19032 0.0514506 -1.5159
-7.18709 0.0288201 -1.51519
-7.18383 0.00621046 -1.51449
-7.18522 -0.0163943 -1.51479
-7.18847 -0.0390097 -1.51549
-7.19169 -0.0616528 -1.5162
-7.19487 -0.0843136 -1.51692
-7.19802 -0.106996 -1.51765
-7.20113 -0.129699 -1.51839
-7.20421 -0.152425 -1.51913
-7.2076 -0.17518 -1.51995
-7.21121 -0.197965 -1.52084
-7.2148 -0.220776 -1.52173
-7.21835 -0.243616 -1.52264
-7.22187 -0.266478 -1.52355
-7.22535 -0.289366 -1.52447
-7.2288 -0.312284 -1.52539
-7.23222 -0.335225 -1.52633
-7.23596 -0.358212 -1.52735
-7.24238 -0.38137 -1.52895
-7.24878 -0.404575 -1.53056
-7.25516 -0.427828 -1.53219
-7.26151 -0.451132 -1.53382
-7.26761 -0.474461 -1.53542
-7.27336 -0.497819 -1.53696
-7.27909 -0.521217 -1.5385
-7.28479 -0.544663 -1.54006
-7.29046 -0.568157 -1.54163
-7.29611 -0.591689 -1.54321
-7.30173 -0.61527 -1.5448
-7.30732 -0.638899 -1.5464
-7.33905 -0.664938 -1.55355
-7.37209 -0.69132 -1.561
-7.40502 -0.717908 -1.56844
-7.43818 -0.74475 -1.57596
-7.47162 -0.771845 -1.58355
-7.50966 -0.799654 -1.59213
-7.55328 -0.828338 -1.60193
-7.63466 -0.861574 -1.61975
-7.45409 0.854248 -1.647
-7.38228 0.822501 -1.63055
-7.34978 0.795486 -1.62281
-7.31753 0.768713 -1.61515
-7.28549 0.742187 -1.60756
-7.25334 0.715866 -1.59996
-7.22145 0.689784 -1.59244
-7.18983 0.663951 -1.585
-7.15846 0.63835 -1.57763
-7.1483 0.614787 -1.57496
-7.14297 0.5917 -1.57337
-7.13762 0.568658 -1.57178
-7.13211 0.545649 -1.57019
-7.12618 0.522654 -1.56851
-7.12023 0.499702 -1.56685
-7.11425 0.476803 -1.56519
-7.10824 0.453943 -1.56355
-7.10222 0.431135 -1.56192
-7.09616 0.408367 -1.5603
-7.09008 0.385643 -1.55868
-7.08397 0.362968 -1.55708
-7.07886 0.340382 -1.55572
-7.07563 0.317923 -1.55478
-7.07238 0.29549 -1.55385
-7.06908 0.27308 -1.55293
-7.06626 0.250715 -1.55213
-7.06347 0.22837 -1.55135
-7.06065 0.206047 -1.55058
-7.0578 0.183748 -1.54982
-7.05491 0.161465 -1.54907
-7.05199 0.139205 -1.54832
-7.04904 0.116967 -1.54759
-7.04604 0.0947492 -1.54686
-7.04302 0.0725535 -1.54614
-7.03996 0.0503747 -1.54542
-7.03687 0.0282177 -1.54472
-7.03374 0.00608071 -1.54402
-7.03507 -0.0160517 -1.54431
-7.03819 -0.0381941 -1.54501
-7.04127 -0.0603633 -1.54572
-7.04431 -0.0825493 -1.54644
-7.04732 -0.104756 -1.54717
-7.0503 -0.126982 -1.5479
-7.05325 -0.149231 -1.54864
-7.05616 -0.171499 -1.54939
-7.05903 -0.193788 -1.55015
-7.06187 -0.216097 -1.55092
-7.06468 -0.23843 -1.55169
-7.06745 -0.260781 -1.55247
-7.07051 -0.283166 -1.55333
-7.07379 -0.305588 -1.55426
-7.07704 -0.328033 -1.55519
-7.08047 -0.350514 -1.55618
-7.0866 -0.373166 -1.55777
-7.0927 -0.395863 -1.55938
-7.09877 -0.418606 -1.561
-7.10482 -0.441398 -1.56263
-7.11084 -0.464226 -1.56426
-7.11684 -0.487105 -1.56591
-7.12281 -0.510027 -1.56757
-7.12876 -0.532997 -1.56924
-7.13459 -0.556009 -1.5709
-7.13996 -0.579026 -1.57248
-7.1453 -0.602091 -1.57406
-7.15062 -0.625198 -1.57566
-7.17185 -0.64979 -1.58078
-7.20335 -0.675496 -1.58819
-7.2351 -0.701435 -1.59567
-7.26713 -0.727623 -1.60322
-7.29929 -0.754043 -1.61084
-7.3314 -0.780671 -1.61846
-7.36379 -0.807556 -1.62616
-7.39643 -0.834689 -1.63394
-7.61676 -0.883825 -1.68322
-7.44331 0.876744 -1.71063
-7.24534 0.830325 -1.66452
-7.21336 0.80368 -1.65659
-7.18207 0.777334 -1.64883
-7.15092 0.75121 -1.64113
-7.12003 0.725331 -1.63351
-7.08937 0.699683 -1.62596
-7.05895 0.674263 -1.61849
-7.03065 0.649251 -1.61153
-7.00976 0.62509 -1.60628
-7.00539 0.602496 -1.60483
-7.001 0.57994 -1.6034
-6.9966 0.557423 -1.60199
-6.99219 0.534944 -1.60058
-6.98777 0.512503 -1.5992
-6.98334 0.490095 -1.59782
-6.9789 0.467732 -1.59646
-6.97444 0.445398 -1.59511
-6.96998 0.423107 -1.59378
-6.9655 0.400848 -1.59246
-6.96102 0.378624 -1.59115
-6.95425 0.35632 -1.58934
-6.95053 0.334213 -1.58825
-6.94969 0.312264 -1.58782
-6.94807 0.290297 -1.58723
-6.94643 0.268342 -1.58666
-6.94478 0.246405 -1.5861
-6.9431 0.224478 -1.58554
-6.9414 0.202566 -1.585
-6.93968 0.180673 -1.58447
-6.93795 0.158788 -1.58395
-6.93619 0.136919 -1.58345
-6.93442 0.115065 -1.58295
-6.93263 0.093224 -1.58247
-6.93082 0.0713977 -1.582
-6.92899 0.0495807 -1.58154
-6.92714 0.0277777 -1.58109
-6.92527 0.00598694 -1.58065
-6.92606 -0.015803 -1.58083
-6.92793 -0.0375958 -1.58128
-6.92977 -0.0594075 -1.58173
-6.9316 -0.0812284 -1.5822
-6.93341 -0.103062 -1.58268
-6.93519 -0.124909 -1.58317
-6.93696 -0.146771 -1.58367
-6.93871 -0.168645 -1.58418
-6.94044 -0.190532 -1.58471
-6.94216 -0.212434 -1.58524
-6.94385 -0.234352 -1.58579
-6.94553 -0.256282 -1.58635
-6.94718 -0.278226 -1.58692
-6.94882 -0.300188 -1.5875
-6.95027 -0.322157 -1.58806
-6.95083 -0.344096 -1.58842
-6.95735 -0.366361 -1.59017
-6.96299 -0.388623 -1.59173
-6.96748 -0.410864 -1.59304
-6.97195 -0.433143 -1.59437
-6.97642 -0.45545 -1.59571
-6.98087 -0.477799 -1.59707
-6.98532 -0.500181 -1.59843
-6.98975 -0.522604 -1.59982
-6.99417 -0.545066 -1.60121
-6.99858 -0.567561 -1.60262
-7.00298 -0.590097 -1.60405
-7.00736 -0.612673 -1.60549
-7.01688 -0.635749 -1.60812
-7.0416 -0.660327 -1.61425
-7.07188 -0.685611 -1.62168
-7.10243 -0.711133 -1.62919
-7.13321 -0.736886 -1.63677
-7.16423 -0.762871 -1.64443
-7.1955 -0.7891 -1.65217
-7.22675 -0.81554 -1.65993
-7.32717 -0.850221 -1.6836
-7.49476 0.906713 -1.78924
-7.23011 0.851631 -1.72541
-7.13093 0.817214 -1.70112
-7.09853 0.790886 -1.69279
