ply
format ascii 1.0
comment Created by Open3D
element vertex 1819
property double x
property double y
property double z
end_header
8.11442 0.777526 -1.5073
8.00358 -0.786914 -1.55631
7.75259 -0.573288 -1.50436
7.67091 -0.380956 -1.48629
7.63748 -0.194263 -1.47847
7.62063 -0.00943716 -1.47473
7.63546 0.175291 -1.47799
7.66445 0.361611 -1.48486
7.73659 0.552844 -1.50099
7.93238 0.760083 -1.54209
7.96217 -0.782842 -1.61735
7.72011 -0.570886 -1.56491
7.64849 -0.379842 -1.54808
7.61972 -0.193811 -1.54086
7.60551 -0.00941844 -1.53749
7.61771 0.174884 -1.54036
7.64289 0.360594 -1.54676
7.71149 0.55105 -1.56289
7.87766 0.75484 -1.5998
7.92105 -0.778799 -1.67796
7.69768 -0.569227 -1.62725
7.62854 -0.378851 -1.61023
7.60199 -0.19336 -1.60317
7.59041 -0.00939974 -1.60021
7.59999 0.174477 -1.60265
7.62478 0.35974 -1.60924
7.68912 0.549451 -1.62515
7.85959 0.753109 -1.66455
7.89945 -0.776675 -1.74241
7.67531 -0.567573 -1.68945
7.61043 -0.377952 -1.67267
7.58564 -0.192944 -1.66571
7.57531 -0.00938104 -1.6629
7.58459 0.174124 -1.66538
7.6067 0.358887 -1.67165
7.6668 0.547856 -1.68727
7.84153 0.751379 -1.72922
7.88114 -0.774875 -1.80749
7.65299 -0.565922 -1.75151
7.59235 -0.377054 -1.73504
7.5705 -0.192559 -1.72848
7.56022 -0.00936235 -1.72557
7.56946 0.173776 -1.72813
7.58863 0.358035 -1.73398
7.64453 0.546265 -1.74926
7.8235 0.74965 -1.79384
7.89395 -0.776134 -1.87992
7.64155 -0.565076 -1.81602
7.58099 -0.37649 -1.79894
7.55962 -0.192282 -1.79224
7.54993 -0.0093496 -1.78937
7.55849 0.173524 -1.79187
7.57703 0.357487 -1.79779
7.63303 0.545444 -1.81367
7.83933 0.751168 -1.86646
7.87931 -0.774695 -1.94607
7.64419 -0.565272 -1.88407
7.58199 -0.37654 -1.86595
7.56026 -0.192299 -1.85891
7.55984 -0.00936188 -1.85821
7.55914 0.17354 -1.85853
7.57803 0.357535 -1.86475
7.63567 0.545632 -1.88163
7.84429 0.751643 -1.93696
7.87705 -0.774473 -2.01542
7.65358 -0.565966 -1.95416
7.5845 -0.376664 -1.93363
7.56451 -0.192407 -1.92678
7.56982 -0.00937424 -1.92751
7.56505 0.173675 -1.92681
7.57983 0.357619 -1.93221
7.6422 0.546099 -1.95091
7.83946 0.75118 -2.00531
7.90595 -0.777315 -2.09327
7.67411 -0.567484 -2.02765
7.59374 -0.377123 -2.00342
7.57688 -0.192721 -1.99716
7.57971 -0.00938649 -1.99726
7.57745 0.17396 -1.99719
7.58887 0.358046 -2.00189
7.66212 0.547522 -2.02412
7.88001 0.755066 -2.0859
7.91885 -0.778583 -2.16756
7.69749 -0.569213 -2.10258
7.61191 -0.378026 -2.0761
7.59287 -0.193128 -2.06903
7.58813 -0.00939691 -2.06707
7.59344 0.174327 -2.06906
7.60677 0.358891 -2.07445
7.68564 0.549203 -2.09897
7.89282 0.756293 -2.15992
8.33362 -0.819363 -2.35602
7.72063 -0.570924 -2.17818
7.63366 -0.379106 -2.15043
7.60387 -0.193408 -2.14009
7.5966 -0.0094074 -2.13735
7.60312 0.174549 -2.13975
7.62781 0.359883 -2.14852
7.7087 0.550851 -2.17442
8.33315 0.798486 -2.35532
9.86555 -0.608189 -1.07211
9.4097 -0.352371 -1.02135
9.27854 -0.123321 -1.0065
9.27065 0.100588 -1.00562
9.39027 0.328694 -1.01915
9.68144 0.573126 -1.05195
9.1159 -0.561976 -1.06752
8.99569 -0.336868 -1.05218
8.94486 -0.118886 -1.0456
8.94159 0.0970176 -1.04518
8.98782 0.314607 -1.05117
9.07156 0.537021 -1.06217
8.84691 -0.545393 -1.11077
8.76754 -0.328324 -1.09949
8.72182 -0.115922 -1.09308
8.71824 0.094594 -1.0926
8.76009 0.306636 -1.09845
8.83413 0.522966 -1.109
8.62209 -0.531533 -1.15554
8.56369 -0.320691 -1.14634
8.53166 -0.113395 -1.14135
8.52896 0.0925404 -1.14096
8.55831 0.299572 -1.14552
8.61616 0.510063 -1.15457
8.45446 -0.521199 -1.20482
8.40384 -0.314704 -1.19617
8.37382 -0.111296 -1.19117
8.37113 0.0908279 -1.19075
8.39867 0.293985 -1.19533
8.44938 0.50019 -1.20391
8.32372 -0.513139 -1.25698
8.26865 -0.309642 -1.24717
8.24271 -0.109554 -1.2425
8.24059 0.0894116 -1.24214
8.26279 0.289228 -1.24618
8.31827 0.492428 -1.25597
8.86167 0.739613 -1.34033
8.4922 -0.729653 -1.35725
8.20113 -0.505582 -1.3084
8.1456 -0.305034 -1.29799
8.12137 -0.107941 -1.29333
8.11904 0.0880928 -1.29292
8.14154 0.284984 -1.29722
8.19586 0.485181 -1.30736
8.36462 0.698129 -1.33658
8.26338 -0.709993 -1.39145
8.04599 -0.496018 -1.35244
7.97038 -0.298472 -1.33813
7.94084 -0.105542 -1.33235
7.93929 0.0861426 -1.33205
7.96669 0.278864 -1.33739
8.03902 0.475897 -1.35106
8.22502 0.686477 -1.38471
8.10885 -0.696715 -1.43508
7.86236 -0.484697 -1.38898
7.7824 -0.291433 -1.37321
7.76403 -0.103192 -1.36913
7.76255 0.084225 -1.36883
7.77972 0.272319 -1.37261
7.85573 0.465047 -1.3876
8.06165 0.672843 -1.42643
7.94612 -0.682733 -1.47472
7.72491 -0.476224 -1.43112
7.66507 -0.287039 -1.41834
7.64531 -0.101614 -1.41381
7.64331 0.082931 -1.4134
7.66308 0.268236 -1.41784
7.71845 0.45692 -1.42971
7.91708 0.660776 -1.46903
7.83039 -0.67279 -1.5209
7.70223 -0.474826 -1.49335
7.64724 -0.286371 -1.48091
7.62758 -0.101378 -1.4762
7.62558 0.0827387 -1.47577
7.64525 0.267612 -1.4804
7.69582 0.45558 -1.49189
7.8143 0.652198 -1.51746
7.79426 -0.669686 -1.58145
7.67962 -0.473432 -1.55542
7.62943 -0.285704 -1.5434
7.61073 -0.101154 -1.53868
7.60967 0.0825658 -1.53842
7.62745 0.266989 -1.54287
7.67324 0.454243 -1.55389
7.77833 0.649195 -1.57789
7.75835 -0.6666 -1.64164
7.65706 -0.472041 -1.61732
7.61164 -0.285038 -1.60581
7.5956 -0.100953 -1.60144
7.59455 0.0824018 -1.60118
7.60968 0.266367 -1.60525
7.65072 0.45291 -1.61575
7.74257 0.646211 -1.63796
8.39927 0.905644 -1.78099
7.72264 -0.663532 -1.70149
7.63455 -0.470653 -1.67908
7.59388 -0.284373 -1.66814
7.58048 -0.100752 -1.66418
7.57944 0.0822378 -1.6639
7.59193 0.265745 -1.66757
7.62825 0.45158 -1.67745
7.70799 0.643324 -1.69791
8.25693 0.890296 -1.82303
7.69388 -0.661061 -1.76255
7.61209 -0.469269 -1.74071
7.57613 -0.283709 -1.73041
7.56537 -0.100551 -1.7269
7.56433 0.0820739 -1.72661
7.57451 0.265136 -1.72989
7.60664 0.450301 -1.7392
7.68546 0.641444 -1.76025
8.21365 0.885629 -1.88558
7.68276 -0.660106 -1.82756
7.60086 -0.468576 -1.80486
7.56506 -0.283294 -1.79421
7.55413 -0.100402 -1.79052
7.55302 0.0819511 -1.7902
7.56395 0.264766 -1.79379
7.59623 0.449684 -1.80349
7.67426 0.64051 -1.82516
8.17297 0.881243 -1.94826
7.69542 -0.661194 -1.8985
7.60398 -0.468769 -1.87261
7.56571 -0.283318 -1.86095
7.55718 -0.100443 -1.85772
7.55771 0.0820023 -1.85779
7.5646 0.264789 -1.86052
7.59935 0.449869 -1.87119
7.68406 0.641327 -1.89531
8.13274 0.876906 -2.01061
7.7088 -0.662343 -1.97013
7.60713 -0.468963 -1.94069
7.56636 -0.283343 -1.92798
7.56715 -0.100575 -1.927
7.56769 0.0821105 -1.92708
7.56525 0.264812 -1.92753
7.60249 0.450055 -1.93922
7.69739 0.642441 -1.96681
8.15473 0.879276 -2.08849
7.73712 -0.664777 -2.04624
7.61849 -0.469664 -2.01128
7.57415 -0.283634 -1.99719
7.57971 -0.100742 -1.99743
7.58029 0.0822475 -1.99753
7.5747 0.265142 -1.99716
7.61272 0.450661 -2.00947
7.71997 0.644324 -2.04129
8.26367 0.891023 -2.1901
7.78081 -0.66853 -2.12737
7.64019 -0.471001 -2.0852
7.59013 -0.284233 -2.06906
7.59172 -0.100902 -2.06823
7.59099 0.0823633 -2.06797
7.59068 0.265702 -2.06903
7.63439 0.451943 -2.08331
7.74475 0.646393 -2.11707
8.27925 0.892702 -2.26841
8.33142 -0.715839 -2.35273
7.66212 -0.472353 -2.15988
7.60625 -0.284836 -2.14157
7.6002 -0.101014 -2.13855
7.59947 0.0824553 -2.13828
7.60679 0.266266 -2.14153
7.65628 0.453239 -2.15791
8.33102 0.695324 -2.35213
8.3355 0.898767 -2.35884
8.47135 -0.727859 -2.46869
8.46999 0.706924 -2.46778
10.0599 -0.0333041 -1.00665
9.5167 -0.488881 -1.03361
9.32947 -0.254927 -1.01231
9.24435 -0.0306042 -1.00271
9.30234 0.192558 -1.00921
9.46717 0.423511 -1.0279
9.04039 -0.464413 -1.05806
8.96486 -0.244964 -1.04823
8.93139 -0.0295681 -1.04394
8.95483 0.185365 -1.04689
9.01911 0.403467 -1.05524
8.81019 -0.452587 -1.10551
8.74208 -0.238877 -1.09593
8.70766 -0.0288275 -1.09122
8.73258 0.180764 -1.09457
8.78982 0.39321 -1.10261
8.90928 0.613144 -1.11912
8.98551 -0.678192 -1.20538
8.59715 -0.441643 -1.15153
8.5471 -0.233549 -1.14374
8.5205 -0.0282079 -1.13977
8.53981 0.176774 -1.14259
8.58097 0.383867 -1.149
8.6667 0.59645 -1.16206
8.58574 -0.648019 -1.22468
8.43308 -0.433215 -1.20107
8.38907 -0.229231 -1.19368
8.36271 -0.0276855 -1.18949
8.38193 0.173506 -1.19247
8.41918 0.376629 -1.19871
8.48419 0.583889 -1.20961
8.37765 -0.632313 -1.26632
8.30081 -0.42642 -1.2528
8.25531 -0.225576 -1.24475
8.23399 -0.0272593 -1.24108
8.24905 0.170755 -1.24361
8.28597 0.37067 -1.25016
8.34551 0.574345 -1.26086
8.24667 -0.622428 -1.31691
8.17782 -0.420102 -1.30392
8.13451 -0.222275 -1.29579
8.11178 -0.0268548 -1.2917
8.12836 0.168257 -1.29461
8.16249 0.365146 -1.30107
8.21965 0.565683 -1.31196
8.11445 -0.612448 -1.36523
8.01666 -0.411823 -1.34673
7.95767 -0.217443 -1.33555
7.93438 -0.0262675 -1.33116
7.94972 0.164559 -1.33401
7.99749 0.357765 -1.34308
8.07161 0.555495 -1.35737
8.51651 0.791923 -1.43498
8.52082 -0.849265 -1.50989
7.96308 -0.601024 -1.4081
7.83036 -0.402253 -1.38252
7.77212 -0.212373 -1.37094
7.75786 -0.0256831 -1.36793
7.76839 0.160806 -1.37007
7.80691 0.34924 -1.37794
7.89127 0.543084 -1.39473
8.23513 0.765758 -1.45834
8.18927 -0.81622 -1.52177
7.82409 -0.590533 -1.45086
7.69787 -0.395447 -1.42528
7.6568 -0.209222 -1.41634
7.63711 -0.0252833 -1.41218
7.65138 0.158383 -1.41511
7.68048 0.343584 -1.42161
7.75499 0.533705 -1.43736
8.06014 0.749486 -1.49682
8.05772 -0.803108 -1.56704
7.76244 -0.58588 -1.50644
7.67536 -0.39429 -1.48728
7.63901 -0.208736 -1.47884
7.62153 -0.0252317 -1.47491
7.63362 0.158016 -1.47756
7.65809 0.342582 -1.48346
7.72474 0.531623 -1.49841
7.8887 0.733544 -1.53319
8.01574 -0.798924 -1.62845
7.72697 -0.583202 -1.56648
7.65292 -0.393137 -1.54911
7.62125 -0.20825 -1.54124
7.60641 -0.0251817 -1.53768
7.61588 0.157649 -1.53991
7.63916 0.341736 -1.54583
7.70237 0.530084 -1.56075
7.84041 0.729055 -1.59181
7.97406 -0.79477 -1.68942
7.70295 -0.58139 -1.62855
7.63112 -0.392018 -1.61091
7.60351 -0.207766 -1.60357
7.59131 -0.0251317 -1.60041
7.59877 0.157294 -1.60231
7.62108 0.340927 -1.60828
7.68006 0.528548 -1.62294
7.80405 0.725673 -1.65234
7.93266 -0.790644 -1.74997
7.68054 -0.579699 -1.69079
7.61301 -0.391087 -1.67338
7.58644 -0.207299 -1.66596
7.57621 -0.0250817 -1.6631
7.58364 0.156981 -1.66508
7.60301 0.340118 -1.67065
7.6578 0.527016 -1.68498
7.7769 0.723149 -1.71452
7.9126 -0.788644 -1.81495
7.65819 -0.578011 -1.7529
7.59491 -0.390157 -1.73577
7.5713 -0.206886 -1.72874
7.56111 -0.0250317 -1.72578
7.56851 0.156668 -1.72783
7.58497 0.339311 -1.73295
7.63558 0.525487 -1.74689
7.75917 0.7215 -1.77862
7.91305 -0.788689 -1.88472
7.64678 -0.57715 -1.81747
7.58371 -0.389582 -1.79974
7.56047 -0.20659 -1.79253
7.54962 -0.0249936 -1.7893
7.55747 0.156439 -1.79154
7.57313 0.338782 -1.79666
7.62404 0.524693 -1.8112
7.7707 0.722572 -1.84963
7.89834 -0.787223 -1.95103
7.64943 -0.57735 -1.88558
7.58472 -0.389634 -1.86678
7.56112 -0.206607 -1.85922
7.55938 -0.025026 -1.8581
7.55812 0.156453 -1.85818
7.57414 0.338827 -1.86358
7.62667 0.524874 -1.87907
7.80496 0.725758 -1.92673
7.8975 -0.787139 -2.02091
7.66058 -0.578191 -1.95617
7.58771 -0.389788 -1.93462
7.5641 -0.206689 -1.92678
7.56936 -0.025059 -1.92741
7.56554 0.156606 -1.92683
7.57524 0.338876 -1.93082
7.63019 0.525116 -1.94748
7.79729 0.725044 -1.994
7.92003 -0.789384 -2.09727
7.6815 -0.57977 -2.02983
7.59709 -0.390269 -2.00447
7.57644 -0.207026 -1.99714
7.58032 -0.0250953 -1.99743
7.57798 0.156864 -1.99723
7.58409 0.339272 -2.00041
7.64947 0.526443 -2.0204
7.84149 0.729155 -2.07515
7.93297 -0.790675 -2.17171
7.70478 -0.581528 -2.10482
7.61593 -0.391237 -2.07738
7.59243 -0.207463 -2.06901
7.58874 -0.0251232 -2.06725
7.59395 0.157195 -2.0691
7.60197 0.340072 -2.07291
7.6729 0.528055 -2.0951
7.86353 0.731204 -2.15133
8.33387 -0.830631 -2.3564
7.72797 -0.583278 -2.1805
7.6377 -0.392356 -2.15175
7.60445 -0.207791 -2.14036
7.59722 -0.0251512 -2.13754
7.60244 0.15737 -2.13945
7.62205 0.34097 -2.14666
7.69611 0.529653 -2.17047
8.33263 0.774825 -2.35455
8.93739 0.754752 -1.35189
8.38887 0.70843 -1.34057
8.24038 0.69589 -1.38741
8.08053 0.682391 -1.42989
7.92871 0.66957 -1.47131
7.82075 0.660453 -1.51884
7.78472 0.65741 -1.57932
7.74889 0.654385 -1.63943
7.71327 0.651376 -1.69921
8.30009 0.903638 -1.83277
7.68883 0.649313 -1.76117
8.25683 0.898928 -1.8957
7.67767 0.64837 -1.82612
8.21571 0.894451 -1.95866
7.68861 0.649294 -1.89659
8.17484 0.890002 -2.02125
7.70197 0.650422 -1.96814
8.25879 0.899141 -2.11537
7.72471 0.652342 -2.04271
8.26372 0.899679 -2.19036
7.75919 0.655254 -2.12119
8.2793 0.901375 -2.26868
8.33118 0.703558 -2.35237
8.33572 0.907516 -2.35916
8.47053 0.715326 -2.46814
10.1288 0.0596039 -1.01356
9.45017 -0.401842 -1.02595
9.29468 -0.170167 -1.00833
9.25406 0.0544563 -1.00377
9.35127 0.281323 -1.01476
9.53876 0.518133 -1.03616
9.25707 -0.618244 -1.08441
9.012 -0.38321 -1.0543
8.95153 -0.163885 -1.04646
8.93489 0.0525782 -1.04436
8.97197 0.269912 -1.04915
9.04983 0.491575 -1.05933
8.88924 -0.593678 -1.11645
8.78302 -0.373473 -1.10165
8.72912 -0.159813 -1.09408
8.71098 0.0512605 -1.09165
8.746 0.263114 -1.09651
8.81921 0.479048 -1.10682
8.65251 -0.577869 -1.16
8.57556 -0.364652 -1.14816
8.53719 -0.1563 -1.14218
8.5234 0.0501567 -1.14017
8.55016 0.257222 -1.14425
8.60431 0.467375 -1.15267
8.47355 -0.565916 -1.20793
8.41453 -0.357804 -1.19793
8.37933 -0.153409 -1.19204
8.3656 0.0492281 -1.18991
8.39201 0.252464 -1.19419
8.43923 0.458408 -1.20213
8.85846 0.696428 -1.26388
8.33713 -0.556805 -1.25942
8.2808 -0.352118 -1.24926
8.24701 -0.150987 -1.24325
8.23626 0.048467 -1.24144
8.25793 0.248431 -1.24525
8.3074 0.451247 -1.25398
8.45237 0.664503 -1.27792
8.21217 -0.54846 -1.31059
8.15737 -0.346869 -1.30012
8.12611 -0.148774 -1.29419
8.11427 0.0477491 -1.29211
8.13705 0.244794 -1.2963
8.18462 0.444578 -1.30521
8.2874 0.651533 -1.32373
8.38639 -0.764239 -1.41281
8.06059 -0.538336 -1.35534
7.98926 -0.339721 -1.34157
7.94682 -0.145491 -1.33346
7.93608 0.0467007 -1.33146
7.96093 0.239496 -1.33621
8.02509 0.435913 -1.34835
8.15039 0.640762 -1.37161
8.20635 -0.747832 -1.453
7.87883 -0.526197 -1.39234
7.79908 -0.331634 -1.37643
7.767 -0.142199 -1.36976
7.75949 0.0456613 -1.36823
7.77426 0.23388 -1.37143
7.84077 0.425901 -1.38458
8.00076 0.628998 -1.4151
8.02492 -0.731299 -1.49003
7.74189 -0.517051 -1.43473
7.6747 -0.326345 -1.4204
7.64942 -0.140046 -1.41469
7.63923 0.0449537 -1.41259
7.65906 0.230414 -1.41687
7.70561 0.418559 -1.42694
7.86043 0.617966 -1.45795
8.2669 0.851562 -1.53671
7.86711 -0.716918 -1.52874
7.71768 -0.515434 -1.49684
7.65389 -0.32546 -1.4825
7.63167 -0.139721 -1.47711
7.62265 0.0448561 -1.47514
7.64126 0.229879 -1.47939
7.68306 0.417334 -1.489
7.78276 0.61186 -1.51075
8.19477 0.844131 -1.59422
7.82823 -0.713375 -1.58907
7.69535 -0.513943 -1.55911
7.6358 -0.324691 -1.545
7.61394 -0.139397 -1.53945
7.60753 0.0447671 -1.53792
7.62348 0.229344 -1.54182
7.66056 0.416112 -1.5509
7.74709 0.609056 -1.57094
8.15087 0.83961 -1.65645
7.79198 -0.710072 -1.64951
7.67308 -0.512456 -1.62124
7.61773 -0.323923 -1.60742
7.59775 -0.1391 -1.60202
7.59242 0.044678 -1.60066
7.60573 0.22881 -1.60416
7.63812 0.414893 -1.61264
7.71379 0.606438 -1.63124
8.10729 0.835121 -1.71822
7.75595 -0.706788 -1.70961
7.65086 -0.510972 -1.68323
7.59968 -0.323155 -1.66976
7.58262 -0.138823 -1.66478
7.57731 0.0445893 -1.66337
7.58799 0.228276 -1.66644
7.61745 0.41377 -1.67461
7.69132 0.604671 -1.69357
8.06403 0.830665 -1.77955
7.72011 -0.703522 -1.76936
7.62869 -0.509491 -1.74508
7.58166 -0.322389 -1.73203
7.5675 -0.138546 -1.72752
7.56221 0.0445004 -1.72605
7.57246 0.227809 -1.72914
7.59933 0.412786 -1.73705
7.66889 0.602908 -1.75577
8.02107 0.826239 -1.84044
7.72634 -0.704089 -1.83876
7.61711 -0.508718 -1.80931
7.56961 -0.321877 -1.79565
7.55639 -0.138343 -1.7912
7.55078 0.0444329 -1.7896
7.56172 0.227486 -1.79297
7.58842 0.412193 -1.80114
7.65757 0.602017 -1.82048
7.98224 0.822239 -1.90183
7.76487 -0.707601 -1.91651
7.61974 -0.508893 -1.8771
7.57062 -0.321919 -1.86254
7.55704 -0.138355 -1.85783
7.55881 0.0444805 -1.85799
7.56237 0.227506 -1.85967
7.59014 0.412287 -1.86841
7.66176 0.602347 -1.88907
7.94584 0.818489 -1.96342
7.76988 -0.708058 -1.98665
7.62237 -0.509069 -1.94522
7.57163 -0.321962 -1.92972
7.56606 -0.13852 -1.92688
7.56878 0.0445392 -1.92728
7.56351 0.22754 -1.92678
7.59327 0.412457 -1.93633
7.67502 0.603389 -1.96033
7.94211 0.818106 -2.03301
7.81377 -0.712057 -2.06746
7.63973 -0.510229 -2.01756
7.57977 -0.322309 -1.99908
7.57853 -0.138748 -1.99728
7.58109 0.0446116 -1.99765
7.57581 0.22791 -1.99713
7.60288 0.412979 -2.00631
7.69672 0.605095 -2.03434
7.98752 0.822783 -2.11585
7.84443 -0.714851 -2.14574
7.6631 -0.51179 -2.09214
7.59763 -0.323068 -2.07153
7.59323 -0.139017 -2.0688
7.58951 0.0446611 -2.06748
7.5918 0.228391 -2.069
7.62286 0.414064 -2.07959
7.71983 0.606912 -2.10943
8.03054 0.827215 -2.19916
8.33231 -0.759311 -2.35406
7.68643 -0.513348 -2.16744
7.61686 -0.323885 -2.14499
7.60171 -0.139173 -2.13915
7.59798 0.044711 -2.13778
7.60529 0.228797 -2.14076
7.64468 0.415249 -2.15405
7.74311 0.608743 -2.1853
8.33452 0.858527 -2.35738
8.47435 -0.772256 -2.47069
10.1553 -0.0687069 -1.01621
9.54746 -0.524548 -1.03714
9.35721 -0.288533 -1.01543
9.25738 -0.0626317 -1.00414
9.29143 0.16071 -1.00796
9.44104 0.390658 -1.02491
9.05182 -0.497317 -1.0596
8.97439 -0.276728 -1.04946
8.93608 -0.060458 -1.0445
8.95019 0.154808 -1.04628
9.00833 0.372753 -1.05382
9.21876 0.603909 -1.07983
8.82112 -0.484642 -1.1071
8.74737 -0.269728 -1.09671
8.71221 -0.0589434 -1.09181
8.72765 0.150958 -1.09388
8.77952 0.363286 -1.10116
8.87669 0.5815 -1.11478
8.60583 -0.472814 -1.15291
8.551 -0.263673 -1.14438
8.52439 -0.0576726 -1.14031
8.53608 0.147645 -1.14202
8.57277 0.35473 -1.14773
8.64362 0.566233 -1.15871
8.89616 -0.703781 -1.26931
8.44053 -0.463732 -1.20236
8.39281 -0.258795 -1.19433
8.36658 -0.0566048 -1.19006
8.37822 0.144914 -1.19187
8.41212 0.348084 -1.19753
8.46688 0.554655 -1.20688
8.47683 -0.670608 -1.28167
8.30878 -0.456494 -1.25424
8.25865 -0.254658 -1.24538
8.23703 -0.0557282 -1.24156
8.24615 0.14263 -1.24309
8.27806 0.342536 -1.24879
8.3323 0.545838 -1.25858
8.2952 -0.656239 -1.32503
8.18606 -0.449751 -1.30548
8.13774 -0.25093 -1.29644
8.11512 -0.0549037 -1.29225
8.12516 0.140537 -1.29402
8.15472 0.337432 -1.29964
8.20943 0.537789 -1.31004
8.97196 0.804923 -1.4344
8.15793 -0.645379 -1.37293
8.02687 -0.441005 -1.3487
7.96181 -0.245505 -1.33639
7.93666 -0.0536962 -1.33156
7.94558 0.137431 -1.33323
7.98501 0.33041 -1.34079
8.05696 0.527801 -1.35461
8.32329 0.746727 -1.402
8.00671 -0.633416 -1.41621
7.84297 -0.430901 -1.38501
7.77509 -0.239748 -1.37161
7.76004 -0.0525013 -1.36833
7.76641 0.134332 -1.36963
7.79504 0.322549 -1.37565
7.8728 0.515737 -1.39116
8.18276 0.73412 -1.44864
7.86616 -0.622297 -1.45907
7.70725 -0.423445 -1.42729
7.65967 -0.236189 -1.41702
7.63995 -0.0516888 -1.41273
7.64859 0.132294 -1.41451
7.67171 0.317446 -1.41978
7.7356 0.506749 -1.43345
7.99834 0.717574 -1.48491
8.20949 -0.848633 -1.59715
7.78597 -0.615953 -1.51143
7.68468 -0.422205 -1.48937
7.64187 -0.235639 -1.47954
7.62303 -0.0515744 -1.47523
7.63085 0.131987 -1.47693
7.65215 0.316636 -1.48209
7.71325 0.505285 -1.49585
7.85536 0.704747 -1.52626
8.16543 -0.844079 -1.65947
7.75026 -0.613128 -1.57164
7.66218 -0.420968 -1.55128
7.62409 -0.235091 -1.54198
7.60791 -0.051472 -1.53801
7.61312 0.131681 -1.53926
7.63406 0.315888 -1.54458
7.69095 0.503824 -1.55809
7.81899 0.701484 -1.58699
8.1217 -0.839558 -1.72134
7.7155 -0.610378 -1.63166
7.63973 -0.419735 -1.61303
7.60633 -0.234544 -1.60433
7.5928 -0.0513698 -1.60075
7.59732 0.131407 -1.6019
7.616 0.315141 -1.60698
7.66871 0.502367 -1.62018
7.78283 0.69824 -1.64736
8.07828 -0.83507 -1.78276
7.69301 -0.608599 -1.69401
7.61839 -0.418562 -1.67488
7.58859 -0.233997 -1.66661
7.57769 -0.0512676 -1.66346
7.58219 0.131146 -1.66466
7.59796 0.314394 -1.6693
7.64652 0.500913 -1.68213
7.74688 0.695015 -1.70739
8.03517 -0.830613 -1.84375
7.67058 -0.606825 -1.75623
7.60026 -0.417566 -1.73733
7.57277 -0.233509 -1.72926
7.56259 -0.0511654 -1.72615
7.56707 0.130884 -1.72739
7.57995 0.313649 -1.73155
7.62437 0.499462 -1.74394
7.71113 0.691808 -1.76708
7.99628 -0.826593 -1.90525
7.65926 -0.605929 -1.82095
7.58942 -0.416971 -1.80144
7.56206 -0.233179 -1.79309
7.55118 -0.0510882 -1.7897
7.55594 0.130692 -1.79106
7.5678 0.313146 -1.79513
7.61277 0.498703 -1.80813
7.6997 0.690781 -1.83219
7.95844 -0.822682 -1.96661
7.66402 -0.606306 -1.8897
7.59132 -0.417075 -1.86876
7.56271 -0.233199 -1.8598
7.55861 -0.0511385 -1.85795
7.55658 0.130703 -1.85768
7.5688 0.313188 -1.862
7.61539 0.498874 -1.87587
7.73114 0.693602 -1.90795
7.94661 -0.821459 -2.03424
7.67729 -0.607355 -1.96099
7.59445 -0.417247 -1.9367
7.56336 -0.233219 -1.92678
7.56859 -0.051206 -1.92724
7.56628 0.13087 -1.9269
7.56981 0.313229 -1.92916
7.61803 0.499047 -1.94395
7.74917 0.69522 -1.98111
8.00491 -0.827485 -2.12054
7.69911 -0.609082 -2.03506
7.60411 -0.417778 -2.00671
7.57564 -0.233597 -1.99713
7.58127 -0.0512918 -1.99771
7.57877 0.131086 -1.99731
7.57755 0.313549 -1.99839
7.63364 0.50007 -2.01578
7.79282 0.699136 -2.06166
8.04411 -0.831537 -2.20296
7.7222 -0.610908 -2.11016
7.62433 -0.418889 -2.08006
7.59163 -0.23409 -2.069
7.58977 -0.0513493 -2.06756
7.59292 0.131331 -2.06868
7.59539 0.314288 -2.07082
7.65697 0.501598 -2.09029
7.82998 0.702469 -2.14152
8.33459 -0.861566 -2.35749
7.7455 -0.612751 -2.18605
7.64616 -0.420088 -2.15454
7.60552 -0.234519 -2.14088
7.59825 -0.0514067 -2.13786
7.60141 0.131478 -2.13902
7.61418 0.315065 -2.14413
7.68037 0.503131 -2.16555
8.33206 0.747514 -2.35369
8.47351 0.760205 -2.47014
10.1288 -0.0596096 -1.01356
9.53836 -0.517594 -1.03612
9.35106 -0.281064 -1.01474
9.25406 -0.0544613 -1.00377
9.29459 0.169904 -1.00832
9.44973 0.401299 -1.0259
9.04966 -0.491075 -1.05931
8.97189 -0.269668 -1.04914
8.93489 -0.0525829 -1.04436
8.95149 0.163632 -1.04645
9.01182 0.382702 -1.05428
9.25456 0.617305 -1.08411
8.81905 -0.478561 -1.1068
8.74596 -0.262877 -1.09651
8.71098 -0.0512652 -1.09165
8.72908 0.159566 -1.09408
8.78285 0.372979 -1.10163
8.88841 0.592882 -1.11634
8.60418 -0.466902 -1.15265
8.55013 -0.256991 -1.14424
8.5234 -0.0501613 -1.14017
8.53716 0.156058 -1.14218
8.57543 0.36417 -1.14814
8.65193 0.577108 -1.15991
8.8522 -0.695208 -1.26298
8.43912 -0.457944 -1.20211
8.39198 -0.252238 -1.19418
8.3656 -0.0492325 -1.18991
8.3793 0.153172 -1.19204
8.41441 0.357332 -1.19791
8.47312 0.56518 -1.20786
8.44619 -0.663323 -1.27698
8.30727 -0.45079 -1.25396
8.25791 -0.248208 -1.24524
8.23626 -0.0484713 -1.24144
8.24699 0.150754 -1.24324
8.28067 0.351653 -1.24923
8.33678 0.556086 -1.25936
8.2861 -0.65075 -1.32351
8.1845 -0.444128 -1.30519
8.13703 -0.244574 -1.2963
8.11427 -0.0477535 -1.29211
8.12609 0.148544 -1.29419
8.15724 0.346411 -1.3001
8.21199 0.547762 -1.31055
8.14913 -0.639993 -1.37139
8.02494 -0.435469 -1.34832
7.9609 -0.23928 -1.3362
7.93608 -0.0467048 -1.33146
7.94678 0.145266 -1.33345
7.98906 0.339269 -1.34153
8.06035 0.537648 -1.35529
8.37819 0.762561 -1.41142
7.99977 -0.628262 -1.41492
7.84058 -0.425465 -1.38454
7.77423 -0.23367 -1.37142
7.75949 -0.0456655 -1.36823
7.76698 0.141979 -1.36976
7.79888 0.331193 -1.37639
7.87832 0.525505 -1.39225
8.20463 0.746764 -1.45268
8.25901 -0.849838 -1.53523
7.85947 -0.617244 -1.45776
7.70547 -0.418133 -1.42691
7.65904 -0.230207 -1.41687
7.63923 -0.0449578 -1.41259
7.6494 0.13983 -1.41468
7.67455 0.325913 -1.42037
7.74135 0.51637 -1.43463
8.02282 0.730216 -1.48963
8.19029 -0.842767 -1.59334
7.78223 -0.611178 -1.51064
7.68292 -0.41691 -1.48897
7.64124 -0.229672 -1.47938
7.62265 -0.0448602 -1.47514
7.63165 0.139505 -1.47711
7.65381 0.325032 -1.48248
7.71739 0.514771 -1.49677
7.86582 0.715926 -1.52847
8.14646 -0.838256 -1.65554
7.74657 -0.608377 -1.57082
7.66042 -0.415689 -1.55087
7.62346 -0.229138 -1.54181
7.60753 -0.0447712 -1.53792
7.61392 0.139181 -1.53944
7.63572 0.324264 -1.54498
7.69506 0.513282 -1.55905
7.8275 0.712438 -1.5889
8.10293 -0.833777 -1.71728
7.71351 -0.605781 -1.63117
7.63798 -0.414471 -1.61261
7.6057 -0.228604 -1.60416
7.59242 -0.0446823 -1.60066
7.59774 0.138885 -1.60202
7.61765 0.323496 -1.6074
7.6728 0.511797 -1.62117
7.79126 0.70914 -1.64934
8.05972 -0.82933 -1.77858
7.69104 -0.604016 -1.6935
7.61737 -0.413352 -1.67459
7.58797 -0.228071 -1.66643
7.57731 -0.0445934 -1.66337
7.58261 0.138609 -1.66478
7.5996 0.32273 -1.66974
7.65058 0.510315 -1.68315
7.75523 0.70586 -1.70943
8.0168 -0.824915 -1.83944
7.66861 -0.602255 -1.7557
7.59925 -0.412369 -1.73703
7.57244 -0.227605 -1.72914
7.56221 -0.0445045 -1.72605
7.56748 0.138332 -1.72752
7.58158 0.321964 -1.732
7.62841 0.508836 -1.745
7.7194 0.702599 -1.76919
7.97799 -0.820921 -1.9008
7.65728 -0.601365 -1.8204
7.58834 -0.411777 -1.80111
7.56171 -0.227282 -1.79297
7.55078 -0.0444372 -1.7896
7.55638 0.138129 -1.79119
7.56953 0.321453 -1.79563
7.61682 0.508063 -1.80923
7.7237 0.70299 -1.83812
7.94426 -0.81745 -1.96301
7.66138 -0.601687 -1.88896
7.59004 -0.411869 -1.86838
7.56236 -0.227301 -1.85967
7.55881 -0.0444845 -1.85799
7.55703 0.138141 -1.85783
7.57053 0.321495 -1.86251
7.61945 0.508238 -1.87702
7.76221 0.706495 -1.91584
7.94095 -0.81711 -2.03269
7.67464 -0.602728 -1.96022
7.59317 -0.412039 -1.9363
7.56352 -0.227336 -1.92678
7.56878 -0.0445432 -1.92728
7.56606 0.138306 -1.92688
7.57154 0.321538 -1.92969
7.62209 0.508414 -1.94514
7.76825 0.707045 -1.98621
7.98226 -0.82136 -2.11443
7.69632 -0.604431 -2.03423
7.60278 -0.412561 -2.00628
7.57582 -0.227706 -1.99713
7.58109 -0.0446156 -1.99765
7.57854 0.138535 -1.99728
7.57967 0.321883 -1.99904
7.63933 0.509565 -2.01744
7.81212 0.711038 -2.067
8.02643 -0.825906 -2.19801
7.71943 -0.606246 -2.10931
7.62274 -0.413644 -2.07955
7.5918 -0.228187 -2.069
7.58951 -0.0446652 -2.06748
7.59322 0.138803 -2.0688
7.59752 0.322641 -2.07149
7.6627 0.511123 -2.09202
7.84329 0.713876 -2.14541
8.3345 -0.857605 -2.35735
7.74271 -0.608075 -2.18517
7.64455 -0.414828 -2.15401
7.60528 -0.228592 -2.14076
7.59798 -0.044715 -2.13778
7.6017 0.138958 -2.13914
7.61673 0.323457 -2.14495
7.68604 0.51268 -2.16732
8.33229 0.758382 -2.35403
8.47428 0.771306 -2.47065
9.90601 -0.618266 -1.07656
9.4154 -0.35933 -1.022
9.2807 -0.129555 -1.00674
9.26863 0.0948042 -1.00539
9.3857 0.323136 -1.01864
9.66398 0.566976 -1.05002
9.13593 -0.570203 -1.06992
8.99799 -0.3434 -1.05248
8.94576 -0.124879 -1.04571
8.94076 0.0914505 -1.04508
8.98597 0.309374 -1.05093
9.06611 0.531899 -1.0615
8.85251 -0.552514 -1.11152
8.76973 -0.334688 -1.09979
8.72279 -0.121767 -1.09321
8.71732 0.0891651 -1.09248
8.75834 0.301537 -1.09821
8.83252 0.518195 -1.10876
8.62394 -0.538248 -1.15584
8.56527 -0.326885 -1.14658
8.53241 -0.119109 -1.14146
8.52826 0.0872313 -1.14086
8.55705 0.294607 -1.14533
8.61487 0.505426 -1.15437
8.45624 -0.527781 -1.20512
8.40535 -0.320782 -1.19642
8.37456 -0.116906 -1.19128
8.37044 0.085617 -1.19064
8.39745 0.289112 -1.19513
8.44828 0.495652 -1.20372
8.32542 -0.519617 -1.2573
8.27037 -0.315631 -1.24746
8.24328 -0.115073 -1.2426
8.24005 0.0842833 -1.24205
8.26204 0.28445 -1.24604
8.31709 0.487955 -1.25576
8.82501 0.732284 -1.33473
8.52419 -0.739352 -1.36246
8.20278 -0.511962 -1.30872
8.14726 -0.310933 -1.29829
8.122 -0.11338 -1.29345
8.11845 0.0830395 -1.29282
8.14102 0.280283 -1.29711
8.19464 0.480771 -1.30713
8.35685 0.693438 -1.33529
8.27619 -0.717841 -1.39371
8.04817 -0.502312 -1.35287
7.97304 -0.304283 -1.33861
7.94149 -0.11086 -1.33247
7.9389 0.0812028 -1.33198
7.96602 0.274259 -1.33725
8.03751 0.471552 -1.35077
8.21751 0.681875 -1.38339
8.12462 -0.704695 -1.43797
7.86443 -0.490845 -1.38941
7.78365 -0.297056 -1.37347
7.76443 -0.108388 -1.36921
7.76217 0.0793952 -1.36875
7.77908 0.267823 -1.37247
7.85429 0.460803 -1.3873
8.05361 0.668275 -1.42495
7.95579 -0.690051 -1.47662
7.72693 -0.482263 -1.43156
7.66566 -0.292552 -1.41848
7.64586 -0.106733 -1.41393
7.6428 0.0781743 -1.4133
7.66261 0.263813 -1.41773
7.71706 0.452752 -1.42941
7.91139 0.656474 -1.46792
7.83574 -0.679639 -1.52205
7.70424 -0.480846 -1.49381
7.64782 -0.291872 -1.48107
7.62812 -0.106486 -1.47632
7.62507 0.077993 -1.47567
7.64479 0.263199 -1.48028
7.69443 0.451424 -1.49157
7.81114 0.648156 -1.51679
7.79956 -0.676501 -1.58264
7.68161 -0.479434 -1.55589
7.63 -0.291192 -1.54356
7.61101 -0.106247 -1.53875
7.60941 0.0778328 -1.53836
7.62699 0.262586 -1.54274
7.67186 0.4501 -1.55357
7.7752 0.645173 -1.57719
7.7636 -0.673382 -1.64286
7.65904 -0.478025 -1.61782
7.61222 -0.290513 -1.60597
7.59589 -0.106036 -1.60152
7.59429 0.0776782 -1.60111
7.60922 0.261974 -1.60512
7.64935 0.44878 -1.61541
7.73947 0.642208 -1.63724
8.28417 0.889599 -1.75651
7.72783 -0.67028 -1.70275
7.63652 -0.476619 -1.6796
7.59445 -0.289835 -1.66831
7.58077 -0.105824 -1.66426
7.57917 0.0775236 -1.66383
7.59147 0.261363 -1.66743
7.62689 0.447462 -1.6771
7.70632 0.639458 -1.69747
8.23898 0.884747 -1.81898
7.69668 -0.667577 -1.76331
7.61405 -0.475217 -1.74124
7.5767 -0.289157 -1.73059
7.56565 -0.105613 -1.72698
7.56407 0.077369 -1.72654
7.57427 0.260771 -1.7298
7.60585 0.446227 -1.73897
7.6838 0.637589 -1.7598
8.1957 0.880099 -1.88137
7.68591 -0.666643 -1.82843
7.6023 -0.474484 -1.80528
7.56538 -0.288725 -1.79433
7.55443 -0.105457 -1.79061
7.55274 0.0772529 -1.79013
7.56369 0.260407 -1.79369
7.59538 0.445613 -1.80323
7.67259 0.636659 -1.82469
8.15519 0.875749 -1.94393
7.6992 -0.667796 -1.89957
7.60543 -0.47468 -1.87305
7.56603 -0.28875 -1.86108
7.55703 -0.105493 -1.8577
7.55785 0.0773054 -1.85782
7.56434 0.260429 -1.86041
7.59835 0.445788 -1.87088
7.68182 0.637425 -1.89468
8.11523 0.871458 -2.00619
7.71262 -0.66896 -1.97125
7.60858 -0.474876 -1.94115
7.56668 -0.288775 -1.92812
7.56701 -0.105632 -1.92698
7.56782 0.0774074 -1.92711
7.56499 0.260451 -1.92742
7.60149 0.445972 -1.93891
7.69515 0.638531 -1.96616
8.13792 0.873895 -2.08408
7.74902 -0.672117 -2.04953
7.62029 -0.475607 -2.01186
7.57398 -0.289054 -1.9972
7.57956 -0.105808 -1.99741
7.58044 0.0775364 -1.99755
7.57483 0.26079 -1.99715
7.61148 0.446558 -2.00907
7.71765 0.640397 -2.04059
8.16725 0.877044 -2.16444
7.79285 -0.675919 -2.13081
7.64214 -0.476971 -2.08583
7.58996 -0.289664 -2.06907
7.59192 -0.10598 -2.0683
7.5908 0.0776424 -2.0679
7.59081 0.261341 -2.06902
7.63314 0.447828 -2.0829
7.74082 0.64232 -2.11591
8.27923 0.889068 -2.26829
8.33155 -0.722644 -2.35294
7.66563 -0.478436 -2.16097
7.60707 -0.290317 -2.14186
7.6004 -0.106099 -2.13863
7.59928 0.0777292 -2.13822
7.60662 0.261885 -2.14144
7.65502 0.449112 -2.15749
8.33094 0.691287 -2.35202
8.33541 0.895102 -2.3587
8.47181 -0.734808 -2.469
8.46973 0.702804 -2.46761
9.91155 -0.619645 -1.07717
9.41651 -0.360688 -1.02213
9.28126 -0.131189 -1.00681
9.26795 0.0928421 -1.00531
9.38374 0.320754 -1.01842
9.65467 0.563697 -1.04899
9.13867 -0.571327 -1.07024
8.99844 -0.344675 -1.05254
8.94599 -0.12645 -1.04574
8.94047 0.0895616 -1.04504
8.98518 0.307131 -1.05083
9.06392 0.529206 -1.06122
8.85328 -0.553484 -1.11163
8.77015 -0.33593 -1.09985
8.72305 -0.123299 -1.09325
8.71701 0.0873231 -1.09244
8.75759 0.299351 -1.09811
8.83165 0.515645 -1.10863
8.62419 -0.539163 -1.15588
8.56558 -0.328094 -1.14663
8.5326 -0.120607 -1.14149
8.52803 0.08543 -1.14082
8.55651 0.292478 -1.14525
8.61419 0.502948 -1.15426
8.45648 -0.528678 -1.20517
8.40564 -0.321968 -1.19646
8.37475 -0.118376 -1.19131
8.3702 0.0838489 -1.19061
8.39693 0.287024 -1.19505
8.44769 0.493227 -1.20362
8.32566 -0.520499 -1.25734
8.2707 -0.316799 -1.24752
8.24343 -0.11652 -1.24262
8.23987 0.0825433 -1.24202
8.2618 0.282405 -1.24599
8.31646 0.485565 -1.25564
8.61974 0.712492 -1.30365
8.52689 -0.740172 -1.3629
8.203 -0.512831 -1.30877
8.14759 -0.312083 -1.29834
8.12217 -0.114806 -1.29347
8.11824 0.0813249 -1.29279
8.14079 0.278268 -1.29707
8.19399 0.478414 -1.307
8.35172 0.69034 -1.33443
8.27727 -0.718504 -1.3939
8.04847 -0.50317 -1.35292
7.97356 -0.305418 -1.3387
7.9417 -0.112255 -1.33251
7.93876 0.0795273 -1.33195
7.96573 0.272284 -1.33719
8.0367 0.469231 -1.35061
8.21255 0.678836 -1.38252
8.12595 -0.705369 -1.43821
7.86472 -0.491682 -1.38947
7.78415 -0.298163 -1.37356
7.76454 -0.109751 -1.36923
7.76205 0.0777568 -1.36873
7.77881 0.265895 -1.37241
7.85353 0.458535 -1.38715
8.04972 0.665377 -1.42422
7.9566 -0.690669 -1.47678
7.72721 -0.483086 -1.43162
7.66577 -0.293628 -1.41851
7.646 -0.108075 -1.41396
7.64262 0.0765603 -1.41326
7.66241 0.261916 -1.41768
7.71632 0.450525 -1.42925
7.90763 0.653632 -1.46718
7.8362 -0.680217 -1.52215
7.70451 -0.481667 -1.49387
7.64793 -0.292945 -1.4811
7.62827 -0.107825 -1.47635
7.6249 0.0763828 -1.47563
7.64459 0.261307 -1.48023
7.69369 0.449204 -1.4914
7.80905 0.645484 -1.51635
7.80001 -0.677076 -1.58274
7.68188 -0.480252 -1.55596
7.63012 -0.292262 -1.54359
7.61109 -0.107582 -1.53877
7.60931 0.0762268 -1.53833
7.62679 0.260698 -1.54269
7.67113 0.447886 -1.55339
7.77313 0.642515 -1.57673
7.76404 -0.673953 -1.64297
7.65931 -0.478841 -1.61788
7.61233 -0.291581 -1.60601
7.59596 -0.107368 -1.60154
7.5942 0.0760752 -1.60109
7.60902 0.260091 -1.60507
7.64862 0.446572 -1.61523
7.73742 0.639563 -1.63676
8.26944 0.885061 -1.75332
7.72827 -0.670848 -1.70286
7.63679 -0.477433 -1.67967
7.59456 -0.2909 -1.66835
7.58084 -0.107154 -1.66428
7.57908 0.0759239 -1.66381
7.59127 0.259484 -1.66738
7.62617 0.445261 -1.67691
7.70522 0.636901 -1.69718
8.22441 0.880242 -1.8157
7.69692 -0.668126 -1.76338
7.61431 -0.476028 -1.74131
7.57681 -0.29022 -1.73062
7.56573 -0.106941 -1.727
7.56398 0.0757724 -1.72651
7.57417 0.2589 -1.72976
7.60542 0.44405 -1.73884
7.6827 0.63504 -1.75951
8.18112 0.875609 -1.87795
7.68622 -0.667199 -1.82852
7.60262 -0.475297 -1.80537
7.56544 -0.289785 -1.79436
7.55451 -0.106782 -1.79063
7.55265 0.0756593 -1.7901
7.56358 0.258538 -1.79365
7.59493 0.443437 -1.8031
7.67148 0.634113 -1.82438
8.14076 0.871289 -1.94041
7.69952 -0.668353 -1.89966
7.60563 -0.475485 -1.87311
7.56609 -0.28981 -1.86111
7.55699 -0.106817 -1.85769
7.5579 0.0757116 -1.85782
7.56423 0.25856 -1.86037
7.59782 0.443606 -1.87072
7.68035 0.634845 -1.89427
8.10102 0.867036 -2.0026
7.71295 -0.669519 -1.97134
7.60877 -0.475681 -1.94121
7.56675 -0.289835 -1.92814
7.56697 -0.106958 -1.92698
7.56787 0.0758115 -1.92711
7.56488 0.258582 -1.92738
7.60095 0.443789 -1.93874
7.69367 0.635947 -1.96573
8.1231 0.869399 -2.08021
7.75002 -0.672737 -2.04981
7.62054 -0.476417 -2.01193
7.57395 -0.290111 -1.9972
7.57951 -0.107135 -1.9974
7.58049 0.0759382 -1.99756
7.57488 0.258924 -1.99715
7.6109 0.44437 -2.00889
7.71611 0.637802 -2.04013
8.15351 0.872654 -2.16072
7.79386 -0.676542 -2.1311
7.64264 -0.477799 -2.08598
7.58993 -0.290723 -2.06908
7.59197 -0.107312 -2.06832
7.59074 0.0760406 -2.06788
7.59086 0.25947 -2.06902
7.63247 0.445629 -2.08269
7.73928 0.639716 -2.11543
8.27921 0.886107 -2.2682
8.33157 -0.723217 -2.35295
7.66613 -0.479267 -2.16113
7.60735 -0.29139 -2.14195
7.60045 -0.107431 -2.13865
7.59922 0.0761255 -2.1382
7.60654 0.260006 -2.1414
7.65434 0.446906 -2.15727
8.33089 0.688618 -2.35194
8.33533 0.892114 -2.35859
8.47185 -0.735395 -2.46902
8.46956 0.700081 -2.46749
10.0393 -0.0245173 -1.00459
9.51427 -0.48566 -1.03332
9.32476 -0.249232 -1.01179
9.24106 -0.0225678 -1.00235
9.30598 0.203251 -1.00963
9.47771 0.437393 -1.02911
9.03935 -0.461417 -1.05792
8.96396 -0.239589 -1.04811
8.9302 -0.0218087 -1.04379
8.95657 0.195619 -1.04712
9.02365 0.416438 -1.05584
8.80919 -0.449669 -1.10537
8.74123 -0.233635 -1.09581
8.70653 -0.0212624 -1.09107
8.73422 0.190763 -1.0948
8.79417 0.405848 -1.10323
8.97049 0.632535 -1.12694
8.98136 -0.677403 -1.20482
8.59635 -0.438804 -1.1514
8.54643 -0.228429 -1.14364
8.51952 -0.0208057 -1.13963
8.54105 0.186544 -1.14278
8.58442 0.396168 -1.14953
8.67853 0.611948 -1.16378
8.58361 -0.647404 -1.22437
8.4324 -0.430435 -1.20096
8.38843 -0.224206 -1.19357
8.36173 -0.0204203 -1.18935
8.38317 0.183096 -1.19268
8.42215 0.388679 -1.19921
8.49304 0.598869 -1.21102
8.37679 -0.631804 -1.26618
8.30009 -0.423681 -1.25267
8.25474 -0.220633 -1.24465
8.23322 -0.0201062 -1.24096
8.25005 0.180188 -1.24379
8.28914 0.38254 -1.25072
8.35249 0.588959 -1.26206
8.24646 -0.621974 -1.31687
8.17707 -0.417402 -1.30378
8.13396 -0.217404 -1.29569
8.11094 -0.0198079 -1.29156
8.12943 0.177554 -1.29481
8.16576 0.376847 -1.30167
8.22647 0.580072 -1.31321
8.11411 -0.611992 -1.36517
8.01573 -0.409166 -1.34655
7.95696 -0.212673 -1.33541
7.9338 -0.0193753 -1.33106
7.9511 0.173659 -1.33427
8.0017 0.369275 -1.34387
8.08247 0.569919 -1.35936
8.53328 -0.852395 -1.51213
7.96245 -0.600553 -1.40798
7.82921 -0.399645 -1.3823
7.77179 -0.207724 -1.37086
7.75731 -0.0189443 -1.36783
7.76904 0.169683 -1.37022
7.81191 0.360517 -1.37892
7.90421 0.557349 -1.39718
8.2659 0.784931 -1.46406
8.19362 -0.818467 -1.52262
7.82348 -0.590072 -1.45074
7.69702 -0.392897 -1.4251
7.65632 -0.204638 -1.41623
7.63639 -0.018649 -1.41204
7.65232 0.167133 -1.41532
7.68419 0.354622 -1.42239
7.7673 0.547695 -1.43981
8.09786 0.768974 -1.50411
8.06667 -0.805786 -1.56881
7.7621 -0.585443 -1.50637
7.67452 -0.391749 -1.48709
7.63853 -0.204163 -1.47872
7.62115 -0.0186118 -1.47483
7.63455 0.166745 -1.47777
7.66177 0.353588 -1.48427
7.73062 0.545109 -1.49973
7.91657 0.751759 -1.53889
8.0246 -0.801583 -1.63028
7.72663 -0.582767 -1.56641
7.65207 -0.390603 -1.54891
7.62077 -0.203688 -1.54112
7.60604 -0.0185749 -1.5376
7.61681 0.166358 -1.54014
7.64132 0.352644 -1.54637
7.70822 0.543529 -1.56212
7.85774 0.746172 -1.59562
7.98282 -0.79741 -1.69131
7.70277 -0.580967 -1.62851
7.63063 -0.389509 -1.61078
7.60303 -0.203214 -1.60344
7.59093 -0.018538 -1.60032
7.59926 0.165974 -1.60245
7.62322 0.351809 -1.60884
7.68587 0.541953 -1.62436
7.83976 0.744465 -1.66021
7.94134 -0.793266 -1.75192
7.68036 -0.579277 -1.69075
7.61252 -0.388584 -1.67324
7.58619 -0.202764 -1.66588
7.57583 -0.0185011 -1.66302
7.58412 0.165643 -1.66523
7.60514 0.350975 -1.67123
7.66357 0.540381 -1.68645
7.8218 0.742759 -1.72473
7.91779 -0.790913 -1.81618
7.65801 -0.577591 -1.75285
7.59442 -0.38766 -1.73563
7.57105 -0.202359 -1.72866
7.56074 -0.0184643 -1.72569
7.56899 0.165313 -1.72798
7.58709 0.350141 -1.73355
7.64132 0.538812 -1.74841
7.80386 0.741055 -1.78919
7.91619 -0.790755 -1.88551
7.6466 -0.576731 -1.81742
7.58319 -0.387087 -1.79959
7.5602 -0.202069 -1.79244
7.54966 -0.0184372 -1.78931
7.55799 0.165073 -1.7917
7.57539 0.349601 -1.79731
7.62981 0.538 -1.81279
7.81837 0.742433 -1.86132
7.90147 -0.789284 -1.95185
7.64925 -0.576931 -1.88552
7.5842 -0.387139 -1.86662
7.56085 -0.202086 -1.85912
7.55957 -0.0184614 -1.85815
7.55864 0.165087 -1.85835
7.57639 0.349648 -1.86426
7.63244 0.538186 -1.88071
7.83231 0.743757 -1.93384
7.90086 -0.789223 -2.02182
7.66034 -0.577767 -1.9561
7.5871 -0.387286 -1.93443
7.56423 -0.202177 -1.92678
7.56955 -0.0184858 -1.92745
7.56529 0.165232 -1.92682
7.57789 0.349717 -1.93162
7.63789 0.53857 -1.94967
7.82661 0.743216 -2.00186
7.92234 -0.791368 -2.09793
7.68124 -0.579344 -2.02976
7.59645 -0.387764 -2.00427
7.57658 -0.202507 -1.99714
7.58006 -0.0185115 -1.99735
7.57771 0.165504 -1.9972
7.58686 0.350131 -2.00127
7.65758 0.539958 -2.02278
7.87112 0.747443 -2.08337
7.9353 -0.792663 -2.1724
7.70453 -0.5811 -2.10474
7.61516 -0.388719 -2.07713
7.59257 -0.202934 -2.06902
7.58848 -0.018532 -2.06717
7.5937 0.165853 -2.06908
7.60475 0.350956 -2.0738
7.68107 0.541614 -2.09758
7.8839 0.748657 -2.1573
8.33391 -0.832481 -2.35647
7.72772 -0.58285 -2.18042
7.63693 -0.38983 -2.1515
7.60426 -0.203247 -2.14027
7.59696 -0.0185527 -2.13746
7.60278 0.166051 -2.1396
7.62538 0.351908 -2.14773
7.70419 0.543245 -2.173
8.33299 0.791302 -2.35509
9.68186 -0.573272 -1.052
9.3904 -0.328859 -1.01917
9.27072 -0.100786 -1.00562
9.27846 0.123078 -1.00649
9.40946 0.352076 -1.02133
9.8637 0.60773 -1.07191
9.07168 -0.537143 -1.06219
8.98788 -0.314762 -1.05118
8.94162 -0.0972084 -1.04519
8.94483 0.118652 -1.04559
8.99559 0.336591 -1.05217
9.11499 0.5616 -1.06741
8.83417 -0.52308 -1.109
8.76014 -0.306787 -1.09846
8.71827 -0.0947801 -1.0926
8.72178 0.115694 -1.09308
8.76745 0.328054 -1.09947
8.84665 0.545067 -1.11073
8.61619 -0.510173 -1.15458
8.55835 -0.29972 -1.14553
8.52898 -0.0927224 -1.14096
8.53164 0.113171 -1.14135
8.56363 0.320427 -1.14633
8.622 0.531226 -1.15553
8.44941 -0.500297 -1.20392
8.39871 -0.294129 -1.19533
8.37115 -0.0910064 -1.19075
8.3738 0.111078 -1.19116
8.40377 0.314447 -1.19616
8.45439 0.520899 -1.2048
8.8623 -0.73974 -1.34042
8.3183 -0.492534 -1.25598
8.26283 -0.289371 -1.24619
8.24061 -0.0895872 -1.24215
8.24268 0.109338 -1.24249
8.26858 0.309388 -1.24716
8.32364 0.512843 -1.25697
8.36476 -0.69821 -1.33661
8.19588 -0.485286 -1.30737
8.14155 -0.285123 -1.29723
8.11906 -0.088266 -1.29293
8.12134 0.107729 -1.29333
8.14553 0.304784 -1.29797
8.20105 0.50529 -1.30838
8.49065 0.729186 -1.357
8.22515 -0.686556 -1.38473
8.03905 -0.476 -1.35107
7.96671 -0.279 -1.33739
7.93931 -0.0863118 -1.33205
7.94083 0.105335 -1.33235
7.97026 0.298226 -1.3381
8.04589 0.49573 -1.35242
8.26277 0.709614 -1.39135
8.06181 -0.672923 -1.42646
7.85576 -0.465147 -1.38761
7.77974 -0.272452 -1.37262
7.76257 -0.0843904 -1.36883
7.76401 0.102989 -1.36913
7.78237 0.291195 -1.3732
7.86227 0.484416 -1.38896
8.10809 0.69633 -1.43494
7.91718 -0.66085 -1.46905
7.71849 -0.457019 -1.42972
7.66309 -0.268367 -1.41784
7.64332 -0.0830941 -1.4134
7.64529 0.101414 -1.41381
7.66505 0.286805 -1.41833
7.72482 0.475948 -1.4311
7.94565 0.68238 -1.47463
7.81436 -0.652267 -1.51748
7.69585 -0.455679 -1.49189
7.64527 -0.267743 -1.4804
7.6256 -0.0829014 -1.47578
7.62756 0.101179 -1.4762
7.64721 0.286138 -1.48091
7.70214 0.474551 -1.49333
7.83013 0.67246 -1.52085
7.77838 -0.649264 -1.5779
7.67327 -0.454342 -1.5539
7.62747 -0.26712 -1.54287
7.60968 -0.0827283 -1.53842
7.61072 0.100956 -1.53867
7.6294 0.285471 -1.5434
7.67952 0.473157 -1.55539
7.79401 0.669357 -1.58139
8.40065 -0.905824 -1.78129
7.74262 -0.646279 -1.63797
7.65075 -0.453008 -1.61575
7.60969 -0.266497 -1.60526
7.59456 -0.0825639 -1.60118
7.59559 0.100755 -1.60144
7.61162 0.284806 -1.6058
7.65697 0.471767 -1.6173
7.7581 0.666273 -1.64158
8.25709 -0.890344 -1.82307
7.70801 -0.643391 -1.69791
7.62829 -0.451678 -1.67746
7.59194 -0.265875 -1.66757
7.57945 -0.0823996 -1.66391
7.58047 0.100554 -1.66418
7.59385 0.284141 -1.66814
7.63446 0.47038 -1.67906
7.72239 0.663206 -1.70142
8.21381 -0.885677 -1.88561
7.68548 -0.64151 -1.76026
7.60666 -0.450397 -1.73921
7.57452 -0.265266 -1.72989
7.56434 -0.0822353 -1.72661
7.56536 0.100354 -1.72689
7.57611 0.283477 -1.73041
7.612 0.468997 -1.74068
7.69375 0.660746 -1.76251
8.17312 -0.88129 -1.94829
7.67429 -0.640576 -1.82516
7.59625 -0.449781 -1.8035
7.56396 -0.264895 -1.79379
7.55303 -0.0821124 -1.79021
7.55411 0.100205 -1.79051
7.56504 0.283063 -1.7942
7.60079 0.468306 -1.80484
7.68262 0.659791 -1.82752
8.13289 -0.876952 -2.01065
7.68409 -0.641394 -1.89532
7.59938 -0.449966 -1.8712
7.56461 -0.264918 -1.86052
7.55771 -0.0821633 -1.85779
7.55718 0.100245 -1.85772
7.56569 0.283088 -1.86095
7.60392 0.468499 -1.87259
7.69524 0.660875 -1.89845
8.15488 -0.879323 -2.08852
7.69743 -0.642508 -1.96682
7.60251 -0.450152 -1.93923
7.56526 -0.264941 -1.92753
7.56768 -0.0822717 -1.92708
7.56716 0.100378 -1.927
7.56635 0.283112 -1.92798
7.60706 0.468692 -1.94067
7.70862 0.662024 -1.97008
8.26367 -0.891054 -2.1901
7.72001 -0.644392 -2.0413
7.61275 -0.450758 -2.00947
7.57469 -0.265271 -1.99716
7.58029 -0.0824087 -1.99752
7.57972 0.100544 -1.99743
7.57415 0.283405 -1.99719
7.61841 0.469391 -2.01126
7.73655 0.664422 -2.04609
8.27925 -0.892734 -2.26841
7.74488 -0.646468 -2.1171
7.63442 -0.452041 -2.08332
7.59067 -0.265831 -2.06903
7.59099 -0.0825251 -2.06797
7.59171 0.100703 -2.06823
7.59013 0.284003 -2.06906
7.64011 0.470729 -2.08517
7.78023 0.668174 -2.1272
8.3355 -0.898799 -2.35884
8.33102 -0.695394 -2.35214
7.65631 -0.453337 -2.15792
7.6068 -0.266396 -2.14153
7.59947 -0.0826173 -2.13829
7.60019 0.100816 -2.13855
7.60625 0.284606 -2.14157
7.66204 0.472079 -2.15985
8.33141 0.71551 -2.35272
8.47 -0.706995 -2.46779
8.47133 0.727526 -2.46867
9.42391 -0.369724 -1.02297
9.28405 -0.139256 -1.00712
9.26535 0.0853882 -1.00502
9.37787 0.313615 -1.01775
9.63242 0.555863 -1.04653
9.16482 -0.582072 -1.07337
9.00143 -0.353149 -1.05293
8.94714 -0.134203 -1.04589
8.93939 0.0823842 -1.04491
8.98279 0.300403 -1.05053
9.06073 0.522872 -1.06081
8.86056 -0.562748 -1.11261
8.77298 -0.344186 -1.10024
8.72431 -0.13086 -1.09342
8.71583 0.0803239 -1.09228
8.75533 0.292796 -1.0978
8.82958 0.509533 -1.10833
8.63006 -0.548109 -1.15674
8.56762 -0.336129 -1.14694
8.53356 -0.127999 -1.14163
8.52714 0.0785849 -1.1407
8.55488 0.286093 -1.145
8.61254 0.497009 -1.15399
8.45878 -0.53723 -1.20557
8.4076 -0.329851 -1.19679
8.3757 -0.125631 -1.19146
8.36931 0.0771304 -1.19047
8.39557 0.280765 -1.19482
8.44628 0.487414 -1.20337
8.32787 -0.528916 -1.25775
8.27293 -0.324568 -1.2479
8.24418 -0.123658 -1.24275
8.23917 0.0759311 -1.24191
8.26111 0.276268 -1.24586
8.31495 0.479835 -1.25536
8.59265 0.704949 -1.29949
8.56892 -0.752915 -1.36974
8.20514 -0.521121 -1.30919
8.14974 -0.319735 -1.29873
8.12299 -0.121841 -1.29362
8.11748 0.0748095 -1.29265
8.14012 0.272222 -1.29693
8.19242 0.472765 -1.3067
8.34183 0.684372 -1.33279
8.29399 -0.728758 -1.39684
8.05129 -0.51135 -1.35348
7.97702 -0.312958 -1.33933
7.94277 -0.119138 -1.33271
7.93824 0.0731579 -1.33185
7.96487 0.266362 -1.33701
8.03477 0.463666 -1.35023
8.20299 0.672981 -1.38084
8.14658 -0.715805 -1.44199
7.8674 -0.499671 -1.39003
7.78744 -0.305521 -1.37419
7.76505 -0.116472 -1.36934
7.76155 0.0715299 -1.36863
7.77799 0.260112 -1.37224
7.85169 0.453102 -1.38677
8.0422 0.659789 -1.42282
7.96923 -0.700222 -1.47926
7.72983 -0.490934 -1.4322
7.66696 -0.300794 -1.41878
7.64671 -0.114697 -1.41411
7.64196 0.0704273 -1.41313
7.6618 0.256226 -1.41753
7.71453 0.445186 -1.42886
7.90039 0.648155 -1.46576
7.84317 -0.689146 -1.52364
7.70712 -0.489492 -1.49447
7.64887 -0.300084 -1.48133
7.62897 -0.114431 -1.47651
7.62425 0.070264 -1.47549
7.64399 0.255631 -1.48007
7.69192 0.443881 -1.491
7.80503 0.640332 -1.51549
7.80692 -0.685961 -1.58428
7.68447 -0.488053 -1.55658
7.63087 -0.299378 -1.5438
7.61146 -0.114168 -1.53886
7.60897 0.0701232 -1.53825
7.62619 0.255036 -1.54253
7.66936 0.44258 -1.55297
7.76914 0.637388 -1.57584
8.42747 0.897286 -1.71328
7.77088 -0.682794 -1.64457
7.66188 -0.486618 -1.61853
7.61307 -0.29868 -1.60622
7.59633 -0.113941 -1.60164
7.59385 0.0699837 -1.601
7.60843 0.254441 -1.6049
7.64687 0.441282 -1.61479
7.73347 0.634461 -1.63584
8.2466 0.878028 -1.74837
7.73505 -0.679646 -1.70451
7.63973 -0.485211 -1.68042
7.5953 -0.297983 -1.66857
7.58121 -0.113714 -1.66438
7.57874 0.0698446 -1.66372
7.59068 0.253848 -1.6672
7.62443 0.439987 -1.67647
7.70309 0.631969 -1.69663
8.20183 0.873261 -1.81061
7.70056 -0.676615 -1.76437
7.61762 -0.483807 -1.74218
7.57755 -0.297286 -1.73085
7.56609 -0.113488 -1.7271
7.56363 0.0697054 -1.72642
7.57386 0.253286 -1.72965
7.60441 0.438832 -1.73854
7.68059 0.630123 -1.75893
8.15853 0.868651 -1.87266
7.69113 -0.675787 -1.82985
7.60599 -0.483068 -1.80628
7.56587 -0.296828 -1.79452
7.5549 -0.11332 -1.79074
7.55229 0.0696008 -1.79
7.56324 0.25293 -1.79352
7.59384 0.438222 -1.80277
7.66935 0.629201 -1.82378
8.1184 0.864378 -1.93497
7.70444 -0.676957 -1.90105
7.60861 -0.483235 -1.87396
7.56652 -0.296853 -1.86128
7.55681 -0.113348 -1.85767
7.55807 0.0696542 -1.85785
7.56389 0.252952 -1.86024
7.59654 0.438377 -1.87033
7.6775 0.629869 -1.89347
8.07899 0.860182 -1.99704
7.72223 -0.67852 -1.9739
7.61124 -0.483402 -1.94196
7.56717 -0.296879 -1.92832
7.56678 -0.113498 -1.92696
7.56805 0.0697461 -1.92714
7.56454 0.252974 -1.92725
7.59967 0.438558 -1.93833
7.69082 0.630962 -1.9649
8.09573 0.861965 -2.07308
7.76557 -0.682328 -2.05411
7.62413 -0.48422 -2.01301
7.57374 -0.297137 -1.99722
7.57931 -0.113686 -1.99737
7.58068 0.0698628 -1.9976
7.57505 0.253325 -1.99714
7.60956 0.439129 -2.00846
7.71315 0.632794 -2.03925
8.1322 0.865848 -2.15495
7.80959 -0.686196 -2.13559
7.6474 -0.485698 -2.08741
7.59119 -0.297821 -2.06949
7.59223 -0.11388 -2.06842
7.5905 0.069953 -2.0678
7.59103 0.25386 -2.06901
7.63086 0.440358 -2.08217
7.7363 0.634693 -2.11451
8.16162 0.86898 -2.23586
8.33175 -0.732075 -2.35322
7.67091 -0.487191 -2.16261
7.60917 -0.298527 -2.14254
7.60071 -0.114007 -2.13875
7.59898 0.0700311 -2.13811
7.60632 0.254371 -2.14128
7.65273 0.44162 -2.15673
7.76484 0.637035 -2.19203
8.33522 0.887464 -2.35842
8.47245 -0.744437 -2.46942
8.46923 0.694823 -2.46727
10.1315 0.0605286 -1.01383
9.4501 -0.401758 -1.02595
9.29452 -0.169707 -1.00831
9.2544 0.0552889 -1.00381
9.35231 0.282578 -1.01488
