ply
format ascii 1.0
comment Created by Open3D
element vertex 1816
property double x
property double y
property double z
end_header
7.9757 -0.310082 -1.33909
7.94244 -0.117013 -1.33265
8.13621 -0.710561 -1.44009
7.86621 -0.496108 -1.38978
7.78618 -0.302713 -1.37395
7.76489 -0.114397 -1.36931
7.96289 -0.695423 -1.47802
7.72866 -0.487433 -1.43194
7.66642 -0.298057 -1.41866
7.64649 -0.112653 -1.41406
7.83967 -0.684662 -1.52289
7.70596 -0.486001 -1.4942
7.6484 -0.297357 -1.48122
7.62875 -0.112391 -1.47646
7.80345 -0.681499 -1.58351
7.68332 -0.484573 -1.5563
7.63058 -0.296664 -1.54372
7.61135 -0.112135 -1.53883
7.76745 -0.678355 -1.64376
7.66073 -0.483149 -1.61824
7.61279 -0.295972 -1.60614
7.59622 -0.111912 -1.60161
7.73165 -0.675228 -1.70368
7.63822 -0.481729 -1.68004
7.59502 -0.295281 -1.66848
7.5811 -0.111689 -1.66435
7.69873 -0.672354 -1.76387
7.61613 -0.480336 -1.74178
7.57726 -0.294591 -1.73077
7.56598 -0.111467 -1.72707
7.68867 -0.671475 -1.82918
7.60449 -0.479602 -1.80588
7.5657 -0.294142 -1.79446
7.55478 -0.111302 -1.79071
7.70197 -0.672637 -1.90035
7.6071 -0.479767 -1.87354
7.56635 -0.294167 -1.86121
7.55686 -0.111332 -1.85768
7.71553 -0.673822 -1.97209
7.60982 -0.479938 -1.94155
7.56701 -0.294192 -1.92825
7.56684 -0.111479 -1.92696
7.75776 -0.677509 -2.05195
7.62202 -0.480708 -2.01239
7.57382 -0.294457 -1.99721
7.57937 -0.111664 -1.99738
7.80169 -0.681346 -2.13333
7.64528 -0.482174 -2.08677
7.59049 -0.295105 -2.06927
7.59215 -0.111852 -2.06839
8.33165 -0.727629 -2.35308
7.66878 -0.483657 -2.16195
7.60848 -0.295804 -2.14231
7.60063 -0.111977 -2.13872
8.47215 -0.739898 -2.46922
10.0742 0.0394069 -1.00808
9.46496 -0.420604 -1.02765
9.3009 -0.188355 -1.00904
9.24661 0.0361697 -1.00296
9.33543 0.262134 -1.01298
9.5235 0.497887 -1.03439
9.01816 -0.400748 -1.05511
8.95415 -0.181333 -1.0468
8.93221 0.0349399 -1.04403
8.96599 0.25176 -1.04839
9.0433 0.472783 -1.05845
8.90786 -0.611761 -1.11893
8.78891 -0.390561 -1.10248
8.73193 -0.176833 -1.09448
8.70844 0.0340645 -1.09132
8.74315 0.245503 -1.09609
8.81297 0.460741 -1.10592
8.66569 -0.595131 -1.16191
8.58024 -0.381289 -1.14888
8.53932 -0.172932 -1.14251
8.52118 0.033332 -1.13986
8.54794 0.240022 -1.14388
8.59936 0.449573 -1.15188
9.26184 0.708918 -1.24255
8.48343 -0.582614 -1.20949
8.41856 -0.374103 -1.19861
8.38144 -0.169735 -1.19239
8.36338 0.0327148 -1.18959
8.38988 0.235583 -1.19382
8.43498 0.44098 -1.2014
8.62862 0.660449 -1.23089
8.34492 -0.573101 -1.26076
8.2853 -0.368182 -1.25004
8.24866 -0.167046 -1.24354
8.23452 0.0322107 -1.24116
8.25603 0.231825 -1.24489
8.30285 0.434072 -1.25316
8.3949 0.642561 -1.26903
8.21907 -0.564458 -1.31186
8.1618 -0.362694 -1.30094
8.12794 -0.164601 -1.29453
8.11236 0.0317329 -1.29179
8.13521 0.228433 -1.29593
8.17992 0.427645 -1.30432
8.25473 0.631831 -1.3183
8.51687 -0.792034 -1.43504
8.07068 -0.554267 -1.35721
7.99639 -0.355343 -1.34288
7.94918 -0.160981 -1.3339
7.93478 0.0310386 -1.33123
7.95856 0.223472 -1.33573
8.01926 0.419246 -1.34723
8.12134 0.621621 -1.3665
8.23527 -0.765846 -1.45836
7.89038 -0.541885 -1.39456
7.80586 -0.346876 -1.37774
7.76813 -0.157315 -1.37001
7.75824 0.0303481 -1.368
7.77253 0.218249 -1.37105
7.83357 0.409538 -1.38316
7.97582 0.610484 -1.41047
8.06031 -0.749576 -1.49686
7.75406 -0.532523 -1.43717
7.67971 -0.341271 -1.42145
7.65102 -0.154943 -1.41503
7.6376 0.0298758 -1.41227
7.65742 0.215017 -1.41649
7.70026 0.402569 -1.42579
7.83638 0.59981 -1.45326
8.21335 0.828672 -1.52643
7.8888 -0.733626 -1.53321
7.72424 -0.530475 -1.4983
7.65731 -0.340275 -1.48329
7.63326 -0.154583 -1.47747
7.62179 0.0298138 -1.47496
7.63963 0.214517 -1.47899
7.67774 0.401391 -1.48781
7.76933 0.594678 -1.5079
8.10746 0.817989 -1.5769
7.84047 -0.729132 -1.59183
7.70187 -0.528939 -1.56063
7.63871 -0.339449 -1.54572
7.61552 -0.154224 -1.53983
7.60667 0.0297547 -1.53773
7.62186 0.214018 -1.5414
7.65527 0.400217 -1.54966
7.73378 0.591957 -1.56799
8.06496 0.813701 -1.63864
7.80411 -0.72575 -1.65236
7.67956 -0.527406 -1.62282
7.62063 -0.338645 -1.60816
7.59858 -0.153881 -1.60226
7.59157 0.0296957 -1.60046
7.60411 0.21352 -1.60373
7.63287 0.399045 -1.61136
7.70663 0.589879 -1.62946
8.02276 0.809443 -1.69994
7.77711 -0.723239 -1.71456
7.6573 -0.525878 -1.68486
7.60257 -0.337843 -1.67053
7.58345 -0.153575 -1.66503
7.57646 0.0296364 -1.66317
7.58676 0.213032 -1.66607
7.61438 0.398078 -1.67376
7.6842 0.588162 -1.69174
7.98085 0.805215 -1.76082
7.75937 -0.72159 -1.77867
7.63509 -0.524352 -1.74676
7.58453 -0.337041 -1.73283
7.56832 -0.153268 -1.72777
7.56137 0.0295775 -1.72584
7.57162 0.212607 -1.72885
7.59627 0.397132 -1.73617
7.66182 0.586449 -1.75387
7.94136 0.80123 -1.82176
7.77091 -0.722663 -1.84969
7.62354 -0.523559 -1.81107
7.57266 -0.336514 -1.79652
7.55727 -0.153045 -1.79147
7.54989 0.0295325 -1.78937
7.56081 0.212304 -1.79265
7.58516 0.396551 -1.80017
7.65044 0.585578 -1.81849
7.93046 0.80013 -1.8891
7.80509 -0.725841 -1.92677
7.62617 -0.52374 -1.87893
7.57367 -0.336558 -1.86344
7.55792 -0.153058 -1.85812
7.55924 0.0295693 -1.85807
7.56146 0.212322 -1.85934
7.5863 0.396611 -1.86726
7.65309 0.585781 -1.88663
7.91568 0.798639 -1.95555
7.79742 -0.725128 -1.99403
7.62953 -0.523971 -1.94729
7.57468 -0.336603 -1.93065
7.56563 -0.153214 -1.92684
7.56922 0.0296083 -1.92738
7.56394 0.212392 -1.92678
7.58943 0.396774 -1.93514
7.66547 0.586729 -1.95758
7.91614 0.798685 -2.02593
7.84163 -0.729239 -2.07519
7.64878 -0.525292 -2.0202
7.58351 -0.336996 -2.00023
7.57808 -0.153466 -1.99723
7.5805 0.0296524 -1.99748
7.57627 0.212738 -1.99714
7.59887 0.397268 -2.00504
7.68665 0.58835 -2.03136
7.93284 0.800371 -2.10092
7.86362 -0.731284 -2.15136
7.6722 -0.526901 -2.09489
7.60138 -0.33779 -2.07272
7.59381 -0.153785 -2.06904
7.58892 0.0296853 -2.0673
7.59226 0.213187 -2.06901
7.61806 0.398271 -2.07806
7.70988 0.590128 -2.10638
7.94583 0.801681 -2.1755
8.33264 -0.774899 -2.35455
7.69543 -0.528496 -2.17026
7.62136 -0.338678 -2.14643
7.6023 -0.153957 -2.13939
7.59739 0.0297185 -2.13759
7.60468 0.213535 -2.14047
7.63985 0.399411 -2.15246
7.7331 0.591905 -2.18212
8.33411 0.840856 -2.35676
10.126 -0.0586439 -1.01328
9.53685 -0.515586 -1.03594
9.34989 -0.279651 -1.0146
9.25371 -0.0535917 -1.00374
9.29472 0.17028 -1.00834
9.44962 0.401163 -1.02589
9.04901 -0.489213 -1.05922
8.97141 -0.268331 -1.04908
8.93476 -0.0517446 -1.04434
8.95155 0.163993 -1.04646
9.01178 0.382575 -1.05427
9.25253 0.616545 -1.08386
8.81843 -0.476747 -1.10671
8.74575 -0.261582 -1.09647
8.71086 -0.0504479 -1.09163
8.72914 0.159918 -1.09409
8.78281 0.372855 -1.10162
8.88775 0.592238 -1.11625
8.60369 -0.465138 -1.15257
8.54997 -0.255725 -1.14421
8.52329 -0.0493616 -1.14015
8.53721 0.156402 -1.14219
8.57539 0.36405 -1.14814
8.65147 0.576493 -1.15984
8.83278 -0.69142 -1.26019
8.43869 -0.456217 -1.20204
8.39183 -0.250996 -1.19416
8.36549 -0.0484478 -1.1899
8.37934 0.15351 -1.19205
8.41438 0.357214 -1.19791
8.47276 0.564585 -1.20781
8.427 -0.659656 -1.27405
8.30682 -0.449088 -1.25388
8.25777 -0.246986 -1.24522
8.23618 -0.0476987 -1.24142
8.24702 0.151086 -1.24325
8.28063 0.351536 -1.24923
8.33651 0.555506 -1.25931
8.28206 -0.648311 -1.32284
8.18403 -0.44245 -1.3051
8.13689 -0.243371 -1.29627
8.11418 -0.0469923 -1.29209
8.12612 0.148871 -1.29419
8.15721 0.346296 -1.30009
8.21185 0.547199 -1.31053
8.14523 -0.637599 -1.3707
8.02436 -0.433817 -1.34821
7.96072 -0.238102 -1.33617
7.93602 -0.0459605 -1.33145
7.94683 0.145587 -1.33346
7.989 0.339156 -1.34152
8.06016 0.537091 -1.35525
8.3692 0.76072 -1.40989
7.99668 -0.625972 -1.41434
7.83987 -0.423843 -1.3844
7.77406 -0.232519 -1.37139
7.75943 -0.0449378 -1.36822
7.76701 0.142292 -1.36976
7.79884 0.331083 -1.37638
7.87791 0.524947 -1.39217
8.20275 0.745591 -1.45233
8.24552 -0.845878 -1.53267
7.8565 -0.614998 -1.45718
7.70494 -0.416549 -1.42679
7.65892 -0.229075 -1.41684
7.63915 -0.0442412 -1.41257
7.64943 0.140138 -1.41469
7.67452 0.325805 -1.42037
7.74092 0.515819 -1.43454
8.02052 0.729026 -1.48918
8.17729 -0.838879 -1.59076
7.78057 -0.609055 -1.51029
7.68239 -0.41533 -1.48885
7.64112 -0.228542 -1.47935
7.62261 -0.0441454 -1.47514
7.63168 0.139813 -1.47711
7.65379 0.324925 -1.48248
7.71715 0.514235 -1.49672
7.86441 0.714836 -1.52818
8.13402 -0.834439 -1.65296
7.74492 -0.606264 -1.57046
7.6599 -0.414114 -1.55074
7.62334 -0.228011 -1.54178
7.60749 -0.0440578 -1.53791
7.61395 0.139488 -1.53945
7.63569 0.324157 -1.54498
7.69483 0.512748 -1.55899
7.8267 0.711409 -1.58872
8.09063 -0.829988 -1.71461
7.71262 -0.603736 -1.63095
7.63746 -0.412901 -1.61248
7.60559 -0.22748 -1.60412
7.59238 -0.0439703 -1.60065
7.59775 0.139191 -1.60202
7.61763 0.32339 -1.60739
7.67257 0.511264 -1.62111
7.79047 0.708116 -1.64916
8.04754 -0.825568 -1.77583
7.69016 -0.601977 -1.69327
7.61706 -0.411798 -1.67451
7.58785 -0.226949 -1.6664
7.57727 -0.0438828 -1.66336
7.58262 0.138914 -1.66478
7.59958 0.322624 -1.66973
7.65035 0.509784 -1.6831
7.75445 0.704842 -1.70924
8.00476 -0.821179 -1.83662
7.66774 -0.600222 -1.75546
7.59894 -0.410818 -1.73694
7.57238 -0.226487 -1.72912
7.56217 -0.0437954 -1.72604
7.5675 0.138637 -1.72752
7.58155 0.321858 -1.732
7.62818 0.508306 -1.74494
7.71863 0.701586 -1.76899
7.96599 -0.817202 -1.89788
7.6564 -0.599335 -1.82015
7.58801 -0.410227 -1.80102
7.56164 -0.226165 -1.79294
7.55074 -0.0437292 -1.78959
7.5564 0.138434 -1.7912
7.5695 0.321347 -1.79562
7.6166 0.507534 -1.80917
7.7208 0.701784 -1.83741
7.9398 -0.814515 -1.96184
7.66021 -0.599633 -1.88864
7.58966 -0.410316 -1.86826
7.56229 -0.226185 -1.85964
7.55883 -0.043776 -1.85799
7.55705 0.138446 -1.85783
7.57051 0.321389 -1.86251
7.61922 0.507709 -1.87696
7.75928 0.705281 -1.91509
7.93768 -0.814297 -2.03179
7.67346 -0.60067 -1.95988
7.59279 -0.410485 -1.93619
7.56355 -0.226222 -1.92678
7.5688 -0.0438338 -1.92729
7.56605 0.138611 -1.92688
7.57152 0.321432 -1.92968
7.62186 0.507885 -1.94507
7.76645 0.705933 -1.98573
7.96742 -0.817349 -2.11044
7.69507 -0.602362 -2.03385
7.60238 -0.411004 -2.00615
7.57585 -0.22659 -1.99713
7.58106 -0.0439047 -1.99764
7.57853 0.138839 -1.99728
7.57964 0.321777 -1.99904
7.63901 0.509028 -2.01734
7.8103 0.709919 -2.0665
8.01485 -0.822214 -2.19477
7.7182 -0.604173 -2.10893
7.62226 -0.412079 -2.0794
7.59184 -0.227068 -2.069
7.58948 -0.0439535 -2.06747
7.59323 0.139108 -2.0688
7.59749 0.322535 -2.07148
7.66238 0.510585 -2.09192
7.84204 0.712804 -2.14504
8.33444 -0.855 -2.35725
7.74148 -0.605994 -2.18478
7.64407 -0.413258 -2.15385
7.60523 -0.227469 -2.14074
7.59796 -0.0440026 -2.13777
7.60172 0.139264 -2.13915
7.6167 0.32335 -2.14494
7.68572 0.51214 -2.16722
8.33227 0.757363 -2.354
8.47421 0.770265 -2.4706
10.0207 0.016576 -1.00272
9.48007 -0.440503 -1.02938
9.30774 -0.20843 -1.00983
9.23808 0.0152782 -1.00203
9.31827 0.239505 -1.01106
9.50482 0.473164 -1.03223
9.02466 -0.419342 -1.05597
8.9574 -0.200585 -1.04723
8.92913 0.0147672 -1.04367
8.96241 0.230359 -1.0479
9.0353 0.44979 -1.05738
8.97674 -0.633695 -1.12773
8.79514 -0.408676 -1.10336
8.73502 -0.195605 -1.09491
8.70551 0.0143974 -1.09094
8.73976 0.224636 -1.0956
8.80531 0.438341 -1.10481
8.67908 -0.612682 -1.16386
8.58519 -0.398921 -1.14965
8.54165 -0.191275 -1.14288
8.51863 0.0140883 -1.13951
8.54528 0.219637 -1.14345
8.59328 0.427786 -1.15092
8.86505 0.655286 -1.18908
8.49346 -0.599579 -1.21109
8.42281 -0.391376 -1.19932
8.38376 -0.187739 -1.19278
8.36085 0.0138274 -1.18922
8.38733 0.215578 -1.19338
8.42975 0.419646 -1.2005
8.52378 0.63006 -1.2157
8.35282 -0.589651 -1.26212
8.28984 -0.385197 -1.25084
8.25058 -0.184757 -1.24389
8.23252 0.0136152 -1.24086
8.25376 0.212144 -1.24447
8.29726 0.41305 -1.25216
8.36665 0.618446 -1.26451
8.22679 -0.580754 -1.31327
8.16649 -0.379466 -1.30181
8.12994 -0.182055 -1.29491
8.11023 0.0134129 -1.29145
8.13301 0.209041 -1.2955
8.17415 0.406921 -1.30324
8.24032 0.609107 -1.31574
8.08299 -0.570602 -1.35946
8.0026 -0.37185 -1.34404
7.95177 -0.178066 -1.3344
7.93327 0.0131202 -1.33096
7.95573 0.204484 -1.33517
8.01211 0.398855 -1.34585
8.10439 0.59906 -1.36338
7.90515 -0.558048 -1.39736
7.81303 -0.363041 -1.37913
7.76935 -0.173981 -1.37029
7.75681 0.0128286 -1.36774
7.77122 0.199742 -1.37073
7.82475 0.389527 -1.38142
7.94451 0.587241 -1.40465
8.40603 0.82497 -1.48933
7.76821 -0.548381 -1.43999
7.68502 -0.357093 -1.42256
7.65277 -0.17137 -1.41542
7.63593 0.0126283 -1.41196
7.65548 0.196767 -1.41604
7.6937 0.383004 -1.4244
7.80618 0.577016 -1.44737
8.15938 0.800764 -1.51599
7.73105 -0.545757 -1.49982
7.66259 -0.356051 -1.48445
7.635 -0.170972 -1.47788
7.62081 0.0126036 -1.47476
7.63769 0.19631 -1.47852
7.67122 0.381885 -1.48636
7.7524 0.573041 -1.50432
7.99642 0.784771 -1.55489
7.70849 -0.544165 -1.56218
7.6418 -0.355085 -1.54649
7.61726 -0.170575 -1.54025
7.60569 0.0125784 -1.53753
7.61994 0.195853 -1.54091
7.6488 0.380768 -1.54815
7.72 0.570646 -1.56489
7.95508 0.780714 -1.61588
7.68614 -0.542588 -1.62442
7.6237 -0.354244 -1.60896
7.59953 -0.170178 -1.60253
7.59059 0.0125534 -1.60025
7.6022 0.195398 -1.60322
7.62872 0.379769 -1.61028
7.69758 0.568989 -1.62723
7.91403 0.776685 -1.67645
7.66384 -0.541013 -1.68652
7.60562 -0.353404 -1.67135
7.58435 -0.169838 -1.6653
7.57549 0.0125285 -1.66294
7.58575 0.194975 -1.66574
7.61061 0.378867 -1.67272
7.67521 0.567335 -1.68942
7.89525 0.774842 -1.74146
7.64159 -0.539442 -1.74848
7.58756 -0.352565 -1.73368
7.56922 -0.169499 -1.72806
7.5604 0.0125033 -1.72561
7.57062 0.194586 -1.72851
7.59253 0.377967 -1.73509
7.65288 0.565685 -1.75148
7.87696 0.773047 -1.8065
7.63008 -0.53863 -1.81286
7.57589 -0.352023 -1.79746
7.55824 -0.169253 -1.79178
7.54983 0.0124861 -1.78935
7.55974 0.194306 -1.79228
7.58118 0.377402 -1.799
7.64144 0.564839 -1.816
7.89141 0.774465 -1.87928
7.63271 -0.538816 -1.88079
7.5769 -0.352069 -1.86441
7.55889 -0.169268 -1.85844
7.55975 0.0125025 -1.85819
7.56039 0.194323 -1.85895
7.58218 0.377452 -1.86601
7.64409 0.565035 -1.88404
7.87678 0.773029 -1.94541
7.63825 -0.539207 -1.94978
7.57849 -0.352143 -1.9318
7.56517 -0.169408 -1.92681
7.56972 0.012519 -1.92749
7.56445 0.194427 -1.92678
7.58472 0.377578 -1.9337
7.65344 0.565726 -1.95412
7.87434 0.77279 -2.01469
7.65797 -0.540598 -2.0229
7.58748 -0.352561 -2.00146
7.57758 -0.169686 -1.9972
7.57983 0.0125357 -1.99729
7.57682 0.194745 -1.99715
7.59397 0.378039 -2.00349
7.67397 0.567244 -2.02761
7.90408 0.775709 -2.09273
7.68145 -0.542257 -2.0977
7.60537 -0.353392 -2.074
7.59357 -0.170044 -2.06907
7.58825 0.0125496 -2.0671
7.5928 0.195156 -2.06902
7.61219 0.378946 -2.07619
7.69734 0.568971 -2.10254
7.91697 0.776974 -2.16701
7.70457 -0.543888 -2.17312
7.62613 -0.354357 -2.14797
7.60295 -0.170254 -2.13967
7.59672 0.0125636 -2.13739
7.60395 0.195443 -2.14013
7.63394 0.380029 -2.15052
7.72049 0.570682 -2.17813
8.33358 0.81786 -2.35597
9.58285 -0.53825 -1.04106
9.36619 -0.299423 -1.01644
9.26077 -0.0722911 -1.00452
9.28838 0.151836 -1.00761
9.43417 0.382266 -1.02413
9.05575 -0.508644 -1.06013
8.97805 -0.287015 -1.04992
8.93749 -0.0697674 -1.04467
8.94893 0.146287 -1.04612
9.00557 0.364899 -1.05346
9.19731 0.595425 -1.07726
8.82487 -0.495676 -1.10764
8.75083 -0.279751 -1.09718
8.71375 -0.0680208 -1.09201
8.72627 0.142647 -1.09369
8.7769 0.355633 -1.10079
8.86956 0.574207 -1.11383
8.60881 -0.48354 -1.15339
8.55225 -0.273403 -1.14459
8.52556 -0.0665518 -1.14047
8.53504 0.139521 -1.14186
8.57066 0.347277 -1.14741
8.63827 0.559233 -1.15793
8.99886 -0.72381 -1.2841
8.44308 -0.474231 -1.20281
8.39401 -0.268344 -1.19454
8.36774 -0.0653201 -1.19023
8.37718 0.136941 -1.1917
8.41031 0.34078 -1.19723
8.46287 0.547878 -1.20625
8.52873 -0.685997 -1.28965
8.31152 -0.466842 -1.25473
8.25972 -0.264051 -1.24559
8.23794 -0.0643064 -1.24171
8.24533 0.134785 -1.24295
8.27601 0.335338 -1.24843
8.33059 0.539314 -1.25826
8.31619 -0.668901 -1.32852
8.18888 -0.459953 -1.30602
8.13878 -0.260185 -1.29665
8.11612 -0.0633557 -1.29242
8.12426 0.132806 -1.29385
8.15273 0.330342 -1.29928
8.20778 0.531363 -1.30971
8.91922 0.79412 -1.42588
8.17821 -0.657803 -1.37649
8.03037 -0.45105 -1.34938
7.96315 -0.25457 -1.33666
7.93733 -0.06196 -1.33168
7.94442 0.129866 -1.33301
7.98181 0.323417 -1.3402
8.05478 0.521458 -1.35418
8.31248 0.740099 -1.4001
8.02269 -0.645294 -1.41919
7.8473 -0.440767 -1.38587
7.77636 -0.248599 -1.37188
7.76068 -0.0605811 -1.36846
7.76585 0.126948 -1.36951
7.79199 0.315726 -1.37507
7.87072 0.509543 -1.39072
8.16941 0.72736 -1.44618
7.88158 -0.633943 -1.46208
7.71048 -0.433082 -1.42798
7.6606 -0.244898 -1.41724
7.64081 -0.0596452 -1.4129
7.64782 0.125018 -1.41434
7.66947 0.310761 -1.41932
7.73307 0.500631 -1.43291
7.98559 0.710994 -1.48245
8.33533 -0.87349 -1.62187
7.79456 -0.626944 -1.51326
7.68789 -0.431814 -1.49009
7.64279 -0.244329 -1.47977
7.62349 -0.0595101 -1.47533
7.63007 0.124728 -1.47675
7.65083 0.310006 -1.48179
7.71058 0.499175 -1.49526
7.85087 0.698999 -1.52529
8.22286 -0.861704 -1.67139
7.75878 -0.624066 -1.57354
7.66536 -0.430548 -1.55203
7.625 -0.24376 -1.54222
7.60836 -0.059392 -1.53811
7.61235 0.124438 -1.53908
7.63275 0.309273 -1.54426
7.6883 0.497733 -1.55748
7.81454 0.695765 -1.58599
8.17851 -0.857055 -1.73363
7.7232 -0.621205 -1.63346
7.64289 -0.429286 -1.61381
7.60724 -0.243192 -1.60458
7.59324 -0.059274 -1.60085
7.59691 0.124186 -1.60179
7.6147 0.308542 -1.60665
7.66607 0.496294 -1.61954
7.77843 0.69255 -1.64633
8.13448 -0.852441 -1.79542
7.69756 -0.619142 -1.69519
7.62048 -0.428027 -1.67545
7.5895 -0.242625 -1.66687
7.57814 -0.059156 -1.66357
7.58179 0.123938 -1.66454
7.59667 0.307811 -1.66896
7.6439 0.494858 -1.68147
7.74252 0.689353 -1.70633
8.09116 -0.847902 -1.85687
7.6751 -0.617335 -1.75745
7.6021 -0.426995 -1.73786
7.57325 -0.242106 -1.72943
7.56303 -0.0590382 -1.72626
7.56667 0.123691 -1.72727
7.57866 0.307082 -1.7312
7.62177 0.493426 -1.74326
7.70682 0.686174 -1.76599
8.05169 -0.843766 -1.91874
7.66381 -0.616428 -1.82222
7.59138 -0.426393 -1.80203
7.56257 -0.241764 -1.79328
7.55165 -0.0589493 -1.78983
7.55551 0.123509 -1.79093
7.56645 0.306586 -1.79475
7.61015 0.492674 -1.80741
7.69654 0.685258 -1.83133
8.01328 -0.83974 -1.98045
7.6701 -0.616934 -1.8914
7.59363 -0.426519 -1.86945
7.56322 -0.241785 -1.85999
7.55838 -0.0590019 -1.85791
7.55651 0.123525 -1.85764
7.56743 0.306627 -1.8616
7.61277 0.492843 -1.87514
7.71499 0.686902 -1.90385
8.01431 -0.839848 -2.05187
7.68339 -0.618002 -1.96275
7.59676 -0.426695 -1.93742
7.56388 -0.241806 -1.92698
7.56836 -0.0590797 -1.9272
7.56648 0.123688 -1.92692
7.56844 0.306668 -1.92874
7.61541 0.493014 -1.94318
7.73923 0.68906 -1.97845
8.06862 -0.84554 -2.13773
7.70546 -0.619778 -2.03695
7.60652 -0.427244 -2.00748
7.57538 -0.242174 -1.99713
7.58102 -0.0591785 -1.99766
7.57899 0.123893 -1.99733
7.57587 0.306969 -1.99788
7.62997 0.493956 -2.01471
7.78277 0.692936 -2.05887
8.09758 -0.848574 -2.21792
7.72856 -0.621635 -2.11212
7.62723 -0.428406 -2.08099
7.59137 -0.242685 -2.06901
7.59008 -0.0592493 -2.06766
7.59263 0.124116 -2.06857
7.5937 0.307691 -2.07028
7.65328 0.495465 -2.08918
7.82303 0.696521 -2.13949
8.33488 -0.873442 -2.35791
7.7519 -0.623513 -2.18809
7.64907 -0.429633 -2.15551
7.60586 -0.243148 -2.14105
7.59856 -0.0593155 -2.13797
7.60112 0.124254 -2.13891
7.61216 0.308439 -2.14349
7.67672 0.496983 -2.16441
8.33194 0.741831 -2.35352
8.47312 0.754401 -2.46987
10.129 0.0596638 -1.01357
9.44872 -0.400066 -1.02579
9.29438 -0.169293 -1.0083
9.25408 0.0545107 -1.00378
9.35062 0.280538 -1.01469
9.53749 0.516444 -1.03602
9.24894 -0.615203 -1.08344
9.01142 -0.381551 -1.05423
8.95141 -0.163046 -1.04644
8.9349 0.0526306 -1.04436
8.97171 0.26917 -1.04911
9.04929 0.490008 -1.05926
8.88658 -0.5911 -1.11609
8.78247 -0.371857 -1.10157
8.72899 -0.158995 -1.09406
8.71099 0.0513116 -1.09165
8.74588 0.262394 -1.09649
8.81869 0.477522 -1.10674
8.65063 -0.575406 -1.15972
8.57512 -0.363077 -1.14809
8.53709 -0.155499 -1.14217
8.52341 0.0502067 -1.14017
8.55008 0.25652 -1.14423
8.6039 0.465891 -1.1526
8.47214 -0.563533 -1.20771
8.41415 -0.356262 -1.19787
8.37922 -0.152624 -1.19203
8.3656 0.0492772 -1.18991
8.39193 0.251775 -1.19417
8.43888 0.456955 -1.20207
8.83882 0.692599 -1.26106
8.33601 -0.554479 -1.25923
8.28037 -0.350597 -1.24918
8.24693 -0.150214 -1.24323
8.23626 0.0485153 -1.24144
8.25786 0.247753 -1.24523
8.30702 0.449815 -1.25392
8.43298 0.660798 -1.27496
8.21159 -0.546202 -1.31047
8.15695 -0.345371 -1.30005
8.12603 -0.148012 -1.29417
8.11428 0.0477967 -1.29211
8.13698 0.244126 -1.29629
8.18423 0.443166 -1.30514
8.28332 0.649071 -1.32305
8.35995 -0.758826 -1.40831
8.05982 -0.536107 -1.35518
7.98859 -0.338243 -1.34144
7.9467 -0.144746 -1.33344
7.93608 0.0467472 -1.33146
7.96083 0.238841 -1.33619
8.02461 0.434523 -1.34826
8.14644 0.638345 -1.37092
8.20081 -0.744381 -1.45197
7.87718 -0.523959 -1.39203
7.79844 -0.330192 -1.37631
7.76695 -0.141472 -1.36975
7.75949 0.0457069 -1.36823
7.77416 0.233241 -1.37141
7.84017 0.424536 -1.38446
7.99764 0.626685 -1.41452
8.01815 -0.727801 -1.48872
7.74015 -0.514844 -1.43439
7.67423 -0.324933 -1.42031
7.64935 -0.13933 -1.41467
7.63923 0.0449985 -1.41259
7.65899 0.229786 -1.41685
7.70517 0.417226 -1.42684
7.85743 0.615698 -1.45736
8.24667 0.846603 -1.5329
7.86295 -0.713714 -1.52788
7.71674 -0.513287 -1.49663
7.65362 -0.32406 -1.48244
7.63159 -0.139006 -1.4771
7.62265 0.0449008 -1.47515
7.64119 0.229251 -1.47937
7.68261 0.416005 -1.4889
7.78109 0.609716 -1.5104
8.18036 0.839796 -1.59137
7.82588 -0.710349 -1.58854
7.69442 -0.511802 -1.5589
7.63552 -0.323294 -1.54494
7.61387 -0.138683 -1.53943
7.60753 0.0448117 -1.53792
7.62341 0.228718 -1.5418
7.66012 0.414787 -1.5508
7.74543 0.606923 -1.57057
8.13696 0.83534 -1.65357
7.78966 -0.707061 -1.64896
7.67216 -0.510321 -1.62102
7.61746 -0.322529 -1.60735
7.59771 -0.138389 -1.60201
7.59242 0.0447223 -1.60066
7.60566 0.228185 -1.60414
7.63768 0.413572 -1.61253
7.7129 0.604373 -1.63102
8.09353 0.830883 -1.71524
7.75364 -0.703792 -1.70904
7.64994 -0.508844 -1.68299
7.59941 -0.321765 -1.66968
7.58258 -0.138113 -1.66477
7.57731 0.0446336 -1.66337
7.58793 0.227653 -1.66642
7.61719 0.412462 -1.67454
7.69043 0.602612 -1.69334
8.05042 0.826456 -1.77648
7.71783 -0.700541 -1.76878
7.62778 -0.507369 -1.74484
7.58139 -0.321002 -1.73195
7.56746 -0.137838 -1.72751
7.56221 0.0445446 -1.72605
7.57242 0.227188 -1.72913
7.59907 0.411481 -1.73698
7.66801 0.600856 -1.75554
8.00761 0.822061 -1.83729
7.71782 -0.70054 -1.83668
7.61619 -0.506599 -1.80906
7.56933 -0.320491 -1.79557
7.55635 -0.137636 -1.79118
7.55079 0.0444769 -1.7896
7.56168 0.226866 -1.79296
7.58815 0.410889 -1.80106
7.65668 0.599968 -1.82023
7.96883 0.81808 -1.89857
7.75627 -0.70403 -1.91433
7.61882 -0.506773 -1.87684
7.57033 -0.320534 -1.86245
7.557 -0.137647 -1.85782
7.55881 0.0445248 -1.85799
7.56233 0.226885 -1.85966
7.58982 0.41098 -1.86831
7.66057 0.600273 -1.88874
7.94085 0.815208 -1.96212
7.7646 -0.704787 -1.98524
7.62145 -0.506949 -1.94495
7.57134 -0.320576 -1.92963
7.56608 -0.137813 -1.92688
7.56878 0.0445835 -1.92728
7.56353 0.226921 -1.92678
7.59295 0.411149 -1.93623
7.67383 0.601311 -1.95999
7.93845 0.814962 -2.032
7.80843 -0.708765 -2.06598
7.63844 -0.508079 -2.01718
7.57942 -0.320919 -1.99897
7.57856 -0.13804 -1.99728
7.58109 0.044656 -1.99765
7.57583 0.22729 -1.99713
7.60255 0.411669 -2.00621
7.69546 0.603007 -2.03397
7.97092 0.818295 -2.11138
7.84075 -0.711699 -2.14466
7.6618 -0.509633 -2.09175
7.59727 -0.321674 -2.07141
7.5932 -0.138307 -2.06879
7.58951 0.0447056 -2.06748
7.59182 0.22777 -2.069
7.62246 0.412748 -2.07946
7.71859 0.604819 -2.10905
8.01758 0.823086 -2.19553
8.33224 -0.756311 -2.35397
7.68515 -0.511186 -2.16704
7.61643 -0.322486 -2.14485
7.60168 -0.138461 -2.13914
7.59798 0.0447555 -2.13778
7.60526 0.228174 -2.14075
7.64428 0.413929 -2.15392
7.74186 0.606643 -2.1849
8.33445 0.855615 -2.35728
8.47414 -0.769191 -2.47055
10.0423 0.0257862 -1.00489
9.47442 -0.433061 -1.02873
9.30508 -0.200598 -1.00952
9.24154 0.0237307 -1.0024
9.32451 0.248932 -1.01176
9.51285 0.483789 -1.03316
9.02223 -0.412393 -1.05565
8.95614 -0.193076 -1.04707
8.93038 0.0229316 -1.04381
8.96391 0.239305 -1.0481
9.03874 0.459678 -1.05784
8.92382 -0.623888 -1.12103
8.79282 -0.401906 -1.10303
8.73382 -0.188283 -1.09474
8.7067 0.0223573 -1.09109
8.74118 0.233359 -1.0958
8.80861 0.447974 -1.10529
8.67433 -0.606445 -1.16317
8.58334 -0.392332 -1.14937
8.54074 -0.184121 -1.14273
8.51966 0.021877 -1.13965
8.54639 0.228159 -1.14363
8.59589 0.437156 -1.15133
8.95423 0.672244 -1.20115
8.4899 -0.593551 -1.21052
8.42122 -0.384921 -1.19905
8.38286 -0.180717 -1.19262
8.36187 0.0214718 -1.18937
8.3884 0.223941 -1.19356
8.432 0.428821 -1.20089
8.56972 0.643377 -1.22236
8.35001 -0.583772 -1.26163
8.28815 -0.378839 -1.25054
8.24978 -0.177848 -1.24374
8.23333 0.0211418 -1.24098
8.25471 0.220372 -1.24464
8.29966 0.422091 -1.25259
8.37153 0.628497 -1.26536
8.22403 -0.574964 -1.31276
8.16474 -0.373198 -1.30148
8.12916 -0.175248 -1.29476
8.11106 0.0208278 -1.29158
8.13393 0.217148 -1.29568
8.17664 0.415834 -1.3037
8.24504 0.619001 -1.31661
8.5728 -0.807546 -1.44462
8.07862 -0.564797 -1.35866
8.00043 -0.365687 -1.34363
7.95076 -0.171402 -1.33421
7.93388 0.0203731 -1.33107
7.95692 0.212422 -1.33541
8.01519 0.407623 -1.34644
8.11186 0.609003 -1.36476
8.254 -0.777516 -1.46185
7.89795 -0.552167 -1.39602
7.81035 -0.356999 -1.37861
7.76888 -0.167481 -1.37018
7.75739 0.0199198 -1.36784
7.77177 0.207479 -1.37086
7.82854 0.398131 -1.38217
7.9583 0.597474 -1.40721
8.49906 0.844659 -1.506
8.08327 -0.761433 -1.50129
7.76204 -0.542665 -1.43877
7.68303 -0.35118 -1.42215
7.65209 -0.164963 -1.41527
7.6365 0.0196092 -1.41206
7.65629 0.204396 -1.41622
7.69652 0.391417 -1.425
7.81948 0.587052 -1.44996
8.18365 0.813313 -1.52069
7.90283 -0.744436 -1.53611
7.72854 -0.540322 -1.49926
7.66062 -0.350155 -1.48401
7.63432 -0.16458 -1.47772
7.62121 0.0195698 -1.47484
7.6385 0.203922 -1.47871
7.67402 0.390273 -1.48698
7.75986 0.582576 -1.5059
8.04616 0.799649 -1.56475
7.84838 -0.739307 -1.59361
7.70614 -0.538757 -1.56163
7.64065 -0.349242 -1.5462
7.61658 -0.164197 -1.54008
7.60609 0.0195311 -1.53761
7.62074 0.203447 -1.54111
7.65158 0.389132 -1.5488
7.72441 0.579914 -1.56592
8.0043 0.795488 -1.62607
7.82229 -0.736849 -1.65639
7.68381 -0.537195 -1.62385
7.62255 -0.348415 -1.60866
7.59913 -0.163821 -1.60242
7.59098 0.0194922 -1.60033
7.603 0.202974 -1.60343
7.63035 0.388052 -1.61071
7.70157 0.578199 -1.62821
7.96274 0.791358 -1.68697
7.80441 -0.735165 -1.72078
7.66152 -0.535637 -1.68593
7.60448 -0.347589 -1.67105
7.584 -0.163495 -1.66519
7.57589 0.0194533 -1.66303
7.58617 0.202524 -1.66588
7.61223 0.38713 -1.67316
7.67917 0.576518 -1.69044
7.92432 0.78754 -1.74808
7.78655 -0.733482 -1.7851
7.63928 -0.534082 -1.74787
7.58643 -0.346764 -1.73336
7.56887 -0.163169 -1.72795
7.56079 0.0194148 -1.72571
7.57103 0.20212 -1.72865
7.59414 0.38621 -1.73555
7.65682 0.57484 -1.75254
7.90589 0.785709 -1.81336
7.7999 -0.73474 -1.85679
7.62776 -0.533277 -1.81222
7.57469 -0.346227 -1.79711
7.55786 -0.162932 -1.79166
7.54963 0.0193861 -1.7893
7.56019 0.201831 -1.79243
7.58289 0.385638 -1.7995
7.64541 0.573983 -1.81709
7.90898 0.786016 -1.8837
7.82173 -0.736797 -1.93109
7.63039 -0.533461 -1.88013
7.57569 -0.346273 -1.86405
7.55851 -0.162946 -1.85831
7.55954 0.0194116 -1.85814
7.56084 0.201848 -1.85911
7.5839 0.38569 -1.86653
7.64806 0.574182 -1.88518
7.89429 0.784555 -1.94997
7.81527 -0.736187 -1.99882
7.63515 -0.533794 -1.94889
7.57707 -0.346336 -1.93137
7.56535 -0.163093 -1.92682
7.56952 0.0194372 -1.92744
7.56424 0.201939 -1.92678
7.58675 0.385834 -1.93432
7.65874 0.574985 -1.95564
7.89314 0.784442 -2.01974
7.85968 -0.740371 -2.0802
7.6547 -0.53516 -2.02194
7.586 -0.346744 -2.001
7.57778 -0.163361 -1.99721
7.5801 0.0194644 -1.99736
7.57659 0.202269 -1.99714
7.59608 0.386309 -2.00416
7.67956 0.576547 -2.02926
7.91703 0.786816 -2.09642
7.87603 -0.741911 -2.15499
7.67817 -0.536801 -2.0967
7.60388 -0.347562 -2.07352
7.59377 -0.163706 -2.06908
7.58852 0.019486 -2.06718
7.59257 0.202695 -2.06902
7.61472 0.387257 -2.07699
7.70287 0.578297 -2.10423
7.92997 0.788102 -2.17083
8.33285 -0.784944 -2.35488
7.70132 -0.53842 -2.1721
7.62434 -0.348497 -2.1474
7.60269 -0.163898 -2.13956
7.59699 0.0195077 -2.13747
7.60426 0.203007 -2.14027
7.63648 0.388364 -2.15135
7.72605 0.580037 -2.17989
8.33382 0.828237 -2.35632
10.1405 -0.0636265 -1.01473
9.54049 -0.520422 -1.03636
9.35372 -0.284296 -1.01504
9.25553 -0.0580737 -1.00394
9.29317 0.16577 -1.00816
9.44576 0.396446 -1.02545
9.05057 -0.493697 -1.05943
8.97297 -0.272724 -1.04927
8.93542 -0.0560652 -1.04442
8.95091 0.159665 -1.04638
9.01023 0.378166 -1.05407
9.23803 0.611119 -1.08213
8.81992 -0.481115 -1.10692
8.74644 -0.265838 -1.09658
8.71149 -0.0546601 -1.09171
8.72844 0.155697 -1.09399
8.78133 0.368559 -1.10141
8.88301 0.587633 -1.11562
8.60487 -0.469384 -1.15276
8.55051 -0.259883 -1.1443
8.52384 -0.0534827 -1.14023
8.53668 0.152276 -1.14211
8.57421 0.359866 -1.14795
8.6481 0.572094 -1.15936
8.86987 -0.698655 -1.26553
8.43971 -0.460375 -1.20222
8.39234 -0.255076 -1.19425
8.36603 -0.0524926 -1.18998
8.37881 0.14946 -1.19196
8.41337 0.353115 -1.19774
8.47024 0.560328 -1.20741
8.46345 -0.666642 -1.27961
8.30791 -0.453185 -1.25408
8.25823 -0.251 -1.2453
8.2366 -0.0516804 -1.24149
8.24661 0.147102 -1.24317
8.27948 0.347496 -1.24903
8.33452 0.551349 -1.25897
8.28977 -0.652961 -1.32412
8.18515 -0.446489 -1.30531
8.13734 -0.247325 -1.29636
8.11465 -0.0509153 -1.29217
8.12567 0.144945 -1.29411
8.15609 0.342317 -1.29989
8.21081 0.543166 -1.31032
8.15268 -0.642163 -1.37201
8.02575 -0.437794 -1.34848
7.9613 -0.241975 -1.33628
7.93633 -0.0497964 -1.3315
7.94624 0.141744 -1.33335
7.98721 0.335229 -1.34119
8.05879 0.533109 -1.35498
8.33437 0.753523 -1.40396
8.00256 -0.630339 -1.41544
7.84158 -0.427748 -1.38474
7.7746 -0.2363 -1.3715
7.75973 -0.0486883 -1.36828
7.76673 0.138542 -1.3697
7.79713 0.327251 -1.37605
7.87496 0.520948 -1.3916
8.1953 0.74095 -1.45095
7.86217 -0.61928 -1.45829
7.70622 -0.420364 -1.42707
7.65931 -0.232796 -1.41693
7.63955 -0.0479343 -1.41265
7.64904 0.136443 -1.4146
7.67326 0.322052 -1.4201
7.73785 0.511878 -1.43393
8.01141 0.724324 -1.48743
8.19756 -0.844986 -1.59478
7.78374 -0.613102 -1.51096
7.68366 -0.419134 -1.48914
7.64151 -0.232255 -1.47945
7.62282 -0.0478293 -1.47518
7.63129 0.136126 -1.47703
7.65305 0.321204 -1.48231
7.71548 0.510398 -1.49635
7.85995 0.710631 -1.52725
8.15363 -0.840459 -1.65703
7.74806 -0.610292 -1.57115
7.66116 -0.417906 -1.55104
7.62373 -0.231715 -1.54188
7.6077 -0.0477344 -1.53796
7.61356 0.13581 -1.53936
7.63496 0.320445 -1.5448
7.69317 0.508922 -1.55861
7.82354 0.707338 -1.58801
8.11003 -0.835964 -1.71881
7.71431 -0.607634 -1.63137
7.63872 -0.416682 -1.61279
7.60598 -0.231175 -1.60423
7.59258 -0.0476396 -1.6007
7.59755 0.135524 -1.60197
7.6169 0.319687 -1.60721
7.67091 0.50745 -1.62071
7.78734 0.704065 -1.64842
8.06674 -0.831502 -1.78016
7.69183 -0.605864 -1.69371
7.61779 -0.415541 -1.67471
7.58824 -0.230636 -1.66651
7.57748 -0.0475448 -1.66341
7.58242 0.135254 -1.66472
7.59886 0.31893 -1.66954
7.64871 0.505981 -1.68268
7.75135 0.700811 -1.70848
8.02375 -0.827071 -1.84107
7.66941 -0.604097 -1.75591
7.59967 -0.414552 -1.73715
7.57259 -0.23016 -1.72919
7.56238 -0.0474501 -1.7261
7.5673 0.134984 -1.72746
7.58083 0.318173 -1.7318
7.62655 0.504515 -1.74451
7.71555 0.697575 -1.76821
7.98491 -0.823066 -1.90248
7.65808 -0.603205 -1.82062
7.58879 -0.413958 -1.80125
7.56186 -0.229834 -1.79302
7.55096 -0.0473784 -1.78964
7.55618 0.134786 -1.79113
7.56874 0.317666 -1.7954
7.61495 0.503748 -1.80872
7.70936 0.697015 -1.8346
7.94718 -0.819177 -1.96376
7.66245 -0.603549 -1.88926
7.59058 -0.414055 -1.86854
7.56251 -0.229854 -1.85972
7.55872 -0.0474271 -1.85797
7.55683 0.134798 -1.85776
7.56974 0.317708 -1.86228
7.61758 0.503922 -1.87649
7.74772 0.700484 -1.91216
7.94284 -0.81873 -2.03321
7.67571 -0.604594 -1.96053
7.5937 -0.414227 -1.93647
7.56345 -0.229883 -1.92678
7.5687 -0.0474897 -1.92727
7.56616 0.134964 -1.92689
7.57075 0.31775 -1.92945
7.62022 0.504096 -1.94459
7.75936 0.701536 -1.98383
7.99082 -0.823676 -2.11674
7.69744 -0.606306 -2.03456
7.60334 -0.414752 -2.00646
7.57574 -0.230256 -1.99713
7.5812 -0.0475682 -1.99769
7.57864 0.135187 -1.99729
7.5787 0.318084 -1.99875
7.63671 0.505187 -2.01667
7.80312 0.705493 -2.06451
8.03312 -0.828036 -2.19988
7.72055 -0.608125 -2.10965
7.62341 -0.415847 -2.07976
7.59173 -0.230742 -2.069
7.58962 -0.047621 -2.06751
7.59308 0.135445 -2.06875
7.59655 0.318833 -2.07118
7.66006 0.506732 -2.09122
7.83709 0.708564 -2.14359
8.33454 -0.859105 -2.3574
7.74384 -0.60996 -2.18553
7.64523 -0.417037 -2.15423
7.60538 -0.231157 -2.14081
7.5981 -0.0476742 -2.13782
7.60157 0.135596 -2.13909
7.61556 0.319631 -2.14457
7.68342 0.508278 -2.1665
8.33218 0.753326 -2.35387
8.47392 0.766141 -2.47041
10.0983 0.0491291 -1.0105
9.45701 -0.410227 -1.02674
9.29768 -0.178937 -1.00868
9.25021 0.0450032 -1.00335
9.34255 0.270758 -1.01378
9.52987 0.506331 -1.03513
9.46627 -0.639555 -1.10897
9.01475 -0.391043 -1.05466
8.95277 -0.172299 -1.04662
8.93351 0.0434624 -1.04419
8.96842 0.259915 -1.0487
9.04603 0.480624 -1.05882
8.89686 -0.601085 -1.11746
8.78566 -0.381105 -1.10202
8.73048 -0.168021 -1.09427
8.70967 0.0423734 -1.09148
8.74443 0.253424 -1.09628
8.81558 0.46838 -1.10629
8.65792 -0.584941 -1.16078
8.57765 -0.372082 -1.14848
8.53822 -0.164321 -1.14234
8.52226 0.0414616 -1.14001
8.54894 0.247758 -1.14405
8.60143 0.457002 -1.15221
8.4776 -0.572759 -1.20857
8.41633 -0.365084 -1.19823
8.38035 -0.161282 -1.19221
8.36445 0.0406939 -1.18974
8.39084 0.243176 -1.19398
8.43675 0.448253 -1.20171
8.7625 0.677716 -1.25007
8.34032 -0.563484 -1.25997
8.28285 -0.359294 -1.24961
8.24781 -0.158731 -1.24339
8.23536 0.0400659 -1.2413
8.25689 0.239294 -1.24505
8.30474 0.441239 -1.2535
8.40792 0.650292 -1.27108
8.21462 -0.554992 -1.31105
8.15935 -0.353937 -1.30049
8.12699 -0.156407 -1.29435
8.11329 0.039472 -1.29195
8.13604 0.235792 -1.2961
8.18188 0.434711 -1.30469
8.26731 0.639417 -1.32039
8.43804 -0.774813 -1.4216
8.06353 -0.544784 -1.3559
7.99245 -0.346697 -1.34215
7.94796 -0.152961 -1.33367
7.93541 0.0386065 -1.33134
7.95963 0.230679 -1.33595
8.0217 0.426201 -1.3477
8.12986 0.628785 -1.36802
8.21709 -0.754525 -1.45499
7.88356 -0.532625 -1.39325
7.80211 -0.338441 -1.37702
7.76755 -0.149489 -1.36988
7.75885 0.0377475 -1.36811
7.77303 0.225272 -1.37117
7.83658 0.416365 -1.38375
7.98543 0.617615 -1.41225
8.03806 -0.738085 -1.49256
7.74688 -0.52339 -1.43573
7.67694 -0.333011 -1.42087
7.65019 -0.14723 -1.41485
7.63839 0.0371615 -1.41242
7.65816 0.221942 -1.41666
7.70249 0.409241 -1.42627
7.84565 0.606804 -1.45506
8.22819 0.836346 -1.52931
7.87517 -0.723128 -1.5304
7.72037 -0.521599 -1.49744
7.6552 -0.332068 -1.48281
7.63244 -0.146889 -1.47729
7.62221 0.0370828 -1.47505
7.64036 0.221427 -1.47917
7.67996 0.408044 -1.48831
7.77451 0.601302 -1.509
8.13828 0.827207 -1.58302
7.83278 -0.719236 -1.59009
7.69803 -0.52009 -1.55974
7.6371 -0.331283 -1.54532
7.6147 -0.146547 -1.53963
7.60709 0.0370092 -1.53782
7.62259 0.220912 -1.54159
7.65748 0.406849 -1.55018
7.73892 0.598549 -1.56913
8.09545 0.822854 -1.64496
7.79649 -0.715903 -1.65057
7.67574 -0.518584 -1.62189
7.61903 -0.330499 -1.60775
7.59815 -0.146229 -1.60214
7.59198 0.0369357 -1.60056
7.60484 0.220397 -1.60392
7.63506 0.405658 -1.61189
7.70939 0.596265 -1.63015
8.05293 0.818531 -1.70646
7.76041 -0.71259 -1.7107
7.6535 -0.517082 -1.68389
7.60097 -0.329716 -1.6701
7.58302 -0.145938 -1.6649
7.57687 0.0368619 -1.66326
7.58714 0.219884 -1.6662
7.61566 0.404627 -1.67411
7.68694 0.594529 -1.69244
8.0107 0.814239 -1.76753
7.73307 -0.710079 -1.77245
7.63132 -0.515583 -1.74577
7.58294 -0.328934 -1.73238
7.56789 -0.145646 -1.72764
7.56178 0.0367887 -1.72594
7.57199 0.219445 -1.72898
7.59755 0.403665 -1.73653
7.66455 0.592797 -1.75461
7.9686 0.80996 -1.82815
7.74287 -0.71098 -1.84281
7.61975 -0.514801 -1.81003
7.57098 -0.328415 -1.79604
7.55682 -0.145433 -1.79133
7.55032 0.036733 -1.78948
7.56122 0.219133 -1.79279
7.58652 0.403079 -1.80057
7.65319 0.591918 -1.81925
7.94118 0.807173 -1.89179
7.78157 -0.714533 -1.92076
7.62238 -0.514979 -1.87785
7.57198 -0.328458 -1.86294
7.55747 -0.145446 -1.85797
7.55903 0.0367755 -1.85803
7.56187 0.219152 -1.85949
7.5879 0.403153 -1.86774
7.65592 0.59213 -1.88744
7.92636 0.805666 -1.95834
7.78011 -0.714399 -1.98939
7.62502 -0.515157 -1.94599
7.57299 -0.328502 -1.93013
7.56585 -0.145607 -1.92686
7.56901 0.036824 -1.92733
7.56375 0.219206 -1.92678
7.59103 0.403319 -1.93564
7.66915 0.593153 -1.95864
7.92761 0.805794 -2.02902
7.82412 -0.71844 -2.07033
7.64344 -0.516402 -2.01864
7.58144 -0.328869 -1.99959
7.57831 -0.145847 -1.99726
7.58078 0.0368813 -1.99756
7.57606 0.219563 -1.99713
7.60055 0.403824 -2.00557
7.69053 0.594807 -2.03251
7.94072 0.807126 -2.10316
7.85156 -0.72096 -2.14783
7.66683 -0.517982 -2.09327
7.5993 -0.329644 -2.07206
7.59351 -0.146139 -2.06892
7.5892 0.0369222 -2.06738
7.59205 0.220027 -2.06901
7.62007 0.404862 -2.0787
7.71371 0.5966 -2.10755
7.98004 0.811123 -2.18503
8.33243 -0.765114 -2.35424
7.69012 -0.519556 -2.1686
7.61887 -0.330492 -2.14563
7.60199 -0.146303 -2.13926
7.59768 0.0369635 -2.13768
7.60495 0.2204 -2.1406
7.64187 0.40602 -2.15312
7.73696 0.598398 -2.18334
8.33426 0.847127 -2.35698
9.68638 -0.574865 -1.0525
9.39063 -0.329135 -1.0192
9.27046 -0.100047 -1.00559
9.27906 0.124828 -1.00656
9.41181 0.354951 -1.02159
9.88508 0.613054 -1.07426
9.07309 -0.538468 -1.06236
8.98797 -0.315022 -1.05119
8.94152 -0.0964976 -1.04517
8.94508 0.120336 -1.04562
8.99654 0.339289 -1.05229
9.12558 0.565951 -1.06868
8.83459 -0.524313 -1.10907
8.76023 -0.30704 -1.09847
8.71815 -0.0940868 -1.09259
8.72205 0.117335 -1.09311
8.76835 0.330684 -1.0996
8.84962 0.548836 -1.11113
8.61652 -0.511371 -1.15463
8.55842 -0.299966 -1.14554
8.52889 -0.0920445 -1.14095
8.53184 0.114776 -1.14138
8.56428 0.322988 -1.14643
8.62298 0.534781 -1.15569
8.44969 -0.50147 -1.20397
8.39877 -0.294371 -1.19534
8.37106 -0.0903412 -1.19074
8.374 0.112653 -1.1912
8.4044 0.316958 -1.19626
8.45532 0.524383 -1.20496
8.8811 -0.743498 -1.34329
8.3186 -0.493691 -1.25603
8.2629 -0.289609 -1.2462
8.24054 -0.0889324 -1.24213
8.24285 0.110889 -1.24252
8.26929 0.311862 -1.24728
8.32455 0.516272 -1.25713
8.36873 -0.700604 -1.33727
8.19618 -0.486425 -1.30743
8.14158 -0.285357 -1.29723
8.11899 -0.0876208 -1.29291
8.12152 0.109256 -1.29336
8.14622 0.307221 -1.2981
8.20193 0.508668 -1.30856
8.51084 0.735305 -1.36028
8.22898 -0.688904 -1.3854
8.03944 -0.477123 -1.35115
7.96674 -0.279229 -1.3374
7.93926 -0.0856811 -1.33204
7.94095 0.106828 -1.33237
7.97136 0.300627 -1.3383
8.04704 0.499062 -1.35264
8.27085 0.714571 -1.39277
8.06652 -0.675304 -1.42732
7.85613 -0.466244 -1.38769
7.77977 -0.272675 -1.37262
7.76252 -0.0837737 -1.36882
7.76413 0.104449 -1.36915
7.78269 0.293511 -1.37327
7.86337 0.487671 -1.38919
8.11805 0.70137 -1.43676
7.92008 -0.663044 -1.46962
7.71885 -0.458097 -1.4298
7.66311 -0.268587 -1.41785
7.64326 -0.0824867 -1.41339
7.64544 0.102852 -1.41384
7.66529 0.289083 -1.41839
7.72589 0.479145 -1.43133
7.95176 0.687003 -1.47583
7.81597 -0.654328 -1.51782
7.69621 -0.456753 -1.49197
7.64529 -0.267962 -1.48041
7.62554 -0.0822954 -1.47576
7.62771 0.102613 -1.47623
7.64745 0.288411 -1.48097
7.7032 0.477738 -1.49357
7.83352 0.676787 -1.52157
7.77998 -0.651315 -1.57826
7.67363 -0.455413 -1.55399
7.62749 -0.267338 -1.54288
7.60965 -0.0821239 -1.53841
7.6108 0.102386 -1.53869
7.62964 0.287739 -1.54346
7.68058 0.476335 -1.55565
7.79736 0.673663 -1.58214
7.7442 -0.64832 -1.63834
7.65111 -0.454076 -1.61584
7.60972 -0.266715 -1.60526
7.59453 -0.0819608 -1.60117
7.59567 0.102182 -1.60146
7.61185 0.287068 -1.60587
7.65801 0.474935 -1.61756
7.76141 0.670558 -1.64235
8.27174 -0.894875 -1.82637
7.70886 -0.645362 -1.69814
7.62864 -0.452743 -1.67755
7.59196 -0.266093 -1.66758
7.57941 -0.0817976 -1.6639
7.58055 0.101979 -1.6642
7.59409 0.286398 -1.66821
7.6355 0.473539 -1.67933
7.72567 0.66747 -1.70222
8.22847 -0.890193 -1.88905
7.68633 -0.643475 -1.76049
7.60686 -0.451451 -1.73927
7.57453 -0.265482 -1.7299
7.56431 -0.0816346 -1.7266
7.56544 0.101775 -1.72692
7.57634 0.285729 -1.73048
7.61304 0.472146 -1.74096
7.69551 0.664864 -1.76299
8.18764 -0.885776 -1.95183
7.67514 -0.642538 -1.8254
7.59651 -0.450836 -1.80357
7.56397 -0.265112 -1.79379
7.553 -0.0815125 -1.7902
7.5542 0.101625 -1.79054
7.56518 0.285308 -1.79425
7.60156 0.471434 -1.80506
7.68441 0.663904 -1.82802
8.14719 -0.8814 -2.01426
7.68523 -0.643384 -1.89564
7.59963 -0.451021 -1.87128
7.56462 -0.265135 -1.86052
7.55773 -0.0815636 -1.8578
7.55714 0.101664 -1.85771
7.56583 0.285332 -1.861
7.60468 0.471628 -1.87282
7.69763 0.665047 -1.89912
8.1686 -0.883716 -2.09212
7.69858 -0.644501 -1.96716
7.60277 -0.451208 -1.93931
7.56527 -0.265157 -1.92754
7.5677 -0.0816712 -1.92709
7.56712 0.101798 -1.927
7.56648 0.285357 -1.92803
7.60783 0.471823 -1.94091
7.71102 0.666204 -1.97078
8.26369 -0.894004 -2.19019
7.72119 -0.646394 -2.04165
7.61307 -0.451819 -2.00958
7.57469 -0.265487 -1.99716
7.58031 -0.0818073 -1.99753
7.57968 0.101967 -1.99743
7.57409 0.285644 -1.99719
7.61936 0.472538 -2.01156
7.74406 0.669059 -2.04816
8.27927 -0.895689 -2.2685
7.74848 -0.648678 -2.11813
7.63474 -0.453105 -2.08343
7.59067 -0.266048 -2.06903
7.59097 -0.0819224 -2.06796
7.59177 0.10213 -2.06825
7.59007 0.286247 -2.06907
7.64107 0.473885 -2.08549
7.78783 0.67284 -2.12937
8.33557 -0.901781 -2.35895
8.33106 -0.69745 -2.3522
7.65663 -0.454404 -2.15803
7.60679 -0.266613 -2.14153
7.59945 -0.0820139 -2.13828
7.60025 0.102244 -2.13857
7.60619 0.286855 -2.14157
7.66373 0.47529 -2.16038
8.3315 0.719811 -2.35285
8.47013 -0.709094 -2.46788
8.47161 0.731916 -2.46887
8.26607 -0.785038 -1.46409
8.09808 -0.769084 -1.50415
7.91678 -0.751865 -1.53893
7.85799 -0.746283 -1.59568
7.84001 -0.744575 -1.66027
7.82205 -0.742869 -1.72479
7.80411 -0.741165 -1.78925
7.81863 -0.742544 -1.86139
7.83246 -0.743858 -1.93388
7.82677 -0.743318 -2.00191
7.87124 -0.74754 -2.08341
7.88402 -0.748754 -2.15733
8.33299 -0.791394 -2.35509
9.72552 -0.588651 -1.05683
9.40092 -0.341664 -1.02036
9.27503 -0.113185 -1.00611
9.27412 0.110575 -1.006
9.39868 0.338946 -1.02011
9.71616 0.585352 -1.05579
9.0867 -0.549986 -1.06403
8.99214 -0.326807 -1.05172
8.94341 -0.109138 -1.04541
8.94303 0.106628 -1.04536
8.99123 0.324252 -1.05161
9.08233 0.547168 -1.0635
8.83871 -0.534976 -1.10966
8.76418 -0.318522 -1.09902
8.72022 -0.106414 -1.09287
8.71981 0.103966 -1.09281
8.76332 0.316033 -1.0989
8.83733 0.532407 -1.10947
8.61938 -0.5217 -1.1551
8.56127 -0.311148 -1.14597
8.53046 -0.104099 -1.14118
8.53015 0.101705 -1.14113
8.56065 0.308723 -1.14588
8.61869 0.519235 -1.15499
8.45214 -0.511578 -1.2044
8.4015 -0.305341 -1.19579
8.37262 -0.102173 -1.19098
8.37231 0.0998231 -1.19093
8.40091 0.302963 -1.19569
8.45155 0.509166 -1.2043
8.9631 -0.759892 -1.35582
8.32123 -0.503654 -1.25652
8.26601 -0.300417 -1.24672
8.24177 -0.100576 -1.24234
8.24152 0.0982637 -1.2423
8.26533 0.298073 -1.24661
8.3206 0.501277 -1.2564
8.94111 0.755495 -1.35246
8.41344 -0.713292 -1.34453
8.19872 -0.496239 -1.30792
8.14304 -0.295948 -1.29752
8.12033 -0.0990941 -1.29315
8.12007 0.0968155 -1.2931
8.1425 0.293644 -1.29743
8.19811 0.493897 -1.3078
8.39242 0.709132 -1.34114
8.24554 -0.699057 -1.38832
8.0428 -0.486802 -1.35181
7.96824 -0.289595 -1.33771
7.94016 -0.0968954 -1.33222
7.93998 0.0946687 -1.33218
7.96792 0.287348 -1.33764
8.042 0.484492 -1.35165
8.24112 0.696348 -1.38754
8.08689 -0.685607 -1.43105
7.85933 -0.475697 -1.38835
7.78119 -0.282797 -1.37294
7.76338 -0.0947381 -1.36899
7.76321 0.0925607 -1.36896
7.78088 0.280603 -1.37287
7.85857 0.473442 -1.38819
8.08146 0.682857 -1.43006
7.93262 -0.672528 -1.47208
7.72196 -0.467382 -1.43047
7.66417 -0.278544 -1.41811
7.64442 -0.0932864 -1.41363
7.64419 0.0911416 -1.41358
7.66394 0.276386 -1.41805
7.72121 0.465167 -1.43031
7.92928 0.669999 -1.47142
7.82292 -0.663227 -1.51931
7.6993 -0.466011 -1.49268
7.64634 -0.277896 -1.48068
7.62669 -0.0930701 -1.47601
7.62646 0.0909303 -1.47596
7.64611 0.275743 -1.48062
7.69856 0.463802 -1.49251
7.82107 0.660855 -1.51891
7.78686 -0.66017 -1.5798
7.6767 -0.464643 -1.55472
7.62854 -0.277249 -1.54316
7.61026 -0.0928696 -1.53856
7.61014 0.0907356 -1.53853
7.62831 0.2751 -1.5431
7.67596 0.462441 -1.55454
7.78503 0.65781 -1.57939
7.75102 -0.657132 -1.63993
7.65416 -0.463279 -1.6166
7.61076 -0.276603 -1.60556
7.59513 -0.092685 -1.60132
7.59501 0.0905554 -1.60129
7.61053 0.274459 -1.60549
7.65343 0.461083 -1.61642
7.7492 0.654783 -1.63951
8.35313 -0.911594 -1.84453
7.71538 -0.65411 -1.69972
7.63167 -0.461918 -1.67834
7.59299 -0.275957 -1.66788
7.58002 -0.0925005 -1.66406
7.5799 0.0903751 -1.66402
7.59277 0.273819 -1.66782
7.63094 0.459728 -1.67815
7.71358 0.651772 -1.69928
8.29916 0.903351 -1.83256
8.26767 -0.902267 -1.89824
7.68997 -0.651956 -1.76148
7.60923 -0.460559 -1.73993
7.57525 -0.275312 -1.73014
7.56491 -0.0923161 -1.72677
7.56479 0.090195 -1.72674
7.57503 0.273179 -1.73007
7.60851 0.458377 -1.73974
7.689 0.649696 -1.76122
8.2559 0.898642 -1.89548
8.22644 -0.897768 -1.96128
7.67881 -0.65101 -1.82644
7.59874 -0.459925 -1.80423
7.56456 -0.274923 -1.79402
7.55364 -0.0921786 -1.79038
7.55351 0.0900604 -1.79034
7.56443 0.272797 -1.79397
7.59821 0.457756 -1.80407
7.67783 0.648752 -1.82616
8.21479 0.894168 -1.95844
8.18546 -0.893296 -2.02393
7.69015 -0.651971 -1.89702
7.60186 -0.460114 -1.87196
7.56521 -0.274947 -1.86075
7.55742 -0.0922247 -1.85775
7.55748 0.0901079 -1.85776
7.56508 0.27282 -1.8607
7.60133 0.457944 -1.87179
7.68884 0.649682 -1.89665
8.17393 0.889721 -2.02102
8.25878 -0.901297 -2.11543
7.70351 -0.653103 -1.96859
7.605 -0.460304 -1.94002
7.56586 -0.274971 -1.92778
7.56739 -0.0923464 -1.92704
7.56745 0.0902267 -1.92705
7.56573 0.272844 -1.92772
7.60447 0.458133 -1.93985
7.70219 0.650811 -1.96821
8.25879 0.898957 -2.11537
8.26374 -0.901838 -2.19042
7.7263 -0.655036 -2.04319
7.61585 -0.46096 -2.01045
7.57439 -0.275281 -1.99717
7.57997 -0.0924999 -1.99747
7.58004 0.090377 -1.99748
7.57446 0.273158 -1.99717
7.61518 0.458779 -2.01024
7.72494 0.652733 -2.04278
8.26372 0.899494 -2.19035
8.27931 -0.903538 -2.26874
7.76404 -0.658236 -2.12258
7.63753 -0.462273 -2.08433
7.59038 -0.275862 -2.06904
7.59139 -0.0926393 -2.06811
7.59131 0.0905112 -2.06808
7.59044 0.273734 -2.06904
7.63687 0.460085 -2.08412
7.75989 0.655686 -2.12139
8.2793 0.901189 -2.26867
8.33123 -0.706322 -2.35245
7.65944 -0.463599 -2.15898
7.6065 -0.276448 -2.14155
7.59987 -0.0927428 -2.13843
7.59979 0.0906123 -2.1384
7.60656 0.274316 -2.14155
7.65877 0.461405 -2.15875
8.33119 0.703958 -2.35239
8.33571 0.90733 -2.35916
8.47072 -0.718149 -2.46827
8.47056 0.715735 -2.46816
8.20697 0.825372 -1.5252
8.09425 0.814036 -1.57428
8.05189 0.809776 -1.63594
8.00983 0.805546 -1.69715
7.96806 0.801345 -1.75794
7.93374 0.797893 -1.81996
7.92585 0.7971 -1.88794
7.91109 0.795616 -1.95435
7.9112 0.795627 -2.0246
7.92945 0.797462 -2.09995
7.94243 0.798767 -2.17449
8.33404 0.838152 -2.35666
9.60825 -0.547354 -1.04386
9.37289 -0.307566 -1.01719
9.26367 -0.0805911 -1.00484
9.28535 0.143038 -1.00727
9.42626 0.372591 -1.02323
9.05834 -0.516028 -1.06048
8.98077 -0.294699 -1.05027
8.9387 -0.077764 -1.04482
8.94768 0.137836 -1.04596
9.00238 0.355837 -1.05305
9.16968 0.584068 -1.07395
8.82732 -0.502867 -1.108
8.75341 -0.287238 -1.09753
8.71507 -0.0758185 -1.09218
8.7249 0.134404 -1.0935
8.77388 0.346805 -1.10037
8.86191 0.564464 -1.11279
8.61075 -0.49053 -1.1537
8.55349 -0.280678 -1.14479
8.52656 -0.0741785 -1.14061
8.534 0.131464 -1.1417
8.56826 0.338678 -1.14704
8.63126 0.549773 -1.15692
9.2521 -0.751144 -1.32032
8.44474 -0.481073 -1.2031
8.39491 -0.275474 -1.1947
8.36874 -0.0728053 -1.19038
8.37615 0.129032 -1.19153
8.40822 0.332351 -1.19689
8.45921 0.538814 -1.20565
8.55855 -0.694836 -1.29424
8.3133 -0.473585 -1.25506
8.26052 -0.271064 -1.24574
8.23872 -0.071674 -1.24183
8.24453 0.127004 -1.24281
8.27363 0.327031 -1.24802
8.32827 0.530474 -1.25783
8.32818 -0.676134 -1.33051
8.19072 -0.466602 -1.30638
8.13955 -0.267095 -1.29681
8.11698 -0.0706153 -1.29257
8.12337 0.125138 -1.29369
8.15042 0.322162 -1.29886
8.20553 0.522656 -1.30927
8.57181 0.753789 -1.37021
8.1898 -0.664899 -1.37852
8.03265 -0.457597 -1.34982
7.96414 -0.261339 -1.33686
7.93791 -0.0690575 -1.33179
7.94327 0.122363 -1.3328
7.97812 0.315351 -1.33953
8.05182 0.512865 -1.35359
