ply
format ascii 1.0
comment Created by Open3D
element vertex 1797
property double x
property double y
property double z
end_header
-0.868578 -9.08504 -2.24328
-0.647583 -9.08979 -2.23993
-0.427121 -9.09451 -2.23789
-0.206913 -9.09856 -2.237
0.0132405 -9.09993 -2.23676
0.233479 -9.10124 -2.23782
0.454097 -9.10345 -2.24041
0.675168 -9.10312 -2.24369
0.897053 -9.10315 -2.24839
1.34264 -9.0921 -2.25907
1.56825 -9.0921 -2.26784
1.79575 -9.0921 -2.27801
-1.54101 -9.0921 -2.34815
-1.31561 -9.0921 -2.33924
1.34264 -9.0921 -2.34024
1.56825 -9.0921 -2.34932
-1.54101 -9.0921 -2.42994
-1.31561 -9.0921 -2.42072
1.34264 -9.0921 -2.42175
1.56825 -9.0921 -2.43115
9.70978 -0.583105 -1.05508
9.39738 -0.337352 -1.01996
9.27367 -0.109295 -1.00595
9.27538 0.114217 -1.00615
9.40158 0.342477 -1.02043
9.72743 0.589323 -1.05704
9.08036 -0.545306 -1.06325
8.9907 -0.322753 -1.05154
8.94285 -0.105397 -1.04534
8.94356 0.110131 -1.04543
8.99241 0.327572 -1.05176
9.08819 0.550596 -1.0642
8.83675 -0.530676 -1.10938
8.76282 -0.314573 -1.09883
8.71961 -0.102766 -1.09278
8.72038 0.107383 -1.09289
8.76443 0.319268 -1.09905
8.83913 0.535507 -1.10972
8.61822 -0.517553 -1.15491
8.56029 -0.307302 -1.14582
8.53 -0.100531 -1.14111
8.53058 0.105046 -1.1412
8.56145 0.311874 -1.146
8.61951 0.522202 -1.15512
8.45116 -0.50752 -1.20423
8.40056 -0.301568 -1.19564
8.37216 -0.0986709 -1.19091
8.37275 0.103102 -1.191
8.40168 0.306053 -1.19582
8.45226 0.512069 -1.20442
8.92421 -0.752116 -1.34988
8.32018 -0.499655 -1.25632
8.26494 -0.2967 -1.24654
8.2414 -0.0971293 -1.24228
8.24186 0.10149 -1.24235
8.26621 0.301118 -1.24676
8.32135 0.504138 -1.25654
8.96546 0.760364 -1.35618
8.37777 -0.706064 -1.33878
8.1977 -0.492299 -1.30772
8.14235 -0.292299 -1.29739
8.11993 -0.0956981 -1.29308
8.12044 0.0999952 -1.29317
8.14323 0.296639 -1.29756
8.19884 0.496716 -1.30795
8.4157 0.713738 -1.3449
8.23772 -0.69426 -1.38694
8.04145 -0.482916 -1.35154
7.96773 -0.28603 -1.3376
7.93989 -0.0935761 -1.33217
7.94023 0.0977763 -1.33223
7.96833 0.290268 -1.33773
8.04296 0.487272 -1.35184
8.24602 0.699348 -1.3884
8.07726 -0.680737 -1.42929
7.85805 -0.471902 -1.38808
7.7807 -0.279316 -1.37283
7.76312 -0.0914928 -1.36894
7.76344 0.0955995 -1.36901
7.78128 0.283454 -1.37296
7.85948 0.476156 -1.38838
8.08747 0.685901 -1.43116
7.9267 -0.668048 -1.47092
7.72071 -0.463655 -1.4302
7.66381 -0.27512 -1.41802
7.64407 -0.0900898 -1.41356
7.64451 0.0941345 -1.41365
7.66424 0.27919 -1.41813
7.72211 0.467833 -1.43051
7.93298 0.672799 -1.47215
7.81964 -0.659025 -1.5186
7.69806 -0.462294 -1.4924
7.64598 -0.27448 -1.48059
7.62635 -0.0898809 -1.47594
7.62678 0.0939162 -1.47603
7.64641 0.278541 -1.4807
7.69945 0.466461 -1.49271
7.82312 0.663482 -1.51935
7.78361 -0.655989 -1.57907
7.67547 -0.460938 -1.55442
7.62818 -0.273841 -1.54306
7.61008 -0.0896891 -1.53852
7.61031 0.0937133 -1.53857
7.6286 0.277892 -1.54318
7.67685 0.465091 -1.55475
7.78706 0.660423 -1.57984
7.7478 -0.65297 -1.63918
7.65293 -0.459584 -1.6163
7.6104 -0.273202 -1.60546
7.59495 -0.0895108 -1.60128
7.59518 0.0935271 -1.60134
7.61082 0.277244 -1.60558
7.6543 0.463726 -1.61664
7.75121 0.657383 -1.63997
8.28895 -0.900193 -1.83025
7.71219 -0.649969 -1.69895
7.63045 -0.458234 -1.67802
7.59264 -0.272565 -1.66778
7.57984 -0.0893327 -1.66401
7.58007 0.093341 -1.66407
7.59306 0.276597 -1.6679
7.63181 0.462363 -1.67837
7.71557 0.65436 -1.69977
8.24568 -0.895494 -1.89309
7.68825 -0.647952 -1.76101
7.60802 -0.456887 -1.73961
7.5749 -0.271928 -1.73003
7.56473 -0.0891546 -1.72672
7.56495 0.0931549 -1.72678
7.57532 0.275951 -1.73016
7.60937 0.461004 -1.73997
7.69007 0.652198 -1.76151
8.26785 0.902322 -1.89829
8.20467 -0.891041 -1.95598
7.67708 -0.64701 -1.82595
7.59784 -0.456276 -1.80397
7.56435 -0.271549 -1.79394
7.55345 -0.0890216 -1.79032
7.55369 0.093016 -1.79039
7.56459 0.27556 -1.79403
7.59885 0.460366 -1.80426
7.67892 0.651251 -1.82647
8.22662 0.897823 -1.96132
8.16397 -0.886621 -2.0185
7.68783 -0.647916 -1.89637
7.60097 -0.456464 -1.87168
7.565 -0.271573 -1.86067
7.55751 -0.0890695 -1.85776
7.55739 0.0930618 -1.85775
7.56524 0.275584 -1.86077
7.60197 0.460555 -1.87199
7.69029 0.652216 -1.89706
8.18564 0.893351 -2.02398
8.1847 -0.888872 -2.09633
7.70118 -0.649042 -1.96791
7.60411 -0.456652 -1.93973
7.56566 -0.271596 -1.92769
7.56748 -0.0891871 -1.92705
7.56737 0.0931846 -1.92703
7.5659 0.275608 -1.92779
7.60511 0.460745 -1.94005
7.70365 0.653349 -1.96863
8.25878 0.901333 -2.11543
8.26371 -0.897453 -2.19029
7.72389 -0.650955 -2.04246
7.61473 -0.457291 -2.0101
7.57449 -0.271914 -1.99717
7.58007 -0.0893354 -1.99749
7.57994 0.0933397 -1.99747
7.57437 0.275917 -1.99717
7.61598 0.461404 -2.01049
7.72645 0.655283 -2.04323
8.26374 0.901874 -2.19043
8.27929 -0.899145 -2.26861
7.75669 -0.65372 -2.12048
7.63641 -0.458592 -2.08397
7.59048 -0.272487 -2.06904
7.59127 -0.0894674 -2.06807
7.59142 0.0934809 -2.06812
7.59036 0.276499 -2.06905
7.63767 0.462718 -2.08438
7.76449 0.658509 -2.1227
8.27931 0.903574 -2.26874
8.33566 -0.905266 -2.35908
8.33115 -0.702134 -2.35233
7.65832 -0.459908 -2.1586
7.6066 -0.273066 -2.14154
7.59975 -0.0895673 -2.13839
7.59991 0.0935853 -2.13844
7.60648 0.277086 -2.14155
7.65958 0.464045 -2.15902
8.33124 0.706575 -2.35246
8.47044 -0.713875 -2.46808
8.47073 0.718406 -2.46828
-0.822407 -10.0019 -1.00422
-0.575381 -9.93565 -0.995876
-0.332211 -9.8684 -0.988041
-0.0941283 -9.9528 -0.995972
-1.31167 -9.99947 -1.0939
-1.03234 -9.68089 -1.05601
-0.785857 -9.55738 -1.04016
-0.551554 -9.52421 -1.03479
-0.319429 -9.48868 -1.02979
-0.0903073 -9.54866 -1.03576
0.141785 -9.62018 -1.04358
0.388378 -9.97087 -1.08233
-1.53476 -9.84647 -1.16478
-1.24826 -9.51602 -1.12179
-1.00059 -9.3832 -1.10296
-0.770446 -9.36996 -1.09889
-0.542467 -9.36729 -1.09671
-0.315245 -9.3643 -1.09515
-0.0885639 -9.36432 -1.09458
0.138019 -9.36465 -1.09469
0.372024 -9.55101 -1.1172
0.627669 -9.92987 -1.16295
-1.78074 -9.85202 -1.25462
-1.46813 -9.41904 -1.19461
-1.22764 -9.35882 -1.18286
-0.995536 -9.3358 -1.17656
-0.767117 -9.32946 -1.17308
-0.540127 -9.32688 -1.17077
-0.31392 -9.32506 -1.16924
-0.0881933 -9.32524 -1.16866
0.137445 -9.32576 -1.1688
0.364011 -9.34529 -1.172
0.602551 -9.53249 -1.19696
-2.00592 -9.74463 -1.33084
-1.70397 -9.42726 -1.28149
-1.45435 -9.33063 -1.2632
-1.22211 -9.31669 -1.25694
-0.991079 -9.294 -1.25028
-0.76381 -9.28922 -1.24678
-0.537802 -9.28673 -1.24434
-0.312615 -9.28628 -1.2429
-0.087827 -9.28641 -1.24227
0.136884 -9.28761 -1.24251
0.362274 -9.3007 -1.24507
0.590187 -9.3369 -1.25146
0.842872 -9.62806 -1.29284
-2.21119 -9.56399 -1.39623
-1.93883 -9.41872 -1.36777
-1.68332 -9.31302 -1.34611
-1.44575 -9.27545 -1.33524
-1.21617 -9.27139 -1.33003
-0.986651 -9.25248 -1.3235
-0.760522 -9.24924 -1.32002
-0.535563 -9.24809 -1.31762
-0.311317 -9.24773 -1.31611
-0.0874609 -9.24781 -1.31543
0.136324 -9.24969 -1.31578
0.360669 -9.25948 -1.31803
0.586716 -9.28197 -1.32287
0.817199 -9.33477 -1.33282
1.09599 -9.78736 -1.40082
1.40533 -10.2917 -1.47744
-2.17406 -9.40338 -1.45472
-1.91714 -9.31331 -1.43319
-1.6698 -9.23818 -1.41499
-1.43723 -9.2208 -1.40659
-1.20972 -9.22226 -1.40194
-0.982274 -9.21143 -1.39627
-0.757267 -9.20964 -1.39281
-0.533343 -9.20973 -1.39047
-0.310031 -9.20942 -1.38888
-0.0870991 -9.20944 -1.38816
0.135766 -9.21199 -1.38863
0.359074 -9.21853 -1.39052
0.584078 -9.24026 -1.39552
0.810602 -9.25945 -1.40097
1.05561 -9.42682 -1.42974
1.31985 -9.66575 -1.4704
1.57046 -9.73738 -1.48664
1.85178 -9.94473 -1.52469
-2.15169 -9.30663 -1.52105
-1.90077 -9.23383 -1.50119
-1.65973 -9.18251 -1.48588
-1.42932 -9.17002 -1.47783
-1.20333 -9.17354 -1.47327
-0.978052 -9.17183 -1.46877
-0.754123 -9.17144 -1.46536
-0.531134 -9.17159 -1.4629
-0.308745 -9.17132 -1.46124
-0.086736 -9.17133 -1.46047
0.135217 -9.17449 -1.46107
0.357489 -9.17784 -1.46256
0.581184 -9.19445 -1.46701
0.805246 -9.19825 -1.4703
1.03648 -9.25596 -1.4831
1.2737 -9.32781 -1.49911
1.51271 -9.37931 -1.51283
1.77436 -9.52896 -1.54344
2.06606 -9.77511 -1.59094
-2.13924 -9.25278 -1.59329
-1.89007 -9.18184 -1.57273
-1.65197 -9.13958 -1.55819
-1.42355 -9.13303 -1.55075
-1.1982 -9.1344 -1.5456
-0.973888 -9.1328 -1.54089
-0.751002 -9.13345 -1.53749
-0.528936 -9.13367 -1.53492
-0.30747 -9.13344 -1.53318
-0.0863863 -9.13407 -1.53249
0.134668 -9.13721 -1.53311
0.356012 -9.13993 -1.53457
0.578308 -9.14897 -1.53798
0.801253 -9.15266 -1.54141
1.02713 -9.17247 -1.54848
1.25767 -9.21035 -1.55956
1.4906 -9.24223 -1.5706
1.73205 -9.30173 -1.58737
1.97934 -9.36481 -1.60584
-2.13742 -9.24488 -1.67312
-1.88802 -9.17185 -1.65115
-1.64896 -9.12291 -1.63468
-1.42075 -9.11504 -1.62663
-1.19602 -9.11776 -1.62148
-0.972731 -9.12194 -1.61756
-0.750004 -9.12131 -1.61376
-0.527973 -9.11701 -1.61027
-0.306769 -9.11265 -1.60772
-0.0861615 -9.11042 -1.60648
0.134294 -9.11191 -1.60685
0.354976 -9.11333 -1.60814
0.576249 -9.11639 -1.61067
0.798342 -9.11939 -1.61414
1.02142 -9.12147 -1.61841
1.24694 -9.13179 -1.62512
1.47448 -9.14231 -1.63287
1.71008 -9.18374 -1.64717
1.95999 -9.27329 -1.67126
2.25346 -9.51753 -1.72459
-2.13559 -9.23696 -1.75305
-1.88589 -9.16154 -1.72957
-1.64664 -9.11008 -1.71183
-1.41795 -9.09707 -1.70244
-1.19384 -9.10114 -1.6973
-0.971615 -9.11147 -1.69435
-0.749313 -9.11295 -1.69076
-0.527632 -9.11113 -1.68755
-0.306571 -9.10678 -1.68488
-0.0861054 -9.10437 -1.68356
0.134205 -9.10585 -1.68394
0.354786 -9.10845 -1.68551
0.575947 -9.11161 -1.68818
0.797922 -9.11459 -1.69182
1.02078 -9.11575 -1.69612
1.2452 -9.11908 -1.70185
1.46997 -9.11431 -1.7071
1.70205 -9.14065 -1.71924
1.94634 -9.20871 -1.74039
2.22404 -9.3933 -1.78493
-2.13409 -9.23048 -1.83338
-1.88374 -9.1511 -1.80803
-1.64432 -9.09724 -1.78901
-1.42461 -9.13984 -1.79008
-1.19208 -9.08776 -1.77371
-0.970497 -9.10098 -1.77119
-0.748455 -9.10249 -1.76744
-0.52721 -9.10385 -1.76471
-0.306374 -9.1009 -1.76218
-0.086047 -9.09831 -1.76076
0.13412 -9.1001 -1.76122
0.354599 -9.10366 -1.76306
0.575643 -9.10681 -1.76585
0.797506 -9.10984 -1.76966
1.02024 -9.11092 -1.77415
1.24347 -9.10638 -1.7786
1.46765 -9.09993 -1.78376
1.69656 -9.11114 -1.79347
1.93732 -9.16604 -1.81298
2.2052 -9.31372 -1.8522
-2.13589 -9.23828 -1.91682
-1.88169 -9.1411 -1.88666
-1.68952 -9.3473 -1.92022
-1.41717 -9.0921 -1.8602
-1.19265 -9.0921 -1.85375
-0.969376 -9.09049 -1.8481
-0.747593 -9.09202 -1.84419
-0.526605 -9.09339 -1.84135
-0.306164 -9.09462 -1.83956
-0.0859879 -9.09223 -1.83812
0.134052 -9.09531 -1.83886
0.354412 -9.09885 -1.84077
0.575342 -9.10203 -1.84369
0.79709 -9.10508 -1.84767
1.0197 -9.10608 -1.85234
1.24963 -9.1515 -1.86718
1.46639 -9.0921 -1.86176
1.69301 -9.0921 -1.8696
1.9335 -9.14794 -1.89015
2.19411 -9.26686 -1.92513
-2.13336 -9.22734 -1.99662
-1.87974 -9.13166 -1.9655
-1.64339 -9.0921 -1.94785
-1.41717 -9.0921 -1.93994
-1.19265 -9.0921 -1.93321
-0.968639 -9.08359 -1.92586
-0.746972 -9.08445 -1.92165
-0.526138 -9.08532 -1.91857
-0.305878 -9.08617 -1.91663
-0.0859486 -9.08809 -1.91603
0.134005 -9.09223 -1.91703
0.354317 -9.0964 -1.91916
0.575283 -9.10109 -1.92252
0.797094 -9.10512 -1.92688
1.0196 -9.10519 -1.93155
1.24152 -9.0921 -1.93458
1.46639 -9.0921 -1.94156
1.69302 -9.0921 -1.94974
1.92968 -9.12985 -1.96727
2.19308 -9.26251 -2.00671
-2.14155 -9.26277 -2.08696
-1.87865 -9.12633 -2.04538
-1.64339 -9.0921 -2.0282
-1.41717 -9.0921 -2.01996
-1.19265 -9.0921 -2.01296
-0.968624 -9.08344 -2.00526
-0.746958 -9.0843 -2.00088
-0.526132 -9.08523 -1.99769
-0.3059 -9.0868 -1.99583
-0.085958 -9.08907 -1.99528
0.134023 -9.0935 -1.99638
0.354368 -9.09771 -1.99861
0.575382 -9.10267 -2.00217
0.797342 -9.10796 -2.00699
1.01986 -9.10754 -2.01174
1.24152 -9.0921 -2.01438
1.46639 -9.0921 -2.02165
1.69302 -9.0921 -2.03016
1.92826 -9.12315 -2.04692
2.19246 -9.25992 -2.0889
-2.14556 -9.28008 -2.17399
-1.88071 -9.13635 -2.12903
-1.64339 -9.0921 -2.10884
-1.41717 -9.0921 -2.10027
-1.19265 -9.0921 -2.09299
-0.968608 -9.08329 -2.08495
-0.746987 -9.08465 -2.08051
-0.526188 -9.08621 -2.07734
-0.305933 -9.08779 -2.0754
-0.0859672 -9.09004 -2.07484
0.134038 -9.09447 -2.07598
0.354416 -9.09896 -2.07835
0.575419 -9.10324 -2.0819
0.797337 -9.10791 -2.08677
1.01993 -9.10815 -2.09187
1.24152 -9.0921 -2.09447
1.46639 -9.0921 -2.10203
1.69302 -9.0921 -2.11088
1.92807 -9.12225 -2.12809
2.19202 -9.25805 -2.17151
-1.8823 -9.14407 -2.21262
-1.64339 -9.0921 -2.18978
-1.41717 -9.0921 -2.18089
-1.19265 -9.0921 -2.17333
-0.968593 -9.08313 -2.16495
-0.747252 -9.08788 -2.16114
-0.52645 -9.09074 -2.15815
-0.306088 -9.09239 -2.15616
-0.0860061 -9.09398 -2.15541
0.134063 -9.09619 -2.15607
0.354485 -9.10073 -2.15855
0.575314 -9.1016 -2.16142
0.79704 -9.1045 -2.16606
1.01993 -9.10812 -2.17216
1.24152 -9.0921 -2.17486
1.46639 -9.0921 -2.18271
1.69302 -9.0921 -2.19191
1.92764 -9.12022 -2.20929
2.19158 -9.25618 -2.25441
-1.64339 -9.0921 -2.27105
-1.41717 -9.0921 -2.26182
-1.19265 -9.0921 -2.25398
-0.968567 -9.0829 -2.24523
-0.747237 -9.08765 -2.24128
-0.526547 -9.09238 -2.23865
-0.306248 -9.0971 -2.23733
-0.086057 -9.09937 -2.23672
0.134129 -9.10063 -2.23718
0.354554 -9.1025 -2.23909
0.57542 -9.10327 -2.24205
0.796903 -9.10295 -2.24606
1.01955 -9.1048 -2.25195
1.24152 -9.0921 -2.25558
1.46639 -9.0921 -2.26372
1.69301 -9.0921 -2.27325
-1.64339 -9.0921 -2.35265
-1.41717 -9.0921 -2.34309
-1.19265 -9.0921 -2.33497
1.24152 -9.0921 -2.33662
1.46639 -9.0921 -2.34505
1.69301 -9.0921 -2.35493
-1.41717 -9.0921 -2.4247
-1.19265 -9.0921 -2.41629
1.46639 -9.0921 -2.42673
-0.763555 -9.98529 -1.00209
-0.51956 -9.92052 -0.994057
-0.2795 -9.86357 -0.987395
-0.0432359 -9.97692 -0.998349
-1.23805 -9.908 -1.08304
-0.968789 -9.62502 -1.04927
-0.730253 -9.54975 -1.03885
-0.498391 -9.51631 -1.03362
-0.268969 -9.49197 -1.02998
-0.0414462 -9.56392 -1.03738
0.189635 -9.64345 -1.04619
-1.45049 -9.70854 -1.14736
-1.18244 -9.46292 -1.11466
-0.943337 -9.37216 -1.10098
-0.716456 -9.36935 -1.09832
-0.490552 -9.36663 -1.0963
-0.265339 -9.36393 -1.09493
-0.0405816 -9.36442 -1.09455
0.184198 -9.36695 -1.09505
0.419744 -9.60829 -1.12412
0.684438 -10.1014 -1.18339
-1.68301 -9.67091 -1.23014
-1.40108 -9.37783 -1.18824
-1.16871 -9.35301 -1.1812
-0.939211 -9.33118 -1.17526
-0.71336 -9.32888 -1.17247
-0.488436 -9.32624 -1.17033
-0.264234 -9.32491 -1.16903
-0.0404112 -9.32534 -1.16863
0.1834 -9.32639 -1.16897
0.408795 -9.35765 -1.17378
0.64925 -9.58204 -1.20354
-2.23148 -9.96519 -1.36602
-1.92617 -9.68617 -1.32106
-1.62987 -9.36557 -1.27163
-1.39263 -9.32124 -1.26071
-1.16345 -9.31096 -1.25518
-0.935155 -9.29086 -1.24909
-0.710288 -9.28867 -1.24614
-0.486362 -9.28662 -1.24394
-0.263136 -9.28614 -1.24268
-0.0402439 -9.2865 -1.24224
0.18265 -9.28823 -1.2427
0.406501 -9.30516 -1.24591
0.633434 -9.34861 -1.2534
0.89511 -9.73935 -1.30829
-2.13132 -9.51794 -1.38732
-1.86658 -9.38651 -1.36125
-1.61695 -9.29134 -1.34143
-1.38464 -9.2678 -1.33285
-1.15824 -9.2692 -1.32867
-0.931122 -9.2508 -1.32245
-0.707231 -9.24871 -1.31934
-0.484341 -9.24804 -1.31721
-0.262044 -9.2476 -1.31587
-0.0400767 -9.24791 -1.3154
0.181904 -9.2503 -1.31598
0.404698 -9.26389 -1.31892
0.629202 -9.28615 -1.32386
0.864305 -9.40414 -1.34325
1.1434 -9.8431 -1.40946
1.44971 -10.3142 -1.48148
-2.09946 -9.37561 -1.44814
-1.84884 -9.2973 -1.42878
-1.60719 -9.23524 -1.41291
-1.37735 -9.21896 -1.40496
-1.15266 -9.22455 -1.40119
-0.927116 -9.211 -1.39535
-0.704249 -9.2097 -1.39219
-0.482333 -9.20969 -1.39004
-0.26096 -9.2093 -1.38864
-0.0399104 -9.20954 -1.38813
0.181162 -9.21259 -1.38884
0.402908 -9.2229 -1.39145
0.626143 -9.24102 -1.39605
0.852241 -9.27291 -1.40356
1.09958 -9.46592 -1.43635
1.36099 -9.68295 -1.47382
1.61106 -9.7574 -1.4906
1.8948 -9.97975 -1.53108
-2.07717 -9.2761 -1.51367
-1.83311 -9.2182 -1.49661
-1.59752 -9.17966 -1.48371
-1.37011 -9.1705 -1.47649
-1.14657 -9.17584 -1.47249
-0.923134 -9.17143 -1.46781
-0.701329 -9.17151 -1.4647
-0.480335 -9.17157 -1.46245
-0.25988 -9.17121 -1.46098
-0.0397478 -9.17203 -1.46054
0.180425 -9.17509 -1.46129
0.401129 -9.18216 -1.46353
0.623038 -9.1952 -1.46757
0.845602 -9.20064 -1.47125
1.07668 -9.26871 -1.48584
1.31214 -9.33547 -1.50116
1.55036 -9.38978 -1.51544
1.81354 -9.55173 -1.54816
-2.06657 -9.22876 -1.58665
-1.8223 -9.1638 -1.56751
-1.59015 -9.1373 -1.556
-1.36458 -9.1335 -1.54933
-1.14131 -9.13379 -1.54429
-0.919265 -9.133 -1.53998
-0.698425 -9.13354 -1.53681
-0.47835 -9.13365 -1.53445
-0.258807 -9.13334 -1.53291
-0.0395866 -9.13477 -1.53255
0.179691 -9.1378 -1.53334
0.399359 -9.14167 -1.53516
0.619955 -9.1497 -1.53856
0.841247 -9.15326 -1.54211
1.06565 -9.17378 -1.54943
1.29527 -9.21545 -1.56127
1.52703 -9.24842 -1.57261
1.7678 -9.31083 -1.58998
-2.36696 -9.49568 -1.72558
-2.0643 -9.21864 -1.66575
-1.82028 -9.15365 -1.64564
-1.58703 -9.11938 -1.63216
-1.36189 -9.11553 -1.62515
-1.13924 -9.11717 -1.6201
-0.918187 -9.12231 -1.61664
-0.697411 -9.1203 -1.61285
-0.477426 -9.11602 -1.6096
-0.258194 -9.11168 -1.60728
-0.0394823 -9.11074 -1.60648
0.179188 -9.1122 -1.60704
0.398147 -9.11393 -1.60856
0.617737 -9.11696 -1.61125
0.838182 -9.11992 -1.61487
1.05981 -9.12351 -1.61954
1.28329 -9.13017 -1.62572
1.50999 -9.14525 -1.63439
1.74536 -9.19269 -1.64988
-2.34164 -9.39408 -1.7902
-2.06204 -9.20851 -1.74491
-1.81821 -9.14326 -1.72378
-1.58445 -9.10459 -1.70883
-1.35932 -9.09832 -1.70104
-1.13734 -9.10197 -1.69613
-0.917135 -9.11184 -1.69338
-0.696875 -9.11328 -1.69005
-0.477119 -9.11014 -1.68686
-0.258026 -9.10581 -1.68442
-0.039456 -9.10469 -1.68356
0.179069 -9.10615 -1.68414
0.397939 -9.10914 -1.68597
0.617413 -9.11217 -1.68879
0.837743 -9.11514 -1.69258
1.05875 -9.11439 -1.69667
1.28149 -9.1174 -1.70246
1.50536 -9.11724 -1.70869
1.7363 -9.14492 -1.72119
-2.34579 -9.41075 -1.87688
-2.05992 -9.19908 -1.82427
-1.81614 -9.13287 -1.80198
-1.58222 -9.09179 -1.78587
-1.36497 -9.13613 -1.78763
-1.13618 -9.09268 -1.77328
-0.91608 -9.10137 -1.77018
-0.696075 -9.10282 -1.7667
-0.476805 -9.10414 -1.76423
-0.25786 -9.09994 -1.76171
-0.0394298 -9.09863 -1.76076
0.178964 -9.10083 -1.76151
0.397729 -9.10435 -1.76353
0.617087 -9.10737 -1.76648
0.837304 -9.11039 -1.77045
1.05819 -9.10956 -1.77472
1.27971 -9.10469 -1.77924
1.50673 -9.12553 -1.78986
1.73114 -9.11776 -1.79597
-2.35856 -9.46198 -1.97131
-2.0581 -9.19095 -1.904
-1.81414 -9.12279 -1.88032
-1.58228 -9.0921 -1.86563
-1.35839 -9.0921 -1.85841
-1.13502 -9.08338 -1.85052
-0.915023 -9.09088 -1.84705
-0.695274 -9.09236 -1.84343
-0.476256 -9.09369 -1.84085
-0.257692 -9.09405 -1.83914
-0.0394035 -9.09255 -1.83812
0.17887 -9.09603 -1.83916
0.39752 -9.09954 -1.84127
0.616765 -9.10261 -1.84435
0.836869 -9.10562 -1.8485
1.05763 -9.10472 -1.85294
1.27794 -9.0921 -1.85607
1.50121 -9.0921 -1.86289
1.76855 -9.31478 -1.91666
-2.05568 -9.18014 -1.98328
-1.81227 -9.1134 -1.9589
-1.58228 -9.0921 -1.9456
-1.35839 -9.0921 -1.93807
-1.1361 -9.0921 -1.9317
-0.914313 -9.0838 -1.92472
-0.694685 -9.08466 -1.92082
-0.47583 -9.08551 -1.91803
-0.257473 -9.08636 -1.91635
-0.0393883 -9.08897 -1.91615
0.178812 -9.09308 -1.91737
0.397419 -9.09722 -1.9197
0.616713 -9.10184 -1.92325
0.83689 -9.10584 -1.92778
1.05747 -9.10336 -1.93207
1.27794 -9.0921 -1.93563
1.50121 -9.0921 -1.94275
1.72627 -9.0921 -1.95104
-2.05691 -9.18564 -2.06633
-1.81046 -9.10429 -2.03767
-1.58228 -9.0921 -2.02586
-1.35839 -9.0921 -2.01801
-1.1361 -9.0921 -2.01138
-0.914297 -9.08365 -2.00408
-0.694675 -9.08451 -2.00002
-0.475833 -9.08558 -1.99716
-0.257498 -9.08715 -1.99557
-0.0393924 -9.09001 -1.99542
0.17884 -9.09439 -1.99675
0.397476 -9.09853 -1.99918
0.616836 -9.10366 -2.00298
0.837152 -9.1087 -2.00793
1.05765 -9.10488 -2.0121
1.27794 -9.0921 -2.01548
1.50121 -9.0921 -2.02288
1.72627 -9.0921 -2.03151
-2.06024 -9.2005 -2.15196
-1.81518 -9.12801 -2.1242
-1.58228 -9.0921 -2.1064
-1.35839 -9.0921 -2.09825
-1.1361 -9.0921 -2.09135
-0.914281 -9.0835 -2.08372
-0.694713 -9.08502 -2.07965
-0.475884 -9.08657 -2.07679
-0.257524 -9.08814 -2.07514
-0.0393966 -9.09098 -2.07498
0.178857 -9.09538 -2.07636
0.397533 -9.09985 -2.07896
0.616869 -9.10412 -2.08272
0.837156 -9.10875 -2.08777
1.05765 -9.10493 -2.09212
1.27794 -9.0921 -2.09561
1.50121 -9.0921 -2.10331
1.72627 -9.0921 -2.11228
-1.82546 -9.17972 -2.21823
-1.58228 -9.0921 -2.18725
-1.35839 -9.0921 -2.17878
-1.13611 -9.0921 -2.17162
-0.914363 -9.0843 -2.1639
-0.695019 -9.089 -2.16042
-0.47612 -9.09111 -2.15758
-0.257657 -9.09276 -2.15589
-0.0394108 -9.09424 -2.15539
0.178891 -9.09711 -2.15647
0.397612 -9.10162 -2.15918
0.616693 -9.10154 -2.16205
0.836842 -9.10533 -2.1671
1.05765 -9.1049 -2.17241
1.27794 -9.0921 -2.17605
1.50121 -9.0921 -2.18404
1.72627 -9.0921 -2.19336
-1.58228 -9.0921 -2.26843
-1.35839 -9.0921 -2.25964
-1.13611 -9.0921 -2.25222
-0.914339 -9.08406 -2.24414
-0.695002 -9.08877 -2.24054
-0.476246 -9.09346 -2.23823
-0.25781 -9.09814 -2.23722
-0.0394341 -9.09963 -2.23671
0.178966 -9.1009 -2.23743
0.397687 -9.10339 -2.23975
0.616805 -9.10321 -2.2427
0.836617 -9.1029 -2.24692
1.05765 -9.10487 -2.25302
1.27794 -9.0921 -2.2568
1.50121 -9.0921 -2.26509
1.72627 -9.0921 -2.27476
-1.58228 -9.0921 -2.34993
-1.35839 -9.0921 -2.34083
-1.13611 -9.0921 -2.33314
1.27794 -9.0921 -2.33789
1.50121 -9.0921 -2.34648
1.72627 -9.0921 -2.35649
-1.58228 -9.0921 -2.43178
-1.35839 -9.0921 -2.42236
1.27794 -9.0921 -2.41932
1.50121 -9.0921 -2.42821
-0.876172 -10.0545 -1.00991
-0.62586 -9.94917 -0.997531
-0.382881 -9.8827 -0.989654
-0.145193 -9.92844 -0.993596
0.0965352 -10.1866 -1.01937
10.1079 0.0524328 -1.01146
-1.08432 -9.72647 -1.06153
-0.833415 -9.56378 -1.04128
-0.599573 -9.53123 -1.03586
-0.367911 -9.49633 -1.03081
-0.139412 -9.53322 -1.03415
0.0910279 -9.60474 -1.04184
0.331471 -9.86823 -1.07098
9.4543 -0.406909 -1.02643
9.29663 -0.175848 -1.00855
9.25143 0.0479904 -1.00348
9.34504 0.273769 -1.01406
9.53217 0.509381 -1.0354
-1.59842 -9.95385 -1.17834
-1.2995 -9.55851 -1.12751
-1.04817 -9.40219 -1.10577
-0.816567 -9.37046 -1.0994
-0.589293 -9.36786 -1.09711
-0.36282 -9.36495 -1.09543
-0.13694 -9.36421 -1.09464
0.0887503 -9.36461 -1.09462
0.318789 -9.49062 -1.10992
0.56734 -9.82552 -1.15035
9.26996 -0.623071 -1.08595
9.01366 -0.387944 -1.05452
8.95233 -0.169335 -1.04656
8.93394 0.0463435 -1.04424
8.96943 0.262766 -1.04883
9.04701 0.483455 -1.05895
-1.51823 -9.45452 -1.19998
-1.27295 -9.36327 -1.18416
-1.04128 -9.34036 -1.17775
-0.813036 -9.32994 -1.17362
-0.58675 -9.32744 -1.17119
-0.361279 -9.32518 -1.16947
-0.136369 -9.32513 -1.16871
0.0883816 -9.32553 -1.16869
0.313632 -9.33707 -1.17075
0.547012 -9.47346 -1.18916
0.812849 -9.91759 -1.247
8.89344 -0.597763 -1.11701
8.78461 -0.378086 -1.10187
8.73 -0.16513 -1.09421
8.71008 0.0451823 -1.09153
8.74488 0.256187 -1.09635
8.81652 0.471138 -1.10643
-2.06074 -9.792 -1.33854
-1.76048 -9.49527 -1.2918
-1.49944 -9.33746 -1.26504
-1.26696 -9.31916 -1.25806
-1.03661 -9.2985 -1.25154
-0.809528 -9.28968 -1.24736
-0.584223 -9.28728 -1.24479
-0.359776 -9.28639 -1.24314
-0.135801 -9.28629 -1.24233
0.0880158 -9.28693 -1.24234
0.312239 -9.29563 -1.24415
0.538314 -9.32283 -1.24916
0.780692 -9.52527 -1.27844
8.65549 -0.58177 -1.16043
8.57682 -0.369143 -1.14836
8.53786 -0.161496 -1.14229
8.52262 0.0442098 -1.14006
8.54929 0.250457 -1.1441
8.60217 0.459684 -1.15233
-2.2607 -9.58932 -1.40134
-1.98665 -9.43996 -1.37212
-1.72976 -9.3296 -1.34962
-1.49056 -9.28216 -1.33718
-1.26022 -9.26962 -1.33061
-1.03198 -9.25692 -1.32483
-0.806042 -9.24968 -1.32063
-0.58176 -9.24811 -1.31802
-0.358283 -9.24784 -1.31637
-0.135236 -9.24769 -1.3155
0.0876564 -9.24902 -1.31561
0.310855 -9.25447 -1.31706
0.535664 -9.27693 -1.32171
0.763734 -9.31836 -1.32985
1.03113 -9.70246 -1.38781
1.34098 -10.2588 -1.47159
8.47579 -0.569691 -1.20829
8.41562 -0.362204 -1.19811
8.37999 -0.158509 -1.19215
8.36481 0.0433912 -1.1898
8.39117 0.245825 -1.19404
8.43739 0.450879 -1.20182
8.78491 0.682085 -1.25329
-2.22222 -9.42611 -1.4597
-1.96232 -9.32437 -1.43621
-1.71564 -9.25342 -1.4185
-1.48176 -9.22739 -1.40862
-1.25354 -9.22048 -1.40255
-1.02737 -9.21561 -1.39763
-0.802579 -9.20993 -1.39344
-0.579348 -9.20974 -1.39089
-0.356798 -9.20952 -1.38915
-0.134675 -9.20932 -1.38823
0.0872976 -9.21132 -1.38845
0.309503 -9.21421 -1.3896
0.533288 -9.23578 -1.39439
0.757691 -9.24462 -1.39807
0.994133 -9.35433 -1.41788
1.25569 -9.60638 -1.46025
1.51275 -9.74029 -1.48571
1.78043 -9.88643 -1.51411
8.33889 -0.56049 -1.25972
8.28204 -0.356455 -1.24947
8.24753 -0.156004 -1.24334
8.23564 0.0427212 -1.24134
8.25719 0.2419 -1.2451
8.30543 0.443827 -1.25363
8.41281 0.653194 -1.27184
-2.20749 -9.36364 -1.53191
-1.94543 -9.24411 -1.50424
-1.70285 -9.18445 -1.48742
-1.47305 -9.17313 -1.47941
-1.24692 -9.17174 -1.47391
-1.0228 -9.17457 -1.46998
-0.799217 -9.17136 -1.46595
-0.576945 -9.17159 -1.46334
-0.355322 -9.17141 -1.46152
-0.134116 -9.17117 -1.46054
0.086944 -9.17384 -1.46088
0.308244 -9.17668 -1.46209
0.530847 -9.19353 -1.46638
0.753822 -9.19742 -1.46948
0.981815 -9.23842 -1.47938
1.21735 -9.31305 -1.49559
1.45476 -9.36688 -1.50943
1.70884 -9.4889 -1.53528
1.9784 -9.64683 -1.5681
8.21323 -0.552044 -1.3108
8.15856 -0.351141 -1.30034
8.12668 -0.153718 -1.2943
8.1136 0.0420881 -1.292
8.13633 0.238359 -1.29616
8.18259 0.437263 -1.30483
8.27203 0.642264 -1.32117
-2.19292 -9.30183 -1.60335
-1.93483 -9.19374 -1.57622
-1.69482 -9.14115 -1.55975
-1.46656 -9.13271 -1.55182
-1.2419 -9.13486 -1.54665
-1.0181 -9.13241 -1.54163
-0.795907 -9.13336 -1.53811
-0.574562 -9.13366 -1.53538
-0.353853 -9.13353 -1.53348
-0.133564 -9.13334 -1.53246
0.0865908 -9.13656 -1.53291
0.306989 -9.13936 -1.53417
0.528223 -9.14808 -1.53733
0.750087 -9.15186 -1.54055
0.974329 -9.168 -1.54677
1.2021 -9.19639 -1.556
1.43418 -9.23435 -1.56782
1.67238 -9.28647 -1.58305
1.91724 -9.34858 -1.60105
2.27006 -9.85585 -1.69681
8.41147 -0.769373 -1.41708
8.0618 -0.541866 -1.35558
7.99119 -0.343937 -1.34192
7.94756 -0.15033 -1.3336
7.93562 0.0411648 -1.33138
7.96 0.233194 -1.33602
8.02258 0.428711 -1.34787
8.13359 0.631515 -1.36868
-2.18395 -9.2638 -1.67824
-1.93272 -9.18372 -1.65481
-1.69215 -9.12673 -1.63671
-1.46369 -9.11484 -1.62778
-1.23964 -9.11821 -1.62258
-1.0169 -9.12163 -1.61835
-0.794931 -9.12217 -1.61458
-0.573567 -9.1179 -1.61091
-0.353081 -9.11356 -1.60817
-0.133224 -9.11009 -1.60653
0.086354 -9.11159 -1.60669
0.306105 -9.11302 -1.60778
0.526356 -9.11571 -1.61002
0.747371 -9.11871 -1.61327
0.969407 -9.12167 -1.61745
1.1935 -9.13058 -1.62366
1.41934 -9.13883 -1.63074
1.65118 -9.16874 -1.6427
1.89419 -9.23621 -1.66249
2.17136 -9.42734 -1.70582
8.21158 -0.75109 -1.45397
7.88144 -0.529743 -1.39285
7.80091 -0.335748 -1.37678
7.76735 -0.146921 -1.36984
7.75905 0.0402493 -1.36815
7.77337 0.227726 -1.37124
7.83766 0.41883 -1.38396
7.98903 0.620291 -1.41292
-2.18208 -9.25584 -1.75841
-1.93059 -9.17361 -1.73344
-1.68976 -9.11387 -1.71396
-1.46082 -9.097 -1.70367
-1.23737 -9.10156 -1.69844
-1.01573 -9.11116 -1.69517
-0.794102 -9.11266 -1.6914
-0.573197 -9.11201 -1.68823
-0.352853 -9.1077 -1.68536
-0.133134 -9.10404 -1.6836
0.0862967 -9.10554 -1.68377
0.305924 -9.10767 -1.68504
0.526079 -9.11093 -1.6875
0.746978 -9.11391 -1.6909
0.968902 -9.11692 -1.6953
1.19181 -9.11769 -1.70029
1.41505 -9.11118 -1.70494
1.64483 -9.13348 -1.71603
1.88125 -9.17312 -1.7315
2.14716 -9.32225 -1.7689
8.03132 -0.734601 -1.49126
7.74464 -0.520548 -1.43529
7.67605 -0.330374 -1.42069
7.64992 -0.1447 -1.41479
7.63865 0.0396244 -1.41248
7.65842 0.224359 -1.41672
7.7033 0.41165 -1.42644
7.84912 0.609428 -1.45574
8.23403 0.839365 -1.53044
-2.18154 -9.25357 -1.83982
-1.92839 -9.16313 -1.81207
-1.68738 -9.10102 -1.79122
-1.47481 -9.18414 -1.80007
-1.23511 -9.08487 -1.77426
-1.01456 -9.10067 -1.77205
-0.79319 -9.1022 -1.76811
-0.572668 -9.10358 -1.76519
-0.352625 -9.10181 -1.76269
-0.133047 -9.09798 -1.76081
0.0862376 -9.09947 -1.76099
0.305765 -9.10288 -1.76256
0.525802 -9.10614 -1.76514
0.746587 -9.10915 -1.76869
0.968397 -9.11216 -1.7733
1.19013 -9.10483 -1.77694
1.42183 -9.15486 -1.79287
1.6396 -9.10447 -1.79022
1.87755 -9.15507 -1.80854
2.13538 -9.2711 -1.8411
7.87104 -0.719941 -1.52954
7.71916 -0.518835 -1.49717
7.65468 -0.329454 -1.48269
7.63217 -0.144364 -1.47723
7.62235 0.0395398 -1.47508
7.64062 0.223837 -1.47923
7.68076 0.410445 -1.48849
7.77645 0.603786 -1.50941
8.15044 0.830844 -1.58543
-2.18498 -9.26814 -1.92496
-1.92629 -9.15318 -1.89089
-1.71408 -9.24503 -1.90078
-1.46003 -9.0921 -1.86155
-1.23609 -9.0921 -1.85492
-1.01339 -9.09017 -1.849
-0.792277 -9.09172 -1.8449
-0.57201 -9.09312 -1.84185
-0.352337 -9.09438 -1.83985
-0.132957 -9.09191 -1.83817
0.0861924 -9.09453 -1.83858
0.305604 -9.09807 -1.84025
0.525526 -9.10134 -1.84294
0.746197 -9.10439 -1.84666
0.96789 -9.10738 -1.85147
1.18969 -9.10144 -1.85555
1.41208 -9.0921 -1.86004
1.63738 -9.0921 -1.86757
1.87385 -9.13704 -1.88554
2.12369 -9.22034 -1.91273
7.83045 -0.716228 -1.58957
7.69683 -0.517334 -1.55946
7.63659 -0.328675 -1.5452
7.61444 -0.144029 -1.53957
7.60723 0.0394612 -1.53785
7.62284 0.223316 -1.54165
7.65828 0.409244 -1.55036
7.74084 0.601021 -1.56955
8.10748 0.826465 -1.64746
-2.18459 -9.26649 -2.00711
-1.92431 -9.14376 -1.96991
-1.73304 -9.3473 -2.00418
-1.46003 -9.0921 -1.94135
-1.23609 -9.0921 -1.93443
-1.01264 -9.08342 -1.92683
-0.791629 -9.08428 -1.9224
-0.571508 -9.08514 -1.91911
-0.352013 -9.086 -1.91694
-0.132889 -9.08716 -1.91596
0.086162 -9.09133 -1.91672
0.305516 -9.09548 -1.91859
0.525457 -9.10016 -1.92169
0.746182 -9.10419 -1.92578
0.967982 -9.10825 -1.93101
1.18855 -9.09269 -1.93322
1.41208 -9.0921 -1.93977
1.63738 -9.0921 -1.94763
1.87016 -9.11901 -1.96248
2.1214 -9.21043 -1.99258
7.79418 -0.712911 -1.65003
7.67455 -0.515837 -1.6216
7.61851 -0.327897 -1.60762
7.59801 -0.143718 -1.6021
7.59212 0.0393828 -1.60059
7.60509 0.222796 -1.60399
7.63585 0.408045 -1.61208
7.71043 0.598659 -1.6304
8.06483 0.822117 -1.70904
-2.19326 -9.30325 -2.09819
-1.92371 -9.1409 -2.05052
-1.68573 -9.0921 -2.02987
-1.46003 -9.0921 -2.02143
-1.23609 -9.0921 -2.01422
-1.01262 -9.08326 -2.00627
-0.791616 -9.08413 -2.00167
-0.571497 -9.08499 -1.99824
-0.35203 -9.08647 -1.99612
-0.132902 -9.08813 -1.9952
0.0861734 -9.09254 -1.99604
0.30556 -9.09679 -1.99801
0.525534 -9.10148 -2.00125
0.746391 -9.10674 -2.00578
0.968287 -9.11111 -2.01129
1.18847 -9.0921 -2.01284
1.41208 -9.0921 -2.01979
1.63738 -9.0921 -2.02796
1.86698 -9.10354 -2.03996
2.12041 -9.20612 -2.0738
7.75812 -0.709613 -1.71014
7.65232 -0.514343 -1.68359
7.60046 -0.32712 -1.66997
7.58288 -0.143432 -1.66486
7.57701 0.0393045 -1.6633
7.58736 0.222277 -1.66626
7.61612 0.406991 -1.67424
7.68797 0.596916 -1.69271
8.02238 0.81779 -1.77016
-2.1997 -9.3306 -2.18803
-1.92613 -9.1524 -2.13473
-1.68573 -9.0921 -2.11058
-1.46003 -9.0921 -2.1018
-1.23609 -9.0921 -2.0943
-1.03339 -9.26955 -2.12882
-0.791633 -9.08433 -2.0813
-0.571555 -9.08589 -2.07789
-0.352069 -9.08746 -2.07571
-0.132915 -9.0891 -2.07475
0.0861827 -9.09351 -2.07563
0.305599 -9.09796 -2.07772
0.525573 -9.10219 -2.08097
0.7464 -9.10685 -2.08555
0.968318 -9.11142 -2.09133
1.18847 -9.0921 -2.09287
1.41208 -9.0921 -2.10009
1.63738 -9.0921 -2.10859
1.86658 -9.10156 -2.12061
2.11942 -9.2018 -2.15524
7.7251 -0.706593 -1.77056
7.63014 -0.512852 -1.74546
7.58243 -0.326344 -1.73224
7.56775 -0.143146 -1.7276
7.56191 0.0392262 -1.72598
7.57213 0.221831 -1.72903
7.59801 0.406023 -1.73667
7.66557 0.595176 -1.75488
7.97987 0.813457 -1.83079
-1.92776 -9.16016 -2.21855
-1.68573 -9.0921 -2.19159
-1.46003 -9.0921 -2.18247
-1.23609 -9.0921 -2.17469
-1.04205 -9.3473 -2.22907
-0.79186 -9.08692 -2.1618
-0.571839 -9.09041 -2.15872
-0.352245 -9.09203 -2.15647
-0.132983 -9.09372 -2.15548
0.0861982 -9.09521 -2.1557
0.305658 -9.09972 -2.15789
0.525545 -9.10168 -2.16073
0.74612 -9.10343 -2.16479
0.967948 -9.10793 -2.17077
1.18847 -9.0921 -2.1732
1.41209 -9.0921 -2.1807
1.63738 -9.0921 -2.18953
1.87109 -9.12358 -2.20733
2.11868 -9.19862 -2.23719
7.73438 -0.707441 -1.84073
7.61856 -0.512074 -1.80971
7.57044 -0.325828 -1.79589
7.55667 -0.142936 -1.79128
7.55047 0.0391669 -1.78952
7.56136 0.221515 -1.79284
7.58701 0.405436 -1.80072
7.65422 0.594295 -1.81954
7.94539 0.809942 -1.89285
-1.68573 -9.0921 -2.27292
-1.46003 -9.0921 -2.26347
-1.23609 -9.0921 -2.25539
-0.791842 -9.08669 -2.24197
-0.571902 -9.09141 -2.23908
-0.352404 -9.09611 -2.2375
-0.133063 -9.09911 -2.2368
0.0862459 -9.10035 -2.23696
0.305723 -9.10168 -2.23845
0.525639 -9.10334 -2.24133
0.746085 -9.10302 -2.24502
0.967576 -9.10444 -2.25047
1.18847 -9.0921 -2.25385
1.41209 -9.0921 -2.26163
1.63738 -9.0921 -2.27079
7.773 -0.710974 -1.91858
7.62119 -0.51225 -1.87751
7.57144 -0.325871 -1.86278
7.55732 -0.142948 -1.85792
7.55896 0.039211 -1.85802
7.56201 0.221534 -1.85954
7.58848 0.405514 -1.86791
7.65729 0.594534 -1.88783
7.93056 0.80843 -1.95943
-1.46003 -9.0921 -2.34479
-1.23609 -9.0921 -2.33643
1.18847 -9.0921 -2.33483
1.41208 -9.0921 -2.34289
1.63738 -9.0921 -2.35238
7.77486 -0.711144 -1.98799
7.62383 -0.512428 -1.94565
7.57245 -0.325915 -1.92997
7.56592 -0.143111 -1.92687
7.56894 0.0392627 -1.92731
7.56368 0.221583 -1.92678
7.59161 0.405681 -1.93582
7.67053 0.595562 -1.95904
7.93089 0.808464 -2.02992
-1.46003 -9.0921 -2.42646
-1.23609 -9.0921 -2.41781
1.41209 -9.0921 -2.42449
1.63738 -9.0921 -2.43431
7.81881 -0.715164 -2.06886
7.64178 -0.513634 -2.01815
7.58078 -0.326273 -1.99939
7.57839 -0.143347 -1.99727
7.58088 0.0393247 -1.99759
7.57599 0.221944 -1.99713
7.60115 0.406191 -2.00576
7.69199 0.597228 -2.03294
7.94381 0.809781 -2.10404
7.8479 -0.717825 -2.14676
7.66516 -0.515206 -2.09276
7.59864 -0.327042 -2.07185
7.59341 -0.143631 -2.06888
7.5893 0.0393684 -2.06741
7.59198 0.222412 -2.069
7.62079 0.407241 -2.07893
7.71515 0.599026 -2.108
7.99089 0.81458 -2.18806
8.33237 -0.762137 -2.35415
7.68846 -0.516772 -2.16808
7.61807 -0.327878 -2.14538
7.6019 -0.143792 -2.13922
7.59777 0.0394123 -2.13771
7.60505 0.222795 -2.14065
7.64259 0.408406 -2.15336
7.73841 0.600832 -2.1838
8.33431 0.849588 -2.35706
-2.11168 -9.83591 -1.3457
-1.81207 -9.56497 -1.30223
-2.32388 -9.67482 -1.41525
-2.03088 -9.45956 -1.37615
-1.77021 -9.34403 -1.3527
-2.28269 -9.50336 -1.47314
-2.00531 -9.34046 -1.43993
-1.75572 -9.26756 -1.42171
-2.26267 -9.41999 -1.54267
-1.98666 -9.25358 -1.50708
-1.74144 -9.19214 -1.48976
-2.24763 -9.35738 -1.61454
-1.97617 -9.20473 -1.57946
-1.73211 -9.14291 -1.56119
-2.23274 -9.29542 -1.68565
-1.97402 -9.19468 -1.65821
-1.72967 -9.13004 -1.63851
-2.22769 -9.27436 -1.76369
-1.97186 -9.18463 -1.73702
-1.72753 -9.11876 -1.71613
-2.22814 -9.27625 -1.84618
-1.96963 -9.17424 -1.81583
-1.72558 -9.10844 -1.794
-2.23241 -9.29403 -1.93227
-1.9675 -9.16434 -1.89483
-1.72365 -9.09825 -1.87197
-2.23529 -9.30604 -2.0177
-1.96549 -9.15496 -1.97403
-1.77083 -9.3473 -2.00565
-2.24421 -9.34315 -2.1093
-1.96536 -9.15437 -2.05532
-1.72248 -9.0921 -2.03136
-1.96805 -9.16687 -2.13995
-1.72248 -9.0921 -2.11212
-1.72248 -9.0921 -2.1932
-0.68876 -9.9658 -0.999607
-0.44545 -9.90015 -0.991661
-0.207153 -9.89866 -0.990726
0.0312906 -10.0467 -1.00533
-1.15322 -9.80468 -1.07081
-0.893148 -9.57167 -1.04272
-0.65932 -9.5398 -1.03722
-0.427695 -9.50559 -1.03208
-0.19911 -9.5143 -1.03221
0.0298559 -9.58599 -1.03977
0.264745 -9.74728 -1.05764
-1.3657 -9.61327 -1.13491
-1.10871 -9.42627 -1.10937
-0.874428 -9.37106 -1.10008
-0.647484 -9.36856 -1.09764
-0.421402 -9.36574 -1.09581
-0.195967 -9.36405 -1.09474
0.0291662 -9.36453 -1.09456
0.256012 -9.42577 -1.10212
0.497213 -9.70398 -1.13572
-1.58978 -9.53801 -1.21176
-1.33072 -9.36703 -1.18563
-1.09928 -9.34613 -1.1793
-0.870645 -9.33052 -1.17434
-0.644687 -9.32811 -1.17175
-0.419584 -9.32537 -1.1698
-0.195148 -9.32497 -1.16883
0.0290456 -9.32545 -1.16864
0.253436 -9.33092 -1.16975
0.481844 -9.40403 -1.18002
0.731719 -9.70772 -1.21999
-2.13461 -9.85823 -1.34926
-1.83814 -9.59919 -1.30738
-1.55753 -9.34452 -1.26723
-1.32368 -9.31741 -1.25887
-1.09435 -9.30419 -1.25317
-0.866886 -9.29023 -1.24812
-0.641911 -9.28793 -1.24538
-0.417837 -9.28651 -1.24348
-0.194336 -9.28613 -1.24245
0.0289246 -9.28662 -1.24225
0.252312 -9.28955 -1.24309
0.477141 -9.31225 -1.2473
0.709023 -9.40663 -1.26187
0.993697 -9.97695 -1.34119
-2.05012 -9.46807 -1.37791
-1.79068 -9.35132 -1.35426
-1.5481 -9.28797 -1.33931
-1.31668 -9.26822 -1.33151
-1.08945 -9.26253 -1.32655
-0.863151 -9.25021 -1.32143
-0.639161 -9.24813 -1.31856
-0.416101 -9.24795 -1.31673
-0.193527 -9.24753 -1.31562
0.0288038 -9.24818 -1.31543
0.251271 -9.2512 -1.31634
0.475023 -9.27091 -1.32039
0.700914 -9.29903 -1.32641
0.951607 -9.55436 -1.3657
1.25236 -10.1046 -1.44823
1.53742 -10.3582 -1.48945
-2.31956 -9.59157 -1.48737
-2.02401 -9.34745 -1.44155
-1.77601 -9.2747 -1.42334
-1.53877 -9.23197 -1.41069
-1.30975 -9.21942 -1.40356
-1.08458 -9.22114 -1.39944
-0.859438 -9.21043 -1.39428
-0.636507 -9.20974 -1.39146
-0.414378 -9.20961 -1.38953
-0.192725 -9.20915 -1.38836
0.0286865 -9.2105 -1.38827
0.250245 -9.21348 -1.38922
0.472918 -9.22983 -1.393
0.696635 -9.24228 -1.397
0.926158 -9.29886 -1.40851
1.18242 -9.54025 -1.44896
1.44218 -9.71648 -1.48057
1.70057 -9.8249 -1.50288
2.01548 -10.1815 -1.5644
-2.28654 -9.45505 -1.54899
-2.00457 -9.25769 -1.50832
-1.76154 -9.19914 -1.49145
-1.52952 -9.17651 -1.48139
-1.30288 -9.17102 -1.47502
-1.07957 -9.17852 -1.47163
-0.855781 -9.17123 -1.46674
-0.63387 -9.17157 -1.46393
-0.412661 -9.1715 -1.46191
-0.191927 -9.17102 -1.46068
0.0285706 -9.17302 -1.46069
0.249227 -9.17596 -1.46169
0.470827 -9.18902 -1.46515
0.693178 -9.19641 -1.46856
0.918378 -9.22074 -1.47554
1.1517 -9.29242 -1.49101
1.38813 -9.35236 -1.50555
1.63437 -9.44247 -1.52594
1.90081 -9.60222 -1.55869
-2.2679 -9.37796 -1.61869
-1.99414 -9.20951 -1.58088
-1.75112 -9.1447 -1.56208
-1.52257 -9.1348 -1.55369
-1.29762 -9.13402 -1.5478
-1.07422 -9.13305 -1.54281
-0.852232 -9.13321 -1.53893
-0.631246 -9.13362 -1.536
-0.410957 -9.1336 -1.53389
-0.191133 -9.13315 -1.5326
0.0284538 -9.13575 -1.53271
0.248214 -9.13866 -1.53376
0.468673 -9.14697 -1.5366
0.689747 -9.15088 -1.5396
0.911759 -9.15429 -1.54341
1.13737 -9.17683 -1.55137
1.36928 -9.22537 -1.56469
1.6043 -9.26874 -1.57814
1.84711 -9.33092 -1.59582
2.13995 -9.59356 -1.64907
-2.25285 -9.31571 -1.68996
-1.99196 -9.19945 -1.6597
-1.74914 -9.13439 -1.6399
-1.51959 -9.11691 -1.62973
-1.29518 -9.11679 -1.62368
-1.07234 -9.11706 -1.61867
-0.851258 -9.12276 -1.61558
-0.630236 -9.119 -1.61176
-0.410105 -9.11469 -1.60879
-0.190656 -9.11033 -1.60675
0.0283771 -9.1112 -1.60656
0.247507 -9.11264 -1.6074
0.467029 -9.1149 -1.60931
0.687259 -9.1179 -1.61229
0.90843 -9.12086 -1.61621
1.13123 -9.12729 -1.6217
1.35584 -9.1348 -1.62836
1.58457 -9.15471 -1.63822
1.82362 -9.2123 -1.6559
2.08407 -9.34305 -1.68792
-2.2445 -9.28119 -1.76565
-1.98978 -9.18937 -1.73858
-1.74716 -9.12406 -1.71778
-1.51661 -9.09904 -1.70571
-1.2928 -9.10009 -1.69959
-1.07125 -9.10778 -1.69572
-0.850282 -9.11229 -1.69227
-0.62983 -9.11311 -1.68912
-0.409842 -9.10882 -1.68601
-0.190533 -9.10447 -1.68387
0.0283594 -9.10515 -1.68363
0.247347 -9.10672 -1.68454
0.466786 -9.11012 -1.68675
0.686898 -9.11311 -1.68988
0.907956 -9.11609 -1.69399
1.12964 -9.11442 -1.69824
1.35277 -9.11409 -1.70374
1.57949 -9.12541 -1.71246
1.81287 -9.15798 -1.72625
2.06962 -9.27827 -1.7578
-2.24533 -9.28462 -1.84853
-1.98755 -9.17907 -1.81748
-1.74518 -9.11373 -1.79571
-1.51441 -9.08581 -1.78252
-1.29043 -9.0834 -1.77545
-1.07016 -9.09848 -1.77286
-0.849305 -9.10182 -1.76902
-0.629147 -9.10324 -1.76584
-0.409577 -9.10293 -1.76336
-0.190411 -9.09859 -1.76113
0.0283395 -9.09909 -1.76085
0.247216 -9.10193 -1.76204
0.466539 -9.10533 -1.76436
0.686538 -9.10832 -1.76762
0.907481 -9.11134 -1.77193
1.12873 -9.10704 -1.77586
1.35088 -9.10137 -1.78057
1.59248 -9.20042 -1.80692
1.80916 -9.13922 -1.80292
2.058 -9.22617 -1.82931
2.39 -9.62014 -1.91826
-2.24964 -9.30244 -1.93474
-1.98541 -9.16919 -1.89655
-1.74324 -9.10357 -1.87376
-1.51546 -9.0921 -1.86336
-1.29167 -9.0921 -1.85646
-1.06906 -9.08918 -1.85008
-0.848327 -9.09134 -1.84584
-0.628423 -9.09278 -1.84253
-0.409178 -9.09407 -1.84027
-0.190287 -9.09271 -1.83853
0.0283234 -9.09358 -1.83832
0.247086 -9.09713 -1.8397
0.466293 -9.10053 -1.84212
0.686181 -9.10357 -1.84555
0.907007 -9.10657 -1.85004
1.12822 -9.10296 -1.85428
1.3495 -9.0921 -1.85814
1.57373 -9.0921 -1.86534
1.80545 -9.12048 -1.87952
2.04647 -9.17449 -1.90024
2.38506 -9.60025 -1.99973
-2.25405 -9.32067 -2.02162
-1.98338 -9.15983 -1.97582
-1.77026 -9.24467 -1.98437
-1.51545 -9.0921 -1.94324
-1.29167 -9.0921 -1.93604
-1.08667 -9.2389 -1.96117
-0.847647 -9.08406 -1.92342
-0.627881 -9.08492 -1.91985
-0.408804 -9.08578 -1.9174
-0.190158 -9.08666 -1.91607
0.0283121 -9.09024 -1.91641
0.247014 -9.09437 -1.91798
0.466204 -9.09875 -1.92071
0.686144 -9.1031 -1.92456
0.907065 -9.10713 -1.92946
1.12805 -9.10162 -1.93348
1.3495 -9.0921 -1.93779
1.57373 -9.0921 -1.94529
1.80174 -9.10176 -1.95606
2.04333 -9.1604 -1.97865
2.38193 -9.58766 -2.08271
-2.26621 -9.37096 -2.11637
-1.98347 -9.16023 -2.05741
-1.78991 -9.3473 -2.08916
-1.51545 -9.0921 -2.02339
-1.29166 -9.0921 -2.0159
-1.0694 -9.0921 -2.00962
-0.847634 -9.08391 -2.00272
-0.627871 -9.08477 -1.99901
-0.408817 -9.08606 -1.99655
-0.190181 -9.08764 -1.99532
0.0283154 -9.09137 -1.99571
0.24705 -9.09568 -1.99738
0.466271 -9.10008 -2.00023
0.686312 -9.10531 -2.00443
0.90735 -9.10999 -2.00968
1.13656 -9.17026 -2.02842
1.3495 -9.0921 -2.01772
1.57373 -9.0921 -2.02553
1.79983 -9.0921 -2.03459
2.04322 -9.15993 -2.06016
2.3788 -9.57506 -2.16577
-1.98618 -9.17275 -2.14214
-1.78991 -9.3473 -2.17222
-1.51545 -9.0921 -2.10384
-1.29167 -9.0921 -2.09605
-1.0694 -9.0921 -2.08952
-0.847636 -9.08394 -2.08236
-0.627919 -9.08549 -2.07865
-0.408863 -9.08705 -2.07616
-0.190201 -9.08862 -2.07487
0.0283195 -9.09234 -2.07528
0.247075 -9.09676 -2.07704
0.466315 -9.10093 -2.07995
0.686333 -9.10558 -2.08418
0.90737 -9.11021 -2.08963
1.12687 -9.0921 -2.09109
1.3495 -9.0921 -2.09795
1.57373 -9.0921 -2.10607
1.79983 -9.0921 -2.11548
2.04312 -9.15946 -2.14196
-1.51545 -9.0921 -2.18459
-1.29167 -9.0921 -2.1765
-1.0694 -9.0921 -2.16972
-0.847804 -9.08572 -2.16271
-0.628232 -9.09 -2.15951
-0.409066 -9.09161 -2.15693
-0.190299 -9.09329 -2.15562
0.0283266 -9.09463 -2.15548
0.247124 -9.09852 -2.15718
0.466356 -9.10177 -2.15999
0.686076 -9.10217 -2.16337
0.907029 -9.10679 -2.16903
1.12687 -9.0921 -2.17135
1.3495 -9.0921 -2.17847
1.57373 -9.0921 -2.18691
1.79983 -9.0921 -2.19668
2.04301 -9.15899 -2.22407
-1.51546 -9.0921 -2.26567
-1.29167 -9.0921 -2.25728
-1.0694 -9.0921 -2.25024
-0.847781 -9.08549 -2.24291
-0.628249 -9.0902 -2.2397
-0.409216 -9.09489 -2.23779
-0.190412 -9.09868 -2.23694
0.0283424 -9.10001 -2.23679
0.247199 -9.10132 -2.23793
0.466442 -9.10344 -2.24056
0.686144 -9.10311 -2.24389
0.906687 -9.10335 -2.24867
1.3495 -9.0921 -2.25932
1.57373 -9.0921 -2.26807
1.79983 -9.0921 -2.2782
-1.51545 -9.0921 -2.34707
-1.29167 -9.0921 -2.33838
1.3495 -9.0921 -2.3405
1.57373 -9.0921 -2.34956
-1.51545 -9.0921 -2.42882
-1.29167 -9.0921 -2.41983
1.3495 -9.0921 -2.42202
1.57373 -9.0921 -2.43139
-0.889825 -10.066 -1.01118
-0.639824 -9.95288 -0.997991
-0.397907 -9.88692 -0.990135
-0.161239 -9.92075 -0.992852
0.0783466 -10.1463 -1.01532
-1.09656 -9.73718 -1.06284
-0.845575 -9.5654 -1.04157
-0.612841 -9.53315 -1.03616
-0.382279 -9.49857 -1.03111
-0.154862 -9.52834 -1.03364
0.0741258 -9.59958 -1.04127
0.311741 -9.8326 -1.06705
-1.61057 -9.97441 -1.18094
-1.3104 -9.56754 -1.12873
-1.05933 -9.40664 -1.10643
-0.828352 -9.37058 -1.09954
-0.602226 -9.36802 -1.09722
-0.376909 -9.36514 -1.09551
-0.152194 -9.36417 -1.09466
0.0723112 -9.36459 -1.0946
0.300249 -9.47013 -1.10746
0.545409 -9.78754 -1.14577
-1.52827 -9.46468 -1.20144
-1.28255 -9.36421 -1.18444
-1.05199 -9.34143 -1.17803
-0.824768 -9.33006 -1.17377
-0.599627 -9.32759 -1.17131
-0.375301 -9.32521 -1.16955
-0.151557 -9.32509 -1.16874
0.07201 -9.32551 -1.16867
0.295975 -9.33527 -1.17045
0.526706 -9.45184 -1.18631
0.785955 -9.84794 -1.23803
-2.06837 -9.79859 -1.33961
-1.77023 -9.50875 -1.29381
-1.50794 -9.33875 -1.26539
-1.27633 -9.31879 -1.25818
-1.04727 -9.29955 -1.25183
-0.821211 -9.28979 -1.24751
-0.597045 -9.28742 -1.24491
-0.37374 -9.28642 -1.24322
-0.150927 -9.28625 -1.24236
0.0717097 -9.2867 -1.24229
0.29466 -9.29385 -1.24383
0.519226 -9.31764 -1.24832
0.757084 -9.4862 -1.27298
-2.26627 -9.59216 -1.40192
-1.99329 -9.44291 -1.37272
-1.73739 -9.33232 -1.3502
-1.499 -9.28343 -1.33754
-1.26954 -9.26924 -1.33073
-1.04259 -9.25795 -1.32514
-0.817673 -9.24979 -1.32079
-0.594517 -9.24812 -1.31813
-0.372188 -9.24787 -1.31645
-0.150298 -9.24765 -1.31553
0.0714176 -9.24879 -1.31555
0.293357 -9.25271 -1.31673
0.516853 -9.27506 -1.3213
0.743186 -9.31204 -1.32872
1.00223 -9.63819 -1.37829
1.31427 -10.2451 -1.46916
8.64335 -0.664722 -1.23303
-2.22858 -9.43264 -1.46088
-1.96878 -9.32679 -1.43677
-1.7232 -9.25609 -1.4191
-1.49015 -9.22863 -1.40901
-1.26281 -9.2201 -1.40268
-1.03794 -9.21663 -1.39797
-0.814161 -9.21004 -1.3936
-0.592052 -9.20974 -1.39101
-0.370647 -9.20954 -1.38924
-0.149677 -9.20928 -1.38826
0.0711261 -9.2111 -1.38839
0.292128 -9.214 -1.38948
0.514562 -9.23394 -1.39395
0.737673 -9.24298 -1.39759
0.968333 -9.31216 -1.41115
1.22928 -9.58257 -1.45618
1.48678 -9.73466 -1.48428
1.74896 -9.86122 -1.50954
8.40081 -0.646069 -1.26996
-2.21379 -9.37008 -1.53314
-1.95163 -9.24554 -1.50467
-1.70992 -9.18477 -1.48768
-1.48137 -9.17424 -1.4798
-1.25614 -9.17136 -1.47405
-1.03331 -9.17557 -1.47032
-0.810738 -9.17133 -1.46611
-0.5896 -9.17159 -1.46347
-0.369112 -9.17144 -1.46161
-0.149057 -9.17113 -1.46057
0.0708366 -9.17362 -1.46082
0.290939 -9.17647 -1.46196
0.512285 -9.19308 -1.46615
0.734012 -9.1971 -1.46917
0.960016 -9.2322 -1.47803
1.19376 -9.30568 -1.49395
1.42978 -9.36147 -1.50797
1.67971 -9.47077 -1.53163
1.94688 -9.62874 -1.56427
8.26044 -0.635274 -1.31925
-2.19917 -9.30818 -1.60462
-1.94104 -9.19539 -1.5767
-1.70185 -9.14141 -1.56
-1.47471 -9.13301 -1.55209
-1.25112 -9.13471 -1.54684
-1.02846 -9.13253 -1.54185
-0.807379 -9.13333 -1.53827
-0.587158 -9.13365 -1.53551
-0.367588 -9.13355 -1.53357
-0.148439 -9.1332 -1.53248
0.0705488 -9.13634 -1.53285
0.289756 -9.13916 -1.53404
0.509758 -9.14774 -1.53709
0.730376 -9.15154 -1.54023
0.95273 -9.16212 -1.54541
1.17884 -9.18937 -1.55433
1.40984 -9.23092 -1.56663
1.6458 -9.27959 -1.58113
1.88879 -9.34143 -1.59892
2.20123 -9.68537 -1.66635
8.12441 -0.624812 -1.36706
-2.18919 -9.26593 -1.67881
-1.93893 -9.18537 -1.65532
-1.69923 -9.12736 -1.63705
-1.47183 -9.11515 -1.62806
-1.24883 -9.11801 -1.62276
-1.02717 -9.12102 -1.61845
-0.806412 -9.12239 -1.6148
-0.586161 -9.11814 -1.61109
-0.366794 -9.11384 -1.60832
-0.148062 -9.10999 -1.60655
0.0703568 -9.11148 -1.60665
0.288923 -9.11291 -1.60766
0.507958 -9.11546 -1.60979
0.727733 -9.11845 -1.61294
0.948494 -9.12139 -1.61702
1.17115 -9.1294 -1.62295
1.39555 -9.13732 -1.62984
1.62495 -9.16203 -1.64073
1.86473 -9.22244 -1.65907
2.12969 -9.37058 -1.69442
7.98018 -0.61372 -1.41128
-2.18731 -9.25797 -1.75901
-1.9368 -9.17529 -1.73398
-1.69684 -9.1145 -1.71431
-1.46895 -9.0973 -1.70396
-1.24654 -9.10132 -1.69863
-1.02605 -9.11108 -1.69537
-0.805546 -9.11259 -1.69157
-0.585784 -9.11226 -1.68842
-0.366558 -9.10797 -1.68551
-0.147963 -9.10393 -1.68362
0.0703101 -9.10543 -1.68373
0.28875 -9.10739 -1.68489
0.507693 -9.11068 -1.68726
0.727352 -9.11365 -1.69056
0.948 -9.11664 -1.69484
1.1695 -9.11652 -1.69954
1.39172 -9.11227 -1.70448
1.61932 -9.13028 -1.71462
1.85373 -9.16805 -1.72956
2.11445 -9.30354 -1.76418
8.21683 -0.830471 -1.52711
7.84059 -0.602985 -1.45408
-2.18688 -9.25617 -1.84055
-1.93459 -9.1648 -1.81264
-1.69444 -9.10164 -1.79159
-1.48432 -9.19251 -1.80196
-1.24426 -9.08463 -1.77445
-1.02487 -9.10059 -1.77226
-0.80462 -9.10212 -1.76829
-0.585222 -9.10351 -1.76533
-0.36632 -9.10208 -1.76284
-0.147865 -9.09787 -1.76083
0.0702633 -9.09937 -1.76094
0.288597 -9.1026 -1.7624
0.507428 -9.10589 -1.76489
0.726969 -9.10888 -1.76834
0.947505 -9.11188 -1.77282
1.1681 -9.10562 -1.77654
1.40187 -9.1787 -1.79684
1.61426 -9.10171 -1.78883
1.85009 -9.15003 -1.80653
2.10254 -9.25111 -1.83591
8.11468 -0.820147 -1.57834
7.77168 -0.597685 -1.5084
-2.1905 -9.2715 -1.92587
-1.93249 -9.15486 -1.89148
-1.69444 -9.10162 -1.87155
-1.46811 -9.0921 -1.86181
-1.24528 -9.0921 -1.85517
-1.02369 -9.0901 -1.84922
-0.803695 -9.09164 -1.84508
-0.584547 -9.09305 -1.84199
-0.366008 -9.09431 -1.83994
-0.147766 -9.09186 -1.8382
0.0702239 -9.09426 -1.8385
0.288446 -9.0978 -1.84008
0.507158 -9.10108 -1.84268
0.726592 -9.10412 -1.84629
0.94701 -9.10711 -1.85097
1.16763 -9.10198 -1.85508
