ply
format ascii 1.0
comment Created by Open3D
element vertex 1825
property double x
property double y
property double z
end_header
7.7129 -0.604377 -1.63102
7.63784 -0.414039 -1.61257
7.60576 -0.229097 -1.60417
7.5925 -0.046076 -1.60068
7.59761 0.136582 -1.60198
7.61701 0.320246 -1.60723
7.67093 0.507499 -1.62072
7.78694 0.703555 -1.64833
2.17961 9.29125 -2.01195
1.9178 9.16038 -1.97306
1.67899 9.1061 -1.9521
1.45133 9.0921 -1.94106
1.22981 9.10579 -1.93711
1.00813 9.11096 -1.93249
0.786798 9.10934 -1.92758
0.566366 9.10635 -1.92351
0.346737 9.10321 -1.92053
0.127655 9.09968 -1.91858
-0.0911269 9.09787 -1.91811
-0.31008 9.10058 -1.91969
-0.529519 9.10311 -1.92236
-0.749361 9.10172 -1.92531
-0.970004 9.10018 -1.92937
-1.1902 9.08718 -1.93212
-1.41429 9.09432 -1.94031
-1.63936 9.0956 -1.94843
-1.87695 9.14813 -1.96878
-2.12592 9.22871 -1.99655
8.04812 -0.825746 -1.77596
7.69043 -0.602617 -1.69335
7.61728 -0.412925 -1.67457
7.58802 -0.228562 -1.66645
7.57739 -0.0459843 -1.66339
7.58248 0.13631 -1.66474
7.59896 0.319488 -1.66957
7.64873 0.50603 -1.68269
7.75095 0.700303 -1.70839
2.16957 9.24847 -2.0853
1.91401 9.14225 -2.05038
1.67641 9.0921 -2.0295
1.45133 9.0921 -2.02113
1.23661 9.15613 -2.02816
1.0076 9.1061 -2.01113
0.786384 9.10455 -2.00603
0.566068 9.10154 -2.00179
0.346553 9.09838 -1.99869
0.127587 9.09486 -1.99666
-0.091064 9.09177 -1.99589
-0.309852 9.09385 -1.9974
-0.528908 9.0926 -1.99934
-0.748495 9.0912 -2.00242
-0.96888 9.08964 -2.00662
-1.19084 9.0921 -2.0129
-1.41395 9.0921 -2.01985
-1.68473 9.3473 -2.08494
-1.87492 9.13819 -2.04776
-2.12648 9.23116 -2.07945
8.00533 -0.821356 -1.83676
7.66801 -0.60086 -1.75554
7.59916 -0.411943 -1.73701
7.57247 -0.228094 -1.72915
7.56229 -0.0458927 -1.72607
7.56736 0.136038 -1.72748
7.58094 0.31873 -1.73183
7.62657 0.504564 -1.74452
7.71517 0.69707 -1.76811
2.16855 9.24412 -2.16719
1.91021 9.12413 -2.12767
1.67641 9.0921 -2.11019
1.45133 9.0921 -2.10148
1.22796 9.0921 -2.09405
1.00761 9.10626 -2.09113
0.786437 9.10517 -2.08593
0.566044 9.10116 -2.08129
0.346476 9.09636 -2.07769
0.12755 9.09221 -2.07544
-0.0910271 9.08807 -2.0744
-0.309588 9.08615 -2.07506
-0.528482 9.0853 -2.07716
-0.747938 9.08444 -2.08048
-0.968232 9.08358 -2.08501
-1.19084 9.0921 -2.09293
-1.41395 9.0921 -2.10015
-1.63873 9.0921 -2.10865
-1.87297 9.12871 -2.12697
-2.12496 9.22456 -2.16059
7.96656 -0.817378 -1.89802
7.65668 -0.599972 -1.82023
7.58825 -0.411351 -1.80109
7.56174 -0.227771 -1.79298
7.55087 -0.0458233 -1.78962
7.55624 0.135838 -1.79115
7.56885 0.318222 -1.79544
7.61498 0.503797 -1.80873
7.70792 0.696415 -1.83425
2.16759 9.24002 -2.24937
1.90868 9.11683 -2.20757
1.67641 9.0921 -2.19119
1.45133 9.0921 -2.18215
1.22796 9.0921 -2.17443
1.00788 9.10863 -2.17196
0.786667 9.10783 -2.16663
0.566132 9.10257 -2.16152
0.346527 9.09768 -2.15775
0.127567 9.09345 -2.1554
-0.0910385 9.08905 -2.15425
-0.309613 9.08686 -2.15487
-0.528482 9.08529 -2.15689
-0.747926 9.08429 -2.1603
-0.968218 9.08343 -2.16501
-1.19085 9.0921 -2.17327
-1.41395 9.0921 -2.18077
-1.63873 9.0921 -2.18959
-1.87238 9.12581 -2.20791
-2.13271 9.25822 -2.2517
7.94001 -0.814654 -1.9619
7.66058 -0.600277 -1.88874
7.58994 -0.411442 -1.86834
7.56239 -0.22779 -1.85968
7.55877 -0.0458713 -1.85798
7.55689 0.13585 -1.85778
7.56986 0.318264 -1.86231
7.6176 0.50397 -1.8765
7.74626 0.69988 -1.91179
2.16715 9.23815 -2.33238
1.90838 9.11537 -2.28913
1.67641 9.0921 -2.27251
1.45133 9.0921 -2.26313
1.22796 9.0921 -2.25513
1.00794 9.10917 -2.2527
0.786624 9.10734 -2.24692
0.56614 9.10271 -2.24177
0.346576 9.09897 -2.23815
0.127582 9.09446 -2.23564
-0.0910484 9.09003 -2.23444
-0.309646 9.08785 -2.23509
-0.528541 9.08629 -2.23718
-0.747965 9.08474 -2.24058
-0.968202 9.08327 -2.24531
-1.19084 9.0921 -2.25392
-1.41395 9.0921 -2.2617
-1.63873 9.0921 -2.27085
-1.87428 9.13508 -2.29217
-2.13624 9.2735 -2.33912
7.93783 -0.814431 -2.03183
7.67383 -0.601316 -1.95999
7.59306 -0.411612 -1.93627
7.5635 -0.227824 -1.92678
7.56874 -0.0459318 -1.92727
7.56613 0.136016 -1.92688
7.57086 0.318306 -1.92948
7.62024 0.504145 -1.94459
7.75847 0.700982 -1.9836
2.16671 9.23627 -2.41569
1.90795 9.11333 -2.37085
1.67641 9.0921 -2.35416
1.45133 9.0921 -2.34444
1.22796 9.0921 -2.33615
1.00779 9.10781 -2.33329
0.786327 9.1039 -2.32677
0.566083 9.10179 -2.32208
0.346642 9.10075 -2.31902
0.127605 9.09624 -2.31641
-0.0910936 9.09449 -2.31586
-0.30982 9.0929 -2.31668
-0.52883 9.09128 -2.31884
-0.74822 9.08784 -2.32188
-0.968186 9.08311 -2.32595
-1.19084 9.0921 -2.33491
-1.41395 9.0921 -2.34296
-1.63873 9.0921 -2.35244
-1.87588 9.14287 -2.37656
7.96813 -0.817539 -2.11063
7.69546 -0.603011 -2.03397
7.60267 -0.412133 -2.00625
7.5758 -0.228194 -1.99713
7.58114 -0.0460071 -1.99767
7.57861 0.13624 -1.99729
7.57884 0.318642 -1.99879
7.63674 0.505236 -2.01668
7.80222 0.704936 -2.06426
1.67641 9.0921 -2.43615
1.45133 9.0921 -2.4261
1.22796 9.0921 -2.41752
1.0074 9.10429 -2.41362
0.786263 9.10316 -2.40762
0.566187 9.10347 -2.4034
0.346712 9.10255 -2.40026
0.127676 9.10119 -2.3984
-0.091148 9.09993 -2.39795
-0.309959 9.097 -2.39845
-0.52889 9.0923 -2.39987
-0.748201 9.0876 -2.40269
-0.96816 9.08288 -2.4069
-1.19084 9.0921 -2.41623
-1.41395 9.0921 -2.42457
-1.63873 9.0921 -2.43437
8.0154 -0.822389 -2.19492
7.71859 -0.604823 -2.10905
7.6226 -0.413213 -2.07951
7.59179 -0.228676 -2.069
7.58956 -0.0460581 -2.0675
7.59312 0.136501 -2.06876
7.59669 0.319392 -2.07123
7.66009 0.506781 -2.09123
7.83647 0.70803 -2.14341
1.67641 9.0921 -2.51851
1.45133 9.0921 -2.50812
1.22796 9.0921 -2.49925
-1.19084 9.0921 -2.49792
-1.41395 9.0921 -2.50653
-1.63873 9.0921 -2.51667
8.33444 -0.855124 -2.35726
7.74187 -0.606647 -2.1849
7.64442 -0.414396 -2.15396
7.6053 -0.229083 -2.14077
7.59804 -0.0461096 -2.1378
7.60161 0.136654 -2.13911
7.61574 0.320193 -2.14463
7.68345 0.508327 -2.16651
8.33217 0.752817 -2.35386
1.45133 9.0921 -2.59051
-1.19084 9.0921 -2.57997
-1.41395 9.0921 -2.58887
8.47389 0.765621 -2.47039
-9.81784 10.1857 -1.17849
-9.95358 9.84089 -1.16599
-10.2137 9.62289 -1.16897
-10.6193 9.5329 -1.18877
-9.52502 10.3705 -1.29091
-9.5453 9.90299 -1.26096
-9.68395 9.57431 -1.24845
-9.93688 9.36209 -1.25163
-10.4119 9.34671 -1.28273
-10.9184 9.33657 -1.31704
-9.30473 10.6337 -1.4139
-9.24277 10.0632 -1.36726
-9.3305 9.68014 -1.34536
-9.50568 9.39807 -1.33759
-9.8778 9.30643 -1.35801
-10.347 9.28849 -1.39136
-10.8462 9.27485 -1.42804
-11.3956 9.27901 -1.47051
-10.8901 0.623971 -1.09151
-10.1472 0.336524 -1.01594
-10.0274 0.0909477 -1.00343
-10.0485 -0.150869 -1.00561
-10.1937 -0.39873 -1.02081
-0.874365 -10.0529 -1.00974
-0.624364 -9.94877 -0.997482
-0.381581 -9.88234 -0.989613
-0.144093 -9.92897 -0.993647
0.0975129 -10.1888 -1.01958
10.0793 0.0416166 -1.0086
-9.06542 10.3602 -1.4932
-9.08588 9.89241 -1.4569
-9.19966 9.5444 -1.43787
-9.41117 9.30462 -1.43548
-9.8208 9.25272 -1.46354
-10.2836 9.23153 -1.49893
-10.7749 9.21383 -1.53775
-11.3016 9.20248 -1.58083
-11.9546 9.26454 -1.64048
-9.87755 0.565952 -1.07314
-9.75548 0.323533 -1.05873
-9.71242 0.0880909 -1.05352
-9.72156 -0.14596 -1.05458
-9.77472 -0.382342 -1.06104
-1.08233 -9.72473 -1.06132
-0.831805 -9.56356 -1.04124
-0.59815 -9.53102 -1.03583
-0.366671 -9.49613 -1.03078
-0.138352 -9.53355 -1.03418
0.0919311 -9.60502 -1.04187
0.332276 -9.86968 -1.07114
9.46218 -0.416945 -1.02733
9.29996 -0.185591 -1.00894
9.24744 0.0381825 -1.00305
9.33653 0.263466 -1.01311
9.52396 0.498499 -1.03445
0.035997 9.92265 -1.1598
-0.200905 9.82062 -1.14811
-0.437599 9.81898 -1.14881
-0.678664 9.87482 -1.15692
-0.924342 9.9426 -1.16713
-8.84285 10.6109 -1.61446
-8.83405 10.0958 -1.568
-8.94514 9.73918 -1.54563
-9.07126 9.41119 -1.52781
-9.35438 9.24847 -1.53753
-9.76435 9.19954 -1.56804
-10.2208 9.17518 -1.60538
-10.7072 9.15594 -1.64667
-11.2203 9.13621 -1.69123
-11.8193 9.15961 -1.74776
-9.6462 0.552697 -1.12933
-9.56397 0.317182 -1.11848
-9.5273 0.0864121 -1.11363
-9.53597 -0.143174 -1.11472
-9.58243 -0.37482 -1.12088
-9.67717 -0.6122 -1.13336
-1.59537 -9.94868 -1.17769
-1.2973 -9.55669 -1.12726
-1.04635 -9.40146 -1.10566
-0.81501 -9.37044 -1.09938
-0.587907 -9.36785 -1.0971
-0.361604 -9.36493 -1.09542
-0.135896 -9.36421 -1.09464
0.0896302 -9.36461 -1.09462
0.319541 -9.49145 -1.11002
0.56798 -9.82663 -1.15049
9.01696 -0.397327 -1.05495
8.95371 -0.178681 -1.04675
8.9325 0.0368822 -1.04407
8.9662 0.253016 -1.04842
9.0435 0.473351 -1.05848
0.268798 9.69787 -1.21577
0.0346576 9.55317 -1.19717
-0.194058 9.48594 -1.18899
-0.422259 9.47489 -1.18854
-0.653075 9.5025 -1.19363
-0.886055 9.53077 -1.19951
-1.14034 9.72014 -1.22644
-1.45295 10.2461 -1.29685
-8.32641 10.4951 -1.67885
-8.35223 10.0222 -1.63491
-8.57104 9.79521 -1.63108
-8.75082 9.52761 -1.62115
-8.94954 9.28491 -1.61606
-9.29145 9.18626 -1.63737
-9.70843 9.14686 -1.67154
-10.1588 9.1195 -1.71077
-10.6653 9.12014 -1.75857
-11.1882 9.11014 -1.80808
-11.7886 9.13583 -1.86899
-9.46459 0.542291 -1.18801
-9.38044 0.311095 -1.17617
-9.34835 0.0847889 -1.17155
-9.35639 -0.140478 -1.17264
-9.39774 -0.367598 -1.17859
-9.48654 -0.60014 -1.19119
-1.51585 -9.45283 -1.19973
-1.27102 -9.36308 -1.18411
-1.03953 -9.34019 -1.1777
-0.811483 -9.32992 -1.1736
-0.58537 -9.32742 -1.17118
-0.360067 -9.32518 -1.16947
-0.135329 -9.32513 -1.16871
0.0892572 -9.32553 -1.16869
0.314347 -9.33715 -1.17076
0.547603 -9.47408 -1.18924
0.81336 -9.91892 -1.24717
8.90339 -0.607424 -1.11833
8.78776 -0.387228 -1.10232
8.73151 -0.174247 -1.09442
8.70872 0.0359582 -1.09135
8.74335 0.246728 -1.09612
8.81316 0.461294 -1.10594
0.500911 9.66286 -1.29431
0.260884 9.41233 -1.25954
0.0339611 9.36167 -1.25229
-0.191507 9.36118 -1.25248
-0.417258 9.36263 -1.25365
-0.643648 9.36533 -1.25572
-0.870891 9.36767 -1.25849
-1.10365 9.40737 -1.26702
-1.35562 9.55975 -1.29157
-1.6564 9.95065 -1.34938
-7.97303 10.5624 -1.77025
-7.96387 10.0382 -1.71403
-8.1161 9.73888 -1.69582
-8.30047 9.48599 -1.68611
-8.54123 9.29942 -1.68902
-8.84819 9.17977 -1.70551
-9.22925 9.12476 -1.73609
-9.67124 9.11181 -1.77743
-10.1426 9.10497 -1.82322
-10.6524 9.10905 -1.87487
-11.1638 9.09025 -1.92579
-11.7579 9.11205 -1.98983
-9.29869 0.532786 -1.2459
-9.24046 0.306453 -1.23675
-9.21352 0.083566 -1.23251
-9.22006 -0.138431 -1.23348
-9.25229 -0.361906 -1.2386
-9.31388 -0.589217 -1.24838
-2.05757 -9.78926 -1.33809
-1.75737 -9.49098 -1.29116
-1.4973 -9.33714 -1.26496
-1.26507 -9.31924 -1.25804
-1.03487 -9.29833 -1.25149
-0.807982 -9.28967 -1.24734
-0.58285 -9.28726 -1.24477
-0.358572 -9.28639 -1.24314
-0.134765 -9.28629 -1.24233
0.0888895 -9.28695 -1.24234
0.312952 -9.29571 -1.24416
0.538869 -9.32297 -1.24919
0.78114 -9.526 -1.27854
8.66253 -0.590992 -1.16145
8.57933 -0.378043 -1.14874
8.53899 -0.170405 -1.14246
8.52143 0.0351849 -1.13989
8.54809 0.241218 -1.14391
8.59951 0.450112 -1.1519
9.25057 0.707901 -1.24104
0.73476 9.66521 -1.37871
0.486746 9.3896 -1.33734
0.25856 9.3285 -1.32736
0.0338216 9.32276 -1.32604
-0.190711 9.32227 -1.32624
-0.415471 9.32253 -1.32732
-0.640879 9.32507 -1.32949
-0.867139 9.32731 -1.3324
-1.09601 9.34221 -1.33791
-1.32762 9.36222 -1.34497
-1.57895 9.4854 -1.36773
-1.92271 10.05 -1.45539
-7.76789 10.2907 -1.8339
-7.83296 9.87316 -1.7926
-7.9495 9.53896 -1.76618
-8.14779 9.3115 -1.75989
-8.4298 9.17809 -1.77254
-8.79697 9.12662 -1.80299
-9.21873 9.11437 -1.84391
-9.66401 9.10501 -1.88856
-10.1327 9.09612 -1.93677
-10.6341 9.09339 -1.99016
-11.1661 9.0921 -2.04814
-11.756 9.1106 -2.11548
-9.18266 0.526138 -1.30825
-9.12828 0.302733 -1.29909
-9.10034 0.0825394 -1.29445
-9.1067 -0.136729 -1.29545
-9.13751 -0.357417 -1.30068
-9.19476 -0.581681 -1.31044
-2.25758 -9.58772 -1.40102
-1.98389 -9.43874 -1.37187
-1.72733 -9.32873 -1.34944
-1.48843 -9.28185 -1.33708
-1.25834 -9.26969 -1.33058
-1.03025 -9.25675 -1.32478
-0.804503 -9.24967 -1.32061
-0.580393 -9.24811 -1.31801
-0.357081 -9.24784 -1.31636
-0.134205 -9.24769 -1.3155
0.088525 -9.24903 -1.31561
0.311565 -9.25454 -1.31708
0.53621 -9.27698 -1.32173
0.764123 -9.31848 -1.32988
1.03142 -9.70313 -1.38791
1.34104 -10.2589 -1.4716
8.48106 -0.578611 -1.20912
8.41777 -0.370924 -1.19847
8.38112 -0.167255 -1.19234
8.36363 0.0345333 -1.18962
8.39003 0.236757 -1.19384
8.4351 0.441507 -1.20142
8.62794 0.660255 -1.2308
0.993036 9.90145 -1.49989
0.713979 9.39185 -1.41968
0.482608 9.30976 -1.4051
0.257418 9.2873 -1.40037
0.0336797 9.28408 -1.39936
-0.189919 9.28358 -1.39957
-0.41375 9.28389 -1.40071
-0.638132 9.28506 -1.4028
-0.863411 9.2872 -1.40586
-1.09111 9.30047 -1.41143
-1.32063 9.31294 -1.41774
-1.55451 9.33855 -1.42693
-1.82532 9.5409 -1.46414
-2.10865 9.74424 -1.5027
-7.63363 10.1128 -1.90977
-7.70217 9.7083 -1.86787
-7.85117 9.42097 -1.84844
-8.07198 9.22486 -1.84757
-8.38484 9.12914 -1.86831
-8.7811 9.11016 -1.90716
-9.21213 9.10784 -1.95256
-9.65684 9.09825 -1.99979
-10.123 9.08737 -2.0504
-10.6241 9.08487 -2.10696
-11.1661 9.0921 -2.17039
-11.7321 9.0921 -2.2372
-9.23765 0.752842 -1.39697
-9.06431 0.519357 -1.36847
-9.01853 0.299093 -1.36007
-8.99037 0.0815421 -1.35514
-8.9974 -0.135088 -1.35629
-9.02535 -0.35303 -1.36139
-9.07597 -0.574166 -1.37072
-2.21866 -9.42245 -1.45905
-1.95965 -9.32337 -1.43598
-1.71322 -9.25257 -1.41831
-1.47965 -9.22708 -1.40853
-1.25167 -9.22056 -1.40252
-1.02565 -9.21544 -1.39758
-0.801046 -9.20992 -1.39341
-0.577986 -9.20974 -1.39088
-0.355601 -9.20951 -1.38915
-0.133648 -9.20932 -1.38823
0.0881642 -9.21133 -1.38845
0.310208 -9.21422 -1.38961
0.533832 -9.23584 -1.3944
0.758073 -9.24473 -1.3981
0.994392 -9.35476 -1.41795
1.25575 -9.60643 -1.46025
1.51263 -9.74029 -1.48571
1.78006 -9.88613 -1.51406
8.34305 -0.569196 -1.26044
8.28446 -0.36505 -1.24989
8.24841 -0.164606 -1.2435
8.23471 0.034001 -1.24119
8.25616 0.23298 -1.24491
8.30298 0.434591 -1.25319
8.39464 0.642401 -1.26899
1.50938 10.1155 -1.62858
1.23933 9.94007 -1.59508
0.955272 9.52491 -1.52432
0.706635 9.29524 -1.48441
0.480474 9.26859 -1.47788
0.256352 9.24885 -1.47332
0.0335411 9.24589 -1.47229
-0.189133 9.24512 -1.47247
-0.412037 9.24547 -1.47368
-0.635416 9.24555 -1.4757
-0.859705 9.24734 -1.47886
-1.08624 9.25899 -1.48448
-1.31369 9.26404 -1.48993
-1.54517 9.28245 -1.49844
-1.78721 9.34171 -1.51452
-2.04242 9.43819 -1.53769
-7.60708 10.0777 -2.01059
-7.63622 9.62518 -1.95644
-7.79775 9.35686 -1.93952
-8.03859 9.18671 -1.94382
-8.37708 9.1207 -1.97198
-8.80873 9.13882 -2.02119
-9.20866 9.10441 -2.06203
-9.6554 9.0969 -2.11239
-10.1243 9.08853 -2.16645
-10.6248 9.08545 -2.22607
-11.1661 9.0921 -2.29294
-11.7321 9.0921 -2.36352
-9.05375 0.737855 -1.44647
-8.93222 0.511788 -1.42467
-8.8775 0.294416 -1.4144
-8.85013 0.0802701 -1.40932
-8.85115 -0.132892 -1.40958
-8.88643 -0.347595 -1.41613
-8.94798 -0.56607 -1.42769
-9.26547 -0.810566 -1.48104
-2.20397 -9.36004 -1.53122
-1.94286 -9.24352 -1.50407
-1.70059 -9.18435 -1.48734
-1.47095 -9.17282 -1.47931
-1.24506 -9.17182 -1.47388
-1.02108 -9.1744 -1.46992
-0.797694 -9.17136 -1.46593
-0.575591 -9.17159 -1.46333
-0.354129 -9.17141 -1.46151
-0.133094 -9.17118 -1.46054
0.0878054 -9.17385 -1.46088
0.308944 -9.17669 -1.46209
0.531387 -9.19354 -1.46639
0.754197 -9.19743 -1.46948
0.982035 -9.2385 -1.47939
1.2174 -9.31306 -1.4956
1.45464 -9.36686 -1.50942
1.7085 -9.48869 -1.53524
1.97785 -9.64651 -1.56803
8.21727 -0.560614 -1.31153
8.16094 -0.359607 -1.30078
8.12766 -0.162197 -1.29448
8.11257 0.0334967 -1.29183
8.13534 0.22957 -1.29596
8.18006 0.428157 -1.30435
8.25447 0.631675 -1.31826
1.97813 9.94796 -1.70164
1.69504 9.7457 -1.65958
1.43689 9.62968 -1.63345
1.1849 9.50353 -1.60675
0.93211 9.29395 -1.56707
0.702365 9.23908 -1.55451
0.478353 9.22767 -1.5502
0.25531 9.21125 -1.54596
0.0334047 9.20833 -1.54489
-0.18835 9.20688 -1.54496
-0.410335 9.20726 -1.54623
-0.632787 9.20729 -1.54835
-0.856021 9.20772 -1.55144
-1.08141 9.21778 -1.55707
-1.30681 9.21553 -1.56155
-1.53592 9.22687 -1.56929
-1.77273 9.26602 -1.58275
-2.0199 9.33409 -1.60222
-2.31003 9.55558 -1.64931
-7.58422 10.0474 -2.11197
-7.6203 9.60511 -2.05699
-7.76575 9.31847 -2.03507
-8.014 9.15861 -2.04173
-8.35082 9.0921 -2.07114
-8.76369 9.0921 -2.11861
-9.21226 9.10797 -2.17338
-9.65725 9.09864 -2.22602
-10.1283 9.09213 -2.28345
-10.6304 9.09029 -2.34661
-11.1661 9.0921 -2.41581
-8.87387 0.723194 -1.4937
-8.75538 0.501656 -1.4713
-8.71445 0.289008 -1.46282
-8.71108 0.0790089 -1.46152
-8.71205 -0.130804 -1.46178
-8.71504 -0.340892 -1.46324
-8.77004 -0.554813 -1.47429
-8.95325 -0.783252 -1.50782
-2.18942 -9.29828 -1.60263
-1.93226 -9.19306 -1.57602
-1.69258 -9.14107 -1.55966
-1.46451 -9.13269 -1.55176
-1.24004 -9.13484 -1.54661
-1.01642 -9.13248 -1.54161
-0.794387 -9.13336 -1.53809
-0.573211 -9.13366 -1.53537
-0.352669 -9.13352 -1.53347
-0.132545 -9.13336 -1.53246
0.0874486 -9.13657 -1.53291
0.307689 -9.13937 -1.53418
0.52876 -9.14809 -1.53733
0.750461 -9.15186 -1.54056
0.974546 -9.16806 -1.54679
1.20215 -9.19641 -1.556
1.43405 -9.23433 -1.56781
1.67208 -9.2864 -1.58303
1.91674 -9.34846 -1.60102
2.26847 -9.85191 -1.6961
8.48608 -0.784648 -1.42978
8.06778 -0.550416 -1.35668
7.995 -0.352295 -1.34262
7.94882 -0.158628 -1.33384
7.93492 0.0327635 -1.33125
7.95873 0.224586 -1.33576
8.01944 0.41975 -1.34726
8.12123 0.621478 -1.36648
1.89908 9.55045 -1.71697
1.63547 9.4032 -1.68293
1.39248 9.33209 -1.66372
1.15752 9.28389 -1.64967
0.924407 9.21717 -1.63339
0.698895 9.19343 -1.62573
0.476243 9.187 -1.62209
0.254273 9.17385 -1.61822
0.0332692 9.17096 -1.6171
-0.187573 9.16885 -1.61705
-0.408642 9.16927 -1.61839
-0.630172 9.16924 -1.6206
-0.8524 9.16877 -1.62367
-1.07641 9.17517 -1.62893
-1.29999 9.16739 -1.63263
-1.52675 9.1718 -1.63949
-1.75845 9.19135 -1.65007
-2.00129 9.24811 -1.66844
-2.28104 9.43564 -1.71168
-7.57856 10.0399 -2.21803
-7.61532 9.59883 -2.16049
-7.754 9.30436 -2.13564
-8.00262 9.14561 -2.14282
-8.35081 9.0921 -2.17678
-8.76369 9.0921 -2.22667
-9.2101 9.10583 -2.2837
-9.65984 9.10108 -2.34019
-10.137 9.09994 -2.40198
-11.1661 9.0921 -2.53903
-8.63145 0.703438 -1.527
-8.48845 0.486362 -1.4992
-8.43187 0.279637 -1.48758
-8.38822 0.0760806 -1.47913
-8.39736 -0.126079 -1.48085
-8.44646 -0.330386 -1.49048
-8.50577 -0.538094 -1.50279
-8.7376 -0.764386 -1.54656
-2.18103 -9.26261 -1.67791
-1.93015 -9.18304 -1.6546
-1.68988 -9.12653 -1.63661
-1.46164 -9.11477 -1.62771
-1.23778 -9.11819 -1.62253
-1.01521 -9.12165 -1.61832
-0.793414 -9.12214 -1.61455
-0.572221 -9.11787 -1.61089
-0.351897 -9.11354 -1.60816
-0.132209 -9.1101 -1.60652
0.0872095 -9.1116 -1.60669
0.306801 -9.11302 -1.60778
0.526889 -9.11572 -1.61003
0.747742 -9.11871 -1.61327
0.969616 -9.12168 -1.61746
1.19355 -9.13058 -1.62366
1.41922 -9.13882 -1.63074
1.65088 -9.16866 -1.64268
1.89366 -9.23592 -1.66242
2.17049 -9.42637 -1.70562
8.227 -0.760692 -1.45683
7.88761 -0.538124 -1.39403
7.80454 -0.343902 -1.37749
7.76796 -0.155018 -1.36997
7.75838 0.0320343 -1.36802
7.77261 0.219335 -1.37107
7.83379 0.410033 -1.3832
7.97563 0.610336 -1.41043
2.14073 9.55653 -1.81088
1.85278 9.31757 -1.75664
1.6102 9.25793 -1.73758
1.37509 9.21551 -1.7229
1.14345 9.17106 -1.70894
0.917799 9.15128 -1.70064
0.695449 9.1481 -1.69645
0.474035 9.14438 -1.69315
0.253242 9.13664 -1.6901
0.0331345 9.13379 -1.68893
-0.186799 9.13108 -1.68877
-0.406957 9.13148 -1.69017
-0.627571 9.1314 -1.69246
-0.848877 9.13085 -1.69566
-1.07133 9.13189 -1.70015
-1.29507 9.13271 -1.70562
-1.52034 9.13327 -1.71206
-1.74926 9.14331 -1.72134
-1.99261 9.20802 -1.74206
-2.26447 9.36709 -1.78195
-7.57232 10.0316 -2.32407
-7.61325 9.59622 -2.26503
-7.75304 9.30322 -2.23931
-8.00224 9.14517 -2.24701
-8.35081 9.0921 -2.28273
-8.76369 9.0921 -2.33505
-9.2071 9.10287 -2.39408
-8.38094 0.683023 -1.55485
-8.27893 0.474357 -1.53336
-8.22998 0.272941 -1.52264
-8.19787 0.0743541 -1.51592
-8.20518 -0.123193 -1.51738
-8.23819 -0.322241 -1.52448
-8.29252 -0.524604 -1.53643
-8.45633 -0.73978 -1.56962
-2.17915 -9.25466 -1.75807
-1.92802 -9.17292 -1.73322
-1.6875 -9.11368 -1.71385
-1.45878 -9.09692 -1.7036
-1.23552 -9.10156 -1.6984
-1.01404 -9.11117 -1.69514
-0.792587 -9.11267 -1.69138
-0.571851 -9.11199 -1.6882
-0.351669 -9.10767 -1.68535
-0.13212 -9.10405 -1.6836
0.0871517 -9.10554 -1.68378
0.306621 -9.10768 -1.68505
0.526613 -9.11094 -1.68751
0.747348 -9.11392 -1.6909
0.969112 -9.11692 -1.6953
1.19186 -9.11769 -1.70029
1.41493 -9.11118 -1.70494
1.64454 -9.13344 -1.71602
1.88077 -9.17303 -1.73146
2.14641 -9.32179 -1.76879
8.05018 -0.744344 -1.4949
7.75114 -0.528813 -1.43659
7.67873 -0.338359 -1.42125
7.65077 -0.15268 -1.41498
7.63778 0.0315363 -1.41231
7.65754 0.216087 -1.41651
7.70042 0.403052 -1.42583
7.83619 0.599666 -1.45322
8.21147 0.8277 -1.52607
2.09111 9.33501 -1.85126
1.82966 9.20132 -1.81548
1.59195 9.15296 -1.79785
1.36278 9.13298 -1.78696
1.13792 9.1267 -1.77985
0.914724 9.12062 -1.77386
0.693136 9.11768 -1.76953
0.472495 9.11469 -1.76623
0.252568 9.11233 -1.76408
0.0330514 9.1109 -1.76313
-0.186367 9.10992 -1.7633
-0.40619 9.11427 -1.76553
-0.626687 9.11857 -1.76877
-0.84806 9.12208 -1.7729
-1.06955 9.11665 -1.77634
-1.29264 9.11559 -1.78168
-1.51735 9.11535 -1.78826
-1.74728 9.13295 -1.79944
-1.99043 9.19792 -1.82116
-2.24954 9.30536 -1.85263
-7.61117 9.59359 -2.36984
-7.75209 9.30207 -2.34327
-8.00162 9.14446 -2.35144
-8.35081 9.0921 -2.38901
-8.76369 9.0921 -2.44376
-8.18103 0.66673 -1.58842
-8.09061 0.463567 -1.56825
-8.04427 0.266782 -1.55757
-8.01679 0.0727117 -1.55146
-8.02376 -0.12047 -1.55292
-8.05148 -0.314936 -1.5593
-8.10474 -0.512724 -1.57155
-8.25363 -0.722048 -1.60333
-2.17855 -9.25212 -1.83942
-1.92582 -9.16244 -1.81184
-1.68512 -9.10082 -1.79111
-1.47243 -9.18204 -1.79959
-1.23326 -9.08492 -1.77422
-1.01288 -9.10068 -1.77202
-0.791677 -9.10221 -1.76809
-0.571322 -9.10359 -1.76517
-0.351444 -9.10179 -1.76267
-0.132032 -9.09799 -1.76081
0.0870936 -9.09948 -1.76099
0.306459 -9.10289 -1.76257
0.526335 -9.10614 -1.76514
0.746958 -9.10915 -1.7687
0.968604 -9.11216 -1.7733
1.19018 -9.10483 -1.77694
1.42173 -9.15498 -1.79289
1.63931 -9.10444 -1.7902
1.87707 -9.15498 -1.80851
2.13463 -9.27064 -1.84098
7.8826 -0.728848 -1.53193
7.72267 -0.52687 -1.49795
7.65634 -0.337372 -1.48308
7.63301 -0.152325 -1.47742
7.62189 0.0314705 -1.47498
7.63974 0.215585 -1.47902
7.6779 0.401873 -1.48784
7.76922 0.594541 -1.50788
8.10357 0.816824 -1.57613
2.078 9.27647 -1.92175
1.82111 9.15831 -1.88764
1.58685 9.12365 -1.87207
1.35975 9.11269 -1.86257
1.13631 9.11379 -1.85666
0.914245 9.11584 -1.85205
0.69277 9.11286 -1.84752
0.472246 9.10989 -1.84408
0.252407 9.10651 -1.84163
0.0330294 9.10481 -1.84059
-0.186246 9.10402 -1.8408
-0.405926 9.10837 -1.84312
-0.626282 9.11265 -1.84651
-0.847081 9.11158 -1.84989
-1.06845 9.10733 -1.85371
-1.29027 9.09885 -1.85777
-1.51437 9.09744 -1.86439
-1.74529 9.12259 -1.87762
-1.98824 9.18781 -1.90035
-2.24332 9.27962 -1.92995
-8.35081 9.0921 -2.49562
-8.76369 9.0921 -2.55282
-8.01326 0.653057 -1.62529
-7.95322 0.455695 -1.61041
-7.91887 0.262624 -1.60172
-7.90286 0.0716784 -1.59766
-7.90692 -0.118715 -1.5986
-7.92164 -0.309858 -1.60262
-7.96328 -0.503774 -1.61303
-8.06699 -0.70572 -1.63701
-2.18188 -9.26626 -1.92444
-1.92373 -9.15248 -1.89064
-1.72048 -9.2918 -1.91031
-1.458 -9.0921 -1.86149
-1.23423 -9.0921 -1.85487
-1.01171 -9.09018 -1.84897
-0.790768 -9.09173 -1.84487
-0.570667 -9.09313 -1.84183
-0.351156 -9.09439 -1.83984
-0.131944 -9.09191 -1.83816
0.087048 -9.09454 -1.83859
0.306298 -9.09809 -1.84026
0.526059 -9.10135 -1.84295
0.746568 -9.10439 -1.84667
0.968097 -9.10739 -1.85147
1.18974 -9.10144 -1.85555
1.41197 -9.0921 -1.86004
1.63709 -9.0921 -1.86756
1.87338 -9.13695 -1.8855
2.12294 -9.21989 -1.91261
7.83698 -0.72463 -1.59104
7.70031 -0.525345 -1.56027
7.63815 -0.33657 -1.54558
7.61528 -0.151971 -1.53977
7.60677 0.0314084 -1.53775
7.62197 0.215084 -1.54143
7.65543 0.400697 -1.5497
7.73368 0.591821 -1.56797
8.06111 0.812544 -1.63785
2.06638 9.22458 -1.99292
1.81737 9.1395 -1.96451
1.59244 9.15576 -1.95919
1.36902 9.17485 -1.95565
1.13539 9.1064 -1.93467
0.913767 9.11105 -1.93042
0.692404 9.10805 -1.9257
0.471997 9.10507 -1.9221
0.252276 9.1017 -1.91955
0.033009 9.09872 -1.9182
-0.186124 9.09812 -1.91846
-0.405663 9.10246 -1.92088
-0.625586 9.10252 -1.92352
-0.846106 9.10106 -1.92696
-1.06735 9.09799 -1.93119
-1.30048 9.17085 -1.95274
-1.53174 9.20181 -1.96662
-1.74331 9.11221 -1.95587
-1.98599 9.1774 -1.97956
-2.2451 9.28699 -2.01428
-8.36906 9.11197 -2.60828
-8.32253 0.880456 -1.76435
-7.92052 0.6455 -1.67534
-7.86006 0.450357 -1.65977
-7.82563 0.259531 -1.6507
-7.81328 0.0708659 -1.64726
-7.81724 -0.117369 -1.64821
-7.82705 -0.306158 -1.65136
-7.87585 -0.498244 -1.6637
-7.97297 -0.697494 -1.68728
-2.18134 -9.26395 -2.00643
-1.92175 -9.14306 -1.96966
-1.73076 -9.3473 -2.00409
-1.458 -9.0921 -1.94128
-1.23423 -9.0921 -1.93437
-1.01095 -9.08342 -1.92679
-0.790119 -9.08429 -1.92238
-0.570164 -9.08515 -1.9191
-0.350833 -9.086 -1.91694
-0.131876 -9.08718 -1.91596
0.0870176 -9.09135 -1.91672
0.306212 -9.09549 -1.9186
0.525991 -9.10017 -1.9217
0.746553 -9.10419 -1.92579
0.96819 -9.10825 -1.93102
1.18857 -9.0925 -1.93319
1.41197 -9.0921 -1.93977
1.63709 -9.0921 -1.94762
1.86968 -9.11893 -1.96244
2.12064 -9.20987 -1.99243
7.80065 -0.721271 -1.65154
7.67801 -0.523824 -1.62244
7.62006 -0.335773 -1.60802
7.59845 -0.151636 -1.60222
7.59166 0.0313458 -1.60048
7.60423 0.214583 -1.60376
7.63303 0.399524 -1.61139
7.70657 0.589746 -1.62945
8.01895 0.808295 -1.69912
2.05484 9.17309 -2.06354
1.81363 9.1207 -2.04134
1.58136 9.0921 -2.02582
1.35667 9.0921 -2.01796
1.13493 9.10268 -2.01365
0.913284 9.10626 -2.00899
0.692041 9.10327 -2.00408
0.471746 9.10024 -2.00033
0.25214 9.09687 -1.99767
0.0329893 9.09331 -1.99614
-0.186002 9.0922 -1.9963
-0.405255 9.09333 -1.99811
-0.624864 9.09201 -2.00055
-0.845127 9.09054 -2.00412
-1.06626 9.08864 -2.00878
-1.28931 9.0921 -2.01583
-1.51348 9.0921 -2.02332
-1.74137 9.10211 -2.03429
-1.98387 9.16763 -2.05902
-2.24946 9.305 -2.10143
-8.20968 0.868518 -1.81221
-7.83364 0.638419 -1.72531
-7.76305 0.444799 -1.70691
-7.733 0.256459 -1.69845
-7.72541 0.0700689 -1.69592
-7.72831 -0.116034 -1.69668
-7.73437 -0.302532 -1.69911
-7.77842 -0.49208 -1.7109
-7.89957 -0.691074 -1.7407
-2.18999 -9.30069 -2.09748
-1.92112 -9.14006 -2.05023
-1.68351 -9.0921 -2.02978
-1.458 -9.0921 -2.02136
-1.23423 -9.0921 -2.01416
-1.01094 -9.08327 -2.00623
-0.790106 -9.08414 -2.00164
-0.570156 -9.085 -1.99822
-0.350852 -9.08648 -1.99611
-0.13189 -9.08815 -1.9952
0.0870273 -9.09255 -1.99605
0.306256 -9.0968 -1.99802
0.526069 -9.1015 -2.00126
0.746762 -9.10675 -2.00578
0.968494 -9.11111 -2.0113
1.18852 -9.0921 -2.01284
1.41197 -9.0921 -2.01978
1.63709 -9.0921 -2.02795
1.86649 -9.10339 -2.03991
2.11965 -9.20556 -2.07364
7.76507 -0.717982 -1.71183
7.65576 -0.522306 -1.68447
7.60201 -0.334978 -1.67038
7.58332 -0.151334 -1.66499
7.57656 0.0312833 -1.66319
7.58682 0.214091 -1.66609
7.61447 0.398553 -1.67378
7.68414 0.58803 -1.69172
7.97708 0.804074 -1.75997
2.05265 9.16332 -2.1433
1.80989 9.10191 -2.11812
1.58136 9.0921 -2.10637
1.35667 9.0921 -2.09819
1.13476 9.10132 -2.0934
0.913409 9.1075 -2.08915
0.692054 9.10345 -2.0838
0.471684 9.09899 -2.07957
0.252076 9.09457 -2.07657
0.0329788 9.09043 -2.07484
-0.185892 9.08676 -2.07443
-0.404919 9.08578 -2.07583
-0.624374 9.08492 -2.07846
-0.844525 9.08406 -2.08232
-1.08228 9.22518 -2.12003
-1.28931 9.0921 -2.09597
-1.51348 9.0921 -2.10377
-1.78828 9.3473 -2.17215
-1.98184 9.15822 -2.13869
-2.25466 9.32653 -2.19004
-8.13492 0.860609 -1.8671
-7.79402 0.63519 -1.78483
-7.68662 0.440419 -1.7573
-7.6429 0.253471 -1.7454
-7.63602 0.0692584 -1.74294
-7.63767 -0.114673 -1.74344
-7.64477 -0.299028 -1.7462
-7.71287 -0.487934 -1.76393
-7.84112 -0.68596 -1.79652
-2.19628 -9.32741 -2.18714
-1.92352 -9.15148 -2.1344
-1.68351 -9.0921 -2.11049
-1.458 -9.0921 -2.10172
-1.23423 -9.0921 -2.09424
-1.03289 -9.28052 -2.1313
-0.790124 -9.08434 -2.08127
-0.570212 -9.0859 -2.07788
-0.350888 -9.08747 -2.0757
-0.131904 -9.08912 -2.07475
0.0870366 -9.09353 -2.07563
0.306293 -9.09797 -2.07773
0.526108 -9.1022 -2.08098
0.74677 -9.10685 -2.08556
0.968527 -9.11142 -2.09134
1.18852 -9.0921 -2.09287
1.41197 -9.0921 -2.10009
1.63709 -9.0921 -2.10858
1.86608 -9.1014 -2.12055
2.11865 -9.20124 -2.15508
7.74739 -0.716347 -1.77583
7.63356 -0.520791 -1.74636
7.58397 -0.334183 -1.73267
7.56819 -0.151032 -1.72773
7.56146 0.031221 -1.72587
7.57167 0.213664 -1.72887
7.59636 0.397606 -1.73619
7.66176 0.586317 -1.75386
7.93911 0.800247 -1.82123
2.39893 9.61724 -2.34917
2.05255 9.16285 -2.22545
1.80794 9.0921 -2.19706
1.58136 9.0921 -2.18722
1.35667 9.0921 -2.17872
1.13706 9.11982 -2.17817
0.913699 9.11039 -2.17003
0.692216 9.10557 -2.16429
0.471751 9.10032 -2.15971
0.252115 9.09589 -2.15659
0.0329828 9.09155 -2.15475
-0.185912 9.08775 -2.15429
-0.404937 9.08618 -2.1556
-0.624367 9.08477 -2.15821
-0.844511 9.08391 -2.16221
-1.06666 9.0921 -2.16964
-1.28931 9.0921 -2.17642
-1.51348 9.0921 -2.18452
-1.78828 9.3473 -2.25553
-1.98257 9.16159 -2.2216
-2.26966 9.38857 -2.28923
-8.02606 0.849091 -1.91282
-7.7569 0.632165 -1.84451
-7.66198 0.439008 -1.8189
-7.62764 0.252965 -1.80878
-7.61968 0.06911 -1.80597
-7.62179 -0.114434 -1.8066
-7.62951 -0.298431 -1.80961
-7.68221 -0.485994 -1.82436
-7.78717 -0.68124 -1.85264
-1.92515 -9.15923 -2.21821
-1.68351 -9.0921 -2.19149
-1.458 -9.0921 -2.1824
-1.23423 -9.0921 -2.17463
-1.04032 -9.3473 -2.22903
-0.790353 -9.08696 -2.16178
-0.570496 -9.09042 -2.15871
-0.351067 -9.09204 -2.15646
-0.131968 -9.09373 -2.15548
0.0870543 -9.09523 -2.15571
0.306354 -9.09974 -2.1579
0.526078 -9.10168 -2.16074
0.74649 -9.10344 -2.1648
0.968157 -9.10793 -2.17078
1.18852 -9.0921 -2.1732
1.41197 -9.0921 -2.1807
1.63709 -9.0921 -2.18952
1.87113 -9.12602 -2.2079
2.1179 -9.198 -2.23701
7.75814 -0.717341 -1.84656
7.622 -0.520003 -1.81065
7.57207 -0.333659 -1.79635
7.55714 -0.150811 -1.79143
7.54999 0.0311732 -1.7894
7.56088 0.21336 -1.79267
7.58526 0.397024 -1.8002
7.65038 0.585446 -1.81847
7.9291 0.799238 -1.88875
2.05244 9.16238 -2.30792
1.80794 9.0921 -2.27859
1.58136 9.0921 -2.26839
1.35667 9.0921 -2.25958
1.13361 9.0921 -2.25214
0.913657 9.10998 -2.25046
0.6922 9.10536 -2.24455
0.47177 9.10071 -2.23996
0.252144 9.09702 -2.2369
0.0329848 9.09253 -2.23496
-0.185932 9.08875 -2.23448
-0.404981 9.08717 -2.23584
-0.624422 9.08561 -2.23851
-0.844526 9.08406 -2.24249
-1.06666 9.0921 -2.25016
-1.28931 9.0921 -2.25719
-1.51348 9.0921 -2.26559
-1.73946 9.0921 -2.27537
-1.98531 9.17425 -2.30722
-7.96692 0.842835 -1.96919
-7.72792 0.629803 -1.90582
-7.64568 0.438074 -1.88239
-7.61234 0.252458 -1.87214
-7.60391 0.0689669 -1.86912
-7.60601 -0.114197 -1.86977
-7.61425 -0.297834 -1.87301
-7.66581 -0.484957 -1.88802
-7.74849 -0.677856 -1.91185
-1.68351 -9.0921 -2.27282
-1.458 -9.0921 -2.26339
-1.23423 -9.0921 -2.25533
-0.790331 -9.08672 -2.24195
-0.570562 -9.09144 -2.23907
-0.351225 -9.09614 -2.23749
-0.13205 -9.09911 -2.2368
0.0871009 -9.10036 -2.23697
0.306419 -9.10169 -2.23846
0.526174 -9.10334 -2.24133
0.746455 -9.10302 -2.24503
0.967784 -9.10444 -2.25048
1.18852 -9.0921 -2.25385
1.41197 -9.0921 -2.26162
1.63709 -9.0921 -2.27077
7.797 -0.720933 -1.92467
7.62463 -0.520182 -1.87849
7.57307 -0.333703 -1.86327
7.55779 -0.150824 -1.85807
7.5592 0.0312118 -1.85806
7.56152 0.213378 -1.85936
7.58642 0.397085 -1.86729
7.65303 0.585649 -1.88661
7.91433 0.797749 -1.9552
2.05232 9.16184 -2.39071
1.80794 9.0921 -2.36046
1.58136 9.0921 -2.34989
1.35667 9.0921 -2.34076
1.13361 9.0921 -2.33306
0.913312 9.10653 -2.33044
0.691938 9.10193 -2.32432
0.471833 9.10193 -2.32075
0.252193 9.0988 -2.31773
0.0329945 9.0952 -2.31594
-0.186037 9.09386 -2.31607
-0.405208 9.09218 -2.31745
-0.624759 9.09048 -2.32018
-0.844684 9.08577 -2.3235
-1.06667 9.0921 -2.33101
-1.28931 9.0921 -2.33829
-1.51348 9.0921 -2.34699
-7.96517 0.84265 -2.0395
-7.7226 0.62937 -1.97293
-7.63421 0.437416 -1.9471
-7.59745 0.251964 -1.93561
-7.58814 0.0688238 -1.93226
-7.59023 -0.113961 -1.93293
-7.60018 -0.297284 -1.93673
-7.65581 -0.484324 -1.95331
-7.74476 -0.677531 -1.97959
-1.458 -9.0921 -2.34471
-1.23424 -9.0921 -2.33637
1.18852 -9.0921 -2.33483
1.41197 -9.0921 -2.34288
1.63709 -9.0921 -2.35236
7.78954 -0.720244 -1.99192
7.62747 -0.520376 -1.94671
7.57408 -0.333747 -1.93047
7.5657 -0.150982 -1.92685
7.56917 0.031253 -1.92736
7.56391 0.213445 -1.92678
7.58954 0.397249 -1.93518
7.66539 0.586595 -1.95756
7.91468 0.797785 -2.02554
1.58136 9.0921 -2.43174
1.35667 9.0921 -2.42229
0.912964 9.10307 -2.41069
0.692042 9.10329 -2.40564
0.471922 9.10362 -2.40203
0.252281 9.10195 -2.39929
0.0330142 9.10063 -2.39803
-0.18615 9.09931 -2.39817
-0.40533 9.09495 -2.3989
-0.624743 9.09025 -2.40093
-0.844662 9.08553 -2.40436
-1.06666 9.0921 -2.4122
-1.28931 9.0921 -2.41974
-1.51348 9.0921 -2.42874
-7.96342 0.842465 -2.11007
-7.71958 0.629123 -2.04085
-7.63152 0.437262 -2.0142
-7.59543 0.251897 -2.0025
-7.58436 0.0687895 -1.99856
-7.58709 -0.113913 -1.99942
-7.59817 -0.297205 -2.00365
-7.65285 -0.484136 -2.02056
-7.74173 -0.677265 -2.04774
-1.45801 -9.0921 -2.42638
-1.23423 -9.0921 -2.41774
1.41197 -9.0921 -2.42449
1.63709 -9.0921 -2.4343
7.83366 -0.724323 -2.07297
7.64661 -0.521681 -2.01957
7.58278 -0.334131 -2
7.57815 -0.15123 -1.99724
7.58056 0.0313001 -1.9975
7.57624 0.213793 -1.99714
7.599 0.397743 -2.00508
7.68657 0.588216 -2.03133
7.93184 0.799514 -2.10063
1.58136 9.0921 -2.51394
1.35667 9.0921 -2.50418
-1.28931 9.0921 -2.50154
-1.51348 9.0921 -2.51084
-7.96166 0.842279 -2.18092
-7.71655 0.628877 -2.10902
-7.62936 0.437138 -2.08171
-7.59341 0.25183 -2.06964
-7.58087 0.068758 -2.06518
-7.58439 -0.113873 -2.06628
-7.59614 -0.297126 -2.07083
-7.65043 -0.483983 -2.0882
-7.73868 -0.676998 -2.11613
7.85813 -0.726586 -2.14975
7.67002 -0.523279 -2.09423
7.60065 -0.334918 -2.07249
7.59372 -0.151541 -2.069
7.58898 0.0313348 -2.06732
7.59222 0.214245 -2.06901
7.61821 0.398749 -2.0781
7.7098 0.589994 -2.10635
7.94483 0.800823 -2.1752
1.58136 9.0921 -2.59652
1.35668 9.0921 -2.58644
-1.28931 9.0921 -2.58371
-1.51348 9.0921 -2.59332
-7.9577 0.84186 -2.25144
-7.71351 0.628629 -2.17744
-7.62718 0.437014 -2.14948
-7.59138 0.251762 -2.13706
-7.57735 0.068726 -2.13202
-7.58087 -0.11382 -2.13316
-7.59411 -0.297046 -2.13828
-7.64824 -0.483845 -2.15618
-7.73562 -0.676731 -2.18478
8.33254 -0.770451 -2.35441
7.69327 -0.524865 -2.16958
7.62048 -0.335792 -2.14615
7.60221 -0.151711 -2.13936
7.59746 0.0313698 -2.13761
7.60472 0.214597 -2.14049
7.64 0.399889 -2.1525
7.73302 0.591771 -2.1821
8.33409 0.84006 -2.35673
-8.33626 0.881908 -2.43391
-7.71109 0.628431 -2.24631
-7.625 0.436889 -2.21753
-7.58806 0.251652 -2.20438
-7.57382 0.068694 -2.19912
-7.57733 -0.113767 -2.2003
-7.59157 -0.296947 -2.20587
-7.64605 -0.483706 -2.22444
-7.73267 -0.676472 -2.25373
-0.850274 -10.0325 -1.0075
-0.600739 -9.94246 -0.996706
-0.357124 -9.87545 -0.988833
-0.118757 -9.94108 -0.994824
0.12563 -10.2509 -1.02583
-1.3665 -10.2175 -1.11812
-1.05959 -9.7048 -1.0589
-0.810289 -9.56068 -1.04073
-0.575683 -9.52775 -1.03533
-0.343276 -9.49246 -1.03029
-0.113982 -9.54123 -1.03498
0.117821 -9.61291 -1.04276
0.361932 -9.92319 -1.07705
-1.56957 -9.90512 -1.17219
-1.27574 -9.53882 -1.12486
-1.02556 -9.39317 -1.10443
-0.794145 -9.37021 -1.09915
-0.566005 -9.36758 -1.09691
-0.338649 -9.36462 -1.09528
-0.111868 -9.36427 -1.0946
0.114776 -9.36463 -1.09465
0.3473 -9.5221 -1.11371
0.600187 -9.88236 -1.15721
-1.82294 -9.94132 -1.26658
-1.49564 -9.43853 -1.19756
-1.25198 -9.36121 -1.18356
-1.01956 -9.3382 -1.17718
-0.790712 -9.32971 -1.17335
-0.563563 -9.32716 -1.17098
-0.337223 -9.32512 -1.16935
-0.1114 -9.32519 -1.16868
0.114299 -9.32555 -1.16873
0.340656 -9.33983 -1.17121
0.57731 -9.50568 -1.19341
-2.03746 -9.7719 -1.33527
-1.73459 -9.45952 -1.28647
-1.47914 -9.33439 -1.26421
-1.24634 -9.31905 -1.25768
-1.015 -9.29636 -1.25094
-0.787301 -9.28946 -1.24708
-0.561137 -9.28701 -1.24456
-0.335818 -9.28633 -1.24302
-0.110937 -9.28635 -1.2423
0.113828 -9.28729 -1.24242
0.339142 -9.29836 -1.24464
0.566672 -9.33053 -1.25041
0.8151 -9.58216 -1.2864
-2.2404 -9.57895 -1.39924
-1.96637 -9.43096 -1.37027
-1.70944 -9.32235 -1.34809
-1.47038 -9.27914 -1.3363
-1.23984 -9.27044 -1.33033
-1.01046 -9.25481 -1.32419
-0.783912 -9.24947 -1.32033
-0.558785 -9.2481 -1.31782
-0.334424 -9.24779 -1.31623
-0.110475 -9.24775 -1.31546
0.113365 -9.24937 -1.3157
0.33764 -9.25717 -1.31758
0.563583 -9.27969 -1.32234
0.793437 -9.32748 -1.3315
1.06808 -9.7545 -1.39574
1.3778 -10.2777 -1.47494
-2.20175 -9.41366 -1.45717
-1.94311 -9.31938 -1.43488
-1.6955 -9.24631 -1.41689
-1.46171 -9.22443 -1.40771
-1.23327 -9.22131 -1.40226
-1.00595 -9.21353 -1.39697
-0.780544 -9.20973 -1.39312
-0.556468 -9.20974 -1.39068
-0.33304 -9.20947 -1.38901
-0.110017 -9.20938 -1.38819
0.112903 -9.21168 -1.38854
0.336147 -9.21624 -1.39005
0.561084 -9.23851 -1.39505
0.787088 -9.25286 -1.39968
1.02966 -9.4037 -1.42585
1.29275 -9.64324 -1.46649
1.54629 -9.73863 -1.48625
1.82235 -9.92071 -1.52033
-2.18457 -9.34023 -1.52744
-1.92651 -9.23976 -1.50295
-1.684 -9.18361 -1.48675
-1.45312 -9.17021 -1.47845
-1.22676 -9.17257 -1.47361
-1.00147 -9.17252 -1.46928
-0.777295 -9.1714 -1.46566
-0.554162 -9.17159 -1.46312
-0.331663 -9.17137 -1.46137
-0.109562 -9.17124 -1.4605
0.112444 -9.17419 -1.46097
0.334716 -9.177 -1.46228
0.558385 -9.19403 -1.46672
0.782412 -9.19789 -1.46993
1.01266 -9.2484 -1.48148
1.24982 -9.32299 -1.49784
1.48841 -9.37412 -1.5114
1.74743 -9.51286 -1.54014
2.02042 -9.67517 -1.57387
-2.17019 -9.27875 -1.5987
-1.91586 -9.1887 -1.57474
-1.67609 -9.14047 -1.55906
-1.4472 -9.13283 -1.55133
-1.22168 -9.13465 -1.54616
-0.997127 -9.13271 -1.5413
-0.774075 -9.1334 -1.5378
-0.551873 -9.13366 -1.53515
-0.330293 -9.13349 -1.53333
-0.109115 -9.13372 -1.53247
0.111987 -9.13691 -1.53301
0.333351 -9.13967 -1.53438
0.555622 -9.14857 -1.53768
0.778535 -9.1523 -1.54103
1.00426 -9.17169 -1.54793
1.23414 -9.20603 -1.55831
1.46695 -9.23893 -1.56943
1.70749 -9.29546 -1.58559
1.95416 -9.35783 -1.60383
-2.16488 -9.25605 -1.67614
-1.91378 -9.17869 -1.65326
-1.67326 -9.12506 -1.63582
-1.44435 -9.11484 -1.62725
-1.21946 -9.11801 -1.62207
-0.995934 -9.12178 -1.61797
-0.773088 -9.12176 -1.61418
-0.550892 -9.11745 -1.61058
-0.329554 -9.1131 -1.60793
-0.108833 -9.11026 -1.6065
0.111679 -9.11176 -1.60677
0.332388 -9.11318 -1.60797
0.553647 -9.11609 -1.61037
0.77571 -9.11909 -1.61375
0.998753 -9.12137 -1.61796
1.22424 -9.13219 -1.62466
1.45138 -9.14085 -1.63197
1.68584 -9.17758 -1.64533
1.93337 -9.2583 -1.6677
2.22074 -9.4816 -1.71711
-2.16303 -9.24811 -1.75621
-1.91165 -9.1685 -1.7318
-1.67091 -9.11222 -1.71303
-1.4415 -9.09687 -1.70308
-1.21723 -9.10138 -1.69791
-0.99479 -9.1113 -1.69478
-0.77233 -9.1128 -1.69108
-0.550537 -9.11157 -1.68789
-0.329343 -9.10723 -1.68511
-0.108761 -9.10421 -1.68357
0.111605 -9.10571 -1.68385
0.332203 -9.10809 -1.68529
0.553358 -9.1113 -1.68787
0.775302 -9.11429 -1.6914
0.998223 -9.11655 -1.69581
1.22251 -9.1193 -1.70133
1.44693 -9.11288 -1.70616
1.67851 -9.1377 -1.71791
1.91989 -9.19377 -1.73668
2.18951 -9.34827 -1.77536
-2.16209 -9.24411 -1.83718
-1.90947 -9.15803 -1.81036
-1.66855 -9.09937 -1.79025
-1.45216 -9.16417 -1.79556
-1.21514 -9.08573 -1.77391
-0.993647 -9.10082 -1.77164
-0.771443 -9.10234 -1.76778
-0.550062 -9.10372 -1.76495
-0.329132 -9.10135 -1.76243
-0.108688 -9.09815 -1.76078
0.111531 -9.09974 -1.76109
0.332029 -9.1033 -1.76282
0.553067 -9.10651 -1.76552
0.774897 -9.10953 -1.76922
0.997695 -9.11172 -1.77382
1.22078 -9.1064 -1.77802
1.44852 -9.12289 -1.78756
1.6731 -9.10822 -1.79209
1.91318 -9.16161 -1.81118
2.17746 -9.29679 -1.84778
-2.16485 -9.25589 -1.92162
-1.90739 -9.14806 -1.88909
-1.71402 -9.3473 -1.9211
-1.44074 -9.0921 -1.86094
-1.21599 -9.0921 -1.85437
-0.992499 -9.09032 -1.84857
-0.770555 -9.09187 -1.84455
-0.549431 -9.09326 -1.84159
-0.328881 -9.0945 -1.8397
-0.108615 -9.09208 -1.83813
0.111472 -9.09494 -1.83872
0.331852 -9.09849 -1.84052
0.552778 -9.10172 -1.84334
0.774493 -9.10477 -1.84722
0.997167 -9.10689 -1.852
1.23407 -9.20551 -1.87758
1.44363 -9.0921 -1.86103
1.67014 -9.0921 -1.86876
1.9094 -9.14353 -1.88828
2.16559 -9.24613 -1.91973
-2.16348 -9.25002 -2.00271
-1.90542 -9.13862 -1.96803
-1.66722 -9.0921 -1.94875
-1.44074 -9.0921 -1.94071
-1.21599 -9.0921 -1.93386
-0.991753 -9.0835 -1.92636
-0.769919 -9.08436 -1.92203
-0.548944 -9.08523 -1.91884
-0.328576 -9.08609 -1.91678
-0.108563 -9.08765 -1.91599
0.111435 -9.09181 -1.91688
0.331762 -9.09598 -1.91889
0.552713 -9.10068 -1.92214
0.774486 -9.1047 -1.92638
0.997155 -9.10677 -1.93136
1.21886 -9.0921 -1.93394
1.44363 -9.0921 -1.9408
1.67014 -9.0921 -1.94886
1.90563 -9.12547 -1.96533
2.16458 -9.2418 -2.00108
-2.17203 -9.28663 -2.09358
-1.90461 -9.13472 -2.04834
-1.66722 -9.0921 -2.02914
-1.44074 -9.0921 -2.02076
-1.21599 -9.0921 -2.01363
-0.991736 -9.08335 -2.00579
-0.769906 -9.08422 -2.00128
-0.548935 -9.08508 -1.99795
-0.328597 -9.08664 -1.99597
-0.108575 -9.08861 -1.99524
0.111449 -9.09305 -1.99622
0.33181 -9.09729 -1.99833
0.552803 -9.10213 -2.00174
0.774718 -9.10742 -2.00644
0.997412 -9.10913 -2.01155
1.21886 -9.0921 -2.01371
1.44363 -9.0921 -2.02086
1.67014 -9.0921 -2.02925
1.90349 -9.11522 -2.0441
2.16356 -9.23746 -2.08264
-2.17747 -9.30985 -2.18226
-1.90687 -9.1456 -2.13231
-1.66722 -9.0921 -2.10981
-1.44074 -9.0921 -2.1011
-1.21599 -9.0921 -2.09369
-1.02055 -9.3473 -2.14614
-0.769927 -9.08449 -2.08091
-0.548994 -9.08605 -2.07761
-0.328634 -9.08763 -2.07555
-0.108586 -9.08959 -2.07479
0.111462 -9.09402 -2.0758
0.331853 -9.0985 -2.07805
0.552841 -9.10276 -2.08147
0.77472 -9.10744 -2.08622
0.997515 -9.11006 -2.09174
1.21886 -9.0921 -2.09378
1.44363 -9.0921 -2.10121
1.67014 -9.0921 -2.10993
1.90321 -9.11389 -2.12506
2.16302 -9.23514 -2.1649
-1.90849 -9.15334 -2.21603
-1.66722 -9.0921 -2.19079
-1.44074 -9.0921 -2.18175
-1.21599 -9.0921 -2.17405
-1.02055 -9.3473 -2.22851
-0.770172 -9.08739 -2.16147
-0.549267 -9.09057 -2.15843
-0.328798 -9.09221 -2.1563
-0.108636 -9.09386 -2.15544
0.111483 -9.09573 -2.15589
0.331917 -9.10026 -2.15823
0.552771 -9.10163 -2.1611
0.774429 -9.10402 -2.16548
0.997302 -9.10814 -2.17157
1.21886 -9.0921 -2.17414
1.44363 -9.0921 -2.18186
1.67014 -9.0921 -2.19092
1.90279 -9.11187 -2.20614
2.16258 -9.23328 -2.24755
-1.66722 -9.0921 -2.2721
-1.44074 -9.0921 -2.26272
-1.21599 -9.0921 -2.25473
-0.770157 -9.08716 -2.24163
-0.549349 -9.09189 -2.23886
-0.32896 -9.09661 -2.23741
-0.108702 -9.09924 -2.23675
0.111538 -9.1005 -2.23707
0.331979 -9.10203 -2.23877
0.552871 -9.1033 -2.24171
0.774339 -9.10298 -2.24559
0.996921 -9.10465 -2.2513
1.21886 -9.0921 -2.25483
1.44363 -9.0921 -2.26283
1.67014 -9.0921 -2.27223
-1.66722 -9.0921 -2.35373
-1.44074 -9.0921 -2.34402
-1.21599 -9.0921 -2.33575
1.21886 -9.0921 -2.33584
1.44363 -9.0921 -2.34413
1.67014 -9.0921 -2.35387
-1.44074 -9.0921 -2.42566
-1.21599 -9.0921 -2.4171
1.44363 -9.0921 -2.42578
10.0103 -0.0121165 -1.00168
9.50094 -0.468035 -1.03178
9.31674 -0.234982 -1.01088
9.2364 -0.0111798 -1.00184
9.30904 0.212242 -1.00998
9.48283 0.444136 -1.0297
9.03363 -0.445014 -1.05716
8.96169 -0.226027 -1.0478
8.92852 -0.0108071 -1.0436
8.95802 0.204239 -1.04731
9.02585 0.422733 -1.05613
0.115737 9.95631 -1.1638
-0.122031 9.85497 -1.15197
-0.356721 9.79886 -1.14608
-0.595976 9.8561 -1.15412
-0.838367 9.90968 -1.16241
8.80372 -0.433688 -1.10459
8.73907 -0.220412 -1.0955
8.70493 -0.0105365 -1.09087
8.7356 0.199168 -1.095
8.79628 0.411981 -1.10352
9.00287 0.638537 -1.13104
0.350276 9.82695 -1.23226
0.111304 9.57512 -1.2
-0.117743 9.50866 -1.19168
-0.344748 9.47001 -1.18753
-0.573973 9.49224 -1.1917
-0.805511 9.52132 -1.19744
-1.04991 9.64711 -1.21608
-1.31994 9.91012 -1.25287
8.82262 -0.647219 -1.18335
8.59201 -0.423259 -1.15072
8.54475 -0.215511 -1.14337
8.51813 -0.0103104 -1.13944
8.54209 0.194756 -1.14295
8.58609 0.402137 -1.14979
8.68141 0.615737 -1.1642
0.584075 9.78247 -1.3109
0.338096 9.48524 -1.26962
0.108825 9.36175 -1.25238
-0.115919 9.36139 -1.25234
-0.340803 9.36164 -1.25311
-0.566245 9.36445 -1.25494
-0.792448 9.3669 -1.25746
-1.02044 9.37629 -1.26164
-1.26394 9.48968 -1.28062
-1.54153 9.7747 -1.32369
8.51021 -0.624301 -1.21371
8.42867 -0.415213 -1.20032
8.38681 -0.211528 -1.19329
8.36036 -0.0101194 -1.18915
8.3842 0.191156 -1.19285
8.42359 0.394526 -1.19945
8.4952 0.60253 -1.21136
0.828612 9.88358 -1.41074
0.565192 9.46614 -1.34883
0.332776 9.33599 -1.32876
0.108372 9.32284 -1.32614
-0.115437 9.32247 -1.3261
-0.339372 9.32238 -1.32686
-0.563813 9.32422 -1.32867
-0.789035 9.32658 -1.33132
-1.01588 9.33438 -1.33553
-1.24624 9.35675 -1.34262
-1.48362 9.40752 -1.35463
-1.78302 9.77493 -1.41329
8.3643 -0.613598 -1.2641
8.2961 -0.408682 -1.25195
8.2533 -0.208161 -1.24438
8.23213 -0.0099641 -1.2408
8.25098 0.188118 -1.24396
8.29067 0.3883 -1.25099
8.3542 0.592529 -1.26236
0.798508 9.52453 -1.44063
0.556606 9.32239 -1.40763
0.331305 9.29472 -1.40184
0.107927 9.2847 -1.39954
-0.114958 9.28379 -1.39941
-0.337969 9.28375 -1.40023
-0.561396 9.28424 -1.40193
-0.785646 9.28651 -1.40472
-1.01135 9.29275 -1.40893
-1.24065 9.3148 -1.41638
-1.47105 9.32783 -1.42332
-1.7176 9.41631 -1.4427
-2.00672 9.67904 -1.4899
-2.30681 9.92201 -1.53539
8.23805 -0.604336 -1.31532
8.17295 -0.402616 -1.30301
8.13257 -0.205115 -1.29541
8.10984 -0.00981593 -1.29138
8.13032 0.185368 -1.29498
8.16735 0.382524 -1.30197
8.22815 0.583589 -1.31351
1.58594 10.1061 -1.62896
1.33734 10.0993 -1.62222
1.04475 9.66779 -1.54843
0.781188 9.31794 -1.48896
0.553821 9.27576 -1.47967
0.329843 9.25371 -1.47446
0.10749 9.24692 -1.47255
-0.114482 9.24534 -1.47231
-0.336568 9.24535 -1.47317
-0.559057 9.24557 -1.47492
-0.782277 9.24669 -1.47767
-1.00685 9.25138 -1.48186
-1.23422 9.26651 -1.4886
-1.46241 9.27303 -1.49485
-1.69834 9.31071 -1.50707
-1.94861 9.3988 -1.52846
-2.21332 9.51993 -1.55635
8.10079 -0.594266 -1.36272
8.01062 -0.394619 -1.34557
7.95516 -0.200641 -1.33506
7.93297 -0.00960213 -1.33091
7.95226 0.181308 -1.33449
8.00367 0.374858 -1.34424
8.08513 0.573445 -1.35985
1.78066 9.80415 -1.67175
1.51519 9.65529 -1.63969
1.26769 9.57336 -1.62014
1.011 9.35548 -1.5787
0.775023 9.24439 -1.55637
0.551374 9.23476 -1.55207
0.328392 9.21295 -1.54664
0.107052 9.20934 -1.54515
-0.114009 9.2071 -1.54479
-0.335179 9.20716 -1.54571
-0.556746 9.20733 -1.54753
-0.778927 9.2071 -1.55019
-1.00237 9.21028 -1.55433
-1.22771 9.21767 -1.5601
-1.45385 9.21872 -1.56574
-1.68465 9.23565 -1.57503
-1.92959 9.30706 -1.59465
-2.18391 9.3934 -1.61796
8.36192 -0.815634 -1.48143
7.93787 -0.582315 -1.40342
7.82291 -0.385372 -1.38106
7.77095 -0.195995 -1.37066
7.75652 -0.00938855 -1.36768
7.76958 0.177143 -1.37034
7.81434 0.365991 -1.37939
7.90908 0.560959 -1.39809
8.26807 0.786281 -1.46446
1.98153 9.59417 -1.72741
1.7163 9.44976 -1.69351
1.46606 9.34219 -1.66744
1.2323 9.3061 -1.65524
0.998101 9.23612 -1.63806
0.770845 9.19456 -1.62694
0.548755 9.19091 -1.62349
0.327027 9.1747 -1.61877
0.106618 9.17197 -1.61737
-0.113538 9.16907 -1.61688
-0.333798 9.16918 -1.61784
-0.554446 9.1693 -1.61975
-0.775704 9.16898 -1.62251
-0.997928 9.16942 -1.62636
-1.22126 9.16921 -1.63106
-1.44553 9.16602 -1.63619
-1.67417 9.17821 -1.64507
-1.9133 9.22849 -1.66184
-2.16553 9.31435 -1.68617
8.14773 -0.794742 -1.51374
7.79977 -0.572184 -1.44613
7.69234 -0.37894 -1.42411
7.65508 -0.193073 -1.41595
7.63574 -0.00924235 -1.41192
7.6531 0.174487 -1.4155
7.68598 0.359979 -1.42277
7.77199 0.551236 -1.44072
8.10052 0.770348 -1.50462
2.24957 9.70922 -1.84288
1.92816 9.33574 -1.7627
1.68485 9.27661 -1.74339
1.44767 9.22499 -1.72666
1.21715 9.19165 -1.71446
0.990553 9.16627 -1.70479
0.767041 9.14919 -1.6977
0.546053 9.14565 -1.69413
0.3257 9.13747 -1.69068
0.106185 9.13478 -1.68922
-0.113074 9.13164 -1.68865
-0.332422 9.1314 -1.6896
-0.552159 9.13148 -1.69158
-0.772499 9.1311 -1.69445
-0.993796 9.13146 -1.69846
-1.21649 9.1334 -1.70376
-1.44009 9.13149 -1.70936
-1.66694 9.13857 -1.71769
-1.9042 9.1846 -1.73443
-2.15223 9.25713 -1.75738
7.97267 -0.777667 -1.55018
7.7488 -0.568445 -1.50356
7.66987 -0.377833 -1.48606
7.6373 -0.192624 -1.47842
7.62061 -0.00922405 -1.47473
7.63533 0.174082 -1.47796
7.66355 0.358929 -1.48466
7.73318 0.548483 -1.50027
7.91911 0.753096 -1.5394
2.17854 9.40264 -1.86778
1.90712 9.23385 -1.82463
1.66402 9.16194 -1.80201
1.43392 9.1374 -1.78989
1.20904 9.13041 -1.78232
0.985714 9.1215 -1.77545
0.76448 9.11863 -1.77081
0.544264 9.11567 -1.76719
0.32482 9.11279 -1.76461
0.105913 9.11138 -1.76333
-0.112805 9.1099 -1.76306
-0.331745 9.11281 -1.76466
