ply
format ascii 1.0
comment Created by Open3D
element vertex 218
property double x
property double y
property double z
end_header
3.67809e-315 0 4.87028e+226
44.7997 -1.37086 -1.11776
44.5536 -1.22286 -1.11151
44.4127 -1.07899 -1.10791
44.3684 -0.93807 -1.10672
44.3661 -0.798216 -1.1066
44.3638 -0.65838 -1.10648
44.3615 -0.518571 -1.10638
44.3591 -0.378799 -1.10629
44.3578 -0.239042 -1.10623
44.358 -0.0993023 -1.10622
44.3582 0.040437 -1.10622
44.3586 0.180167 -1.10624
44.4944 0.320892 -1.10965
44.8124 0.464367 -1.11761
44.7251 -2.35657 -1.48947
44.3873 -2.19859 -1.47798
44.3166 -2.05515 -1.4754
44.2675 -1.91314 -1.47356
44.2231 -1.77168 -1.47189
44.192 -1.63101 -1.47068
44.1822 -1.49129 -1.47019
44.1747 -1.35173 -1.46979
44.1755 -1.21249 -1.46968
44.1798 -1.07333 -1.46971
44.1706 -0.93389 -1.46929
44.1695 -0.794679 -1.46917
44.1688 -0.655487 -1.46907
44.1682 -0.516311 -1.46898
44.1675 -0.377162 -1.46892
44.1668 -0.238013 -1.46886
44.1667 -0.0988741 -1.46884
44.1688 0.0402643 -1.46891
44.1709 0.179405 -1.46899
44.1731 0.318575 -1.46909
44.185 0.457865 -1.46952
44.1929 0.597186 -1.46984
44.1964 0.736483 -1.47003
44.2112 0.876053 -1.4706
44.2606 1.01653 -1.47235
44.3146 1.15744 -1.47426
44.5153 1.30303 -1.48106
44.6048 1.4463 -1.48418
44.7297 1.59141 -1.4885
44.3926 -2.33905 -1.84837
44.2591 -2.19223 -1.84252
44.1936 -2.04945 -1.83952
44.1542 -1.90825 -1.83762
44.1149 -1.76734 -1.83574
44.0881 -1.62718 -1.8344
44.0921 -1.48825 -1.83436
44.0921 -1.3492 -1.83418
44.1526 -1.21186 -1.83653
44.0909 -1.07117 -1.83381
44.0926 -0.93224 -1.83375
44.0932 -0.793308 -1.83366
44.0938 -0.654375 -1.83359
44.0945 -0.515451 -1.83354
44.0951 -0.376544 -1.83351
44.094 -0.237621 -1.83343
44.0925 -0.0987079 -1.83334
44.0941 0.0401961 -1.8334
44.0964 0.179102 -1.83351
44.0987 0.318038 -1.83364
44.1009 0.456994 -1.83378
44.1029 0.59597 -1.83394
44.105 0.73496 -1.83411
44.107 0.873989 -1.8343
44.1074 1.01301 -1.83444
44.1027 1.15191 -1.83439
44.1801 1.29321 -1.83777
44.0921 1.42967 -1.83428
44.0921 1.56872 -1.83448
44.1019 1.7082 -1.8351
44.1429 1.84907 -1.83704
44.1757 1.98987 -1.83866
44.2688 2.13382 -1.8428
44.4236 2.28157 -1.84954
44.1524 -1.90817 -2.20561
44.3473 -1.77665 -2.21506
44.0921 -1.62732 -2.20204
44.0921 -1.48825 -2.2018
44.0921 -1.3492 -2.20158
44.0921 -1.2102 -2.20137
44.0921 -1.0712 -2.2012
44.0838 -0.932054 -2.20062
44.0868 -0.793191 -2.20064
44.0898 -0.654313 -2.20067
44.0927 -0.515428 -2.20073
44.0948 -0.376542 -2.20076
44.0959 -0.237631 -2.20077
44.0969 -0.0987179 -2.20079
44.0977 0.0401995 -2.20083
44.0985 0.179111 -2.20088
44.1009 0.318053 -2.20104
44.1026 0.457012 -2.20119
44.1024 0.595963 -2.20126
44.1021 0.734912 -2.20135
44.1046 0.873941 -2.2016
44.1069 1.013 -2.20187
44.0921 1.15163 -2.2013
44.0921 1.29064 -2.20149
44.0921 1.42967 -2.2017
44.0921 1.56872 -2.20194
44.0921 1.70782 -2.2022
44.3473 1.85763 -2.21522
44.1409 1.9883 -2.20521
44.2089 2.13093 -2.20893
44.349 2.27774 -2.21628
44.7923 -1.368 -1.11757
44.5506 -1.22079 -1.11144
44.4119 -1.07762 -1.10789
44.3683 -0.937349 -1.10672
44.3661 -0.798122 -1.1066
44.3638 -0.658912 -1.10648
44.3615 -0.519741 -1.10638
44.3592 -0.380583 -1.10629
44.3578 -0.241464 -1.10623
44.358 -0.10235 -1.10622
44.3582 0.0367512 -1.10622
44.3586 0.175867 -1.10624
44.4862 0.315881 -1.10944
44.7917 0.458533 -1.11709
44.6694 -2.34656 -1.4876
44.3806 -2.19185 -1.47775
44.3138 -2.04926 -1.4753
44.266 -1.90796 -1.4735
44.2212 -1.76711 -1.47182
44.1917 -1.62715 -1.47066
44.1819 -1.48805 -1.47018
44.1747 -1.34914 -1.46979
44.1756 -1.21051 -1.46968
44.1799 -1.07199 -1.46971
44.1706 -0.933172 -1.46929
44.1695 -0.794585 -1.46917
44.1688 -0.656016 -1.46907
44.1682 -0.517476 -1.46898
44.1675 -0.378938 -1.46892
44.1668 -0.240424 -1.46886
44.1667 -0.101909 -1.46884
44.1687 0.0365943 -1.4689
44.1709 0.175123 -1.46899
44.173 0.313656 -1.46908
44.1843 0.452316 -1.4695
44.1927 0.591003 -1.46983
44.1962 0.729687 -1.47002
44.2088 0.868573 -1.47052
44.2575 1.00839 -1.47224
44.3112 1.14866 -1.47414
44.5098 1.29349 -1.48087
44.5979 1.43605 -1.48395
44.7141 1.58017 -1.48797
44.9977 1.7315 -1.49758
44.3738 -2.33103 -1.84758
44.256 -2.1857 -1.84238
44.192 -2.04363 -1.83944
44.1528 -1.90308 -1.83755
44.1136 -1.76281 -1.83568
44.0878 -1.62332 -1.83438
44.0921 -1.48503 -1.83436
44.0921 -1.34662 -1.83418
44.1746 -1.21048 -1.83744
44.091 -1.06984 -1.83382
44.0926 -0.931523 -1.83375
44.0932 -0.793213 -1.83366
44.0938 -0.654904 -1.83359
44.0945 -0.516612 -1.83354
44.0951 -0.378317 -1.83351
44.0941 -0.240029 -1.83343
44.0925 -0.101738 -1.83334
44.094 0.0365323 -1.8334
44.0963 0.174827 -1.83351
44.0986 0.313128 -1.83364
44.1008 0.451461 -1.83378
44.1028 0.589801 -1.83393
44.1049 0.728179 -1.8341
44.1069 0.866572 -1.83429
44.1077 1.00498 -1.83445
44.1029 1.14326 -1.83439
44.282 1.28687 -1.84199
44.0921 1.41976 -1.83427
44.0921 1.55819 -1.83447
44.3473 1.70648 -1.8453
44.1396 1.83712 -1.83688
44.1682 1.97709 -1.83833
44.2595 2.12027 -1.84239
44.401 2.26663 -1.84857
44.1506 -1.90299 -2.20551
44.3473 -1.77215 -2.21505
44.0921 -1.62348 -2.20204
44.0921 -1.48503 -2.20179
44.0921 -1.34662 -2.20157
44.0921 -1.20822 -2.20137
44.0921 -1.06986 -2.20119
44.0838 -0.931337 -2.20062
44.0868 -0.793097 -2.20064
44.0897 -0.654841 -2.20067
44.0927 -0.516591 -2.20073
44.0948 -0.378315 -2.20076
44.0959 -0.240038 -2.20077
44.0969 -0.101748 -2.20079
44.0977 0.0365354 -2.20083
44.0985 0.174836 -2.20088
44.1008 0.313144 -2.20104
44.1027 0.45148 -2.20119
44.1024 0.589796 -2.20126
44.1022 0.728134 -2.20135
44.1045 0.866524 -2.20159
44.1069 1.00496 -2.20185
44.0921 1.14298 -2.20129
44.0921 1.28135 -2.20147
44.0921 1.41976 -2.20169
44.0921 1.55819 -2.20192
44.0921 1.69666 -2.20217
44.3473 1.84577 -2.2152
44.1366 1.97567 -2.20497
44.1981 2.11732 -2.20836
44.3161 2.2623 -2.2146
