ply
format ascii 1.0
comment Created by Open3D
element vertex 163
property double x
property double y
property double z
end_header
44.1063 -0.910772 -1.10018
43.9579 -0.768987 -1.09641
43.855 -0.628807 -1.09378
43.8218 -0.490074 -1.09291
43.7971 -0.351627 -1.09226
43.7964 -0.213457 -1.09222
43.2974 -1.57754 -1.44088
43.131 -1.43526 -1.43519
43.0279 -1.29596 -1.43161
42.9351 -1.15762 -1.4284
42.8762 -1.02069 -1.42632
42.8224 -0.884256 -1.42443
42.7983 -0.748703 -1.42355
42.833 -0.614155 -1.42463
42.9189 -0.479978 -1.42743
43.0169 -0.345364 -1.43064
43.1232 -0.210175 -1.43415
43.3006 -1.71445 -1.80182
43.1251 -1.57126 -1.7943
43.0121 -1.4313 -1.7894
42.9206 -1.29273 -1.78542
42.8411 -1.15508 -1.78195
42.7725 -1.01822 -1.77896
42.716 -0.882059 -1.77648
42.6823 -0.746675 -1.77497
42.6711 -0.611835 -1.77442
42.7126 -0.47767 -1.77607
42.8145 -0.343736 -1.78026
42.9454 -0.209311 -1.78566
43.207 -1.57425 -2.1578
43.0656 -1.43308 -2.1505
42.9777 -1.29445 -2.1459
42.895 -1.15653 -2.14158
42.822 -1.0194 -2.13776
42.764 -0.883049 -2.13472
42.7317 -0.747536 -2.13297
42.7279 -0.612648 -2.13268
42.7682 -0.47829 -2.13461
42.8125 -0.343721 -2.13675
42.9263 -0.209218 -2.14239
43.7984 -0.0753153 -1.09226
43.8678 0.06304 -1.09399
44.087 0.202534 -1.09947
44.3158 0.34348 -1.1052
44.5524 0.485963 -1.11113
44.7965 0.630064 -1.11726
43.2871 -0.0744382 -1.43959
43.4884 0.0624916 -1.44628
43.7128 0.200814 -1.45376
43.9367 0.340543 -1.46123
44.1703 0.481795 -1.46904
44.4065 0.62458 -1.47695
44.6541 0.769058 -1.48526
44.9105 0.915292 -1.49389
45.1906 1.06372 -1.5033
45.5313 1.21555 -1.51475
43.0766 -0.0740745 -1.7911
43.292 0.0622111 -1.80005
43.5139 0.199902 -1.8093
43.7769 0.339308 -1.82027
44.0206 0.480164 -1.83046
44.2671 0.622623 -1.84078
44.511 0.766591 -1.85101
44.7723 0.912472 -1.86199
45.0361 1.06008 -1.87309
45.3047 1.20952 -1.88441
45.5588 1.36022 -1.89515
45.8035 1.51226 -1.90552
46.1012 1.6678 -1.91811
43.056 -0.0740395 -2.14884
43.292 0.0622114 -2.16061
43.5306 0.199978 -2.17255
43.7562 0.339143 -2.18385
44.0127 0.480076 -2.19672
44.2702 0.622664 -2.20965
44.5258 0.766844 -2.22252
44.7834 0.912698 -2.23551
45.0433 1.06025 -2.24864
45.3011 1.20942 -2.26169
45.5392 1.35964 -2.27378
45.8035 1.51226 -2.2872
46.071 1.66671 -2.30082
44.182 -0.963995 -1.10209
44.0037 -0.821789 -1.09757
43.8826 -0.681619 -1.09449
43.8342 -0.543125 -1.09324
43.8017 -0.405084 -1.09239
43.7966 -0.267429 -1.09224
43.7962 -0.129828 -1.09221
43.838 0.00778842 -1.09325
43.9953 0.146034 -1.09718
44.222 0.285723 -1.10285
44.4525 0.426893 -1.10862
44.6941 0.569651 -1.11469
42.8977 -1.07082 -1.42708
42.8391 -0.934691 -1.42502
42.8073 -0.799446 -1.42387
42.8006 -0.664813 -1.42358
42.886 -0.531376 -1.42635
42.9717 -0.397407 -1.42916
43.0854 -0.263088 -1.4329
43.2115 -0.128094 -1.43708
43.399 0.00771434 -1.44332
43.6337 0.144834 -1.45112
43.842 0.283271 -1.45806
44.0735 0.423255 -1.4658
44.3075 0.56472 -1.47364
44.5478 0.707771 -1.4817
44.7989 0.852563 -1.49013
45.0775 0.999544 -1.49949
45.3389 1.14788 -1.5083
45.8772 1.30574 -1.52634
42.7976 -1.06833 -1.78005
42.7327 -0.932371 -1.77722
42.6883 -0.797225 -1.77526
42.6754 -0.662869 -1.77463
42.6737 -0.528745 -1.77448
42.775 -0.395586 -1.77863
42.8943 -0.261918 -1.78355
43.0246 -0.12754 -1.78894
43.1899 0.00767299 -1.79581
43.4339 0.144174 -1.80596
43.6781 0.282213 -1.81615
43.9196 0.42178 -1.82623
44.1637 0.56289 -1.83645
44.405 0.705501 -1.84656
44.6603 0.849925 -1.85728
44.922 0.996098 -1.86829
45.1861 1.14401 -1.87941
45.4497 1.29358 -1.89053
45.6852 1.44394 -1.90051
45.95 1.59684 -1.91172
42.8487 -1.0696 -2.13916
42.7775 -0.933353 -2.13545
42.7416 -0.798221 -2.13352
42.7294 -0.663709 -2.13279
42.7463 -0.529643 -2.13354
42.7953 -0.395777 -2.13592
42.8798 -0.261832 -2.14008
43.0594 -0.127646 -2.14901
43.1975 0.00767253 -2.1559
43.4339 0.144173 -2.16771
43.714 0.282444 -2.18172
43.9064 0.421647 -2.19138
44.1635 0.562885 -2.20429
44.4177 0.705706 -2.21708
44.673 0.850163 -2.22994
44.9328 0.996334 -2.24305
45.1881 1.14406 -2.25597
45.4488 1.29355 -2.26918
45.6852 1.44394 -2.28119
45.95 1.59684 -2.29465
43.1861 -1.48374 -1.43707
43.0634 -1.34463 -1.43284
42.9631 -1.20697 -1.42937
43.1719 -1.61849 -1.79632
43.0435 -1.47884 -1.79077
42.9526 -1.34117 -1.78681
42.8657 -1.20423 -1.78303
43.2851 -1.62274 -2.16179
43.1105 -1.48114 -2.15283
43.0085 -1.34292 -2.14751
42.9216 -1.2058 -2.14297
