ply
format ascii 1.0
comment Created by Open3D
element vertex 99
property double x
property double y
property double z
end_header
44.0057 -0.605148 -1.09754
43.8699 -0.465221 -1.09411
43.7993 -0.326657 -1.09231
43.7498 -0.188624 -1.09106
43.7165 -0.0509355 -1.09022
43.7249 0.0866363 -1.09043
43.7585 0.22438 -1.09128
43.8175 0.362562 -1.09277
43.8883 0.501245 -1.09458
43.2024 -0.73007 -1.43697
42.889 -0.58979 -1.42648
42.7201 -0.453029 -1.42081
42.6721 -0.318251 -1.41917
42.6532 -0.183896 -1.41852
42.6382 -0.0496791 -1.418
42.6421 0.0844907 -1.41813
42.6572 0.218733 -1.41865
42.6846 0.353188 -1.41959
42.7326 0.488046 -1.42123
42.956 0.625783 -1.42872
43.2807 0.766732 -1.4396
43.1811 -0.865616 -1.7958
42.7619 -0.722626 -1.77827
42.6549 -0.586572 -1.77373
42.5977 -0.45173 -1.77128
42.5696 -0.317487 -1.77007
42.56 -0.183494 -1.76963
42.552 -0.0495788 -1.76929
42.5541 0.0843164 -1.76937
42.562 0.218245 -1.76973
42.5769 0.352297 -1.77038
42.6086 0.48663 -1.77175
42.6711 0.621633 -1.77443
42.8486 0.759078 -1.7819
43.3485 0.90437 -1.8028
43.128 -0.86455 -2.15286
42.8538 -0.72418 -2.13905
42.716 -0.587413 -2.13207
42.6476 -0.45226 -2.12857
42.61 -0.317787 -2.12663
42.6019 -0.183674 -2.12619
42.5968 -0.0496309 -2.12592
42.5981 0.0844036 -2.12599
42.6032 0.218456 -2.12626
42.6197 0.352651 -2.12713
42.6609 0.487227 -2.12926
42.7353 0.622567 -2.13306
42.8939 0.759881 -2.14108
43.2576 0.902473 -2.15937
44.0198 -0.614252 -1.09789
43.8744 -0.474045 -1.09422
43.8037 -0.335335 -1.09243
43.7519 -0.197162 -1.09111
43.7183 -0.0593439 -1.09027
43.723 0.0783301 -1.09038
43.7565 0.216178 -1.09123
43.8134 0.354429 -1.09267
43.8842 0.493204 -1.09447
44.4704 0.639848 -1.10913
43.222 -0.739256 -1.43763
42.9056 -0.598705 -1.42703
42.7232 -0.461607 -1.42091
42.6751 -0.326695 -1.41927
42.6542 -0.192215 -1.41855
42.6391 -0.0578789 -1.41803
42.6412 0.076392 -1.4181
42.6563 0.210742 -1.41862
42.6818 0.345275 -1.4195
42.7298 0.48023 -1.42114
42.9413 0.617847 -1.42823
43.2637 0.758755 -1.43902
43.2148 -0.875261 -1.79721
42.7836 -0.731758 -1.77918
42.6589 -0.595263 -1.7739
42.5995 -0.46027 -1.77136
42.5714 -0.325901 -1.77014
42.5605 -0.191793 -1.76965
42.5525 -0.0577614 -1.76931
42.5536 0.0762353 -1.76935
42.5616 0.210274 -1.7697
42.5753 0.344414 -1.77031
42.605 0.478827 -1.7716
42.6676 0.613909 -1.77427
42.8298 0.751145 -1.78111
43.2855 0.895491 -1.80017
43.1561 -0.874071 -2.15427
42.8639 -0.73313 -2.13956
42.7208 -0.596126 -2.13231
42.65 -0.460816 -2.1287
42.6123 -0.326214 -2.12675
42.6022 -0.191981 -2.12621
42.5971 -0.0578219 -2.12593
42.5978 0.0763143 -2.12597
42.6029 0.210478 -2.12625
42.6175 0.344755 -2.12702
42.6566 0.479407 -2.12904
42.731 0.614822 -2.13284
42.8852 0.752118 -2.14064
43.2576 0.894913 -2.15936
