ply
format ascii 1.0
comment Created by Open3D
element vertex 1800
property double x
property double y
property double z
end_header
3.20769 0.241231 -1.48375
3.2081 0.251443 -1.4843
3.20848 0.261661 -1.48485
3.20885 0.271887 -1.48541
3.20921 0.282118 -1.48598
3.20973 0.292372 -1.48664
3.21122 0.302727 -1.48777
3.21269 0.313095 -1.4889
3.21415 0.323479 -1.49005
3.2156 0.333877 -1.4912
3.21703 0.344288 -1.49236
3.21845 0.354715 -1.49352
3.21985 0.365155 -1.4947
3.22123 0.37561 -1.49589
3.22261 0.38608 -1.49708
3.22396 0.396565 -1.49829
3.2253 0.407065 -1.4995
3.22663 0.417579 -1.50072
3.22794 0.428108 -1.50195
3.22923 0.438652 -1.50319
3.18816 -0.406668 -1.515
3.18688 -0.396289 -1.51379
3.18557 -0.385924 -1.51258
3.18425 -0.375574 -1.51139
3.18292 -0.365238 -1.5102
3.18157 -0.354916 -1.50902
3.18021 -0.344609 -1.50785
3.17883 -0.334315 -1.50669
3.17743 -0.324035 -1.50554
3.17602 -0.313769 -1.50439
3.1746 -0.303517 -1.50326
3.17316 -0.29328 -1.50213
3.17278 -0.283151 -1.50152
3.17245 -0.273034 -1.50095
3.1721 -0.262925 -1.50038
3.17174 -0.252821 -1.49983
3.17136 -0.242724 -1.49928
3.17097 -0.232632 -1.49874
3.17055 -0.222547 -1.4982
3.17012 -0.212467 -1.49767
3.16968 -0.202393 -1.49715
3.16922 -0.192325 -1.49664
3.16874 -0.182263 -1.49614
3.16824 -0.172207 -1.49564
3.16773 -0.162157 -1.49515
3.16721 -0.152112 -1.49467
3.16666 -0.142073 -1.49419
3.1661 -0.132039 -1.49372
3.16553 -0.122011 -1.49326
3.16493 -0.111989 -1.49281
3.16432 -0.101972 -1.49236
3.1637 -0.0919601 -1.49192
3.16306 -0.0819535 -1.49149
3.16245 -0.0719544 -1.49109
3.16188 -0.0619598 -1.49072
3.16128 -0.0519711 -1.49036
3.16068 -0.0419859 -1.49
3.16005 -0.0320052 -1.48965
3.15941 -0.0220299 -1.48931
3.15875 -0.0120582 -1.48897
3.15807 -0.00209208 -1.48864
3.15847 0.00787403 -1.48883
3.15913 0.0178431 -1.48916
3.15978 0.0278174 -1.4895
3.16041 0.0377961 -1.48985
3.16103 0.0477785 -1.49021
3.16163 0.0577663 -1.49057
3.16221 0.0677579 -1.49094
3.16278 0.0777549 -1.49131
3.16343 0.0877593 -1.49174
3.16406 0.0977682 -1.49218
3.16468 0.107783 -1.49262
3.16528 0.117803 -1.49307
3.16586 0.127829 -1.49353
3.16643 0.13786 -1.49399
3.16698 0.147897 -1.49447
3.16751 0.15794 -1.49495
3.16803 0.167987 -1.49543
3.16853 0.178041 -1.49593
3.16902 0.1881 -1.49643
3.16949 0.198166 -1.49694
3.16994 0.208237 -1.49746
3.17037 0.218314 -1.49798
3.17079 0.228398 -1.49851
3.1712 0.238486 -1.49905
3.17158 0.248582 -1.4996
3.17195 0.258682 -1.50015
3.17231 0.26879 -1.50071
3.17264 0.278904 -1.50128
3.17297 0.289023 -1.50185
3.174 0.299218 -1.50278
3.17543 0.309464 -1.50391
3.17684 0.319724 -1.50505
3.17824 0.329998 -1.5062
3.17963 0.340286 -1.50736
3.181 0.350588 -1.50853
3.18235 0.360903 -1.5097
3.1837 0.371233 -1.51089
3.18502 0.381577 -1.51208
3.18633 0.391936 -1.51328
3.18763 0.40231 -1.51449
3.18891 0.412697 -1.51571
3.19017 0.423099 -1.51694
3.19142 0.433516 -1.51818
3.15105 -0.401934 -1.52976
3.14981 -0.391679 -1.52855
3.14855 -0.381439 -1.52735
3.14728 -0.371212 -1.52615
3.14599 -0.361 -1.52497
3.14468 -0.350801 -1.52379
3.14336 -0.340616 -1.52262
3.14203 -0.330444 -1.52146
3.14068 -0.320286 -1.52031
3.13931 -0.310142 -1.51917
3.13793 -0.300011 -1.51804
3.13705 -0.289942 -1.51716
3.13675 -0.279936 -1.51658
3.13644 -0.269935 -1.51601
3.13611 -0.259942 -1.51545
3.13577 -0.249953 -1.51489
3.1354 -0.239972 -1.51435
3.13503 -0.229995 -1.51381
3.13463 -0.220025 -1.51327
3.13422 -0.21006 -1.51275
3.13379 -0.200101 -1.51223
3.13335 -0.190149 -1.51172
3.13288 -0.180201 -1.51121
3.13241 -0.17026 -1.51071
3.13191 -0.160323 -1.51023
3.1314 -0.150392 -1.50974
3.13088 -0.140467 -1.50927
3.13034 -0.130547 -1.5088
3.12978 -0.120634 -1.50834
3.1292 -0.110724 -1.50789
3.12861 -0.100821 -1.50744
3.128 -0.0909226 -1.507
3.12738 -0.0810291 -1.50657
3.12674 -0.0711416 -1.50615
3.12608 -0.0612585 -1.50573
3.12541 -0.0513813 -1.50532
3.12472 -0.0415083 -1.50492
3.12403 -0.0316406 -1.50453
3.1234 -0.0217787 -1.50419
3.12276 -0.0119209 -1.50385
3.1221 -0.00206801 -1.50352
3.12249 0.00778432 -1.50371
3.12314 0.0176398 -1.50405
3.12377 0.0275003 -1.50439
3.12443 0.0373657 -1.50475
3.12512 0.0472358 -1.50515
3.1258 0.0571117 -1.50556
3.12647 0.0669918 -1.50597
3.12711 0.076878 -1.50639
3.12774 0.0867692 -1.50682
3.12836 0.0966649 -1.50726
3.12896 0.106567 -1.5077
3.12954 0.116473 -1.50815
3.1301 0.126385 -1.50861
3.13065 0.136302 -1.50907
3.13119 0.146225 -1.50954
3.1317 0.156154 -1.51002
3.1322 0.166087 -1.51051
3.13269 0.176027 -1.511
3.13315 0.185972 -1.5115
3.13361 0.195923 -1.51201
3.13404 0.205879 -1.51253
3.13446 0.215841 -1.51305
3.13486 0.225809 -1.51358
3.13525 0.235783 -1.51412
3.13562 0.245763 -1.51466
3.13597 0.255748 -1.51522
3.13631 0.26574 -1.51578
3.13663 0.275737 -1.51634
3.13693 0.285741 -1.51692
3.13735 0.295763 -1.51757
3.13873 0.305888 -1.51869
3.1401 0.316027 -1.51983
3.14146 0.326179 -1.52098
3.1428 0.336344 -1.52214
3.14413 0.346524 -1.5233
3.14544 0.356717 -1.52447
3.14674 0.366924 -1.52566
3.14802 0.377144 -1.52685
3.14928 0.38738 -1.52805
3.15053 0.397628 -1.52925
3.15177 0.407891 -1.53047
3.15299 0.418168 -1.53169
3.15419 0.428459 -1.53293
3.11124 -0.396856 -1.54268
3.1101 -0.386741 -1.5415
3.10893 -0.37664 -1.54032
3.10775 -0.36655 -1.53915
3.10654 -0.356474 -1.53799
3.10532 -0.346409 -1.53684
3.10407 -0.336358 -1.53569
3.1028 -0.326319 -1.53454
3.10151 -0.316293 -1.53341
3.10021 -0.306279 -1.53227
3.09858 -0.296249 -1.531
3.09835 -0.286366 -1.53043
3.09816 -0.276491 -1.5299
3.09794 -0.266622 -1.52937
3.0977 -0.256758 -1.52884
3.09745 -0.246899 -1.52832
3.09716 -0.237045 -1.52781
3.09686 -0.227195 -1.5273
3.09653 -0.217351 -1.52679
3.09618 -0.207511 -1.52629
3.09581 -0.197676 -1.52579
3.09542 -0.187847 -1.5253
3.095 -0.178022 -1.52481
3.09457 -0.168203 -1.52432
3.09411 -0.158388 -1.52384
3.09362 -0.148578 -1.52337
3.09312 -0.138773 -1.5229
3.0926 -0.128973 -1.52243
3.09205 -0.119179 -1.52197
3.09148 -0.109389 -1.52151
3.09089 -0.0996055 -1.52106
3.09027 -0.0898258 -1.52061
3.08964 -0.0800512 -1.52016
3.08898 -0.0702825 -1.51972
3.0883 -0.0605181 -1.51929
3.0876 -0.0507597 -1.51886
3.08688 -0.0410056 -1.51843
3.08614 -0.0312566 -1.51801
3.08537 -0.0215137 -1.51759
3.08458 -0.0117751 -1.51718
3.084 -0.00204262 -1.51688
3.08425 0.00768906 -1.51701
3.08504 0.0174246 -1.51742
3.08582 0.0271662 -1.51783
3.08657 0.036913 -1.51825
3.0873 0.0466641 -1.51868
3.08801 0.0564213 -1.51911
3.0887 0.0661827 -1.51954
3.08937 0.07595 -1.51998
3.09001 0.0857225 -1.52042
3.09063 0.0954992 -1.52087
3.09123 0.105282 -1.52132
3.09181 0.115069 -1.52177
3.09237 0.124862 -1.52223
3.0929 0.134659 -1.5227
3.09342 0.144462 -1.52317
3.09391 0.154269 -1.52364
3.09437 0.164082 -1.52412
3.09482 0.1739 -1.5246
3.09525 0.183722 -1.52509
3.09565 0.19355 -1.52558
3.09603 0.203382 -1.52608
3.09639 0.213219 -1.52658
3.09672 0.223062 -1.52708
3.09704 0.232909 -1.52759
3.09733 0.242762 -1.52811
3.0976 0.252619 -1.52863
3.09785 0.262481 -1.52915
3.09807 0.272348 -1.52968
3.09827 0.28222 -1.53021
3.09845 0.292097 -1.53075
3.09964 0.302077 -1.53179
3.10097 0.312088 -1.53293
3.10226 0.322109 -1.53406
3.10354 0.332142 -1.53521
3.10479 0.342189 -1.53635
3.10603 0.352247 -1.53751
3.10724 0.362319 -1.53867
3.10844 0.372402 -1.53983
3.10961 0.382499 -1.541
3.11076 0.392609 -1.54218
3.1119 0.40273 -1.54336
3.11301 0.412866 -1.54455
3.1141 0.423012 -1.54575
3.06454 -0.390899 -1.55154
3.06345 -0.38094 -1.55037
3.06233 -0.370994 -1.54921
3.0612 -0.36106 -1.54805
3.06005 -0.351139 -1.5469
3.05888 -0.341229 -1.54575
3.05768 -0.331332 -1.54461
3.05624 -0.321422 -1.54337
3.05453 -0.311501 -1.542
3.0528 -0.301596 -1.54064
3.05173 -0.29177 -1.53962
3.05158 -0.282042 -1.53909
3.0514 -0.272319 -1.53856
3.05121 -0.2626 -1.53804
3.05099 -0.252886 -1.53752
3.05075 -0.243176 -1.537
3.05048 -0.233472 -1.53649
3.0502 -0.223772 -1.53598
3.04989 -0.214077 -1.53548
3.04956 -0.204387 -1.53498
3.04921 -0.194701 -1.53449
3.04884 -0.18502 -1.534
3.04845 -0.175344 -1.53352
3.04803 -0.165673 -1.53304
3.04759 -0.156007 -1.53256
3.04713 -0.146345 -1.53209
3.04665 -0.136689 -1.53162
3.04615 -0.127036 -1.53116
3.04562 -0.11739 -1.5307
3.04507 -0.107748 -1.53025
3.04451 -0.0981109 -1.5298
3.04392 -0.0884783 -1.52936
3.0433 -0.0788507 -1.52892
3.04267 -0.0692288 -1.52848
3.04201 -0.0596111 -1.52805
3.04134 -0.0499991 -1.52762
3.04064 -0.0403913 -1.5272
3.04021 -0.0307915 -1.52693
3.03983 -0.0211962 -1.5267
3.03944 -0.0116027 -1.52647
3.03902 -0.00201283 -1.52625
3.03926 0.00757666 -1.52638
3.03967 0.0171683 -1.5266
3.04005 0.0267632 -1.52683
3.04042 0.0363609 -1.52706
3.04105 0.045965 -1.52745
3.04173 0.0555757 -1.52787
3.0424 0.0651905 -1.5283
3.04304 0.0748111 -1.52873
3.04366 0.0844366 -1.52917
3.04426 0.0940664 -1.52961
3.04484 0.103702 -1.53006
3.04539 0.113341 -1.53051
3.04593 0.122987 -1.53097
3.04644 0.132636 -1.53143
3.04693 0.142291 -1.53189
3.0474 0.151951 -1.53236
3.04785 0.161615 -1.53284
3.04827 0.171284 -1.53332
3.04868 0.180958 -1.5338
3.04906 0.190637 -1.53428
3.04942 0.20032 -1.53478
3.04976 0.210009 -1.53527
3.05007 0.219702 -1.53577
3.05037 0.229399 -1.53628
3.05064 0.239102 -1.53679
3.05089 0.248809 -1.5373
3.05112 0.258522 -1.53782
3.05132 0.268239 -1.53834
3.05151 0.27796 -1.53887
3.05167 0.287686 -1.5394
3.05207 0.297441 -1.54007
3.0538 0.307341 -1.54143
3.05552 0.317256 -1.54279
3.05717 0.32718 -1.54414
3.05838 0.337073 -1.54527
3.05956 0.346977 -1.54642
3.06072 0.356894 -1.54757
3.06186 0.366822 -1.54872
3.06298 0.376764 -1.54988
3.06408 0.386717 -1.55105
3.06516 0.396682 -1.55222
3.06622 0.40666 -1.5534
3.06726 0.41665 -1.55458
3.01884 -0.38507 -1.56021
3.0178 -0.375264 -1.55905
3.01674 -0.365471 -1.5579
3.01566 -0.355688 -1.55675
3.01438 -0.345898 -1.55552
3.01279 -0.336088 -1.55415
3.01119 -0.326294 -1.55278
3.00956 -0.316513 -1.55142
3.00792 -0.306748 -1.55007
3.00626 -0.296998 -1.54872
3.00595 -0.287393 -1.54809
3.00582 -0.277813 -1.54756
3.00566 -0.268236 -1.54704
3.00548 -0.258664 -1.54652
3.00528 -0.249098 -1.546
3.00506 -0.239535 -1.54549
3.00482 -0.229977 -1.54498
3.00455 -0.220423 -1.54448
3.00426 -0.210875 -1.54399
3.00395 -0.20133 -1.54349
3.00362 -0.19179 -1.543
3.00327 -0.182255 -1.54252
3.0029 -0.172724 -1.54204
3.0025 -0.163199 -1.54156
3.00208 -0.153677 -1.54109
3.00164 -0.14416 -1.54063
3.00118 -0.134649 -1.54016
3.0007 -0.125141 -1.53971
3.0002 -0.115639 -1.53925
2.99967 -0.106141 -1.5388
2.99912 -0.0966484 -1.53836
2.99856 -0.0871598 -1.53792
2.99797 -0.077676 -1.53748
2.99737 -0.068198 -1.53706
2.99709 -0.0587307 -1.53681
2.99679 -0.0492667 -1.53657
2.99647 -0.0398046 -1.53633
2.99613 -0.030345 -1.5361
2.99576 -0.0208889 -1.53587
2.99538 -0.0114345 -1.53565
2.99497 -0.00198365 -1.53543
2.99521 0.007467 -1.53556
2.9956 0.0169194 -1.53578
2.99598 0.0263753 -1.53601
2.99633 0.0358339 -1.53624
2.99666 0.0452939 -1.53647
2.99696 0.0547578 -1.53671
2.99725 0.0642233 -1.53695
2.99771 0.0736967 -1.5373
2.99831 0.0831785 -1.53774
2.99889 0.0926644 -1.53817
2.99944 0.102156 -1.53862
2.99998 0.111651 -1.53906
3.00049 0.121152 -1.53952
3.00098 0.130657 -1.53997
3.00145 0.140167 -1.54043
3.0019 0.149682 -1.5409
3.00233 0.159201 -1.54137
3.00273 0.168725 -1.54184
3.00312 0.178253 -1.54232
3.00348 0.187787 -1.5428
3.00382 0.197324 -1.54329
3.00414 0.206867 -1.54378
3.00443 0.216414 -1.54427
3.00471 0.225966 -1.54477
3.00496 0.235522 -1.54528
3.00519 0.245082 -1.54579
3.0054 0.254648 -1.5463
3.00559 0.264218 -1.54682
3.00575 0.273792 -1.54734
3.0059 0.283371 -1.54787
3.00602 0.292954 -1.5484
3.00722 0.302653 -1.5495
3.00888 0.312413 -1.55085
3.01051 0.322186 -1.55221
3.01212 0.331975 -1.55357
3.01371 0.341778 -1.55494
3.0152 0.351586 -1.55627
3.01629 0.361362 -1.55742
3.01736 0.371152 -1.55857
3.01841 0.380953 -1.55972
3.01944 0.390765 -1.56088
3.02045 0.40059 -1.56205
3.02144 0.410425 -1.56323
2.97412 -0.379365 -1.5687
2.97298 -0.36969 -1.56747
2.97151 -0.359992 -1.5661
2.97003 -0.350307 -1.56472
2.96853 -0.340637 -1.56336
2.96701 -0.330981 -1.562
2.96547 -0.32134 -1.56065
2.96391 -0.311712 -1.5593
2.96233 -0.302099 -1.55796
2.96125 -0.292551 -1.5569
2.96115 -0.28311 -1.55637
2.96104 -0.273674 -1.55585
2.9609 -0.264242 -1.55533
2.96074 -0.254813 -1.55482
2.96055 -0.24539 -1.55431
2.96035 -0.235971 -1.5538
2.96012 -0.226556 -1.5533
2.95988 -0.217146 -1.5528
2.95961 -0.20774 -1.55231
2.95932 -0.198338 -1.55182
2.95901 -0.188941 -1.55134
2.95867 -0.179548 -1.55086
2.95832 -0.17016 -1.55038
2.95794 -0.160777 -1.54991
2.95754 -0.151397 -1.54944
2.95712 -0.142022 -1.54898
2.95668 -0.132652 -1.54852
2.95622 -0.123286 -1.54807
2.95574 -0.113925 -1.54762
2.95523 -0.104568 -1.54718
2.95481 -0.0952205 -1.54679
2.95461 -0.0858825 -1.54654
2.95438 -0.0765468 -1.54628
2.95414 -0.0672144 -1.54604
2.95387 -0.0578838 -1.54579
2.95358 -0.0485564 -1.54555
2.95327 -0.0392307 -1.54532
2.95294 -0.0299076 -1.54509
2.95259 -0.0205878 -1.54486
2.95222 -0.0112698 -1.54464
2.95182 -0.00195508 -1.54443
2.95205 0.00735926 -1.54455
2.95244 0.0166757 -1.54477
2.9528 0.0259952 -1.54499
2.95314 0.0353171 -1.54522
2.95345 0.044641 -1.54545
2.95375 0.053968 -1.54569
2.95403 0.063297 -1.54593
2.95428 0.0726293 -1.54618
2.95452 0.0819636 -1.54643
2.95473 0.0913 -1.54668
2.95501 0.100642 -1.54699
2.95553 0.109997 -1.54743
2.95602 0.119356 -1.54788
2.95649 0.12872 -1.54833
2.95694 0.138088 -1.54879
2.95737 0.147461 -1.54925
2.95778 0.156838 -1.54971
2.95816 0.16622 -1.55018
2.95852 0.175606 -1.55066
2.95887 0.184998 -1.55113
2.95919 0.194392 -1.55162
2.95949 0.203793 -1.5521
2.95977 0.213197 -1.55259
2.96002 0.222605 -1.55309
2.96026 0.232018 -1.55359
2.96047 0.241435 -1.55409
2.96066 0.250857 -1.5546
2.96083 0.260284 -1.55511
2.96098 0.269714 -1.55563
2.96111 0.279149 -1.55615
2.96121 0.288587 -1.55668
2.96166 0.298068 -1.5574
2.96325 0.307675 -1.55874
2.96482 0.317296 -1.56008
2.96637 0.326932 -1.56143
2.9679 0.336582 -1.56279
2.96941 0.346246 -1.56415
2.97089 0.355924 -1.56552
2.97236 0.365617 -1.56689
2.9737 0.375311 -1.56822
2.97468 0.384973 -1.56937
2.97564 0.394648 -1.57052
2.97659 0.404333 -1.57168
2.92932 -0.373651 -1.57647
2.92794 -0.36409 -1.5751
2.92654 -0.354543 -1.57374
2.92512 -0.345009 -1.57238
2.92368 -0.33549 -1.57103
2.92222 -0.325984 -1.56968
2.92074 -0.316493 -1.56835
2.91924 -0.307014 -1.56701
2.91773 -0.29755 -1.56569
2.91738 -0.288217 -1.565
2.9173 -0.278917 -1.56448
2.9172 -0.269622 -1.56396
2.91707 -0.26033 -1.56345
2.91693 -0.251043 -1.56294
2.91676 -0.241761 -1.56243
2.91658 -0.232482 -1.56193
2.91637 -0.223207 -1.56144
2.91614 -0.213937 -1.56094
2.91589 -0.204671 -1.56046
2.91561 -0.195409 -1.55997
2.91532 -0.186151 -1.55949
2.915 -0.176898 -1.55902
2.91467 -0.167649 -1.55855
2.91431 -0.158405 -1.55808
2.91393 -0.149164 -1.55762
2.91353 -0.139928 -1.55716
2.91311 -0.130697 -1.55671
2.91288 -0.121479 -1.55638
2.91275 -0.112269 -1.55611
2.9126 -0.10306 -1.55584
2.91242 -0.0938544 -1.55559
2.91223 -0.0846505 -1.55533
2.91201 -0.075449 -1.55508
2.91178 -0.0662506 -1.55483
2.91152 -0.0570539 -1.55459
2.91124 -0.0478603 -1.55436
2.91094 -0.0386684 -1.55412
2.91062 -0.029479 -1.5539
2.91028 -0.0202928 -1.55367
2.90992 -0.0111083 -1.55345
2.90954 -0.00192707 -1.55324
2.90976 0.00725396 -1.55336
2.91013 0.0164365 -1.55358
2.91048 0.0256225 -1.5538
2.91081 0.034811 -1.55403
2.91112 0.0440008 -1.55426
2.9114 0.0531943 -1.55449
2.91167 0.0623894 -1.55473
2.91192 0.0715872 -1.55498
2.91214 0.0807879 -1.55522
2.91234 0.0899899 -1.55548
2.91253 0.0991955 -1.55573
2.91269 0.108402 -1.556
2.91283 0.117612 -1.55626
2.91295 0.126824 -1.55653
2.91336 0.136053 -1.55697
2.91377 0.145287 -1.55743
2.91415 0.154525 -1.55789
2.91452 0.163768 -1.55835
2.91487 0.173015 -1.55882
2.91519 0.182267 -1.55929
2.91549 0.191522 -1.55977
2.91577 0.200782 -1.56025
2.91604 0.210047 -1.56074
2.91627 0.219315 -1.56123
2.91649 0.228588 -1.56172
2.91669 0.237865 -1.56222
2.91686 0.247146 -1.56273
2.91701 0.256432 -1.56323
2.91715 0.265721 -1.56375
2.91726 0.275015 -1.56426
2.91735 0.284312 -1.56478
2.91741 0.293614 -1.56531
2.91861 0.30304 -1.56646
2.92011 0.312512 -1.56779
2.9216 0.321998 -1.56912
2.92307 0.331498 -1.57046
2.92452 0.341012 -1.57181
2.92595 0.350539 -1.57317
2.92735 0.360081 -1.57453
2.92874 0.369636 -1.57589
2.93011 0.379205 -1.57727
2.93146 0.388788 -1.57864
2.93267 0.398368 -1.57997
2.88518 -0.368021 -1.58392
2.88386 -0.358609 -1.58256
2.88252 -0.349211 -1.58121
2.88116 -0.339825 -1.57987
2.87978 -0.330453 -1.57853
2.87838 -0.321094 -1.5772
2.87696 -0.311749 -1.57588
2.87552 -0.302416 -1.57456
2.87445 -0.293137 -1.57346
2.87441 -0.283972 -1.57294
2.87435 -0.274811 -1.57242
2.87426 -0.265654 -1.57191
2.87415 -0.2565 -1.5714
2.87403 -0.247351 -1.5709
2.87388 -0.238206 -1.5704
2.8737 -0.229064 -1.5699
2.87351 -0.219928 -1.56941
2.8733 -0.210794 -1.56892
2.87307 -0.201665 -1.56844
2.87281 -0.19254 -1.56796
2.87253 -0.183419 -1.56748
2.87224 -0.174303 -1.56701
2.87192 -0.16519 -1.56655
2.87159 -0.156083 -1.56609
2.87155 -0.146995 -1.56581
2.87149 -0.137909 -1.56553
2.8714 -0.128826 -1.56526
2.8713 -0.119745 -1.56499
2.87118 -0.110666 -1.56472
2.87103 -0.101589 -1.56446
2.87087 -0.0925153 -1.5642
2.87068 -0.0834429 -1.56395
2.87048 -0.0743728 -1.5637
2.87025 -0.0653058 -1.56346
2.87 -0.0562403 -1.56322
2.86974 -0.047178 -1.56299
2.86945 -0.0381172 -1.56275
2.86914 -0.0290589 -1.56253
2.86881 -0.0200036 -1.56231
2.86846 -0.01095 -1.56209
2.86809 -0.00189961 -1.56188
2.8683 0.0071504 -1.562
2.86866 0.0162023 -1.56222
2.869 0.0252573 -1.56243
2.86932 0.034315 -1.56266
2.86962 0.0433735 -1.56289
2.86989 0.0524357 -1.56312
2.87015 0.0614998 -1.56336
2.87038 0.0705664 -1.5636
2.8706 0.0796357 -1.56385
2.87079 0.0887062 -1.5641
2.87097 0.09778 -1.56435
2.87112 0.106855 -1.56461
2.87125 0.115933 -1.56487
2.87136 0.125013 -1.56514
2.87145 0.134096 -1.56541
2.87153 0.143181 -1.56569
2.87157 0.152267 -1.56597
2.87178 0.161366 -1.56635
2.8721 0.170477 -1.56682
2.87241 0.179592 -1.56729
2.8727 0.188711 -1.56776
2.87296 0.197834 -1.56824
2.8732 0.206962 -1.56872
2.87343 0.216093 -1.5692
2.87363 0.225228 -1.56969
2.87381 0.234368 -1.57019
2.87396 0.243511 -1.57069
2.8741 0.252659 -1.57119
2.87422 0.26181 -1.5717
2.87431 0.270966 -1.57221
2.87439 0.280125 -1.57272
2.87444 0.289289 -1.57324
2.87491 0.298503 -1.57401
2.87636 0.307829 -1.57533
2.87779 0.317169 -1.57665
2.87919 0.326522 -1.57798
2.88058 0.335889 -1.57931
2.88195 0.345269 -1.58065
2.8833 0.354662 -1.582
2.88463 0.364069 -1.58335
2.88594 0.373489 -1.58471
2.88723 0.382922 -1.58607
2.8885 0.392368 -1.58744
2.84198 -0.36251 -1.59121
2.84071 -0.353243 -1.58987
2.83943 -0.34399 -1.58854
2.83812 -0.334748 -1.58721
2.8368 -0.325521 -1.58588
2.83545 -0.316305 -1.58457
2.83409 -0.307103 -1.58326
2.83271 -0.297913 -1.58195
2.83235 -0.288843 -1.58123
2.83232 -0.279814 -1.58072
2.83227 -0.270788 -1.5802
2.8322 -0.261766 -1.57969
2.8321 -0.252748 -1.57919
2.83199 -0.243733 -1.57869
2.83186 -0.234723 -1.5782
2.8317 -0.225716 -1.5777
2.83153 -0.216714 -1.57722
2.83133 -0.207715 -1.57673
2.83111 -0.198721 -1.57626
2.83087 -0.189729 -1.57578
2.83076 -0.180752 -1.57539
2.83079 -0.171788 -1.5751
2.83079 -0.162825 -1.57481
2.83078 -0.153865 -1.57453
2.83075 -0.144906 -1.57425
2.8307 -0.13595 -1.57397
2.83062 -0.126996 -1.5737
2.83053 -0.118044 -1.57343
2.83041 -0.109095 -1.57317
2.83028 -0.100147 -1.57291
2.83012 -0.0912022 -1.57265
2.82994 -0.0822588 -1.5724
2.82975 -0.0733175 -1.57216
2.82953 -0.0643793 -1.57192
2.82929 -0.0554426 -1.57168
2.82903 -0.0465089 -1.57145
2.82876 -0.0375767 -1.57122
2.82846 -0.0286468 -1.57099
2.82814 -0.01972 -1.57077
2.8278 -0.0107948 -1.57056
2.82744 -0.00187269 -1.57035
2.82765 0.00704924 -1.57047
2.828 0.0159728 -1.57068
2.82833 0.0248994 -1.5709
2.82863 0.0338283 -1.57112
2.82892 0.0427586 -1.57135
2.82919 0.0516922 -1.57158
2.82943 0.0606274 -1.57182
2.82966 0.0695652 -1.57206
2.82986 0.0785056 -1.5723
2.83005 0.087447 -1.57255
2.83021 0.0963918 -1.5728
2.83036 0.105338 -1.57306
2.83048 0.114287 -1.57332
2.83059 0.123238 -1.57358
2.83067 0.132191 -1.57385
2.83073 0.141147 -1.57413
2.83077 0.150104 -1.57441
2.83079 0.159063 -1.57469
2.83079 0.168024 -1.57498
2.83077 0.176989 -1.57527
2.83076 0.185956 -1.57558
2.83101 0.194946 -1.57606
2.83124 0.203939 -1.57653
2.83145 0.212936 -1.57701
2.83163 0.221937 -1.5775
2.83179 0.230941 -1.57799
2.83194 0.23995 -1.57848
2.83206 0.248963 -1.57898
2.83216 0.25798 -1.57948
2.83224 0.267 -1.57999
2.8323 0.276024 -1.5805
2.83234 0.285052 -1.58101
2.83235 0.294084 -1.58153
2.83351 0.303244 -1.58271
2.83488 0.312441 -1.58402
2.83623 0.32165 -1.58533
2.83757 0.330873 -1.58665
2.83888 0.340108 -1.58798
2.84017 0.349357 -1.58931
2.84145 0.358619 -1.59065
2.8427 0.367892 -1.59199
2.84394 0.37718 -1.59334
2.84515 0.386479 -1.5947
2.79966 -0.357112 -1.59835
2.79845 -0.347988 -1.59703
2.79722 -0.338876 -1.59571
2.79597 -0.329776 -1.59439
2.7947 -0.32069 -1.59308
2.79341 -0.311615 -1.59178
2.7921 -0.302553 -1.59048
2.79107 -0.293535 -1.58936
2.79108 -0.284635 -1.58885
2.79107 -0.275738 -1.58834
2.79103 -0.266845 -1.58783
2.79097 -0.257956 -1.58732
2.7909 -0.24907 -1.58683
2.7908 -0.240188 -1.58633
2.79068 -0.23131 -1.58584
2.79054 -0.222435 -1.58535
2.79038 -0.213565 -1.58487
2.79048 -0.204718 -1.58456
2.79058 -0.195876 -1.58425
2.79066 -0.187034 -1.58395
2.79071 -0.178195 -1.58366
2.79075 -0.169358 -1.58337
2.79076 -0.160522 -1.58308
2.79076 -0.151689 -1.5828
2.79073 -0.142858 -1.58252
2.79069 -0.134028 -1.58225
2.79062 -0.125202 -1.58198
2.79053 -0.116376 -1.58171
2.79043 -0.107554 -1.58145
2.7903 -0.0987325 -1.5812
2.79015 -0.0899142 -1.58094
2.78998 -0.0810972 -1.5807
2.7898 -0.0722824 -1.58045
2.78959 -0.0634705 -1.58021
2.78936 -0.0546601 -1.57998
2.78911 -0.0458525 -1.57975
2.78884 -0.0370465 -1.57952
2.78855 -0.0282427 -1.5793
2.78824 -0.0194419 -1.57908
2.78791 -0.0106426 -1.57887
2.78756 -0.00184628 -1.57866
2.78777 0.00694977 -1.57878
2.78811 0.0157475 -1.57899
2.78843 0.0245481 -1.57921
2.78872 0.0333509 -1.57943
2.789 0.0421553 -1.57965
2.78926 0.0509627 -1.57988
2.7895 0.0597715 -1.58011
2.78971 0.0685833 -1.58035
2.78991 0.0773973 -1.58059
2.79008 0.0862125 -1.58084
2.79024 0.0950307 -1.58109
2.79038 0.10385 -1.58134
2.79049 0.112673 -1.5816
2.79059 0.121496 -1.58187
2.79066 0.130323 -1.58213
2.79071 0.139152 -1.58241
2.79075 0.147982 -1.58268
2.79076 0.156814 -1.58296
2.79076 0.165648 -1.58325
2.79073 0.174485 -1.58354
2.79068 0.183323 -1.58383
2.79061 0.192164 -1.58413
2.79053 0.201006 -1.58443
2.79042 0.20985 -1.58474
2.79047 0.218711 -1.58515
2.79062 0.227584 -1.58564
2.79075 0.236461 -1.58612
2.79086 0.245341 -1.58662
2.79094 0.254225 -1.58711
2.79101 0.263113 -1.58762
2.79105 0.272004 -1.58812
2.79108 0.2809 -1.58863
2.79108 0.289799 -1.58915
2.79154 0.298752 -1.58994
2.79286 0.30781 -1.59123
2.79416 0.316879 -1.59253
2.79544 0.325961 -1.59384
2.7967 0.335054 -1.59515
2.79794 0.344162 -1.59647
2.79915 0.353281 -1.5978
2.80036 0.362412 -1.59913
2.80154 0.371556 -1.60046
2.8027 0.380712 -1.6018
2.7582 -0.351824 -1.60535
2.75704 -0.342839 -1.60404
2.75586 -0.333866 -1.60273
2.75467 -0.324905 -1.60143
2.75345 -0.315957 -1.60014
2.75221 -0.307019 -1.59885
2.75096 -0.298095 -1.59756
2.75061 -0.289279 -1.59682
2.75063 -0.280509 -1.59631
2.75063 -0.271743 -1.59581
2.7506 -0.26298 -1.5953
2.75056 -0.254221 -1.5948
2.7505 -0.245465 -1.59431
2.75056 -0.236724 -1.5939
2.75074 -0.228 -1.59359
2.75091 -0.219276 -1.59327
2.75105 -0.210554 -1.59296
2.75117 -0.201834 -1.59266
2.75127 -0.193117 -1.59236
2.75136 -0.1844 -1.59206
2.75142 -0.175686 -1.59177
2.75146 -0.166974 -1.59148
2.75148 -0.158263 -1.59119
2.75149 -0.149555 -1.59092
2.75147 -0.140848 -1.59064
2.75143 -0.132143 -1.59037
2.75137 -0.123441 -1.5901
2.75129 -0.11474 -1.58984
2.75119 -0.106041 -1.58958
2.75107 -0.0973445 -1.58933
2.75093 -0.0886503 -1.58908
2.75078 -0.0799575 -1.58883
2.7506 -0.0712667 -1.58859
2.7504 -0.0625788 -1.58835
2.75018 -0.0538922 -1.58812
2.74994 -0.0452085 -1.58789
2.74968 -0.0365262 -1.58767
2.7494 -0.0278461 -1.58745
2.7491 -0.0191689 -1.58723
2.74878 -0.0104932 -1.58702
2.74844 -0.00182037 -1.58681
2.74864 0.0068524 -1.58693
2.74897 0.0155265 -1.58714
2.74927 0.0242036 -1.58736
2.74956 0.0328825 -1.58757
2.74983 0.0415632 -1.5878
2.75008 0.050247 -1.58802
2.75031 0.0589319 -1.58825
2.75051 0.0676196 -1.58849
2.7507 0.0763094 -1.58873
2.75087 0.0850007 -1.58897
2.75102 0.0936949 -1.58922
2.75114 0.10239 -1.58947
2.75125 0.111088 -1.58973
2.75134 0.119788 -1.58999
2.75141 0.12849 -1.59026
2.75145 0.137194 -1.59053
2.75148 0.145899 -1.5908
2.75149 0.154607 -1.59108
2.75147 0.163316 -1.59136
2.75144 0.172029 -1.59165
2.75139 0.180741 -1.59194
2.75131 0.189457 -1.59223
2.75122 0.198175 -1.59253
2.7511 0.206893 -1.59283
2.75097 0.215615 -1.59314
2.75081 0.224337 -1.59345
2.75064 0.233062 -1.59377
2.75046 0.24179 -1.5941
2.75054 0.250544 -1.5946
2.75059 0.259303 -1.59509
2.75062 0.268064 -1.59559
2.75063 0.276829 -1.5961
2.75062 0.285598 -1.59661
2.75059 0.294369 -1.59712
2.75169 0.303272 -1.59831
2.75293 0.312203 -1.59959
2.75416 0.321147 -1.60089
2.75536 0.330103 -1.60219
2.75655 0.339071 -1.60349
2.75772 0.348051 -1.6048
2.75887 0.357043 -1.60612
2.76 0.366047 -1.60744
2.76111 0.375063 -1.60877
3.63657 -0.836455 -1.91304
3.60352 -0.852753 -1.93748
3.53879 -0.825691 -1.90126
3.50628 -0.806487 -1.88242
3.51385 -0.843209 -1.9291
3.47344 -0.82197 -1.90549
3.43396 -0.801232 -1.88244
3.39538 -0.780978 -1.85993
3.47946 -0.858136 -1.95159
3.43992 -0.836918 -1.92793
3.40127 -0.816195 -1.90482
3.36348 -0.795948 -1.88224
3.32653 -0.776164 -1.86019
3.30843 -0.76098 -1.84872
3.40572 -0.851319 -1.94972
3.36791 -0.830624 -1.92657
3.33093 -0.810401 -1.90395
3.29721 -0.791223 -1.88324
3.28497 -0.777368 -1.87485
3.27281 -0.76363 -1.86653
3.26074 -0.750009 -1.85829
3.33389 -0.844513 -1.94769
3.29773 -0.824326 -1.92504
3.27325 -0.807278 -1.90925
3.26123 -0.793444 -1.90078
3.2493 -0.779726 -1.89239
3.23744 -0.766121 -1.88407
3.22567 -0.752631 -1.87583
3.21397 -0.739253 -1.86767
3.2639 -0.837714 -1.94549
3.24901 -0.823012 -1.93507
3.23722 -0.809201 -1.92652
3.22551 -0.795505 -1.91805
3.21388 -0.781924 -1.90966
3.20162 -0.768286 -1.90093
3.18898 -0.754654 -1.89201
3.17643 -0.741143 -1.88317
3.16397 -0.727752 -1.87442
5.17376 -0.344207 -1.45889
5.16318 -0.327274 -1.45561
5.15257 -0.310411 -1.45234
5.14217 -0.293634 -1.44914
5.1329 -0.276989 -1.44627
5.12777 -0.260618 -1.44459
5.12364 -0.244331 -1.44321
5.11945 -0.228073 -1.44182
5.1152 -0.211843 -1.44043
5.11088 -0.195642 -1.43903
5.10651 -0.17947 -1.43763
5.10207 -0.163325 -1.43623
5.09757 -0.14721 -1.43483
5.09301 -0.131126 -1.43343
5.08839 -0.115069 -1.43202
5.08371 -0.0990443 -1.43061
5.07898 -0.0830497 -1.42919
5.07418 -0.0670855 -1.42778
5.0695 -0.051154 -1.42641
5.06512 -0.0352533 -1.42514
5.06068 -0.0193819 -1.42386
5.05617 -0.00353871 -1.42259
5.05867 0.0122932 -1.42329
5.06314 0.0281538 -1.42457
5.06755 0.0440406 -1.42584
5.07201 0.0599561 -1.42714
5.15012 -0.619132 -1.50609
5.1334 -0.600829 -1.50064
5.11673 -0.582649 -1.49523
5.10012 -0.564591 -1.48985
5.07388 -0.545616 -1.48168
5.05732 -0.527827 -1.47635
5.04806 -0.510894 -1.47317
5.03877 -0.494024 -1.47
5.02945 -0.477221 -1.46684
5.02009 -0.460484 -1.46369
5.01071 -0.443812 -1.46054
5.00129 -0.427204 -1.45739
4.99184 -0.410662 -1.45426
4.98237 -0.394186 -1.45113
4.97325 -0.377805 -1.44813
4.96499 -0.36155 -1.44539
4.95671 -0.345353 -1.44265
4.94838 -0.329213 -1.43992
4.94002 -0.313129 -1.4372
4.93163 -0.297101 -1.43448
4.9232 -0.28113 -1.43176
4.91474 -0.265216 -1.42905
4.90752 -0.249424 -1.42672
4.90376 -0.233846 -1.42541
4.89996 -0.218295 -1.4241
4.89609 -0.202769 -1.42278
4.89216 -0.18727 -1.42146
4.88818 -0.171796 -1.42014
4.88414 -0.156348 -1.41882
4.88034 -0.140937 -1.41758
4.87667 -0.125556 -1.41639
4.87294 -0.110197 -1.4152
4.86915 -0.0948641 -1.41401
4.8653 -0.0795558 -1.41281
4.8614 -0.0642724 -1.41161
4.85744 -0.0490141 -1.41041
4.85342 -0.0337799 -1.40921
4.84934 -0.0185725 -1.408
4.84521 -0.00339106 -1.40679
4.8475 0.0117801 -1.40746
4.8516 0.026977 -1.40867
4.85565 0.0421987 -1.40987
4.85964 0.0574458 -1.41108
4.97692 -0.629944 -1.50188
4.95673 -0.611629 -1.4952
4.94137 -0.594037 -1.49
4.91765 -0.575576 -1.4823
4.89029 -0.556863 -1.47352
4.86318 -0.538361 -1.46483
4.84439 -0.520937 -1.45868
4.83602 -0.504731 -1.45567
4.82763 -0.488584 -1.45268
4.81919 -0.472496 -1.44969
4.81137 -0.456529 -1.4469
4.80406 -0.440668 -1.44428
4.79671 -0.424858 -1.44166
4.78933 -0.409098 -1.43905
4.7819 -0.393391 -1.43644
4.77444 -0.377736 -1.43384
4.76694 -0.362132 -1.43124
4.75941 -0.346579 -1.42865
4.75184 -0.331079 -1.42605
4.74423 -0.31563 -1.42347
4.73658 -0.300234 -1.42089
4.7289 -0.284888 -1.41831
4.72119 -0.269595 -1.41573
4.71344 -0.254353 -1.41316
4.70769 -0.239268 -1.41121
4.70496 -0.224365 -1.41017
4.70278 -0.20951 -1.40931
4.70055 -0.194671 -1.40846
4.6983 -0.179849 -1.40761
4.696 -0.165042 -1.40676
4.69367 -0.150251 -1.40591
4.6913 -0.135478 -1.40507
4.6889 -0.120721 -1.40423
4.68646 -0.10598 -1.40339
4.68398 -0.0912565 -1.40256
4.68147 -0.0765498 -1.40173
4.67892 -0.0618598 -1.4009
4.67633 -0.0471866 -1.40007
4.67371 -0.0325291 -1.39925
4.67105 -0.0178897 -1.39843
4.66835 -0.00326728 -1.39761
4.66985 0.0113484 -1.39806
4.67252 0.0259814 -1.39888
4.67516 0.0406302 -1.3997
4.67776 0.0552958 -1.40053
4.79039 -0.621573 -1.49003
4.76868 -0.603585 -1.48268
4.74319 -0.585279 -1.47418
4.71974 -0.567393 -1.46633
4.70093 -0.550211 -1.45994
4.68224 -0.533172 -1.45361
4.66859 -0.516819 -1.44886
4.66487 -0.501633 -1.44722
4.66066 -0.486429 -1.44543
4.65642 -0.471258 -1.44365
4.65215 -0.456118 -1.44188
4.64785 -0.441013 -1.44011
4.64352 -0.425941 -1.43835
4.63916 -0.410903 -1.43659
4.63476 -0.395896 -1.43484
4.63034 -0.380923 -1.4331
4.62589 -0.365983 -1.43136
4.62141 -0.351076 -1.42962
4.61689 -0.336201 -1.42789
4.61235 -0.32136 -1.42617
4.60778 -0.306553 -1.42445
4.60318 -0.291778 -1.42274
4.59855 -0.277035 -1.42104
4.59389 -0.262325 -1.41933
4.5892 -0.247649 -1.41764
4.58555 -0.23306 -1.41628
4.58393 -0.218593 -1.41556
4.58226 -0.204141 -1.41484
4.58056 -0.189701 -1.41413
4.57854 -0.175264 -1.41332
4.57637 -0.160838 -1.41249
4.57417 -0.146426 -1.41167
4.57193 -0.132031 -1.41084
4.56966 -0.117651 -1.41002
4.56735 -0.103286 -1.4092
4.565 -0.0889385 -1.40838
4.56262 -0.0746064 -1.40757
4.5602 -0.0602903 -1.40676
4.55775 -0.0459901 -1.40595
4.55526 -0.0317047 -1.40514
4.55274 -0.0174366 -1.40434
4.55018 -0.00318457 -1.40354
4.55159 0.011061 -1.40398
4.55414 0.0253231 -1.40479
4.55664 0.0396001 -1.40559
4.55911 0.0538932 -1.4064
4.92327 -0.670182 -1.57798
4.64861 -0.617978 -1.48932
4.63056 -0.600834 -1.48292
4.61261 -0.58383 -1.47658
4.59476 -0.566963 -1.47029
4.57702 -0.550235 -1.46406
4.56028 -0.533749 -1.45816
4.54812 -0.517901 -1.45375
4.54472 -0.503107 -1.45215
4.54128 -0.488343 -1.45055
4.5378 -0.473606 -1.44896
4.5343 -0.458898 -1.44738
4.53076 -0.444216 -1.4458
4.52674 -0.429522 -1.44408
4.52266 -0.414856 -1.44236
4.51856 -0.400221 -1.44064
4.51442 -0.385616 -1.43893
4.51026 -0.371044 -1.43723
4.50606 -0.356503 -1.43553
4.50184 -0.341993 -1.43383
4.49758 -0.327513 -1.43214
4.4933 -0.313066 -1.43046
4.48898 -0.298649 -1.42878
4.48464 -0.284264 -1.42711
4.48027 -0.269909 -1.42544
4.47587 -0.255586 -1.42378
4.47143 -0.241294 -1.42212
4.46968 -0.227171 -1.42133
4.46815 -0.213073 -1.42063
4.46658 -0.198988 -1.41992
4.46498 -0.184915 -1.41922
4.46334 -0.170855 -1.41853
4.46166 -0.156806 -1.41783
4.45995 -0.142769 -1.41714
4.45791 -0.128738 -1.41635
4.45576 -0.114719 -1.41555
4.45357 -0.100713 -1.41475
4.45135 -0.0867243 -1.41395
4.44909 -0.0727501 -1.41315
4.4468 -0.058791 -1.41236
4.44447 -0.044847 -1.41157
4.4421 -0.0309171 -1.41078
4.43971 -0.0170037 -1.40999
4.43727 -0.00310555 -1.40921
4.43862 0.0107865 -1.40964
4.44104 0.0246943 -1.41043
4.44342 0.0386162 -1.41121
4.44576 0.0525533 -1.412
5.25882 -0.749418 -1.73573
4.67548 -0.651361 -1.54251
4.5262 -0.616129 -1.49261
4.50917 -0.599441 -1.48637
4.49223 -0.582886 -1.48018
4.47539 -0.566462 -1.47404
4.4595 -0.550273 -1.46823
4.44436 -0.534287 -1.46269
4.43299 -0.518851 -1.45841
4.42984 -0.504431 -1.45684
4.42664 -0.490036 -1.45528
4.42342 -0.475669 -1.45372
4.42016 -0.461328 -1.45217
4.41687 -0.447014 -1.45062
4.41355 -0.432724 -1.44908
4.41019 -0.418463 -1.44754
4.4068 -0.404228 -1.446
4.40338 -0.390019 -1.44447
4.39958 -0.375807 -1.44284
4.39566 -0.361616 -1.44117
4.3917 -0.347455 -1.43951
4.38771 -0.333323 -1.43785
4.3837 -0.31922 -1.4362
4.37965 -0.305147 -1.43456
4.37558 -0.291104 -1.43292
4.37147 -0.277091 -1.43128
4.36734 -0.263106 -1.42965
4.36317 -0.249151 -1.42803
4.36035 -0.235299 -1.42685
4.35895 -0.221543 -1.42616
4.35751 -0.207796 -1.42547
4.35604 -0.194063 -1.42478
4.35453 -0.18034 -1.4241
4.35298 -0.16663 -1.42341
4.3514 -0.152931 -1.42273
4.34978 -0.139243 -1.42205
4.34812 -0.125567 -1.42138
4.34643 -0.111904 -1.4207
4.34471 -0.0982516 -1.42003
4.34266 -0.0846067 -1.41927
4.34052 -0.0709747 -1.41849
4.33834 -0.057357 -1.41771
4.33612 -0.0437538 -1.41694
4.33388 -0.0301639 -1.41616
4.3316 -0.0165896 -1.4154
4.32928 -0.00302997 -1.41463
4.33056 0.0105239 -1.41505
4.33286 0.0240927 -1.41582
4.33512 0.037675 -1.41659
4.33735 0.0512718 -1.41736
4.85252 -0.707022 -1.64758
4.51722 -0.643734 -1.53304
4.40923 -0.614268 -1.49573
4.39315 -0.598017 -1.48963
4.37716 -0.581891 -1.48358
4.36207 -0.565997 -1.47786
4.3477 -0.5503 -1.4724
4.33339 -0.534712 -1.46698
4.32284 -0.519678 -1.46285
4.31991 -0.505615 -1.46132
4.31695 -0.491576 -1.45979
4.31396 -0.477561 -1.45827
4.31093 -0.463573 -1.45675
4.30788 -0.449609 -1.45523
4.30478 -0.43567 -1.45372
4.30166 -0.421755 -1.45221
4.29851 -0.407865 -1.45071
4.29532 -0.394002 -1.44921
4.2921 -0.380162 -1.44771
4.28884 -0.366348 -1.44622
4.28556 -0.352559 -1.44474
4.28224 -0.338795 -1.44325
4.27866 -0.325039 -1.44169
4.27486 -0.311295 -1.44008
4.27104 -0.29758 -1.43847
4.26719 -0.283893 -1.43687
4.2633 -0.270235 -1.43527
4.25939 -0.256602 -1.43367
4.25561 -0.243009 -1.43214
4.25433 -0.229578 -1.43146
4.25301 -0.216159 -1.43078
4.25166 -0.202749 -1.4301
4.25027 -0.189351 -1.42943
4.24885 -0.175964 -1.42876
4.24739 -0.162588 -1.42809
4.24589 -0.149223 -1.42742
4.24436 -0.135868 -1.42676
4.2428 -0.122526 -1.4261
4.24119 -0.109195 -1.42544
4.23956 -0.0958738 -1.42478
4.23789 -0.0825652 -1.42412
4.23618 -0.0692688 -1.42347
4.23444 -0.0559833 -1.42282
4.23239 -0.042707 -1.42208
4.23025 -0.0294426 -1.42132
4.22808 -0.0161932 -1.42057
4.22587 -0.0029576 -1.41982
4.2271 0.0102724 -1.42023
4.22928 0.0235168 -1.42099
4.23144 0.0367739 -1.42174
4.23356 0.0500448 -1.4225
5.12677 -0.779785 -1.79041
4.61757 -0.687555 -1.61183
4.37022 -0.636748 -1.52478
4.29732 -0.612396 -1.49867
4.28213 -0.596561 -1.49271
4.26783 -0.580958 -1.48709
4.25419 -0.565544 -1.48171
4.24059 -0.550235 -1.47637
4.22706 -0.53503 -1.47107
4.21731 -0.520389 -1.4671
4.21461 -0.506667 -1.4656
4.21186 -0.492969 -1.4641
4.20909 -0.479294 -1.46261
4.20628 -0.465641 -1.46112
4.20344 -0.452013 -1.45964
4.20057 -0.438409 -1.45815
4.19766 -0.424828 -1.45668
4.19472 -0.41127 -1.4552
4.19176 -0.397736 -1.45373
4.18875 -0.384227 -1.45227
4.18572 -0.370741 -1.45081
4.18266 -0.357277 -1.44935
4.17956 -0.343839 -1.4479
4.17643 -0.330424 -1.44645
4.17327 -0.317033 -1.44501
4.17008 -0.303665 -1.44356
4.16686 -0.290321 -1.44213
4.16347 -0.276993 -1.44065
4.1598 -0.263673 -1.43908
4.15609 -0.250379 -1.43752
4.15399 -0.237206 -1.43653
4.15279 -0.224099 -1.43587
4.15155 -0.211002 -1.4352
4.15027 -0.197914 -1.43454
4.14897 -0.184838 -1.43388
4.14762 -0.171772 -1.43322
4.14624 -0.158716 -1.43257
4.14483 -0.145671 -1.43192
4.14338 -0.132635 -1.43127
4.1419 -0.119612 -1.43062
4.14038 -0.106599 -1.42997
4.13883 -0.0935957 -1.42933
4.13725 -0.0806046 -1.42869
4.13563 -0.0676242 -1.42805
4.13397 -0.054655 -1.42741
4.13228 -0.0416968 -1.42677
4.13056 -0.0287487 -1.42614
4.1288 -0.0158128 -1.42551
4.12675 -0.00288823 -1.42479
4.12792 0.0100314 -1.4252
4.12978 0.0229635 -1.42586
4.13152 0.0359055 -1.42649
4.13322 0.0488588 -1.42712
4.76792 -0.740481 -1.71091
4.4483 -0.676588 -1.59544
4.23027 -0.629885 -1.51653
4.19013 -0.610509 -1.50145
4.1766 -0.595193 -1.49593
4.16364 -0.580054 -1.49063
4.15073 -0.565017 -1.48537
4.13787 -0.55008 -1.48014
4.12505 -0.535243 -1.47495
4.11613 -0.52099 -1.47117
4.11362 -0.507594 -1.4697
4.11108 -0.494223 -1.46823
4.10851 -0.480872 -1.46677
4.10591 -0.467545 -1.46531
4.10327 -0.454238 -1.46385
4.1006 -0.440955 -1.4624
4.0979 -0.427694 -1.46095
4.09517 -0.414455 -1.45951
4.09241 -0.401238 -1.45807
4.08961 -0.388044 -1.45663
4.08721 -0.374913 -1.45535
4.08516 -0.361834 -1.45421
4.08309 -0.348773 -1.45308
4.081 -0.33573 -1.45195
4.07888 -0.322706 -1.45083
4.07675 -0.3097 -1.44972
4.07458 -0.296711 -1.44862
4.0724 -0.28374 -1.44752
4.0702 -0.270788 -1.44643
4.06797 -0.257853 -1.44534
4.06606 -0.244955 -1.44438
4.06526 -0.232139 -1.44383
4.06457 -0.219338 -1.44334
4.06384 -0.206544 -1.44284
4.06309 -0.193757 -1.44235
4.06232 -0.180978 -1.44187
4.06153 -0.168206 -1.4414
4.06071 -0.155442 -1.44092
4.05986 -0.142685 -1.44046
4.05899 -0.129934 -1.44
4.0581 -0.117192 -1.43954
4.05718 -0.104457 -1.4391
4.05623 -0.091728 -1.43865
4.05527 -0.0790075 -1.43821
4.05428 -0.0662942 -1.43778
4.05326 -0.053588 -1.43736
4.05222 -0.040889 -1.43693
4.05115 -0.0281961 -1.43652
4.05007 -0.0155114 -1.43611
4.04895 -0.00283378 -1.4357
4.04957 0.00984102 -1.43593
4.05067 0.0225236 -1.43633
4.05175 0.0352123 -1.43675
4.0528 0.0479081 -1.43717
4.95311 -0.801027 -1.82621
4.5463 -0.720644 -1.67538
4.30094 -0.667957 -1.58418
4.101 -0.623764 -1.50981
4.08821 -0.608733 -1.50439
4.07591 -0.593866 -1.49917
4.06723 -0.579606 -1.4953
4.06001 -0.565618 -1.49199
4.05281 -0.551688 -1.4887
4.0456 -0.537815 -1.48543
4.04106 -0.524343 -1.48315
4.03933 -0.511269 -1.48193
4.03759 -0.498212 -1.48071
4.03585 -0.485178 -1.47951
4.03409 -0.472162 -1.47831
4.03231 -0.459164 -1.47713
4.03051 -0.446183 -1.47595
4.02868 -0.433221 -1.47477
4.02683 -0.420276 -1.47361
4.02496 -0.407349 -1.47245
4.02306 -0.394439 -1.47129
4.02114 -0.381548 -1.47015
4.0192 -0.368674 -1.46901
4.01724 -0.355818 -1.46788
4.01525 -0.342978 -1.46675
4.01325 -0.330157 -1.46564
4.01122 -0.317353 -1.46453
4.00917 -0.304566 -1.46342
4.00709 -0.291796 -1.46232
4.005 -0.279044 -1.46123
4.00288 -0.266309 -1.46015
4.00074 -0.253591 -1.45907
3.99979 -0.240963 -1.45844
3.99897 -0.228354 -1.45788
3.99814 -0.215753 -1.45732
3.99727 -0.203161 -1.45677
3.99653 -0.190583 -1.45627
3.9958 -0.178014 -1.45579
3.99503 -0.165452 -1.45532
3.99425 -0.152898 -1.45485
3.99344 -0.14035 -1.45439
3.9926 -0.127809 -1.45393
3.99174 -0.115276 -1.45348
3.99086 -0.102749 -1.45304
3.98995 -0.0902292 -1.45259
3.98902 -0.0777169 -1.45216
3.98807 -0.0652115 -1.45173
3.98709 -0.0527131 -1.45131
3.98608 -0.0402216 -1.45089
3.98505 -0.027736 -1.45047
3.984 -0.0152584 -1.45007
3.98292 -0.00278756 -1.44967
3.98352 0.00968051 -1.44989
3.98458 0.0221562 -1.45029
3.98562 0.0346376 -1.4507
3.98664 0.047126 -1.45112
4.68364 -0.772499 -1.77255
4.37134 -0.706942 -1.65351
4.16074 -0.659526 -1.57306
4.02343 -0.624858 -1.5204
4.01376 -0.610495 -1.51602
4.00683 -0.596616 -1.51269
3.99991 -0.582794 -1.50938
3.99299 -0.569028 -1.50609
3.98607 -0.555317 -1.50282
3.98034 -0.541823 -1.50001
3.97557 -0.528505 -1.49758
3.97396 -0.515637 -1.49636
3.97232 -0.502787 -1.49514
3.97065 -0.489953 -1.49393
3.96897 -0.477138 -1.49273
3.96726 -0.46434 -1.49153
3.96556 -0.451563 -1.49035
3.96383 -0.438802 -1.48918
3.96209 -0.42606 -1.48802
3.96032 -0.413335 -1.48686
3.95853 -0.400627 -1.48571
3.95672 -0.387935 -1.48457
3.95488 -0.375261 -1.48343
3.95302 -0.362604 -1.4823
3.95114 -0.349963 -1.48118
3.94924 -0.337339 -1.48006
3.94732 -0.324733 -1.47895
3.94537 -0.312143 -1.47785
3.9434 -0.29957 -1.47675
3.94141 -0.287013 -1.47566
3.93939 -0.274473 -1.47458
3.93736 -0.26195 -1.4735
3.93602 -0.249489 -1.4727
3.93526 -0.237076 -1.47213
3.93448 -0.224671 -1.47157
3.93368 -0.212275 -1.47102
3.93286 -0.199887 -1.47047
3.93201 -0.187505 -1.46992
3.93114 -0.175133 -1.46939
3.9303 -0.162771 -1.46888
3.92955 -0.150421 -1.46841
3.92877 -0.138078 -1.46795
3.92797 -0.12574 -1.4675
3.92714 -0.11341 -1.46705
3.92629 -0.101087 -1.46661
3.92542 -0.0887698 -1.46617
3.92452 -0.0764602 -1.46574
3.9236 -0.0641574 -1.46531
3.92265 -0.0518613 -1.46489
3.92168 -0.0395718 -1.46448
3.92069 -0.0272881 -1.46406
3.91967 -0.015012 -1.46366
3.91863 -0.00274257 -1.46326
3.91921 0.00952422 -1.46348
3.92024 0.0217984 -1.46388
3.92124 0.0340781 -1.46429
3.92222 0.0463646 -1.4647
4.82808 -0.8274 -1.87567
4.462 -0.750298 -1.73253
4.22405 -0.696696 -1.63929
4.04277 -0.653806 -1.56813
3.97031 -0.629341 -1.53925
3.94755 -0.613074 -1.52968
3.94091 -0.599414 -1.52637
3.93427 -0.585811 -1.52308
3.92763 -0.572262 -1.51981
3.92167 -0.558864 -1.51682
3.91681 -0.545667 -1.51427
3.91193 -0.532511 -1.51174
3.91019 -0.519813 -1.51043
3.90865 -0.507164 -1.50921
3.90709 -0.494531 -1.508
3.90551 -0.481914 -1.5068
3.9039 -0.469315 -1.50561
3.90227 -0.456733 -1.50442
3.90062 -0.444168 -1.50324
3.89895 -0.431619 -1.50207
3.89727 -0.41909 -1.50091
3.89558 -0.406578 -1.49976
3.89387 -0.394083 -1.49862
3.89213 -0.381603 -1.49749
3.89038 -0.36914 -1.49636
3.8886 -0.356694 -1.49524
3.8868 -0.344264 -1.49412
3.88497 -0.331849 -1.49301
3.88313 -0.319452 -1.49191
3.88126 -0.307071 -1.49082
3.87937 -0.294706 -1.48973
3.87746 -0.282356 -1.48865
3.87552 -0.270023 -1.48758
3.87381 -0.257722 -1.4866
3.87312 -0.245502 -1.48604
3.8724 -0.233289 -1.48547
3.87166 -0.221084 -1.48492
3.8709 -0.208887 -1.48436
3.87011 -0.196698 -1.48382
3.86929 -0.184515 -1.48328
3.86846 -0.172341 -1.48274
3.8676 -0.160175 -1.48221
3.86671 -0.148016 -1.48169
3.86581 -0.135865 -1.48117
3.86501 -0.123725 -1.48071
3.86422 -0.111593 -1.48027
3.8634 -0.0994679 -1.47983
3.86256 -0.0873483 -1.47939
3.86169 -0.0752362 -1.47896
3.8608 -0.0631306 -1.47854
3.85989 -0.0510315 -1.47812
3.85895 -0.0389389 -1.47771
3.85799 -0.0268517 -1.4773
3.85701 -0.014772 -1.4769
3.856 -0.00269873 -1.4765
3.85656 0.00937198 -1.47672
3.85756 0.0214498 -1.47712
3.85853 0.0335331 -1.47753
3.85948 0.0456228 -1.47794
4.58568 -0.800645 -1.82697
4.2866 -0.734607 -1.70689
4.08402 -0.686739 -1.62536
3.9882 -0.657797 -1.5864
3.9177 -0.633579 -1.55756
3.88296 -0.615495 -1.54298
3.87659 -0.602053 -1.53969
3.87022 -0.588662 -1.53642
3.86408 -0.575361 -1.53326
3.85944 -0.562326 -1.53071
3.85478 -0.549331 -1.52817
3.85011 -0.536375 -1.52565
3.84796 -0.523803 -1.52414
3.84652 -0.51135 -1.52293
3.84506 -0.498913 -1.52173
3.84358 -0.486492 -1.52053
3.84207 -0.474086 -1.51934
3.84054 -0.461698 -1.51815
3.83899 -0.449326 -1.51698
3.83741 -0.43697 -1.51581
3.83581 -0.42463 -1.51464
3.83419 -0.412306 -1.51348
3.83255 -0.399999 -1.51233
3.83089 -0.387709 -1.51119
3.82923 -0.375435 -1.51007
3.82755 -0.363179 -1.50895
3.82585 -0.350938 -1.50784
3.82412 -0.338713 -1.50673
3.82237 -0.326502 -1.50563
3.8206 -0.314308 -1.50454
3.81881 -0.30213 -1.50345
3.81699 -0.289967 -1.50238
3.81515 -0.277819 -1.5013
3.81329 -0.265687 -1.50024
3.81248 -0.253642 -1.4996
3.81182 -0.241617 -1.49903
3.81114 -0.229598 -1.49847
3.81043 -0.217587 -1.49792
3.8097 -0.205584 -1.49737
3.80894 -0.193589 -1.49683
3.80817 -0.1816 -1.49629
3.80736 -0.169619 -1.49576
3.80654 -0.157646 -1.49524
3.80569 -0.14568 -1.49472
3.80482 -0.133721 -1.4942
3.80392 -0.121769 -1.49369
3.803 -0.109825 -1.49319
3.80211 -0.0978898 -1.49271
3.8013 -0.0859629 -1.49228
3.80046 -0.0740432 -1.49185
3.7996 -0.0621299 -1.49143
3.79872 -0.0502228 -1.49102
3.79782 -0.038322 -1.49061
3.79689 -0.0264264 -1.4902
3.79594 -0.0145381 -1.48981
3.79496 -0.00265601 -1.48941
3.7955 0.0092236 -1.48963
3.79647 0.0211101 -1.49003
3.79741 0.0330019 -1.49043
3.79832 0.0448999 -1.49084
4.71173 -0.853083 -1.92536
4.36517 -0.776232 -1.78274
4.13986 -0.722805 -1.68979
4.00527 -0.686396 -1.63397
3.93419 -0.661546 -1.60412
3.8656 -0.637577 -1.57534
3.81992 -0.617765 -1.55592
3.81381 -0.604533 -1.55265
3.80769 -0.591353 -1.5494
3.8031 -0.578453 -1.54679
3.79865 -0.565617 -1.54425
3.79419 -0.552819 -1.54173
3.78971 -0.540059 -1.53922
3.78721 -0.527613 -1.53752
3.78587 -0.515351 -1.53631
3.7845 -0.503105 -1.53511
3.78311 -0.490874 -1.53392
3.7817 -0.47866 -1.53273
3.78026 -0.46646 -1.53155
3.7788 -0.454277 -1.53037
3.77732 -0.442109 -1.52921
3.77582 -0.429957 -1.52805
3.77429 -0.41782 -1.52689
3.77275 -0.405699 -1.52574
3.77117 -0.393594 -1.5246
3.76958 -0.381504 -1.52347
3.76797 -0.369429 -1.52234
3.76633 -0.35737 -1.52122
3.7647 -0.345329 -1.52012
3.76304 -0.333303 -1.51902
3.76137 -0.321291 -1.51793
3.75967 -0.309295 -1.51685
3.75795 -0.297315 -1.51577
3.7562 -0.285349 -1.5147
3.75444 -0.273397 -1.51363
3.75328 -0.261506 -1.51283
3.75267 -0.249663 -1.51226
3.75205 -0.237828 -1.5117
3.7514 -0.225999 -1.51115
3.75072 -0.214178 -1.5106
3.75002 -0.202364 -1.51006
3.7493 -0.190558 -1.50952
3.74856 -0.178757 -1.50898
3.74779 -0.166965 -1.50846
3.747 -0.15518 -1.50794
3.74618 -0.143402 -1.50742
3.74534 -0.131631 -1.50691
3.74448 -0.119866 -1.5064
3.7436 -0.10811 -1.50591
3.74269 -0.0963598 -1.50541
3.74176 -0.0846163 -1.50492
3.7408 -0.0728809 -1.50444
3.73993 -0.0611541 -1.504
3.73908 -0.0494343 -1.50359
3.73821 -0.0377205 -1.50319
3.73731 -0.0260117 -1.50279
3.73639 -0.01431 -1.50239
3.73544 -0.00261436 -1.502
3.73597 0.00907892 -1.50221
3.7369 0.0207789 -1.50261
3.73781 0.032484 -1.50301
3.73869 0.0441951 -1.50341
4.47485 -0.824667 -1.87369
4.19446 -0.759427 -1.75528
4.02144 -0.715109 -1.68193
3.94981 -0.689624 -1.65106
3.8807 -0.665048 -1.6213
3.814 -0.641335 -1.59258
3.75836 -0.619887 -1.56853
3.75249 -0.606861 -1.56528
3.74776 -0.594064 -1.56252
3.74351 -0.581385 -1.55999
3.73925 -0.568742 -1.55746
3.73497 -0.556136 -1.55495
3.73069 -0.543568 -1.55245
3.72788 -0.531248 -1.55058
3.72663 -0.519172 -1.54938
3.72535 -0.507113 -1.54818
3.72405 -0.495068 -1.54699
3.72273 -0.483039 -1.5458
3.72139 -0.471026 -1.54462
3.72002 -0.459026 -1.54345
3.71863 -0.447042 -1.54229
3.71722 -0.435074 -1.54113
3.71578 -0.423121 -1.53998
3.71432 -0.411181 -1.53883
3.71284 -0.399258 -1.53769
3.71134 -0.387349 -1.53656
3.70982 -0.375455 -1.53544
3.70827 -0.363576 -1.53432
3.7067 -0.351712 -1.53321
3.70511 -0.339863 -1.5321
3.7035 -0.328029 -1.531
3.70189 -0.31621 -1.52992
3.70025 -0.304408 -1.52884
3.6986 -0.29262 -1.52777
3.69693 -0.280846 -1.52671
3.69545 -0.269102 -1.52575
3.6949 -0.257438 -1.52518
3.69433 -0.245782 -1.52462
3.69374 -0.234132 -1.52406
3.69312 -0.222488 -1.52351
3.69247 -0.210852 -1.52297
3.69181 -0.199223 -1.52243
3.69112 -0.187601 -1.5219
3.69041 -0.175984 -1.52137
3.68967 -0.164376 -1.52084
3.68891 -0.152774 -1.52033
3.68813 -0.14118 -1.51981
3.68732 -0.129592 -1.51931
3.68649 -0.11801 -1.51881
3.68564 -0.106436 -1.51831
3.68476 -0.0948685 -1.51782
3.68386 -0.0833071 -1.51733
3.68294 -0.0717535 -1.51685
3.682 -0.0602067 -1.51638
3.68103 -0.0486668 -1.51591
3.68006 -0.0371337 -1.51546
3.67919 -0.0256072 -1.51506
3.67829 -0.0140875 -1.51466
3.67738 -0.00257372 -1.51428
3.67789 0.00893778 -1.51449
3.67879 0.0204558 -1.51488
3.67967 0.0319787 -1.51528
3.68059 0.0435082 -1.5157
4.58535 -0.874746 -1.96774
4.25668 -0.798244 -1.82562
4.04872 -0.746137 -1.73542
3.96452 -0.717796 -1.69836
3.89492 -0.69261 -1.6676
3.82775 -0.668312 -1.63794
3.76288 -0.644856 -1.60931
3.70019 -0.622197 -1.58166
3.69337 -0.609169 -1.57792
3.68932 -0.596645 -1.57538
3.68526 -0.584157 -1.57286
3.68118 -0.571705 -1.57035
3.67709 -0.559287 -1.56785
3.67298 -0.546906 -1.56536
3.66991 -0.534711 -1.56333
3.66874 -0.52282 -1.56213
3.66755 -0.510942 -1.56093
3.66634 -0.49908 -1.55974
3.66511 -0.487232 -1.55856
3.66385 -0.4754 -1.55739
3.66257 -0.463582 -1.55622
3.66127 -0.451777 -1.55506
3.65995 -0.439988 -1.5539
3.6586 -0.428214 -1.55276
3.65723 -0.416453 -1.55161
3.65584 -0.404707 -1.55048
3.65442 -0.392976 -1.54935
3.65299 -0.381259 -1.54823
3.65153 -0.369556 -1.54711
3.65005 -0.357868 -1.546
3.64855 -0.346194 -1.5449
3.64702 -0.334535 -1.5438
3.64548 -0.32289 -1.54271
3.64391 -0.311258 -1.54163
3.64232 -0.299641 -1.54055
3.64072 -0.28804 -1.53949
3.63911 -0.276454 -1.53843
3.63846 -0.264952 -1.5378
3.63794 -0.253469 -1.53724
3.6374 -0.241994 -1.53668
3.63683 -0.230524 -1.53613
3.63624 -0.219061 -1.53558
3.63563 -0.207606 -1.53504
3.63499 -0.196157 -1.53451
3.63433 -0.184714 -1.53398
