ply
format ascii 1.0
comment Created by Open3D
element vertex 1860
property double x
property double y
property double z
end_header
4.12161 -1.22809 -1.60592
4.12171 -1.21397 -1.60446
4.1218 -1.19988 -1.60302
4.12189 -1.18581 -1.60159
4.12198 -1.17177 -1.60018
4.12206 -1.15775 -1.59878
4.12214 -1.14375 -1.59741
4.12222 -1.12977 -1.59605
4.12229 -1.11582 -1.5947
4.12236 -1.10189 -1.59338
4.12243 -1.08798 -1.59207
4.12249 -1.0741 -1.59078
4.12255 -1.06023 -1.5895
4.12297 -1.04648 -1.58838
4.12424 -1.03297 -1.58761
4.12551 -1.01946 -1.58685
4.12608 -1.0058 -1.58584
4.1263 -0.992068 -1.58471
4.12651 -0.978357 -1.5836
4.12672 -0.964664 -1.58251
4.12693 -0.950989 -1.58143
4.12714 -0.937333 -1.58037
4.12734 -0.923694 -1.57932
4.12729 -0.910016 -1.57819
4.12709 -0.896327 -1.57703
4.1269 -0.882659 -1.57588
4.1267 -0.869009 -1.57475
4.12651 -0.855379 -1.57364
4.12631 -0.841768 -1.57254
4.12611 -0.828175 -1.57147
4.12592 -0.814601 -1.5704
4.12571 -0.801044 -1.56936
4.12551 -0.787506 -1.56833
4.12531 -0.773985 -1.56732
4.12511 -0.76048 -1.56632
4.12491 -0.746993 -1.56534
4.1247 -0.733522 -1.56438
4.1245 -0.720067 -1.56343
4.12429 -0.706629 -1.5625
4.12409 -0.693205 -1.56158
4.12388 -0.679798 -1.56068
4.12367 -0.666405 -1.5598
4.12346 -0.653027 -1.55894
4.12325 -0.639664 -1.55808
4.12304 -0.626315 -1.55725
4.12283 -0.61298 -1.55643
4.12292 -0.599704 -1.55574
4.12317 -0.586461 -1.55513
4.12342 -0.573228 -1.55454
4.12366 -0.560004 -1.55395
4.12389 -0.546789 -1.55338
4.12412 -0.533583 -1.55283
4.12433 -0.520385 -1.55228
4.12455 -0.507196 -1.55175
4.12475 -0.494014 -1.55123
4.12495 -0.480841 -1.55073
4.12514 -0.467675 -1.55024
4.1452 -1.83029 -1.73508
4.14081 -1.81276 -1.73084
4.13644 -1.79531 -1.72664
4.13208 -1.77795 -1.72247
4.12775 -1.76067 -1.71834
4.12343 -1.74347 -1.71424
4.11914 -1.72636 -1.71018
4.11692 -1.71018 -1.70702
4.11586 -1.69452 -1.70435
4.11479 -1.67892 -1.7017
4.11372 -1.66336 -1.69908
4.11266 -1.64785 -1.69649
4.11159 -1.63239 -1.69391
4.11053 -1.61697 -1.69137
4.10946 -1.6016 -1.68884
4.1084 -1.58627 -1.68634
4.10733 -1.57099 -1.68386
4.1064 -1.55579 -1.68145
4.10622 -1.54093 -1.67938
4.10603 -1.52609 -1.67732
4.10583 -1.51129 -1.67529
4.10564 -1.49653 -1.67327
4.10544 -1.4818 -1.67128
4.10524 -1.4671 -1.6693
4.10523 -1.45251 -1.66743
4.10566 -1.4381 -1.66575
4.10609 -1.42372 -1.66409
4.10651 -1.40936 -1.66245
4.10693 -1.39504 -1.66083
4.10734 -1.38074 -1.65923
4.10775 -1.36647 -1.65765
4.10832 -1.35228 -1.65615
4.10895 -1.33813 -1.65469
4.10958 -1.324 -1.65325
4.1102 -1.3099 -1.65183
4.11081 -1.29583 -1.65043
4.11143 -1.28177 -1.64904
4.11203 -1.26774 -1.64767
4.11264 -1.25373 -1.64632
4.11324 -1.23974 -1.64499
4.11336 -1.22563 -1.64348
4.11346 -1.21155 -1.64199
4.11356 -1.19748 -1.64051
4.11366 -1.18344 -1.63905
4.11375 -1.16943 -1.63761
4.11384 -1.15544 -1.63619
4.11393 -1.14147 -1.63478
4.11401 -1.12752 -1.63339
4.11409 -1.1136 -1.63202
4.11417 -1.0997 -1.63067
4.11454 -1.0859 -1.62945
4.11582 -1.07236 -1.6286
4.1171 -1.05883 -1.62778
4.11837 -1.04532 -1.62697
4.11964 -1.03181 -1.62618
4.12064 -1.01826 -1.6253
4.12086 -1.00453 -1.62413
4.12108 -0.990813 -1.62297
4.1213 -0.977121 -1.62184
4.12151 -0.963445 -1.62072
4.12172 -0.949789 -1.61961
4.12193 -0.936151 -1.61853
4.12214 -0.92253 -1.61746
4.12235 -0.908926 -1.6164
4.12255 -0.895341 -1.61537
4.12275 -0.881771 -1.61435
4.12295 -0.868218 -1.61334
4.12314 -0.854681 -1.61236
4.12333 -0.841161 -1.61139
4.12315 -0.827581 -1.61029
4.12295 -0.814016 -1.6092
4.12276 -0.80047 -1.60813
4.12256 -0.786942 -1.60707
4.12236 -0.77343 -1.60604
4.12216 -0.759936 -1.60502
4.12196 -0.746459 -1.60401
4.12176 -0.732998 -1.60303
4.12155 -0.719553 -1.60206
4.12135 -0.706124 -1.6011
4.12114 -0.692711 -1.60017
4.12094 -0.679313 -1.59925
4.12073 -0.66593 -1.59834
4.12052 -0.652563 -1.59746
4.12031 -0.639209 -1.59659
4.1201 -0.62587 -1.59573
4.11989 -0.612544 -1.59489
4.11968 -0.599233 -1.59407
4.11947 -0.585935 -1.59327
4.11926 -0.57265 -1.59248
4.11904 -0.559378 -1.5917
4.11883 -0.546118 -1.59095
4.11861 -0.532871 -1.5902
4.11839 -0.519636 -1.58948
4.11817 -0.506412 -1.58877
4.11796 -0.4932 -1.58808
4.11773 -0.48 -1.5874
4.11751 -0.46681 -1.58674
4.13936 -1.82771 -1.7759
4.13499 -1.81021 -1.77156
4.13063 -1.79279 -1.76726
4.1263 -1.77546 -1.763
4.12199 -1.75821 -1.75878
4.11769 -1.74104 -1.7546
4.11341 -1.72396 -1.75045
4.11016 -1.70737 -1.74676
4.1091 -1.69174 -1.74404
4.10805 -1.67617 -1.74133
4.10699 -1.66064 -1.73866
4.10594 -1.64516 -1.736
4.10488 -1.62973 -1.73338
4.10383 -1.61434 -1.73077
4.10278 -1.59899 -1.72819
4.10173 -1.58369 -1.72563
4.10067 -1.56844 -1.7231
4.09962 -1.55323 -1.72059
4.09857 -1.53806 -1.7181
4.09752 -1.52293 -1.71564
4.0968 -1.50797 -1.71334
4.09662 -1.49324 -1.71128
4.09643 -1.47855 -1.70925
4.09624 -1.46388 -1.70723
4.09625 -1.44933 -1.70532
4.09669 -1.43496 -1.70361
4.09713 -1.42061 -1.70192
4.09755 -1.40629 -1.70025
4.09808 -1.39203 -1.69863
4.09873 -1.37785 -1.69709
4.09937 -1.36368 -1.69557
4.10001 -1.34954 -1.69407
4.10065 -1.33542 -1.69258
4.10128 -1.32133 -1.69111
4.10191 -1.30726 -1.68966
4.10253 -1.29321 -1.68823
4.10315 -1.27919 -1.68681
4.10376 -1.26519 -1.68541
4.10437 -1.25121 -1.68403
4.10497 -1.23725 -1.68267
4.10508 -1.22317 -1.68113
4.10519 -1.20911 -1.6796
4.1053 -1.19508 -1.67809
4.10541 -1.18107 -1.6766
4.10551 -1.16708 -1.67513
4.1056 -1.15312 -1.67368
4.1057 -1.13919 -1.67224
4.10605 -1.12534 -1.67093
4.10734 -1.11177 -1.67002
4.10863 -1.09822 -1.66913
4.10992 -1.08468 -1.66825
4.1112 -1.07116 -1.66739
4.11248 -1.05764 -1.66655
4.11376 -1.04415 -1.66573
4.11503 -1.03066 -1.66492
4.1154 -1.01696 -1.66376
4.11562 -1.00325 -1.66256
4.11585 -0.989555 -1.66138
4.11607 -0.97588 -1.66022
4.11628 -0.962224 -1.65907
4.1165 -0.948586 -1.65795
4.11671 -0.934965 -1.65684
4.11692 -0.921362 -1.65574
4.11713 -0.907776 -1.65466
4.11733 -0.894208 -1.65361
4.11754 -0.880657 -1.65256
4.11774 -0.867121 -1.65154
4.11794 -0.853602 -1.65053
4.11813 -0.8401 -1.64954
4.11833 -0.826613 -1.64856
4.11852 -0.81314 -1.6476
4.11871 -0.799683 -1.64666
4.11889 -0.786242 -1.64573
4.11908 -0.772814 -1.64482
4.11919 -0.759389 -1.64391
4.11899 -0.745922 -1.64288
4.11879 -0.732471 -1.64187
4.11859 -0.719036 -1.64088
4.11839 -0.705617 -1.6399
4.11819 -0.692214 -1.63894
4.11798 -0.678826 -1.638
4.11778 -0.665453 -1.63708
4.11757 -0.652095 -1.63617
4.11736 -0.638751 -1.63528
4.11716 -0.625422 -1.6344
4.11695 -0.612107 -1.63354
4.11674 -0.598805 -1.6327
4.11653 -0.585516 -1.63188
4.11632 -0.572241 -1.63107
4.1161 -0.558978 -1.63028
4.11589 -0.545729 -1.6295
4.11567 -0.532491 -1.62875
4.11546 -0.519265 -1.628
4.11524 -0.506052 -1.62728
4.11502 -0.492849 -1.62657
4.1148 -0.479658 -1.62588
4.11458 -0.466478 -1.6252
4.13349 -1.82512 -1.81686
4.12914 -1.80765 -1.81243
4.12481 -1.79027 -1.80804
4.12049 -1.77296 -1.80369
4.1162 -1.75574 -1.79937
4.11192 -1.73861 -1.7951
4.10766 -1.72155 -1.79086
4.10342 -1.70457 -1.78666
4.10233 -1.68895 -1.78385
4.10128 -1.67341 -1.78109
4.10024 -1.65791 -1.77836
4.0992 -1.64246 -1.77565
4.09816 -1.62706 -1.77297
4.09712 -1.6117 -1.77031
4.09607 -1.59638 -1.76767
4.09503 -1.58111 -1.76506
4.09399 -1.56588 -1.76247
4.09295 -1.5507 -1.75991
4.09191 -1.53556 -1.75737
4.09087 -1.52046 -1.75485
4.08983 -1.5054 -1.75236
4.08879 -1.49039 -1.74989
4.08775 -1.47541 -1.74745
4.08722 -1.46066 -1.74524
4.08726 -1.44615 -1.7433
4.08774 -1.43182 -1.74157
4.08841 -1.41759 -1.73994
4.08907 -1.40338 -1.73833
4.08973 -1.3892 -1.73674
4.09039 -1.37504 -1.73516
4.09104 -1.36091 -1.73361
4.09169 -1.3468 -1.73208
4.09233 -1.33271 -1.73056
4.09296 -1.31865 -1.72906
4.0936 -1.30461 -1.72758
4.09423 -1.2906 -1.72612
4.09485 -1.2766 -1.72467
4.09547 -1.26263 -1.72325
4.09608 -1.24868 -1.72184
4.09667 -1.23475 -1.72044
4.09679 -1.2207 -1.71886
4.09691 -1.20667 -1.71731
4.09702 -1.19267 -1.71577
4.09713 -1.17869 -1.71425
4.09751 -1.16481 -1.71286
4.09881 -1.15122 -1.71188
4.10011 -1.13764 -1.71091
4.10141 -1.12407 -1.70997
4.1027 -1.11052 -1.70904
4.10399 -1.09698 -1.70812
4.10528 -1.08346 -1.70723
4.10656 -1.06995 -1.70635
4.10784 -1.05645 -1.70549
4.10912 -1.04297 -1.70464
4.1099 -1.02937 -1.70361
4.11014 -1.01566 -1.70237
4.11036 -1.00197 -1.70115
4.11059 -0.988291 -1.69994
4.11081 -0.974634 -1.69875
4.11103 -0.960996 -1.69758
4.11125 -0.947377 -1.69643
4.11147 -0.933774 -1.6953
4.11168 -0.920189 -1.69418
4.11189 -0.906622 -1.69308
4.1121 -0.893071 -1.692
4.11231 -0.879538 -1.69093
4.11251 -0.866021 -1.68988
4.11271 -0.852519 -1.68885
4.11291 -0.839035 -1.68784
4.11311 -0.825565 -1.68684
4.1133 -0.812111 -1.68586
4.11349 -0.798671 -1.6849
4.11368 -0.785247 -1.68395
4.11387 -0.771837 -1.68302
4.11405 -0.758442 -1.68211
4.11423 -0.745061 -1.68122
4.11441 -0.731692 -1.68034
4.11459 -0.718337 -1.67948
4.11477 -0.704997 -1.67863
4.11494 -0.691669 -1.6778
4.11501 -0.678337 -1.67695
4.11481 -0.664973 -1.67601
4.11461 -0.651625 -1.67508
4.1144 -0.638291 -1.67416
4.11419 -0.624972 -1.67327
4.11399 -0.611666 -1.67239
4.11378 -0.598374 -1.67153
4.11357 -0.585096 -1.67069
4.11336 -0.57183 -1.66986
4.11315 -0.558577 -1.66905
4.11294 -0.545337 -1.66826
4.11272 -0.532109 -1.66748
4.11251 -0.518893 -1.66672
4.11229 -0.505689 -1.66598
4.11208 -0.492496 -1.66526
4.11186 -0.479315 -1.66455
4.11164 -0.466144 -1.66386
4.12764 -1.82254 -1.858
4.12327 -1.80508 -1.85346
4.11896 -1.78773 -1.84898
4.11467 -1.77046 -1.84453
4.11039 -1.75327 -1.84013
4.10613 -1.73616 -1.83576
4.10189 -1.71913 -1.83143
4.09767 -1.70218 -1.82714
4.09553 -1.68616 -1.8238
4.0945 -1.67064 -1.82098
4.09347 -1.65517 -1.81819
4.09244 -1.63975 -1.81543
4.09141 -1.62438 -1.81269
4.09038 -1.60905 -1.80998
4.08935 -1.59376 -1.80729
4.08832 -1.57852 -1.80462
4.08729 -1.56332 -1.80198
4.08626 -1.54816 -1.79936
4.18125 -1.56908 -1.839
4.13999 -1.53871 -1.81871
4.12071 -1.51677 -1.80813
4.1184 -1.50118 -1.80503
4.11605 -1.48563 -1.80193
4.11365 -1.47011 -1.79885
4.11123 -1.45463 -1.79577
4.10875 -1.43918 -1.7927
4.10624 -1.42377 -1.78963
4.10369 -1.4084 -1.78657
4.10109 -1.39306 -1.78352
4.10709 -1.38066 -1.78423
4.11659 -1.36941 -1.78646
4.08334 -1.34405 -1.77019
4.08398 -1.33 -1.76864
4.08463 -1.31597 -1.76711
4.08527 -1.30196 -1.7656
4.0859 -1.28797 -1.76411
4.08653 -1.27401 -1.76264
4.08715 -1.26007 -1.76118
4.08777 -1.24615 -1.75975
4.08834 -1.23224 -1.75831
4.08847 -1.21822 -1.7567
4.08891 -1.20431 -1.75525
4.09022 -1.19069 -1.75419
4.09154 -1.17708 -1.75315
4.09284 -1.16348 -1.75213
4.09415 -1.14991 -1.75113
4.09545 -1.13634 -1.75014
4.09675 -1.12279 -1.74918
4.09804 -1.10926 -1.74822
4.09933 -1.09574 -1.74729
4.10062 -1.08223 -1.74638
4.1019 -1.06874 -1.74548
4.10319 -1.05525 -1.7446
4.10438 -1.04176 -1.7437
4.10462 -1.02805 -1.74241
4.10485 -1.01436 -1.74114
4.10508 -1.00068 -1.73989
4.10531 -0.987022 -1.73866
4.10554 -0.973384 -1.73745
4.10576 -0.959764 -1.73625
4.10598 -0.946161 -1.73508
4.1062 -0.932578 -1.73392
4.10642 -0.919012 -1.73278
4.10663 -0.905462 -1.73165
4.10684 -0.89193 -1.73055
4.10705 -0.878415 -1.72946
4.10726 -0.864916 -1.72839
4.10746 -0.851432 -1.72733
4.10767 -0.837964 -1.7263
4.10786 -0.824513 -1.72528
4.10806 -0.811076 -1.72428
4.10825 -0.797654 -1.72329
4.10845 -0.784248 -1.72233
4.10864 -0.770856 -1.72138
4.10882 -0.757477 -1.72045
4.10901 -0.744113 -1.71953
4.10919 -0.730763 -1.71864
4.10937 -0.717426 -1.71776
4.10955 -0.704102 -1.71689
4.10972 -0.690792 -1.71605
4.10989 -0.677493 -1.71522
4.11006 -0.664207 -1.71441
4.11023 -0.650932 -1.71361
4.1104 -0.637671 -1.71283
4.11056 -0.62442 -1.71207
4.11072 -0.611181 -1.71133
4.1108 -0.597941 -1.71057
4.1106 -0.584673 -1.7097
4.11039 -0.571417 -1.70886
4.11018 -0.558174 -1.70803
4.10997 -0.544943 -1.70722
4.10976 -0.531725 -1.70643
4.10954 -0.518519 -1.70565
4.10933 -0.505324 -1.70489
4.10911 -0.492142 -1.70415
4.1089 -0.47897 -1.70342
4.10868 -0.465809 -1.70272
4.12229 -1.82017 -1.89954
4.1179 -1.80273 -1.89489
4.11354 -1.78537 -1.89028
4.10919 -1.7681 -1.88571
4.10486 -1.75091 -1.88118
4.10055 -1.7338 -1.87669
4.09625 -1.71677 -1.87223
4.09198 -1.69981 -1.86782
4.14694 -1.70732 -1.89044
4.28057 -1.74656 -1.94883
4.3473 -1.75781 -1.97668
4.3473 -1.74187 -1.97417
4.3473 -1.72597 -1.97168
4.15799 -1.63564 -1.88348
4.11745 -1.60471 -1.86281
4.0921 -1.57998 -1.84907
4.0921 -1.56516 -1.84683
4.0921 -1.55038 -1.84462
4.0921 -1.53563 -1.84242
4.0921 -1.52092 -1.84025
4.0921 -1.50624 -1.83811
4.0921 -1.49159 -1.83598
4.0921 -1.47698 -1.83388
4.0921 -1.46241 -1.83181
4.0921 -1.44786 -1.82975
4.0921 -1.43335 -1.82772
4.0921 -1.41887 -1.82571
4.0921 -1.40442 -1.82373
4.0921 -1.39 -1.82176
4.0921 -1.37562 -1.81982
4.0921 -1.36126 -1.8179
4.0921 -1.34694 -1.81601
4.0921 -1.33264 -1.81413
4.0921 -1.31837 -1.81228
4.0921 -1.30414 -1.81045
4.0921 -1.28993 -1.80864
4.0921 -1.27575 -1.80685
4.09773 -1.26333 -1.80756
4.10683 -1.25196 -1.80983
4.12414 -1.24303 -1.81572
4.14166 -1.23406 -1.82171
4.08422 -1.20293 -1.79476
4.08553 -1.18932 -1.79368
4.08685 -1.17573 -1.79262
4.08816 -1.16215 -1.79158
4.08946 -1.14859 -1.79056
4.09076 -1.13504 -1.78955
4.09206 -1.12151 -1.78856
4.09336 -1.10799 -1.78759
4.09465 -1.09449 -1.78664
4.09594 -1.08099 -1.7857
4.09723 -1.06752 -1.78478
4.09851 -1.05405 -1.78389
4.09906 -1.04042 -1.78269
4.0993 -1.02672 -1.78138
4.09954 -1.01304 -1.78008
4.09978 -0.999386 -1.77881
4.10001 -0.985747 -1.77755
4.10024 -0.972128 -1.77631
4.10047 -0.958526 -1.77509
4.10069 -0.944943 -1.77389
4.10091 -0.931376 -1.7727
4.10113 -0.917829 -1.77154
4.10135 -0.904298 -1.77039
4.10157 -0.890783 -1.76926
4.10178 -0.877286 -1.76815
4.10199 -0.863805 -1.76705
4.10219 -0.850339 -1.76598
4.1024 -0.83689 -1.76492
4.1026 -0.823456 -1.76388
4.1028 -0.810037 -1.76286
4.103 -0.796634 -1.76186
4.10319 -0.783244 -1.76087
4.10338 -0.76987 -1.7599
4.10357 -0.75651 -1.75895
4.10376 -0.743163 -1.75802
4.10394 -0.72983 -1.7571
4.10413 -0.71651 -1.7562
4.10431 -0.703205 -1.75532
4.10448 -0.689911 -1.75446
4.10466 -0.67663 -1.75361
4.10483 -0.663361 -1.75278
4.105 -0.650104 -1.75197
4.10517 -0.636859 -1.75117
4.10533 -0.623626 -1.7504
4.1055 -0.610404 -1.74964
4.10566 -0.597193 -1.74889
4.10582 -0.583993 -1.74817
4.10597 -0.570803 -1.74746
4.10613 -0.557624 -1.74676
4.10628 -0.544454 -1.74609
4.10643 -0.531294 -1.74543
4.10656 -0.518143 -1.74478
4.10635 -0.504958 -1.74401
4.10613 -0.491785 -1.74325
4.10592 -0.478623 -1.74251
4.1057 -0.465471 -1.74179
4.11692 -1.8178 -1.94127
4.11255 -1.80039 -1.93653
4.1082 -1.78306 -1.93182
4.10387 -1.76581 -1.92715
4.09956 -1.74865 -1.92253
4.09527 -1.73156 -1.91794
4.16917 -1.74732 -1.94996
4.30433 -1.78802 -2.01053
4.3473 -1.78981 -2.02795
4.3473 -1.77379 -2.02533
4.3473 -1.75781 -2.02274
4.0921 -1.63962 -1.90158
4.0921 -1.62465 -1.89919
4.0921 -1.60972 -1.89682
4.0921 -1.59483 -1.89448
4.0921 -1.57998 -1.89216
4.0921 -1.56516 -1.88987
4.0921 -1.55038 -1.8876
4.0921 -1.53563 -1.88536
4.0921 -1.52092 -1.88314
4.0921 -1.50624 -1.88094
4.0921 -1.49159 -1.87877
4.0921 -1.47698 -1.87662
4.0921 -1.46241 -1.87449
4.0921 -1.44786 -1.87239
4.0921 -1.43335 -1.87031
4.0921 -1.41887 -1.86826
4.0921 -1.40442 -1.86622
4.0921 -1.39 -1.86421
4.0921 -1.37562 -1.86223
4.0921 -1.36126 -1.86026
4.0921 -1.34694 -1.85832
4.0921 -1.33264 -1.8564
4.0921 -1.31837 -1.85451
4.0921 -1.30414 -1.85263
4.0921 -1.28993 -1.85078
4.0921 -1.27575 -1.84895
4.0921 -1.26159 -1.84714
4.0921 -1.24747 -1.84536
4.0921 -1.23337 -1.84359
4.0921 -1.2193 -1.84185
4.09338 -1.20563 -1.84071
4.11058 -1.19661 -1.84673
4.12786 -1.18753 -1.8528
4.08345 -1.16081 -1.83122
4.08475 -1.14727 -1.83017
4.08606 -1.13374 -1.82914
4.08736 -1.12022 -1.82813
4.08865 -1.10672 -1.82714
4.08995 -1.09323 -1.82617
4.09124 -1.07975 -1.82521
4.09252 -1.06629 -1.82428
4.09348 -1.05276 -1.82321
4.09372 -1.03906 -1.82185
4.09397 -1.02538 -1.82051
4.09421 -1.01173 -1.81919
4.09445 -0.998087 -1.81789
4.09468 -0.984466 -1.81661
4.09492 -0.970866 -1.81534
4.09515 -0.957283 -1.8141
4.09538 -0.943718 -1.81287
4.0956 -0.93017 -1.81166
4.09582 -0.916641 -1.81047
4.09605 -0.903128 -1.8093
4.09626 -0.889632 -1.80815
4.09648 -0.876152 -1.80701
4.09669 -0.862689 -1.8059
4.0969 -0.849243 -1.8048
4.09711 -0.835811 -1.80372
4.09731 -0.822395 -1.80266
4.09752 -0.808994 -1.80162
4.09771 -0.795608 -1.80059
4.09791 -0.782237 -1.79958
4.09811 -0.76888 -1.79859
4.0983 -0.755537 -1.79762
4.09849 -0.742209 -1.79667
4.09868 -0.728894 -1.79574
4.09886 -0.715591 -1.79482
4.09904 -0.702303 -1.79392
4.09922 -0.689027 -1.79304
4.0994 -0.675763 -1.79217
4.09957 -0.662512 -1.79133
4.09975 -0.649273 -1.7905
4.09992 -0.636045 -1.78969
4.10008 -0.622829 -1.78889
4.10025 -0.609624 -1.78812
4.10041 -0.59643 -1.78736
4.10057 -0.583247 -1.78662
4.10073 -0.570075 -1.78589
4.10089 -0.556912 -1.78519
4.10104 -0.54376 -1.7845
4.10119 -0.530617 -1.78383
4.10134 -0.517484 -1.78317
4.10148 -0.50436 -1.78253
4.10163 -0.491245 -1.78191
4.10177 -0.478139 -1.78131
4.10191 -0.465041 -1.78072
4.11152 -1.81542 -1.98319
4.10717 -1.79803 -1.97835
4.10284 -1.78073 -1.97355
4.09853 -1.76351 -1.96879
4.19432 -1.78906 -2.01208
4.27317 -1.80679 -2.04716
4.31564 -1.80871 -2.06476
4.3473 -1.80587 -2.07717
4.0921 -1.68474 -1.95269
4.0921 -1.66966 -1.95016
4.0921 -1.65462 -1.94766
4.0921 -1.63962 -1.94519
4.0921 -1.62465 -1.94275
4.0921 -1.60972 -1.94033
4.0921 -1.59483 -1.93793
4.0921 -1.57998 -1.93556
4.0921 -1.56516 -1.93321
4.0921 -1.55038 -1.93089
4.0921 -1.53563 -1.9286
4.0921 -1.52092 -1.92633
4.0921 -1.50624 -1.92408
4.0921 -1.49159 -1.92186
4.0921 -1.47698 -1.91966
4.0921 -1.46241 -1.91748
4.0921 -1.44786 -1.91533
4.0921 -1.43335 -1.91321
4.0921 -1.41887 -1.9111
4.0921 -1.40442 -1.90902
4.0921 -1.39 -1.90697
4.0921 -1.37562 -1.90494
4.0921 -1.36126 -1.90293
4.0921 -1.34694 -1.90094
4.0921 -1.33264 -1.89898
4.0921 -1.31837 -1.89704
4.0921 -1.30414 -1.89512
4.0921 -1.28993 -1.89323
4.0921 -1.27575 -1.89136
4.0921 -1.26159 -1.88951
4.0921 -1.24747 -1.88768
4.0921 -1.23337 -1.88588
4.0921 -1.2193 -1.88409
4.0921 -1.20525 -1.88233
4.0921 -1.19123 -1.8806
4.0921 -1.17724 -1.87888
4.0921 -1.16327 -1.87718
4.09646 -1.15055 -1.87751
4.1135 -1.14135 -1.88366
4.13417 -1.13305 -1.89148
4.08393 -1.10544 -1.86689
4.08522 -1.09196 -1.86589
4.08651 -1.07851 -1.86492
4.0878 -1.06506 -1.86396
4.08811 -1.05138 -1.86258
4.08836 -1.0377 -1.8612
4.08861 -1.02404 -1.85983
4.08885 -1.0104 -1.85848
4.0891 -0.996782 -1.85715
4.08933 -0.98318 -1.85584
4.08957 -0.969598 -1.85455
4.08981 -0.956034 -1.85328
4.09004 -0.942488 -1.85203
4.09027 -0.928958 -1.8508
4.09049 -0.915447 -1.84958
4.09072 -0.901952 -1.84839
4.09094 -0.888475 -1.84721
4.09115 -0.875014 -1.84605
4.09137 -0.861568 -1.84491
4.09158 -0.848141 -1.8438
4.09179 -0.834726 -1.84269
4.092 -0.821329 -1.84161
4.09221 -0.807946 -1.84055
4.09241 -0.794578 -1.8395
4.09261 -0.781225 -1.83847
4.09281 -0.767885 -1.83747
4.093 -0.754561 -1.83647
4.09319 -0.74125 -1.8355
4.09338 -0.727952 -1.83455
4.09357 -0.714668 -1.83361
4.09375 -0.701396 -1.83269
4.09394 -0.688137 -1.83179
4.09412 -0.674891 -1.83091
4.09429 -0.661658 -1.83005
4.09447 -0.648436 -1.8292
4.09464 -0.635226 -1.82838
4.09481 -0.622027 -1.82757
4.09498 -0.60884 -1.82677
4.09514 -0.595663 -1.826
4.0953 -0.582498 -1.82524
4.09546 -0.569342 -1.82451
4.09562 -0.556197 -1.82378
4.09578 -0.543061 -1.82308
4.09593 -0.529936 -1.8224
4.09608 -0.51682 -1.82173
4.09622 -0.503713 -1.82108
4.09637 -0.490615 -1.82044
4.09651 -0.477526 -1.81983
4.09665 -0.464445 -1.81923
4.10609 -1.81302 -2.02531
4.10176 -1.79566 -2.02037
4.16301 -1.80685 -2.04772
4.2036 -1.80872 -2.06487
4.24488 -1.81063 -2.08233
4.28687 -1.81258 -2.10011
4.0921 -1.71502 -2.00203
4.0921 -1.69986 -1.9994
4.0921 -1.68474 -1.99679
4.0921 -1.66966 -1.99421
4.0921 -1.65462 -1.99165
4.0921 -1.63962 -1.98913
4.0921 -1.62465 -1.98663
4.0921 -1.60972 -1.98415
4.0921 -1.59483 -1.9817
4.0921 -1.57998 -1.97928
4.0921 -1.56516 -1.97688
4.0921 -1.55038 -1.9745
4.0921 -1.53563 -1.97216
4.0921 -1.52092 -1.96983
4.0921 -1.50624 -1.96754
4.0921 -1.49159 -1.96526
4.0921 -1.47698 -1.96302
4.0921 -1.4624 -1.96079
4.0921 -1.44786 -1.95859
4.0921 -1.43335 -1.95642
4.0921 -1.41887 -1.95427
4.0921 -1.40442 -1.95214
4.0921 -1.39 -1.95004
4.0921 -1.37562 -1.94796
4.0921 -1.36126 -1.94591
4.0921 -1.34694 -1.94388
4.0921 -1.33264 -1.94187
4.0921 -1.31837 -1.93989
4.0921 -1.30414 -1.93793
4.0921 -1.28993 -1.93599
4.0921 -1.27575 -1.93407
4.0921 -1.26159 -1.93218
4.0921 -1.24747 -1.93032
4.0921 -1.23337 -1.92847
4.0921 -1.2193 -1.92665
4.0921 -1.20525 -1.92485
4.0921 -1.19123 -1.92307
4.0921 -1.17724 -1.92131
4.0921 -1.16327 -1.91958
4.0921 -1.14933 -1.91787
4.0921 -1.13541 -1.91618
4.0921 -1.12152 -1.91452
4.11115 -1.1128 -1.92177
4.13704 -1.10581 -1.93224
4.16319 -1.09874 -1.94282
4.08326 -1.06388 -1.90395
4.08331 -1.05014 -1.90242
4.08337 -1.03643 -1.90091
4.08343 -1.02274 -1.89942
4.08348 -1.00907 -1.89796
4.08372 -0.99547 -1.8966
4.08396 -0.981888 -1.89526
4.0842 -0.968325 -1.89395
4.08444 -0.954779 -1.89265
4.08467 -0.941252 -1.89138
4.08491 -0.927741 -1.89012
4.08513 -0.914248 -1.88888
4.08536 -0.900772 -1.88766
4.08558 -0.887312 -1.88646
4.08581 -0.873869 -1.88528
4.08602 -0.860444 -1.88412
4.08624 -0.847032 -1.88298
4.08645 -0.833637 -1.88185
4.08666 -0.820257 -1.88075
4.08687 -0.806892 -1.87966
4.08708 -0.793542 -1.8786
4.08728 -0.780207 -1.87755
4.08748 -0.766886 -1.87652
4.08768 -0.753579 -1.87551
4.08787 -0.740286 -1.87452
4.08806 -0.727006 -1.87355
4.08825 -0.71374 -1.87259
4.08844 -0.700486 -1.87166
4.08863 -0.687245 -1.87074
4.08881 -0.674017 -1.86984
4.08899 -0.6608 -1.86896
4.08916 -0.647596 -1.8681
4.08934 -0.634403 -1.86725
4.08951 -0.621222 -1.86643
4.08968 -0.608051 -1.86562
4.08985 -0.594893 -1.86483
4.09001 -0.581745 -1.86406
4.09017 -0.568607 -1.8633
4.09033 -0.555479 -1.86257
4.09049 -0.54236 -1.86185
4.09064 -0.529252 -1.86115
4.09079 -0.516154 -1.86047
4.09094 -0.503064 -1.85981
4.09109 -0.489983 -1.85916
4.09123 -0.476911 -1.85853
4.09137 -0.463847 -1.85792
4.10863 -1.81414 -2.07166
4.13601 -1.81066 -2.08257
4.17616 -1.81255 -2.0999
4.21698 -1.81448 -2.11754
4.25851 -1.81644 -2.1355
4.30075 -1.81845 -2.15379
4.0921 -1.71502 -2.04658
4.0921 -1.69986 -2.04389
4.0921 -1.68474 -2.04123
4.0921 -1.66966 -2.03859
4.0921 -1.65462 -2.03598
4.0921 -1.63962 -2.03339
4.0921 -1.62465 -2.03084
4.0921 -1.60972 -2.0283
4.0921 -1.59483 -2.0258
4.0921 -1.57998 -2.02332
4.0921 -1.56516 -2.02087
4.0921 -1.55038 -2.01844
4.0921 -1.53563 -2.01604
4.0921 -1.52092 -2.01367
4.0921 -1.50624 -2.01132
4.0921 -1.49159 -2.009
4.0921 -1.47698 -2.0067
4.0921 -1.4624 -2.00443
4.0921 -1.44786 -2.00218
4.0921 -1.43335 -1.99996
4.0921 -1.41887 -1.99776
4.0921 -1.40442 -1.99558
4.0921 -1.39 -1.99344
4.0921 -1.37562 -1.99131
4.0921 -1.36126 -1.98921
4.0921 -1.34694 -1.98713
4.0921 -1.33264 -1.98508
4.0921 -1.31837 -1.98306
4.0921 -1.30414 -1.98105
4.0921 -1.28993 -1.97907
4.0921 -1.27575 -1.97712
4.0921 -1.26159 -1.97518
4.0921 -1.24747 -1.97327
4.0921 -1.23337 -1.97139
4.0921 -1.2193 -1.96952
4.0921 -1.20525 -1.96768
4.0921 -1.19123 -1.96586
4.0921 -1.17724 -1.96407
4.0921 -1.16327 -1.9623
4.0921 -1.14933 -1.96055
4.0921 -1.13541 -1.95882
4.0921 -1.12152 -1.95712
4.0921 -1.10765 -1.95544
4.0921 -1.0938 -1.95378
4.11361 -1.08566 -1.9624
4.13944 -1.07851 -1.97309
4.16553 -1.07129 -1.98391
4.08329 -1.03641 -1.94317
4.08335 -1.02272 -1.94166
4.0834 -1.00905 -1.94016
4.08346 -0.995408 -1.93868
4.08351 -0.981782 -1.93723
4.08357 -0.968175 -1.9358
4.08363 -0.954589 -1.93439
4.08368 -0.941023 -1.93299
4.08374 -0.927475 -1.93163
4.08379 -0.913947 -1.93028
4.08385 -0.900438 -1.92895
4.0839 -0.886947 -1.92765
4.08395 -0.873474 -1.92636
4.08401 -0.860019 -1.9251
4.08406 -0.846581 -1.92386
4.08412 -0.833161 -1.92263
4.08417 -0.819757 -1.92143
4.08423 -0.806371 -1.92025
4.08428 -0.793 -1.91909
4.08433 -0.779645 -1.91795
4.08439 -0.766306 -1.91683
4.08444 -0.752983 -1.91573
4.0845 -0.739674 -1.91465
4.08455 -0.726381 -1.91359
4.0846 -0.713102 -1.91255
4.08466 -0.699838 -1.91154
4.08471 -0.686587 -1.91054
4.08476 -0.67335 -1.90956
4.08482 -0.660126 -1.9086
4.08487 -0.646916 -1.90766
4.08492 -0.633718 -1.90674
4.08497 -0.620533 -1.90584
4.08503 -0.60736 -1.90497
4.08508 -0.5942 -1.90411
4.08513 -0.581051 -1.90327
4.08519 -0.567913 -1.90245
4.08524 -0.554787 -1.90165
4.08529 -0.541671 -1.90087
4.08534 -0.528567 -1.90011
4.08548 -0.515483 -1.8994
4.08563 -0.502411 -1.89873
4.08578 -0.489347 -1.89807
4.08593 -0.476292 -1.89743
4.08607 -0.463245 -1.89681
4.11349 -1.81629 -2.11961
4.1491 -1.81639 -2.13499
4.18949 -1.81834 -2.15281
4.23056 -1.82032 -2.17095
4.27233 -1.82234 -2.18943
4.0921 -1.73022 -2.09426
4.0921 -1.71502 -2.09148
4.0921 -1.69986 -2.08873
4.0921 -1.68474 -2.086
4.0921 -1.66966 -2.08331
4.0921 -1.65462 -2.08064
4.0921 -1.63962 -2.078
4.0921 -1.62465 -2.07538
4.0921 -1.60972 -2.0728
4.0921 -1.59483 -2.07024
4.0921 -1.57998 -2.0677
4.0921 -1.56516 -2.0652
4.0921 -1.55038 -2.06272
4.0921 -1.53563 -2.06027
4.0921 -1.52092 -2.05784
4.0921 -1.50624 -2.05544
4.0921 -1.49159 -2.05307
4.0921 -1.47698 -2.05072
4.0921 -1.46241 -2.0484
4.0921 -1.44786 -2.0461
4.0921 -1.43335 -2.04383
4.0921 -1.41887 -2.04158
4.0921 -1.40442 -2.03936
4.0921 -1.39 -2.03716
4.0921 -1.37562 -2.03499
4.0921 -1.36126 -2.03285
4.0921 -1.34694 -2.03073
4.0921 -1.33264 -2.02863
4.0921 -1.31837 -2.02656
4.0921 -1.30414 -2.02451
4.0921 -1.28993 -2.02249
4.0921 -1.27575 -2.02049
4.0921 -1.26159 -2.01851
4.0921 -1.24747 -2.01656
4.0921 -1.23337 -2.01463
4.0921 -1.2193 -2.01273
4.0921 -1.20525 -2.01085
4.0921 -1.19123 -2.00899
4.0921 -1.17724 -2.00716
4.0921 -1.16327 -2.00534
4.0921 -1.14933 -2.00356
4.0921 -1.13541 -2.00179
4.0921 -1.12152 -2.00005
4.0921 -1.10765 -1.99833
4.0921 -1.0938 -1.99664
4.0921 -1.07998 -1.99497
4.0921 -1.06618 -1.99332
4.1156 -1.05845 -2.00313
4.15565 -1.05478 -2.02099
4.08327 -1.0227 -1.98421
4.08332 -1.00904 -1.98268
4.08338 -0.995388 -1.98117
4.08343 -0.981762 -1.97969
4.08349 -0.968156 -1.97822
4.08355 -0.95457 -1.97678
4.0836 -0.941004 -1.97536
4.08366 -0.927457 -1.97396
4.08371 -0.913929 -1.97258
4.08377 -0.90042 -1.97123
4.08382 -0.886929 -1.96989
4.08388 -0.873457 -1.96858
4.08393 -0.860002 -1.96729
4.08398 -0.846565 -1.96602
4.08404 -0.833145 -1.96477
4.08409 -0.819741 -1.96354
4.08415 -0.806354 -1.96233
4.0842 -0.792984 -1.96115
4.08426 -0.77963 -1.95998
4.08431 -0.766291 -1.95884
4.08436 -0.752968 -1.95772
4.08442 -0.73966 -1.95661
4.08447 -0.726367 -1.95553
4.08452 -0.713088 -1.95447
4.08458 -0.699824 -1.95343
4.08463 -0.686573 -1.95241
4.08468 -0.673337 -1.95141
4.08474 -0.660114 -1.95043
4.08479 -0.646903 -1.94947
4.08484 -0.633706 -1.94853
4.0849 -0.620521 -1.94761
4.08495 -0.607349 -1.94672
4.085 -0.594188 -1.94584
4.08505 -0.58104 -1.94498
4.08511 -0.567902 -1.94414
4.08516 -0.554776 -1.94332
4.08521 -0.541661 -1.94253
4.08526 -0.528557 -1.94175
4.08532 -0.515462 -1.94099
4.08537 -0.502378 -1.94025
4.08542 -0.489304 -1.93953
4.08547 -0.476239 -1.93884
4.08552 -0.463183 -1.93816
4.12243 -1.82024 -2.17017
4.16238 -1.8222 -2.18816
4.20301 -1.82421 -2.20649
4.24433 -1.82625 -2.22514
4.0921 -1.74546 -2.14243
4.0921 -1.73022 -2.13956
4.0921 -1.71502 -2.13673
4.0921 -1.69986 -2.13391
4.0921 -1.68474 -2.13113
4.0921 -1.66966 -2.12838
4.0921 -1.65462 -2.12565
4.0921 -1.63962 -2.12295
4.0921 -1.62465 -2.12028
4.0921 -1.60972 -2.11764
4.0921 -1.59483 -2.11503
4.0921 -1.57998 -2.11244
4.0921 -1.56516 -2.10988
4.0921 -1.55038 -2.10735
4.0921 -1.53563 -2.10484
4.0921 -1.52092 -2.10236
4.0921 -1.50624 -2.09991
4.0921 -1.49159 -2.09748
4.0921 -1.47698 -2.09508
4.0921 -1.46241 -2.09271
4.0921 -1.44786 -2.09036
4.0921 -1.43335 -2.08804
4.0921 -1.41887 -2.08575
4.0921 -1.40442 -2.08348
4.0921 -1.39 -2.08124
4.0921 -1.37562 -2.07902
4.0921 -1.36126 -2.07683
4.0921 -1.34694 -2.07466
4.0921 -1.33264 -2.07252
4.0921 -1.31837 -2.0704
4.0921 -1.30414 -2.06831
4.0921 -1.28993 -2.06624
4.0921 -1.27575 -2.0642
4.0921 -1.26159 -2.06218
4.0921 -1.24747 -2.06019
4.0921 -1.23337 -2.05822
4.0921 -1.2193 -2.05627
4.0921 -1.20525 -2.05435
4.0921 -1.19123 -2.05245
4.0921 -1.17724 -2.05058
4.0921 -1.16327 -2.04873
4.0921 -1.14933 -2.0469
4.0921 -1.13541 -2.0451
4.0921 -1.12152 -2.04332
4.0921 -1.10765 -2.04157
4.0921 -1.0938 -2.03984
4.0921 -1.07998 -2.03813
4.0921 -1.06618 -2.03644
4.0921 -1.0524 -2.03478
4.13098 -1.04852 -2.05246
4.17162 -1.04483 -2.071
4.21297 -1.04107 -2.08989
4.0833 -0.995369 -2.02399
4.08335 -0.981743 -2.02247
4.08341 -0.968137 -2.02098
4.08346 -0.954552 -2.01951
4.08352 -0.940986 -2.01806
4.08358 -0.927439 -2.01663
4.08363 -0.913912 -2.01522
4.08369 -0.900402 -2.01383
4.08374 -0.886912 -2.01247
4.0838 -0.87344 -2.01113
4.08385 -0.859985 -2.00981
4.0839 -0.846548 -2.00851
4.08396 -0.833128 -2.00724
4.08401 -0.819725 -2.00598
4.08407 -0.806339 -2.00475
4.08412 -0.792969 -2.00354
4.08418 -0.779615 -2.00235
4.08423 -0.766276 -2.00118
4.08428 -0.752953 -2.00003
4.08434 -0.739646 -1.9989
4.08439 -0.726353 -1.9978
4.08444 -0.713074 -1.99672
4.0845 -0.69981 -1.99565
4.08455 -0.68656 -1.99461
4.0846 -0.673324 -1.99359
4.08466 -0.660101 -1.99259
4.08471 -0.646891 -1.99161
4.08476 -0.633694 -1.99065
4.08482 -0.620509 -1.98971
4.08487 -0.607337 -1.98879
4.08492 -0.594177 -1.9879
4.08497 -0.581028 -1.98702
4.08503 -0.567891 -1.98616
4.08508 -0.554765 -1.98533
4.08513 -0.541651 -1.98451
4.08518 -0.528546 -1.98372
4.08524 -0.515452 -1.98294
4.08529 -0.502369 -1.98219
4.08534 -0.489294 -1.98146
4.08539 -0.47623 -1.98074
4.08547 -0.463177 -1.98006
4.13567 -1.82608 -2.22361
4.17586 -1.8281 -2.24211
4.0921 -1.73022 -2.18524
4.0921 -1.71502 -2.18234
4.0921 -1.69986 -2.17947
4.0921 -1.68474 -2.17662
4.0921 -1.66966 -2.17381
4.0921 -1.65462 -2.17103
4.0921 -1.63962 -2.16827
4.0921 -1.62465 -2.16554
4.0921 -1.60972 -2.16284
4.0921 -1.59483 -2.16017
4.0921 -1.57998 -2.15753
4.0921 -1.56516 -2.15492
4.0921 -1.55038 -2.15233
4.0921 -1.53563 -2.14977
4.0921 -1.52092 -2.14724
4.0921 -1.50624 -2.14473
4.0921 -1.49159 -2.14226
4.0921 -1.47698 -2.13981
4.0921 -1.4624 -2.13738
4.0921 -1.44786 -2.13499
4.0921 -1.43335 -2.13262
4.0921 -1.41887 -2.13027
4.0921 -1.40442 -2.12796
4.0921 -1.39 -2.12566
4.0921 -1.37562 -2.1234
4.0921 -1.36126 -2.12116
4.0921 -1.34694 -2.11895
4.0921 -1.33264 -2.11676
4.0921 -1.31837 -2.11459
4.0921 -1.30414 -2.11246
4.0921 -1.28993 -2.11035
4.0921 -1.27575 -2.10826
4.0921 -1.26159 -2.1062
4.0921 -1.24747 -2.10416
4.0921 -1.23337 -2.10215
4.0921 -1.2193 -2.10016
4.0921 -1.20525 -2.0982
4.0921 -1.19123 -2.09626
4.0921 -1.17724 -2.09435
4.0921 -1.16327 -2.09246
4.0921 -1.14933 -2.0906
4.0921 -1.13541 -2.08876
4.0921 -1.12152 -2.08694
4.0921 -1.10765 -2.08515
4.0921 -1.0938 -2.08338
4.0921 -1.07998 -2.08163
4.0921 -1.06618 -2.07991
4.0921 -1.0524 -2.07821
4.10642 -1.04228 -2.0838
4.14659 -1.03856 -2.10251
4.18747 -1.03477 -2.12158
4.23129 -1.03144 -2.14212
4.08327 -0.981723 -2.06561
4.08333 -0.968118 -2.06408
4.08338 -0.954533 -2.06257
4.08344 -0.940967 -2.06109
4.08349 -0.92742 -2.05963
4.08355 -0.913893 -2.0582
4.0836 -0.900385 -2.05678
4.08366 -0.886894 -2.05539
4.08371 -0.873422 -2.05402
4.08377 -0.859968 -2.05267
4.08382 -0.846531 -2.05135
4.08388 -0.833112 -2.05004
4.08393 -0.819709 -2.04876
4.08399 -0.806323 -2.0475
4.08404 -0.792953 -2.04627
4.0841 -0.779599 -2.04505
4.08415 -0.766261 -2.04386
4.0842 -0.752939 -2.04268
4.08426 -0.739631 -2.04153
4.08431 -0.726338 -2.0404
4.08439 -0.713064 -2.03931
4.08447 -0.699805 -2.03824
4.08455 -0.68656 -2.03719
4.08464 -0.673329 -2.03616
4.08472 -0.660111 -2.03515
4.0848 -0.646905 -2.03417
4.08489 -0.633713 -2.0332
4.08497 -0.620533 -2.03226
4.08506 -0.607365 -2.03134
4.08514 -0.594208 -2.03044
4.08522 -0.581064 -2.02956
4.08531 -0.567931 -2.0287
4.08539 -0.554808 -2.02786
4.08548 -0.541697 -2.02705
4.08556 -0.528596 -2.02625
4.08565 -0.515504 -2.02548
4.08574 -0.502423 -2.02472
4.08582 -0.489352 -2.02399
4.08591 -0.47629 -2.02328
4.08599 -0.463237 -2.02259
4.0921 -1.71502 -2.22832
4.0921 -1.69986 -2.22539
4.0921 -1.68474 -2.22249
4.0921 -1.66966 -2.21962
4.0921 -1.65462 -2.21677
4.0921 -1.63962 -2.21396
4.0921 -1.62465 -2.21118
4.0921 -1.60972 -2.20842
4.0921 -1.59483 -2.20569
4.0921 -1.57998 -2.203
4.0921 -1.56516 -2.20033
4.0921 -1.55038 -2.19768
4.0921 -1.53563 -2.19507
4.0921 -1.52092 -2.19249
4.0921 -1.50624 -2.18993
4.0921 -1.49159 -2.1874
4.0921 -1.47698 -2.1849
4.0921 -1.4624 -2.18242
4.0921 -1.44786 -2.17998
4.0921 -1.43335 -2.17756
4.0921 -1.41887 -2.17516
4.0921 -1.40442 -2.1728
4.0921 -1.39 -2.17046
4.0921 -1.37562 -2.16814
4.0921 -1.36126 -2.16586
4.0921 -1.34694 -2.1636
4.0921 -1.33264 -2.16136
4.0921 -1.31837 -2.15915
4.0921 -1.30414 -2.15697
4.0921 -1.28993 -2.15482
4.0921 -1.27575 -2.15269
4.0921 -1.26159 -2.15058
4.0921 -1.24747 -2.1485
4.0921 -1.23337 -2.14645
4.0921 -1.2193 -2.14442
4.0921 -1.20525 -2.14242
4.0921 -1.19123 -2.14044
4.0921 -1.17724 -2.13848
4.0921 -1.16327 -2.13655
4.0921 -1.14933 -2.13465
4.0921 -1.13541 -2.13277
4.0921 -1.12152 -2.13092
4.0921 -1.10765 -2.12909
4.0921 -1.0938 -2.12728
4.0921 -1.07998 -2.1255
4.0921 -1.06618 -2.12374
4.0921 -1.0524 -2.12201
4.0921 -1.03865 -2.1203
4.12165 -1.03232 -2.13391
4.19773 -1.03731 -2.17159
4.29499 -1.04697 -2.22019
4.3473 -1.0452 -2.24551
4.08331 -0.968114 -2.10756
4.0836 -0.954584 -2.10615
4.08386 -0.941063 -2.10474
4.08387 -0.927505 -2.10322
4.08388 -0.913967 -2.10174
4.08389 -0.900448 -2.10027
4.0839 -0.886947 -2.09883
4.08394 -0.873471 -2.09742
4.08402 -0.860021 -2.09606
4.0841 -0.846589 -2.09472
4.08418 -0.833174 -2.0934
4.08426 -0.819776 -2.0921
4.08435 -0.806394 -2.09083
4.08443 -0.793028 -2.08958
4.08451 -0.779678 -2.08836
4.08459 -0.766344 -2.08715
4.08467 -0.753025 -2.08597
4.08476 -0.739722 -2.08481
4.08484 -0.726433 -2.08367
4.08492 -0.713158 -2.08255
4.085 -0.699897 -2.08146
4.08509 -0.68665 -2.08039
4.08517 -0.673417 -2.07934
4.08525 -0.660197 -2.07831
4.08534 -0.64699 -2.0773
4.08542 -0.633796 -2.07632
4.0855 -0.620614 -2.07536
4.08559 -0.607444 -2.07441
4.08567 -0.594286 -2.07349
4.08576 -0.58114 -2.0726
4.08584 -0.568005 -2.07172
4.08593 -0.554881 -2.07086
4.08601 -0.541767 -2.07003
4.0861 -0.528664 -2.06922
4.08618 -0.515572 -2.06843
4.08627 -0.502489 -2.06766
4.08635 -0.489416 -2.06691
4.08644 -0.476352 -2.06618
4.08653 -0.463297 -2.06548
4.0921 -1.71502 -2.27469
4.0921 -1.69986 -2.2717
4.0921 -1.68474 -2.26874
4.0921 -1.66966 -2.26581
4.0921 -1.65462 -2.26291
4.0921 -1.63962 -2.26003
4.0921 -1.62465 -2.25719
4.0921 -1.60972 -2.25438
4.0921 -1.59483 -2.25159
4.0921 -1.57998 -2.24884
4.0921 -1.56516 -2.24611
4.0921 -1.55038 -2.24342
4.0921 -1.53563 -2.24075
4.0921 -1.52092 -2.23811
4.0921 -1.50624 -2.2355
4.0921 -1.49159 -2.23292
4.0921 -1.47698 -2.23037
4.0921 -1.4624 -2.22784
4.0921 -1.44786 -2.22534
4.0921 -1.43335 -2.22287
4.0921 -1.41887 -2.22043
4.0921 -1.40442 -2.21801
4.0921 -1.39 -2.21562
4.0921 -1.37562 -2.21326
4.0921 -1.36126 -2.21093
4.0921 -1.34694 -2.20862
4.0921 -1.33264 -2.20634
4.0921 -1.31837 -2.20409
4.0921 -1.30414 -2.20186
4.0921 -1.28993 -2.19966
4.0921 -1.27575 -2.19748
4.0921 -1.26159 -2.19534
4.0921 -1.24747 -2.19321
4.0921 -1.23337 -2.19112
4.0921 -1.2193 -2.18904
4.0921 -1.20525 -2.187
4.0921 -1.19123 -2.18498
4.0921 -1.17724 -2.18299
4.0921 -1.16327 -2.18102
4.0921 -1.14933 -2.17907
4.0921 -1.13541 -2.17715
4.0921 -1.12152 -2.17526
4.0921 -1.10765 -2.17339
4.0921 -1.0938 -2.17155
4.0921 -1.07998 -2.16973
4.0921 -1.06618 -2.16793
4.0921 -1.0524 -2.16616
4.0921 -1.03865 -2.16442
4.16519 -1.04322 -2.20132
4.261 -1.05294 -2.2502
4.08318 -0.968081 -2.15136
4.08348 -0.954555 -2.14991
4.08377 -0.941043 -2.14849
4.08406 -0.927551 -2.1471
4.08435 -0.914075 -2.14572
4.08465 -0.900614 -2.14437
4.08494 -0.887172 -2.14305
4.08523 -0.873745 -2.14174
4.08552 -0.860336 -2.14046
4.08581 -0.846943 -2.1392
4.0861 -0.833565 -2.13797
4.08639 -0.820202 -2.13675
4.08668 -0.806855 -2.13556
4.08697 -0.793522 -2.13439
4.08704 -0.780162 -2.13314
4.08707 -0.766809 -2.13188
4.08709 -0.753472 -2.13064
4.08712 -0.74015 -2.12943
4.08715 -0.726843 -2.12823
4.08718 -0.713552 -2.12707
4.08721 -0.700275 -2.12592
4.08724 -0.687013 -2.1248
4.08728 -0.673764 -2.1237
4.08731 -0.66053 -2.12263
4.08735 -0.647309 -2.12158
4.08739 -0.634101 -2.12055
4.08743 -0.620906 -2.11954
4.08747 -0.607724 -2.11856
4.08751 -0.594554 -2.1176
4.08756 -0.581396 -2.11666
4.0876 -0.568249 -2.11574
4.08765 -0.555114 -2.11485
4.0877 -0.541991 -2.11398
4.08775 -0.528878 -2.11313
4.0878 -0.515775 -2.11231
4.08785 -0.502684 -2.11151
4.08791 -0.489601 -2.11072
4.08796 -0.476529 -2.10997
4.08802 -0.463466 -2.10923
4.0921 -1.68474 -2.31539
4.0921 -1.66966 -2.31239
4.0921 -1.65462 -2.30943
4.0921 -1.63962 -2.3065
4.0921 -1.62465 -2.3036
4.0921 -1.60972 -2.30073
4.0921 -1.59483 -2.29789
4.0921 -1.57998 -2.29508
4.0921 -1.56516 -2.2923
4.0921 -1.55038 -2.28954
4.0921 -1.53563 -2.28682
4.0921 -1.52092 -2.28413
4.0921 -1.50624 -2.28146
4.0921 -1.49159 -2.27883
4.0921 -1.47698 -2.27622
4.0921 -1.4624 -2.27364
4.0921 -1.44786 -2.27109
4.0921 -1.43335 -2.26857
4.0921 -1.41887 -2.26608
4.0921 -1.40442 -2.26361
4.0921 -1.39 -2.26118
4.0921 -1.37562 -2.25877
4.0921 -1.36126 -2.25639
4.0921 -1.34694 -2.25403
4.0921 -1.33264 -2.2517
4.0921 -1.31837 -2.2494
4.0921 -1.30414 -2.24713
4.0921 -1.28993 -2.24488
4.0921 -1.27575 -2.24266
4.0921 -1.26159 -2.24047
4.0921 -1.24747 -2.23831
4.0921 -1.23337 -2.23617
4.0921 -1.2193 -2.23405
4.0921 -1.20525 -2.23196
4.0921 -1.19123 -2.2299
4.0921 -1.17724 -2.22787
4.0921 -1.16327 -2.22586
4.0921 -1.14933 -2.22388
4.0921 -1.13541 -2.22192
4.0921 -1.12152 -2.21998
4.0921 -1.10765 -2.21808
4.0921 -1.0938 -2.2162
4.0921 -1.07998 -2.21434
4.0921 -1.06618 -2.21251
4.0921 -1.0524 -2.2107
4.13363 -1.04919 -2.23134
4.08305 -0.968053 -2.19552
4.08335 -0.954524 -2.19405
4.08364 -0.941012 -2.1926
4.08393 -0.92752 -2.19117
4.08423 -0.914044 -2.18977
4.08452 -0.900588 -2.18839
4.08481 -0.887143 -2.18704
4.0851 -0.873719 -2.18571
4.08539 -0.86031 -2.1844
4.08568 -0.846916 -2.18312
4.08597 -0.833539 -2.18185
4.08626 -0.820176 -2.18062
4.08655 -0.806829 -2.1794
4.08684 -0.793495 -2.17821
4.08713 -0.780177 -2.17704
4.08742 -0.766874 -2.17589
4.08771 -0.753583 -2.17477
4.08799 -0.740308 -2.17367
4.08828 -0.727045 -2.17259
4.08857 -0.713794 -2.17154
4.08885 -0.700556 -2.1705
4.08914 -0.687331 -2.16949
4.08943 -0.674119 -2.16851
4.08971 -0.660918 -2.16754
4.09 -0.647727 -2.1666
4.09028 -0.634549 -2.16568
4.09042 -0.621361 -2.1647
4.09046 -0.608169 -2.1637
4.0905 -0.594989 -2.16272
4.09055 -0.581821 -2.16176
4.09059 -0.568665 -2.16082
4.09064 -0.55552 -2.15991
4.09068 -0.542387 -2.15902
4.09073 -0.529264 -2.15815
4.09078 -0.516152 -2.15731
4.09084 -0.50305 -2.15649
4.09089 -0.489959 -2.15569
4.09094 -0.476877 -2.15492
4.091 -0.463804 -2.15417
4.0921 -1.65462 -2.35636
4.0921 -1.63962 -2.35337
4.0921 -1.62465 -2.35041
4.0921 -1.60972 -2.34748
4.0921 -1.59483 -2.34459
4.0921 -1.57998 -2.34172
4.0921 -1.56516 -2.33888
4.0921 -1.55038 -2.33607
4.0921 -1.53563 -2.33329
4.0921 -1.52092 -2.33055
4.0921 -1.50624 -2.32783
4.0921 -1.49159 -2.32514
4.0921 -1.47698 -2.32248
4.0921 -1.4624 -2.31985
4.0921 -1.44786 -2.31725
4.0921 -1.43335 -2.31468
4.0921 -1.41887 -2.31213
4.0921 -1.40442 -2.30962
4.0921 -1.39 -2.30713
4.0921 -1.37562 -2.30467
4.0921 -1.36126 -2.30224
4.0921 -1.34694 -2.29984
4.0921 -1.33264 -2.29746
4.0921 -1.31837 -2.29512
4.0921 -1.30414 -2.2928
4.0921 -1.28993 -2.2905
4.0921 -1.27575 -2.28824
4.0921 -1.26159 -2.286
4.0921 -1.24747 -2.28379
4.0921 -1.23337 -2.28161
4.0921 -1.2193 -2.27945
4.0921 -1.20525 -2.27732
4.0921 -1.19123 -2.27522
4.0921 -1.17724 -2.27314
4.0921 -1.16327 -2.27109
4.0921 -1.14933 -2.26907
4.0921 -1.13541 -2.26707
4.0921 -1.12152 -2.2651
4.0921 -1.10765 -2.26315
4.0921 -1.0938 -2.26123
4.0921 -1.07998 -2.25934
4.0921 -1.06618 -2.25747
4.10307 -1.05522 -2.26168
4.08292 -0.968023 -2.24007
4.08322 -0.954493 -2.23856
4.08351 -0.940984 -2.23709
4.0838 -0.92749 -2.23563
4.0841 -0.914016 -2.2342
4.08439 -0.900559 -2.2328
4.08468 -0.887116 -2.23141
4.08497 -0.873692 -2.23006
4.08526 -0.860283 -2.22872
4.08555 -0.846889 -2.22741
4.08584 -0.833513 -2.22612
4.08613 -0.820151 -2.22486
4.08642 -0.806803 -2.22362
4.08671 -0.793471 -2.22241
4.087 -0.780152 -2.22121
4.08729 -0.766849 -2.22004
4.08758 -0.753562 -2.2189
4.08786 -0.740284 -2.21777
4.08815 -0.727022 -2.21667
4.08844 -0.713772 -2.2156
4.08873 -0.700535 -2.21454
4.08901 -0.687311 -2.21351
4.0893 -0.674097 -2.21251
4.08958 -0.660897 -2.21152
4.08987 -0.647706 -2.21056
4.09015 -0.634529 -2.20962
4.09044 -0.621363 -2.2087
4.09072 -0.608209 -2.20781
4.09101 -0.595061 -2.20694
4.09129 -0.581927 -2.20609
4.09157 -0.568803 -2.20526
4.09186 -0.555686 -2.20446
4.09214 -0.542579 -2.20368
4.09242 -0.529483 -2.20292
4.0927 -0.516393 -2.20219
4.09299 -0.503313 -2.20147
4.09327 -0.490244 -2.20078
4.09355 -0.477181 -2.20011
4.09383 -0.464126 -2.19946
4.0921 -1.62465 -2.39764
4.0921 -1.60972 -2.39466
4.0921 -1.59483 -2.3917
4.0921 -1.57998 -2.38877
4.0921 -1.56516 -2.38588
4.0921 -1.55038 -2.38301
4.0921 -1.53563 -2.38018
4.0921 -1.52092 -2.37738
4.0921 -1.50624 -2.37461
4.0921 -1.49159 -2.37186
4.0921 -1.47698 -2.36915
4.0921 -1.46241 -2.36647
4.0921 -1.44786 -2.36381
4.0921 -1.43335 -2.36119
4.0921 -1.41887 -2.35859
4.0921 -1.40442 -2.35603
4.0921 -1.39 -2.35349
4.0921 -1.37562 -2.35098
4.0921 -1.36126 -2.3485
4.0921 -1.34694 -2.34605
4.0921 -1.33264 -2.34363
4.0921 -1.31837 -2.34124
4.0921 -1.30414 -2.33887
4.0921 -1.28993 -2.33653
4.0921 -1.27575 -2.33422
4.0921 -1.26159 -2.33194
4.0921 -1.24747 -2.32968
4.0921 -1.23337 -2.32746
4.0921 -1.2193 -2.32526
4.0921 -1.20525 -2.32309
4.0921 -1.19123 -2.32094
4.0921 -1.17724 -2.31882
4.0921 -1.16327 -2.31673
4.0921 -1.14933 -2.31467
4.0921 -1.13541 -2.31263
4.0921 -1.12152 -2.31062
4.0921 -1.10765 -2.30863
4.0921 -1.0938 -2.30667
4.0921 -1.07998 -2.30474
4.08917 -0.674075 -2.25689
4.08945 -0.660875 -2.25589
4.08974 -0.647687 -2.25491
4.09002 -0.634509 -2.25395
4.09031 -0.621343 -2.25302
4.09059 -0.608187 -2.2521
4.09088 -0.595041 -2.25122
4.09116 -0.581908 -2.25035
4.09144 -0.568782 -2.24951
4.09173 -0.555666 -2.24869
4.09201 -0.542563 -2.24789
4.09229 -0.529465 -2.24712
4.09258 -0.516377 -2.24637
4.09286 -0.503299 -2.24564
4.09314 -0.490227 -2.24493
4.09342 -0.477164 -2.24425
4.0937 -0.464111 -2.24359
4.0921 -1.56516 -2.43331
4.0921 -1.55038 -2.43039
4.0921 -1.53563 -2.4275
4.0921 -1.52092 -2.42464
4.0921 -1.50624 -2.42181
4.0921 -1.49159 -2.41901
4.0921 -1.47698 -2.41624
4.0921 -1.46241 -2.41351
4.0921 -1.44786 -2.4108
4.0921 -1.43335 -2.40812
4.0921 -1.41887 -2.40548
4.0921 -1.40442 -2.40286
4.0921 -1.39 -2.40027
4.0921 -1.37562 -2.39772
4.0921 -1.36126 -2.39519
4.0921 -1.34694 -2.39269
4.0921 -1.33264 -2.39022
4.0921 -1.31837 -2.38778
4.0921 -1.30414 -2.38536
4.0921 -1.28993 -2.38298
4.0921 -1.27575 -2.38062
4.0921 -1.26159 -2.37829
4.0921 -1.24747 -2.376
4.0921 -1.23337 -2.37372
4.0921 -1.2193 -2.37148
4.0921 -1.20525 -2.36926
4.0921 -1.19123 -2.36708
4.0921 -1.17724 -2.36492
4.0921 -1.16327 -2.36278
4.0921 -1.14933 -2.36068
4.0921 -1.13541 -2.3586
4.0921 -1.12152 -2.35655
4.0921 -1.50624 -2.46945
4.0921 -1.49159 -2.4666
4.0921 -1.47698 -2.46377
4.0921 -1.4624 -2.46098
4.0921 -1.44786 -2.45822
4.0921 -1.43335 -2.4555
4.0921 -1.41887 -2.4528
4.0921 -1.40442 -2.45013
4.0921 -1.39 -2.44749
4.0921 -1.37562 -2.44488
4.0921 -1.36126 -2.4423
4.0921 -1.34694 -2.43976
4.0921 -1.33264 -2.43724
4.0921 -1.31837 -2.43475
4.0921 -1.30414 -2.43229
4.0921 -1.28993 -2.42985
4.0921 -1.27575 -2.42745
4.0921 -1.26159 -2.42508
4.0921 -1.24747 -2.42273
4.0921 -1.23337 -2.42042
4.0921 -1.2193 -2.41813
4.0921 -1.20525 -2.41587
4.0921 -1.19123 -2.41364
4.0921 -1.17724 -2.41144
4.0921 -1.16327 -2.40926
4.0921 -1.39 -2.49515
4.0921 -1.37562 -2.49249
4.0921 -1.36126 -2.48987
4.0921 -1.34694 -2.48727
4.0921 -1.33264 -2.4847
4.0921 -1.31837 -2.48216
4.0921 -1.30414 -2.47965
4.0921 -1.28993 -2.47717
4.0921 -1.27575 -2.47473
4.0921 -1.26159 -2.47231
5.2423 0.577108 -1.15772
5.28459 0.598581 -1.16747
5.34794 0.622785 -1.18189
4.94164 0.54401 -1.13471
4.95961 0.56177 -1.13924
4.97767 0.579666 -1.1438
4.99583 0.597703 -1.1484
5.03047 0.617889 -1.1568
5.0696 0.638876 -1.16625
5.10868 0.66012 -1.17572
5.14832 0.681698 -1.18533
5.19617 0.704661 -1.19685
5.32374 0.739006 -1.22676
4.78019 0.526236 -1.13977
4.79705 0.543358 -1.14419
4.814 0.560606 -1.14865
4.83104 0.577987 -1.15314
4.84817 0.595497 -1.15767
4.86539 0.613141 -1.16224
4.8827 0.630919 -1.16684
4.90011 0.648833 -1.17148
4.91761 0.666884 -1.17616
4.93521 0.685073 -1.18088
4.9529 0.703404 -1.18564
4.97908 0.723093 -1.19244
5.04194 0.748408 -1.20805
5.15447 0.781681 -1.2356
5.28482 0.818445 -1.26745
4.64208 0.511032 -1.14792
4.65414 0.527171 -1.1513
4.66624 0.5434 -1.15471
4.67838 0.559723 -1.15815
4.69148 0.576251 -1.16183
4.70754 0.593249 -1.16627
4.72369 0.610373 -1.17073
4.73991 0.627621 -1.17524
4.75622 0.644998 -1.17978
4.77261 0.662503 -1.18436
4.78909 0.680139 -1.18897
4.80565 0.697907 -1.19362
4.83478 0.71766 -1.20141
4.86679 0.738052 -1.20993
4.89921 0.758727 -1.21858
4.93204 0.779693 -1.22735
4.96531 0.800956 -1.23625
4.999 0.82252 -1.24528
5.10676 0.856741 -1.27278
5.23783 0.895666 -1.30614
4.53508 0.499252 -1.16175
4.54609 0.514932 -1.16498
4.55714 0.530694 -1.16823
4.56821 0.546542 -1.17151
4.57932 0.562475 -1.1748
4.59047 0.578496 -1.17812
4.60165 0.594603 -1.18146
4.61286 0.610797 -1.18483
4.62411 0.627081 -1.18822
4.63539 0.643454 -1.19163
4.6467 0.659917 -1.19507
4.65805 0.676472 -1.19853
4.67075 0.693311 -1.20235
4.69778 0.712422 -1.20988
4.7279 0.732197 -1.21822
4.75839 0.752241 -1.22668
4.78926 0.772558 -1.23526
4.82051 0.793152 -1.24396
4.85216 0.814031 -1.25278
4.88421 0.835198 -1.26172
4.91667 0.856663 -1.2708
4.94955 0.878429 -1.28
4.98285 0.900503 -1.28934
5.05308 0.929606 -1.30827
5.18284 0.970327 -1.34264
5.33239 1.01568 -1.3822
5.44297 1.05448 -1.41172
5.49689 1.08287 -1.42658
5.55177 1.11181 -1.44172
5.60762 1.14134 -1.45715
5.66448 1.17147 -1.47287
4.43637 0.488386 -1.17605
4.44687 0.503694 -1.17924
4.45741 0.51908 -1.18246
4.46797 0.534549 -1.18571
4.47856 0.550098 -1.18897
4.48918 0.565731 -1.19226
4.49983 0.581446 -1.19556
4.51051 0.597245 -1.19889
4.52122 0.613129 -1.20225
4.53196 0.629096 -1.20562
4.54273 0.645151 -1.20902
4.55353 0.661293 -1.21244
4.56436 0.67752 -1.21589
4.57945 0.694477 -1.22048
4.59951 0.712314 -1.22642
4.61974 0.730323 -1.23242
4.64014 0.748503 -1.23848
4.6607 0.766856 -1.24461
4.68661 0.786258 -1.25218
4.71585 0.806409 -1.26067
4.74544 0.826829 -1.26926
4.77539 0.847521 -1.27798
4.80571 0.868489 -1.28682
4.8364 0.889742 -1.29578
4.86747 0.911284 -1.30486
4.89928 0.933185 -1.31417
4.93175 0.955443 -1.32368
4.96463 0.978012 -1.33332
4.99795 1.0009 -1.34311
5.11993 1.04208 -1.37676
5.16026 1.06719 -1.3885
5.18838 1.09002 -1.39699
5.21675 1.11311 -1.40556
5.24536 1.13646 -1.41422
5.27422 1.16008 -1.42298
5.30332 1.18397 -1.43183
5.33269 1.20814 -1.44077
5.3623 1.23258 -1.44981
5.40876 1.26117 -1.46344
5.45382 1.28976 -1.47672
5.45635 1.30848 -1.47851
5.45878 1.32722 -1.48029
5.46112 1.34598 -1.48207
5.46337 1.36476 -1.48383
5.46553 1.38357 -1.4856
5.46844 1.40261 -1.48758
5.47126 1.42167 -1.48955
5.47398 1.44076 -1.49152
5.47662 1.45988 -1.49348
5.47916 1.47901 -1.49543
5.48161 1.49817 -1.49738
5.48397 1.51736 -1.49932
5.48624 1.53656 -1.50125
5.48841 1.55579 -1.50318
5.50233 1.57844 -1.50834
5.52483 1.6037 -1.51588
5.5474 1.62918 -1.52348
5.57005 1.65486 -1.53112
5.59279 1.68076 -1.53881
5.6156 1.70688 -1.54656
4.35892 0.47986 -1.19458
4.36211 0.494093 -1.19587
4.36718 0.508573 -1.1977
4.37507 0.523435 -1.2003
4.38297 0.538357 -1.20293
4.39184 0.553464 -1.20584
4.402 0.568805 -1.20911
4.41218 0.584225 -1.2124
4.42238 0.599726 -1.21572
4.43262 0.615306 -1.21906
4.44288 0.630971 -1.22242
4.45317 0.646717 -1.2258
4.46348 0.662545 -1.22921
4.47382 0.678459 -1.23264
4.49108 0.695521 -1.23799
4.51031 0.713023 -1.2439
4.52969 0.730687 -1.24988
4.54923 0.748516 -1.25591
4.56892 0.766513 -1.26201
4.58878 0.784679 -1.26816
4.60879 0.803019 -1.27439
4.62897 0.821534 -1.28067
4.64931 0.840225 -1.28703
4.67369 0.859808 -1.29452
4.7026 0.880418 -1.30328
4.73186 0.901297 -1.31217
4.76148 0.922456 -1.32118
4.79145 0.943896 -1.33032
4.82179 0.965626 -1.33958
4.85251 0.987651 -1.34896
4.8836 1.00997 -1.35848
4.91509 1.03261 -1.36814
4.94344 1.05479 -1.37695
