ply
format ascii 1.0
comment Created by Open3D
element vertex 1888
property double x
property double y
property double z
end_header
5.91232 1.33343 -1.48975
5.9322 1.35743 -1.49582
5.95211 1.3816 -1.50192
5.97208 1.40594 -1.50806
5.99208 1.43046 -1.51424
6.01214 1.45514 -1.52045
6.03223 1.48 -1.5267
6.05237 1.50504 -1.53298
6.07256 1.53025 -1.5393
6.09278 1.55564 -1.54565
6.11305 1.5812 -1.55204
6.13337 1.60695 -1.55846
6.15372 1.63287 -1.56493
6.17412 1.65898 -1.57143
4.57348 0.530316 -1.17235
4.58676 0.546406 -1.17619
4.60013 0.562602 -1.18006
4.61402 0.578959 -1.18409
4.62799 0.595428 -1.18814
4.64206 0.612008 -1.19224
4.65621 0.628702 -1.19638
4.67045 0.645511 -1.20055
4.68703 0.662755 -1.20534
4.70441 0.680234 -1.21035
4.72193 0.697856 -1.21541
4.73958 0.715627 -1.22053
4.75737 0.733545 -1.22569
4.77531 0.751614 -1.23091
4.79338 0.769837 -1.23619
4.8116 0.788214 -1.24151
4.82997 0.806749 -1.2469
4.84849 0.825445 -1.25234
4.86715 0.844302 -1.25784
4.88598 0.863323 -1.26339
4.90496 0.882513 -1.26901
4.92884 0.902738 -1.27591
4.95355 0.923293 -1.28305
4.97851 0.944074 -1.29028
5.00608 0.965538 -1.2982
5.03477 0.987421 -1.30643
5.0638 1.00958 -1.31478
5.09317 1.03202 -1.32324
5.59369 1.15167 -1.4542
5.63617 1.17881 -1.4662
5.65237 1.20067 -1.47138
5.65841 1.22047 -1.47394
5.66455 1.24035 -1.47654
5.67064 1.26029 -1.47915
5.67669 1.28029 -1.48177
5.6827 1.30034 -1.48439
5.68868 1.32045 -1.48703
5.69461 1.34062 -1.48967
5.7005 1.36085 -1.49231
5.70635 1.38113 -1.49497
5.71216 1.40147 -1.49763
5.71793 1.42187 -1.50031
5.72366 1.44233 -1.50298
5.72935 1.46284 -1.50567
5.74255 1.48537 -1.51036
5.76283 1.50987 -1.51693
5.7832 1.53456 -1.52354
5.80363 1.55943 -1.5302
5.82414 1.5845 -1.53691
5.84473 1.60976 -1.54367
5.8654 1.63521 -1.55047
5.88614 1.66086 -1.55732
5.90697 1.68671 -1.56422
5.92787 1.71275 -1.57116
5.94802 1.73876 -1.57794
5.96811 1.76492 -1.58472
5.98826 1.79127 -1.59156
4.54527 0.527045 -1.2057
4.55838 0.543025 -1.20963
4.5716 0.559113 -1.21359
4.58531 0.575357 -1.2177
4.5991 0.59171 -1.22185
4.61298 0.608174 -1.22604
4.62694 0.62475 -1.23026
4.64099 0.641439 -1.23453
4.65513 0.658244 -1.23883
4.66936 0.675165 -1.24317
4.68596 0.69254 -1.24816
4.70333 0.710152 -1.25337
4.72083 0.727909 -1.25864
4.73847 0.745815 -1.26396
4.75625 0.763872 -1.26933
4.77417 0.782081 -1.27476
4.79223 0.800445 -1.28025
4.81044 0.818967 -1.28579
4.82879 0.837647 -1.29139
4.8473 0.856489 -1.29705
4.86595 0.875495 -1.30277
4.88476 0.894666 -1.30855
4.90373 0.914008 -1.31439
4.92286 0.93352 -1.32029
4.94215 0.953207 -1.32626
4.95848 0.972459 -1.33145
4.97526 0.991926 -1.33678
5.00198 1.01354 -1.34481
5.03205 1.03603 -1.35376
5.0625 1.05882 -1.36283
5.09299 1.08184 -1.37195
5.12271 1.10492 -1.38088
5.15279 1.12829 -1.38993
5.18323 1.15197 -1.39911
5.35737 1.20827 -1.44712
5.39392 1.23426 -1.45803
5.4309 1.26062 -1.46909
5.46993 1.28773 -1.48073
5.49586 1.312 -1.48885
5.50088 1.3314 -1.49134
5.50587 1.35086 -1.49383
5.51082 1.37037 -1.49632
5.51572 1.38993 -1.49883
5.52058 1.40954 -1.50134
5.5254 1.4292 -1.50386
5.53019 1.44891 -1.50639
5.53765 1.4694 -1.50967
5.55431 1.49244 -1.51547
5.57106 1.51565 -1.52133
5.58792 1.53902 -1.52724
5.60487 1.56258 -1.5332
5.62904 1.58831 -1.54117
5.65401 1.61448 -1.54938
5.67903 1.64085 -1.55763
5.70427 1.66751 -1.56598
5.72975 1.69443 -1.57442
5.75545 1.72163 -1.58296
5.7814 1.74912 -1.59159
5.80758 1.7769 -1.60032
5.83401 1.80496 -1.60915
5.86068 1.83333 -1.61809
5.90857 1.86863 -1.63291
4.51729 0.5238 -1.23879
4.53022 0.539671 -1.24279
4.54331 0.555652 -1.24685
4.55683 0.571784 -1.25105
4.57044 0.588023 -1.25529
4.58413 0.604371 -1.25956
4.59791 0.62083 -1.26387
4.61177 0.6374 -1.26823
4.62572 0.654085 -1.27262
4.63976 0.670884 -1.27705
4.65389 0.6878 -1.28153
4.66811 0.704834 -1.28604
4.68468 0.722336 -1.29123
4.70203 0.740082 -1.29664
4.71952 0.757975 -1.30211
4.73715 0.776018 -1.30764
4.75491 0.794213 -1.31322
4.77282 0.812562 -1.31886
4.79087 0.831068 -1.32456
4.80906 0.849733 -1.33032
4.8274 0.868559 -1.33614
4.84589 0.887546 -1.34202
4.86454 0.906702 -1.34796
4.88333 0.926025 -1.35397
4.90229 0.94552 -1.36004
4.9187 0.964657 -1.36542
4.93403 0.983707 -1.37052
4.94948 1.0029 -1.37568
4.96502 1.02223 -1.38088
4.98067 1.04171 -1.38613
4.99775 1.06161 -1.3918
5.02431 1.0837 -1.40014
5.05117 1.10604 -1.40858
5.07832 1.12865 -1.41713
5.10853 1.15215 -1.42656
5.13989 1.17613 -1.43634
5.17166 1.20044 -1.44626
5.20318 1.22493 -1.45614
5.23302 1.24925 -1.46557
5.26321 1.27388 -1.47514
5.29377 1.29882 -1.48483
5.32261 1.32357 -1.49408
5.34661 1.34731 -1.50199
5.37083 1.3713 -1.50999
5.39183 1.39465 -1.51712
5.40731 1.41672 -1.52271
5.42288 1.43895 -1.52836
5.43873 1.46138 -1.53411
5.4547 1.48399 -1.53991
5.47076 1.50676 -1.54577
5.4869 1.52969 -1.55168
5.50314 1.55279 -1.55763
5.51946 1.57606 -1.56364
5.53588 1.5995 -1.5697
5.55778 1.62468 -1.57735
5.58203 1.65075 -1.58569
5.60649 1.67707 -1.59412
5.63117 1.70367 -1.60264
5.65607 1.73054 -1.61126
5.68119 1.75769 -1.61998
5.7064 1.78507 -1.62875
5.73177 1.81271 -1.6376
5.75737 1.84064 -1.64656
5.78321 1.86887 -1.65561
5.93001 1.93682 -1.69936
4.48952 0.520581 -1.27162
4.50229 0.536343 -1.2757
4.51523 0.552219 -1.27985
4.52858 0.568238 -1.28414
4.54201 0.584365 -1.28845
4.55552 0.600599 -1.29281
4.56911 0.616942 -1.29721
4.58279 0.633394 -1.30165
4.59655 0.64996 -1.30613
4.6104 0.666639 -1.31065
4.62433 0.683433 -1.31522
4.63836 0.700342 -1.31982
4.65247 0.71737 -1.32447
4.66668 0.734516 -1.32916
4.6832 0.75214 -1.33453
4.70053 0.770019 -1.34015
4.71801 0.788048 -1.34583
4.73561 0.806228 -1.35157
4.75336 0.824562 -1.35736
4.77125 0.843052 -1.36322
4.78928 0.8617 -1.36913
4.80746 0.880508 -1.37511
4.82579 0.899479 -1.38115
4.84427 0.918616 -1.38725
4.86289 0.937921 -1.39342
4.87937 0.956944 -1.39899
4.89444 0.975812 -1.40418
4.90961 0.994819 -1.40942
4.92488 1.01397 -1.41471
4.94025 1.03325 -1.42005
4.95573 1.05269 -1.42544
4.97131 1.07226 -1.43088
4.987 1.09199 -1.43637
5.0028 1.11186 -1.44191
5.01978 1.13213 -1.44782
5.04656 1.15478 -1.45658
5.07364 1.17769 -1.46545
5.10103 1.20088 -1.47444
5.12873 1.22435 -1.48355
5.15413 1.24747 -1.49202
5.16918 1.26825 -1.49752
5.19066 1.29076 -1.5049
5.21338 1.31374 -1.51267
5.2363 1.33695 -1.52053
5.25942 1.3604 -1.52847
5.28274 1.38408 -1.5365
5.30627 1.408 -1.54462
5.32915 1.43194 -1.55257
5.34416 1.45391 -1.55826
5.35924 1.47604 -1.564
5.37441 1.49833 -1.56979
5.38965 1.52077 -1.57562
5.40498 1.54337 -1.58151
5.42038 1.56612 -1.58744
5.43587 1.58904 -1.59342
5.45148 1.61214 -1.59947
5.46737 1.63546 -1.60563
5.48692 1.66003 -1.61288
5.51042 1.68598 -1.62134
5.53413 1.71219 -1.62988
5.55804 1.73866 -1.63852
5.58216 1.7654 -1.64725
5.61234 1.79428 -1.6578
5.64542 1.82434 -1.66925
5.67895 1.85482 -1.68087
5.7195 1.88789 -1.69462
4.46197 0.517386 -1.3042
4.47456 0.53304 -1.30836
4.48737 0.548811 -1.3126
4.50054 0.56472 -1.31696
4.51379 0.580735 -1.32137
4.52713 0.596855 -1.32581
4.54054 0.613084 -1.33029
4.55403 0.62942 -1.33482
4.56761 0.645868 -1.33938
4.58127 0.662427 -1.34399
4.59502 0.6791 -1.34864
4.60885 0.695887 -1.35333
4.62277 0.71279 -1.35807
4.63678 0.729811 -1.36285
4.65088 0.74695 -1.36767
4.66507 0.76421 -1.37254
4.6815 0.781951 -1.37809
4.69882 0.799964 -1.38392
4.71627 0.818127 -1.3898
4.73386 0.836445 -1.39575
4.75159 0.854918 -1.40176
4.76946 0.873547 -1.40783
4.78748 0.892338 -1.41397
4.80564 0.911291 -1.42017
4.82395 0.930409 -1.42643
4.84049 0.949318 -1.43219
4.85529 0.968008 -1.43746
4.87019 0.986833 -1.44278
4.88519 1.0058 -1.44815
4.90029 1.0249 -1.45357
4.9155 1.04414 -1.45904
4.9308 1.06353 -1.46456
4.94621 1.08306 -1.47014
4.96172 1.10273 -1.47577
4.97734 1.12256 -1.48145
4.99306 1.14253 -1.48719
5.0089 1.16266 -1.49298
5.02484 1.18295 -1.49883
5.04131 1.20348 -1.50486
5.06831 1.2267 -1.51406
5.09562 1.2502 -1.52337
5.1224 1.27378 -1.53257
5.13723 1.29455 -1.53821
5.15215 1.31547 -1.5439
5.16716 1.33654 -1.54964
5.18227 1.35776 -1.55544
5.19746 1.37913 -1.56129
5.21275 1.40066 -1.56719
5.22814 1.42235 -1.57315
5.24362 1.4442 -1.57916
5.26498 1.46782 -1.58696
5.28136 1.49021 -1.5933
5.29597 1.51224 -1.59913
5.3194 1.53695 -1.60764
5.34375 1.56211 -1.61647
5.36836 1.58756 -1.62541
5.39323 1.61328 -1.63446
5.41837 1.63929 -1.64363
5.44378 1.66559 -1.65291
5.47324 1.69335 -1.66346
5.50423 1.72182 -1.6745
5.5359 1.75077 -1.6858
5.56799 1.7801 -1.69725
5.6005 1.80982 -1.70888
5.63345 1.83996 -1.72068
5.67447 1.87303 -1.735
5.73171 1.91183 -1.75432
5.87652 1.98059 -1.80053
4.43462 0.514214 -1.33653
4.44705 0.529763 -1.34077
4.45972 0.54543 -1.3451
4.47272 0.561229 -1.34954
4.4858 0.577133 -1.35403
4.49895 0.593141 -1.35855
4.51219 0.609255 -1.36312
4.5255 0.625476 -1.36772
4.53889 0.641807 -1.37237
4.55237 0.658249 -1.37706
4.56593 0.674801 -1.3818
4.57958 0.691467 -1.38658
4.59331 0.708247 -1.3914
4.60712 0.725143 -1.39626
4.62103 0.742155 -1.40117
4.63502 0.759287 -1.40613
4.6491 0.77654 -1.41113
4.66328 0.793913 -1.41618
4.67958 0.811763 -1.4219
4.69687 0.82991 -1.42793
4.71431 0.84821 -1.43403
4.73188 0.866664 -1.4402
4.74959 0.885276 -1.44642
4.76744 0.904048 -1.45271
4.78543 0.922982 -1.45907
4.80203 0.941777 -1.46502
4.81658 0.96029 -1.47037
4.83122 0.978936 -1.47577
4.84596 0.997718 -1.48121
4.86079 1.01664 -1.48671
4.87572 1.03569 -1.49226
4.89075 1.05489 -1.49787
4.90588 1.07423 -1.50352
4.92111 1.09371 -1.50923
4.93645 1.11334 -1.515
4.95189 1.13311 -1.52081
4.96743 1.15304 -1.52669
4.98309 1.17312 -1.53262
4.99885 1.19335 -1.53861
5.01472 1.21373 -1.54466
5.0307 1.23428 -1.55076
5.0468 1.25498 -1.55693
5.06301 1.27585 -1.56315
5.08952 1.29948 -1.57258
5.10521 1.32051 -1.5787
5.1199 1.34142 -1.58453
5.13468 1.36247 -1.59042
5.15226 1.38441 -1.5972
5.17699 1.40843 -1.60622
5.20199 1.43273 -1.61536
5.22727 1.45731 -1.62462
5.25284 1.48216 -1.634
5.27324 1.50575 -1.6418
5.29315 1.52936 -1.64948
5.31324 1.5532 -1.65725
5.33369 1.57731 -1.66516
5.35821 1.60281 -1.67438
5.383 1.62859 -1.6837
5.40804 1.65465 -1.69315
5.43383 1.68115 -1.70286
5.46345 1.70907 -1.71381
5.49345 1.73734 -1.72492
5.52412 1.76607 -1.73627
5.55608 1.79547 -1.74808
5.58846 1.82527 -1.76005
5.62814 1.85773 -1.77437
5.69405 1.89927 -1.79702
5.74381 1.93586 -1.81462
5.79147 1.97212 -1.83162
4.40747 0.511066 -1.36863
4.41974 0.52651 -1.37295
4.43227 0.542073 -1.37736
4.4451 0.557764 -1.38188
4.45801 0.573557 -1.38645
4.47099 0.589454 -1.39105
4.48405 0.605456 -1.3957
4.49718 0.621562 -1.40038
4.5104 0.637778 -1.40511
4.52369 0.654102 -1.40989
4.53707 0.670536 -1.4147
4.55053 0.687081 -1.41956
4.56407 0.703739 -1.42447
4.5777 0.720511 -1.42942
4.59141 0.737399 -1.43441
4.60521 0.754404 -1.43945
4.6191 0.771527 -1.44454
4.63307 0.78877 -1.44968
4.64714 0.806135 -1.45486
4.66129 0.823623 -1.46009
4.67742 0.841574 -1.46596
4.6947 0.859854 -1.47221
4.71211 0.87829 -1.47852
4.72966 0.896884 -1.4849
4.74734 0.915635 -1.49135
4.764 0.934318 -1.49749
4.77829 0.952657 -1.50292
4.79268 0.971126 -1.50839
4.80716 0.989729 -1.51391
4.82173 1.00847 -1.51949
4.83639 1.02734 -1.52511
4.85115 1.04635 -1.53079
4.86601 1.0655 -1.53653
4.88097 1.08479 -1.54231
4.89603 1.10422 -1.54816
4.91119 1.1238 -1.55405
4.92645 1.14353 -1.56001
4.94181 1.1634 -1.56602
4.95728 1.18342 -1.57209
4.97286 1.2036 -1.57821
4.98855 1.22393 -1.5844
5.00434 1.24442 -1.59064
5.02446 1.26613 -1.59829
5.04682 1.28857 -1.60668
5.06943 1.31126 -1.61517
5.09019 1.33363 -1.62311
5.11237 1.35655 -1.63153
5.13667 1.38022 -1.64065
5.16123 1.40415 -1.64989
5.18606 1.42835 -1.65925
5.21118 1.45282 -1.66873
5.23658 1.47757 -1.67834
5.25937 1.50179 -1.68714
5.27917 1.52532 -1.69502
5.29914 1.54908 -1.70298
5.3193 1.57305 -1.71103
5.33964 1.59725 -1.71917
5.36018 1.62168 -1.72741
5.38091 1.64635 -1.73574
5.40183 1.67125 -1.74417
5.63369 1.76232 -1.8208
5.47352 1.73105 -1.77078
5.48336 1.75304 -1.77573
5.51362 1.78175 -1.78732
5.54428 1.81084 -1.79909
5.58234 1.84262 -1.8133
5.64712 1.88362 -1.83625
5.70876 1.92405 -1.85824
5.7558 1.95998 -1.87554
5.80372 1.99658 -1.89318
5.85253 2.03387 -1.91117
4.38051 0.50794 -1.4005
4.39262 0.523279 -1.40489
4.40503 0.53874 -1.40939
4.41769 0.554324 -1.41399
4.43042 0.570008 -1.41863
4.44323 0.585795 -1.42331
4.45611 0.601684 -1.42803
4.46907 0.617678 -1.4328
4.48211 0.633778 -1.43761
4.49523 0.649986 -1.44246
4.50842 0.666302 -1.44736
4.5217 0.682728 -1.4523
4.53506 0.699266 -1.45728
4.5485 0.715915 -1.46232
4.56202 0.732679 -1.46739
4.57563 0.749558 -1.47252
4.58932 0.766554 -1.47769
4.6031 0.783669 -1.48291
4.61697 0.800902 -1.48818
4.63092 0.818257 -1.49349
4.64497 0.835735 -1.49886
4.6591 0.853335 -1.50427
4.67503 0.871378 -1.51029
4.69228 0.889795 -1.51675
4.70967 0.908368 -1.52328
4.72637 0.926939 -1.52962
4.74042 0.945106 -1.53511
4.75455 0.963401 -1.54066
4.76878 0.981827 -1.54625
4.78309 1.00038 -1.5519
4.79749 1.01908 -1.5576
4.81199 1.0379 -1.56336
4.82659 1.05687 -1.56917
4.84128 1.07597 -1.57503
4.85606 1.09521 -1.58095
4.87094 1.11459 -1.58692
4.88987 1.13504 -1.59424
4.91086 1.15611 -1.60225
4.93206 1.1774 -1.61036
4.95347 1.19891 -1.61857
4.9751 1.22063 -1.62687
4.99694 1.24258 -1.63528
5.01903 1.26477 -1.6438
5.04137 1.28718 -1.65242
5.06394 1.30984 -1.66116
5.08498 1.33227 -1.66942
5.10517 1.35464 -1.67743
5.12555 1.37723 -1.68553
5.14613 1.40004 -1.69373
5.17016 1.42397 -1.7031
5.1951 1.44834 -1.7128
5.22033 1.47299 -1.72263
5.24551 1.49783 -1.73248
5.26519 1.52128 -1.74054
5.28505 1.54495 -1.74869
5.30508 1.56885 -1.75694
5.3253 1.59296 -1.76528
5.39538 1.63234 -1.79019
5.38705 1.64823 -1.78913
5.38078 1.66474 -1.78877
5.40765 1.69161 -1.79945
5.43484 1.71881 -1.81028
5.46236 1.74633 -1.82126
5.49022 1.77419 -1.83239
5.51843 1.80239 -1.84368
5.60499 1.85009 -1.87452
5.60073 1.86814 -1.87504
5.66602 1.90964 -1.89889
5.72039 1.94792 -1.91915
5.76768 1.98418 -1.93708
5.82111 2.02295 -1.95715
4.35374 0.504836 -1.43215
4.36569 0.520072 -1.43661
4.37797 0.535431 -1.4412
4.39046 0.550908 -1.44587
4.40303 0.566484 -1.45058
4.41567 0.582161 -1.45534
4.42838 0.59794 -1.46014
4.44117 0.613821 -1.46498
4.45403 0.629808 -1.46987
4.46697 0.6459 -1.4748
4.47999 0.6621 -1.47977
4.49309 0.678408 -1.48479
4.50626 0.694825 -1.48986
4.51952 0.711353 -1.49497
4.53285 0.727995 -1.50013
4.54627 0.744749 -1.50533
4.55977 0.761619 -1.51058
4.57336 0.778605 -1.51589
4.58703 0.795709 -1.52124
4.60079 0.812933 -1.52663
4.61464 0.830277 -1.53208
4.62857 0.847743 -1.53758
4.6426 0.865334 -1.54313
4.65671 0.883051 -1.54874
4.67238 0.901177 -1.55488
4.68914 0.919636 -1.5614
4.70294 0.937634 -1.56697
4.71683 0.955758 -1.57259
4.73081 0.97401 -1.57825
4.74487 0.99239 -1.58397
4.76331 1.01181 -1.59118
4.78306 1.03166 -1.59885
4.803 1.0517 -1.6066
4.82313 1.07193 -1.61445
4.84346 1.09237 -1.62239
4.86399 1.113 -1.63043
4.88472 1.13384 -1.63856
4.90566 1.15489 -1.64679
4.9268 1.17615 -1.65511
4.94816 1.19763 -1.66354
4.96975 1.21932 -1.67207
4.99158 1.24125 -1.68071
5.01364 1.26341 -1.68946
5.03592 1.28579 -1.69832
5.05844 1.30842 -1.70729
5.07977 1.3309 -1.71588
5.09991 1.35325 -1.7241
5.12024 1.37581 -1.73243
5.14077 1.39858 -1.74084
5.1615 1.42158 -1.74936
5.18243 1.44481 -1.75798
5.2041 1.46841 -1.76688
5.22944 1.49324 -1.77706
5.25121 1.51725 -1.78606
5.27095 1.54083 -1.79441
5.31431 1.57158 -1.81083
5.30491 1.58686 -1.80931
5.32798 1.61194 -1.81889
5.35422 1.63819 -1.82959
5.38078 1.66474 -1.84044
5.40765 1.69161 -1.85143
5.43484 1.71881 -1.86257
5.46236 1.74633 -1.87387
5.49022 1.77419 -1.88532
5.51843 1.80239 -1.89693
5.54698 1.83095 -1.90871
5.57589 1.85986 -1.92065
5.63109 1.89787 -1.9417
5.68481 1.9358 -1.9623
5.7319 1.97187 -1.98067
5.8192 2.02229 -2.01302
4.32715 0.501754 -1.46359
4.33895 0.516885 -1.46812
4.35109 0.532144 -1.47278
4.36343 0.547515 -1.47753
4.37583 0.562984 -1.48232
4.3883 0.578553 -1.48715
4.40084 0.594222 -1.49202
4.41346 0.609991 -1.49694
4.42615 0.625866 -1.5019
4.43892 0.641844 -1.50691
4.45176 0.657928 -1.51196
4.46468 0.674118 -1.51705
4.47767 0.690417 -1.5222
4.49075 0.706825 -1.52738
4.5039 0.723344 -1.53262
4.51713 0.739975 -1.5379
4.53045 0.75672 -1.54324
4.54384 0.77358 -1.54862
4.55732 0.790555 -1.55405
4.57089 0.807649 -1.55953
4.58454 0.824862 -1.56506
4.59827 0.842194 -1.57064
4.6121 0.859649 -1.57627
4.6262 0.877265 -1.58202
4.64412 0.895727 -1.5891
4.66261 0.914433 -1.59639
4.68141 0.933341 -1.60383
4.70039 0.952427 -1.61134
4.71955 0.971693 -1.61894
4.73889 0.99114 -1.62663
4.75841 1.01077 -1.63441
4.77812 1.03059 -1.64228
4.79801 1.05061 -1.65024
4.8181 1.07082 -1.65829
4.83838 1.09122 -1.66644
4.85886 1.11183 -1.67468
4.87955 1.13264 -1.68303
4.90044 1.15366 -1.69147
4.92153 1.17489 -1.70001
4.94287 1.19634 -1.70867
4.96443 1.21802 -1.71743
4.98622 1.23992 -1.7263
5.00822 1.26204 -1.73528
5.03046 1.2844 -1.74436
5.05292 1.30699 -1.75356
5.07453 1.32953 -1.7625
5.09462 1.35184 -1.77094
5.11491 1.37437 -1.77948
5.13539 1.39712 -1.78811
5.15607 1.42009 -1.79685
5.17696 1.44328 -1.80569
5.19804 1.4667 -1.81464
5.21981 1.49049 -1.82386
5.28233 1.52624 -1.84736
5.27177 1.54107 -1.84535
5.2764 1.56036 -1.84867
5.30204 1.586 -1.85938
5.32798 1.61194 -1.87024
5.35422 1.63819 -1.88124
5.38077 1.66474 -1.89239
5.40765 1.69161 -1.90369
5.43484 1.71881 -1.91515
5.46236 1.74633 -1.92677
5.49022 1.77419 -1.93854
5.51843 1.80239 -1.95048
5.54698 1.83095 -1.96259
5.57589 1.85985 -1.97487
5.60517 1.88913 -1.98732
5.67629 1.9329 -2.01467
5.69924 1.96064 -2.02498
5.81728 2.02162 -2.06916
4.30074 0.498691 -1.49481
4.31239 0.513721 -1.49941
4.3244 0.52888 -1.50416
4.33657 0.544146 -1.50897
4.34881 0.559508 -1.51383
4.36112 0.574969 -1.51874
4.3735 0.590529 -1.52368
4.38594 0.606188 -1.52867
4.39847 0.62195 -1.53371
4.41106 0.637816 -1.53879
4.42373 0.653784 -1.54391
4.43647 0.669859 -1.54909
4.44929 0.686041 -1.5543
4.46218 0.702329 -1.55957
4.47515 0.718728 -1.56488
4.4882 0.735236 -1.57024
4.50133 0.751857 -1.57565
4.51636 0.768901 -1.58174
4.53334 0.786394 -1.58854
4.55046 0.804039 -1.59542
4.56773 0.821837 -1.60236
4.58514 0.839789 -1.60939
4.60271 0.8579 -1.61649
4.62067 0.876215 -1.62375
4.63919 0.894775 -1.63123
4.65788 0.913505 -1.6388
4.67667 0.932395 -1.64643
4.69561 0.951457 -1.65414
4.71472 0.970697 -1.66193
4.73402 0.990121 -1.66982
4.75349 1.00973 -1.6778
4.77316 1.02953 -1.68586
4.79301 1.04951 -1.69403
4.81305 1.06969 -1.70229
4.83329 1.09007 -1.71064
4.85372 1.11065 -1.7191
4.87436 1.13143 -1.72765
4.89522 1.15243 -1.73631
4.9163 1.17364 -1.74509
4.93759 1.19507 -1.75396
4.95911 1.21671 -1.76295
4.98083 1.23858 -1.77204
5.00279 1.26067 -1.78125
5.02497 1.283 -1.79056
5.04738 1.30555 -1.8
5.06927 1.32815 -1.80928
5.08932 1.35044 -1.81793
5.10956 1.37294 -1.82669
5.13 1.39565 -1.83555
5.15092 1.41867 -1.84461
5.17312 1.44221 -1.85417
5.19554 1.466 -1.86384
5.24008 1.49628 -1.88149
5.22967 1.51102 -1.87944
5.25105 1.53502 -1.88884
5.2764 1.56036 -1.8997
5.30204 1.586 -1.91071
5.32798 1.61194 -1.92187
5.35422 1.63819 -1.93317
5.38077 1.66474 -1.94463
5.40765 1.69161 -1.95625
5.43484 1.71881 -1.96802
5.46236 1.74633 -1.97996
5.49022 1.77419 -1.99206
5.51843 1.80239 -2.00433
5.54698 1.83095 -2.01677
5.57589 1.85986 -2.02939
5.60517 1.88913 -2.04218
5.63481 1.91878 -2.05516
5.69424 1.95892 -2.07906
5.81535 2.02095 -2.12558
4.27451 0.495649 -1.52584
4.286 0.510577 -1.5305
4.29788 0.525637 -1.53533
4.30989 0.540798 -1.54021
4.32197 0.556055 -1.54514
4.33412 0.571409 -1.55012
4.34633 0.586861 -1.55513
4.35861 0.602411 -1.5602
4.37097 0.618062 -1.5653
4.38339 0.633815 -1.57045
4.39619 0.649715 -1.57576
4.41217 0.66619 -1.58223
4.42828 0.682801 -1.58876
4.44452 0.69955 -1.59537
4.4609 0.716439 -1.60204
4.47741 0.733469 -1.60879
4.49406 0.750643 -1.61561
4.51085 0.767963 -1.6225
4.52778 0.785431 -1.62947
4.54486 0.80305 -1.63651
4.56208 0.820822 -1.64363
4.57954 0.838762 -1.65085
4.59769 0.856963 -1.65835
4.616 0.875331 -1.66594
4.63448 0.893867 -1.67361
4.65314 0.912575 -1.68137
4.6719 0.931445 -1.6892
4.6908 0.950483 -1.6971
4.70987 0.9697 -1.70508
4.72913 0.989098 -1.71317
4.74856 1.00868 -1.72134
4.76818 1.02845 -1.72961
4.78798 1.04841 -1.73798
4.80798 1.06857 -1.74644
4.82817 1.08892 -1.755
4.84857 1.10947 -1.76367
4.86919 1.13024 -1.77245
4.89002 1.15121 -1.78133
4.91105 1.17239 -1.79032
4.9323 1.19378 -1.79942
4.95376 1.2154 -1.80863
4.97543 1.23724 -1.81795
4.99734 1.2593 -1.82738
5.01946 1.28159 -1.83693
5.04182 1.30412 -1.8466
5.064 1.32677 -1.85623
5.08416 1.34907 -1.86516
5.10567 1.37189 -1.87461
5.1274 1.39494 -1.88419
5.14935 1.41823 -1.89388
5.17153 1.44177 -1.90368
5.21825 1.4724 -1.92257
5.20646 1.48668 -1.91993
5.22599 1.50996 -1.92886
5.25105 1.53502 -1.93988
5.2764 1.56036 -1.95103
5.30204 1.586 -1.96234
5.32798 1.61194 -1.9738
5.35422 1.63819 -1.98541
5.38078 1.66474 -1.99718
5.40765 1.69161 -2.00911
5.43484 1.71881 -2.0212
5.46236 1.74633 -2.03345
5.49022 1.77419 -2.04588
5.51843 1.80239 -2.05848
5.54698 1.83095 -2.07126
5.57589 1.85986 -2.08422
5.60516 1.88913 -2.09736
5.63481 1.91878 -2.11069
5.68558 1.95594 -2.13199
5.81341 2.02028 -2.18228
4.24852 0.492635 -1.55669
4.25977 0.507453 -1.56139
4.27154 0.522414 -1.5663
4.28339 0.537472 -1.57125
4.29793 0.552962 -1.57721
4.31313 0.568643 -1.58344
4.32845 0.584447 -1.58972
4.34389 0.600377 -1.59608
4.35946 0.616435 -1.6025
4.37514 0.632623 -1.60898
4.39096 0.648942 -1.61554
4.4069 0.665394 -1.62216
4.42297 0.681982 -1.62885
4.43917 0.698708 -1.63562
4.4555 0.715572 -1.64245
4.47197 0.732578 -1.64936
4.48858 0.749727 -1.65634
4.50533 0.767022 -1.6634
4.52221 0.784465 -1.67053
4.53925 0.802058 -1.67774
4.55699 0.819904 -1.68524
4.57493 0.837919 -1.69284
4.59305 0.856098 -1.70052
4.61132 0.874443 -1.70829
4.62976 0.892957 -1.71615
4.64837 0.911641 -1.7241
4.66712 0.930492 -1.73212
4.68598 0.949506 -1.74022
4.70501 0.968698 -1.7484
4.72422 0.988071 -1.75668
4.74361 1.00763 -1.76505
4.76318 1.02737 -1.77352
4.78294 1.04731 -1.78209
4.8029 1.06744 -1.79077
4.82307 1.08777 -1.79955
4.84345 1.1083 -1.80843
4.86402 1.12903 -1.81743
4.8848 1.14998 -1.82652
4.90578 1.17113 -1.83573
4.92698 1.1925 -1.84505
4.94839 1.21408 -1.85448
4.97001 1.23589 -1.86403
4.99186 1.25792 -1.87369
5.01597 1.2807 -1.88423
5.04038 1.30374 -1.89492
5.06383 1.32673 -1.90529
5.08339 1.34886 -1.91423
5.10412 1.37147 -1.92364
5.12584 1.39452 -1.93346
5.14778 1.4178 -1.9434
5.20062 1.44988 -1.96506
5.18892 1.46413 -1.96236
5.20122 1.48518 -1.96875
5.22599 1.50996 -1.97991
5.25105 1.53502 -1.99121
5.2764 1.56036 -2.00267
5.30204 1.586 -2.01427
5.32798 1.61194 -2.02603
5.35422 1.63819 -2.03795
5.38077 1.66474 -2.05003
5.40765 1.69161 -2.06228
5.43484 1.71881 -2.07469
5.46236 1.74633 -2.08727
5.49022 1.77419 -2.10003
5.51843 1.80239 -2.11296
5.54698 1.83095 -2.12608
5.57589 1.85986 -2.13938
5.60517 1.88913 -2.15287
5.63481 1.91878 -2.16655
5.68769 1.95666 -2.18922
5.80456 2.0172 -2.23662
4.2345 0.49101 -1.5918
4.24836 0.506094 -1.5976
4.26293 0.521362 -1.60369
4.27787 0.536779 -1.60993
4.29291 0.552317 -1.61623
4.30808 0.567977 -1.6226
4.32336 0.58376 -1.62904
4.33876 0.599667 -1.63554
4.35429 0.615704 -1.64211
4.36994 0.631869 -1.64875
4.38571 0.648166 -1.65546
4.40161 0.664596 -1.66224
4.41764 0.68116 -1.66909
4.4338 0.697862 -1.67601
4.45009 0.714702 -1.68301
4.46652 0.731684 -1.69008
4.48308 0.748809 -1.69722
4.49978 0.766078 -1.70444
4.51705 0.78357 -1.71191
4.53465 0.801246 -1.71952
4.5524 0.81908 -1.72721
4.57031 0.837073 -1.73499
4.58839 0.85523 -1.74286
4.60662 0.873552 -1.75082
4.62502 0.892043 -1.75886
4.64359 0.910704 -1.767
4.66232 0.929535 -1.77523
4.68113 0.948525 -1.78351
4.70012 0.967692 -1.79189
4.71929 0.98704 -1.80036
4.73863 1.00657 -1.80894
4.75817 1.02629 -1.81761
4.77791 1.04621 -1.8264
4.79785 1.06631 -1.83528
4.81798 1.08662 -1.84427
4.8383 1.10712 -1.85337
4.85883 1.12783 -1.86258
4.87956 1.14874 -1.87189
4.90125 1.17005 -1.88161
4.92437 1.19187 -1.89191
4.94775 1.21393 -1.90234
4.97139 1.23623 -1.91291
4.99529 1.25878 -1.92361
5.01947 1.28159 -1.93445
5.04392 1.30466 -1.94544
5.06637 1.32739 -1.95569
5.08596 1.34954 -1.96487
5.10572 1.3719 -1.97416
5.12568 1.39447 -1.98355
5.18492 1.42803 -2.0082
5.17198 1.44189 -2.00492
5.17672 1.46069 -2.00852
5.20122 1.48518 -2.01982
5.22599 1.50996 -2.03127
5.25105 1.53502 -2.04286
5.2764 1.56036 -2.05461
5.30204 1.586 -2.06652
5.32798 1.61194 -2.07859
5.35422 1.63819 -2.09081
5.38077 1.66474 -2.10321
5.40765 1.69161 -2.11577
5.43484 1.71881 -2.1285
5.46236 1.74633 -2.14141
5.49022 1.77419 -2.1545
5.51843 1.80239 -2.16777
5.54698 1.83095 -2.18122
5.57589 1.85986 -2.19487
5.60517 1.88913 -2.20871
5.63481 1.91878 -2.22275
5.69202 1.95816 -2.24772
4.22991 0.490478 -1.63053
4.24374 0.505544 -1.63646
4.25797 0.520755 -1.64257
4.27287 0.536152 -1.64896
4.28788 0.551669 -1.65541
4.303 0.567307 -1.66192
4.31825 0.583069 -1.66851
4.33361 0.598956 -1.67516
4.3491 0.61497 -1.68188
4.36471 0.631113 -1.68867
4.38044 0.647387 -1.69554
4.3963 0.663794 -1.70247
4.41228 0.680335 -1.70948
4.4284 0.697013 -1.71656
4.44465 0.713829 -1.72371
4.46104 0.730786 -1.73095
4.47786 0.747937 -1.73837
4.49512 0.765284 -1.74599
4.51253 0.782785 -1.7537
4.53009 0.80044 -1.76149
4.5478 0.818253 -1.76936
4.56567 0.836223 -1.77733
4.58371 0.854358 -1.78538
4.6019 0.872658 -1.79352
4.62026 0.891124 -1.80175
4.63879 0.909762 -1.81008
4.65749 0.928572 -1.8185
4.67627 0.94754 -1.82698
4.69522 0.966682 -1.83556
4.71434 0.986006 -1.84423
4.73367 1.00552 -1.85301
4.75318 1.02522 -1.8619
4.77288 1.04511 -1.87089
4.79277 1.06519 -1.87998
4.81445 1.08582 -1.88981
4.83663 1.10674 -1.89986
4.85904 1.12788 -1.91004
4.88169 1.14925 -1.92035
4.9046 1.17085 -1.93079
4.92775 1.19269 -1.94137
4.95117 1.21476 -1.95208
4.97484 1.23709 -1.96293
4.99878 1.25966 -1.97392
5.02299 1.28249 -1.98506
5.04748 1.30558 -1.99634
5.06894 1.32807 -2.00646
5.08854 1.35023 -2.01589
5.10805 1.37253 -2.0253
5.12679 1.39478 -2.03446
5.17455 1.42518 -2.05517
5.16166 1.43901 -2.05182
5.17672 1.46069 -2.05962
5.20122 1.48518 -2.0712
5.22599 1.50996 -2.08294
5.25105 1.53502 -2.09483
5.2764 1.56036 -2.10688
5.30204 1.586 -2.11909
5.32798 1.61194 -2.13146
5.35422 1.63819 -2.144
5.38077 1.66474 -2.15671
5.40765 1.69161 -2.16959
5.43484 1.71881 -2.18265
5.46236 1.74633 -2.19589
5.49022 1.77419 -2.20931
5.51843 1.80239 -2.22292
5.54698 1.83095 -2.23671
5.57589 1.85986 -2.25071
5.60517 1.88913 -2.2649
4.2253 0.489943 -1.66942
4.23911 0.504991 -1.67549
4.25301 0.520148 -1.68162
4.26785 0.535522 -1.68814
4.28282 0.551018 -1.69474
4.29791 0.566636 -1.7014
4.31312 0.582377 -1.70813
4.32844 0.598241 -1.71494
4.34389 0.614233 -1.72181
4.35946 0.630354 -1.72875
4.37515 0.646605 -1.73577
4.39097 0.662989 -1.74286
4.40691 0.679507 -1.75002
4.42299 0.69616 -1.75726
4.43939 0.712984 -1.76466
4.45632 0.730013 -1.77229
4.47339 0.74719 -1.78
4.49061 0.764517 -1.78779
4.50798 0.781996 -1.79567
4.52551 0.79963 -1.80364
4.54318 0.817421 -1.8117
4.56102 0.83537 -1.81984
4.57901 0.853482 -1.82808
4.59716 0.871759 -1.83641
4.61548 0.890203 -1.84483
4.63397 0.908817 -1.85335
4.65263 0.927602 -1.86196
4.67139 0.94655 -1.87064
4.69031 0.965672 -1.87942
4.7101 0.985119 -1.88858
4.73117 1.00499 -1.89828
4.75247 1.02506 -1.9081
4.77398 1.04535 -1.91804
4.79572 1.06584 -1.92811
4.81769 1.08656 -1.9383
4.8399 1.10749 -1.94862
4.86234 1.12865 -1.95906
4.88503 1.15003 -1.96965
4.90797 1.17165 -1.98036
4.93116 1.19351 -1.99122
4.95461 1.21561 -2.00221
4.97832 1.23795 -2.01335
5.00229 1.26055 -2.02463
5.02654 1.2834 -2.03606
5.05107 1.30651 -2.04764
5.07102 1.32861 -2.0574
5.08943 1.35047 -2.06658
5.10801 1.37252 -2.07586
5.12676 1.39477 -2.08524
5.16417 1.42232 -2.10225
5.15249 1.43646 -2.09932
5.17672 1.46069 -2.11104
5.20122 1.48518 -2.12292
5.22599 1.50996 -2.13495
5.25105 1.53502 -2.14714
5.2764 1.56036 -2.15949
5.30204 1.586 -2.172
5.32798 1.61194 -2.18468
5.35422 1.63819 -2.19753
5.38077 1.66474 -2.21056
5.40765 1.69161 -2.22376
5.43484 1.71881 -2.23715
5.46236 1.74633 -2.25071
5.49022 1.77419 -2.26447
5.51843 1.80239 -2.27842
5.54698 1.83095 -2.29256
5.57589 1.85986 -2.3069
5.60517 1.88913 -2.32145
4.22068 0.489407 -1.70848
4.23445 0.504436 -1.71468
4.24831 0.519574 -1.72095
4.26281 0.53489 -1.72749
4.27774 0.550365 -1.73423
4.29279 0.565961 -1.74104
4.30796 0.581681 -1.74792
4.32325 0.597523 -1.75488
4.33865 0.613493 -1.7619
4.35418 0.629591 -1.769
4.36983 0.64582 -1.77617
4.38561 0.66218 -1.78342
4.40161 0.678689 -1.79078
4.41822 0.695411 -1.79841
4.43497 0.712274 -1.80613
4.45186 0.729283 -1.81393
4.4689 0.74644 -1.82181
4.48608 0.763746 -1.82978
4.50342 0.781204 -1.83784
4.5209 0.798817 -1.84599
4.53854 0.816586 -1.85422
4.55633 0.834512 -1.86255
4.57429 0.852602 -1.87097
4.5924 0.870856 -1.87949
4.61068 0.889277 -1.8881
4.63045 0.908125 -1.89734
4.65044 0.927167 -1.90672
4.67079 0.946428 -1.91626
4.69143 0.965903 -1.92596
4.71229 0.985576 -1.93578
4.73336 1.00545 -1.94572
4.75464 1.02553 -1.95578
4.77615 1.04582 -1.96596
4.79789 1.06632 -1.97627
4.81986 1.08704 -1.98671
4.84206 1.10798 -1.99728
4.86449 1.12914 -2.00799
4.88717 1.15054 -2.01882
4.9101 1.17216 -2.0298
4.93328 1.19402 -2.04092
4.95672 1.21613 -2.05218
4.98022 1.23843 -2.0635
5.00279 1.26067 -2.07448
5.02559 1.28315 -2.08559
5.04864 1.30588 -2.09684
5.07098 1.3286 -2.10783
5.0894 1.35046 -2.11723
5.10798 1.37251 -2.12674
5.12672 1.39476 -2.13635
5.15826 1.42069 -2.15133
5.15249 1.43646 -2.15079
5.17672 1.46069 -2.1628
5.20122 1.48518 -2.17497
5.22599 1.50996 -2.18729
5.25105 1.53502 -2.19978
5.2764 1.56036 -2.21243
5.30204 1.586 -2.22526
5.32798 1.61194 -2.23825
5.35422 1.63819 -2.25141
5.38077 1.66474 -2.26476
5.40765 1.69161 -2.27829
5.43484 1.71881 -2.292
5.46236 1.74633 -2.3059
5.49022 1.77419 -2.31999
5.51843 1.80239 -2.33428
5.54698 1.83095 -2.34877
5.57589 1.85986 -2.36346
4.21603 0.488868 -1.74771
4.22976 0.503878 -1.75405
4.2436 0.518998 -1.76046
4.25775 0.534255 -1.76701
4.27264 0.549709 -1.7739
4.28766 0.565284 -1.78086
4.30279 0.580981 -1.78789
4.31803 0.596802 -1.79499
4.3334 0.61275 -1.80216
4.34889 0.628826 -1.80941
4.36451 0.645033 -1.81675
4.38081 0.661455 -1.82438
4.39725 0.678017 -1.8321
4.41382 0.694717 -1.8399
4.43053 0.711562 -1.84779
4.44739 0.728551 -1.85576
4.46439 0.745687 -1.86382
4.48154 0.762971 -1.87197
4.49883 0.780409 -1.8802
4.51628 0.798 -1.88853
4.53469 0.815892 -1.89728
4.55374 0.834038 -1.90634
4.57298 0.852359 -1.9155
4.59241 0.870856 -1.92477
4.61202 0.889535 -1.93415
4.63183 0.908397 -1.94364
4.65184 0.927444 -1.95324
4.67222 0.946718 -1.96303
4.69287 0.9662 -1.97297
4.71374 0.985881 -1.98303
4.73483 1.00576 -1.99322
4.75613 1.02585 -2.00353
4.77765 1.04615 -2.01396
4.7994 1.06666 -2.02453
4.82138 1.08739 -2.03522
4.8436 1.10833 -2.04605
4.86605 1.12951 -2.05702
4.88841 1.15083 -2.06798
4.91001 1.17214 -2.07867
4.93185 1.19368 -2.08948
4.9539 1.21543 -2.10043
4.97619 1.23742 -2.11151
4.99871 1.25965 -2.12272
5.02147 1.2821 -2.13408
5.04448 1.3048 -2.14559
5.06705 1.32757 -2.15694
5.08936 1.35045 -2.16823
5.10794 1.3725 -2.17796
5.12669 1.39475 -2.18781
5.17088 1.42416 -2.20855
5.1563 1.43752 -2.20424
5.17672 1.46069 -2.21491
5.20122 1.48518 -2.22737
5.22599 1.50996 -2.23999
5.25105 1.53502 -2.25278
5.2764 1.56036 -2.26574
5.30204 1.586 -2.27887
5.32798 1.61194 -2.29217
5.35422 1.63819 -2.30566
5.38078 1.66474 -2.31932
5.40765 1.69161 -2.33318
5.43484 1.71881 -2.34722
5.46236 1.74633 -2.36145
5.49022 1.77419 -2.37589
5.51843 1.80239 -2.39052
5.54698 1.83095 -2.40536
4.21136 0.488326 -1.78713
4.22506 0.503318 -1.79361
4.23887 0.518419 -1.80014
4.25277 0.53363 -1.80675
4.26752 0.549051 -1.81374
4.2825 0.564604 -1.82084
4.29759 0.58028 -1.82802
4.3128 0.596078 -1.83528
4.32812 0.612004 -1.84261
4.34406 0.628128 -1.85022
4.36019 0.644395 -1.85794
4.37646 0.660798 -1.86574
4.39286 0.67734 -1.87363
4.4094 0.694021 -1.8816
4.42607 0.710845 -1.88965
4.44333 0.727885 -1.89799
4.46152 0.745207 -1.90674
4.47989 0.762691 -1.9156
4.49842 0.780337 -1.92456
4.51713 0.79815 -1.93362
4.53602 0.816131 -1.94279
4.55508 0.834283 -1.95207
4.57433 0.852611 -1.96145
4.59377 0.871114 -1.97095
4.6134 0.8898 -1.98055
4.63322 0.908669 -1.99027
4.65324 0.927724 -2.00011
4.67366 0.947009 -2.01015
4.69433 0.966499 -2.02033
4.71521 0.986187 -2.03063
4.73631 1.00608 -2.04107
4.75762 1.02618 -2.05163
4.77916 1.04648 -2.06232
4.80038 1.06688 -2.0729
4.82109 1.08732 -2.08331
4.84202 1.10797 -2.09383
4.86315 1.12883 -2.10449
4.8845 1.14991 -2.11528
4.90607 1.1712 -2.1262
4.92787 1.19271 -2.13725
4.94989 1.21445 -2.14843
4.97213 1.23642 -2.15976
4.99462 1.25861 -2.17123
5.01734 1.28105 -2.18283
5.0403 1.30372 -2.19459
5.06285 1.32647 -2.20621
5.08545 1.34941 -2.21788
5.10791 1.37249 -2.22954
5.12665 1.39474 -2.23961
5.18365 1.42768 -2.26645
5.16901 1.44107 -2.26201
5.17672 1.46069 -2.26738
5.20122 1.48518 -2.28013
5.22599 1.50996 -2.29305
5.25105 1.53502 -2.30614
5.2764 1.56036 -2.31941
5.30204 1.58601 -2.33285
5.32798 1.61194 -2.34647
5.35422 1.63819 -2.36027
5.38077 1.66474 -2.37426
5.40765 1.69161 -2.38844
5.43484 1.71881 -2.40282
5.46236 1.74633 -2.41739
5.49022 1.77419 -2.43216
5.51843 1.80239 -2.44714
4.20666 0.487782 -1.82674
4.22034 0.502755 -1.83335
4.23411 0.517837 -1.84002
4.24798 0.533029 -1.84677
4.26238 0.548387 -1.85376
4.27731 0.56392 -1.86102
4.29236 0.579574 -1.86835
4.30795 0.595408 -1.87593
4.32379 0.611391 -1.88365
4.33975 0.627505 -1.89145
4.35604 0.643782 -1.89942
4.37344 0.660342 -1.9079
4.39099 0.677051 -1.91647
4.4087 0.693912 -1.92514
4.42657 0.710926 -1.93391
4.44461 0.728096 -1.94277
4.46282 0.745424 -1.95174
4.48119 0.762913 -1.96081
4.49973 0.780565 -1.96998
4.51846 0.798385 -1.97926
4.53736 0.816373 -1.98865
4.55643 0.83453 -1.99815
4.5757 0.852864 -2.00776
4.59515 0.871376 -2.01748
4.61479 0.890069 -2.02731
4.63462 0.908944 -2.03727
4.65465 0.928006 -2.04734
4.67511 0.947303 -2.05763
4.69579 0.9668 -2.06805
4.71587 0.986326 -2.07824
4.73576 1.00596 -2.08838
4.75584 1.02579 -2.09865
4.77612 1.04581 -2.10903
4.7966 1.06604 -2.11953
4.81728 1.08646 -2.13016
4.83817 1.10709 -2.14092
4.85927 1.12793 -2.15181
4.88058 1.14898 -2.16283
4.90211 1.17025 -2.17398
4.92387 1.19174 -2.18527
4.94585 1.21346 -2.1967
4.96806 1.2354 -2.20827
4.9905 1.25758 -2.21999
5.01318 1.27999 -2.23185
5.0361 1.30264 -2.24386
5.05864 1.32537 -2.25573
5.08119 1.34828 -2.26766
5.10397 1.37143 -2.27973
5.25243 1.42896 -2.34803
5.23394 1.44153 -2.34177
5.21557 1.45405 -2.33557
5.19733 1.4665 -2.32945
5.20122 1.48518 -2.33326
5.22599 1.50996 -2.34648
5.25105 1.53502 -2.35988
5.2764 1.56036 -2.37345
5.30204 1.586 -2.38721
5.32798 1.61194 -2.40114
5.35422 1.63819 -2.41527
5.38077 1.66474 -2.42959
5.40765 1.69161 -2.4441
5.43484 1.71881 -2.45881
5.46236 1.74633 -2.47372
4.20195 0.487235 -1.86654
4.21559 0.502189 -1.87329
4.22933 0.517252 -1.8801
4.24316 0.532425 -1.88698
4.25721 0.547723 -1.89398
4.27252 0.563288 -1.90157
4.28918 0.579144 -1.90978
4.30598 0.595136 -1.91808
4.32293 0.61127 -1.92647
4.34003 0.627544 -1.93496
4.35728 0.643964 -1.94354
4.37469 0.66053 -1.95221
4.39224 0.677245 -1.96099
4.40995 0.694109 -1.96985
4.42783 0.711127 -1.97882
4.44587 0.728301 -1.98789
4.46407 0.745634 -1.99706
4.48245 0.763127 -2.00634
4.50099 0.780784 -2.01573
4.51971 0.798606 -2.02522
4.53861 0.816599 -2.03482
4.55769 0.834761 -2.04454
4.57695 0.853099 -2.05437
4.5964 0.871615 -2.06431
4.61604 0.890311 -2.07437
4.63607 0.909228 -2.08464
4.65628 0.928331 -2.09502
4.67557 0.947397 -2.10503
4.69505 0.966647 -2.11515
4.71471 0.986083 -2.12539
4.73457 1.00571 -2.13575
4.75462 1.02553 -2.14623
4.77487 1.04554 -2.15684
4.79533 1.06575 -2.16757
4.81599 1.08617 -2.17843
4.83685 1.10679 -2.18943
4.85793 1.12762 -2.20056
4.87923 1.14867 -2.21182
4.90075 1.16993 -2.22323
4.92249 1.19141 -2.23477
4.94446 1.21312 -2.24646
4.96666 1.23505 -2.25829
4.9891 1.25722 -2.27027
5.36448 1.49556 -2.45735
5.32105 1.50141 -2.4396
5.27841 1.50723 -2.4222
5.23653 1.513 -2.40514
5.25105 1.53502 -2.414
5.2764 1.56036 -2.42789
5.30204 1.586 -2.44196
5.32798 1.61194 -2.45621
5.35422 1.63819 -2.47066
5.38077 1.66474 -2.48531
4.1945 0.486371 -1.90531
4.20971 0.501489 -1.91293
4.22526 0.516754 -1.92071
4.24102 0.532157 -1.92863
4.25695 0.547689 -1.93664
4.27346 0.563413 -1.94495
4.29012 0.579271 -1.95334
4.30692 0.595266 -1.96183
4.32387 0.611402 -1.97041
4.34097 0.62768 -1.97909
4.35822 0.644103 -1.98786
4.37562 0.660672 -1.99673
4.39318 0.67739 -2.00571
4.4109 0.694258 -2.01478
4.42878 0.711281 -2.02395
4.44683 0.728459 -2.03323
4.46504 0.745796 -2.04262
4.48343 0.763294 -2.05211
4.50198 0.780955 -2.06171
4.52071 0.798783 -2.07142
4.5397 0.816795 -2.08128
4.55897 0.834996 -2.0913
4.57843 0.853375 -2.10145
4.59809 0.871934 -2.11171
4.61794 0.890675 -2.12209
4.63798 0.909603 -2.1326
4.65804 0.928681 -2.14315
4.67734 0.947756 -2.15339
4.69683 0.967014 -2.16374
4.71651 0.98646 -2.17422
4.73639 1.0061 -2.18482
4.75646 1.02592 -2.19555
4.77673 1.04595 -2.20641
4.7972 1.06617 -2.21739
4.81787 1.0866 -2.22851
4.83876 1.10723 -2.23976
4.85986 1.12807 -2.25115
4.88117 1.14912 -2.26268
4.19496 0.486425 -1.94793
4.21048 0.501581 -1.95585
4.22613 0.516861 -1.96386
4.2419 0.532267 -1.97195
4.25783 0.547803 -1.98015
4.27436 0.56353 -1.98864
4.29102 0.579393 -1.99723
4.30783 0.595392 -2.00591
4.32478 0.611532 -2.01469
4.34189 0.627814 -2.02356
4.35915 0.644241 -2.03253
4.37656 0.660814 -2.04161
4.39413 0.677536 -2.05078
4.41186 0.694409 -2.06006
4.42975 0.711436 -2.06944
4.4478 0.728619 -2.07893
4.46618 0.745986 -2.0886
4.48475 0.763521 -2.09839
4.5035 0.781219 -2.1083
4.52243 0.799087 -2.11832
4.54154 0.817126 -2.12846
4.56083 0.835336 -2.13871
4.58031 0.853725 -2.14909
4.59998 0.872292 -2.15959
4.61985 0.891044 -2.17022
4.63991 0.909981 -2.18097
4.65981 0.929033 -2.19168
4.67913 0.948117 -2.20215
4.69863 0.967386 -2.21274
4.71833 0.98684 -2.22346
4.73822 1.00649 -2.23431
4.75831 1.02632 -2.24528
4.77859 1.04636 -2.25639
4.79908 1.06659 -2.26763
4.19583 0.486525 -1.99107
4.21135 0.501685 -1.99917
4.227 0.516969 -2.00736
4.24278 0.532378 -2.01563
4.25873 0.547919 -2.02401
4.27526 0.563649 -2.0327
4.29193 0.579515 -2.04147
4.30874 0.595518 -2.05035
4.32571 0.611663 -2.05932
4.34282 0.627949 -2.06839
4.36009 0.644379 -2.07757
4.37758 0.660968 -2.08688
4.39533 0.677721 -2.09634
4.41324 0.694626 -2.10591
4.43132 0.711687 -2.11559
4.44956 0.728906 -2.12537
4.46797 0.746285 -2.13528
4.48656 0.763828 -2.14529
4.50532 0.781535 -2.15542
4.52427 0.799412 -2.16567
4.54339 0.817459 -2.17604
4.5627 0.835679 -2.18653
4.5822 0.854077 -2.19714
4.60189 0.872655 -2.20788
4.62177 0.891416 -2.21875
4.64186 0.910363 -2.22974
4.66159 0.929389 -2.24061
4.68093 0.948482 -2.25132
4.70045 0.96776 -2.26216
4.1967 0.486626 -2.03456
4.21223 0.501789 -2.04285
4.22789 0.517076 -2.05121
4.24368 0.532489 -2.05967
4.25963 0.548035 -2.06824
4.27617 0.563769 -2.07711
4.29286 0.579641 -2.08609
4.30984 0.595671 -2.09524
4.32698 0.611842 -2.10449
4.34426 0.628157 -2.11384
4.36171 0.64462 -2.1233
4.37931 0.661229 -2.13287
4.39707 0.67799 -2.14254
4.415 0.694903 -2.15233
4.43309 0.711973 -2.16222
4.45135 0.7292 -2.17223
4.46978 0.746587 -2.18235
4.48847 0.764152 -2.19263
4.50739 0.781894 -2.20306
4.5265 0.799807 -2.21361
4.5458 0.817892 -2.22429
4.56528 0.836151 -2.23509
4.58496 0.854591 -2.24603
4.60483 0.873213 -2.25709
4.19758 0.486728 -2.07843
4.21311 0.501895 -2.08689
4.22954 0.517278 -2.09582
4.24617 0.532803 -2.10487
4.26293 0.548459 -2.11402
4.27976 0.564243 -2.12323
4.29674 0.580165 -2.13255
4.31387 0.596227 -2.14197
4.33116 0.612433 -2.15149
4.3486 0.628785 -2.16112
4.3662 0.645283 -2.17086
4.38397 0.661933 -2.18071
4.4019 0.678734 -2.19068
4.41999 0.69569 -2.20076
4.43826 0.712803 -2.21095
4.4567 0.730076 -2.22127
4.47532 0.747513 -2.2317
4.49411 0.765114 -2.24225
4.51309 0.782883 -2.25293
4.20166 0.487202 -2.12429
4.21805 0.502483 -2.13336
4.23458 0.517896 -2.14253
4.25126 0.533441 -2.15181
4.26803 0.549116 -2.16115
4.2849 0.564921 -2.17058
4.30193 0.580866 -2.18011
4.3191 0.596951 -2.18975
4.33643 0.61318 -2.1995
4.35392 0.629554 -2.20936
4.37157 0.646077 -2.21933
4.38938 0.66275 -2.22942
4.40736 0.679576 -2.23962
4.4255 0.696557 -2.24993
4.44382 0.713696 -2.26037
4.20668 0.487785 -2.17109
4.22311 0.503086 -2.18037
4.23969 0.51852 -2.18976
4.25641 0.534087 -2.19924
4.27319 0.54978 -2.20879
4.29011 0.565607 -2.21844
4.30717 0.581574 -2.2282
4.32439 0.597681 -2.23806
4.34177 0.613934 -2.24804
4.3593 0.630332 -2.25813
4.21176 0.488373 -2.2184
4.22823 0.503696 -2.2279
4.24485 0.519151 -2.2375
4.2616 0.534739 -2.2472
4.27841 0.550451 -2.25696
5.06749 -0.65147 -1.03285
5.05727 -0.63403 -1.03035
5.04667 -0.616621 -1.02779
5.03426 -0.599078 -1.02488
5.02185 -0.581625 -1.02197
5.00943 -0.56426 -1.01908
4.88002 -0.846689 -1.04417
4.87156 -0.829483 -1.0418
4.86307 -0.812342 -1.03944
4.85455 -0.795268 -1.03708
4.84599 -0.778257 -1.03472
4.8374 -0.761314 -1.03237
4.82877 -0.744436 -1.03003
4.82012 -0.727623 -1.02769
4.81139 -0.71087 -1.02535
4.80075 -0.693911 -1.02261
4.79009 -0.677033 -1.01988
4.77942 -0.660231 -1.01716
4.76873 -0.643511 -1.01445
4.75803 -0.626871 -1.01175
4.7473 -0.610307 -1.00906
4.73951 -0.594192 -1.007
4.736 -0.578662 -1.00587
4.73245 -0.563162 -1.00473
4.72886 -0.547691 -1.0036
4.72523 -0.532248 -1.00247
4.72376 -1.03514 -1.06154
4.70353 -1.01525 -1.05628
4.69133 -0.997219 -1.05283
4.67918 -0.979298 -1.04941
4.66705 -0.961483 -1.04601
4.65497 -0.943775 -1.04263
4.64752 -0.92709 -1.0403
4.64049 -0.910555 -1.03808
4.63342 -0.894076 -1.03587
4.6263 -0.877655 -1.03366
4.61916 -0.861291 -1.03145
4.61197 -0.844984 -1.02925
4.60475 -0.828734 -1.02705
4.59749 -0.81254 -1.02486
4.59014 -0.796396 -1.02266
4.58109 -0.780025 -1.02009
4.57497 -0.764218 -1.01819
4.57238 -0.749044 -1.01709
4.56975 -0.733894 -1.01599
4.56707 -0.718771 -1.01488
4.56436 -0.703672 -1.01378
4.56159 -0.688597 -1.01269
4.55879 -0.673549 -1.01159
4.55594 -0.658525 -1.01049
4.55305 -0.643529 -1.0094
4.55012 -0.628556 -1.00831
4.54715 -0.61361 -1.00722
4.54413 -0.59869 -1.00613
4.54108 -0.583794 -1.00504
4.53798 -0.568927 -1.00396
4.53442 -0.554033 -1.00278
4.53045 -0.539125 -1.00152
4.52644 -0.524247 -1.00027
4.52239 -0.5094 -0.999012
4.67926 -1.14921 -1.09975
4.62514 -1.12054 -1.0862
4.61354 -1.10241 -1.08265
4.60197 -1.08439 -1.07913
4.59043 -1.06648 -1.07564
4.57901 -1.04869 -1.07219
4.56768 -1.03102 -1.06877
4.55637 -1.01345 -1.06537
4.54509 -0.995987 -1.062
4.53384 -0.978621 -1.05865
4.52262 -0.961355 -1.05532
4.51142 -0.944189 -1.05201
4.50026 -0.92712 -1.04872
4.48912 -0.910151 -1.04546
4.47801 -0.893277 -1.04221
4.46877 -0.876861 -1.03942
4.46161 -0.860925 -1.03712
4.45445 -0.845054 -1.03483
4.44779 -0.829339 -1.03268
4.44114 -0.813685 -1.03053
4.43448 -0.79809 -1.0284
4.42782 -0.782553 -1.02628
4.42115 -0.767076 -1.02417
4.41448 -0.751656 -1.02208
4.4078 -0.736293 -1.01999
4.40112 -0.720987 -1.01792
4.39443 -0.705738 -1.01585
4.38774 -0.690547 -1.0138
4.38104 -0.675412 -1.01176
4.37434 -0.660331 -1.00973
4.37084 -0.645781 -1.00844
4.36821 -0.63139 -1.00738
4.37012 -0.617673 -1.00736
4.37189 -0.603936 -1.00733
4.3736 -0.590191 -1.00729
4.37528 -0.576444 -1.00726
4.37692 -0.56269 -1.00722
4.37852 -0.548937 -1.00719
4.3801 -0.535178 -1.00716
4.38165 -0.521417 -1.00714
4.38315 -0.507651 -1.00711
4.38463 -0.493883 -1.00709
4.6151 -1.2571 -1.13365
4.55621 -1.2257 -1.11823
4.5342 -1.20454 -1.1119
4.52337 -1.18647 -1.10832
4.51255 -1.16852 -1.10477
4.50176 -1.15066 -1.10124
4.491 -1.13291 -1.09773
4.48026 -1.11525 -1.09424
4.46955 -1.09771 -1.09078
4.459 -1.08029 -1.08737
4.44846 -1.06297 -1.08399
4.43796 -1.04575 -1.08062
4.42747 -1.02862 -1.07728
4.41701 -1.01159 -1.07395
4.40657 -0.994658 -1.07065
4.39615 -0.977818 -1.06737
4.38855 -0.961683 -1.06478
4.38189 -0.945823 -1.06244
4.37524 -0.930027 -1.06012
4.36858 -0.914293 -1.0578
4.36191 -0.898619 -1.0555
4.35524 -0.883007 -1.05321
4.34888 -0.867516 -1.05101
4.34269 -0.852121 -1.04886
4.33649 -0.83678 -1.04673
4.33028 -0.821497 -1.0446
4.32407 -0.806269 -1.04249
4.31785 -0.791096 -1.04038
4.31163 -0.775979 -1.03829
4.30539 -0.760916 -1.03621
4.29916 -0.745909 -1.03414
4.29291 -0.730956 -1.03208
4.28666 -0.716056 -1.03003
4.28363 -0.70174 -1.02877
4.28105 -0.68753 -1.02763
4.27846 -0.673349 -1.02649
4.27585 -0.659194 -1.02537
4.27322 -0.645066 -1.02425
4.27057 -0.630967 -1.02313
4.26791 -0.616892 -1.02202
4.26522 -0.602847 -1.02092
4.26252 -0.588826 -1.01983
4.25979 -0.574833 -1.01874
4.25705 -0.560867 -1.01766
4.25429 -0.546926 -1.01658
4.25437 -0.533371 -1.0162
4.2559 -0.520002 -1.01617
4.2574 -0.506632 -1.01614
4.25887 -0.493258 -1.01612
4.26031 -0.47988 -1.0161
4.48516 -1.32819 -1.14977
4.45314 -1.30352 -1.14051
4.44303 -1.28543 -1.13688
4.43294 -1.26745 -1.13328
4.42287 -1.24957 -1.12969
4.41282 -1.23179 -1.12614
4.40279 -1.21411 -1.1226
4.39278 -1.19653 -1.11908
4.38279 -1.17905 -1.11559
4.37281 -1.16166 -1.11212
4.36286 -1.14437 -1.10867
4.35297 -1.12719 -1.10525
4.34318 -1.11013 -1.10187
4.33341 -1.09315 -1.09852
4.32366 -1.07627 -1.09519
4.31448 -1.05962 -1.09201
4.30833 -1.04379 -1.08962
4.30217 -1.02801 -1.08724
4.29601 -1.0123 -1.08488
4.28984 -0.996646 -1.08253
4.28367 -0.981053 -1.08018
4.27748 -0.965521 -1.07786
4.2713 -0.950046 -1.07554
4.2651 -0.934633 -1.07324
4.2589 -0.919275 -1.07094
4.25284 -0.904009 -1.0687
4.24709 -0.888867 -1.06655
4.24133 -0.873778 -1.06441
4.23557 -0.858743 -1.06228
4.22979 -0.843761 -1.06017
4.224 -0.828833 -1.05806
4.21821 -0.813957 -1.05596
4.21241 -0.799135 -1.05388
4.20816 -0.784656 -1.05219
4.20588 -0.770581 -1.05101
4.20358 -0.756533 -1.04984
4.20126 -0.742511 -1.04867
4.19892 -0.728518 -1.04751
4.19656 -0.714551 -1.04636
4.19418 -0.700608 -1.04521
4.19178 -0.686694 -1.04407
4.18936 -0.672805 -1.04294
4.18693 -0.658943 -1.04181
4.18447 -0.645107 -1.04069
4.18199 -0.631295 -1.03958
4.1795 -0.61751 -1.03847
4.17699 -0.603751 -1.03737
4.17445 -0.590017 -1.03628
4.1719 -0.576308 -1.03519
4.16933 -0.562626 -1.03411
4.16674 -0.548968 -1.03303
4.16413 -0.535335 -1.03197
4.16153 -0.521732 -1.03091
4.15903 -0.508167 -1.02989
4.15651 -0.494625 -1.02888
4.15523 -0.481254 -1.02818
4.15421 -0.467929 -1.02756
4.41322 -1.41303 -1.17994
4.37763 -1.38651 -1.16926
4.36594 -1.36775 -1.16498
4.3543 -1.34911 -1.16074
4.3427 -1.33059 -1.15653
4.33115 -1.3122 -1.15235
4.31965 -1.29393 -1.1482
4.30819 -1.27578 -1.14409
4.29677 -1.25774 -1.14
4.28642 -1.24012 -1.13622
4.27717 -1.22291 -1.13274
4.26792 -1.2058 -1.12929
4.2587 -1.18877 -1.12585
4.24948 -1.17184 -1.12244
4.24038 -1.15502 -1.11907
4.23374 -1.13895 -1.11637
4.22809 -1.12322 -1.11394
4.22242 -1.10754 -1.11153
4.21674 -1.09192 -1.10913
4.21106 -1.07635 -1.10674
4.20537 -1.06085 -1.10436
4.19966 -1.04541 -1.102
4.19395 -1.03002 -1.09965
4.18823 -1.01469 -1.09731
4.1825 -0.999416 -1.09498
4.17676 -0.9842 -1.09266
4.17102 -0.96904 -1.09036
4.16526 -0.953936 -1.08807
4.15952 -0.938893 -1.08579
4.15419 -0.923999 -1.08364
4.14885 -0.909158 -1.08149
4.1435 -0.894367 -1.07936
4.13814 -0.879629 -1.07724
4.13316 -0.865023 -1.07523
4.13117 -0.851082 -1.07402
4.12916 -0.837169 -1.0728
4.12713 -0.823281 -1.0716
4.12507 -0.809421 -1.0704
4.123 -0.795585 -1.06921
4.12091 -0.781776 -1.06803
4.11879 -0.767994 -1.06685
4.11666 -0.754235 -1.06568
4.11451 -0.740503 -1.06451
4.11233 -0.726796 -1.06336
4.11014 -0.713115 -1.06221
4.10793 -0.699459 -1.06106
4.10579 -0.685844 -1.05995
4.10367 -0.67226 -1.05885
4.10153 -0.658699 -1.05776
4.09937 -0.645163 -1.05668
4.09719 -0.631652 -1.0556
4.095 -0.618163 -1.05453
4.09278 -0.604699 -1.05346
4.09055 -0.591257 -1.05241
4.08829 -0.57784 -1.05135
4.08602 -0.564445 -1.05031
4.0842 -0.551138 -1.04939
4.08336 -0.537984 -1.04874
4.0825 -0.524841 -1.04809
4.08162 -0.511713 -1.04744
4.08073 -0.498599 -1.04681
4.07981 -0.485497 -1.04618
4.07887 -0.47241 -1.04555
4.07791 -0.459334 -1.04493
4.36738 -1.5049 -1.21721
4.3356 -1.47874 -1.20705
4.30906 -1.45461 -1.19839
4.29797 -1.43586 -1.19404
4.28691 -1.41722 -1.18973
4.2759 -1.39871 -1.18545
4.26493 -1.38032 -1.1812
4.254 -1.36205 -1.17698
4.2434 -1.344 -1.17288
4.23289 -1.32607 -1.16882
4.22242 -1.30825 -1.16479
4.21199 -1.29054 -1.16079
4.20159 -1.27295 -1.15682
4.19123 -1.25546 -1.15287
4.1809 -1.23809 -1.14896
4.17085 -1.22089 -1.14514
4.1635 -1.20456 -1.14208
4.15617 -1.18832 -1.13903
4.1489 -1.17217 -1.13603
4.14173 -1.15612 -1.13307
4.13457 -1.14015 -1.13012
4.12741 -1.12425 -1.1272
4.12027 -1.10843 -1.12429
