ply
format ascii 1.0
element vertex 1364
property float32 x
property float32 y
property float32 z
property float32 CosAngle
property uint32 ObjIdx
property uint32 ObjTag
end_header
-31.6676 94.9139 -2.4953 0.0249 0 8
-33.1969 94.3899 -2.4953 0.0249 0 8
-34.7176 93.8412 -2.4953 0.0249 0 8
-36.2292 93.2681 -2.4953 0.0249 0 8
-40.0358 98.3305 -2.6477 0.0249 0 7
-41.6192 97.6708 -2.6477 0.0249 0 7
-43.1917 96.9857 -2.6477 0.0249 0 7
-44.7531 96.2752 -2.6477 0.0249 0 7
-46.3026 95.5396 -2.6477 0.0249 0 7
-47.8402 94.7790 -2.6477 0.0249 0 7
-49.3653 93.9937 -2.6477 0.0249 0 7
-50.8774 93.1839 -2.6477 0.0249 0 7
-52.3763 92.3497 -2.6477 0.0249 0 7
-53.8615 91.4914 -2.6477 0.0249 0 7
-55.3327 90.6093 -2.6477 0.0249 0 7
-56.2592 88.8661 -2.6230 0.5327 0 8
-56.2797 85.7991 -2.5589 0.5460 0 8
-56.3024 82.8823 -2.4988 0.4166 0 8
-57.5539 81.8477 -2.4953 0.0249 0 8
-58.8687 80.9071 -2.4953 0.0249 0 8
-60.1681 79.9455 -2.4953 0.0249 0 8
-61.4519 78.9630 -2.4953 0.0249 0 8
-62.7196 77.9598 -2.4953 0.0249 0 14
45.9386 65.0225 -2.6477 0.0332 0 7
44.8821 65.7562 -2.6477 0.0332 0 7
35.3119 53.5738 -2.1339 0.5500 4 5
42.7342 67.1720 -2.6477 0.0332 0 7
41.6434 67.8536 -2.6477 0.0332 0 7
40.5417 68.5176 -2.6477 0.0332 0 7
39.4294 69.1637 -2.6477 0.0332 0 7
38.3068 69.7917 -2.6477 0.0332 0 7
37.1742 70.4015 -2.6477 0.0332 0 7
36.0319 70.9928 -2.6477 0.0332 0 7
34.8802 71.5657 -2.6477 0.0332 0 7
33.7194 72.1199 -2.6477 0.0332 0 7
32.5498 72.6553 -2.6477 0.0332 0 7
31.3717 73.1717 -2.6477 0.0332 0 7
30.1855 73.6690 -2.6477 0.0332 0 7
28.9773 74.1112 -2.6464 0.0490 0 8
27.7207 74.4210 -2.6411 0.0491 0 8
26.3819 74.4841 -2.6279 0.9320 0 8
25.0354 74.4851 -2.6133 0.9372 0 8
23.7034 74.4859 -2.5996 0.9421 0 8
22.3849 74.4866 -2.5866 0.9469 0 8
21.0792 74.4872 -2.5745 0.9513 0 8
19.7852 74.4877 -2.5631 0.9555 0 8
18.5023 74.4880 -2.5525 0.9595 0 8
17.2296 74.4882 -2.5426 0.9632 0 8
15.9663 74.4883 -2.5335 0.9667 0 8
14.7117 74.4882 -2.5251 0.9699 0 8
13.4651 74.4881 -2.5174 0.9729 0 8
12.2257 74.4878 -2.5104 0.9756 0 8
10.9929 74.4874 -2.5040 0.9781 0 8
9.7664 74.4904 -2.4985 0.7240 0 8
8.5506 74.5420 -2.4953 0.0332 0 8
7.3451 74.6704 -2.4953 0.0332 0 8
6.1377 74.7793 -2.4953 0.0332 0 8
4.9288 74.8687 -2.4953 0.0332 0 8
3.7186 74.9386 -2.4953 0.0332 0 8
2.5073 74.9889 -2.4953 0.0332 0 8
1.2955 75.0196 -2.4953 0.0332 0 8
0.0832 75.0307 -2.4953 0.0332 0 8
-1.1290 75.0223 -2.4953 0.0332 0 8
-2.3409 74.9943 -2.4953 0.0332 0 8
-3.5522 74.9466 -2.4953 0.0332 0 8
-4.7627 74.8795 -2.4953 0.0332 0 8
-5.9718 74.7928 -2.4953 0.0332 0 8
-7.1794 74.6865 -2.4953 0.0332 0 8
-8.3850 74.5608 -2.4953 0.0332 0 8
-9.5952 74.4672 -2.4970 0.7249 0 8
-10.8201 74.4603 -2.5023 0.7233 0 8
-12.0511 74.4571 -2.5084 0.9764 0 8
-13.2884 74.4543 -2.5152 0.9737 0 8
-14.5329 74.4513 -2.5227 0.9708 0 8
-15.7850 74.4482 -2.5309 0.9677 0 8
-17.0456 74.4449 -2.5399 0.9643 0 8
-18.3155 74.4415 -2.5495 0.9606 0 8
-19.5953 74.4379 -2.5599 0.9567 0 8
-20.8859 74.4342 -2.5710 0.9526 0 8
-22.1881 74.4303 -2.5829 0.9482 0 8
-23.5027 74.4263 -2.5956 0.9435 0 8
-24.8306 74.4221 -2.6092 0.9387 0 8
-26.1727 74.4177 -2.6235 0.9335 0 8
-27.5300 74.4132 -2.6387 0.9282 0 8
-28.7955 74.1309 -2.6448 0.0490 0 8
-30.0219 73.7358 -2.6477 0.0332 0 7
-31.2093 73.2411 -2.6477 0.0332 0 6
-32.3885 72.7274 -2.6477 0.0332 0 7
-33.5593 72.1946 -2.6477 0.0332 0 7
-34.7213 71.6430 -2.6477 0.0332 0 7
-35.8743 71.0726 -2.6477 0.0332 0 7
-37.0179 70.4837 -2.6477 0.0332 0 7
-38.1518 69.8765 -2.6477 0.0332 0 7
-39.2758 69.2510 -2.6477 0.0332 0 7
-40.3895 68.6074 -2.6477 0.0332 0 7
-41.4927 67.9458 -2.6477 0.0332 0 7
-42.5851 67.2666 -2.6477 0.0332 0 7
-43.6663 66.5698 -2.6477 0.0332 0 7
-44.7361 65.8556 -2.6477 0.0332 0 7
-45.7943 65.1243 -2.6477 0.0332 0 7
-46.8404 64.3759 -2.6477 0.0332 0 7
-47.8744 63.6107 -2.6477 0.0332 0 7
-48.8959 62.8290 -2.6477 0.0332 0 7
-49.9045 62.0308 -2.6477 0.0332 0 7
34.6284 49.0137 -2.4953 0.0415 0 8
33.8320 49.5668 -2.4953 0.0415 0 8
33.0268 50.1069 -2.4953 0.0415 0 8
32.2129 50.6340 -2.4953 0.0415 0 8
31.3906 51.1478 -2.4953 0.0415 0 8
30.5602 51.6483 -2.4953 0.0415 0 8
29.7217 52.1353 -2.4953 0.0415 0 8
28.8755 52.6087 -2.4953 0.0415 0 8
28.0218 53.0684 -2.4953 0.0415 0 8
27.1607 53.5142 -2.4953 0.0415 0 8
26.2926 53.9460 -2.4953 0.0415 0 8
25.4176 54.3638 -2.4953 0.0415 0 8
24.5360 54.7673 -2.4953 0.0415 0 8
23.6479 55.1566 -2.4953 0.0415 0 8
22.7537 55.5314 -2.4953 0.0415 0 8
21.8535 55.8918 -2.4953 0.0415 0 8
20.9477 56.2376 -2.4953 0.0415 0 8
20.0364 56.5687 -2.4953 0.0415 0 8
19.1198 56.8850 -2.4953 0.0415 0 8
18.1983 57.1865 -2.4953 0.0415 0 8
17.2720 57.4730 -2.4953 0.0415 0 8
16.3411 57.7446 -2.4953 0.0415 0 8
15.4061 58.0011 -2.4953 0.0415 0 8
14.4670 58.2424 -2.4953 0.0415 0 8
13.5241 58.4685 -2.4953 0.0415 0 8
12.5777 58.6794 -2.4953 0.0415 0 8
11.6280 58.8750 -2.4953 0.0415 0 8
10.6753 59.0551 -2.4953 0.0415 0 8
9.7198 59.2199 -2.4953 0.0415 0 8
8.7617 59.3692 -2.4953 0.0415 0 8
7.8014 59.5030 -2.4953 0.0415 0 8
6.8390 59.6213 -2.4953 0.0415 0 8
5.8749 59.7240 -2.4953 0.0415 0 8
4.9092 59.8111 -2.4953 0.0415 0 8
3.9422 59.8826 -2.4953 0.0415 0 8
2.9742 59.9385 -2.4953 0.0415 0 8
2.0054 59.9787 -2.4953 0.0415 0 8
1.0361 60.0033 -2.4953 0.0415 0 8
0.0666 60.0122 -2.4953 0.0415 0 8
-0.9030 60.0055 -2.4953 0.0415 0 8
-1.8723 59.9830 -2.4953 0.0415 0 8
-2.8412 59.9450 -2.4953 0.0415 0 8
-3.8094 59.8912 -2.4953 0.0415 0 8
-4.7765 59.8219 -2.4953 0.0415 0 8
-5.7424 59.7369 -2.4953 0.0415 0 8
-6.7067 59.6363 -2.4953 0.0415 0 8
-7.6694 59.5202 -2.4953 0.0415 0 8
-8.6300 59.3885 -2.4953 0.0415 0 8
-9.5884 59.2413 -2.4953 0.0415 0 8
-10.5443 59.0787 -2.4953 0.0415 0 8
-11.4974 58.9006 -2.4953 0.0415 0 8
-12.4475 58.7072 -2.4953 0.0415 0 8
-13.3944 58.4984 -2.4953 0.0415 0 8
-14.3377 58.2743 -2.4953 0.0415 0 8
-15.2774 58.0351 -2.4953 0.0415 0 8
-16.2130 57.7807 -2.4953 0.0415 0 8
-17.1444 57.5112 -2.4953 0.0415 0 8
-18.0713 57.2267 -2.4953 0.0415 0 8
-18.9935 56.9273 -2.4953 0.0415 0 8
-19.9108 56.6130 -2.4953 0.0415 0 8
-20.8229 56.2839 -2.4953 0.0415 0 8
-21.7295 55.9401 -2.4953 0.0415 0 8
-22.6304 55.5818 -2.4953 0.0415 0 8
-23.5255 55.2089 -2.4953 0.0415 0 8
-24.4144 54.8216 -2.4953 0.0415 0 8
-25.2969 54.4200 -2.4953 0.0415 0 8
-26.1728 54.0042 -2.4953 0.0415 0 8
-27.0419 53.5743 -2.4953 0.0415 0 8
-27.9040 53.1304 -2.4953 0.0415 0 8
-28.7587 52.6727 -2.4953 0.0415 0 8
-29.6060 52.2011 -2.4953 0.0415 0 8
-30.4455 51.7160 -2.4953 0.0415 0 8
-31.2771 51.2174 -2.4953 0.0415 0 8
-32.1005 50.7053 -2.4953 0.0415 0 8
-32.9155 50.1801 -2.4953 0.0415 0 8
-33.7219 49.6418 -2.4953 0.0415 0 8
-34.5196 49.0904 -2.4953 0.0415 0 8
-35.3082 48.5263 -2.4953 0.0415 0 8
-36.0876 47.9496 -2.4953 0.0415 0 8
-36.8575 47.3603 -2.4953 0.0415 0 8
-39.9154 49.6144 -2.6477 0.0415 0 6
28.8496 40.8345 -2.4953 0.0498 0 8
28.1861 41.2952 -2.4953 0.0498 0 8
27.5153 41.7451 -2.4953 0.0498 0 8
26.8373 42.1842 -2.4953 0.0498 0 8
26.1522 42.6123 -2.4953 0.0498 0 8
25.4603 43.0293 -2.4953 0.0498 0 8
24.7618 43.4350 -2.4953 0.0498 0 8
24.0568 43.8294 -2.4953 0.0498 0 8
23.3455 44.2124 -2.4953 0.0498 0 8
22.6282 44.5838 -2.4953 0.0498 0 8
21.9049 44.9436 -2.4953 0.0498 0 8
21.1759 45.2916 -2.4953 0.0498 0 8
20.4414 45.6278 -2.4953 0.0498 0 8
19.7016 45.9521 -2.4953 0.0498 0 8
18.9566 46.2644 -2.4953 0.0498 0 8
18.2066 46.5646 -2.4953 0.0498 0 8
17.4520 46.8527 -2.4953 0.0498 0 8
16.6927 47.1286 -2.4953 0.0498 0 8
15.9291 47.3921 -2.4953 0.0498 0 8
15.1614 47.6433 -2.4953 0.0498 0 8
14.3897 47.8820 -2.4953 0.0498 0 8
13.6142 48.1082 -2.4953 0.0498 0 8
12.8351 48.3219 -2.4953 0.0498 0 8
12.0528 48.5230 -2.4953 0.0498 0 8
11.2672 48.7114 -2.4953 0.0498 0 8
10.4787 48.8870 -2.4953 0.0498 0 8
9.6876 49.0500 -2.4953 0.0498 0 8
8.8938 49.2001 -2.4953 0.0498 0 8
8.0978 49.3373 -2.4953 0.0498 0 8
7.2996 49.4617 -2.4953 0.0498 0 8
6.4995 49.5732 -2.4953 0.0498 0 8
5.6978 49.6718 -2.4953 0.0498 0 8
4.8945 49.7573 -2.4953 0.0498 0 8
4.0899 49.8299 -2.4953 0.0498 0 8
3.2843 49.8895 -2.4953 0.0498 0 8
2.4779 49.9360 -2.4953 0.0498 0 8
1.6708 49.9696 -2.4953 0.0498 0 8
0.8632 49.9900 -2.4953 0.0498 0 8
0.0555 49.9974 -2.4953 0.0498 0 8
-0.7523 49.9918 -2.4953 0.0498 0 8
-1.5599 49.9731 -2.4953 0.0498 0 8
-2.3671 49.9414 -2.4953 0.0498 0 8
-3.1736 49.8966 -2.4953 0.0498 0 8
-3.9794 49.8389 -2.4953 0.0498 0 8
-4.7841 49.7681 -2.4953 0.0498 0 8
-5.5875 49.6843 -2.4953 0.0498 0 8
-6.3895 49.5875 -2.4953 0.0498 0 8
-7.1898 49.4778 -2.4953 0.0498 0 8
-7.9883 49.3552 -2.4953 0.0498 0 8
-8.7846 49.2197 -2.4953 0.0498 0 8
-9.5787 49.0713 -2.4953 0.0498 0 8
-10.3703 48.9102 -2.4953 0.0498 0 8
-11.1591 48.7362 -2.4953 0.0498 0 8
-11.9451 48.5496 -2.4953 0.0498 0 8
-12.7279 48.3503 -2.4953 0.0498 0 8
-13.5074 48.1383 -2.4953 0.0498 0 8
-14.2834 47.9138 -2.4953 0.0498 0 8
-15.0556 47.6768 -2.4953 0.0498 0 8
-15.8239 47.4273 -2.4953 0.0498 0 8
-16.5881 47.1655 -2.4953 0.0498 0 8
-17.3480 46.8913 -2.4953 0.0498 0 8
-18.1033 46.6049 -2.4953 0.0498 0 8
-18.8539 46.3064 -2.4953 0.0498 0 8
-19.5995 45.9957 -2.4953 0.0498 0 8
-20.3401 45.6731 -2.4953 0.0498 0 8
-21.0754 45.3385 -2.4953 0.0498 0 8
-21.8051 44.9921 -2.4953 0.0498 0 8
-22.5292 44.6339 -2.4953 0.0498 0 8
-23.2474 44.2641 -2.4953 0.0498 0 8
-23.9595 43.8827 -2.4953 0.0498 0 8
-24.6654 43.4899 -2.4953 0.0498 0 8
-25.3648 43.0857 -2.4953 0.0498 0 8
-26.0576 42.6702 -2.4953 0.0498 0 8
-26.7436 42.2437 -2.4953 0.0498 0 8
-27.4226 41.8061 -2.4953 0.0498 0 8
-28.0944 41.3576 -2.4953 0.0498 0 8
-28.7590 40.8982 -2.4953 0.0498 0 8
-29.4160 40.4283 -2.4953 0.0498 0 8
-30.0653 39.9478 -2.4953 0.0498 0 8
-30.7068 39.4568 -2.4953 0.0498 0 8
-31.3402 38.9556 -2.4953 0.0498 0 8
24.7209 34.9904 -2.4953 0.0581 0 8
24.1523 35.3853 -2.4953 0.0581 0 8
23.5775 35.7709 -2.4953 0.0581 0 8
22.9965 36.1471 -2.4953 0.0581 0 8
22.4095 36.5139 -2.4953 0.0581 0 8
21.8166 36.8712 -2.4953 0.0581 0 8
21.2181 37.2189 -2.4953 0.0581 0 8
20.6140 37.5569 -2.4953 0.0581 0 8
20.0045 37.8850 -2.4953 0.0581 0 8
19.3898 38.2033 -2.4953 0.0581 0 8
18.7700 38.5115 -2.4953 0.0581 0 8
18.1454 38.8098 -2.4953 0.0581 0 8
17.5160 39.0979 -2.4953 0.0581 0 8
16.8820 39.3758 -2.4953 0.0581 0 8
16.2436 39.6434 -2.4953 0.0581 0 8
15.6010 39.9006 -2.4953 0.0581 0 8
14.9544 40.1475 -2.4953 0.0581 0 8
14.3038 40.3838 -2.4953 0.0581 0 8
13.6494 40.6097 -2.4953 0.0581 0 8
12.9916 40.8249 -2.4953 0.0581 0 8
12.3303 41.0295 -2.4953 0.0581 0 8
11.6658 41.2233 -2.4953 0.0581 0 8
10.9983 41.4064 -2.4953 0.0581 0 8
10.3279 41.5787 -2.4953 0.0581 0 8
9.6548 41.7401 -2.4953 0.0581 0 8
8.9791 41.8907 -2.4953 0.0581 0 8
8.3012 42.0303 -2.4953 0.0581 0 8
7.6210 42.1589 -2.4953 0.0581 0 8
6.9389 42.2765 -2.4953 0.0581 0 8
6.2549 42.3831 -2.4953 0.0581 0 8
5.5693 42.4786 -2.4953 0.0581 0 8
4.8823 42.5631 -2.4953 0.0581 0 8
4.1940 42.6364 -2.4953 0.0581 0 8
3.5046 42.6986 -2.4953 0.0581 0 8
2.8143 42.7496 -2.4953 0.0581 0 8
2.1233 42.7895 -2.4953 0.0581 0 8
1.4317 42.8183 -2.4953 0.0581 0 8
0.7397 42.8358 -2.4953 0.0581 0 8
0.0475 42.8422 -2.4953 0.0581 0 8
-0.6446 42.8373 -2.4953 0.0581 0 8
-1.3366 42.8213 -2.4953 0.0581 0 8
-2.0283 42.7941 -2.4953 0.0581 0 8
-2.7194 42.7558 -2.4953 0.0581 0 8
-3.4099 42.7063 -2.4953 0.0581 0 8
-4.0994 42.6456 -2.4953 0.0581 0 8
-4.7879 42.5738 -2.4953 0.0581 0 8
-5.4751 42.4909 -2.4953 0.0581 0 8
-6.1609 42.3969 -2.4953 0.0581 0 8
-6.8450 42.2918 -2.4953 0.0581 0 8
-7.5274 42.1757 -2.4953 0.0581 0 8
-8.2079 42.0486 -2.4953 0.0581 0 8
-8.8861 41.9105 -2.4953 0.0581 0 8
-9.5621 41.7615 -2.4953 0.0581 0 8
-10.2356 41.6015 -2.4953 0.0581 0 8
-10.9064 41.4307 -2.4953 0.0581 0 8
-11.5743 41.2491 -2.4953 0.0581 0 8
-12.2392 41.0567 -2.4953 0.0581 0 8
-12.9009 40.8536 -2.4953 0.0581 0 8
-13.5593 40.6399 -2.4953 0.0581 0 8
-14.2141 40.4155 -2.4953 0.0581 0 8
-14.8652 40.1806 -2.4953 0.0581 0 8
-15.5125 39.9351 -2.4953 0.0581 0 8
-16.1556 39.6793 -2.4953 0.0581 0 8
-16.7946 39.4131 -2.4953 0.0581 0 8
-17.4292 39.1366 -2.4953 0.0581 0 8
-18.0592 38.8499 -2.4953 0.0581 0 8
-18.6845 38.5531 -2.4953 0.0581 0 8
-19.3050 38.2462 -2.4953 0.0581 0 8
-19.9204 37.9293 -2.4953 0.0581 0 8
-20.5306 37.6025 -2.4953 0.0581 0 8
-21.1354 37.2659 -2.4953 0.0581 0 8
-21.7347 36.9196 -2.4953 0.0581 0 8
-22.3284 36.5636 -2.4953 0.0581 0 8
-22.9162 36.1981 -2.4953 0.0581 0 8
-23.4981 35.8231 -2.4953 0.0581 0 8
-24.0737 35.4388 -2.4953 0.0581 0 8
-24.6432 35.0452 -2.4953 0.0581 0 8
-25.2062 34.6425 -2.4953 0.0581 0 8
-25.7626 34.2307 -2.4953 0.0581 0 8
-26.3122 33.8100 -2.4953 0.0581 0 8
-26.8550 33.3805 -2.4953 0.0581 0 8
22.9439 32.4753 -2.6477 0.0664 0 7
22.3753 32.7817 -2.6428 0.0804 0 8
21.7158 32.9463 -2.6275 0.8298 0 8
20.9620 32.9492 -2.6003 0.8384 0 8
20.2234 32.9520 -2.5744 0.8469 0 8
19.4991 32.9545 -2.5497 0.8551 0 8
18.7884 32.9569 -2.5261 0.8631 0 8
18.0904 32.9592 -2.5035 0.8709 0 8
17.4979 33.1379 -2.4953 0.0664 0 8
16.9602 33.4162 -2.4953 0.0664 0 8
16.4181 33.6859 -2.4953 0.0664 0 8
15.8717 33.9468 -2.4953 0.0664 0 8
15.3212 34.1988 -2.4953 0.0664 0 8
14.7666 34.4418 -2.4953 0.0664 0 8
14.2083 34.6759 -2.4953 0.0664 0 8
13.6462 34.9009 -2.4953 0.0664 0 8
13.0805 35.1169 -2.4953 0.0664 0 8
12.5115 35.3236 -2.4953 0.0664 0 8
11.9391 35.5211 -2.4953 0.0664 0 8
11.3637 35.7094 -2.4953 0.0664 0 8
10.7853 35.8883 -2.4953 0.0664 0 8
10.2040 36.0579 -2.4953 0.0664 0 8
9.6201 36.2180 -2.4953 0.0664 0 8
9.0337 36.3687 -2.4953 0.0664 0 8
8.4450 36.5099 -2.4953 0.0664 0 8
7.8540 36.6416 -2.4953 0.0664 0 8
7.2610 36.7637 -2.4953 0.0664 0 8
6.6661 36.8762 -2.4953 0.0664 0 8
6.0694 36.9791 -2.4953 0.0664 0 8
5.4712 37.0724 -2.4953 0.0664 0 8
4.8715 37.1559 -2.4953 0.0664 0 8
4.2706 37.2298 -2.4953 0.0664 0 8
3.6685 37.2939 -2.4953 0.0664 0 8
3.0655 37.3483 -2.4953 0.0664 0 8
2.4617 37.3930 -2.4953 0.0664 0 8
1.8572 37.4279 -2.4953 0.0664 0 8
1.2523 37.4530 -2.4953 0.0664 0 8
0.6470 37.4683 -2.4953 0.0664 0 8
0.0416 37.4739 -2.4953 0.0664 0 8
-0.5639 37.4697 -2.4953 0.0664 0 8
-1.1692 37.4557 -2.4953 0.0664 0 8
-1.7742 37.4319 -2.4953 0.0664 0 8
-2.3787 37.3983 -2.4953 0.0664 0 8
-2.9826 37.3550 -2.4953 0.0664 0 8
-3.5858 37.3020 -2.4953 0.0664 0 8
-4.1879 37.2392 -2.4953 0.0664 0 8
-4.7890 37.1666 -2.4953 0.0664 0 8
-5.3889 37.0844 -2.4953 0.0664 0 8
-5.9873 36.9925 -2.4953 0.0664 0 8
-6.5842 36.8909 -2.4953 0.0664 0 8
-7.1794 36.7797 -2.4953 0.0664 0 8
-7.7727 36.6590 -2.4953 0.0664 0 8
-8.3639 36.5286 -2.4953 0.0664 0 8
-8.9530 36.3887 -2.4953 0.0664 0 8
-9.5398 36.2393 -2.4953 0.0664 0 8
-10.1240 36.0804 -2.4953 0.0664 0 8
-10.7056 35.9122 -2.4953 0.0664 0 8
-11.2844 35.7345 -2.4953 0.0664 0 8
-11.8603 35.5475 -2.4953 0.0664 0 8
-12.4331 35.3513 -2.4953 0.0664 0 8
-13.0026 35.1458 -2.4953 0.0664 0 8
-13.5687 34.9311 -2.4953 0.0664 0 8
-14.1313 34.7074 -2.4953 0.0664 0 8
-14.6902 34.4745 -2.4953 0.0664 0 8
-15.2452 34.2327 -2.4953 0.0664 0 8
-15.7963 33.9819 -2.4953 0.0664 0 8
-16.3433 33.7223 -2.4953 0.0664 0 8
-16.8860 33.4538 -2.4953 0.0664 0 8
-17.4243 33.1766 -2.4953 0.0664 0 8
-17.9580 32.8908 -2.4953 0.0664 0 8
-18.6338 32.8550 -2.5151 0.8669 0 8
-19.3383 32.8488 -2.5382 0.8590 0 8
-20.0559 32.8423 -2.5624 0.8508 0 8
-20.7875 32.8356 -2.5877 0.8425 0 8
-21.5338 32.8286 -2.6143 0.8340 0 8
-22.2820 32.8011 -2.6404 0.0804 0 8
-22.8530 32.4993 -2.6455 0.0803 0 8
-23.3943 32.1524 -2.6477 0.0664 0 7
-23.9107 31.7702 -2.6477 0.0664 0 7
-24.4209 31.3797 -2.6477 0.0664 0 7
-24.9247 30.9811 -2.6477 0.0664 0 7
20.3866 28.8556 -2.6477 0.0747 0 7
19.9177 29.1812 -2.6477 0.0747 0 7
19.4437 29.4992 -2.6477 0.0747 0 7
18.9645 29.8095 -2.6477 0.0747 0 7
18.4805 30.1120 -2.6477 0.0747 0 7
17.9915 30.4067 -2.6477 0.0747 0 7
17.4979 30.6934 -2.6477 0.0747 0 7
16.9997 30.9721 -2.6477 0.0747 0 7
16.4971 31.2427 -2.6477 0.0747 0 7
15.9902 31.5051 -2.6477 0.0747 0 7
15.4791 31.7594 -2.6477 0.0747 0 7
14.9640 32.0053 -2.6477 0.0747 0 7
14.4449 32.2429 -2.6477 0.0747 0 7
13.9221 32.4721 -2.6477 0.0747 0 7
13.3800 32.6544 -2.6446 0.0903 0 8
12.8361 32.8292 -2.6416 0.0904 0 8
12.2619 32.9191 -2.6325 0.9315 0 8
11.6602 32.9203 -2.6172 0.9370 0 8
11.0653 32.9213 -2.6027 0.9422 0 8
10.4767 32.9222 -2.5891 0.9471 0 8
9.8941 32.9229 -2.5762 0.9519 0 8
9.3171 32.9236 -2.5642 0.9563 0 8
8.7452 32.9241 -2.5529 0.9606 0 8
8.1782 32.9245 -2.5423 0.9646 0 8
7.6157 32.9247 -2.5325 0.9683 0 8
7.0573 32.9248 -2.5234 0.9718 0 8
6.5028 32.9249 -2.5150 0.9750 0 8
5.9518 32.9247 -2.5074 0.9780 0 8
5.4042 32.9264 -2.5005 0.7483 0 8
4.8613 32.9403 -2.4953 0.0747 0 8
4.3285 33.0146 -2.4953 0.0747 0 8
3.7946 33.0802 -2.4953 0.0747 0 8
3.2596 33.1372 -2.4953 0.0747 0 8
2.7238 33.1855 -2.4953 0.0747 0 8
2.1873 33.2252 -2.4953 0.0747 0 8
1.6502 33.2562 -2.4953 0.0747 0 8
1.1127 33.2785 -2.4953 0.0747 0 8
0.5749 33.2921 -2.4953 0.0747 0 8
0.0369 33.2971 -2.4953 0.0747 0 8
-0.5010 33.2933 -2.4953 0.0747 0 8
-1.0389 33.2809 -2.4953 0.0747 0 8
-1.5764 33.2598 -2.4953 0.0747 0 8
-2.1136 33.2299 -2.4953 0.0747 0 8
-2.6502 33.1915 -2.4953 0.0747 0 8
-3.1861 33.1443 -2.4953 0.0747 0 8
-3.7211 33.0885 -2.4953 0.0747 0 8
-4.2553 33.0241 -2.4953 0.0747 0 8
-4.7881 32.9510 -2.4953 0.0747 0 8
-5.3249 32.8996 -2.4976 0.7493 0 8
-5.8706 32.8925 -2.5039 0.9794 0 8
-6.4201 32.8896 -2.5113 0.9765 0 8
-6.9728 32.8866 -2.5193 0.9734 0 8
-7.5293 32.8835 -2.5280 0.9700 0 8
-8.0898 32.8801 -2.5375 0.9664 0 8
-8.6546 32.8767 -2.5477 0.9625 0 8
-9.2240 32.8731 -2.5586 0.9584 0 8
-9.7985 32.8693 -2.5703 0.9540 0 8
-10.3784 32.8654 -2.5828 0.9494 0 8
-10.9640 32.8613 -2.5961 0.9446 0 8
-11.5558 32.8571 -2.6101 0.9395 0 8
-12.1542 32.8526 -2.6250 0.9342 0 8
-12.7565 32.8403 -2.6402 0.0905 0 8
-13.3002 32.6661 -2.6431 0.0904 0 8
-13.8422 32.4844 -2.6462 0.0903 0 8
-14.3733 32.2749 -2.6477 0.0747 0 7
-14.8929 32.0384 -2.6477 0.0747 0 7
-15.4086 31.7936 -2.6477 0.0747 0 7
-15.9203 31.5405 -2.6477 0.0747 0 7
-16.4278 31.2792 -2.6477 0.0747 0 7
-16.9310 31.0097 -2.6477 0.0747 0 7
-17.4298 30.7321 -2.6477 0.0747 0 7
-17.9240 30.4465 -2.6477 0.0747 0 7
-18.4136 30.1529 -2.6477 0.0747 0 7
-18.8984 29.8515 -2.6477 0.0747 0 6
-19.3782 29.5423 -2.6477 0.0747 0 7
-19.8529 29.2254 -2.6477 0.0747 0 7
-20.3225 28.9008 -2.6477 0.0747 0 7
-20.7868 28.5687 -2.6477 0.0747 0 7
-21.2457 28.2291 -2.6477 0.0747 0 7
-21.6990 27.8822 -2.6477 0.0747 0 7
-22.1466 27.5280 -2.6477 0.0747 0 7
18.3399 25.9587 -2.6477 0.0830 0 7
17.9181 26.2516 -2.6477 0.0830 0 7
17.4916 26.5376 -2.6477 0.0830 0 7
17.0606 26.8168 -2.6477 0.0830 0 7
16.6251 27.0889 -2.6477 0.0830 0 7
16.1853 27.3540 -2.6477 0.0830 0 7
15.7412 27.6119 -2.6477 0.0830 0 7
15.2931 27.8626 -2.6477 0.0830 0 7
14.8409 28.1061 -2.6477 0.0830 0 7
14.3849 28.3422 -2.6477 0.0830 0 7
13.9251 28.5709 -2.6477 0.0830 0 7
13.4617 28.7921 -2.6477 0.0830 0 7
12.9947 29.0059 -2.6477 0.0830 0 7
12.5244 29.2120 -2.6477 0.0830 0 7
12.0508 29.4106 -2.6477 0.0830 0 7
11.5741 29.6014 -2.6477 0.0830 0 7
11.0943 29.7845 -2.6477 0.0830 0 7
10.6117 29.9599 -2.6477 0.0830 0 6
10.1262 30.1274 -2.6477 0.0830 0 7
9.6382 30.2871 -2.6477 0.0830 0 7
9.1476 30.4389 -2.6477 0.0830 0 7
8.6546 30.5827 -2.6477 0.0830 0 7
8.1594 30.7185 -2.6477 0.0830 0 7
7.6620 30.8463 -2.6477 0.0830 0 7
7.1627 30.9661 -2.6477 0.0830 0 7
6.6614 31.0778 -2.6477 0.0830 0 7
6.1584 31.1813 -2.6477 0.0830 0 7
5.6539 31.2768 -2.6477 0.0830 0 7
5.1478 31.3640 -2.6477 0.0830 0 7
4.6404 31.4431 -2.6477 0.0830 0 7
4.1318 31.5140 -2.6477 0.0830 0 7
3.6221 31.5766 -2.6477 0.0830 0 7
3.1115 31.6310 -2.6477 0.0830 0 7
2.6000 31.6772 -2.6477 0.0830 0 7
2.0879 31.7150 -2.6477 0.0830 0 7
1.5752 31.7446 -2.6477 0.0830 0 7
1.0621 31.7659 -2.6477 0.0830 0 7
0.5488 31.7789 -2.6477 0.0830 0 7
0.0353 31.7837 -2.6477 0.0830 0 7
-0.4782 31.7801 -2.6477 0.0830 0 7
-0.9916 31.7682 -2.6477 0.0830 0 7
-1.5048 31.7481 -2.6477 0.0830 0 7
-2.0175 31.7196 -2.6477 0.0830 0 7
-2.5297 31.6829 -2.6477 0.0830 0 7
-3.0413 31.6378 -2.6477 0.0830 0 7
-3.5520 31.5846 -2.6477 0.0830 0 7
-4.0618 31.5231 -2.6477 0.0830 0 7
-4.5706 31.4533 -2.6477 0.0830 0 7
-5.0782 31.3754 -2.6477 0.0830 0 7
-5.5844 31.2892 -2.6477 0.0830 0 7
-6.0892 31.1949 -2.6477 0.0830 0 7
-6.5924 31.0925 -2.6477 0.0830 0 7
-7.0939 30.9819 -2.6477 0.0830 0 7
-7.5936 30.8633 -2.6477 0.0830 0 7
-8.0912 30.7365 -2.6477 0.0830 0 7
-8.5867 30.6018 -2.6477 0.0830 0 7
-9.0800 30.4591 -2.6477 0.0830 0 7
-9.5709 30.3084 -2.6477 0.0830 0 7
-10.0594 30.1498 -2.6477 0.0830 0 7
-10.5452 29.9834 -2.6477 0.0830 0 7
-11.0282 29.8091 -2.6477 0.0830 0 7
-11.5084 29.6270 -2.6477 0.0830 0 7
-11.9855 29.4372 -2.6477 0.0830 0 7
-12.4595 29.2397 -2.6477 0.0830 0 7
-12.9303 29.0346 -2.6477 0.0830 0 7
-13.3977 28.8219 -2.6477 0.0830 0 7
-13.8616 28.6017 -2.6477 0.0830 0 7
-14.3219 28.3740 -2.6477 0.0830 0 7
-14.7785 28.1389 -2.6477 0.0830 0 7
-15.2312 27.8965 -2.6477 0.0830 0 7
-15.6799 27.6468 -2.6477 0.0830 0 7
-16.1245 27.3898 -2.6477 0.0830 0 7
-16.5650 27.1257 -2.6477 0.0830 0 7
-17.0011 26.8546 -2.6477 0.0830 0 7
-17.4327 26.5764 -2.6477 0.0830 0 7
-17.8598 26.2913 -2.6477 0.0830 0 7
-18.2822 25.9993 -2.6477 0.0830 0 7
-18.6999 25.7005 -2.6477 0.0830 0 7
-19.1127 25.3950 -2.6477 0.0830 0 7
-19.5205 25.0829 -2.6477 0.0830 0 7
-19.9232 24.7643 -2.6477 0.0830 0 7
15.7597 22.3066 -2.5039 0.6385 0 8
16.2813 23.8535 -2.6477 0.0913 0 7
15.8938 24.1134 -2.6477 0.0913 0 7
15.5021 24.3671 -2.6477 0.0913 0 7
15.1064 24.6143 -2.6477 0.0913 0 7
14.7067 24.8552 -2.6477 0.0913 0 7
14.3033 25.0896 -2.6477 0.0913 0 7
13.8960 25.3174 -2.6477 0.0913 0 7
13.4852 25.5386 -2.6477 0.0913 0 7
13.0708 25.7531 -2.6477 0.0913 0 7
12.6530 25.9609 -2.6477 0.0913 0 7
12.2319 26.1620 -2.6477 0.0913 0 7
11.8077 26.3562 -2.6477 0.0913 0 7
11.3803 26.5435 -2.6477 0.0913 0 7
10.9500 26.7239 -2.6477 0.0913 0 7
10.5168 26.8973 -2.6477 0.0913 0 7
10.0808 27.0637 -2.6477 0.0913 0 7
9.6423 27.2231 -2.6477 0.0913 0 7
9.2012 27.3753 -2.6477 0.0913 0 7
8.7577 27.5204 -2.6477 0.0913 0 7
8.3120 27.6583 -2.6477 0.0913 0 7
7.8640 27.7890 -2.6477 0.0913 0 7
7.4140 27.9124 -2.6477 0.0913 0 7
6.9621 28.0285 -2.6477 0.0913 0 7
6.5083 28.1374 -2.6477 0.0913 0 7
6.0529 28.2388 -2.6477 0.0913 0 7
5.5959 28.3329 -2.6477 0.0913 0 7
5.1374 28.4197 -2.6477 0.0913 0 7
4.6775 28.4989 -2.6477 0.0913 0 7
4.2165 28.5708 -2.6477 0.0913 0 7
3.7543 28.6352 -2.6477 0.0913 0 7
3.2912 28.6921 -2.6477 0.0913 0 7
2.8272 28.7415 -2.6477 0.0913 0 7
2.3625 28.7835 -2.6477 0.0913 0 7
1.8971 28.8179 -2.6477 0.0913 0 7
1.4313 28.8448 -2.6477 0.0913 0 7
0.9651 28.8641 -2.6477 0.0913 0 7
0.4986 28.8760 -2.6477 0.0913 0 7
0.0320 28.8802 -2.6477 0.0913 0 7
-0.4346 28.8770 -2.6477 0.0913 0 7
-0.9010 28.8662 -2.6477 0.0913 0 7
-1.3673 28.8479 -2.6477 0.0913 0 7
-1.8332 28.8220 -2.6477 0.0913 0 7
-2.2986 28.7886 -2.6477 0.0913 0 7
-2.7635 28.7477 -2.6477 0.0913 0 7
-3.2275 28.6993 -2.6477 0.0913 0 7
-3.6908 28.6435 -2.6477 0.0913 0 7
-4.1531 28.5801 -2.6477 0.0913 0 7
-4.6143 28.5093 -2.6477 0.0913 0 7
-5.0743 28.4310 -2.6477 0.0913 0 7
-5.5330 28.3453 -2.6477 0.0913 0 7
-5.9902 28.2522 -2.6477 0.0913 0 7
-6.4459 28.1517 -2.6477 0.0913 0 7
-6.8999 28.0439 -2.6477 0.0913 0 7
-7.3521 27.9288 -2.6477 0.0913 0 7
-7.8023 27.8063 -2.6477 0.0913 0 7
-8.2506 27.6767 -2.6477 0.0913 0 7
-8.6966 27.5398 -2.6477 0.0913 0 7
-9.1404 27.3957 -2.6477 0.0913 0 7
-9.5819 27.2444 -2.6477 0.0913 0 7
-10.0208 27.0860 -2.6477 0.0913 0 7
-10.4571 26.9206 -2.6477 0.0913 0 7
-10.8907 26.7481 -2.6477 0.0913 0 7
-11.3214 26.5687 -2.6477 0.0913 0 7
-11.7491 26.3823 -2.6477 0.0913 0 7
-12.1739 26.1891 -2.6477 0.0913 0 7
-12.5954 25.9890 -2.6477 0.0913 0 7
-13.0136 25.7821 -2.6477 0.0913 0 7
-13.4285 25.5684 -2.6477 0.0913 0 7
-13.8398 25.3482 -2.6477 0.0913 0 7
-14.2476 25.1212 -2.6477 0.0913 0 7
-14.6516 24.8878 -2.6477 0.0913 0 7
-15.0518 24.6478 -2.6477 0.0913 0 7
-15.4480 24.4014 -2.6477 0.0913 0 7
-15.8402 24.1486 -2.6477 0.0913 0 7
-16.2283 23.8896 -2.6477 0.0913 0 7
-15.7038 22.3324 -2.5029 0.0913 0 8
-16.0625 22.0758 -2.5029 0.0913 0 14
-16.4171 21.8134 -2.5029 0.0913 0 14
-16.7674 21.5453 -2.5029 0.0913 0 14
-17.1133 21.2716 -2.5029 0.0913 0 14
14.4328 20.4286 -2.5029 0.0996 0 14
14.1009 20.6591 -2.5029 0.0996 0 14
13.7653 20.8842 -2.5029 0.0996 0 14
13.4261 21.1039 -2.5029 0.0996 0 14
13.0834 21.3180 -2.5029 0.0996 0 14
12.7372 21.5266 -2.5029 0.0996 0 14
12.3878 21.7296 -2.5029 0.0996 0 14
12.0351 21.9269 -2.5029 0.0996 0 14
11.6793 22.1185 -2.5029 0.0996 0 14
11.3204 22.3043 -2.5029 0.0996 0 8
11.5925 23.7849 -2.6477 0.0996 0 7
11.2067 23.9691 -2.6477 0.0996 0 7
10.8179 24.1470 -2.6477 0.0996 0 7
10.4264 24.3186 -2.6477 0.0996 0 7
10.0321 24.4839 -2.6477 0.0996 0 7
9.6353 24.6428 -2.6477 0.0996 0 7
9.2359 24.7953 -2.6477 0.0996 0 7
8.8341 24.9412 -2.6477 0.0996 0 7
8.4300 25.0807 -2.6477 0.0996 0 7
8.0237 25.2136 -2.6477 0.0996 0 7
7.6152 25.3400 -2.6477 0.0996 0 7
7.2048 25.4597 -2.6477 0.0996 0 7
6.7926 25.5728 -2.6477 0.0996 0 7
6.3785 25.6792 -2.6477 0.0996 0 7
5.9628 25.7789 -2.6477 0.0996 0 7
5.5455 25.8719 -2.6477 0.0996 0 7
5.1268 25.9581 -2.6477 0.0996 0 7
4.7068 26.0375 -2.6477 0.0996 0 7
4.2855 26.1102 -2.6477 0.0996 0 7
3.8631 26.1760 -2.6477 0.0996 0 7
3.4396 26.2350 -2.6477 0.0996 0 7
3.0153 26.2871 -2.6477 0.0996 0 7
2.5902 26.3324 -2.6477 0.0996 0 7
2.1645 26.3708 -2.6477 0.0996 0 7
1.7381 26.4024 -2.6477 0.0996 0 7
1.3113 26.4270 -2.6477 0.0996 0 7
0.8842 26.4447 -2.6477 0.0996 0 7
0.4568 26.4555 -2.6477 0.0996 0 7
0.0294 26.4595 -2.6477 0.0996 0 6
-0.3981 26.4565 -2.6477 0.0996 0 6
-0.8255 26.4466 -2.6477 0.0996 0 6
-1.2527 26.4298 -2.6477 0.0996 0 6
-1.6795 26.4062 -2.6477 0.0996 0 6
-2.1060 26.3756 -2.6477 0.0996 0 7
-2.5318 26.3381 -2.6477 0.0996 0 7
-2.9570 26.2938 -2.6477 0.0996 0 7
-3.3814 26.2426 -2.6477 0.0996 0 7
-3.8050 26.1845 -2.6477 0.0996 0 7
-4.2275 26.1196 -2.6477 0.0996 0 7
-4.6490 26.0479 -2.6477 0.0996 0 7
-5.0692 25.9694 -2.6477 0.0996 0 7
-5.4881 25.8841 -2.6477 0.0996 0 7
-5.9056 25.7920 -2.6477 0.0996 0 7
-6.3215 25.6933 -2.6477 0.0996 0 7
-6.7358 25.5878 -2.6477 0.0996 0 7
-7.1483 25.4756 -2.6477 0.0996 0 7
-7.5590 25.3568 -2.6477 0.0996 0 7
-7.9677 25.2314 -2.6477 0.0996 0 7
-8.3743 25.0993 -2.6477 0.0996 0 7
-8.7787 24.9608 -2.6477 0.0996 0 7
-9.1808 24.8157 -2.6477 0.0996 0 7
-9.5806 24.6641 -2.6477 0.0996 0 7
-9.9778 24.5061 -2.6477 0.0996 0 7
-10.3724 24.3417 -2.6477 0.0996 0 7
-10.7643 24.1710 -2.6477 0.0996 0 7
-11.1535 23.9939 -2.6477 0.0996 0 7
-11.5397 23.8106 -2.6477 0.0996 0 7
-11.2709 22.3294 -2.5029 0.0996 0 8
-11.6302 22.1444 -2.5029 0.0996 0 14
-11.9864 21.9536 -2.5029 0.0996 0 14
-12.3395 21.7570 -2.5029 0.0996 0 14
-12.6895 21.5548 -2.5029 0.0996 0 14
-13.0360 21.3470 -2.5029 0.0996 0 14
-13.3792 21.1336 -2.5029 0.0996 0 14
-13.7189 20.9147 -2.5029 0.0996 0 14
-14.0550 20.6903 -2.5029 0.0996 0 14
-14.3875 20.4605 -2.5029 0.0996 0 14
-14.7162 20.2254 -2.5029 0.0996 0 14
-15.0410 19.9850 -2.5029 0.0996 0 14
-15.3619 19.7394 -2.5029 0.0996 0 14
-15.6788 19.4886 -2.5029 0.0996 0 14
13.4196 18.9945 -2.5226 0.8165 0 8
13.0087 19.0589 -2.5029 0.1078 0 8
12.6991 19.2665 -2.5029 0.1078 0 14
12.3861 19.4692 -2.5029 0.1078 0 14
12.0700 19.6668 -2.5029 0.1078 0 14
11.7506 19.8592 -2.5029 0.1078 0 14
11.4282 20.0465 -2.5029 0.1078 0 14
11.1029 20.2285 -2.5029 0.1078 0 14
10.7746 20.4052 -2.5029 0.1078 0 14
10.4435 20.5766 -2.5029 0.1078 0 14
10.1097 20.7427 -2.5029 0.1078 0 14
9.7733 20.9033 -2.5029 0.1078 0 14
9.4343 21.0585 -2.5029 0.1078 0 14
9.0928 21.2082 -2.5029 0.1078 0 14
8.7490 21.3523 -2.5029 0.1078 0 14
8.4029 21.4909 -2.5029 0.1078 0 14
8.0546 21.6238 -2.5029 0.1078 0 14
7.7042 21.7511 -2.5029 0.1078 0 14
7.3517 21.8728 -2.5029 0.1078 0 14
6.9974 21.9887 -2.5029 0.1078 0 14
6.6412 22.0989 -2.5029 0.1078 0 14
6.2833 22.2033 -2.5029 0.1078 0 14
5.9238 22.3019 -2.5029 0.1078 0 8
5.5627 22.3947 -2.5029 0.1078 0 8
5.5009 23.7821 -2.6477 0.1078 0 7
5.1160 23.8679 -2.6477 0.1078 0 7
4.7297 23.9474 -2.6477 0.1078 0 7
4.3422 24.0207 -2.6477 0.1078 0 7
3.9535 24.0877 -2.6477 0.1078 0 7
3.5638 24.1484 -2.6477 0.1078 0 7
3.1732 24.2029 -2.6477 0.1078 0 7
2.7818 24.2510 -2.6477 0.1078 0 7
2.3896 24.2927 -2.6477 0.1078 0 7
1.9968 24.3282 -2.6477 0.1078 0 7
1.6035 24.3573 -2.6477 0.1078 0 7
1.2098 24.3800 -2.6477 0.1078 0 7
0.8157 24.3964 -2.6477 0.1078 0 7
0.4215 24.4064 -2.6477 0.1078 0 7
0.0271 24.4100 -2.6477 0.1078 0 7
-0.3673 24.4072 -2.6477 0.1078 0 7
-0.7616 24.3981 -2.6477 0.1078 0 7
-1.1557 24.3826 -2.6477 0.1078 0 7
-1.5494 24.3608 -2.6477 0.1078 0 7
-1.9428 24.3326 -2.6477 0.1078 0 7
-2.3357 24.2980 -2.6477 0.1078 0 7
-2.7280 24.2571 -2.6477 0.1078 0 7
-3.1195 24.2098 -2.6477 0.1078 0 7
-3.5102 24.1563 -2.6477 0.1078 0 7
-3.9001 24.0964 -2.6477 0.1078 0 7
-4.2889 24.0303 -2.6477 0.1078 0 7
-4.6766 23.9578 -2.6477 0.1078 0 7
-5.0630 23.8792 -2.6477 0.1078 0 7
-5.4482 23.7942 -2.6477 0.1078 0 7
-5.8319 23.7031 -2.6477 0.1078 0 7
-5.8743 22.3150 -2.5029 0.1078 0 8
-6.2340 22.2172 -2.5029 0.1078 0 14
-6.5922 22.1135 -2.5029 0.1078 0 14
-6.9486 22.0041 -2.5029 0.1078 0 14
-7.3032 21.8890 -2.5029 0.1078 0 14
-7.6559 21.7682 -2.5029 0.1078 0 14
-8.0066 21.6416 -2.5029 0.1078 0 14
-8.3552 21.5094 -2.5029 0.1078 0 14
-8.7016 21.3717 -2.5029 0.1078 0 14
-9.0457 21.2283 -2.5029 0.1078 0 14
-9.3875 21.0794 -2.5029 0.1078 0 14
-9.7269 20.9249 -2.5029 0.1078 0 14
-10.0637 20.7651 -2.5029 0.1078 0 14
-10.3978 20.5998 -2.5029 0.1078 0 14
-10.7293 20.4291 -2.5029 0.1078 0 14
-11.0580 20.2531 -2.5029 0.1078 0 14
-11.3837 20.0718 -2.5029 0.1078 0 14
-11.7065 19.8852 -2.5029 0.1078 0 14
-12.0263 19.6935 -2.5029 0.1078 0 14
-12.3429 19.4966 -2.5029 0.1078 0 14
-12.6563 19.2947 -2.5029 0.1078 0 14
-12.9664 19.0877 -2.5029 0.1078 0 14
-13.3068 18.9237 -2.5093 0.6524 0 8
-13.7636 18.9162 -2.5374 0.8117 0 8
-14.2315 18.9094 -2.5670 0.8023 0 8
-14.7105 18.9023 -2.5980 0.7928 0 8
-15.2012 18.8950 -2.6304 0.7830 0 8
13.0708 18.5008 -2.6477 0.1161 0 6
12.7702 18.7095 -2.6477 0.1161 0 7
12.4663 18.9134 -2.6477 0.1161 0 7
12.0693 18.9712 -2.6281 0.8437 0 8
11.6453 18.9748 -2.6022 0.8521 0 8
11.2293 18.9782 -2.5775 0.8603 0 8
10.8211 18.9814 -2.5538 0.8682 0 8
10.4201 18.9845 -2.5312 0.8760 0 8
10.0263 18.9880 -2.5098 0.7022 0 8
9.6915 19.0949 -2.5029 0.1161 0 8
9.3817 19.2490 -2.5029 0.1161 0 14
9.0695 19.3981 -2.5029 0.1161 0 14
8.7549 19.5421 -2.5029 0.1161 0 14
8.4380 19.6810 -2.5029 0.1161 0 14
8.1190 19.8147 -2.5029 0.1161 0 14
7.7978 19.9433 -2.5029 0.1161 0 14
7.4746 20.0667 -2.5029 0.1161 0 14
7.1494 20.1849 -2.5029 0.1161 0 14
6.8223 20.2977 -2.5029 0.1161 0 14
6.4935 20.4053 -2.5029 0.1161 0 14
6.1630 20.5075 -2.5029 0.1161 0 14
5.8309 20.6044 -2.5029 0.1161 0 14
5.4972 20.6960 -2.5029 0.1161 0 14
5.1621 20.7821 -2.5029 0.1161 0 14
4.8257 20.8628 -2.5029 0.1161 0 14
4.4880 20.9380 -2.5029 0.1161 0 14
4.1491 21.0078 -2.5029 0.1161 0 14
3.8092 21.0721 -2.5029 0.1161 0 14
3.4682 21.1309 -2.5029 0.1161 0 14
3.1264 21.1841 -2.5029 0.1161 0 14
2.7837 21.2319 -2.5029 0.1161 0 14
2.4403 21.2741 -2.5029 0.1161 0 14
2.0963 21.3107 -2.5029 0.1161 0 14
1.7517 21.3418 -2.5029 0.1161 0 14
1.4067 21.3673 -2.5029 0.1161 0 14
1.0613 21.3873 -2.5029 0.1161 0 14
0.7156 21.4016 -2.5029 0.1161 0 14
0.3697 21.4104 -2.5029 0.1161 0 14
0.0238 21.4136 -2.5029 0.1161 0 14
-0.3222 21.4112 -2.5029 0.1161 0 14
-0.6681 21.4032 -2.5029 0.1161 0 14
-1.0138 21.3896 -2.5029 0.1161 0 14
-1.3593 21.3704 -2.5029 0.1161 0 14
-1.7043 21.3457 -2.5029 0.1161 0 14
-2.0490 21.3153 -2.5029 0.1161 0 14
-2.3931 21.2794 -2.5029 0.1161 0 14
-2.7366 21.2380 -2.5029 0.1161 0 14
-3.0794 21.1910 -2.5029 0.1161 0 14
-3.4213 21.1385 -2.5029 0.1161 0 14
-3.7624 21.0805 -2.5029 0.1161 0 14
-4.1025 21.0169 -2.5029 0.1161 0 14
-4.4415 20.9479 -2.5029 0.1161 0 14
-4.7794 20.8734 -2.5029 0.1161 0 14
-5.1160 20.7935 -2.5029 0.1161 0 14
-5.4513 20.7081 -2.5029 0.1161 0 14
-5.7851 20.6173 -2.5029 0.1161 0 14
-6.1175 20.5212 -2.5029 0.1161 0 14
-6.4482 20.4197 -2.5029 0.1161 0 14
-6.7773 20.3128 -2.5029 0.1161 0 14
-7.1046 20.2007 -2.5029 0.1161 0 14
-7.4300 20.0832 -2.5029 0.1161 0 14
-7.7535 19.9606 -2.5029 0.1161 0 14
-8.0750 19.8327 -2.5029 0.1161 0 14
-8.3944 19.6997 -2.5029 0.1161 0 14
-8.7115 19.5615 -2.5029 0.1161 0 14
-9.0264 19.4182 -2.5029 0.1161 0 14
-9.3390 19.2698 -2.5029 0.1161 0 14
-9.6491 19.1164 -2.5029 0.1161 0 14
-9.9567 18.9580 -2.5029 0.1161 0 8
-10.3349 18.9288 -2.5208 0.8796 0 8
-10.7325 18.9236 -2.5428 0.8720 0 8
-11.1372 18.9182 -2.5659 0.8641 0 8
-11.5494 18.9126 -2.5902 0.8561 0 8
-11.9694 18.9067 -2.6155 0.8478 0 8
-12.3978 18.9006 -2.6420 0.8392 0 8
-12.7287 18.7378 -2.6477 0.1161 0 7
-13.0298 18.5297 -2.6477 0.1161 0 7
-13.3274 18.3168 -2.6477 0.1161 0 7
-13.6216 18.0991 -2.6477 0.1161 0 7
-13.9123 17.8766 -2.6477 0.1161 0 7
-14.1993 17.6495 -2.6477 0.1161 0 7
12.1913 17.2558 -2.6477 0.1243 0 7
11.9109 17.4505 -2.6477 0.1243 0 7
11.6274 17.6406 -2.6477 0.1243 0 7
11.3409 17.8262 -2.6477 0.1243 0 7
11.0514 18.0071 -2.6477 0.1243 0 7
10.7590 18.1833 -2.6477 0.1243 0 7
10.4638 18.3548 -2.6477 0.1243 0 7
10.1659 18.5214 -2.6477 0.1243 0 6
9.8653 18.6832 -2.6477 0.1243 0 7
9.5622 18.8402 -2.6477 0.1243 0 7
9.2411 18.9605 -2.6432 0.8985 0 8
8.8662 18.9631 -2.6233 0.9053 0 8
8.4967 18.9656 -2.6043 0.9119 0 8
8.1324 18.9680 -2.5863 0.9183 0 8
7.7729 18.9701 -2.5691 0.9244 0 8
7.4181 18.9722 -2.5528 0.9303 0 8
7.0676 18.9741 -2.5374 0.9360 0 8
6.7211 18.9758 -2.5227 0.9414 0 8
6.3790 18.9786 -2.5091 0.7524 0 8
6.0565 19.0322 -2.5029 0.1243 0 8
5.7504 19.1345 -2.5038 0.7593 0 8
5.4385 19.2179 -2.5029 0.1243 0 14
5.1273 19.3033 -2.5029 0.1243 0 14
4.8147 19.3836 -2.5029 0.1243 0 14
4.5009 19.4588 -2.5029 0.1243 0 14
4.1860 19.5290 -2.5029 0.1243 0 14
3.8699 19.5941 -2.5029 0.1243 0 14
3.5528 19.6541 -2.5029 0.1243 0 14
3.2348 19.7089 -2.5029 0.1243 0 14
2.9160 19.7586 -2.5029 0.1243 0 14
2.5964 19.8031 -2.5029 0.1243 0 14
2.2761 19.8425 -2.5029 0.1243 0 14
1.9552 19.8767 -2.5029 0.1243 0 14
1.6338 19.9057 -2.5029 0.1243 0 14
1.3120 19.9295 -2.5029 0.1243 0 14
0.9899 19.9481 -2.5029 0.1243 0 14
0.6674 19.9614 -2.5029 0.1243 0 14
0.3448 19.9696 -2.5029 0.1243 0 14
0.0222 19.9726 -2.5029 0.1243 0 14
-0.3005 19.9703 -2.5029 0.1243 0 14
-0.6231 19.9629 -2.5029 0.1243 0 14
-0.9456 19.9502 -2.5029 0.1243 0 14
-1.2678 19.9323 -2.5029 0.1243 0 14
-1.5897 19.9092 -2.5029 0.1243 0 14
-1.9111 19.8810 -2.5029 0.1243 0 14
-2.2321 19.8475 -2.5029 0.1243 0 14
-2.5524 19.8088 -2.5029 0.1243 0 14
-2.8721 19.7650 -2.5029 0.1243 0 14
-3.1911 19.7160 -2.5029 0.1243 0 14
-3.5092 19.6619 -2.5029 0.1243 0 14
-3.8264 19.6026 -2.5029 0.1243 0 14
-4.1426 19.5383 -2.5029 0.1243 0 14
-4.4578 19.4688 -2.5029 0.1243 0 14
-4.7717 19.3942 -2.5029 0.1243 0 14
-5.0844 19.3146 -2.5029 0.1243 0 14
-5.3958 19.2299 -2.5029 0.1243 0 14
-5.7058 19.1402 -2.5029 0.1243 0 14
-6.0143 19.0456 -2.5029 0.1243 0 8
-6.3223 18.9490 -2.5033 0.7541 0 8
-6.6612 18.9399 -2.5160 0.9439 0 8
-7.0057 18.9363 -2.5302 0.9386 0 8
-7.3542 18.9325 -2.5453 0.9331 0 8
-7.7069 18.9286 -2.5611 0.9273 0 8
-8.0641 18.9245 -2.5779 0.9213 0 8
-8.4260 18.9202 -2.5955 0.9150 0 8
-8.7929 18.9158 -2.6140 0.9085 0 8
-9.1652 18.9112 -2.6335 0.9018 0 8
-9.5204 18.8614 -2.6477 0.1243 0 7
-9.8239 18.7051 -2.6477 0.1243 0 7
-10.1248 18.5439 -2.6477 0.1243 0 7
-10.4231 18.3779 -2.6477 0.1243 0 6
-10.7186 18.2071 -2.6477 0.1243 0 7
-11.0114 18.0316 -2.6477 0.1243 0 7
-11.3013 17.8513 -2.6477 0.1243 0 7
-11.5882 17.6664 -2.6477 0.1243 0 7
-11.8721 17.4769 -2.6477 0.1243 0 7
-12.1530 17.2828 -2.6477 0.1243 0 7
-12.4306 17.0842 -2.6477 0.1243 0 7
-12.7050 16.8811 -2.6477 0.1243 0 7
-12.9761 16.6737 -2.6477 0.1243 0 7
-13.2437 16.4618 -2.6477 0.1243 0 7
11.4211 16.1657 -2.6477 0.1326 0 7
11.1584 16.3481 -2.6477 0.1326 0 7
10.8929 16.5262 -2.6477 0.1326 0 7
10.6244 16.7001 -2.6477 0.1326 0 7
10.3532 16.8695 -2.6477 0.1326 0 7
10.0793 17.0346 -2.6477 0.1326 0 7
9.8028 17.1952 -2.6477 0.1326 0 7
9.5237 17.3513 -2.6477 0.1326 0 7
9.2421 17.5030 -2.6477 0.1326 0 7
8.9581 17.6500 -2.6477 0.1326 0 7
8.6718 17.7924 -2.6477 0.1326 0 7
8.3832 17.9302 -2.6477 0.1326 0 7
8.0924 18.0633 -2.6477 0.1326 0 7
7.7995 18.1917 -2.6477 0.1326 0 7
7.5046 18.3153 -2.6477 0.1326 0 7
7.2077 18.4342 -2.6477 0.1326 0 6
6.9089 18.5482 -2.6477 0.1326 0 7
6.6084 18.6574 -2.6477 0.1326 0 7
6.3061 18.7617 -2.6477 0.1326 0 7
6.0021 18.8612 -2.6477 0.1326 0 7
5.6949 18.9500 -2.6469 0.9567 0 8
5.3630 18.9513 -2.6346 0.9612 0 8
5.0341 18.9525 -2.6231 0.9654 0 8
4.7079 18.9536 -2.6124 0.9693 0 8
4.3843 18.9546 -2.6024 0.9731 0 8
4.0630 18.9554 -2.5932 0.9765 0 8
3.7439 18.9561 -2.5847 0.9797 0 8
3.4268 18.9566 -2.5769 0.9827 0 8
3.1114 18.9571 -2.5698 0.9854 0 8
2.7977 18.9574 -2.5633 0.9879 0 8
2.4855 18.9576 -2.5576 0.9901 0 8
2.1746 18.9577 -2.5525 0.9921 0 8
1.8648 18.9576 -2.5481 0.9938 0 8
1.5560 18.9574 -2.5444 0.9953 0 8
1.2480 18.9572 -2.5413 0.9965 0 8
0.9407 18.9568 -2.5389 0.9974 0 8
0.6338 18.9562 -2.5371 0.9981 0 8
0.3273 18.9556 -2.5360 0.9985 0 8
0.0210 18.9548 -2.5355 0.9987 0 8
-0.2853 18.9560 -2.5360 0.9987 0 8
-0.5917 18.9542 -2.5367 0.9984 0 8
-0.8983 18.9524 -2.5380 0.9979 0 8
-1.2053 18.9506 -2.5401 0.9969 0 8
-1.5130 18.9492 -2.5428 0.9959 0 8
-1.8214 18.9477 -2.5463 0.9945 0 8
-2.1307 18.9461 -2.5503 0.9929 0 8
-2.4410 18.9444 -2.5551 0.9911 0 8
-2.7526 18.9425 -2.5605 0.9890 0 8
-3.0656 18.9405 -2.5666 0.9867 0 8
-3.3801 18.9384 -2.5734 0.9841 0 8
-3.6963 18.9361 -2.5808 0.9812 0 8
-4.0145 18.9337 -2.5890 0.9781 0 8
-4.3347 18.9312 -2.5979 0.9748 0 8
-4.6571 18.9285 -2.6075 0.9712 0 8
-4.9821 18.9257 -2.6179 0.9673 0 8
-5.3096 18.9227 -2.6290 0.9632 0 8
-5.6400 18.9196 -2.6409 0.9589 0 8
-5.9603 18.8745 -2.6477 0.1326 0 7
-6.2644 18.7757 -2.6477 0.1326 0 7
-6.5670 18.6720 -2.6477 0.1326 0 7
-6.8678 18.5635 -2.6477 0.1326 0 7
-7.1668 18.4501 -2.6477 0.1326 0 6
-7.4640 18.3319 -2.6477 0.1326 0 7
-7.7591 18.2090 -2.6477 0.1326 0 7
-8.0523 18.0812 -2.6477 0.1326 0 7
-8.3434 17.9488 -2.6477 0.1326 0 7
-8.6323 17.8116 -2.6477 0.1326 0 7
-8.9189 17.6698 -2.6477 0.1326 0 7
-9.2033 17.5234 -2.6477 0.1326 0 7
-9.4852 17.3724 -2.6477 0.1326 0 7
-9.7646 17.2169 -2.6477 0.1326 0 7
-10.0415 17.0569 -2.6477 0.1326 0 7
-10.3158 16.8925 -2.6477 0.1326 0 7
-10.5873 16.7236 -2.6477 0.1326 0 7
-10.8562 16.5504 -2.6477 0.1326 0 7
-11.1221 16.3728 -2.6477 0.1326 0 7
-11.3852 16.1910 -2.6477 0.1326 0 7
-11.6453 16.0049 -2.6477 0.1326 0 7
-11.9024 15.8147 -2.6477 0.1326 0 7
-12.1563 15.6203 -2.6477 0.1326 0 7
-12.4071 15.4219 -2.6477 0.1326 0 7
10.7410 15.2031 -2.6477 0.1408 0 7
10.4940 15.3746 -2.6477 0.1408 0 7
10.2442 15.5421 -2.6477 0.1408 0 7
9.9918 15.7056 -2.6477 0.1408 0 7
9.7367 15.8650 -2.6477 0.1408 0 7
9.4791 16.0203 -2.6477 0.1408 0 7
9.2191 16.1713 -2.6477 0.1408 0 7
8.9566 16.3181 -2.6477 0.1408 0 7
8.6918 16.4607 -2.6477 0.1408 0 7
8.4247 16.5990 -2.6477 0.1408 0 7
8.1554 16.7330 -2.6477 0.1408 0 7
7.8840 16.8625 -2.6477 0.1408 0 7
7.6106 16.9877 -2.6477 0.1408 0 7
7.3351 17.1084 -2.6477 0.1408 0 7
7.0577 17.2247 -2.6477 0.1408 0 7
6.7785 17.3365 -2.6477 0.1408 0 7
6.4975 17.4438 -2.6477 0.1408 0 7
6.2149 17.5465 -2.6477 0.1408 0 7
5.9306 17.6446 -2.6477 0.1408 0 7
5.6447 17.7381 -2.6477 0.1408 0 7
5.3574 17.8270 -2.6477 0.1408 0 7
5.0687 17.9112 -2.6477 0.1408 0 7
4.7787 17.9908 -2.6477 0.1408 0 7
4.4874 18.0656 -2.6477 0.1408 0 7
4.1949 18.1357 -2.6477 0.1408 0 7
3.9013 18.2012 -2.6477 0.1408 0 7
3.6068 18.2618 -2.6477 0.1408 0 7
3.3113 18.3177 -2.6477 0.1408 0 7
3.0149 18.3688 -2.6477 0.1408 0 7
2.7177 18.4151 -2.6477 0.1408 0 6
2.4199 18.4566 -2.6477 0.1408 0 6
2.1213 18.4933 -2.6477 0.1408 0 6
1.8223 18.5252 -2.6477 0.1408 0 7
1.5227 18.5522 -2.6477 0.1408 0 7
1.2228 18.5744 -2.6477 0.1408 0 7
0.9225 18.5917 -2.6477 0.1408 0 7
0.6220 18.6042 -2.6477 0.1408 0 7
0.3214 18.6118 -2.6477 0.1408 0 7
0.0206 18.6146 -2.6477 0.1408 0 7
-0.2801 18.6125 -2.6477 0.1408 0 7
-0.5808 18.6055 -2.6477 0.1408 0 7
-0.8813 18.5937 -2.6477 0.1408 0 7
-1.1816 18.5770 -2.6477 0.1408 0 7
-1.4815 18.5555 -2.6477 0.1408 0 7
-1.7812 18.5292 -2.6477 0.1408 0 7
-2.0803 18.4980 -2.6477 0.1408 0 7
-2.3789 18.4620 -2.6477 0.1408 0 6
-2.6768 18.4211 -2.6477 0.1408 0 6
-2.9742 18.3755 -2.6477 0.1408 0 6
-3.2706 18.3250 -2.6477 0.1408 0 7
-3.5663 18.2698 -2.6477 0.1408 0 7
-3.8610 18.2098 -2.6477 0.1408 0 7
-4.1547 18.1450 -2.6477 0.1408 0 7
-4.4473 18.0755 -2.6477 0.1408 0 7
-4.7387 18.0013 -2.6477 0.1408 0 7
-5.0289 17.9224 -2.6477 0.1408 0 7
-5.3179 17.8388 -2.6477 0.1408 0 7
-5.6054 17.7506 -2.6477 0.1408 0 7
-5.8914 17.6577 -2.6477 0.1408 0 7
-6.1759 17.5602 -2.6477 0.1408 0 7
-6.4588 17.4581 -2.6477 0.1408 0 7
-6.7401 17.3515 -2.6477 0.1408 0 7
-7.0195 17.2403 -2.6477 0.1408 0 7
-7.2971 17.1247 -2.6477 0.1408 0 7
-7.5728 17.0046 -2.6477 0.1408 0 7
-7.8466 16.8800 -2.6477 0.1408 0 7
-8.1183 16.7510 -2.6477 0.1408 0 7
-8.3879 16.6177 -2.6477 0.1408 0 7
-8.6552 16.4800 -2.6477 0.1408 0 7
-8.9204 16.3380 -2.6477 0.1408 0 7
-9.1832 16.1917 -2.6477 0.1408 0 7
-9.4436 16.0413 -2.6477 0.1408 0 7
-9.7015 15.8866 -2.6477 0.1408 0 7
-9.9569 15.7278 -2.6477 0.1408 0 7
-10.2097 15.5648 -2.6477 0.1408 0 7
-10.4599 15.3979 -2.6477 0.1408 0 7
-10.7073 15.2269 -2.6477 0.1408 0 7
-10.9519 15.0519 -2.6477 0.1408 0 7
-11.1936 14.8730 -2.6477 0.1408 0 7
-11.4325 14.6902 -2.6477 0.1408 0 7
-11.6683 14.5036 -2.6477 0.1408 0 7
10.1360 14.3468 -2.6477 0.1490 0 7
9.9029 14.5087 -2.6477 0.1490 0 7
9.6672 14.6668 -2.6477 0.1490 0 7
9.4290 14.8210 -2.6477 0.1490 0 7
9.1883 14.9714 -2.6477 0.1490 0 7
8.9452 15.1179 -2.6477 0.1490 0 7
8.6998 15.2605 -2.6477 0.1490 0 7
8.4521 15.3991 -2.6477 0.1490 0 7
8.2022 15.5336 -2.6477 0.1490 0 7
7.9502 15.6641 -2.6477 0.1490 0 7
7.6961 15.7905 -2.6477 0.1490 0 7
7.4400 15.9128 -2.6477 0.1490 0 7
7.1819 16.0309 -2.6477 0.1490 0 7
6.9220 16.1448 -2.6477 0.1490 0 7
6.6602 16.2546 -2.6477 0.1490 0 7
6.3967 16.3601 -2.6477 0.1490 0 7
6.1316 16.4613 -2.6477 0.1490 0 7
5.8648 16.5582 -2.6477 0.1490 0 7
5.5965 16.6508 -2.6477 0.1490 0 7
5.3268 16.7390 -2.6477 0.1490 0 7
5.0557 16.8229 -2.6477 0.1490 0 7
4.7832 16.9024 -2.6477 0.1490 0 7
4.5095 16.9774 -2.6477 0.1490 0 7
4.2346 17.0481 -2.6477 0.1490 0 7
3.9586 17.1143 -2.6477 0.1490 0 7
3.6816 17.1760 -2.6477 0.1490 0 7
3.4036 17.2332 -2.6477 0.1490 0 7
3.1248 17.2860 -2.6477 0.1490 0 7
2.8451 17.3342 -2.6477 0.1490 0 7
2.5646 17.3779 -2.6477 0.1490 0 7
2.2835 17.4171 -2.6477 0.1490 0 7
2.0018 17.4517 -2.6477 0.1490 0 7
1.7196 17.4818 -2.6477 0.1490 0 7
1.4370 17.5073 -2.6477 0.1490 0 7
1.1539 17.5282 -2.6477 0.1490 0 7
0.8706 17.5446 -2.6477 0.1490 0 7
0.5870 17.5563 -2.6477 0.1490 0 7
0.3033 17.5635 -2.6477 0.1490 0 7
0.0195 17.5661 -2.6477 0.1490 0 7
-0.2643 17.5642 -2.6477 0.1490 0 7
-0.5481 17.5576 -2.6477 0.1490 0 7
-0.8316 17.5464 -2.6477 0.1490 0 7
-1.1150 17.5307 -2.6477 0.1490 0 7
-1.3981 17.5104 -2.6477 0.1490 0 7
-1.6808 17.4855 -2.6477 0.1490 0 7
-1.9631 17.4561 -2.6477 0.1490 0 7
-2.2449 17.4221 -2.6477 0.1490 0 7
-2.5261 17.3836 -2.6477 0.1490 0 7
-2.8066 17.3405 -2.6477 0.1490 0 7
-3.0864 17.2929 -2.6477 0.1490 0 7
-3.3654 17.2408 -2.6477 0.1490 0 7
-3.6435 17.1841 -2.6477 0.1490 0 7
-3.9207 17.1230 -2.6477 0.1490 0 7
-4.1968 17.0574 -2.6477 0.1490 0 7
-4.4718 16.9874 -2.6477 0.1490 0 7
-4.7457 16.9129 -2.6477 0.1490 0 7
-5.0183 16.8341 -2.6477 0.1490 0 7
-5.2896 16.7508 -2.6477 0.1490 0 7
-5.5596 16.6631 -2.6477 0.1490 0 7
-5.8281 16.5711 -2.6477 0.1490 0 7
-6.0950 16.4748 -2.6477 0.1490 0 7
-6.3604 16.3742 -2.6477 0.1490 0 7
-6.6241 16.2693 -2.6477 0.1490 0 7
-6.8861 16.1602 -2.6477 0.1490 0 7
-7.1463 16.0468 -2.6477 0.1490 0 7
-7.4046 15.9292 -2.6477 0.1490 0 7
-7.6610 15.8075 -2.6477 0.1490 0 7
-7.9154 15.6817 -2.6477 0.1490 0 7
-8.1677 15.5518 -2.6477 0.1490 0 7
-8.4179 15.4178 -2.6477 0.1490 0 7
-8.6659 15.2798 -2.6477 0.1490 0 7
-8.9117 15.1378 -2.6477 0.1490 0 7
-9.1551 14.9918 -2.6477 0.1490 0 7
-9.3961 14.8419 -2.6477 0.1490 0 7
-9.6347 14.6882 -2.6477 0.1490 0 7
-9.8707 14.5306 -2.6477 0.1490 0 7
-10.1042 14.3692 -2.6477 0.1490 0 7
-10.3350 14.2041 -2.6477 0.1490 0 7
-10.5632 14.0353 -2.6477 0.1490 0 7
-10.7885 13.8628 -2.6477 0.1490 0 7
-11.0111 13.6867 -2.6477 0.1490 0 7
9.5943 13.5800 -2.6477 0.1573 0 7
9.3737 13.7332 -2.6477 0.1573 0 7
9.1506 13.8829 -2.6477 0.1573 0 7
8.9251 14.0289 -2.6477 0.1573 0 7
8.6972 14.1713 -2.6477 0.1573 0 7
8.4671 14.3099 -2.6477 0.1573 0 7
8.2348 14.4449 -2.6477 0.1573 0 7
8.0004 14.5760 -2.6477 0.1573 0 7
7.7638 14.7034 -2.6477 0.1573 0 7
7.5253 14.8269 -2.6477 0.1573 0 7
7.2848 14.9465 -2.6477 0.1573 0 6
7.0423 15.0623 -2.6477 0.1573 0 7
6.7980 15.1741 -2.6477 0.1573 0 7
6.5520 15.2820 -2.6477 0.1573 0 7
6.3042 15.3858 -2.6477 0.1573 0 7
6.0548 15.4857 -2.6477 0.1573 0 7
5.8039 15.5815 -2.6477 0.1573 0 7
5.5514 15.6732 -2.6477 0.1573 0 7
5.2974 15.7608 -2.6477 0.1573 0 7
5.0421 15.8444 -2.6477 0.1573 0 7
4.7855 15.9238 -2.6477 0.1573 0 7
4.5276 15.9990 -2.6477 0.1573 0 7
4.2685 16.0701 -2.6477 0.1573 0 7
4.0083 16.1369 -2.6477 0.1573 0 7
3.7471 16.1996 -2.6477 0.1573 0 7
3.4848 16.2580 -2.6477 0.1573 0 7
3.2217 16.3122 -2.6477 0.1573 0 7
2.9578 16.3621 -2.6477 0.1573 0 7
2.6930 16.4078 -2.6477 0.1573 0 7
2.4276 16.4491 -2.6477 0.1573 0 7
2.1615 16.4862 -2.6477 0.1573 0 7
1.8949 16.5190 -2.6477 0.1573 0 7
1.6277 16.5474 -2.6477 0.1573 0 7
1.3602 16.5716 -2.6477 0.1573 0 7
1.0923 16.5914 -2.6477 0.1573 0 7
0.8241 16.6069 -2.6477 0.1573 0 7
0.5556 16.6180 -2.6477 0.1573 0 7
0.2871 16.6248 -2.6477 0.1573 0 7
0.0184 16.6273 -2.6477 0.1573 0 7
-0.2502 16.6254 -2.6477 0.1573 0 7
-0.5188 16.6192 -2.6477 0.1573 0 7
-0.7872 16.6086 -2.6477 0.1573 0 7
-1.0554 16.5938 -2.6477 0.1573 0 7
-1.3234 16.5745 -2.6477 0.1573 0 7
-1.5910 16.5510 -2.6477 0.1573 0 7
-1.8582 16.5231 -2.6477 0.1573 0 7
-2.1249 16.4910 -2.6477 0.1573 0 7
-2.3911 16.4545 -2.6477 0.1573 0 7
-2.6566 16.4137 -2.6477 0.1573 0 7
-2.9214 16.3686 -2.6477 0.1573 0 7
-3.1855 16.3193 -2.6477 0.1573 0 7
-3.4488 16.2657 -2.6477 0.1573 0 7
-3.7111 16.2078 -2.6477 0.1573 0 7
-3.9725 16.1458 -2.6477 0.1573 0 7
-4.2328 16.0795 -2.6477 0.1573 0 7
-4.4921 16.0090 -2.6477 0.1573 0 7
-4.7501 15.9343 -2.6477 0.1573 0 7
-5.0069 15.8555 -2.6477 0.1573 0 7
-5.2624 15.7726 -2.6477 0.1573 0 7
-5.5166 15.6855 -2.6477 0.1573 0 7
-5.7693 15.5943 -2.6477 0.1573 0 7
-6.0205 15.4990 -2.6477 0.1573 0 7
-6.2701 15.3998 -2.6477 0.1573 0 7
-6.5181 15.2964 -2.6477 0.1573 0 7
-6.7644 15.1891 -2.6477 0.1573 0 7
-7.0089 15.0779 -2.6477 0.1573 0 7
-7.2516 14.9627 -2.6477 0.1573 0 6
-7.4924 14.8436 -2.6477 0.1573 0 7
-7.7312 14.7206 -2.6477 0.1573 0 7
-7.9680 14.5937 -2.6477 0.1573 0 7
-8.2028 14.4631 -2.6477 0.1573 0 7
-8.4354 14.3287 -2.6477 0.1573 0 7
-8.6658 14.1905 -2.6477 0.1573 0 7
-8.8939 14.0487 -2.6477 0.1573 0 7
-9.1197 13.9031 -2.6477 0.1573 0 7
-9.3432 13.7540 -2.6477 0.1573 0 7
-9.5642 13.6012 -2.6477 0.1573 0 7
-9.7826 13.4449 -2.6477 0.1573 0 7
-9.9986 13.2851 -2.6477 0.1573 0 7
-10.2119 13.1219 -2.6477 0.1573 0 7
-10.4226 12.9552 -2.6477 0.1573 0 7
9.1063 12.8893 -2.6477 0.1655 0 7
8.8969 13.0347 -2.6477 0.1655 0 7
8.6851 13.1767 -2.6477 0.1655 0 7
8.4711 13.3153 -2.6477 0.1655 0 7
8.2549 13.4505 -2.6477 0.1655 0 7
8.0365 13.5821 -2.6477 0.1655 0 7
7.8160 13.7102 -2.6477 0.1655 0 7
7.5935 13.8346 -2.6477 0.1655 0 7
7.3690 13.9555 -2.6477 0.1655 0 7
7.1425 14.0728 -2.6477 0.1655 0 7
6.9142 14.1863 -2.6477 0.1655 0 7
6.6841 14.2962 -2.6477 0.1655 0 7
6.4523 14.4023 -2.6477 0.1655 0 7
6.2187 14.5047 -2.6477 0.1655 0 7
5.9836 14.6032 -2.6477 0.1655 0 7
5.7469 14.6980 -2.6477 0.1655 0 7
5.5087 14.7889 -2.6477 0.1655 0 7
5.2690 14.8760 -2.6477 0.1655 0 7
5.0280 14.9592 -2.6477 0.1655 0 7
4.7856 15.0385 -2.6477 0.1655 0 7
4.5421 15.1138 -2.6477 0.1655 0 7
4.2973 15.1852 -2.6477 0.1655 0 7
4.0514 15.2527 -2.6477 0.1655 0 7
3.8044 15.3161 -2.6477 0.1655 0 7
3.5565 15.3756 -2.6477 0.1655 0 7
3.3076 15.4311 -2.6477 0.1655 0 7
3.0579 15.4825 -2.6477 0.1655 0 7
2.8073 15.5299 -2.6477 0.1655 0 7
2.5560 15.5732 -2.6477 0.1655 0 7
2.3041 15.6125 -2.6477 0.1655 0 7
2.0515 15.6476 -2.6477 0.1655 0 7
1.7985 15.6788 -2.6477 0.1655 0 7
1.5449 15.7058 -2.6477 0.1655 0 7
1.2910 15.7287 -2.6477 0.1655 0 7
1.0367 15.7475 -2.6477 0.1655 0 7
0.7821 15.7622 -2.6477 0.1655 0 7
0.5274 15.7728 -2.6477 0.1655 0 7
0.2725 15.7792 -2.6477 0.1655 0 7
0.0175 15.7816 -2.6477 0.1655 0 7
-0.2375 15.7798 -2.6477 0.1655 0 7
-0.4924 15.7739 -2.6477 0.1655 0 7
-0.7472 15.7639 -2.6477 0.1655 0 7
-1.0018 15.7497 -2.6477 0.1655 0 7
-1.2561 15.7315 -2.6477 0.1655 0 7
-1.5101 15.7092 -2.6477 0.1655 0 7
