ply
format ascii 1.0
element vertex 1369
property float32 x
property float32 y
property float32 z
property float32 CosAngle
property uint32 ObjIdx
property uint32 ObjTag
end_header
26.1962 96.5673 -2.4953 0.0249 0 8
24.6402 96.9760 -2.4953 0.0249 0 8
23.0778 97.3597 -2.4953 0.0249 0 8
21.5094 97.7181 -2.4953 0.0249 0 8
19.9356 98.0513 -2.4953 0.0249 0 8
18.3565 98.3591 -2.4953 0.0249 0 8
16.7727 98.6416 -2.4953 0.0249 0 8
15.1846 98.8985 -2.4953 0.0249 0 8
13.5926 99.1299 -2.4953 0.0249 0 8
11.9969 99.3356 -2.4953 0.0249 0 8
10.3983 99.5156 -2.4953 0.0249 0 8
8.7969 99.6700 -2.4953 0.0249 0 8
7.1932 99.7985 -2.4953 0.0249 0 8
5.5878 99.9013 -2.4953 0.0249 0 8
3.9809 99.9782 -2.4953 0.0249 0 8
2.3729 100.0293 -2.4953 0.0249 0 8
0.7643 100.0545 -2.4953 0.0249 0 8
-0.8445 100.0539 -2.4953 0.0249 0 8
-2.4531 100.0273 -2.4953 0.0249 0 8
-4.0610 99.9750 -2.4953 0.0249 0 8
-5.6678 99.8968 -2.4953 0.0249 0 8
-7.2732 99.7927 -2.4953 0.0249 0 8
65.4461 -36.6936 -2.4953 0.0332 0 8
66.0276 -35.6367 -2.4953 0.0332 0 8
66.5921 -34.5704 -2.4953 0.0332 0 8
67.1393 -33.4953 -2.4953 0.0332 0 8
67.6692 -32.4115 -2.4953 0.0332 0 8
68.1815 -31.3193 -2.4953 0.0332 0 8
68.6763 -30.2190 -2.4953 0.0332 0 8
69.1532 -29.1109 -2.4953 0.0332 0 8
69.6124 -27.9953 -2.4953 0.0332 0 8
70.0535 -26.8725 -2.4953 0.0332 0 8
70.4765 -25.7427 -2.4953 0.0332 0 8
70.8812 -24.6063 -2.4953 0.0332 0 8
71.2677 -23.4635 -2.4953 0.0332 0 8
71.6357 -22.3146 -2.4953 0.0332 0 8
71.9852 -21.1600 -2.4953 0.0332 0 8
72.3161 -19.9998 -2.4953 0.0332 0 8
72.6283 -18.8346 -2.4953 0.0332 0 8
72.9218 -17.6644 -2.4953 0.0332 0 8
73.1964 -16.4897 -2.4953 0.0332 0 8
73.4520 -15.3107 -2.4953 0.0332 0 8
73.6887 -14.1278 -2.4953 0.0332 0 8
73.9063 -12.9412 -2.4953 0.0332 0 8
74.1049 -11.7514 -2.4953 0.0332 0 8
74.2842 -10.5583 -2.4953 0.0332 0 8
74.4444 -9.3625 -2.4953 0.0332 0 8
74.5852 -8.1642 -2.4953 0.0332 0 8
74.7069 -6.9642 -2.4953 0.0332 0 8
74.8092 -5.7621 -2.4953 0.0332 0 8
74.8922 -4.5586 -2.4953 0.0332 0 8
74.9558 -3.3540 -2.4953 0.0332 0 8
75.0000 -2.1482 -2.4953 0.0332 0 8
75.0249 -0.9421 -2.4953 0.0332 0 8
75.0303 0.2642 -2.4953 0.0332 0 8
75.0164 1.4705 -2.4953 0.0332 0 8
74.9831 2.6765 -2.4953 0.0332 0 8
74.9303 3.8817 -2.4953 0.0332 0 8
74.8582 5.0859 -2.4953 0.0332 0 8
74.7668 6.2888 -2.4953 0.0332 0 8
74.6560 7.4901 -2.4953 0.0332 0 8
77.3178 9.0150 -2.5887 0.0184 0 8
78.9192 10.4904 -2.6477 0.0332 0 7
78.7403 11.7579 -2.6477 0.0332 0 7
78.5411 13.0224 -2.6477 0.0332 0 7
78.3215 14.2835 -2.6477 0.0332 0 7
78.0818 15.5409 -2.6477 0.0332 0 7
77.8218 16.7943 -2.6477 0.0332 0 7
77.5417 18.0434 -2.6477 0.0332 0 7
76.6923 19.1506 -2.6288 0.2415 0 8
72.7153 19.4047 -2.5029 0.0332 0 14
72.3939 20.5713 -2.5029 0.0332 0 14
72.0538 21.7326 -2.5029 0.0332 0 14
75.8423 24.2122 -2.6477 0.0332 0 7
75.4432 25.4285 -2.6477 0.0332 0 7
75.0246 26.6382 -2.6477 0.0332 0 6
74.5866 27.8410 -2.6477 0.0332 0 7
74.1294 29.0366 -2.6477 0.0332 0 7
73.6529 30.2247 -2.6477 0.0332 0 7
73.1575 31.4050 -2.6477 0.0332 0 7
72.6431 32.5771 -2.6477 0.0332 0 7
70.7151 33.0882 -2.5965 0.4201 0 8
67.8674 33.0961 -2.5111 0.4343 0 8
66.9017 33.9673 -2.4953 0.0332 0 8
66.3470 35.0386 -2.4953 0.0332 0 8
65.7750 36.1008 -2.4953 0.0332 0 8
65.1861 37.1537 -2.4953 0.0332 0 8
64.5803 38.1969 -2.4953 0.0332 0 8
63.9578 39.2303 -2.4953 0.0332 0 8
63.3188 40.2536 -2.4953 0.0332 0 22
62.6634 41.2664 -2.4953 0.0332 0 22
61.9918 42.2686 -2.4953 0.0332 0 22
61.3042 43.2598 -2.4953 0.0332 0 22
60.6008 44.2398 -2.4953 0.0332 0 22
59.8817 45.2085 -2.4953 0.0332 0 22
59.1471 46.1654 -2.4953 0.0332 0 22
58.3972 47.1104 -2.4953 0.0332 0 22
57.6322 48.0436 -2.4953 0.0332 0 22
56.8523 48.9636 -2.4953 0.0332 0 22
56.0577 49.8714 -2.4953 0.0332 0 22
55.2486 50.7663 -2.4953 0.0332 0 22
54.4252 51.6480 -2.4953 0.0332 0 8
53.5878 52.5163 -2.4953 0.0332 0 8
52.7365 53.3712 -2.4953 0.0332 0 8
51.8716 54.2121 -2.4953 0.0332 0 8
50.9933 55.0391 -2.4953 0.0332 0 8
50.1019 55.8518 -2.4953 0.0332 0 8
49.8475 57.3989 -2.5282 0.1635 0 8
51.2288 60.9417 -2.6477 0.0332 0 7
50.2424 61.7575 -2.6477 0.0332 0 7
49.2429 62.5573 -2.6477 0.0332 0 7
48.2308 63.3409 -2.6477 0.0332 0 7
47.2062 64.1082 -2.6477 0.0332 0 7
46.1693 64.8589 -2.6477 0.0332 0 7
45.1206 65.5928 -2.6477 0.0332 0 7
44.0602 66.3098 -2.6477 0.0332 0 7
42.9883 67.0096 -2.6477 0.0332 0 7
41.9054 67.6921 -2.6477 0.0332 0 7
40.8116 68.3571 -2.6477 0.0332 0 7
39.7073 69.0044 -2.6477 0.0332 0 7
38.5927 69.6340 -2.6477 0.0332 0 7
37.4681 70.2454 -2.6477 0.0332 0 7
36.3339 70.8388 -2.6477 0.0332 0 7
35.1902 71.4138 -2.6477 0.0332 0 7
34.0375 71.9704 -2.6477 0.0332 0 7
32.8759 72.5083 -2.6477 0.0332 0 7
31.7059 73.0275 -2.6477 0.0332 0 7
30.5276 73.5279 -2.6477 0.0332 0 7
29.3415 74.0092 -2.6477 0.0332 0 7
28.0945 74.3303 -2.6427 0.0491 0 8
26.7920 74.4838 -2.6325 0.9304 0 8
25.4475 74.4848 -2.6177 0.9356 0 8
24.1175 74.4857 -2.6038 0.9406 0 8
22.8013 74.4864 -2.5906 0.9454 0 8
21.4979 74.4871 -2.5783 0.9499 0 8
20.2065 74.4875 -2.5667 0.9542 0 8
18.9263 74.4879 -2.5559 0.9582 0 8
17.6564 74.4882 -2.5459 0.9620 0 8
16.3962 74.4883 -2.5365 0.9655 0 8
15.1448 74.4883 -2.5279 0.9688 0 8
13.9016 74.4882 -2.5200 0.9719 0 8
12.6657 74.4879 -2.5128 0.9747 0 8
11.4366 74.4875 -2.5062 0.9772 0 8
10.2138 74.4891 -2.5004 0.7235 0 8
8.9966 74.4926 -2.4954 0.7249 0 8
7.7973 74.6245 -2.4953 0.0332 0 8
6.5966 74.7402 -2.4953 0.0332 0 8
5.3940 74.8366 -2.4953 0.0332 0 8
4.1902 74.9137 -2.4953 0.0332 0 8
2.9852 74.9714 -2.4953 0.0332 0 8
1.7794 75.0097 -2.4953 0.0332 0 8
0.5731 75.0286 -2.4953 0.0332 0 8
-0.6332 75.0281 -2.4953 0.0332 0 8
-1.8395 75.0082 -2.4953 0.0332 0 8
-3.0452 74.9690 -2.4953 0.0332 0 8
-4.2502 74.9103 -2.4953 0.0332 0 8
-5.4540 74.8323 -2.4953 0.0332 0 8
52.3461 -29.3489 -2.4953 0.0415 0 8
52.8112 -28.5034 -2.4953 0.0415 0 8
53.2627 -27.6508 -2.4953 0.0415 0 8
53.7004 -26.7907 -2.4953 0.0415 0 8
54.1242 -25.9239 -2.4953 0.0415 0 8
54.5340 -25.0503 -2.4953 0.0415 0 8
54.9297 -24.1702 -2.4953 0.0415 0 8
55.3112 -23.2840 -2.4953 0.0415 0 8
55.6784 -22.3917 -2.4953 0.0415 0 8
56.0312 -21.4936 -2.4953 0.0415 0 8
56.3695 -20.5899 -2.4953 0.0415 0 8
56.6933 -19.6810 -2.4953 0.0415 0 8
57.0024 -18.7669 -2.4953 0.0415 0 8
57.2968 -17.8480 -2.4953 0.0415 0 8
57.5763 -16.9245 -2.4953 0.0415 0 8
57.8411 -16.0016 -2.4953 0.0415 0 8
58.0907 -15.0646 -2.4953 0.0415 0 8
58.3254 -14.1286 -2.4953 0.0415 0 8
58.5450 -13.1890 -2.4953 0.0415 0 8
58.7495 -12.2460 -2.4953 0.0415 0 8
58.9388 -11.2999 -2.4953 0.0415 0 8
59.1129 -10.3508 -2.4953 0.0415 0 8
59.2717 -9.3990 -2.4953 0.0415 0 8
59.4151 -8.4448 -2.4953 0.0415 0 8
59.5432 -7.4885 -2.4953 0.0415 0 8
59.6559 -6.5302 -2.4953 0.0415 0 8
59.7532 -5.5702 -2.4953 0.0415 0 8
59.8350 -4.6087 -2.4953 0.0415 0 8
59.9014 -3.6461 -2.4953 0.0415 0 8
59.9523 -2.6825 -2.4953 0.0415 0 8
59.9877 -1.7183 -2.4953 0.0415 0 8
60.0075 -0.7536 -2.4953 0.0415 0 8
60.0119 0.2113 -2.4953 0.0415 0 8
60.0007 1.1762 -2.4953 0.0415 0 8
59.9741 2.1407 -2.4953 0.0415 0 8
59.9319 3.1047 -2.4953 0.0415 0 8
59.8742 4.0679 -2.4953 0.0415 0 8
59.8011 5.0300 -2.4953 0.0415 0 8
59.7125 5.9909 -2.4953 0.0415 0 8
59.6084 6.9502 -2.4953 0.0415 0 8
59.4890 7.9076 -2.4953 0.0415 0 8
62.9793 9.4044 -2.6477 0.0415 0 7
62.8199 10.4158 -2.6477 0.0415 0 7
62.6443 11.4244 -2.6477 0.0415 0 7
62.4526 12.4302 -2.6477 0.0415 0 7
62.2446 13.4327 -2.6477 0.0415 0 7
62.0206 14.4317 -2.6477 0.0415 0 7
61.7806 15.4270 -2.6477 0.0415 0 7
61.5245 16.4183 -2.6477 0.0415 0 7
61.2526 17.4054 -2.6477 0.0415 0 7
60.9648 18.3880 -2.6477 0.0415 0 7
59.8503 19.1069 -2.6123 0.3037 0 8
57.0425 19.2264 -2.5029 0.0415 0 8
56.7260 20.1411 -2.5029 0.0415 0 14
56.3948 21.0505 -2.5029 0.0415 0 14
56.0491 21.9545 -2.5029 0.0415 0 14
58.9102 24.1748 -2.6477 0.0415 0 7
58.5139 25.1188 -2.6477 0.0415 0 7
58.1025 26.0563 -2.6477 0.0415 0 7
57.6760 26.9871 -2.6477 0.0415 0 7
57.2347 27.9110 -2.6477 0.0415 0 7
56.7785 28.8276 -2.6477 0.0415 0 7
56.3077 29.7367 -2.6477 0.0415 0 7
55.8223 30.6382 -2.6477 0.0415 0 7
55.3225 31.5318 -2.6477 0.0415 0 7
54.8083 32.4172 -2.6477 0.0415 0 7
54.1959 33.2426 -2.6436 0.0542 0 8
53.2398 33.8461 -2.6231 0.8566 0 8
52.2513 34.4096 -2.6014 0.9018 0 8
51.4035 35.0490 -2.5869 0.9625 0 8
50.6716 35.7568 -2.5786 0.9795 0 8
50.0524 36.5393 -2.5767 0.9896 0 8
49.5238 37.3886 -2.5801 0.9822 0 8
49.1029 38.3257 -2.5899 0.9505 0 8
48.7903 39.3604 -2.6065 0.8952 0 8
48.6093 40.5216 -2.6313 0.8177 0 8
48.2226 41.5314 -2.6462 0.0542 0 8
47.5753 42.3251 -2.6477 0.0415 0 7
46.8887 43.0846 -2.6477 0.0415 0 7
46.1899 43.8329 -2.6477 0.0415 0 7
45.4792 44.5698 -2.6477 0.0415 0 7
44.7567 45.2953 -2.6477 0.0415 0 7
44.0227 46.0091 -2.6477 0.0415 0 7
43.2773 46.7109 -2.6477 0.0415 0 7
42.5207 47.4007 -2.6477 0.0415 0 7
41.7530 48.0782 -2.6477 0.0415 0 7
40.9746 48.7433 -2.6477 0.0415 0 7
40.1856 49.3958 -2.6477 0.0415 0 7
39.3862 50.0355 -2.6477 0.0415 0 7
38.5767 50.6623 -2.6477 0.0415 0 7
35.5839 48.3245 -2.4953 0.0415 0 8
34.8023 48.8904 -2.4953 0.0415 0 8
34.0118 49.4436 -2.4953 0.0415 0 8
33.2124 49.9841 -2.4953 0.0415 0 8
32.4045 50.5116 -2.4953 0.0415 0 8
31.5881 51.0261 -2.4953 0.0415 0 8
30.7637 51.5274 -2.4953 0.0415 0 8
29.9312 52.0153 -2.4953 0.0415 0 8
29.0910 52.4898 -2.4953 0.0415 0 8
28.2433 52.9508 -2.4953 0.0415 0 8
27.3883 53.3980 -2.4953 0.0415 0 8
26.5262 53.8315 -2.4953 0.0415 0 8
25.6573 54.2510 -2.4953 0.0415 0 8
24.7818 54.6565 -2.4953 0.0415 0 8
23.8998 55.0479 -2.4953 0.0415 0 8
23.0116 55.4251 -2.4953 0.0415 0 8
22.1176 55.7879 -2.4953 0.0415 0 8
21.2178 56.1363 -2.4953 0.0415 0 8
20.3124 56.4702 -2.4953 0.0415 0 8
19.4019 56.7894 -2.4953 0.0415 0 8
18.4863 57.0940 -2.4953 0.0415 0 8
17.5660 57.3839 -2.4953 0.0415 0 8
16.6411 57.6589 -2.4953 0.0415 0 8
15.7119 57.9190 -2.4953 0.0415 0 8
14.7786 58.1641 -2.4953 0.0415 0 8
13.8416 58.3942 -2.4953 0.0415 0 8
12.9009 58.6092 -2.4953 0.0415 0 8
11.9569 58.8091 -2.4953 0.0415 0 8
11.0099 58.9937 -2.4953 0.0415 0 8
10.0599 59.1631 -2.4953 0.0415 0 8
9.1074 59.3172 -2.4953 0.0415 0 8
8.1525 59.4559 -2.4953 0.0415 0 8
7.1955 59.5793 -2.4953 0.0415 0 8
6.2366 59.6873 -2.4953 0.0415 0 8
5.2762 59.7799 -2.4953 0.0415 0 8
4.3143 59.8570 -2.4953 0.0415 0 8
3.3514 59.9186 -2.4953 0.0415 0 8
2.3876 59.9647 -2.4953 0.0415 0 8
1.4232 59.9954 -2.4953 0.0415 0 8
0.4584 60.0105 -2.4953 0.0415 0 8
-0.5065 60.0101 -2.4953 0.0415 0 8
-1.4713 59.9942 -2.4953 0.0415 0 8
-2.4357 59.9628 -2.4953 0.0415 0 8
-3.3995 59.9159 -2.4953 0.0415 0 8
-4.3623 59.8535 -2.4953 0.0415 0 8
43.6106 -24.4512 -2.4953 0.0498 0 8
43.9981 -23.7468 -2.4953 0.0498 0 8
44.3743 -23.0363 -2.4953 0.0498 0 8
44.7389 -22.3200 -2.4953 0.0498 0 8
45.0919 -21.5979 -2.4953 0.0498 0 8
45.4334 -20.8700 -2.4953 0.0498 0 8
45.7632 -20.1361 -2.4953 0.0498 0 8
46.0809 -19.3984 -2.4953 0.0498 0 8
46.3869 -18.6549 -2.4953 0.0498 0 8
46.6808 -17.9067 -2.4953 0.0498 0 8
46.9627 -17.1539 -2.4953 0.0498 0 8
47.2324 -16.3966 -2.4953 0.0498 0 8
47.4899 -15.6351 -2.4953 0.0498 0 8
47.7352 -14.8695 -2.4953 0.0498 0 8
47.9681 -14.1001 -2.4953 0.0498 0 8
48.1886 -13.3271 -2.4953 0.0498 0 8
48.3966 -12.5506 -2.4953 0.0498 0 8
48.5921 -11.7708 -2.4953 0.0498 0 8
48.7751 -10.9881 -2.4953 0.0498 0 8
48.9455 -10.2024 -2.4953 0.0498 0 8
49.1032 -9.4142 -2.4953 0.0498 0 8
49.2482 -8.6235 -2.4953 0.0498 0 8
49.3805 -7.8305 -2.4953 0.0498 0 8
49.5000 -7.0356 -2.4953 0.0498 0 8
49.6067 -6.2388 -2.4953 0.0498 0 8
49.7006 -5.4404 -2.4953 0.0498 0 8
49.7816 -4.6406 -2.4953 0.0498 0 8
49.8498 -3.8396 -2.4953 0.0498 0 8
49.9051 -3.0377 -2.4953 0.0498 0 8
49.9475 -2.2349 -2.4953 0.0498 0 8
49.9770 -1.4315 -2.4953 0.0498 0 8
49.9935 -0.6278 -2.4953 0.0498 0 8
49.9972 0.1761 -2.4953 0.0498 0 8
49.9879 0.9799 -2.4953 0.0498 0 8
49.9657 1.7835 -2.4953 0.0498 0 8
49.9305 2.5866 -2.4953 0.0498 0 8
49.8825 3.3891 -2.4953 0.0498 0 8
49.8216 4.1906 -2.4953 0.0498 0 8
49.7477 4.9911 -2.4953 0.0498 0 8
49.6610 5.7903 -2.4953 0.0498 0 8
49.5615 6.5880 -2.4953 0.0498 0 8
49.4492 7.3840 -2.4953 0.0498 0 8
49.3241 8.1781 -2.4953 0.0498 0 8
49.3081 8.9923 -2.5015 0.0498 0 8
52.0305 10.3558 -2.6477 0.0498 0 7
51.8573 11.1910 -2.6477 0.0498 0 7
51.6707 12.0234 -2.6477 0.0498 0 7
51.4707 12.8526 -2.6477 0.0498 0 7
51.2574 13.6785 -2.6477 0.0498 0 7
51.0308 14.5008 -2.6477 0.0498 0 7
50.7911 15.3194 -2.6477 0.0498 0 7
50.5382 16.1340 -2.6477 0.0498 0 7
50.2723 16.9445 -2.6477 0.0498 0 7
49.9934 17.7506 -2.6477 0.0498 0 7
49.7015 18.5521 -2.6477 0.0498 0 6
48.7010 19.0762 -2.6104 0.3647 0 8
46.5187 19.0896 -2.5095 0.3015 0 8
46.0835 19.7827 -2.5029 0.0498 0 14
45.7594 20.5210 -2.5029 0.0498 0 14
45.4236 21.2541 -2.5029 0.0498 0 14
45.0760 21.9817 -2.5029 0.0498 0 14
47.3034 24.0169 -2.6477 0.0498 0 7
46.9111 24.7743 -2.6477 0.0498 0 7
46.5067 25.5253 -2.6477 0.0498 0 7
46.0903 26.2698 -2.6477 0.0498 0 7
45.6620 27.0074 -2.6477 0.0498 0 7
45.2219 27.7381 -2.6477 0.0498 0 7
44.7700 28.4616 -2.6477 0.0498 0 7
44.3066 29.1777 -2.6477 0.0498 0 7
43.8318 29.8863 -2.6477 0.0498 0 7
43.3456 30.5872 -2.6477 0.0498 0 7
42.8482 31.2801 -2.6477 0.0498 0 7
42.3398 31.9650 -2.6477 0.0498 0 7
41.8204 32.6416 -2.6477 0.0498 0 7
41.2902 33.3098 -2.6477 0.0498 0 7
40.7493 33.9693 -2.6477 0.0498 0 6
40.1978 34.6201 -2.6477 0.0498 0 7
39.6360 35.2620 -2.6477 0.0498 0 6
39.0639 35.8947 -2.6477 0.0498 0 7
38.4818 36.5181 -2.6477 0.0498 0 7
37.8897 37.1321 -2.6477 0.0498 0 7
37.2878 37.7365 -2.6477 0.0498 0 7
36.6762 38.3311 -2.6477 0.0498 0 7
33.9799 36.6758 -2.4953 0.0498 0 8
33.3858 37.2174 -2.4953 0.0498 0 8
32.7831 37.7494 -2.4953 0.0498 0 8
32.1719 38.2716 -2.4953 0.0498 0 8
31.5525 38.7839 -2.4953 0.0498 0 8
30.9248 39.2862 -2.4953 0.0498 0 8
30.2891 39.7783 -2.4953 0.0498 0 8
29.6457 40.2602 -2.4953 0.0498 0 8
28.9945 40.7316 -2.4953 0.0498 0 8
28.3359 41.1925 -2.4953 0.0498 0 8
27.6700 41.6428 -2.4953 0.0498 0 8
26.9968 42.0823 -2.4953 0.0498 0 8
26.3167 42.5109 -2.4953 0.0498 0 8
25.6298 42.9285 -2.4953 0.0498 0 8
24.9363 43.3351 -2.4953 0.0498 0 8
24.2363 43.7304 -2.4953 0.0498 0 8
23.5301 44.1144 -2.4953 0.0498 0 8
22.8178 44.4870 -2.4953 0.0498 0 8
22.0996 44.8481 -2.4953 0.0498 0 8
21.3757 45.1977 -2.4953 0.0498 0 8
20.6462 45.5355 -2.4953 0.0498 0 8
19.9114 45.8616 -2.4953 0.0498 0 8
19.1715 46.1758 -2.4953 0.0498 0 8
18.4266 46.4781 -2.4953 0.0498 0 8
17.6770 46.7683 -2.4953 0.0498 0 8
16.9227 47.0465 -2.4953 0.0498 0 8
16.1641 47.3125 -2.4953 0.0498 0 8
15.4013 47.5663 -2.4953 0.0498 0 8
14.6346 47.8077 -2.4953 0.0498 0 8
13.8640 48.0368 -2.4953 0.0498 0 8
13.0899 48.2535 -2.4953 0.0498 0 8
12.3124 48.4577 -2.4953 0.0498 0 8
11.5317 48.6494 -2.4953 0.0498 0 8
10.7480 48.8286 -2.4953 0.0498 0 8
9.9616 48.9950 -2.4953 0.0498 0 8
9.1725 49.1489 -2.4953 0.0498 0 8
8.3811 49.2900 -2.4953 0.0498 0 8
7.5875 49.4184 -2.4953 0.0498 0 8
6.7920 49.5340 -2.4953 0.0498 0 8
5.9947 49.6368 -2.4953 0.0498 0 8
5.1959 49.7268 -2.4953 0.0498 0 8
4.3957 49.8039 -2.4953 0.0498 0 8
3.5944 49.8681 -2.4953 0.0498 0 8
2.7921 49.9195 -2.4953 0.0498 0 8
1.9892 49.9579 -2.4953 0.0498 0 8
1.1857 49.9834 -2.4953 0.0498 0 8
0.3819 49.9960 -2.4953 0.0498 0 8
-0.4220 49.9957 -2.4953 0.0498 0 8
-1.2258 49.9824 -2.4953 0.0498 0 8
-2.0292 49.9563 -2.4953 0.0498 0 8
-2.8321 49.9172 -2.4953 0.0498 0 8
-3.6343 49.8652 -2.4953 0.0498 0 8
37.3694 -20.9519 -2.4953 0.0581 0 8
37.7014 -20.3483 -2.4953 0.0581 0 8
38.0237 -19.7396 -2.4953 0.0581 0 8
38.3362 -19.1256 -2.4953 0.0581 0 8
38.6387 -18.5068 -2.4953 0.0581 0 8
38.9313 -17.8832 -2.4953 0.0581 0 8
39.2138 -17.2549 -2.4953 0.0581 0 8
39.4861 -16.6223 -2.4953 0.0581 0 8
39.7483 -15.9851 -2.4953 0.0581 0 8
40.0002 -15.3440 -2.4953 0.0581 0 8
40.2417 -14.6989 -2.4953 0.0581 0 8
40.4728 -14.0501 -2.4953 0.0581 0 8
40.6935 -13.3976 -2.4953 0.0581 0 8
40.9036 -12.7416 -2.4953 0.0581 0 8
41.1032 -12.0822 -2.4953 0.0581 0 8
41.2922 -11.4198 -2.4953 0.0581 0 8
41.4704 -10.7544 -2.4953 0.0581 0 8
41.6380 -10.0862 -2.4953 0.0581 0 8
41.7948 -9.4155 -2.4953 0.0581 0 8
41.9407 -8.7423 -2.4953 0.0581 0 8
42.0759 -8.0668 -2.4953 0.0581 0 8
42.2001 -7.3893 -2.4953 0.0581 0 8
42.3135 -6.7099 -2.4953 0.0581 0 8
42.4159 -6.0286 -2.4953 0.0581 0 8
42.5073 -5.3459 -2.4953 0.0581 0 8
42.5878 -4.6617 -2.4953 0.0581 0 8
42.6572 -3.9765 -2.4953 0.0581 0 8
42.7157 -3.2901 -2.4953 0.0581 0 8
42.7630 -2.6029 -2.4953 0.0581 0 8
42.7994 -1.9150 -2.4953 0.0581 0 8
42.8246 -1.2266 -2.4953 0.0581 0 8
42.8388 -0.5380 -2.4953 0.0581 0 8
42.8419 0.1509 -2.4953 0.0581 0 8
42.8340 0.8397 -2.4953 0.0581 0 8
42.8149 1.5282 -2.4953 0.0581 0 8
42.7848 2.2164 -2.4953 0.0581 0 8
42.7436 2.9040 -2.4953 0.0581 0 8
42.6914 3.5909 -2.4953 0.0581 0 8
42.6282 4.2768 -2.4953 0.0581 0 8
42.5539 4.9617 -2.4953 0.0581 0 8
42.4686 5.6452 -2.4953 0.0581 0 8
42.3724 6.3273 -2.4953 0.0581 0 8
42.2652 7.0077 -2.4953 0.0581 0 8
42.1470 7.6864 -2.4953 0.0581 0 8
42.0180 8.3630 -2.4953 0.0581 0 8
44.4359 9.5895 -2.6477 0.0581 0 7
44.2759 10.3027 -2.6477 0.0581 0 7
44.1046 11.0132 -2.6477 0.0581 0 7
43.9218 11.7209 -2.6477 0.0581 0 7
43.7276 12.4256 -2.6477 0.0581 0 7
43.5222 13.1270 -2.6477 0.0581 0 7
43.3055 13.8251 -2.6477 0.0581 0 7
43.0777 14.5195 -2.6477 0.0581 0 7
42.8387 15.2102 -2.6477 0.0581 0 7
42.5886 15.8970 -2.6477 0.0581 0 7
42.3275 16.5797 -2.6477 0.0581 0 7
42.0554 17.2581 -2.6477 0.0581 0 7
41.7725 17.9321 -2.6477 0.0581 0 7
41.4788 18.6014 -2.6477 0.0581 0 6
40.7186 19.0526 -2.6184 0.4241 0 8
39.0926 19.0638 -2.5332 0.4384 0 8
38.3172 19.4544 -2.5029 0.0581 0 14
37.9994 20.0679 -2.5029 0.0581 0 14
37.6719 20.6763 -2.5029 0.0581 0 14
37.3346 21.2793 -2.5029 0.0581 0 14
36.9876 21.8769 -2.5029 0.0581 0 14
36.6311 22.4687 -2.5029 0.0581 0 8
38.3629 24.3884 -2.6477 0.0581 0 7
37.9658 25.0020 -2.6477 0.0581 0 7
37.5589 25.6092 -2.6477 0.0581 0 7
37.1423 26.2098 -2.6477 0.0581 0 7
36.7161 26.8035 -2.6477 0.0581 0 7
36.2804 27.3904 -2.6477 0.0581 0 7
35.8354 27.9702 -2.6477 0.0581 0 7
35.3810 28.5427 -2.6477 0.0581 0 7
34.9175 29.1079 -2.6477 0.0581 0 7
34.4450 29.6655 -2.6477 0.0581 0 7
33.9636 30.2155 -2.6477 0.0581 0 7
33.4734 30.7577 -2.6477 0.0581 0 7
32.9745 31.2919 -2.6477 0.0581 0 7
32.4672 31.8180 -2.6477 0.0581 0 7
31.9514 32.3359 -2.6477 0.0581 0 7
31.4274 32.8454 -2.6477 0.0581 0 7
30.8778 33.3276 -2.6462 0.0645 0 8
29.9230 33.3572 -2.6100 0.5126 0 8
28.7303 33.0826 -2.5520 0.6326 0 8
27.7350 32.9935 -2.5104 0.7386 0 8
27.0368 33.2334 -2.4953 0.0581 0 8
26.4990 33.6638 -2.4953 0.0581 0 8
25.9544 34.0855 -2.4953 0.0581 0 8
25.4030 34.4984 -2.4953 0.0581 0 8
24.8450 34.9024 -2.4953 0.0581 0 8
24.2807 35.2973 -2.4953 0.0581 0 8
23.7100 35.6832 -2.4953 0.0581 0 8
23.1332 36.0597 -2.4953 0.0581 0 8
22.5505 36.4270 -2.4953 0.0581 0 8
21.9619 36.7849 -2.4953 0.0581 0 8
21.3676 37.1333 -2.4953 0.0581 0 8
20.7678 37.4720 -2.4953 0.0581 0 8
20.1627 37.8011 -2.4953 0.0581 0 8
19.5523 38.1203 -2.4953 0.0581 0 8
18.9368 38.4298 -2.4953 0.0581 0 8
18.3165 38.7293 -2.4953 0.0581 0 8
17.6915 39.0188 -2.4953 0.0581 0 8
17.0618 39.2982 -2.4953 0.0581 0 8
16.4278 39.5674 -2.4953 0.0581 0 8
15.7895 39.8264 -2.4953 0.0581 0 8
15.1471 40.0751 -2.4953 0.0581 0 8
14.5008 40.3135 -2.4953 0.0581 0 8
13.8508 40.5414 -2.4953 0.0581 0 8
13.1972 40.7589 -2.4953 0.0581 0 8
12.5402 40.9658 -2.4953 0.0581 0 8
11.8799 41.1621 -2.4953 0.0581 0 8
11.2166 41.3478 -2.4953 0.0581 0 8
10.5503 41.5228 -2.4953 0.0581 0 8
9.8814 41.6871 -2.4953 0.0581 0 8
9.2098 41.8405 -2.4953 0.0581 0 8
8.5359 41.9832 -2.4953 0.0581 0 8
7.8598 42.1150 -2.4953 0.0581 0 8
7.1817 42.2360 -2.4953 0.0581 0 8
6.5017 42.3460 -2.4953 0.0581 0 8
5.8200 42.4450 -2.4953 0.0581 0 8
5.1368 42.5331 -2.4953 0.0581 0 8
4.4523 42.6102 -2.4953 0.0581 0 8
3.7666 42.6763 -2.4953 0.0581 0 8
3.0800 42.7313 -2.4953 0.0581 0 8
2.3926 42.7753 -2.4953 0.0581 0 8
1.7045 42.8083 -2.4953 0.0581 0 8
1.0160 42.8301 -2.4953 0.0581 0 8
0.3272 42.8409 -2.4953 0.0581 0 8
-0.3616 42.8407 -2.4953 0.0581 0 8
-1.0503 42.8293 -2.4953 0.0581 0 8
-1.7388 42.8069 -2.4953 0.0581 0 8
-2.4268 42.7734 -2.4953 0.0581 0 8
-3.1142 42.7289 -2.4953 0.0581 0 8
32.6869 -18.3265 -2.4953 0.0664 0 8
32.9773 -17.7986 -2.4953 0.0664 0 8
33.2592 -17.2661 -2.4953 0.0664 0 8
33.5325 -16.7291 -2.4953 0.0664 0 8
33.7972 -16.1878 -2.4953 0.0664 0 8
34.0531 -15.6423 -2.4953 0.0664 0 8
34.3002 -15.0928 -2.4953 0.0664 0 8
34.5384 -14.5394 -2.4953 0.0664 0 8
34.7677 -13.9822 -2.4953 0.0664 0 8
34.9880 -13.4214 -2.4953 0.0664 0 8
35.1993 -12.8571 -2.4953 0.0664 0 8
35.4014 -12.2895 -2.4953 0.0664 0 8
35.5944 -11.7188 -2.4953 0.0664 0 8
35.7780 -11.1463 -2.4953 0.0664 0 8
35.9528 -10.5683 -2.4953 0.0664 0 8
36.1181 -9.9889 -2.4953 0.0664 0 8
36.2740 -9.4069 -2.4953 0.0664 0 8
36.4206 -8.8224 -2.4953 0.0664 0 8
36.5577 -8.2357 -2.4953 0.0664 0 8
36.6854 -7.6469 -2.4953 0.0664 0 8
36.8036 -7.0561 -2.4953 0.0664 0 8
36.9123 -6.4634 -2.4953 0.0664 0 8
37.0114 -5.8691 -2.4953 0.0664 0 8
37.1010 -5.2733 -2.4953 0.0664 0 8
37.1810 -4.6761 -2.4953 0.0664 0 8
37.2514 -4.0777 -2.4953 0.0664 0 8
37.3121 -3.4782 -2.4953 0.0664 0 8
37.3632 -2.8779 -2.4953 0.0664 0 8
37.4047 -2.2768 -2.4953 0.0664 0 8
37.4364 -1.6751 -2.4953 0.0664 0 8
37.4585 -1.0730 -2.4953 0.0664 0 8
37.4709 -0.4706 -2.4953 0.0664 0 8
37.4737 0.1320 -2.4953 0.0664 0 8
37.4667 0.7344 -2.4953 0.0664 0 8
37.4501 1.3367 -2.4953 0.0664 0 8
37.4237 1.9387 -2.4953 0.0664 0 8
37.3877 2.5401 -2.4953 0.0664 0 8
37.3420 3.1409 -2.4953 0.0664 0 8
37.2867 3.7409 -2.4953 0.0664 0 8
37.2217 4.3399 -2.4953 0.0664 0 8
37.1472 4.9378 -2.4953 0.0664 0 8
37.0630 5.5344 -2.4953 0.0664 0 8
36.9692 6.1296 -2.4953 0.0664 0 8
36.8659 6.7232 -2.4953 0.0664 0 8
36.7530 7.3151 -2.4953 0.0664 0 8
36.6306 7.9051 -2.4953 0.0664 0 8
36.4988 8.4930 -2.4953 0.0664 0 8
38.5781 9.6332 -2.6477 0.0664 0 7
38.4182 10.2522 -2.6477 0.0664 0 7
38.2484 10.8686 -2.6477 0.0664 0 7
38.0687 11.4821 -2.6477 0.0664 0 6
37.8792 12.0927 -2.6477 0.0664 0 7
37.6799 12.7002 -2.6477 0.0664 0 7
37.4708 13.3043 -2.6477 0.0664 0 7
37.2521 13.9051 -2.6477 0.0664 0 7
37.0237 14.5022 -2.6477 0.0664 0 7
36.7857 15.0956 -2.6477 0.0664 0 7
36.5383 15.6851 -2.6477 0.0664 0 7
36.2814 16.2705 -2.6477 0.0664 0 7
36.0151 16.8518 -2.6477 0.0664 0 7
35.7395 17.4286 -2.6477 0.0664 0 7
35.4546 18.0010 -2.6477 0.0664 0 7
35.1607 18.5687 -2.6477 0.0664 0 6
34.6776 19.0329 -2.6340 0.4818 0 8
33.4108 19.0429 -2.5607 0.4956 0 8
32.3529 19.1356 -2.5029 0.0664 0 8
32.0411 19.6533 -2.5029 0.0664 0 14
31.7210 20.1659 -2.5029 0.0664 0 14
31.3926 20.6733 -2.5029 0.0664 0 14
31.0562 21.1754 -2.5029 0.0664 0 14
30.7117 21.6720 -2.5029 0.0664 0 14
30.3593 22.1629 -2.5029 0.0664 0 14
31.7344 23.9583 -2.6477 0.0664 0 7
31.3451 24.4654 -2.6477 0.0664 0 7
30.9476 24.9662 -2.6477 0.0664 0 7
30.5422 25.4606 -2.6477 0.0664 0 7
30.1289 25.9483 -2.6477 0.0664 0 7
29.7078 26.4294 -2.6477 0.0664 0 7
29.2790 26.9036 -2.6477 0.0664 0 7
28.8427 27.3709 -2.6477 0.0664 0 7
28.3989 27.8311 -2.6477 0.0664 0 7
27.9478 28.2841 -2.6477 0.0664 0 7
27.4894 28.7298 -2.6477 0.0664 0 7
27.0240 29.1680 -2.6477 0.0664 0 7
26.5515 29.5988 -2.6477 0.0664 0 7
26.0722 30.0218 -2.6477 0.0664 0 6
25.5861 30.4371 -2.6477 0.0664 0 7
25.0934 30.8446 -2.6477 0.0664 0 7
24.5942 31.2441 -2.6477 0.0664 0 7
24.0887 31.6354 -2.6477 0.0664 0 7
23.5770 32.0186 -2.6477 0.0664 0 7
23.0591 32.3936 -2.6477 0.0664 0 7
22.5039 32.7144 -2.6440 0.0803 0 8
21.8910 32.9456 -2.6339 0.8278 0 8
21.1373 32.9486 -2.6066 0.8364 0 8
20.3988 32.9513 -2.5805 0.8449 0 8
19.6747 32.9539 -2.5556 0.8531 0 8
18.9641 32.9564 -2.5318 0.8611 0 8
18.2664 32.9586 -2.5091 0.8689 0 8
17.6362 33.0645 -2.4953 0.0664 0 8
17.1023 33.3437 -2.4953 0.0664 0 8
16.5640 33.6144 -2.4953 0.0664 0 8
16.0214 33.8764 -2.4953 0.0664 0 8
15.4747 34.1296 -2.4953 0.0664 0 8
14.9239 34.3740 -2.4953 0.0664 0 8
14.3693 34.6095 -2.4953 0.0664 0 8
13.8110 34.8360 -2.4953 0.0664 0 8
13.2492 35.0536 -2.4953 0.0664 0 8
12.6838 35.2621 -2.4953 0.0664 0 8
12.1153 35.4614 -2.4953 0.0664 0 8
11.5436 35.6516 -2.4953 0.0664 0 8
10.9689 35.8326 -2.4953 0.0664 0 8
10.3913 36.0044 -2.4953 0.0664 0 8
9.8111 36.1668 -2.4953 0.0664 0 8
9.2283 36.3198 -2.4953 0.0664 0 8
8.6432 36.4635 -2.4953 0.0664 0 8
8.0558 36.5978 -2.4953 0.0664 0 8
7.4663 36.7226 -2.4953 0.0664 0 8
6.8750 36.8379 -2.4953 0.0664 0 8
6.2818 36.9436 -2.4953 0.0664 0 8
5.6870 37.0399 -2.4953 0.0664 0 8
5.0907 37.1265 -2.4953 0.0664 0 8
4.4931 37.2036 -2.4953 0.0664 0 8
3.8944 37.2710 -2.4953 0.0664 0 8
3.2947 37.3288 -2.4953 0.0664 0 8
2.6940 37.3769 -2.4953 0.0664 0 8
2.0928 37.4154 -2.4953 0.0664 0 8
1.4909 37.4442 -2.4953 0.0664 0 8
0.8887 37.4634 -2.4953 0.0664 0 8
0.2862 37.4728 -2.4953 0.0664 0 8
-0.3163 37.4726 -2.4953 0.0664 0 8
-0.9187 37.4626 -2.4953 0.0664 0 8
-1.5209 37.4430 -2.4953 0.0664 0 8
-2.1227 37.4137 -2.4953 0.0664 0 8
-2.7240 37.3748 -2.4953 0.0664 0 8
29.0436 -16.2839 -2.4953 0.0747 0 8
29.3017 -15.8148 -2.4953 0.0747 0 8
29.5522 -15.3416 -2.4953 0.0747 0 8
29.7950 -14.8645 -2.4953 0.0747 0 8
30.0302 -14.3835 -2.4953 0.0747 0 8
30.2575 -13.8989 -2.4953 0.0747 0 8
30.4771 -13.4106 -2.4953 0.0747 0 8
30.6888 -12.9188 -2.4953 0.0747 0 8
30.8925 -12.4238 -2.4953 0.0747 0 8
31.0883 -11.9255 -2.4953 0.0747 0 8
31.2760 -11.4241 -2.4953 0.0747 0 8
31.4556 -10.9198 -2.4953 0.0747 0 8
31.6271 -10.4126 -2.4953 0.0747 0 8
31.7904 -9.9028 -2.4953 0.0747 0 8
31.9455 -9.3904 -2.4953 0.0747 0 8
32.0924 -8.8755 -2.4953 0.0747 0 8
32.2309 -8.3584 -2.4953 0.0747 0 8
32.3612 -7.8391 -2.4953 0.0747 0 8
32.4830 -7.3178 -2.4953 0.0747 0 8
32.5965 -6.7946 -2.4953 0.0747 0 8
32.7015 -6.2696 -2.4953 0.0747 0 8
32.7981 -5.7430 -2.4953 0.0747 0 8
32.8862 -5.2149 -2.4953 0.0747 0 8
32.9658 -4.6855 -2.4953 0.0747 0 8
33.0369 -4.1549 -2.4953 0.0747 0 8
33.0994 -3.6232 -2.4953 0.0747 0 8
33.1534 -3.0905 -2.4953 0.0747 0 8
33.1988 -2.5571 -2.4953 0.0747 0 8
33.2356 -2.0230 -2.4953 0.0747 0 8
33.2638 -1.4884 -2.4953 0.0747 0 8
33.2834 -0.9534 -2.4953 0.0747 0 8
33.2945 -0.4181 -2.4953 0.0747 0 8
33.2969 0.1173 -2.4953 0.0747 0 8
33.2907 0.6526 -2.4953 0.0747 0 8
33.2759 1.1878 -2.4953 0.0747 0 8
33.2525 1.7226 -2.4953 0.0747 0 8
33.2205 2.2570 -2.4953 0.0747 0 8
33.1799 2.7908 -2.4953 0.0747 0 8
33.1308 3.3240 -2.4953 0.0747 0 8
33.0730 3.8562 -2.4953 0.0747 0 8
33.0068 4.3875 -2.4953 0.0747 0 8
32.9320 4.9176 -2.4953 0.0747 0 8
32.8486 5.4464 -2.4953 0.0747 0 8
32.7568 5.9739 -2.4953 0.0747 0 8
32.6565 6.4998 -2.4953 0.0747 0 8
32.5478 7.0240 -2.4953 0.0747 0 8
32.4307 7.5464 -2.4953 0.0747 0 8
32.3052 8.0668 -2.4953 0.0747 0 8
34.1362 9.1095 -2.6477 0.0747 0 7
33.9853 9.6572 -2.6477 0.0747 0 7
33.8256 10.2024 -2.6477 0.0747 0 7
33.6572 10.7449 -2.6477 0.0747 0 7
33.4801 11.2846 -2.6477 0.0747 0 7
33.2944 11.8215 -2.6477 0.0747 0 7
33.1000 12.3552 -2.6477 0.0747 0 7
32.8971 12.8858 -2.6477 0.0747 0 7
32.6856 13.4131 -2.6477 0.0747 0 7
32.4657 13.9369 -2.6477 0.0747 0 7
32.2375 14.4570 -2.6477 0.0747 0 7
32.0009 14.9735 -2.6477 0.0747 0 7
31.7560 15.4861 -2.6477 0.0747 0 7
31.5029 15.9946 -2.6477 0.0747 0 7
31.2417 16.4991 -2.6477 0.0747 0 7
30.9723 16.9993 -2.6477 0.0747 0 7
30.6950 17.4950 -2.6477 0.0747 0 7
30.4098 17.9863 -2.6477 0.0747 0 7
30.1167 18.4729 -2.6477 0.0747 0 6
29.8158 18.9547 -2.6477 0.0747 0 7
28.8889 19.0245 -2.5922 0.5506 0 8
27.9142 19.0330 -2.5319 0.5637 0 8
27.2886 19.2564 -2.5029 0.0747 0 14
26.9755 19.6927 -2.5029 0.0747 0 14
26.6554 20.1238 -2.5029 0.0747 0 14
26.3284 20.5498 -2.5029 0.0747 0 14
25.9946 20.9705 -2.5029 0.0747 0 14
25.6541 21.3857 -2.5029 0.0747 0 14
25.3069 21.7954 -2.5029 0.0747 0 14
24.9532 22.1995 -2.5029 0.0747 0 14
26.0156 23.9050 -2.6477 0.0747 0 7
25.6279 24.3202 -2.6477 0.0747 0 7
25.2336 24.7290 -2.6477 0.0747 0 7
24.8327 25.1316 -2.6477 0.0747 0 7
24.4255 25.5276 -2.6477 0.0747 0 7
24.0119 25.9170 -2.6477 0.0747 0 7
23.5921 26.2997 -2.6477 0.0747 0 7
23.1662 26.6756 -2.6477 0.0747 0 7
22.7343 27.0446 -2.6477 0.0747 0 7
22.2965 27.4067 -2.6477 0.0747 0 7
21.8530 27.7616 -2.6477 0.0747 0 7
21.4038 28.1094 -2.6477 0.0747 0 7
20.9491 28.4499 -2.6477 0.0747 0 7
20.4890 28.7830 -2.6477 0.0747 0 7
20.0236 29.1087 -2.6477 0.0747 0 7
19.5530 29.4267 -2.6477 0.0747 0 7
19.0773 29.7375 -2.6477 0.0747 0 7
18.5967 30.0403 -2.6477 0.0747 0 6
18.1113 30.3355 -2.6477 0.0747 0 7
17.6213 30.6227 -2.6477 0.0747 0 7
17.1266 30.9021 -2.6477 0.0747 0 7
16.6276 31.1735 -2.6477 0.0747 0 7
16.1242 31.4368 -2.6477 0.0747 0 7
15.6167 31.6920 -2.6477 0.0747 0 7
15.1051 31.9389 -2.6477 0.0747 0 7
14.5896 32.1777 -2.6477 0.0747 0 7
14.0704 32.4081 -2.6477 0.0747 0 7
13.5362 32.6027 -2.6454 0.0903 0 8
12.9954 32.7788 -2.6424 0.0904 0 8
12.4422 32.9187 -2.6372 0.9298 0 8
11.8413 32.9199 -2.6217 0.9353 0 8
11.2473 32.9210 -2.6071 0.9406 0 8
10.6597 32.9219 -2.5933 0.9456 0 8
10.0781 32.9227 -2.5802 0.9504 0 8
9.5021 32.9234 -2.5680 0.9549 0 8
8.9314 32.9239 -2.5565 0.9592 0 8
8.3656 32.9243 -2.5457 0.9633 0 8
7.8043 32.9246 -2.5357 0.9671 0 8
7.2473 32.9248 -2.5264 0.9706 0 8
6.6942 32.9249 -2.5179 0.9739 0 8
6.1447 32.9248 -2.5100 0.9770 0 8
5.5984 32.9247 -2.5028 0.7476 0 8
5.0559 32.9293 -2.4966 0.7494 0 8
4.5233 32.9884 -2.4953 0.0747 0 8
3.9923 33.0569 -2.4953 0.0747 0 8
3.4603 33.1168 -2.4953 0.0747 0 8
2.9274 33.1682 -2.4953 0.0747 0 8
2.3938 33.2109 -2.4953 0.0747 0 8
1.8595 33.2451 -2.4953 0.0747 0 8
1.3248 33.2707 -2.4953 0.0747 0 8
0.7896 33.2877 -2.4953 0.0747 0 8
0.2543 33.2961 -2.4953 0.0747 0 8
-0.2810 33.2959 -2.4953 0.0747 0 8
-0.8163 33.2871 -2.4953 0.0747 0 8
-1.3514 33.2697 -2.4953 0.0747 0 8
-1.8861 33.2436 -2.4953 0.0747 0 8
-2.4204 33.2090 -2.4953 0.0747 0 8
26.1278 -14.6490 -2.4953 0.0830 0 8
26.3599 -14.2271 -2.4953 0.0830 0 8
26.5853 -13.8014 -2.4953 0.0830 0 8
26.8037 -13.3722 -2.4953 0.0830 0 8
27.0153 -12.9395 -2.4953 0.0830 0 8
27.2198 -12.5035 -2.4953 0.0830 0 8
27.4173 -12.0642 -2.4953 0.0830 0 8
27.6077 -11.6218 -2.4953 0.0830 0 8
27.7910 -11.1765 -2.4953 0.0830 0 8
27.9671 -10.7282 -2.4953 0.0830 0 8
28.1360 -10.2772 -2.4953 0.0830 0 8
28.2976 -9.8235 -2.4953 0.0830 0 8
28.4519 -9.3672 -2.4953 0.0830 0 8
28.5988 -8.9085 -2.4953 0.0830 0 8
28.7384 -8.4476 -2.4953 0.0830 0 8
28.8705 -7.9845 -2.4953 0.0830 0 8
28.9951 -7.5192 -2.4953 0.0830 0 8
29.1123 -7.0521 -2.4953 0.0830 0 8
29.2219 -6.5831 -2.4953 0.0830 0 8
29.3239 -6.1124 -2.4953 0.0830 0 8
29.4184 -5.6402 -2.4953 0.0830 0 8
29.5053 -5.1664 -2.4953 0.0830 0 8
29.5846 -4.6914 -2.4953 0.0830 0 8
29.6562 -4.2151 -2.4953 0.0830 0 8
29.7201 -3.7378 -2.4953 0.0830 0 8
29.7764 -3.2594 -2.4953 0.0830 0 8
29.8249 -2.7803 -2.4953 0.0830 0 8
29.8658 -2.3004 -2.4953 0.0830 0 8
29.8989 -1.8199 -2.4953 0.0830 0 8
29.9243 -1.3389 -2.4953 0.0830 0 8
29.9419 -0.8576 -2.4953 0.0830 0 8
29.9519 -0.3761 -2.4953 0.0830 0 8
29.9540 0.1055 -2.4953 0.0830 0 8
29.9485 0.5871 -2.4953 0.0830 0 8
29.9352 1.0685 -2.4953 0.0830 0 8
29.9141 1.5497 -2.4953 0.0830 0 8
29.8853 2.0304 -2.4953 0.0830 0 8
29.8488 2.5107 -2.4953 0.0830 0 8
29.8046 2.9902 -2.4953 0.0830 0 8
29.7527 3.4691 -2.4953 0.0830 0 8
29.6930 3.9470 -2.4953 0.0830 0 8
29.6257 4.4239 -2.4953 0.0830 0 8
29.5508 4.8996 -2.4953 0.0830 0 8
29.4682 5.3741 -2.4953 0.0830 0 8
29.3780 5.8472 -2.4953 0.0830 0 8
29.2802 6.3188 -2.4953 0.0830 0 8
29.1748 6.7887 -2.4953 0.0830 0 8
29.0619 7.2569 -2.4953 0.0830 0 8
28.9414 7.7233 -2.4953 0.0830 0 8
28.8135 8.1876 -2.4953 0.0830 0 8
30.4297 9.1781 -2.6477 0.0830 0 7
30.2782 9.6661 -2.6477 0.0830 0 7
30.1189 10.1517 -2.6477 0.0830 0 7
29.9517 10.6346 -2.6477 0.0830 0 7
29.7769 11.1148 -2.6477 0.0830 0 7
29.5943 11.5921 -2.6477 0.0830 0 7
29.4041 12.0665 -2.6477 0.0830 0 7
29.2063 12.5377 -2.6477 0.0830 0 7
29.0010 13.0056 -2.6477 0.0830 0 7
28.7881 13.4702 -2.6477 0.0830 0 7
28.5678 13.9313 -2.6477 0.0830 0 7
28.3401 14.3889 -2.6477 0.0830 0 7
28.1051 14.8426 -2.6477 0.0830 0 7
27.8629 15.2926 -2.6477 0.0830 0 7
27.6134 15.7386 -2.6477 0.0830 0 7
27.3568 16.1805 -2.6477 0.0830 0 7
27.0931 16.6183 -2.6477 0.0830 0 7
26.8224 17.0518 -2.6477 0.0830 0 7
26.5448 17.4808 -2.6477 0.0830 0 7
26.2603 17.9053 -2.6477 0.0830 0 7
25.9690 18.3252 -2.6477 0.0830 0 7
25.6710 18.7404 -2.6477 0.0830 0 7
25.1769 19.0076 -2.6279 0.6034 0 8
24.3623 19.0153 -2.5745 0.6159 0 8
23.5799 19.0225 -2.5238 0.6282 0 8
23.0785 19.2387 -2.5029 0.0830 0 14
22.7662 19.6072 -2.5029 0.0830 0 14
22.4480 19.9707 -2.5029 0.0830 0 14
22.1240 20.3291 -2.5029 0.0830 0 14
21.7943 20.6822 -2.5029 0.0830 0 14
21.4590 21.0299 -2.5029 0.0830 0 14
21.1181 21.3722 -2.5029 0.0830 0 14
20.7717 21.7090 -2.5029 0.0830 0 14
20.4200 22.0401 -2.5029 0.0830 0 14
20.0630 22.3656 -2.5029 0.0830 0 8
20.8404 23.9975 -2.6477 0.0830 0 7
20.4519 24.3295 -2.6477 0.0830 0 7
20.0581 24.6552 -2.6477 0.0830 0 7
19.6590 24.9745 -2.6477 0.0830 0 7
19.2550 25.2873 -2.6477 0.0830 0 7
18.8459 25.5936 -2.6477 0.0830 0 7
18.4320 25.8933 -2.6477 0.0830 0 7
18.0133 26.1863 -2.6477 0.0830 0 7
17.5899 26.4726 -2.6477 0.0830 0 7
17.1620 26.7520 -2.6477 0.0830 0 7
16.7297 27.0244 -2.6477 0.0830 0 7
16.2930 27.2899 -2.6477 0.0830 0 7
15.8522 27.5484 -2.6477 0.0830 0 7
15.4072 27.7997 -2.6477 0.0830 0 7
14.9582 28.0438 -2.6477 0.0830 0 7
14.5054 28.2807 -2.6477 0.0830 0 7
14.0488 28.5102 -2.6477 0.0830 0 7
13.5886 28.7324 -2.6477 0.0830 0 7
13.1249 28.9472 -2.6477 0.0830 0 7
12.6578 29.1545 -2.6477 0.0830 0 7
12.1874 29.3542 -2.6477 0.0830 0 7
11.7139 29.5464 -2.6477 0.0830 0 7
11.2373 29.7309 -2.6477 0.0830 0 7
10.7579 29.9077 -2.6477 0.0830 0 6
10.2756 30.0768 -2.6477 0.0830 0 7
9.7907 30.2381 -2.6477 0.0830 0 7
9.3033 30.3916 -2.6477 0.0830 0 7
8.8134 30.5373 -2.6477 0.0830 0 7
8.3213 30.6750 -2.6477 0.0830 0 7
7.8271 30.8049 -2.6477 0.0830 0 7
7.3308 30.9267 -2.6477 0.0830 0 7
6.8326 31.0406 -2.6477 0.0830 0 7
6.3326 31.1464 -2.6477 0.0830 0 7
5.8310 31.2442 -2.6477 0.0830 0 7
5.3279 31.3339 -2.6477 0.0830 0 7
4.8235 31.4156 -2.6477 0.0830 0 7
4.3177 31.4890 -2.6477 0.0830 0 7
3.8109 31.5544 -2.6477 0.0830 0 7
3.3031 31.6116 -2.6477 0.0830 0 7
2.7944 31.6606 -2.6477 0.0830 0 7
2.2850 31.7014 -2.6477 0.0830 0 7
1.7750 31.7341 -2.6477 0.0830 0 7
1.2645 31.7585 -2.6477 0.0830 0 7
0.7538 31.7747 -2.6477 0.0830 0 7
0.2428 31.7828 -2.6477 0.0830 0 7
-0.2682 31.7826 -2.6477 0.0830 0 7
-0.7792 31.7741 -2.6477 0.0830 0 7
-1.2900 31.7575 -2.6477 0.0830 0 7
-1.8004 31.7327 -2.6477 0.0830 0 7
-2.3104 31.6996 -2.6477 0.0830 0 7
23.7410 -13.3109 -2.4953 0.0913 0 8
23.9520 -12.9274 -2.4953 0.0913 0 8
24.1567 -12.5407 -2.4953 0.0913 0 8
24.3552 -12.1506 -2.4953 0.0913 0 8
24.5474 -11.7575 -2.4953 0.0913 0 8
24.7333 -11.3613 -2.4953 0.0913 0 8
24.9128 -10.9622 -2.4953 0.0913 0 8
25.0858 -10.5602 -2.4953 0.0913 0 8
25.2523 -10.1555 -2.4953 0.0913 0 8
25.4124 -9.7482 -2.4953 0.0913 0 8
25.5658 -9.3383 -2.4953 0.0913 0 8
25.7126 -8.9261 -2.4953 0.0913 0 8
25.8528 -8.5115 -2.4953 0.0913 0 8
25.9863 -8.0948 -2.4953 0.0913 0 8
26.1131 -7.6759 -2.4953 0.0913 0 8
26.2332 -7.2551 -2.4953 0.0913 0 8
26.3464 -6.8324 -2.4953 0.0913 0 8
26.4529 -6.4079 -2.4953 0.0913 0 8
26.5525 -5.9817 -2.4953 0.0913 0 8
26.6452 -5.5541 -2.4953 0.0913 0 8
26.7311 -5.1249 -2.4953 0.0913 0 8
26.8100 -4.6945 -2.4953 0.0913 0 8
26.8820 -4.2628 -2.4953 0.0913 0 8
26.9471 -3.8301 -2.4953 0.0913 0 8
27.0052 -3.3963 -2.4953 0.0913 0 8
27.0563 -2.9617 -2.4953 0.0913 0 8
27.1004 -2.5263 -2.4953 0.0913 0 8
27.1375 -2.0902 -2.4953 0.0913 0 8
27.1676 -1.6537 -2.4953 0.0913 0 8
27.1907 -1.2166 -2.4953 0.0913 0 8
27.2068 -0.7793 -2.4953 0.0913 0 8
27.2158 -0.3418 -2.4953 0.0913 0 8
27.2177 0.0959 -2.4953 0.0913 0 8
27.2127 0.5334 -2.4953 0.0913 0 8
27.2006 0.9709 -2.4953 0.0913 0 8
27.1815 1.4081 -2.4953 0.0913 0 8
27.1553 1.8449 -2.4953 0.0913 0 8
27.1221 2.2813 -2.4953 0.0913 0 8
27.0820 2.7171 -2.4953 0.0913 0 8
27.0348 3.1522 -2.4953 0.0913 0 8
26.9806 3.5864 -2.4953 0.0913 0 8
26.9194 4.0197 -2.4953 0.0913 0 8
26.8513 4.4520 -2.4953 0.0913 0 8
26.7763 4.8832 -2.4953 0.0913 0 8
26.6943 5.3131 -2.4953 0.0913 0 8
26.6054 5.7416 -2.4953 0.0913 0 8
26.5097 6.1686 -2.4953 0.0913 0 8
26.4071 6.5940 -2.4953 0.0913 0 8
26.2976 7.0177 -2.4953 0.0913 0 8
26.1814 7.4397 -2.4953 0.0913 0 8
26.0584 7.8596 -2.4953 0.0913 0 8
25.9287 8.2776 -2.4953 0.0913 0 8
27.3675 9.2243 -2.6477 0.0913 0 7
27.2157 9.6632 -2.6477 0.0913 0 7
27.0568 10.0995 -2.6477 0.0913 0 7
26.8909 10.5332 -2.6477 0.0913 0 7
26.7181 10.9642 -2.6477 0.0913 0 7
26.5383 11.3924 -2.6477 0.0913 0 7
26.3518 11.8176 -2.6477 0.0913 0 7
26.1583 12.2397 -2.6477 0.0913 0 7
25.9582 12.6587 -2.6477 0.0913 0 7
25.7513 13.0744 -2.6477 0.0913 0 7
25.5377 13.4868 -2.6477 0.0913 0 7
25.3176 13.8956 -2.6477 0.0913 0 7
25.0909 14.3009 -2.6477 0.0913 0 7
24.8577 14.7025 -2.6477 0.0913 0 7
24.6181 15.1002 -2.6477 0.0913 0 7
24.3722 15.4941 -2.6477 0.0913 0 7
24.1199 15.8839 -2.6477 0.0913 0 7
23.8614 16.2697 -2.6477 0.0913 0 7
23.5967 16.6512 -2.6477 0.0913 0 7
23.3260 17.0285 -2.6477 0.0913 0 7
23.0492 17.4013 -2.6477 0.0913 0 7
22.7664 17.7696 -2.6477 0.0913 0 7
22.4778 18.1334 -2.6477 0.0913 0 7
22.1833 18.4924 -2.6477 0.0913 0 6
21.8831 18.8467 -2.6477 0.0913 0 7
21.3550 18.9984 -2.6204 0.6654 0 8
20.6829 19.0049 -2.5751 0.6771 0 8
20.0334 19.0111 -2.5320 0.6887 0 8
19.4987 19.1088 -2.5029 0.0913 0 8
19.1889 19.4199 -2.5029 0.0913 0 14
18.8742 19.7259 -2.5029 0.0913 0 14
18.5546 20.0268 -2.5029 0.0913 0 14
18.2303 20.3225 -2.5029 0.0913 0 14
17.9011 20.6130 -2.5029 0.0913 0 14
17.5674 20.8981 -2.5029 0.0913 0 14
17.2291 21.1779 -2.5029 0.0913 0 14
16.8864 21.4522 -2.5029 0.0913 0 14
16.5393 21.7209 -2.5029 0.0913 0 14
16.1880 21.9840 -2.5029 0.0913 0 14
15.8324 22.2414 -2.5029 0.0913 0 14
16.3678 23.7942 -2.6477 0.0913 0 7
15.9831 24.0543 -2.6477 0.0913 0 7
15.5943 24.3082 -2.6477 0.0913 0 7
15.2015 24.5558 -2.6477 0.0913 0 7
14.8047 24.7970 -2.6477 0.0913 0 7
14.4041 25.0318 -2.6477 0.0913 0 7
13.9997 25.2602 -2.6477 0.0913 0 7
13.5918 25.4820 -2.6477 0.0913 0 7
13.1803 25.6972 -2.6477 0.0913 0 7
12.7655 25.9058 -2.6477 0.0913 0 7
12.3473 26.1077 -2.6477 0.0913 0 7
11.9260 26.3029 -2.6477 0.0913 0 7
11.5015 26.4912 -2.6477 0.0913 0 7
11.0741 26.6727 -2.6477 0.0913 0 7
10.6438 26.8473 -2.6477 0.0913 0 7
10.2108 27.0150 -2.6477 0.0913 0 7
9.7751 27.1757 -2.6477 0.0913 0 7
9.3370 27.3293 -2.6477 0.0913 0 7
8.8963 27.4759 -2.6477 0.0913 0 7
8.4534 27.6154 -2.6477 0.0913 0 7
8.0083 27.7477 -2.6477 0.0913 0 7
7.5612 27.8729 -2.6477 0.0913 0 7
7.1121 27.9909 -2.6477 0.0913 0 7
6.6611 28.1016 -2.6477 0.0913 0 7
6.2084 28.2051 -2.6477 0.0913 0 7
5.7541 28.3012 -2.6477 0.0913 0 7
5.2984 28.3901 -2.6477 0.0913 0 7
4.8412 28.4716 -2.6477 0.0913 0 7
4.3828 28.5458 -2.6477 0.0913 0 7
3.9233 28.6125 -2.6477 0.0913 0 7
3.4628 28.6719 -2.6477 0.0913 0 7
3.0013 28.7239 -2.6477 0.0913 0 7
2.5391 28.7684 -2.6477 0.0913 0 7
2.0762 28.8055 -2.6477 0.0913 0 7
1.6129 28.8352 -2.6477 0.0913 0 7
1.1490 28.8574 -2.6477 0.0913 0 7
0.6849 28.8721 -2.6477 0.0913 0 7
0.2206 28.8794 -2.6477 0.0913 0 7
-0.2437 28.8792 -2.6477 0.0913 0 7
-0.7080 28.8716 -2.6477 0.0913 0 7
-1.1721 28.8565 -2.6477 0.0913 0 7
-1.6359 28.8339 -2.6477 0.0913 0 7
-2.0993 28.8039 -2.6477 0.0913 0 7
21.7510 -12.1951 -2.4953 0.0996 0 8
21.9443 -11.8439 -2.4953 0.0996 0 8
22.1319 -11.4895 -2.4953 0.0996 0 8
22.3137 -11.1322 -2.4953 0.0996 0 8
22.4899 -10.7720 -2.4953 0.0996 0 8
22.6601 -10.4090 -2.4953 0.0996 0 8
22.8246 -10.0433 -2.4953 0.0996 0 8
22.9831 -9.6750 -2.4953 0.0996 0 8
23.1357 -9.3043 -2.4953 0.0996 0 8
23.2823 -8.9313 -2.4953 0.0996 0 8
23.4229 -8.5556 -2.4953 0.0996 0 8
23.5574 -8.1779 -2.4953 0.0996 0 8
23.6858 -7.7981 -2.4953 0.0996 0 8
23.8082 -7.4163 -2.4953 0.0996 0 8
23.9243 -7.0325 -2.4953 0.0996 0 8
24.0343 -6.6470 -2.4953 0.0996 0 8
24.1381 -6.2597 -2.4953 0.0996 0 8
24.2356 -5.8708 -2.4953 0.0996 0 8
24.3268 -5.4804 -2.4953 0.0996 0 8
24.4118 -5.0885 -2.4953 0.0996 0 8
24.4905 -4.6954 -2.4953 0.0996 0 8
24.5628 -4.3010 -2.4953 0.0996 0 8
24.6288 -3.9055 -2.4953 0.0996 0 8
24.6884 -3.5090 -2.4953 0.0996 0 8
24.7416 -3.1116 -2.4953 0.0996 0 8
24.7884 -2.7134 -2.4953 0.0996 0 8
24.8289 -2.3145 -2.4953 0.0996 0 8
24.8629 -1.9150 -2.4953 0.0996 0 8
24.8904 -1.5150 -2.4953 0.0996 0 8
24.9116 -1.1147 -2.4953 0.0996 0 8
24.9263 -0.7140 -2.4953 0.0996 0 8
24.9345 -0.3131 -2.4953 0.0996 0 8
10.0649 0.0354 -1.0071 0.0248 25 10
24.9317 0.4887 -2.4953 0.0996 0 8
24.9206 0.8895 -2.4953 0.0996 0 8
24.9031 1.2901 -2.4953 0.0996 0 8
24.8791 1.6903 -2.4953 0.0996 0 8
24.8488 2.0901 -2.4953 0.0996 0 8
24.8119 2.4893 -2.4953 0.0996 0 8
24.7687 2.8880 -2.4953 0.0996 0 8
24.7191 3.2858 -2.4953 0.0996 0 8
24.6631 3.6828 -2.4953 0.0996 0 8
24.6007 4.0789 -2.4953 0.0996 0 8
24.5319 4.4739 -2.4953 0.0996 0 8
24.4568 4.8677 -2.4953 0.0996 0 8
24.3754 5.2603 -2.4953 0.0996 0 8
24.2876 5.6515 -2.4953 0.0996 0 8
24.1936 6.0413 -2.4953 0.0996 0 8
24.0933 6.4295 -2.4953 0.0996 0 8
23.9869 6.8161 -2.4953 0.0996 0 8
23.8742 7.2008 -2.4953 0.0996 0 8
23.7553 7.5838 -2.4953 0.0996 0 8
23.6303 7.9647 -2.4953 0.0996 0 8
23.4992 8.3436 -2.4953 0.0996 0 8
24.7889 9.2530 -2.6477 0.0996 0 7
24.6369 9.6503 -2.6477 0.0996 0 7
24.4785 10.0452 -2.6477 0.0996 0 7
24.3139 10.4374 -2.6477 0.0996 0 7
24.1429 10.8270 -2.6477 0.0996 0 7
23.9657 11.2138 -2.6477 0.0996 0 7
23.7824 11.5977 -2.6477 0.0996 0 7
23.5928 11.9785 -2.6477 0.0996 0 7
23.3972 12.3563 -2.6477 0.0996 0 7
23.1955 12.7309 -2.6477 0.0996 0 7
22.9878 13.1022 -2.6477 0.0996 0 7
22.7742 13.4701 -2.6477 0.0996 0 7
22.5546 13.8345 -2.6477 0.0996 0 7
22.3293 14.1954 -2.6477 0.0996 0 7
22.0982 14.5525 -2.6477 0.0996 0 7
21.8613 14.9059 -2.6477 0.0996 0 7
21.6189 15.2555 -2.6477 0.0996 0 7
21.3708 15.6011 -2.6477 0.0996 0 7
21.1172 15.9427 -2.6477 0.0996 0 7
20.8581 16.2802 -2.6477 0.0996 0 7
20.5937 16.6134 -2.6477 0.0996 0 7
20.3239 16.9424 -2.6477 0.0996 0 7
20.0489 17.2670 -2.6477 0.0996 0 7
19.7687 17.5871 -2.6477 0.0996 0 7
19.4833 17.9027 -2.6477 0.0996 0 7
19.1930 18.2136 -2.6477 0.0996 0 7
18.8976 18.5198 -2.6477 0.0996 0 6
18.5975 18.8213 -2.6477 0.0996 0 7
18.1680 18.9878 -2.6297 0.7232 0 8
17.5972 18.9934 -2.5909 0.7340 0 8
17.0428 18.9987 -2.5539 0.7446 0 8
16.5036 19.0038 -2.5186 0.7551 0 8
16.0949 19.1465 -2.5029 0.0996 0 8
15.7850 19.4028 -2.5029 0.0996 0 14
15.4710 19.6540 -2.5029 0.0996 0 14
15.1530 19.9002 -2.5029 0.0996 0 14
14.8311 20.1413 -2.5029 0.0996 0 14
14.5053 20.3772 -2.5029 0.0996 0 14
14.1758 20.6077 -2.5029 0.0996 0 14
13.8427 20.8330 -2.5029 0.0996 0 14
13.5059 21.0529 -2.5029 0.0996 0 14
13.1657 21.2673 -2.5029 0.0996 0 14
12.8221 21.4762 -2.5029 0.0996 0 14
12.4751 21.6796 -2.5029 0.0996 0 14
12.1249 21.8774 -2.5029 0.0996 0 14
11.7716 22.0695 -2.5029 0.0996 0 14
11.4153 22.2559 -2.5029 0.0996 0 14
11.6955 23.7344 -2.6477 0.0996 0 7
11.3124 23.9194 -2.6477 0.0996 0 7
10.9263 24.0982 -2.6477 0.0996 0 7
10.5375 24.2707 -2.6477 0.0996 0 7
10.1459 24.4370 -2.6477 0.0996 0 7
9.7517 24.5970 -2.6477 0.0996 0 7
9.3549 24.7506 -2.6477 0.0996 0 7
8.9558 24.8978 -2.6477 0.0996 0 7
8.5543 25.0386 -2.6477 0.0996 0 7
8.1507 25.1729 -2.6477 0.0996 0 7
7.7449 25.3007 -2.6477 0.0996 0 7
7.3371 25.4219 -2.6477 0.0996 0 7
6.9274 25.5366 -2.6477 0.0996 0 7
6.5159 25.6447 -2.6477 0.0996 0 7
6.1028 25.7461 -2.6477 0.0996 0 7
5.6880 25.8409 -2.6477 0.0996 0 7
5.2718 25.9290 -2.6477 0.0996 0 7
4.8543 26.0104 -2.6477 0.0996 0 7
4.4354 26.0851 -2.6477 0.0996 0 7
4.0155 26.1530 -2.6477 0.0996 0 7
3.5945 26.2142 -2.6477 0.0996 0 7
3.1725 26.2686 -2.6477 0.0996 0 7
2.7498 26.3162 -2.6477 0.0996 0 7
2.3263 26.3571 -2.6477 0.0996 0 7
1.9022 26.3910 -2.6477 0.0996 0 7
1.4776 26.4182 -2.6477 0.0996 0 7
1.0527 26.4386 -2.6477 0.0996 0 7
0.6275 26.4521 -2.6477 0.0996 0 7
0.2021 26.4587 -2.6477 0.0996 0 6
-0.2233 26.4586 -2.6477 0.0996 0 6
-0.6487 26.4516 -2.6477 0.0996 0 6
-1.0739 26.4377 -2.6477 0.0996 0 6
-1.4988 26.4170 -2.6477 0.0996 0 6
-1.9235 26.3895 -2.6477 0.0996 0 7
20.0662 -11.2504 -2.4953 0.1078 0 8
20.2445 -10.9264 -2.4953 0.1078 0 8
20.4176 -10.5995 -2.4953 0.1078 0 8
20.5854 -10.2699 -2.4953 0.1078 0 8
20.7478 -9.9376 -2.4953 0.1078 0 8
20.9049 -9.6027 -2.4953 0.1078 0 8
21.0566 -9.2654 -2.4953 0.1078 0 8
21.2029 -8.9256 -2.4953 0.1078 0 8
21.3436 -8.5836 -2.4953 0.1078 0 8
21.4789 -8.2393 -2.4953 0.1078 0 8
21.6086 -7.8929 -2.4953 0.1078 0 8
21.7327 -7.5445 -2.4953 0.1078 0 8
21.8512 -7.1941 -2.4953 0.1078 0 8
21.9640 -6.8418 -2.4953 0.1078 0 8
22.0712 -6.4878 -2.4953 0.1078 0 8
22.1726 -6.1321 -2.4953 0.1078 0 8
22.2684 -5.7748 -2.4953 0.1078 0 8
22.3583 -5.4160 -2.4953 0.1078 0 8
22.4425 -5.0559 -2.4953 0.1078 0 8
22.5209 -4.6944 -2.4953 0.1078 0 8
22.5935 -4.3317 -2.4953 0.1078 0 8
22.6602 -3.9679 -2.4953 0.1078 0 8
22.7211 -3.6030 -2.4953 0.1078 0 8
22.7760 -3.2372 -2.4953 0.1078 0 8
22.8252 -2.8706 -2.4953 0.1078 0 8
22.8684 -2.5033 -2.4953 0.1078 0 8
22.9056 -2.1353 -2.4953 0.1078 0 8
22.9370 -1.7667 -2.4953 0.1078 0 8
9.7597 -0.5941 -1.0606 0.0176 25 10
9.4672 -0.4236 -1.0279 0.1408 25 10
9.3399 -0.2675 -1.0135 0.1476 25 10
9.2762 -0.1165 -1.0062 0.1529 25 10
9.2451 0.0326 -1.0028 0.1570 25 10
9.2988 0.1823 -1.0088 0.1525 25 10
9.3958 0.3354 -1.0198 0.1466 25 10
9.5199 0.4932 -1.0340 0.1399 25 10
22.9520 1.5594 -2.4953 0.1078 0 8
22.9240 1.9282 -2.4953 0.1078 0 8
22.8900 2.2965 -2.4953 0.1078 0 8
22.8502 2.6643 -2.4953 0.1078 0 8
22.8044 3.0313 -2.4953 0.1078 0 8
22.7527 3.3976 -2.4953 0.1078 0 8
22.6951 3.7629 -2.4953 0.1078 0 8
22.6317 4.1273 -2.4953 0.1078 0 8
22.5624 4.4907 -2.4953 0.1078 0 8
22.4873 4.8529 -2.4953 0.1078 0 8
22.4063 5.2138 -2.4953 0.1078 0 8
22.3196 5.5734 -2.4953 0.1078 0 8
22.2271 5.9315 -2.4953 0.1078 0 8
22.1289 6.2881 -2.4953 0.1078 0 8
22.0249 6.6431 -2.4953 0.1078 0 8
21.9153 6.9963 -2.4953 0.1078 0 8
21.8000 7.3478 -2.4953 0.1078 0 8
21.6790 7.6973 -2.4953 0.1078 0 8
21.5524 8.0449 -2.4953 0.1078 0 8
21.4203 8.3904 -2.4953 0.1078 0 8
22.5825 9.2671 -2.6477 0.1078 0 7
22.4306 9.6290 -2.6477 0.1078 0 7
22.2729 9.9884 -2.6477 0.1078 0 7
22.1094 10.3452 -2.6477 0.1078 0 7
21.9402 10.6993 -2.6477 0.1078 0 7
21.7653 11.0507 -2.6477 0.1078 0 7
21.5849 11.3992 -2.6477 0.1078 0 7
21.3988 11.7448 -2.6477 0.1078 0 7
21.2072 12.0873 -2.6477 0.1078 0 7
21.0101 12.4267 -2.6477 0.1078 0 7
20.8076 12.7629 -2.6477 0.1078 0 7
20.5997 13.0958 -2.6477 0.1078 0 7
20.3865 13.4253 -2.6477 0.1078 0 7
20.1680 13.7514 -2.6477 0.1078 0 7
19.9443 14.0738 -2.6477 0.1078 0 7
19.7154 14.3927 -2.6477 0.1078 0 7
19.4815 14.7078 -2.6477 0.1078 0 7
19.2425 15.0191 -2.6477 0.1078 0 7
18.9985 15.3266 -2.6477 0.1078 0 7
18.7497 15.6301 -2.6477 0.1078 0 7
18.4959 15.9295 -2.6477 0.1078 0 7
18.2374 16.2248 -2.6477 0.1078 0 7
17.9742 16.5159 -2.6477 0.1078 0 7
17.7063 16.8028 -2.6477 0.1078 0 7
17.4339 17.0853 -2.6477 0.1078 0 7
17.1569 17.3634 -2.6477 0.1078 0 7
16.8755 17.6370 -2.6477 0.1078 0 7
16.5898 17.9060 -2.6477 0.1078 0 7
16.2998 18.1705 -2.6477 0.1078 0 7
16.0055 18.4302 -2.6477 0.1078 0 6
15.7071 18.6851 -2.6477 0.1078 0 7
15.4047 18.9353 -2.6477 0.1078 0 7
14.9409 18.9806 -2.6201 0.7861 0 8
14.4562 18.9852 -2.5883 0.7957 0 8
13.9829 18.9895 -2.5579 0.8052 0 8
13.5204 18.9936 -2.5288 0.8144 0 8
13.0778 19.0115 -2.5029 0.1078 0 8
12.7704 19.2193 -2.5029 0.1078 0 14
12.4598 19.4221 -2.5029 0.1078 0 14
12.1459 19.6199 -2.5029 0.1078 0 14
11.8289 19.8127 -2.5029 0.1078 0 14
11.5088 20.0003 -2.5029 0.1078 0 14
11.1857 20.1828 -2.5029 0.1078 0 14
10.8598 20.3600 -2.5029 0.1078 0 14
10.5310 20.5320 -2.5029 0.1078 0 14
10.1996 20.6987 -2.5029 0.1078 0 14
9.8654 20.8600 -2.5029 0.1078 0 14
9.5288 21.0159 -2.5029 0.1078 0 14
9.1897 21.1664 -2.5029 0.1078 0 14
8.8482 21.3114 -2.5029 0.1078 0 14
8.5044 21.4509 -2.5029 0.1078 0 14
8.1584 21.5849 -2.5029 0.1078 0 14
7.8103 21.7132 -2.5029 0.1078 0 14
7.4602 21.8360 -2.5029 0.1078 0 14
7.1081 21.9531 -2.5029 0.1078 0 14
6.7543 22.0646 -2.5029 0.1078 0 14
6.3986 22.1703 -2.5029 0.1078 0 14
6.0439 22.2796 -2.5039 0.7542 0 8
5.6826 22.3646 -2.5029 0.1078 0 8
5.6301 23.7519 -2.6477 0.1078 0 7
5.2474 23.8393 -2.6477 0.1078 0 7
4.8635 23.9206 -2.6477 0.1078 0 7
4.4783 23.9957 -2.6477 0.1078 0 7
4.0919 24.0646 -2.6477 0.1078 0 7
3.7044 24.1273 -2.6477 0.1078 0 7
3.3160 24.1837 -2.6477 0.1078 0 7
2.9268 24.2339 -2.6477 0.1078 0 7
2.5368 24.2778 -2.6477 0.1078 0 7
2.1461 24.3155 -2.6477 0.1078 0 7
1.7549 24.3468 -2.6477 0.1078 0 7
1.3632 24.3719 -2.6477 0.1078 0 7
0.9712 24.3907 -2.6477 0.1078 0 7
0.5789 24.4031 -2.6477 0.1078 0 7
0.1865 24.4093 -2.6477 0.1078 0 7
-0.2060 24.4091 -2.6477 0.1078 0 7
-0.5985 24.4027 -2.6477 0.1078 0 7
