ply
format ascii 1.0
element vertex 1413
property float32 x
property float32 y
property float32 z
property float32 CosAngle
property uint32 ObjIdx
property uint32 ObjTag
end_header
7.7287 0.5407 -1.4993 0.8747 25 10
7.8318 0.6745 -1.5212 0.7020 25 10
8.1672 0.8358 -1.5887 0.1837 25 10
12.8045 1.5188 -2.4953 0.1900 0 8
12.7784 1.7243 -2.4953 0.1900 0 8
12.7491 1.9295 -2.4953 0.1900 0 8
12.7164 2.1341 -2.4953 0.1900 0 8
12.6805 2.3382 -2.4953 0.1900 0 8
12.6413 2.5417 -2.4953 0.1900 0 8
12.5988 2.7445 -2.4953 0.1900 0 8
12.5531 2.9467 -2.4953 0.1900 0 8
12.5041 3.1480 -2.4953 0.1900 0 8
12.4519 3.3486 -2.4953 0.1900 0 8
12.3964 3.5483 -2.4953 0.1900 0 8
12.3378 3.7470 -2.4953 0.1900 0 8
12.2760 3.9448 -2.4953 0.1900 0 8
12.2110 4.1416 -2.4953 0.1900 0 8
12.1429 4.3373 -2.4953 0.1900 0 8
12.0716 4.5319 -2.4953 0.1900 0 8
11.9972 4.7253 -2.4953 0.1900 0 8
11.9197 4.9175 -2.4953 0.1900 0 8
11.8392 5.1084 -2.4953 0.1900 0 8
11.7555 5.2981 -2.4953 0.1900 0 8
11.6689 5.4863 -2.4953 0.1900 0 8
11.5792 5.6731 -2.4953 0.1900 0 8
11.4865 5.8585 -2.4953 0.1900 0 8
11.3909 6.0423 -2.4953 0.1900 0 8
11.2923 6.2246 -2.4953 0.1900 0 8
11.1908 6.4053 -2.4953 0.1900 0 8
11.0864 6.5843 -2.4953 0.1900 0 8
10.9792 6.7616 -2.4953 0.1900 0 8
10.8691 6.9372 -2.4953 0.1900 0 8
10.7562 7.1110 -2.4953 0.1900 0 8
10.6405 7.2830 -2.4953 0.1900 0 8
10.5221 7.4530 -2.4953 0.1900 0 8
10.4010 7.6212 -2.4953 0.1900 0 8
10.2771 7.7873 -2.4953 0.1900 0 8
10.1507 7.9515 -2.4953 0.1900 0 8
10.0216 8.1136 -2.4953 0.1900 0 8
9.8899 8.2736 -2.4953 0.1900 0 8
9.7556 8.4315 -2.4953 0.1900 0 8
10.2063 9.1116 -2.6477 0.1900 0 7
10.0586 9.2745 -2.6477 0.1900 0 7
10.2628 -6.8582 -2.4953 0.1981 0 8
10.3717 -6.6924 -2.4953 0.1981 0 8
10.4779 -6.5248 -2.4953 0.1981 0 8
10.5814 -6.3556 -2.4953 0.1981 0 8
10.6822 -6.1847 -2.4953 0.1981 0 8
10.7802 -6.0122 -2.4953 0.1981 0 8
10.8754 -5.8382 -2.4953 0.1981 0 8
10.9678 -5.6627 -2.4953 0.1981 0 8
11.0574 -5.4857 -2.4953 0.1981 0 8
11.1442 -5.3073 -2.4953 0.1981 0 8
11.2280 -5.1275 -2.4953 0.1981 0 8
11.3090 -4.9464 -2.4953 0.1981 0 8
11.3870 -4.7640 -2.4953 0.1981 0 8
11.4621 -4.5804 -2.4953 0.1981 0 8
11.5342 -4.3956 -2.4953 0.1981 0 8
11.6034 -4.2096 -2.4953 0.1981 0 8
11.6695 -4.0226 -2.4953 0.1981 0 8
11.7327 -3.8345 -2.4953 0.1981 0 8
11.7928 -3.6455 -2.4953 0.1981 0 8
11.8498 -3.4555 -2.4953 0.1981 0 8
11.9039 -3.2646 -2.4953 0.1981 0 8
11.9548 -3.0729 -2.4953 0.1981 0 8
12.0026 -2.8804 -2.4953 0.1981 0 8
12.0474 -2.6871 -2.4953 0.1981 0 8
12.0890 -2.4931 -2.4953 0.1981 0 8
12.1275 -2.2985 -2.4953 0.1981 0 8
12.1629 -2.1033 -2.4953 0.1981 0 8
12.1951 -1.9076 -2.4953 0.1981 0 8
12.2242 -1.7113 -2.4953 0.1981 0 8
12.2501 -1.5147 -2.4953 0.1981 0 8
12.2729 -1.3176 -2.4953 0.1981 0 8
7.8282 -0.7134 -1.5891 0.7008 25 10
7.7236 -0.5788 -1.5657 0.7113 25 10
7.6722 -0.4511 -1.5536 0.9172 25 10
7.6360 -0.3260 -1.5451 0.9677 25 10
7.6207 -0.2027 -1.5411 0.9880 25 10
7.6095 -0.0800 -1.5384 0.9970 25 10
7.6074 0.0423 -1.5379 0.9973 25 10
7.6166 0.1648 -1.5401 0.9886 25 10
7.6296 0.2878 -1.5435 0.9865 25 10
7.6593 0.4122 -1.5506 0.9190 25 10
7.7063 0.5391 -1.5617 0.8758 25 10
7.7956 0.6714 -1.5818 0.7040 25 10
8.1240 0.8314 -1.6509 0.1843 25 10
12.2575 1.4539 -2.4953 0.1981 0 8
12.2325 1.6507 -2.4953 0.1981 0 8
12.2044 1.8471 -2.4953 0.1981 0 8
12.1732 2.0430 -2.4953 0.1981 0 8
12.1388 2.2383 -2.4953 0.1981 0 8
12.1012 2.4331 -2.4953 0.1981 0 8
12.0605 2.6273 -2.4953 0.1981 0 8
12.0168 2.8208 -2.4953 0.1981 0 8
11.9699 3.0135 -2.4953 0.1981 0 8
11.9199 3.2055 -2.4953 0.1981 0 8
11.8668 3.3967 -2.4953 0.1981 0 8
11.8107 3.5869 -2.4953 0.1981 0 8
11.7515 3.7763 -2.4953 0.1981 0 8
11.6893 3.9647 -2.4953 0.1981 0 8
11.6241 4.1520 -2.4953 0.1981 0 8
11.5559 4.3383 -2.4953 0.1981 0 8
11.4847 4.5234 -2.4953 0.1981 0 8
11.4105 4.7074 -2.4953 0.1981 0 8
11.3334 4.8902 -2.4953 0.1981 0 8
11.2533 5.0717 -2.4953 0.1981 0 8
11.1703 5.2519 -2.4953 0.1981 0 8
11.0845 5.4308 -2.4953 0.1981 0 8
10.9958 5.6082 -2.4953 0.1981 0 8
10.9042 5.7842 -2.4953 0.1981 0 8
10.8099 5.9587 -2.4953 0.1981 0 8
10.7127 6.1316 -2.4953 0.1981 0 8
10.6128 6.3030 -2.4953 0.1981 0 8
10.5101 6.4728 -2.4953 0.1981 0 8
10.4047 6.6408 -2.4953 0.1981 0 8
10.2967 6.8072 -2.4953 0.1981 0 8
10.1859 6.9718 -2.4953 0.1981 0 8
10.0726 7.1346 -2.4953 0.1981 0 8
9.9566 7.2956 -2.4953 0.1981 0 8
9.8381 7.4546 -2.4953 0.1981 0 8
9.7170 7.6118 -2.4953 0.1981 0 8
9.5934 7.7670 -2.4953 0.1981 0 8
9.4674 7.9201 -2.4953 0.1981 0 8
9.3388 8.0713 -2.4953 0.1981 0 8
9.2079 8.2203 -2.4953 0.1981 0 8
9.0746 8.3672 -2.4953 0.1981 0 8
9.8409 -6.5763 -2.4953 0.2063 0 8
9.9453 -6.4173 -2.4953 0.2063 0 8
10.0472 -6.2566 -2.4953 0.2063 0 8
10.1465 -6.0944 -2.4953 0.2063 0 8
10.2431 -5.9305 -2.4953 0.2063 0 8
10.3371 -5.7651 -2.4953 0.2063 0 8
10.4284 -5.5982 -2.4953 0.2063 0 8
10.5170 -5.4299 -2.4953 0.2063 0 8
10.6029 -5.2602 -2.4953 0.2063 0 8
10.6861 -5.0891 -2.4953 0.2063 0 8
10.7665 -4.9167 -2.4953 0.2063 0 8
10.8441 -4.7431 -2.4953 0.2063 0 8
10.9190 -4.5682 -2.4953 0.2063 0 8
10.9910 -4.3921 -2.4953 0.2063 0 8
11.0601 -4.2149 -2.4953 0.2063 0 8
11.1264 -4.0366 -2.4953 0.2063 0 8
11.1899 -3.8573 -2.4953 0.2063 0 8
11.2504 -3.6769 -2.4953 0.2063 0 8
11.3081 -3.4957 -2.4953 0.2063 0 8
11.3628 -3.3135 -2.4953 0.2063 0 8
11.4146 -3.1304 -2.4953 0.2063 0 8
11.4634 -2.9466 -2.4953 0.2063 0 8
11.5093 -2.7620 -2.4953 0.2063 0 8
11.5522 -2.5766 -2.4953 0.2063 0 8
11.5921 -2.3906 -2.4953 0.2063 0 8
11.6290 -2.2040 -2.4953 0.2063 0 8
11.6629 -2.0169 -2.4953 0.2063 0 8
11.6938 -1.8292 -2.4953 0.2063 0 8
11.7217 -1.6410 -2.4953 0.2063 0 8
11.7466 -1.4524 -2.4953 0.2063 0 8
8.2830 -0.8892 -1.7563 0.1861 25 10
7.7920 -0.7101 -1.6495 0.7029 25 10
7.7011 -0.5772 -1.6281 0.8746 25 10
7.6497 -0.4498 -1.6155 0.9184 25 10
7.6180 -0.3252 -1.6075 0.9683 25 10
7.6029 -0.2022 -1.6034 0.9886 25 10
7.5944 -0.0799 -1.6011 0.9972 25 10
7.5923 0.0422 -1.6006 0.9976 25 10
7.5992 0.1644 -1.6024 0.9964 25 10
7.6119 0.2871 -1.6059 0.9871 25 10
7.6368 0.4110 -1.6123 0.9202 25 10
7.6840 0.5375 -1.6239 0.8769 25 10
7.7597 0.6683 -1.6419 0.7061 25 10
8.0810 0.8270 -1.7125 0.1908 25 10
11.7536 1.3941 -2.4953 0.2063 0 8
11.7297 1.5828 -2.4953 0.2063 0 8
11.7028 1.7711 -2.4953 0.2063 0 8
11.6728 1.9590 -2.4953 0.2063 0 8
11.6398 2.1463 -2.4953 0.2063 0 8
11.6038 2.3331 -2.4953 0.2063 0 8
11.5648 2.5193 -2.4953 0.2063 0 8
11.5228 2.7048 -2.4953 0.2063 0 8
11.4779 2.8897 -2.4953 0.2063 0 8
11.4300 3.0738 -2.4953 0.2063 0 8
11.3791 3.2571 -2.4953 0.2063 0 8
11.3253 3.4395 -2.4953 0.2063 0 8
11.2685 3.6211 -2.4953 0.2063 0 8
11.2089 3.8017 -2.4953 0.2063 0 8
11.1463 3.9814 -2.4953 0.2063 0 8
11.0809 4.1600 -2.4953 0.2063 0 8
11.0126 4.3375 -2.4953 0.2063 0 8
10.9415 4.5139 -2.4953 0.2063 0 8
10.8675 4.6892 -2.4953 0.2063 0 8
10.7908 4.8633 -2.4953 0.2063 0 8
10.7112 5.0360 -2.4953 0.2063 0 8
10.6289 5.2075 -2.4953 0.2063 0 8
10.5438 5.3777 -2.4953 0.2063 0 8
10.4560 5.5464 -2.4953 0.2063 0 8
10.3656 5.7138 -2.4953 0.2063 0 8
10.2724 5.8796 -2.4953 0.2063 0 8
10.1766 6.0440 -2.4953 0.2063 0 8
10.0781 6.2067 -2.4953 0.2063 0 8
9.9771 6.3679 -2.4953 0.2063 0 8
9.8734 6.5274 -2.4953 0.2063 0 8
9.7673 6.6852 -2.4953 0.2063 0 8
9.6586 6.8413 -2.4953 0.2063 0 8
9.5474 6.9957 -2.4953 0.2063 0 8
9.4337 7.1482 -2.4953 0.2063 0 8
9.3176 7.2989 -2.4953 0.2063 0 8
9.1991 7.4477 -2.4953 0.2063 0 8
9.0782 7.5946 -2.4953 0.2063 0 8
8.9550 7.7395 -2.4953 0.2063 0 8
8.8294 7.8824 -2.4953 0.2063 0 8
8.7016 8.0233 -2.4953 0.2063 0 8
9.4511 -6.3158 -2.4953 0.2144 0 8
9.5514 -6.1631 -2.4953 0.2144 0 8
9.6492 -6.0088 -2.4953 0.2144 0 8
9.7445 -5.8529 -2.4953 0.2144 0 8
9.8373 -5.6956 -2.4953 0.2144 0 8
9.9276 -5.5367 -2.4953 0.2144 0 8
10.0153 -5.3765 -2.4953 0.2144 0 8
10.1004 -5.2148 -2.4953 0.2144 0 8
10.1829 -5.0518 -2.4953 0.2144 0 8
10.2628 -4.8875 -2.4953 0.2144 0 8
10.3400 -4.7220 -2.4953 0.2144 0 8
10.4146 -4.5552 -2.4953 0.2144 0 8
10.4864 -4.3872 -2.4953 0.2144 0 8
10.5556 -4.2181 -2.4953 0.2144 0 8
10.6220 -4.0479 -2.4953 0.2144 0 8
10.6857 -3.8767 -2.4953 0.2144 0 8
10.7466 -3.7045 -2.4953 0.2144 0 8
10.8047 -3.5313 -2.4953 0.2144 0 8
10.8601 -3.3572 -2.4953 0.2144 0 8
10.9127 -3.1822 -2.4953 0.2144 0 8
10.9624 -3.0064 -2.4953 0.2144 0 8
11.0093 -2.8298 -2.4953 0.2144 0 8
11.0533 -2.6525 -2.4953 0.2144 0 8
11.0945 -2.4746 -2.4953 0.2144 0 8
11.1329 -2.2959 -2.4953 0.2144 0 8
11.1683 -2.1167 -2.4953 0.2144 0 8
11.2009 -1.9370 -2.4953 0.2144 0 8
11.2306 -1.7567 -2.4953 0.2144 0 8
11.2574 -1.5760 -2.4953 0.2144 0 8
11.2813 -1.3949 -2.4953 0.2144 0 8
8.2378 -0.8844 -1.8187 0.1868 25 10
7.7559 -0.7068 -1.7096 0.7049 25 10
7.6787 -0.5755 -1.6903 0.8756 25 10
7.6272 -0.4485 -1.6772 0.9194 25 10
7.5999 -0.3244 -1.6698 0.9689 25 10
7.5861 -0.2017 -1.6659 0.9963 25 10
7.5793 -0.0797 -1.6639 0.9975 25 10
7.5772 0.0421 -1.6633 0.9978 25 10
7.5840 0.1640 -1.6652 0.9967 25 10
7.5941 0.2864 -1.6682 0.9876 25 10
7.6167 0.4100 -1.6744 0.9662 25 10
7.6617 0.5360 -1.6860 0.8778 25 10
7.7240 0.6652 -1.7018 0.7081 25 10
8.0380 0.8226 -1.7737 0.1915 25 10
11.2880 1.3389 -2.4953 0.2144 0 8
11.2651 1.5201 -2.4953 0.2144 0 8
11.2392 1.7010 -2.4953 0.2144 0 8
11.2104 1.8814 -2.4953 0.2144 0 8
11.1787 2.0613 -2.4953 0.2144 0 8
11.1441 2.2407 -2.4953 0.2144 0 8
11.1067 2.4195 -2.4953 0.2144 0 8
11.0664 2.5977 -2.4953 0.2144 0 8
11.0232 2.7752 -2.4953 0.2144 0 8
10.9772 2.9520 -2.4953 0.2144 0 8
10.9283 3.1280 -2.4953 0.2144 0 8
10.8766 3.3033 -2.4953 0.2144 0 8
10.8221 3.4776 -2.4953 0.2144 0 8
10.7648 3.6511 -2.4953 0.2144 0 8
10.7048 3.8236 -2.4953 0.2144 0 8
10.6419 3.9952 -2.4953 0.2144 0 8
10.5764 4.1657 -2.4953 0.2144 0 8
10.5080 4.3351 -2.4953 0.2144 0 8
10.4370 4.5034 -2.4953 0.2144 0 8
10.3633 4.6706 -2.4953 0.2144 0 8
10.2869 4.8365 -2.4953 0.2144 0 8
10.2078 5.0012 -2.4953 0.2144 0 8
10.1261 5.1647 -2.4953 0.2144 0 8
10.0418 5.3267 -2.4953 0.2144 0 8
9.9549 5.4874 -2.4953 0.2144 0 8
9.8655 5.6467 -2.4953 0.2144 0 8
9.7734 5.8045 -2.4953 0.2144 0 8
9.6789 5.9608 -2.4953 0.2144 0 8
9.5818 6.1156 -2.4953 0.2144 0 8
9.4823 6.2688 -2.4953 0.2144 0 8
9.3803 6.4204 -2.4953 0.2144 0 8
9.2759 6.5703 -2.4953 0.2144 0 8
9.1692 6.7186 -2.4953 0.2144 0 8
9.0600 6.8650 -2.4953 0.2144 0 8
8.9485 7.0098 -2.4953 0.2144 0 8
8.8347 7.1527 -2.4953 0.2144 0 8
8.7186 7.2937 -2.4953 0.2144 0 8
8.6002 7.4329 -2.4953 0.2144 0 8
8.4797 7.5702 -2.4953 0.2144 0 8
8.3569 7.7055 -2.4953 0.2144 0 8
9.0897 -6.0743 -2.4953 0.2225 0 8
9.1861 -5.9274 -2.4953 0.2225 0 8
9.2802 -5.7790 -2.4953 0.2225 0 8
9.3719 -5.6291 -2.4953 0.2225 0 8
9.4612 -5.4778 -2.4953 0.2225 0 8
9.5480 -5.3250 -2.4953 0.2225 0 8
9.6323 -5.1709 -2.4953 0.2225 0 8
9.7142 -5.0154 -2.4953 0.2225 0 8
9.7935 -4.8586 -2.4953 0.2225 0 8
9.8703 -4.7006 -2.4953 0.2225 0 8
9.9446 -4.5414 -2.4953 0.2225 0 8
10.0163 -4.3810 -2.4953 0.2225 0 8
10.0854 -4.2194 -2.4953 0.2225 0 8
10.1519 -4.0568 -2.4953 0.2225 0 8
10.2158 -3.8931 -2.4953 0.2225 0 8
10.2771 -3.7285 -2.4953 0.2225 0 8
10.3357 -3.5628 -2.4953 0.2225 0 8
10.3916 -3.3962 -2.4953 0.2225 0 8
10.4448 -3.2288 -2.4953 0.2225 0 8
10.4954 -3.0605 -2.4953 0.2225 0 8
10.5432 -2.8915 -2.4953 0.2225 0 8
10.5883 -2.7216 -2.4953 0.2225 0 8
10.6307 -2.5511 -2.4953 0.2225 0 8
10.6703 -2.3799 -2.4953 0.2225 0 8
10.7072 -2.2082 -2.4953 0.2225 0 8
10.7413 -2.0358 -2.4953 0.2225 0 8
10.7726 -1.8629 -2.4953 0.2225 0 8
10.8012 -1.6895 -2.4953 0.2225 0 8
10.8269 -1.5157 -2.4953 0.2225 0 8
10.8499 -1.3415 -2.4953 0.2225 0 8
8.1946 -0.8797 -1.8811 0.1856 25 10
7.7201 -0.7035 -1.7694 0.7068 25 10
7.6564 -0.5738 -1.7524 0.8765 25 10
7.6060 -0.4472 -1.7390 0.9655 25 10
7.5819 -0.3236 -1.7321 0.9694 25 10
7.5710 -0.2013 -1.7286 0.9964 25 10
7.5642 -0.0796 -1.7266 0.9976 25 10
7.5621 0.0420 -1.7260 0.9979 25 10
7.5689 0.1637 -1.7280 0.9968 25 10
7.5763 0.2858 -1.7305 0.9881 25 10
7.5986 0.4090 -1.7368 0.9667 25 10
7.6394 0.5344 -1.7479 0.8788 25 10
7.6946 0.6627 -1.7627 0.8714 25 10
7.9954 0.8183 -1.8344 0.1922 25 10
10.8564 1.2877 -2.4953 0.2225 0 8
10.8343 1.4620 -2.4953 0.2225 0 8
10.8094 1.6359 -2.4953 0.2225 0 8
10.7817 1.8094 -2.4953 0.2225 0 8
10.7513 1.9825 -2.4953 0.2225 0 8
10.7180 2.1550 -2.4953 0.2225 0 8
10.6820 2.3270 -2.4953 0.2225 0 8
10.6432 2.4983 -2.4953 0.2225 0 8
10.6017 2.6691 -2.4953 0.2225 0 8
10.5574 2.8391 -2.4953 0.2225 0 8
10.5104 3.0084 -2.4953 0.2225 0 8
10.4607 3.1769 -2.4953 0.2225 0 8
10.4083 3.3447 -2.4953 0.2225 0 8
10.3532 3.5115 -2.4953 0.2225 0 8
10.2954 3.6774 -2.4953 0.2225 0 8
10.2350 3.8424 -2.4953 0.2225 0 8
10.1719 4.0064 -2.4953 0.2225 0 8
10.1062 4.1694 -2.4953 0.2225 0 8
10.0379 4.3312 -2.4953 0.2225 0 8
9.9670 4.4920 -2.4953 0.2225 0 8
9.8935 4.6516 -2.4953 0.2225 0 8
9.8175 4.8100 -2.4953 0.2225 0 8
9.7389 4.9672 -2.4953 0.2225 0 8
9.6579 5.1230 -2.4953 0.2225 0 8
9.5743 5.2776 -2.4953 0.2225 0 8
9.4882 5.4308 -2.4953 0.2225 0 8
9.3997 5.5826 -2.4953 0.2225 0 8
9.3088 5.7329 -2.4953 0.2225 0 8
9.2154 5.8818 -2.4953 0.2225 0 8
9.1197 6.0291 -2.4953 0.2225 0 8
9.0216 6.1749 -2.4953 0.2225 0 8
8.9212 6.3191 -2.4953 0.2225 0 8
8.8185 6.4617 -2.4953 0.2225 0 8
8.7135 6.6025 -2.4953 0.2225 0 8
8.6063 6.7417 -2.4953 0.2225 0 8
8.4969 6.8792 -2.4953 0.2225 0 8
8.3852 7.0148 -2.4953 0.2225 0 8
8.2714 7.1487 -2.4953 0.2225 0 8
8.1554 7.2807 -2.4953 0.2225 0 8
8.0374 7.4108 -2.4953 0.2225 0 8
8.7537 -5.8497 -2.4953 0.2306 0 8
8.8466 -5.7083 -2.4953 0.2306 0 8
8.9372 -5.5654 -2.4953 0.2306 0 8
9.0255 -5.4210 -2.4953 0.2306 0 8
9.1114 -5.2753 -2.4953 0.2306 0 8
9.1950 -5.1282 -2.4953 0.2306 0 8
9.2763 -4.9797 -2.4953 0.2306 0 8
9.3551 -4.8300 -2.4953 0.2306 0 8
9.4315 -4.6790 -2.4953 0.2306 0 8
9.5055 -4.5269 -2.4953 0.2306 0 8
9.5770 -4.3735 -2.4953 0.2306 0 8
9.6461 -4.2190 -2.4953 0.2306 0 8
9.7126 -4.0635 -2.4953 0.2306 0 8
9.7767 -3.9069 -2.4953 0.2306 0 8
9.8382 -3.7492 -2.4953 0.2306 0 8
9.8972 -3.5906 -2.4953 0.2306 0 8
9.9536 -3.4311 -2.4953 0.2306 0 8
10.0075 -3.2707 -2.4953 0.2306 0 8
10.0587 -3.1094 -2.4953 0.2306 0 8
10.1074 -2.9474 -2.4953 0.2306 0 8
10.1535 -2.7846 -2.4953 0.2306 0 8
10.1969 -2.6210 -2.4953 0.2306 0 8
10.2377 -2.4568 -2.4953 0.2306 0 8
10.2759 -2.2920 -2.4953 0.2306 0 8
10.3114 -2.1265 -2.4953 0.2306 0 8
10.3442 -1.9605 -2.4953 0.2306 0 8
10.3744 -1.7940 -2.4953 0.2306 0 8
10.4019 -1.6271 -2.4953 0.2306 0 8
10.4267 -1.4597 -2.4953 0.2306 0 8
10.4488 -1.2919 -2.4953 0.2306 0 8
8.1541 -0.8754 -1.9437 0.1862 25 10
7.7263 -0.7041 -1.8388 0.2836 25 10
7.6450 -0.5729 -1.8170 0.8545 25 10
7.5956 -0.4466 -1.8033 0.9361 25 10
7.5699 -0.3231 -1.7957 0.9400 25 10
7.5601 -0.2011 -1.7924 0.9672 25 10
7.5529 -0.0794 -1.7902 0.9684 25 10
7.5506 0.0419 -1.7896 0.9687 25 10
7.5579 0.1635 -1.7917 0.9676 25 10
7.5652 0.2853 -1.7943 0.9662 25 10
7.5876 0.4084 -1.8009 0.9373 25 10
7.6279 0.5336 -1.8123 0.8567 25 10
7.6835 0.6618 -1.8278 0.8495 25 10
7.9566 0.8143 -1.8956 0.1919 25 10
10.4551 1.2401 -2.4953 0.2306 0 8
10.4338 1.4080 -2.4953 0.2306 0 8
10.4098 1.5755 -2.4953 0.2306 0 8
10.3832 1.7426 -2.4953 0.2306 0 8
10.3538 1.9092 -2.4953 0.2306 0 8
10.3218 2.0753 -2.4953 0.2306 0 8
10.2871 2.2410 -2.4953 0.2306 0 8
10.2498 2.4060 -2.4953 0.2306 0 8
10.2098 2.5704 -2.4953 0.2306 0 8
10.1672 2.7342 -2.4953 0.2306 0 8
10.1219 2.8972 -2.4953 0.2306 0 8
10.0740 3.0595 -2.4953 0.2306 0 8
10.0236 3.2210 -2.4953 0.2306 0 8
9.9705 3.3817 -2.4953 0.2306 0 8
9.9149 3.5415 -2.4953 0.2306 0 8
9.8567 3.7004 -2.4953 0.2306 0 8
9.7959 3.8583 -2.4953 0.2306 0 8
9.7327 4.0152 -2.4953 0.2306 0 8
9.6669 4.1711 -2.4953 0.2306 0 8
9.5986 4.3260 -2.4953 0.2306 0 8
9.5278 4.4797 -2.4953 0.2306 0 8
9.4546 4.6322 -2.4953 0.2306 0 8
9.3789 4.7836 -2.4953 0.2306 0 8
9.3008 4.9337 -2.4953 0.2306 0 8
9.2204 5.0825 -2.4953 0.2306 0 8
9.1375 5.2300 -2.4953 0.2306 0 8
9.0522 5.3762 -2.4953 0.2306 0 8
8.9647 5.5210 -2.4953 0.2306 0 8
8.8748 5.6644 -2.4953 0.2306 0 8
8.7826 5.8063 -2.4953 0.2306 0 8
8.6882 5.9467 -2.4953 0.2306 0 8
8.5915 6.0855 -2.4953 0.2306 0 8
8.4926 6.2228 -2.4953 0.2306 0 8
8.3915 6.3585 -2.4953 0.2306 0 8
8.2882 6.4925 -2.4953 0.2306 0 8
8.1828 6.6249 -2.4953 0.2306 0 8
8.0752 6.7555 -2.4953 0.2306 0 8
7.9656 6.8844 -2.4953 0.2306 0 8
7.8540 7.0116 -2.4953 0.2306 0 8
7.7403 7.1369 -2.4953 0.2306 0 8
8.4405 -5.6404 -2.4953 0.2387 0 8
8.5300 -5.5041 -2.4953 0.2387 0 8
8.6174 -5.3663 -2.4953 0.2387 0 8
8.7025 -5.2271 -2.4953 0.2387 0 8
8.7854 -5.0865 -2.4953 0.2387 0 8
8.8660 -4.9447 -2.4953 0.2387 0 8
8.9443 -4.8016 -2.4953 0.2387 0 8
9.0203 -4.6572 -2.4953 0.2387 0 8
9.0940 -4.5116 -2.4953 0.2387 0 8
9.1653 -4.3649 -2.4953 0.2387 0 8
9.2343 -4.2170 -2.4953 0.2387 0 8
9.3009 -4.0681 -2.4953 0.2387 0 8
9.3651 -3.9181 -2.4953 0.2387 0 8
9.4268 -3.7671 -2.4953 0.2387 0 8
9.4862 -3.6151 -2.4953 0.2387 0 8
9.5430 -3.4621 -2.4953 0.2387 0 8
9.5974 -3.3083 -2.4953 0.2387 0 8
9.6494 -3.1537 -2.4953 0.2387 0 8
9.6988 -2.9982 -2.4953 0.2387 0 8
9.7457 -2.8419 -2.4953 0.2387 0 8
9.7901 -2.6849 -2.4953 0.2387 0 8
9.8320 -2.5272 -2.4953 0.2387 0 8
9.8714 -2.3689 -2.4953 0.2387 0 8
9.9082 -2.2100 -2.4953 0.2387 0 8
9.9424 -2.0504 -2.4953 0.2387 0 8
9.9741 -1.8904 -2.4953 0.2387 0 8
10.0032 -1.7298 -2.4953 0.2387 0 8
10.0297 -1.5689 -2.4953 0.2387 0 8
10.0536 -1.4075 -2.4953 0.2387 0 8
10.0749 -1.2457 -2.4953 0.2387 0 8
8.1141 -0.8711 -2.0059 0.1877 25 10
7.7648 -0.7076 -1.9165 0.2817 25 10
7.6476 -0.5731 -1.8851 0.8525 25 10
7.5986 -0.4468 -1.8710 0.9175 25 10
7.5709 -0.3232 -1.8626 0.9380 25 10
7.5608 -0.2011 -1.8591 0.9651 25 10
7.5578 -0.0795 -1.8578 0.9270 25 10
7.5589 0.0420 -1.8580 0.9269 25 10
7.5585 0.1635 -1.8583 0.9655 25 10
7.5658 0.2854 -1.8610 0.9642 25 10
7.5892 0.4085 -1.8681 0.9188 25 10
7.6305 0.5338 -1.8802 0.8547 25 10
7.6964 0.6629 -1.8988 0.7636 25 10
7.9363 0.8122 -1.9609 0.4514 25 10
10.0810 1.1957 -2.4953 0.2387 0 8
10.0605 1.3576 -2.4953 0.2387 0 8
10.0373 1.5191 -2.4953 0.2387 0 8
10.0116 1.6802 -2.4953 0.2387 0 8
9.9833 1.8409 -2.4953 0.2387 0 8
9.9525 2.0011 -2.4953 0.2387 0 8
9.9190 2.1608 -2.4953 0.2387 0 8
9.8830 2.3199 -2.4953 0.2387 0 8
9.8444 2.4784 -2.4953 0.2387 0 8
9.8033 2.6363 -2.4953 0.2387 0 8
9.7597 2.7935 -2.4953 0.2387 0 8
9.7136 2.9500 -2.4953 0.2387 0 8
9.6649 3.1058 -2.4953 0.2387 0 8
9.6137 3.2607 -2.4953 0.2387 0 8
9.5601 3.4148 -2.4953 0.2387 0 8
9.5040 3.5680 -2.4953 0.2387 0 8
9.4454 3.7202 -2.4953 0.2387 0 8
9.3844 3.8716 -2.4953 0.2387 0 8
9.3210 4.0219 -2.4953 0.2387 0 8
9.2551 4.1712 -2.4953 0.2387 0 8
9.1869 4.3194 -2.4953 0.2387 0 8
9.1163 4.4664 -2.4953 0.2387 0 8
9.0433 4.6124 -2.4953 0.2387 0 8
8.9680 4.7571 -2.4953 0.2387 0 8
8.8904 4.9006 -2.4953 0.2387 0 8
8.8105 5.0429 -2.4953 0.2387 0 8
8.7283 5.1838 -2.4953 0.2387 0 8
8.6439 5.3234 -2.4953 0.2387 0 8
8.5572 5.4617 -2.4953 0.2387 0 8
8.4683 5.5985 -2.4953 0.2387 0 8
8.3773 5.7339 -2.4953 0.2387 0 8
8.2840 5.8677 -2.4953 0.2387 0 8
8.1887 6.0001 -2.4953 0.2387 0 8
8.0912 6.1310 -2.4953 0.2387 0 8
7.9916 6.2602 -2.4953 0.2387 0 8
7.8900 6.3878 -2.4953 0.2387 0 8
7.7863 6.5138 -2.4953 0.2387 0 8
7.6806 6.6381 -2.4953 0.2387 0 8
7.5729 6.7607 -2.4953 0.2387 0 8
7.4633 6.8815 -2.4953 0.2387 0 8
8.1477 -5.4448 -2.4953 0.2468 0 8
8.2342 -5.3131 -2.4953 0.2468 0 8
8.3185 -5.1801 -2.4953 0.2468 0 8
8.4007 -5.0458 -2.4953 0.2468 0 8
8.4807 -4.9101 -2.4953 0.2468 0 8
8.5585 -4.7732 -2.4953 0.2468 0 8
8.6341 -4.6350 -2.4953 0.2468 0 8
8.7075 -4.4957 -2.4953 0.2468 0 8
8.7786 -4.3551 -2.4953 0.2468 0 8
8.8475 -4.2135 -2.4953 0.2468 0 8
8.9140 -4.0708 -2.4953 0.2468 0 8
8.9783 -3.9270 -2.4953 0.2468 0 8
9.0403 -3.7822 -2.4953 0.2468 0 8
9.0999 -3.6364 -2.4953 0.2468 0 8
9.1571 -3.4897 -2.4953 0.2468 0 8
9.2120 -3.3421 -2.4953 0.2468 0 8
9.2646 -3.1936 -2.4953 0.2468 0 8
9.3147 -3.0443 -2.4953 0.2468 0 8
9.3624 -2.8942 -2.4953 0.2468 0 8
9.4077 -2.7434 -2.4953 0.2468 0 8
9.4506 -2.5918 -2.4953 0.2468 0 8
9.4910 -2.4396 -2.4953 0.2468 0 8
9.5290 -2.2867 -2.4953 0.2468 0 8
9.5645 -2.1333 -2.4953 0.2468 0 8
9.5976 -1.9793 -2.4953 0.2468 0 8
9.6281 -1.8248 -2.4953 0.2468 0 8
9.6562 -1.6698 -2.4953 0.2468 0 8
9.6818 -1.5144 -2.4953 0.2468 0 8
9.7049 -1.3586 -2.4953 0.2468 0 8
9.7255 -1.2025 -2.4953 0.2468 0 8
8.1369 -0.8736 -2.0838 0.1938 25 10
7.7699 -0.7080 -1.9866 0.4044 25 10
7.6581 -0.5739 -1.9555 0.7665 25 10
7.6017 -0.4470 -1.9390 0.9152 25 10
7.5719 -0.3232 -1.9298 0.9359 25 10
7.5643 -0.2012 -1.9268 0.9240 25 10
7.5678 -0.0796 -1.9271 0.9239 25 10
7.5689 0.0421 -1.9273 0.9238 25 10
7.5653 0.1636 -1.9268 0.9240 25 10
7.5665 0.2854 -1.9280 0.9621 25 10
7.5923 0.4086 -1.9360 0.9166 25 10
7.6354 0.5341 -1.9490 0.7691 25 10
7.7098 0.6640 -1.9704 0.7607 25 10
7.9351 0.8121 -2.0311 0.5419 25 10
9.7313 1.1542 -2.4953 0.2468 0 8
9.7115 1.3105 -2.4953 0.2468 0 8
9.6892 1.4664 -2.4953 0.2468 0 8
9.6644 1.6219 -2.4953 0.2468 0 8
9.6371 1.7770 -2.4953 0.2468 0 8
9.6073 1.9317 -2.4953 0.2468 0 8
9.5750 2.0858 -2.4953 0.2468 0 8
9.5402 2.2394 -2.4953 0.2468 0 8
9.5030 2.3925 -2.4953 0.2468 0 8
9.4633 2.5449 -2.4953 0.2468 0 8
9.4212 2.6967 -2.4953 0.2468 0 8
9.3767 2.8477 -2.4953 0.2468 0 8
9.3297 2.9980 -2.4953 0.2468 0 8
9.2803 3.1476 -2.4953 0.2468 0 8
9.2285 3.2963 -2.4953 0.2468 0 8
9.1743 3.4442 -2.4953 0.2468 0 8
9.1178 3.5912 -2.4953 0.2468 0 8
9.0589 3.7373 -2.4953 0.2468 0 8
8.9977 3.8824 -2.4953 0.2468 0 8
8.9341 4.0265 -2.4953 0.2468 0 8
8.8683 4.1696 -2.4953 0.2468 0 8
8.8001 4.3115 -2.4953 0.2468 0 8
8.7297 4.4524 -2.4953 0.2468 0 8
8.6570 4.5921 -2.4953 0.2468 0 8
8.5821 4.7307 -2.4953 0.2468 0 8
8.5049 4.8680 -2.4953 0.2468 0 8
8.4256 5.0040 -2.4953 0.2468 0 8
8.3441 5.1388 -2.4953 0.2468 0 8
8.2604 5.2722 -2.4953 0.2468 0 8
8.1746 5.4043 -2.4953 0.2468 0 8
8.0867 5.5350 -2.4953 0.2468 0 8
7.9967 5.6642 -2.4953 0.2468 0 8
7.9047 5.7920 -2.4953 0.2468 0 8
7.8105 5.9183 -2.4953 0.2468 0 8
7.7144 6.0431 -2.4953 0.2468 0 8
7.6163 6.1663 -2.4953 0.2468 0 8
7.5162 6.2879 -2.4953 0.2468 0 8
7.4142 6.4079 -2.4953 0.2468 0 8
7.3103 6.5262 -2.4953 0.2468 0 8
7.2044 6.6428 -2.4953 0.2468 0 8
7.8735 -5.2615 -2.4953 0.2548 0 8
7.9570 -5.1343 -2.4953 0.2548 0 8
8.0385 -5.0058 -2.4953 0.2548 0 8
8.1179 -4.8759 -2.4953 0.2548 0 8
8.1952 -4.7448 -2.4953 0.2548 0 8
8.2704 -4.6125 -2.4953 0.2548 0 8
8.3435 -4.4790 -2.4953 0.2548 0 8
8.4144 -4.3443 -2.4953 0.2548 0 8
8.4831 -4.2086 -2.4953 0.2548 0 8
8.5497 -4.0717 -2.4953 0.2548 0 8
8.6140 -3.9337 -2.4953 0.2548 0 8
8.6761 -3.7948 -2.4953 0.2548 0 8
8.7360 -3.6549 -2.4953 0.2548 0 8
8.7936 -3.5140 -2.4953 0.2548 0 8
8.8489 -3.3722 -2.4953 0.2548 0 8
8.9020 -3.2296 -2.4953 0.2548 0 8
8.9527 -3.0861 -2.4953 0.2548 0 8
9.0012 -2.9418 -2.4953 0.2548 0 8
9.0473 -2.7968 -2.4953 0.2548 0 8
9.0911 -2.6510 -2.4953 0.2548 0 8
9.1325 -2.5046 -2.4953 0.2548 0 8
9.1716 -2.3575 -2.4953 0.2548 0 8
9.2083 -2.2098 -2.4953 0.2548 0 8
9.2426 -2.0615 -2.4953 0.2548 0 8
9.2745 -1.9127 -2.4953 0.2548 0 8
9.3041 -1.7634 -2.4953 0.2548 0 8
9.3312 -1.6136 -2.4953 0.2548 0 8
9.3559 -1.4635 -2.4953 0.2548 0 8
9.3783 -1.3129 -2.4953 0.2548 0 8
9.3981 -1.1620 -2.4953 0.2548 0 8
8.1662 -0.8767 -2.1642 0.1927 25 10
7.8137 -0.7120 -2.0675 0.4013 25 10
7.6789 -0.5755 -2.0291 0.7190 25 10
7.6118 -0.4476 -2.0092 0.8137 25 10
7.5801 -0.3236 -1.9992 0.8469 25 10
7.5766 -0.2015 -1.9971 0.8886 25 10
7.5804 -0.0797 -1.9975 0.8884 25 10
7.5810 0.0421 -1.9976 0.9287 25 10
7.5778 0.1639 -1.9972 0.8885 25 10
7.5741 0.2857 -1.9972 0.8885 25 10
7.6019 0.4092 -2.0060 0.8440 25 10
7.6549 0.5355 -2.0220 0.7215 25 10
7.7401 0.6666 -2.0471 0.4053 25 10
7.9559 0.8142 -2.1073 0.1538 25 10
9.4038 1.1154 -2.4953 0.2548 0 8
9.3847 1.2664 -2.4953 0.2548 0 8
9.3631 1.4170 -2.4953 0.2548 0 8
9.3391 1.5673 -2.4953 0.2548 0 8
9.3127 1.7172 -2.4953 0.2548 0 8
9.2839 1.8667 -2.4953 0.2548 0 8
9.2527 2.0156 -2.4953 0.2548 0 8
9.2191 2.1641 -2.4953 0.2548 0 8
9.1832 2.3120 -2.4953 0.2548 0 8
9.1448 2.4592 -2.4953 0.2548 0 8
9.1041 2.6059 -2.4953 0.2548 0 8
9.0611 2.7519 -2.4953 0.2548 0 8
9.0157 2.8971 -2.4953 0.2548 0 8
8.9679 3.0416 -2.4953 0.2548 0 8
8.9179 3.1854 -2.4953 0.2548 0 8
8.8655 3.3283 -2.4953 0.2548 0 8
8.8109 3.4703 -2.4953 0.2548 0 8
8.7540 3.6115 -2.4953 0.2548 0 8
8.6948 3.7517 -2.4953 0.2548 0 8
8.6334 3.8910 -2.4953 0.2548 0 8
8.5698 4.0292 -2.4953 0.2548 0 8
8.5039 4.1664 -2.4953 0.2548 0 8
8.4358 4.3025 -2.4953 0.2548 0 8
8.3656 4.4376 -2.4953 0.2548 0 8
8.2932 4.5714 -2.4953 0.2548 0 8
8.2187 4.7041 -2.4953 0.2548 0 8
8.1420 4.8356 -2.4953 0.2548 0 8
8.0632 4.9658 -2.4953 0.2548 0 8
7.9824 5.0948 -2.4953 0.2548 0 8
7.8995 5.2224 -2.4953 0.2548 0 8
7.8145 5.3487 -2.4953 0.2548 0 8
7.7276 5.4736 -2.4953 0.2548 0 8
7.6386 5.5971 -2.4953 0.2548 0 8
7.5477 5.7191 -2.4953 0.2548 0 8
7.4548 5.8397 -2.4953 0.2548 0 8
7.3600 5.9587 -2.4953 0.2548 0 8
7.2632 6.0762 -2.4953 0.2548 0 8
7.1647 6.1922 -2.4953 0.2548 0 8
7.0642 6.3065 -2.4953 0.2548 0 8
6.9619 6.4192 -2.4953 0.2548 0 8
7.6160 -5.0895 -2.4953 0.2628 0 8
7.6968 -4.9664 -2.4953 0.2628 0 8
7.7756 -4.8421 -2.4953 0.2628 0 8
7.8525 -4.7165 -2.4953 0.2628 0 8
7.9272 -4.5897 -2.4953 0.2628 0 8
8.0000 -4.4617 -2.4953 0.2628 0 8
8.0707 -4.3325 -2.4953 0.2628 0 8
8.1392 -4.2023 -2.4953 0.2628 0 8
8.2057 -4.0709 -2.4953 0.2628 0 8
8.2701 -3.9385 -2.4953 0.2628 0 8
8.3323 -3.8051 -2.4953 0.2628 0 8
8.3924 -3.6707 -2.4953 0.2628 0 8
8.4503 -3.5354 -2.4953 0.2628 0 8
8.5060 -3.3991 -2.4953 0.2628 0 8
8.5596 -3.2620 -2.4953 0.2628 0 8
8.6109 -3.1240 -2.4953 0.2628 0 8
8.6600 -2.9852 -2.4953 0.2628 0 8
8.7068 -2.8456 -2.4953 0.2628 0 8
8.7514 -2.7053 -2.4953 0.2628 0 8
8.7938 -2.5643 -2.4953 0.2628 0 8
8.8339 -2.4227 -2.4953 0.2628 0 8
8.8717 -2.2804 -2.4953 0.2628 0 8
8.9072 -2.1375 -2.4953 0.2628 0 8
8.9404 -1.9941 -2.4953 0.2628 0 8
8.9713 -1.8501 -2.4953 0.2628 0 8
8.9998 -1.7057 -2.4953 0.2628 0 8
9.0261 -1.5609 -2.4953 0.2628 0 8
9.0500 -1.4156 -2.4953 0.2628 0 8
9.0716 -1.2700 -2.4953 0.2628 0 8
9.0908 -1.1240 -2.4953 0.2628 0 8
8.2792 -0.8888 -2.2683 0.8896 25 10
7.8444 -0.7148 -2.1457 0.5464 25 10
7.7022 -0.5772 -2.1040 0.7209 25 10
7.6334 -0.4488 -2.0830 0.8095 25 10
7.5979 -0.3243 -2.0716 0.8430 25 10
7.5926 -0.2019 -2.0690 0.8847 25 10
7.5909 -0.0798 -2.0679 0.9254 25 10
7.5894 0.0422 -2.0674 0.9256 25 10
7.5937 0.1643 -2.0691 0.8847 25 10
7.5901 0.2863 -2.0691 0.8847 25 10
7.6217 0.4102 -2.0792 0.8110 25 10
7.6784 0.5372 -2.0968 0.7177 25 10
7.7839 0.6704 -2.1282 0.4021 25 10
8.0058 0.8193 -2.1922 0.1962 25 10
9.0963 1.0789 -2.4953 0.2628 0 8
9.0778 1.2250 -2.4953 0.2628 0 8
9.0569 1.3707 -2.4953 0.2628 0 8
9.0337 1.5161 -2.4953 0.2628 0 8
9.0082 1.6611 -2.4953 0.2628 0 8
8.9803 1.8056 -2.4953 0.2628 0 8
8.9501 1.9497 -2.4953 0.2628 0 8
8.9177 2.0933 -2.4953 0.2628 0 8
8.8829 2.2364 -2.4953 0.2628 0 8
8.8458 2.3788 -2.4953 0.2628 0 8
8.8064 2.5207 -2.4953 0.2628 0 8
8.7648 2.6619 -2.4953 0.2628 0 8
8.7208 2.8024 -2.4953 0.2628 0 8
8.6747 2.9422 -2.4953 0.2628 0 8
8.6263 3.0812 -2.4953 0.2628 0 8
8.5756 3.2195 -2.4953 0.2628 0 8
8.5228 3.3569 -2.4953 0.2628 0 8
8.4677 3.4934 -2.4953 0.2628 0 8
8.4105 3.6290 -2.4953 0.2628 0 8
8.3511 3.7637 -2.4953 0.2628 0 8
8.2895 3.8975 -2.4953 0.2628 0 8
8.2258 4.0302 -2.4953 0.2628 0 8
8.1600 4.1619 -2.4953 0.2628 0 8
8.0920 4.2925 -2.4953 0.2628 0 8
8.0220 4.4220 -2.4953 0.2628 0 8
7.9499 4.5503 -2.4953 0.2628 0 8
7.8758 4.6775 -2.4953 0.2628 0 8
7.7996 4.8035 -2.4953 0.2628 0 8
7.7214 4.9282 -2.4953 0.2628 0 8
7.6412 5.0516 -2.4953 0.2628 0 8
7.5590 5.1738 -2.4953 0.2628 0 8
7.4749 5.2946 -2.4953 0.2628 0 8
7.3888 5.4140 -2.4953 0.2628 0 8
7.3008 5.5321 -2.4953 0.2628 0 8
7.2110 5.6487 -2.4953 0.2628 0 8
7.1193 5.7639 -2.4953 0.2628 0 8
7.0257 5.8775 -2.4953 0.2628 0 8
6.9304 5.9897 -2.4953 0.2628 0 8
6.8332 6.1003 -2.4953 0.2628 0 8
6.7343 6.2093 -2.4953 0.2628 0 8
7.3738 -4.9276 -2.4953 0.2708 0 8
7.4520 -4.8085 -2.4953 0.2708 0 8
7.5283 -4.6881 -2.4953 0.2708 0 8
7.6027 -4.5665 -2.4953 0.2708 0 8
7.6751 -4.4437 -2.4953 0.2708 0 8
7.7456 -4.3198 -2.4953 0.2708 0 8
7.8140 -4.1948 -2.4953 0.2708 0 8
7.8804 -4.0686 -2.4953 0.2708 0 8
7.9448 -3.9415 -2.4953 0.2708 0 8
8.0071 -3.8133 -2.4953 0.2708 0 8
8.0673 -3.6841 -2.4953 0.2708 0 8
8.1255 -3.5540 -2.4953 0.2708 0 8
8.1816 -3.4229 -2.4953 0.2708 0 8
8.2355 -3.2910 -2.4953 0.2708 0 8
8.2873 -3.1582 -2.4953 0.2708 0 8
8.3370 -3.0246 -2.4953 0.2708 0 8
8.3846 -2.8902 -2.4953 0.2708 0 8
8.4299 -2.7551 -2.4953 0.2708 0 8
8.4731 -2.6193 -2.4953 0.2708 0 8
8.5141 -2.4828 -2.4953 0.2708 0 8
8.5529 -2.3456 -2.4953 0.2708 0 8
8.5895 -2.2079 -2.4953 0.2708 0 8
8.6239 -2.0695 -2.4953 0.2708 0 8
8.6560 -1.9307 -2.4953 0.2708 0 8
8.6859 -1.7913 -2.4953 0.2708 0 8
8.7136 -1.6515 -2.4953 0.2708 0 8
8.7390 -1.5112 -2.4953 0.2708 0 8
8.7622 -1.3706 -2.4953 0.2708 0 8
8.7831 -1.2296 -2.4953 0.2708 0 8
8.8017 -1.0883 -2.4953 0.2708 0 8
8.3354 -0.8949 -2.3587 0.6453 25 10
8.3323 -0.7593 -2.3541 0.6466 25 10
7.7254 -0.5790 -2.1797 0.7171 25 10
7.6553 -0.4501 -2.1576 0.8054 25 10
7.6172 -0.3251 -2.1451 0.8101 25 10
7.6042 -0.2022 -2.1403 0.9213 25 10
7.5994 -0.0799 -2.1382 0.9222 25 10
7.5979 0.0422 -2.1377 0.9224 25 10
7.6027 0.1645 -2.1396 0.9216 25 10
7.6062 0.2869 -2.1416 0.8404 25 10
7.6435 0.4114 -2.1537 0.8068 25 10
7.7015 0.5388 -2.1722 0.7196 25 10
8.3315 0.7176 -2.3528 0.6470 25 10
8.3344 0.8530 -2.3572 0.6458 25 10
8.8070 1.0446 -2.4953 0.2708 0 8
8.7891 1.1860 -2.4953 0.2708 0 8
8.7689 1.3271 -2.4953 0.2708 0 8
8.7464 1.4679 -2.4953 0.2708 0 8
8.7217 1.6082 -2.4953 0.2708 0 8
8.6947 1.7482 -2.4953 0.2708 0 8
8.6655 1.8877 -2.4953 0.2708 0 8
8.6340 2.0267 -2.4953 0.2708 0 8
8.6003 2.1652 -2.4953 0.2708 0 8
8.5644 2.3032 -2.4953 0.2708 0 8
8.5263 2.4405 -2.4953 0.2708 0 8
8.4860 2.5772 -2.4953 0.2708 0 8
8.4435 2.7133 -2.4953 0.2708 0 8
8.3988 2.8486 -2.4953 0.2708 0 8
8.3519 2.9832 -2.4953 0.2708 0 8
8.3029 3.1171 -2.4953 0.2708 0 8
8.2517 3.2501 -2.4953 0.2708 0 8
8.1984 3.3823 -2.4953 0.2708 0 8
8.1430 3.5136 -2.4953 0.2708 0 8
8.0855 3.6440 -2.4953 0.2708 0 8
8.0259 3.7735 -2.4953 0.2708 0 8
7.9642 3.9020 -2.4953 0.2708 0 8
7.9005 4.0295 -2.4953 0.2708 0 8
7.8347 4.1559 -2.4953 0.2708 0 8
7.7669 4.2813 -2.4953 0.2708 0 8
7.6971 4.4056 -2.4953 0.2708 0 8
7.6253 4.5287 -2.4953 0.2708 0 8
7.5515 4.6507 -2.4953 0.2708 0 8
7.4758 4.7714 -2.4953 0.2708 0 8
7.3981 4.8910 -2.4953 0.2708 0 8
7.3186 5.0092 -2.4953 0.2708 0 8
7.2371 5.1262 -2.4953 0.2708 0 8
7.1538 5.2419 -2.4953 0.2708 0 8
7.0687 5.3561 -2.4953 0.2708 0 8
6.9817 5.4691 -2.4953 0.2708 0 8
6.8929 5.5806 -2.4953 0.2708 0 8
6.8023 5.6906 -2.4953 0.2708 0 8
6.7100 5.7992 -2.4953 0.2708 0 8
6.6159 5.9063 -2.4953 0.2708 0 8
6.5201 6.0119 -2.4953 0.2708 0 8
7.1455 -4.7750 -2.4953 0.2788 0 8
7.2213 -4.6596 -2.4953 0.2788 0 8
7.2952 -4.5429 -2.4953 0.2788 0 8
7.3673 -4.4251 -2.4953 0.2788 0 8
7.4375 -4.3061 -2.4953 0.2788 0 8
7.5057 -4.1860 -2.4953 0.2788 0 8
7.5720 -4.0649 -2.4953 0.2788 0 8
7.6364 -3.9426 -2.4953 0.2788 0 8
7.6988 -3.8194 -2.4953 0.2788 0 8
7.7591 -3.6952 -2.4953 0.2788 0 8
7.8175 -3.5700 -2.4953 0.2788 0 8
7.8739 -3.4439 -2.4953 0.2788 0 8
7.9282 -3.3169 -2.4953 0.2788 0 8
7.9805 -3.1891 -2.4953 0.2788 0 8
8.0307 -3.0604 -2.4953 0.2788 0 8
8.0789 -2.9310 -2.4953 0.2788 0 8
8.1249 -2.8007 -2.4953 0.2788 0 8
8.1689 -2.6698 -2.4953 0.2788 0 8
8.2107 -2.5382 -2.4953 0.2788 0 8
8.2505 -2.4059 -2.4953 0.2788 0 8
8.2881 -2.2730 -2.4953 0.2788 0 8
8.3235 -2.1395 -2.4953 0.2788 0 8
8.3568 -2.0055 -2.4953 0.2788 0 8
8.3880 -1.8709 -2.4953 0.2788 0 8
8.4170 -1.7358 -2.4953 0.2788 0 8
8.4438 -1.6003 -2.4953 0.2788 0 8
8.4684 -1.4644 -2.4953 0.2788 0 8
8.4909 -1.3281 -2.4953 0.2788 0 8
8.5111 -1.1915 -2.4953 0.2788 0 8
8.5292 -1.0546 -2.4953 0.2788 0 8
8.5450 -0.9174 -2.4953 0.2788 0 8
8.4743 -0.7722 -2.4707 0.2995 25 10
8.5701 -0.6423 -2.4953 0.2788 0 8
8.5793 -0.5045 -2.4953 0.2788 0 8
8.5863 -0.3665 -2.4953 0.2788 0 8
8.5911 -0.2285 -2.4953 0.2788 0 8
8.5936 -0.0904 -2.4953 0.2788 0 8
8.5940 0.0477 -2.4953 0.2788 0 8
8.5921 0.1859 -2.4953 0.2788 0 8
8.5880 0.3239 -2.4953 0.2788 0 8
8.5817 0.4619 -2.4953 0.2788 0 8
8.5732 0.5998 -2.4953 0.2788 0 8
8.4715 0.7296 -2.4688 0.2997 25 10
8.5495 0.8750 -2.4953 0.2788 0 8
8.5343 1.0123 -2.4953 0.2788 0 8
8.5169 1.1493 -2.4953 0.2788 0 8
8.4973 1.2860 -2.4953 0.2788 0 8
8.4756 1.4224 -2.4953 0.2788 0 8
8.4516 1.5584 -2.4953 0.2788 0 8
8.4255 1.6941 -2.4953 0.2788 0 8
8.3972 1.8293 -2.4953 0.2788 0 8
8.3667 1.9640 -2.4953 0.2788 0 8
8.3340 2.0982 -2.4953 0.2788 0 8
8.2993 2.2318 -2.4953 0.2788 0 8
8.2623 2.3649 -2.4953 0.2788 0 8
8.2232 2.4974 -2.4953 0.2788 0 8
8.1820 2.6293 -2.4953 0.2788 0 8
8.1387 2.7604 -2.4953 0.2788 0 8
8.0933 2.8909 -2.4953 0.2788 0 8
8.0458 3.0205 -2.4953 0.2788 0 8
7.9962 3.1495 -2.4953 0.2788 0 8
7.9446 3.2776 -2.4953 0.2788 0 8
7.8909 3.4048 -2.4953 0.2788 0 8
7.8351 3.5312 -2.4953 0.2788 0 8
7.7774 3.6567 -2.4953 0.2788 0 8
7.7176 3.7812 -2.4953 0.2788 0 8
7.6558 3.9047 -2.4953 0.2788 0 8
7.5921 4.0273 -2.4953 0.2788 0 8
7.5264 4.1487 -2.4953 0.2788 0 8
7.4587 4.2692 -2.4953 0.2788 0 8
7.3892 4.3885 -2.4953 0.2788 0 8
7.3177 4.5067 -2.4953 0.2788 0 8
7.2443 4.6237 -2.4953 0.2788 0 8
7.1691 4.7395 -2.4953 0.2788 0 8
7.0920 4.8541 -2.4953 0.2788 0 8
7.0130 4.9675 -2.4953 0.2788 0 8
6.9323 5.0795 -2.4953 0.2788 0 8
6.8498 5.1903 -2.4953 0.2788 0 8
6.7655 5.2997 -2.4953 0.2788 0 8
6.6794 5.4078 -2.4953 0.2788 0 8
6.5917 5.5144 -2.4953 0.2788 0 8
6.5022 5.6196 -2.4953 0.2788 0 8
6.4110 5.7234 -2.4953 0.2788 0 8
6.3182 5.8257 -2.4953 0.2788 0 8
6.9299 -4.6310 -2.4953 0.2868 0 8
7.0034 -4.5190 -2.4953 0.2868 0 8
7.0751 -4.4058 -2.4953 0.2868 0 8
7.1450 -4.2916 -2.4953 0.2868 0 8
7.2131 -4.1762 -2.4953 0.2868 0 8
7.2792 -4.0597 -2.4953 0.2868 0 8
7.3435 -3.9422 -2.4953 0.2868 0 8
7.4060 -3.8237 -2.4953 0.2868 0 8
7.4664 -3.7042 -2.4953 0.2868 0 8
7.5250 -3.5837 -2.4953 0.2868 0 8
7.5816 -3.4623 -2.4953 0.2868 0 8
7.6363 -3.3400 -2.4953 0.2868 0 8
7.6890 -3.2168 -2.4953 0.2868 0 8
7.7397 -3.0929 -2.4953 0.2868 0 8
7.7884 -2.9681 -2.4953 0.2868 0 8
7.8351 -2.8425 -2.4953 0.2868 0 8
7.8798 -2.7162 -2.4953 0.2868 0 8
7.9224 -2.5892 -2.4953 0.2868 0 8
7.9630 -2.4616 -2.4953 0.2868 0 8
8.0015 -2.3333 -2.4953 0.2868 0 8
8.0380 -2.2044 -2.4953 0.2868 0 8
8.0724 -2.0749 -2.4953 0.2868 0 8
8.1047 -1.9449 -2.4953 0.2868 0 8
8.1349 -1.8144 -2.4953 0.2868 0 8
8.1630 -1.6835 -2.4953 0.2868 0 8
8.1890 -1.5521 -2.4953 0.2868 0 8
8.2129 -1.4202 -2.4953 0.2868 0 8
8.2347 -1.2881 -2.4953 0.2868 0 8
8.2543 -1.1556 -2.4953 0.2868 0 8
8.2718 -1.0228 -2.4953 0.2868 0 8
8.2872 -0.8897 -2.4953 0.2868 0 8
8.3004 -0.7564 -2.4953 0.2868 0 8
8.3115 -0.6229 -2.4953 0.2868 0 8
8.3204 -0.4892 -2.4953 0.2868 0 8
8.3272 -0.3555 -2.4953 0.2868 0 8
8.3318 -0.2216 -2.4953 0.2868 0 8
8.3343 -0.0876 -2.4953 0.2868 0 8
8.3347 0.0463 -2.4953 0.2868 0 8
8.3328 0.1802 -2.4953 0.2868 0 8
8.3289 0.3141 -2.4953 0.2868 0 8
8.3227 0.4480 -2.4953 0.2868 0 8
8.3145 0.5817 -2.4953 0.2868 0 8
8.3040 0.7152 -2.4953 0.2868 0 8
8.2915 0.8486 -2.4953 0.2868 0 8
8.2768 0.9817 -2.4953 0.2868 0 8
8.2599 1.1146 -2.4953 0.2868 0 8
8.2409 1.2472 -2.4953 0.2868 0 8
8.2198 1.3795 -2.4953 0.2868 0 8
8.1966 1.5114 -2.4953 0.2868 0 8
8.1713 1.6429 -2.4953 0.2868 0 8
8.1438 1.7741 -2.4953 0.2868 0 8
8.1142 1.9047 -2.4953 0.2868 0 8
8.0826 2.0349 -2.4953 0.2868 0 8
8.0488 2.1645 -2.4953 0.2868 0 8
8.0130 2.2936 -2.4953 0.2868 0 8
7.9751 2.4221 -2.4953 0.2868 0 8
7.9351 2.5499 -2.4953 0.2868 0 8
7.8931 2.6771 -2.4953 0.2868 0 8
7.8491 2.8036 -2.4953 0.2868 0 8
7.8030 2.9294 -2.4953 0.2868 0 8
7.7549 3.0544 -2.4953 0.2868 0 8
7.7049 3.1787 -2.4953 0.2868 0 8
7.6528 3.3021 -2.4953 0.2868 0 8
7.5987 3.4246 -2.4953 0.2868 0 8
7.5427 3.5463 -2.4953 0.2868 0 8
7.4847 3.6671 -2.4953 0.2868 0 8
7.4248 3.7869 -2.4953 0.2868 0 8
7.3630 3.9057 -2.4953 0.2868 0 8
7.2993 4.0236 -2.4953 0.2868 0 8
7.2337 4.1404 -2.4953 0.2868 0 8
7.1662 4.2561 -2.4953 0.2868 0 8
7.0969 4.3707 -2.4953 0.2868 0 8
7.0257 4.4842 -2.4953 0.2868 0 8
6.9527 4.5965 -2.4953 0.2868 0 8
6.8780 4.7077 -2.4953 0.2868 0 8
6.8014 4.8176 -2.4953 0.2868 0 8
6.7231 4.9263 -2.4953 0.2868 0 8
6.6431 5.0337 -2.4953 0.2868 0 8
6.5613 5.1398 -2.4953 0.2868 0 8
6.4779 5.2446 -2.4953 0.2868 0 8
6.3928 5.3480 -2.4953 0.2868 0 8
6.3060 5.4501 -2.4953 0.2868 0 8
6.2176 5.5507 -2.4953 0.2868 0 8
6.1276 5.6499 -2.4953 0.2868 0 8
6.7259 -4.4947 -2.4953 0.2948 0 8
6.7973 -4.3860 -2.4953 0.2948 0 8
6.8669 -4.2762 -2.4953 0.2948 0 8
6.9347 -4.1653 -2.4953 0.2948 0 8
7.0008 -4.0533 -2.4953 0.2948 0 8
7.0650 -3.9402 -2.4953 0.2948 0 8
7.1274 -3.8262 -2.4953 0.2948 0 8
7.1880 -3.7111 -2.4953 0.2948 0 8
7.2467 -3.5951 -2.4953 0.2948 0 8
7.3035 -3.4782 -2.4953 0.2948 0 8
7.3585 -3.3604 -2.4953 0.2948 0 8
7.4115 -3.2417 -2.4953 0.2948 0 8
7.4627 -3.1222 -2.4953 0.2948 0 8
7.5119 -3.0018 -2.4953 0.2948 0 8
7.5592 -2.8807 -2.4953 0.2948 0 8
7.6045 -2.7589 -2.4953 0.2948 0 8
7.6478 -2.6363 -2.4953 0.2948 0 8
7.6892 -2.5130 -2.4953 0.2948 0 8
7.7286 -2.3891 -2.4953 0.2948 0 8
7.7660 -2.2646 -2.4953 0.2948 0 8
7.8014 -2.1395 -2.4953 0.2948 0 8
7.8348 -2.0139 -2.4953 0.2948 0 8
7.8661 -1.8877 -2.4953 0.2948 0 8
7.8955 -1.7610 -2.4953 0.2948 0 8
7.9227 -1.6339 -2.4953 0.2948 0 8
7.9480 -1.5064 -2.4953 0.2948 0 8
7.9712 -1.3784 -2.4953 0.2948 0 8
7.9923 -1.2502 -2.4953 0.2948 0 8
8.0113 -1.1216 -2.4953 0.2948 0 8
8.0283 -0.9927 -2.4953 0.2948 0 8
8.0433 -0.8635 -2.4953 0.2948 0 8
8.0561 -0.7341 -2.4953 0.2948 0 8
8.0668 -0.6046 -2.4953 0.2948 0 8
8.0755 -0.4748 -2.4953 0.2948 0 8
8.0821 -0.3450 -2.4953 0.2948 0 8
8.0866 -0.2151 -2.4953 0.2948 0 8
8.0890 -0.0851 -2.4953 0.2948 0 8
8.0893 0.0449 -2.4953 0.2948 0 8
8.0876 0.1749 -2.4953 0.2948 0 8
8.0837 0.3049 -2.4953 0.2948 0 8
8.0778 0.4348 -2.4953 0.2948 0 8
8.0697 0.5645 -2.4953 0.2948 0 8
8.0596 0.6942 -2.4953 0.2948 0 8
8.0474 0.8236 -2.4953 0.2948 0 8
8.0332 0.9528 -2.4953 0.2948 0 8
8.0168 1.0818 -2.4953 0.2948 0 8
7.9984 1.2105 -2.4953 0.2948 0 8
7.9779 1.3389 -2.4953 0.2948 0 8
7.9554 1.4669 -2.4953 0.2948 0 8
7.9308 1.5946 -2.4953 0.2948 0 8
7.9041 1.7218 -2.4953 0.2948 0 8
7.8754 1.8486 -2.4953 0.2948 0 8
7.8447 1.9750 -2.4953 0.2948 0 8
7.8119 2.1008 -2.4953 0.2948 0 8
7.7772 2.2261 -2.4953 0.2948 0 8
7.7404 2.3508 -2.4953 0.2948 0 8
7.7016 2.4749 -2.4953 0.2948 0 8
7.6608 2.5983 -2.4953 0.2948 0 8
7.6181 2.7211 -2.4953 0.2948 0 8
7.5734 2.8432 -2.4953 0.2948 0 8
7.5267 2.9645 -2.4953 0.2948 0 8
7.4781 3.0851 -2.4953 0.2948 0 8
7.4275 3.2049 -2.4953 0.2948 0 8
7.3751 3.3238 -2.4953 0.2948 0 8
7.3207 3.4419 -2.4953 0.2948 0 8
7.2644 3.5591 -2.4953 0.2948 0 8
7.2063 3.6754 -2.4953 0.2948 0 8
7.1463 3.7908 -2.4953 0.2948 0 8
7.0844 3.9051 -2.4953 0.2948 0 8
7.0208 4.0185 -2.4953 0.2948 0 8
6.9553 4.1308 -2.4953 0.2948 0 8
6.8880 4.2421 -2.4953 0.2948 0 8
6.8189 4.3522 -2.4953 0.2948 0 8
6.7481 4.4612 -2.4953 0.2948 0 8
6.6755 4.5691 -2.4953 0.2948 0 8
6.6012 4.6758 -2.4953 0.2948 0 8
6.5252 4.7813 -2.4953 0.2948 0 8
6.4476 4.8855 -2.4953 0.2948 0 8
6.3682 4.9885 -2.4953 0.2948 0 8
6.2872 5.0902 -2.4953 0.2948 0 8
6.2046 5.1906 -2.4953 0.2948 0 8
6.1204 5.2897 -2.4953 0.2948 0 8
6.0346 5.3873 -2.4953 0.2948 0 8
5.9472 5.4836 -2.4953 0.2948 0 8
6.5326 -4.3655 -2.4953 0.3027 0 8
6.6019 -4.2599 -2.4953 0.3027 0 8
6.6696 -4.1533 -2.4953 0.3027 0 8
6.7354 -4.0456 -2.4953 0.3027 0 8
6.7996 -3.9368 -2.4953 0.3027 0 8
6.8620 -3.8270 -2.4953 0.3027 0 8
6.9226 -3.7162 -2.4953 0.3027 0 8
6.9814 -3.6045 -2.4953 0.3027 0 8
7.0385 -3.4918 -2.4953 0.3027 0 8
7.0937 -3.3783 -2.4953 0.3027 0 8
7.1470 -3.2638 -2.4953 0.3027 0 8
7.1986 -3.1485 -2.4953 0.3027 0 8
7.2483 -3.0325 -2.4953 0.3027 0 8
7.2961 -2.9156 -2.4953 0.3027 0 8
7.3420 -2.7979 -2.4953 0.3027 0 8
7.3860 -2.6796 -2.4953 0.3027 0 8
7.4281 -2.5605 -2.4953 0.3027 0 8
7.4683 -2.4408 -2.4953 0.3027 0 8
7.5065 -2.3205 -2.4953 0.3027 0 8
7.5429 -2.1996 -2.4953 0.3027 0 8
7.5772 -2.0780 -2.4953 0.3027 0 8
7.6097 -1.9560 -2.4953 0.3027 0 8
7.6401 -1.8335 -2.4953 0.3027 0 8
7.6686 -1.7104 -2.4953 0.3027 0 8
7.6951 -1.5870 -2.4953 0.3027 0 8
7.7196 -1.4631 -2.4953 0.3027 0 8
7.7421 -1.3388 -2.4953 0.3027 0 8
7.7626 -1.2142 -2.4953 0.3027 0 8
7.7811 -1.0893 -2.4953 0.3027 0 8
7.7977 -0.9641 -2.4953 0.3027 0 8
7.8121 -0.8387 -2.4953 0.3027 0 8
7.8246 -0.7130 -2.4953 0.3027 0 8
7.8351 -0.5872 -2.4953 0.3027 0 8
7.8435 -0.4612 -2.4953 0.3027 0 8
7.8499 -0.3351 -2.4953 0.3027 0 8
7.8543 -0.2089 -2.4953 0.3027 0 8
7.8566 -0.0826 -2.4953 0.3027 0 8
7.8569 0.0437 -2.4953 0.3027 0 8
7.8552 0.1699 -2.4953 0.3027 0 8
7.8514 0.2961 -2.4953 0.3027 0 8
7.8457 0.4223 -2.4953 0.3027 0 8
7.8379 0.5483 -2.4953 0.3027 0 8
7.8280 0.6742 -2.4953 0.3027 0 8
7.8162 0.7999 -2.4953 0.3027 0 8
7.8023 0.9254 -2.4953 0.3027 0 8
7.7865 1.0507 -2.4953 0.3027 0 8
7.7686 1.1757 -2.4953 0.3027 0 8
7.7487 1.3004 -2.4953 0.3027 0 8
7.7268 1.4248 -2.4953 0.3027 0 8
7.7029 1.5488 -2.4953 0.3027 0 8
7.6770 1.6724 -2.4953 0.3027 0 8
7.6491 1.7955 -2.4953 0.3027 0 8
7.6193 1.9182 -2.4953 0.3027 0 8
7.5875 2.0404 -2.4953 0.3027 0 8
7.5537 2.1621 -2.4953 0.3027 0 8
7.5180 2.2832 -2.4953 0.3027 0 8
7.4803 2.4038 -2.4953 0.3027 0 8
7.4407 2.5237 -2.4953 0.3027 0 8
7.3992 2.6429 -2.4953 0.3027 0 8
7.3558 2.7615 -2.4953 0.3027 0 8
7.3104 2.8793 -2.4953 0.3027 0 8
7.2632 2.9965 -2.4953 0.3027 0 8
7.2141 3.1128 -2.4953 0.3027 0 8
7.1632 3.2283 -2.4953 0.3027 0 8
7.1103 3.3430 -2.4953 0.3027 0 8
7.0557 3.4569 -2.4953 0.3027 0 8
6.9992 3.5698 -2.4953 0.3027 0 8
6.9410 3.6819 -2.4953 0.3027 0 8
6.8809 3.7929 -2.4953 0.3027 0 8
6.8190 3.9030 -2.4953 0.3027 0 8
6.7554 4.0121 -2.4953 0.3027 0 8
6.6901 4.1202 -2.4953 0.3027 0 8
6.6230 4.2271 -2.4953 0.3027 0 8
6.5542 4.3330 -2.4953 0.3027 0 8
6.4837 4.4378 -2.4953 0.3027 0 8
6.4116 4.5414 -2.4953 0.3027 0 8
6.3378 4.6439 -2.4953 0.3027 0 8
6.2623 4.7451 -2.4953 0.3027 0 8
6.1852 4.8452 -2.4953 0.3027 0 8
6.1066 4.9440 -2.4953 0.3027 0 8
6.0263 5.0415 -2.4953 0.3027 0 8
5.9445 5.1377 -2.4953 0.3027 0 8
5.8612 5.2325 -2.4953 0.3027 0 8
5.7763 5.3261 -2.4953 0.3027 0 8
6.3492 -4.2429 -2.4953 0.3106 0 8
6.4166 -4.1404 -2.4953 0.3106 0 8
6.4823 -4.0367 -2.4953 0.3106 0 8
6.5463 -3.9320 -2.4953 0.3106 0 8
6.6087 -3.8263 -2.4953 0.3106 0 8
6.6693 -3.7196 -2.4953 0.3106 0 8
6.7283 -3.6119 -2.4953 0.3106 0 8
6.7854 -3.5033 -2.4953 0.3106 0 8
6.8409 -3.3938 -2.4953 0.3106 0 8
6.8945 -3.2834 -2.4953 0.3106 0 8
6.9464 -3.1722 -2.4953 0.3106 0 8
6.9965 -3.0602 -2.4953 0.3106 0 8
7.0448 -2.9473 -2.4953 0.3106 0 8
7.0912 -2.8337 -2.4953 0.3106 0 8
7.1358 -2.7194 -2.4953 0.3106 0 8
7.1786 -2.6044 -2.4953 0.3106 0 8
7.2195 -2.4887 -2.4953 0.3106 0 8
7.2586 -2.3723 -2.4953 0.3106 0 8
7.2958 -2.2553 -2.4953 0.3106 0 8
7.3311 -2.1378 -2.4953 0.3106 0 8
7.3645 -2.0197 -2.4953 0.3106 0 8
7.3960 -1.9011 -2.4953 0.3106 0 8
7.4256 -1.7820 -2.4953 0.3106 0 8
7.4533 -1.6624 -2.4953 0.3106 0 8
7.4791 -1.5424 -2.4953 0.3106 0 8
7.5029 -1.4220 -2.4953 0.3106 0 8
7.5248 -1.3012 -2.4953 0.3106 0 8
7.5447 -1.1801 -2.4953 0.3106 0 8
7.5627 -1.0587 -2.4953 0.3106 0 8
7.5787 -0.9371 -2.4953 0.3106 0 8
7.5928 -0.8151 -2.4953 0.3106 0 8
7.6049 -0.6930 -2.4953 0.3106 0 8
7.6151 -0.5707 -2.4953 0.3106 0 8
7.6233 -0.4482 -2.4953 0.3106 0 8
7.6295 -0.3257 -2.4953 0.3106 0 8
7.6337 -0.2030 -2.4953 0.3106 0 8
7.6360 -0.0803 -2.4953 0.3106 0 8
7.6363 0.0424 -2.4953 0.3106 0 8
7.6347 0.1651 -2.4953 0.3106 0 8
7.6310 0.2878 -2.4953 0.3106 0 8
7.6254 0.4104 -2.4953 0.3106 0 8
7.6178 0.5329 -2.4953 0.3106 0 8
7.6083 0.6553 -2.4953 0.3106 0 8
7.5968 0.7775 -2.4953 0.3106 0 8
7.5833 0.8995 -2.4953 0.3106 0 8
7.5679 1.0212 -2.4953 0.3106 0 8
7.5505 1.1427 -2.4953 0.3106 0 8
7.5311 1.2639 -2.4953 0.3106 0 8
7.5098 1.3848 -2.4953 0.3106 0 8
7.4866 1.5053 -2.4953 0.3106 0 8
7.4615 1.6254 -2.4953 0.3106 0 8
7.4344 1.7451 -2.4953 0.3106 0 8
7.4054 1.8644 -2.4953 0.3106 0 8
7.3744 1.9831 -2.4953 0.3106 0 8
7.3416 2.1014 -2.4953 0.3106 0 8
7.3069 2.2191 -2.4953 0.3106 0 8
7.2703 2.3363 -2.4953 0.3106 0 8
7.2318 2.4528 -2.4953 0.3106 0 8
7.1915 2.5687 -2.4953 0.3106 0 8
7.1492 2.6840 -2.4953 0.3106 0 8
7.1052 2.7985 -2.4953 0.3106 0 8
7.0593 2.9123 -2.4953 0.3106 0 8
7.0116 3.0254 -2.4953 0.3106 0 8
6.9620 3.1377 -2.4953 0.3106 0 8
6.9107 3.2492 -2.4953 0.3106 0 8
6.8576 3.3598 -2.4953 0.3106 0 8
6.8027 3.4696 -2.4953 0.3106 0 8
6.7461 3.5785 -2.4953 0.3106 0 8
6.6877 3.6864 -2.4953 0.3106 0 8
6.6276 3.7934 -2.4953 0.3106 0 8
6.5658 3.8995 -2.4953 0.3106 0 8
6.5023 4.0045 -2.4953 0.3106 0 8
6.4371 4.1085 -2.4953 0.3106 0 8
6.3702 4.2114 -2.4953 0.3106 0 8
6.3017 4.3132 -2.4953 0.3106 0 8
6.2316 4.4139 -2.4953 0.3106 0 8
6.1598 4.5135 -2.4953 0.3106 0 8
6.0865 4.6119 -2.4953 0.3106 0 8
6.0116 4.7092 -2.4953 0.3106 0 8
5.9351 4.8052 -2.4953 0.3106 0 8
5.8571 4.8999 -2.4953 0.3106 0 8
5.7776 4.9934 -2.4953 0.3106 0 8
5.6966 5.0856 -2.4953 0.3106 0 8
5.6142 5.1765 -2.4953 0.3106 0 8
6.1749 -4.1265 -2.4953 0.3185 0 8
6.2404 -4.0267 -2.4953 0.3185 0 8
6.3043 -3.9259 -2.4953 0.3185 0 8
6.3666 -3.8240 -2.4953 0.3185 0 8
6.4273 -3.7212 -2.4953 0.3185 0 8
6.4862 -3.6175 -2.4953 0.3185 0 8
6.5435 -3.5128 -2.4953 0.3185 0 8
6.5991 -3.4071 -2.4953 0.3185 0 8
6.6531 -3.3006 -2.4953 0.3185 0 8
6.7052 -3.1933 -2.4953 0.3185 0 8
6.7557 -3.0851 -2.4953 0.3185 0 8
6.8044 -2.9761 -2.4953 0.3185 0 8
6.8514 -2.8664 -2.4953 0.3185 0 8
6.8965 -2.7559 -2.4953 0.3185 0 8
6.9399 -2.6447 -2.4953 0.3185 0 8
6.9815 -2.5329 -2.4953 0.3185 0 8
7.0213 -2.4203 -2.4953 0.3185 0 8
7.0593 -2.3072 -2.4953 0.3185 0 8
7.0955 -2.1934 -2.4953 0.3185 0 8
7.1298 -2.0791 -2.4953 0.3185 0 8
7.1623 -1.9643 -2.4953 0.3185 0 8
7.1930 -1.8489 -2.4953 0.3185 0 8
7.2218 -1.7331 -2.4953 0.3185 0 8
7.2487 -1.6168 -2.4953 0.3185 0 8
7.2737 -1.5001 -2.4953 0.3185 0 8
7.2969 -1.3830 -2.4953 0.3185 0 8
7.3182 -1.2655 -2.4953 0.3185 0 8
7.3376 -1.1478 -2.4953 0.3185 0 8
7.3551 -1.0297 -2.4953 0.3185 0 8
7.3707 -0.9113 -2.4953 0.3185 0 8
7.3844 -0.7928 -2.4953 0.3185 0 8
7.3962 -0.6740 -2.4953 0.3185 0 8
7.4060 -0.5550 -2.4953 0.3185 0 8
7.4140 -0.4359 -2.4953 0.3185 0 8
7.4200 -0.3167 -2.4953 0.3185 0 8
7.4242 -0.1974 -2.4953 0.3185 0 8
7.4264 -0.0781 -2.4953 0.3185 0 8
7.4267 0.0413 -2.4953 0.3185 0 8
7.4251 0.1606 -2.4953 0.3185 0 8
7.4215 0.2799 -2.4953 0.3185 0 8
7.4161 0.3992 -2.4953 0.3185 0 8
7.4087 0.5183 -2.4953 0.3185 0 8
7.3994 0.6373 -2.4953 0.3185 0 8
7.3882 0.7561 -2.4953 0.3185 0 8
7.3751 0.8748 -2.4953 0.3185 0 8
7.3601 0.9932 -2.4953 0.3185 0 8
7.3432 1.1113 -2.4953 0.3185 0 8
7.3244 1.2292 -2.4953 0.3185 0 8
7.3037 1.3468 -2.4953 0.3185 0 8
7.2811 1.4640 -2.4953 0.3185 0 8
7.2566 1.5808 -2.4953 0.3185 0 8
7.2303 1.6972 -2.4953 0.3185 0 8
7.2021 1.8132 -2.4953 0.3185 0 8
7.1720 1.9287 -2.4953 0.3185 0 8
7.1401 2.0437 -2.4953 0.3185 0 8
7.1063 2.1582 -2.4953 0.3185 0 8
7.0707 2.2721 -2.4953 0.3185 0 8
7.0333 2.3855 -2.4953 0.3185 0 8
6.9940 2.4982 -2.4953 0.3185 0 8
6.9530 2.6103 -2.4953 0.3185 0 8
6.9101 2.7217 -2.4953 0.3185 0 8
6.8655 2.8324 -2.4953 0.3185 0 8
6.8191 2.9424 -2.4953 0.3185 0 8
6.7709 3.0516 -2.4953 0.3185 0 8
6.7210 3.1600 -2.4953 0.3185 0 8
6.6693 3.2676 -2.4953 0.3185 0 8
6.6160 3.3744 -2.4953 0.3185 0 8
6.5609 3.4802 -2.4953 0.3185 0 8
6.5041 3.5852 -2.4953 0.3185 0 8
6.4456 3.6893 -2.4953 0.3185 0 8
6.3855 3.7924 -2.4953 0.3185 0 8
6.3237 3.8946 -2.4953 0.3185 0 8
6.2603 3.9957 -2.4953 0.3185 0 8
6.1953 4.0958 -2.4953 0.3185 0 8
6.1287 4.1948 -2.4953 0.3185 0 8
6.0605 4.2928 -2.4953 0.3185 0 8
5.9907 4.3896 -2.4953 0.3185 0 8
5.9194 4.4853 -2.4953 0.3185 0 8
5.8465 4.5799 -2.4953 0.3185 0 8
5.7722 4.6732 -2.4953 0.3185 0 8
5.6963 4.7654 -2.4953 0.3185 0 8
5.6190 4.8563 -2.4953 0.3185 0 8
5.5402 4.9460 -2.4953 0.3185 0 8
5.4600 5.0344 -2.4953 0.3185 0 8
6.0090 -4.0156 -2.4953 0.3264 0 8
6.0728 -3.9185 -2.4953 0.3264 0 8
6.1350 -3.8204 -2.4953 0.3264 0 8
6.1956 -3.7213 -2.4953 0.3264 0 8
6.2546 -3.6213 -2.4953 0.3264 0 8
6.3120 -3.5203 -2.4953 0.3264 0 8
6.3677 -3.4184 -2.4953 0.3264 0 8
6.4219 -3.3156 -2.4953 0.3264 0 8
6.4743 -3.2120 -2.4953 0.3264 0 8
6.5251 -3.1075 -2.4953 0.3264 0 8
6.5742 -3.0022 -2.4953 0.3264 0 8
6.6216 -2.8962 -2.4953 0.3264 0 8
6.6673 -2.7894 -2.4953 0.3264 0 8
6.7113 -2.6819 -2.4953 0.3264 0 8
6.7535 -2.5737 -2.4953 0.3264 0 8
6.7940 -2.4648 -2.4953 0.3264 0 8
6.8327 -2.3553 -2.4953 0.3264 0 8
6.8697 -2.2452 -2.4953 0.3264 0 8
6.9049 -2.1345 -2.4953 0.3264 0 8
6.9383 -2.0233 -2.4953 0.3264 0 8
6.9699 -1.9115 -2.4953 0.3264 0 8
6.9997 -1.7992 -2.4953 0.3264 0 8
7.0277 -1.6865 -2.4953 0.3264 0 8
7.0539 -1.5733 -2.4953 0.3264 0 8
7.0783 -1.4598 -2.4953 0.3264 0 8
7.1009 -1.3458 -2.4953 0.3264 0 8
