ply
format ascii 1.0
element vertex 1316
property float32 x
property float32 y
property float32 z
property float32 CosAngle
property uint32 ObjIdx
property uint32 ObjTag
end_header
-66.7749 -34.2160 -2.4953 0.0332 0 8
-66.2170 -35.2836 -2.4953 0.0332 0 8
-65.6421 -36.3420 -2.4953 0.0332 0 8
-65.0502 -37.3911 -2.4953 0.0332 0 8
-64.4415 -38.4306 -2.4953 0.0332 0 8
-63.8163 -39.4601 -2.4953 0.0332 0 8
-63.1746 -40.4795 -2.4953 0.0332 0 8
-62.5166 -41.4884 -2.4953 0.0332 0 8
-61.8426 -42.4867 -2.4953 0.0332 0 8
-61.1526 -43.4739 -2.4953 0.0332 0 8
-60.4468 -44.4501 -2.4953 0.0332 0 8
-59.7255 -45.4147 -2.4953 0.0332 0 8
-58.9886 -46.3676 -2.4953 0.0332 0 8
-58.2368 -47.3086 -2.4953 0.0332 0 8
-57.4698 -48.2374 -2.4953 0.0332 0 8
-57.0863 -49.4992 -2.5128 0.4219 0 8
-59.3052 -53.1147 -2.6477 0.0332 0 7
-58.4449 -54.0600 -2.6477 0.0332 0 7
-57.5695 -54.9912 -2.6477 0.0332 0 7
-56.6793 -55.9083 -2.6477 0.0332 0 7
-55.7745 -56.8110 -2.6477 0.0332 0 7
-54.8553 -57.6990 -2.6477 0.0332 0 7
-53.9220 -58.5722 -2.6477 0.0332 0 7
-52.9748 -59.4303 -2.6477 0.0332 0 7
-52.0139 -60.2730 -2.6477 0.0332 0 7
-51.0396 -61.1003 -2.6477 0.0332 0 7
-50.0521 -61.9118 -2.6477 0.0332 0 7
-49.0518 -62.7073 -2.6477 0.0332 0 7
-48.0388 -63.4867 -2.6477 0.0332 0 7
-47.0135 -64.2496 -2.6477 0.0332 0 7
-45.9760 -64.9960 -2.6477 0.0332 0 7
-44.9267 -65.7258 -2.6477 0.0332 0 7
-43.8658 -66.4385 -2.6477 0.0332 0 7
-42.7936 -67.1341 -2.6477 0.0332 0 7
-41.7104 -67.8124 -2.6477 0.0332 0 7
-40.6164 -68.4733 -2.6477 0.0332 0 7
-39.5119 -69.1165 -2.6477 0.0332 0 7
-38.3973 -69.7419 -2.6477 0.0332 0 7
-37.2728 -70.3493 -2.6477 0.0332 0 7
-36.1386 -70.9386 -2.6477 0.0332 0 7
-34.9951 -71.5096 -2.6477 0.0332 0 7
-33.8427 -72.0622 -2.6477 0.0332 0 7
-32.6084 -72.4339 -2.6418 0.0486 0 8
-31.2582 -72.5228 -2.6264 0.9044 0 8
-29.8824 -72.5118 -2.6082 0.9107 0 8
-28.5252 -72.5009 -2.5910 0.9168 0 8
-27.1853 -72.4899 -2.5747 0.9226 0 8
-25.8618 -72.4790 -2.5593 0.9281 0 8
-24.5537 -72.4681 -2.5446 0.9335 0 8
-23.2602 -72.4572 -2.5308 0.9386 0 8
-26.3721 53.9072 -2.4953 0.0415 0 8
-27.2341 53.4769 -2.4953 0.0415 0 8
-28.0890 53.0328 -2.4953 0.0415 0 8
-28.9368 52.5751 -2.4953 0.0415 0 8
-29.7771 52.1037 -2.4953 0.0415 0 8
-30.6097 51.6190 -2.4953 0.0415 0 8
-31.4344 51.1210 -2.4953 0.0415 0 8
-32.2510 50.6097 -2.4953 0.0415 0 8
-33.0593 50.0855 -2.4953 0.0415 0 8
-33.8591 49.5483 -2.4953 0.0415 0 8
-34.6501 48.9984 -2.4953 0.0415 0 8
-35.4322 48.4358 -2.4953 0.0415 0 8
-36.2052 47.8608 -2.4953 0.0415 0 8
-36.9688 47.2734 -2.4953 0.0415 0 8
-40.0269 49.5245 -2.6477 0.0415 0 7
-40.8168 48.8756 -2.6477 0.0415 0 7
-41.5961 48.2140 -2.6477 0.0415 0 7
-42.3648 47.5400 -2.6477 0.0415 0 7
-43.1225 46.8538 -2.6477 0.0415 0 7
-43.8691 46.1556 -2.6477 0.0415 0 7
-44.6044 45.4454 -2.6477 0.0415 0 7
-45.3282 44.7234 -2.6477 0.0415 0 7
-46.0403 43.9900 -2.6477 0.0415 0 7
-46.7405 43.2453 -2.6477 0.0415 0 7
-47.4287 42.4894 -2.6477 0.0415 0 7
-48.1047 41.7225 -2.6477 0.0415 0 7
-48.7683 40.9448 -2.6477 0.0415 0 7
-49.4193 40.1567 -2.6477 0.0415 0 7
-50.0576 39.3582 -2.6477 0.0415 0 7
-50.6829 38.5498 -2.6477 0.0415 0 7
-51.2953 37.7309 -2.6477 0.0415 0 7
-51.8944 36.9026 -2.6477 0.0415 0 6
-52.4801 36.0648 -2.6477 0.0415 0 7
-53.0523 35.2177 -2.6477 0.0415 0 7
-53.6108 34.3614 -2.6477 0.0415 0 7
-54.1555 33.4964 -2.6477 0.0415 0 7
-54.6863 32.6227 -2.6477 0.0415 0 7
-55.2029 31.7406 -2.6477 0.0415 0 7
-55.7054 30.8503 -2.6477 0.0415 0 7
-56.1934 29.9521 -2.6477 0.0415 0 7
-56.6670 29.0461 -2.6477 0.0415 0 6
-57.1260 28.1327 -2.6477 0.0415 0 6
-57.5703 27.2120 -2.6477 0.0415 0 7
-57.9997 26.2843 -2.6477 0.0415 0 7
-58.4142 25.3499 -2.6477 0.0415 0 7
-58.8136 24.4089 -2.6477 0.0415 0 7
-59.1978 23.4616 -2.6477 0.0415 0 7
-59.5668 22.5082 -2.6477 0.0415 0 7
-59.9205 21.5491 -2.6477 0.0415 0 7
-60.2587 20.5844 -2.6477 0.0415 0 7
-60.5814 19.6144 -2.6477 0.0415 0 7
-60.8885 18.6394 -2.6477 0.0415 0 7
-61.1798 17.6595 -2.6477 0.0415 0 7
-61.4555 16.6751 -2.6477 0.0415 0 7
-61.7152 15.6864 -2.6477 0.0415 0 7
-61.9591 14.6937 -2.6477 0.0415 0 7
-62.1870 13.6971 -2.6477 0.0415 0 7
-62.3988 12.6970 -2.6477 0.0415 0 7
-62.5946 11.6937 -2.6477 0.0415 0 7
-62.7743 10.6873 -2.6477 0.0415 0 7
-62.9378 9.6782 -2.6477 0.0415 0 7
-63.0850 8.6666 -2.6477 0.0415 0 7
-62.3464 7.5475 -2.6112 0.2911 0 8
-60.2874 6.3180 -2.5204 0.5142 0 8
-59.7781 5.2960 -2.4953 0.0415 0 8
-59.8554 4.3357 -2.4953 0.0415 0 8
-59.9174 3.3742 -2.4953 0.0415 0 8
-59.9637 2.4120 -2.4953 0.0415 0 8
-59.9948 1.4490 -2.4953 0.0415 0 8
-60.0103 0.4857 -2.4953 0.0415 0 8
-60.0104 -0.4778 -2.4953 0.0415 0 8
-59.9949 -1.4410 -2.4953 0.0415 0 8
-59.9641 -2.4040 -2.4953 0.0415 0 8
-59.9178 -3.3663 -2.4953 0.0415 0 8
-59.8560 -4.3277 -2.4953 0.0415 0 8
-59.7788 -5.2881 -2.4953 0.0415 0 8
-59.6862 -6.2470 -2.4953 0.0415 0 8
-59.5783 -7.2044 -2.4953 0.0415 0 8
-59.4549 -8.1599 -2.4953 0.0415 0 8
-59.3163 -9.1133 -2.4953 0.0415 0 8
-59.1623 -10.0643 -2.4953 0.0415 0 8
-58.9931 -11.0128 -2.4953 0.0415 0 8
-58.8087 -11.9584 -2.4953 0.0415 0 8
-58.6092 -12.9009 -2.4953 0.0415 0 8
-58.3946 -13.8401 -2.4953 0.0415 0 8
-58.1648 -14.7758 -2.4953 0.0415 0 8
-57.9201 -15.7076 -2.4953 0.0415 0 8
-57.6605 -16.6354 -2.4953 0.0415 0 8
-57.3860 -17.5589 -2.4953 0.0415 0 8
-57.0968 -18.4778 -2.4953 0.0415 0 8
-56.7928 -19.3920 -2.4953 0.0415 0 8
-56.5461 -20.3271 -2.4984 0.6961 0 8
-56.5321 -21.3529 -2.5127 0.9292 0 8
-56.5214 -22.3922 -2.5278 0.9236 0 8
-56.5105 -23.4443 -2.5439 0.9178 0 8
-56.4994 -24.5100 -2.5607 0.9118 0 8
-56.4879 -25.5902 -2.5785 0.9055 0 8
-56.4762 -26.6857 -2.5972 0.8990 0 8
-56.4642 -27.7974 -2.6168 0.8922 0 8
-56.4518 -28.9264 -2.6374 0.8853 0 8
-56.1437 -29.9160 -2.6451 0.0565 0 8
-55.7094 -30.8429 -2.6477 0.0415 0 7
-55.2071 -31.7333 -2.6477 0.0415 0 7
-54.6906 -32.6155 -2.6477 0.0415 0 7
-54.1600 -33.4892 -2.6477 0.0415 0 7
-53.6154 -34.3543 -2.6477 0.0415 0 7
-53.0570 -35.2106 -2.6477 0.0415 0 7
-52.4849 -36.0578 -2.6477 0.0415 0 7
-51.8993 -36.8957 -2.6477 0.0415 0 7
-51.3003 -37.7241 -2.6477 0.0415 0 7
-50.6881 -38.5428 -2.6477 0.0415 0 7
-50.0628 -39.3515 -2.6477 0.0415 0 7
-49.4247 -40.1501 -2.6477 0.0415 0 7
-48.7738 -40.9384 -2.6477 0.0415 0 7
-48.1103 -41.7161 -2.6477 0.0415 0 7
-47.4344 -42.4830 -2.6477 0.0415 0 7
-46.7463 -43.2391 -2.6477 0.0415 0 6
-46.0461 -43.9839 -2.6477 0.0415 0 7
-45.3341 -44.7174 -2.6477 0.0415 0 7
-44.6104 -45.4394 -2.6477 0.0415 0 7
-43.8752 -46.1497 -2.6477 0.0415 0 7
-43.1287 -46.8481 -2.6477 0.0415 0 7
-42.3711 -47.5344 -2.6477 0.0415 0 7
-41.6026 -48.2085 -2.6477 0.0415 0 6
-40.8233 -48.8702 -2.6477 0.0415 0 6
-40.0335 -49.5192 -2.6477 0.0415 0 7
-36.9751 -47.2686 -2.4953 0.0415 0 8
-36.2114 -47.8560 -2.4953 0.0415 0 8
-35.4386 -48.4311 -2.4953 0.0415 0 8
-34.6566 -48.9938 -2.4953 0.0415 0 8
-33.8656 -49.5438 -2.4953 0.0415 0 8
-33.0659 -50.0811 -2.4953 0.0415 0 8
-32.2577 -50.6055 -2.4953 0.0415 0 8
-31.4412 -51.1168 -2.4953 0.0415 0 8
-30.6165 -51.6149 -2.4953 0.0415 0 8
-29.7840 -52.0998 -2.4953 0.0415 0 8
-28.9438 -52.5712 -2.4953 0.0415 0 8
-28.0961 -53.0291 -2.4953 0.0415 0 8
-27.2411 -53.4733 -2.4953 0.0415 0 8
-27.9903 -57.1959 -2.6477 0.0415 0 7
-27.0686 -57.6379 -2.6477 0.0415 0 7
-26.1398 -58.0650 -2.6477 0.0415 0 7
-25.2043 -58.4771 -2.6477 0.0415 0 7
-24.2623 -58.8742 -2.6477 0.0415 0 7
-23.3141 -59.2561 -2.6477 0.0415 0 7
-22.3598 -59.6227 -2.6477 0.0415 0 7
-21.3998 -59.9740 -2.6477 0.0415 0 7
-20.4343 -60.3098 -2.6477 0.0415 0 7
-19.4635 -60.6300 -2.6477 0.0415 0 7
-21.9711 44.9112 -2.4953 0.0498 0 8
-22.6893 44.5527 -2.4953 0.0498 0 8
-23.4016 44.1828 -2.4953 0.0498 0 8
-24.1078 43.8014 -2.4953 0.0498 0 8
-24.8079 43.4087 -2.4953 0.0498 0 8
-25.5016 43.0049 -2.4953 0.0498 0 8
-26.1886 42.5899 -2.4953 0.0498 0 8
-26.8690 42.1640 -2.4953 0.0498 0 8
-27.5424 41.7273 -2.4953 0.0498 0 8
-28.2087 41.2798 -2.4953 0.0498 0 8
-28.8677 40.8216 -2.4953 0.0498 0 8
-29.5193 40.3529 -2.4953 0.0498 0 8
-30.1633 39.8739 -2.4953 0.0498 0 8
-30.7995 39.3845 -2.4953 0.0498 0 8
-31.4278 38.8850 -2.4953 0.0498 0 8
-32.0480 38.3755 -2.4953 0.0498 0 8
-32.6599 37.8561 -2.4953 0.0498 0 8
-33.2634 37.3269 -2.4953 0.0498 0 8
-33.8583 36.7881 -2.4953 0.0498 0 8
-34.4445 36.2398 -2.4953 0.0498 0 8
-35.0218 35.6822 -2.4953 0.0498 0 8
-37.7638 37.2600 -2.6477 0.0498 0 6
-38.3571 36.6490 -2.6477 0.0498 0 7
-38.9405 36.0285 -2.6477 0.0498 0 6
-39.5139 35.3988 -2.6477 0.0498 0 7
-40.0770 34.7599 -2.6477 0.0498 0 7
-40.6299 34.1120 -2.6477 0.0498 0 7
-41.1723 33.4554 -2.6477 0.0498 0 7
-41.7041 32.7901 -2.6477 0.0498 0 7
-42.2250 32.1164 -2.6477 0.0498 0 7
-42.7352 31.4344 -2.6477 0.0498 0 7
-43.2343 30.7443 -2.6477 0.0498 0 7
-43.7223 30.0463 -2.6477 0.0498 0 7
-44.1990 29.3406 -2.6477 0.0498 0 7
-44.6643 28.6273 -2.6477 0.0498 0 7
-45.1181 27.9066 -2.6477 0.0498 0 7
-45.5603 27.1787 -2.6477 0.0498 0 7
-45.9907 26.4438 -2.6477 0.0498 0 7
-46.4093 25.7021 -2.6477 0.0498 0 7
-46.8159 24.9537 -2.6477 0.0498 0 7
-47.2105 24.1989 -2.6477 0.0498 0 7
-47.5929 23.4379 -2.6477 0.0498 0 7
-47.9630 22.6709 -2.6477 0.0498 0 7
-48.3208 21.8980 -2.6477 0.0498 0 7
-48.6661 21.1195 -2.6477 0.0498 0 6
-48.9988 20.3356 -2.6477 0.0498 0 6
-49.3190 19.5463 -2.6477 0.0498 0 7
-49.6264 18.7521 -2.6477 0.0498 0 7
-49.9210 17.9530 -2.6477 0.0498 0 7
-50.2028 17.1493 -2.6477 0.0498 0 6
-50.4716 16.3412 -2.6477 0.0498 0 7
-50.7274 15.5289 -2.6477 0.0498 0 7
-50.9702 14.7125 -2.6477 0.0498 0 6
-51.1998 13.8924 -2.6477 0.0498 0 7
-51.4162 13.0686 -2.6477 0.0498 0 6
-51.6194 12.2416 -2.6477 0.0498 0 7
-51.8093 11.4113 -2.6477 0.0498 0 7
-51.9858 10.5782 -2.6477 0.0498 0 7
-52.1489 9.7423 -2.6477 0.0498 0 7
-52.2986 8.9038 -2.6477 0.0498 0 7
-52.4348 8.0631 -2.6477 0.0498 0 7
-52.5574 7.2203 -2.6477 0.0498 0 7
-52.6666 6.3757 -2.6477 0.0498 0 7
-52.7622 5.5294 -2.6477 0.0498 0 7
-52.8441 4.6817 -2.6477 0.0498 0 7
-52.9125 3.8328 -2.6477 0.0498 0 6
-52.9672 2.9829 -2.6477 0.0498 0 6
-53.0082 2.1322 -2.6477 0.0498 0 6
-53.0356 1.2809 -2.6477 0.0498 0 7
-53.0494 0.4294 -2.6477 0.0498 0 7
-53.0494 -0.4223 -2.6477 0.0498 0 6
-53.0358 -1.2739 -2.6477 0.0498 0 7
-53.0085 -2.1251 -2.6477 0.0498 0 7
-52.9676 -2.9758 -2.6477 0.0498 0 7
-52.9130 -3.8257 -2.6477 0.0498 0 7
-52.8447 -4.6747 -2.6477 0.0498 0 7
-52.7629 -5.5224 -2.6477 0.0498 0 7
-52.6674 -6.3687 -2.6477 0.0498 0 7
-52.5584 -7.2134 -2.6477 0.0498 0 7
-52.4358 -8.0562 -2.6477 0.0498 0 7
-52.2998 -8.8969 -2.6477 0.0498 0 7
-52.1502 -9.7353 -2.6477 0.0498 0 7
-51.9872 -10.5712 -2.6477 0.0498 0 7
-51.8108 -11.4045 -2.6477 0.0498 0 7
-51.6210 -12.2347 -2.6477 0.0498 0 7
-51.4180 -13.0618 -2.6477 0.0498 0 7
-51.2017 -13.8856 -2.6477 0.0498 0 7
-50.9721 -14.7057 -2.6477 0.0498 0 7
-50.7295 -15.5221 -2.6477 0.0498 0 7
-50.4738 -16.3345 -2.6477 0.0498 0 7
-50.2051 -17.1427 -2.6477 0.0498 0 7
-49.9234 -17.9464 -2.6477 0.0498 0 7
-49.6289 -18.7455 -2.6477 0.0498 0 7
-49.3215 -19.5398 -2.6477 0.0498 0 7
-49.0015 -20.3290 -2.6477 0.0498 0 7
-48.6689 -21.1130 -2.6477 0.0498 0 7
-48.3237 -21.8916 -2.6477 0.0498 0 7
-47.9660 -22.6645 -2.6477 0.0498 0 7
-47.5960 -23.4316 -2.6477 0.0498 0 7
-47.2137 -24.1927 -2.6477 0.0498 0 6
-46.8192 -24.9475 -2.6477 0.0498 0 7
-46.4127 -25.6959 -2.6477 0.0498 0 7
-45.9942 -26.4377 -2.6477 0.0498 0 7
-45.5639 -27.1726 -2.6477 0.0498 0 7
-45.1218 -27.9006 -2.6477 0.0498 0 7
-44.6681 -28.6213 -2.6477 0.0498 0 7
-44.2029 -29.3347 -2.6477 0.0498 0 7
-43.7263 -30.0406 -2.6477 0.0498 0 7
-43.2384 -30.7386 -2.6477 0.0498 0 7
-42.7393 -31.4288 -2.6477 0.0498 0 7
-42.2293 -32.1108 -2.6477 0.0498 0 7
-41.7084 -32.7846 -2.6477 0.0498 0 7
-41.1767 -33.4499 -2.6477 0.0498 0 7
-40.6344 -34.1066 -2.6477 0.0498 0 7
-40.0817 -34.7546 -2.6477 0.0498 0 7
-37.2439 -33.3563 -2.4953 0.0498 0 8
-36.7036 -33.9499 -2.4953 0.0498 0 8
-36.1539 -34.5347 -2.4953 0.0498 0 8
-35.5948 -35.1106 -2.4953 0.0498 0 8
-35.0266 -35.6775 -2.4953 0.0498 0 8
-34.4493 -36.2352 -2.4953 0.0498 0 8
-33.8632 -36.7836 -2.4953 0.0498 0 8
-33.2684 -37.3224 -2.4953 0.0498 0 8
-32.6649 -37.8517 -2.4953 0.0498 0 8
-32.0531 -38.3712 -2.4953 0.0498 0 8
-31.4329 -38.8808 -2.4953 0.0498 0 8
-30.8047 -39.3804 -2.4953 0.0498 0 8
-30.1686 -39.8699 -2.4953 0.0498 0 8
-29.5247 -40.3490 -2.4953 0.0498 0 8
-28.8731 -40.8178 -2.4953 0.0498 0 8
-28.2141 -41.2760 -2.4953 0.0498 0 8
-27.5479 -41.7236 -2.4953 0.0498 0 8
-26.8746 -42.1605 -2.4953 0.0498 0 8
-26.1943 -42.5865 -2.4953 0.0498 0 8
-25.5072 -43.0015 -2.4953 0.0498 0 8
-24.8136 -43.4054 -2.4953 0.0498 0 8
-24.1136 -43.7982 -2.4953 0.0498 0 8
-23.4074 -44.1796 -2.4953 0.0498 0 8
-22.6961 -44.5427 -2.4953 0.0499 0 8
-21.9771 -44.9083 -2.4953 0.0498 0 8
-21.2533 -45.2553 -2.4953 0.0498 0 22
-20.5241 -45.5907 -2.4953 0.0498 0 22
-19.7896 -45.9143 -2.4953 0.0498 0 22
-19.0499 -46.2260 -2.4953 0.0498 0 22
-18.3054 -46.5259 -2.4953 0.0498 0 22
-17.5562 -46.8138 -2.4953 0.0498 0 22
-16.8024 -47.0896 -2.4953 0.0498 0 22
-16.0443 -47.3532 -2.4953 0.0498 0 8
-15.2821 -47.6047 -2.4953 0.0498 0 8
-18.8268 38.4838 -2.4953 0.0581 0 8
-19.4421 38.1766 -2.4953 0.0581 0 8
-20.0525 37.8596 -2.4953 0.0581 0 8
-20.6577 37.5328 -2.4953 0.0581 0 8
-21.2576 37.1964 -2.4953 0.0581 0 8
-21.8519 36.8503 -2.4953 0.0581 0 8
-22.4407 36.4948 -2.4953 0.0581 0 8
-23.0237 36.1298 -2.4953 0.0581 0 8
-23.6007 35.7555 -2.4953 0.0581 0 8
-24.1716 35.3721 -2.4953 0.0581 0 8
-24.7364 34.9795 -2.4953 0.0581 0 8
-25.2947 34.5779 -2.4953 0.0581 0 8
-25.8465 34.1674 -2.4953 0.0581 0 8
-26.3917 33.7480 -2.4953 0.0581 0 8
-26.9301 33.3200 -2.4953 0.0581 0 8
-27.4615 32.8834 -2.4953 0.0581 0 8
-28.3205 32.8262 -2.5251 0.7556 0 8
-29.2447 32.8172 -2.5602 0.7452 0 8
-30.2299 32.8456 -2.5999 0.6648 0 8
-31.2511 32.8799 -2.6420 0.0674 0 8
-31.8426 32.4430 -2.6477 0.0581 0 7
-32.3593 31.9276 -2.6477 0.0581 0 7
-32.8677 31.4041 -2.6477 0.0581 0 7
-33.3676 30.8724 -2.6477 0.0581 0 7
-33.8589 30.3328 -2.6477 0.0581 0 7
-34.3415 29.7853 -2.6477 0.0581 0 7
-34.8152 29.2301 -2.6477 0.0581 0 7
-35.2800 28.6675 -2.6477 0.0581 0 7
-35.7357 28.0974 -2.6477 0.0581 0 7
-36.1821 27.5201 -2.6477 0.0581 0 7
-36.6192 26.9357 -2.6477 0.0581 0 7
-37.0469 26.3444 -2.6477 0.0581 0 6
-37.4650 25.7463 -2.6477 0.0581 0 7
-37.8735 25.1416 -2.6477 0.0581 0 6
-38.2722 24.5303 -2.6477 0.0581 0 7
-38.6611 23.9128 -2.6477 0.0581 0 7
-39.0400 23.2890 -2.6477 0.0581 0 6
-39.4088 22.6593 -2.6477 0.0581 0 7
-39.7675 22.0238 -2.6477 0.0581 0 7
-40.1160 21.3825 -2.6477 0.0581 0 7
-40.4541 20.7358 -2.6477 0.0581 0 7
-40.7817 20.0837 -2.6477 0.0581 0 7
-41.0989 19.4264 -2.6477 0.0581 0 7
-41.4054 18.7641 -2.6477 0.0581 0 7
-41.7013 18.0970 -2.6477 0.0581 0 7
-41.9865 17.4253 -2.6477 0.0581 0 7
-42.2608 16.7490 -2.6477 0.0581 0 7
-42.5242 16.0684 -2.6477 0.0581 0 7
-42.7767 15.3837 -2.6477 0.0581 0 7
-43.0181 14.6950 -2.6477 0.0581 0 6
-43.2485 14.0026 -2.6477 0.0581 0 7
-43.4677 13.3065 -2.6477 0.0581 0 7
-43.6757 12.6070 -2.6477 0.0581 0 7
-43.8725 11.9042 -2.6477 0.0581 0 7
-44.0579 11.1983 -2.6477 0.0581 0 7
-44.2320 10.4897 -2.6477 0.0581 0 7
-44.3947 9.7782 -2.6477 0.0581 0 7
-44.5459 9.0643 -2.6477 0.0581 0 7
-44.6857 8.3480 -2.6477 0.0581 0 7
-44.8140 7.6296 -2.6477 0.0581 0 7
-44.9307 6.9092 -2.6477 0.0581 0 7
-45.0358 6.1870 -2.6477 0.0581 0 7
-45.1293 5.4632 -2.6477 0.0581 0 7
-45.2112 4.7381 -2.6477 0.0581 0 7
-45.2814 4.0116 -2.6477 0.0581 0 7
-45.3400 3.2842 -2.6477 0.0581 0 7
-45.3869 2.5559 -2.6477 0.0581 0 7
-45.4221 1.8270 -2.6477 0.0581 0 7
-45.4455 1.0976 -2.6477 0.0581 0 7
-45.4573 0.3679 -2.6477 0.0581 0 7
-45.4573 -0.3619 -2.6477 0.0581 0 7
-45.4457 -1.0916 -2.6477 0.0581 0 7
-45.4223 -1.8210 -2.6477 0.0581 0 7
-45.3872 -2.5499 -2.6477 0.0581 0 7
-45.3404 -3.2782 -2.6477 0.0581 0 7
-45.2820 -4.0057 -2.6477 0.0581 0 7
-45.2118 -4.7321 -2.6477 0.0581 0 7
-45.1300 -5.4573 -2.6477 0.0581 0 7
-45.0366 -6.1810 -2.6477 0.0581 0 7
-44.9316 -6.9032 -2.6477 0.0581 0 7
-44.8150 -7.6237 -2.6477 0.0581 0 7
-44.6868 -8.3421 -2.6477 0.0581 0 7
-44.5471 -9.0584 -2.6477 0.0581 0 7
-44.3960 -9.7723 -2.6477 0.0581 0 7
-44.2334 -10.4838 -2.6477 0.0581 0 7
-44.0594 -11.1925 -2.6477 0.0581 0 7
-43.8740 -11.8984 -2.6477 0.0581 0 7
-43.6774 -12.6011 -2.6477 0.0581 0 7
-43.4695 -13.3007 -2.6477 0.0581 0 7
-43.2503 -13.9968 -2.6477 0.0581 0 7
-43.0201 -14.6893 -2.6477 0.0581 0 7
-42.7787 -15.3780 -2.6477 0.0581 0 7
-42.5263 -16.0628 -2.6477 0.0581 0 7
-42.2630 -16.7434 -2.6477 0.0581 0 7
-41.9888 -17.4197 -2.6477 0.0581 0 7
-41.7037 -18.0915 -2.6477 0.0581 0 7
-41.4079 -18.7586 -2.6477 0.0581 0 7
-41.1014 -19.4209 -2.6477 0.0581 0 7
-40.7844 -20.0782 -2.6477 0.0581 0 7
-40.4568 -20.7304 -2.6477 0.0581 0 7
-40.1188 -21.3770 -2.6477 0.0581 0 6
-37.4813 -20.7511 -2.4953 0.0581 0 8
-37.1433 -21.3501 -2.4953 0.0581 0 8
-36.7958 -21.9437 -2.4953 0.0581 0 8
-36.4388 -22.5315 -2.4953 0.0581 0 8
-36.0724 -23.1136 -2.4953 0.0581 0 8
-35.6967 -23.6897 -2.4953 0.0581 0 8
-35.3118 -24.2597 -2.4953 0.0581 0 8
-34.9178 -24.8234 -2.4953 0.0581 0 8
-34.5148 -25.3808 -2.4953 0.0581 0 8
-34.1029 -25.9315 -2.4953 0.0581 0 8
-33.6822 -26.4757 -2.4953 0.0581 0 8
-33.2529 -27.0130 -2.4953 0.0581 0 8
-32.8149 -27.5433 -2.4953 0.0581 0 8
-32.3685 -28.0666 -2.4953 0.0581 0 8
-31.9138 -28.5825 -2.4953 0.0581 0 8
-31.4508 -29.0912 -2.4953 0.0581 0 8
-30.9798 -29.5923 -2.4953 0.0581 0 8
-30.5008 -30.0858 -2.4953 0.0581 0 8
-30.0138 -30.5716 -2.4953 0.0581 0 8
-29.5192 -31.0495 -2.4953 0.0581 0 8
-29.0170 -31.5194 -2.4953 0.0581 0 8
-28.5072 -31.9811 -2.4953 0.0581 0 8
-27.9902 -32.4346 -2.4953 0.0581 0 8
-27.4658 -32.8798 -2.4953 0.0581 0 8
-26.9345 -33.3165 -2.4953 0.0581 0 8
-26.3962 -33.7446 -2.4953 0.0581 0 8
-25.8510 -34.1640 -2.4953 0.0581 0 8
-25.2993 -34.5745 -2.4953 0.0581 0 8
-24.7410 -34.9762 -2.4953 0.0581 0 8
-24.1763 -35.3689 -2.4953 0.0581 0 8
-23.6054 -35.7524 -2.4953 0.0581 0 8
-23.0285 -36.1268 -2.4953 0.0581 0 8
-22.4455 -36.4918 -2.4953 0.0581 0 8
-21.8568 -36.8474 -2.4953 0.0581 0 8
-21.2625 -37.1935 -2.4953 0.0581 0 8
-20.6627 -37.5301 -2.4953 0.0581 0 8
-20.0575 -37.8569 -2.4953 0.0581 0 8
-19.4472 -38.1741 -2.4953 0.0581 0 8
-18.8319 -38.4813 -2.4953 0.0581 0 8
-18.2117 -38.7787 -2.4953 0.0581 0 8
-17.5868 -39.0660 -2.4953 0.0581 0 8
-16.9574 -39.3433 -2.4953 0.0581 0 8
-16.3236 -39.6105 -2.4953 0.0581 0 8
-15.6857 -39.8674 -2.4953 0.0581 0 8
-15.0436 -40.1141 -2.4953 0.0581 0 8
-14.3978 -40.3504 -2.4953 0.0581 0 8
-13.7482 -40.5764 -2.4953 0.0581 0 8
-13.0950 -40.7918 -2.4953 0.0581 0 8
-16.4677 33.6617 -2.4953 0.0664 0 8
-17.0060 33.3930 -2.4953 0.0664 0 8
-17.5398 33.1157 -2.4953 0.0664 0 8
-18.0879 32.8638 -2.4979 0.6660 0 8
-18.7758 32.8538 -2.5197 0.8653 0 8
-19.4783 32.8475 -2.5429 0.8574 0 8
-20.1940 32.8410 -2.5671 0.8493 0 8
-20.9236 32.8343 -2.5925 0.8410 0 8
-21.6679 32.8273 -2.6191 0.8324 0 8
-22.3799 32.7500 -2.6413 0.0804 0 8
-22.9468 32.4488 -2.6463 0.0803 0 8
-23.4765 32.0924 -2.6477 0.0664 0 7
-23.9886 31.7114 -2.6477 0.0664 0 7
-24.4946 31.3222 -2.6477 0.0664 0 7
-24.9943 30.9250 -2.6477 0.0664 0 7
-25.4875 30.5197 -2.6477 0.0664 0 7
-25.9742 30.1066 -2.6477 0.0664 0 7
-26.4542 29.6858 -2.6477 0.0664 0 7
-26.9273 29.2573 -2.6477 0.0664 0 7
-27.3935 28.8212 -2.6477 0.0664 0 7
-27.8526 28.3778 -2.6477 0.0664 0 7
-28.3046 27.9270 -2.6477 0.0664 0 7
-28.7493 27.4690 -2.6477 0.0664 0 7
-29.1865 27.0039 -2.6477 0.0664 0 7
-29.6163 26.5320 -2.6477 0.0664 0 7
-30.0384 26.0531 -2.6477 0.0664 0 7
-30.4528 25.5675 -2.6477 0.0664 0 7
-30.8593 25.0753 -2.6477 0.0664 0 7
-31.2579 24.5767 -2.6477 0.0664 0 7
-31.6484 24.0718 -2.6477 0.0664 0 7
-30.2792 22.2723 -2.5029 0.0664 0 8
-30.6328 21.7833 -2.5029 0.0664 0 14
-30.9786 21.2887 -2.5029 0.0664 0 14
-31.3163 20.7888 -2.5029 0.0664 0 14
-31.6460 20.2833 -2.5029 0.0664 0 14
-31.9676 19.7726 -2.5029 0.0664 0 14
-34.1482 20.3708 -2.6477 0.0664 0 7
-34.4708 19.8200 -2.6477 0.0664 0 7
-34.7845 19.2641 -2.6477 0.0664 0 7
-35.0893 18.7032 -2.6477 0.0664 0 7
-35.3850 18.1375 -2.6477 0.0664 0 7
-35.6716 17.5671 -2.6477 0.0664 0 7
-35.9490 16.9922 -2.6477 0.0664 0 7
-36.2172 16.4129 -2.6477 0.0664 0 7
-36.4760 15.8294 -2.6477 0.0664 0 7
-36.7254 15.2418 -2.6477 0.0664 0 7
-36.9653 14.6503 -2.6477 0.0664 0 6
-37.1958 14.0550 -2.6477 0.0664 0 7
-37.4166 13.4561 -2.6477 0.0664 0 7
-37.6278 12.8537 -2.6477 0.0664 0 7
-37.8293 12.2480 -2.6477 0.0664 0 7
-38.0210 11.6391 -2.6477 0.0664 0 6
-38.2030 11.0273 -2.6477 0.0664 0 7
-38.3751 10.4126 -2.6477 0.0664 0 7
-38.5373 9.7952 -2.6477 0.0664 0 7
-38.6896 9.1753 -2.6477 0.0664 0 7
-38.8319 8.5530 -2.6477 0.0664 0 7
-38.9642 7.9285 -2.6477 0.0664 0 7
-39.0864 7.3020 -2.6477 0.0664 0 7
-39.1986 6.6736 -2.6477 0.0664 0 7
-39.3007 6.0434 -2.6477 0.0664 0 7
-39.3926 5.4118 -2.6477 0.0664 0 7
-39.4745 4.7787 -2.6477 0.0664 0 7
-39.5461 4.1444 -2.6477 0.0664 0 6
-39.6075 3.5090 -2.6477 0.0664 0 6
-39.6587 2.8727 -2.6477 0.0664 0 6
-39.6997 2.2357 -2.6477 0.0664 0 6
-37.4436 1.5061 -2.4953 0.0664 0 8
-37.4630 0.9048 -2.4953 0.0664 0 8
-37.4727 0.3033 -2.4953 0.0664 0 8
-37.4727 -0.2983 -2.4953 0.0664 0 8
-37.4631 -0.8998 -2.4953 0.0664 0 8
-37.4438 -1.5011 -2.4953 0.0664 0 8
-37.4149 -2.1020 -2.4953 0.0664 0 8
-37.3763 -2.7024 -2.4953 0.0664 0 8
-37.3281 -3.3021 -2.4953 0.0664 0 8
-37.2703 -3.9009 -2.4953 0.0664 0 8
-37.2029 -4.4987 -2.4953 0.0664 0 8
-37.1259 -5.0953 -2.4953 0.0664 0 8
-37.0393 -5.6907 -2.4953 0.0664 0 8
-36.9432 -6.2845 -2.4953 0.0664 0 8
-36.8375 -6.8768 -2.4953 0.0664 0 8
-36.7224 -7.4673 -2.4953 0.0664 0 8
-36.5978 -8.0558 -2.4953 0.0664 0 8
-36.4638 -8.6423 -2.4953 0.0664 0 8
-36.3203 -9.2265 -2.4953 0.0664 0 8
-36.1675 -9.8084 -2.4953 0.0664 0 8
-36.0054 -10.3877 -2.4953 0.0664 0 8
-35.8340 -10.9644 -2.4953 0.0664 0 8
-35.6534 -11.5382 -2.4953 0.0664 0 8
-35.4635 -12.1091 -2.4953 0.0664 0 8
-35.2646 -12.6768 -2.4953 0.0664 0 8
-35.0565 -13.2413 -2.4953 0.0664 0 8
-34.8394 -13.8024 -2.4953 0.0664 0 8
-34.6134 -14.3599 -2.4953 0.0664 0 8
-34.3784 -14.9137 -2.4953 0.0664 0 8
-34.1346 -15.4637 -2.4953 0.0664 0 8
-33.8819 -16.0096 -2.4953 0.0664 0 8
-33.6206 -16.5515 -2.4953 0.0664 0 8
-33.3505 -17.0891 -2.4953 0.0664 0 8
-33.0719 -17.6223 -2.4953 0.0664 0 8
-32.7847 -18.1509 -2.4953 0.0664 0 8
-32.4891 -18.6749 -2.4953 0.0664 0 8
-32.1851 -19.1940 -2.4953 0.0664 0 8
-31.8729 -19.7082 -2.4953 0.0664 0 8
-31.5524 -20.2173 -2.4953 0.0664 0 8
-31.2238 -20.7213 -2.4953 0.0664 0 8
-30.8871 -21.2198 -2.4953 0.0664 0 8
-30.5425 -21.7129 -2.4953 0.0664 0 8
-30.1900 -22.2004 -2.4953 0.0664 0 8
-29.8297 -22.6822 -2.4953 0.0664 0 8
-29.4617 -23.1582 -2.4953 0.0664 0 8
-29.0862 -23.6281 -2.4953 0.0664 0 8
-28.7031 -24.0920 -2.4953 0.0664 0 8
-28.3126 -24.5497 -2.4953 0.0664 0 8
-27.9149 -25.0010 -2.4953 0.0664 0 8
-27.5099 -25.4460 -2.4953 0.0664 0 8
-27.0979 -25.8843 -2.4953 0.0664 0 8
-26.6789 -26.3159 -2.4953 0.0664 0 8
-26.2530 -26.7409 -2.4953 0.0664 0 8
-25.8203 -27.1589 -2.4953 0.0664 0 8
-25.3810 -27.5699 -2.4953 0.0664 0 8
-24.9352 -27.9738 -2.4953 0.0664 0 8
-24.4829 -28.3704 -2.4953 0.0664 0 8
-24.0243 -28.7598 -2.4953 0.0664 0 8
-23.5595 -29.1418 -2.4953 0.0664 0 8
-23.0886 -29.5162 -2.4953 0.0664 0 8
-22.6118 -29.8831 -2.4953 0.0664 0 8
-22.1292 -30.2422 -2.4953 0.0664 0 8
-21.6409 -30.5936 -2.4953 0.0664 0 8
-21.1469 -30.9370 -2.4953 0.0664 0 8
-20.6476 -31.2725 -2.4953 0.0664 0 8
-20.1429 -31.5999 -2.4953 0.0664 0 8
-19.6330 -31.9192 -2.4953 0.0664 0 8
-19.1181 -32.2303 -2.4953 0.0664 0 8
-18.5982 -32.5331 -2.4953 0.0664 0 8
-18.0736 -32.8274 -2.4953 0.0664 0 8
-17.5443 -33.1133 -2.4953 0.0664 0 8
-17.0104 -33.3907 -2.4953 0.0664 0 8
-16.4722 -33.6595 -2.4953 0.0664 0 8
-15.9297 -33.9196 -2.4953 0.0664 0 8
-15.3831 -34.1709 -2.4953 0.0664 0 8
-14.8326 -34.4135 -2.4953 0.0664 0 8
-14.2782 -34.6472 -2.4953 0.0664 0 8
-13.7202 -34.8719 -2.4953 0.0664 0 8
-13.1586 -35.0877 -2.4953 0.0664 0 8
-12.5937 -35.2944 -2.4953 0.0664 0 8
-12.0255 -35.4920 -2.4953 0.0664 0 8
-11.4542 -35.6805 -2.4953 0.0664 0 8
-15.5259 31.7365 -2.6477 0.0747 0 7
-16.0334 31.4832 -2.6477 0.0747 0 7
-16.5367 31.2217 -2.6477 0.0747 0 7
-17.0358 30.9523 -2.6477 0.0747 0 7
-17.5305 30.6748 -2.6477 0.0747 0 7
-18.0207 30.3894 -2.6477 0.0747 0 7
-18.5062 30.0962 -2.6477 0.0747 0 7
-18.9870 29.7952 -2.6477 0.0747 0 7
-19.4628 29.4866 -2.6477 0.0747 0 7
-19.9337 29.1704 -2.6477 0.0747 0 7
-20.3994 28.8466 -2.6477 0.0747 0 7
-20.8598 28.5154 -2.6477 0.0747 0 7
-21.3149 28.1769 -2.6477 0.0747 0 7
-21.7645 27.8311 -2.6477 0.0747 0 7
-22.2084 27.4781 -2.6477 0.0747 0 7
-22.6467 27.1180 -2.6477 0.0747 0 7
-23.0791 26.7510 -2.6477 0.0747 0 7
-23.5056 26.3770 -2.6477 0.0747 0 6
-23.9260 25.9963 -2.6477 0.0747 0 7
-24.3402 25.6089 -2.6477 0.0747 0 7
-24.7482 25.2148 -2.6477 0.0747 0 7
-25.1498 24.8143 -2.6477 0.0747 0 7
-25.5449 24.4073 -2.6477 0.0747 0 7
-25.9334 23.9941 -2.6477 0.0747 0 7
-24.8763 22.2856 -2.5029 0.0747 0 8
-25.2309 21.8834 -2.5029 0.0747 0 14
-25.5789 21.4755 -2.5029 0.0747 0 14
-25.9204 21.0621 -2.5029 0.0747 0 14
-26.2552 20.6433 -2.5029 0.0747 0 14
-26.5831 20.2192 -2.5029 0.0747 0 14
-26.9043 19.7898 -2.5029 0.0747 0 14
-27.2185 19.3554 -2.5029 0.0747 0 14
-27.5257 18.9159 -2.5029 0.0747 0 8
-28.4286 18.8718 -2.5571 0.5582 0 8
-29.4216 18.8576 -2.6189 0.5450 0 8
-30.0475 18.5851 -2.6477 0.0747 0 7
-30.3420 18.1003 -2.6477 0.0747 0 7
-30.6287 17.6109 -2.6477 0.0747 0 7
-30.9075 17.1169 -2.6477 0.0747 0 6
-31.1783 16.6186 -2.6477 0.0747 0 7
-31.4411 16.1159 -2.6477 0.0747 0 7
-31.6957 15.6091 -2.6477 0.0747 0 7
-31.9422 15.0983 -2.6477 0.0747 0 7
-32.1804 14.5836 -2.6477 0.0747 0 7
-32.4104 14.0651 -2.6477 0.0747 0 7
-32.6320 13.5430 -2.6477 0.0747 0 7
-32.8452 13.0174 -2.6477 0.0747 0 7
-33.0500 12.4884 -2.6477 0.0747 0 7
-33.2462 11.9563 -2.6477 0.0747 0 7
-33.4338 11.4210 -2.6477 0.0747 0 7
-33.6129 10.8828 -2.6477 0.0747 0 7
-33.7832 10.3419 -2.6477 0.0747 0 7
-33.9449 9.7982 -2.6477 0.0747 0 7
-34.0978 9.2520 -2.6477 0.0747 0 7
-34.2420 8.7034 -2.6477 0.0747 0 7
-32.3985 7.6833 -2.4953 0.0747 0 8
-32.5177 7.1622 -2.4953 0.0747 0 8
-32.6284 6.6393 -2.4953 0.0747 0 8
-32.7308 6.1147 -2.4953 0.0747 0 8
-32.8248 5.5884 -2.4953 0.0747 0 8
-32.9103 5.0608 -2.4953 0.0747 0 8
-32.9873 4.5318 -2.4953 0.0747 0 8
-33.0557 4.0016 -2.4953 0.0747 0 8
-33.1157 3.4705 -2.4953 0.0747 0 8
-33.1672 2.9384 -2.4953 0.0747 0 8
-33.2101 2.4056 -2.4953 0.0747 0 8
-33.2444 1.8721 -2.4953 0.0747 0 8
-33.2702 1.3382 -2.4953 0.0747 0 8
-33.2874 0.8040 -2.4953 0.0747 0 8
-33.2960 0.2695 -2.4953 0.0747 0 8
-33.2960 -0.2651 -2.4953 0.0747 0 8
-33.2875 -0.7995 -2.4953 0.0747 0 8
-33.2704 -1.3338 -2.4953 0.0747 0 8
-33.2447 -1.8677 -2.4953 0.0747 0 8
-33.2105 -2.4012 -2.4953 0.0747 0 8
-33.1676 -2.9340 -2.4953 0.0747 0 8
-33.1162 -3.4661 -2.4953 0.0747 0 8
-33.0563 -3.9973 -2.4953 0.0747 0 8
-32.9879 -4.5274 -2.4953 0.0747 0 8
-32.9109 -5.0564 -2.4953 0.0747 0 8
-32.8255 -5.5841 -2.4953 0.0747 0 8
-32.7317 -6.1103 -2.4953 0.0747 0 8
-32.6293 -6.6350 -2.4953 0.0747 0 8
-32.5186 -7.1579 -2.4953 0.0747 0 8
-32.3995 -7.6790 -2.4953 0.0747 0 8
-32.2721 -8.1982 -2.4953 0.0747 0 8
-32.1363 -8.7152 -2.4953 0.0747 0 8
-31.9923 -9.2299 -2.4953 0.0747 0 8
-31.8400 -9.7423 -2.4953 0.0747 0 8
-31.6795 -10.2522 -2.4953 0.0747 0 8
-31.5108 -10.7594 -2.4953 0.0747 0 8
-31.3341 -11.2628 -2.4953 0.0747 0 8
-31.1492 -11.7652 -2.4953 0.0747 0 8
-30.9563 -12.2640 -2.4953 0.0747 0 8
-30.7554 -12.7501 -2.4953 0.0747 0 8
-30.5466 -13.2514 -2.4953 0.0747 0 8
-30.3300 -13.7401 -2.4953 0.0747 0 8
-30.1055 -14.2252 -2.4953 0.0747 0 8
-29.8732 -14.7067 -2.4953 0.0747 0 8
-29.6333 -15.1844 -2.4953 0.0747 0 8
-29.3857 -15.6581 -2.4953 0.0747 0 8
-29.1306 -16.1278 -2.4953 0.0747 0 8
-28.8679 -16.5934 -2.4953 0.0747 0 8
-28.5978 -17.0547 -2.4953 0.0747 0 8
-28.3203 -17.5116 -2.4953 0.0747 0 8
-28.0356 -17.9639 -2.4953 0.0747 0 8
-27.7436 -18.4117 -2.4953 0.0747 0 8
-27.4444 -18.8547 -2.4953 0.0747 0 8
-27.1382 -19.2928 -2.4953 0.0747 0 8
-26.8250 -19.7260 -2.4953 0.0747 0 8
-26.5049 -20.1541 -2.4953 0.0747 0 8
-26.1779 -20.5770 -2.4953 0.0747 0 8
-25.8442 -20.9946 -2.4953 0.0747 0 8
-25.5039 -21.4067 -2.4953 0.0747 0 8
-25.1569 -21.8134 -2.4953 0.0747 0 8
-24.8035 -22.2144 -2.4953 0.0747 0 8
-24.4437 -22.6098 -2.4953 0.0747 0 8
-24.0776 -22.9993 -2.4953 0.0747 0 8
-23.7053 -23.3828 -2.4953 0.0747 0 8
-23.3269 -23.7604 -2.4953 0.0747 0 8
-22.9424 -24.1318 -2.4953 0.0747 0 8
-22.5521 -24.4969 -2.4953 0.0747 0 8
-22.1559 -24.8558 -2.4953 0.0747 0 8
-21.7540 -25.2083 -2.4953 0.0747 0 8
-21.3465 -25.5543 -2.4953 0.0747 0 8
-20.9336 -25.8937 -2.4953 0.0747 0 8
-20.5152 -26.2264 -2.4953 0.0747 0 8
-20.0915 -26.5524 -2.4953 0.0747 0 8
-19.6627 -26.8715 -2.4953 0.0747 0 8
-19.2288 -27.1836 -2.4953 0.0747 0 8
-18.7899 -27.4888 -2.4953 0.0747 0 8
-18.3462 -27.7869 -2.4953 0.0747 0 8
-17.8978 -28.0778 -2.4953 0.0747 0 8
-17.4448 -28.3615 -2.4953 0.0747 0 8
-16.9872 -28.6379 -2.4953 0.0747 0 8
-16.5253 -28.9069 -2.4953 0.0747 0 8
-16.0591 -29.1685 -2.4953 0.0747 0 8
-15.5888 -29.4226 -2.4953 0.0747 0 8
-15.1144 -29.6690 -2.4953 0.0747 0 8
-14.6362 -29.9078 -2.4953 0.0747 0 8
-14.1542 -30.1389 -2.4953 0.0747 0 8
-13.6685 -30.3623 -2.4953 0.0747 0 8
-13.1794 -30.5778 -2.4953 0.0747 0 8
-12.6869 -30.7851 -2.4953 0.0747 0 8
-12.1910 -30.9851 -2.4953 0.0747 0 8
-11.6920 -31.1768 -2.4953 0.0747 0 8
-11.1900 -31.3605 -2.4953 0.0747 0 8
-10.6851 -31.5361 -2.4953 0.0747 0 8
-10.1775 -31.7036 -2.4953 0.0747 0 8
-13.9672 28.5503 -2.6477 0.0830 0 7
-14.4237 28.3224 -2.6477 0.0830 0 7
-14.8765 28.0872 -2.6477 0.0830 0 7
-15.3255 27.8448 -2.6477 0.0830 0 7
-15.7705 27.5952 -2.6477 0.0830 0 7
-16.2115 27.3384 -2.6477 0.0830 0 7
-16.6483 27.0747 -2.6477 0.0830 0 7
-17.0808 26.8039 -2.6477 0.0830 0 7
-17.5089 26.5263 -2.6477 0.0830 0 7
-17.9324 26.2418 -2.6477 0.0830 0 7
-18.3514 25.9505 -2.6477 0.0830 0 7
-18.7656 25.6526 -2.6477 0.0830 0 7
-19.1750 25.3480 -2.6477 0.0830 0 7
-19.5794 25.0370 -2.6477 0.0830 0 7
-19.9788 24.7194 -2.6477 0.0830 0 7
-20.3731 24.3955 -2.6477 0.0830 0 7
-20.7621 24.0653 -2.6477 0.0830 0 7
-21.1457 23.7289 -2.6477 0.0830 0 7
-20.3470 22.1076 -2.5029 0.0830 0 14
-20.6992 21.7781 -2.5029 0.0830 0 14
-21.0462 21.4430 -2.5029 0.0830 0 14
-21.3877 21.1024 -2.5029 0.0830 0 14
-21.7237 20.7563 -2.5029 0.0830 0 14
-22.0541 20.4049 -2.5029 0.0830 0 14
-22.3788 20.0482 -2.5029 0.0830 0 14
-22.6978 19.6864 -2.5029 0.0830 0 14
-23.0109 19.3195 -2.5029 0.0830 0 14
-23.3181 18.9476 -2.5029 0.0830 0 8
-24.0204 18.8862 -2.5454 0.6229 0 8
-24.8151 18.8744 -2.5972 0.6105 0 8
-25.6033 18.8328 -2.6477 0.0830 0 7
-25.9023 18.4194 -2.6477 0.0830 0 6
-26.1947 18.0012 -2.6477 0.0830 0 7
-26.4802 17.5784 -2.6477 0.0830 0 7
-26.7590 17.1510 -2.6477 0.0830 0 7
-27.0309 16.7192 -2.6477 0.0830 0 7
-27.2958 16.2831 -2.6477 0.0830 0 7
-27.5537 15.8429 -2.6477 0.0830 0 7
-27.8045 15.3985 -2.6477 0.0830 0 7
-28.0481 14.9501 -2.6477 0.0830 0 7
-28.2845 14.4979 -2.6477 0.0830 0 7
-28.5136 14.0420 -2.6477 0.0830 0 7
-28.7353 13.5825 -2.6477 0.0830 0 7
-28.9497 13.1194 -2.6477 0.0830 0 7
-29.1566 12.6530 -2.6477 0.0830 0 7
-29.3559 12.1833 -2.6477 0.0830 0 7
-29.5477 11.7105 -2.6477 0.0830 0 7
-29.7319 11.2346 -2.6477 0.0830 0 7
-29.9084 10.7559 -2.6477 0.0830 0 7
-30.0772 10.2744 -2.6477 0.0830 0 7
-30.2383 9.7903 -2.6477 0.0830 0 7
-30.3916 9.3036 -2.6477 0.0830 0 7
-28.7793 8.3071 -2.4953 0.0830 0 8
-28.9089 7.8440 -2.4953 0.0830 0 8
-29.0311 7.3789 -2.4953 0.0830 0 8
-29.1458 6.9120 -2.4953 0.0830 0 8
-29.2530 6.4432 -2.4953 0.0830 0 8
-29.3527 5.9728 -2.4953 0.0830 0 8
-29.4448 5.5007 -2.4953 0.0830 0 8
-29.5293 5.0273 -2.4953 0.0830 0 8
-29.6062 4.5527 -2.4953 0.0830 0 8
-29.6755 4.0768 -2.4953 0.0830 0 8
-29.7371 3.5999 -2.4953 0.0830 0 8
-29.7911 3.1221 -2.4953 0.0830 0 8
-29.8373 2.6433 -2.4953 0.0830 0 8
-29.8759 2.1641 -2.4953 0.0830 0 8
-29.9068 1.6842 -2.4953 0.0830 0 8
-29.9300 1.2039 -2.4953 0.0830 0 8
-29.9455 0.7232 -2.4953 0.0830 0 8
-29.9532 0.2424 -2.4953 0.0830 0 8
-29.9533 -0.2385 -2.4953 0.0830 0 8
-29.9456 -0.7193 -2.4953 0.0830 0 8
-29.9302 -1.1999 -2.4953 0.0830 0 8
-29.9071 -1.6802 -2.4953 0.0830 0 8
-29.8762 -2.1601 -2.4953 0.0830 0 8
-29.8377 -2.6395 -2.4953 0.0830 0 8
-29.7915 -3.1181 -2.4953 0.0830 0 8
-29.7376 -3.5960 -2.4953 0.0830 0 8
-29.6760 -4.0729 -2.4953 0.0830 0 8
-29.6068 -4.5487 -2.4953 0.0830 0 8
-29.5300 -5.0235 -2.4953 0.0830 0 8
-29.4455 -5.4969 -2.4953 0.0830 0 8
-29.3535 -5.9688 -2.4953 0.0830 0 8
-29.2539 -6.4393 -2.4953 0.0830 0 8
-29.1468 -6.9081 -2.4953 0.0830 0 8
-29.0321 -7.3751 -2.4953 0.0830 0 8
-28.9100 -7.8402 -2.4953 0.0830 0 8
-28.7804 -8.3033 -2.4953 0.0830 0 8
-28.6434 -8.7643 -2.4953 0.0830 0 8
-28.4990 -9.2229 -2.4953 0.0830 0 8
-28.3473 -9.6792 -2.4953 0.0830 0 8
-28.1882 -10.1331 -2.4953 0.0830 0 8
-28.0219 -10.5843 -2.4953 0.0830 0 8
-27.8484 -11.0328 -2.4953 0.0830 0 8
-27.6677 -11.4784 -2.4953 0.0830 0 8
-27.4799 -11.9210 -2.4953 0.0830 0 8
-27.2850 -12.3607 -2.4953 0.0830 0 8
-27.0830 -12.7971 -2.4953 0.0830 0 8
-26.8741 -13.2302 -2.4953 0.0830 0 8
-26.6582 -13.6599 -2.4953 0.0830 0 8
-26.4355 -14.0861 -2.4953 0.0830 0 8
-26.2060 -14.5087 -2.4953 0.0830 0 8
-25.9697 -14.9275 -2.4953 0.0830 0 8
-25.7267 -15.3425 -2.4953 0.0830 0 8
-25.4771 -15.7535 -2.4953 0.0830 0 8
-25.2209 -16.1604 -2.4953 0.0830 0 8
-24.9583 -16.5632 -2.4953 0.0830 0 8
-24.6891 -16.9618 -2.4953 0.0830 0 8
-24.4137 -17.3559 -2.4953 0.0830 0 8
-24.1319 -17.7456 -2.4953 0.0830 0 8
-23.8439 -18.1307 -2.4953 0.0830 0 8
-23.5498 -18.5111 -2.4953 0.0830 0 8
-23.2496 -18.8868 -2.4953 0.0830 0 8
-22.9434 -19.2576 -2.4953 0.0830 0 8
-22.6313 -19.6235 -2.4953 0.0830 0 8
-22.3134 -19.9842 -2.4953 0.0830 0 8
-21.9897 -20.3399 -2.4953 0.0830 0 8
-21.6603 -20.6902 -2.4953 0.0830 0 8
-21.3254 -21.0353 -2.4953 0.0830 0 8
-20.9849 -21.3749 -2.4953 0.0830 0 8
-20.6391 -21.7090 -2.4953 0.0830 0 8
-20.2880 -22.0376 -2.4953 0.0830 0 8
-19.9316 -22.3604 -2.4953 0.0830 0 8
-19.5700 -22.6775 -2.4953 0.0830 0 8
-19.2035 -22.9887 -2.4953 0.0830 0 8
-18.8319 -23.2941 -2.4953 0.0830 0 8
-18.4556 -23.5934 -2.4953 0.0830 0 8
-18.0744 -23.8866 -2.4953 0.0830 0 8
-17.6887 -24.1737 -2.4953 0.0830 0 8
-17.2983 -24.4545 -2.4953 0.0830 0 8
-16.9035 -24.7291 -2.4953 0.0830 0 8
-16.5044 -24.9972 -2.4953 0.0830 0 8
-16.1009 -25.2590 -2.4953 0.0830 0 8
-15.6935 -25.5138 -2.4953 0.0830 0 8
-15.2818 -25.7628 -2.4953 0.0830 0 8
-14.8662 -26.0048 -2.4953 0.0830 0 8
-14.4468 -26.2401 -2.4953 0.0830 0 8
-14.0237 -26.4687 -2.4953 0.0830 0 8
-13.5970 -26.6904 -2.4953 0.0830 0 8
-13.1668 -26.9052 -2.4953 0.0830 0 8
-12.7332 -27.1131 -2.4953 0.0830 0 8
-12.2962 -27.3143 -2.4953 0.0830 0 8
-11.8562 -27.5079 -2.4953 0.0830 0 8
-11.4131 -27.6947 -2.4953 0.0830 0 8
-10.9671 -27.8743 -2.4953 0.0830 0 8
-10.5182 -28.0468 -2.4953 0.0830 0 8
-10.0666 -28.2120 -2.4953 0.0830 0 8
-9.6124 -28.3700 -2.4953 0.0830 0 8
-9.1557 -28.5207 -2.4953 0.0830 0 8
-12.6913 25.9423 -2.6477 0.0913 0 7
-13.1061 25.7352 -2.6477 0.0913 0 7
-13.5175 25.5215 -2.6477 0.0913 0 7
-13.9255 25.3012 -2.6477 0.0913 0 7
-14.3299 25.0744 -2.6477 0.0913 0 7
-14.7306 24.8411 -2.6477 0.0913 0 7
-15.1275 24.6014 -2.6477 0.0913 0 7
-15.5204 24.3554 -2.6477 0.0913 0 7
-15.9094 24.1031 -2.6477 0.0913 0 7
-16.2943 23.8446 -2.6477 0.0913 0 7
-15.7632 22.2906 -2.5029 0.0913 0 8
-16.1190 22.0346 -2.5029 0.0913 0 14
-16.4706 21.7730 -2.5029 0.0913 0 14
-16.8180 21.5058 -2.5029 0.0913 0 14
-17.1611 21.2331 -2.5029 0.0913 0 14
-17.4997 20.9548 -2.5029 0.0913 0 14
-17.8339 20.6712 -2.5029 0.0913 0 14
-18.1634 20.3823 -2.5029 0.0913 0 14
-18.4883 20.0880 -2.5029 0.0913 0 14
-18.8084 19.7887 -2.5029 0.0913 0 14
-19.1236 19.4842 -2.5029 0.0913 0 14
-19.4339 19.1747 -2.5029 0.0913 0 14
-19.7871 18.9060 -2.5090 0.5524 0 8
-20.4224 18.8952 -2.5507 0.6836 0 8
-21.0806 18.8852 -2.5947 0.6720 0 8
-21.7620 18.8748 -2.6410 0.6602 0 8
-22.1184 18.5701 -2.6477 0.0913 0 7
-22.4136 18.2126 -2.6477 0.0913 0 7
-22.7031 17.8505 -2.6477 0.0913 0 7
-22.9867 17.4837 -2.6477 0.0913 0 7
-23.2644 17.1124 -2.6477 0.0913 0 7
-23.5361 16.7368 -2.6477 0.0913 0 7
-23.8018 16.3568 -2.6477 0.0913 0 7
-24.0613 15.9726 -2.6477 0.0913 0 7
-24.3146 15.5843 -2.6477 0.0913 0 7
-24.5617 15.1919 -2.6477 0.0913 0 7
-24.8024 14.7957 -2.6477 0.0913 0 7
-25.0367 14.3956 -2.6477 0.0913 0 7
-25.2646 13.9918 -2.6477 0.0913 0 7
-25.4859 13.5845 -2.6477 0.0913 0 7
-25.7007 13.1736 -2.6477 0.0913 0 7
-25.9089 12.7593 -2.6477 0.0913 0 7
-26.1104 12.3417 -2.6477 0.0913 0 7
-26.3051 11.9210 -2.6477 0.0913 0 7
-26.4931 11.4972 -2.6477 0.0913 0 7
-26.6743 11.0704 -2.6477 0.0913 0 7
-26.8485 10.6407 -2.6477 0.0913 0 7
-27.0159 10.2084 -2.6477 0.0913 0 7
-27.1763 9.7734 -2.6477 0.0913 0 7
-27.3297 9.3358 -2.6477 0.0913 0 7
-27.4760 8.8959 -2.6477 0.0913 0 7
-26.0258 7.9671 -2.4953 0.0913 0 8
-26.1503 7.5483 -2.4953 0.0913 0 8
-26.2681 7.1275 -2.4953 0.0913 0 8
-26.3791 6.7049 -2.4953 0.0913 0 8
-26.4834 6.2806 -2.4953 0.0913 0 8
-26.5808 5.8546 -2.4953 0.0913 0 8
-26.6713 5.4271 -2.4953 0.0913 0 8
-26.7550 4.9983 -2.4953 0.0913 0 8
-26.8318 4.5681 -2.4953 0.0913 0 8
-26.9017 4.1368 -2.4953 0.0913 0 8
-26.9646 3.7044 -2.4953 0.0913 0 8
-27.0206 3.2710 -2.4953 0.0913 0 8
-27.0697 2.8369 -2.4953 0.0913 0 8
-27.1117 2.4019 -2.4953 0.0913 0 8
-27.1468 1.9664 -2.4953 0.0913 0 8
-27.1749 1.5303 -2.4953 0.0913 0 8
-27.1959 1.0939 -2.4953 0.0913 0 8
-27.2100 0.6572 -2.4953 0.0913 0 8
-27.2170 0.2203 -2.4953 0.0913 0 8
-27.2171 -0.2167 -2.4953 0.0913 0 8
-27.2101 -0.6536 -2.4953 0.0913 0 8
-27.1961 -1.0903 -2.4953 0.0913 0 8
-27.1751 -1.5267 -2.4953 0.0913 0 8
-27.1471 -1.9628 -2.4953 0.0913 0 8
-27.1120 -2.3983 -2.4953 0.0913 0 8
-27.0700 -2.8333 -2.4953 0.0913 0 8
-27.0211 -3.2675 -2.4953 0.0913 0 8
-26.9651 -3.7008 -2.4953 0.0913 0 8
-26.9023 -4.1332 -2.4953 0.0913 0 8
-26.8324 -4.5646 -2.4953 0.0913 0 8
-26.7557 -4.9947 -2.4953 0.0913 0 8
-26.6721 -5.4236 -2.4953 0.0913 0 8
-26.5816 -5.8511 -2.4953 0.0913 0 8
-26.4842 -6.2770 -2.4953 0.0913 0 8
-26.3800 -6.7014 -2.4953 0.0913 0 8
-26.2691 -7.1240 -2.4953 0.0913 0 8
-26.1513 -7.5448 -2.4953 0.0913 0 8
-26.0268 -7.9636 -2.4953 0.0913 0 8
-25.8956 -8.3804 -2.4953 0.0913 0 8
-25.7578 -8.7950 -2.4953 0.0913 0 8
-25.6132 -9.2074 -2.4953 0.0913 0 8
-25.4621 -9.6174 -2.4953 0.0913 0 8
-25.3045 -10.0249 -2.4953 0.0913 0 8
-25.1403 -10.4298 -2.4953 0.0913 0 8
-24.9696 -10.8321 -2.4953 0.0913 0 8
-24.7925 -11.2315 -2.4953 0.0913 0 8
-24.6090 -11.6281 -2.4953 0.0913 0 8
-24.4192 -12.0216 -2.4953 0.0913 0 8
-24.2230 -12.4121 -2.4953 0.0913 0 8
-24.0206 -12.7993 -2.4953 0.0913 0 8
-23.8121 -13.1833 -2.4953 0.0913 0 8
-23.5974 -13.5639 -2.4953 0.0913 0 8
-23.3766 -13.9409 -2.4953 0.0913 0 8
-23.1498 -14.3144 -2.4953 0.0913 0 8
-22.9170 -14.6842 -2.4953 0.0913 0 8
-22.6783 -15.0502 -2.4953 0.0913 0 8
-22.4338 -15.4123 -2.4953 0.0913 0 8
-22.1835 -15.7705 -2.4953 0.0913 0 8
-21.9275 -16.1246 -2.4953 0.0913 0 8
-21.6658 -16.4745 -2.4953 0.0913 0 8
-21.3985 -16.8202 -2.4953 0.0913 0 8
-21.1258 -17.1615 -2.4953 0.0913 0 8
-20.8475 -17.4984 -2.4953 0.0913 0 8
-20.5639 -17.8309 -2.4953 0.0913 0 8
-20.2751 -18.1587 -2.4953 0.0913 0 8
-19.9809 -18.4818 -2.4953 0.0913 0 8
-19.6816 -18.8002 -2.4953 0.0913 0 8
-19.3773 -19.1137 -2.4953 0.0913 0 8
-19.0680 -19.4223 -2.4953 0.0913 0 8
-18.7537 -19.7259 -2.4953 0.0913 0 8
-18.4347 -20.0244 -2.4953 0.0913 0 8
-18.1108 -20.3178 -2.4953 0.0913 0 8
-17.7823 -20.6059 -2.4953 0.0913 0 8
-17.4492 -20.8887 -2.4953 0.0913 0 8
-17.1116 -21.1662 -2.4953 0.0913 0 8
-16.7697 -21.4381 -2.4953 0.0913 0 8
-16.4233 -21.7046 -2.4953 0.0913 0 8
-16.0728 -21.9654 -2.4953 0.0913 0 8
-15.7181 -22.2206 -2.4953 0.0913 0 8
-15.3594 -22.4701 -2.4953 0.0913 0 8
-14.9967 -22.7137 -2.4953 0.0913 0 8
-14.6301 -22.9516 -2.4953 0.0913 0 8
-14.2598 -23.1835 -2.4953 0.0913 0 8
-13.8858 -23.4094 -2.4953 0.0913 0 8
-13.5082 -23.6293 -2.4953 0.0913 0 8
-13.1271 -23.8431 -2.4953 0.0913 0 8
-12.7427 -24.0508 -2.4953 0.0913 0 8
-12.3549 -24.2522 -2.4953 0.0913 0 8
-11.9640 -24.4474 -2.4953 0.0913 0 8
-11.5700 -24.6363 -2.4953 0.0913 0 8
-11.1730 -24.8189 -2.4953 0.0913 0 8
-10.7732 -24.9951 -2.4953 0.0913 0 8
-10.3705 -25.1648 -2.4953 0.0913 0 8
-9.9652 -25.3280 -2.4953 0.0913 0 8
-9.5573 -25.4847 -2.4953 0.0913 0 8
-9.1470 -25.6349 -2.4953 0.0913 0 8
-8.7343 -25.7784 -2.4953 0.0913 0 8
-8.3193 -25.9153 -2.4953 0.0913 0 8
-11.6275 23.7678 -2.6477 0.0996 0 7
-11.3510 22.2888 -2.5029 0.0996 0 8
-11.7073 22.1037 -2.5029 0.0996 0 14
-12.0606 21.9129 -2.5029 0.0996 0 14
-12.4108 21.7164 -2.5029 0.0996 0 14
-12.7579 21.5144 -2.5029 0.0996 0 14
-13.1016 21.3068 -2.5029 0.0996 0 14
-13.4420 21.0938 -2.5029 0.0996 0 14
-13.7789 20.8752 -2.5029 0.0996 0 14
-14.1122 20.6514 -2.5029 0.0996 0 14
-14.4419 20.4222 -2.5029 0.0996 0 14
-14.7679 20.1877 -2.5029 0.0996 0 14
-15.0900 19.9480 -2.5029 0.0996 0 14
-15.4083 19.7032 -2.5029 0.0996 0 14
-15.7226 19.4533 -2.5029 0.0996 0 14
-16.0329 19.1984 -2.5029 0.0996 0 14
-16.3390 18.9386 -2.5029 0.0996 0 8
-16.8498 18.9082 -2.5343 0.7504 0 8
-17.3948 18.9000 -2.5703 0.7399 0 8
-17.9556 18.8914 -2.6080 0.7292 0 8
-18.5331 18.8825 -2.6475 0.7183 0 8
-18.8349 18.5836 -2.6477 0.0996 0 7
-19.1308 18.2789 -2.6477 0.0996 0 7
-19.4218 17.9694 -2.6477 0.0996 0 7
-19.7077 17.6553 -2.6477 0.0996 0 7
-19.9886 17.3367 -2.6477 0.0996 0 7
-20.2644 17.0135 -2.6477 0.0996 0 7
-20.5349 16.6860 -2.6477 0.0996 0 7
-20.8001 16.3542 -2.6477 0.0996 0 7
-21.0600 16.0182 -2.6477 0.0996 0 7
-21.3144 15.6781 -2.6477 0.0996 0 7
-21.5633 15.3339 -2.6477 0.0996 0 7
-21.8067 14.9858 -2.6477 0.0996 0 7
-22.0445 14.6338 -2.6477 0.0996 0 7
-22.2765 14.2780 -2.6477 0.0996 0 7
-22.5029 13.9185 -2.6477 0.0996 0 7
-22.7234 13.5555 -2.6477 0.0996 0 7
-22.9381 13.1890 -2.6477 0.0996 0 7
-23.1469 12.8190 -2.6477 0.0996 0 7
-23.3497 12.4458 -2.6477 0.0996 0 7
-23.5465 12.0694 -2.6477 0.0996 0 7
-23.7372 11.6898 -2.6477 0.0996 0 7
-23.9218 11.3072 -2.6477 0.0996 0 6
-24.1002 10.9218 -2.6477 0.0996 0 7
-24.2725 10.5335 -2.6477 0.0996 0 7
-24.4384 10.1425 -2.6477 0.0996 0 7
-24.5981 9.7488 -2.6477 0.0996 0 7
-24.7514 9.3527 -2.6477 0.0996 0 7
-24.8984 8.9542 -2.6477 0.0996 0 7
-23.5977 8.0610 -2.4953 0.0996 0 8
-23.7240 7.6811 -2.4953 0.0996 0 8
-23.8443 7.2993 -2.4953 0.0996 0 8
-23.9584 6.9156 -2.4953 0.0996 0 8
-24.0663 6.5301 -2.4953 0.0996 0 8
-24.1680 6.1429 -2.4953 0.0996 0 8
-24.2635 5.7541 -2.4953 0.0996 0 8
-24.3528 5.3639 -2.4953 0.0996 0 8
-24.4358 4.9722 -2.4953 0.0996 0 8
-24.5124 4.5793 -2.4953 0.0996 0 8
-24.5828 4.1852 -2.4953 0.0996 0 8
-24.6468 3.7901 -2.4953 0.0996 0 8
-24.7045 3.3939 -2.4953 0.0996 0 8
-24.7558 2.9969 -2.4953 0.0996 0 8
-24.8007 2.5991 -2.4953 0.0996 0 8
-24.8392 2.2006 -2.4953 0.0996 0 8
-24.8713 1.8016 -2.4953 0.0996 0 8
-24.8971 1.4021 -2.4953 0.0996 0 8
-24.9164 1.0022 -2.4953 0.0996 0 8
-24.9292 0.6021 -2.4953 0.0996 0 8
-24.9357 0.2018 -2.4953 0.0996 0 8
-24.9357 -0.1985 -2.4953 0.0996 0 8
-24.9293 -0.5988 -2.4953 0.0996 0 8
-24.9165 -0.9989 -2.4953 0.0996 0 8
-24.8972 -1.3988 -2.4953 0.0996 0 8
-24.8716 -1.7983 -2.4953 0.0996 0 8
-24.8395 -2.1973 -2.4953 0.0996 0 8
-24.8010 -2.5958 -2.4953 0.0996 0 8
-24.7562 -2.9936 -2.4953 0.0996 0 8
-24.7049 -3.3906 -2.4953 0.0996 0 8
-24.6473 -3.7868 -2.4953 0.0996 0 8
-24.5833 -4.1820 -2.4953 0.0996 0 8
-24.5130 -4.5761 -2.4953 0.0996 0 8
-24.4364 -4.9690 -2.4953 0.0996 0 8
-24.3535 -5.3606 -2.4953 0.0996 0 8
-24.2643 -5.7509 -2.4953 0.0996 0 8
-24.1688 -6.1397 -2.4953 0.0996 0 8
-24.0672 -6.5269 -2.4953 0.0996 0 8
-23.9593 -6.9124 -2.4953 0.0996 0 8
-23.8452 -7.2961 -2.4953 0.0996 0 8
-23.7250 -7.6780 -2.4953 0.0996 0 8
-23.5987 -8.0578 -2.4953 0.0996 0 8
-23.4663 -8.4356 -2.4953 0.0996 0 8
-23.3279 -8.8113 -2.4953 0.0996 0 8
-23.1834 -9.1846 -2.4953 0.0996 0 8
-23.0330 -9.5556 -2.4953 0.0996 0 8
-22.8766 -9.9241 -2.4953 0.0996 0 8
-22.7144 -10.2901 -2.4953 0.0996 0 8
-22.5462 -10.6534 -2.4953 0.0996 0 8
-22.3723 -11.0140 -2.4953 0.0996 0 8
-22.1927 -11.3717 -2.4953 0.0996 0 8
-22.0072 -11.7265 -2.4953 0.0996 0 8
-21.8162 -12.0783 -2.4953 0.0996 0 8
-21.6194 -12.4269 -2.4953 0.0996 0 8
-21.4172 -12.7724 -2.4953 0.0996 0 8
-21.2094 -13.1146 -2.4953 0.0996 0 8
-20.9961 -13.4534 -2.4953 0.0996 0 8
-20.7774 -13.7887 -2.4953 0.0996 0 8
-20.5534 -14.1205 -2.4953 0.0996 0 8
-20.3241 -14.4486 -2.4953 0.0996 0 8
-20.0895 -14.7730 -2.4953 0.0996 0 8
-19.8498 -15.0936 -2.4953 0.0996 0 8
-19.6049 -15.4103 -2.4953 0.0996 0 8
-19.3550 -15.7230 -2.4953 0.0996 0 8
-19.1001 -16.0317 -2.4953 0.0996 0 8
-18.8403 -16.3361 -2.4953 0.0996 0 8
-18.5756 -16.6366 -2.4953 0.0996 0 8
-18.3061 -16.9327 -2.4953 0.0996 0 8
-18.0319 -17.2244 -2.4953 0.0996 0 8
-17.7531 -17.5116 -2.4953 0.0996 0 8
-17.4697 -17.7944 -2.4953 0.0996 0 8
-17.1818 -18.0725 -2.4953 0.0996 0 8
-16.8895 -18.3460 -2.4953 0.0996 0 8
-16.5928 -18.6147 -2.4953 0.0996 0 8
-16.2918 -18.8787 -2.4953 0.0996 0 8
-15.9866 -19.1378 -2.4953 0.0996 0 8
-15.6773 -19.3920 -2.4953 0.0996 0 8
-15.3640 -19.6412 -2.4953 0.0996 0 8
-15.0467 -19.8853 -2.4953 0.0996 0 8
-14.7256 -20.1243 -2.4953 0.0996 0 8
-14.4006 -20.3581 -2.4953 0.0996 0 8
-14.0720 -20.5866 -2.4953 0.0996 0 8
-13.7397 -20.8099 -2.4953 0.0996 0 8
-13.4038 -21.0277 -2.4953 0.0996 0 8
-13.0645 -21.2402 -2.4953 0.0996 0 8
-12.7219 -21.4472 -2.4953 0.0996 0 8
-12.3759 -21.6487 -2.4953 0.0996 0 8
-12.0268 -21.8446 -2.4953 0.0996 0 8
-11.6746 -22.0348 -2.4953 0.0996 0 8
-11.3193 -22.2194 -2.4953 0.0996 0 8
-10.9612 -22.3983 -2.4953 0.0996 0 8
-10.6002 -22.5713 -2.4953 0.0996 0 8
-10.2365 -22.7386 -2.4953 0.0996 0 8
-9.8702 -22.9000 -2.4953 0.0996 0 8
-9.5013 -23.0555 -2.4953 0.0996 0 8
-9.1299 -23.2050 -2.4953 0.0996 0 8
-8.7562 -23.3486 -2.4953 0.0996 0 8
-8.3803 -23.4862 -2.4953 0.0996 0 8
-8.0022 -23.6177 -2.4953 0.0996 0 8
-7.6220 -23.7431 -2.4953 0.0996 0 8
-10.1403 20.7278 -2.5029 0.1078 0 14
-10.4717 20.5623 -2.5029 0.1078 0 14
-10.8005 20.3915 -2.5029 0.1078 0 14
-11.1264 20.2155 -2.5029 0.1078 0 14
-11.4495 20.0343 -2.5029 0.1078 0 14
-11.7697 19.8479 -2.5029 0.1078 0 14
-12.0868 19.6564 -2.5029 0.1078 0 14
-12.4008 19.4599 -2.5029 0.1078 0 14
-12.7116 19.2583 -2.5029 0.1078 0 14
-13.0191 19.0517 -2.5029 0.1078 0 8
-13.3808 18.9216 -2.5137 0.8193 0 8
-13.8369 18.9151 -2.5420 0.8102 0 8
-14.3035 18.9083 -2.5716 0.8009 0 8
-14.7812 18.9013 -2.6026 0.7914 0 8
-15.2705 18.8939 -2.6350 0.7816 0 8
-15.6466 18.7358 -2.6477 0.1078 0 7
-15.9453 18.4823 -2.6477 0.1078 0 7
-16.2400 18.2239 -2.6477 0.1078 0 7
-16.5305 17.9608 -2.6477 0.1078 0 7
-16.8167 17.6932 -2.6477 0.1078 0 7
-17.0985 17.4209 -2.6477 0.1078 0 7
-17.3760 17.1442 -2.6477 0.1078 0 7
-17.6490 16.8630 -2.6477 0.1078 0 7
-17.9174 16.5775 -2.6477 0.1078 0 7
-18.1812 16.2878 -2.6477 0.1078 0 7
-18.4403 15.9938 -2.6477 0.1078 0 7
-18.6947 15.6957 -2.6477 0.1078 0 7
-18.9443 15.3936 -2.6477 0.1078 0 7
-19.1890 15.0875 -2.6477 0.1078 0 7
-19.4287 14.7775 -2.6477 0.1078 0 7
-19.6634 14.4637 -2.6477 0.1078 0 7
-19.8931 14.1462 -2.6477 0.1078 0 7
-20.1176 13.8250 -2.6477 0.1078 0 7
-20.3369 13.5003 -2.6477 0.1078 0 7
-20.5510 13.1720 -2.6477 0.1078 0 7
-20.7598 12.8404 -2.6477 0.1078 0 7
-20.9633 12.5055 -2.6477 0.1078 0 7
-21.1614 12.1674 -2.6477 0.1078 0 7
-21.3540 11.8261 -2.6477 0.1078 0 7
-21.5411 11.4818 -2.6477 0.1078 0 7
-21.7226 11.1345 -2.6477 0.1078 0 7
-21.8985 10.7843 -2.6477 0.1078 0 7
-22.0688 10.4314 -2.6477 0.1078 0 7
-22.2335 10.0758 -2.6477 0.1078 0 7
-22.3923 9.7176 -2.6477 0.1078 0 7
-22.5455 9.3568 -2.6477 0.1078 0 7
-22.6928 8.9937 -2.6477 0.1078 0 7
-21.5199 8.1316 -2.4953 0.1078 0 8
-21.6476 7.7851 -2.4953 0.1078 0 8
-21.7698 7.4366 -2.4953 0.1078 0 8
-21.8864 7.0862 -2.4953 0.1078 0 8
-21.9973 6.7339 -2.4953 0.1078 0 8
-22.1026 6.3799 -2.4953 0.1078 0 8
-22.2022 6.0243 -2.4953 0.1078 0 8
-22.2960 5.6671 -2.4953 0.1078 0 8
-22.3841 5.3084 -2.4953 0.1078 0 8
-22.4664 4.9484 -2.4953 0.1078 0 8
-22.5430 4.5871 -2.4953 0.1078 0 8
-22.6137 4.2246 -2.4953 0.1078 0 8
-22.6786 3.8610 -2.4953 0.1078 0 8
-22.7377 3.4965 -2.4953 0.1078 0 8
-22.7909 3.1310 -2.4953 0.1078 0 8
-22.8382 2.7647 -2.4953 0.1078 0 8
-22.8797 2.3978 -2.4953 0.1078 0 8
-22.9152 2.0301 -2.4953 0.1078 0 8
-22.9448 1.6620 -2.4953 0.1078 0 8
-22.9686 1.2935 -2.4953 0.1078 0 8
-22.9864 0.9246 -2.4953 0.1078 0 8
-22.9983 0.5555 -2.4953 0.1078 0 8
-23.0042 0.1862 -2.4953 0.1078 0 8
-23.0042 -0.1831 -2.4953 0.1078 0 8
-22.9983 -0.5524 -2.4953 0.1078 0 8
-22.9865 -0.9215 -2.4953 0.1078 0 8
-22.9687 -1.2904 -2.4953 0.1078 0 8
