ply
format ascii 1.0
element vertex 1387
property float32 x
property float32 y
property float32 z
property float32 CosAngle
property uint32 ObjIdx
property uint32 ObjTag
end_header
15.1441 27.9439 -2.6477 0.0830 0 7
14.6944 28.1829 -2.6477 0.0830 0 7
14.2411 28.4147 -2.6477 0.0830 0 7
13.7840 28.6392 -2.6477 0.0830 0 7
13.3234 28.8564 -2.6477 0.0830 0 7
12.8594 29.0661 -2.6477 0.0830 0 7
12.3921 29.2684 -2.6477 0.0830 0 7
11.9217 29.4631 -2.6477 0.0830 0 7
11.4481 29.6504 -2.6477 0.0830 0 7
10.9716 29.8300 -2.6477 0.0830 0 7
10.4923 30.0019 -2.6477 0.0830 0 6
10.0104 30.1661 -2.6477 0.0830 0 7
9.5258 30.3226 -2.6477 0.0830 0 7
9.0388 30.4713 -2.6477 0.0830 0 7
8.5495 30.6122 -2.6477 0.0830 0 7
8.0580 30.7453 -2.6477 0.0830 0 7
7.5644 30.8704 -2.6477 0.0830 0 7
7.0689 30.9876 -2.6477 0.0830 0 7
6.5715 31.0969 -2.6477 0.0830 0 7
6.0725 31.1982 -2.6477 0.0830 0 7
5.5719 31.2915 -2.6477 0.0830 0 7
5.0699 31.3767 -2.6477 0.0830 0 7
4.5666 31.4539 -2.6477 0.0830 0 7
4.0621 31.5230 -2.6477 0.0830 0 7
3.5565 31.5841 -2.6477 0.0830 0 7
3.0501 31.6370 -2.6477 0.0830 0 7
2.5429 31.6818 -2.6477 0.0830 0 7
2.0350 31.7185 -2.6477 0.0830 0 7
1.5266 31.7470 -2.6477 0.0830 0 7
1.0178 31.7674 -2.6477 0.0830 0 7
0.5087 31.7796 -2.6477 0.0830 0 7
-0.0005 31.7837 -2.6477 0.0830 0 7
-0.5097 31.7796 -2.6477 0.0830 0 7
-1.0187 31.7674 -2.6477 0.0830 0 7
-1.5275 31.7470 -2.6477 0.0830 0 7
-2.0359 31.7184 -2.6477 0.0830 0 7
-2.5438 31.6817 -2.6477 0.0830 0 7
-3.0510 31.6369 -2.6477 0.0830 0 7
-3.5575 31.5840 -2.6477 0.0830 0 7
-4.0630 31.5229 -2.6477 0.0830 0 7
-4.5675 31.4538 -2.6477 0.0830 0 7
-5.0708 31.3766 -2.6477 0.0830 0 7
-5.5728 31.2913 -2.6477 0.0830 0 7
-6.0734 31.1980 -2.6477 0.0830 0 7
-6.5724 31.0967 -2.6477 0.0830 0 7
27.0974 9.9900 -2.6477 0.0913 0 7
26.9339 10.4228 -2.6477 0.0913 0 7
26.7635 10.8530 -2.6477 0.0913 0 7
26.5862 11.2803 -2.6477 0.0913 0 7
26.4020 11.7048 -2.6477 0.0913 0 7
26.2111 12.1263 -2.6477 0.0913 0 7
26.0135 12.5446 -2.6477 0.0913 0 7
25.8092 12.9598 -2.6477 0.0913 0 7
25.5983 13.3716 -2.6477 0.0913 0 7
25.3808 13.7800 -2.6477 0.0913 0 7
25.1567 14.1848 -2.6477 0.0913 0 7
24.9263 14.5860 -2.6477 0.0913 0 7
24.6894 14.9835 -2.6477 0.0913 0 7
24.4462 15.3771 -2.6477 0.0913 0 7
24.1967 15.7667 -2.6477 0.0913 0 7
23.9410 16.1524 -2.6477 0.0913 0 7
23.6792 16.5338 -2.6477 0.0913 0 7
23.4112 16.9110 -2.6477 0.0913 0 7
23.1373 17.2839 -2.6477 0.0913 0 7
22.8574 17.6524 -2.6477 0.0913 0 7
22.5717 18.0163 -2.6477 0.0913 0 7
22.2802 18.3756 -2.6477 0.0913 0 7
21.9829 18.7302 -2.6477 0.0913 0 7
21.5848 18.9961 -2.6360 0.6615 0 8
20.9072 19.0028 -2.5901 0.6732 0 8
20.2525 19.0090 -2.5464 0.6848 0 8
19.6236 19.0191 -2.5053 0.5532 0 8
19.2974 19.3121 -2.5029 0.0913 0 14
18.9855 19.6188 -2.5029 0.0913 0 14
18.6688 19.9204 -2.5029 0.0913 0 14
18.3473 20.2169 -2.5029 0.0913 0 14
18.0210 20.5083 -2.5029 0.0913 0 14
17.6902 20.7943 -2.5029 0.0913 0 14
17.3548 21.0751 -2.5029 0.0913 0 14
17.0149 21.3504 -2.5029 0.0913 0 14
16.6707 21.6202 -2.5029 0.0913 0 14
16.3222 21.8845 -2.5029 0.0913 0 14
15.9695 22.1432 -2.5029 0.0913 0 14
15.6127 22.3962 -2.5029 0.0913 0 8
16.1342 23.9533 -2.6477 0.0913 0 7
15.7483 24.2087 -2.6477 0.0913 0 7
15.3585 24.4578 -2.6477 0.0913 0 7
14.9647 24.7008 -2.6477 0.0913 0 7
14.5671 24.9373 -2.6477 0.0913 0 7
14.1657 25.1675 -2.6477 0.0913 0 7
13.7607 25.3912 -2.6477 0.0913 0 7
13.3521 25.6084 -2.6477 0.0913 0 7
12.9401 25.8190 -2.6477 0.0913 0 7
12.5249 26.0230 -2.6477 0.0913 0 7
12.1063 26.2203 -2.6477 0.0913 0 7
11.6847 26.4109 -2.6477 0.0913 0 7
11.2601 26.5947 -2.6477 0.0913 0 7
10.8326 26.7717 -2.6477 0.0913 0 7
10.4023 26.9418 -2.6477 0.0913 0 7
9.9694 27.1050 -2.6477 0.0913 0 7
9.5339 27.2612 -2.6477 0.0913 0 7
9.0959 27.4105 -2.6477 0.0913 0 7
8.6556 27.5527 -2.6477 0.0913 0 7
8.2131 27.6878 -2.6477 0.0913 0 7
7.7685 27.8158 -2.6477 0.0913 0 7
7.3219 27.9367 -2.6477 0.0913 0 7
6.8734 28.0504 -2.6477 0.0913 0 7
6.4231 28.1569 -2.6477 0.0913 0 7
5.9712 28.2562 -2.6477 0.0913 0 7
5.5178 28.3483 -2.6477 0.0913 0 7
5.0629 28.4330 -2.6477 0.0913 0 7
4.6067 28.5105 -2.6477 0.0913 0 7
4.1494 28.5806 -2.6477 0.0913 0 7
3.6910 28.6434 -2.6477 0.0913 0 7
3.2317 28.6989 -2.6477 0.0913 0 7
2.7715 28.7470 -2.6477 0.0913 0 7
2.3106 28.7877 -2.6477 0.0913 0 7
1.8491 28.8210 -2.6477 0.0913 0 7
1.3871 28.8469 -2.6477 0.0913 0 7
0.9248 28.8655 -2.6477 0.0913 0 7
0.4622 28.8766 -2.6477 0.0913 0 7
-0.0004 28.8803 -2.6477 0.0913 0 7
-0.4631 28.8766 -2.6477 0.0913 0 7
-0.9256 28.8654 -2.6477 0.0913 0 7
-1.3880 28.8469 -2.6477 0.0913 0 7
-1.8499 28.8210 -2.6477 0.0913 0 7
-2.3114 28.7876 -2.6477 0.0913 0 7
-2.7723 28.7469 -2.6477 0.0913 0 7
-3.2325 28.6988 -2.6477 0.0913 0 7
-3.6918 28.6433 -2.6477 0.0913 0 7
-4.1503 28.5805 -2.6477 0.0913 0 7
-4.6076 28.5103 -2.6477 0.0913 0 7
-5.0637 28.4329 -2.6477 0.0913 0 7
-5.5186 28.3481 -2.6477 0.0913 0 7
-5.9720 28.2560 -2.6477 0.0913 0 7
24.8261 9.1526 -2.6477 0.0996 0 7
24.6763 9.5492 -2.6477 0.0996 0 7
24.5201 9.9433 -2.6477 0.0996 0 7
24.3577 10.3348 -2.6477 0.0996 0 7
24.1890 10.7237 -2.6477 0.0996 0 7
24.0141 11.1098 -2.6477 0.0996 0 7
23.8330 11.4931 -2.6477 0.0996 0 6
23.6459 11.8735 -2.6477 0.0996 0 7
23.4526 12.2508 -2.6477 0.0996 0 7
23.2533 12.6249 -2.6477 0.0996 0 7
23.0481 12.9958 -2.6477 0.0996 0 7
22.8369 13.3634 -2.6477 0.0996 0 7
22.6199 13.7276 -2.6477 0.0996 0 7
22.3971 14.0882 -2.6477 0.0996 0 7
22.1685 14.4452 -2.6477 0.0996 0 7
21.9343 14.7985 -2.6477 0.0996 0 7
21.6944 15.1480 -2.6477 0.0996 0 7
21.4489 15.4936 -2.6477 0.0996 0 7
21.1979 15.8352 -2.6477 0.0996 0 7
20.9415 16.1728 -2.6477 0.0996 0 7
20.6798 16.5062 -2.6477 0.0996 0 7
20.4127 16.8353 -2.6477 0.0996 0 7
20.1403 17.1602 -2.6477 0.0996 0 7
19.8628 17.4807 -2.6477 0.0996 0 7
19.5802 17.7965 -2.6477 0.0996 0 7
19.2926 18.1080 -2.6477 0.0996 0 7
19.0000 18.4148 -2.6477 0.0996 0 7
18.7026 18.7168 -2.6477 0.0996 0 7
18.3730 18.9858 -2.6437 0.7193 0 8
17.7982 18.9915 -2.6045 0.7302 0 8
17.2400 18.9968 -2.5670 0.7408 0 8
16.6974 19.0020 -2.5312 0.7513 0 8
16.2074 19.0513 -2.5029 0.0996 0 8
15.9001 19.3085 -2.5029 0.0996 0 14
15.5887 19.5608 -2.5029 0.0996 0 14
15.2733 19.8080 -2.5029 0.0996 0 14
14.9541 20.0502 -2.5029 0.0996 0 14
14.6309 20.2872 -2.5029 0.0996 0 14
14.3040 20.5189 -2.5029 0.0996 0 14
13.9735 20.7455 -2.5029 0.0996 0 14
13.6393 20.9667 -2.5029 0.0996 0 14
13.3017 21.1825 -2.5029 0.0996 0 14
12.9606 21.3929 -2.5029 0.0996 0 14
12.6163 21.5977 -2.5029 0.0996 0 14
12.2686 21.7971 -2.5029 0.0996 0 14
11.9179 21.9909 -2.5029 0.0996 0 14
11.5640 22.1790 -2.5029 0.0996 0 14
11.2072 22.3614 -2.5029 0.0996 0 8
11.4750 23.8418 -2.6477 0.0996 0 7
11.0916 24.0225 -2.6477 0.0996 0 7
10.7053 24.1971 -2.6477 0.0996 0 7
10.3163 24.3655 -2.6477 0.0996 0 7
9.9246 24.5277 -2.6477 0.0996 0 7
9.5304 24.6835 -2.6477 0.0996 0 7
9.1337 24.8331 -2.6477 0.0996 0 7
8.7347 24.9762 -2.6477 0.0996 0 7
8.3335 25.1129 -2.6477 0.0996 0 7
7.9301 25.2432 -2.6477 0.0996 0 7
7.5247 25.3670 -2.6477 0.0996 0 7
7.1173 25.4843 -2.6477 0.0996 0 7
6.7082 25.5950 -2.6477 0.0996 0 7
6.2973 25.6992 -2.6477 0.0996 0 7
5.8847 25.7968 -2.6477 0.0996 0 7
5.4707 25.8878 -2.6477 0.0996 0 7
5.0553 25.9721 -2.6477 0.0996 0 7
4.6385 26.0498 -2.6477 0.0996 0 7
4.2206 26.1207 -2.6477 0.0996 0 7
3.8016 26.1850 -2.6477 0.0996 0 7
3.3816 26.2425 -2.6477 0.0996 0 7
2.9608 26.2933 -2.6477 0.0996 0 7
2.5391 26.3374 -2.6477 0.0996 0 7
2.1169 26.3747 -2.6477 0.0996 0 7
1.6941 26.4052 -2.6477 0.0996 0 7
1.2708 26.4290 -2.6477 0.0996 0 7
0.8473 26.4459 -2.6477 0.0996 0 7
0.4235 26.4561 -2.6477 0.0996 0 7
-0.0004 26.4595 -2.6477 0.0996 0 6
-0.4243 26.4561 -2.6477 0.0996 0 6
-0.8481 26.4459 -2.6477 0.0996 0 6
-1.2716 26.4289 -2.6477 0.0996 0 6
-1.6949 26.4052 -2.6477 0.0996 0 6
-2.1176 26.3746 -2.6477 0.0996 0 7
-2.5399 26.3373 -2.6477 0.0996 0 7
-2.9615 26.2932 -2.6477 0.0996 0 7
-3.3824 26.2424 -2.6477 0.0996 0 7
-3.8024 26.1849 -2.6477 0.0996 0 7
-4.2214 26.1206 -2.6477 0.0996 0 7
-4.6393 26.0496 -2.6477 0.0996 0 7
-5.0560 25.9720 -2.6477 0.0996 0 7
-5.4715 25.8876 -2.6477 0.0996 0 7
21.5848 7.9577 -2.4953 0.1078 0 8
21.4545 8.3024 -2.4953 0.1078 0 8
22.6208 9.1731 -2.6477 0.1078 0 7
22.4710 9.5343 -2.6477 0.1078 0 7
22.3154 9.8931 -2.6477 0.1078 0 7
22.1540 10.2493 -2.6477 0.1078 0 7
21.9870 10.6029 -2.6477 0.1078 0 7
21.8143 10.9538 -2.6477 0.1078 0 7
21.6360 11.3018 -2.6477 0.1078 0 7
21.4522 11.6470 -2.6477 0.1078 0 7
21.2628 11.9892 -2.6477 0.1078 0 7
21.0680 12.3283 -2.6477 0.1078 0 7
20.8678 12.6642 -2.6477 0.1078 0 7
20.6622 12.9969 -2.6477 0.1078 0 7
20.4514 13.3263 -2.6477 0.1078 0 7
20.2353 13.6522 -2.6477 0.1078 0 7
20.0139 13.9746 -2.6477 0.1078 0 7
19.7875 14.2935 -2.6477 0.1078 0 7
19.5560 14.6086 -2.6477 0.1078 0 7
19.3194 14.9200 -2.6477 0.1078 0 7
19.0779 15.2276 -2.6477 0.1078 0 7
18.8315 15.5313 -2.6477 0.1078 0 7
18.5803 15.8310 -2.6477 0.1078 0 7
18.3243 16.1266 -2.6477 0.1078 0 7
18.0636 16.4181 -2.6477 0.1078 0 7
17.7982 16.7054 -2.6477 0.1078 0 7
17.5283 16.9884 -2.6477 0.1078 0 7
17.2539 17.2670 -2.6477 0.1078 0 7
16.9751 17.5412 -2.6477 0.1078 0 7
16.6919 17.8109 -2.6477 0.1078 0 7
16.4044 18.0760 -2.6477 0.1078 0 7
16.1127 18.3365 -2.6477 0.1078 0 7
15.8169 18.5923 -2.6477 0.1078 0 7
15.5170 18.8433 -2.6477 0.1078 0 7
15.1250 18.9789 -2.6323 0.7824 0 8
14.6376 18.9835 -2.6001 0.7921 0 8
14.1618 18.9879 -2.5693 0.8016 0 8
13.6969 18.9920 -2.5398 0.8109 0 8
13.2424 18.9960 -2.5117 0.8200 0 8
12.8911 19.1386 -2.5029 0.1078 0 8
12.5829 19.3426 -2.5029 0.1078 0 14
12.2714 19.5417 -2.5029 0.1078 0 14
11.9567 19.7358 -2.5029 0.1078 0 14
11.6390 19.9248 -2.5029 0.1078 0 14
11.3183 20.1087 -2.5029 0.1078 0 14
10.9947 20.2875 -2.5029 0.1078 0 14
10.6683 20.4610 -2.5029 0.1078 0 14
10.3391 20.6293 -2.5029 0.1078 0 14
10.0073 20.7923 -2.5029 0.1078 0 14
9.6729 20.9499 -2.5029 0.1078 0 14
9.3361 21.1022 -2.5029 0.1078 0 14
8.9968 21.2491 -2.5029 0.1078 0 14
8.6552 21.3905 -2.5029 0.1078 0 14
8.3114 21.5264 -2.5029 0.1078 0 14
7.9655 21.6568 -2.5029 0.1078 0 14
7.6175 21.7816 -2.5029 0.1078 0 14
7.2676 21.9009 -2.5029 0.1078 0 14
6.9158 22.0145 -2.5029 0.1078 0 14
6.5622 22.1224 -2.5029 0.1078 0 14
6.2070 22.2247 -2.5029 0.1078 0 14
5.8501 22.3213 -2.5029 0.1078 0 8
5.4917 22.4122 -2.5029 0.1078 0 8
5.4289 23.7986 -2.6477 0.1078 0 7
5.0470 23.8825 -2.6477 0.1078 0 7
4.6637 23.9603 -2.6477 0.1078 0 7
4.2792 24.0320 -2.6477 0.1078 0 7
3.8937 24.0974 -2.6477 0.1078 0 7
3.5071 24.1567 -2.6477 0.1078 0 7
3.1197 24.2098 -2.6477 0.1078 0 7
2.7314 24.2567 -2.6477 0.1078 0 7
2.3425 24.2973 -2.6477 0.1078 0 7
1.9529 24.3318 -2.6477 0.1078 0 7
1.5629 24.3599 -2.6477 0.1078 0 7
1.1724 24.3818 -2.6477 0.1078 0 7
0.7817 24.3975 -2.6477 0.1078 0 7
0.3907 24.4069 -2.6477 0.1078 0 7
-0.0004 24.4100 -2.6477 0.1078 0 7
-0.3914 24.4069 -2.6477 0.1078 0 7
-0.7824 24.3975 -2.6477 0.1078 0 7
-1.1731 24.3818 -2.6477 0.1078 0 7
-1.5636 24.3599 -2.6477 0.1078 0 7
-1.9536 24.3317 -2.6477 0.1078 0 7
-2.3432 24.2973 -2.6477 0.1078 0 7
-2.7322 24.2566 -2.6477 0.1078 0 7
-3.1204 24.2097 -2.6477 0.1078 0 7
-3.5079 24.1566 -2.6477 0.1078 0 7
-3.8944 24.0973 -2.6477 0.1078 0 7
-4.2800 24.0319 -2.6477 0.1078 0 7
-4.6644 23.9602 -2.6477 0.1078 0 7
-5.0477 23.8824 -2.6477 0.1078 0 7
20.0305 7.3846 -2.4953 0.1161 0 8
19.9096 7.7046 -2.4953 0.1161 0 8
19.7836 8.0225 -2.4953 0.1161 0 8
19.6526 8.3385 -2.4953 0.1161 0 8
20.7085 9.1807 -2.6477 0.1161 0 7
20.5587 9.5113 -2.6477 0.1161 0 7
20.4037 9.8394 -2.6477 0.1161 0 7
20.2435 10.1650 -2.6477 0.1161 0 7
20.0780 10.4880 -2.6477 0.1161 0 7
19.9074 10.8083 -2.6477 0.1161 0 7
19.7317 11.1259 -2.6477 0.1161 0 7
19.5509 11.4405 -2.6477 0.1161 0 6
19.3651 11.7523 -2.6477 0.1161 0 7
19.1744 12.0610 -2.6477 0.1161 0 7
18.9787 12.3667 -2.6477 0.1161 0 7
18.7781 12.6691 -2.6477 0.1161 0 7
18.5728 12.9683 -2.6477 0.1161 0 7
18.3626 13.2642 -2.6477 0.1161 0 7
18.1478 13.5567 -2.6477 0.1161 0 7
17.9283 13.8457 -2.6477 0.1161 0 7
17.7042 14.1311 -2.6477 0.1161 0 7
17.4755 14.4129 -2.6477 0.1161 0 7
17.2424 14.6910 -2.6477 0.1161 0 7
17.0048 14.9654 -2.6477 0.1161 0 7
16.7628 15.2359 -2.6477 0.1161 0 7
16.5166 15.5025 -2.6477 0.1161 0 7
16.2661 15.7651 -2.6477 0.1161 0 7
16.0115 16.0237 -2.6477 0.1161 0 7
15.7527 16.2781 -2.6477 0.1161 0 7
15.4899 16.5284 -2.6477 0.1161 0 7
15.2231 16.7744 -2.6477 0.1161 0 7
14.9525 17.0161 -2.6477 0.1161 0 7
14.6779 17.2535 -2.6477 0.1161 0 7
14.3996 17.4864 -2.6477 0.1161 0 7
14.1176 17.7149 -2.6477 0.1161 0 7
13.8320 17.9388 -2.6477 0.1161 0 7
13.5429 18.1581 -2.6477 0.1161 0 7
13.2502 18.3727 -2.6477 0.1161 0 7
12.9542 18.5826 -2.6477 0.1161 0 7
12.6548 18.7878 -2.6477 0.1161 0 7
12.3397 18.9688 -2.6450 0.8383 0 8
11.9139 18.9725 -2.6185 0.8468 0 8
11.4964 18.9760 -2.5933 0.8550 0 8
11.0867 18.9794 -2.5691 0.8631 0 8
10.6844 18.9825 -2.5461 0.8709 0 8
10.2891 18.9855 -2.5240 0.8785 0 8
9.9033 18.9937 -2.5037 0.7039 0 8
9.5956 19.1458 -2.5032 0.7091 0 8
9.2867 19.2951 -2.5029 0.1161 0 14
8.9764 19.4414 -2.5029 0.1161 0 14
8.6638 19.5827 -2.5029 0.1161 0 14
8.3489 19.7190 -2.5029 0.1161 0 14
8.0320 19.8502 -2.5029 0.1161 0 14
7.7129 19.9763 -2.5029 0.1161 0 14
7.3919 20.0973 -2.5029 0.1161 0 14
7.0690 20.2131 -2.5029 0.1161 0 14
6.7443 20.3238 -2.5029 0.1161 0 14
6.4178 20.4292 -2.5029 0.1161 0 14
6.0897 20.5294 -2.5029 0.1161 0 14
5.7600 20.6244 -2.5029 0.1161 0 14
5.4289 20.7140 -2.5029 0.1161 0 14
5.0963 20.7983 -2.5029 0.1161 0 14
4.7625 20.8773 -2.5029 0.1161 0 14
4.4274 20.9509 -2.5029 0.1161 0 14
4.0912 21.0191 -2.5029 0.1161 0 14
3.7540 21.0820 -2.5029 0.1161 0 14
3.4157 21.1394 -2.5029 0.1161 0 14
3.0766 21.1914 -2.5029 0.1161 0 14
2.7367 21.2380 -2.5029 0.1161 0 14
2.3961 21.2791 -2.5029 0.1161 0 14
2.0549 21.3148 -2.5029 0.1161 0 14
1.7132 21.3450 -2.5029 0.1161 0 14
1.3710 21.3697 -2.5029 0.1161 0 14
1.0285 21.3889 -2.5029 0.1161 0 14
0.6857 21.4026 -2.5029 0.1161 0 14
0.3427 21.4109 -2.5029 0.1161 0 14
-0.0003 21.4136 -2.5029 0.1161 0 14
-0.3434 21.4108 -2.5029 0.1161 0 14
-0.6863 21.4026 -2.5029 0.1161 0 14
-1.0291 21.3889 -2.5029 0.1161 0 14
-1.3717 21.3696 -2.5029 0.1161 0 14
-1.7138 21.3449 -2.5029 0.1161 0 14
-2.0556 21.3147 -2.5029 0.1161 0 14
-2.3968 21.2790 -2.5029 0.1161 0 14
-2.7374 21.2379 -2.5029 0.1161 0 14
-3.0773 21.1913 -2.5029 0.1161 0 14
-3.4164 21.1393 -2.5029 0.1161 0 14
-3.7546 21.0819 -2.5029 0.1161 0 14
-4.0918 21.0190 -2.5029 0.1161 0 14
-4.4280 20.9508 -2.5029 0.1161 0 14
18.6826 6.8877 -2.4953 0.1243 0 8
18.5699 7.1861 -2.4953 0.1243 0 8
18.4523 7.4827 -2.4953 0.1243 0 8
18.3301 7.7773 -2.4953 0.1243 0 8
18.2031 8.0700 -2.4953 0.1243 0 8
18.0779 8.3635 -2.4962 0.3808 0 8
19.0307 9.1773 -2.6477 0.1243 0 7
18.8812 9.4810 -2.6477 0.1243 0 7
18.7269 9.7822 -2.6477 0.1243 0 7
18.5678 10.0810 -2.6477 0.1243 0 7
18.4039 10.3772 -2.6477 0.1243 0 7
18.2353 10.6707 -2.6477 0.1243 0 7
18.0620 10.9614 -2.6477 0.1243 0 7
17.8841 11.2494 -2.6477 0.1243 0 7
17.7016 11.5345 -2.6477 0.1243 0 6
17.5145 11.8166 -2.6477 0.1243 0 7
17.3229 12.0956 -2.6477 0.1243 0 7
17.1270 12.3716 -2.6477 0.1243 0 7
16.9266 12.6444 -2.6477 0.1243 0 7
16.7218 12.9139 -2.6477 0.1243 0 7
16.5128 13.1802 -2.6477 0.1243 0 7
16.2995 13.4430 -2.6477 0.1243 0 7
16.0821 13.7024 -2.6477 0.1243 0 7
15.8605 13.9583 -2.6477 0.1243 0 7
15.6348 14.2106 -2.6477 0.1243 0 7
15.4051 14.4593 -2.6477 0.1243 0 7
15.1715 14.7042 -2.6477 0.1243 0 7
14.9341 14.9454 -2.6477 0.1243 0 6
14.6927 15.1827 -2.6477 0.1243 0 7
14.4476 15.4161 -2.6477 0.1243 0 7
14.1987 15.6456 -2.6477 0.1243 0 7
13.9463 15.8711 -2.6477 0.1243 0 7
13.6902 16.0925 -2.6477 0.1243 0 7
13.4306 16.3097 -2.6477 0.1243 0 7
13.1676 16.5228 -2.6477 0.1243 0 7
12.9012 16.7316 -2.6477 0.1243 0 7
12.6315 16.9362 -2.6477 0.1243 0 7
12.3586 17.1363 -2.6477 0.1243 0 7
12.0825 17.3321 -2.6477 0.1243 0 7
11.8033 17.5235 -2.6477 0.1243 0 7
11.5210 17.7103 -2.6477 0.1243 0 7
11.2358 17.8926 -2.6477 0.1243 0 7
10.9477 18.0703 -2.6477 0.1243 0 7
10.6568 18.2434 -2.6477 0.1243 0 7
10.3632 18.4118 -2.6477 0.1243 0 6
10.0669 18.5754 -2.6477 0.1243 0 7
9.7680 18.7343 -2.6477 0.1243 0 7
9.4666 18.8884 -2.6477 0.1243 0 7
9.1261 18.9613 -2.6371 0.9006 0 8
8.7559 18.9639 -2.6176 0.9073 0 8
8.3911 18.9663 -2.5990 0.9138 0 8
8.0312 18.9686 -2.5814 0.9200 0 8
7.6761 18.9707 -2.5646 0.9260 0 8
7.3254 18.9727 -2.5487 0.9318 0 8
6.9790 18.9745 -2.5336 0.9374 0 8
6.6364 18.9762 -2.5193 0.9427 0 8
6.2987 18.9812 -2.5062 0.7532 0 8
5.9859 19.0545 -2.5029 0.1243 0 8
5.6799 19.1479 -2.5029 0.1243 0 14
5.3724 19.2365 -2.5029 0.1243 0 14
5.0636 19.3201 -2.5029 0.1243 0 14
4.7534 19.3987 -2.5029 0.1243 0 14
4.4420 19.4724 -2.5029 0.1243 0 14
4.1295 19.5410 -2.5029 0.1243 0 14
3.8159 19.6047 -2.5029 0.1243 0 14
3.5013 19.6633 -2.5029 0.1243 0 14
3.1859 19.7169 -2.5029 0.1243 0 14
2.8696 19.7654 -2.5029 0.1243 0 14
2.5526 19.8088 -2.5029 0.1243 0 14
2.2349 19.8472 -2.5029 0.1243 0 14
1.9166 19.8804 -2.5029 0.1243 0 14
1.5979 19.9086 -2.5029 0.1243 0 14
1.2788 19.9316 -2.5029 0.1243 0 14
0.9593 19.9496 -2.5029 0.1243 0 14
0.6396 19.9624 -2.5029 0.1243 0 14
0.3197 19.9700 -2.5029 0.1243 0 14
-0.0003 19.9726 -2.5029 0.1243 0 14
-0.3203 19.9700 -2.5029 0.1243 0 14
-0.6401 19.9623 -2.5029 0.1243 0 14
-0.9599 19.9495 -2.5029 0.1243 0 14
-1.2793 19.9316 -2.5029 0.1243 0 14
-1.5985 19.9085 -2.5029 0.1243 0 14
-1.9172 19.8804 -2.5029 0.1243 0 14
-2.2355 19.8471 -2.5029 0.1243 0 14
-2.5531 19.8087 -2.5029 0.1243 0 14
-2.8702 19.7653 -2.5029 0.1243 0 14
-3.1865 19.7168 -2.5029 0.1243 0 14
-3.5019 19.6632 -2.5029 0.1243 0 14
-3.8165 19.6046 -2.5029 0.1243 0 14
-4.1301 19.5409 -2.5029 0.1243 0 14
17.5023 6.4526 -2.4953 0.1326 0 8
17.3967 6.7321 -2.4953 0.1326 0 8
17.2866 7.0100 -2.4953 0.1326 0 8
17.1721 7.2860 -2.4953 0.1326 0 8
17.0532 7.5602 -2.4953 0.1326 0 8
16.9299 7.8324 -2.4953 0.1326 0 8
16.8022 8.1026 -2.4953 0.1326 0 8
16.6702 8.3708 -2.4953 0.1326 0 8
17.5439 9.1643 -2.6477 0.1326 0 7
17.3948 9.4441 -2.6477 0.1326 0 7
17.2412 9.7216 -2.6477 0.1326 0 7
17.0833 9.9966 -2.6477 0.1326 0 7
16.9209 10.2690 -2.6477 0.1326 0 7
16.7543 10.5387 -2.6477 0.1326 0 7
16.5833 10.8058 -2.6477 0.1326 0 7
16.4080 11.0701 -2.6477 0.1326 0 7
16.2286 11.3315 -2.6477 0.1326 0 7
16.0449 11.5900 -2.6477 0.1326 0 7
15.8572 11.8456 -2.6477 0.1326 0 7
15.6654 12.0981 -2.6477 0.1326 0 7
15.4696 12.3475 -2.6477 0.1326 0 7
15.2698 12.5938 -2.6477 0.1326 0 7
15.0661 12.8368 -2.6477 0.1326 0 7
14.8585 13.0765 -2.6477 0.1326 0 7
14.6471 13.3129 -2.6477 0.1326 0 7
14.4319 13.5458 -2.6477 0.1326 0 7
14.2131 13.7753 -2.6477 0.1326 0 7
13.9906 14.0012 -2.6477 0.1326 0 7
13.7645 14.2235 -2.6477 0.1326 0 7
13.5348 14.4422 -2.6477 0.1326 0 7
13.3017 14.6572 -2.6477 0.1326 0 7
13.0652 14.8684 -2.6477 0.1326 0 7
12.8253 15.0758 -2.6477 0.1326 0 7
12.5822 15.2794 -2.6477 0.1326 0 7
12.3358 15.4790 -2.6477 0.1326 0 7
12.0862 15.6746 -2.6477 0.1326 0 7
11.8336 15.8662 -2.6477 0.1326 0 7
11.5779 16.0538 -2.6477 0.1326 0 7
11.3192 16.2372 -2.6477 0.1326 0 7
11.0576 16.4165 -2.6477 0.1326 0 7
10.7932 16.5915 -2.6477 0.1326 0 7
10.5260 16.7623 -2.6477 0.1326 0 7
10.2561 16.9287 -2.6477 0.1326 0 7
9.9836 17.0909 -2.6477 0.1326 0 7
9.7085 17.2486 -2.6477 0.1326 0 7
9.4309 17.4019 -2.6477 0.1326 0 7
9.1509 17.5508 -2.6477 0.1326 0 7
8.8686 17.6951 -2.6477 0.1326 0 7
8.5840 17.8350 -2.6477 0.1326 0 7
8.2971 17.9702 -2.6477 0.1326 0 7
8.0082 18.1008 -2.6477 0.1326 0 7
7.7172 18.2268 -2.6477 0.1326 0 7
7.4242 18.3481 -2.6477 0.1326 0 7
7.1292 18.4647 -2.6477 0.1326 0 6
6.8325 18.5765 -2.6477 0.1326 0 7
6.5341 18.6836 -2.6477 0.1326 0 7
6.2339 18.7858 -2.6477 0.1326 0 7
5.9322 18.8833 -2.6477 0.1326 0 7
5.6213 18.9503 -2.6441 0.9577 0 8
5.2929 18.9516 -2.6321 0.9621 0 8
4.9673 18.9528 -2.6209 0.9662 0 8
4.6444 18.9538 -2.6104 0.9701 0 8
4.3239 18.9547 -2.6006 0.9737 0 8
4.0057 18.9555 -2.5916 0.9771 0 8
3.6897 18.9562 -2.5833 0.9803 0 8
3.3755 18.9567 -2.5757 0.9832 0 8
3.0631 18.9571 -2.5687 0.9858 0 8
2.7523 18.9574 -2.5625 0.9882 0 8
2.4429 18.9576 -2.5569 0.9904 0 8
2.1347 18.9577 -2.5519 0.9923 0 8
1.8277 18.9576 -2.5477 0.9940 0 8
1.5216 18.9574 -2.5440 0.9954 0 8
1.2162 18.9571 -2.5410 0.9966 0 8
0.9115 18.9567 -2.5387 0.9975 0 8
0.6073 18.9562 -2.5370 0.9982 0 8
0.3034 18.9555 -2.5359 0.9986 0 8
-0.0003 18.9566 -2.5358 0.9970 0 8
-0.3040 18.9559 -2.5360 0.9987 0 8
-0.6078 18.9541 -2.5367 0.9984 0 8
-0.9119 18.9523 -2.5381 0.9978 0 8
-1.2164 18.9505 -2.5402 0.9969 0 8
-1.5215 18.9492 -2.5429 0.9958 0 8
-1.8273 18.9477 -2.5463 0.9945 0 8
-2.1340 18.9461 -2.5504 0.9929 0 8
-2.4417 18.9444 -2.5551 0.9911 0 8
-2.7507 18.9425 -2.5605 0.9890 0 8
-3.0610 18.9405 -2.5665 0.9867 0 8
-3.3728 18.9384 -2.5732 0.9841 0 8
-3.6864 18.9362 -2.5806 0.9813 0 8
-4.0017 18.9338 -2.5887 0.9782 0 8
16.4601 6.0683 -2.4953 0.1408 0 8
16.3608 6.3313 -2.4953 0.1408 0 8
16.2573 6.5926 -2.4953 0.1408 0 8
16.1496 6.8522 -2.4953 0.1408 0 8
16.0377 7.1100 -2.4953 0.1408 0 8
15.9218 7.3660 -2.4953 0.1408 0 8
15.8017 7.6201 -2.4953 0.1408 0 8
15.6776 7.8723 -2.4953 0.1408 0 8
15.5495 8.1225 -2.4953 0.1408 0 8
15.4174 8.3705 -2.4953 0.1408 0 8
16.2146 9.1427 -2.6477 0.1408 0 7
16.0661 9.4013 -2.6477 0.1408 0 7
15.9134 9.6575 -2.6477 0.1408 0 7
15.7566 9.9112 -2.6477 0.1408 0 7
15.5958 10.1623 -2.6477 0.1408 0 7
15.4310 10.4109 -2.6477 0.1408 0 7
15.2622 10.6568 -2.6477 0.1408 0 7
15.0896 10.8999 -2.6477 0.1408 0 7
14.9130 11.1402 -2.6477 0.1408 0 7
14.7326 11.3777 -2.6477 0.1408 0 7
14.5485 11.6123 -2.6477 0.1408 0 7
14.3606 11.8439 -2.6477 0.1408 0 7
14.1690 12.0724 -2.6477 0.1408 0 7
13.9737 12.2979 -2.6477 0.1408 0 7
13.7749 12.5201 -2.6477 0.1408 0 7
13.5726 12.7392 -2.6477 0.1408 0 7
13.3668 12.9550 -2.6477 0.1408 0 7
13.1575 13.1675 -2.6477 0.1408 0 7
12.9449 13.3766 -2.6477 0.1408 0 7
12.7289 13.5823 -2.6477 0.1408 0 7
12.5097 13.7844 -2.6477 0.1408 0 7
12.2872 13.9831 -2.6477 0.1408 0 7
12.0616 14.1781 -2.6477 0.1408 0 7
11.8330 14.3695 -2.6477 0.1408 0 7
11.6012 14.5573 -2.6477 0.1408 0 7
11.3665 14.7413 -2.6477 0.1408 0 7
11.1289 14.9215 -2.6477 0.1408 0 7
10.8884 15.0978 -2.6477 0.1408 0 7
10.6452 15.2703 -2.6477 0.1408 0 7
10.3992 15.4389 -2.6477 0.1408 0 7
10.1505 15.6035 -2.6477 0.1408 0 7
9.8992 15.7641 -2.6477 0.1408 0 7
9.6454 15.9207 -2.6477 0.1408 0 7
9.3891 16.0732 -2.6477 0.1408 0 7
9.1304 16.2215 -2.6477 0.1408 0 7
8.8693 16.3657 -2.6477 0.1408 0 7
8.6060 16.5057 -2.6477 0.1408 0 7
8.3405 16.6415 -2.6477 0.1408 0 7
8.0728 16.7730 -2.6477 0.1408 0 7
7.8031 16.9001 -2.6477 0.1408 0 7
7.5313 17.0230 -2.6477 0.1408 0 7
7.2576 17.1414 -2.6477 0.1408 0 7
6.9821 17.2555 -2.6477 0.1408 0 7
6.7048 17.3652 -2.6477 0.1408 0 7
6.4257 17.4703 -2.6477 0.1408 0 7
6.1450 17.5710 -2.6477 0.1408 0 7
5.8627 17.6672 -2.6477 0.1408 0 7
5.5789 17.7589 -2.6477 0.1408 0 7
5.2937 17.8460 -2.6477 0.1408 0 7
5.0071 17.9285 -2.6477 0.1408 0 7
4.7193 18.0064 -2.6477 0.1408 0 7
4.4302 18.0797 -2.6477 0.1408 0 7
4.1400 18.1484 -2.6477 0.1408 0 7
3.8487 18.2124 -2.6477 0.1408 0 7
3.5564 18.2717 -2.6477 0.1408 0 7
3.2633 18.3263 -2.6477 0.1408 0 7
2.9692 18.3762 -2.6477 0.1408 0 7
2.6745 18.4215 -2.6477 0.1408 0 6
2.3790 18.4619 -2.6477 0.1408 0 6
2.0829 18.4977 -2.6477 0.1408 0 6
1.7863 18.5287 -2.6477 0.1408 0 7
1.4893 18.5549 -2.6477 0.1408 0 7
1.1918 18.5764 -2.6477 0.1408 0 7
0.8941 18.5931 -2.6477 0.1408 0 7
0.5961 18.6050 -2.6477 0.1408 0 7
0.2979 18.6122 -2.6477 0.1408 0 7
-0.0003 18.6146 -2.6477 0.1408 0 7
-0.2985 18.6122 -2.6477 0.1408 0 7
-0.5966 18.6050 -2.6477 0.1408 0 7
-0.8946 18.5931 -2.6477 0.1408 0 7
-1.1924 18.5764 -2.6477 0.1408 0 7
-1.4898 18.5549 -2.6477 0.1408 0 7
-1.7869 18.5286 -2.6477 0.1408 0 7
-2.0835 18.4976 -2.6477 0.1408 0 7
-2.3795 18.4619 -2.6477 0.1408 0 6
-2.6750 18.4214 -2.6477 0.1408 0 6
-2.9696 18.3762 -2.6477 0.1408 0 6
-3.2638 18.3262 -2.6477 0.1408 0 7
-3.5570 18.2716 -2.6477 0.1408 0 7
-3.8492 18.2122 -2.6477 0.1408 0 7
15.5331 5.7266 -2.4953 0.1490 0 8
15.4393 5.9747 -2.4953 0.1490 0 8
15.3416 6.2212 -2.4953 0.1490 0 8
15.2400 6.4662 -2.4953 0.1490 0 8
15.1344 6.7095 -2.4953 0.1490 0 8
15.0250 6.9511 -2.4953 0.1490 0 8
14.9117 7.1910 -2.4953 0.1490 0 8
14.7946 7.4289 -2.4953 0.1490 0 8
14.6737 7.6650 -2.4953 0.1490 0 8
14.5490 7.8991 -2.4953 0.1490 0 8
14.4206 8.1312 -2.4953 0.1490 0 8
14.2885 8.3611 -2.4953 0.1490 0 8
15.0171 9.1136 -2.6477 0.1490 0 7
14.8691 9.3530 -2.6477 0.1490 0 7
14.7174 9.5900 -2.6477 0.1490 0 7
14.5619 9.8245 -2.6477 0.1490 0 7
14.4026 10.0565 -2.6477 0.1490 0 7
14.2397 10.2860 -2.6477 0.1490 0 7
14.0731 10.5128 -2.6477 0.1490 0 7
13.9028 10.7369 -2.6477 0.1490 0 7
13.7290 10.9582 -2.6477 0.1490 0 7
13.5517 11.1768 -2.6477 0.1490 0 7
13.3709 11.3925 -2.6477 0.1490 0 7
13.1867 11.6052 -2.6477 0.1490 0 7
12.9991 11.8150 -2.6477 0.1490 0 7
12.8081 12.0217 -2.6477 0.1490 0 7
12.6139 12.2253 -2.6477 0.1490 0 7
12.4164 12.4259 -2.6477 0.1490 0 7
12.2158 12.6232 -2.6477 0.1490 0 7
12.0120 12.8173 -2.6477 0.1490 0 7
11.8051 13.0080 -2.6477 0.1490 0 7
11.5952 13.1955 -2.6477 0.1490 0 7
11.3823 13.3796 -2.6477 0.1490 0 7
11.1665 13.5602 -2.6477 0.1490 0 7
10.9478 13.7374 -2.6477 0.1490 0 7
10.7263 13.9110 -2.6477 0.1490 0 7
10.5021 14.0810 -2.6477 0.1490 0 7
10.2752 14.2475 -2.6477 0.1490 0 7
10.0456 14.4103 -2.6477 0.1490 0 7
9.8134 14.5693 -2.6477 0.1490 0 7
9.5788 14.7247 -2.6477 0.1490 0 7
9.3417 14.8763 -2.6477 0.1490 0 7
9.1021 15.0240 -2.6477 0.1490 0 7
8.8603 15.1679 -2.6477 0.1490 0 7
8.6161 15.3079 -2.6477 0.1490 0 7
8.3698 15.4440 -2.6477 0.1490 0 7
8.1213 15.5761 -2.6477 0.1490 0 7
7.8707 15.7042 -2.6477 0.1490 0 7
7.6181 15.8283 -2.6477 0.1490 0 7
7.3636 15.9483 -2.6477 0.1490 0 7
7.1071 16.0642 -2.6477 0.1490 0 7
6.8489 16.1760 -2.6477 0.1490 0 7
6.5888 16.2836 -2.6477 0.1490 0 7
6.3271 16.3871 -2.6477 0.1490 0 7
6.0638 16.4864 -2.6477 0.1490 0 7
5.7989 16.5814 -2.6477 0.1490 0 7
5.5325 16.6722 -2.6477 0.1490 0 7
5.2647 16.7586 -2.6477 0.1490 0 7
4.9955 16.8408 -2.6477 0.1490 0 7
4.7251 16.9187 -2.6477 0.1490 0 7
4.4535 16.9922 -2.6477 0.1490 0 7
4.1807 17.0614 -2.6477 0.1490 0 7
3.9068 17.1262 -2.6477 0.1490 0 7
3.6319 17.1866 -2.6477 0.1490 0 7
3.3561 17.2426 -2.6477 0.1490 0 7
3.0795 17.2941 -2.6477 0.1490 0 7
2.8020 17.3412 -2.6477 0.1490 0 7
2.5238 17.3839 -2.6477 0.1490 0 7
2.2450 17.4221 -2.6477 0.1490 0 7
1.9656 17.4558 -2.6477 0.1490 0 7
1.6857 17.4851 -2.6477 0.1490 0 7
1.4054 17.5098 -2.6477 0.1490 0 7
1.1247 17.5301 -2.6477 0.1490 0 7
0.8437 17.5459 -2.6477 0.1490 0 7
0.5625 17.5571 -2.6477 0.1490 0 7
0.2812 17.5639 -2.6477 0.1490 0 7
-0.0003 17.5661 -2.6477 0.1490 0 7
-0.2817 17.5639 -2.6477 0.1490 0 7
-0.5630 17.5571 -2.6477 0.1490 0 7
-0.8442 17.5458 -2.6477 0.1490 0 7
-1.1252 17.5301 -2.6477 0.1490 0 7
-1.4059 17.5098 -2.6477 0.1490 0 7
-1.6862 17.4850 -2.6477 0.1490 0 7
-1.9661 17.4558 -2.6477 0.1490 0 7
-2.2455 17.4220 -2.6477 0.1490 0 7
-2.5244 17.3838 -2.6477 0.1490 0 7
-2.8025 17.3411 -2.6477 0.1490 0 7
-3.0800 17.2940 -2.6477 0.1490 0 7
-3.3566 17.2425 -2.6477 0.1490 0 7
-3.6324 17.1865 -2.6477 0.1490 0 7
14.7029 5.4205 -2.4953 0.1573 0 8
14.6141 5.6553 -2.4953 0.1573 0 8
14.5217 5.8887 -2.4953 0.1573 0 8
14.4255 6.1206 -2.4953 0.1573 0 8
14.3255 6.3509 -2.4953 0.1573 0 8
14.2220 6.5796 -2.4953 0.1573 0 8
14.1147 6.8066 -2.4953 0.1573 0 8
14.0039 7.0319 -2.4953 0.1573 0 8
13.8894 7.2553 -2.4953 0.1573 0 8
13.7714 7.4769 -2.4953 0.1573 0 8
13.6499 7.6966 -2.4953 0.1573 0 8
13.5248 7.9143 -2.4953 0.1573 0 8
13.3963 8.1299 -2.4953 0.1573 0 8
13.2736 8.3493 -2.4970 0.4814 0 8
13.9308 9.0774 -2.6477 0.1573 0 7
13.7836 9.2994 -2.6477 0.1573 0 7
13.6328 9.5190 -2.6477 0.1573 0 7
13.4786 9.7362 -2.6477 0.1573 0 7
13.3209 9.9509 -2.6477 0.1573 0 7
13.1598 10.1630 -2.6477 0.1573 0 7
12.9953 10.3726 -2.6477 0.1573 0 7
12.8274 10.5794 -2.6477 0.1573 0 7
12.6563 10.7836 -2.6477 0.1573 0 7
12.4819 10.9849 -2.6477 0.1573 0 7
12.3043 11.1835 -2.6477 0.1573 0 7
12.1236 11.3792 -2.6477 0.1573 0 7
11.9397 11.5719 -2.6477 0.1573 0 7
11.7528 11.7617 -2.6477 0.1573 0 7
11.5629 11.9485 -2.6477 0.1573 0 7
11.3700 12.1322 -2.6477 0.1573 0 7
11.1741 12.3128 -2.6477 0.1573 0 7
10.9754 12.4902 -2.6477 0.1573 0 7
10.7739 12.6645 -2.6477 0.1573 0 7
10.5697 12.8355 -2.6477 0.1573 0 7
10.3627 13.0031 -2.6477 0.1573 0 7
10.1530 13.1675 -2.6477 0.1573 0 7
9.9408 13.3284 -2.6477 0.1573 0 7
9.7260 13.4860 -2.6477 0.1573 0 7
9.5087 13.6401 -2.6477 0.1573 0 7
9.2889 13.7907 -2.6477 0.1573 0 7
9.0668 13.9377 -2.6477 0.1573 0 7
8.8424 14.0812 -2.6477 0.1573 0 7
8.6157 14.2210 -2.6477 0.1573 0 7
8.3867 14.3572 -2.6477 0.1573 0 7
8.1556 14.4897 -2.6477 0.1573 0 7
7.9225 14.6185 -2.6477 0.1573 0 7
7.6872 14.7436 -2.6477 0.1573 0 7
7.4501 14.8648 -2.6477 0.1573 0 7
7.2110 14.9823 -2.6477 0.1573 0 6
6.9700 15.0959 -2.6477 0.1573 0 7
6.7273 15.2056 -2.6477 0.1573 0 7
6.4828 15.3114 -2.6477 0.1573 0 7
6.2367 15.4133 -2.6477 0.1573 0 7
5.9890 15.5113 -2.6477 0.1573 0 7
5.7397 15.6052 -2.6477 0.1573 0 7
5.4890 15.6952 -2.6477 0.1573 0 7
5.2368 15.7811 -2.6477 0.1573 0 7
4.9833 15.8630 -2.6477 0.1573 0 7
4.7285 15.9408 -2.6477 0.1573 0 7
4.4726 16.0145 -2.6477 0.1573 0 7
4.2154 16.0841 -2.6477 0.1573 0 7
3.9572 16.1495 -2.6477 0.1573 0 7
3.6980 16.2108 -2.6477 0.1573 0 7
3.4378 16.2680 -2.6477 0.1573 0 7
3.1768 16.3210 -2.6477 0.1573 0 7
2.9149 16.3698 -2.6477 0.1573 0 7
2.6523 16.4144 -2.6477 0.1573 0 7
2.3889 16.4548 -2.6477 0.1573 0 7
2.1250 16.4909 -2.6477 0.1573 0 7
1.8606 16.5229 -2.6477 0.1573 0 7
1.5956 16.5506 -2.6477 0.1573 0 7
1.3303 16.5740 -2.6477 0.1573 0 7
1.0646 16.5932 -2.6477 0.1573 0 7
0.7986 16.6081 -2.6477 0.1573 0 7
0.5324 16.6188 -2.6477 0.1573 0 7
0.2661 16.6252 -2.6477 0.1573 0 7
-0.0002 16.6273 -2.6477 0.1573 0 7
-0.2666 16.6252 -2.6477 0.1573 0 7
-0.5329 16.6187 -2.6477 0.1573 0 7
-0.7991 16.6081 -2.6477 0.1573 0 7
-1.0651 16.5931 -2.6477 0.1573 0 7
-1.3308 16.5740 -2.6477 0.1573 0 7
-1.5961 16.5505 -2.6477 0.1573 0 7
-1.8611 16.5228 -2.6477 0.1573 0 7
-2.1255 16.4909 -2.6477 0.1573 0 7
-2.3894 16.4547 -2.6477 0.1573 0 7
-2.6527 16.4143 -2.6477 0.1573 0 7
-2.9154 16.3697 -2.6477 0.1573 0 7
-3.1772 16.3209 -2.6477 0.1573 0 7
-3.4383 16.2679 -2.6477 0.1573 0 7
13.9550 5.1448 -2.4953 0.1655 0 8
13.8708 5.3677 -2.4953 0.1655 0 8
13.7830 5.5892 -2.4953 0.1655 0 8
13.6917 5.8093 -2.4953 0.1655 0 8
13.5969 6.0279 -2.4953 0.1655 0 8
13.4986 6.2450 -2.4953 0.1655 0 8
13.3968 6.4604 -2.4953 0.1655 0 8
13.2916 6.6742 -2.4953 0.1655 0 8
13.1830 6.8863 -2.4953 0.1655 0 8
13.0710 7.0966 -2.4953 0.1655 0 8
12.9556 7.3051 -2.4953 0.1655 0 8
12.8369 7.5117 -2.4953 0.1655 0 8
12.7149 7.7164 -2.4953 0.1655 0 8
12.5896 7.9191 -2.4953 0.1655 0 8
12.4612 8.1198 -2.4953 0.1655 0 8
12.3295 8.3184 -2.4953 0.1655 0 8
12.9394 9.0349 -2.6477 0.1655 0 7
12.7930 9.2410 -2.6477 0.1655 0 7
12.6434 9.4448 -2.6477 0.1655 0 7
12.4904 9.6461 -2.6477 0.1655 0 7
12.3343 9.8450 -2.6477 0.1655 0 7
12.1750 10.0413 -2.6477 0.1655 0 7
12.0125 10.2351 -2.6477 0.1655 0 7
11.8470 10.4262 -2.6477 0.1655 0 7
11.6785 10.6147 -2.6477 0.1655 0 7
11.5069 10.8004 -2.6477 0.1655 0 7
11.3324 10.9834 -2.6477 0.1655 0 7
11.1550 11.1635 -2.6477 0.1655 0 7
10.9747 11.3408 -2.6477 0.1655 0 7
10.7917 11.5151 -2.6477 0.1655 0 6
10.6058 11.6865 -2.6477 0.1655 0 7
10.4172 11.8550 -2.6477 0.1655 0 7
10.2259 12.0203 -2.6477 0.1655 0 7
10.0321 12.1826 -2.6477 0.1655 0 7
9.8356 12.3418 -2.6477 0.1655 0 7
9.6366 12.4977 -2.6477 0.1655 0 7
9.4352 12.6505 -2.6477 0.1655 0 7
9.2313 12.8001 -2.6477 0.1655 0 7
9.0250 12.9463 -2.6477 0.1655 0 7
8.8165 13.0892 -2.6477 0.1655 0 7
8.6057 13.2288 -2.6477 0.1655 0 7
8.3926 13.3649 -2.6477 0.1655 0 7
8.1774 13.4977 -2.6477 0.1655 0 7
7.9601 13.6270 -2.6477 0.1655 0 7
7.7408 13.7527 -2.6477 0.1655 0 7
7.5195 13.8750 -2.6477 0.1655 0 7
7.2962 13.9937 -2.6477 0.1655 0 7
7.0711 14.1088 -2.6477 0.1655 0 7
6.8442 14.2202 -2.6477 0.1655 0 7
6.6155 14.3281 -2.6477 0.1655 0 7
6.3851 14.4322 -2.6477 0.1655 0 7
6.1531 14.5326 -2.6477 0.1655 0 7
5.9195 14.6294 -2.6477 0.1655 0 7
5.6843 14.7223 -2.6477 0.1655 0 7
5.4478 14.8115 -2.6477 0.1655 0 7
5.2098 14.8969 -2.6477 0.1655 0 7
4.9705 14.9784 -2.6477 0.1655 0 7
4.7299 15.0561 -2.6477 0.1655 0 7
4.4880 15.1300 -2.6477 0.1655 0 7
4.2451 15.1999 -2.6477 0.1655 0 7
4.0010 15.2660 -2.6477 0.1655 0 7
3.7559 15.3281 -2.6477 0.1655 0 7
3.5099 15.3863 -2.6477 0.1655 0 7
3.2630 15.4406 -2.6477 0.1655 0 7
3.0152 15.4909 -2.6477 0.1655 0 7
2.7666 15.5372 -2.6477 0.1655 0 7
2.5173 15.5795 -2.6477 0.1655 0 7
2.2674 15.6178 -2.6477 0.1655 0 7
2.0169 15.6522 -2.6477 0.1655 0 7
1.7659 15.6825 -2.6477 0.1655 0 7
1.5145 15.7087 -2.6477 0.1655 0 7
1.2626 15.7310 -2.6477 0.1655 0 7
1.0104 15.7492 -2.6477 0.1655 0 7
0.7580 15.7634 -2.6477 0.1655 0 7
0.5054 15.7735 -2.6477 0.1655 0 7
0.2526 15.7796 -2.6477 0.1655 0 7
-0.0002 15.7816 -2.6477 0.1655 0 7
-0.2531 15.7795 -2.6477 0.1655 0 7
-0.5058 15.7735 -2.6477 0.1655 0 7
-0.7585 15.7633 -2.6477 0.1655 0 7
-1.0109 15.7492 -2.6477 0.1655 0 7
-1.2631 15.7309 -2.6477 0.1655 0 7
-1.5149 15.7087 -2.6477 0.1655 0 7
-1.7664 15.6824 -2.6477 0.1655 0 7
-2.0174 15.6521 -2.6477 0.1655 0 7
-2.2679 15.6178 -2.6477 0.1655 0 7
-2.5178 15.5794 -2.6477 0.1655 0 7
-2.7671 15.5371 -2.6477 0.1655 0 7
-3.0156 15.4908 -2.6477 0.1655 0 7
-3.2634 15.4405 -2.6477 0.1655 0 7
13.2778 4.8951 -2.4953 0.1736 0 8
13.1977 5.1072 -2.4953 0.1736 0 8
13.1142 5.3180 -2.4953 0.1736 0 8
13.0273 5.5274 -2.4953 0.1736 0 8
12.9370 5.7354 -2.4953 0.1736 0 8
12.8435 5.9419 -2.4953 0.1736 0 8
12.7467 6.1469 -2.4953 0.1736 0 8
12.6466 6.3503 -2.4953 0.1736 0 8
12.5432 6.5521 -2.4953 0.1736 0 8
12.4366 6.7522 -2.4953 0.1736 0 8
12.3269 6.9506 -2.4953 0.1736 0 8
12.2139 7.1472 -2.4953 0.1736 0 8
12.0978 7.3419 -2.4953 0.1736 0 8
11.9787 7.5348 -2.4953 0.1736 0 8
11.8564 7.7257 -2.4953 0.1736 0 8
11.7311 7.9147 -2.4953 0.1736 0 8
11.6028 8.1016 -2.4953 0.1736 0 8
11.4716 8.2864 -2.4953 0.1736 0 8
11.3373 8.4692 -2.4953 0.1736 0 8
11.8843 9.1780 -2.6477 0.1736 0 7
11.7357 9.3672 -2.6477 0.1736 0 7
11.5841 9.5540 -2.6477 0.1736 0 7
11.4296 9.7384 -2.6477 0.1736 0 7
11.2721 9.9202 -2.6477 0.1736 0 7
11.1117 10.0995 -2.6477 0.1736 0 7
10.9485 10.2763 -2.6477 0.1736 0 7
10.7825 10.4503 -2.6477 0.1736 0 7
10.6137 10.6217 -2.6477 0.1736 0 7
10.4421 10.7904 -2.6477 0.1736 0 7
10.2679 10.9563 -2.6477 0.1736 0 7
10.0911 11.1194 -2.6477 0.1736 0 7
9.9117 11.2796 -2.6477 0.1736 0 7
9.7297 11.4370 -2.6477 0.1736 0 6
9.5452 11.5914 -2.6477 0.1736 0 7
9.3583 11.7428 -2.6477 0.1736 0 7
9.1690 11.8912 -2.6477 0.1736 0 7
8.9773 12.0366 -2.6477 0.1736 0 7
8.7833 12.1789 -2.6477 0.1736 0 7
8.5871 12.3180 -2.6477 0.1736 0 7
8.3886 12.4540 -2.6477 0.1736 0 7
8.1880 12.5868 -2.6477 0.1736 0 7
7.9853 12.7163 -2.6477 0.1736 0 7
7.7806 12.8426 -2.6477 0.1736 0 7
7.5738 12.9656 -2.6477 0.1736 0 7
7.3651 13.0853 -2.6477 0.1736 0 7
7.1546 13.2016 -2.6477 0.1736 0 7
6.9422 13.3146 -2.6477 0.1736 0 7
6.7280 13.4241 -2.6477 0.1736 0 7
6.5120 13.5301 -2.6477 0.1736 0 7
6.2944 13.6327 -2.6477 0.1736 0 7
6.0752 13.7318 -2.6477 0.1736 0 7
5.8545 13.8274 -2.6477 0.1736 0 7
5.6322 13.9194 -2.6477 0.1736 0 7
5.4085 14.0078 -2.6477 0.1736 0 7
5.1834 14.0927 -2.6477 0.1736 0 7
4.9569 14.1739 -2.6477 0.1736 0 7
4.7292 14.2515 -2.6477 0.1736 0 7
4.5003 14.3254 -2.6477 0.1736 0 7
4.2702 14.3957 -2.6477 0.1736 0 7
4.0391 14.4623 -2.6477 0.1736 0 7
3.8069 14.5251 -2.6477 0.1736 0 7
3.5737 14.5842 -2.6477 0.1736 0 7
3.3396 14.6396 -2.6477 0.1736 0 7
3.1046 14.6912 -2.6477 0.1736 0 7
2.8688 14.7391 -2.6477 0.1736 0 7
2.6324 14.7832 -2.6477 0.1736 0 7
2.3952 14.8234 -2.6477 0.1736 0 7
2.1574 14.8599 -2.6477 0.1736 0 7
1.9191 14.8926 -2.6477 0.1736 0 7
1.6802 14.9214 -2.6477 0.1736 0 7
1.4410 14.9464 -2.6477 0.1736 0 7
1.2013 14.9676 -2.6477 0.1736 0 7
0.9614 14.9849 -2.6477 0.1736 0 7
0.7212 14.9984 -2.6477 0.1736 0 7
0.4808 15.0080 -2.6477 0.1736 0 7
0.2403 15.0138 -2.6477 0.1736 0 7
-0.0002 15.0157 -2.6477 0.1736 0 7
-0.2408 15.0138 -2.6477 0.1736 0 7
-0.4813 15.0080 -2.6477 0.1736 0 7
-0.7216 14.9983 -2.6477 0.1736 0 7
-0.9618 14.9849 -2.6477 0.1736 0 6
-1.2018 14.9675 -2.6477 0.1736 0 6
-1.4414 14.9464 -2.6477 0.1736 0 6
-1.6807 14.9213 -2.6477 0.1736 0 6
-1.9194 14.8925 -2.6477 0.1736 0 7
-2.1578 14.8598 -2.6477 0.1736 0 7
-2.3956 14.8234 -2.6477 0.1736 0 7
-2.6328 14.7831 -2.6477 0.1736 0 7
-2.8693 14.7390 -2.6477 0.1736 0 7
-3.1050 14.6911 -2.6477 0.1736 0 7
12.6615 4.6679 -2.4953 0.1818 0 8
12.5851 4.8702 -2.4953 0.1818 0 8
12.5055 5.0712 -2.4953 0.1818 0 8
12.4226 5.2708 -2.4953 0.1818 0 8
12.3366 5.4692 -2.4953 0.1818 0 8
12.2474 5.6661 -2.4953 0.1818 0 8
12.1551 5.8616 -2.4953 0.1818 0 8
12.0596 6.0556 -2.4953 0.1818 0 8
11.9610 6.2480 -2.4953 0.1818 0 8
11.8594 6.4388 -2.4953 0.1818 0 8
11.7547 6.6280 -2.4953 0.1818 0 8
11.6470 6.8154 -2.4953 0.1818 0 8
11.5363 7.0012 -2.4953 0.1818 0 8
11.4227 7.1851 -2.4953 0.1818 0 8
11.3061 7.3672 -2.4953 0.1818 0 8
11.1867 7.5473 -2.4953 0.1818 0 8
11.0643 7.7256 -2.4953 0.1818 0 8
10.9391 7.9018 -2.4953 0.1818 0 8
10.8111 8.0761 -2.4953 0.1818 0 8
10.6804 8.2482 -2.4953 0.1818 0 8
10.5468 8.4183 -2.4953 0.1818 0 8
11.0465 9.1106 -2.6477 0.1818 0 7
10.8991 9.2864 -2.6477 0.1818 0 7
10.7489 9.4598 -2.6477 0.1818 0 7
10.5960 9.6308 -2.6477 0.1818 0 7
10.4403 9.7993 -2.6477 0.1818 0 7
10.2820 9.9653 -2.6477 0.1818 0 7
10.1210 10.1287 -2.6477 0.1818 0 7
9.9575 10.2896 -2.6477 0.1818 0 7
9.7914 10.4478 -2.6477 0.1818 0 7
9.6227 10.6033 -2.6477 0.1818 0 7
9.4516 10.7561 -2.6477 0.1818 0 7
9.2781 10.9062 -2.6477 0.1818 0 7
9.1022 11.0534 -2.6477 0.1818 0 7
8.9239 11.1978 -2.6477 0.1818 0 7
8.7434 11.3393 -2.6477 0.1818 0 7
8.5606 11.4779 -2.6477 0.1818 0 6
8.3756 11.6136 -2.6477 0.1818 0 7
8.1885 11.7463 -2.6477 0.1818 0 7
7.9993 11.8760 -2.6477 0.1818 0 7
7.8080 12.0026 -2.6477 0.1818 0 7
7.6147 12.1261 -2.6477 0.1818 0 7
7.4195 12.2466 -2.6477 0.1818 0 7
7.2223 12.3639 -2.6477 0.1818 0 7
7.0233 12.4780 -2.6477 0.1818 0 7
6.8225 12.5889 -2.6477 0.1818 0 7
6.6199 12.6966 -2.6477 0.1818 0 7
6.4157 12.8010 -2.6477 0.1818 0 7
6.2098 12.9022 -2.6477 0.1818 0 7
6.0023 13.0000 -2.6477 0.1818 0 7
5.7933 13.0945 -2.6477 0.1818 0 7
5.5827 13.1856 -2.6477 0.1818 0 7
5.3708 13.2733 -2.6477 0.1818 0 7
5.1575 13.3577 -2.6477 0.1818 0 7
4.9428 13.4386 -2.6477 0.1818 0 7
4.7269 13.5161 -2.6477 0.1818 0 7
4.5097 13.5900 -2.6477 0.1818 0 7
4.2914 13.6605 -2.6477 0.1818 0 7
4.0720 13.7275 -2.6477 0.1818 0 7
3.8516 13.7910 -2.6477 0.1818 0 7
3.6302 13.8510 -2.6477 0.1818 0 7
3.4078 13.9073 -2.6477 0.1818 0 7
3.1846 13.9601 -2.6477 0.1818 0 7
2.9605 14.0094 -2.6477 0.1818 0 7
2.7357 14.0550 -2.6477 0.1818 0 7
2.5102 14.0970 -2.6477 0.1818 0 7
2.2840 14.1354 -2.6477 0.1818 0 7
2.0573 14.1702 -2.6477 0.1818 0 7
1.8300 14.2013 -2.6477 0.1818 0 7
1.6022 14.2288 -2.6477 0.1818 0 7
1.3741 14.2527 -2.6477 0.1818 0 7
1.1456 14.2729 -2.6477 0.1818 0 7
0.9168 14.2894 -2.6477 0.1818 0 7
0.6877 14.3022 -2.6477 0.1818 0 7
0.4585 14.3114 -2.6477 0.1818 0 7
0.2292 14.3169 -2.6477 0.1818 0 7
-0.0002 14.3188 -2.6477 0.1818 0 7
-0.2296 14.3169 -2.6477 0.1818 0 7
-0.4589 14.3114 -2.6477 0.1818 0 7
-0.6882 14.3022 -2.6477 0.1818 0 7
-0.9172 14.2894 -2.6477 0.1818 0 7
-1.1460 14.2728 -2.6477 0.1818 0 7
-1.3745 14.2526 -2.6477 0.1818 0 7
-1.6027 14.2288 -2.6477 0.1818 0 7
-1.8304 14.2013 -2.6477 0.1818 0 7
-2.0577 14.1701 -2.6477 0.1818 0 7
-2.2844 14.1354 -2.6477 0.1818 0 7
-2.5106 14.0969 -2.6477 0.1818 0 7
-2.7361 14.0549 -2.6477 0.1818 0 7
-2.9609 14.0093 -2.6477 0.1818 0 7
12.0983 4.4603 -2.4953 0.1900 0 8
12.0253 4.6535 -2.4953 0.1900 0 8
11.9492 4.8456 -2.4953 0.1900 0 8
11.8700 5.0364 -2.4953 0.1900 0 8
11.7878 5.2259 -2.4953 0.1900 0 8
11.7026 5.4141 -2.4953 0.1900 0 8
11.6143 5.6008 -2.4953 0.1900 0 8
11.5231 5.7862 -2.4953 0.1900 0 8
11.4289 5.9700 -2.4953 0.1900 0 8
11.3318 6.1524 -2.4953 0.1900 0 8
11.2318 6.3331 -2.4953 0.1900 0 8
11.1289 6.5123 -2.4953 0.1900 0 8
11.0231 6.6897 -2.4953 0.1900 0 8
10.9146 6.8655 -2.4953 0.1900 0 8
10.8032 7.0394 -2.4953 0.1900 0 8
10.6890 7.2116 -2.4953 0.1900 0 8
10.5721 7.3819 -2.4953 0.1900 0 8
10.4525 7.5503 -2.4953 0.1900 0 8
10.3302 7.7168 -2.4953 0.1900 0 8
10.2052 7.8813 -2.4953 0.1900 0 8
10.0777 8.0438 -2.4953 0.1900 0 8
9.9475 8.2042 -2.4953 0.1900 0 8
9.8147 8.3625 -2.4953 0.1900 0 8
10.2707 9.0390 -2.6477 0.1900 0 7
10.1246 9.2024 -2.6477 0.1900 0 7
9.9759 9.3634 -2.6477 0.1900 0 7
9.8246 9.5220 -2.6477 0.1900 0 7
9.6708 9.6782 -2.6477 0.1900 0 7
9.5145 9.8318 -2.6477 0.1900 0 7
9.3558 9.9830 -2.6477 0.1900 0 7
9.1947 10.1316 -2.6477 0.1900 0 7
9.0312 10.2776 -2.6477 0.1900 0 7
8.8653 10.4210 -2.6477 0.1900 0 7
8.6973 10.5617 -2.6477 0.1900 0 7
8.5269 10.6997 -2.6477 0.1900 0 7
8.3544 10.8349 -2.6477 0.1900 0 7
8.1798 10.9673 -2.6477 0.1900 0 7
8.0030 11.0970 -2.6477 0.1900 0 7
7.8242 11.2238 -2.6477 0.1900 0 7
7.6434 11.3477 -2.6477 0.1900 0 7
7.4606 11.4687 -2.6477 0.1900 0 6
7.2760 11.5867 -2.6477 0.1900 0 7
7.0894 11.7018 -2.6477 0.1900 0 7
6.9010 11.8139 -2.6477 0.1900 0 7
6.7109 11.9229 -2.6477 0.1900 0 7
6.5190 12.0289 -2.6477 0.1900 0 7
6.3255 12.1318 -2.6477 0.1900 0 7
6.1303 12.2316 -2.6477 0.1900 0 7
5.9335 12.3282 -2.6477 0.1900 0 7
5.7353 12.4217 -2.6477 0.1900 0 7
5.5355 12.5120 -2.6477 0.1900 0 7
5.3344 12.5990 -2.6477 0.1900 0 7
5.1319 12.6829 -2.6477 0.1900 0 7
4.9280 12.7635 -2.6477 0.1900 0 7
4.7229 12.8408 -2.6477 0.1900 0 7
4.5166 12.9148 -2.6477 0.1900 0 7
4.3091 12.9855 -2.6477 0.1900 0 7
4.1005 13.0528 -2.6477 0.1900 0 7
3.8909 13.1169 -2.6477 0.1900 0 7
3.6803 13.1775 -2.6477 0.1900 0 7
3.4687 13.2348 -2.6477 0.1900 0 7
3.2562 13.2887 -2.6477 0.1900 0 7
3.0429 13.3391 -2.6477 0.1900 0 7
2.8288 13.3862 -2.6477 0.1900 0 7
2.6140 13.4298 -2.6477 0.1900 0 7
2.3985 13.4699 -2.6477 0.1900 0 7
2.1824 13.5066 -2.6477 0.1900 0 7
1.9657 13.5398 -2.6477 0.1900 0 7
1.7486 13.5696 -2.6477 0.1900 0 7
1.5310 13.5959 -2.6477 0.1900 0 7
1.3130 13.6186 -2.6477 0.1900 0 7
1.0946 13.6379 -2.6477 0.1900 0 7
0.8760 13.6537 -2.6477 0.1900 0 7
0.6571 13.6660 -2.6477 0.1900 0 7
0.4381 13.6748 -2.6477 0.1900 0 7
0.2190 13.6800 -2.6477 0.1900 0 7
-0.0002 13.6818 -2.6477 0.1900 0 7
-0.2194 13.6800 -2.6477 0.1900 0 7
-0.4385 13.6748 -2.6477 0.1900 0 7
-0.6575 13.6660 -2.6477 0.1900 0 7
-0.8764 13.6537 -2.6477 0.1900 0 7
-1.0950 13.6379 -2.6477 0.1900 0 7
-1.3134 13.6186 -2.6477 0.1900 0 7
-1.5314 13.5958 -2.6477 0.1900 0 7
-1.7490 13.5695 -2.6477 0.1900 0 7
-1.9662 13.5398 -2.6477 0.1900 0 7
-2.1828 13.5065 -2.6477 0.1900 0 7
-2.3989 13.4698 -2.6477 0.1900 0 7
-2.6144 13.4297 -2.6477 0.1900 0 7
-2.8292 13.3861 -2.6477 0.1900 0 7
11.5814 4.2697 -2.4953 0.1981 0 8
11.5115 4.4547 -2.4953 0.1981 0 8
11.4387 4.6385 -2.4953 0.1981 0 8
11.3629 4.8212 -2.4953 0.1981 0 8
11.2842 5.0026 -2.4953 0.1981 0 8
11.2026 5.1828 -2.4953 0.1981 0 8
11.1181 5.3616 -2.4953 0.1981 0 8
11.0308 5.5390 -2.4953 0.1981 0 8
10.9407 5.7150 -2.4953 0.1981 0 8
10.8477 5.8895 -2.4953 0.1981 0 8
10.7520 6.0626 -2.4953 0.1981 0 8
10.6535 6.2340 -2.4953 0.1981 0 8
10.5522 6.4039 -2.4953 0.1981 0 8
10.4483 6.5721 -2.4953 0.1981 0 8
10.3416 6.7387 -2.4953 0.1981 0 8
10.2324 6.9035 -2.4953 0.1981 0 8
10.1204 7.0665 -2.4953 0.1981 0 8
10.0059 7.2278 -2.4953 0.1981 0 8
9.8889 7.3871 -2.4953 0.1981 0 8
9.7692 7.5446 -2.4953 0.1981 0 8
9.6471 7.7001 -2.4953 0.1981 0 8
9.5225 7.8537 -2.4953 0.1981 0 8
9.3955 8.0053 -2.4953 0.1981 0 8
9.2660 8.1548 -2.4953 0.1981 0 8
9.1342 8.3021 -2.4953 0.1981 0 8
9.0000 8.4474 -2.4953 0.1981 0 8
9.4049 9.1152 -2.6477 0.1981 0 7
9.2576 9.2647 -2.6477 0.1981 0 7
9.1080 9.4118 -2.6477 0.1981 0 7
8.9561 9.5565 -2.6477 0.1981 0 7
8.8018 9.6988 -2.6477 0.1981 0 7
8.6453 9.8385 -2.6477 0.1981 0 7
8.4866 9.9758 -2.6477 0.1981 0 7
8.3257 10.1105 -2.6477 0.1981 0 7
8.1627 10.2425 -2.6477 0.1981 0 7
7.9975 10.3720 -2.6477 0.1981 0 7
7.8303 10.4988 -2.6477 0.1981 0 7
7.6611 10.6229 -2.6477 0.1981 0 7
7.4900 10.7442 -2.6477 0.1981 0 7
7.3169 10.8629 -2.6477 0.1981 0 7
7.1419 10.9787 -2.6477 0.1981 0 7
6.9651 11.0917 -2.6477 0.1981 0 7
6.7865 11.2019 -2.6477 0.1981 0 7
6.6062 11.3091 -2.6477 0.1981 0 7
6.4242 11.4135 -2.6477 0.1981 0 6
6.2405 11.5150 -2.6477 0.1981 0 7
6.0552 11.6135 -2.6477 0.1981 0 7
5.8684 11.7090 -2.6477 0.1981 0 7
5.6801 11.8015 -2.6477 0.1981 0 7
5.4903 11.8910 -2.6477 0.1981 0 7
5.2991 11.9774 -2.6477 0.1981 0 7
5.1065 12.0608 -2.6477 0.1981 0 7
4.9126 12.1410 -2.6477 0.1981 0 7
4.7175 12.2182 -2.6477 0.1981 0 7
4.5211 12.2922 -2.6477 0.1981 0 7
4.3236 12.3630 -2.6477 0.1981 0 7
4.1250 12.4307 -2.6477 0.1981 0 7
3.9253 12.4952 -2.6477 0.1981 0 7
3.7247 12.5565 -2.6477 0.1981 0 7
3.5230 12.6145 -2.6477 0.1981 0 7
3.3205 12.6694 -2.6477 0.1981 0 7
3.1171 12.7209 -2.6477 0.1981 0 7
2.9129 12.7692 -2.6477 0.1981 0 7
2.7080 12.8143 -2.6477 0.1981 0 7
2.5023 12.8560 -2.6477 0.1981 0 7
2.2960 12.8944 -2.6477 0.1981 0 7
2.0892 12.9296 -2.6477 0.1981 0 7
1.8818 12.9614 -2.6477 0.1981 0 7
1.6739 12.9899 -2.6477 0.1981 0 7
1.4656 13.0150 -2.6477 0.1981 0 7
1.2569 13.0368 -2.6477 0.1981 0 7
1.0478 13.0553 -2.6477 0.1981 0 7
0.8386 13.0704 -2.6477 0.1981 0 7
0.6291 13.0822 -2.6477 0.1981 0 7
0.4194 13.0906 -2.6477 0.1981 0 7
0.2096 13.0956 -2.6477 0.1981 0 7
-0.0002 13.0973 -2.6477 0.1981 0 7
-0.2100 13.0956 -2.6477 0.1981 0 7
-0.4198 13.0905 -2.6477 0.1981 0 7
-0.6294 13.0821 -2.6477 0.1981 0 7
-0.8389 13.0704 -2.6477 0.1981 0 7
-1.0482 13.0553 -2.6477 0.1981 0 7
-1.2572 13.0368 -2.6477 0.1981 0 7
-1.4659 13.0150 -2.6477 0.1981 0 7
-1.6743 12.9898 -2.6477 0.1981 0 7
-1.8822 12.9613 -2.6477 0.1981 0 7
-2.0896 12.9295 -2.6477 0.1981 0 7
-2.2964 12.8944 -2.6477 0.1981 0 7
-2.5027 12.8559 -2.6477 0.1981 0 7
-2.7083 12.8142 -2.6477 0.1981 0 7
11.1054 4.0942 -2.4953 0.2063 0 8
11.0384 4.2716 -2.4953 0.2063 0 8
10.9685 4.4479 -2.4953 0.2063 0 8
10.8958 4.6230 -2.4953 0.2063 0 8
10.8204 4.7970 -2.4953 0.2063 0 8
10.7421 4.9697 -2.4953 0.2063 0 8
10.6612 5.1412 -2.4953 0.2063 0 8
10.5774 5.3113 -2.4953 0.2063 0 8
10.4910 5.4801 -2.4953 0.2063 0 8
10.4018 5.6475 -2.4953 0.2063 0 8
10.3100 5.8134 -2.4953 0.2063 0 8
10.2156 5.9778 -2.4953 0.2063 0 8
10.1185 6.1407 -2.4953 0.2063 0 8
10.0188 6.3020 -2.4953 0.2063 0 8
9.9166 6.4617 -2.4953 0.2063 0 8
9.8118 6.6197 -2.4953 0.2063 0 8
9.7045 6.7761 -2.4953 0.2063 0 8
9.5947 6.9307 -2.4953 0.2063 0 8
9.4824 7.0835 -2.4953 0.2063 0 8
9.3677 7.2345 -2.4953 0.2063 0 8
9.2506 7.3836 -2.4953 0.2063 0 8
9.1311 7.5309 -2.4953 0.2063 0 8
9.0093 7.6762 -2.4953 0.2063 0 8
8.8852 7.8196 -2.4953 0.2063 0 8
8.7588 7.9609 -2.4953 0.2063 0 8
8.6301 8.1002 -2.4953 0.2063 0 8
8.4992 8.2374 -2.4953 0.2063 0 8
8.3662 8.3725 -2.4953 0.2063 0 8
8.7337 9.0250 -2.6477 0.2063 0 7
8.5880 9.1637 -2.6477 0.2063 0 7
8.4401 9.3001 -2.6477 0.2063 0 7
8.2900 9.4341 -2.6477 0.2063 0 7
8.1378 9.5657 -2.6477 0.2063 0 7
7.9835 9.6949 -2.6477 0.2063 0 7
7.8271 9.8215 -2.6477 0.2063 0 7
7.6688 9.9457 -2.6477 0.2063 0 7
7.5085 10.0673 -2.6477 0.2063 0 7
7.3462 10.1862 -2.6477 0.2063 0 7
7.1821 10.3026 -2.6477 0.2063 0 7
7.0161 10.4164 -2.6477 0.2063 0 7
6.8484 10.5274 -2.6477 0.2063 0 7
6.6788 10.6358 -2.6477 0.2063 0 7
6.5076 10.7414 -2.6477 0.2063 0 7
6.3347 10.8443 -2.6477 0.2063 0 7
6.1601 10.9444 -2.6477 0.2063 0 7
5.9840 11.0417 -2.6477 0.2063 0 7
5.8063 11.1361 -2.6477 0.2063 0 7
5.6272 11.2277 -2.6477 0.2063 0 7
5.4466 11.3164 -2.6477 0.2063 0 7
5.2646 11.4022 -2.6477 0.2063 0 6
5.0812 11.4851 -2.6477 0.2063 0 6
4.8966 11.5650 -2.6477 0.2063 0 7
4.7107 11.6420 -2.6477 0.2063 0 7
4.5236 11.7160 -2.6477 0.2063 0 7
4.3353 11.7869 -2.6477 0.2063 0 7
4.1459 11.8549 -2.6477 0.2063 0 7
3.9555 11.9198 -2.6477 0.2063 0 7
3.7640 11.9816 -2.6477 0.2063 0 7
3.5716 12.0404 -2.6477 0.2063 0 7
3.3782 12.0961 -2.6477 0.2063 0 7
3.1840 12.1486 -2.6477 0.2063 0 7
2.9890 12.1981 -2.6477 0.2063 0 7
2.7932 12.2444 -2.6477 0.2063 0 7
2.5967 12.2876 -2.6477 0.2063 0 7
2.3995 12.3276 -2.6477 0.2063 0 7
2.2017 12.3644 -2.6477 0.2063 0 7
2.0033 12.3981 -2.6477 0.2063 0 7
1.8044 12.4286 -2.6477 0.2063 0 7
1.6051 12.4559 -2.6477 0.2063 0 7
1.4053 12.4801 -2.6477 0.2063 0 7
1.2052 12.5010 -2.6477 0.2063 0 7
1.0048 12.5187 -2.6477 0.2063 0 7
0.8041 12.5332 -2.6477 0.2063 0 7
0.6032 12.5444 -2.6477 0.2063 0 7
0.4022 12.5525 -2.6477 0.2063 0 7
0.2010 12.5573 -2.6477 0.2063 0 7
-0.0002 12.5589 -2.6477 0.2063 0 7
-0.2014 12.5573 -2.6477 0.2063 0 7
-0.4025 12.5525 -2.6477 0.2063 0 7
-0.6036 12.5444 -2.6477 0.2063 0 7
-0.8045 12.5331 -2.6477 0.2063 0 7
-1.0051 12.5187 -2.6477 0.2063 0 7
