ply
format ascii 1.0
element vertex 1408
property float32 x
property float32 y
property float32 z
property float32 CosAngle
property uint32 ObjIdx
property uint32 ObjTag
end_header
4.1609 11.8496 -2.6477 0.2063 0 7
3.9700 11.9149 -2.6477 0.2063 0 7
3.7781 11.9772 -2.6477 0.2063 0 7
3.5852 12.0363 -2.6477 0.2063 0 7
3.3914 12.0924 -2.6477 0.2063 0 7
3.1967 12.1453 -2.6477 0.2063 0 7
3.0011 12.1951 -2.6477 0.2063 0 7
2.8048 12.2417 -2.6477 0.2063 0 7
2.6078 12.2852 -2.6477 0.2063 0 7
2.4101 12.3255 -2.6477 0.2063 0 7
2.2118 12.3626 -2.6477 0.2063 0 7
2.0129 12.3966 -2.6477 0.2063 0 7
1.8135 12.4273 -2.6477 0.2063 0 7
1.6136 12.4548 -2.6477 0.2063 0 7
1.4133 12.4792 -2.6477 0.2063 0 7
1.2126 12.5003 -2.6477 0.2063 0 7
1.0117 12.5181 -2.6477 0.2063 0 7
0.8104 12.5328 -2.6477 0.2063 0 7
0.6090 12.5442 -2.6477 0.2063 0 7
0.4074 12.5523 -2.6477 0.2063 0 7
0.2057 12.5573 -2.6477 0.2063 0 7
0.0039 12.5589 -2.6477 0.2063 0 7
-0.1978 12.5574 -2.6477 0.2063 0 7
-0.3996 12.5526 -2.6477 0.2063 0 7
-0.6012 12.5445 -2.6477 0.2063 0 7
-0.8026 12.5333 -2.6477 0.2063 0 7
-1.0039 12.5188 -2.6477 0.2063 0 7
-1.2048 12.5010 -2.6477 0.2063 0 7
-1.4055 12.4800 -2.6477 0.2063 0 7
-1.6058 12.4558 -2.6477 0.2063 0 7
-1.8057 12.4284 -2.6477 0.2063 0 7
-2.0052 12.3978 -2.6477 0.2063 0 7
-2.2041 12.3640 -2.6477 0.2063 0 7
-2.4024 12.3270 -2.6477 0.2063 0 7
-2.6002 12.2868 -2.6477 0.2063 0 7
-2.7972 12.2435 -2.6477 0.2063 0 7
-2.9935 12.1970 -2.6477 0.2063 0 7
-3.1891 12.1473 -2.6477 0.2063 0 7
-3.3838 12.0945 -2.6477 0.2063 0 7
-3.5777 12.0386 -2.6477 0.2063 0 7
-3.7706 11.9795 -2.6477 0.2063 0 7
-3.9626 11.9174 -2.6477 0.2063 0 7
-4.1535 11.8522 -2.6477 0.2063 0 7
-4.3434 11.7840 -2.6477 0.2063 0 7
-4.5322 11.7127 -2.6477 0.2063 0 7
-4.7197 11.6383 -2.6477 0.2063 0 7
-4.9061 11.5610 -2.6477 0.2063 0 7
-5.0912 11.4807 -2.6477 0.2063 0 7
-5.2750 11.3974 -2.6477 0.2063 0 6
-5.4574 11.3112 -2.6477 0.2063 0 7
-5.6384 11.2221 -2.6477 0.2063 0 7
-5.8180 11.1301 -2.6477 0.2063 0 7
-5.9960 11.0352 -2.6477 0.2063 0 7
-6.1725 10.9374 -2.6477 0.2063 0 7
-6.3474 10.8368 -2.6477 0.2063 0 7
-6.5207 10.7335 -2.6477 0.2063 0 7
-6.6923 10.6273 -2.6477 0.2063 0 7
8.6140 -7.4169 -2.4953 0.2144 0 8
8.7321 -7.2776 -2.4953 0.2144 0 8
8.8479 -7.1364 -2.4953 0.2144 0 8
8.9614 -6.9933 -2.4953 0.2144 0 8
9.0725 -6.8484 -2.4953 0.2144 0 8
9.1814 -6.7018 -2.4953 0.2144 0 8
9.2879 -6.5535 -2.4953 0.2144 0 8
9.3920 -6.4034 -2.4953 0.2144 0 8
9.4936 -6.2517 -2.4953 0.2144 0 8
9.5928 -6.0984 -2.4953 0.2144 0 8
9.6896 -5.9435 -2.4953 0.2144 0 8
9.7838 -5.7870 -2.4953 0.2144 0 8
9.8755 -5.6291 -2.4953 0.2144 0 8
9.9647 -5.4697 -2.4953 0.2144 0 8
10.0512 -5.3089 -2.4953 0.2144 0 8
10.1352 -5.1468 -2.4953 0.2144 0 8
10.2166 -4.9833 -2.4953 0.2144 0 8
10.2954 -4.8185 -2.4953 0.2144 0 8
10.3714 -4.6525 -2.4953 0.2144 0 8
10.4448 -4.4853 -2.4953 0.2144 0 8
10.5156 -4.3169 -2.4953 0.2144 0 8
10.5835 -4.1474 -2.4953 0.2144 0 8
10.6488 -3.9769 -2.4953 0.2144 0 8
10.7113 -3.8053 -2.4953 0.2144 0 8
10.7711 -3.6327 -2.4953 0.2144 0 8
10.8280 -3.4592 -2.4953 0.2144 0 8
10.8822 -3.2848 -2.4953 0.2144 0 8
10.9336 -3.1095 -2.4953 0.2144 0 8
10.9821 -2.9335 -2.4953 0.2144 0 8
11.0278 -2.7567 -2.4953 0.2144 0 8
11.0707 -2.5792 -2.4953 0.2144 0 8
11.1107 -2.4010 -2.4953 0.2144 0 8
11.1478 -2.2222 -2.4953 0.2144 0 8
11.1821 -2.0428 -2.4953 0.2144 0 8
11.2135 -1.8629 -2.4953 0.2144 0 8
11.2420 -1.6825 -2.4953 0.2144 0 8
11.2675 -1.5017 -2.4953 0.2144 0 8
11.2902 -1.3205 -2.4953 0.2144 0 8
7.9732 -0.8029 -1.7591 0.1872 25 10
7.7136 -0.6518 -1.6993 0.7091 25 10
7.6561 -0.5232 -1.6846 0.8786 25 10
7.6143 -0.3976 -1.6737 0.9666 25 10
7.5928 -0.2742 -1.6678 0.9878 25 10
7.5834 -0.1519 -1.6650 0.9968 25 10
7.5765 -0.0301 -1.6632 0.9979 25 10
7.5800 0.0917 -1.6640 0.9973 25 10
7.5868 0.2137 -1.6661 0.9961 25 10
7.6023 0.3365 -1.6705 0.9685 25 10
7.6313 0.4607 -1.6782 0.9189 25 10
7.6841 0.5879 -1.6917 0.8749 25 10
7.7702 0.7202 -1.7130 0.3073 25 10
8.3022 0.9043 -1.8332 0.1853 25 10
11.2791 1.4122 -2.4953 0.2144 0 8
11.2550 1.5932 -2.4953 0.2144 0 8
11.2279 1.7739 -2.4953 0.2144 0 8
11.1980 1.9540 -2.4953 0.2144 0 8
11.1651 2.1336 -2.4953 0.2144 0 8
11.1294 2.3127 -2.4953 0.2144 0 8
11.0908 2.4912 -2.4953 0.2144 0 8
11.0494 2.6691 -2.4953 0.2144 0 8
11.0051 2.8463 -2.4953 0.2144 0 8
10.9579 3.0227 -2.4953 0.2144 0 8
10.9079 3.1983 -2.4953 0.2144 0 8
10.8551 3.3732 -2.4953 0.2144 0 8
10.7996 3.5471 -2.4953 0.2144 0 8
10.7412 3.7202 -2.4953 0.2144 0 8
10.6800 3.8922 -2.4953 0.2144 0 8
10.6161 4.0633 -2.4953 0.2144 0 8
10.5495 4.2333 -2.4953 0.2144 0 8
10.4801 4.4023 -2.4953 0.2144 0 8
10.4080 4.5701 -2.4953 0.2144 0 8
10.3333 4.7367 -2.4953 0.2144 0 8
10.2558 4.9021 -2.4953 0.2144 0 8
10.1758 5.0662 -2.4953 0.2144 0 8
10.0931 5.2290 -2.4953 0.2144 0 8
10.0077 5.3905 -2.4953 0.2144 0 8
9.9199 5.5506 -2.4953 0.2144 0 8
9.8294 5.7092 -2.4953 0.2144 0 8
9.7364 5.8664 -2.4953 0.2144 0 8
9.6409 6.0221 -2.4953 0.2144 0 8
9.5429 6.1762 -2.4953 0.2144 0 8
9.4425 6.3287 -2.4953 0.2144 0 8
9.3396 6.4796 -2.4953 0.2144 0 8
9.2343 6.6288 -2.4953 0.2144 0 8
9.1266 6.7762 -2.4953 0.2144 0 8
9.0166 6.9220 -2.4953 0.2144 0 8
8.9042 7.0659 -2.4953 0.2144 0 8
8.7895 7.2081 -2.4953 0.2144 0 8
8.6726 7.3484 -2.4953 0.2144 0 8
8.5534 7.4867 -2.4953 0.2144 0 8
8.4320 7.6232 -2.4953 0.2144 0 8
8.3085 7.7577 -2.4953 0.2144 0 8
8.1828 7.8901 -2.4953 0.2144 0 8
8.0550 8.0206 -2.4953 0.2144 0 8
7.9251 8.1490 -2.4953 0.2144 0 8
7.7931 8.2752 -2.4953 0.2144 0 8
7.6592 8.3993 -2.4953 0.2144 0 8
7.9828 9.0417 -2.6477 0.2144 0 7
7.8365 9.1688 -2.6477 0.2144 0 7
7.6882 9.2935 -2.6477 0.2144 0 7
7.5379 9.4159 -2.6477 0.2144 0 7
7.3856 9.5357 -2.6477 0.2144 0 7
7.2315 9.6532 -2.6477 0.2144 0 7
7.0755 9.7681 -2.6477 0.2144 0 7
6.9176 9.8805 -2.6477 0.2144 0 7
6.7580 9.9903 -2.6477 0.2144 0 7
6.5966 10.0976 -2.6477 0.2144 0 7
6.4336 10.2023 -2.6477 0.2144 0 7
6.2688 10.3043 -2.6477 0.2144 0 7
6.1025 10.4037 -2.6477 0.2144 0 7
5.9346 10.5004 -2.6477 0.2144 0 7
5.7651 10.5944 -2.6477 0.2144 0 7
5.5942 10.6856 -2.6477 0.2144 0 7
5.4218 10.7741 -2.6477 0.2144 0 7
5.2480 10.8599 -2.6477 0.2144 0 7
5.0728 10.9428 -2.6477 0.2144 0 7
4.8964 11.0228 -2.6477 0.2144 0 7
4.7187 11.1001 -2.6477 0.2144 0 7
4.5397 11.1745 -2.6477 0.2144 0 7
4.3596 11.2460 -2.6477 0.2144 0 7
4.1784 11.3145 -2.6477 0.2144 0 7
3.9961 11.3802 -2.6477 0.2144 0 7
3.8128 11.4429 -2.6477 0.2144 0 6
3.6284 11.5027 -2.6477 0.2144 0 6
3.4432 11.5595 -2.6477 0.2144 0 7
3.2570 11.6133 -2.6477 0.2144 0 7
3.0700 11.6642 -2.6477 0.2144 0 7
2.8823 11.7120 -2.6477 0.2144 0 7
2.6937 11.7568 -2.6477 0.2144 0 7
2.5045 11.7985 -2.6477 0.2144 0 7
2.3146 11.8372 -2.6477 0.2144 0 7
2.1242 11.8729 -2.6477 0.2144 0 7
1.9332 11.9055 -2.6477 0.2144 0 7
1.7416 11.9350 -2.6477 0.2144 0 7
1.5497 11.9615 -2.6477 0.2144 0 7
1.3573 11.9848 -2.6477 0.2144 0 7
1.1646 12.0051 -2.6477 0.2144 0 7
0.9716 12.0222 -2.6477 0.2144 0 7
0.7783 12.0363 -2.6477 0.2144 0 7
0.5849 12.0472 -2.6477 0.2144 0 7
0.3913 12.0551 -2.6477 0.2144 0 7
0.1975 12.0598 -2.6477 0.2144 0 7
0.0038 12.0614 -2.6477 0.2144 0 7
-0.1900 12.0599 -2.6477 0.2144 0 7
-0.3837 12.0553 -2.6477 0.2144 0 7
-0.5773 12.0476 -2.6477 0.2144 0 7
-0.7708 12.0368 -2.6477 0.2144 0 7
-0.9641 12.0228 -2.6477 0.2144 0 7
-1.1571 12.0058 -2.6477 0.2144 0 7
-1.3498 11.9857 -2.6477 0.2144 0 7
-1.5422 11.9624 -2.6477 0.2144 0 7
-1.7342 11.9361 -2.6477 0.2144 0 7
-1.9257 11.9067 -2.6477 0.2144 0 7
-2.1168 11.8742 -2.6477 0.2144 0 7
-2.3073 11.8387 -2.6477 0.2144 0 7
-2.4971 11.8001 -2.6477 0.2144 0 7
-2.6864 11.7584 -2.6477 0.2144 0 7
-2.8750 11.7138 -2.6477 0.2144 0 7
-3.0628 11.6661 -2.6477 0.2144 0 7
-3.2498 11.6154 -2.6477 0.2144 0 7
-3.4360 11.5617 -2.6477 0.2144 0 7
-3.6213 11.5050 -2.6477 0.2144 0 7
-3.8056 11.4453 -2.6477 0.2144 0 6
-3.9890 11.3827 -2.6477 0.2144 0 6
-4.1713 11.3171 -2.6477 0.2144 0 7
-4.3526 11.2487 -2.6477 0.2144 0 7
-4.5328 11.1773 -2.6477 0.2144 0 7
-4.7117 11.1030 -2.6477 0.2144 0 7
-4.8895 11.0259 -2.6477 0.2144 0 7
-5.0660 10.9459 -2.6477 0.2144 0 7
-5.2412 10.8631 -2.6477 0.2144 0 7
-5.4150 10.7775 -2.6477 0.2144 0 7
-5.5875 10.6891 -2.6477 0.2144 0 7
-5.7585 10.5980 -2.6477 0.2144 0 7
-5.9280 10.5041 -2.6477 0.2144 0 7
-6.0960 10.4075 -2.6477 0.2144 0 7
-6.2624 10.3083 -2.6477 0.2144 0 7
-6.4272 10.2063 -2.6477 0.2144 0 7
8.2846 -7.1333 -2.4953 0.2225 0 8
8.3982 -6.9993 -2.4953 0.2225 0 8
8.5095 -6.8635 -2.4953 0.2225 0 8
8.6187 -6.7259 -2.4953 0.2225 0 8
8.7256 -6.5866 -2.4953 0.2225 0 8
8.8303 -6.4456 -2.4953 0.2225 0 8
8.9327 -6.3029 -2.4953 0.2225 0 8
9.0328 -6.1585 -2.4953 0.2225 0 8
9.1306 -6.0126 -2.4953 0.2225 0 8
9.2260 -5.8652 -2.4953 0.2225 0 8
9.3190 -5.7162 -2.4953 0.2225 0 8
9.4097 -5.5655 -2.4953 0.2225 0 8
9.4979 -5.4139 -2.4953 0.2225 0 8
9.5836 -5.2606 -2.4953 0.2225 0 8
9.6669 -5.1059 -2.4953 0.2225 0 8
9.7477 -4.9500 -2.4953 0.2225 0 8
9.8259 -4.7927 -2.4953 0.2225 0 8
9.9017 -4.6343 -2.4953 0.2225 0 8
9.9748 -4.4746 -2.4953 0.2225 0 8
10.0454 -4.3138 -2.4953 0.2225 0 8
10.1135 -4.1518 -2.4953 0.2225 0 8
10.1788 -3.9888 -2.4953 0.2225 0 8
10.2416 -3.8248 -2.4953 0.2225 0 8
10.3017 -3.6598 -2.4953 0.2225 0 8
10.3592 -3.4938 -2.4953 0.2225 0 8
10.4140 -3.3269 -2.4953 0.2225 0 8
10.4661 -3.1592 -2.4953 0.2225 0 8
10.5155 -2.9906 -2.4953 0.2225 0 8
10.5622 -2.8213 -2.4953 0.2225 0 8
10.6061 -2.6513 -2.4953 0.2225 0 8
10.6474 -2.4805 -2.4953 0.2225 0 8
10.6858 -2.3092 -2.4953 0.2225 0 8
10.7216 -2.1372 -2.4953 0.2225 0 8
10.7545 -1.9647 -2.4953 0.2225 0 8
10.7847 -1.7917 -2.4953 0.2225 0 8
10.8121 -1.6182 -2.4953 0.2225 0 8
10.8367 -1.4443 -2.4953 0.2225 0 8
10.8585 -1.2700 -2.4953 0.2225 0 8
7.9368 -0.7992 -1.8207 0.3001 25 10
7.6890 -0.6497 -1.7612 0.8721 25 10
7.6339 -0.5217 -1.7465 0.8795 25 10
7.5962 -0.3966 -1.7361 0.9671 25 10
7.5751 -0.2736 -1.7301 0.9883 25 10
7.5682 -0.1516 -1.7277 0.9969 25 10
7.5614 -0.0300 -1.7259 0.9980 25 10
7.5649 0.0915 -1.7268 0.9975 25 10
7.5717 0.2133 -1.7289 0.9963 25 10
7.5843 0.3357 -1.7328 0.9690 25 10
7.6088 0.4593 -1.7398 0.9199 25 10
7.6617 0.5862 -1.7538 0.8758 25 10
7.7525 0.7186 -1.7770 0.3075 25 10
8.2589 0.8996 -1.8962 0.1841 25 10
10.8478 1.3582 -2.4953 0.2225 0 8
10.8246 1.5323 -2.4953 0.2225 0 8
10.7986 1.7060 -2.4953 0.2225 0 8
10.7698 1.8793 -2.4953 0.2225 0 8
10.7382 2.0521 -2.4953 0.2225 0 8
10.7038 2.2243 -2.4953 0.2225 0 8
10.6667 2.3960 -2.4953 0.2225 0 8
10.6269 2.5670 -2.4953 0.2225 0 8
10.5842 2.7374 -2.4953 0.2225 0 8
10.5389 2.9071 -2.4953 0.2225 0 8
10.4908 3.0760 -2.4953 0.2225 0 8
10.4401 3.2442 -2.4953 0.2225 0 8
10.3866 3.4115 -2.4953 0.2225 0 8
10.3305 3.5779 -2.4953 0.2225 0 8
10.2716 3.7434 -2.4953 0.2225 0 8
10.2102 3.9079 -2.4953 0.2225 0 8
10.1461 4.0715 -2.4953 0.2225 0 8
10.0794 4.2339 -2.4953 0.2225 0 8
10.0100 4.3953 -2.4953 0.2225 0 8
9.9381 4.5555 -2.4953 0.2225 0 8
9.8637 4.7146 -2.4953 0.2225 0 8
9.7867 4.8725 -2.4953 0.2225 0 8
9.7071 5.0291 -2.4953 0.2225 0 8
9.6251 5.1844 -2.4953 0.2225 0 8
9.5405 5.3383 -2.4953 0.2225 0 8
9.4535 5.4909 -2.4953 0.2225 0 8
9.3641 5.6421 -2.4953 0.2225 0 8
9.2723 5.7918 -2.4953 0.2225 0 8
9.1780 5.9400 -2.4953 0.2225 0 8
9.0814 6.0867 -2.4953 0.2225 0 8
8.9825 6.2318 -2.4953 0.2225 0 8
8.8812 6.3753 -2.4953 0.2225 0 8
8.7776 6.5171 -2.4953 0.2225 0 8
8.6718 6.6573 -2.4953 0.2225 0 8
8.5637 6.7958 -2.4953 0.2225 0 8
8.4534 6.9325 -2.4953 0.2225 0 8
8.3410 7.0674 -2.4953 0.2225 0 8
8.2264 7.2005 -2.4953 0.2225 0 8
8.1096 7.3317 -2.4953 0.2225 0 8
7.9908 7.4610 -2.4953 0.2225 0 8
7.8699 7.5884 -2.4953 0.2225 0 8
7.7470 7.7139 -2.4953 0.2225 0 8
7.6220 7.8373 -2.4953 0.2225 0 8
7.4952 7.9588 -2.4953 0.2225 0 8
7.3663 8.0782 -2.4953 0.2225 0 8
7.2356 8.1955 -2.4953 0.2225 0 8
7.1030 8.3107 -2.4953 0.2225 0 8
6.9686 8.4237 -2.4953 0.2225 0 8
7.2496 9.0558 -2.6477 0.2225 0 7
7.1032 9.1711 -2.6477 0.2225 0 7
6.9550 9.2840 -2.6477 0.2225 0 7
6.8049 9.3946 -2.6477 0.2225 0 7
6.6531 9.5027 -2.6477 0.2225 0 7
6.4996 9.6083 -2.6477 0.2225 0 7
6.3444 9.7115 -2.6477 0.2225 0 7
6.1876 9.8122 -2.6477 0.2225 0 7
6.0291 9.9103 -2.6477 0.2225 0 7
5.8691 10.0059 -2.6477 0.2225 0 7
5.7076 10.0989 -2.6477 0.2225 0 7
5.5447 10.1893 -2.6477 0.2225 0 7
5.3802 10.2770 -2.6477 0.2225 0 7
5.2145 10.3622 -2.6477 0.2225 0 7
5.0473 10.4446 -2.6477 0.2225 0 7
4.8789 10.5243 -2.6477 0.2225 0 7
4.7092 10.6013 -2.6477 0.2225 0 7
4.5382 10.6756 -2.6477 0.2225 0 7
4.3661 10.7472 -2.6477 0.2225 0 7
4.1929 10.8159 -2.6477 0.2225 0 7
4.0186 10.8819 -2.6477 0.2225 0 7
3.8433 10.9450 -2.6477 0.2225 0 7
3.6670 11.0054 -2.6477 0.2225 0 7
3.4897 11.0629 -2.6477 0.2225 0 7
3.3115 11.1175 -2.6477 0.2225 0 7
3.1325 11.1693 -2.6477 0.2225 0 7
2.9526 11.2181 -2.6477 0.2225 0 7
2.7720 11.2641 -2.6477 0.2225 0 7
2.5907 11.3072 -2.6477 0.2225 0 7
2.4087 11.3474 -2.6477 0.2225 0 7
2.2261 11.3846 -2.6477 0.2225 0 6
2.0430 11.4189 -2.6477 0.2225 0 6
1.8592 11.4502 -2.6477 0.2225 0 6
1.6750 11.4786 -2.6477 0.2225 0 6
1.4904 11.5041 -2.6477 0.2225 0 7
1.3054 11.5265 -2.6477 0.2225 0 7
1.1201 11.5460 -2.6477 0.2225 0 7
0.9344 11.5625 -2.6477 0.2225 0 7
0.7486 11.5760 -2.6477 0.2225 0 7
0.5625 11.5866 -2.6477 0.2225 0 7
0.3763 11.5941 -2.6477 0.2225 0 7
0.1900 11.5986 -2.6477 0.2225 0 7
0.0036 11.6002 -2.6477 0.2225 0 7
-0.1827 11.5988 -2.6477 0.2225 0 7
-0.3691 11.5943 -2.6477 0.2225 0 7
-0.5553 11.5869 -2.6477 0.2225 0 7
-0.7413 11.5765 -2.6477 0.2225 0 7
-0.9272 11.5631 -2.6477 0.2225 0 7
-1.1129 11.5467 -2.6477 0.2225 0 7
-1.2982 11.5273 -2.6477 0.2225 0 7
-1.4833 11.5050 -2.6477 0.2225 0 7
-1.6678 11.4797 -2.6477 0.2225 0 6
-1.8520 11.4514 -2.6477 0.2225 0 6
-2.0358 11.4202 -2.6477 0.2225 0 6
-2.2190 11.3860 -2.6477 0.2225 0 6
-2.4017 11.3489 -2.6477 0.2225 0 7
-2.5837 11.3088 -2.6477 0.2225 0 7
-2.7650 11.2659 -2.6477 0.2225 0 7
-2.9456 11.2200 -2.6477 0.2225 0 7
-3.1255 11.1712 -2.6477 0.2225 0 7
-3.3046 11.1196 -2.6477 0.2225 0 7
-3.4828 11.0650 -2.6477 0.2225 0 7
-3.6601 11.0077 -2.6477 0.2225 0 7
-3.8365 10.9474 -2.6477 0.2225 0 7
-4.0118 10.8844 -2.6477 0.2225 0 7
-4.1862 10.8185 -2.6477 0.2225 0 7
-4.3594 10.7499 -2.6477 0.2225 0 7
-4.5316 10.6785 -2.6477 0.2225 0 7
-4.7025 10.6043 -2.6477 0.2225 0 7
-4.8723 10.5274 -2.6477 0.2225 0 7
-5.0408 10.4477 -2.6477 0.2225 0 7
-5.2080 10.3654 -2.6477 0.2225 0 7
-5.3738 10.2804 -2.6477 0.2225 0 7
-5.5383 10.1928 -2.6477 0.2225 0 7
-5.7013 10.1025 -2.6477 0.2225 0 7
-5.8629 10.0096 -2.6477 0.2225 0 7
-6.0229 9.9141 -2.6477 0.2225 0 7
-6.1814 9.8160 -2.6477 0.2225 0 7
7.9784 -6.8697 -2.4953 0.2306 0 8
8.0877 -6.7406 -2.4953 0.2306 0 8
8.1950 -6.6098 -2.4953 0.2306 0 8
8.3001 -6.4773 -2.4953 0.2306 0 8
8.4031 -6.3431 -2.4953 0.2306 0 8
8.5039 -6.2073 -2.4953 0.2306 0 8
8.6025 -6.0699 -2.4953 0.2306 0 8
8.6989 -5.9309 -2.4953 0.2306 0 8
8.7931 -5.7904 -2.4953 0.2306 0 8
8.8850 -5.6484 -2.4953 0.2306 0 8
8.9746 -5.5049 -2.4953 0.2306 0 8
9.0618 -5.3600 -2.4953 0.2306 0 8
9.1468 -5.2137 -2.4953 0.2306 0 8
9.2294 -5.0661 -2.4953 0.2306 0 8
9.3096 -4.9172 -2.4953 0.2306 0 8
9.3874 -4.7668 -2.4953 0.2306 0 8
9.4627 -4.6156 -2.4953 0.2306 0 8
9.5357 -4.4630 -2.4953 0.2306 0 8
9.6061 -4.3092 -2.4953 0.2306 0 8
9.6741 -4.1543 -2.4953 0.2306 0 8
9.7396 -3.9984 -2.4953 0.2306 0 8
9.8026 -3.8414 -2.4953 0.2306 0 8
9.8630 -3.6834 -2.4953 0.2306 0 8
9.9209 -3.5245 -2.4953 0.2306 0 8
9.9763 -3.3646 -2.4953 0.2306 0 8
10.0290 -3.2039 -2.4953 0.2306 0 8
10.0792 -3.0424 -2.4953 0.2306 0 8
10.1268 -2.8801 -2.4953 0.2306 0 8
10.1718 -2.7170 -2.4953 0.2306 0 8
10.2141 -2.5533 -2.4953 0.2306 0 8
10.2538 -2.3888 -2.4953 0.2306 0 8
10.2908 -2.2238 -2.4953 0.2306 0 8
10.3252 -2.0582 -2.4953 0.2306 0 8
10.3570 -1.8921 -2.4953 0.2306 0 8
10.3860 -1.7254 -2.4953 0.2306 0 8
10.4124 -1.5583 -2.4953 0.2306 0 8
10.4361 -1.3909 -2.4953 0.2306 0 8
10.4571 -1.2230 -2.4953 0.2306 0 8
7.9277 -0.7983 -1.8884 0.4528 25 10
7.6778 -0.6488 -1.8262 0.8502 25 10
7.6224 -0.5209 -1.8108 0.8575 25 10
7.5851 -0.3960 -1.8001 0.9377 25 10
7.5645 -0.2732 -1.7940 0.9663 25 10
7.5572 -0.1514 -1.7914 0.9677 25 10
7.5499 -0.0300 -1.7894 0.9688 25 10
7.5536 0.0914 -1.7904 0.9683 25 10
7.5609 0.2130 -1.7927 0.9670 25 10
7.5724 0.3351 -1.7964 0.9397 25 10
7.5984 0.4587 -1.8041 0.9192 25 10
7.6503 0.5853 -1.8185 0.8538 25 10
7.7636 0.7196 -1.8479 0.2822 25 10
8.2178 0.8951 -1.9592 0.1847 25 10
10.4468 1.3080 -2.4953 0.2306 0 8
10.4244 1.4757 -2.4953 0.2306 0 8
10.3994 1.6430 -2.4953 0.2306 0 8
10.3717 1.8098 -2.4953 0.2306 0 8
10.3412 1.9762 -2.4953 0.2306 0 8
10.3082 2.1421 -2.4953 0.2306 0 8
10.2724 2.3074 -2.4953 0.2306 0 8
10.2340 2.4721 -2.4953 0.2306 0 8
10.1930 2.6362 -2.4953 0.2306 0 8
10.1493 2.7996 -2.4953 0.2306 0 8
10.1030 2.9623 -2.4953 0.2306 0 8
10.0541 3.1243 -2.4953 0.2306 0 8
10.0027 3.2854 -2.4953 0.2306 0 8
9.9486 3.4456 -2.4953 0.2306 0 8
9.8919 3.6050 -2.4953 0.2306 0 8
9.8328 3.7635 -2.4953 0.2306 0 8
9.7710 3.9210 -2.4953 0.2306 0 8
9.7068 4.0774 -2.4953 0.2306 0 8
9.6400 4.2328 -2.4953 0.2306 0 8
9.5708 4.3872 -2.4953 0.2306 0 8
9.4991 4.5403 -2.4953 0.2306 0 8
9.4249 4.6924 -2.4953 0.2306 0 8
9.3483 4.8432 -2.4953 0.2306 0 8
9.2693 4.9927 -2.4953 0.2306 0 8
9.1879 5.1410 -2.4953 0.2306 0 8
9.1041 5.2879 -2.4953 0.2306 0 8
9.0180 5.4335 -2.4953 0.2306 0 8
8.9295 5.5777 -2.4953 0.2306 0 8
8.8388 5.7204 -2.4953 0.2306 0 8
8.7457 5.8617 -2.4953 0.2306 0 8
8.6504 6.0014 -2.4953 0.2306 0 8
8.5529 6.1396 -2.4953 0.2306 0 8
8.4531 6.2762 -2.4953 0.2306 0 8
8.3512 6.4112 -2.4953 0.2306 0 8
8.2472 6.5446 -2.4953 0.2306 0 8
8.1410 6.6762 -2.4953 0.2306 0 8
8.0326 6.8061 -2.4953 0.2306 0 8
7.9223 6.9343 -2.4953 0.2306 0 8
7.8098 7.0607 -2.4953 0.2306 0 8
7.6954 7.1852 -2.4953 0.2306 0 8
7.5790 7.3079 -2.4953 0.2306 0 8
7.4606 7.4287 -2.4953 0.2306 0 8
7.3403 7.5476 -2.4953 0.2306 0 8
7.2181 7.6646 -2.4953 0.2306 0 8
7.0940 7.7796 -2.4953 0.2306 0 8
6.9681 7.8925 -2.4953 0.2306 0 8
6.8404 8.0034 -2.4953 0.2306 0 8
6.7110 8.1123 -2.4953 0.2306 0 8
6.5798 8.2191 -2.4953 0.2306 0 8
6.4519 8.3302 -2.4972 0.7059 0 8
6.3123 8.4262 -2.4953 0.2306 0 8
6.5534 9.0473 -2.6477 0.2306 0 7
6.4072 9.1514 -2.6477 0.2306 0 7
6.2593 9.2532 -2.6477 0.2306 0 7
6.1099 9.3525 -2.6477 0.2306 0 7
5.9588 9.4495 -2.6477 0.2306 0 7
5.8063 9.5440 -2.6477 0.2306 0 7
5.6522 9.6360 -2.6477 0.2306 0 7
5.4967 9.7256 -2.6477 0.2306 0 7
5.3397 9.8126 -2.6477 0.2306 0 7
5.1814 9.8972 -2.6477 0.2306 0 7
5.0217 9.9791 -2.6477 0.2306 0 7
4.8607 10.0585 -2.6477 0.2306 0 7
4.6985 10.1353 -2.6477 0.2306 0 7
4.5351 10.2095 -2.6477 0.2306 0 7
4.3705 10.2810 -2.6477 0.2306 0 7
4.2048 10.3499 -2.6477 0.2306 0 7
4.0379 10.4161 -2.6477 0.2306 0 7
3.8701 10.4796 -2.6477 0.2306 0 7
3.7012 10.5405 -2.6477 0.2306 0 7
3.5314 10.5986 -2.6477 0.2306 0 7
3.3607 10.6539 -2.6477 0.2306 0 7
3.1891 10.7065 -2.6477 0.2306 0 7
3.0167 10.7564 -2.6477 0.2306 0 7
2.8435 10.8035 -2.6477 0.2306 0 7
2.6696 10.8477 -2.6477 0.2306 0 7
2.4950 10.8892 -2.6477 0.2306 0 7
2.3197 10.9279 -2.6477 0.2306 0 7
2.1438 10.9638 -2.6477 0.2306 0 7
1.9674 10.9968 -2.6477 0.2306 0 7
1.7905 11.0270 -2.6477 0.2306 0 7
1.6131 11.0543 -2.6477 0.2306 0 7
1.4353 11.0788 -2.6477 0.2306 0 7
1.2572 11.1004 -2.6477 0.2306 0 7
1.0787 11.1192 -2.6477 0.2306 0 7
0.8999 11.1351 -2.6477 0.2306 0 7
0.7209 11.1481 -2.6477 0.2306 0 7
0.5417 11.1583 -2.6477 0.2306 0 7
0.3624 11.1655 -2.6477 0.2306 0 7
0.1830 11.1699 -2.6477 0.2306 0 7
0.0035 11.1714 -2.6477 0.2306 0 7
-0.1760 11.1700 -2.6477 0.2306 0 7
-0.3554 11.1657 -2.6477 0.2306 0 7
-0.5347 11.1586 -2.6477 0.2306 0 7
-0.7139 11.1486 -2.6477 0.2306 0 7
-0.8929 11.1357 -2.6477 0.2306 0 7
-1.0717 11.1199 -2.6477 0.2306 0 7
-1.2502 11.1012 -2.6477 0.2306 0 7
-1.4284 11.0797 -2.6477 0.2306 0 7
-1.6062 11.0553 -2.6477 0.2306 0 7
-1.7836 11.0281 -2.6477 0.2306 0 7
-1.9606 10.9980 -2.6477 0.2306 0 7
-2.1370 10.9651 -2.6477 0.2306 0 7
-2.3129 10.9294 -2.6477 0.2306 0 7
-2.4882 10.8908 -2.6477 0.2306 0 7
-2.6628 10.8494 -2.6477 0.2306 0 7
-2.8368 10.8052 -2.6477 0.2306 0 7
-3.0100 10.7583 -2.6477 0.2306 0 7
-3.1824 10.7085 -2.6477 0.2306 0 7
-3.3540 10.6560 -2.6477 0.2306 0 7
-3.5248 10.6008 -2.6477 0.2306 0 7
-3.6947 10.5428 -2.6477 0.2306 0 7
-3.8635 10.4820 -2.6477 0.2306 0 7
-4.0314 10.4186 -2.6477 0.2306 0 7
-4.1983 10.3525 -2.6477 0.2306 0 7
-4.3641 10.2837 -2.6477 0.2306 0 7
-4.5287 10.2123 -2.6477 0.2306 0 7
-4.6922 10.1382 -2.6477 0.2306 0 7
-4.8545 10.0615 -2.6477 0.2306 0 7
-5.0155 9.9823 -2.6477 0.2306 0 7
-5.1752 9.9004 -2.6477 0.2306 0 7
-5.3336 9.8160 -2.6477 0.2306 0 7
-5.4906 9.7290 -2.6477 0.2306 0 7
-5.6462 9.6396 -2.6477 0.2306 0 7
-5.8003 9.5476 -2.6477 0.2306 0 7
-5.9529 9.4532 -2.6477 0.2306 0 7
7.6929 -6.6238 -2.4953 0.2387 0 8
7.7983 -6.4994 -2.4953 0.2387 0 8
7.9017 -6.3733 -2.4953 0.2387 0 8
8.0031 -6.2455 -2.4953 0.2387 0 8
8.1024 -6.1161 -2.4953 0.2387 0 8
8.1996 -5.9852 -2.4953 0.2387 0 8
8.2947 -5.8527 -2.4953 0.2387 0 8
8.3876 -5.7187 -2.4953 0.2387 0 8
8.4784 -5.5832 -2.4953 0.2387 0 8
8.5670 -5.4462 -2.4953 0.2387 0 8
8.6534 -5.3079 -2.4953 0.2387 0 8
8.7376 -5.1682 -2.4953 0.2387 0 8
8.8195 -5.0272 -2.4953 0.2387 0 8
8.8991 -4.8848 -2.4953 0.2387 0 8
8.9764 -4.7412 -2.4953 0.2387 0 8
9.0514 -4.5964 -2.4953 0.2387 0 8
9.1241 -4.4504 -2.4953 0.2387 0 8
9.1944 -4.3033 -2.4953 0.2387 0 8
9.2624 -4.1550 -2.4953 0.2387 0 8
9.3279 -4.0057 -2.4953 0.2387 0 8
9.3911 -3.8553 -2.4953 0.2387 0 8
9.4518 -3.7039 -2.4953 0.2387 0 8
9.5101 -3.5516 -2.4953 0.2387 0 8
9.5659 -3.3984 -2.4953 0.2387 0 8
9.6193 -3.2442 -2.4953 0.2387 0 8
9.6702 -3.0893 -2.4953 0.2387 0 8
9.7185 -2.9335 -2.4953 0.2387 0 8
9.7644 -2.7770 -2.4953 0.2387 0 8
9.8078 -2.6198 -2.4953 0.2387 0 8
9.8486 -2.4619 -2.4953 0.2387 0 8
9.8869 -2.3034 -2.4953 0.2387 0 8
9.9226 -2.1442 -2.4953 0.2387 0 8
9.9558 -1.9846 -2.4953 0.2387 0 8
9.9864 -1.8244 -2.4953 0.2387 0 8
10.0144 -1.6637 -2.4953 0.2387 0 8
10.0398 -1.5026 -2.4953 0.2387 0 8
10.0627 -1.3411 -2.4953 0.2387 0 8
10.0829 -1.1793 -2.4953 0.2387 0 8
7.9130 -0.7968 -1.9548 0.4528 25 10
7.6888 -0.6497 -1.8966 0.7645 25 10
7.6250 -0.5211 -1.8786 0.8555 25 10
7.5862 -0.3961 -1.8672 0.9193 25 10
7.5651 -0.2732 -1.8607 0.9643 25 10
7.5578 -0.1514 -1.8581 0.9657 25 10
7.5592 -0.0300 -1.8581 0.9269 25 10
7.5574 0.0914 -1.8578 0.9271 25 10
7.5615 0.2130 -1.8594 0.9650 25 10
7.5734 0.3352 -1.8634 0.9376 25 10
7.6016 0.4589 -1.8719 0.9170 25 10
7.6530 0.5855 -1.8866 0.8518 25 10
7.8009 0.7231 -1.9257 0.4596 25 10
8.1769 0.8906 -2.0218 0.1853 25 10
10.0730 1.2612 -2.4953 0.2387 0 8
10.0514 1.4229 -2.4953 0.2387 0 8
10.0273 1.5842 -2.4953 0.2387 0 8
10.0005 1.7451 -2.4953 0.2387 0 8
9.9712 1.9055 -2.4953 0.2387 0 8
9.9393 2.0654 -2.4953 0.2387 0 8
9.9048 2.2248 -2.4953 0.2387 0 8
9.8678 2.3837 -2.4953 0.2387 0 8
9.8283 2.5419 -2.4953 0.2387 0 8
9.7861 2.6995 -2.4953 0.2387 0 8
9.7415 2.8563 -2.4953 0.2387 0 8
9.6944 3.0125 -2.4953 0.2387 0 8
9.6447 3.1678 -2.4953 0.2387 0 8
9.5926 3.3223 -2.4953 0.2387 0 8
9.5380 3.4760 -2.4953 0.2387 0 8
9.4809 3.6288 -2.4953 0.2387 0 8
9.4214 3.7806 -2.4953 0.2387 0 8
9.3594 3.9315 -2.4953 0.2387 0 8
9.2951 4.0814 -2.4953 0.2387 0 8
9.2283 4.2302 -2.4953 0.2387 0 8
9.1591 4.3779 -2.4953 0.2387 0 8
9.0876 4.5245 -2.4953 0.2387 0 8
9.0138 4.6699 -2.4953 0.2387 0 8
8.9376 4.8141 -2.4953 0.2387 0 8
8.8591 4.9570 -2.4953 0.2387 0 8
8.7783 5.0987 -2.4953 0.2387 0 8
8.6953 5.2391 -2.4953 0.2387 0 8
8.6100 5.3781 -2.4953 0.2387 0 8
8.5225 5.5157 -2.4953 0.2387 0 8
8.4328 5.6519 -2.4953 0.2387 0 8
8.3409 5.7867 -2.4953 0.2387 0 8
8.2468 5.9199 -2.4953 0.2387 0 8
8.1507 6.0516 -2.4953 0.2387 0 8
8.0524 6.1818 -2.4953 0.2387 0 8
7.9520 6.3104 -2.4953 0.2387 0 8
7.8496 6.4373 -2.4953 0.2387 0 8
7.7452 6.5626 -2.4953 0.2387 0 8
7.6388 6.6862 -2.4953 0.2387 0 8
7.5304 6.8080 -2.4953 0.2387 0 8
7.4200 6.9281 -2.4953 0.2387 0 8
7.3078 7.0464 -2.4953 0.2387 0 8
7.1936 7.1629 -2.4953 0.2387 0 8
7.0776 7.2776 -2.4953 0.2387 0 8
6.9598 7.3903 -2.4953 0.2387 0 8
6.8402 7.5012 -2.4953 0.2387 0 8
6.7188 7.6101 -2.4953 0.2387 0 8
6.5957 7.7171 -2.4953 0.2387 0 8
6.4708 7.8220 -2.4953 0.2387 0 8
6.3443 7.9250 -2.4953 0.2387 0 8
6.2162 8.0259 -2.4953 0.2387 0 8
6.0865 8.1247 -2.4953 0.2387 0 8
5.9552 8.2214 -2.4953 0.2387 0 8
5.8223 8.3160 -2.4953 0.2387 0 8
5.6880 8.4085 -2.4953 0.2387 0 8
5.8912 9.0179 -2.6477 0.2387 0 7
5.7456 9.1113 -2.6477 0.2387 0 7
5.5985 9.2025 -2.6477 0.2387 0 7
5.4499 9.2912 -2.6477 0.2387 0 7
5.3000 9.3776 -2.6477 0.2387 0 7
5.1486 9.4615 -2.6477 0.2387 0 7
4.9960 9.5430 -2.6477 0.2387 0 7
4.8420 9.6220 -2.6477 0.2387 0 7
4.6868 9.6986 -2.6477 0.2387 0 7
4.5304 9.7726 -2.6477 0.2387 0 7
4.3728 9.8441 -2.6477 0.2387 0 7
4.2141 9.9131 -2.6477 0.2387 0 7
4.0543 9.9795 -2.6477 0.2387 0 7
3.8934 10.0434 -2.6477 0.2387 0 7
3.7316 10.1046 -2.6477 0.2387 0 7
3.5688 10.1633 -2.6477 0.2387 0 7
3.4050 10.2193 -2.6477 0.2387 0 7
3.2404 10.2727 -2.6477 0.2387 0 7
3.0750 10.3234 -2.6477 0.2387 0 7
2.9087 10.3715 -2.6477 0.2387 0 7
2.7417 10.4169 -2.6477 0.2387 0 7
2.5740 10.4596 -2.6477 0.2387 0 7
2.4057 10.4996 -2.6477 0.2387 0 7
2.2367 10.5369 -2.6477 0.2387 0 7
2.0671 10.5715 -2.6477 0.2387 0 7
1.8970 10.6033 -2.6477 0.2387 0 7
1.7264 10.6324 -2.6477 0.2387 0 7
1.5554 10.6588 -2.6477 0.2387 0 7
1.3840 10.6824 -2.6477 0.2387 0 7
1.2122 10.7032 -2.6477 0.2387 0 7
1.0401 10.7213 -2.6477 0.2387 0 7
0.8677 10.7366 -2.6477 0.2387 0 7
0.6951 10.7492 -2.6477 0.2387 0 7
0.5223 10.7590 -2.6477 0.2387 0 7
0.3494 10.7660 -2.6477 0.2387 0 7
0.1764 10.7702 -2.6477 0.2387 0 7
0.0034 10.7717 -2.6477 0.2387 0 7
-0.1697 10.7703 -2.6477 0.2387 0 7
-0.3427 10.7662 -2.6477 0.2387 0 7
-0.5156 10.7593 -2.6477 0.2387 0 7
-0.6884 10.7496 -2.6477 0.2387 0 7
-0.8610 10.7372 -2.6477 0.2387 0 7
-1.0334 10.7220 -2.6477 0.2387 0 7
-1.2055 10.7040 -2.6477 0.2387 0 7
-1.3773 10.6832 -2.6477 0.2387 0 7
-1.5488 10.6597 -2.6477 0.2387 0 7
-1.7198 10.6335 -2.6477 0.2387 0 7
-1.8904 10.6045 -2.6477 0.2387 0 7
-2.0605 10.5727 -2.6477 0.2387 0 7
-2.2301 10.5383 -2.6477 0.2387 0 7
-2.3991 10.5011 -2.6477 0.2387 0 7
-2.5675 10.4612 -2.6477 0.2387 0 7
-2.7353 10.4186 -2.6477 0.2387 0 7
-2.9023 10.3733 -2.6477 0.2387 0 7
-3.0685 10.3253 -2.6477 0.2387 0 7
-3.2340 10.2747 -2.6477 0.2387 0 7
-3.3987 10.2214 -2.6477 0.2387 0 7
-3.5624 10.1655 -2.6477 0.2387 0 7
-3.7253 10.1070 -2.6477 0.2387 0 7
-3.8872 10.0458 -2.6477 0.2387 0 7
-4.0481 9.9821 -2.6477 0.2387 0 7
-4.2079 9.9157 -2.6477 0.2387 0 7
-4.3667 9.8469 -2.6477 0.2387 0 7
-4.5243 9.7754 -2.6477 0.2387 0 7
-4.6808 9.7015 -2.6477 0.2387 0 7
-4.8360 9.6251 -2.6477 0.2387 0 7
-4.9900 9.5461 -2.6477 0.2387 0 7
-5.1427 9.4647 -2.6477 0.2387 0 7
-5.2941 9.3809 -2.6477 0.2387 0 7
-5.4441 9.2946 -2.6477 0.2387 0 7
-5.5928 9.2060 -2.6477 0.2387 0 7
-5.7399 9.1149 -2.6477 0.2387 0 7
7.4261 -6.3941 -2.4953 0.2468 0 8
7.5278 -6.2740 -2.4953 0.2468 0 8
7.6277 -6.1522 -2.4953 0.2468 0 8
7.7255 -6.0289 -2.4953 0.2468 0 8
7.8214 -5.9040 -2.4953 0.2468 0 8
7.9152 -5.7776 -2.4953 0.2468 0 8
8.0070 -5.6497 -2.4953 0.2468 0 8
8.0967 -5.5203 -2.4953 0.2468 0 8
8.1844 -5.3895 -2.4953 0.2468 0 8
8.2699 -5.2574 -2.4953 0.2468 0 8
8.3533 -5.1238 -2.4953 0.2468 0 8
8.4345 -4.9890 -2.4953 0.2468 0 8
8.5136 -4.8528 -2.4953 0.2468 0 8
8.5905 -4.7154 -2.4953 0.2468 0 8
8.6651 -4.5768 -2.4953 0.2468 0 8
8.7375 -4.4370 -2.4953 0.2468 0 8
8.8077 -4.2961 -2.4953 0.2468 0 8
8.8755 -4.1540 -2.4953 0.2468 0 8
8.9411 -4.0109 -2.4953 0.2468 0 8
9.0044 -3.8667 -2.4953 0.2468 0 8
9.0654 -3.7216 -2.4953 0.2468 0 8
9.1240 -3.5754 -2.4953 0.2468 0 8
9.1803 -3.4284 -2.4953 0.2468 0 8
9.2341 -3.2805 -2.4953 0.2468 0 8
9.2857 -3.1317 -2.4953 0.2468 0 8
9.3348 -2.9821 -2.4953 0.2468 0 8
9.3815 -2.8318 -2.4953 0.2468 0 8
9.4258 -2.6807 -2.4953 0.2468 0 8
9.4676 -2.5289 -2.4953 0.2468 0 8
9.5070 -2.3765 -2.4953 0.2468 0 8
9.5440 -2.2235 -2.4953 0.2468 0 8
9.5785 -2.0699 -2.4953 0.2468 0 8
9.6105 -1.9157 -2.4953 0.2468 0 8
9.6400 -1.7611 -2.4953 0.2468 0 8
9.6671 -1.6060 -2.4953 0.2468 0 8
9.6916 -1.4505 -2.4953 0.2468 0 8
9.7137 -1.2946 -2.4953 0.2468 0 8
9.7332 -1.1384 -2.4953 0.2468 0 8
7.9132 -0.7969 -2.0251 0.3967 25 10
7.7022 -0.6508 -1.9682 0.7616 25 10
7.6280 -0.5213 -1.9469 0.7699 25 10
7.5893 -0.3963 -1.9351 0.9170 25 10
7.5658 -0.2732 -1.9277 0.9622 25 10
7.5657 -0.1516 -1.9268 0.9240 25 10
7.5692 -0.0300 -1.9274 0.9238 25 10
7.5674 0.0916 -1.9270 0.9239 25 10
7.5639 0.2131 -1.9268 0.9240 25 10
7.5744 0.3352 -1.9306 0.9356 25 10
7.6047 0.4591 -1.9399 0.9147 25 10
7.6653 0.5865 -1.9575 0.7657 25 10
7.7929 0.7223 -1.9928 0.4032 25 10
8.2588 0.8996 -2.1154 0.9930 25 10
9.7236 1.2175 -2.4953 0.2468 0 8
9.7028 1.3735 -2.4953 0.2468 0 8
9.6795 1.5292 -2.4953 0.2468 0 8
9.6537 1.6845 -2.4953 0.2468 0 8
9.6254 1.8394 -2.4953 0.2468 0 8
9.5946 1.9938 -2.4953 0.2468 0 8
9.5613 2.1477 -2.4953 0.2468 0 8
9.5256 2.3010 -2.4953 0.2468 0 8
9.4874 2.4537 -2.4953 0.2468 0 8
9.4467 2.6058 -2.4953 0.2468 0 8
9.4036 2.7573 -2.4953 0.2468 0 8
9.3581 2.9080 -2.4953 0.2468 0 8
9.3102 3.0579 -2.4953 0.2468 0 8
9.2599 3.2071 -2.4953 0.2468 0 8
9.2072 3.3555 -2.4953 0.2468 0 8
9.1521 3.5029 -2.4953 0.2468 0 8
9.0946 3.6495 -2.4953 0.2468 0 8
9.0348 3.7952 -2.4953 0.2468 0 8
8.9727 3.9398 -2.4953 0.2468 0 8
8.9082 4.0834 -2.4953 0.2468 0 8
8.8415 4.2260 -2.4953 0.2468 0 8
8.7724 4.3675 -2.4953 0.2468 0 8
8.7011 4.5079 -2.4953 0.2468 0 8
8.6276 4.6471 -2.4953 0.2468 0 8
8.5518 4.7851 -2.4953 0.2468 0 8
8.4739 4.9219 -2.4953 0.2468 0 8
8.3937 5.0574 -2.4953 0.2468 0 8
8.3114 5.1916 -2.4953 0.2468 0 8
8.2269 5.3244 -2.4953 0.2468 0 8
8.1403 5.4559 -2.4953 0.2468 0 8
8.0516 5.5860 -2.4953 0.2468 0 8
7.9608 5.7146 -2.4953 0.2468 0 8
7.8680 5.8417 -2.4953 0.2468 0 8
7.7731 5.9674 -2.4953 0.2468 0 8
7.6762 6.0915 -2.4953 0.2468 0 8
7.5774 6.2140 -2.4953 0.2468 0 8
7.4766 6.3350 -2.4953 0.2468 0 8
7.3738 6.4543 -2.4953 0.2468 0 8
7.2692 6.5719 -2.4953 0.2468 0 8
7.1627 6.6878 -2.4953 0.2468 0 8
7.0543 6.8020 -2.4953 0.2468 0 8
6.9441 6.9145 -2.4953 0.2468 0 8
6.8322 7.0251 -2.4953 0.2468 0 8
6.7184 7.1340 -2.4953 0.2468 0 8
6.6029 7.2410 -2.4953 0.2468 0 8
6.4858 7.3462 -2.4953 0.2468 0 8
6.3669 7.4494 -2.4953 0.2468 0 8
6.2464 7.5507 -2.4953 0.2468 0 8
6.1243 7.6501 -2.4953 0.2468 0 8
6.0006 7.7475 -2.4953 0.2468 0 8
5.8754 7.8429 -2.4953 0.2468 0 8
5.7486 7.9363 -2.4953 0.2468 0 8
5.6204 8.0276 -2.4953 0.2468 0 8
5.4907 8.1169 -2.4953 0.2468 0 8
5.3596 8.2040 -2.4953 0.2468 0 8
5.2271 8.2891 -2.4953 0.2468 0 8
5.0932 8.3720 -2.4953 0.2468 0 8
4.9581 8.4527 -2.4953 0.2468 0 8
5.1161 9.0523 -2.6477 0.2468 0 7
4.9701 9.1334 -2.6477 0.2468 0 7
4.8227 9.2120 -2.6477 0.2468 0 7
4.6741 9.2883 -2.6477 0.2468 0 7
4.5242 9.3622 -2.6477 0.2468 0 7
4.3733 9.4337 -2.6477 0.2468 0 7
4.2211 9.5027 -2.6477 0.2468 0 7
4.0679 9.5693 -2.6477 0.2468 0 7
3.9137 9.6334 -2.6477 0.2468 0 7
3.7584 9.6950 -2.6477 0.2468 0 7
3.6022 9.7542 -2.6477 0.2468 0 7
3.4450 9.8108 -2.6477 0.2468 0 7
3.2870 9.8649 -2.6477 0.2468 0 7
3.1280 9.9164 -2.6477 0.2468 0 7
2.9683 9.9654 -2.6477 0.2468 0 7
2.8079 10.0118 -2.6477 0.2468 0 7
2.6467 10.0556 -2.6477 0.2468 0 7
2.4848 10.0968 -2.6477 0.2468 0 7
2.3222 10.1354 -2.6477 0.2468 0 7
2.1591 10.1714 -2.6477 0.2468 0 7
1.9954 10.2048 -2.6477 0.2468 0 7
1.8312 10.2355 -2.6477 0.2468 0 7
1.6666 10.2636 -2.6477 0.2468 0 7
1.5015 10.2891 -2.6477 0.2468 0 7
1.3360 10.3119 -2.6477 0.2468 0 7
1.1701 10.3320 -2.6477 0.2468 0 7
1.0040 10.3495 -2.6477 0.2468 0 7
0.8376 10.3643 -2.6477 0.2468 0 7
0.6710 10.3764 -2.6477 0.2468 0 7
0.5042 10.3858 -2.6477 0.2468 0 7
0.3373 10.3926 -2.6477 0.2468 0 7
0.1703 10.3967 -2.6477 0.2468 0 7
0.0032 10.3981 -2.6477 0.2468 0 7
-0.1638 10.3968 -2.6477 0.2468 0 7
-0.3308 10.3928 -2.6477 0.2468 0 7
-0.4977 10.3861 -2.6477 0.2468 0 7
-0.6645 10.3768 -2.6477 0.2468 0 7
-0.8311 10.3648 -2.6477 0.2468 0 7
-0.9975 10.3501 -2.6477 0.2468 0 7
-1.1637 10.3327 -2.6477 0.2468 0 7
-1.3295 10.3127 -2.6477 0.2468 0 7
-1.4950 10.2900 -2.6477 0.2468 0 7
-1.6602 10.2647 -2.6477 0.2468 0 7
-1.8248 10.2367 -2.6477 0.2468 0 7
-1.9891 10.2060 -2.6477 0.2468 0 7
-2.1528 10.1728 -2.6477 0.2468 0 7
-2.3159 10.1369 -2.6477 0.2468 0 7
-2.4785 10.0984 -2.6477 0.2468 0 7
-2.6404 10.0572 -2.6477 0.2468 0 7
-2.8016 10.0135 -2.6477 0.2468 0 7
-2.9621 9.9672 -2.6477 0.2468 0 7
-3.1219 9.9183 -2.6477 0.2468 0 7
-3.2808 9.8669 -2.6477 0.2468 0 7
-3.4389 9.8129 -2.6477 0.2468 0 7
-3.5961 9.7564 -2.6477 0.2468 0 7
-3.7524 9.6974 -2.6477 0.2468 0 7
-3.9077 9.6359 -2.6477 0.2468 0 7
-4.0620 9.5718 -2.6477 0.2468 0 7
-4.2152 9.5053 -2.6477 0.2468 0 7
-4.3674 9.4364 -2.6477 0.2468 0 7
-4.5184 9.3650 -2.6477 0.2468 0 7
-4.6683 9.2912 -2.6477 0.2468 0 7
-4.8169 9.2150 -2.6477 0.2468 0 7
-4.9643 9.1365 -2.6477 0.2468 0 7
-5.1105 9.0555 -2.6477 0.2468 0 7
-5.2553 8.9723 -2.6477 0.2468 0 7
-5.0881 8.3751 -2.4953 0.2468 0 8
-5.2255 8.2980 -2.4970 0.7554 0 8
7.1761 -6.1789 -2.4953 0.2548 0 8
7.2745 -6.0628 -2.4953 0.2548 0 8
7.3709 -5.9451 -2.4953 0.2548 0 8
7.4655 -5.8260 -2.4953 0.2548 0 8
7.5581 -5.7053 -2.4953 0.2548 0 8
7.6488 -5.5831 -2.4953 0.2548 0 8
7.7375 -5.4595 -2.4953 0.2548 0 8
7.8242 -5.3345 -2.4953 0.2548 0 8
7.9089 -5.2081 -2.4953 0.2548 0 8
7.9916 -5.0804 -2.4953 0.2548 0 8
8.0721 -4.9514 -2.4953 0.2548 0 8
8.1506 -4.8210 -2.4953 0.2548 0 8
8.2270 -4.6895 -2.4953 0.2548 0 8
8.3013 -4.5567 -2.4953 0.2548 0 8
8.3735 -4.4227 -2.4953 0.2548 0 8
8.4434 -4.2877 -2.4953 0.2548 0 8
8.5112 -4.1515 -2.4953 0.2548 0 8
8.5768 -4.0142 -2.4953 0.2548 0 8
8.6402 -3.8759 -2.4953 0.2548 0 8
8.7013 -3.7366 -2.4953 0.2548 0 8
8.7602 -3.5963 -2.4953 0.2548 0 8
8.8169 -3.4551 -2.4953 0.2548 0 8
8.8713 -3.3130 -2.4953 0.2548 0 8
8.9233 -3.1701 -2.4953 0.2548 0 8
8.9731 -3.0263 -2.4953 0.2548 0 8
9.0206 -2.8818 -2.4953 0.2548 0 8
9.0657 -2.7365 -2.4953 0.2548 0 8
9.1085 -2.5905 -2.4953 0.2548 0 8
9.1489 -2.4438 -2.4953 0.2548 0 8
9.1870 -2.2965 -2.4953 0.2548 0 8
9.2227 -2.1486 -2.4953 0.2548 0 8
9.2561 -2.0002 -2.4953 0.2548 0 8
9.2870 -1.8512 -2.4953 0.2548 0 8
9.3155 -1.7018 -2.4953 0.2548 0 8
9.3417 -1.5519 -2.4953 0.2548 0 8
9.3654 -1.4017 -2.4953 0.2548 0 8
9.3867 -1.2510 -2.4953 0.2548 0 8
9.4056 -1.1001 -2.4953 0.2548 0 8
7.9308 -0.7986 -2.1003 0.5412 25 10
7.7249 -0.6527 -2.0428 0.7199 25 10
7.6471 -0.5226 -2.0197 0.7223 25 10
7.5987 -0.3967 -2.0050 0.8444 25 10
7.5744 -0.2735 -1.9972 0.8886 25 10
7.5781 -0.1518 -1.9972 0.8885 25 10
7.5805 -0.0301 -1.9975 0.9287 25 10
7.5800 0.0917 -1.9975 0.8884 25 10
7.5762 0.2134 -1.9971 0.8886 25 10
7.5832 0.3356 -2.0001 0.8465 25 10
7.6155 0.4597 -2.0103 0.8132 25 10
7.6865 0.5881 -2.0313 0.7182 25 10
7.8371 0.7264 -2.0739 0.4000 25 10
8.2637 0.9001 -2.1904 0.8931 25 10
9.3963 1.1765 -2.4953 0.2548 0 8
9.3762 1.3273 -2.4953 0.2548 0 8
9.3537 1.4778 -2.4953 0.2548 0 8
9.3287 1.6278 -2.4953 0.2548 0 8
9.3014 1.7775 -2.4953 0.2548 0 8
9.2716 1.9267 -2.4953 0.2548 0 8
9.2395 2.0754 -2.4953 0.2548 0 8
9.2050 2.2236 -2.4953 0.2548 0 8
9.1680 2.3712 -2.4953 0.2548 0 8
9.1288 2.5181 -2.4953 0.2548 0 8
9.0871 2.6645 -2.4953 0.2548 0 8
9.0432 2.8101 -2.4953 0.2548 0 8
8.9968 2.9550 -2.4953 0.2548 0 8
8.9482 3.0992 -2.4953 0.2548 0 8
8.8973 3.2425 -2.4953 0.2548 0 8
8.8440 3.3850 -2.4953 0.2548 0 8
8.7885 3.5267 -2.4953 0.2548 0 8
8.7307 3.6674 -2.4953 0.2548 0 8
8.6707 3.8072 -2.4953 0.2548 0 8
8.6084 3.9460 -2.4953 0.2548 0 8
8.5439 4.0838 -2.4953 0.2548 0 8
8.4772 4.2205 -2.4953 0.2548 0 8
8.4083 4.3562 -2.4953 0.2548 0 8
8.3372 4.4907 -2.4953 0.2548 0 8
8.2640 4.6240 -2.4953 0.2548 0 8
8.1886 4.7562 -2.4953 0.2548 0 8
8.1112 4.8872 -2.4953 0.2548 0 8
8.0316 5.0168 -2.4953 0.2548 0 8
7.9500 5.1452 -2.4953 0.2548 0 8
7.8663 5.2723 -2.4953 0.2548 0 8
7.7806 5.3980 -2.4953 0.2548 0 8
7.6929 5.5223 -2.4953 0.2548 0 8
7.6032 5.6451 -2.4953 0.2548 0 8
7.5115 5.7665 -2.4953 0.2548 0 8
7.4179 5.8865 -2.4953 0.2548 0 8
7.3223 6.0049 -2.4953 0.2548 0 8
7.2249 6.1217 -2.4953 0.2548 0 8
7.1257 6.2370 -2.4953 0.2548 0 8
7.0245 6.3507 -2.4953 0.2548 0 8
6.9216 6.4627 -2.4953 0.2548 0 8
6.8169 6.5731 -2.4953 0.2548 0 8
6.7104 6.6818 -2.4953 0.2548 0 8
6.6022 6.7887 -2.4953 0.2548 0 8
6.4923 6.8939 -2.4953 0.2548 0 8
6.3807 6.9973 -2.4953 0.2548 0 8
6.2675 7.0989 -2.4953 0.2548 0 8
6.1526 7.1987 -2.4953 0.2548 0 8
6.0362 7.2966 -2.4953 0.2548 0 8
5.9182 7.3926 -2.4953 0.2548 0 8
5.7986 7.4867 -2.4953 0.2548 0 8
5.6776 7.5789 -2.4953 0.2548 0 8
5.5551 7.6692 -2.4953 0.2548 0 8
5.4312 7.7574 -2.4953 0.2548 0 8
5.3059 7.8437 -2.4953 0.2548 0 8
5.1792 7.9279 -2.4953 0.2548 0 8
5.0512 8.0101 -2.4953 0.2548 0 8
4.9218 8.0902 -2.4953 0.2548 0 8
4.7912 8.1682 -2.4953 0.2548 0 8
4.6594 8.2441 -2.4953 0.2548 0 8
4.5300 8.3247 -2.4973 0.7799 0 8
4.3921 8.3896 -2.4953 0.2548 0 8
4.2568 8.4590 -2.4953 0.2548 0 8
4.3720 9.0471 -2.6477 0.2548 0 7
4.2261 9.1162 -2.6477 0.2548 0 7
4.0791 9.1829 -2.6477 0.2548 0 7
3.9310 9.2472 -2.6477 0.2548 0 7
3.7820 9.3092 -2.6477 0.2548 0 7
3.6319 9.3687 -2.6477 0.2548 0 7
3.4809 9.4259 -2.6477 0.2548 0 7
3.3291 9.4806 -2.6477 0.2548 0 7
3.1763 9.5328 -2.6477 0.2548 0 7
3.0228 9.5826 -2.6477 0.2548 0 7
2.8684 9.6300 -2.6477 0.2548 0 7
2.7133 9.6748 -2.6477 0.2548 0 7
2.5576 9.7171 -2.6477 0.2548 0 7
2.4011 9.7570 -2.6477 0.2548 0 7
2.2441 9.7943 -2.6477 0.2548 0 7
2.0864 9.8291 -2.6477 0.2548 0 7
1.9283 9.8613 -2.6477 0.2548 0 7
1.7696 9.8910 -2.6477 0.2548 0 7
1.6105 9.9182 -2.6477 0.2548 0 7
1.4509 9.9428 -2.6477 0.2548 0 7
1.2910 9.9648 -2.6477 0.2548 0 7
1.1308 9.9843 -2.6477 0.2548 0 7
0.9702 10.0011 -2.6477 0.2548 0 7
0.8094 10.0154 -2.6477 0.2548 0 7
0.6484 10.0271 -2.6477 0.2548 0 7
0.4872 10.0363 -2.6477 0.2548 0 7
0.3259 10.0428 -2.6477 0.2548 0 7
0.1646 10.0467 -2.6477 0.2548 0 7
0.0031 10.0481 -2.6477 0.2548 0 7
-0.1583 10.0468 -2.6477 0.2548 0 7
-0.3197 10.0430 -2.6477 0.2548 0 7
-0.4810 10.0366 -2.6477 0.2548 0 7
-0.6422 10.0275 -2.6477 0.2548 0 7
-0.8032 10.0159 -2.6477 0.2548 0 7
-0.9640 10.0017 -2.6477 0.2548 0 7
-1.1245 9.9850 -2.6477 0.2548 0 7
-1.2848 9.9656 -2.6477 0.2548 0 7
-1.4447 9.9437 -2.6477 0.2548 0 7
-1.6043 9.9192 -2.6477 0.2548 0 7
-1.7634 9.8921 -2.6477 0.2548 0 7
-1.9221 9.8625 -2.6477 0.2548 0 7
-2.0803 9.8304 -2.6477 0.2548 0 7
-2.2380 9.7957 -2.6477 0.2548 0 7
-2.3951 9.7585 -2.6477 0.2548 0 7
-2.5515 9.7187 -2.6477 0.2548 0 7
-2.7073 9.6765 -2.6477 0.2548 0 7
-2.8624 9.6317 -2.6477 0.2548 0 7
-3.0168 9.5845 -2.6477 0.2548 0 7
-3.1704 9.5348 -2.6477 0.2548 0 7
-3.3231 9.4826 -2.6477 0.2548 0 7
-3.4750 9.4280 -2.6477 0.2548 0 7
-3.6261 9.3710 -2.6477 0.2548 0 7
-3.7761 9.3115 -2.6477 0.2548 0 7
-3.9252 9.2497 -2.6477 0.2548 0 7
-4.0733 9.1854 -2.6477 0.2548 0 7
-4.2204 9.1188 -2.6477 0.2548 0 7
-4.3663 9.0498 -2.6477 0.2548 0 7
-4.5111 8.9785 -2.6477 0.2548 0 7
-4.3869 8.3923 -2.4953 0.2548 0 8
-4.5211 8.3207 -2.4953 0.2548 0 8
-4.6542 8.2470 -2.4953 0.2548 0 8
-4.7861 8.1712 -2.4953 0.2548 0 8
-4.9168 8.0933 -2.4953 0.2548 0 8
-5.0462 8.0132 -2.4953 0.2548 0 8
6.9415 -5.9768 -2.4953 0.2628 0 8
7.0366 -5.8645 -2.4953 0.2628 0 8
7.1299 -5.7507 -2.4953 0.2628 0 8
7.2214 -5.6355 -2.4953 0.2628 0 8
7.3110 -5.5187 -2.4953 0.2628 0 8
7.3987 -5.4006 -2.4953 0.2628 0 8
7.4845 -5.2810 -2.4953 0.2628 0 8
7.5684 -5.1601 -2.4953 0.2628 0 8
7.6503 -5.0378 -2.4953 0.2628 0 8
7.7302 -4.9143 -2.4953 0.2628 0 8
7.8082 -4.7894 -2.4953 0.2628 0 8
7.8841 -4.6634 -2.4953 0.2628 0 8
7.9580 -4.5361 -2.4953 0.2628 0 8
8.0299 -4.4077 -2.4953 0.2628 0 8
8.0996 -4.2781 -2.4953 0.2628 0 8
8.1673 -4.1474 -2.4953 0.2628 0 8
8.2329 -4.0157 -2.4953 0.2628 0 8
8.2963 -3.8829 -2.4953 0.2628 0 8
8.3577 -3.7491 -2.4953 0.2628 0 8
8.4168 -3.6144 -2.4953 0.2628 0 8
8.4738 -3.4787 -2.4953 0.2628 0 8
8.5286 -3.3421 -2.4953 0.2628 0 8
8.5812 -3.2047 -2.4953 0.2628 0 8
8.6315 -3.0664 -2.4953 0.2628 0 8
8.6797 -2.9273 -2.4953 0.2628 0 8
8.7256 -2.7875 -2.4953 0.2628 0 8
8.7693 -2.6470 -2.4953 0.2628 0 8
8.8106 -2.5058 -2.4953 0.2628 0 8
8.8498 -2.3639 -2.4953 0.2628 0 8
8.8866 -2.2214 -2.4953 0.2628 0 8
8.9211 -2.0784 -2.4953 0.2628 0 8
8.9534 -1.9348 -2.4953 0.2628 0 8
8.9833 -1.7907 -2.4953 0.2628 0 8
9.0109 -1.6462 -2.4953 0.2628 0 8
9.0362 -1.5012 -2.4953 0.2628 0 8
9.0591 -1.3558 -2.4953 0.2628 0 8
9.0798 -1.2101 -2.4953 0.2628 0 8
9.0980 -1.0641 -2.4953 0.2628 0 8
7.9438 -0.7999 -2.1749 0.5391 25 10
7.7599 -0.6557 -2.1214 0.4034 25 10
7.6706 -0.5242 -2.0944 0.7185 25 10
7.6179 -0.3977 -2.0780 0.8115 25 10
7.5904 -0.2741 -2.0690 0.8847 25 10
7.5937 -0.1521 -2.0690 0.9249 25 10
7.5889 -0.0301 -2.0673 0.9256 25 10
7.5914 0.0918 -2.0681 0.9253 25 10
7.5922 0.2139 -2.0690 0.8847 25 10
7.6010 0.3364 -2.0726 0.8426 25 10
7.6372 0.4610 -2.0842 0.8091 25 10
7.7097 0.5899 -2.1063 0.7202 25 10
7.8605 0.7286 -2.1504 0.5452 25 10
8.2793 0.9018 -2.2687 0.8895 25 10
9.0891 1.1380 -2.4953 0.2628 0 8
9.0696 1.2839 -2.4953 0.2628 0 8
9.0478 1.4294 -2.4953 0.2628 0 8
9.0237 1.5746 -2.4953 0.2628 0 8
8.9972 1.7194 -2.4953 0.2628 0 8
8.9685 1.8637 -2.4953 0.2628 0 8
8.9374 2.0075 -2.4953 0.2628 0 8
8.9039 2.1508 -2.4953 0.2628 0 8
8.8682 2.2936 -2.4953 0.2628 0 8
8.8303 2.4358 -2.4953 0.2628 0 8
8.7900 2.5773 -2.4953 0.2628 0 8
8.7474 2.7182 -2.4953 0.2628 0 8
8.7026 2.8584 -2.4953 0.2628 0 8
8.6556 2.9978 -2.4953 0.2628 0 8
8.6063 3.1365 -2.4953 0.2628 0 8
8.5548 3.2744 -2.4953 0.2628 0 8
8.5011 3.4114 -2.4953 0.2628 0 8
8.4452 3.5475 -2.4953 0.2628 0 8
8.3871 3.6827 -2.4953 0.2628 0 8
8.3269 3.8170 -2.4953 0.2628 0 8
8.2645 3.9503 -2.4953 0.2628 0 8
8.2000 4.0825 -2.4953 0.2628 0 8
8.1333 4.2137 -2.4953 0.2628 0 8
8.0646 4.3438 -2.4953 0.2628 0 8
7.9938 4.4728 -2.4953 0.2628 0 8
7.9209 4.6007 -2.4953 0.2628 0 8
7.8459 4.7273 -2.4953 0.2628 0 8
7.7690 4.8528 -2.4953 0.2628 0 8
7.6900 4.9770 -2.4953 0.2628 0 8
7.6091 5.0999 -2.4953 0.2628 0 8
7.5262 5.2214 -2.4953 0.2628 0 8
7.4413 5.3417 -2.4953 0.2628 0 8
7.3545 5.4605 -2.4953 0.2628 0 8
7.2659 5.5780 -2.4953 0.2628 0 8
7.1753 5.6940 -2.4953 0.2628 0 8
7.0829 5.8085 -2.4953 0.2628 0 8
6.9887 5.9216 -2.4953 0.2628 0 8
6.8926 6.0331 -2.4953 0.2628 0 8
6.7948 6.1430 -2.4953 0.2628 0 8
6.6953 6.2514 -2.4953 0.2628 0 8
6.5940 6.3581 -2.4953 0.2628 0 8
6.4910 6.4633 -2.4953 0.2628 0 8
6.3863 6.5667 -2.4953 0.2628 0 8
6.2800 6.6685 -2.4953 0.2628 0 8
6.1720 6.7685 -2.4953 0.2628 0 8
6.0625 6.8668 -2.4953 0.2628 0 8
5.9514 6.9633 -2.4953 0.2628 0 8
5.8388 7.0580 -2.4953 0.2628 0 8
5.7246 7.1509 -2.4953 0.2628 0 8
5.6090 7.2419 -2.4953 0.2628 0 8
5.4920 7.3311 -2.4953 0.2628 0 8
5.3735 7.4184 -2.4953 0.2628 0 8
5.2536 7.5037 -2.4953 0.2628 0 8
5.1324 7.5872 -2.4953 0.2628 0 8
5.0098 7.6686 -2.4953 0.2628 0 8
4.8860 7.7481 -2.4953 0.2628 0 8
4.7609 7.8256 -2.4953 0.2628 0 8
4.6345 7.9011 -2.4953 0.2628 0 8
4.5070 7.9745 -2.4953 0.2628 0 8
4.3783 8.0459 -2.4953 0.2628 0 8
4.2485 8.1152 -2.4953 0.2628 0 8
4.1176 8.1824 -2.4953 0.2628 0 8
3.9856 8.2475 -2.4953 0.2628 0 8
3.8526 8.3105 -2.4953 0.2628 0 8
3.7186 8.3713 -2.4953 0.2628 0 8
3.5836 8.4300 -2.4953 0.2628 0 8
3.6583 9.0048 -2.6477 0.2628 0 7
3.5131 9.0624 -2.6477 0.2628 0 7
3.3671 9.1176 -2.6477 0.2628 0 7
3.2202 9.1706 -2.6477 0.2628 0 7
3.0725 9.2211 -2.6477 0.2628 0 7
2.9239 9.2693 -2.6477 0.2628 0 7
2.7746 9.3150 -2.6477 0.2628 0 7
2.6246 9.3584 -2.6477 0.2628 0 7
2.4739 9.3994 -2.6477 0.2628 0 7
2.3226 9.4379 -2.6477 0.2628 0 7
2.1707 9.4740 -2.6477 0.2628 0 7
2.0182 9.5077 -2.6477 0.2628 0 7
1.8652 9.5389 -2.6477 0.2628 0 7
1.7117 9.5676 -2.6477 0.2628 0 7
1.5578 9.5938 -2.6477 0.2628 0 7
1.4035 9.6176 -2.6477 0.2628 0 7
1.2488 9.6389 -2.6477 0.2628 0 7
1.0938 9.6578 -2.6477 0.2628 0 7
0.9385 9.6741 -2.6477 0.2628 0 7
0.7829 9.6879 -2.6477 0.2628 0 7
0.6272 9.6992 -2.6477 0.2628 0 7
0.4713 9.7081 -2.6477 0.2628 0 7
0.3153 9.7144 -2.6477 0.2628 0 7
0.1592 9.7182 -2.6477 0.2628 0 7
0.0030 9.7195 -2.6477 0.2628 0 7
-0.1531 9.7183 -2.6477 0.2628 0 7
-0.3092 9.7146 -2.6477 0.2628 0 7
-0.4652 9.7084 -2.6477 0.2628 0 7
-0.6212 9.6996 -2.6477 0.2628 0 7
-0.7769 9.6884 -2.6477 0.2628 0 7
-0.9324 9.6747 -2.6477 0.2628 0 7
-1.0877 9.6584 -2.6477 0.2628 0 7
-1.2428 9.6397 -2.6477 0.2628 0 7
-1.3975 9.6185 -2.6477 0.2628 0 7
-1.5518 9.5948 -2.6477 0.2628 0 7
-1.7058 9.5687 -2.6477 0.2628 0 7
-1.8593 9.5400 -2.6477 0.2628 0 7
-2.0123 9.5089 -2.6477 0.2628 0 7
-2.1648 9.4754 -2.6477 0.2628 0 7
-2.3167 9.4394 -2.6477 0.2628 0 7
-2.4681 9.4009 -2.6477 0.2628 0 7
-2.6188 9.3601 -2.6477 0.2628 0 7
-2.7688 9.3168 -2.6477 0.2628 0 7
-2.9181 9.2711 -2.6477 0.2628 0 7
-3.0667 9.2230 -2.6477 0.2628 0 7
-3.2145 9.1726 -2.6477 0.2628 0 7
-3.3614 9.1197 -2.6477 0.2628 0 7
-3.5075 9.0646 -2.6477 0.2628 0 7
-3.6527 9.0070 -2.6477 0.2628 0 7
-3.5783 8.4322 -2.4953 0.2628 0 8
-3.7133 8.3736 -2.4953 0.2628 0 8
-3.8474 8.3129 -2.4953 0.2628 0 8
-3.9804 8.2500 -2.4953 0.2628 0 8
-4.1125 8.1850 -2.4953 0.2628 0 8
-4.2434 8.1179 -2.4953 0.2628 0 8
-4.3733 8.0486 -2.4953 0.2628 0 8
-4.5020 7.9774 -2.4953 0.2628 0 8
-4.6296 7.9040 -2.4953 0.2628 0 8
-4.7560 7.8286 -2.4953 0.2628 0 8
-4.8811 7.7512 -2.4953 0.2628 0 8
6.7207 -5.7867 -2.4953 0.2708 0 8
6.8128 -5.6780 -2.4953 0.2708 0 8
6.9031 -5.5678 -2.4953 0.2708 0 8
6.9917 -5.4562 -2.4953 0.2708 0 8
7.0784 -5.3432 -2.4953 0.2708 0 8
7.1634 -5.2288 -2.4953 0.2708 0 8
7.2464 -5.1130 -2.4953 0.2708 0 8
7.3277 -4.9960 -2.4953 0.2708 0 8
7.4070 -4.8776 -2.4953 0.2708 0 8
7.4844 -4.7580 -2.4953 0.2708 0 8
7.5598 -4.6371 -2.4953 0.2708 0 8
7.6334 -4.5151 -2.4953 0.2708 0 8
7.7049 -4.3919 -2.4953 0.2708 0 8
7.7745 -4.2675 -2.4953 0.2708 0 8
7.8420 -4.1421 -2.4953 0.2708 0 8
7.9076 -4.0155 -2.4953 0.2708 0 8
7.9711 -3.8880 -2.4953 0.2708 0 8
8.0325 -3.7594 -2.4953 0.2708 0 8
8.0919 -3.6299 -2.4953 0.2708 0 8
8.1491 -3.4994 -2.4953 0.2708 0 8
8.2043 -3.3681 -2.4953 0.2708 0 8
8.2573 -3.2358 -2.4953 0.2708 0 8
8.3083 -3.1028 -2.4953 0.2708 0 8
8.3570 -2.9689 -2.4953 0.2708 0 8
8.4036 -2.8342 -2.4953 0.2708 0 8
8.4481 -2.6989 -2.4953 0.2708 0 8
8.4904 -2.5628 -2.4953 0.2708 0 8
8.5304 -2.4261 -2.4953 0.2708 0 8
8.5683 -2.2887 -2.4953 0.2708 0 8
8.6040 -2.1508 -2.4953 0.2708 0 8
8.6374 -2.0123 -2.4953 0.2708 0 8
8.6686 -1.8733 -2.4953 0.2708 0 8
8.6976 -1.7338 -2.4953 0.2708 0 8
8.7243 -1.5938 -2.4953 0.2708 0 8
8.7488 -1.4534 -2.4953 0.2708 0 8
8.7710 -1.3127 -2.4953 0.2708 0 8
8.7910 -1.1716 -2.4953 0.2708 0 8
8.8087 -1.0302 -2.4953 0.2708 0 8
8.3341 -0.8392 -2.3567 0.6459 25 10
8.3312 -0.7040 -2.3524 0.6471 25 10
7.6938 -0.5258 -2.1697 0.7204 25 10
7.6397 -0.3989 -2.1524 0.8073 25 10
7.6065 -0.2747 -2.1415 0.8808 25 10
7.6022 -0.1523 -2.1394 0.9217 25 10
7.5974 -0.0301 -2.1376 0.9225 25 10
7.5998 0.0919 -2.1384 0.9221 25 10
7.6047 0.2142 -2.1405 0.9212 25 10
7.6209 0.3373 -2.1463 0.8096 25 10
7.6591 0.4624 -2.1588 0.8049 25 10
7.7330 0.5917 -2.1821 0.7163 25 10
8.3326 0.7724 -2.3545 0.6465 25 10
8.8166 0.9603 -2.4953 0.2708 0 8
8.8000 1.1018 -2.4953 0.2708 0 8
8.7812 1.2431 -2.4953 0.2708 0 8
8.7601 1.3840 -2.4953 0.2708 0 8
8.7367 1.5245 -2.4953 0.2708 0 8
8.7111 1.6647 -2.4953 0.2708 0 8
8.6832 1.8044 -2.4953 0.2708 0 8
8.6531 1.9437 -2.4953 0.2708 0 8
8.6208 2.0824 -2.4953 0.2708 0 8
8.5862 2.2207 -2.4953 0.2708 0 8
8.5494 2.3583 -2.4953 0.2708 0 8
8.5104 2.4954 -2.4953 0.2708 0 8
8.4692 2.6318 -2.4953 0.2708 0 8
8.4259 2.7675 -2.4953 0.2708 0 8
8.3803 2.9025 -2.4953 0.2708 0 8
8.3326 3.0367 -2.4953 0.2708 0 8
8.2827 3.1702 -2.4953 0.2708 0 8
8.2308 3.3029 -2.4953 0.2708 0 8
8.1766 3.4347 -2.4953 0.2708 0 8
8.1204 3.5656 -2.4953 0.2708 0 8
8.0621 3.6956 -2.4953 0.2708 0 8
8.0017 3.8246 -2.4953 0.2708 0 8
7.9392 3.9527 -2.4953 0.2708 0 8
7.8747 4.0797 -2.4953 0.2708 0 8
7.8081 4.2057 -2.4953 0.2708 0 8
7.7395 4.3306 -2.4953 0.2708 0 8
7.6690 4.4544 -2.4953 0.2708 0 8
7.5964 4.5770 -2.4953 0.2708 0 8
7.5219 4.6984 -2.4953 0.2708 0 8
7.4454 4.8187 -2.4953 0.2708 0 8
7.3671 4.9377 -2.4953 0.2708 0 8
7.2868 5.0554 -2.4953 0.2708 0 8
7.2046 5.1718 -2.4953 0.2708 0 8
7.1206 5.2869 -2.4953 0.2708 0 8
7.0348 5.4006 -2.4953 0.2708 0 8
6.9471 5.5129 -2.4953 0.2708 0 8
6.8576 5.6238 -2.4953 0.2708 0 8
6.7664 5.7332 -2.4953 0.2708 0 8
6.6734 5.8412 -2.4953 0.2708 0 8
6.5787 5.9477 -2.4953 0.2708 0 8
6.4823 6.0526 -2.4953 0.2708 0 8
6.3843 6.1559 -2.4953 0.2708 0 8
6.2845 6.2577 -2.4953 0.2708 0 8
6.1832 6.3579 -2.4953 0.2708 0 8
6.0803 6.4564 -2.4953 0.2708 0 8
5.9758 6.5532 -2.4953 0.2708 0 8
5.8697 6.6484 -2.4953 0.2708 0 8
5.7621 6.7418 -2.4953 0.2708 0 8
5.6531 6.8335 -2.4953 0.2708 0 8
5.5426 6.9234 -2.4953 0.2708 0 8
5.4306 7.0116 -2.4953 0.2708 0 8
5.3173 7.0979 -2.4953 0.2708 0 8
5.2026 7.1824 -2.4953 0.2708 0 8
5.0865 7.2651 -2.4953 0.2708 0 8
