ply
format ascii 1.0
element vertex 1425
property float32 x
property float32 y
property float32 z
property float32 CosAngle
property uint32 ObjIdx
property uint32 ObjTag
end_header
11.4137 -3.1336 -2.4953 0.2063 0 8
11.4627 -2.9494 -2.4953 0.2063 0 8
11.5087 -2.7645 -2.4953 0.2063 0 8
11.5517 -2.5788 -2.4953 0.2063 0 8
11.5917 -2.3925 -2.4953 0.2063 0 8
11.6287 -2.2056 -2.4953 0.2063 0 8
11.6627 -2.0180 -2.4953 0.2063 0 8
11.6937 -1.8300 -2.4953 0.2063 0 8
11.7217 -1.6415 -2.4953 0.2063 0 8
11.7466 -1.4526 -2.4953 0.2063 0 8
8.2824 -0.8891 -1.7561 0.1861 25 10
7.7917 -0.7097 -1.6494 0.7029 25 10
7.7009 -0.5766 -1.6280 0.8746 25 10
7.6494 -0.4490 -1.6154 0.9184 25 10
7.6178 -0.3242 -1.6074 0.9683 25 10
7.6028 -0.2010 -1.6034 0.9886 25 10
7.5943 -0.0784 -1.6011 0.9973 25 10
7.5924 0.0438 -1.6006 0.9976 25 10
7.5993 0.1662 -1.6025 0.9964 25 10
7.6121 0.2892 -1.6059 0.9870 25 10
7.6376 0.4134 -1.6125 0.9201 25 10
7.6851 0.5402 -1.6242 0.8767 25 10
7.7620 0.6713 -1.6425 0.7059 25 10
8.0965 0.8318 -1.7159 0.1904 25 10
11.7531 1.3990 -2.4953 0.2063 0 8
11.7290 1.5881 -2.4953 0.2063 0 8
11.7019 1.7767 -2.4953 0.2063 0 8
11.6718 1.9649 -2.4953 0.2063 0 8
11.6387 2.1525 -2.4953 0.2063 0 8
11.6025 2.3396 -2.4953 0.2063 0 8
11.5633 2.5261 -2.4953 0.2063 0 8
11.5212 2.7120 -2.4953 0.2063 0 8
11.4760 2.8971 -2.4953 0.2063 0 8
11.4279 3.0815 -2.4953 0.2063 0 8
11.3768 3.2651 -2.4953 0.2063 0 8
11.3227 3.4479 -2.4953 0.2063 0 8
11.2657 3.6297 -2.4953 0.2063 0 8
11.2059 3.8106 -2.4953 0.2063 0 8
11.1431 3.9905 -2.4953 0.2063 0 8
11.0774 4.1694 -2.4953 0.2063 0 8
11.0088 4.3472 -2.4953 0.2063 0 8
10.9374 4.5239 -2.4953 0.2063 0 8
10.8631 4.6994 -2.4953 0.2063 0 8
10.7861 4.8737 -2.4953 0.2063 0 8
10.7062 5.0467 -2.4953 0.2063 0 8
10.6236 5.2184 -2.4953 0.2063 0 8
10.5382 5.3888 -2.4953 0.2063 0 8
10.4500 5.5578 -2.4953 0.2063 0 8
10.3592 5.7253 -2.4953 0.2063 0 8
10.2657 5.8913 -2.4953 0.2063 0 8
10.1695 6.0559 -2.4953 0.2063 0 8
10.0707 6.2188 -2.4953 0.2063 0 8
9.9692 6.3801 -2.4953 0.2063 0 8
9.8652 6.5398 -2.4953 0.2063 0 8
9.7587 6.6978 -2.4953 0.2063 0 8
9.6496 6.8540 -2.4953 0.2063 0 8
9.5380 7.0085 -2.4953 0.2063 0 8
9.4239 7.1612 -2.4953 0.2063 0 8
9.3074 7.3120 -2.4953 0.2063 0 8
9.1884 7.4609 -2.4953 0.2063 0 8
9.0671 7.6078 -2.4953 0.2063 0 8
8.9435 7.7528 -2.4953 0.2063 0 8
8.8175 7.8958 -2.4953 0.2063 0 8
8.6892 8.0368 -2.4953 0.2063 0 8
8.5587 8.1756 -2.4953 0.2063 0 8
8.4260 8.3123 -2.4953 0.2063 0 8
8.2910 8.4469 -2.4953 0.2063 0 8
8.6520 9.1033 -2.6477 0.2063 0 7
8.5043 9.2414 -2.6477 0.2063 0 7
8.3544 9.3771 -2.6477 0.2063 0 7
8.2023 9.5104 -2.6477 0.2063 0 7
8.0482 9.6413 -2.6477 0.2063 0 7
7.8919 9.7696 -2.6477 0.2063 0 7
7.7336 9.8954 -2.6477 0.2063 0 7
7.5733 10.0186 -2.6477 0.2063 0 7
7.4110 10.1392 -2.6477 0.2063 0 7
10.7452 -3.7087 -2.4953 0.2144 0 8
10.8035 -3.5352 -2.4953 0.2144 0 8
10.8590 -3.3608 -2.4953 0.2144 0 8
10.9117 -3.1855 -2.4953 0.2144 0 8
10.9616 -3.0094 -2.4953 0.2144 0 8
11.0086 -2.8326 -2.4953 0.2144 0 8
11.0528 -2.6550 -2.4953 0.2144 0 8
11.0941 -2.4767 -2.4953 0.2144 0 8
11.1325 -2.2977 -2.4953 0.2144 0 8
11.1681 -2.1182 -2.4953 0.2144 0 8
11.2007 -1.9381 -2.4953 0.2144 0 8
11.2305 -1.7575 -2.4953 0.2144 0 8
11.2573 -1.5765 -2.4953 0.2144 0 8
11.2812 -1.3950 -2.4953 0.2144 0 8
8.2373 -0.8842 -1.8186 0.1868 25 10
7.7557 -0.7064 -1.7095 0.7049 25 10
7.6785 -0.5749 -1.6903 0.8756 25 10
7.6270 -0.4477 -1.6771 0.9195 25 10
7.5997 -0.3234 -1.6698 0.9689 25 10
7.5861 -0.2005 -1.6658 0.9963 25 10
7.5792 -0.0783 -1.6638 0.9975 25 10
7.5773 0.0437 -1.6634 0.9978 25 10
7.5841 0.1659 -1.6652 0.9966 25 10
7.5943 0.2885 -1.6683 0.9876 25 10
7.6172 0.4123 -1.6745 0.9662 25 10
7.6628 0.5386 -1.6863 0.8777 25 10
7.7263 0.6682 -1.7024 0.7079 25 10
8.0534 0.8274 -1.7771 0.1911 25 10
11.2875 1.3436 -2.4953 0.2144 0 8
11.2644 1.5252 -2.4953 0.2144 0 8
11.2384 1.7063 -2.4953 0.2144 0 8
11.2094 1.8870 -2.4953 0.2144 0 8
11.1776 2.0673 -2.4953 0.2144 0 8
11.1429 2.2470 -2.4953 0.2144 0 8
11.1053 2.4261 -2.4953 0.2144 0 8
11.0647 2.6046 -2.4953 0.2144 0 8
11.0214 2.7824 -2.4953 0.2144 0 8
10.9752 2.9594 -2.4953 0.2144 0 8
10.9261 3.1358 -2.4953 0.2144 0 8
10.8742 3.3113 -2.4953 0.2144 0 8
10.8195 3.4859 -2.4953 0.2144 0 8
10.7619 3.6597 -2.4953 0.2144 0 8
10.7016 3.8324 -2.4953 0.2144 0 8
10.6385 4.0042 -2.4953 0.2144 0 8
10.5727 4.1750 -2.4953 0.2144 0 8
10.5041 4.3447 -2.4953 0.2144 0 8
10.4328 4.5132 -2.4953 0.2144 0 8
10.3588 4.6806 -2.4953 0.2144 0 8
10.2821 4.8468 -2.4953 0.2144 0 8
10.2027 5.0117 -2.4953 0.2144 0 8
10.1207 5.1753 -2.4953 0.2144 0 8
10.0361 5.3376 -2.4953 0.2144 0 8
9.9488 5.4985 -2.4953 0.2144 0 8
9.8590 5.6580 -2.4953 0.2144 0 8
9.7666 5.8160 -2.4953 0.2144 0 8
9.6717 5.9724 -2.4953 0.2144 0 8
9.5743 6.1274 -2.4953 0.2144 0 8
9.4744 6.2807 -2.4953 0.2144 0 8
9.3721 6.4325 -2.4953 0.2144 0 8
9.2673 6.5825 -2.4953 0.2144 0 8
9.1601 6.7309 -2.4953 0.2144 0 8
9.0506 6.8775 -2.4953 0.2144 0 8
8.9387 7.0223 -2.4953 0.2144 0 8
8.8244 7.1653 -2.4953 0.2144 0 8
8.7079 7.3065 -2.4953 0.2144 0 8
8.5892 7.4457 -2.4953 0.2144 0 8
8.4682 7.5830 -2.4953 0.2144 0 8
8.3450 7.7184 -2.4953 0.2144 0 8
8.2197 7.8517 -2.4953 0.2144 0 8
8.0922 7.9831 -2.4953 0.2144 0 8
7.9626 8.1123 -2.4953 0.2144 0 8
7.8310 8.2395 -2.4953 0.2144 0 8
7.6973 8.3645 -2.4953 0.2144 0 8
8.0234 9.0057 -2.6477 0.2144 0 7
7.8774 9.1337 -2.6477 0.2144 0 7
7.7293 9.2593 -2.6477 0.2144 0 7
7.5793 9.3826 -2.6477 0.2144 0 7
7.4272 9.5034 -2.6477 0.2144 0 7
7.2732 9.6217 -2.6477 0.2144 0 7
7.1174 9.7376 -2.6477 0.2144 0 7
10.3343 -3.5668 -2.4953 0.2225 0 8
10.3904 -3.4000 -2.4953 0.2225 0 8
10.4437 -3.2323 -2.4953 0.2225 0 8
10.4944 -3.0637 -2.4953 0.2225 0 8
10.5424 -2.8944 -2.4953 0.2225 0 8
10.5876 -2.7242 -2.4953 0.2225 0 8
10.6301 -2.5534 -2.4953 0.2225 0 8
10.6699 -2.3820 -2.4953 0.2225 0 8
10.7068 -2.2099 -2.4953 0.2225 0 8
10.7410 -2.0372 -2.4953 0.2225 0 8
10.7724 -1.8640 -2.4953 0.2225 0 8
10.8010 -1.6903 -2.4953 0.2225 0 8
10.8269 -1.5162 -2.4953 0.2225 0 8
10.8499 -1.3417 -2.4953 0.2225 0 8
8.1940 -0.8796 -1.8810 0.1856 25 10
7.7198 -0.7031 -1.7693 0.7068 25 10
7.6561 -0.5732 -1.7524 0.8765 25 10
7.6059 -0.4465 -1.7390 0.9655 25 10
7.5817 -0.3226 -1.7320 0.9694 25 10
7.5709 -0.2001 -1.7286 0.9964 25 10
7.5641 -0.0781 -1.7265 0.9976 25 10
7.5622 0.0436 -1.7260 0.9979 25 10
7.5690 0.1656 -1.7280 0.9968 25 10
7.5766 0.2878 -1.7305 0.9881 25 10
7.5990 0.4113 -1.7370 0.9667 25 10
7.6406 0.5371 -1.7482 0.8786 25 10
7.6958 0.6656 -1.7631 0.8712 25 10
8.0105 0.8230 -1.8380 0.1918 25 10
10.8559 1.2922 -2.4953 0.2225 0 8
10.8337 1.4668 -2.4953 0.2225 0 8
10.8086 1.6411 -2.4953 0.2225 0 8
10.7808 1.8149 -2.4953 0.2225 0 8
10.7502 1.9882 -2.4953 0.2225 0 8
10.7168 2.1610 -2.4953 0.2225 0 8
10.6806 2.3333 -2.4953 0.2225 0 8
10.6416 2.5050 -2.4953 0.2225 0 8
10.5999 2.6760 -2.4953 0.2225 0 8
10.5555 2.8463 -2.4953 0.2225 0 8
10.5083 3.0159 -2.4953 0.2225 0 8
10.4584 3.1846 -2.4953 0.2225 0 8
10.4057 3.3526 -2.4953 0.2225 0 8
10.3504 3.5197 -2.4953 0.2225 0 8
10.2924 3.6859 -2.4953 0.2225 0 8
10.2317 3.8511 -2.4953 0.2225 0 8
10.1684 4.0154 -2.4953 0.2225 0 8
10.1024 4.1786 -2.4953 0.2225 0 8
10.0339 4.3407 -2.4953 0.2225 0 8
9.9627 4.5016 -2.4953 0.2225 0 8
9.8889 4.6615 -2.4953 0.2225 0 8
9.8126 4.8201 -2.4953 0.2225 0 8
9.7337 4.9774 -2.4953 0.2225 0 8
9.6523 5.1335 -2.4953 0.2225 0 8
9.5684 5.2882 -2.4953 0.2225 0 8
9.4820 5.4416 -2.4953 0.2225 0 8
9.3932 5.5936 -2.4953 0.2225 0 8
9.3019 5.7441 -2.4953 0.2225 0 8
9.2082 5.8931 -2.4953 0.2225 0 8
9.1121 6.0406 -2.4953 0.2225 0 8
9.0137 6.1865 -2.4953 0.2225 0 8
8.9129 6.3308 -2.4953 0.2225 0 8
8.8098 6.4735 -2.4953 0.2225 0 8
8.7045 6.6145 -2.4953 0.2225 0 8
8.5969 6.7538 -2.4953 0.2225 0 8
8.4870 6.8913 -2.4953 0.2225 0 8
8.3750 7.0271 -2.4953 0.2225 0 8
8.2607 7.1610 -2.4953 0.2225 0 8
8.1444 7.2931 -2.4953 0.2225 0 8
8.0259 7.4232 -2.4953 0.2225 0 8
7.9053 7.5515 -2.4953 0.2225 0 8
7.7827 7.6778 -2.4953 0.2225 0 8
7.6581 7.8021 -2.4953 0.2225 0 8
7.5315 7.9244 -2.4953 0.2225 0 8
7.4030 8.0446 -2.4953 0.2225 0 8
7.2725 8.1628 -2.4953 0.2225 0 8
7.1401 8.2788 -2.4953 0.2225 0 8
7.0059 8.3927 -2.4953 0.2225 0 8
7.2894 9.0238 -2.6477 0.2225 0 7
7.1432 9.1400 -2.6477 0.2225 0 7
6.9951 9.2538 -2.6477 0.2225 0 7
6.8452 9.3652 -2.6477 0.2225 0 7
9.9523 -3.4350 -2.4953 0.2306 0 8
10.0063 -3.2743 -2.4953 0.2306 0 8
10.0577 -3.1128 -2.4953 0.2306 0 8
10.1065 -2.9505 -2.4953 0.2306 0 8
10.1527 -2.7874 -2.4953 0.2306 0 8
10.1963 -2.6235 -2.4953 0.2306 0 8
10.2372 -2.4590 -2.4953 0.2306 0 8
10.2754 -2.2939 -2.4953 0.2306 0 8
10.3110 -2.1282 -2.4953 0.2306 0 8
10.3440 -1.9619 -2.4953 0.2306 0 8
10.3742 -1.7951 -2.4953 0.2306 0 8
10.4018 -1.6278 -2.4953 0.2306 0 8
10.4266 -1.4602 -2.4953 0.2306 0 8
10.4488 -1.2921 -2.4953 0.2306 0 8
8.1535 -0.8752 -1.9435 0.1862 25 10
7.7253 -0.7036 -1.8385 0.2837 25 10
7.6447 -0.5724 -1.8169 0.8546 25 10
7.5954 -0.4458 -1.8032 0.9361 25 10
7.5697 -0.3221 -1.7957 0.9401 25 10
7.5601 -0.1999 -1.7924 0.9672 25 10
7.5528 -0.0780 -1.7901 0.9684 25 10
7.5507 0.0436 -1.7896 0.9687 25 10
7.5580 0.1653 -1.7917 0.9675 25 10
7.5653 0.2874 -1.7943 0.9661 25 10
7.5881 0.4107 -1.8010 0.9373 25 10
7.6290 0.5362 -1.8126 0.8566 25 10
7.6848 0.6647 -1.8281 0.7663 25 10
7.9717 0.8190 -1.8993 0.1915 25 10
10.4546 1.2445 -2.4953 0.2306 0 8
10.4332 1.4126 -2.4953 0.2306 0 8
10.4091 1.5804 -2.4953 0.2306 0 8
10.3823 1.7478 -2.4953 0.2306 0 8
10.3528 1.9147 -2.4953 0.2306 0 8
10.3206 2.0812 -2.4953 0.2306 0 8
10.2858 2.2471 -2.4953 0.2306 0 8
10.2483 2.4124 -2.4953 0.2306 0 8
10.2081 2.5770 -2.4953 0.2306 0 8
10.1653 2.7411 -2.4953 0.2306 0 8
10.1199 2.9044 -2.4953 0.2306 0 8
10.0718 3.0669 -2.4953 0.2306 0 8
10.0211 3.2287 -2.4953 0.2306 0 8
9.9678 3.3896 -2.4953 0.2306 0 8
9.9119 3.5496 -2.4953 0.2306 0 8
9.8535 3.7088 -2.4953 0.2306 0 8
9.7925 3.8669 -2.4953 0.2306 0 8
9.7290 4.0241 -2.4953 0.2306 0 8
9.6630 4.1802 -2.4953 0.2306 0 8
9.5944 4.3352 -2.4953 0.2306 0 8
9.5234 4.4892 -2.4953 0.2306 0 8
9.4498 4.6419 -2.4953 0.2306 0 8
9.3739 4.7934 -2.4953 0.2306 0 8
9.2955 4.9437 -2.4953 0.2306 0 8
9.2147 5.0928 -2.4953 0.2306 0 8
9.1315 5.2405 -2.4953 0.2306 0 8
9.0459 5.3868 -2.4953 0.2306 0 8
8.9580 5.5317 -2.4953 0.2306 0 8
8.8678 5.6752 -2.4953 0.2306 0 8
8.7753 5.8173 -2.4953 0.2306 0 8
8.6805 5.9578 -2.4953 0.2306 0 8
8.5835 6.0968 -2.4953 0.2306 0 8
8.4842 6.2342 -2.4953 0.2306 0 8
8.3827 6.3700 -2.4953 0.2306 0 8
8.2791 6.5041 -2.4953 0.2306 0 8
8.1733 6.6366 -2.4953 0.2306 0 8
8.0654 6.7673 -2.4953 0.2306 0 8
7.9554 6.8963 -2.4953 0.2306 0 8
7.8433 7.0235 -2.4953 0.2306 0 8
7.7292 7.1488 -2.4953 0.2306 0 8
7.6131 7.2724 -2.4953 0.2306 0 8
7.4951 7.3940 -2.4953 0.2306 0 8
7.3750 7.5137 -2.4953 0.2306 0 8
7.2531 7.6315 -2.4953 0.2306 0 8
7.1293 7.7472 -2.4953 0.2306 0 8
7.0036 7.8610 -2.4953 0.2306 0 8
6.8762 7.9728 -2.4953 0.2306 0 8
6.7469 8.0824 -2.4953 0.2306 0 8
6.6159 8.1900 -2.4953 0.2306 0 8
6.4832 8.2955 -2.4953 0.2306 0 8
6.3488 8.3988 -2.4953 0.2306 0 8
6.5922 9.0190 -2.6477 0.2306 0 7
9.5961 -3.3121 -2.4953 0.2387 0 8
9.6482 -3.1572 -2.4953 0.2387 0 8
9.6978 -3.0014 -2.4953 0.2387 0 8
9.7449 -2.8449 -2.4953 0.2387 0 8
9.7894 -2.6876 -2.4953 0.2387 0 8
9.8314 -2.5297 -2.4953 0.2387 0 8
9.8709 -2.3710 -2.4953 0.2387 0 8
9.9078 -2.2118 -2.4953 0.2387 0 8
9.9421 -2.0520 -2.4953 0.2387 0 8
9.9738 -1.8917 -2.4953 0.2387 0 8
10.0030 -1.7309 -2.4953 0.2387 0 8
10.0296 -1.5696 -2.4953 0.2387 0 8
10.0535 -1.4079 -2.4953 0.2387 0 8
10.0749 -1.2459 -2.4953 0.2387 0 8
8.1136 -0.8709 -2.0058 0.1877 25 10
7.7638 -0.7072 -1.9162 0.2817 25 10
7.6474 -0.5726 -1.8850 0.8526 25 10
7.5984 -0.4460 -1.8709 0.9175 25 10
7.5707 -0.3222 -1.8626 0.9381 25 10
7.5607 -0.1999 -1.8591 0.9652 25 10
7.5578 -0.0781 -1.8578 0.9270 25 10
7.5588 0.0436 -1.8580 0.9269 25 10
7.5587 0.1654 -1.8584 0.9655 25 10
7.5660 0.2874 -1.8611 0.9641 25 10
7.5898 0.4108 -1.8683 0.9188 25 10
7.6317 0.5364 -1.8805 0.8546 25 10
7.6981 0.6658 -1.8992 0.7635 25 10
7.9419 0.8159 -1.9624 0.4510 25 10
10.0805 1.1999 -2.4953 0.2387 0 8
10.0598 1.3621 -2.4953 0.2387 0 8
10.0366 1.5239 -2.4953 0.2387 0 8
10.0108 1.6853 -2.4953 0.2387 0 8
9.9823 1.8462 -2.4953 0.2387 0 8
9.9513 2.0067 -2.4953 0.2387 0 8
9.9177 2.1666 -2.4953 0.2387 0 8
9.8816 2.3260 -2.4953 0.2387 0 8
9.8428 2.4848 -2.4953 0.2387 0 8
9.8016 2.6430 -2.4953 0.2387 0 8
9.7577 2.8004 -2.4953 0.2387 0 8
9.7114 2.9572 -2.4953 0.2387 0 8
9.6625 3.1132 -2.4953 0.2387 0 8
9.6111 3.2683 -2.4953 0.2387 0 8
9.5573 3.4226 -2.4953 0.2387 0 8
9.5009 3.5761 -2.4953 0.2387 0 8
9.4421 3.7286 -2.4953 0.2387 0 8
9.3809 3.8801 -2.4953 0.2387 0 8
9.3172 4.0306 -2.4953 0.2387 0 8
9.2511 4.1801 -2.4953 0.2387 0 8
9.1826 4.3285 -2.4953 0.2387 0 8
9.1117 4.4758 -2.4953 0.2387 0 8
9.0385 4.6219 -2.4953 0.2387 0 8
8.9629 4.7668 -2.4953 0.2387 0 8
8.8850 4.9105 -2.4953 0.2387 0 8
8.8048 5.0529 -2.4953 0.2387 0 8
8.7223 5.1940 -2.4953 0.2387 0 8
8.6375 5.3338 -2.4953 0.2387 0 8
8.5505 5.4722 -2.4953 0.2387 0 8
8.4613 5.6091 -2.4953 0.2387 0 8
8.3699 5.7446 -2.4953 0.2387 0 8
8.2763 5.8786 -2.4953 0.2387 0 8
8.1806 6.0111 -2.4953 0.2387 0 8
8.0828 6.1420 -2.4953 0.2387 0 8
7.9828 6.2714 -2.4953 0.2387 0 8
7.8808 6.3991 -2.4953 0.2387 0 8
7.7768 6.5252 -2.4953 0.2387 0 8
7.6707 6.6495 -2.4953 0.2387 0 8
7.5627 6.7722 -2.4953 0.2387 0 8
7.4526 6.8930 -2.4953 0.2387 0 8
7.3407 7.0121 -2.4953 0.2387 0 8
7.2269 7.1294 -2.4953 0.2387 0 8
7.1111 7.2448 -2.4953 0.2387 0 8
6.9936 7.3584 -2.4953 0.2387 0 8
6.8742 7.4700 -2.4953 0.2387 0 8
6.7530 7.5797 -2.4953 0.2387 0 8
6.6301 7.6875 -2.4953 0.2387 0 8
6.5055 7.7932 -2.4953 0.2387 0 8
6.3792 7.8970 -2.4953 0.2387 0 8
6.2512 7.9986 -2.4953 0.2387 0 8
6.1216 8.0982 -2.4953 0.2387 0 8
5.9904 8.1958 -2.4953 0.2387 0 8
9.2633 -3.1972 -2.4953 0.2468 0 8
9.3136 -3.0477 -2.4953 0.2468 0 8
9.3614 -2.8973 -2.4953 0.2468 0 8
9.4069 -2.7462 -2.4953 0.2468 0 8
9.4499 -2.5944 -2.4953 0.2468 0 8
9.4904 -2.4419 -2.4953 0.2468 0 8
9.5285 -2.2888 -2.4953 0.2468 0 8
9.5641 -2.1351 -2.4953 0.2468 0 8
9.5973 -1.9808 -2.4953 0.2468 0 8
9.6279 -1.8261 -2.4953 0.2468 0 8
9.6561 -1.6708 -2.4953 0.2468 0 8
9.6817 -1.5151 -2.4953 0.2468 0 8
9.7048 -1.3591 -2.4953 0.2468 0 8
9.7255 -1.2026 -2.4953 0.2468 0 8
8.1363 -0.8734 -2.0837 0.1938 25 10
7.7692 -0.7076 -1.9865 0.4044 25 10
7.6578 -0.5734 -1.9554 0.7666 25 10
7.6015 -0.4462 -1.9389 0.9152 25 10
7.5717 -0.3222 -1.9297 0.9360 25 10
7.5643 -0.2000 -1.9268 0.9240 25 10
7.5678 -0.0782 -1.9271 0.9239 25 10
7.5688 0.0437 -1.9273 0.9238 25 10
7.5653 0.1655 -1.9268 0.9240 25 10
7.5666 0.2875 -1.9281 0.9620 25 10
7.5929 0.4110 -1.9362 0.9165 25 10
7.6369 0.5368 -1.9494 0.7689 25 10
7.7115 0.6670 -1.9709 0.7605 25 10
7.9392 0.8156 -2.0322 0.5416 25 10
9.7308 1.1583 -2.4953 0.2468 0 8
9.7109 1.3148 -2.4953 0.2468 0 8
9.6885 1.4710 -2.4953 0.2468 0 8
9.6636 1.6268 -2.4953 0.2468 0 8
9.6361 1.7822 -2.4953 0.2468 0 8
9.6062 1.9371 -2.4953 0.2468 0 8
9.5737 2.0915 -2.4953 0.2468 0 8
9.5388 2.2454 -2.4953 0.2468 0 8
9.5014 2.3987 -2.4953 0.2468 0 8
9.4616 2.5513 -2.4953 0.2468 0 8
9.4193 2.7033 -2.4953 0.2468 0 8
9.3746 2.8546 -2.4953 0.2468 0 8
9.3274 3.0052 -2.4953 0.2468 0 8
9.2778 3.1550 -2.4953 0.2468 0 8
9.2258 3.3039 -2.4953 0.2468 0 8
9.1714 3.4520 -2.4953 0.2468 0 8
9.1146 3.5992 -2.4953 0.2468 0 8
9.0555 3.7455 -2.4953 0.2468 0 8
8.9940 3.8908 -2.4953 0.2468 0 8
8.9302 4.0351 -2.4953 0.2468 0 8
8.8641 4.1784 -2.4953 0.2468 0 8
8.7957 4.3206 -2.4953 0.2468 0 8
8.7250 4.4616 -2.4953 0.2468 0 8
8.6520 4.6015 -2.4953 0.2468 0 8
8.5768 4.7402 -2.4953 0.2468 0 8
8.4994 4.8777 -2.4953 0.2468 0 8
8.4197 5.0139 -2.4953 0.2468 0 8
8.3379 5.1488 -2.4953 0.2468 0 8
8.2539 5.2824 -2.4953 0.2468 0 8
8.1678 5.4146 -2.4953 0.2468 0 8
8.0796 5.5454 -2.4953 0.2468 0 8
7.9893 5.6747 -2.4953 0.2468 0 8
7.8969 5.8026 -2.4953 0.2468 0 8
7.8024 5.9290 -2.4953 0.2468 0 8
7.7060 6.0539 -2.4953 0.2468 0 8
7.6075 6.1772 -2.4953 0.2468 0 8
7.5070 6.2988 -2.4953 0.2468 0 8
7.4047 6.4189 -2.4953 0.2468 0 8
7.3004 6.5373 -2.4953 0.2468 0 8
7.1942 6.6540 -2.4953 0.2468 0 8
7.0861 6.7689 -2.4953 0.2468 0 8
6.9762 6.8821 -2.4953 0.2468 0 8
6.8645 6.9936 -2.4953 0.2468 0 8
6.7510 7.1032 -2.4953 0.2468 0 8
6.6358 7.2109 -2.4953 0.2468 0 8
6.5188 7.3168 -2.4953 0.2468 0 8
6.4002 7.4208 -2.4953 0.2468 0 8
6.2799 7.5229 -2.4953 0.2468 0 8
6.1579 7.6231 -2.4953 0.2468 0 8
6.0344 7.7212 -2.4953 0.2468 0 8
5.9093 7.8174 -2.4953 0.2468 0 8
5.7827 7.9115 -2.4953 0.2468 0 8
8.9515 -3.0896 -2.4953 0.2548 0 8
9.0001 -2.9451 -2.4953 0.2548 0 8
9.0464 -2.7998 -2.4953 0.2548 0 8
9.0903 -2.6538 -2.4953 0.2548 0 8
9.1318 -2.5071 -2.4953 0.2548 0 8
9.1710 -2.3597 -2.4953 0.2548 0 8
9.2078 -2.2118 -2.4953 0.2548 0 8
9.2422 -2.0632 -2.4953 0.2548 0 8
9.2742 -1.9142 -2.4953 0.2548 0 8
9.3038 -1.7646 -2.4953 0.2548 0 8
9.3311 -1.6146 -2.4953 0.2548 0 8
9.3558 -1.4641 -2.4953 0.2548 0 8
9.3782 -1.3133 -2.4953 0.2548 0 8
9.3981 -1.1622 -2.4953 0.2548 0 8
8.1656 -0.8765 -2.1640 0.1927 25 10
7.8131 -0.7116 -2.0673 0.4013 25 10
7.6786 -0.5749 -2.0290 0.7190 25 10
7.6115 -0.4468 -2.0091 0.8137 25 10
7.5798 -0.3226 -1.9991 0.8469 25 10
7.5766 -0.2003 -1.9971 0.8886 25 10
7.5804 -0.0783 -1.9975 0.8884 25 10
7.5811 0.0438 -1.9976 0.9287 25 10
7.5777 0.1658 -1.9972 0.8885 25 10
7.5740 0.2878 -1.9972 0.8885 25 10
7.6025 0.4115 -2.0062 0.8439 25 10
7.6565 0.5382 -2.0225 0.7213 25 10
7.7454 0.6699 -2.0485 0.4050 25 10
7.9745 0.8193 -2.1124 0.1534 25 10
9.4033 1.1193 -2.4953 0.2548 0 8
9.3841 1.2706 -2.4953 0.2548 0 8
9.3624 1.4215 -2.4953 0.2548 0 8
9.3383 1.5720 -2.4953 0.2548 0 8
9.3118 1.7222 -2.4953 0.2548 0 8
9.2829 1.8719 -2.4953 0.2548 0 8
9.2515 2.0211 -2.4953 0.2548 0 8
9.2178 2.1698 -2.4953 0.2548 0 8
9.1816 2.3179 -2.4953 0.2548 0 8
9.1431 2.4654 -2.4953 0.2548 0 8
9.1023 2.6123 -2.4953 0.2548 0 8
9.0590 2.7585 -2.4953 0.2548 0 8
9.0134 2.9040 -2.4953 0.2548 0 8
8.9655 3.0488 -2.4953 0.2548 0 8
8.9153 3.1927 -2.4953 0.2548 0 8
8.8627 3.3358 -2.4953 0.2548 0 8
8.8078 3.4781 -2.4953 0.2548 0 8
8.7507 3.6195 -2.4953 0.2548 0 8
8.6913 3.7599 -2.4953 0.2548 0 8
8.6296 3.8993 -2.4953 0.2548 0 8
8.5657 4.0377 -2.4953 0.2548 0 8
8.4996 4.1751 -2.4953 0.2548 0 8
8.4313 4.3114 -2.4953 0.2548 0 8
8.3608 4.4466 -2.4953 0.2548 0 8
8.2881 4.5807 -2.4953 0.2548 0 8
8.2133 4.7135 -2.4953 0.2548 0 8
8.1363 4.8451 -2.4953 0.2548 0 8
8.0573 4.9755 -2.4953 0.2548 0 8
7.9761 5.1046 -2.4953 0.2548 0 8
7.8929 5.2323 -2.4953 0.2548 0 8
7.8076 5.3587 -2.4953 0.2548 0 8
7.7204 5.4837 -2.4953 0.2548 0 8
7.6311 5.6073 -2.4953 0.2548 0 8
7.5398 5.7295 -2.4953 0.2548 0 8
7.4466 5.8501 -2.4953 0.2548 0 8
7.3514 5.9692 -2.4953 0.2548 0 8
7.2544 6.0868 -2.4953 0.2548 0 8
7.1554 6.2028 -2.4953 0.2548 0 8
7.0546 6.3172 -2.4953 0.2548 0 8
6.9520 6.4300 -2.4953 0.2548 0 8
6.8476 6.5411 -2.4953 0.2548 0 8
6.7414 6.6505 -2.4953 0.2548 0 8
6.6334 6.7582 -2.4953 0.2548 0 8
6.5238 6.8641 -2.4953 0.2548 0 8
6.4124 6.9682 -2.4953 0.2548 0 8
6.2994 7.0706 -2.4953 0.2548 0 8
6.1847 7.1711 -2.4953 0.2548 0 8
6.0685 7.2697 -2.4953 0.2548 0 8
5.9507 7.3665 -2.4953 0.2548 0 8
5.8313 7.4613 -2.4953 0.2548 0 8
5.7104 7.5543 -2.4953 0.2548 0 8
5.5880 7.6452 -2.4953 0.2548 0 8
8.6588 -2.9886 -2.4953 0.2628 0 8
8.7058 -2.8488 -2.4953 0.2628 0 8
8.7505 -2.7082 -2.4953 0.2628 0 8
8.7930 -2.5670 -2.4953 0.2628 0 8
8.8332 -2.4251 -2.4953 0.2628 0 8
8.8711 -2.2826 -2.4953 0.2628 0 8
8.9067 -2.1395 -2.4953 0.2628 0 8
8.9400 -1.9958 -2.4953 0.2628 0 8
8.9710 -1.8516 -2.4953 0.2628 0 8
8.9996 -1.7069 -2.4953 0.2628 0 8
9.0259 -1.5618 -2.4953 0.2628 0 8
9.0499 -1.4163 -2.4953 0.2628 0 8
9.0715 -1.2704 -2.4953 0.2628 0 8
9.0908 -1.1242 -2.4953 0.2628 0 8
8.2792 -0.8887 -2.2683 0.8896 25 10
7.8440 -0.7145 -2.1456 0.5464 25 10
7.7019 -0.5767 -2.1039 0.7210 25 10
7.6332 -0.4481 -2.0829 0.8096 25 10
7.5977 -0.3233 -2.0715 0.8431 25 10
7.5926 -0.2007 -2.0690 0.8847 25 10
7.5908 -0.0784 -2.0679 0.9254 25 10
7.5895 0.0438 -2.0675 0.9256 25 10
7.5937 0.1661 -2.0691 0.8847 25 10
7.5900 0.2884 -2.0691 0.8847 25 10
7.6224 0.4126 -2.0794 0.8109 25 10
7.6800 0.5398 -2.0973 0.7175 25 10
7.7892 0.6737 -2.1298 0.4018 25 10
8.0204 0.8240 -2.1963 0.1959 25 10
9.0958 1.0827 -2.4953 0.2628 0 8
9.0772 1.2290 -2.4953 0.2628 0 8
9.0563 1.3750 -2.4953 0.2628 0 8
9.0329 1.5206 -2.4953 0.2628 0 8
9.0073 1.6659 -2.4953 0.2628 0 8
8.9793 1.8107 -2.4953 0.2628 0 8
8.9490 1.9550 -2.4953 0.2628 0 8
8.9164 2.0988 -2.4953 0.2628 0 8
8.8814 2.2421 -2.4953 0.2628 0 8
8.8442 2.3848 -2.4953 0.2628 0 8
8.8046 2.5269 -2.4953 0.2628 0 8
8.7628 2.6683 -2.4953 0.2628 0 8
8.7187 2.8091 -2.4953 0.2628 0 8
8.6723 2.9491 -2.4953 0.2628 0 8
8.6237 3.0883 -2.4953 0.2628 0 8
8.5729 3.2268 -2.4953 0.2628 0 8
8.5198 3.3644 -2.4953 0.2628 0 8
8.4646 3.5011 -2.4953 0.2628 0 8
8.4071 3.6369 -2.4953 0.2628 0 8
8.3474 3.7718 -2.4953 0.2628 0 8
8.2856 3.9057 -2.4953 0.2628 0 8
8.2217 4.0386 -2.4953 0.2628 0 8
8.1556 4.1705 -2.4953 0.2628 0 8
8.0874 4.3012 -2.4953 0.2628 0 8
8.0171 4.4309 -2.4953 0.2628 0 8
7.9447 4.5594 -2.4953 0.2628 0 8
7.8703 4.6867 -2.4953 0.2628 0 8
7.7938 4.8128 -2.4953 0.2628 0 8
7.7153 4.9377 -2.4953 0.2628 0 8
7.6348 5.0612 -2.4953 0.2628 0 8
7.5523 5.1835 -2.4953 0.2628 0 8
7.4679 5.3044 -2.4953 0.2628 0 8
7.3815 5.4240 -2.4953 0.2628 0 8
7.2933 5.5421 -2.4953 0.2628 0 8
7.2031 5.6588 -2.4953 0.2628 0 8
7.1110 5.7740 -2.4953 0.2628 0 8
7.0171 5.8878 -2.4953 0.2628 0 8
6.9214 6.0000 -2.4953 0.2628 0 8
6.8239 6.1107 -2.4953 0.2628 0 8
6.7247 6.2197 -2.4953 0.2628 0 8
6.6237 6.3272 -2.4953 0.2628 0 8
6.5209 6.4330 -2.4953 0.2628 0 8
6.4165 6.5372 -2.4953 0.2628 0 8
6.3104 6.6396 -2.4953 0.2628 0 8
6.2027 6.7404 -2.4953 0.2628 0 8
6.0934 6.8394 -2.4953 0.2628 0 8
5.9825 6.9366 -2.4953 0.2628 0 8
5.8700 7.0320 -2.4953 0.2628 0 8
5.7561 7.1256 -2.4953 0.2628 0 8
5.6406 7.2173 -2.4953 0.2628 0 8
5.5237 7.3072 -2.4953 0.2628 0 8
5.4053 7.3952 -2.4953 0.2628 0 8
8.3834 -2.8935 -2.4953 0.2708 0 8
8.4289 -2.7582 -2.4953 0.2708 0 8
8.4722 -2.6221 -2.4953 0.2708 0 8
8.5134 -2.4854 -2.4953 0.2708 0 8
8.5523 -2.3480 -2.4953 0.2708 0 8
8.5890 -2.2100 -2.4953 0.2708 0 8
8.6234 -2.0714 -2.4953 0.2708 0 8
8.6557 -1.9323 -2.4953 0.2708 0 8
8.6856 -1.7927 -2.4953 0.2708 0 8
8.7134 -1.6526 -2.4953 0.2708 0 8
8.7389 -1.5121 -2.4953 0.2708 0 8
8.7621 -1.3712 -2.4953 0.2708 0 8
8.7830 -1.2300 -2.4953 0.2708 0 8
8.8017 -1.0884 -2.4953 0.2708 0 8
8.3354 -0.8947 -2.3587 0.6454 25 10
8.3323 -0.7589 -2.3540 0.6466 25 10
7.7251 -0.5784 -2.1796 0.7172 25 10
7.6551 -0.4493 -2.1575 0.8054 25 10
7.6169 -0.3241 -2.1450 0.8101 25 10
7.6042 -0.2010 -2.1402 0.9214 25 10
7.5993 -0.0785 -2.1382 0.9222 25 10
7.5979 0.0439 -2.1378 0.9224 25 10
7.6028 0.1663 -2.1396 0.9216 25 10
7.6067 0.2890 -2.1417 0.8403 25 10
7.6442 0.4138 -2.1539 0.8068 25 10
7.7031 0.5415 -2.1727 0.7194 25 10
8.3315 0.7206 -2.3529 0.6469 25 10
8.3345 0.8562 -2.3573 0.6457 25 10
8.8065 1.0483 -2.4953 0.2708 0 8
8.7885 1.1899 -2.4953 0.2708 0 8
8.7682 1.3313 -2.4953 0.2708 0 8
8.7457 1.4723 -2.4953 0.2708 0 8
8.7208 1.6129 -2.4953 0.2708 0 8
8.6937 1.7531 -2.4953 0.2708 0 8
8.6644 1.8928 -2.4953 0.2708 0 8
8.6328 2.0321 -2.4953 0.2708 0 8
8.5989 2.1708 -2.4953 0.2708 0 8
8.5629 2.3090 -2.4953 0.2708 0 8
8.5246 2.4465 -2.4953 0.2708 0 8
8.4841 2.5835 -2.4953 0.2708 0 8
8.4414 2.7197 -2.4953 0.2708 0 8
8.3965 2.8553 -2.4953 0.2708 0 8
8.3495 2.9901 -2.4953 0.2708 0 8
8.3002 3.1241 -2.4953 0.2708 0 8
8.2489 3.2574 -2.4953 0.2708 0 8
8.1954 3.3897 -2.4953 0.2708 0 8
8.1397 3.5213 -2.4953 0.2708 0 8
8.0820 3.6518 -2.4953 0.2708 0 8
8.0221 3.7815 -2.4953 0.2708 0 8
7.9602 3.9102 -2.4953 0.2708 0 8
7.8962 4.0378 -2.4953 0.2708 0 8
7.8302 4.1644 -2.4953 0.2708 0 8
7.7621 4.2900 -2.4953 0.2708 0 8
7.6920 4.4144 -2.4953 0.2708 0 8
7.6200 4.5376 -2.4953 0.2708 0 8
7.5459 4.6597 -2.4953 0.2708 0 8
7.4699 4.7806 -2.4953 0.2708 0 8
7.3920 4.9003 -2.4953 0.2708 0 8
7.3121 5.0186 -2.4953 0.2708 0 8
7.2304 5.1357 -2.4953 0.2708 0 8
7.1468 5.2515 -2.4953 0.2708 0 8
7.0613 5.3658 -2.4953 0.2708 0 8
6.9740 5.4788 -2.4953 0.2708 0 8
6.8849 5.5904 -2.4953 0.2708 0 8
6.7940 5.7005 -2.4953 0.2708 0 8
6.7013 5.8092 -2.4953 0.2708 0 8
6.6069 5.9163 -2.4953 0.2708 0 8
6.5108 6.0219 -2.4953 0.2708 0 8
6.4130 6.1260 -2.4953 0.2708 0 8
6.3136 6.2284 -2.4953 0.2708 0 8
6.2125 6.3293 -2.4953 0.2708 0 8
6.1097 6.4285 -2.4953 0.2708 0 8
6.0055 6.5260 -2.4953 0.2708 0 8
5.8996 6.6218 -2.4953 0.2708 0 8
5.7922 6.7160 -2.4953 0.2708 0 8
5.6834 6.8084 -2.4953 0.2708 0 8
5.5730 6.8990 -2.4953 0.2708 0 8
5.4612 6.9878 -2.4953 0.2708 0 8
5.3480 7.0748 -2.4953 0.2708 0 8
5.2334 7.1600 -2.4953 0.2708 0 8
8.1238 -2.8039 -2.4953 0.2788 0 8
8.1679 -2.6728 -2.4953 0.2788 0 8
8.2099 -2.5409 -2.4953 0.2788 0 8
8.2497 -2.4084 -2.4953 0.2788 0 8
8.2875 -2.2753 -2.4953 0.2788 0 8
8.3230 -2.1415 -2.4953 0.2788 0 8
8.3564 -2.0073 -2.4953 0.2788 0 8
8.3876 -1.8725 -2.4953 0.2788 0 8
8.4167 -1.7372 -2.4953 0.2788 0 8
8.4436 -1.6014 -2.4953 0.2788 0 8
8.4683 -1.4653 -2.4953 0.2788 0 8
8.4908 -1.3288 -2.4953 0.2788 0 8
8.5111 -1.1919 -2.4953 0.2788 0 8
8.5291 -1.0547 -2.4953 0.2788 0 8
8.5450 -0.9173 -2.4953 0.2788 0 8
8.4743 -0.7719 -2.4707 0.2995 25 10
8.5701 -0.6417 -2.4953 0.2788 0 8
8.5793 -0.5036 -2.4953 0.2788 0 8
8.5863 -0.3654 -2.4953 0.2788 0 8
8.5911 -0.2271 -2.4953 0.2788 0 8
8.5936 -0.0888 -2.4953 0.2788 0 8
8.5940 0.0496 -2.4953 0.2788 0 8
8.5921 0.1880 -2.4953 0.2788 0 8
8.5879 0.3263 -2.4953 0.2788 0 8
8.5815 0.4645 -2.4953 0.2788 0 8
8.5730 0.6026 -2.4953 0.2788 0 8
8.4717 0.7327 -2.4689 0.2997 25 10
8.5491 0.8783 -2.4953 0.2788 0 8
8.5339 1.0158 -2.4953 0.2788 0 8
8.5164 1.1531 -2.4953 0.2788 0 8
8.4967 1.2901 -2.4953 0.2788 0 8
8.4749 1.4267 -2.4953 0.2788 0 8
8.4508 1.5630 -2.4953 0.2788 0 8
8.4245 1.6988 -2.4953 0.2788 0 8
8.3961 1.8342 -2.4953 0.2788 0 8
8.3655 1.9692 -2.4953 0.2788 0 8
8.3327 2.1036 -2.4953 0.2788 0 8
8.2977 2.2375 -2.4953 0.2788 0 8
8.2606 2.3708 -2.4953 0.2788 0 8
8.2214 2.5035 -2.4953 0.2788 0 8
8.1800 2.6355 -2.4953 0.2788 0 8
8.1365 2.7669 -2.4953 0.2788 0 8
8.0909 2.8975 -2.4953 0.2788 0 8
8.0432 3.0274 -2.4953 0.2788 0 8
7.9934 3.1565 -2.4953 0.2788 0 8
7.9416 3.2848 -2.4953 0.2788 0 8
7.8877 3.4122 -2.4953 0.2788 0 8
7.8317 3.5388 -2.4953 0.2788 0 8
7.7737 3.6644 -2.4953 0.2788 0 8
7.7137 3.7891 -2.4953 0.2788 0 8
7.6517 3.9128 -2.4953 0.2788 0 8
7.5877 4.0355 -2.4953 0.2788 0 8
7.5218 4.1571 -2.4953 0.2788 0 8
7.4539 4.2777 -2.4953 0.2788 0 8
7.3840 4.3971 -2.4953 0.2788 0 8
7.3123 4.5154 -2.4953 0.2788 0 8
7.2386 4.6326 -2.4953 0.2788 0 8
7.1631 4.7485 -2.4953 0.2788 0 8
7.0857 4.8632 -2.4953 0.2788 0 8
7.0065 4.9767 -2.4953 0.2788 0 8
6.9255 5.0889 -2.4953 0.2788 0 8
6.8427 5.1997 -2.4953 0.2788 0 8
6.7580 5.3092 -2.4953 0.2788 0 8
6.6717 5.4173 -2.4953 0.2788 0 8
6.5836 5.5240 -2.4953 0.2788 0 8
6.4938 5.6293 -2.4953 0.2788 0 8
6.4023 5.7331 -2.4953 0.2788 0 8
6.3092 5.8355 -2.4953 0.2788 0 8
6.2144 5.9363 -2.4953 0.2788 0 8
6.1181 6.0356 -2.4953 0.2788 0 8
6.0201 6.1333 -2.4953 0.2788 0 8
5.9206 6.2294 -2.4953 0.2788 0 8
5.8195 6.3239 -2.4953 0.2788 0 8
5.7169 6.4168 -2.4953 0.2788 0 8
5.6129 6.5080 -2.4953 0.2788 0 8
5.5074 6.5975 -2.4953 0.2788 0 8
5.4004 6.6854 -2.4953 0.2788 0 8
5.2921 6.7714 -2.4953 0.2788 0 8
5.1824 6.8558 -2.4953 0.2788 0 8
5.0714 6.9383 -2.4953 0.2788 0 8
7.8787 -2.7193 -2.4953 0.2868 0 8
7.9215 -2.5921 -2.4953 0.2868 0 8
7.9622 -2.4642 -2.4953 0.2868 0 8
8.0008 -2.3357 -2.4953 0.2868 0 8
8.0374 -2.2066 -2.4953 0.2868 0 8
8.0719 -2.0769 -2.4953 0.2868 0 8
8.1043 -1.9467 -2.4953 0.2868 0 8
8.1346 -1.8160 -2.4953 0.2868 0 8
8.1627 -1.6848 -2.4953 0.2868 0 8
8.1888 -1.5531 -2.4953 0.2868 0 8
8.2127 -1.4211 -2.4953 0.2868 0 8
8.2346 -1.2887 -2.4953 0.2868 0 8
8.2542 -1.1559 -2.4953 0.2868 0 8
8.2718 -1.0229 -2.4953 0.2868 0 8
8.2872 -0.8896 -2.4953 0.2868 0 8
8.3004 -0.7560 -2.4953 0.2868 0 8
8.3115 -0.6223 -2.4953 0.2868 0 8
8.3205 -0.4884 -2.4953 0.2868 0 8
8.3272 -0.3544 -2.4953 0.2868 0 8
8.3319 -0.2203 -2.4953 0.2868 0 8
8.3343 -0.0861 -2.4953 0.2868 0 8
8.3346 0.0481 -2.4953 0.2868 0 8
8.3328 0.1823 -2.4953 0.2868 0 8
8.3288 0.3164 -2.4953 0.2868 0 8
8.3226 0.4505 -2.4953 0.2868 0 8
8.3143 0.5844 -2.4953 0.2868 0 8
8.3038 0.7182 -2.4953 0.2868 0 8
8.2911 0.8518 -2.4953 0.2868 0 8
8.2764 0.9852 -2.4953 0.2868 0 8
8.2594 1.1183 -2.4953 0.2868 0 8
8.2403 1.2511 -2.4953 0.2868 0 8
8.2191 1.3836 -2.4953 0.2868 0 8
8.1958 1.5158 -2.4953 0.2868 0 8
8.1703 1.6475 -2.4953 0.2868 0 8
8.1427 1.7789 -2.4953 0.2868 0 8
8.1130 1.9097 -2.4953 0.2868 0 8
8.0812 2.0401 -2.4953 0.2868 0 8
8.0474 2.1700 -2.4953 0.2868 0 8
8.0114 2.2992 -2.4953 0.2868 0 8
7.9733 2.4279 -2.4953 0.2868 0 8
7.9332 2.5560 -2.4953 0.2868 0 8
7.8910 2.6834 -2.4953 0.2868 0 8
7.8468 2.8101 -2.4953 0.2868 0 8
7.8005 2.9360 -2.4953 0.2868 0 8
7.7522 3.0613 -2.4953 0.2868 0 8
7.7020 3.1857 -2.4953 0.2868 0 8
7.6497 3.3093 -2.4953 0.2868 0 8
7.5954 3.4320 -2.4953 0.2868 0 8
7.5392 3.5538 -2.4953 0.2868 0 8
7.4810 3.6748 -2.4953 0.2868 0 8
7.4208 3.7947 -2.4953 0.2868 0 8
7.3588 3.9137 -2.4953 0.2868 0 8
7.2948 4.0317 -2.4953 0.2868 0 8
7.2290 4.1486 -2.4953 0.2868 0 8
7.1612 4.2645 -2.4953 0.2868 0 8
7.0916 4.3792 -2.4953 0.2868 0 8
7.0202 4.4928 -2.4953 0.2868 0 8
6.9470 4.6052 -2.4953 0.2868 0 8
6.8719 4.7165 -2.4953 0.2868 0 8
6.7951 4.8265 -2.4953 0.2868 0 8
6.7165 4.9353 -2.4953 0.2868 0 8
6.6362 5.0428 -2.4953 0.2868 0 8
6.5541 5.1490 -2.4953 0.2868 0 8
6.4704 5.2538 -2.4953 0.2868 0 8
6.3850 5.3573 -2.4953 0.2868 0 8
6.2979 5.4594 -2.4953 0.2868 0 8
6.2092 5.5601 -2.4953 0.2868 0 8
6.1188 5.6594 -2.4953 0.2868 0 8
6.0269 5.7572 -2.4953 0.2868 0 8
5.9335 5.8534 -2.4953 0.2868 0 8
5.8384 5.9482 -2.4953 0.2868 0 8
5.7419 6.0414 -2.4953 0.2868 0 8
5.6439 6.1331 -2.4953 0.2868 0 8
5.5444 6.2232 -2.4953 0.2868 0 8
5.4435 6.3116 -2.4953 0.2868 0 8
5.3412 6.3985 -2.4953 0.2868 0 8
5.2375 6.4836 -2.4953 0.2868 0 8
5.1324 6.5671 -2.4953 0.2868 0 8
5.0260 6.6489 -2.4953 0.2868 0 8
4.9183 6.7289 -2.4953 0.2868 0 8
7.6468 -2.6393 -2.4953 0.2948 0 8
7.6883 -2.5158 -2.4953 0.2948 0 8
7.7278 -2.3917 -2.4953 0.2948 0 8
7.7653 -2.2670 -2.4953 0.2948 0 8
7.8008 -2.1417 -2.4953 0.2948 0 8
7.8343 -2.0158 -2.4953 0.2948 0 8
7.8657 -1.8894 -2.4953 0.2948 0 8
7.8951 -1.7625 -2.4953 0.2948 0 8
7.9225 -1.6352 -2.4953 0.2948 0 8
7.9478 -1.5074 -2.4953 0.2948 0 8
7.9710 -1.3793 -2.4953 0.2948 0 8
7.9922 -1.2507 -2.4953 0.2948 0 8
8.0113 -1.1219 -2.4953 0.2948 0 8
8.0283 -0.9928 -2.4953 0.2948 0 8
8.0433 -0.8634 -2.4953 0.2948 0 8
8.0561 -0.7338 -2.4953 0.2948 0 8
8.0669 -0.6040 -2.4953 0.2948 0 8
8.0756 -0.4740 -2.4953 0.2948 0 8
8.0822 -0.3439 -2.4953 0.2948 0 8
8.0866 -0.2138 -2.4953 0.2948 0 8
8.0890 -0.0836 -2.4953 0.2948 0 8
8.0893 0.0467 -2.4953 0.2948 0 8
8.0875 0.1769 -2.4953 0.2948 0 8
8.0836 0.3071 -2.4953 0.2948 0 8
8.0776 0.4372 -2.4953 0.2948 0 8
8.0696 0.5672 -2.4953 0.2948 0 8
8.0594 0.6971 -2.4953 0.2948 0 8
8.0471 0.8267 -2.4953 0.2948 0 8
8.0328 0.9562 -2.4953 0.2948 0 8
8.0163 1.0854 -2.4953 0.2948 0 8
7.9978 1.2143 -2.4953 0.2948 0 8
7.9772 1.3429 -2.4953 0.2948 0 8
7.9546 1.4712 -2.4953 0.2948 0 8
7.9299 1.5991 -2.4953 0.2948 0 8
7.9031 1.7265 -2.4953 0.2948 0 8
7.8743 1.8535 -2.4953 0.2948 0 8
7.8434 1.9801 -2.4953 0.2948 0 8
7.8105 2.1061 -2.4953 0.2948 0 8
7.7756 2.2316 -2.4953 0.2948 0 8
7.7386 2.3565 -2.4953 0.2948 0 8
7.6997 2.4808 -2.4953 0.2948 0 8
7.6588 2.6044 -2.4953 0.2948 0 8
7.6158 2.7274 -2.4953 0.2948 0 8
7.5709 2.8496 -2.4953 0.2948 0 8
7.5241 2.9712 -2.4953 0.2948 0 8
7.4753 3.0919 -2.4953 0.2948 0 8
7.4245 3.2119 -2.4953 0.2948 0 8
7.3718 3.3310 -2.4953 0.2948 0 8
7.3173 3.4492 -2.4953 0.2948 0 8
7.2608 3.5666 -2.4953 0.2948 0 8
7.2024 3.6830 -2.4953 0.2948 0 8
7.1422 3.7985 -2.4953 0.2948 0 8
7.0801 3.9130 -2.4953 0.2948 0 8
7.0162 4.0265 -2.4953 0.2948 0 8
6.9504 4.1389 -2.4953 0.2948 0 8
6.8829 4.2503 -2.4953 0.2948 0 8
6.8136 4.3606 -2.4953 0.2948 0 8
6.7425 4.4697 -2.4953 0.2948 0 8
6.6697 4.5777 -2.4953 0.2948 0 8
6.5951 4.6845 -2.4953 0.2948 0 8
6.5188 4.7900 -2.4953 0.2948 0 8
6.4409 4.8944 -2.4953 0.2948 0 8
6.3612 4.9974 -2.4953 0.2948 0 8
6.2799 5.0992 -2.4953 0.2948 0 8
6.1970 5.1997 -2.4953 0.2948 0 8
6.1125 5.2988 -2.4953 0.2948 0 8
6.0264 5.3965 -2.4953 0.2948 0 8
5.9387 5.4928 -2.4953 0.2948 0 8
5.8495 5.5877 -2.4953 0.2948 0 8
5.7588 5.6812 -2.4953 0.2948 0 8
5.6666 5.7731 -2.4953 0.2948 0 8
5.5729 5.8636 -2.4953 0.2948 0 8
5.4778 5.9526 -2.4953 0.2948 0 8
5.3812 6.0400 -2.4953 0.2948 0 8
5.2833 6.1259 -2.4953 0.2948 0 8
5.1840 6.2101 -2.4953 0.2948 0 8
5.0833 6.2928 -2.4953 0.2948 0 8
4.9814 6.3738 -2.4953 0.2948 0 8
4.8781 6.4532 -2.4953 0.2948 0 8
4.7736 6.5309 -2.4953 0.2948 0 8
7.4271 -2.5634 -2.4953 0.3027 0 8
7.4674 -2.4435 -2.4953 0.3027 0 8
7.5058 -2.3230 -2.4953 0.3027 0 8
7.5422 -2.2018 -2.4953 0.3027 0 8
7.5767 -2.0801 -2.4953 0.3027 0 8
7.6092 -1.9579 -2.4953 0.3027 0 8
7.6397 -1.8351 -2.4953 0.3027 0 8
7.6683 -1.7119 -2.4953 0.3027 0 8
7.6948 -1.5882 -2.4953 0.3027 0 8
7.7194 -1.4641 -2.4953 0.3027 0 8
7.7420 -1.3396 -2.4953 0.3027 0 8
7.7625 -1.2148 -2.4953 0.3027 0 8
7.7811 -1.0897 -2.4953 0.3027 0 8
7.7976 -0.9642 -2.4953 0.3027 0 8
7.8122 -0.8386 -2.4953 0.3027 0 8
7.8246 -0.7127 -2.4953 0.3027 0 8
7.8351 -0.5866 -2.4953 0.3027 0 8
7.8435 -0.4604 -2.4953 0.3027 0 8
7.8499 -0.3341 -2.4953 0.3027 0 8
7.8543 -0.2076 -2.4953 0.3027 0 8
7.8566 -0.0812 -2.4953 0.3027 0 8
7.8569 0.0453 -2.4953 0.3027 0 8
7.8551 0.1718 -2.4953 0.3027 0 8
7.8514 0.2983 -2.4953 0.3027 0 8
7.8455 0.4247 -2.4953 0.3027 0 8
7.8377 0.5509 -2.4953 0.3027 0 8
7.8278 0.6770 -2.4953 0.3027 0 8
7.8159 0.8030 -2.4953 0.3027 0 8
7.8019 0.9287 -2.4953 0.3027 0 8
7.7860 1.0542 -2.4953 0.3027 0 8
7.7680 1.1794 -2.4953 0.3027 0 8
7.7480 1.3043 -2.4953 0.3027 0 8
7.7260 1.4289 -2.4953 0.3027 0 8
7.7020 1.5531 -2.4953 0.3027 0 8
7.6760 1.6769 -2.4953 0.3027 0 8
7.6480 1.8003 -2.4953 0.3027 0 8
7.6180 1.9232 -2.4953 0.3027 0 8
7.5861 2.0456 -2.4953 0.3027 0 8
7.5522 2.1675 -2.4953 0.3027 0 8
7.5163 2.2888 -2.4953 0.3027 0 8
7.4785 2.4095 -2.4953 0.3027 0 8
7.4387 2.5296 -2.4953 0.3027 0 8
7.3970 2.6490 -2.4953 0.3027 0 8
7.3534 2.7677 -2.4953 0.3027 0 8
7.3079 2.8858 -2.4953 0.3027 0 8
7.2605 3.0031 -2.4953 0.3027 0 8
7.2112 3.1196 -2.4953 0.3027 0 8
7.1600 3.2353 -2.4953 0.3027 0 8
7.1070 3.3501 -2.4953 0.3027 0 8
7.0522 3.4641 -2.4953 0.3027 0 8
6.9955 3.5772 -2.4953 0.3027 0 8
6.9370 3.6894 -2.4953 0.3027 0 8
6.8767 3.8006 -2.4953 0.3027 0 8
6.8146 3.9108 -2.4953 0.3027 0 8
6.7507 4.0200 -2.4953 0.3027 0 8
6.6851 4.1282 -2.4953 0.3027 0 8
6.6178 4.2353 -2.4953 0.3027 0 8
6.5488 4.3413 -2.4953 0.3027 0 8
6.4780 4.4461 -2.4953 0.3027 0 8
6.4056 4.5499 -2.4953 0.3027 0 8
6.3315 4.6524 -2.4953 0.3027 0 8
6.2558 4.7537 -2.4953 0.3027 0 8
6.1784 4.8538 -2.4953 0.3027 0 8
6.0995 4.9527 -2.4953 0.3027 0 8
6.0190 5.0502 -2.4953 0.3027 0 8
5.9369 5.1465 -2.4953 0.3027 0 8
5.8532 5.2414 -2.4953 0.3027 0 8
5.7681 5.3350 -2.4953 0.3027 0 8
5.6815 5.4272 -2.4953 0.3027 0 8
5.5933 5.5179 -2.4953 0.3027 0 8
5.5038 5.6073 -2.4953 0.3027 0 8
5.4128 5.6951 -2.4953 0.3027 0 8
5.3204 5.7816 -2.4953 0.3027 0 8
5.2266 5.8665 -2.4953 0.3027 0 8
5.1315 5.9499 -2.4953 0.3027 0 8
5.0350 6.0317 -2.4953 0.3027 0 8
4.9373 6.1120 -2.4953 0.3027 0 8
4.8382 6.1907 -2.4953 0.3027 0 8
4.7379 6.2678 -2.4953 0.3027 0 8
4.6364 6.3432 -2.4953 0.3027 0 8
7.2186 -2.4915 -2.4953 0.3106 0 8
7.2578 -2.3749 -2.4953 0.3106 0 8
7.2950 -2.2578 -2.4953 0.3106 0 8
7.3305 -2.1400 -2.4953 0.3106 0 8
7.3640 -2.0217 -2.4953 0.3106 0 8
7.3956 -1.9029 -2.4953 0.3106 0 8
7.4252 -1.7836 -2.4953 0.3106 0 8
7.4530 -1.6638 -2.4953 0.3106 0 8
7.4788 -1.5436 -2.4953 0.3106 0 8
7.5027 -1.4230 -2.4953 0.3106 0 8
7.5246 -1.3020 -2.4953 0.3106 0 8
7.5446 -1.1807 -2.4953 0.3106 0 8
7.5626 -1.0591 -2.4953 0.3106 0 8
7.5787 -0.9372 -2.4953 0.3106 0 8
7.5928 -0.8150 -2.4953 0.3106 0 8
7.6050 -0.6927 -2.4953 0.3106 0 8
7.6151 -0.5702 -2.4953 0.3106 0 8
7.6233 -0.4475 -2.4953 0.3106 0 8
7.6295 -0.3247 -2.4953 0.3106 0 8
7.6338 -0.2018 -2.4953 0.3106 0 8
7.6360 -0.0789 -2.4953 0.3106 0 8
7.6363 0.0441 -2.4953 0.3106 0 8
7.6346 0.1670 -2.4953 0.3106 0 8
7.6309 0.2899 -2.4953 0.3106 0 8
7.6253 0.4127 -2.4953 0.3106 0 8
7.6176 0.5354 -2.4953 0.3106 0 8
7.6080 0.6580 -2.4953 0.3106 0 8
7.5965 0.7804 -2.4953 0.3106 0 8
7.5829 0.9026 -2.4953 0.3106 0 8
7.5674 1.0246 -2.4953 0.3106 0 8
7.5499 1.1463 -2.4953 0.3106 0 8
7.5305 1.2677 -2.4953 0.3106 0 8
7.5091 1.3888 -2.4953 0.3106 0 8
7.4858 1.5095 -2.4953 0.3106 0 8
7.4605 1.6298 -2.4953 0.3106 0 8
7.4333 1.7497 -2.4953 0.3106 0 8
7.4041 1.8692 -2.4953 0.3106 0 8
7.3731 1.9882 -2.4953 0.3106 0 8
7.3401 2.1066 -2.4953 0.3106 0 8
7.3053 2.2245 -2.4953 0.3106 0 8
7.2685 2.3418 -2.4953 0.3106 0 8
7.2299 2.4586 -2.4953 0.3106 0 8
7.1893 2.5746 -2.4953 0.3106 0 8
7.1469 2.6900 -2.4953 0.3106 0 8
7.1027 2.8048 -2.4953 0.3106 0 8
7.0566 2.9188 -2.4953 0.3106 0 8
7.0087 3.0320 -2.4953 0.3106 0 8
6.9590 3.1444 -2.4953 0.3106 0 8
6.9075 3.2561 -2.4953 0.3106 0 8
6.8542 3.3669 -2.4953 0.3106 0 8
6.7991 3.4768 -2.4953 0.3106 0 8
6.7422 3.5858 -2.4953 0.3106 0 8
6.6836 3.6939 -2.4953 0.3106 0 8
6.6233 3.8010 -2.4953 0.3106 0 8
6.5612 3.9072 -2.4953 0.3106 0 8
6.4974 4.0123 -2.4953 0.3106 0 8
6.4320 4.1164 -2.4953 0.3106 0 8
6.3649 4.2194 -2.4953 0.3106 0 8
6.2961 4.3213 -2.4953 0.3106 0 8
6.2258 4.4221 -2.4953 0.3106 0 8
6.1538 4.5218 -2.4953 0.3106 0 8
6.0802 4.6203 -2.4953 0.3106 0 8
6.0050 4.7176 -2.4953 0.3106 0 8
5.9282 4.8136 -2.4953 0.3106 0 8
5.8500 4.9085 -2.4953 0.3106 0 8
5.7702 5.0020 -2.4953 0.3106 0 8
5.6889 5.0943 -2.4953 0.3106 0 8
5.6062 5.1852 -2.4953 0.3106 0 8
5.5219 5.2748 -2.4953 0.3106 0 8
5.4363 5.3630 -2.4953 0.3106 0 8
5.3493 5.4498 -2.4953 0.3106 0 8
5.2608 5.5353 -2.4953 0.3106 0 8
5.1710 5.6192 -2.4953 0.3106 0 8
5.0799 5.7018 -2.4953 0.3106 0 8
4.9874 5.7828 -2.4953 0.3106 0 8
4.8937 5.8624 -2.4953 0.3106 0 8
4.7987 5.9404 -2.4953 0.3106 0 8
4.7024 6.0169 -2.4953 0.3106 0 8
4.6049 6.0918 -2.4953 0.3106 0 8
4.5062 6.1652 -2.4953 0.3106 0 8
7.0204 -2.4231 -2.4953 0.3185 0 8
7.0585 -2.3097 -2.4953 0.3185 0 8
7.0948 -2.1958 -2.4953 0.3185 0 8
7.1292 -2.0813 -2.4953 0.3185 0 8
7.1618 -1.9662 -2.4953 0.3185 0 8
7.1925 -1.8507 -2.4953 0.3185 0 8
7.2214 -1.7346 -2.4953 0.3185 0 8
7.2484 -1.6181 -2.4953 0.3185 0 8
7.2735 -1.5012 -2.4953 0.3185 0 8
7.2967 -1.3839 -2.4953 0.3185 0 8
7.3181 -1.2663 -2.4953 0.3185 0 8
7.3375 -1.1483 -2.4953 0.3185 0 8
7.3550 -1.0300 -2.4953 0.3185 0 8
7.3707 -0.9115 -2.4953 0.3185 0 8
7.3844 -0.7927 -2.4953 0.3185 0 8
7.3962 -0.6737 -2.4953 0.3185 0 8
7.4061 -0.5545 -2.4953 0.3185 0 8
7.4140 -0.4352 -2.4953 0.3185 0 8
7.4201 -0.3158 -2.4953 0.3185 0 8
7.4242 -0.1963 -2.4953 0.3185 0 8
7.4264 -0.0767 -2.4953 0.3185 0 8
7.4267 0.0429 -2.4953 0.3185 0 8
7.4250 0.1624 -2.4953 0.3185 0 8
7.4214 0.2820 -2.4953 0.3185 0 8
7.4159 0.4014 -2.4953 0.3185 0 8
7.4085 0.5207 -2.4953 0.3185 0 8
7.3992 0.6400 -2.4953 0.3185 0 8
7.3879 0.7590 -2.4953 0.3185 0 8
7.3747 0.8779 -2.4953 0.3185 0 8
7.3596 0.9965 -2.4953 0.3185 0 8
7.3426 1.1148 -2.4953 0.3185 0 8
7.3237 1.2329 -2.4953 0.3185 0 8
7.3029 1.3507 -2.4953 0.3185 0 8
7.2803 1.4681 -2.4953 0.3185 0 8
7.2557 1.5851 -2.4953 0.3185 0 8
7.2292 1.7017 -2.4953 0.3185 0 8
7.2009 1.8179 -2.4953 0.3185 0 8
7.1707 1.9336 -2.4953 0.3185 0 8
7.1386 2.0488 -2.4953 0.3185 0 8
7.1047 2.1634 -2.4953 0.3185 0 8
7.0690 2.2775 -2.4953 0.3185 0 8
7.0314 2.3911 -2.4953 0.3185 0 8
6.9920 2.5039 -2.4953 0.3185 0 8
6.9507 2.6162 -2.4953 0.3185 0 8
6.9077 2.7278 -2.4953 0.3185 0 8
6.8629 2.8386 -2.4953 0.3185 0 8
6.8163 2.9488 -2.4953 0.3185 0 8
6.7680 3.0581 -2.4953 0.3185 0 8
6.7178 3.1667 -2.4953 0.3185 0 8
6.6660 3.2744 -2.4953 0.3185 0 8
6.6124 3.3813 -2.4953 0.3185 0 8
6.5571 3.4874 -2.4953 0.3185 0 8
6.5001 3.5925 -2.4953 0.3185 0 8
6.4414 3.6967 -2.4953 0.3185 0 8
6.3811 3.7999 -2.4953 0.3185 0 8
6.3191 3.9021 -2.4953 0.3185 0 8
6.2554 4.0034 -2.4953 0.3185 0 8
6.1902 4.1036 -2.4953 0.3185 0 8
6.1233 4.2027 -2.4953 0.3185 0 8
6.0548 4.3007 -2.4953 0.3185 0 8
5.9848 4.3977 -2.4953 0.3185 0 8
5.9132 4.4934 -2.4953 0.3185 0 8
5.8401 4.5881 -2.4953 0.3185 0 8
5.7655 4.6815 -2.4953 0.3185 0 8
5.6894 4.7737 -2.4953 0.3185 0 8
5.6118 4.8647 -2.4953 0.3185 0 8
5.5327 4.9544 -2.4953 0.3185 0 8
5.4522 5.0428 -2.4953 0.3185 0 8
5.3704 5.1300 -2.4953 0.3185 0 8
5.2871 5.2158 -2.4953 0.3185 0 8
5.2024 5.3002 -2.4953 0.3185 0 8
5.1164 5.3833 -2.4953 0.3185 0 8
5.0291 5.4650 -2.4953 0.3185 0 8
4.9404 5.5452 -2.4953 0.3185 0 8
4.8505 5.6241 -2.4953 0.3185 0 8
4.7593 5.7014 -2.4953 0.3185 0 8
4.6669 5.7773 -2.4953 0.3185 0 8
4.5733 5.8517 -2.4953 0.3185 0 8
4.4785 5.9246 -2.4953 0.3185 0 8
4.3825 5.9959 -2.4953 0.3185 0 8
6.8318 -2.3580 -2.4953 0.3264 0 8
6.8689 -2.2477 -2.4953 0.3264 0 8
6.9042 -2.1368 -2.4953 0.3264 0 8
6.9377 -2.0254 -2.4953 0.3264 0 8
6.9694 -1.9134 -2.4953 0.3264 0 8
6.9993 -1.8009 -2.4953 0.3264 0 8
7.0274 -1.6880 -2.4953 0.3264 0 8
7.0536 -1.5747 -2.4953 0.3264 0 8
7.0781 -1.4609 -2.4953 0.3264 0 8
7.1007 -1.3467 -2.4953 0.3264 0 8
7.1215 -1.2323 -2.4953 0.3264 0 8
7.1404 -1.1174 -2.4953 0.3264 0 8
7.1574 -1.0023 -2.4953 0.3264 0 8
7.1726 -0.8870 -2.4953 0.3264 0 8
7.1860 -0.7714 -2.4953 0.3264 0 8
7.1975 -0.6556 -2.4953 0.3264 0 8
7.2071 -0.5396 -2.4953 0.3264 0 8
7.2149 -0.4235 -2.4953 0.3264 0 8
7.2207 -0.3073 -2.4953 0.3264 0 8
7.2248 -0.1910 -2.4953 0.3264 0 8
7.2269 -0.0746 -2.4953 0.3264 0 8
7.2272 0.0417 -2.4953 0.3264 0 8
7.2255 0.1581 -2.4953 0.3264 0 8
7.2221 0.2744 -2.4953 0.3264 0 8
7.2167 0.3906 -2.4953 0.3264 0 8
7.2095 0.5068 -2.4953 0.3264 0 8
7.2004 0.6228 -2.4953 0.3264 0 8
7.1894 0.7386 -2.4953 0.3264 0 8
7.1766 0.8543 -2.4953 0.3264 0 8
7.1619 0.9697 -2.4953 0.3264 0 8
7.1454 1.0849 -2.4953 0.3264 0 8
7.1270 1.1998 -2.4953 0.3264 0 8
7.1068 1.3144 -2.4953 0.3264 0 8
7.0847 1.4286 -2.4953 0.3264 0 8
7.0608 1.5425 -2.4953 0.3264 0 8
7.0350 1.6560 -2.4953 0.3264 0 8
7.0074 1.7690 -2.4953 0.3264 0 8
6.9780 1.8816 -2.4953 0.3264 0 8
6.9468 1.9937 -2.4953 0.3264 0 8
6.9138 2.1053 -2.4953 0.3264 0 8
6.8790 2.2164 -2.4953 0.3264 0 8
6.8425 2.3268 -2.4953 0.3264 0 8
6.8041 2.4367 -2.4953 0.3264 0 8
6.7640 2.5459 -2.4953 0.3264 0 8
6.7221 2.6545 -2.4953 0.3264 0 8
6.6785 2.7624 -2.4953 0.3264 0 8
6.6332 2.8695 -2.4953 0.3264 0 8
6.5861 2.9760 -2.4953 0.3264 0 8
6.5374 3.0816 -2.4953 0.3264 0 8
6.4869 3.1865 -2.4953 0.3264 0 8
6.4348 3.2905 -2.4953 0.3264 0 8
6.3810 3.3937 -2.4953 0.3264 0 8
6.3255 3.4960 -2.4953 0.3264 0 8
6.2684 3.5973 -2.4953 0.3264 0 8
6.2097 3.6978 -2.4953 0.3264 0 8
6.1493 3.7973 -2.4953 0.3264 0 8
6.0874 3.8958 -2.4953 0.3264 0 8
6.0239 3.9933 -2.4953 0.3264 0 8
5.9588 4.0898 -2.4953 0.3264 0 8
5.8922 4.1852 -2.4953 0.3264 0 8
5.8240 4.2795 -2.4953 0.3264 0 8
5.7544 4.3727 -2.4953 0.3264 0 8
5.6832 4.4648 -2.4953 0.3264 0 8
5.6106 4.5557 -2.4953 0.3264 0 8
5.5365 4.6455 -2.4953 0.3264 0 8
5.4610 4.7340 -2.4953 0.3264 0 8
5.3841 4.8213 -2.4953 0.3264 0 8
5.3058 4.9074 -2.4953 0.3264 0 8
5.2261 4.9922 -2.4953 0.3264 0 8
5.1450 5.0756 -2.4953 0.3264 0 8
5.0626 5.1578 -2.4953 0.3264 0 8
4.9789 5.2387 -2.4953 0.3264 0 8
4.8940 5.3181 -2.4953 0.3264 0 8
4.8077 5.3963 -2.4953 0.3264 0 8
4.7202 5.4730 -2.4953 0.3264 0 8
4.6315 5.5482 -2.4953 0.3264 0 8
4.5415 5.6221 -2.4953 0.3264 0 8
4.4504 5.6945 -2.4953 0.3264 0 8
4.3582 5.7654 -2.4953 0.3264 0 8
4.2648 5.8348 -2.4953 0.3264 0 8
6.6521 -2.2959 -2.4953 0.3342 0 8
6.6882 -2.1885 -2.4953 0.3342 0 8
6.7225 -2.0806 -2.4953 0.3342 0 8
6.7552 -1.9721 -2.4953 0.3342 0 8
6.7860 -1.8631 -2.4953 0.3342 0 8
6.8152 -1.7536 -2.4953 0.3342 0 8
6.8425 -1.6436 -2.4953 0.3342 0 8
6.8681 -1.5332 -2.4953 0.3342 0 8
6.8919 -1.4225 -2.4953 0.3342 0 8
6.9139 -1.3113 -2.4953 0.3342 0 8
6.9341 -1.1998 -2.4953 0.3342 0 8
6.9525 -1.0880 -2.4953 0.3342 0 8
6.9691 -0.9760 -2.4953 0.3342 0 8
6.9839 -0.8636 -2.4953 0.3342 0 8
6.9969 -0.7511 -2.4953 0.3342 0 8
7.0081 -0.6383 -2.4953 0.3342 0 8
7.0175 -0.5254 -2.4953 0.3342 0 8
7.0250 -0.4124 -2.4953 0.3342 0 8
7.0308 -0.2992 -2.4953 0.3342 0 8
7.0347 -0.1860 -2.4953 0.3342 0 8
7.0368 -0.0727 -2.4953 0.3342 0 8
7.0370 0.0406 -2.4953 0.3342 0 8
7.0355 0.1539 -2.4953 0.3342 0 8
7.0321 0.2672 -2.4953 0.3342 0 8
7.0268 0.3803 -2.4953 0.3342 0 8
7.0198 0.4934 -2.4953 0.3342 0 8
7.0110 0.6064 -2.4953 0.3342 0 8
7.0003 0.7192 -2.4953 0.3342 0 8
6.9878 0.8318 -2.4953 0.3342 0 8
6.9735 0.9442 -2.4953 0.3342 0 8
6.9574 1.0563 -2.4953 0.3342 0 8
6.9395 1.1682 -2.4953 0.3342 0 8
6.9198 1.2798 -2.4953 0.3342 0 8
6.8983 1.3910 -2.4953 0.3342 0 8
6.8750 1.5019 -2.4953 0.3342 0 8
6.8499 1.6124 -2.4953 0.3342 0 8
6.8231 1.7225 -2.4953 0.3342 0 8
6.7945 1.8321 -2.4953 0.3342 0 8
6.7641 1.9413 -2.4953 0.3342 0 8
6.7319 2.0499 -2.4953 0.3342 0 8
6.6981 2.1580 -2.4953 0.3342 0 8
6.6625 2.2656 -2.4953 0.3342 0 8
6.6251 2.3726 -2.4953 0.3342 0 8
6.5861 2.4789 -2.4953 0.3342 0 8
6.5453 2.5846 -2.4953 0.3342 0 8
6.5028 2.6897 -2.4953 0.3342 0 8
6.4587 2.7940 -2.4953 0.3342 0 8
6.4129 2.8977 -2.4953 0.3342 0 8
6.3654 3.0005 -2.4953 0.3342 0 8
6.3162 3.1026 -2.4953 0.3342 0 8
6.2655 3.2039 -2.4953 0.3342 0 8
6.2131 3.3044 -2.4953 0.3342 0 8
6.1591 3.4040 -2.4953 0.3342 0 8
6.1035 3.5027 -2.4953 0.3342 0 8
6.0463 3.6005 -2.4953 0.3342 0 8
5.9875 3.6974 -2.4953 0.3342 0 8
5.9272 3.7933 -2.4953 0.3342 0 8
5.8654 3.8883 -2.4953 0.3342 0 8
5.8020 3.9822 -2.4953 0.3342 0 8
5.7372 4.0751 -2.4953 0.3342 0 8
5.6708 4.1669 -2.4953 0.3342 0 8
5.6030 4.2577 -2.4953 0.3342 0 8
5.5337 4.3473 -2.4953 0.3342 0 8
5.4630 4.4359 -2.4953 0.3342 0 8
5.3909 4.5232 -2.4953 0.3342 0 8
5.3173 4.6095 -2.4953 0.3342 0 8
5.2424 4.6945 -2.4953 0.3342 0 8
5.1662 4.7783 -2.4953 0.3342 0 8
5.0886 4.8608 -2.4953 0.3342 0 8
5.0097 4.9421 -2.4953 0.3342 0 8
4.9294 5.0221 -2.4953 0.3342 0 8
4.8480 5.1008 -2.4953 0.3342 0 8
4.7652 5.1782 -2.4953 0.3342 0 8
4.6812 5.2543 -2.4953 0.3342 0 8
4.5960 5.3290 -2.4953 0.3342 0 8
4.5096 5.4023 -2.4953 0.3342 0 8
4.4221 5.4742 -2.4953 0.3342 0 8
4.3333 5.5447 -2.4953 0.3342 0 8
4.2435 5.6137 -2.4953 0.3342 0 8
4.1526 5.6813 -2.4953 0.3342 0 8
6.4806 -2.2367 -2.4953 0.3420 0 8
6.5157 -2.1321 -2.4953 0.3420 0 8
6.5492 -2.0269 -2.4953 0.3420 0 8
6.5810 -1.9212 -2.4953 0.3420 0 8
6.6111 -1.8150 -2.4953 0.3420 0 8
6.6394 -1.7084 -2.4953 0.3420 0 8
6.6661 -1.6012 -2.4953 0.3420 0 8
6.6910 -1.4937 -2.4953 0.3420 0 8
6.7142 -1.3858 -2.4953 0.3420 0 8
6.7356 -1.2775 -2.4953 0.3420 0 8
6.7553 -1.1689 -2.4953 0.3420 0 8
6.7733 -1.0600 -2.4953 0.3420 0 8
6.7895 -0.9508 -2.4953 0.3420 0 8
6.8039 -0.8414 -2.4953 0.3420 0 8
6.8165 -0.7317 -2.4953 0.3420 0 8
6.8274 -0.6219 -2.4953 0.3420 0 8
6.8366 -0.5119 -2.4953 0.3420 0 8
6.8439 -0.4017 -2.4953 0.3420 0 8
6.8495 -0.2915 -2.4953 0.3420 0 8
6.8533 -0.1812 -2.4953 0.3420 0 8
6.8553 -0.0708 -2.4953 0.3420 0 8
6.8556 0.0396 -2.4953 0.3420 0 8
6.8541 0.1499 -2.4953 0.3420 0 8
6.8508 0.2603 -2.4953 0.3420 0 8
6.8457 0.3705 -2.4953 0.3420 0 8
6.8388 0.4807 -2.4953 0.3420 0 8
6.8302 0.5907 -2.4953 0.3420 0 8
6.8198 0.7006 -2.4953 0.3420 0 8
6.8076 0.8103 -2.4953 0.3420 0 8
6.7937 0.9198 -2.4953 0.3420 0 8
6.7780 1.0291 -2.4953 0.3420 0 8
6.7606 1.1381 -2.4953 0.3420 0 8
6.7414 1.2468 -2.4953 0.3420 0 8
6.7204 1.3552 -2.4953 0.3420 0 8
6.6977 1.4632 -2.4953 0.3420 0 8
6.6733 1.5708 -2.4953 0.3420 0 8
6.6472 1.6781 -2.4953 0.3420 0 8
6.6193 1.7849 -2.4953 0.3420 0 8
6.5897 1.8912 -2.4953 0.3420 0 8
6.5584 1.9971 -2.4953 0.3420 0 8
6.5254 2.1024 -2.4953 0.3420 0 8
6.4907 2.2072 -2.4953 0.3420 0 8
6.4543 2.3114 -2.4953 0.3420 0 8
6.4163 2.4150 -2.4953 0.3420 0 8
6.3765 2.5180 -2.4953 0.3420 0 8
6.3352 2.6203 -2.4953 0.3420 0 8
6.2922 2.7220 -2.4953 0.3420 0 8
6.2475 2.8230 -2.4953 0.3420 0 8
6.2013 2.9232 -2.4953 0.3420 0 8
6.1534 3.0226 -2.4953 0.3420 0 8
6.1039 3.1213 -2.4953 0.3420 0 8
6.0529 3.2192 -2.4953 0.3420 0 8
6.0003 3.3162 -2.4953 0.3420 0 8
5.9461 3.4124 -2.4953 0.3420 0 8
5.8904 3.5077 -2.4953 0.3420 0 8
5.8332 3.6021 -2.4953 0.3420 0 8
5.7744 3.6955 -2.4953 0.3420 0 8
5.7142 3.7880 -2.4953 0.3420 0 8
5.6524 3.8795 -2.4953 0.3420 0 8
5.5892 3.9700 -2.4953 0.3420 0 8
5.5246 4.0595 -2.4953 0.3420 0 8
5.4585 4.1479 -2.4953 0.3420 0 8
5.3910 4.2353 -2.4953 0.3420 0 8
5.3222 4.3215 -2.4953 0.3420 0 8
5.2519 4.4066 -2.4953 0.3420 0 8
5.1803 4.4906 -2.4953 0.3420 0 8
5.1073 4.5734 -2.4953 0.3420 0 8
5.0330 4.6551 -2.4953 0.3420 0 8
4.9574 4.7355 -2.4953 0.3420 0 8
