ply
format ascii 1.0
element vertex 1346
property float32 x
property float32 y
property float32 z
property float32 CosAngle
property uint32 ObjIdx
property uint32 ObjTag
end_header
-49.2817 19.6401 -2.6477 0.0498 0 7
-49.5893 18.8500 -2.6477 0.0498 0 7
-49.8842 18.0551 -2.6477 0.0498 0 7
-50.1663 17.2556 -2.6477 0.0498 0 7
-50.4357 16.4517 -2.6477 0.0498 0 7
-50.6922 15.6436 -2.6477 0.0498 0 7
-50.9357 14.8315 -2.6477 0.0498 0 6
-3.8008 42.6733 -2.4953 0.0581 0 8
-4.4823 42.6071 -2.4953 0.0581 0 8
-5.1626 42.5300 -2.4953 0.0581 0 8
-5.8416 42.4421 -2.4953 0.0581 0 8
-6.5191 42.3433 -2.4953 0.0581 0 8
-7.1949 42.2337 -2.4953 0.0581 0 8
-7.8690 42.1133 -2.4953 0.0581 0 8
-8.5410 41.9822 -2.4953 0.0581 0 8
-9.2108 41.8403 -2.4953 0.0581 0 8
-9.8783 41.6878 -2.4953 0.0581 0 8
-10.5432 41.5246 -2.4953 0.0581 0 8
-11.2055 41.3508 -2.4953 0.0581 0 8
-11.8649 41.1665 -2.4953 0.0581 0 8
-12.5212 40.9716 -2.4953 0.0581 0 8
-13.1744 40.7663 -2.4953 0.0581 0 8
-13.8242 40.5505 -2.4953 0.0581 0 8
-14.4704 40.3244 -2.4953 0.0581 0 8
-15.1130 40.0880 -2.4953 0.0581 0 8
-15.7517 39.8414 -2.4953 0.0581 0 8
-16.3864 39.5846 -2.4953 0.0581 0 8
-17.0169 39.3177 -2.4953 0.0581 0 8
-17.6431 39.0407 -2.4953 0.0581 0 8
-18.2647 38.7537 -2.4953 0.0581 0 8
-18.8817 38.4569 -2.4953 0.0581 0 8
-19.4939 38.1502 -2.4953 0.0581 0 8
-20.1011 37.8338 -2.4953 0.0581 0 8
-20.7031 37.5078 -2.4953 0.0581 0 8
-21.2999 37.1721 -2.4953 0.0581 0 8
-21.8912 36.8270 -2.4953 0.0581 0 8
-22.4769 36.4724 -2.4953 0.0581 0 8
-23.0569 36.1086 -2.4953 0.0581 0 8
-23.6310 35.7355 -2.4953 0.0581 0 8
-24.1991 35.3533 -2.4953 0.0581 0 8
-24.7610 34.9621 -2.4953 0.0581 0 8
-25.3165 34.5619 -2.4953 0.0581 0 8
-25.8656 34.1529 -2.4953 0.0581 0 8
-26.4081 33.7352 -2.4953 0.0581 0 8
-26.9439 33.3089 -2.4953 0.0581 0 8
-27.4727 32.8740 -2.4953 0.0581 0 8
-28.3358 32.8261 -2.5257 0.7554 0 8
-29.2562 32.8171 -2.5606 0.7451 0 8
-30.2381 32.8463 -2.6003 0.6647 0 8
-31.2531 32.8786 -2.6421 0.0674 0 8
-31.8420 32.4436 -2.6477 0.0581 0 7
-32.3564 31.9306 -2.6477 0.0581 0 7
-32.8626 31.4095 -2.6477 0.0581 0 7
-33.3603 30.8803 -2.6477 0.0581 0 7
-33.8495 30.3432 -2.6477 0.0581 0 7
-34.3301 29.7984 -2.6477 0.0581 0 7
-34.8020 29.2459 -2.6477 0.0581 0 7
-35.2649 28.6860 -2.6477 0.0581 0 7
-35.7188 28.1188 -2.6477 0.0581 0 7
-36.1636 27.5444 -2.6477 0.0581 0 7
-36.5992 26.9630 -2.6477 0.0581 0 7
-37.0254 26.3746 -2.6477 0.0581 0 6
-37.4422 25.7796 -2.6477 0.0581 0 7
-37.8494 25.1779 -2.6477 0.0581 0 7
-38.2469 24.5698 -2.6477 0.0581 0 7
-38.6347 23.9555 -2.6477 0.0581 0 7
-39.0126 23.3350 -2.6477 0.0581 0 6
-39.3805 22.7086 -2.6477 0.0581 0 7
-39.7384 22.0764 -2.6477 0.0581 0 7
-40.0861 21.4385 -2.6477 0.0581 0 7
-40.4236 20.7951 -2.6477 0.0581 0 7
-40.7507 20.1464 -2.6477 0.0581 0 7
-41.0675 19.4926 -2.6477 0.0581 0 7
-41.3738 18.8339 -2.6477 0.0581 0 7
-41.6695 18.1702 -2.6477 0.0581 0 7
-41.9545 17.5020 -2.6477 0.0581 0 7
-42.2289 16.8293 -2.6477 0.0581 0 7
-42.4924 16.1523 -2.6477 0.0581 0 7
-42.7451 15.4712 -2.6477 0.0581 0 7
-42.9869 14.7862 -2.6477 0.0581 0 6
-43.2177 14.0973 -2.6477 0.0581 0 7
-43.4375 13.4048 -2.6477 0.0581 0 7
-43.6461 12.7090 -2.6477 0.0581 0 7
-3.3245 37.3261 -2.4953 0.0664 0 8
-3.9206 37.2682 -2.4953 0.0664 0 8
-4.5157 37.2008 -2.4953 0.0664 0 8
-5.1096 37.1239 -2.4953 0.0664 0 8
-5.7022 37.0375 -2.4953 0.0664 0 8
-6.2934 36.9417 -2.4953 0.0664 0 8
-6.8830 36.8364 -2.4953 0.0664 0 8
-7.4708 36.7217 -2.4953 0.0664 0 8
-8.0567 36.5976 -2.4953 0.0664 0 8
-8.6405 36.4642 -2.4953 0.0664 0 8
-9.2221 36.3214 -2.4953 0.0664 0 8
-9.8014 36.1694 -2.4953 0.0664 0 8
-10.3782 36.0082 -2.4953 0.0664 0 8
-10.9523 35.8377 -2.4953 0.0664 0 8
-11.5236 35.6581 -2.4953 0.0664 0 8
-12.0920 35.4694 -2.4953 0.0664 0 8
-12.6573 35.2716 -2.4953 0.0664 0 8
-13.2193 35.0648 -2.4953 0.0664 0 8
-13.7780 34.8491 -2.4953 0.0664 0 8
-14.3331 34.6245 -2.4953 0.0664 0 8
-14.8846 34.3910 -2.4953 0.0664 0 8
-15.4323 34.1487 -2.4953 0.0664 0 8
-15.9761 33.8978 -2.4953 0.0664 0 8
-16.5158 33.6381 -2.4953 0.0664 0 8
-17.0512 33.3699 -2.4953 0.0664 0 8
-17.5823 33.0931 -2.4953 0.0664 0 8
-18.1389 32.8621 -2.4994 0.6655 0 8
-18.8252 32.8533 -2.5213 0.8647 0 8
-19.5254 32.8471 -2.5444 0.8568 0 8
-20.2387 32.8406 -2.5687 0.8488 0 8
-20.9659 32.8339 -2.5940 0.8405 0 8
-21.7077 32.8269 -2.6205 0.8320 0 8
-22.4073 32.7356 -2.6415 0.0804 0 8
-22.9715 32.4354 -2.6466 0.0803 0 8
-23.4968 32.0776 -2.6477 0.0664 0 7
-24.0064 31.6980 -2.6477 0.0664 0 7
-24.5099 31.3103 -2.6477 0.0664 0 7
-25.0071 30.9146 -2.6477 0.0664 0 7
-25.4980 30.5110 -2.6477 0.0664 0 7
-25.9823 30.0996 -2.6477 0.0664 0 7
-26.4600 29.6806 -2.6477 0.0664 0 7
-26.9310 29.2539 -2.6477 0.0664 0 7
-27.3950 28.8198 -2.6477 0.0664 0 7
-27.8521 28.3783 -2.6477 0.0664 0 7
-28.3021 27.9296 -2.6477 0.0664 0 7
-28.7448 27.4737 -2.6477 0.0664 0 7
-29.1802 27.0109 -2.6477 0.0664 0 7
-29.6081 26.5411 -2.6477 0.0664 0 7
-30.0284 26.0645 -2.6477 0.0664 0 7
-30.4412 25.5813 -2.6477 0.0664 0 7
-30.8461 25.0916 -2.6477 0.0664 0 7
-31.2431 24.5954 -2.6477 0.0664 0 7
-31.6322 24.0930 -2.6477 0.0664 0 7
-30.2626 22.2948 -2.5029 0.0664 0 8
-30.6151 21.8083 -2.5029 0.0664 0 14
-30.9597 21.3162 -2.5029 0.0664 0 14
-31.2964 20.8188 -2.5029 0.0664 0 14
-31.6251 20.3160 -2.5029 0.0664 0 14
-31.9457 19.8080 -2.5029 0.0664 0 14
-34.1241 20.4110 -2.6477 0.0664 0 7
-34.4460 19.8631 -2.6477 0.0664 0 7
-34.7590 19.3101 -2.6477 0.0664 0 7
-35.0632 18.7521 -2.6477 0.0664 0 7
-35.3584 18.1894 -2.6477 0.0664 0 7
-35.6445 17.6220 -2.6477 0.0664 0 7
-35.9216 17.0501 -2.6477 0.0664 0 7
-36.1895 16.4739 -2.6477 0.0664 0 7
-36.4481 15.8935 -2.6477 0.0664 0 7
-36.6974 15.3090 -2.6477 0.0664 0 7
-36.9374 14.7206 -2.6477 0.0664 0 6
-37.1679 14.1284 -2.6477 0.0664 0 7
-37.3890 13.5326 -2.6477 0.0664 0 7
-37.6005 12.9334 -2.6477 0.0664 0 7
-37.8024 12.3308 -2.6477 0.0664 0 7
-37.9946 11.7251 -2.6477 0.0664 0 6
-38.1771 11.1165 -2.6477 0.0664 0 7
-2.9540 33.1658 -2.4953 0.0747 0 8
-3.4836 33.1144 -2.4953 0.0747 0 8
-4.0128 33.0577 -2.4955 0.7531 0 8
-4.5401 32.9861 -2.4953 0.0747 0 8
-5.0667 32.9093 -2.4953 0.0747 0 8
-5.6041 32.8956 -2.5007 0.7484 0 8
-6.1458 32.8911 -2.5075 0.9780 0 8
-6.6909 32.8882 -2.5151 0.9750 0 8
-7.2394 32.8851 -2.5234 0.9718 0 8
-7.7917 32.8819 -2.5324 0.9683 0 8
-8.3480 32.8786 -2.5421 0.9647 0 8
-8.9087 32.8751 -2.5525 0.9607 0 8
-9.4741 32.8715 -2.5636 0.9565 0 8
-10.0446 32.8677 -2.5755 0.9521 0 8
-10.6205 32.8637 -2.5882 0.9475 0 8
-11.2023 32.8596 -2.6017 0.9426 0 8
-11.7902 32.8553 -2.6159 0.9374 0 8
-12.3847 32.8509 -2.6310 0.9321 0 8
-12.9585 32.7765 -2.6413 0.0905 0 8
-13.4957 32.6015 -2.6442 0.0904 0 8
-14.0312 32.4192 -2.6473 0.0902 0 8
-14.5497 32.1958 -2.6477 0.0747 0 7
-15.0624 31.9591 -2.6477 0.0747 0 7
-15.5712 31.7143 -2.6477 0.0747 0 7
-16.0760 31.4614 -2.6477 0.0747 0 7
-16.5768 31.2005 -2.6477 0.0747 0 7
-17.0733 30.9316 -2.6477 0.0747 0 7
-17.5654 30.6548 -2.6477 0.0747 0 7
-18.0531 30.3702 -2.6477 0.0747 0 7
-18.5361 30.0778 -2.6477 0.0747 0 7
-19.0144 29.7777 -2.6477 0.0747 0 7
-19.4879 29.4701 -2.6477 0.0747 0 7
-19.9563 29.1549 -2.6477 0.0747 0 7
-20.4197 28.8322 -2.6477 0.0747 0 7
-20.8778 28.5022 -2.6477 0.0747 0 7
-21.3307 28.1649 -2.6477 0.0747 0 7
-21.7780 27.8205 -2.6477 0.0747 0 7
-22.2198 27.4689 -2.6477 0.0747 0 7
-22.6560 27.1103 -2.6477 0.0747 0 7
-23.0863 26.7447 -2.6477 0.0747 0 7
-23.5109 26.3724 -2.6477 0.0747 0 6
-23.9293 25.9933 -2.6477 0.0747 0 7
-24.3416 25.6076 -2.6477 0.0747 0 7
-24.7477 25.2153 -2.6477 0.0747 0 7
-25.1475 24.8166 -2.6477 0.0747 0 7
-25.5409 24.4115 -2.6477 0.0747 0 7
-25.9278 24.0003 -2.6477 0.0747 0 7
-24.8694 22.2933 -2.5029 0.0747 0 8
-25.2225 21.8930 -2.5029 0.0747 0 14
-25.5692 21.4871 -2.5029 0.0747 0 14
-25.9093 21.0757 -2.5029 0.0747 0 14
-26.2428 20.6590 -2.5029 0.0747 0 14
-26.5696 20.2370 -2.5029 0.0747 0 14
-26.8896 19.8098 -2.5029 0.0747 0 14
-27.2027 19.3776 -2.5029 0.0747 0 14
-27.5089 18.9404 -2.5029 0.0747 0 8
-28.3707 18.8726 -2.5535 0.5590 0 8
-29.3563 18.8585 -2.6148 0.5459 0 8
-30.0270 18.6183 -2.6477 0.0747 0 7
-30.3207 18.1360 -2.6477 0.0747 0 7
-30.6067 17.6492 -2.6477 0.0747 0 7
-30.8848 17.1578 -2.6477 0.0747 0 6
-31.1551 16.6620 -2.6477 0.0747 0 7
-31.4173 16.1620 -2.6477 0.0747 0 7
-31.6716 15.6579 -2.6477 0.0747 0 7
-31.9178 15.1497 -2.6477 0.0747 0 7
-32.1558 14.6377 -2.6477 0.0747 0 7
-32.3856 14.1220 -2.6477 0.0747 0 7
-32.6072 13.6027 -2.6477 0.0747 0 7
-32.8204 13.0798 -2.6477 0.0747 0 7
-33.0252 12.5536 -2.6477 0.0747 0 7
-33.2216 12.0243 -2.6477 0.0747 0 7
-33.4096 11.4918 -2.6477 0.0747 0 7
-33.5889 10.9564 -2.6477 0.0747 0 7
-33.7598 10.4182 -2.6477 0.0747 0 7
-33.9219 9.8774 -2.6477 0.0747 0 7
-2.8197 31.6584 -2.6477 0.0830 0 7
-3.3253 31.6093 -2.6477 0.0830 0 7
-3.8300 31.5521 -2.6477 0.0830 0 7
-4.3338 31.4868 -2.6477 0.0830 0 7
-4.8364 31.4136 -2.6477 0.0830 0 7
-5.3378 31.3323 -2.6477 0.0830 0 7
-5.8378 31.2430 -2.6477 0.0830 0 7
-6.3364 31.1457 -2.6477 0.0830 0 7
-6.8333 31.0404 -2.6477 0.0830 0 7
-7.3285 30.9273 -2.6477 0.0830 0 7
-7.8218 30.8062 -2.6477 0.0830 0 7
-8.3131 30.6773 -2.6477 0.0830 0 7
-8.8023 30.5405 -2.6477 0.0830 0 7
-9.2892 30.3959 -2.6477 0.0830 0 7
-9.7738 30.2436 -2.6477 0.0830 0 7
-10.2559 30.0836 -2.6477 0.0830 0 7
-10.7354 29.9158 -2.6477 0.0830 0 6
-11.2120 29.7404 -2.6477 0.0830 0 7
-11.6859 29.5575 -2.6477 0.0830 0 7
-12.1567 29.3669 -2.6477 0.0830 0 7
-12.6245 29.1689 -2.6477 0.0830 0 7
-13.0890 28.9634 -2.6477 0.0830 0 7
-13.5502 28.7506 -2.6477 0.0830 0 7
-14.0079 28.5304 -2.6477 0.0830 0 7
-14.4621 28.3028 -2.6477 0.0830 0 7
-14.9126 28.0681 -2.6477 0.0830 0 7
-15.3592 27.8262 -2.6477 0.0830 0 7
-15.8019 27.5772 -2.6477 0.0830 0 7
-16.2406 27.3211 -2.6477 0.0830 0 7
-16.6751 27.0581 -2.6477 0.0830 0 7
-17.1054 26.7882 -2.6477 0.0830 0 7
-17.5314 26.5114 -2.6477 0.0830 0 7
-17.9528 26.2279 -2.6477 0.0830 0 7
-18.3696 25.9376 -2.6477 0.0830 0 7
-18.7818 25.6407 -2.6477 0.0830 0 7
-19.1892 25.3373 -2.6477 0.0830 0 7
-19.5916 25.0274 -2.6477 0.0830 0 7
-19.9891 24.7111 -2.6477 0.0830 0 7
-20.3814 24.3885 -2.6477 0.0830 0 7
-20.7686 24.0597 -2.6477 0.0830 0 7
-21.1504 23.7247 -2.6477 0.0830 0 7
-20.3497 22.1050 -2.5029 0.0830 0 14
-20.7004 21.7770 -2.5029 0.0830 0 14
-21.0458 21.4434 -2.5029 0.0830 0 14
-21.3858 21.1043 -2.5029 0.0830 0 14
-21.7203 20.7599 -2.5029 0.0830 0 14
-22.0493 20.4101 -2.5029 0.0830 0 14
-22.3726 20.0552 -2.5029 0.0830 0 14
-22.6903 19.6951 -2.5029 0.0830 0 14
-23.0021 19.3299 -2.5029 0.0830 0 14
-23.3081 18.9598 -2.5029 0.0830 0 8
-23.9914 18.8866 -2.5435 0.6234 0 8
-24.7812 18.8749 -2.5949 0.6110 0 8
-25.5893 18.8519 -2.6477 0.0830 0 7
-25.8873 18.4405 -2.6477 0.0830 0 7
-26.1787 18.0245 -2.6477 0.0830 0 7
-26.4634 17.6038 -2.6477 0.0830 0 7
-26.7413 17.1786 -2.6477 0.0830 0 7
-27.0124 16.7491 -2.6477 0.0830 0 7
-27.2766 16.3153 -2.6477 0.0830 0 7
-27.5339 15.8773 -2.6477 0.0830 0 7
-27.7841 15.4353 -2.6477 0.0830 0 7
-28.0272 14.9893 -2.6477 0.0830 0 7
-28.2632 14.5394 -2.6477 0.0830 0 7
-28.4919 14.0859 -2.6477 0.0830 0 7
-28.7134 13.6288 -2.6477 0.0830 0 7
-28.9275 13.1682 -2.6477 0.0830 0 7
-29.1343 12.7042 -2.6477 0.0830 0 7
-29.3336 12.2370 -2.6477 0.0830 0 7
-29.5254 11.7667 -2.6477 0.0830 0 7
-29.7096 11.2933 -2.6477 0.0830 0 6
-29.8863 10.8171 -2.6477 0.0830 0 7
-30.0554 10.3381 -2.6477 0.0830 0 7
-30.2168 9.8565 -2.6477 0.0830 0 7
-30.3704 9.3723 -2.6477 0.0830 0 7
-30.5163 8.8858 -2.6477 0.0830 0 7
-2.5621 28.7664 -2.6477 0.0913 0 7
-3.0215 28.7218 -2.6477 0.0913 0 7
-3.4801 28.6698 -2.6477 0.0913 0 7
-3.9379 28.6105 -2.6477 0.0913 0 7
-4.3946 28.5440 -2.6477 0.0913 0 7
-4.8502 28.4701 -2.6477 0.0913 0 7
-5.3045 28.3889 -2.6477 0.0913 0 7
-5.7575 28.3005 -2.6477 0.0913 0 7
-6.2091 28.2049 -2.6477 0.0913 0 7
-6.6590 28.1021 -2.6477 0.0913 0 7
-7.1073 27.9921 -2.6477 0.0913 0 7
-7.5537 27.8749 -2.6477 0.0913 0 7
-7.9982 27.7506 -2.6477 0.0913 0 7
-8.4407 27.6193 -2.6477 0.0913 0 7
-8.8810 27.4809 -2.6477 0.0913 0 7
-9.3190 27.3354 -2.6477 0.0913 0 7
-9.7546 27.1830 -2.6477 0.0913 0 7
-10.1878 27.0237 -2.6477 0.0913 0 7
-10.6184 26.8574 -2.6477 0.0913 0 7
-11.0462 26.6843 -2.6477 0.0913 0 7
-11.4712 26.5044 -2.6477 0.0913 0 7
-11.8933 26.3176 -2.6477 0.0913 0 7
-12.3124 26.1242 -2.6477 0.0913 0 7
-12.7283 25.9241 -2.6477 0.0913 0 7
-13.1410 25.7174 -2.6477 0.0913 0 7
-13.5503 25.5041 -2.6477 0.0913 0 7
-13.9561 25.2843 -2.6477 0.0913 0 7
-14.3584 25.0580 -2.6477 0.0913 0 7
-14.7571 24.8254 -2.6477 0.0913 0 7
-15.1519 24.5864 -2.6477 0.0913 0 7
-15.5429 24.3411 -2.6477 0.0913 0 7
-15.9299 24.0896 -2.6477 0.0913 0 7
-16.3128 23.8319 -2.6477 0.0913 0 7
-15.7788 22.2795 -2.5029 0.0913 0 8
-16.1329 22.0245 -2.5029 0.0913 0 14
-16.4828 21.7638 -2.5029 0.0913 0 14
-16.8285 21.4976 -2.5029 0.0913 0 14
-17.1699 21.2260 -2.5029 0.0913 0 14
-17.5069 20.9489 -2.5029 0.0913 0 14
-17.8395 20.6664 -2.5029 0.0913 0 14
-18.1674 20.3787 -2.5029 0.0913 0 14
-18.4908 20.0857 -2.5029 0.0913 0 14
-18.8094 19.7877 -2.5029 0.0913 0 14
-19.1232 19.4846 -2.5029 0.0913 0 14
-19.4322 19.1764 -2.5029 0.0913 0 14
-19.7810 18.9064 -2.5086 0.5525 0 8
-20.4129 18.8953 -2.5501 0.6838 0 8
-21.0677 18.8854 -2.5939 0.6722 0 8
-21.7456 18.8750 -2.6398 0.6605 0 8
-22.1099 18.5801 -2.6477 0.0913 0 7
-22.4040 18.2244 -2.6477 0.0913 0 7
-22.6924 17.8640 -2.6477 0.0913 0 7
-22.9750 17.4991 -2.6477 0.0913 0 7
-23.2517 17.1298 -2.6477 0.0913 0 7
-23.5225 16.7560 -2.6477 0.0913 0 7
-23.7872 16.3779 -2.6477 0.0913 0 7
-24.0459 15.9957 -2.6477 0.0913 0 7
-24.2985 15.6094 -2.6477 0.0913 0 7
-24.5448 15.2191 -2.6477 0.0913 0 7
-24.7849 14.8249 -2.6477 0.0913 0 7
-25.0187 14.4269 -2.6477 0.0913 0 7
-25.2460 14.0252 -2.6477 0.0913 0 7
-25.4669 13.6200 -2.6477 0.0913 0 7
-25.6814 13.2113 -2.6477 0.0913 0 7
-25.8892 12.7992 -2.6477 0.0913 0 7
-26.0904 12.3838 -2.6477 0.0913 0 7
-26.2850 11.9653 -2.6477 0.0913 0 7
-26.4729 11.5437 -2.6477 0.0913 0 7
-26.6540 11.1192 -2.6477 0.0913 0 7
-26.8283 10.6918 -2.6477 0.0913 0 7
-26.9957 10.2617 -2.6477 0.0913 0 7
-27.1562 9.8290 -2.6477 0.0913 0 7
-27.3099 9.3937 -2.6477 0.0913 0 7
-27.4565 8.9561 -2.6477 0.0913 0 7
-26.0077 8.0260 -2.4953 0.0913 0 8
-26.1326 7.6093 -2.4953 0.0913 0 8
-2.3474 26.3552 -2.6477 0.0996 0 7
-2.7683 26.3143 -2.6477 0.0996 0 7
-3.1884 26.2667 -2.6477 0.0996 0 7
-3.6078 26.2124 -2.6477 0.0996 0 7
-4.0262 26.1514 -2.6477 0.0996 0 7
-4.4436 26.0837 -2.6477 0.0996 0 7
-4.8599 26.0094 -2.6477 0.0996 0 7
-5.2749 25.9283 -2.6477 0.0996 0 7
-5.6886 25.8408 -2.6477 0.0996 0 7
-6.1009 25.7465 -2.6477 0.0996 0 7
-6.5115 25.6458 -2.6477 0.0996 0 7
-6.9206 25.5384 -2.6477 0.0996 0 7
-7.3278 25.4246 -2.6477 0.0996 0 7
-7.7332 25.3042 -2.6477 0.0996 0 7
-8.1365 25.1774 -2.6477 0.0996 0 7
-8.5379 25.0442 -2.6477 0.0996 0 7
-8.9370 24.9045 -2.6477 0.0996 0 7
-9.3339 24.7585 -2.6477 0.0996 0 7
-9.7283 24.6062 -2.6477 0.0996 0 7
-10.1203 24.4476 -2.6477 0.0996 0 7
-10.5097 24.2827 -2.6477 0.0996 0 7
-10.8964 24.1117 -2.6477 0.0996 0 7
-11.2804 23.9345 -2.6477 0.0996 0 7
-11.6614 23.7511 -2.6477 0.0996 0 7
-11.3812 22.2734 -2.5029 0.0996 0 8
-11.7357 22.0886 -2.5029 0.0996 0 14
-12.0871 21.8983 -2.5029 0.0996 0 14
-12.4356 21.7023 -2.5029 0.0996 0 14
-12.7808 21.5008 -2.5029 0.0996 0 14
-13.1228 21.2938 -2.5029 0.0996 0 14
-13.4614 21.0813 -2.5029 0.0996 0 14
-13.7966 20.8635 -2.5029 0.0996 0 14
-14.1282 20.6404 -2.5029 0.0996 0 14
-14.4563 20.4120 -2.5029 0.0996 0 14
-14.7806 20.1784 -2.5029 0.0996 0 14
-15.1012 19.9396 -2.5029 0.0996 0 14
-15.4179 19.6957 -2.5029 0.0996 0 14
-15.7307 19.4468 -2.5029 0.0996 0 14
-16.0395 19.1929 -2.5029 0.0996 0 14
-16.3442 18.9341 -2.5029 0.0996 0 8
-16.8564 18.9081 -2.5347 0.7503 0 8
-17.3992 18.8999 -2.5706 0.7398 0 8
-17.9575 18.8914 -2.6081 0.7291 0 8
-18.5324 18.8825 -2.6475 0.7183 0 8
-18.8332 18.5854 -2.6477 0.0996 0 7
-19.1278 18.2820 -2.6477 0.0996 0 7
-19.4175 17.9740 -2.6477 0.0996 0 7
-19.7023 17.6614 -2.6477 0.0996 0 7
-19.9820 17.3443 -2.6477 0.0996 0 7
-20.2567 17.0227 -2.6477 0.0996 0 7
-20.5261 16.6968 -2.6477 0.0996 0 7
-20.7903 16.3667 -2.6477 0.0996 0 7
-21.0492 16.0324 -2.6477 0.0996 0 7
-21.3027 15.6939 -2.6477 0.0996 0 7
-21.5508 15.3515 -2.6477 0.0996 0 7
-21.7934 15.0051 -2.6477 0.0996 0 7
-22.0304 14.6549 -2.6477 0.0996 0 7
-22.2618 14.3010 -2.6477 0.0996 0 7
-22.4875 13.9434 -2.6477 0.0996 0 7
-22.7074 13.5823 -2.6477 0.0996 0 7
-22.9216 13.2176 -2.6477 0.0996 0 7
-23.1299 12.8496 -2.6477 0.0996 0 7
-23.3323 12.4783 -2.6477 0.0996 0 7
-23.5287 12.1039 -2.6477 0.0996 0 7
-23.7192 11.7263 -2.6477 0.0996 0 7
-23.9035 11.3458 -2.6477 0.0996 0 6
-24.0818 10.9623 -2.6477 0.0996 0 7
-24.2539 10.5761 -2.6477 0.0996 0 7
-24.4198 10.1871 -2.6477 0.0996 0 7
-24.5795 9.7956 -2.6477 0.0996 0 7
-24.7329 9.4015 -2.6477 0.0996 0 7
-24.8800 9.0051 -2.6477 0.0996 0 7
-23.5805 8.1110 -2.4953 0.0996 0 8
-23.7071 7.7331 -2.4953 0.0996 0 8
-23.8277 7.3532 -2.4953 0.0996 0 8
-23.9422 6.9715 -2.4953 0.0996 0 8
-2.1656 24.3137 -2.6477 0.1078 0 7
-2.5538 24.2760 -2.6477 0.1078 0 7
-2.9415 24.2321 -2.6477 0.1078 0 7
-3.3283 24.1820 -2.6477 0.1078 0 7
-3.7144 24.1257 -2.6477 0.1078 0 7
-4.0994 24.0633 -2.6477 0.1078 0 7
-4.4835 23.9947 -2.6477 0.1078 0 7
-4.8664 23.9200 -2.6477 0.1078 0 7
-5.2480 23.8392 -2.6477 0.1078 0 7
-5.6283 23.7523 -2.6477 0.1078 0 7
-5.6787 22.3655 -2.5029 0.1078 0 8
-6.0354 22.2719 -2.5029 0.1078 0 8
-6.3905 22.1726 -2.5029 0.1078 0 14
-6.7440 22.0677 -2.5029 0.1078 0 14
-7.0959 21.9571 -2.5029 0.1078 0 14
-7.4458 21.8409 -2.5029 0.1078 0 14
-7.7939 21.7191 -2.5029 0.1078 0 14
-8.1400 21.5918 -2.5029 0.1078 0 14
-8.4840 21.4589 -2.5029 0.1078 0 14
-8.8259 21.3206 -2.5029 0.1078 0 14
-9.1655 21.1769 -2.5029 0.1078 0 14
-9.5027 21.0277 -2.5029 0.1078 0 14
-9.8376 20.8731 -2.5029 0.1078 0 14
-10.1699 20.7133 -2.5029 0.1078 0 14
-10.4996 20.5481 -2.5029 0.1078 0 14
-10.8266 20.3777 -2.5029 0.1078 0 14
-11.1509 20.2020 -2.5029 0.1078 0 14
-11.4723 20.0213 -2.5029 0.1078 0 14
-11.7908 19.8354 -2.5029 0.1078 0 14
-12.1063 19.6444 -2.5029 0.1078 0 14
-12.4187 19.4484 -2.5029 0.1078 0 14
-12.7279 19.2475 -2.5029 0.1078 0 14
-13.0339 19.0416 -2.5029 0.1078 0 8
-13.4006 18.9213 -2.5149 0.8189 0 8
-13.8551 18.9149 -2.5432 0.8099 0 8
-14.3200 18.9081 -2.5727 0.8006 0 8
-14.7959 18.9010 -2.6036 0.7911 0 8
-15.2833 18.8937 -2.6359 0.7814 0 8
-15.6530 18.7305 -2.6477 0.1078 0 7
-15.9503 18.4779 -2.6477 0.1078 0 7
-16.2436 18.2207 -2.6477 0.1078 0 7
-16.5327 17.9588 -2.6477 0.1078 0 7
-16.8176 17.6923 -2.6477 0.1078 0 7
-17.0982 17.4213 -2.6477 0.1078 0 7
-17.3744 17.1458 -2.6477 0.1078 0 7
-17.6462 16.8659 -2.6477 0.1078 0 7
-17.9135 16.5818 -2.6477 0.1078 0 7
-18.1762 16.2934 -2.6477 0.1078 0 7
-18.4342 16.0008 -2.6477 0.1078 0 7
-18.6876 15.7042 -2.6477 0.1078 0 7
-18.9362 15.4035 -2.6477 0.1078 0 7
-19.1799 15.0989 -2.6477 0.1078 0 7
-19.4188 14.7905 -2.6477 0.1078 0 7
-19.6527 14.4783 -2.6477 0.1078 0 7
-19.8815 14.1624 -2.6477 0.1078 0 7
-20.1053 13.8429 -2.6477 0.1078 0 7
-20.3240 13.5198 -2.6477 0.1078 0 7
-20.5374 13.1933 -2.6477 0.1078 0 7
-20.7456 12.8634 -2.6477 0.1078 0 7
-20.9486 12.5302 -2.6477 0.1078 0 7
-21.1461 12.1938 -2.6477 0.1078 0 7
-21.3383 11.8543 -2.6477 0.1078 0 7
-21.5250 11.5118 -2.6477 0.1078 0 7
-21.7062 11.1663 -2.6477 0.1078 0 7
-21.8819 10.8180 -2.6477 0.1078 0 7
-22.0520 10.4669 -2.6477 0.1078 0 7
-22.2165 10.1132 -2.6477 0.1078 0 7
-22.3752 9.7569 -2.6477 0.1078 0 7
-22.5283 9.3981 -2.6477 0.1078 0 7
-22.6756 9.0368 -2.6477 0.1078 0 7
-21.5038 8.1741 -2.4953 0.1078 0 8
-21.6317 7.8294 -2.4953 0.1078 0 8
-21.7540 7.4827 -2.4953 0.1078 0 8
-21.8708 7.1341 -2.4953 0.1078 0 8
-21.9820 6.7837 -2.4953 0.1078 0 8
-22.0876 6.4315 -2.4953 0.1078 0 8
-1.8997 21.3292 -2.5029 0.1161 0 14
-2.2404 21.2961 -2.5029 0.1161 0 14
-2.5804 21.2576 -2.5029 0.1161 0 14
-2.9198 21.2136 -2.5029 0.1161 0 14
-3.2584 21.1642 -2.5029 0.1161 0 14
-3.5962 21.1095 -2.5029 0.1161 0 14
-3.9331 21.0493 -2.5029 0.1161 0 14
-4.2690 20.9837 -2.5029 0.1161 0 14
-4.6038 20.9128 -2.5029 0.1161 0 14
-4.9374 20.8366 -2.5029 0.1161 0 14
-5.2698 20.7550 -2.5029 0.1161 0 14
-5.6008 20.6682 -2.5029 0.1161 0 14
-5.9304 20.5760 -2.5029 0.1161 0 14
-6.2584 20.4786 -2.5029 0.1161 0 14
-6.5849 20.3760 -2.5029 0.1161 0 14
-6.9097 20.2682 -2.5029 0.1161 0 14
-7.2327 20.1552 -2.5029 0.1161 0 14
-7.5539 20.0370 -2.5029 0.1161 0 14
-7.8731 19.9137 -2.5029 0.1161 0 14
-8.1903 19.7854 -2.5029 0.1161 0 14
-8.5055 19.6519 -2.5029 0.1161 0 14
-8.8184 19.5135 -2.5029 0.1161 0 14
-9.1292 19.3701 -2.5029 0.1161 0 14
-9.4375 19.2217 -2.5029 0.1161 0 14
-9.7435 19.0685 -2.5029 0.1161 0 8
-10.0605 18.9357 -2.5063 0.7032 0 8
-10.4473 18.9273 -2.5269 0.8775 0 8
-10.8425 18.9221 -2.5490 0.8699 0 8
-11.2448 18.9167 -2.5722 0.8620 0 8
-11.6544 18.9111 -2.5964 0.8540 0 8
-12.0718 18.9053 -2.6218 0.8457 0 8
-12.4946 18.8947 -2.6477 0.1161 0 7
-12.7950 18.6926 -2.6477 0.1161 0 7
-13.0921 18.4858 -2.6477 0.1161 0 7
-13.3858 18.2742 -2.6477 0.1161 0 7
-13.6761 18.0579 -2.6477 0.1161 0 7
-13.9630 17.8371 -2.6477 0.1161 0 7
-14.2462 17.6116 -2.6477 0.1161 0 7
-14.5259 17.3817 -2.6477 0.1161 0 7
-14.8018 17.1474 -2.6477 0.1161 0 7
-15.0739 16.9086 -2.6477 0.1161 0 7
-15.3422 16.6656 -2.6477 0.1161 0 7
-15.6066 16.4183 -2.6477 0.1161 0 7
-15.8670 16.1668 -2.6477 0.1161 0 7
-16.1233 15.9111 -2.6477 0.1161 0 7
-16.3755 15.6514 -2.6477 0.1161 0 7
-16.6236 15.3877 -2.6477 0.1161 0 7
-16.8673 15.1201 -2.6477 0.1161 0 7
-17.1068 14.8486 -2.6477 0.1161 0 7
-17.3419 14.5733 -2.6477 0.1161 0 7
-17.5726 14.2943 -2.6477 0.1161 0 7
-17.7988 14.0117 -2.6477 0.1161 0 7
-18.0205 13.7255 -2.6477 0.1161 0 7
-18.2375 13.4357 -2.6477 0.1161 0 7
-18.4499 13.1426 -2.6477 0.1161 0 7
-18.6576 12.8460 -2.6477 0.1161 0 7
-18.8605 12.5462 -2.6477 0.1161 0 7
-19.0585 12.2432 -2.6477 0.1161 0 7
-19.2518 11.9371 -2.6477 0.1161 0 7
-19.4401 11.6279 -2.6477 0.1161 0 7
-19.6234 11.3157 -2.6477 0.1161 0 7
-19.8018 11.0007 -2.6477 0.1161 0 7
-19.9750 10.6829 -2.6477 0.1161 0 7
-20.1432 10.3623 -2.6477 0.1161 0 7
-20.3062 10.0390 -2.6477 0.1161 0 7
-20.4641 9.7132 -2.6477 0.1161 0 7
-20.6167 9.3850 -2.6477 0.1161 0 7
-20.7640 9.0543 -2.6477 0.1161 0 7
-19.7027 8.2193 -2.4953 0.1161 0 8
-19.8316 7.9034 -2.4953 0.1161 0 8
-19.9553 7.5855 -2.4953 0.1161 0 8
-20.0740 7.2656 -2.4953 0.1161 0 8
-20.1875 6.9439 -2.4953 0.1161 0 8
-20.2959 6.6204 -2.4953 0.1161 0 8
-20.3991 6.2952 -2.4953 0.1161 0 8
-20.4971 5.9684 -2.4953 0.1161 0 8
-1.7719 19.8938 -2.5029 0.1243 0 14
-2.0896 19.8630 -2.5029 0.1243 0 14
-2.4068 19.8271 -2.5029 0.1243 0 14
-2.7233 19.7861 -2.5029 0.1243 0 14
-3.0391 19.7400 -2.5029 0.1243 0 14
-3.3542 19.6889 -2.5029 0.1243 0 14
-3.6684 19.6328 -2.5029 0.1243 0 14
-3.9817 19.5717 -2.5029 0.1243 0 14
-4.2940 19.5056 -2.5029 0.1243 0 14
-4.6052 19.4344 -2.5029 0.1243 0 14
-4.9152 19.3584 -2.5029 0.1243 0 14
-5.2239 19.2773 -2.5029 0.1243 0 14
-5.5313 19.1914 -2.5029 0.1243 0 14
-5.8380 19.1029 -2.5032 0.7594 0 8
-6.1418 19.0048 -2.5029 0.1243 0 8
-6.4582 18.9438 -2.5081 0.7527 0 8
-6.7961 18.9385 -2.5215 0.9419 0 8
-7.1384 18.9349 -2.5359 0.9365 0 8
-7.4846 18.9311 -2.5511 0.9309 0 8
-7.8351 18.9272 -2.5671 0.9251 0 8
-8.1900 18.9230 -2.5839 0.9191 0 8
-8.5497 18.9188 -2.6017 0.9128 0 8
-8.9143 18.9143 -2.6203 0.9063 0 8
-9.2843 18.9096 -2.6399 0.8996 0 8
-9.6135 18.8141 -2.6477 0.1243 0 7
-9.9130 18.6580 -2.6477 0.1243 0 7
-10.2099 18.4972 -2.6477 0.1243 0 7
-10.5042 18.3317 -2.6477 0.1243 0 7
-10.7958 18.1615 -2.6477 0.1243 0 7
-11.0847 17.9866 -2.6477 0.1243 0 7
-11.3707 17.8072 -2.6477 0.1243 0 7
-11.6538 17.6232 -2.6477 0.1243 0 7
-11.9340 17.4347 -2.6477 0.1243 0 7
-12.2110 17.2418 -2.6477 0.1243 0 7
-12.4850 17.0444 -2.6477 0.1243 0 7
-12.7558 16.8427 -2.6477 0.1243 0 7
-13.0233 16.6367 -2.6477 0.1243 0 7
-13.2875 16.4265 -2.6477 0.1243 0 7
-13.5484 16.2121 -2.6477 0.1243 0 7
-13.8057 15.9935 -2.6477 0.1243 0 7
-14.0596 15.7708 -2.6477 0.1243 0 7
-14.3098 15.5441 -2.6477 0.1243 0 7
-14.5564 15.3134 -2.6477 0.1243 0 7
-14.7992 15.0789 -2.6477 0.1243 0 7
-15.0383 14.8404 -2.6477 0.1243 0 6
-15.2736 14.5982 -2.6477 0.1243 0 7
-15.5049 14.3523 -2.6477 0.1243 0 7
-15.7323 14.1026 -2.6477 0.1243 0 7
-15.9556 13.8494 -2.6477 0.1243 0 7
-16.1749 13.5927 -2.6477 0.1243 0 7
-16.3901 13.3324 -2.6477 0.1243 0 7
-16.6011 13.0688 -2.6477 0.1243 0 7
-16.8078 12.8018 -2.6477 0.1243 0 7
-17.0102 12.5316 -2.6477 0.1243 0 7
-17.2083 12.2582 -2.6477 0.1243 0 7
-17.4020 11.9816 -2.6477 0.1243 0 7
-17.5913 11.7020 -2.6477 0.1243 0 7
-17.7760 11.4193 -2.6477 0.1243 0 6
-17.9563 11.1338 -2.6477 0.1243 0 7
-18.1319 10.8454 -2.6477 0.1243 0 7
-18.3029 10.5543 -2.6477 0.1243 0 7
-18.4692 10.2604 -2.6477 0.1243 0 7
-18.6308 9.9640 -2.6477 0.1243 0 7
-18.7877 9.6650 -2.6477 0.1243 0 7
-18.9397 9.3635 -2.6477 0.1243 0 7
-19.0870 9.0596 -2.6477 0.1243 0 7
-18.1225 8.2496 -2.4953 0.1243 0 8
-18.2520 7.9589 -2.4953 0.1243 0 8
-18.3769 7.6662 -2.4953 0.1243 0 8
-18.4970 7.3715 -2.4953 0.1243 0 8
-18.6125 7.0750 -2.4953 0.1243 0 8
-18.7231 6.7767 -2.4953 0.1243 0 8
-18.8291 6.4766 -2.4953 0.1243 0 8
-18.9302 6.1749 -2.4953 0.1243 0 8
-19.0264 5.8715 -2.4953 0.1243 0 8
-19.1178 5.5668 -2.4953 0.1243 0 8
-1.6877 18.9484 -2.5447 0.9951 0 8
-1.9932 18.9468 -2.5484 0.9937 0 8
-2.2997 18.9452 -2.5528 0.9920 0 8
-2.6073 18.9434 -2.5579 0.9900 0 8
-2.9162 18.9415 -2.5636 0.9878 0 8
-3.2265 18.9394 -2.5700 0.9854 0 8
-3.5385 18.9373 -2.5770 0.9827 0 8
-3.8522 18.9349 -2.5848 0.9797 0 8
-4.1678 18.9325 -2.5932 0.9765 0 8
-4.4856 18.9299 -2.6023 0.9731 0 8
-4.8057 18.9272 -2.6122 0.9694 0 8
-5.1282 18.9244 -2.6228 0.9655 0 8
-5.4535 18.9214 -2.6341 0.9614 0 8
-5.7815 18.9182 -2.6462 0.9570 0 8
-6.0866 18.8341 -2.6477 0.1326 0 7
-6.3868 18.7344 -2.6477 0.1326 0 7
-6.6854 18.6300 -2.6477 0.1326 0 7
-6.9822 18.5207 -2.6477 0.1326 0 7
-7.2773 18.4068 -2.6477 0.1326 0 6
-7.5706 18.2881 -2.6477 0.1326 0 7
-7.8618 18.1649 -2.6477 0.1326 0 7
-8.1511 18.0369 -2.6477 0.1326 0 7
-8.4383 17.9043 -2.6477 0.1326 0 7
-8.7234 17.7672 -2.6477 0.1326 0 7
-9.0062 17.6255 -2.6477 0.1326 0 7
-9.2867 17.4793 -2.6477 0.1326 0 7
-9.5649 17.3287 -2.6477 0.1326 0 7
-9.8406 17.1736 -2.6477 0.1326 0 7
-10.1138 17.0141 -2.6477 0.1326 0 7
-10.3844 16.8503 -2.6477 0.1326 0 7
-10.6523 16.6822 -2.6477 0.1326 0 7
-10.9176 16.5099 -2.6477 0.1326 0 7
-11.1800 16.3333 -2.6477 0.1326 0 7
-11.4396 16.1526 -2.6477 0.1326 0 7
-11.6963 15.9677 -2.6477 0.1326 0 7
-11.9500 15.7787 -2.6477 0.1326 0 7
-12.2006 15.5857 -2.6477 0.1326 0 7
-12.4481 15.3888 -2.6477 0.1326 0 7
-12.6925 15.1879 -2.6477 0.1326 0 7
-12.9336 14.9831 -2.6477 0.1326 0 7
-13.1714 14.7745 -2.6477 0.1326 0 7
-13.4058 14.5621 -2.6477 0.1326 0 7
-13.6368 14.3460 -2.6477 0.1326 0 7
-13.8643 14.1263 -2.6477 0.1326 0 7
-14.0883 13.9029 -2.6477 0.1326 0 7
-14.3087 13.6760 -2.6477 0.1326 0 7
-14.5254 13.4455 -2.6477 0.1326 0 7
-14.7384 13.2117 -2.6477 0.1326 0 7
-14.9477 12.9745 -2.6477 0.1326 0 7
-15.1531 12.7340 -2.6477 0.1326 0 7
-15.3547 12.4902 -2.6477 0.1326 0 7
-15.5523 12.2432 -2.6477 0.1326 0 7
-15.7460 11.9931 -2.6477 0.1326 0 7
-15.9356 11.7399 -2.6477 0.1326 0 7
-16.1212 11.4838 -2.6477 0.1326 0 7
-16.3027 11.2247 -2.6477 0.1326 0 7
-16.4800 10.9627 -2.6477 0.1326 0 7
-16.6530 10.6979 -2.6477 0.1326 0 7
-16.8219 10.4304 -2.6477 0.1326 0 7
-16.9864 10.1603 -2.6477 0.1326 0 7
-17.1466 9.8875 -2.6477 0.1326 0 7
-17.3025 9.6123 -2.6477 0.1326 0 7
-17.4538 9.3345 -2.6477 0.1326 0 7
-17.6008 9.0544 -2.6477 0.1326 0 7
-16.7230 8.2676 -2.4954 0.4061 0 8
-16.8519 7.9987 -2.4953 0.1326 0 8
-16.9776 7.7284 -2.4953 0.1326 0 8
-17.0989 7.4561 -2.4953 0.1326 0 8
-17.2159 7.1819 -2.4953 0.1326 0 8
-17.3285 6.9059 -2.4953 0.1326 0 8
-17.4366 6.6281 -2.4953 0.1326 0 8
-17.5403 6.3486 -2.4953 0.1326 0 8
-17.6396 6.0674 -2.4953 0.1326 0 8
-17.7342 5.7848 -2.4953 0.1326 0 8
-17.8244 5.5006 -2.4953 0.1326 0 8
-17.9101 5.2151 -2.4953 0.1326 0 8
-1.6514 18.5412 -2.6477 0.1408 0 7
-1.9475 18.5124 -2.6477 0.1408 0 7
-2.2431 18.4789 -2.6477 0.1408 0 6
-2.5381 18.4407 -2.6477 0.1408 0 6
-2.8325 18.3978 -2.6477 0.1408 0 6
-3.1262 18.3502 -2.6477 0.1408 0 7
-3.4190 18.2979 -2.6477 0.1408 0 7
-3.7110 18.2409 -2.6477 0.1408 0 7
-4.0020 18.1793 -2.6477 0.1408 0 7
-4.2920 18.1130 -2.6477 0.1408 0 7
-4.5809 18.0421 -2.6477 0.1408 0 7
-4.8687 17.9666 -2.6477 0.1408 0 7
-5.1552 17.8865 -2.6477 0.1408 0 7
-5.4404 17.8018 -2.6477 0.1408 0 7
-5.7242 17.7126 -2.6477 0.1408 0 7
-6.0065 17.6189 -2.6477 0.1408 0 7
-6.2873 17.5206 -2.6477 0.1408 0 7
-6.5665 17.4179 -2.6477 0.1408 0 7
-6.8440 17.3108 -2.6477 0.1408 0 7
-7.1198 17.1992 -2.6477 0.1408 0 7
-7.3937 17.0832 -2.6477 0.1408 0 7
-7.6658 16.9629 -2.6477 0.1408 0 7
-7.9359 16.8382 -2.6477 0.1408 0 7
-8.2040 16.7092 -2.6477 0.1408 0 7
-8.4699 16.5760 -2.6477 0.1408 0 7
-8.7338 16.4385 -2.6477 0.1408 0 7
-8.9953 16.2968 -2.6477 0.1408 0 7
-9.2546 16.1510 -2.6477 0.1408 0 7
-9.5116 16.0010 -2.6477 0.1408 0 7
-9.7660 15.8470 -2.6477 0.1408 0 7
-10.0181 15.6889 -2.6477 0.1408 0 7
-10.2675 15.5268 -2.6477 0.1408 0 7
-10.5143 15.3607 -2.6477 0.1408 0 7
-10.7584 15.1907 -2.6477 0.1408 0 7
-10.9998 15.0169 -2.6477 0.1408 0 7
-11.2384 14.8392 -2.6477 0.1408 0 7
-11.4741 14.6577 -2.6477 0.1408 0 7
-11.7069 14.4724 -2.6477 0.1408 0 7
-11.9367 14.2835 -2.6477 0.1408 0 7
-12.1634 14.0909 -2.6477 0.1408 0 7
-12.3871 13.8947 -2.6477 0.1408 0 7
-12.6075 13.6950 -2.6477 0.1408 0 7
-12.8248 13.4918 -2.6477 0.1408 0 7
-13.0387 13.2851 -2.6477 0.1408 0 7
-13.2494 13.0750 -2.6477 0.1408 0 7
-13.4567 12.8616 -2.6477 0.1408 0 7
-13.6605 12.6449 -2.6477 0.1408 0 7
-13.8608 12.4250 -2.6477 0.1408 0 7
-14.0576 12.2019 -2.6477 0.1408 0 7
-14.2508 11.9757 -2.6477 0.1408 0 7
-14.4404 11.7464 -2.6477 0.1408 0 7
-14.6262 11.5142 -2.6477 0.1408 0 7
-14.8084 11.2790 -2.6477 0.1408 0 7
-14.9867 11.0409 -2.6477 0.1408 0 7
-15.1613 10.8000 -2.6477 0.1408 0 7
-15.3319 10.5563 -2.6477 0.1408 0 7
-15.4986 10.3099 -2.6477 0.1408 0 7
-15.6614 10.0609 -2.6477 0.1408 0 7
-15.8202 9.8094 -2.6477 0.1408 0 7
-15.9750 9.5553 -2.6477 0.1408 0 7
-16.1256 9.2988 -2.6477 0.1408 0 7
-16.2722 9.0399 -2.6477 0.1408 0 7
-15.4697 8.2734 -2.4953 0.1408 0 8
-15.6000 8.0251 -2.4953 0.1408 0 8
-15.7262 7.7748 -2.4953 0.1408 0 8
-15.8485 7.5224 -2.4953 0.1408 0 8
-15.9667 7.2682 -2.4953 0.1408 0 8
-16.0808 7.0121 -2.4953 0.1408 0 8
-16.1908 6.7543 -2.4953 0.1408 0 8
-16.2966 6.4946 -2.4953 0.1408 0 8
-16.3984 6.2334 -2.4953 0.1408 0 8
-16.4959 5.9705 -2.4953 0.1408 0 8
-16.5892 5.7062 -2.4953 0.1408 0 8
-16.6783 5.4403 -2.4953 0.1408 0 8
-16.7631 5.1731 -2.4953 0.1408 0 8
-16.8436 4.9046 -2.4953 0.1408 0 8
-1.5584 17.4969 -2.6477 0.1490 0 7
-1.8378 17.4697 -2.6477 0.1490 0 7
-2.1168 17.4381 -2.6477 0.1490 0 7
-2.3952 17.4021 -2.6477 0.1490 0 7
-2.6730 17.3616 -2.6477 0.1490 0 7
-2.9501 17.3167 -2.6477 0.1490 0 7
-3.2264 17.2673 -2.6477 0.1490 0 7
-3.5020 17.2135 -2.6477 0.1490 0 7
-3.7766 17.1554 -2.6477 0.1490 0 7
-4.0503 17.0928 -2.6477 0.1490 0 7
-4.3229 17.0259 -2.6477 0.1490 0 7
-4.5945 16.9547 -2.6477 0.1490 0 7
-4.8648 16.8791 -2.6477 0.1490 0 7
-5.1339 16.7992 -2.6477 0.1490 0 7
-5.4018 16.7150 -2.6477 0.1490 0 7
-5.6682 16.6265 -2.6477 0.1490 0 7
-5.9332 16.5338 -2.6477 0.1490 0 7
-6.1966 16.4369 -2.6477 0.1490 0 7
-6.4585 16.3358 -2.6477 0.1490 0 7
-6.7188 16.2305 -2.6477 0.1490 0 7
-6.9773 16.1210 -2.6477 0.1490 0 7
-7.2340 16.0075 -2.6477 0.1490 0 7
-7.4889 15.8898 -2.6477 0.1490 0 7
-7.7419 15.7681 -2.6477 0.1490 0 7
-7.9929 15.6424 -2.6477 0.1490 0 7
-8.2418 15.5126 -2.6477 0.1490 0 7
-8.4887 15.3789 -2.6477 0.1490 0 7
-8.7334 15.2413 -2.6477 0.1490 0 7
-8.9758 15.0998 -2.6477 0.1490 0 7
-9.2160 14.9544 -2.6477 0.1490 0 7
-9.4538 14.8052 -2.6477 0.1490 0 7
-9.6892 14.6523 -2.6477 0.1490 0 7
-9.9221 14.4956 -2.6477 0.1490 0 7
-10.1525 14.3351 -2.6477 0.1490 0 7
-10.3803 14.1711 -2.6477 0.1490 0 7
-10.6054 14.0034 -2.6477 0.1490 0 7
-10.8279 13.8321 -2.6477 0.1490 0 7
-11.0475 13.6573 -2.6477 0.1490 0 7
-11.2644 13.4790 -2.6477 0.1490 0 7
-11.4783 13.2973 -2.6477 0.1490 0 7
-11.6894 13.1121 -2.6477 0.1490 0 7
-11.8974 12.9236 -2.6477 0.1490 0 7
-12.1024 12.7319 -2.6477 0.1490 0 7
-12.3044 12.5368 -2.6477 0.1490 0 7
-12.5031 12.3386 -2.6477 0.1490 0 7
-12.6987 12.1372 -2.6477 0.1490 0 7
-12.8911 11.9327 -2.6477 0.1490 0 7
-13.0801 11.7252 -2.6477 0.1490 0 7
-13.2658 11.5147 -2.6477 0.1490 0 7
-13.4481 11.3012 -2.6477 0.1490 0 7
-13.6270 11.0848 -2.6477 0.1490 0 7
-13.8024 10.8656 -2.6477 0.1490 0 7
-13.9743 10.6437 -2.6477 0.1490 0 7
-14.1426 10.4190 -2.6477 0.1490 0 7
-14.3073 10.1917 -2.6477 0.1490 0 7
-14.4684 9.9617 -2.6477 0.1490 0 7
-14.6257 9.7292 -2.6477 0.1490 0 7
-14.7793 9.4943 -2.6477 0.1490 0 7
-14.9292 9.2569 -2.6477 0.1490 0 7
-15.0752 9.0171 -2.6477 0.1490 0 7
-14.3473 8.2733 -2.4963 0.4564 0 8
-14.4718 8.0397 -2.4953 0.1490 0 8
-14.5984 7.8074 -2.4953 0.1490 0 8
-14.7213 7.5731 -2.4953 0.1490 0 8
-14.8405 7.3369 -2.4953 0.1490 0 8
-14.9558 7.0988 -2.4953 0.1490 0 8
-15.0674 6.8588 -2.4953 0.1490 0 8
-15.1750 6.6172 -2.4953 0.1490 0 8
-15.2789 6.3738 -2.4953 0.1490 0 8
-15.3788 6.1288 -2.4953 0.1490 0 8
-15.4747 5.8823 -2.4953 0.1490 0 8
-15.5668 5.6343 -2.4953 0.1490 0 8
-15.6548 5.3848 -2.4953 0.1490 0 8
-15.7389 5.1339 -2.4953 0.1490 0 8
-15.8189 4.8817 -2.4953 0.1490 0 8
-15.8949 4.6283 -2.4953 0.1490 0 8
-1.4751 16.5617 -2.6477 0.1573 0 7
-1.7396 16.5360 -2.6477 0.1573 0 7
-2.0036 16.5061 -2.6477 0.1573 0 7
-2.2672 16.4720 -2.6477 0.1573 0 7
-2.5301 16.4337 -2.6477 0.1573 0 7
-2.7924 16.3911 -2.6477 0.1573 0 7
-3.0540 16.3444 -2.6477 0.1573 0 7
-3.3148 16.2935 -2.6477 0.1573 0 7
-3.5748 16.2385 -2.6477 0.1573 0 7
-3.8338 16.1793 -2.6477 0.1573 0 7
-4.0919 16.1159 -2.6477 0.1573 0 7
-4.3489 16.0485 -2.6477 0.1573 0 7
-4.6048 15.9769 -2.6477 0.1573 0 7
-4.8596 15.9013 -2.6477 0.1573 0 7
-5.1131 15.8216 -2.6477 0.1573 0 7
-5.3652 15.7379 -2.6477 0.1573 0 7
-5.6161 15.6501 -2.6477 0.1573 0 7
-5.8654 15.5584 -2.6477 0.1573 0 7
-6.1133 15.4627 -2.6477 0.1573 0 7
-6.3597 15.3630 -2.6477 0.1573 0 7
-6.6044 15.2594 -2.6477 0.1573 0 7
-6.8474 15.1519 -2.6477 0.1573 0 7
-7.0886 15.0405 -2.6477 0.1573 0 7
-7.3281 14.9253 -2.6477 0.1573 0 6
-7.5657 14.8063 -2.6477 0.1573 0 7
-7.8013 14.6835 -2.6477 0.1573 0 7
-8.0350 14.5570 -2.6477 0.1573 0 7
-8.2666 14.4267 -2.6477 0.1573 0 7
-8.4961 14.2928 -2.6477 0.1573 0 7
-8.7234 14.1552 -2.6477 0.1573 0 7
-8.9485 14.0139 -2.6477 0.1573 0 7
-9.1713 13.8691 -2.6477 0.1573 0 7
-9.3918 13.7208 -2.6477 0.1573 0 7
-9.6099 13.5690 -2.6477 0.1573 0 7
-9.8255 13.4137 -2.6477 0.1573 0 7
-10.0386 13.2549 -2.6477 0.1573 0 7
-10.2491 13.0928 -2.6477 0.1573 0 7
-10.4571 12.9274 -2.6477 0.1573 0 7
-10.6623 12.7586 -2.6477 0.1573 0 7
-10.8649 12.5866 -2.6477 0.1573 0 7
-11.0646 12.4113 -2.6477 0.1573 0 7
-11.2615 12.2329 -2.6477 0.1573 0 7
-11.4556 12.0514 -2.6477 0.1573 0 7
-11.6467 11.8668 -2.6477 0.1573 0 7
-11.8349 11.6791 -2.6477 0.1573 0 7
-12.0200 11.4885 -2.6477 0.1573 0 7
-12.2021 11.2950 -2.6477 0.1573 0 7
-12.3810 11.0985 -2.6477 0.1573 0 7
-12.5568 10.8992 -2.6477 0.1573 0 7
-12.7294 10.6972 -2.6477 0.1573 0 7
-12.8987 10.4924 -2.6477 0.1573 0 7
-13.0647 10.2849 -2.6477 0.1573 0 7
-13.2274 10.0748 -2.6477 0.1573 0 7
-13.3867 9.8621 -2.6477 0.1573 0 7
-13.5426 9.6469 -2.6477 0.1573 0 7
-13.6951 9.4293 -2.6477 0.1573 0 7
-13.8440 9.2092 -2.6477 0.1573 0 7
-13.9894 8.9868 -2.6477 0.1573 0 7
-13.3179 8.2578 -2.4953 0.1573 0 8
-13.4481 8.0439 -2.4953 0.1573 0 8
-13.5750 7.8279 -2.4953 0.1573 0 8
-13.6983 7.6100 -2.4953 0.1573 0 8
-13.8182 7.3901 -2.4953 0.1573 0 8
-13.9345 7.1683 -2.4953 0.1573 0 8
-14.0473 6.9447 -2.4953 0.1573 0 8
-14.1565 6.7194 -2.4953 0.1573 0 8
-14.2621 6.4923 -2.4953 0.1573 0 8
-14.3640 6.2635 -2.4953 0.1573 0 8
-14.4622 6.0332 -2.4953 0.1573 0 8
-14.5568 5.8013 -2.4953 0.1573 0 8
-14.6477 5.5679 -2.4953 0.1573 0 8
-14.7348 5.3331 -2.4953 0.1573 0 8
-14.8181 5.0970 -2.4953 0.1573 0 8
-14.8977 4.8595 -2.4953 0.1573 0 8
-14.9734 4.6208 -2.4953 0.1573 0 8
-15.0454 4.3809 -2.4953 0.1573 0 8
-1.4001 15.7193 -2.6477 0.1655 0 7
-1.6511 15.6950 -2.6477 0.1655 0 7
-1.9017 15.6666 -2.6477 0.1655 0 7
-2.1518 15.6342 -2.6477 0.1655 0 7
-2.4014 15.5978 -2.6477 0.1655 0 7
-2.6504 15.5574 -2.6477 0.1655 0 7
-2.8987 15.5131 -2.6477 0.1655 0 7
-3.1462 15.4648 -2.6477 0.1655 0 7
-3.3929 15.4125 -2.6477 0.1655 0 7
-3.6388 15.3563 -2.6477 0.1655 0 7
-3.8838 15.2962 -2.6477 0.1655 0 7
-4.1277 15.2322 -2.6477 0.1655 0 7
-4.3706 15.1643 -2.6477 0.1655 0 7
-4.6124 15.0925 -2.6477 0.1655 0 7
-4.8530 15.0169 -2.6477 0.1655 0 7
-5.0923 14.9374 -2.6477 0.1655 0 7
-5.3304 14.8541 -2.6477 0.1655 0 7
-5.5671 14.7670 -2.6477 0.1655 0 7
-5.8024 14.6762 -2.6477 0.1655 0 7
-6.0362 14.5816 -2.6477 0.1655 0 7
-6.2684 14.4833 -2.6477 0.1655 0 7
-6.4991 14.3812 -2.6477 0.1655 0 7
-6.7281 14.2755 -2.6477 0.1655 0 7
-6.9554 14.1662 -2.6477 0.1655 0 7
-7.1809 14.0532 -2.6477 0.1655 0 7
-7.4045 13.9367 -2.6477 0.1655 0 7
-7.6263 13.8166 -2.6477 0.1655 0 7
-7.8461 13.6929 -2.6477 0.1655 0 7
-8.0640 13.5658 -2.6477 0.1655 0 7
-8.2797 13.4352 -2.6477 0.1655 0 7
-8.4934 13.3011 -2.6477 0.1655 0 7
-8.7049 13.1637 -2.6477 0.1655 0 7
-8.9141 13.0229 -2.6477 0.1655 0 7
-9.1211 12.8788 -2.6477 0.1655 0 7
-9.3257 12.7314 -2.6477 0.1655 0 7
-9.5280 12.5807 -2.6477 0.1655 0 7
-9.7278 12.4269 -2.6477 0.1655 0 7
-9.9252 12.2698 -2.6477 0.1655 0 7
-10.1200 12.1097 -2.6477 0.1655 0 7
-10.3122 11.9464 -2.6477 0.1655 0 7
-10.5018 11.7800 -2.6477 0.1655 0 7
-10.6888 11.6107 -2.6477 0.1655 0 7
-10.8729 11.4384 -2.6477 0.1655 0 6
-11.0543 11.2632 -2.6477 0.1655 0 7
-11.2329 11.0851 -2.6477 0.1655 0 7
-11.4086 10.9042 -2.6477 0.1655 0 7
-11.5814 10.7205 -2.6477 0.1655 0 7
-11.7513 10.5340 -2.6477 0.1655 0 7
-11.9181 10.3449 -2.6477 0.1655 0 7
-12.0819 10.1531 -2.6477 0.1655 0 7
-12.2426 9.9587 -2.6477 0.1655 0 7
-12.4002 9.7618 -2.6477 0.1655 0 7
-12.5546 9.5624 -2.6477 0.1655 0 7
-12.7059 9.3605 -2.6477 0.1655 0 7
-12.8538 9.1563 -2.6477 0.1655 0 7
-12.9985 8.9497 -2.6477 0.1655 0 7
-12.3835 8.2377 -2.4953 0.1655 0 8
-12.5136 8.0388 -2.4953 0.1655 0 8
-12.6405 7.8377 -2.4953 0.1655 0 8
-12.7641 7.6347 -2.4953 0.1655 0 8
-12.8845 7.4298 -2.4953 0.1655 0 8
-13.0016 7.2229 -2.4953 0.1655 0 8
-13.1153 7.0142 -2.4953 0.1655 0 8
-13.2258 6.8037 -2.4953 0.1655 0 8
-13.3328 6.5915 -2.4953 0.1655 0 8
-13.4364 6.3776 -2.4953 0.1655 0 8
-13.5366 6.1620 -2.4953 0.1655 0 8
-13.6334 5.9449 -2.4953 0.1655 0 8
-13.7267 5.7263 -2.4953 0.1655 0 8
-13.8164 5.5062 -2.4953 0.1655 0 8
-13.9026 5.2847 -2.4953 0.1655 0 8
-13.9853 5.0619 -2.4953 0.1655 0 8
-14.0644 4.8377 -2.4953 0.1655 0 8
-14.1399 4.6123 -2.4953 0.1655 0 8
-14.2119 4.3858 -2.4953 0.1655 0 8
-14.2801 4.1581 -2.4953 0.1655 0 8
-1.3321 14.9565 -2.6477 0.1736 0 6
-1.5710 14.9333 -2.6477 0.1736 0 6
-1.8093 14.9063 -2.6477 0.1736 0 7
-2.0474 14.8755 -2.6477 0.1736 0 7
-2.2849 14.8408 -2.6477 0.1736 0 7
-2.5217 14.8024 -2.6477 0.1736 0 7
-2.7580 14.7602 -2.6477 0.1736 0 7
-2.9935 14.7143 -2.6477 0.1736 0 7
-3.2283 14.6646 -2.6477 0.1736 0 7
-3.4622 14.6111 -2.6477 0.1736 0 7
-3.6953 14.5539 -2.6477 0.1736 0 7
-3.9274 14.4930 -2.6477 0.1736 0 7
-4.1585 14.4284 -2.6477 0.1736 0 7
-4.3885 14.3601 -2.6477 0.1736 0 7
-4.6175 14.2881 -2.6477 0.1736 0 7
-4.8452 14.2125 -2.6477 0.1736 0 7
-5.0717 14.1332 -2.6477 0.1736 0 7
-5.2969 14.0504 -2.6477 0.1736 0 7
-5.5208 13.9639 -2.6477 0.1736 0 7
-5.7433 13.8739 -2.6477 0.1736 0 7
-5.9642 13.7804 -2.6477 0.1736 0 7
-6.1837 13.6833 -2.6477 0.1736 0 7
-6.4016 13.5827 -2.6477 0.1736 0 7
-6.6178 13.4787 -2.6477 0.1736 0 7
-6.8324 13.3712 -2.6477 0.1736 0 7
-7.0452 13.2603 -2.6477 0.1736 0 7
-7.2562 13.1460 -2.6477 0.1736 0 7
-7.4654 13.0284 -2.6477 0.1736 0 7
-7.6726 12.9074 -2.6477 0.1736 0 7
-7.8779 12.7832 -2.6477 0.1736 0 7
-8.0812 12.6556 -2.6477 0.1736 0 7
-8.2824 12.5249 -2.6477 0.1736 0 7
-8.4815 12.3909 -2.6477 0.1736 0 7
-8.6784 12.2538 -2.6477 0.1736 0 7
-8.8732 12.1136 -2.6477 0.1736 0 7
-9.0656 11.9702 -2.6477 0.1736 0 7
-9.2557 11.8238 -2.6477 0.1736 0 7
-9.4435 11.6744 -2.6477 0.1736 0 7
-9.6289 11.5220 -2.6477 0.1736 0 7
-9.8118 11.3666 -2.6477 0.1736 0 6
-9.9922 11.2084 -2.6477 0.1736 0 7
-10.1700 11.0472 -2.6477 0.1736 0 7
-10.3453 10.8833 -2.6477 0.1736 0 7
-10.5179 10.7166 -2.6477 0.1736 0 7
-10.6878 10.5471 -2.6477 0.1736 0 7
-10.8550 10.3750 -2.6477 0.1736 0 7
-11.0194 10.2002 -2.6477 0.1736 0 7
-11.1810 10.0228 -2.6477 0.1736 0 7
-11.3397 9.8428 -2.6477 0.1736 0 7
-11.4956 9.6604 -2.6477 0.1736 0 7
-11.6485 9.4754 -2.6477 0.1736 0 7
-11.7984 9.2880 -2.6477 0.1736 0 7
-11.9454 9.0983 -2.6477 0.1736 0 7
-11.3934 8.3936 -2.4953 0.1736 0 8
-11.5261 8.2105 -2.4953 0.1736 0 8
-11.6558 8.0252 -2.4953 0.1736 0 8
-11.7826 7.8379 -2.4953 0.1736 0 8
-11.9063 7.6486 -2.4953 0.1736 0 8
-12.0270 7.4574 -2.4953 0.1736 0 8
-12.1447 7.2642 -2.4953 0.1736 0 8
-12.2592 7.0692 -2.4953 0.1736 0 8
-12.3706 6.8724 -2.4953 0.1736 0 8
-12.4788 6.6738 -2.4953 0.1736 0 8
-12.5839 6.4735 -2.4953 0.1736 0 8
-12.6858 6.2716 -2.4953 0.1736 0 8
-12.7844 6.0681 -2.4953 0.1736 0 8
-12.8797 5.8630 -2.4953 0.1736 0 8
-12.9718 5.6564 -2.4953 0.1736 0 8
-13.0605 5.4484 -2.4953 0.1736 0 8
-13.1459 5.2390 -2.4953 0.1736 0 8
-13.2279 5.0282 -2.4953 0.1736 0 8
-13.3066 4.8162 -2.4953 0.1736 0 8
-13.3819 4.6029 -2.4953 0.1736 0 8
-13.4537 4.3885 -2.4953 0.1736 0 8
-13.5221 4.1729 -2.4953 0.1736 0 8
-13.5871 3.9563 -2.4953 0.1736 0 8
-1.2703 14.2623 -2.6477 0.1818 0 7
-1.4981 14.2402 -2.6477 0.1818 0 7
-1.7255 14.2144 -2.6477 0.1818 0 7
-1.9524 14.1850 -2.6477 0.1818 0 7
-2.1788 14.1520 -2.6477 0.1818 0 7
-2.4047 14.1154 -2.6477 0.1818 0 7
-2.6300 14.0752 -2.6477 0.1818 0 7
-2.8546 14.0313 -2.6477 0.1818 0 7
-3.0784 13.9839 -2.6477 0.1818 0 7
-3.3015 13.9329 -2.6477 0.1818 0 7
-3.5238 13.8784 -2.6477 0.1818 0 7
-3.7451 13.8203 -2.6477 0.1818 0 7
-3.9655 13.7587 -2.6477 0.1818 0 7
-4.1849 13.6936 -2.6477 0.1818 0 7
-4.4032 13.6249 -2.6477 0.1818 0 7
-4.6203 13.5528 -2.6477 0.1818 0 7
-4.8363 13.4773 -2.6477 0.1818 0 7
-5.0511 13.3983 -2.6477 0.1818 0 7
-5.2646 13.3158 -2.6477 0.1818 0 7
-5.4767 13.2300 -2.6477 0.1818 0 7
-5.6874 13.1408 -2.6477 0.1818 0 7
-5.8967 13.0482 -2.6477 0.1818 0 7
-6.1045 12.9523 -2.6477 0.1818 0 7
-6.3107 12.8531 -2.6477 0.1818 0 7
-6.5153 12.7506 -2.6477 0.1818 0 7
-6.7182 12.6449 -2.6477 0.1818 0 7
-6.9194 12.5359 -2.6477 0.1818 0 7
-7.1189 12.4237 -2.6477 0.1818 0 7
-7.3165 12.3084 -2.6477 0.1818 0 7
-7.5123 12.1899 -2.6477 0.1818 0 7
-7.7061 12.0683 -2.6477 0.1818 0 7
-7.8980 11.9436 -2.6477 0.1818 0 7
-8.0879 11.8158 -2.6477 0.1818 0 7
-8.2756 11.6851 -2.6477 0.1818 0 7
-8.4613 11.5513 -2.6477 0.1818 0 7
-8.6449 11.4146 -2.6477 0.1818 0 6
-8.8261 11.2750 -2.6477 0.1818 0 7
-9.0052 11.1325 -2.6477 0.1818 0 7
-9.1820 10.9872 -2.6477 0.1818 0 7
-9.3564 10.8391 -2.6477 0.1818 0 7
-9.5284 10.6881 -2.6477 0.1818 0 7
-9.6980 10.5345 -2.6477 0.1818 0 7
-9.8651 10.3782 -2.6477 0.1818 0 7
-10.0297 10.2192 -2.6477 0.1818 0 7
-10.1917 10.0576 -2.6477 0.1818 0 7
-10.3512 9.8935 -2.6477 0.1818 0 7
-10.5079 9.7268 -2.6477 0.1818 0 7
-10.6620 9.5576 -2.6477 0.1818 0 7
-10.8134 9.3860 -2.6477 0.1818 0 7
-10.9620 9.2120 -2.6477 0.1818 0 7
-11.1079 9.0356 -2.6477 0.1818 0 7
-10.6032 8.3471 -2.4953 0.1818 0 8
-10.7353 8.1766 -2.4953 0.1818 0 8
-10.8646 8.0040 -2.4953 0.1818 0 8
-10.9911 7.8294 -2.4953 0.1818 0 8
-11.1148 7.6527 -2.4953 0.1818 0 8
-11.2357 7.4741 -2.4953 0.1818 0 8
-11.3537 7.2936 -2.4953 0.1818 0 8
-11.4688 7.1113 -2.4953 0.1818 0 8
-11.5810 6.9271 -2.4953 0.1818 0 8
-11.6902 6.7411 -2.4953 0.1818 0 8
-11.7964 6.5534 -2.4953 0.1818 0 8
-11.8997 6.3641 -2.4953 0.1818 0 8
-11.9999 6.1731 -2.4953 0.1818 0 8
-12.0970 5.9805 -2.4953 0.1818 0 8
-12.1910 5.7864 -2.4953 0.1818 0 8
-12.2819 5.5909 -2.4953 0.1818 0 8
-12.3697 5.3939 -2.4953 0.1818 0 8
-12.4543 5.1955 -2.4953 0.1818 0 8
-12.5358 4.9958 -2.4953 0.1818 0 8
-12.6140 4.7949 -2.4953 0.1818 0 8
-12.6890 4.5927 -2.4953 0.1818 0 8
-12.7608 4.3893 -2.4953 0.1818 0 8
-12.8293 4.1848 -2.4953 0.1818 0 8
-12.8945 3.9793 -2.4953 0.1818 0 8
-12.9565 3.7727 -2.4953 0.1818 0 8
-1.2138 13.6278 -2.6477 0.1900 0 7
-1.4314 13.6067 -2.6477 0.1900 0 7
-1.6487 13.5821 -2.6477 0.1900 0 7
-1.8655 13.5540 -2.6477 0.1900 0 7
-2.0819 13.5225 -2.6477 0.1900 0 7
-2.2977 13.4875 -2.6477 0.1900 0 7
-2.5130 13.4490 -2.6477 0.1900 0 7
-2.7276 13.4071 -2.6477 0.1900 0 7
-2.9415 13.3618 -2.6477 0.1900 0 7
-3.1547 13.3131 -2.6477 0.1900 0 7
-3.3670 13.2610 -2.6477 0.1900 0 7
-3.5785 13.2055 -2.6477 0.1900 0 7
-3.7891 13.1466 -2.6477 0.1900 0 7
-3.9987 13.0844 -2.6477 0.1900 0 7
-4.2073 13.0188 -2.6477 0.1900 0 7
-4.4148 12.9499 -2.6477 0.1900 0 7
-4.6212 12.8777 -2.6477 0.1900 0 7
-4.8264 12.8022 -2.6477 0.1900 0 7
-5.0304 12.7235 -2.6477 0.1900 0 7
-5.2331 12.6415 -2.6477 0.1900 0 7
-5.4344 12.5562 -2.6477 0.1900 0 7
-5.6344 12.4678 -2.6477 0.1900 0 7
-5.8329 12.3761 -2.6477 0.1900 0 7
-6.0299 12.2813 -2.6477 0.1900 0 7
-6.2254 12.1834 -2.6477 0.1900 0 7
-6.4193 12.0824 -2.6477 0.1900 0 7
-6.6116 11.9782 -2.6477 0.1900 0 7
-6.8022 11.8710 -2.6477 0.1900 0 7
-6.9910 11.7608 -2.6477 0.1900 0 7
-7.1781 11.6476 -2.6477 0.1900 0 7
-7.3633 11.5314 -2.6477 0.1900 0 7
-7.5466 11.4122 -2.6477 0.1900 0 6
-7.7281 11.2902 -2.6477 0.1900 0 7
-7.9075 11.1652 -2.6477 0.1900 0 7
-8.0849 11.0375 -2.6477 0.1900 0 7
-8.2603 10.9068 -2.6477 0.1900 0 7
-8.4335 10.7734 -2.6477 0.1900 0 7
-8.6046 10.6373 -2.6477 0.1900 0 7
-8.7735 10.4984 -2.6477 0.1900 0 7
-8.9402 10.3569 -2.6477 0.1900 0 7
-9.1045 10.2127 -2.6477 0.1900 0 7
-9.2666 10.0659 -2.6477 0.1900 0 7
-9.4263 9.9165 -2.6477 0.1900 0 7
-9.5835 9.7646 -2.6477 0.1900 0 7
-9.7384 9.6102 -2.6477 0.1900 0 7
-9.8907 9.4533 -2.6477 0.1900 0 7
-10.0405 9.2941 -2.6477 0.1900 0 7
-10.1877 9.1324 -2.6477 0.1900 0 7
-10.3324 8.9685 -2.6477 0.1900 0 7
-9.8715 8.2955 -2.4953 0.1900 0 8
-10.0028 8.1367 -2.4953 0.1900 0 8
-10.1316 7.9758 -2.4953 0.1900 0 8
-10.2577 7.8129 -2.4953 0.1900 0 8
-10.3813 7.6480 -2.4953 0.1900 0 8
-10.5022 7.4811 -2.4953 0.1900 0 8
-10.6204 7.3123 -2.4953 0.1900 0 8
-10.7359 7.1417 -2.4953 0.1900 0 8
-10.8486 6.9692 -2.4953 0.1900 0 8
-10.9586 6.7949 -2.4953 0.1900 0 8
-11.0658 6.6189 -2.4953 0.1900 0 8
-11.1702 6.4412 -2.4953 0.1900 0 8
-11.2717 6.2619 -2.4953 0.1900 0 8
-11.3703 6.0810 -2.4953 0.1900 0 8
-11.4660 5.8985 -2.4953 0.1900 0 8
-11.5588 5.7145 -2.4953 0.1900 0 8
-11.6487 5.5290 -2.4953 0.1900 0 8
-11.7356 5.3422 -2.4953 0.1900 0 8
-11.8194 5.1539 -2.4953 0.1900 0 8
-11.9003 4.9644 -2.4953 0.1900 0 8
-11.9781 4.7736 -2.4953 0.1900 0 8
-12.0529 4.5816 -2.4953 0.1900 0 8
-12.1245 4.3884 -2.4953 0.1900 0 8
-12.1931 4.1940 -2.4953 0.1900 0 8
-12.2586 3.9986 -2.4953 0.1900 0 8
-12.3209 3.8022 -2.4953 0.1900 0 8
-12.3801 3.6049 -2.4953 0.1900 0 8
-1.1619 13.0456 -2.6477 0.1981 0 7
-1.3703 13.0254 -2.6477 0.1981 0 7
-1.5783 13.0018 -2.6477 0.1981 0 7
-1.7858 12.9750 -2.6477 0.1981 0 7
-1.9930 12.9448 -2.6477 0.1981 0 7
-2.1996 12.9113 -2.6477 0.1981 0 7
-2.4056 12.8745 -2.6477 0.1981 0 7
-2.6111 12.8344 -2.6477 0.1981 0 7
-2.8158 12.7910 -2.6477 0.1981 0 7
-3.0199 12.7444 -2.6477 0.1981 0 7
-3.2232 12.6945 -2.6477 0.1981 0 7
-3.4256 12.6413 -2.6477 0.1981 0 7
-3.6272 12.5850 -2.6477 0.1981 0 7
-3.8279 12.5254 -2.6477 0.1981 0 7
-4.0275 12.4626 -2.6477 0.1981 0 7
-4.2262 12.3967 -2.6477 0.1981 0 7
-4.4238 12.3276 -2.6477 0.1981 0 7
-4.6202 12.2553 -2.6477 0.1981 0 7
-4.8155 12.1799 -2.6477 0.1981 0 7
-5.0095 12.1014 -2.6477 0.1981 0 7
-5.2022 12.0198 -2.6477 0.1981 0 7
-5.3937 11.9351 -2.6477 0.1981 0 7
-5.5837 11.8474 -2.6477 0.1981 0 7
-5.7723 11.7567 -2.6477 0.1981 0 7
-5.9595 11.6629 -2.6477 0.1981 0 7
-6.1451 11.5662 -2.6477 0.1981 0 7
-6.3291 11.4665 -2.6477 0.1981 0 6
-6.5116 11.3639 -2.6477 0.1981 0 6
-6.6924 11.2584 -2.6477 0.1981 0 7
-6.8714 11.1500 -2.6477 0.1981 0 7
-7.0487 11.0387 -2.6477 0.1981 0 7
-7.2242 10.9247 -2.6477 0.1981 0 7
-7.3979 10.8078 -2.6477 0.1981 0 7
-7.5697 10.6882 -2.6477 0.1981 0 7
-7.7395 10.5659 -2.6477 0.1981 0 7
-7.9074 10.4409 -2.6477 0.1981 0 7
-8.0732 10.3132 -2.6477 0.1981 0 7
-8.2370 10.1828 -2.6477 0.1981 0 7
-8.3987 10.0499 -2.6477 0.1981 0 7
-8.5582 9.9144 -2.6477 0.1981 0 7
-8.7156 9.7764 -2.6477 0.1981 0 7
-8.8707 9.6358 -2.6477 0.1981 0 7
-9.0235 9.4928 -2.6477 0.1981 0 7
-9.1741 9.3474 -2.6477 0.1981 0 7
-9.3223 9.1996 -2.6477 0.1981 0 7
-9.4681 9.0495 -2.6477 0.1981 0 7
-9.0583 8.3849 -2.4953 0.1981 0 8
