ply
format ascii 1.0
element vertex 1307
property float32 x
property float32 y
property float32 z
property float32 CosAngle
property uint32 ObjIdx
property uint32 ObjTag
end_header
-105.3414 -13.2261 -2.6477 0.0249 0 7
-105.1136 -14.9293 -2.6477 0.0249 0 7
-98.8225 -15.6715 -2.4953 0.0249 0 8
-98.5559 -17.2689 -2.4953 0.0249 0 8
-98.2635 -18.8618 -2.4953 0.0249 0 8
-97.9454 -20.4496 -2.4953 0.0249 0 8
-97.6016 -22.0323 -2.4953 0.0249 0 8
-97.2322 -23.6090 -2.4953 0.0249 0 8
-96.8373 -25.1797 -2.4953 0.0249 0 8
-96.4171 -26.7437 -2.4953 0.0249 0 8
-95.9717 -28.3006 -2.4953 0.0249 0 8
-95.5010 -29.8502 -2.4953 0.0249 0 8
-95.0054 -31.3920 -2.4953 0.0249 0 8
-94.4849 -32.9255 -2.4953 0.0249 0 8
-93.9396 -34.4504 -2.4953 0.0249 0 8
-93.3698 -35.9663 -2.4953 0.0249 0 8
-92.7754 -37.4728 -2.4953 0.0249 0 8
-92.1568 -38.9694 -2.4953 0.0249 0 8
-91.5140 -40.4559 -2.4953 0.0249 0 8
-90.8477 -41.9319 -2.4953 0.0249 0 8
-90.1567 -43.3966 -2.4953 0.0249 0 8
-89.4425 -44.8501 -2.4953 0.0249 0 8
-88.7049 -46.2918 -2.4953 0.0249 0 8
-93.3153 -50.6361 -2.6477 0.0249 0 7
-92.4835 -52.1398 -2.6477 0.0249 0 7
-91.6275 -53.6298 -2.6477 0.0249 0 7
-90.7474 -55.1058 -2.6477 0.0249 0 7
-89.8437 -56.5673 -2.6477 0.0249 0 7
-88.9163 -58.0140 -2.6477 0.0249 0 7
-87.9658 -59.4455 -2.6477 0.0249 0 7
-86.9921 -60.8615 -2.6477 0.0249 0 7
-85.9957 -62.2614 -2.6477 0.0249 0 7
-84.9768 -63.6451 -2.6477 0.0249 0 7
-83.9355 -65.0121 -2.6477 0.0249 0 7
-82.8723 -66.3620 -2.6477 0.0249 0 7
-81.7874 -67.6946 -2.6477 0.0249 0 7
-80.6811 -69.0095 -2.6477 0.0249 0 7
-79.5535 -70.3064 -2.6477 0.0249 0 7
-78.4052 -71.5847 -2.6477 0.0249 0 7
-76.8866 -72.5144 -2.6357 0.7730 0 8
-74.6943 -72.7667 -2.6006 0.7485 0 8
-72.4591 -72.9119 -2.5635 0.7229 0 8
-70.1843 -72.9471 -2.5245 0.7058 0 8
-68.1966 -73.2168 -2.4953 0.0249 0 8
-67.0027 -74.3110 -2.4953 0.0249 0 8
-65.7912 -75.3857 -2.4953 0.0249 0 8
-64.5624 -76.4409 -2.4953 0.0249 0 8
-63.3167 -77.4757 -2.4953 0.0249 0 8
-62.0545 -78.4903 -2.4953 0.0249 0 8
-60.8254 -79.5489 -2.4973 0.0219 0 8
-59.6315 -80.6603 -2.5016 0.0219 0 8
-58.4157 -81.7514 -2.5057 0.0219 0 8
-57.1785 -82.8216 -2.5098 0.0218 0 8
-55.9201 -83.8704 -2.5139 0.0218 0 8
-54.6400 -84.8961 -2.5178 0.0218 0 8
-53.3403 -85.9006 -2.5216 0.0217 0 8
-52.0206 -86.8822 -2.5254 0.0217 0 8
-50.6802 -87.8386 -2.5290 0.0217 0 8
-49.3216 -88.7729 -2.5326 0.0216 0 8
-47.9444 -89.6830 -2.5361 0.0216 0 8
-46.5481 -90.5669 -2.5394 0.0216 0 8
-45.1341 -91.4259 -2.5427 0.0216 0 8
-43.7035 -92.2605 -2.5459 0.0215 0 8
-42.2555 -93.0677 -2.5490 0.0215 0 8
-40.7907 -93.8478 -2.5519 0.0215 0 8
-39.3111 -94.6032 -2.5548 0.0215 0 8
-37.8158 -95.3303 -2.5576 0.0214 0 8
-36.3050 -96.0279 -2.5602 0.0214 0 8
-75.0146 1.5583 -2.4953 0.0332 0 8
-75.0300 0.3440 -2.4953 0.0332 0 8
-75.0257 -0.8704 -2.4953 0.0332 0 8
-75.0018 -2.0846 -2.4953 0.0332 0 8
-74.9583 -3.2982 -2.4953 0.0332 0 8
-74.8951 -4.5110 -2.4953 0.0332 0 8
-74.8122 -5.7226 -2.4953 0.0332 0 8
-74.7098 -6.9327 -2.4953 0.0332 0 8
-74.5878 -8.1409 -2.4953 0.0332 0 8
-74.4463 -9.3471 -2.4953 0.0332 0 8
-74.2853 -10.5507 -2.4953 0.0332 0 8
-74.1048 -11.7517 -2.4953 0.0332 0 8
-73.9049 -12.9495 -2.4953 0.0332 0 8
-73.6856 -14.1440 -2.4953 0.0332 0 8
-73.4470 -15.3347 -2.4953 0.0332 0 8
-73.1892 -16.5215 -2.4953 0.0332 0 8
-72.9122 -17.7039 -2.4953 0.0332 0 8
-72.6161 -18.8817 -2.4953 0.0332 0 8
-72.3010 -20.0545 -2.4953 0.0332 0 8
-71.9670 -21.2220 -2.4953 0.0332 0 8
-71.6141 -22.3840 -2.4953 0.0332 0 8
-71.2424 -23.5401 -2.4953 0.0332 0 8
-70.8521 -24.6901 -2.4953 0.0332 0 8
-70.4432 -25.8336 -2.4953 0.0332 0 8
-70.0159 -26.9704 -2.4953 0.0332 0 8
-69.5702 -28.1000 -2.4953 0.0332 0 8
-69.1063 -29.2223 -2.4953 0.0332 0 8
-68.6243 -30.3370 -2.4953 0.0332 0 8
-68.1243 -31.4436 -2.4953 0.0332 0 8
-67.6064 -32.5421 -2.4953 0.0332 0 8
-67.0709 -33.6320 -2.4953 0.0332 0 8
-66.5178 -34.7132 -2.4953 0.0332 0 8
-65.9472 -35.7852 -2.4953 0.0332 0 8
-65.3594 -36.8479 -2.4953 0.0332 0 8
-64.7545 -37.9009 -2.4953 0.0332 0 8
-64.1325 -38.9441 -2.4953 0.0332 0 8
-63.4938 -39.9769 -2.4953 0.0332 0 8
-62.8385 -40.9994 -2.4953 0.0332 0 8
-62.1667 -42.0110 -2.4953 0.0332 0 8
-61.4786 -43.0117 -2.4953 0.0332 0 8
-60.7744 -44.0010 -2.4953 0.0332 0 8
-60.0542 -44.9789 -2.4953 0.0332 0 8
-59.3185 -45.9450 -2.4953 0.0332 0 8
-58.5671 -46.8990 -2.4953 0.0332 0 8
-57.8003 -47.8408 -2.4953 0.0332 0 8
-57.0184 -48.7700 -2.4953 0.0332 0 8
-59.5104 -52.5930 -2.6412 0.0319 0 8
-58.7943 -53.6797 -2.6477 0.0332 0 7
-57.9178 -54.6243 -2.6477 0.0332 0 7
-57.0262 -55.5545 -2.6477 0.0332 0 7
-56.1195 -56.4702 -2.6477 0.0332 0 7
-55.1982 -57.3711 -2.6477 0.0332 0 7
-54.2625 -58.2569 -2.6477 0.0332 0 7
-53.3125 -59.1275 -2.6477 0.0332 0 7
-52.3485 -59.9826 -2.6477 0.0332 0 7
-51.3708 -60.8221 -2.6477 0.0332 0 7
-50.3796 -61.6456 -2.6477 0.0332 0 7
-49.3753 -62.4529 -2.6477 0.0332 0 7
-48.3580 -63.2438 -2.6477 0.0332 0 7
-47.3281 -64.0182 -2.6477 0.0332 0 7
-46.2858 -64.7758 -2.6477 0.0332 0 7
-45.2313 -65.5165 -2.6477 0.0332 0 7
-44.1651 -66.2399 -2.6477 0.0332 0 7
-43.0872 -66.9461 -2.6477 0.0332 0 7
-41.9980 -67.6347 -2.6477 0.0332 0 7
-40.8979 -68.3056 -2.6477 0.0332 0 7
-39.7870 -68.9585 -2.6477 0.0332 0 7
-38.6657 -69.5935 -2.6477 0.0332 0 7
-37.5342 -70.2102 -2.6477 0.0332 0 7
-36.3929 -70.8084 -2.6477 0.0332 0 7
-35.2422 -71.3882 -2.6477 0.0332 0 7
-34.0821 -71.9492 -2.6477 0.0332 0 7
-32.8550 -72.3633 -2.6430 0.0486 0 8
-31.5227 -72.5249 -2.6299 0.9032 0 8
-30.1321 -72.5138 -2.6115 0.9096 0 8
-28.7605 -72.5028 -2.5940 0.9157 0 8
-27.4067 -72.4917 -2.5774 0.9216 0 8
-59.9993 1.2464 -2.4953 0.0415 0 8
-60.0116 0.2751 -2.4953 0.0415 0 8
-60.0082 -0.6962 -2.4953 0.0415 0 8
-59.9891 -1.6674 -2.4953 0.0415 0 8
-59.9542 -2.6381 -2.4953 0.0415 0 8
-59.9037 -3.6081 -2.4953 0.0415 0 8
-59.8375 -4.5771 -2.4953 0.0415 0 8
-59.7555 -5.5450 -2.4953 0.0415 0 8
-59.6580 -6.5114 -2.4953 0.0415 0 8
-59.5448 -7.4761 -2.4953 0.0415 0 8
-59.4160 -8.4388 -2.4953 0.0415 0 8
-59.2716 -9.3995 -2.4953 0.0415 0 8
-59.1117 -10.3575 -2.4953 0.0415 0 8
-58.9363 -11.3129 -2.4953 0.0415 0 8
-58.7455 -12.2653 -2.4953 0.0415 0 8
-58.5393 -13.2145 -2.4953 0.0415 0 8
-58.3178 -14.1602 -2.4953 0.0415 0 8
-58.0809 -15.1022 -2.4953 0.0415 0 8
-57.8289 -16.0403 -2.4953 0.0415 0 8
-57.5617 -16.9741 -2.4953 0.0415 0 8
-57.2794 -17.9035 -2.4953 0.0415 0 8
-56.9822 -18.8282 -2.4953 0.0415 0 8
-56.6700 -19.7480 -2.4953 0.0415 0 8
-56.5384 -20.7343 -2.5039 0.9325 0 8
-56.5278 -21.7747 -2.5187 0.9270 0 8
-56.5170 -22.8277 -2.5344 0.9212 0 8
-56.5058 -23.8941 -2.5509 0.9153 0 8
-56.4945 -24.9747 -2.5683 0.9091 0 8
-56.4828 -26.0704 -2.5866 0.9026 0 8
-56.4709 -27.1820 -2.6059 0.8960 0 8
-56.4586 -28.3106 -2.6261 0.8891 0 8
-56.3320 -29.3976 -2.6420 0.0566 0 8
-55.9685 -30.3704 -2.6477 0.0415 0 7
-55.4696 -31.2723 -2.6477 0.0415 0 7
-54.9562 -32.1660 -2.6477 0.0415 0 7
-54.4283 -33.0513 -2.6477 0.0415 0 7
-53.8863 -33.9278 -2.6477 0.0415 0 7
-53.3301 -34.7956 -2.6477 0.0415 0 7
-52.7600 -35.6541 -2.6477 0.0415 0 7
-52.1760 -36.5034 -2.6477 0.0415 0 7
-51.5784 -37.3431 -2.6477 0.0415 0 7
-50.9672 -38.1729 -2.6477 0.0415 0 7
-50.3427 -38.9928 -2.6477 0.0415 0 7
-49.7050 -39.8025 -2.6477 0.0415 0 7
-49.0543 -40.6018 -2.6477 0.0415 0 7
-48.3908 -41.3904 -2.6477 0.0415 0 7
-47.7145 -42.1682 -2.6477 0.0415 0 7
-47.0258 -42.9349 -2.6477 0.0415 0 6
-46.3247 -43.6904 -2.6477 0.0415 0 7
-45.6115 -44.4344 -2.6477 0.0415 0 7
-44.8863 -45.1668 -2.6477 0.0415 0 7
-44.1495 -45.8874 -2.6477 0.0415 0 7
-43.4010 -46.5959 -2.6477 0.0415 0 7
-42.6412 -47.2923 -2.6477 0.0415 0 6
-41.8702 -47.9762 -2.6477 0.0415 0 6
-41.0882 -48.6477 -2.6477 0.0415 0 7
-40.2954 -49.3063 -2.6477 0.0415 0 7
-39.4921 -49.9520 -2.6477 0.0415 0 7
-36.4521 -47.6730 -2.4953 0.0415 0 8
-35.6757 -48.2567 -2.4953 0.0415 0 8
-34.8901 -48.8278 -2.4953 0.0415 0 8
-34.0953 -49.3861 -2.4953 0.0415 0 8
-33.2915 -49.9314 -2.4953 0.0415 0 8
-32.4790 -50.4638 -2.4953 0.0415 0 8
-31.6580 -50.9828 -2.4953 0.0415 0 8
-30.8287 -51.4885 -2.4953 0.0415 0 8
-29.9913 -51.9807 -2.4953 0.0415 0 8
-29.1460 -52.4593 -2.4953 0.0415 0 8
-28.2932 -52.9242 -2.4953 0.0415 0 8
-27.4329 -53.3752 -2.4953 0.0415 0 8
-28.1879 -57.0988 -2.6477 0.0415 0 7
-27.2601 -57.5475 -2.6477 0.0415 0 7
-26.3251 -57.9812 -2.6477 0.0415 0 7
-25.3833 -58.3997 -2.6477 0.0415 0 7
-24.4347 -58.8028 -2.6477 0.0415 0 7
-23.4798 -59.1906 -2.6477 0.0415 0 7
-22.5188 -59.5629 -2.6477 0.0415 0 7
-53.0397 1.1018 -2.6477 0.0498 0 7
-53.0505 0.2432 -2.6477 0.0498 0 7
-53.0475 -0.6155 -2.6477 0.0498 0 7
-53.0307 -1.4740 -2.6477 0.0498 0 7
-52.9998 -2.3320 -2.6477 0.0498 0 7
-52.9551 -3.1895 -2.6477 0.0498 0 7
-52.8966 -4.0462 -2.6477 0.0498 0 7
-52.8242 -4.9018 -2.6477 0.0498 0 7
-52.7379 -5.7561 -2.6477 0.0498 0 7
-52.6378 -6.6089 -2.6477 0.0498 0 7
-52.5240 -7.4600 -2.6477 0.0498 0 7
-52.3964 -8.3092 -2.6477 0.0498 0 7
-52.2550 -9.1561 -2.6477 0.0498 0 7
-52.1000 -10.0006 -2.6477 0.0498 0 7
-51.9313 -10.8425 -2.6477 0.0498 0 7
-51.7490 -11.6817 -2.6477 0.0498 0 7
-51.5531 -12.5177 -2.6477 0.0498 0 7
-51.3438 -13.3504 -2.6477 0.0498 0 7
-51.1210 -14.1797 -2.6477 0.0498 0 7
-50.8848 -15.0052 -2.6477 0.0498 0 7
-50.6353 -15.8268 -2.6477 0.0498 0 7
-50.3725 -16.6442 -2.6477 0.0498 0 7
-50.0965 -17.4573 -2.6477 0.0498 0 7
-49.8074 -18.2658 -2.6477 0.0498 0 7
-49.5053 -19.0696 -2.6477 0.0498 0 7
-49.1901 -19.8683 -2.6477 0.0498 0 7
-48.8621 -20.6618 -2.6477 0.0498 0 7
-48.5213 -21.4500 -2.6477 0.0498 0 7
-48.1678 -22.2325 -2.6477 0.0498 0 7
-47.8017 -23.0092 -2.6477 0.0498 0 7
-47.4230 -23.7798 -2.6477 0.0498 0 7
-47.0319 -24.5442 -2.6477 0.0498 0 7
-46.6285 -25.3022 -2.6477 0.0498 0 7
-46.2129 -26.0536 -2.6477 0.0498 0 7
-45.7851 -26.7981 -2.6477 0.0498 0 7
-45.3454 -27.5357 -2.6477 0.0498 0 7
-44.8938 -28.2660 -2.6477 0.0498 0 7
-44.4304 -28.9889 -2.6477 0.0498 0 7
-43.9554 -29.7042 -2.6477 0.0498 0 7
-43.4689 -30.4117 -2.6477 0.0498 0 6
-42.9710 -31.1113 -2.6477 0.0498 0 7
-42.4619 -31.8027 -2.6477 0.0498 0 7
-41.9416 -32.4857 -2.6477 0.0498 0 7
-41.4103 -33.1603 -2.6477 0.0498 0 7
-40.8682 -33.8262 -2.6477 0.0498 0 7
-40.3154 -34.4832 -2.6477 0.0498 0 7
-37.4638 -33.1092 -2.4953 0.0498 0 8
-36.9231 -33.7111 -2.4953 0.0498 0 8
-36.3726 -34.3043 -2.4953 0.0498 0 8
-35.8126 -34.8884 -2.4953 0.0498 0 8
-35.2433 -35.4635 -2.4953 0.0498 0 8
-34.6647 -36.0293 -2.4953 0.0498 0 8
-34.0770 -36.5856 -2.4953 0.0498 0 8
-33.4804 -37.1323 -2.4953 0.0498 0 8
-32.8751 -37.6693 -2.4953 0.0498 0 8
-32.2610 -38.1965 -2.4953 0.0498 0 8
-31.6386 -38.7137 -2.4953 0.0498 0 8
-31.0079 -39.2206 -2.4953 0.0498 0 8
-30.3690 -39.7174 -2.4953 0.0498 0 8
-29.7222 -40.2037 -2.4953 0.0498 0 8
-29.0677 -40.6795 -2.4953 0.0498 0 8
-28.4055 -41.1446 -2.4953 0.0498 0 8
-27.7358 -41.5989 -2.4953 0.0498 0 8
-27.0589 -42.0424 -2.4953 0.0498 0 8
-26.3749 -42.4748 -2.4953 0.0498 0 8
-25.6840 -42.8961 -2.4953 0.0498 0 8
-24.9864 -43.3062 -2.4953 0.0498 0 8
-24.2822 -43.7050 -2.4953 0.0498 0 8
-23.5716 -44.0922 -2.4953 0.0498 0 8
-22.8549 -44.4680 -2.4953 0.0498 0 8
-22.1322 -44.8321 -2.4953 0.0498 0 8
-21.4037 -45.1844 -2.4953 0.0498 0 22
-20.6696 -45.5249 -2.4953 0.0498 0 22
-19.9301 -45.8535 -2.4953 0.0498 0 22
-19.1853 -46.1700 -2.4953 0.0498 0 22
-18.4356 -46.4745 -2.4953 0.0498 0 22
-17.6810 -46.7668 -2.4953 0.0498 0 22
-45.4490 0.9441 -2.6477 0.0581 0 7
-45.4583 0.2084 -2.6477 0.0581 0 7
-45.4557 -0.5274 -2.6477 0.0581 0 7
-45.4412 -1.2630 -2.6477 0.0581 0 7
-45.4148 -1.9983 -2.6477 0.0581 0 7
-45.3766 -2.7331 -2.6477 0.0581 0 7
-45.3264 -3.4671 -2.6477 0.0581 0 7
-45.2643 -4.2003 -2.6477 0.0581 0 7
-45.1904 -4.9323 -2.6477 0.0581 0 7
-45.1047 -5.6631 -2.6477 0.0581 0 7
-45.0071 -6.3924 -2.6477 0.0581 0 7
-44.8977 -7.1200 -2.6477 0.0581 0 7
-44.7766 -7.8457 -2.6477 0.0581 0 7
-44.6438 -8.5694 -2.6477 0.0581 0 7
-44.4992 -9.2908 -2.6477 0.0581 0 7
-44.3430 -10.0099 -2.6477 0.0581 0 7
-44.1752 -10.7262 -2.6477 0.0581 0 7
-43.9958 -11.4398 -2.6477 0.0581 0 7
-43.8049 -12.1504 -2.6477 0.0581 0 7
-43.6025 -12.8577 -2.6477 0.0581 0 6
-43.3887 -13.5618 -2.6477 0.0581 0 7
-43.1635 -14.2622 -2.6477 0.0581 0 7
-42.9271 -14.9590 -2.6477 0.0581 0 7
-42.6793 -15.6518 -2.6477 0.0581 0 7
-42.4204 -16.3405 -2.6477 0.0581 0 7
-42.1504 -17.0249 -2.6477 0.0581 0 7
-41.8693 -17.7049 -2.6477 0.0581 0 7
-41.5773 -18.3802 -2.6477 0.0581 0 7
-41.2744 -19.0507 -2.6477 0.0581 0 7
-40.9606 -19.7162 -2.6477 0.0581 0 7
-40.6362 -20.3766 -2.6477 0.0581 0 7
-40.3010 -21.0316 -2.6477 0.0581 0 7
-39.9553 -21.6811 -2.6477 0.0581 0 7
-37.3199 -21.0400 -2.4953 0.0581 0 8
-36.9745 -21.6412 -2.4953 0.0581 0 8
-36.6193 -22.2369 -2.4953 0.0581 0 8
-36.2546 -22.8266 -2.4953 0.0581 0 8
-35.8804 -23.4104 -2.4953 0.0581 0 8
-35.4968 -23.9880 -2.4953 0.0581 0 8
-35.1039 -24.5594 -2.4953 0.0581 0 8
-34.7019 -25.1244 -2.4953 0.0581 0 8
-34.2907 -25.6827 -2.4953 0.0581 0 8
-33.8705 -26.2343 -2.4953 0.0581 0 8
-33.4415 -26.7791 -2.4953 0.0581 0 8
-33.0037 -27.3168 -2.4953 0.0581 0 8
-32.5573 -27.8474 -2.4953 0.0581 0 8
-32.1022 -28.3707 -2.4953 0.0581 0 8
-31.6389 -28.8866 -2.4953 0.0581 0 8
-31.1672 -29.3948 -2.4953 0.0581 0 8
-30.6874 -29.8954 -2.4953 0.0581 0 8
-30.1995 -30.3882 -2.4953 0.0581 0 8
-29.7037 -30.8730 -2.4953 0.0581 0 8
-29.2002 -31.3497 -2.4953 0.0581 0 8
-28.6889 -31.8182 -2.4953 0.0581 0 8
-28.1702 -32.2784 -2.4953 0.0581 0 8
-27.6441 -32.7301 -2.4953 0.0581 0 8
-27.1107 -33.1732 -2.4953 0.0581 0 8
-26.5702 -33.6077 -2.4953 0.0581 0 8
-26.0228 -34.0333 -2.4953 0.0581 0 8
-25.4686 -34.4500 -2.4953 0.0581 0 8
-24.9077 -34.8577 -2.4953 0.0581 0 8
-24.3403 -35.2563 -2.4953 0.0581 0 8
-23.7665 -35.6456 -2.4953 0.0581 0 8
-23.1864 -36.0256 -2.4953 0.0581 0 8
-22.6003 -36.3961 -2.4953 0.0581 0 8
-22.0083 -36.7571 -2.4953 0.0581 0 8
-21.4105 -37.1085 -2.4953 0.0581 0 8
-20.8071 -37.4502 -2.4953 0.0581 0 8
-20.1982 -37.7821 -2.4953 0.0581 0 8
-19.5841 -38.1040 -2.4953 0.0581 0 8
-18.9648 -38.4160 -2.4953 0.0581 0 8
-18.3405 -38.7179 -2.4953 0.0581 0 8
-17.7115 -39.0097 -2.4953 0.0581 0 8
-17.0778 -39.2912 -2.4953 0.0581 0 8
-16.4397 -39.5625 -2.4953 0.0581 0 8
-15.7972 -39.8234 -2.4953 0.0581 0 8
-15.1506 -40.0738 -2.4953 0.0581 0 8
-37.4658 0.7783 -2.4953 0.0664 0 8
-37.4735 0.1718 -2.4953 0.0664 0 8
-37.4714 -0.4347 -2.4953 0.0664 0 8
-37.4594 -1.0412 -2.4953 0.0664 0 8
-37.4411 -1.6474 -2.4955 0.7517 0 8
-37.4061 -2.2530 -2.4953 0.0664 0 8
-37.3648 -2.8581 -2.4953 0.0664 0 8
-37.3136 -3.4625 -2.4953 0.0664 0 8
-37.2527 -4.0660 -2.4953 0.0664 0 8
-37.1820 -4.6684 -2.4953 0.0664 0 8
-37.1016 -5.2695 -2.4953 0.0664 0 8
-37.0114 -5.8694 -2.4953 0.0664 0 8
-36.9116 -6.4676 -2.4953 0.0664 0 8
-36.8020 -7.0642 -2.4953 0.0664 0 8
-36.6829 -7.6589 -2.4953 0.0664 0 8
-36.5541 -8.2516 -2.4953 0.0664 0 8
-36.4158 -8.8421 -2.4953 0.0664 0 8
-36.2679 -9.4304 -2.4953 0.0664 0 8
-36.1105 -10.0161 -2.4953 0.0664 0 8
-35.9437 -10.5993 -2.4953 0.0664 0 8
-35.7674 -11.1796 -2.4953 0.0664 0 8
-35.5818 -11.7570 -2.4953 0.0664 0 8
-35.3869 -12.3314 -2.4953 0.0664 0 8
-35.1826 -12.9025 -2.4953 0.0664 0 8
-34.9692 -13.4703 -2.4953 0.0664 0 8
-34.7466 -14.0345 -2.4953 0.0664 0 8
-34.5149 -14.5950 -2.4953 0.0664 0 8
-34.2742 -15.1517 -2.4953 0.0664 0 8
-34.0245 -15.7044 -2.4953 0.0664 0 8
-33.7658 -16.2531 -2.4953 0.0664 0 8
-33.4984 -16.7974 -2.4953 0.0664 0 8
-33.2221 -17.3374 -2.4953 0.0664 0 8
-32.9371 -17.8728 -2.4953 0.0664 0 8
-32.6436 -18.4036 -2.4953 0.0664 0 8
-32.3414 -18.9295 -2.4953 0.0664 0 8
-32.0308 -19.4505 -2.4953 0.0664 0 8
-31.7118 -19.9664 -2.4953 0.0664 0 8
-31.3845 -20.4772 -2.4953 0.0664 0 8
-31.0490 -20.9822 -2.4953 0.0664 0 8
-30.7053 -21.4820 -2.4953 0.0664 0 8
-30.3536 -21.9762 -2.4953 0.0664 0 8
-29.9939 -22.4646 -2.4953 0.0664 0 8
-29.6264 -22.9471 -2.4953 0.0664 0 8
-29.2512 -23.4236 -2.4953 0.0664 0 8
-28.8682 -23.8939 -2.4953 0.0664 0 8
-28.4777 -24.3580 -2.4953 0.0664 0 8
-28.0797 -24.8158 -2.4953 0.0664 0 8
-27.6744 -25.2670 -2.4953 0.0664 0 8
-27.2618 -25.7116 -2.4953 0.0664 0 8
-26.8421 -26.1494 -2.4953 0.0664 0 8
-26.4154 -26.5805 -2.4953 0.0664 0 8
-25.9817 -27.0045 -2.4953 0.0664 0 8
-25.5413 -27.4215 -2.4953 0.0664 0 8
-25.0941 -27.8313 -2.4953 0.0664 0 8
-24.6404 -28.2338 -2.4953 0.0664 0 8
-24.1802 -28.6289 -2.4953 0.0664 0 8
-23.7136 -29.0165 -2.4953 0.0664 0 8
-23.2409 -29.3965 -2.4953 0.0664 0 8
-22.7621 -29.7688 -2.4953 0.0664 0 8
-22.2773 -30.1333 -2.4953 0.0664 0 8
-21.7867 -30.4899 -2.4953 0.0664 0 8
-21.2903 -30.8385 -2.4953 0.0664 0 8
-20.7884 -31.1791 -2.4953 0.0664 0 8
-20.2811 -31.5114 -2.4953 0.0664 0 8
-19.7684 -31.8356 -2.4953 0.0664 0 8
-19.2506 -32.1513 -2.4953 0.0664 0 8
-18.7277 -32.4587 -2.4953 0.0664 0 8
-18.1999 -32.7576 -2.4953 0.0664 0 8
-17.6673 -33.0478 -2.4953 0.0664 0 8
-17.1301 -33.3294 -2.4953 0.0664 0 8
-16.5884 -33.6023 -2.4953 0.0664 0 8
-16.0424 -33.8664 -2.4953 0.0664 0 8
-15.4922 -34.1216 -2.4953 0.0664 0 8
-14.9379 -34.3679 -2.4953 0.0664 0 8
-14.3797 -34.6052 -2.4953 0.0664 0 8
-13.8178 -34.8334 -2.4953 0.0664 0 8
-13.2518 -35.0534 -2.4953 0.0664 0 8
-33.2899 0.6915 -2.4953 0.0747 0 8
-33.2967 0.1527 -2.4953 0.0747 0 8
-33.2949 -0.3863 -2.4953 0.0747 0 8
-33.2842 -0.9251 -2.4953 0.0747 0 8
-33.2649 -1.4637 -2.4953 0.0747 0 8
-33.2369 -2.0019 -2.4953 0.0747 0 8
-33.2001 -2.5395 -2.4953 0.0747 0 8
-33.1547 -3.0766 -2.4953 0.0747 0 8
-33.1005 -3.6128 -2.4953 0.0747 0 8
-33.0377 -4.1480 -2.4953 0.0747 0 8
-32.9663 -4.6822 -2.4953 0.0747 0 8
-32.8861 -5.2152 -2.4953 0.0747 0 8
-32.7974 -5.7467 -2.4953 0.0747 0 8
-32.7001 -6.2768 -2.4953 0.0747 0 8
-32.5943 -6.8052 -2.4953 0.0747 0 8
-32.4798 -7.3319 -2.4953 0.0747 0 8
-32.3569 -7.8566 -2.4953 0.0747 0 8
-32.2255 -8.3793 -2.4953 0.0747 0 8
-32.0857 -8.8997 -2.4953 0.0747 0 8
-31.9375 -9.4179 -2.4953 0.0747 0 8
-31.7808 -9.9336 -2.4953 0.0747 0 8
-31.6159 -10.4466 -2.4953 0.0747 0 8
-31.4427 -10.9574 -2.4953 0.0747 0 8
-31.2612 -11.4637 -2.4953 0.0747 0 8
-31.0716 -11.9697 -2.4953 0.0747 0 8
-30.8738 -12.4702 -2.4953 0.0747 0 8
-30.6679 -12.9682 -2.4953 0.0747 0 8
-30.4541 -13.4629 -2.4953 0.0747 0 8
-30.2322 -13.9521 -2.4953 0.0747 0 8
-30.0023 -14.4415 -2.4953 0.0747 0 8
-29.7647 -14.9252 -2.4953 0.0747 0 8
-29.5192 -15.4050 -2.4953 0.0747 0 8
-29.2660 -15.8807 -2.4953 0.0747 0 8
-29.0051 -16.3523 -2.4953 0.0747 0 8
-28.7367 -16.8196 -2.4953 0.0747 0 8
-28.4607 -17.2826 -2.4953 0.0747 0 8
-28.1772 -17.7409 -2.4953 0.0747 0 8
-27.8864 -18.1947 -2.4953 0.0747 0 8
-27.5883 -18.6436 -2.4953 0.0747 0 8
-27.2829 -19.0877 -2.4953 0.0747 0 8
-26.9704 -19.5267 -2.4953 0.0747 0 8
-26.6508 -19.9607 -2.4953 0.0747 0 8
-26.3243 -20.3894 -2.4953 0.0747 0 8
-25.9908 -20.8128 -2.4953 0.0747 0 8
-25.6506 -21.2307 -2.4953 0.0747 0 8
-25.3036 -21.6431 -2.4953 0.0747 0 8
-24.9500 -22.0498 -2.4953 0.0747 0 8
-24.5898 -22.4507 -2.4953 0.0747 0 8
-24.2233 -22.8458 -2.4953 0.0747 0 8
-23.8503 -23.2348 -2.4953 0.0747 0 8
-23.4712 -23.6178 -2.4953 0.0747 0 8
-23.0858 -23.9946 -2.4953 0.0747 0 8
-22.6945 -24.3651 -2.4953 0.0747 0 8
-22.2971 -24.7292 -2.4953 0.0747 0 8
-21.8940 -25.0869 -2.4953 0.0747 0 8
-21.4851 -25.4379 -2.4953 0.0747 0 8
-21.0705 -25.7823 -2.4953 0.0747 0 8
-20.6505 -26.1200 -2.4953 0.0747 0 8
-20.2250 -26.4508 -2.4953 0.0747 0 8
-19.7943 -26.7747 -2.4953 0.0747 0 8
-19.3584 -27.0915 -2.4953 0.0747 0 8
-18.9173 -27.4013 -2.4953 0.0747 0 8
-18.4714 -27.7039 -2.4953 0.0747 0 8
-18.0206 -27.9992 -2.4953 0.0747 0 8
-17.5651 -28.2872 -2.4953 0.0747 0 8
-17.1049 -28.5678 -2.4953 0.0747 0 8
-16.6403 -28.8409 -2.4953 0.0747 0 8
-16.1713 -29.1064 -2.4953 0.0747 0 8
-15.6981 -29.3643 -2.4953 0.0747 0 8
-15.2208 -29.6146 -2.4953 0.0747 0 8
-14.7395 -29.8571 -2.4953 0.0747 0 8
-14.2543 -30.0917 -2.4953 0.0747 0 8
-13.7655 -30.3185 -2.4953 0.0747 0 8
-13.2729 -30.5373 -2.4953 0.0747 0 8
-12.7770 -30.7481 -2.4953 0.0747 0 8
-12.2776 -30.9509 -2.4953 0.0747 0 8
-11.7751 -31.1455 -2.4953 0.0747 0 8
-29.9478 0.6221 -2.4953 0.0830 0 8
-29.9539 0.1373 -2.4953 0.0830 0 8
-29.9522 -0.3475 -2.4953 0.0830 0 8
-29.9427 -0.8322 -2.4953 0.0830 0 8
-29.9253 -1.3167 -2.4953 0.0830 0 8
-29.9000 -1.8009 -2.4953 0.0830 0 8
-29.8670 -2.2846 -2.4953 0.0830 0 8
-29.8261 -2.7677 -2.4953 0.0830 0 8
-29.7774 -3.2501 -2.4953 0.0830 0 8
-29.7209 -3.7316 -2.4953 0.0830 0 8
-29.6566 -4.2121 -2.4953 0.0830 0 8
-29.5845 -4.6916 -2.4953 0.0830 0 8
-29.5047 -5.1698 -2.4953 0.0830 0 8
-29.4172 -5.6467 -2.4953 0.0830 0 8
-29.3219 -6.1220 -2.4953 0.0830 0 8
-29.2190 -6.5958 -2.4953 0.0830 0 8
-29.1084 -7.0678 -2.4953 0.0830 0 8
-28.9902 -7.5380 -2.4953 0.0830 0 8
-28.8644 -8.0063 -2.4953 0.0830 0 8
-28.7311 -8.4724 -2.4953 0.0830 0 8
-28.5902 -8.9363 -2.4953 0.0830 0 8
-28.4418 -9.3978 -2.4953 0.0830 0 8
-28.2860 -9.8569 -2.4953 0.0830 0 8
-28.1227 -10.3134 -2.4953 0.0830 0 8
-27.9521 -10.7672 -2.4953 0.0830 0 8
-27.7742 -11.2182 -2.4953 0.0830 0 8
-27.5890 -11.6663 -2.4953 0.0830 0 8
-27.3966 -12.1113 -2.4953 0.0830 0 8
-27.1970 -12.5531 -2.4953 0.0830 0 8
-26.9902 -12.9916 -2.4953 0.0830 0 8
-26.7764 -13.4268 -2.4953 0.0830 0 8
-26.5556 -13.8584 -2.4953 0.0830 0 8
-26.3278 -14.2864 -2.4953 0.0830 0 8
-26.0932 -14.7106 -2.4953 0.0830 0 8
-25.8516 -15.1310 -2.4953 0.0830 0 8
-25.6033 -15.5475 -2.4953 0.0830 0 8
-25.3484 -15.9598 -2.4953 0.0830 0 8
-25.0867 -16.3680 -2.4953 0.0830 0 8
-24.8185 -16.7719 -2.4953 0.0830 0 8
-24.5438 -17.1714 -2.4953 0.0830 0 8
-24.2627 -17.5663 -2.4953 0.0830 0 8
-23.9752 -17.9567 -2.4953 0.0830 0 8
-23.6814 -18.3424 -2.4953 0.0830 0 8
-23.3815 -18.7233 -2.4953 0.0830 0 8
-23.0754 -19.0993 -2.4953 0.0830 0 8
-22.7632 -19.4702 -2.4953 0.0830 0 8
-22.4451 -19.8361 -2.4953 0.0830 0 8
-22.1211 -20.1968 -2.4953 0.0830 0 8
-21.7914 -20.5522 -2.4953 0.0830 0 8
-21.4559 -20.9022 -2.4953 0.0830 0 8
-21.1147 -21.2467 -2.4953 0.0830 0 8
-20.7681 -21.5857 -2.4953 0.0830 0 8
-20.4160 -21.9189 -2.4953 0.0830 0 8
-20.0586 -22.2465 -2.4953 0.0830 0 8
-19.6959 -22.5682 -2.4953 0.0830 0 8
-19.3281 -22.8841 -2.4953 0.0830 0 8
-18.9551 -23.1939 -2.4953 0.0830 0 8
-18.5773 -23.4977 -2.4953 0.0830 0 8
-18.1945 -23.7953 -2.4953 0.0830 0 8
-17.8068 -24.0871 -2.4953 0.0830 0 8
-17.4149 -24.3717 -2.4953 0.0830 0 8
-17.0181 -24.6503 -2.4953 0.0830 0 8
-16.6169 -24.9225 -2.4953 0.0830 0 8
-16.2114 -25.1882 -2.4953 0.0830 0 8
-15.8016 -25.4473 -2.4953 0.0830 0 8
-15.3877 -25.6997 -2.4953 0.0830 0 8
-14.9697 -25.9454 -2.4953 0.0830 0 8
-14.5478 -26.1843 -2.4953 0.0830 0 8
-14.1221 -26.4163 -2.4953 0.0830 0 8
-13.6927 -26.6414 -2.4953 0.0830 0 8
-13.2597 -26.8595 -2.4953 0.0830 0 8
-12.8233 -27.0706 -2.4953 0.0830 0 8
-12.3835 -27.2746 -2.4953 0.0830 0 8
-11.9404 -27.4715 -2.4953 0.0830 0 8
-11.4942 -27.6611 -2.4953 0.0830 0 8
-11.0450 -27.8435 -2.4953 0.0830 0 8
-10.5929 -28.0187 -2.4953 0.0830 0 8
-27.2120 0.5653 -2.4953 0.0913 0 8
-27.2176 0.1248 -2.4953 0.0913 0 8
-27.2161 -0.3158 -2.4953 0.0913 0 8
-27.2074 -0.7562 -2.4953 0.0913 0 8
-27.1916 -1.1965 -2.4953 0.0913 0 8
-27.1687 -1.6364 -2.4953 0.0913 0 8
-27.1386 -2.0759 -2.4953 0.0913 0 8
-27.1015 -2.5149 -2.4953 0.0913 0 8
-27.0572 -2.9532 -2.4953 0.0913 0 8
-27.0059 -3.3907 -2.4953 0.0913 0 8
-26.9475 -3.8273 -2.4953 0.0913 0 8
-26.8820 -4.2630 -2.4953 0.0913 0 8
-26.8095 -4.6975 -2.4953 0.0913 0 8
-26.7299 -5.1308 -2.4953 0.0913 0 8
-26.6434 -5.5628 -2.4953 0.0913 0 8
-26.5499 -5.9933 -2.4953 0.0913 0 8
-26.4494 -6.4222 -2.4953 0.0913 0 8
-26.3420 -6.8494 -2.4953 0.0913 0 8
-26.2277 -7.2749 -2.4953 0.0913 0 8
-26.1065 -7.6984 -2.4953 0.0913 0 8
-25.9785 -8.1199 -2.4953 0.0913 0 8
-25.8437 -8.5393 -2.4953 0.0913 0 8
-25.7021 -8.9565 -2.4953 0.0913 0 8
-25.5537 -9.3713 -2.4953 0.0913 0 8
-25.3987 -9.7837 -2.4953 0.0913 0 8
-25.2370 -10.1935 -2.4953 0.0913 0 8
-25.0688 -10.6006 -2.4953 0.0913 0 8
-24.8939 -11.0049 -2.4953 0.0913 0 8
-24.7125 -11.4064 -2.4953 0.0913 0 8
-24.5247 -11.8049 -2.4953 0.0913 0 8
-24.3304 -12.2002 -2.4953 0.0913 0 8
-24.1298 -12.5924 -2.4953 0.0913 0 8
-23.9228 -12.9813 -2.4953 0.0913 0 8
-23.7096 -13.3668 -2.4953 0.0913 0 8
-23.4901 -13.7488 -2.4953 0.0913 0 8
-23.2645 -14.1272 -2.4953 0.0913 0 8
-23.0328 -14.5019 -2.4953 0.0913 0 8
-22.7951 -14.8728 -2.4953 0.0913 0 8
-22.5514 -15.2398 -2.4953 0.0913 0 8
-22.3018 -15.6028 -2.4953 0.0913 0 8
-22.0463 -15.9617 -2.4953 0.0913 0 8
-21.7851 -16.3164 -2.4953 0.0913 0 8
-21.5182 -16.6668 -2.4953 0.0913 0 8
-21.2456 -17.0129 -2.4953 0.0913 0 8
-20.9675 -17.3546 -2.4953 0.0913 0 8
-20.6838 -17.6916 -2.4953 0.0913 0 8
-20.3948 -18.0241 -2.4953 0.0913 0 8
-20.1004 -18.3518 -2.4953 0.0913 0 8
-19.8007 -18.6747 -2.4953 0.0913 0 8
-19.4959 -18.9928 -2.4953 0.0913 0 8
-19.1859 -19.3058 -2.4953 0.0913 0 8
-18.8710 -19.6138 -2.4953 0.0913 0 8
-18.5510 -19.9167 -2.4953 0.0913 0 8
-18.2263 -20.2143 -2.4953 0.0913 0 8
-17.8967 -20.5066 -2.4953 0.0913 0 8
-17.5624 -20.7936 -2.4953 0.0913 0 8
-17.2237 -21.0749 -2.4953 0.0913 0 8
-16.8802 -21.3512 -2.4953 0.0913 0 8
-16.5325 -21.6216 -2.4953 0.0913 0 8
-16.1804 -21.8863 -2.4953 0.0913 0 8
-15.8240 -22.1453 -2.4953 0.0913 0 8
-15.4635 -22.3985 -2.4953 0.0913 0 8
-15.0990 -22.6459 -2.4953 0.0913 0 8
-14.7305 -22.8873 -2.4953 0.0913 0 8
-14.3581 -23.1227 -2.4953 0.0913 0 8
-13.9820 -23.3520 -2.4953 0.0913 0 8
-13.6022 -23.5753 -2.4953 0.0913 0 8
-13.2189 -23.7924 -2.4953 0.0913 0 8
-12.8321 -24.0032 -2.4953 0.0913 0 8
-12.4419 -24.2077 -2.4953 0.0913 0 8
-12.0485 -24.4059 -2.4953 0.0913 0 8
-11.6519 -24.5977 -2.4953 0.0913 0 8
-11.2523 -24.7824 -2.4953 0.0913 0 8
-10.8496 -24.9620 -2.4953 0.0913 0 8
-10.4442 -25.1343 -2.4953 0.0913 0 8
-10.0361 -25.3000 -2.4953 0.0913 0 8
-9.6253 -25.4588 -2.4953 0.0913 0 8
-24.9311 0.5179 -2.4953 0.0996 0 8
-24.9362 0.1143 -2.4953 0.0996 0 8
-24.9348 -0.2893 -2.4953 0.0996 0 8
-24.9269 -0.6928 -2.4953 0.0996 0 8
-24.9124 -1.0962 -2.4953 0.0996 0 8
-24.8914 -1.4992 -2.4953 0.0996 0 8
-24.8639 -1.9019 -2.4953 0.0996 0 8
-24.8298 -2.3041 -2.4953 0.0996 0 8
-24.7893 -2.7056 -2.4953 0.0996 0 8
-24.7422 -3.1065 -2.4953 0.0996 0 8
-24.6887 -3.5065 -2.4953 0.0996 0 8
-24.6287 -3.9057 -2.4953 0.0996 0 8
-24.5623 -4.3038 -2.4953 0.0996 0 8
-24.4894 -4.7008 -2.4953 0.0996 0 8
-24.4101 -5.0965 -2.4953 0.0996 0 8
-24.3244 -5.4909 -2.4953 0.0996 0 8
-24.2324 -5.8839 -2.4953 0.0996 0 8
-24.1340 -6.2753 -2.4953 0.0996 0 8
-24.0292 -6.6651 -2.4953 0.0996 0 8
-23.9182 -7.0531 -2.4953 0.0996 0 8
-23.8009 -7.4393 -2.4953 0.0996 0 8
-23.6774 -7.8236 -2.4953 0.0996 0 8
-23.5477 -8.2058 -2.4953 0.0996 0 8
-23.4118 -8.5858 -2.4953 0.0996 0 8
-23.2698 -8.9636 -2.4953 0.0996 0 8
-23.1217 -9.3390 -2.4953 0.0996 0 8
-22.9675 -9.7120 -2.4953 0.0996 0 8
-22.8073 -10.0825 -2.4953 0.0996 0 8
-22.6411 -10.4503 -2.4953 0.0996 0 8
-22.4690 -10.8154 -2.4953 0.0996 0 8
-22.2910 -11.1776 -2.4953 0.0996 0 8
-22.1072 -11.5369 -2.4953 0.0996 0 8
-21.9176 -11.8932 -2.4953 0.0996 0 8
-21.7222 -12.2464 -2.4953 0.0996 0 8
-21.5212 -12.5964 -2.4953 0.0996 0 8
-21.3144 -12.9431 -2.4953 0.0996 0 8
-21.1022 -13.2863 -2.4953 0.0996 0 8
-20.8844 -13.6261 -2.4953 0.0996 0 8
-20.6611 -13.9624 -2.4953 0.0996 0 8
-20.4324 -14.2949 -2.4953 0.0996 0 8
-20.1984 -14.6238 -2.4953 0.0996 0 8
-19.9591 -14.9487 -2.4953 0.0996 0 8
-19.7145 -15.2698 -2.4953 0.0996 0 8
-19.4648 -15.5869 -2.4953 0.0996 0 8
-19.2100 -15.8999 -2.4953 0.0996 0 8
-18.9501 -16.2087 -2.4953 0.0996 0 8
-18.6853 -16.5133 -2.4953 0.0996 0 8
-18.4156 -16.8136 -2.4953 0.0996 0 8
-18.1410 -17.1094 -2.4953 0.0996 0 8
-17.8617 -17.4008 -2.4953 0.0996 0 8
-17.5778 -17.6876 -2.4953 0.0996 0 8
-17.2892 -17.9698 -2.4953 0.0996 0 8
-16.9961 -18.2472 -2.4953 0.0996 0 8
-16.6985 -18.5199 -2.4953 0.0996 0 8
-16.3966 -18.7878 -2.4953 0.0996 0 8
-16.0904 -19.0507 -2.4953 0.0996 0 8
-15.7799 -19.3086 -2.4953 0.0996 0 8
-15.4653 -19.5615 -2.4953 0.0996 0 8
-15.1467 -19.8092 -2.4953 0.0996 0 8
-14.8241 -20.0518 -2.4953 0.0996 0 8
-14.4976 -20.2891 -2.4953 0.0996 0 8
-14.1674 -20.5211 -2.4953 0.0996 0 8
-13.8334 -20.7477 -2.4953 0.0996 0 8
-13.4958 -20.9689 -2.4953 0.0996 0 8
-13.1546 -21.1845 -2.4953 0.0996 0 8
-12.8100 -21.3947 -2.4953 0.0996 0 8
-12.4621 -21.5992 -2.4953 0.0996 0 8
-12.1109 -21.7981 -2.4953 0.0996 0 8
-11.7565 -21.9912 -2.4953 0.0996 0 8
-11.3990 -22.1786 -2.4953 0.0996 0 8
-11.0386 -22.3602 -2.4953 0.0996 0 8
-10.6752 -22.5359 -2.4953 0.0996 0 8
-10.3091 -22.7058 -2.4953 0.0996 0 8
-9.9402 -22.8697 -2.4953 0.0996 0 8
-9.5688 -23.0275 -2.4953 0.0996 0 8
-9.1948 -23.1794 -2.4953 0.0996 0 8
-8.8185 -23.3252 -2.4953 0.0996 0 8
-23.0000 0.4778 -2.4953 0.1078 0 8
-23.0047 0.1055 -2.4953 0.1078 0 8
-23.0034 -0.2669 -2.4953 0.1078 0 8
-22.9961 -0.6392 -2.4953 0.1078 0 8
-22.9827 -1.0113 -2.4953 0.1078 0 8
-22.9633 -1.3831 -2.4953 0.1078 0 8
-22.9379 -1.7546 -2.4953 0.1078 0 8
-22.9065 -2.1256 -2.4953 0.1078 0 8
-22.8691 -2.4961 -2.4953 0.1078 0 8
-22.8257 -2.8659 -2.4953 0.1078 0 8
-22.7764 -3.2349 -2.4953 0.1078 0 8
-22.7210 -3.6032 -2.4953 0.1078 0 8
-22.6597 -3.9704 -2.4953 0.1078 0 8
-22.5925 -4.3367 -2.4953 0.1078 0 8
-22.5194 -4.7017 -2.4953 0.1078 0 8
-22.4403 -5.0656 -2.4953 0.1078 0 8
-22.3554 -5.4281 -2.4953 0.1078 0 8
-22.2646 -5.7892 -2.4953 0.1078 0 8
-22.1680 -6.1488 -2.4953 0.1078 0 8
-22.0656 -6.5068 -2.4953 0.1078 0 8
-21.9574 -6.8631 -2.4953 0.1078 0 8
-21.8434 -7.2176 -2.4953 0.1078 0 8
-21.7237 -7.5702 -2.4953 0.1078 0 8
-21.5984 -7.9208 -2.4953 0.1078 0 8
-21.4673 -8.2693 -2.4953 0.1078 0 8
-21.3307 -8.6157 -2.4953 0.1078 0 8
-21.1885 -8.9598 -2.4953 0.1078 0 8
-21.0407 -9.3015 -2.4953 0.1078 0 8
-20.8874 -9.6408 -2.4953 0.1078 0 8
-20.7286 -9.9776 -2.4953 0.1078 0 8
-20.5644 -10.3118 -2.4953 0.1078 0 8
-20.3948 -10.6433 -2.4953 0.1078 0 8
-20.2199 -10.9720 -2.4953 0.1078 0 8
-20.0396 -11.2978 -2.4953 0.1078 0 8
-19.8542 -11.6207 -2.4953 0.1078 0 8
-19.6635 -11.9405 -2.4953 0.1078 0 8
-19.4676 -12.2572 -2.4953 0.1078 0 8
-19.2667 -12.5707 -2.4953 0.1078 0 8
-19.0607 -12.8809 -2.4953 0.1078 0 8
-18.8498 -13.1877 -2.4953 0.1078 0 8
-18.6338 -13.4910 -2.4953 0.1078 0 8
-18.4131 -13.7908 -2.4953 0.1078 0 8
-18.1874 -14.0870 -2.4953 0.1078 0 8
-17.9571 -14.3796 -2.4953 0.1078 0 8
-17.7220 -14.6683 -2.4953 0.1078 0 8
-17.4823 -14.9532 -2.4953 0.1078 0 8
-17.2379 -15.2342 -2.4953 0.1078 0 8
-16.9891 -15.5112 -2.4953 0.1078 0 8
-16.7358 -15.7842 -2.4953 0.1078 0 8
-16.4782 -16.0529 -2.4953 0.1078 0 8
-16.2162 -16.3175 -2.4953 0.1078 0 8
-15.9500 -16.5779 -2.4953 0.1078 0 8
-15.6796 -16.8338 -2.4953 0.1078 0 8
-15.4051 -17.0854 -2.4953 0.1078 0 8
-15.1265 -17.3325 -2.4953 0.1078 0 8
-14.8440 -17.5751 -2.4953 0.1078 0 8
-14.5576 -17.8130 -2.4953 0.1078 0 8
-14.2674 -18.0463 -2.4953 0.1078 0 8
-13.9735 -18.2748 -2.4953 0.1078 0 8
-13.6759 -18.4986 -2.4953 0.1078 0 8
-13.3747 -18.7175 -2.4953 0.1078 0 8
-13.0700 -18.9315 -2.4953 0.1078 0 8
-12.7619 -19.1406 -2.4953 0.1078 0 8
-12.4504 -19.3446 -2.4953 0.1078 0 8
-12.1357 -19.5436 -2.4953 0.1078 0 8
-11.8178 -19.7375 -2.4953 0.1078 0 8
-11.4968 -19.9262 -2.4953 0.1078 0 8
-11.1728 -20.1096 -2.4953 0.1078 0 8
-10.8458 -20.2878 -2.4953 0.1078 0 8
-10.5161 -20.4607 -2.4953 0.1078 0 8
-10.1835 -20.6282 -2.4953 0.1078 0 8
-9.8483 -20.7903 -2.4953 0.1078 0 8
-9.5105 -20.9470 -2.4953 0.1078 0 8
-9.1703 -21.0982 -2.4953 0.1078 0 8
-8.8276 -21.2439 -2.4953 0.1078 0 8
-8.4826 -21.3839 -2.4953 0.1078 0 8
-8.1354 -21.5184 -2.4953 0.1078 0 8
-21.3438 0.4434 -2.4953 0.1161 0 8
-21.3482 0.0979 -2.4953 0.1161 0 8
-21.3470 -0.2477 -2.4953 0.1161 0 8
-21.3402 -0.5931 -2.4953 0.1161 0 8
-21.3278 -0.9384 -2.4953 0.1161 0 8
-21.3098 -1.2835 -2.4953 0.1161 0 8
-21.2862 -1.6282 -2.4953 0.1161 0 8
-21.2571 -1.9725 -2.4953 0.1161 0 8
-21.2224 -2.3163 -2.4953 0.1161 0 8
-21.1821 -2.6595 -2.4953 0.1161 0 8
-21.1363 -3.0020 -2.4953 0.1161 0 8
-21.0849 -3.3437 -2.4953 0.1161 0 8
-21.0280 -3.6845 -2.4953 0.1161 0 8
-20.9657 -4.0244 -2.4953 0.1161 0 8
-20.8978 -4.3632 -2.4953 0.1161 0 8
-20.8244 -4.7008 -2.4953 0.1161 0 8
-20.7456 -5.0373 -2.4953 0.1161 0 8
-20.6614 -5.3724 -2.4953 0.1161 0 8
-20.5717 -5.7061 -2.4953 0.1161 0 8
-20.4767 -6.0383 -2.4953 0.1161 0 8
-20.3762 -6.3689 -2.4953 0.1161 0 8
-20.2705 -6.6978 -2.4953 0.1161 0 8
-20.1594 -7.0250 -2.4953 0.1161 0 8
-20.0431 -7.3504 -2.4953 0.1161 0 8
-19.9215 -7.6738 -2.4953 0.1161 0 8
-19.7947 -7.9953 -2.4953 0.1161 0 8
-19.6627 -8.3146 -2.4953 0.1161 0 8
-19.5256 -8.6317 -2.4953 0.1161 0 8
-19.3833 -8.9466 -2.4953 0.1161 0 8
-19.2360 -9.2592 -2.4953 0.1161 0 8
-19.0836 -9.5693 -2.4953 0.1161 0 8
-18.9262 -9.8769 -2.4953 0.1161 0 8
-18.7639 -10.1819 -2.4953 0.1161 0 8
-18.5966 -10.4843 -2.4953 0.1161 0 8
-18.4245 -10.7839 -2.4953 0.1161 0 8
-18.2475 -11.0807 -2.4953 0.1161 0 8
-18.0658 -11.3746 -2.4953 0.1161 0 8
-17.8793 -11.6655 -2.4953 0.1161 0 8
-17.6882 -11.9533 -2.4953 0.1161 0 8
-17.4924 -12.2380 -2.4953 0.1161 0 8
-17.2920 -12.5196 -2.4953 0.1161 0 8
-17.0872 -12.7978 -2.4953 0.1161 0 8
-16.8778 -13.0727 -2.4953 0.1161 0 8
-16.6640 -13.3441 -2.4953 0.1161 0 8
-16.4458 -13.6121 -2.4953 0.1161 0 8
-16.2234 -13.8765 -2.4953 0.1161 0 8
-15.9967 -14.1372 -2.4953 0.1161 0 8
-15.7658 -14.3943 -2.4953 0.1161 0 8
-15.5307 -14.6476 -2.4953 0.1161 0 8
-15.2916 -14.8970 -2.4953 0.1161 0 8
-15.0485 -15.1425 -2.4953 0.1161 0 8
-14.8015 -15.3841 -2.4953 0.1161 0 8
-14.5505 -15.6217 -2.4953 0.1161 0 8
-14.2958 -15.8551 -2.4953 0.1161 0 8
-14.0373 -16.0844 -2.4953 0.1161 0 8
-13.7751 -16.3095 -2.4953 0.1161 0 8
-13.5094 -16.5303 -2.4953 0.1161 0 8
-13.2400 -16.7468 -2.4953 0.1161 0 8
-12.9673 -16.9589 -2.4953 0.1161 0 8
-12.6911 -17.1666 -2.4953 0.1161 0 8
-12.4116 -17.3697 -2.4953 0.1161 0 8
-12.1288 -17.5683 -2.4953 0.1161 0 8
-11.8429 -17.7623 -2.4953 0.1161 0 8
-11.5539 -17.9517 -2.4953 0.1161 0 8
-11.2618 -18.1363 -2.4953 0.1161 0 8
-10.9668 -18.3162 -2.4953 0.1161 0 8
-10.6689 -18.4913 -2.4953 0.1161 0 8
-10.3682 -18.6616 -2.4953 0.1161 0 8
-10.0648 -18.8275 -2.4953 0.1161 0 8
-9.7588 -18.9874 -2.4953 0.1161 0 8
-9.4502 -19.1428 -2.4953 0.1161 0 8
-9.1392 -19.2933 -2.4953 0.1161 0 8
-8.8257 -19.4387 -2.4953 0.1161 0 8
-8.5099 -19.5790 -2.4953 0.1161 0 8
-8.1919 -19.7141 -2.4953 0.1161 0 8
-7.8718 -19.8441 -2.4953 0.1161 0 8
-7.5496 -19.9689 -2.4953 0.1161 0 8
-19.9075 0.4135 -2.4953 0.1243 0 8
-19.9116 0.0913 -2.4953 0.1243 0 8
-19.9105 -0.2310 -2.4953 0.1243 0 8
-19.9041 -0.5532 -2.4953 0.1243 0 8
-19.8925 -0.8753 -2.4953 0.1243 0 8
-19.8758 -1.1971 -2.4953 0.1243 0 8
-19.8538 -1.5187 -2.4953 0.1243 0 8
-19.8266 -1.8398 -2.4953 0.1243 0 8
-19.7942 -2.1604 -2.4953 0.1243 0 8
-19.7567 -2.4805 -2.4953 0.1243 0 8
-19.7139 -2.8000 -2.4953 0.1243 0 8
-19.6660 -3.1187 -2.4953 0.1243 0 8
-19.6130 -3.4366 -2.4953 0.1243 0 8
-19.5548 -3.7536 -2.4953 0.1243 0 8
-19.4915 -4.0696 -2.4953 0.1243 0 8
-19.4231 -4.3845 -2.4953 0.1243 0 8
-19.3496 -4.6983 -2.4953 0.1243 0 8
-19.2710 -5.0108 -2.4953 0.1243 0 8
-19.1874 -5.3221 -2.4953 0.1243 0 8
-19.0987 -5.6319 -2.4953 0.1243 0 8
-19.0051 -5.9403 -2.4953 0.1243 0 8
-18.9064 -6.2471 -2.4953 0.1243 0 8
-18.8028 -6.5523 -2.4953 0.1243 0 8
-18.6943 -6.8558 -2.4953 0.1243 0 8
-18.5809 -7.1574 -2.4953 0.1243 0 8
-18.4626 -7.4572 -2.4953 0.1243 0 8
-18.3395 -7.7551 -2.4953 0.1243 0 8
-18.2116 -8.0509 -2.4953 0.1243 0 8
-18.0789 -8.3446 -2.4953 0.1243 0 8
-17.9415 -8.6361 -2.4953 0.1243 0 8
-17.7994 -8.9253 -2.4953 0.1243 0 8
-17.6526 -9.2122 -2.4953 0.1243 0 8
-17.5012 -9.4967 -2.4953 0.1243 0 8
-17.3452 -9.7788 -2.4953 0.1243 0 8
-17.1846 -10.0582 -2.4953 0.1243 0 8
-17.0196 -10.3350 -2.4953 0.1243 0 8
-16.8501 -10.6091 -2.4953 0.1243 0 8
-16.6762 -10.8805 -2.4953 0.1243 0 8
-16.4979 -11.1489 -2.4953 0.1243 0 8
-16.3153 -11.4145 -2.4953 0.1243 0 8
-16.1284 -11.6771 -2.4953 0.1243 0 8
-15.9373 -11.9366 -2.4953 0.1243 0 8
-15.7420 -12.1930 -2.4953 0.1243 0 8
-15.5426 -12.4461 -2.4953 0.1243 0 8
-15.3392 -12.6961 -2.4953 0.1243 0 8
-15.1317 -12.9427 -2.4953 0.1243 0 8
-14.9202 -13.1859 -2.4953 0.1243 0 8
-14.7048 -13.4256 -2.4953 0.1243 0 8
-14.4856 -13.6619 -2.4953 0.1243 0 8
-14.2626 -13.8945 -2.4953 0.1243 0 8
-14.0358 -14.1236 -2.4953 0.1243 0 8
-13.8054 -14.3489 -2.4953 0.1243 0 8
-13.5714 -14.5704 -2.4953 0.1243 0 8
-13.3338 -14.7882 -2.4953 0.1243 0 8
-13.0927 -15.0020 -2.4953 0.1243 0 8
-12.8482 -15.2120 -2.4953 0.1243 0 8
-12.6003 -15.4179 -2.4953 0.1243 0 8
-12.3491 -15.6199 -2.4953 0.1243 0 8
-12.0947 -15.8177 -2.4953 0.1243 0 8
-11.8371 -16.0114 -2.4953 0.1243 0 8
-11.5764 -16.2008 -2.4953 0.1243 0 8
-11.3126 -16.3861 -2.4953 0.1243 0 8
-11.0460 -16.5670 -2.4953 0.1243 0 8
-10.7764 -16.7436 -2.4953 0.1243 0 8
-10.5040 -16.9159 -2.4953 0.1243 0 8
-10.2288 -17.0836 -2.4953 0.1243 0 8
-9.9510 -17.2470 -2.4953 0.1243 0 8
-9.6705 -17.4058 -2.4953 0.1243 0 8
-9.3875 -17.5600 -2.4953 0.1243 0 8
-9.1021 -17.7096 -2.4953 0.1243 0 8
-8.8143 -17.8546 -2.4953 0.1243 0 8
-8.5242 -17.9950 -2.4953 0.1243 0 8
-8.2318 -18.1306 -2.4953 0.1243 0 8
-7.9373 -18.2614 -2.4953 0.1243 0 8
-7.6407 -18.3875 -2.4953 0.1243 0 8
-7.3421 -18.5087 -2.4953 0.1243 0 8
-7.0416 -18.6251 -2.4953 0.1243 0 8
-18.6499 0.3874 -2.4953 0.1326 0 8
-18.6537 0.0855 -2.4953 0.1326 0 8
-18.6526 -0.2164 -2.4953 0.1326 0 8
-18.6467 -0.5183 -2.4953 0.1326 0 8
-18.6359 -0.8200 -2.4953 0.1326 0 8
-18.6201 -1.1215 -2.4953 0.1326 0 8
-18.5996 -1.4227 -2.4953 0.1326 0 8
-18.5741 -1.7236 -2.4953 0.1326 0 8
-18.5438 -2.0240 -2.4953 0.1326 0 8
-18.5086 -2.3238 -2.4953 0.1326 0 8
-18.4685 -2.6231 -2.4953 0.1326 0 8
-18.4236 -2.9217 -2.4953 0.1326 0 8
-18.3740 -3.2195 -2.4953 0.1326 0 8
-18.3194 -3.5164 -2.4953 0.1326 0 8
-18.2601 -3.8125 -2.4953 0.1326 0 8
-18.1960 -4.1075 -2.4953 0.1326 0 8
-18.1271 -4.4015 -2.4953 0.1326 0 8
-18.0536 -4.6943 -2.4953 0.1326 0 8
-17.9752 -4.9859 -2.4953 0.1326 0 8
-17.8922 -5.2761 -2.4953 0.1326 0 8
-17.8044 -5.5650 -2.4953 0.1326 0 8
-17.7120 -5.8525 -2.4953 0.1326 0 8
-17.6150 -6.1384 -2.4953 0.1326 0 8
-17.5133 -6.4227 -2.4953 0.1326 0 8
-17.4071 -6.7053 -2.4953 0.1326 0 8
-17.2963 -6.9861 -2.4953 0.1326 0 8
-17.1810 -7.2651 -2.4953 0.1326 0 8
-17.0611 -7.5423 -2.4953 0.1326 0 8
-16.9368 -7.8174 -2.4953 0.1326 0 8
-16.8081 -8.0905 -2.4953 0.1326 0 8
-16.6749 -8.3615 -2.4953 0.1326 0 8
-16.5374 -8.6303 -2.4953 0.1326 0 8
-16.3956 -8.8968 -2.4953 0.1326 0 8
-16.2494 -9.1610 -2.4953 0.1326 0 8
-16.0990 -9.4228 -2.4953 0.1326 0 8
-15.9444 -9.6821 -2.4953 0.1326 0 8
-15.7856 -9.9389 -2.4953 0.1326 0 8
-15.6227 -10.1931 -2.4953 0.1326 0 8
-15.4556 -10.4446 -2.4953 0.1326 0 8
-15.2846 -10.6934 -2.4953 0.1326 0 8
-15.1095 -10.9394 -2.4953 0.1326 0 8
-14.9305 -11.1825 -2.4953 0.1326 0 8
-14.7475 -11.4227 -2.4953 0.1326 0 8
-14.5607 -11.6599 -2.4953 0.1326 0 8
-14.3701 -11.8940 -2.4953 0.1326 0 8
-14.1757 -12.1250 -2.4953 0.1326 0 8
-13.9776 -12.3529 -2.4953 0.1326 0 8
-13.7759 -12.5775 -2.4953 0.1326 0 8
-13.5705 -12.7988 -2.4953 0.1326 0 8
-13.3616 -13.0168 -2.4953 0.1326 0 8
-13.1491 -13.2313 -2.4953 0.1326 0 8
-12.9333 -13.4424 -2.4953 0.1326 0 8
-12.7140 -13.6500 -2.4953 0.1326 0 8
-12.4914 -13.8539 -2.4953 0.1326 0 8
-12.2656 -14.0543 -2.4953 0.1326 0 8
-12.0365 -14.2510 -2.4953 0.1326 0 8
-11.8043 -14.4439 -2.4953 0.1326 0 8
-11.5689 -14.6331 -2.4953 0.1326 0 8
-11.3306 -14.8184 -2.4953 0.1326 0 8
-11.0893 -14.9999 -2.4953 0.1326 0 8
-10.8450 -15.1774 -2.4953 0.1326 0 8
-10.5980 -15.3509 -2.4953 0.1326 0 8
-10.3481 -15.5204 -2.4953 0.1326 0 8
-10.0956 -15.6859 -2.4953 0.1326 0 8
-9.8404 -15.8472 -2.4953 0.1326 0 8
-9.5826 -16.0044 -2.4953 0.1326 0 8
-9.3223 -16.1574 -2.4953 0.1326 0 8
-9.0596 -16.3062 -2.4953 0.1326 0 8
-8.7945 -16.4507 -2.4953 0.1326 0 8
-8.5271 -16.5908 -2.4953 0.1326 0 8
-8.2575 -16.7267 -2.4953 0.1326 0 8
-7.9856 -16.8581 -2.4953 0.1326 0 8
-7.7118 -16.9852 -2.4953 0.1326 0 8
-7.4358 -17.1078 -2.4953 0.1326 0 8
-7.1580 -17.2259 -2.4953 0.1326 0 8
-6.8782 -17.3395 -2.4953 0.1326 0 8
-6.5967 -17.4485 -2.4953 0.1326 0 8
-17.5394 0.3643 -2.4953 0.1408 0 8
-17.5429 0.0804 -2.4953 0.1408 0 8
-17.5419 -0.2035 -2.4953 0.1408 0 8
-17.5364 -0.4874 -2.4953 0.1408 0 8
-17.5262 -0.7712 -2.4953 0.1408 0 8
-17.5114 -1.0547 -2.4953 0.1408 0 8
-17.4920 -1.3380 -2.4953 0.1408 0 8
-17.4681 -1.6209 -2.4953 0.1408 0 8
-17.4396 -1.9034 -2.4953 0.1408 0 8
-17.4065 -2.1855 -2.4953 0.1408 0 8
-17.3688 -2.4669 -2.4953 0.1408 0 8
-17.3266 -2.7477 -2.4953 0.1408 0 8
-17.2799 -3.0278 -2.4953 0.1408 0 8
-17.2286 -3.3070 -2.4953 0.1408 0 8
-17.1728 -3.5855 -2.4953 0.1408 0 8
-17.1125 -3.8629 -2.4953 0.1408 0 8
-17.0478 -4.1394 -2.4953 0.1408 0 8
-16.9785 -4.4148 -2.4953 0.1408 0 8
-16.9049 -4.6886 -2.4953 0.1408 0 8
-16.8268 -4.9620 -2.4953 0.1408 0 8
-16.7443 -5.2337 -2.4953 0.1408 0 8
-16.6574 -5.5040 -2.4953 0.1408 0 8
-16.5661 -5.7729 -2.4953 0.1408 0 8
-16.4705 -6.0402 -2.4953 0.1408 0 8
-16.3706 -6.3060 -2.4953 0.1408 0 8
-16.2664 -6.5701 -2.4953 0.1408 0 8
-16.1579 -6.8325 -2.4953 0.1408 0 8
-16.0452 -7.0932 -2.4953 0.1408 0 8
-15.9283 -7.3519 -2.4953 0.1408 0 8
-15.8072 -7.6087 -2.4953 0.1408 0 8
-15.6820 -7.8636 -2.4953 0.1408 0 8
-15.5527 -8.1164 -2.4953 0.1408 0 8
-15.4193 -8.3670 -2.4953 0.1408 0 8
-15.2818 -8.6155 -2.4953 0.1408 0 8
-15.1404 -8.8617 -2.4953 0.1408 0 8
-14.9950 -9.1056 -2.4953 0.1408 0 8
-14.8456 -9.3471 -2.4953 0.1408 0 8
-14.6924 -9.5862 -2.4953 0.1408 0 8
-14.5353 -9.8227 -2.4953 0.1408 0 8
-14.3745 -10.0567 -2.4953 0.1408 0 8
-14.2098 -10.2880 -2.4953 0.1408 0 8
-14.0414 -10.5166 -2.4953 0.1408 0 8
-13.8694 -10.7425 -2.4953 0.1408 0 8
-13.6937 -10.9656 -2.4953 0.1408 0 8
-13.5144 -11.1858 -2.4953 0.1408 0 8
-13.3316 -11.4030 -2.4953 0.1408 0 8
-13.1453 -11.6173 -2.4953 0.1408 0 8
-12.9556 -11.8285 -2.4953 0.1408 0 8
-12.7624 -12.0367 -2.4953 0.1408 0 8
-12.5659 -12.2417 -2.4953 0.1408 0 8
-12.3662 -12.4434 -2.4953 0.1408 0 8
-12.1632 -12.6420 -2.4953 0.1408 0 8
-11.9570 -12.8372 -2.4953 0.1408 0 8
-11.7476 -13.0290 -2.4953 0.1408 0 8
-11.5352 -13.2174 -2.4953 0.1408 0 8
-11.3198 -13.4024 -2.4953 0.1408 0 8
-11.1014 -13.5838 -2.4953 0.1408 0 8
-10.8800 -13.7618 -2.4953 0.1408 0 8
-10.6559 -13.9360 -2.4953 0.1408 0 8
-10.4289 -14.1067 -2.4953 0.1408 0 8
-10.1993 -14.2736 -2.4953 0.1408 0 8
-9.9669 -14.4368 -2.4953 0.1408 0 8
-9.7320 -14.5962 -2.4953 0.1408 0 8
-9.4944 -14.7518 -2.4953 0.1408 0 8
-9.2544 -14.9036 -2.4953 0.1408 0 8
-9.0120 -15.0514 -2.4953 0.1408 0 8
-8.7672 -15.1953 -2.4953 0.1408 0 8
-8.5201 -15.3352 -2.4953 0.1408 0 8
-8.2708 -15.4711 -2.4953 0.1408 0 8
-8.0193 -15.6029 -2.4953 0.1408 0 8
-7.7658 -15.7307 -2.4953 0.1408 0 8
-7.5101 -15.8543 -2.4953 0.1408 0 8
-7.2526 -15.9738 -2.4953 0.1408 0 8
-6.9931 -16.0891 -2.4953 0.1408 0 8
-6.7318 -16.2001 -2.4953 0.1408 0 8
-6.4687 -16.3070 -2.4953 0.1408 0 8
-6.2039 -16.4095 -2.4953 0.1408 0 8
-16.5515 0.3438 -2.4953 0.1490 0 8
-16.5549 0.0759 -2.4953 0.1490 0 8
-16.5539 -0.1921 -2.4953 0.1490 0 8
-16.5486 -0.4600 -2.4953 0.1490 0 8
-16.5390 -0.7277 -2.4953 0.1490 0 8
-16.5251 -0.9953 -2.4953 0.1490 0 8
-16.5068 -1.2626 -2.4953 0.1490 0 8
-16.4842 -1.5296 -2.4953 0.1490 0 8
-16.4573 -1.7962 -2.4953 0.1490 0 8
-16.4261 -2.0624 -2.4953 0.1490 0 8
-16.3905 -2.3279 -2.4953 0.1490 0 8
-16.3507 -2.5929 -2.4953 0.1490 0 8
-16.3066 -2.8572 -2.4953 0.1490 0 8
-16.2582 -3.1208 -2.4953 0.1490 0 8
-16.2056 -3.3835 -2.4953 0.1490 0 8
-16.1487 -3.6454 -2.4953 0.1490 0 8
-16.0876 -3.9062 -2.4953 0.1490 0 8
-16.0223 -4.1661 -2.4953 0.1490 0 8
-15.9527 -4.4249 -2.4953 0.1490 0 8
-15.8790 -4.6825 -2.4953 0.1490 0 8
-15.8012 -4.9389 -2.4953 0.1490 0 8
-15.7192 -5.1940 -2.4953 0.1490 0 8
-15.6330 -5.4477 -2.4953 0.1490 0 8
-15.5428 -5.7000 -2.4953 0.1490 0 8
-15.4485 -5.9508 -2.4953 0.1490 0 8
-15.3502 -6.2001 -2.4953 0.1490 0 8
-15.2478 -6.4477 -2.4953 0.1490 0 8
-15.1415 -6.6936 -2.4953 0.1490 0 8
-15.0312 -6.9378 -2.4953 0.1490 0 8
-14.9169 -7.1802 -2.4953 0.1490 0 8
-14.7987 -7.4207 -2.4953 0.1490 0 8
-14.6767 -7.6592 -2.4953 0.1490 0 8
-14.5508 -7.8958 -2.4953 0.1490 0 8
-14.4211 -8.1302 -2.4953 0.1490 0 8
-14.2876 -8.3626 -2.4953 0.1490 0 8
-14.1504 -8.5927 -2.4953 0.1490 0 8
-14.0095 -8.8206 -2.4953 0.1490 0 8
-13.8649 -9.0462 -2.4953 0.1490 0 8
-13.7167 -9.2694 -2.4953 0.1490 0 8
-13.5648 -9.4902 -2.4953 0.1490 0 8
-13.4095 -9.7085 -2.4953 0.1490 0 8
-13.2506 -9.9243 -2.4953 0.1490 0 8
-13.0882 -10.1374 -2.4953 0.1490 0 8
-12.9224 -10.3479 -2.4953 0.1490 0 8
-12.7533 -10.5557 -2.4953 0.1490 0 8
-12.5807 -10.7608 -2.4953 0.1490 0 8
-12.4049 -10.9630 -2.4953 0.1490 0 8
-12.2259 -11.1623 -2.4953 0.1490 0 8
-12.0436 -11.3587 -2.4953 0.1490 0 8
-11.8582 -11.5522 -2.4953 0.1490 0 8
-11.6697 -11.7426 -2.4953 0.1490 0 8
-11.4781 -11.9299 -2.4953 0.1490 0 8
-11.2835 -12.1141 -2.4953 0.1490 0 8
-11.0860 -12.2952 -2.4953 0.1490 0 8
-10.8855 -12.4730 -2.4953 0.1490 0 8
-10.6822 -12.6475 -2.4953 0.1490 0 8
-10.4761 -12.8188 -2.4953 0.1490 0 8
-10.2672 -12.9866 -2.4953 0.1490 0 8
-10.0557 -13.1511 -2.4953 0.1490 0 8
-9.8416 -13.3121 -2.4953 0.1490 0 8
-9.6248 -13.4697 -2.4953 0.1490 0 8
-9.4055 -13.6237 -2.4953 0.1490 0 8
-9.1838 -13.7741 -2.4953 0.1490 0 8
-8.9597 -13.9210 -2.4953 0.1490 0 8
-8.7332 -14.0642 -2.4953 0.1490 0 8
-8.5044 -14.2037 -2.4953 0.1490 0 8
-8.2734 -14.3394 -2.4953 0.1490 0 8
-8.0403 -14.4715 -2.4953 0.1490 0 8
-7.8050 -14.5997 -2.4953 0.1490 0 8
-7.5677 -14.7241 -2.4953 0.1490 0 8
-7.3284 -14.8447 -2.4953 0.1490 0 8
-7.0871 -14.9611 -2.4953 0.1490 0 8
-6.8441 -15.0741 -2.4953 0.1490 0 8
-6.5992 -15.1829 -2.4953 0.1490 0 8
-6.3526 -15.2877 -2.4953 0.1490 0 8
-6.1043 -15.3885 -2.4953 0.1490 0 8
-5.8545 -15.4853 -2.4953 0.1490 0 8
-15.6668 0.3254 -2.4953 0.1573 0 8
-15.6701 0.0718 -2.4953 0.1573 0 8
-15.6692 -0.1818 -2.4953 0.1573 0 8
-15.6642 -0.4354 -2.4953 0.1573 0 8
-15.6551 -0.6888 -2.4953 0.1573 0 8
-15.6419 -0.9421 -2.4953 0.1573 0 8
-15.6246 -1.1952 -2.4953 0.1573 0 8
-15.6032 -1.4479 -2.4953 0.1573 0 8
-15.5777 -1.7002 -2.4953 0.1573 0 8
-15.5482 -1.9521 -2.4953 0.1573 0 8
-15.5145 -2.2035 -2.4953 0.1573 0 8
-15.4768 -2.4544 -2.4953 0.1573 0 8
-15.4351 -2.7045 -2.4953 0.1573 0 8
-15.3893 -2.9540 -2.4953 0.1573 0 8
-15.3395 -3.2027 -2.4953 0.1573 0 8
-15.2856 -3.4505 -2.4953 0.1573 0 8
-15.2278 -3.6975 -2.4953 0.1573 0 8
-15.1659 -3.9434 -2.4953 0.1573 0 8
-15.1001 -4.1884 -2.4953 0.1573 0 8
-15.0303 -4.4322 -2.4953 0.1573 0 8
-14.9566 -4.6749 -2.4953 0.1573 0 8
-14.8790 -4.9164 -2.4953 0.1573 0 8
-14.7975 -5.1565 -2.4953 0.1573 0 8
-14.7121 -5.3954 -2.4953 0.1573 0 8
-14.6229 -5.6328 -2.4953 0.1573 0 8
-14.5298 -5.8687 -2.4953 0.1573 0 8
-14.4329 -6.1031 -2.4953 0.1573 0 8
-14.3322 -6.3359 -2.4953 0.1573 0 8
-14.2278 -6.5670 -2.4953 0.1573 0 8
-14.1196 -6.7964 -2.4953 0.1573 0 8
-14.0078 -7.0241 -2.4953 0.1573 0 8
-13.8923 -7.2499 -2.4953 0.1573 0 8
-13.7731 -7.4738 -2.4953 0.1573 0 8
-13.6503 -7.6957 -2.4953 0.1573 0 8
-13.5240 -7.9156 -2.4953 0.1573 0 8
-13.3941 -8.1335 -2.4953 0.1573 0 8
-13.2607 -8.3492 -2.4953 0.1573 0 8
-13.1238 -8.5627 -2.4953 0.1573 0 8
-12.9835 -8.7740 -2.4953 0.1573 0 8
-12.8398 -8.9830 -2.4953 0.1573 0 8
-12.6928 -9.1896 -2.4953 0.1573 0 8
-12.5424 -9.3939 -2.4953 0.1573 0 8
-12.3887 -9.5956 -2.4953 0.1573 0 8
-12.2318 -9.7949 -2.4953 0.1573 0 8
-12.0716 -9.9916 -2.4953 0.1573 0 8
-11.9083 -10.1856 -2.4953 0.1573 0 8
-11.7419 -10.3771 -2.4953 0.1573 0 8
-11.5724 -10.5657 -2.4953 0.1573 0 8
-11.3999 -10.7516 -2.4953 0.1573 0 8
-11.2244 -10.9347 -2.4953 0.1573 0 8
-11.0460 -11.1150 -2.4953 0.1573 0 8
-10.8646 -11.2923 -2.4953 0.1573 0 8
-10.6804 -11.4667 -2.4953 0.1573 0 8
-10.4934 -11.6380 -2.4953 0.1573 0 8
-10.3037 -11.8063 -2.4953 0.1573 0 8
-10.1113 -11.9716 -2.4953 0.1573 0 8
-9.9162 -12.1336 -2.4953 0.1573 0 8
-9.7185 -12.2925 -2.4953 0.1573 0 8
-9.5183 -12.4482 -2.4953 0.1573 0 8
-9.3156 -12.6007 -2.4953 0.1573 0 8
-9.1104 -12.7498 -2.4953 0.1573 0 8
-8.9028 -12.8956 -2.4953 0.1573 0 8
-8.6930 -13.0379 -2.4953 0.1573 0 8
-8.4808 -13.1769 -2.4953 0.1573 0 8
-8.2664 -13.3125 -2.4953 0.1573 0 8
-8.0499 -13.4445 -2.4953 0.1573 0 8
-7.8312 -13.5730 -2.4953 0.1573 0 8
-7.6105 -13.6980 -2.4953 0.1573 0 8
-7.3878 -13.8194 -2.4953 0.1573 0 8
-7.1632 -13.9372 -2.4953 0.1573 0 8
-6.9367 -14.0513 -2.4953 0.1573 0 8
-6.7084 -14.1617 -2.4953 0.1573 0 8
-6.4783 -14.2684 -2.4953 0.1573 0 8
-6.2465 -14.3714 -2.4953 0.1573 0 8
-6.0131 -14.4706 -2.4953 0.1573 0 8
-5.7781 -14.5660 -2.4953 0.1573 0 8
-5.5416 -14.6577 -2.4953 0.1573 0 8
-14.8700 0.3089 -2.4953 0.1655 0 8
-14.8730 0.0682 -2.4953 0.1655 0 8
-14.8722 -0.1725 -2.4953 0.1655 0 8
-14.8674 -0.4132 -2.4953 0.1655 0 8
-14.8588 -0.6538 -2.4953 0.1655 0 8
-14.8463 -0.8942 -2.4953 0.1655 0 8
-14.8299 -1.1344 -2.4953 0.1655 0 8
