ply
format ascii 1.0
element vertex 1381
property float32 x
property float32 y
property float32 z
property float32 CosAngle
property uint32 ObjIdx
property uint32 ObjTag
end_header
-7.4436 30.8998 -2.6477 0.0830 0 7
-7.9400 30.7760 -2.6477 0.0830 0 7
-8.4343 30.6442 -2.6477 0.0830 0 7
-8.9264 30.5045 -2.6477 0.0830 0 7
-9.4162 30.3568 -2.6477 0.0830 0 7
-9.9036 30.2013 -2.6477 0.0830 0 7
-10.3884 30.0380 -2.6477 0.0830 0 7
-10.8706 29.8669 -2.6477 0.0830 0 6
-11.3499 29.6881 -2.6477 0.0830 0 7
-11.8263 29.5016 -2.6477 0.0830 0 7
-12.2996 29.3074 -2.6477 0.0830 0 7
-12.7697 29.1056 -2.6477 0.0830 0 7
-13.2365 28.8963 -2.6477 0.0830 0 7
-13.6999 28.6795 -2.6477 0.0830 0 7
-14.1597 28.4553 -2.6477 0.0830 0 7
-14.6159 28.2237 -2.6477 0.0830 0 7
19.9654 19.0117 -2.5275 0.6899 0 8
19.4656 19.1425 -2.5029 0.0913 0 8
19.1550 19.4534 -2.5029 0.0913 0 14
18.8394 19.7592 -2.5029 0.0913 0 14
18.5189 20.0598 -2.5029 0.0913 0 14
18.1936 20.3553 -2.5029 0.0913 0 14
17.8636 20.6455 -2.5029 0.0913 0 14
17.5290 20.9304 -2.5029 0.0913 0 14
17.1899 21.2098 -2.5029 0.0913 0 14
16.8463 21.4837 -2.5029 0.0913 0 14
16.4983 21.7521 -2.5029 0.0913 0 14
16.1460 22.0148 -2.5029 0.0913 0 14
15.7896 22.2718 -2.5029 0.0913 0 14
16.3216 23.8259 -2.6477 0.0913 0 7
15.9360 24.0856 -2.6477 0.0913 0 7
15.5463 24.3389 -2.6477 0.0913 0 7
15.1525 24.5860 -2.6477 0.0913 0 7
14.7548 24.8267 -2.6477 0.0913 0 7
14.3533 25.0610 -2.6477 0.0913 0 7
13.9481 25.2888 -2.6477 0.0913 0 7
13.5392 25.5100 -2.6477 0.0913 0 7
13.1269 25.7246 -2.6477 0.0913 0 7
12.7111 25.9325 -2.6477 0.0913 0 7
12.2921 26.1338 -2.6477 0.0913 0 7
11.8698 26.3282 -2.6477 0.0913 0 7
11.4445 26.5159 -2.6477 0.0913 0 7
11.0163 26.6966 -2.6477 0.0913 0 7
10.5852 26.8705 -2.6477 0.0913 0 7
10.1513 27.0374 -2.6477 0.0913 0 7
9.7148 27.1973 -2.6477 0.0913 0 7
9.2758 27.3501 -2.6477 0.0913 0 7
8.8344 27.4959 -2.6477 0.0913 0 7
8.3907 27.6345 -2.6477 0.0913 0 7
7.9448 27.7660 -2.6477 0.0913 0 7
7.4969 27.8903 -2.6477 0.0913 0 7
7.0470 28.0073 -2.6477 0.0913 0 7
6.5953 28.1171 -2.6477 0.0913 0 7
6.1419 28.2196 -2.6477 0.0913 0 7
5.6869 28.3148 -2.6477 0.0913 0 7
5.2304 28.4027 -2.6477 0.0913 0 7
4.7726 28.4832 -2.6477 0.0913 0 7
4.3135 28.5563 -2.6477 0.0913 0 7
3.8533 28.6220 -2.6477 0.0913 0 7
3.3921 28.6804 -2.6477 0.0913 0 7
2.9300 28.7312 -2.6477 0.0913 0 7
2.4672 28.7747 -2.6477 0.0913 0 7
2.0038 28.8107 -2.6477 0.0913 0 7
1.5398 28.8392 -2.6477 0.0913 0 7
1.0754 28.8602 -2.6477 0.0913 0 7
0.6107 28.8738 -2.6477 0.0913 0 7
0.1459 28.8799 -2.6477 0.0913 0 7
-0.3189 28.8785 -2.6477 0.0913 0 7
-0.7837 28.8696 -2.6477 0.0913 0 7
-1.2483 28.8533 -2.6477 0.0913 0 7
-1.7125 28.8294 -2.6477 0.0913 0 7
-2.1763 28.7981 -2.6477 0.0913 0 7
-2.6396 28.7594 -2.6477 0.0913 0 7
-3.1021 28.7132 -2.6477 0.0913 0 7
-3.5639 28.6595 -2.6477 0.0913 0 7
-4.0247 28.5985 -2.6477 0.0913 0 7
-4.4845 28.5300 -2.6477 0.0913 0 7
-4.9431 28.4541 -2.6477 0.0913 0 7
-5.4004 28.3708 -2.6477 0.0913 0 7
-5.8564 28.2802 -2.6477 0.0913 0 7
-6.3108 28.1823 -2.6477 0.0913 0 7
-6.7636 28.0771 -2.6477 0.0913 0 7
-7.2146 27.9646 -2.6477 0.0913 0 7
-7.6638 27.8449 -2.6477 0.0913 0 7
-8.1110 27.7179 -2.6477 0.0913 0 7
-8.5561 27.5837 -2.6477 0.0913 0 7
-8.9989 27.4425 -2.6477 0.0913 0 7
-9.4395 27.2941 -2.6477 0.0913 0 7
-9.8776 27.1386 -2.6477 0.0913 0 7
-10.3131 26.9761 -2.6477 0.0913 0 7
-10.7459 26.8066 -2.6477 0.0913 0 7
-11.1760 26.6302 -2.6477 0.0913 0 7
-11.6032 26.4469 -2.6477 0.0913 0 7
-12.0274 26.2567 -2.6477 0.0913 0 7
-12.4484 26.0597 -2.6477 0.0913 0 7
-12.8662 25.8559 -2.6477 0.0913 0 7
-13.2807 25.6455 -2.6477 0.0913 0 7
19.1618 18.2465 -2.6477 0.0996 0 7
18.8656 18.5525 -2.6477 0.0996 0 7
18.5645 18.8538 -2.6477 0.0996 0 7
18.1045 18.9884 -2.6253 0.7244 0 8
17.5350 18.9940 -2.5867 0.7352 0 8
16.9816 18.9993 -2.5499 0.7458 0 8
16.4436 19.0043 -2.5147 0.7562 0 8
16.0597 19.1760 -2.5029 0.0996 0 14
15.7490 19.4320 -2.5029 0.0996 0 14
15.4342 19.6830 -2.5029 0.0996 0 14
15.1154 19.9288 -2.5029 0.0996 0 14
14.7927 20.1695 -2.5029 0.0996 0 14
14.4661 20.4050 -2.5029 0.0996 0 14
14.1358 20.6352 -2.5029 0.0996 0 14
13.8019 20.8600 -2.5029 0.0996 0 14
13.4643 21.0795 -2.5029 0.0996 0 14
13.1233 21.2935 -2.5029 0.0996 0 14
12.7789 21.5019 -2.5029 0.0996 0 14
12.4311 21.7048 -2.5029 0.0996 0 14
12.0802 21.9021 -2.5029 0.0996 0 14
11.7261 22.0937 -2.5029 0.0996 0 14
11.3689 22.2796 -2.5029 0.0996 0 14
11.6457 23.7589 -2.6477 0.0996 0 7
11.2617 23.9432 -2.6477 0.0996 0 7
10.8749 24.1214 -2.6477 0.0996 0 7
10.4853 24.2933 -2.6477 0.0996 0 7
10.0929 24.4589 -2.6477 0.0996 0 7
9.6979 24.6182 -2.6477 0.0996 0 7
9.3004 24.7711 -2.6477 0.0996 0 7
8.9005 24.9176 -2.6477 0.0996 0 7
8.4983 25.0576 -2.6477 0.0996 0 7
8.0939 25.1912 -2.6477 0.0996 0 7
7.6874 25.3182 -2.6477 0.0996 0 7
7.2789 25.4386 -2.6477 0.0996 0 7
6.8685 25.5525 -2.6477 0.0996 0 7
6.4563 25.6597 -2.6477 0.0996 0 7
6.0425 25.7603 -2.6477 0.0996 0 7
5.6271 25.8542 -2.6477 0.0996 0 7
5.2102 25.9415 -2.6477 0.0996 0 7
4.7920 26.0220 -2.6477 0.0996 0 7
4.3725 26.0957 -2.6477 0.0996 0 7
3.9519 26.1627 -2.6477 0.0996 0 7
3.5303 26.2229 -2.6477 0.0996 0 7
3.1078 26.2764 -2.6477 0.0996 0 7
2.6844 26.3230 -2.6477 0.0996 0 7
2.2604 26.3628 -2.6477 0.0996 0 7
1.8358 26.3957 -2.6477 0.0996 0 7
1.4107 26.4219 -2.6477 0.0996 0 7
0.9853 26.4412 -2.6477 0.0996 0 7
0.5595 26.4536 -2.6477 0.0996 0 7
0.1337 26.4592 -2.6477 0.0996 0 6
-0.2922 26.4579 -2.6477 0.0996 0 6
-0.7180 26.4498 -2.6477 0.0996 0 6
-1.1436 26.4348 -2.6477 0.0996 0 6
-1.5690 26.4130 -2.6477 0.0996 0 6
-1.9939 26.3843 -2.6477 0.0996 0 7
-2.4183 26.3488 -2.6477 0.0996 0 7
-2.8421 26.3064 -2.6477 0.0996 0 7
-3.2651 26.2573 -2.6477 0.0996 0 7
-3.6873 26.2013 -2.6477 0.0996 0 7
-4.1086 26.1386 -2.6477 0.0996 0 7
-4.5288 26.0691 -2.6477 0.0996 0 7
-4.9478 25.9928 -2.6477 0.0996 0 7
-5.3655 25.9098 -2.6477 0.0996 0 7
-5.7818 25.8201 -2.6477 0.0996 0 7
-6.1967 25.7237 -2.6477 0.0996 0 7
-6.6099 25.6206 -2.6477 0.0996 0 7
-7.0214 25.5109 -2.6477 0.0996 0 7
-7.4311 25.3946 -2.6477 0.0996 0 7
-7.8389 25.2717 -2.6477 0.0996 0 7
-8.2446 25.1422 -2.6477 0.0996 0 7
-8.6482 25.0063 -2.6477 0.0996 0 7
-9.0496 24.8638 -2.6477 0.0996 0 7
-9.4486 24.7150 -2.6477 0.0996 0 7
-9.8452 24.5597 -2.6477 0.0996 0 7
-10.2392 24.3980 -2.6477 0.0996 0 7
-10.6306 24.2301 -2.6477 0.0996 0 7
-11.0192 24.0558 -2.6477 0.0996 0 7
-11.4050 23.8754 -2.6477 0.0996 0 7
-11.7878 23.6887 -2.6477 0.0996 0 7
-11.5022 22.2111 -2.5029 0.0996 0 14
17.6775 16.8331 -2.6477 0.1078 0 7
17.4043 17.1154 -2.6477 0.1078 0 7
17.1265 17.3934 -2.6477 0.1078 0 7
16.8444 17.6668 -2.6477 0.1078 0 7
16.5578 17.9356 -2.6477 0.1078 0 7
16.2670 18.1998 -2.6477 0.1078 0 7
15.9721 18.4593 -2.6477 0.1078 0 6
15.6728 18.7139 -2.6477 0.1078 0 7
15.3695 18.9638 -2.6477 0.1078 0 7
14.8839 18.9812 -2.6163 0.7872 0 8
14.4000 18.9857 -2.5846 0.7969 0 8
13.9276 18.9900 -2.5544 0.8063 0 8
13.4658 18.9941 -2.5254 0.8155 0 8
13.0409 19.0368 -2.5029 0.1078 0 8
12.7328 19.2443 -2.5029 0.1078 0 14
12.4214 19.4467 -2.5029 0.1078 0 14
12.1068 19.6441 -2.5029 0.1078 0 14
11.7890 19.8364 -2.5029 0.1078 0 14
11.4682 20.0236 -2.5029 0.1078 0 14
11.1444 20.2056 -2.5029 0.1078 0 14
10.8178 20.3824 -2.5029 0.1078 0 14
10.4883 20.5538 -2.5029 0.1078 0 14
10.1561 20.7200 -2.5029 0.1078 0 14
9.8213 20.8808 -2.5029 0.1078 0 14
9.4840 21.0362 -2.5029 0.1078 0 14
9.1441 21.1861 -2.5029 0.1078 0 14
8.8020 21.3305 -2.5029 0.1078 0 14
8.4575 21.4694 -2.5029 0.1078 0 14
8.1108 21.6028 -2.5029 0.1078 0 14
7.7621 21.7305 -2.5029 0.1078 0 14
7.4113 21.8526 -2.5029 0.1078 0 14
7.0586 21.9691 -2.5029 0.1078 0 14
6.7041 22.0799 -2.5029 0.1078 0 14
6.3479 22.1849 -2.5029 0.1078 0 14
5.9900 22.2842 -2.5029 0.1078 0 8
5.6305 22.3777 -2.5029 0.1078 0 8
5.5744 23.7650 -2.6477 0.1078 0 7
5.1912 23.8516 -2.6477 0.1078 0 7
4.8066 23.9321 -2.6477 0.1078 0 7
4.4208 24.0063 -2.6477 0.1078 0 7
4.0338 24.0744 -2.6477 0.1078 0 7
3.6458 24.1362 -2.6477 0.1078 0 7
3.2568 24.1918 -2.6477 0.1078 0 7
2.8670 24.2410 -2.6477 0.1078 0 7
2.4765 24.2840 -2.6477 0.1078 0 7
2.0853 24.3208 -2.6477 0.1078 0 7
1.6936 24.3512 -2.6477 0.1078 0 7
1.3014 24.3753 -2.6477 0.1078 0 7
0.9089 24.3931 -2.6477 0.1078 0 7
0.5162 24.4045 -2.6477 0.1078 0 7
0.1233 24.4097 -2.6477 0.1078 0 7
-0.2696 24.4085 -2.6477 0.1078 0 7
-0.6624 24.4010 -2.6477 0.1078 0 7
-1.0551 24.3872 -2.6477 0.1078 0 7
-1.4474 24.3670 -2.6477 0.1078 0 7
-1.8394 24.3406 -2.6477 0.1078 0 7
-2.2310 24.3078 -2.6477 0.1078 0 7
-2.6219 24.2688 -2.6477 0.1078 0 7
-3.0122 24.2234 -2.6477 0.1078 0 7
-3.4017 24.1718 -2.6477 0.1078 0 7
-3.7903 24.1139 -2.6477 0.1078 0 7
-4.1780 24.0498 -2.6477 0.1078 0 7
-4.5645 23.9794 -2.6477 0.1078 0 7
-4.9499 23.9029 -2.6477 0.1078 0 7
-5.3340 23.8201 -2.6477 0.1078 0 7
-5.7167 23.7311 -2.6477 0.1078 0 7
-5.7645 22.3436 -2.5029 0.1078 0 8
-6.1234 22.2479 -2.5029 0.1078 0 8
-6.4807 22.1465 -2.5029 0.1078 0 14
-6.8363 22.0393 -2.5029 0.1078 0 14
-7.1901 21.9264 -2.5029 0.1078 0 14
-7.5421 21.8078 -2.5029 0.1078 0 14
-7.8921 21.6836 -2.5029 0.1078 0 14
-8.2401 21.5538 -2.5029 0.1078 0 14
-8.5860 21.4184 -2.5029 0.1078 0 14
-8.9296 21.2774 -2.5029 0.1078 0 14
-9.2709 21.1309 -2.5029 0.1078 0 14
-9.6098 20.9790 -2.5029 0.1078 0 14
-9.9462 20.8216 -2.5029 0.1078 0 14
-10.2801 20.6588 -2.5029 0.1078 0 14
-10.6112 20.4906 -2.5029 0.1078 0 14
16.4046 15.6210 -2.6477 0.1161 0 7
16.1510 15.8830 -2.6477 0.1161 0 7
15.8933 16.1409 -2.6477 0.1161 0 7
15.6314 16.3946 -2.6477 0.1161 0 7
15.3655 16.6441 -2.6477 0.1161 0 7
15.0957 16.8892 -2.6477 0.1161 0 7
14.8218 17.1300 -2.6477 0.1161 0 7
14.5442 17.3664 -2.6477 0.1161 0 7
14.2628 17.5982 -2.6477 0.1161 0 7
13.9777 17.8255 -2.6477 0.1161 0 7
13.6890 18.0482 -2.6477 0.1161 0 7
13.3967 18.2662 -2.6477 0.1161 0 7
13.1010 18.4794 -2.6477 0.1161 0 6
12.8019 18.6879 -2.6477 0.1161 0 7
12.4994 18.8915 -2.6477 0.1161 0 7
12.1174 18.9707 -2.6311 0.8427 0 8
11.6940 18.9744 -2.6052 0.8511 0 8
11.2787 18.9778 -2.5804 0.8593 0 8
10.8711 18.9811 -2.5567 0.8673 0 8
10.4707 18.9841 -2.5341 0.8750 0 8
10.0772 18.9870 -2.5125 0.8825 0 8
9.7331 19.0738 -2.5029 0.1161 0 8
9.4248 19.2280 -2.5029 0.1161 0 14
9.1141 19.3772 -2.5029 0.1161 0 14
8.8010 19.5214 -2.5029 0.1161 0 14
8.4857 19.6605 -2.5029 0.1161 0 14
8.1681 19.7945 -2.5029 0.1161 0 14
7.8485 19.9234 -2.5029 0.1161 0 14
7.5268 20.0472 -2.5029 0.1161 0 14
7.2031 20.1657 -2.5029 0.1161 0 14
6.8776 20.2791 -2.5029 0.1161 0 14
6.5503 20.3871 -2.5029 0.1161 0 14
6.2214 20.4899 -2.5029 0.1161 0 14
5.8908 20.5874 -2.5029 0.1161 0 14
5.5586 20.6796 -2.5029 0.1161 0 14
5.2251 20.7663 -2.5029 0.1161 0 14
4.8901 20.8477 -2.5029 0.1161 0 14
4.5540 20.9237 -2.5029 0.1161 0 14
4.2166 20.9943 -2.5029 0.1161 0 14
3.8781 21.0595 -2.5029 0.1161 0 14
3.5387 21.1192 -2.5029 0.1161 0 14
3.1983 21.1734 -2.5029 0.1161 0 14
2.8571 21.2221 -2.5029 0.1161 0 14
2.5151 21.2654 -2.5029 0.1161 0 14
2.1725 21.3031 -2.5029 0.1161 0 14
1.8293 21.3353 -2.5029 0.1161 0 14
1.4857 21.3620 -2.5029 0.1161 0 14
1.1417 21.3831 -2.5029 0.1161 0 14
0.7974 21.3987 -2.5029 0.1161 0 14
0.4528 21.4088 -2.5029 0.1161 0 14
0.1082 21.4133 -2.5029 0.1161 0 14
-0.2365 21.4123 -2.5029 0.1161 0 14
-0.5811 21.4057 -2.5029 0.1161 0 14
-0.9255 21.3936 -2.5029 0.1161 0 14
-1.2698 21.3759 -2.5029 0.1161 0 14
-1.6137 21.3527 -2.5029 0.1161 0 14
-1.9571 21.3240 -2.5029 0.1161 0 14
-2.3001 21.2897 -2.5029 0.1161 0 14
-2.6425 21.2499 -2.5029 0.1161 0 14
-2.9841 21.2046 -2.5029 0.1161 0 14
-3.3251 21.1539 -2.5029 0.1161 0 14
-3.6651 21.0976 -2.5029 0.1161 0 14
-4.0042 21.0359 -2.5029 0.1161 0 14
-4.3423 20.9687 -2.5029 0.1161 0 14
-4.6792 20.8961 -2.5029 0.1161 0 14
-5.0149 20.8181 -2.5029 0.1161 0 14
-5.3494 20.7347 -2.5029 0.1161 0 14
-5.6824 20.6459 -2.5029 0.1161 0 14
-6.0140 20.5517 -2.5029 0.1161 0 14
-6.3440 20.4523 -2.5029 0.1161 0 14
-6.6724 20.3475 -2.5029 0.1161 0 14
-6.9990 20.2375 -2.5029 0.1161 0 14
-7.3238 20.1222 -2.5029 0.1161 0 14
-7.6468 20.0017 -2.5029 0.1161 0 14
-7.9677 19.8761 -2.5029 0.1161 0 14
-8.2866 19.7452 -2.5029 0.1161 0 14
-8.6033 19.6093 -2.5029 0.1161 0 14
-8.9178 19.4683 -2.5029 0.1161 0 14
-9.2300 19.3222 -2.5029 0.1161 0 14
-9.5398 19.1712 -2.5029 0.1161 0 14
-9.8471 19.0151 -2.5029 0.1161 0 8
15.3007 14.5698 -2.6477 0.1243 0 7
15.0642 14.8142 -2.6477 0.1243 0 7
14.8238 15.0547 -2.6477 0.1243 0 7
14.5795 15.2914 -2.6477 0.1243 0 7
14.3315 15.5240 -2.6477 0.1243 0 7
14.0798 15.7527 -2.6477 0.1243 0 7
13.8244 15.9773 -2.6477 0.1243 0 7
13.5655 16.1977 -2.6477 0.1243 0 7
13.3030 16.4140 -2.6477 0.1243 0 7
13.0371 16.6260 -2.6477 0.1243 0 7
12.7678 16.8337 -2.6477 0.1243 0 7
12.4952 17.0370 -2.6477 0.1243 0 7
12.2194 17.2359 -2.6477 0.1243 0 7
11.9404 17.4303 -2.6477 0.1243 0 7
11.6583 17.6203 -2.6477 0.1243 0 7
11.3732 17.8056 -2.6477 0.1243 0 7
11.0851 17.9864 -2.6477 0.1243 0 7
10.7942 18.1625 -2.6477 0.1243 0 7
10.5004 18.3338 -2.6477 0.1243 0 7
10.2040 18.5005 -2.6477 0.1243 0 6
9.9049 18.6623 -2.6477 0.1243 0 7
9.6032 18.8193 -2.6477 0.1243 0 7
9.2935 18.9601 -2.6461 0.8975 0 8
8.9192 18.9628 -2.6261 0.9044 0 8
8.5503 18.9653 -2.6070 0.9110 0 8
8.1866 18.9676 -2.5889 0.9173 0 8
7.8278 18.9698 -2.5717 0.9235 0 8
7.4736 18.9719 -2.5553 0.9294 0 8
7.1238 18.9738 -2.5398 0.9351 0 8
6.7780 18.9755 -2.5251 0.9405 0 8
6.4361 18.9772 -2.5112 0.9457 0 8
6.1096 19.0152 -2.5029 0.1243 0 8
5.8027 19.1111 -2.5029 0.1243 0 8
5.4943 19.2020 -2.5029 0.1243 0 14
5.1846 19.2879 -2.5029 0.1243 0 14
4.8734 19.3689 -2.5029 0.1243 0 14
4.5611 19.4448 -2.5029 0.1243 0 14
4.2475 19.5157 -2.5029 0.1243 0 14
3.9328 19.5816 -2.5029 0.1243 0 14
3.6172 19.6423 -2.5029 0.1243 0 14
3.3005 19.6980 -2.5029 0.1243 0 14
2.9831 19.7486 -2.5029 0.1243 0 14
2.6648 19.7940 -2.5029 0.1243 0 14
2.3459 19.8344 -2.5029 0.1243 0 14
2.0263 19.8695 -2.5029 0.1243 0 14
1.7062 19.8996 -2.5029 0.1243 0 14
1.3857 19.9245 -2.5029 0.1243 0 14
1.0649 19.9442 -2.5029 0.1243 0 14
0.7437 19.9587 -2.5029 0.1243 0 14
0.4224 19.9681 -2.5029 0.1243 0 14
0.1009 19.9724 -2.5029 0.1243 0 14
-0.2206 19.9714 -2.5029 0.1243 0 14
-0.5420 19.9652 -2.5029 0.1243 0 14
-0.8633 19.9539 -2.5029 0.1243 0 14
-1.1843 19.9375 -2.5029 0.1243 0 14
-1.5051 19.9158 -2.5029 0.1243 0 14
-1.8254 19.8890 -2.5029 0.1243 0 14
-2.1453 19.8570 -2.5029 0.1243 0 14
-2.4646 19.8200 -2.5029 0.1243 0 14
-2.7833 19.7777 -2.5029 0.1243 0 14
-3.1013 19.7303 -2.5029 0.1243 0 14
-3.4185 19.6779 -2.5029 0.1243 0 14
-3.7348 19.6203 -2.5029 0.1243 0 14
-4.0501 19.5576 -2.5029 0.1243 0 14
-4.3643 19.4899 -2.5029 0.1243 0 14
-4.6775 19.4172 -2.5029 0.1243 0 14
-4.9894 19.3394 -2.5029 0.1243 0 14
-5.3000 19.2565 -2.5029 0.1243 0 14
-5.6093 19.1687 -2.5029 0.1243 0 14
-5.9171 19.0760 -2.5029 0.1243 0 8
-6.2234 18.9783 -2.5029 0.1243 0 8
-6.5506 18.9410 -2.5116 0.9456 0 8
-6.8926 18.9375 -2.5255 0.9404 0 8
-7.2385 18.9338 -2.5402 0.9349 0 8
-7.5884 18.9299 -2.5557 0.9292 0 8
-7.9427 18.9259 -2.5721 0.9233 0 8
-8.3016 18.9217 -2.5894 0.9172 0 8
-8.6654 18.9174 -2.6075 0.9108 0 8
-9.0344 18.9128 -2.6266 0.9042 0 8
-9.4089 18.9080 -2.6466 0.8973 0 8
-9.7158 18.7615 -2.6477 0.1243 0 7
14.3340 13.6494 -2.6477 0.1326 0 7
14.1125 13.8783 -2.6477 0.1326 0 7
13.8873 14.1036 -2.6477 0.1326 0 7
13.6585 14.3253 -2.6477 0.1326 0 7
13.4262 14.5433 -2.6477 0.1326 0 7
13.1903 14.7575 -2.6477 0.1326 0 7
12.9511 14.9679 -2.6477 0.1326 0 6
12.7085 15.1745 -2.6477 0.1326 0 7
12.4626 15.3770 -2.6477 0.1326 0 7
12.2135 15.5757 -2.6477 0.1326 0 7
11.9612 15.7702 -2.6477 0.1326 0 7
11.7058 15.9607 -2.6477 0.1326 0 7
11.4474 16.1470 -2.6477 0.1326 0 7
11.1860 16.3292 -2.6477 0.1326 0 7
10.9218 16.5071 -2.6477 0.1326 0 7
10.6547 16.6808 -2.6477 0.1326 0 7
10.3848 16.8501 -2.6477 0.1326 0 7
10.1123 17.0151 -2.6477 0.1326 0 7
9.8371 17.1756 -2.6477 0.1326 0 7
9.5594 17.3317 -2.6477 0.1326 0 7
9.2791 17.4833 -2.6477 0.1326 0 7
8.9965 17.6304 -2.6477 0.1326 0 7
8.7116 17.7730 -2.6477 0.1326 0 7
8.4244 17.9109 -2.6477 0.1326 0 7
8.1350 18.0441 -2.6477 0.1326 0 7
7.8435 18.1727 -2.6477 0.1326 0 7
7.5500 18.2966 -2.6477 0.1326 0 7
7.2546 18.4158 -2.6477 0.1326 0 6
6.9572 18.5302 -2.6477 0.1326 0 7
6.6581 18.6397 -2.6477 0.1326 0 7
6.3572 18.7445 -2.6477 0.1326 0 7
6.0547 18.8444 -2.6477 0.1326 0 7
5.7506 18.9394 -2.6477 0.1326 0 7
5.4226 18.9511 -2.6368 0.9604 0 8
5.0944 18.9523 -2.6252 0.9646 0 8
4.7689 18.9534 -2.6144 0.9686 0 8
4.4460 18.9544 -2.6043 0.9724 0 8
4.1255 18.9552 -2.5949 0.9759 0 8
3.8072 18.9559 -2.5863 0.9791 0 8
3.4909 18.9565 -2.5784 0.9821 0 8
3.1764 18.9570 -2.5712 0.9849 0 8
2.8635 18.9573 -2.5646 0.9874 0 8
2.5522 18.9576 -2.5588 0.9897 0 8
2.2422 18.9577 -2.5536 0.9917 0 8
1.9333 18.9576 -2.5491 0.9934 0 8
1.6255 18.9575 -2.5452 0.9949 0 8
1.3185 18.9572 -2.5420 0.9962 0 8
1.0121 18.9569 -2.5394 0.9972 0 8
0.7064 18.9564 -2.5375 0.9980 0 8
0.4009 18.9558 -2.5362 0.9985 0 8
0.0958 18.9550 -2.5356 0.9987 0 8
-0.2094 18.9563 -2.5359 0.9969 0 8
-0.5145 18.9547 -2.5364 0.9985 0 8
-0.8200 18.9529 -2.5376 0.9980 0 8
-1.1257 18.9509 -2.5395 0.9973 0 8
-1.4320 18.9496 -2.5421 0.9962 0 8
-1.7391 18.9481 -2.5453 0.9949 0 8
-2.0469 18.9466 -2.5492 0.9934 0 8
-2.3558 18.9449 -2.5537 0.9916 0 8
-2.6659 18.9430 -2.5589 0.9896 0 8
-2.9772 18.9411 -2.5648 0.9873 0 8
-3.2901 18.9390 -2.5714 0.9848 0 8
-3.6046 18.9368 -2.5786 0.9821 0 8
-3.9210 18.9344 -2.5865 0.9790 0 8
-4.2394 18.9319 -2.5952 0.9758 0 8
-4.5600 18.9293 -2.6045 0.9723 0 8
-4.8829 18.9265 -2.6146 0.9685 0 8
-5.2084 18.9236 -2.6255 0.9645 0 8
-5.5367 18.9206 -2.6371 0.9603 0 8
-5.8639 18.9046 -2.6477 0.1326 0 7
-6.1675 18.8078 -2.6477 0.1326 0 7
-6.4694 18.7061 -2.6477 0.1326 0 7
-6.7696 18.5995 -2.6477 0.1326 0 7
-7.0681 18.4881 -2.6477 0.1326 0 7
-7.3648 18.3720 -2.6477 0.1326 0 6
-7.6595 18.2511 -2.6477 0.1326 0 7
-7.9523 18.1254 -2.6477 0.1326 0 7
-8.2430 17.9951 -2.6477 0.1326 0 7
-8.5316 17.8601 -2.6477 0.1326 0 7
-8.8179 17.7204 -2.6477 0.1326 0 7
-9.1020 17.5762 -2.6477 0.1326 0 7
13.4805 12.8366 -2.6477 0.1408 0 7
13.2722 13.0519 -2.6477 0.1408 0 7
13.0604 13.2638 -2.6477 0.1408 0 7
12.8452 13.4723 -2.6477 0.1408 0 7
12.6267 13.6773 -2.6477 0.1408 0 7
12.4049 13.8788 -2.6477 0.1408 0 7
12.1799 14.0767 -2.6477 0.1408 0 7
11.9518 14.2709 -2.6477 0.1408 0 7
11.7205 14.4614 -2.6477 0.1408 0 7
11.4862 14.6482 -2.6477 0.1408 0 7
11.2490 14.8312 -2.6477 0.1408 0 7
11.0088 15.0103 -2.6477 0.1408 0 7
10.7658 15.1855 -2.6477 0.1408 0 7
10.5200 15.3569 -2.6477 0.1408 0 7
10.2714 15.5242 -2.6477 0.1408 0 7
10.0202 15.6875 -2.6477 0.1408 0 7
9.7664 15.8467 -2.6477 0.1408 0 7
9.5101 16.0019 -2.6477 0.1408 0 7
9.2513 16.1529 -2.6477 0.1408 0 7
8.9901 16.2997 -2.6477 0.1408 0 7
8.7266 16.4423 -2.6477 0.1408 0 7
8.4608 16.5806 -2.6477 0.1408 0 7
8.1929 16.7147 -2.6477 0.1408 0 7
7.9228 16.8444 -2.6477 0.1408 0 7
7.6506 16.9697 -2.6477 0.1408 0 7
7.3765 17.0906 -2.6477 0.1408 0 7
7.1005 17.2072 -2.6477 0.1408 0 7
6.8226 17.3192 -2.6477 0.1408 0 7
6.5429 17.4268 -2.6477 0.1408 0 7
6.2616 17.5298 -2.6477 0.1408 0 7
5.9786 17.6283 -2.6477 0.1408 0 7
5.6941 17.7223 -2.6477 0.1408 0 7
5.4082 17.8116 -2.6477 0.1408 0 7
5.1208 17.8964 -2.6477 0.1408 0 7
4.8321 17.9765 -2.6477 0.1408 0 7
4.5421 18.0519 -2.6477 0.1408 0 7
4.2509 18.1227 -2.6477 0.1408 0 7
3.9587 18.1888 -2.6477 0.1408 0 7
3.6654 18.2501 -2.6477 0.1408 0 7
3.3712 18.3068 -2.6477 0.1408 0 7
3.0761 18.3587 -2.6477 0.1408 0 7
2.7802 18.4058 -2.6477 0.1408 0 6
2.4837 18.4482 -2.6477 0.1408 0 6
2.1864 18.4857 -2.6477 0.1408 0 6
1.8885 18.5185 -2.6477 0.1408 0 7
1.5902 18.5465 -2.6477 0.1408 0 7
1.2915 18.5697 -2.6477 0.1408 0 7
0.9925 18.5881 -2.6477 0.1408 0 7
0.6931 18.6017 -2.6477 0.1408 0 7
0.3936 18.6104 -2.6477 0.1408 0 7
0.0940 18.6143 -2.6477 0.1408 0 7
-0.2056 18.6134 -2.6477 0.1408 0 7
-0.5051 18.6077 -2.6477 0.1408 0 7
-0.8046 18.5972 -2.6477 0.1408 0 7
-1.1038 18.5818 -2.6477 0.1408 0 7
-1.4027 18.5617 -2.6477 0.1408 0 7
-1.7013 18.5367 -2.6477 0.1408 0 7
-1.9994 18.5069 -2.6477 0.1408 0 7
-2.2971 18.4723 -2.6477 0.1408 0 6
-2.5941 18.4329 -2.6477 0.1408 0 6
-2.8903 18.3888 -2.6477 0.1408 0 6
-3.1860 18.3399 -2.6477 0.1408 0 7
-3.4808 18.2862 -2.6477 0.1408 0 7
-3.7747 18.2278 -2.6477 0.1408 0 7
-4.0676 18.1647 -2.6477 0.1408 0 7
-4.3594 18.0969 -2.6477 0.1408 0 7
-4.6502 18.0244 -2.6477 0.1408 0 7
-4.9397 17.9472 -2.6477 0.1408 0 7
-5.2279 17.8654 -2.6477 0.1408 0 7
-5.5148 17.7789 -2.6477 0.1408 0 7
-5.8002 17.6879 -2.6477 0.1408 0 7
-6.0841 17.5922 -2.6477 0.1408 0 7
-6.3665 17.4920 -2.6477 0.1408 0 7
-6.6472 17.3873 -2.6477 0.1408 0 7
-6.9262 17.2780 -2.6477 0.1408 0 7
-7.2034 17.1643 -2.6477 0.1408 0 7
-7.4788 17.0461 -2.6477 0.1408 0 7
-7.7521 16.9236 -2.6477 0.1408 0 7
-8.0235 16.7966 -2.6477 0.1408 0 7
-8.2928 16.6653 -2.6477 0.1408 0 7
-8.5600 16.5296 -2.6477 0.1408 0 7
12.7212 12.1136 -2.6477 0.1490 0 7
12.5246 12.3168 -2.6477 0.1490 0 7
12.3248 12.5168 -2.6477 0.1490 0 7
12.1217 12.7135 -2.6477 0.1490 0 7
11.9155 12.9070 -2.6477 0.1490 0 7
11.7062 13.0971 -2.6477 0.1490 0 7
11.4939 13.2838 -2.6477 0.1490 0 7
11.2786 13.4671 -2.6477 0.1490 0 7
11.0604 13.6469 -2.6477 0.1490 0 7
10.8393 13.8231 -2.6477 0.1490 0 7
10.6154 13.9958 -2.6477 0.1490 0 7
10.3888 14.1649 -2.6477 0.1490 0 7
10.1594 14.3302 -2.6477 0.1490 0 7
9.9275 14.4919 -2.6477 0.1490 0 7
9.6929 14.6498 -2.6477 0.1490 0 7
9.4559 14.8039 -2.6477 0.1490 0 7
9.2164 14.9542 -2.6477 0.1490 0 7
8.9745 15.1006 -2.6477 0.1490 0 7
8.7303 15.2431 -2.6477 0.1490 0 7
8.4838 15.3816 -2.6477 0.1490 0 7
8.2351 15.5162 -2.6477 0.1490 0 7
7.9843 15.6467 -2.6477 0.1490 0 7
7.7314 15.7732 -2.6477 0.1490 0 7
7.4765 15.8956 -2.6477 0.1490 0 7
7.2197 16.0139 -2.6477 0.1490 0 7
6.9610 16.1280 -2.6477 0.1490 0 7
6.7005 16.2380 -2.6477 0.1490 0 7
6.4383 16.3437 -2.6477 0.1490 0 7
6.1744 16.4452 -2.6477 0.1490 0 7
5.9089 16.5425 -2.6477 0.1490 0 7
5.6419 16.6355 -2.6477 0.1490 0 7
5.3734 16.7241 -2.6477 0.1490 0 7
5.1035 16.8084 -2.6477 0.1490 0 7
4.8323 16.8884 -2.6477 0.1490 0 7
4.5599 16.9640 -2.6477 0.1490 0 7
4.2863 17.0352 -2.6477 0.1490 0 7
4.0115 17.1020 -2.6477 0.1490 0 7
3.7357 17.1643 -2.6477 0.1490 0 7
3.4590 17.2222 -2.6477 0.1490 0 7
3.1813 17.2757 -2.6477 0.1490 0 7
2.9029 17.3246 -2.6477 0.1490 0 7
2.6236 17.3691 -2.6477 0.1490 0 7
2.3437 17.4091 -2.6477 0.1490 0 7
2.0632 17.4446 -2.6477 0.1490 0 7
1.7822 17.4755 -2.6477 0.1490 0 7
1.5007 17.5019 -2.6477 0.1490 0 7
1.2188 17.5238 -2.6477 0.1490 0 7
0.9365 17.5412 -2.6477 0.1490 0 7
0.6541 17.5540 -2.6477 0.1490 0 7
0.3715 17.5622 -2.6477 0.1490 0 7
0.0888 17.5659 -2.6477 0.1490 0 7
-0.1940 17.5651 -2.6477 0.1490 0 7
-0.4767 17.5597 -2.6477 0.1490 0 7
-0.7593 17.5497 -2.6477 0.1490 0 7
-1.0416 17.5352 -2.6477 0.1490 0 7
-1.3237 17.5162 -2.6477 0.1490 0 7
-1.6055 17.4926 -2.6477 0.1490 0 7
-1.8868 17.4645 -2.6477 0.1490 0 7
-2.1677 17.4319 -2.6477 0.1490 0 7
-2.4480 17.3947 -2.6477 0.1490 0 7
-2.7276 17.3531 -2.6477 0.1490 0 7
-3.0066 17.3069 -2.6477 0.1490 0 7
-3.2848 17.2563 -2.6477 0.1490 0 7
-3.5621 17.2012 -2.6477 0.1490 0 7
-3.8385 17.1416 -2.6477 0.1490 0 7
-4.1139 17.0776 -2.6477 0.1490 0 7
-4.3882 17.0092 -2.6477 0.1490 0 7
-4.6614 16.9364 -2.6477 0.1490 0 7
-4.9334 16.8591 -2.6477 0.1490 0 7
-5.2042 16.7775 -2.6477 0.1490 0 7
-5.4735 16.6916 -2.6477 0.1490 0 7
-5.7415 16.6014 -2.6477 0.1490 0 7
-6.0079 16.5068 -2.6477 0.1490 0 7
-6.2728 16.4080 -2.6477 0.1490 0 7
-6.5361 16.3049 -2.6477 0.1490 0 7
-6.7977 16.1976 -2.6477 0.1490 0 7
-7.0575 16.0860 -2.6477 0.1490 0 7
-7.3155 15.9704 -2.6477 0.1490 0 7
-7.5716 15.8506 -2.6477 0.1490 0 7
-7.8258 15.7266 -2.6477 0.1490 0 7
-8.0779 15.5986 -2.6477 0.1490 0 7
12.0413 11.4662 -2.6477 0.1573 0 6
11.8552 11.6585 -2.6477 0.1573 0 7
11.6660 11.8478 -2.6477 0.1573 0 7
11.4738 12.0340 -2.6477 0.1573 0 7
11.2787 12.2171 -2.6477 0.1573 0 7
11.0806 12.3971 -2.6477 0.1573 0 7
10.8796 12.5738 -2.6477 0.1573 0 7
10.6758 12.7473 -2.6477 0.1573 0 7
10.4692 12.9175 -2.6477 0.1573 0 7
10.2600 13.0843 -2.6477 0.1573 0 7
10.0480 13.2478 -2.6477 0.1573 0 7
9.8335 13.4078 -2.6477 0.1573 0 7
9.6164 13.5643 -2.6477 0.1573 0 7
9.3969 13.7174 -2.6477 0.1573 0 7
9.1749 13.8668 -2.6477 0.1573 0 7
8.9505 14.0127 -2.6477 0.1573 0 7
8.7238 14.1549 -2.6477 0.1573 0 7
8.4948 14.2935 -2.6477 0.1573 0 7
8.2636 14.4284 -2.6477 0.1573 0 7
8.0303 14.5595 -2.6477 0.1573 0 7
7.7950 14.6869 -2.6477 0.1573 0 7
7.5576 14.8105 -2.6477 0.1573 0 7
7.3182 14.9302 -2.6477 0.1573 0 6
7.0769 15.0461 -2.6477 0.1573 0 7
6.8338 15.1580 -2.6477 0.1573 0 7
6.5890 15.2660 -2.6477 0.1573 0 7
6.3424 15.3701 -2.6477 0.1573 0 7
6.0942 15.4702 -2.6477 0.1573 0 7
5.8444 15.5663 -2.6477 0.1573 0 7
5.5931 15.6583 -2.6477 0.1573 0 7
5.3404 15.7463 -2.6477 0.1573 0 7
5.0862 15.8303 -2.6477 0.1573 0 7
4.8308 15.9101 -2.6477 0.1573 0 7
4.5741 15.9858 -2.6477 0.1573 0 7
4.3162 16.0573 -2.6477 0.1573 0 7
4.0572 16.1247 -2.6477 0.1573 0 7
3.7971 16.1879 -2.6477 0.1573 0 7
3.5361 16.2469 -2.6477 0.1573 0 7
3.2741 16.3017 -2.6477 0.1573 0 7
3.0113 16.3523 -2.6477 0.1573 0 7
2.7477 16.3987 -2.6477 0.1573 0 7
2.4834 16.4408 -2.6477 0.1573 0 7
2.2185 16.4786 -2.6477 0.1573 0 7
1.9529 16.5122 -2.6477 0.1573 0 7
1.6869 16.5415 -2.6477 0.1573 0 7
1.4205 16.5665 -2.6477 0.1573 0 7
1.1536 16.5872 -2.6477 0.1573 0 7
0.8865 16.6036 -2.6477 0.1573 0 7
0.6191 16.6158 -2.6477 0.1573 0 7
0.3516 16.6236 -2.6477 0.1573 0 7
0.0840 16.6271 -2.6477 0.1573 0 7
-0.1836 16.6263 -2.6477 0.1573 0 7
-0.4512 16.6212 -2.6477 0.1573 0 7
-0.7187 16.6117 -2.6477 0.1573 0 7
-0.9860 16.5980 -2.6477 0.1573 0 7
-1.2530 16.5800 -2.6477 0.1573 0 7
-1.5197 16.5577 -2.6477 0.1573 0 7
-1.7860 16.5311 -2.6477 0.1573 0 7
-2.0518 16.5002 -2.6477 0.1573 0 7
-2.3171 16.4650 -2.6477 0.1573 0 7
-2.5819 16.4256 -2.6477 0.1573 0 7
-2.8459 16.3819 -2.6477 0.1573 0 7
-3.1092 16.3340 -2.6477 0.1573 0 7
-3.3717 16.2818 -2.6477 0.1573 0 7
-3.6333 16.2255 -2.6477 0.1573 0 7
-3.8940 16.1649 -2.6477 0.1573 0 7
-4.1537 16.1001 -2.6477 0.1573 0 7
-4.4123 16.0312 -2.6477 0.1573 0 7
-4.6698 15.9581 -2.6477 0.1573 0 7
-4.9260 15.8808 -2.6477 0.1573 0 7
-5.1810 15.7995 -2.6477 0.1573 0 7
-5.4346 15.7141 -2.6477 0.1573 0 7
-5.6868 15.6246 -2.6477 0.1573 0 7
-5.9376 15.5310 -2.6477 0.1573 0 7
-6.1868 15.4334 -2.6477 0.1573 0 7
-6.4344 15.3318 -2.6477 0.1573 0 7
-6.6803 15.2263 -2.6477 0.1573 0 7
-6.9245 15.1168 -2.6477 0.1573 0 7
-7.1669 15.0034 -2.6477 0.1573 0 7
-7.4075 14.8861 -2.6477 0.1573 0 6
-7.6461 14.7649 -2.6477 0.1573 0 7
11.4289 10.8830 -2.6477 0.1655 0 7
11.2522 11.0655 -2.6477 0.1655 0 7
11.0727 11.2452 -2.6477 0.1655 0 7
10.8903 11.4219 -2.6477 0.1655 0 6
10.7050 11.5957 -2.6477 0.1655 0 7
10.5170 11.7665 -2.6477 0.1655 0 7
10.3262 11.9343 -2.6477 0.1655 0 7
10.1328 12.0990 -2.6477 0.1655 0 7
9.9367 12.2605 -2.6477 0.1655 0 7
9.7381 12.4188 -2.6477 0.1655 0 7
9.5370 12.5740 -2.6477 0.1655 0 7
9.3333 12.7258 -2.6477 0.1655 0 7
9.1273 12.8744 -2.6477 0.1655 0 7
8.9189 13.0196 -2.6477 0.1655 0 7
8.7082 13.1615 -2.6477 0.1655 0 7
8.4952 13.3000 -2.6477 0.1655 0 7
8.2801 13.4350 -2.6477 0.1655 0 7
8.0627 13.5665 -2.6477 0.1655 0 7
7.8433 13.6945 -2.6477 0.1655 0 7
7.6219 13.8190 -2.6477 0.1655 0 7
7.3985 13.9399 -2.6477 0.1655 0 7
7.1732 14.0572 -2.6477 0.1655 0 7
6.9460 14.1708 -2.6477 0.1655 0 7
6.7170 14.2808 -2.6477 0.1655 0 7
6.4863 14.3870 -2.6477 0.1655 0 7
6.2539 14.4896 -2.6477 0.1655 0 7
6.0198 14.5883 -2.6477 0.1655 0 7
5.7842 14.6833 -2.6477 0.1655 0 7
5.5472 14.7745 -2.6477 0.1655 0 7
5.3086 14.8619 -2.6477 0.1655 0 7
5.0687 14.9454 -2.6477 0.1655 0 7
4.8275 15.0251 -2.6477 0.1655 0 7
4.5851 15.1008 -2.6477 0.1655 0 7
4.3414 15.1727 -2.6477 0.1655 0 7
4.0967 15.2406 -2.6477 0.1655 0 7
3.8508 15.3046 -2.6477 0.1655 0 7
3.6040 15.3645 -2.6477 0.1655 0 7
3.3562 15.4206 -2.6477 0.1655 0 7
3.1076 15.4726 -2.6477 0.1655 0 7
2.8581 15.5206 -2.6477 0.1655 0 7
2.6080 15.5646 -2.6477 0.1655 0 7
2.3571 15.6046 -2.6477 0.1655 0 7
2.1056 15.6405 -2.6477 0.1655 0 7
1.8536 15.6723 -2.6477 0.1655 0 7
1.6011 15.7001 -2.6477 0.1655 0 7
1.3482 15.7239 -2.6477 0.1655 0 7
1.0949 15.7435 -2.6477 0.1655 0 7
0.8414 15.7591 -2.6477 0.1655 0 7
0.5876 15.7706 -2.6477 0.1655 0 7
0.3337 15.7780 -2.6477 0.1655 0 7
0.0797 15.7814 -2.6477 0.1655 0 7
-0.1743 15.7806 -2.6477 0.1655 0 7
-0.4283 15.7758 -2.6477 0.1655 0 7
-0.6821 15.7668 -2.6477 0.1655 0 7
-0.9358 15.7538 -2.6477 0.1655 0 7
-1.1892 15.7367 -2.6477 0.1655 0 7
-1.4424 15.7155 -2.6477 0.1655 0 7
-1.6951 15.6903 -2.6477 0.1655 0 7
-1.9475 15.6610 -2.6477 0.1655 0 7
-2.1993 15.6276 -2.6477 0.1655 0 7
-2.4505 15.5902 -2.6477 0.1655 0 7
-2.7011 15.5487 -2.6477 0.1655 0 7
-2.9511 15.5032 -2.6477 0.1655 0 7
-3.2002 15.4537 -2.6477 0.1655 0 7
-3.4485 15.4002 -2.6477 0.1655 0 7
-3.6960 15.3427 -2.6477 0.1655 0 7
-3.9424 15.2812 -2.6477 0.1655 0 7
-4.1879 15.2158 -2.6477 0.1655 0 7
-4.4322 15.1464 -2.6477 0.1655 0 7
-4.6755 15.0731 -2.6477 0.1655 0 7
-4.9175 14.9959 -2.6477 0.1655 0 7
-5.1582 14.9148 -2.6477 0.1655 0 7
-5.3976 14.8298 -2.6477 0.1655 0 7
-5.6356 14.7410 -2.6477 0.1655 0 7
-5.8721 14.6484 -2.6477 0.1655 0 7
-6.1071 14.5520 -2.6477 0.1655 0 7
-6.3405 14.4518 -2.6477 0.1655 0 7
-6.5723 14.3479 -2.6477 0.1655 0 7
-6.8024 14.2403 -2.6477 0.1655 0 7
-7.0307 14.1289 -2.6477 0.1655 0 7
-7.2572 14.0139 -2.6477 0.1655 0 7
10.8742 10.3548 -2.6477 0.1736 0 7
10.7062 10.5285 -2.6477 0.1736 0 7
10.5353 10.6994 -2.6477 0.1736 0 7
10.3617 10.8676 -2.6477 0.1736 0 7
10.1855 11.0330 -2.6477 0.1736 0 7
10.0066 11.1955 -2.6477 0.1736 0 7
9.8251 11.3551 -2.6477 0.1736 0 7
9.6411 11.5118 -2.6477 0.1736 0 6
9.4545 11.6655 -2.6477 0.1736 0 7
9.2655 11.8161 -2.6477 0.1736 0 7
9.0741 11.9637 -2.6477 0.1736 0 7
8.8804 12.1082 -2.6477 0.1736 0 7
8.6844 12.2496 -2.6477 0.1736 0 7
8.4861 12.3878 -2.6477 0.1736 0 7
8.2856 12.5228 -2.6477 0.1736 0 7
8.0830 12.6545 -2.6477 0.1736 0 7
7.8782 12.7830 -2.6477 0.1736 0 7
7.6715 12.9081 -2.6477 0.1736 0 7
7.4627 13.0299 -2.6477 0.1736 0 7
7.2520 13.1484 -2.6477 0.1736 0 7
7.0394 13.2634 -2.6477 0.1736 0 7
6.8250 13.3750 -2.6477 0.1736 0 7
6.6089 13.4831 -2.6477 0.1736 0 7
6.3910 13.5877 -2.6477 0.1736 0 7
6.1715 13.6888 -2.6477 0.1736 0 7
5.9503 13.7864 -2.6477 0.1736 0 7
5.7277 13.8804 -2.6477 0.1736 0 7
5.5035 13.9708 -2.6477 0.1736 0 7
5.2780 14.0575 -2.6477 0.1736 0 7
5.0510 14.1407 -2.6477 0.1736 0 7
4.8228 14.2201 -2.6477 0.1736 0 7
4.5933 14.2959 -2.6477 0.1736 0 7
4.3626 14.3680 -2.6477 0.1736 0 7
4.1307 14.4363 -2.6477 0.1736 0 7
3.8978 14.5010 -2.6477 0.1736 0 7
3.6639 14.5618 -2.6477 0.1736 0 7
3.4291 14.6189 -2.6477 0.1736 0 7
3.1933 14.6722 -2.6477 0.1736 0 7
2.9568 14.7217 -2.6477 0.1736 0 7
2.7194 14.7674 -2.6477 0.1736 0 7
2.4814 14.8092 -2.6477 0.1736 0 7
2.2427 14.8473 -2.6477 0.1736 0 7
2.0034 14.8814 -2.6477 0.1736 0 7
1.7637 14.9118 -2.6477 0.1736 0 7
1.5234 14.9382 -2.6477 0.1736 0 7
1.2828 14.9608 -2.6477 0.1736 0 7
1.0418 14.9795 -2.6477 0.1736 0 7
0.8006 14.9943 -2.6477 0.1736 0 7
0.5591 15.0053 -2.6477 0.1736 0 7
0.3175 15.0123 -2.6477 0.1736 0 7
0.0759 15.0155 -2.6477 0.1736 0 7
-0.1658 15.0148 -2.6477 0.1736 0 7
-0.4075 15.0102 -2.6477 0.1736 0 7
-0.6490 15.0017 -2.6477 0.1736 0 7
-0.8904 14.9893 -2.6477 0.1736 0 6
-1.1315 14.9730 -2.6477 0.1736 0 6
-1.3724 14.9528 -2.6477 0.1736 0 6
-1.6129 14.9288 -2.6477 0.1736 0 6
-1.8531 14.9009 -2.6477 0.1736 0 7
-2.0925 14.8692 -2.6477 0.1736 0 7
-2.3316 14.8336 -2.6477 0.1736 0 7
-2.5701 14.7941 -2.6477 0.1736 0 7
-2.8078 14.7508 -2.6477 0.1736 0 7
-3.0449 14.7037 -2.6477 0.1736 0 7
-3.2812 14.6528 -2.6477 0.1736 0 7
-3.5166 14.5981 -2.6477 0.1736 0 7
-3.7511 14.5396 -2.6477 0.1736 0 7
-3.9846 14.4773 -2.6477 0.1736 0 7
-4.2171 14.4113 -2.6477 0.1736 0 7
-4.4486 14.3416 -2.6477 0.1736 0 7
-4.6788 14.2681 -2.6477 0.1736 0 7
-4.9079 14.1910 -2.6477 0.1736 0 7
-5.1356 14.1101 -2.6477 0.1736 0 7
-5.3621 14.0257 -2.6477 0.1736 0 7
-5.5871 13.9375 -2.6477 0.1736 0 7
-5.8107 13.8458 -2.6477 0.1736 0 7
-6.0328 13.7505 -2.6477 0.1736 0 7
-6.2534 13.6516 -2.6477 0.1736 0 7
-6.4723 13.5492 -2.6477 0.1736 0 7
-6.6895 13.4433 -2.6477 0.1736 0 7
-6.9050 13.3338 -2.6477 0.1736 0 7
10.3695 9.8742 -2.6477 0.1818 0 7
10.2093 10.0398 -2.6477 0.1818 0 7
10.0463 10.2029 -2.6477 0.1818 0 7
9.8808 10.3632 -2.6477 0.1818 0 7
9.7127 10.5209 -2.6477 0.1818 0 7
9.5421 10.6759 -2.6477 0.1818 0 7
9.3691 10.8281 -2.6477 0.1818 0 7
9.1936 10.9775 -2.6477 0.1818 0 7
9.0157 11.1240 -2.6477 0.1818 0 7
8.8355 11.2677 -2.6477 0.1818 0 7
8.6530 11.4085 -2.6477 0.1818 0 6
8.4682 11.5463 -2.6477 0.1818 0 7
8.2813 11.6811 -2.6477 0.1818 0 7
8.0922 11.8128 -2.6477 0.1818 0 7
7.9010 11.9416 -2.6477 0.1818 0 7
7.7078 12.0672 -2.6477 0.1818 0 7
7.5126 12.1897 -2.6477 0.1818 0 7
7.3154 12.3090 -2.6477 0.1818 0 7
7.1163 12.4252 -2.6477 0.1818 0 7
6.9154 12.5381 -2.6477 0.1818 0 7
6.7127 12.6478 -2.6477 0.1818 0 7
6.5083 12.7542 -2.6477 0.1818 0 7
6.3021 12.8573 -2.6477 0.1818 0 7
6.0944 12.9571 -2.6477 0.1818 0 7
5.8850 13.0535 -2.6477 0.1818 0 7
5.6742 13.1465 -2.6477 0.1818 0 7
5.4618 13.2361 -2.6477 0.1818 0 7
5.2481 13.3223 -2.6477 0.1818 0 7
5.0330 13.4051 -2.6477 0.1818 0 7
4.8166 13.4843 -2.6477 0.1818 0 7
4.5989 13.5601 -2.6477 0.1818 0 7
4.3801 13.6324 -2.6477 0.1818 0 7
4.1601 13.7011 -2.6477 0.1818 0 7
3.9390 13.7663 -2.6477 0.1818 0 7
3.7169 13.8279 -2.6477 0.1818 0 7
3.4939 13.8860 -2.6477 0.1818 0 7
3.2699 13.9404 -2.6477 0.1818 0 7
3.0451 13.9912 -2.6477 0.1818 0 7
2.8195 14.0384 -2.6477 0.1818 0 7
2.5932 14.0820 -2.6477 0.1818 0 7
2.3662 14.1219 -2.6477 0.1818 0 7
2.1386 14.1582 -2.6477 0.1818 0 7
1.9104 14.1907 -2.6477 0.1818 0 7
1.6818 14.2197 -2.6477 0.1818 0 7
1.4527 14.2449 -2.6477 0.1818 0 7
1.2232 14.2664 -2.6477 0.1818 0 7
0.9935 14.2843 -2.6477 0.1818 0 7
0.7634 14.2984 -2.6477 0.1818 0 7
0.5332 14.3088 -2.6477 0.1818 0 7
0.3028 14.3156 -2.6477 0.1818 0 7
0.0723 14.3186 -2.6477 0.1818 0 7
-0.1581 14.3179 -2.6477 0.1818 0 7
-0.3886 14.3135 -2.6477 0.1818 0 7
-0.6189 14.3054 -2.6477 0.1818 0 7
-0.8491 14.2936 -2.6477 0.1818 0 7
-1.0790 14.2781 -2.6477 0.1818 0 7
-1.3087 14.2588 -2.6477 0.1818 0 7
-1.5380 14.2359 -2.6477 0.1818 0 7
-1.7670 14.2093 -2.6477 0.1818 0 7
-1.9954 14.1790 -2.6477 0.1818 0 7
-2.2234 14.1451 -2.6477 0.1818 0 7
-2.4508 14.1075 -2.6477 0.1818 0 7
-2.6775 14.0662 -2.6477 0.1818 0 7
-2.9036 14.0213 -2.6477 0.1818 0 7
-3.1289 13.9727 -2.6477 0.1818 0 7
-3.3534 13.9206 -2.6477 0.1818 0 7
-3.5770 13.8648 -2.6477 0.1818 0 7
-3.7997 13.8054 -2.6477 0.1818 0 7
-4.0214 13.7425 -2.6477 0.1818 0 7
-4.2421 13.6760 -2.6477 0.1818 0 7
-4.4617 13.6059 -2.6477 0.1818 0 7
-4.6801 13.5323 -2.6477 0.1818 0 7
-4.8973 13.4552 -2.6477 0.1818 0 7
-5.1132 13.3747 -2.6477 0.1818 0 7
-5.3278 13.2907 -2.6477 0.1818 0 7
-5.5410 13.2032 -2.6477 0.1818 0 7
-5.7528 13.1123 -2.6477 0.1818 0 7
-5.9631 13.0180 -2.6477 0.1818 0 7
-6.1719 12.9203 -2.6477 0.1818 0 7
-6.3791 12.8193 -2.6477 0.1818 0 7
-6.5846 12.7150 -2.6477 0.1818 0 7
9.9082 9.4349 -2.6477 0.1900 0 7
9.7551 9.5932 -2.6477 0.1900 0 7
9.5994 9.7490 -2.6477 0.1900 0 7
9.4413 9.9022 -2.6477 0.1900 0 7
9.2807 10.0529 -2.6477 0.1900 0 7
9.1177 10.2010 -2.6477 0.1900 0 7
8.9523 10.3464 -2.6477 0.1900 0 7
8.7846 10.4892 -2.6477 0.1900 0 7
8.6146 10.6292 -2.6477 0.1900 0 7
8.4424 10.7665 -2.6477 0.1900 0 7
8.2680 10.9010 -2.6477 0.1900 0 7
8.0915 11.0326 -2.6477 0.1900 0 7
7.9129 11.1614 -2.6477 0.1900 0 7
7.7322 11.2873 -2.6477 0.1900 0 7
7.5495 11.4103 -2.6477 0.1900 0 6
7.3649 11.5304 -2.6477 0.1900 0 7
7.1784 11.6474 -2.6477 0.1900 0 7
6.9900 11.7614 -2.6477 0.1900 0 7
6.7998 11.8724 -2.6477 0.1900 0 7
6.6078 11.9803 -2.6477 0.1900 0 7
6.4141 12.0851 -2.6477 0.1900 0 7
6.2187 12.1868 -2.6477 0.1900 0 7
6.0218 12.2853 -2.6477 0.1900 0 7
5.8233 12.3807 -2.6477 0.1900 0 7
5.6232 12.4728 -2.6477 0.1900 0 7
5.4218 12.5617 -2.6477 0.1900 0 7
5.2189 12.6473 -2.6477 0.1900 0 7
5.0146 12.7297 -2.6477 0.1900 0 7
4.8091 12.8087 -2.6477 0.1900 0 7
4.6023 12.8845 -2.6477 0.1900 0 7
4.3943 12.9569 -2.6477 0.1900 0 7
4.1852 13.0259 -2.6477 0.1900 0 7
3.9750 13.0916 -2.6477 0.1900 0 7
3.7638 13.1539 -2.6477 0.1900 0 7
3.5516 13.2128 -2.6477 0.1900 0 7
3.3385 13.2682 -2.6477 0.1900 0 7
3.1245 13.3202 -2.6477 0.1900 0 7
2.9097 13.3688 -2.6477 0.1900 0 7
2.6941 13.4139 -2.6477 0.1900 0 7
2.4779 13.4555 -2.6477 0.1900 0 7
2.2610 13.4937 -2.6477 0.1900 0 7
2.0435 13.5283 -2.6477 0.1900 0 7
1.8255 13.5595 -2.6477 0.1900 0 7
1.6070 13.5871 -2.6477 0.1900 0 7
1.3881 13.6112 -2.6477 0.1900 0 7
1.1688 13.6318 -2.6477 0.1900 0 7
0.9493 13.6488 -2.6477 0.1900 0 7
0.7295 13.6623 -2.6477 0.1900 0 7
0.5095 13.6723 -2.6477 0.1900 0 7
0.2893 13.6787 -2.6477 0.1900 0 7
0.0691 13.6816 -2.6477 0.1900 0 7
-0.1511 13.6810 -2.6477 0.1900 0 7
-0.3713 13.6767 -2.6477 0.1900 0 7
-0.5914 13.6690 -2.6477 0.1900 0 7
-0.8113 13.6577 -2.6477 0.1900 0 7
-1.0310 13.6429 -2.6477 0.1900 0 7
-1.2505 13.6245 -2.6477 0.1900 0 7
-1.4696 13.6026 -2.6477 0.1900 0 7
-1.6883 13.5772 -2.6477 0.1900 0 7
-1.9067 13.5483 -2.6477 0.1900 0 7
-2.1245 13.5158 -2.6477 0.1900 0 7
-2.3418 13.4799 -2.6477 0.1900 0 7
-2.5584 13.4405 -2.6477 0.1900 0 7
-2.7744 13.3975 -2.6477 0.1900 0 7
-2.9897 13.3511 -2.6477 0.1900 0 7
-3.2042 13.3013 -2.6477 0.1900 0 7
-3.4179 13.2480 -2.6477 0.1900 0 7
-3.6307 13.1913 -2.6477 0.1900 0 7
-3.8425 13.1311 -2.6477 0.1900 0 7
-4.0534 13.0676 -2.6477 0.1900 0 7
-4.2632 13.0006 -2.6477 0.1900 0 7
-4.4719 12.9303 -2.6477 0.1900 0 7
-4.6794 12.8567 -2.6477 0.1900 0 7
-4.8857 12.7797 -2.6477 0.1900 0 7
-5.0908 12.6994 -2.6477 0.1900 0 7
-5.2945 12.6158 -2.6477 0.1900 0 7
-5.4969 12.5290 -2.6477 0.1900 0 7
-5.6979 12.4389 -2.6477 0.1900 0 7
-5.8973 12.3456 -2.6477 0.1900 0 7
-6.0953 12.2490 -2.6477 0.1900 0 7
-6.2916 12.1493 -2.6477 0.1900 0 7
9.4849 9.0319 -2.6477 0.1981 0 7
9.3383 9.1834 -2.6477 0.1981 0 7
9.1893 9.3325 -2.6477 0.1981 0 7
9.0379 9.4792 -2.6477 0.1981 0 7
8.8842 9.6234 -2.6477 0.1981 0 7
8.7281 9.7652 -2.6477 0.1981 0 7
8.5698 9.9044 -2.6477 0.1981 0 7
8.4093 10.0410 -2.6477 0.1981 0 7
8.2466 10.1751 -2.6477 0.1981 0 7
8.0817 10.3065 -2.6477 0.1981 0 7
7.9148 10.4352 -2.6477 0.1981 0 7
7.7458 10.5613 -2.6477 0.1981 0 7
7.5748 10.6846 -2.6477 0.1981 0 7
7.4019 10.8051 -2.6477 0.1981 0 7
7.2270 10.9229 -2.6477 0.1981 0 7
7.0503 11.0378 -2.6477 0.1981 0 7
6.8717 11.1498 -2.6477 0.1981 0 7
6.6913 11.2590 -2.6477 0.1981 0 7
6.5093 11.3652 -2.6477 0.1981 0 7
6.3255 11.4685 -2.6477 0.1981 0 6
6.1401 11.5688 -2.6477 0.1981 0 7
5.9531 11.6662 -2.6477 0.1981 0 7
5.7645 11.7605 -2.6477 0.1981 0 7
5.5745 11.8517 -2.6477 0.1981 0 7
5.3830 11.9399 -2.6477 0.1981 0 7
5.1901 12.0250 -2.6477 0.1981 0 7
4.9959 12.1070 -2.6477 0.1981 0 7
4.8004 12.1858 -2.6477 0.1981 0 7
4.6036 12.2615 -2.6477 0.1981 0 7
4.4057 12.3340 -2.6477 0.1981 0 7
4.2066 12.4034 -2.6477 0.1981 0 7
4.0064 12.4695 -2.6477 0.1981 0 7
3.8052 12.5323 -2.6477 0.1981 0 7
3.6030 12.5919 -2.6477 0.1981 0 7
3.3998 12.6483 -2.6477 0.1981 0 7
3.1958 12.7014 -2.6477 0.1981 0 7
2.9910 12.7512 -2.6477 0.1981 0 7
2.7854 12.7977 -2.6477 0.1981 0 7
2.5790 12.8408 -2.6477 0.1981 0 7
2.3720 12.8807 -2.6477 0.1981 0 7
2.1644 12.9172 -2.6477 0.1981 0 7
1.9562 12.9504 -2.6477 0.1981 0 7
1.7475 12.9802 -2.6477 0.1981 0 7
1.5383 13.0066 -2.6477 0.1981 0 7
1.3288 13.0297 -2.6477 0.1981 0 7
1.1189 13.0494 -2.6477 0.1981 0 7
0.9087 13.0657 -2.6477 0.1981 0 7
0.6983 13.0786 -2.6477 0.1981 0 7
0.4877 13.0882 -2.6477 0.1981 0 7
0.2770 13.0943 -2.6477 0.1981 0 7
0.0662 13.0971 -2.6477 0.1981 0 7
-0.1446 13.0965 -2.6477 0.1981 0 7
-0.3554 13.0924 -2.6477 0.1981 0 7
-0.5661 13.0850 -2.6477 0.1981 0 7
-0.7766 13.0742 -2.6477 0.1981 0 7
-0.9870 13.0600 -2.6477 0.1981 0 7
-1.1970 13.0425 -2.6477 0.1981 0 7
-1.4068 13.0215 -2.6477 0.1981 0 7
-1.6162 12.9972 -2.6477 0.1981 0 7
-1.8252 12.9695 -2.6477 0.1981 0 7
-2.0337 12.9384 -2.6477 0.1981 0 7
-2.2417 12.9040 -2.6477 0.1981 0 7
-2.4491 12.8663 -2.6477 0.1981 0 7
-2.6559 12.8252 -2.6477 0.1981 0 7
-2.8620 12.7808 -2.6477 0.1981 0 7
-3.0673 12.7330 -2.6477 0.1981 0 7
-3.2719 12.6820 -2.6477 0.1981 0 7
-3.4756 12.6277 -2.6477 0.1981 0 7
-3.6784 12.5701 -2.6477 0.1981 0 7
-3.8802 12.5093 -2.6477 0.1981 0 7
-4.0810 12.4452 -2.6477 0.1981 0 7
-4.2808 12.3779 -2.6477 0.1981 0 7
-4.4795 12.3074 -2.6477 0.1981 0 7
-4.6770 12.2337 -2.6477 0.1981 0 7
-4.8733 12.1569 -2.6477 0.1981 0 7
-5.0683 12.0769 -2.6477 0.1981 0 7
-5.2621 11.9937 -2.6477 0.1981 0 7
-5.4544 11.9075 -2.6477 0.1981 0 7
-5.6454 11.8181 -2.6477 0.1981 0 7
-5.8349 11.7257 -2.6477 0.1981 0 7
-6.0228 11.6303 -2.6477 0.1981 0 7
8.5716 8.1621 -2.4953 0.2063 0 8
8.4391 8.2990 -2.4953 0.2063 0 8
8.3044 8.4338 -2.4953 0.2063 0 8
8.6664 9.0895 -2.6477 0.2063 0 7
8.5190 9.2279 -2.6477 0.2063 0 7
8.3694 9.3638 -2.6477 0.2063 0 7
8.2176 9.4973 -2.6477 0.2063 0 7
8.0636 9.6283 -2.6477 0.2063 0 7
7.9076 9.7569 -2.6477 0.2063 0 7
7.7496 9.8829 -2.6477 0.2063 0 7
7.5895 10.0063 -2.6477 0.2063 0 7
7.4274 10.1272 -2.6477 0.2063 0 7
7.2635 10.2454 -2.6477 0.2063 0 7
7.0976 10.3610 -2.6477 0.2063 0 7
6.9300 10.4739 -2.6477 0.2063 0 7
6.7605 10.5841 -2.6477 0.2063 0 7
6.5892 10.6915 -2.6477 0.2063 0 7
6.4163 10.7962 -2.6477 0.2063 0 7
6.2417 10.8981 -2.6477 0.2063 0 7
6.0655 10.9971 -2.6477 0.2063 0 7
5.8877 11.0933 -2.6477 0.2063 0 7
5.7084 11.1867 -2.6477 0.2063 0 7
5.5276 11.2771 -2.6477 0.2063 0 7
5.3454 11.3646 -2.6477 0.2063 0 7
5.1617 11.4492 -2.6477 0.2063 0 6
4.9768 11.5308 -2.6477 0.2063 0 7
4.7906 11.6094 -2.6477 0.2063 0 7
4.6031 11.6850 -2.6477 0.2063 0 7
4.4144 11.7575 -2.6477 0.2063 0 7
4.2246 11.8271 -2.6477 0.2063 0 7
4.0337 11.8935 -2.6477 0.2063 0 7
3.8417 11.9569 -2.6477 0.2063 0 7
3.6488 12.0172 -2.6477 0.2063 0 7
3.4549 12.0744 -2.6477 0.2063 0 7
3.2601 12.1284 -2.6477 0.2063 0 7
3.0645 12.1793 -2.6477 0.2063 0 7
2.8680 12.2271 -2.6477 0.2063 0 7
2.6709 12.2716 -2.6477 0.2063 0 7
2.4730 12.3130 -2.6477 0.2063 0 7
2.2745 12.3513 -2.6477 0.2063 0 7
2.0754 12.3863 -2.6477 0.2063 0 7
1.8758 12.4181 -2.6477 0.2063 0 7
1.6756 12.4466 -2.6477 0.2063 0 7
1.4751 12.4720 -2.6477 0.2063 0 7
1.2742 12.4941 -2.6477 0.2063 0 7
1.0729 12.5130 -2.6477 0.2063 0 7
0.8714 12.5287 -2.6477 0.2063 0 7
0.6696 12.5411 -2.6477 0.2063 0 7
0.4677 12.5502 -2.6477 0.2063 0 7
0.2656 12.5561 -2.6477 0.2063 0 7
0.0635 12.5588 -2.6477 0.2063 0 7
-0.1387 12.5582 -2.6477 0.2063 0 7
-0.3408 12.5543 -2.6477 0.2063 0 7
-0.5428 12.5472 -2.6477 0.2063 0 7
-0.7447 12.5368 -2.6477 0.2063 0 7
-0.9464 12.5232 -2.6477 0.2063 0 7
-1.1478 12.5064 -2.6477 0.2063 0 7
-1.3490 12.4863 -2.6477 0.2063 0 7
-1.5498 12.4629 -2.6477 0.2063 0 7
-1.7502 12.4364 -2.6477 0.2063 0 7
-1.9501 12.4066 -2.6477 0.2063 0 7
-2.1496 12.3736 -2.6477 0.2063 0 7
-2.3484 12.3374 -2.6477 0.2063 0 7
-2.5467 12.2980 -2.6477 0.2063 0 7
-2.7443 12.2554 -2.6477 0.2063 0 7
-2.9412 12.2097 -2.6477 0.2063 0 7
-3.1374 12.1607 -2.6477 0.2063 0 7
-3.3327 12.1087 -2.6477 0.2063 0 7
-3.5272 12.0535 -2.6477 0.2063 0 7
-3.7207 11.9951 -2.6477 0.2063 0 7
-3.9133 11.9337 -2.6477 0.2063 0 7
-4.1049 11.8692 -2.6477 0.2063 0 7
-4.2954 11.8016 -2.6477 0.2063 0 7
-4.4848 11.7309 -2.6477 0.2063 0 7
-4.6730 11.6572 -2.6477 0.2063 0 7
-4.8600 11.5805 -2.6477 0.2063 0 7
-5.0458 11.5007 -2.6477 0.2063 0 7
-5.2302 11.4180 -2.6477 0.2063 0 6
-5.4133 11.3324 -2.6477 0.2063 0 7
-5.5950 11.2438 -2.6477 0.2063 0 7
-5.7753 11.1523 -2.6477 0.2063 0 7
8.2320 7.8388 -2.4953 0.2144 0 8
8.1048 7.9703 -2.4953 0.2144 0 8
7.9754 8.0997 -2.4953 0.2144 0 8
7.8440 8.2270 -2.4953 0.2144 0 8
7.7106 8.3522 -2.4953 0.2144 0 8
8.0378 8.9928 -2.6477 0.2144 0 7
7.8920 9.1211 -2.6477 0.2144 0 7
7.7442 9.2469 -2.6477 0.2144 0 7
7.5944 9.3703 -2.6477 0.2144 0 7
7.4426 9.4914 -2.6477 0.2144 0 7
7.2888 9.6099 -2.6477 0.2144 0 7
7.1332 9.7260 -2.6477 0.2144 0 7
6.9757 9.8396 -2.6477 0.2144 0 7
6.8165 9.9506 -2.6477 0.2144 0 7
6.6554 10.0590 -2.6477 0.2144 0 7
6.4927 10.1648 -2.6477 0.2144 0 7
6.3282 10.2680 -2.6477 0.2144 0 7
6.1621 10.3685 -2.6477 0.2144 0 7
5.9944 10.4664 -2.6477 0.2144 0 7
5.8252 10.5615 -2.6477 0.2144 0 7
5.6545 10.6539 -2.6477 0.2144 0 7
5.4822 10.7435 -2.6477 0.2144 0 7
5.3086 10.8303 -2.6477 0.2144 0 7
5.1336 10.9144 -2.6477 0.2144 0 7
4.9573 10.9956 -2.6477 0.2144 0 7
4.7796 11.0740 -2.6477 0.2144 0 7
4.6008 11.1495 -2.6477 0.2144 0 7
4.4207 11.2221 -2.6477 0.2144 0 7
4.2395 11.2918 -2.6477 0.2144 0 7
4.0572 11.3586 -2.6477 0.2144 0 7
3.8739 11.4224 -2.6477 0.2144 0 6
3.6895 11.4833 -2.6477 0.2144 0 6
3.5042 11.5412 -2.6477 0.2144 0 7
3.3180 11.5961 -2.6477 0.2144 0 7
3.1310 11.6480 -2.6477 0.2144 0 7
2.9431 11.6968 -2.6477 0.2144 0 7
2.7544 11.7427 -2.6477 0.2144 0 7
2.5651 11.7855 -2.6477 0.2144 0 7
2.3750 11.8253 -2.6477 0.2144 0 7
2.1844 11.8620 -2.6477 0.2144 0 7
1.9932 11.8956 -2.6477 0.2144 0 7
1.8015 11.9261 -2.6477 0.2144 0 7
1.6093 11.9536 -2.6477 0.2144 0 7
1.4167 11.9779 -2.6477 0.2144 0 7
1.2237 11.9992 -2.6477 0.2144 0 7
1.0304 12.0173 -2.6477 0.2144 0 7
0.8368 12.0324 -2.6477 0.2144 0 7
0.6431 12.0443 -2.6477 0.2144 0 7
0.4491 12.0531 -2.6477 0.2144 0 7
0.2551 12.0587 -2.6477 0.2144 0 7
0.0609 12.0613 -2.6477 0.2144 0 7
-0.1332 12.0607 -2.6477 0.2144 0 7
-0.3273 12.0570 -2.6477 0.2144 0 7
-0.5213 12.0501 -2.6477 0.2144 0 7
-0.7152 12.0402 -2.6477 0.2144 0 7
-0.9089 12.0271 -2.6477 0.2144 0 7
-1.1024 12.0109 -2.6477 0.2144 0 7
-1.2955 11.9916 -2.6477 0.2144 0 7
-1.4884 11.9692 -2.6477 0.2144 0 7
-1.6809 11.9437 -2.6477 0.2144 0 7
-1.8729 11.9151 -2.6477 0.2144 0 7
-2.0644 11.8834 -2.6477 0.2144 0 7
-2.2554 11.8487 -2.6477 0.2144 0 7
-2.4458 11.8108 -2.6477 0.2144 0 7
-2.6356 11.7699 -2.6477 0.2144 0 7
-2.8247 11.7260 -2.6477 0.2144 0 7
-3.0131 11.6790 -2.6477 0.2144 0 7
-3.2007 11.6290 -2.6477 0.2144 0 7
-3.3874 11.5760 -2.6477 0.2144 0 7
-3.5733 11.5200 -2.6477 0.2144 0 7
-3.7583 11.4609 -2.6477 0.2144 0 6
-3.9423 11.3990 -2.6477 0.2144 0 6
-4.1252 11.3340 -2.6477 0.2144 0 7
-4.3071 11.2662 -2.6477 0.2144 0 7
-4.4879 11.1954 -2.6477 0.2144 0 7
-4.6675 11.1217 -2.6477 0.2144 0 7
-4.8459 11.0451 -2.6477 0.2144 0 7
-5.0230 10.9657 -2.6477 0.2144 0 7
-5.1989 10.8834 -2.6477 0.2144 0 7
-5.3734 10.7984 -2.6477 0.2144 0 7
-5.5465 10.7105 -2.6477 0.2144 0 7
7.9172 7.5390 -2.4953 0.2225 0 8
7.7949 7.6655 -2.4953 0.2225 0 8
7.6705 7.7900 -2.4953 0.2225 0 8
7.5441 7.9124 -2.4953 0.2225 0 8
7.4158 8.0328 -2.4953 0.2225 0 8
7.2855 8.1511 -2.4953 0.2225 0 8
7.1534 8.2673 -2.4953 0.2225 0 8
7.0194 8.3814 -2.4953 0.2225 0 8
7.3040 9.0120 -2.6477 0.2225 0 7
7.1580 9.1284 -2.6477 0.2225 0 7
7.0101 9.2425 -2.6477 0.2225 0 7
6.8604 9.3541 -2.6477 0.2225 0 7
6.7090 9.4633 -2.6477 0.2225 0 7
6.5558 9.5701 -2.6477 0.2225 0 7
6.4009 9.6743 -2.6477 0.2225 0 7
6.2444 9.7761 -2.6477 0.2225 0 7
6.0862 9.8754 -2.6477 0.2225 0 7
5.9265 9.9720 -2.6477 0.2225 0 7
5.7652 10.0661 -2.6477 0.2225 0 7
5.6025 10.1576 -2.6477 0.2225 0 7
5.4382 10.2465 -2.6477 0.2225 0 7
5.2726 10.3327 -2.6477 0.2225 0 7
5.1056 10.4162 -2.6477 0.2225 0 7
4.9373 10.4970 -2.6477 0.2225 0 7
4.7677 10.5751 -2.6477 0.2225 0 7
4.5969 10.6505 -2.6477 0.2225 0 7
4.4249 10.7231 -2.6477 0.2225 0 7
4.2517 10.7930 -2.6477 0.2225 0 7
4.0774 10.8600 -2.6477 0.2225 0 7
3.9021 10.9242 -2.6477 0.2225 0 7
3.7258 10.9856 -2.6477 0.2225 0 7
3.5485 11.0442 -2.6477 0.2225 0 7
3.3702 11.0998 -2.6477 0.2225 0 7
3.1912 11.1526 -2.6477 0.2225 0 7
3.0112 11.2026 -2.6477 0.2225 0 7
2.8305 11.2496 -2.6477 0.2225 0 7
2.6491 11.2937 -2.6477 0.2225 0 7
2.4670 11.3348 -2.6477 0.2225 0 7
2.2842 11.3731 -2.6477 0.2225 0 7
2.1009 11.4084 -2.6477 0.2225 0 6
1.9170 11.4407 -2.6477 0.2225 0 6
1.7326 11.4701 -2.6477 0.2225 0 6
1.5477 11.4965 -2.6477 0.2225 0 6
1.3625 11.5199 -2.6477 0.2225 0 7
1.1769 11.5404 -2.6477 0.2225 0 7
0.9910 11.5578 -2.6477 0.2225 0 7
0.8048 11.5723 -2.6477 0.2225 0 7
0.6185 11.5837 -2.6477 0.2225 0 7
0.4319 11.5922 -2.6477 0.2225 0 7
0.2453 11.5976 -2.6477 0.2225 0 7
0.0586 11.6001 -2.6477 0.2225 0 7
-0.1281 11.5995 -2.6477 0.2225 0 7
-0.3148 11.5959 -2.6477 0.2225 0 7
-0.5014 11.5894 -2.6477 0.2225 0 7
-0.6879 11.5798 -2.6477 0.2225 0 7
-0.8741 11.5672 -2.6477 0.2225 0 7
-1.0602 11.5517 -2.6477 0.2225 0 7
-1.2460 11.5331 -2.6477 0.2225 0 7
-1.4315 11.5115 -2.6477 0.2225 0 7
-1.6166 11.4870 -2.6477 0.2225 0 6
-1.8012 11.4595 -2.6477 0.2225 0 6
-1.9854 11.4290 -2.6477 0.2225 0 6
-2.1692 11.3956 -2.6477 0.2225 0 6
-2.3523 11.3592 -2.6477 0.2225 0 7
-2.5348 11.3199 -2.6477 0.2225 0 7
-2.7167 11.2776 -2.6477 0.2225 0 7
-2.8979 11.2324 -2.6477 0.2225 0 7
-3.0783 11.1843 -2.6477 0.2225 0 7
-3.2579 11.1333 -2.6477 0.2225 0 7
