ply
format ascii 1.0
element vertex 1411
property float32 x
property float32 y
property float32 z
property float32 CosAngle
property uint32 ObjIdx
property uint32 ObjTag
end_header
14.0705 -1.5106 -2.4953 0.1736 0 8
8.2062 -0.7478 -1.4530 0.3440 25 10
7.9566 -0.5962 -1.4069 0.3674 25 10
7.8546 -0.4617 -1.3874 0.3586 25 10
7.7996 -0.3327 -1.3765 0.3429 25 10
7.7717 -0.2064 -1.3708 0.3699 25 10
7.7623 -0.0813 -1.3688 0.3704 25 10
7.7593 0.0435 -1.3682 0.3706 25 10
7.7690 0.1685 -1.3702 0.3700 25 10
7.7828 0.2941 -1.3733 0.3520 25 10
7.8393 0.4226 -1.3843 0.3410 25 10
7.8988 0.5533 -1.3962 0.3516 25 10
8.1147 0.6997 -1.4362 0.2675 25 10
14.0777 1.4422 -2.4953 0.1736 0 8
14.0527 1.6684 -2.4953 0.1736 0 8
14.0241 1.8942 -2.4953 0.1736 0 8
13.9918 2.1194 -2.4953 0.1736 0 8
13.9559 2.3441 -2.4953 0.1736 0 8
13.9164 2.5682 -2.4953 0.1736 0 8
13.8733 2.7917 -2.4953 0.1736 0 8
13.8266 3.0144 -2.4953 0.1736 0 8
13.7764 3.2363 -2.4953 0.1736 0 8
13.7225 3.4574 -2.4953 0.1736 0 8
13.6652 3.6776 -2.4953 0.1736 0 8
13.6043 3.8969 -2.4953 0.1736 0 8
13.5399 4.1151 -2.4953 0.1736 0 8
13.4719 4.3323 -2.4953 0.1736 0 8
13.4005 4.5484 -2.4953 0.1736 0 8
13.3257 4.7632 -2.4953 0.1736 0 8
13.2474 4.9769 -2.4953 0.1736 0 8
13.1656 5.1893 -2.4953 0.1736 0 8
13.0805 5.4003 -2.4953 0.1736 0 8
12.9919 5.6099 -2.4953 0.1736 0 8
12.9001 5.8181 -2.4953 0.1736 0 8
12.8048 6.0248 -2.4953 0.1736 0 8
12.7063 6.2299 -2.4953 0.1736 0 8
12.6045 6.4334 -2.4953 0.1736 0 8
12.4994 6.6352 -2.4953 0.1736 0 8
12.3911 6.8354 -2.4953 0.1736 0 8
12.2796 7.0337 -2.4953 0.1736 0 8
12.1649 7.2303 -2.4953 0.1736 0 8
12.0471 7.4249 -2.4953 0.1736 0 8
11.9261 7.6177 -2.4953 0.1736 0 8
11.8021 7.8085 -2.4953 0.1736 0 8
11.6750 7.9972 -2.4953 0.1736 0 8
11.5449 8.1839 -2.4953 0.1736 0 8
11.4118 8.3685 -2.4953 0.1736 0 8
11.9645 9.0732 -2.6477 0.1736 0 7
11.8170 9.2644 -2.6477 0.1736 0 7
11.6665 9.4532 -2.6477 0.1736 0 7
11.5130 9.6396 -2.6477 0.1736 0 7
11.3565 9.8234 -2.6477 0.1736 0 7
11.1971 10.0048 -2.6477 0.1736 0 7
11.0348 10.1835 -2.6477 0.1736 0 7
10.8696 10.3597 -2.6477 0.1736 0 7
10.7016 10.5331 -2.6477 0.1736 0 7
10.5309 10.7038 -2.6477 0.1736 0 7
10.3574 10.8718 -2.6477 0.1736 0 7
12.2742 -5.6078 -2.4953 0.1818 0 8
12.3628 -5.4097 -2.4953 0.1818 0 8
12.4482 -5.2102 -2.4953 0.1818 0 8
12.5304 -5.0093 -2.4953 0.1818 0 8
12.6093 -4.8072 -2.4953 0.1818 0 8
12.6850 -4.6039 -2.4953 0.1818 0 8
12.7573 -4.3993 -2.4953 0.1818 0 8
12.8264 -4.1936 -2.4953 0.1818 0 8
12.8922 -3.9868 -2.4953 0.1818 0 8
12.9546 -3.7790 -2.4953 0.1818 0 8
13.0137 -3.5702 -2.4953 0.1818 0 8
13.0695 -3.3605 -2.4953 0.1818 0 8
13.1218 -3.1499 -2.4953 0.1818 0 8
13.1707 -2.9385 -2.4953 0.1818 0 8
13.2163 -2.7263 -2.4953 0.1818 0 8
13.2584 -2.5135 -2.4953 0.1818 0 8
13.2971 -2.3000 -2.4953 0.1818 0 8
13.3324 -2.0858 -2.4953 0.1818 0 8
13.3642 -1.8712 -2.4953 0.1818 0 8
13.3926 -1.6561 -2.4953 0.1818 0 8
13.4175 -1.4405 -2.4953 0.1818 0 8
8.0248 -0.7312 -1.4900 0.2699 25 10
7.8178 -0.5858 -1.4496 0.3734 25 10
7.7173 -0.4536 -1.4295 0.9148 25 10
7.6750 -0.3274 -1.4205 0.9206 25 10
7.6562 -0.2033 -1.4162 0.9866 25 10
7.6430 -0.0800 -1.4133 0.9886 25 10
7.6390 0.0429 -1.4125 0.9891 25 10
7.6522 0.1660 -1.4153 0.9872 25 10
7.6653 0.2897 -1.4184 0.9850 25 10
7.7045 0.4153 -1.4267 0.9166 25 10
7.7629 0.5438 -1.4389 0.7102 25 10
7.9497 0.6855 -1.4754 0.3669 25 10
8.2434 0.8445 -1.5323 0.3416 25 10
13.4005 1.5910 -2.4953 0.1818 0 8
13.3731 1.8062 -2.4953 0.1818 0 8
13.3424 2.0210 -2.4953 0.1818 0 8
13.3082 2.2353 -2.4953 0.1818 0 8
13.2705 2.4490 -2.4953 0.1818 0 8
13.2294 2.6621 -2.4953 0.1818 0 8
13.1849 2.8745 -2.4953 0.1818 0 8
13.1370 3.0861 -2.4953 0.1818 0 8
13.0856 3.2969 -2.4953 0.1818 0 8
13.0309 3.5069 -2.4953 0.1818 0 8
12.9728 3.7160 -2.4953 0.1818 0 8
12.9114 3.9241 -2.4953 0.1818 0 8
12.8467 4.1312 -2.4953 0.1818 0 8
12.7786 4.3373 -2.4953 0.1818 0 8
12.7072 4.5422 -2.4953 0.1818 0 8
12.6325 4.7459 -2.4953 0.1818 0 8
12.5546 4.9484 -2.4953 0.1818 0 8
12.4734 5.1496 -2.4953 0.1818 0 8
12.3889 5.3495 -2.4953 0.1818 0 8
12.3013 5.5481 -2.4953 0.1818 0 8
12.2105 5.7451 -2.4953 0.1818 0 8
12.1166 5.9407 -2.4953 0.1818 0 8
12.0195 6.1348 -2.4953 0.1818 0 8
11.9193 6.3273 -2.4953 0.1818 0 8
11.8160 6.5181 -2.4953 0.1818 0 8
11.7097 6.7073 -2.4953 0.1818 0 8
11.6003 6.8947 -2.4953 0.1818 0 8
11.4879 7.0803 -2.4953 0.1818 0 8
11.3726 7.2641 -2.4953 0.1818 0 8
11.2543 7.4461 -2.4953 0.1818 0 8
11.1331 7.6261 -2.4953 0.1818 0 8
11.0091 7.8041 -2.4953 0.1818 0 8
10.8822 7.9801 -2.4953 0.1818 0 8
10.7524 8.1540 -2.4953 0.1818 0 8
10.6199 8.3259 -2.4953 0.1818 0 8
11.1251 9.0144 -2.6477 0.1818 0 7
10.9787 9.1922 -2.6477 0.1818 0 7
10.8294 9.3675 -2.6477 0.1818 0 7
10.6774 9.5404 -2.6477 0.1818 0 7
10.5226 9.7109 -2.6477 0.1818 0 7
10.3651 9.8788 -2.6477 0.1818 0 7
10.2049 10.0442 -2.6477 0.1818 0 7
10.0421 10.2070 -2.6477 0.1818 0 7
9.8767 10.3672 -2.6477 0.1818 0 7
11.7282 -5.3583 -2.4953 0.1900 0 8
11.8128 -5.1690 -2.4953 0.1900 0 8
11.8944 -4.9784 -2.4953 0.1900 0 8
11.9729 -4.7865 -2.4953 0.1900 0 8
12.0484 -4.5934 -2.4953 0.1900 0 8
12.1207 -4.3990 -2.4953 0.1900 0 8
12.1898 -4.2036 -2.4953 0.1900 0 8
12.2558 -4.0070 -2.4953 0.1900 0 8
12.3187 -3.8095 -2.4953 0.1900 0 8
12.3783 -3.6109 -2.4953 0.1900 0 8
12.4348 -3.4114 -2.4953 0.1900 0 8
12.4881 -3.2110 -2.4953 0.1900 0 8
12.5381 -3.0098 -2.4953 0.1900 0 8
12.5848 -2.8078 -2.4953 0.1900 0 8
12.6284 -2.6051 -2.4953 0.1900 0 8
12.6686 -2.4017 -2.4953 0.1900 0 8
12.7056 -2.1976 -2.4953 0.1900 0 8
12.7393 -1.9931 -2.4953 0.1900 0 8
12.7697 -1.7880 -2.4953 0.1900 0 8
12.7968 -1.5824 -2.4953 0.1900 0 8
12.8206 -1.3764 -2.4953 0.1900 0 8
7.8670 -0.7169 -1.5287 0.3700 25 10
7.7589 -0.5814 -1.5057 0.7092 25 10
7.6947 -0.4523 -1.4916 0.9161 25 10
7.6541 -0.3265 -1.4826 0.9670 25 10
7.6384 -0.2028 -1.4787 0.9873 25 10
7.6253 -0.0798 -1.4757 0.9893 25 10
7.6225 0.0428 -1.4751 0.9970 25 10
7.6344 0.1656 -1.4777 0.9879 25 10
7.6475 0.2890 -1.4810 0.9858 25 10
7.6820 0.4141 -1.4888 0.9178 25 10
7.7290 0.5414 -1.4994 0.8747 25 10
7.8324 0.6753 -1.5213 0.7019 25 10
8.1716 0.8372 -1.5896 0.1836 25 10
12.8043 1.5202 -2.4953 0.1900 0 8
12.7782 1.7259 -2.4953 0.1900 0 8
12.7488 1.9311 -2.4953 0.1900 0 8
12.7161 2.1359 -2.4953 0.1900 0 8
12.6801 2.3401 -2.4953 0.1900 0 8
12.6409 2.5437 -2.4953 0.1900 0 8
12.5983 2.7466 -2.4953 0.1900 0 8
12.5525 2.9488 -2.4953 0.1900 0 8
12.5035 3.1503 -2.4953 0.1900 0 8
12.4512 3.3509 -2.4953 0.1900 0 8
12.3957 3.5507 -2.4953 0.1900 0 8
12.3370 3.7496 -2.4953 0.1900 0 8
12.2752 3.9474 -2.4953 0.1900 0 8
12.2101 4.1443 -2.4953 0.1900 0 8
12.1419 4.3401 -2.4953 0.1900 0 8
12.0705 4.5348 -2.4953 0.1900 0 8
11.9961 4.7283 -2.4953 0.1900 0 8
11.9185 4.9206 -2.4953 0.1900 0 8
11.8378 5.1116 -2.4953 0.1900 0 8
11.7541 5.3013 -2.4953 0.1900 0 8
11.6673 5.4896 -2.4953 0.1900 0 8
11.5776 5.6765 -2.4953 0.1900 0 8
11.4848 5.8619 -2.4953 0.1900 0 8
11.3890 6.0458 -2.4953 0.1900 0 8
11.2904 6.2282 -2.4953 0.1900 0 8
11.1887 6.4089 -2.4953 0.1900 0 8
11.0842 6.5880 -2.4953 0.1900 0 8
10.9769 6.7654 -2.4953 0.1900 0 8
10.8667 6.9410 -2.4953 0.1900 0 8
10.7537 7.1148 -2.4953 0.1900 0 8
10.6379 7.2868 -2.4953 0.1900 0 8
10.5193 7.4569 -2.4953 0.1900 0 8
10.3981 7.6251 -2.4953 0.1900 0 8
10.2741 7.7913 -2.4953 0.1900 0 8
10.1475 7.9555 -2.4953 0.1900 0 8
10.0183 8.1176 -2.4953 0.1900 0 8
9.8865 8.2777 -2.4953 0.1900 0 8
9.7521 8.4356 -2.4953 0.1900 0 8
10.2024 9.1160 -2.6477 0.1900 0 7
10.0545 9.2789 -2.6477 0.1900 0 7
9.9040 9.4394 -2.6477 0.1900 0 7
9.7510 9.5974 -2.6477 0.1900 0 7
9.5954 9.7529 -2.6477 0.1900 0 7
9.4373 9.9060 -2.6477 0.1900 0 7
11.2271 -5.1294 -2.4953 0.1981 0 8
11.3082 -4.9482 -2.4953 0.1981 0 8
11.3863 -4.7657 -2.4953 0.1981 0 8
11.4614 -4.5820 -2.4953 0.1981 0 8
11.5336 -4.3971 -2.4953 0.1981 0 8
11.6028 -4.2111 -2.4953 0.1981 0 8
11.6691 -4.0240 -2.4953 0.1981 0 8
11.7322 -3.8358 -2.4953 0.1981 0 8
11.7924 -3.6467 -2.4953 0.1981 0 8
11.8495 -3.4566 -2.4953 0.1981 0 8
11.9036 -3.2656 -2.4953 0.1981 0 8
11.9545 -3.0738 -2.4953 0.1981 0 8
12.0024 -2.8812 -2.4953 0.1981 0 8
12.0472 -2.6878 -2.4953 0.1981 0 8
12.0889 -2.4938 -2.4953 0.1981 0 8
12.1274 -2.2991 -2.4953 0.1981 0 8
12.1628 -2.1038 -2.4953 0.1981 0 8
12.1950 -1.9079 -2.4953 0.1981 0 8
12.2241 -1.7116 -2.4953 0.1981 0 8
12.2501 -1.5148 -2.4953 0.1981 0 8
12.2729 -1.3176 -2.4953 0.1981 0 8
7.8282 -0.7133 -1.5891 0.7008 25 10
7.7235 -0.5787 -1.5657 0.8736 25 10
7.6721 -0.4510 -1.5536 0.9173 25 10
7.6360 -0.3257 -1.5451 0.9677 25 10
7.6206 -0.2024 -1.5411 0.9880 25 10
7.6095 -0.0797 -1.5384 0.9970 25 10
7.6074 0.0427 -1.5379 0.9973 25 10
7.6167 0.1652 -1.5401 0.9886 25 10
7.6297 0.2883 -1.5435 0.9865 25 10
7.6595 0.4129 -1.5506 0.9190 25 10
7.7066 0.5398 -1.5617 0.8758 25 10
7.7962 0.6722 -1.5819 0.7040 25 10
8.1284 0.8327 -1.6518 0.1842 25 10
12.2573 1.4553 -2.4953 0.1981 0 8
12.2323 1.6522 -2.4953 0.1981 0 8
12.2042 1.8486 -2.4953 0.1981 0 8
12.1729 2.0446 -2.4953 0.1981 0 8
12.1384 2.2401 -2.4953 0.1981 0 8
12.1008 2.4350 -2.4953 0.1981 0 8
12.0601 2.6293 -2.4953 0.1981 0 8
12.0163 2.8228 -2.4953 0.1981 0 8
11.9693 3.0157 -2.4953 0.1981 0 8
11.9193 3.2078 -2.4953 0.1981 0 8
11.8662 3.3990 -2.4953 0.1981 0 8
11.8100 3.5894 -2.4953 0.1981 0 8
11.7507 3.7788 -2.4953 0.1981 0 8
11.6885 3.9673 -2.4953 0.1981 0 8
11.6232 4.1547 -2.4953 0.1981 0 8
11.5549 4.3410 -2.4953 0.1981 0 8
11.4836 4.5263 -2.4953 0.1981 0 8
11.4093 4.7103 -2.4953 0.1981 0 8
11.3321 4.8932 -2.4953 0.1981 0 8
11.2519 5.0748 -2.4953 0.1981 0 8
11.1689 5.2550 -2.4953 0.1981 0 8
11.0829 5.4339 -2.4953 0.1981 0 8
10.9941 5.6115 -2.4953 0.1981 0 8
10.9025 5.7875 -2.4953 0.1981 0 8
10.8080 5.9621 -2.4953 0.1981 0 8
10.7107 6.1351 -2.4953 0.1981 0 8
10.6107 6.3065 -2.4953 0.1981 0 8
10.5079 6.4763 -2.4953 0.1981 0 8
10.4024 6.6444 -2.4953 0.1981 0 8
10.2942 6.8109 -2.4953 0.1981 0 8
10.1834 6.9755 -2.4953 0.1981 0 8
10.0699 7.1383 -2.4953 0.1981 0 8
9.9538 7.2993 -2.4953 0.1981 0 8
9.8352 7.4584 -2.4953 0.1981 0 8
9.7140 7.6156 -2.4953 0.1981 0 8
9.5903 7.7708 -2.4953 0.1981 0 8
9.4641 7.9240 -2.4953 0.1981 0 8
9.3354 8.0752 -2.4953 0.1981 0 8
9.2044 8.2243 -2.4953 0.1981 0 8
9.0709 8.3712 -2.4953 0.1981 0 8
9.4809 9.0361 -2.6477 0.1981 0 7
9.3344 9.1874 -2.6477 0.1981 0 7
9.1854 9.3363 -2.6477 0.1981 0 7
9.0341 9.4828 -2.6477 0.1981 0 7
10.7657 -4.9185 -2.4953 0.2063 0 8
10.8434 -4.7448 -2.4953 0.2063 0 8
10.9183 -4.5698 -2.4953 0.2063 0 8
10.9903 -4.3937 -2.4953 0.2063 0 8
11.0596 -4.2164 -2.4953 0.2063 0 8
11.1259 -4.0380 -2.4953 0.2063 0 8
11.1894 -3.8586 -2.4953 0.2063 0 8
11.2500 -3.6782 -2.4953 0.2063 0 8
11.3077 -3.4968 -2.4953 0.2063 0 8
11.3625 -3.3145 -2.4953 0.2063 0 8
11.4143 -3.1314 -2.4953 0.2063 0 8
11.4632 -2.9475 -2.4953 0.2063 0 8
11.5091 -2.7628 -2.4953 0.2063 0 8
11.5520 -2.5773 -2.4953 0.2063 0 8
11.5920 -2.3913 -2.4953 0.2063 0 8
11.6289 -2.2046 -2.4953 0.2063 0 8
11.6629 -2.0173 -2.4953 0.2063 0 8
11.6938 -1.8295 -2.4953 0.2063 0 8
11.7217 -1.6412 -2.4953 0.2063 0 8
11.7466 -1.4525 -2.4953 0.2063 0 8
8.2831 -0.8893 -1.7563 0.1861 25 10
7.7919 -0.7100 -1.6495 0.7029 25 10
7.7011 -0.5770 -1.6281 0.8746 25 10
7.6496 -0.4496 -1.6155 0.9184 25 10
7.6179 -0.3249 -1.6075 0.9683 25 10
7.6029 -0.2019 -1.6034 0.9886 25 10
7.5944 -0.0795 -1.6011 0.9973 25 10
7.5923 0.0426 -1.6006 0.9976 25 10
7.5992 0.1649 -1.6024 0.9964 25 10
7.6119 0.2876 -1.6059 0.9871 25 10
7.6371 0.4117 -1.6124 0.9201 25 10
7.6843 0.5383 -1.6240 0.8768 25 10
7.7603 0.6691 -1.6421 0.7060 25 10
8.0852 0.8283 -1.7134 0.1907 25 10
11.7535 1.3954 -2.4953 0.2063 0 8
11.7295 1.5843 -2.4953 0.2063 0 8
11.7025 1.7727 -2.4953 0.2063 0 8
11.6725 1.9606 -2.4953 0.2063 0 8
11.6395 2.1480 -2.4953 0.2063 0 8
11.6035 2.3349 -2.4953 0.2063 0 8
11.5644 2.5212 -2.4953 0.2063 0 8
11.5224 2.7068 -2.4953 0.2063 0 8
11.4774 2.8917 -2.4953 0.2063 0 8
11.4294 3.0759 -2.4953 0.2063 0 8
11.3784 3.2593 -2.4953 0.2063 0 8
11.3246 3.4418 -2.4953 0.2063 0 8
11.2678 3.6235 -2.4953 0.2063 0 8
11.2080 3.8042 -2.4953 0.2063 0 8
11.1454 3.9839 -2.4953 0.2063 0 8
11.0799 4.1626 -2.4953 0.2063 0 8
11.0116 4.3402 -2.4953 0.2063 0 8
10.9403 4.5167 -2.4953 0.2063 0 8
10.8663 4.6921 -2.4953 0.2063 0 8
10.7895 4.8662 -2.4953 0.2063 0 8
10.7098 5.0390 -2.4953 0.2063 0 8
10.6274 5.2106 -2.4953 0.2063 0 8
10.5422 5.3808 -2.4953 0.2063 0 8
10.4544 5.5496 -2.4953 0.2063 0 8
10.3638 5.7170 -2.4953 0.2063 0 8
10.2705 5.8829 -2.4953 0.2063 0 8
10.1746 6.0473 -2.4953 0.2063 0 8
10.0760 6.2101 -2.4953 0.2063 0 8
9.9749 6.3713 -2.4953 0.2063 0 8
9.8711 6.5309 -2.4953 0.2063 0 8
9.7648 6.6888 -2.4953 0.2063 0 8
9.6560 6.8449 -2.4953 0.2063 0 8
9.5447 6.9993 -2.4953 0.2063 0 8
9.4309 7.1519 -2.4953 0.2063 0 8
9.3147 7.3026 -2.4953 0.2063 0 8
9.1961 7.4514 -2.4953 0.2063 0 8
9.0751 7.5983 -2.4953 0.2063 0 8
8.9517 7.7433 -2.4953 0.2063 0 8
8.8261 7.8862 -2.4953 0.2063 0 8
8.6981 8.0271 -2.4953 0.2063 0 8
8.5679 8.1659 -2.4953 0.2063 0 8
8.4355 8.3027 -2.4953 0.2063 0 8
8.3009 8.4372 -2.4953 0.2063 0 8
8.6628 9.0930 -2.6477 0.2063 0 7
10.3392 -4.7237 -2.4953 0.2144 0 8
10.4138 -4.5568 -2.4953 0.2144 0 8
10.4857 -4.3888 -2.4953 0.2144 0 8
10.5550 -4.2196 -2.4953 0.2144 0 8
10.6214 -4.0494 -2.4953 0.2144 0 8
10.6852 -3.8781 -2.4953 0.2144 0 8
10.7462 -3.7057 -2.4953 0.2144 0 8
10.8044 -3.5325 -2.4953 0.2144 0 8
10.8598 -3.3583 -2.4953 0.2144 0 8
10.9124 -3.1832 -2.4953 0.2144 0 8
10.9621 -3.0074 -2.4953 0.2144 0 8
11.0091 -2.8307 -2.4953 0.2144 0 8
11.0532 -2.6533 -2.4953 0.2144 0 8
11.0944 -2.4752 -2.4953 0.2144 0 8
11.1328 -2.2965 -2.4953 0.2144 0 8
11.1682 -2.1172 -2.4953 0.2144 0 8
11.2008 -1.9374 -2.4953 0.2144 0 8
11.2306 -1.7570 -2.4953 0.2144 0 8
11.2573 -1.5762 -2.4953 0.2144 0 8
11.2812 -1.3950 -2.4953 0.2144 0 8
8.2380 -0.8844 -1.8188 0.1867 25 10
7.7559 -0.7067 -1.7096 0.7049 25 10
7.6787 -0.5754 -1.6903 0.8756 25 10
7.6272 -0.4483 -1.6772 0.9194 25 10
7.5999 -0.3242 -1.6698 0.9689 25 10
7.5861 -0.2015 -1.6659 0.9963 25 10
7.5793 -0.0794 -1.6639 0.9975 25 10
7.5772 0.0425 -1.6633 0.9978 25 10
7.5841 0.1645 -1.6652 0.9966 25 10
7.5941 0.2870 -1.6682 0.9876 25 10
7.6168 0.4106 -1.6744 0.9662 25 10
7.6620 0.5367 -1.6860 0.8778 25 10
7.7246 0.6660 -1.7020 0.7080 25 10
8.0422 0.8239 -1.7746 0.1914 25 10
11.2879 1.3402 -2.4953 0.2144 0 8
11.2649 1.5215 -2.4953 0.2144 0 8
11.2390 1.7024 -2.4953 0.2144 0 8
11.2101 1.8829 -2.4953 0.2144 0 8
11.1784 2.0629 -2.4953 0.2144 0 8
11.1438 2.2424 -2.4953 0.2144 0 8
11.1063 2.4213 -2.4953 0.2144 0 8
11.0659 2.5996 -2.4953 0.2144 0 8
11.0227 2.7772 -2.4953 0.2144 0 8
10.9766 2.9541 -2.4953 0.2144 0 8
10.9277 3.1302 -2.4953 0.2144 0 8
10.8759 3.3055 -2.4953 0.2144 0 8
10.8214 3.4799 -2.4953 0.2144 0 8
10.7640 3.6535 -2.4953 0.2144 0 8
10.7039 3.8261 -2.4953 0.2144 0 8
10.6410 3.9977 -2.4953 0.2144 0 8
10.5753 4.1683 -2.4953 0.2144 0 8
10.5069 4.3378 -2.4953 0.2144 0 8
10.4358 4.5062 -2.4953 0.2144 0 8
10.3620 4.6734 -2.4953 0.2144 0 8
10.2855 4.8394 -2.4953 0.2144 0 8
10.2064 5.0042 -2.4953 0.2144 0 8
10.1246 5.1676 -2.4953 0.2144 0 8
10.0402 5.3298 -2.4953 0.2144 0 8
9.9532 5.4905 -2.4953 0.2144 0 8
9.8636 5.6499 -2.4953 0.2144 0 8
9.7715 5.8077 -2.4953 0.2144 0 8
9.6769 5.9641 -2.4953 0.2144 0 8
9.5797 6.1189 -2.4953 0.2144 0 8
9.4801 6.2722 -2.4953 0.2144 0 8
9.3780 6.4238 -2.4953 0.2144 0 8
9.2735 6.5738 -2.4953 0.2144 0 8
9.1666 6.7220 -2.4953 0.2144 0 8
9.0573 6.8686 -2.4953 0.2144 0 8
8.9457 7.0133 -2.4953 0.2144 0 8
8.8318 7.1562 -2.4953 0.2144 0 8
8.7156 7.2973 -2.4953 0.2144 0 8
8.5971 7.4365 -2.4953 0.2144 0 8
8.4764 7.5738 -2.4953 0.2144 0 8
8.3535 7.7091 -2.4953 0.2144 0 8
8.2285 7.8425 -2.4953 0.2144 0 8
8.1013 7.9737 -2.4953 0.2144 0 8
7.9721 8.1030 -2.4953 0.2144 0 8
7.8408 8.2301 -2.4953 0.2144 0 8
9.9438 -4.5431 -2.4953 0.2225 0 8
10.0156 -4.3826 -2.4953 0.2225 0 8
10.0848 -4.2210 -2.4953 0.2225 0 8
10.1514 -4.0583 -2.4953 0.2225 0 8
10.2153 -3.8945 -2.4953 0.2225 0 8
10.2766 -3.7298 -2.4953 0.2225 0 8
10.3352 -3.5640 -2.4953 0.2225 0 8
10.3912 -3.3974 -2.4953 0.2225 0 8
10.4445 -3.2299 -2.4953 0.2225 0 8
10.4951 -3.0615 -2.4953 0.2225 0 8
10.5430 -2.8924 -2.4953 0.2225 0 8
10.5881 -2.7225 -2.4953 0.2225 0 8
10.6305 -2.5519 -2.4953 0.2225 0 8
10.6702 -2.3806 -2.4953 0.2225 0 8
10.7071 -2.2087 -2.4953 0.2225 0 8
10.7412 -2.0363 -2.4953 0.2225 0 8
10.7725 -1.8633 -2.4953 0.2225 0 8
10.8011 -1.6898 -2.4953 0.2225 0 8
10.8269 -1.5159 -2.4953 0.2225 0 8
10.8499 -1.3416 -2.4953 0.2225 0 8
8.1947 -0.8798 -1.8811 0.1856 25 10
7.7201 -0.7035 -1.7694 0.7068 25 10
7.6563 -0.5737 -1.7524 0.8765 25 10
7.6060 -0.4471 -1.7390 0.9655 25 10
7.5819 -0.3234 -1.7321 0.9694 25 10
7.5710 -0.2011 -1.7286 0.9964 25 10
7.5642 -0.0792 -1.7266 0.9976 25 10
7.5621 0.0424 -1.7260 0.9979 25 10
7.5689 0.1642 -1.7280 0.9968 25 10
7.5764 0.2863 -1.7305 0.9881 25 10
7.5987 0.4096 -1.7369 0.9667 25 10
7.6397 0.5351 -1.7480 0.8787 25 10
7.6949 0.6635 -1.7628 0.8713 25 10
7.9994 0.8195 -1.8354 0.1921 25 10
10.8563 1.2889 -2.4953 0.2225 0 8
10.8341 1.4633 -2.4953 0.2225 0 8
10.8092 1.6373 -2.4953 0.2225 0 8
10.7815 1.8109 -2.4953 0.2225 0 8
10.7510 1.9841 -2.4953 0.2225 0 8
10.7177 2.1567 -2.4953 0.2225 0 8
10.6816 2.3287 -2.4953 0.2225 0 8
10.6428 2.5002 -2.4953 0.2225 0 8
10.6012 2.6710 -2.4953 0.2225 0 8
10.5569 2.8411 -2.4953 0.2225 0 8
10.5098 3.0105 -2.4953 0.2225 0 8
10.4601 3.1791 -2.4953 0.2225 0 8
10.4076 3.3469 -2.4953 0.2225 0 8
10.3524 3.5138 -2.4953 0.2225 0 8
10.2946 3.6798 -2.4953 0.2225 0 8
10.2341 3.8448 -2.4953 0.2225 0 8
10.1710 4.0089 -2.4953 0.2225 0 8
10.1052 4.1719 -2.4953 0.2225 0 8
10.0368 4.3339 -2.4953 0.2225 0 8
9.9658 4.4947 -2.4953 0.2225 0 8
9.8922 4.6544 -2.4953 0.2225 0 8
9.8161 4.8128 -2.4953 0.2225 0 8
9.7375 4.9701 -2.4953 0.2225 0 8
9.6563 5.1260 -2.4953 0.2225 0 8
9.5726 5.2806 -2.4953 0.2225 0 8
9.4865 5.4338 -2.4953 0.2225 0 8
9.3979 5.5857 -2.4953 0.2225 0 8
9.3068 5.7361 -2.4953 0.2225 0 8
9.2134 5.8850 -2.4953 0.2225 0 8
9.1176 6.0324 -2.4953 0.2225 0 8
9.0194 6.1782 -2.4953 0.2225 0 8
8.9189 6.3224 -2.4953 0.2225 0 8
8.8161 6.4650 -2.4953 0.2225 0 8
8.7110 6.6059 -2.4953 0.2225 0 8
8.6037 6.7451 -2.4953 0.2225 0 8
8.4941 6.8826 -2.4953 0.2225 0 8
8.3823 7.0183 -2.4953 0.2225 0 8
8.2684 7.1522 -2.4953 0.2225 0 8
8.1523 7.2842 -2.4953 0.2225 0 8
8.0341 7.4143 -2.4953 0.2225 0 8
7.9139 7.5426 -2.4953 0.2225 0 8
7.7916 7.6688 -2.4953 0.2225 0 8
7.6672 7.7931 -2.4953 0.2225 0 8
7.5409 7.9154 -2.4953 0.2225 0 8
9.5763 -4.3751 -2.4953 0.2306 0 8
9.6454 -4.2206 -2.4953 0.2306 0 8
9.7120 -4.0650 -2.4953 0.2306 0 8
9.7761 -3.9083 -2.4953 0.2306 0 8
9.8377 -3.7506 -2.4953 0.2306 0 8
9.8967 -3.5919 -2.4953 0.2306 0 8
9.9532 -3.4323 -2.4953 0.2306 0 8
10.0071 -3.2718 -2.4953 0.2306 0 8
10.0584 -3.1105 -2.4953 0.2306 0 8
10.1071 -2.9483 -2.4953 0.2306 0 8
10.1532 -2.7854 -2.4953 0.2306 0 8
10.1967 -2.6218 -2.4953 0.2306 0 8
10.2375 -2.4575 -2.4953 0.2306 0 8
10.2757 -2.2926 -2.4953 0.2306 0 8
10.3113 -2.1271 -2.4953 0.2306 0 8
10.3441 -1.9610 -2.4953 0.2306 0 8
10.3743 -1.7944 -2.4953 0.2306 0 8
10.4018 -1.6274 -2.4953 0.2306 0 8
10.4267 -1.4599 -2.4953 0.2306 0 8
10.4488 -1.2921 -2.4953 0.2306 0 8
8.1542 -0.8754 -1.9437 0.1862 25 10
7.7262 -0.7040 -1.8387 0.2836 25 10
7.6449 -0.5728 -1.8170 0.8545 25 10
7.5956 -0.4464 -1.8033 0.9361 25 10
7.5698 -0.3229 -1.7957 0.9400 25 10
7.5601 -0.2008 -1.7924 0.9672 25 10
7.5529 -0.0791 -1.7902 0.9684 25 10
7.5507 0.0424 -1.7896 0.9687 25 10
7.5579 0.1640 -1.7917 0.9676 25 10
7.5652 0.2859 -1.7943 0.9662 25 10
7.5878 0.4090 -1.8009 0.9373 25 10
7.6282 0.5343 -1.8123 0.8567 25 10
7.6838 0.6625 -1.8279 0.8494 25 10
7.9607 0.8156 -1.8966 0.1918 25 10
10.4550 1.2413 -2.4953 0.2306 0 8
10.4336 1.4092 -2.4953 0.2306 0 8
10.4096 1.5768 -2.4953 0.2306 0 8
10.3829 1.7440 -2.4953 0.2306 0 8
10.3535 1.9107 -2.4953 0.2306 0 8
10.3215 2.0769 -2.4953 0.2306 0 8
10.2868 2.2426 -2.4953 0.2306 0 8
10.2494 2.4078 -2.4953 0.2306 0 8
10.2093 2.5722 -2.4953 0.2306 0 8
10.1666 2.7361 -2.4953 0.2306 0 8
10.1213 2.8992 -2.4953 0.2306 0 8
10.0734 3.0616 -2.4953 0.2306 0 8
10.0229 3.2231 -2.4953 0.2306 0 8
9.9698 3.3839 -2.4953 0.2306 0 8
9.9141 3.5438 -2.4953 0.2306 0 8
9.8558 3.7027 -2.4953 0.2306 0 8
9.7950 3.8607 -2.4953 0.2306 0 8
9.7316 4.0177 -2.4953 0.2306 0 8
9.6658 4.1737 -2.4953 0.2306 0 8
9.5974 4.3286 -2.4953 0.2306 0 8
9.5266 4.4823 -2.4953 0.2306 0 8
9.4533 4.6349 -2.4953 0.2306 0 8
9.3775 4.7863 -2.4953 0.2306 0 8
9.2993 4.9365 -2.4953 0.2306 0 8
9.2188 5.0854 -2.4953 0.2306 0 8
9.1358 5.2330 -2.4953 0.2306 0 8
9.0505 5.3792 -2.4953 0.2306 0 8
8.9628 5.5240 -2.4953 0.2306 0 8
8.8728 5.6674 -2.4953 0.2306 0 8
8.7805 5.8094 -2.4953 0.2306 0 8
8.6860 5.9498 -2.4953 0.2306 0 8
8.5892 6.0887 -2.4953 0.2306 0 8
8.4902 6.2260 -2.4953 0.2306 0 8
8.3890 6.3617 -2.4953 0.2306 0 8
8.2856 6.4958 -2.4953 0.2306 0 8
8.1801 6.6282 -2.4953 0.2306 0 8
8.0725 6.7589 -2.4953 0.2306 0 8
7.9627 6.8878 -2.4953 0.2306 0 8
7.8509 7.0149 -2.4953 0.2306 0 8
7.7371 7.1403 -2.4953 0.2306 0 8
7.6213 7.2638 -2.4953 0.2306 0 8
7.5035 7.3854 -2.4953 0.2306 0 8
7.3838 7.5051 -2.4953 0.2306 0 8
7.2622 7.6228 -2.4953 0.2306 0 8
9.2336 -4.2186 -2.4953 0.2387 0 8
9.3002 -4.0696 -2.4953 0.2387 0 8
9.3645 -3.9195 -2.4953 0.2387 0 8
9.4263 -3.7684 -2.4953 0.2387 0 8
9.4857 -3.6164 -2.4953 0.2387 0 8
9.5426 -3.4634 -2.4953 0.2387 0 8
9.5970 -3.3095 -2.4953 0.2387 0 8
9.6490 -3.1547 -2.4953 0.2387 0 8
9.6985 -2.9992 -2.4953 0.2387 0 8
9.7455 -2.8428 -2.4953 0.2387 0 8
9.7899 -2.6858 -2.4953 0.2387 0 8
9.8318 -2.5280 -2.4953 0.2387 0 8
9.8712 -2.3696 -2.4953 0.2387 0 8
9.9080 -2.2106 -2.4953 0.2387 0 8
9.9423 -2.0510 -2.4953 0.2387 0 8
9.9740 -1.8908 -2.4953 0.2387 0 8
10.0031 -1.7302 -2.4953 0.2387 0 8
10.0296 -1.5691 -2.4953 0.2387 0 8
10.0536 -1.4077 -2.4953 0.2387 0 8
10.0749 -1.2458 -2.4953 0.2387 0 8
8.1142 -0.8711 -2.0059 0.1877 25 10
7.7647 -0.7075 -1.9165 0.2817 25 10
7.6476 -0.5730 -1.8850 0.8525 25 10
7.5986 -0.4466 -1.8709 0.9175 25 10
7.5708 -0.3229 -1.8626 0.9380 25 10
7.5608 -0.2008 -1.8591 0.9651 25 10
7.5578 -0.0791 -1.8578 0.9270 25 10
7.5589 0.0424 -1.8580 0.9269 25 10
7.5586 0.1640 -1.8583 0.9655 25 10
7.5659 0.2859 -1.8610 0.9641 25 10
7.5894 0.4091 -1.8682 0.9188 25 10
7.6308 0.5345 -1.8803 0.8547 25 10
7.6968 0.6637 -1.8989 0.7636 25 10
7.9378 0.8132 -1.9613 0.4513 25 10
10.0808 1.1969 -2.4953 0.2387 0 8
10.0603 1.3588 -2.4953 0.2387 0 8
10.0371 1.5204 -2.4953 0.2387 0 8
10.0114 1.6816 -2.4953 0.2387 0 8
9.9831 1.8423 -2.4953 0.2387 0 8
9.9521 2.0026 -2.4953 0.2387 0 8
9.9187 2.1624 -2.4953 0.2387 0 8
9.8826 2.3216 -2.4953 0.2387 0 8
9.8440 2.4802 -2.4953 0.2387 0 8
9.8028 2.6382 -2.4953 0.2387 0 8
9.7592 2.7955 -2.4953 0.2387 0 8
9.7129 2.9520 -2.4953 0.2387 0 8
9.6642 3.1078 -2.4953 0.2387 0 8
9.6130 3.2628 -2.4953 0.2387 0 8
9.5593 3.4170 -2.4953 0.2387 0 8
9.5031 3.5702 -2.4953 0.2387 0 8
9.4445 3.7226 -2.4953 0.2387 0 8
9.3834 3.8739 -2.4953 0.2387 0 8
9.3199 4.0243 -2.4953 0.2387 0 8
9.2540 4.1737 -2.4953 0.2387 0 8
9.1857 4.3219 -2.4953 0.2387 0 8
9.1150 4.4691 -2.4953 0.2387 0 8
9.0420 4.6151 -2.4953 0.2387 0 8
8.9666 4.7599 -2.4953 0.2387 0 8
8.8889 4.9034 -2.4953 0.2387 0 8
8.8089 5.0457 -2.4953 0.2387 0 8
8.7266 5.1867 -2.4953 0.2387 0 8
8.6421 5.3264 -2.4953 0.2387 0 8
8.5553 5.4646 -2.4953 0.2387 0 8
8.4664 5.6015 -2.4953 0.2387 0 8
8.3752 5.7369 -2.4953 0.2387 0 8
8.2819 5.8708 -2.4953 0.2387 0 8
8.1864 6.0032 -2.4953 0.2387 0 8
8.0888 6.1341 -2.4953 0.2387 0 8
7.9891 6.2634 -2.4953 0.2387 0 8
7.8874 6.3910 -2.4953 0.2387 0 8
7.7836 6.5170 -2.4953 0.2387 0 8
7.6778 6.6413 -2.4953 0.2387 0 8
7.5700 6.7639 -2.4953 0.2387 0 8
7.4603 6.8848 -2.4953 0.2387 0 8
7.3486 7.0038 -2.4953 0.2387 0 8
7.2350 7.1211 -2.4953 0.2387 0 8
7.1196 7.2365 -2.4953 0.2387 0 8
7.0023 7.3501 -2.4953 0.2387 0 8
8.9133 -4.0723 -2.4953 0.2468 0 8
8.9777 -3.9284 -2.4953 0.2468 0 8
9.0397 -3.7836 -2.4953 0.2468 0 8
9.0993 -3.6377 -2.4953 0.2468 0 8
9.1567 -3.4909 -2.4953 0.2468 0 8
9.2116 -3.3432 -2.4953 0.2468 0 8
9.2642 -3.1947 -2.4953 0.2468 0 8
9.3143 -3.0453 -2.4953 0.2468 0 8
9.3621 -2.8952 -2.4953 0.2468 0 8
9.4075 -2.7442 -2.4953 0.2468 0 8
9.4504 -2.5926 -2.4953 0.2468 0 8
9.4908 -2.4403 -2.4953 0.2468 0 8
9.5288 -2.2874 -2.4953 0.2468 0 8
9.5644 -2.1339 -2.4953 0.2468 0 8
9.5975 -1.9798 -2.4953 0.2468 0 8
9.6281 -1.8252 -2.4953 0.2468 0 8
9.6562 -1.6702 -2.4953 0.2468 0 8
9.6818 -1.5147 -2.4953 0.2468 0 8
9.7049 -1.3588 -2.4953 0.2468 0 8
9.7255 -1.2026 -2.4953 0.2468 0 8
8.1370 -0.8736 -2.0838 0.1938 25 10
7.7698 -0.7080 -1.9866 0.4044 25 10
7.6581 -0.5738 -1.9555 0.7666 25 10
7.6017 -0.4468 -1.9390 0.9152 25 10
7.5718 -0.3230 -1.9298 0.9360 25 10
7.5643 -0.2009 -1.9268 0.9240 25 10
7.5678 -0.0792 -1.9271 0.9239 25 10
7.5688 0.0425 -1.9273 0.9238 25 10
7.5653 0.1641 -1.9268 0.9240 25 10
7.5665 0.2859 -1.9280 0.9621 25 10
7.5925 0.4093 -1.9361 0.9165 25 10
7.6358 0.5349 -1.9491 0.7691 25 10
7.7102 0.6648 -1.9705 0.7607 25 10
7.9362 0.8131 -2.0314 0.5419 25 10
9.7312 1.1553 -2.4953 0.2468 0 8
9.7114 1.3117 -2.4953 0.2468 0 8
9.6890 1.4677 -2.4953 0.2468 0 8
9.6642 1.6233 -2.4953 0.2468 0 8
9.6368 1.7784 -2.4953 0.2468 0 8
9.6070 1.9332 -2.4953 0.2468 0 8
9.5746 2.0874 -2.4953 0.2468 0 8
9.5398 2.2411 -2.4953 0.2468 0 8
9.5026 2.3942 -2.4953 0.2468 0 8
9.4628 2.5467 -2.4953 0.2468 0 8
9.4207 2.6985 -2.4953 0.2468 0 8
9.3761 2.8496 -2.4953 0.2468 0 8
9.3290 3.0000 -2.4953 0.2468 0 8
9.2796 3.1496 -2.4953 0.2468 0 8
9.2277 3.2984 -2.4953 0.2468 0 8
9.1735 3.4464 -2.4953 0.2468 0 8
9.1169 3.5935 -2.4953 0.2468 0 8
9.0580 3.7396 -2.4953 0.2468 0 8
8.9967 3.8848 -2.4953 0.2468 0 8
8.9330 4.0289 -2.4953 0.2468 0 8
8.8671 4.1720 -2.4953 0.2468 0 8
8.7989 4.3141 -2.4953 0.2468 0 8
8.7283 4.4550 -2.4953 0.2468 0 8
8.6556 4.5948 -2.4953 0.2468 0 8
8.5806 4.7333 -2.4953 0.2468 0 8
8.5034 4.8707 -2.4953 0.2468 0 8
8.4239 5.0068 -2.4953 0.2468 0 8
8.3424 5.1416 -2.4953 0.2468 0 8
8.2586 5.2751 -2.4953 0.2468 0 8
8.1727 5.4072 -2.4953 0.2468 0 8
8.0847 5.5379 -2.4953 0.2468 0 8
7.9946 5.6672 -2.4953 0.2468 0 8
7.9025 5.7950 -2.4953 0.2468 0 8
7.8083 5.9213 -2.4953 0.2468 0 8
7.7120 6.0461 -2.4953 0.2468 0 8
7.6138 6.1693 -2.4953 0.2468 0 8
7.5136 6.2910 -2.4953 0.2468 0 8
7.4115 6.4110 -2.4953 0.2468 0 8
7.3075 6.5293 -2.4953 0.2468 0 8
7.2015 6.6460 -2.4953 0.2468 0 8
7.0937 6.7609 -2.4953 0.2468 0 8
6.9841 6.8741 -2.4953 0.2468 0 8
6.8727 6.9855 -2.4953 0.2468 0 8
6.7595 7.0951 -2.4953 0.2468 0 8
8.6133 -3.9352 -2.4953 0.2548 0 8
8.6755 -3.7962 -2.4953 0.2548 0 8
8.7354 -3.6562 -2.4953 0.2548 0 8
8.7931 -3.5153 -2.4953 0.2548 0 8
8.8485 -3.3734 -2.4953 0.2548 0 8
8.9016 -3.2307 -2.4953 0.2548 0 8
8.9524 -3.0872 -2.4953 0.2548 0 8
9.0008 -2.9428 -2.4953 0.2548 0 8
9.0470 -2.7977 -2.4953 0.2548 0 8
9.0908 -2.6519 -2.4953 0.2548 0 8
9.1323 -2.5054 -2.4953 0.2548 0 8
9.1714 -2.3582 -2.4953 0.2548 0 8
9.2081 -2.2104 -2.4953 0.2548 0 8
9.2425 -2.0621 -2.4953 0.2548 0 8
9.2744 -1.9132 -2.4953 0.2548 0 8
9.3040 -1.7638 -2.4953 0.2548 0 8
9.3312 -1.6140 -2.4953 0.2548 0 8
9.3559 -1.4637 -2.4953 0.2548 0 8
9.3782 -1.3131 -2.4953 0.2548 0 8
9.3981 -1.1621 -2.4953 0.2548 0 8
8.1663 -0.8767 -2.1642 0.1927 25 10
7.8137 -0.7120 -2.0674 0.4013 25 10
7.6789 -0.5754 -2.0291 0.7190 25 10
7.6117 -0.4474 -2.0092 0.8137 25 10
7.5800 -0.3233 -1.9992 0.8469 25 10
7.5766 -0.2012 -1.9971 0.8886 25 10
7.5804 -0.0794 -1.9975 0.8884 25 10
7.5810 0.0425 -1.9976 0.9287 25 10
7.5777 0.1644 -1.9972 0.8885 25 10
7.5741 0.2862 -1.9972 0.8885 25 10
7.6021 0.4098 -2.0061 0.8440 25 10
7.6553 0.5362 -2.0221 0.7214 25 10
7.7416 0.6675 -2.0475 0.4052 25 10
7.9609 0.8156 -2.1087 0.1537 25 10
9.4037 1.1165 -2.4953 0.2548 0 8
9.3845 1.2675 -2.4953 0.2548 0 8
9.3629 1.4183 -2.4953 0.2548 0 8
9.3389 1.5686 -2.4953 0.2548 0 8
9.3125 1.7186 -2.4953 0.2548 0 8
9.2836 1.8681 -2.4953 0.2548 0 8
9.2524 2.0171 -2.4953 0.2548 0 8
9.2188 2.1657 -2.4953 0.2548 0 8
9.1827 2.3136 -2.4953 0.2548 0 8
9.1443 2.4610 -2.4953 0.2548 0 8
9.1036 2.6077 -2.4953 0.2548 0 8
9.0605 2.7537 -2.4953 0.2548 0 8
9.0150 2.8991 -2.4953 0.2548 0 8
8.9673 3.0436 -2.4953 0.2548 0 8
8.9172 3.1874 -2.4953 0.2548 0 8
8.8648 3.3304 -2.4953 0.2548 0 8
8.8101 3.4725 -2.4953 0.2548 0 8
8.7531 3.6137 -2.4953 0.2548 0 8
8.6938 3.7540 -2.4953 0.2548 0 8
8.6324 3.8933 -2.4953 0.2548 0 8
8.5686 4.0316 -2.4953 0.2548 0 8
8.5027 4.1689 -2.4953 0.2548 0 8
8.4346 4.3050 -2.4953 0.2548 0 8
8.3643 4.4401 -2.4953 0.2548 0 8
8.2918 4.5740 -2.4953 0.2548 0 8
8.2172 4.7068 -2.4953 0.2548 0 8
8.1404 4.8383 -2.4953 0.2548 0 8
8.0616 4.9686 -2.4953 0.2548 0 8
7.9806 5.0975 -2.4953 0.2548 0 8
7.8976 5.2252 -2.4953 0.2548 0 8
7.8126 5.3515 -2.4953 0.2548 0 8
7.7255 5.4765 -2.4953 0.2548 0 8
7.6365 5.6000 -2.4953 0.2548 0 8
7.5454 5.7220 -2.4953 0.2548 0 8
7.4525 5.8426 -2.4953 0.2548 0 8
7.3576 5.9617 -2.4953 0.2548 0 8
7.2607 6.0792 -2.4953 0.2548 0 8
7.1620 6.1952 -2.4953 0.2548 0 8
7.0615 6.3096 -2.4953 0.2548 0 8
6.9591 6.4223 -2.4953 0.2548 0 8
6.8550 6.5334 -2.4953 0.2548 0 8
6.7490 6.6427 -2.4953 0.2548 0 8
6.6413 6.7504 -2.4953 0.2548 0 8
6.5319 6.8563 -2.4953 0.2548 0 8
8.3317 -3.8065 -2.4953 0.2628 0 8
8.3918 -3.6721 -2.4953 0.2628 0 8
8.4498 -3.5366 -2.4953 0.2628 0 8
8.5055 -3.4003 -2.4953 0.2628 0 8
8.5591 -3.2631 -2.4953 0.2628 0 8
8.6105 -3.1251 -2.4953 0.2628 0 8
8.6596 -2.9862 -2.4953 0.2628 0 8
8.7065 -2.8466 -2.4953 0.2628 0 8
8.7512 -2.7062 -2.4953 0.2628 0 8
8.7935 -2.5652 -2.4953 0.2628 0 8
8.8337 -2.4234 -2.4953 0.2628 0 8
8.8715 -2.2811 -2.4953 0.2628 0 8
8.9070 -2.1381 -2.4953 0.2628 0 8
8.9402 -1.9946 -2.4953 0.2628 0 8
8.9712 -1.8506 -2.4953 0.2628 0 8
8.9998 -1.7061 -2.4953 0.2628 0 8
9.0260 -1.5612 -2.4953 0.2628 0 8
9.0500 -1.4159 -2.4953 0.2628 0 8
9.0716 -1.2702 -2.4953 0.2628 0 8
9.0908 -1.1241 -2.4953 0.2628 0 8
8.2792 -0.8889 -2.2683 0.8896 25 10
7.8444 -0.7148 -2.1457 0.5464 25 10
7.7022 -0.5771 -2.1040 0.7209 25 10
7.6334 -0.4487 -2.0830 0.8096 25 10
7.5979 -0.3241 -2.0716 0.8430 25 10
7.5926 -0.2016 -2.0690 0.8847 25 10
7.5909 -0.0795 -2.0679 0.9254 25 10
7.5894 0.0426 -2.0675 0.9256 25 10
7.5937 0.1647 -2.0691 0.8847 25 10
7.5900 0.2868 -2.0691 0.8847 25 10
7.6219 0.4108 -2.0793 0.8110 25 10
7.6788 0.5379 -2.0969 0.7176 25 10
7.7853 0.6713 -2.1286 0.4020 25 10
8.0097 0.8206 -2.1933 0.1961 25 10
9.0962 1.0799 -2.4953 0.2628 0 8
9.0776 1.2261 -2.4953 0.2628 0 8
9.0567 1.3719 -2.4953 0.2628 0 8
9.0335 1.5173 -2.4953 0.2628 0 8
9.0079 1.6624 -2.4953 0.2628 0 8
8.9800 1.8070 -2.4953 0.2628 0 8
8.9498 1.9512 -2.4953 0.2628 0 8
8.9173 2.0948 -2.4953 0.2628 0 8
8.8825 2.2379 -2.4953 0.2628 0 8
8.8453 2.3805 -2.4953 0.2628 0 8
8.8059 2.5224 -2.4953 0.2628 0 8
8.7642 2.6637 -2.4953 0.2628 0 8
8.7202 2.8042 -2.4953 0.2628 0 8
8.6740 2.9441 -2.4953 0.2628 0 8
8.6256 3.0832 -2.4953 0.2628 0 8
8.5749 3.2215 -2.4953 0.2628 0 8
8.5220 3.3590 -2.4953 0.2628 0 8
8.4669 3.4956 -2.4953 0.2628 0 8
8.4095 3.6312 -2.4953 0.2628 0 8
8.3501 3.7660 -2.4953 0.2628 0 8
8.2884 3.8998 -2.4953 0.2628 0 8
8.2247 4.0325 -2.4953 0.2628 0 8
8.1588 4.1643 -2.4953 0.2628 0 8
8.0907 4.2949 -2.4953 0.2628 0 8
8.0206 4.4245 -2.4953 0.2628 0 8
7.9485 4.5529 -2.4953 0.2628 0 8
7.8742 4.6801 -2.4953 0.2628 0 8
7.7979 4.8061 -2.4953 0.2628 0 8
7.7197 4.9309 -2.4953 0.2628 0 8
7.6394 5.0543 -2.4953 0.2628 0 8
7.5571 5.1765 -2.4953 0.2628 0 8
7.4729 5.2974 -2.4953 0.2628 0 8
7.3868 5.4168 -2.4953 0.2628 0 8
7.2987 5.5349 -2.4953 0.2628 0 8
7.2088 5.6516 -2.4953 0.2628 0 8
7.1170 5.7667 -2.4953 0.2628 0 8
7.0233 5.8804 -2.4953 0.2628 0 8
6.9278 5.9926 -2.4953 0.2628 0 8
6.8306 6.1032 -2.4953 0.2628 0 8
6.7316 6.2123 -2.4953 0.2628 0 8
6.6308 6.3197 -2.4953 0.2628 0 8
6.5283 6.4255 -2.4953 0.2628 0 8
6.4242 6.5297 -2.4953 0.2628 0 8
6.3183 6.6321 -2.4953 0.2628 0 8
8.0667 -3.6855 -2.4953 0.2708 0 8
8.1249 -3.5553 -2.4953 0.2708 0 8
8.1810 -3.4242 -2.4953 0.2708 0 8
8.2350 -3.2922 -2.4953 0.2708 0 8
8.2869 -3.1593 -2.4953 0.2708 0 8
8.3366 -3.0257 -2.4953 0.2708 0 8
8.3842 -2.8912 -2.4953 0.2708 0 8
8.4296 -2.7561 -2.4953 0.2708 0 8
8.4728 -2.6202 -2.4953 0.2708 0 8
8.5139 -2.4836 -2.4953 0.2708 0 8
8.5527 -2.3464 -2.4953 0.2708 0 8
8.5893 -2.2085 -2.4953 0.2708 0 8
8.6237 -2.0701 -2.4953 0.2708 0 8
8.6559 -1.9312 -2.4953 0.2708 0 8
8.6858 -1.7918 -2.4953 0.2708 0 8
8.7135 -1.6519 -2.4953 0.2708 0 8
8.7390 -1.5115 -2.4953 0.2708 0 8
8.7621 -1.3708 -2.4953 0.2708 0 8
8.7830 -1.2298 -2.4953 0.2708 0 8
8.8017 -1.0884 -2.4953 0.2708 0 8
8.3354 -0.8949 -2.3587 0.6453 25 10
8.3323 -0.7593 -2.3541 0.6466 25 10
7.7253 -0.5789 -2.1797 0.7171 25 10
7.6553 -0.4500 -2.1576 0.8054 25 10
7.6172 -0.3249 -2.1451 0.8101 25 10
7.6042 -0.2019 -2.1402 0.9213 25 10
7.5994 -0.0796 -2.1382 0.9222 25 10
7.5979 0.0426 -2.1378 0.9224 25 10
7.6027 0.1649 -2.1396 0.9216 25 10
7.6063 0.2874 -2.1416 0.8403 25 10
7.6437 0.4120 -2.1537 0.8068 25 10
7.7020 0.5395 -2.1723 0.7196 25 10
8.3315 0.7184 -2.3528 0.6470 25 10
8.3344 0.8538 -2.3572 0.6458 25 10
8.8069 1.0456 -2.4953 0.2708 0 8
8.7889 1.1871 -2.4953 0.2708 0 8
8.7687 1.3282 -2.4953 0.2708 0 8
8.7462 1.4691 -2.4953 0.2708 0 8
8.7215 1.6095 -2.4953 0.2708 0 8
8.6944 1.7495 -2.4953 0.2708 0 8
8.6652 1.8891 -2.4953 0.2708 0 8
8.6337 2.0282 -2.4953 0.2708 0 8
8.6000 2.1668 -2.4953 0.2708 0 8
8.5640 2.3048 -2.4953 0.2708 0 8
8.5258 2.4422 -2.4953 0.2708 0 8
8.4855 2.5790 -2.4953 0.2708 0 8
8.4429 2.7151 -2.4953 0.2708 0 8
8.3982 2.8505 -2.4953 0.2708 0 8
8.3512 2.9851 -2.4953 0.2708 0 8
8.3022 3.1190 -2.4953 0.2708 0 8
8.2509 3.2521 -2.4953 0.2708 0 8
8.1976 3.3844 -2.4953 0.2708 0 8
8.1421 3.5157 -2.4953 0.2708 0 8
8.0845 3.6462 -2.4953 0.2708 0 8
8.0248 3.7757 -2.4953 0.2708 0 8
7.9631 3.9043 -2.4953 0.2708 0 8
7.8993 4.0318 -2.4953 0.2708 0 8
7.8334 4.1583 -2.4953 0.2708 0 8
7.7655 4.2837 -2.4953 0.2708 0 8
7.6957 4.4081 -2.4953 0.2708 0 8
7.6238 4.5312 -2.4953 0.2708 0 8
7.5499 4.6532 -2.4953 0.2708 0 8
7.4741 4.7740 -2.4953 0.2708 0 8
7.3964 4.8936 -2.4953 0.2708 0 8
7.3168 5.0119 -2.4953 0.2708 0 8
7.2352 5.1289 -2.4953 0.2708 0 8
7.1518 5.2446 -2.4953 0.2708 0 8
7.0666 5.3589 -2.4953 0.2708 0 8
6.9795 5.4718 -2.4953 0.2708 0 8
6.8906 5.5833 -2.4953 0.2708 0 8
6.7999 5.6934 -2.4953 0.2708 0 8
6.7075 5.8020 -2.4953 0.2708 0 8
6.6134 5.9091 -2.4953 0.2708 0 8
6.5175 6.0147 -2.4953 0.2708 0 8
6.4199 6.1187 -2.4953 0.2708 0 8
6.3207 6.2212 -2.4953 0.2708 0 8
6.2199 6.3220 -2.4953 0.2708 0 8
6.1174 6.4212 -2.4953 0.2708 0 8
7.8169 -3.5713 -2.4953 0.2788 0 8
7.8733 -3.4452 -2.4953 0.2788 0 8
7.9277 -3.3181 -2.4953 0.2788 0 8
7.9800 -3.1902 -2.4953 0.2788 0 8
8.0303 -3.0615 -2.4953 0.2788 0 8
8.0785 -2.9320 -2.4953 0.2788 0 8
8.1246 -2.8017 -2.4953 0.2788 0 8
8.1686 -2.6707 -2.4953 0.2788 0 8
8.2105 -2.5390 -2.4953 0.2788 0 8
8.2502 -2.4067 -2.4953 0.2788 0 8
8.2879 -2.2737 -2.4953 0.2788 0 8
8.3234 -2.1401 -2.4953 0.2788 0 8
8.3567 -2.0060 -2.4953 0.2788 0 8
8.3879 -1.8714 -2.4953 0.2788 0 8
8.4169 -1.7363 -2.4953 0.2788 0 8
8.4437 -1.6007 -2.4953 0.2788 0 8
8.4684 -1.4647 -2.4953 0.2788 0 8
8.4908 -1.3284 -2.4953 0.2788 0 8
8.5111 -1.1917 -2.4953 0.2788 0 8
8.5291 -1.0547 -2.4953 0.2788 0 8
8.5450 -0.9174 -2.4953 0.2788 0 8
8.4743 -0.7722 -2.4707 0.2995 25 10
8.5701 -0.6422 -2.4953 0.2788 0 8
8.5793 -0.5043 -2.4953 0.2788 0 8
8.5863 -0.3663 -2.4953 0.2788 0 8
8.5911 -0.2281 -2.4953 0.2788 0 8
8.5936 -0.0900 -2.4953 0.2788 0 8
8.5940 0.0482 -2.4953 0.2788 0 8
8.5921 0.1864 -2.4953 0.2788 0 8
8.5880 0.3245 -2.4953 0.2788 0 8
8.5817 0.4626 -2.4953 0.2788 0 8
8.5731 0.6005 -2.4953 0.2788 0 8
8.4715 0.7305 -2.4688 0.2997 25 10
8.5494 0.8759 -2.4953 0.2788 0 8
8.5342 1.0132 -2.4953 0.2788 0 8
8.5168 1.1503 -2.4953 0.2788 0 8
8.4972 1.2871 -2.4953 0.2788 0 8
8.4754 1.4236 -2.4953 0.2788 0 8
8.4514 1.5597 -2.4953 0.2788 0 8
8.4252 1.6954 -2.4953 0.2788 0 8
8.3969 1.8306 -2.4953 0.2788 0 8
8.3664 1.9654 -2.4953 0.2788 0 8
8.3337 2.0997 -2.4953 0.2788 0 8
8.2988 2.2334 -2.4953 0.2788 0 8
8.2618 2.3666 -2.4953 0.2788 0 8
8.2227 2.4991 -2.4953 0.2788 0 8
8.1815 2.6310 -2.4953 0.2788 0 8
8.1381 2.7622 -2.4953 0.2788 0 8
8.0927 2.8927 -2.4953 0.2788 0 8
8.0451 3.0225 -2.4953 0.2788 0 8
7.9954 3.1514 -2.4953 0.2788 0 8
7.9437 3.2796 -2.4953 0.2788 0 8
7.8900 3.4069 -2.4953 0.2788 0 8
7.8342 3.5333 -2.4953 0.2788 0 8
7.7764 3.6588 -2.4953 0.2788 0 8
7.7165 3.7834 -2.4953 0.2788 0 8
7.6547 3.9070 -2.4953 0.2788 0 8
7.5909 4.0296 -2.4953 0.2788 0 8
7.5251 4.1511 -2.4953 0.2788 0 8
7.4574 4.2716 -2.4953 0.2788 0 8
7.3877 4.3909 -2.4953 0.2788 0 8
7.3162 4.5092 -2.4953 0.2788 0 8
7.2427 4.6262 -2.4953 0.2788 0 8
7.1674 4.7421 -2.4953 0.2788 0 8
7.0902 4.8567 -2.4953 0.2788 0 8
7.0112 4.9701 -2.4953 0.2788 0 8
6.9304 5.0822 -2.4953 0.2788 0 8
6.8478 5.1930 -2.4953 0.2788 0 8
6.7634 5.3024 -2.4953 0.2788 0 8
6.6772 5.4105 -2.4953 0.2788 0 8
6.5894 5.5171 -2.4953 0.2788 0 8
6.4998 5.6224 -2.4953 0.2788 0 8
6.4086 5.7262 -2.4953 0.2788 0 8
6.3157 5.8285 -2.4953 0.2788 0 8
6.2211 5.9293 -2.4953 0.2788 0 8
6.1250 6.0285 -2.4953 0.2788 0 8
6.0273 6.1262 -2.4953 0.2788 0 8
5.9280 6.2224 -2.4953 0.2788 0 8
7.5810 -3.4636 -2.4953 0.2868 0 8
7.6358 -3.3412 -2.4953 0.2868 0 8
7.6885 -3.2180 -2.4953 0.2868 0 8
7.7392 -3.0940 -2.4953 0.2868 0 8
7.7880 -2.9691 -2.4953 0.2868 0 8
7.8347 -2.8435 -2.4953 0.2868 0 8
7.8794 -2.7172 -2.4953 0.2868 0 8
7.9221 -2.5901 -2.4953 0.2868 0 8
7.9627 -2.4624 -2.4953 0.2868 0 8
8.0013 -2.3341 -2.4953 0.2868 0 8
8.0378 -2.2051 -2.4953 0.2868 0 8
8.0722 -2.0756 -2.4953 0.2868 0 8
8.1045 -1.9455 -2.4953 0.2868 0 8
8.1348 -1.8149 -2.4953 0.2868 0 8
8.1629 -1.6839 -2.4953 0.2868 0 8
8.1889 -1.5524 -2.4953 0.2868 0 8
8.2128 -1.4205 -2.4953 0.2868 0 8
8.2346 -1.2883 -2.4953 0.2868 0 8
8.2543 -1.1557 -2.4953 0.2868 0 8
8.2718 -1.0229 -2.4953 0.2868 0 8
8.2872 -0.8897 -2.4953 0.2868 0 8
8.3004 -0.7563 -2.4953 0.2868 0 8
8.3115 -0.6228 -2.4953 0.2868 0 8
8.3204 -0.4891 -2.4953 0.2868 0 8
8.3272 -0.3552 -2.4953 0.2868 0 8
8.3318 -0.2213 -2.4953 0.2868 0 8
8.3343 -0.0873 -2.4953 0.2868 0 8
8.3347 0.0468 -2.4953 0.2868 0 8
8.3328 0.1808 -2.4953 0.2868 0 8
8.3288 0.3147 -2.4953 0.2868 0 8
8.3227 0.4486 -2.4953 0.2868 0 8
8.3144 0.5824 -2.4953 0.2868 0 8
8.3040 0.7160 -2.4953 0.2868 0 8
8.2914 0.8494 -2.4953 0.2868 0 8
8.2767 0.9826 -2.4953 0.2868 0 8
8.2598 1.1156 -2.4953 0.2868 0 8
8.2408 1.2483 -2.4953 0.2868 0 8
8.2196 1.3806 -2.4953 0.2868 0 8
8.1964 1.5126 -2.4953 0.2868 0 8
8.1710 1.6442 -2.4953 0.2868 0 8
8.1435 1.7754 -2.4953 0.2868 0 8
8.1139 1.9061 -2.4953 0.2868 0 8
8.0822 2.0363 -2.4953 0.2868 0 8
8.0484 2.1660 -2.4953 0.2868 0 8
8.0125 2.2952 -2.4953 0.2868 0 8
7.9746 2.4237 -2.4953 0.2868 0 8
7.9346 2.5516 -2.4953 0.2868 0 8
7.8925 2.6789 -2.4953 0.2868 0 8
7.8485 2.8054 -2.4953 0.2868 0 8
7.8023 2.9313 -2.4953 0.2868 0 8
7.7542 3.0563 -2.4953 0.2868 0 8
7.7040 3.1806 -2.4953 0.2868 0 8
7.6519 3.3041 -2.4953 0.2868 0 8
7.5978 3.4267 -2.4953 0.2868 0 8
7.5417 3.5484 -2.4953 0.2868 0 8
7.4837 3.6692 -2.4953 0.2868 0 8
7.4237 3.7891 -2.4953 0.2868 0 8
7.3618 3.9080 -2.4953 0.2868 0 8
7.2980 4.0258 -2.4953 0.2868 0 8
7.2324 4.1427 -2.4953 0.2868 0 8
7.1648 4.2584 -2.4953 0.2868 0 8
7.0954 4.3731 -2.4953 0.2868 0 8
7.0242 4.4866 -2.4953 0.2868 0 8
6.9511 4.5990 -2.4953 0.2868 0 8
6.8763 4.7102 -2.4953 0.2868 0 8
6.7996 4.8201 -2.4953 0.2868 0 8
6.7213 4.9288 -2.4953 0.2868 0 8
6.6411 5.0363 -2.4953 0.2868 0 8
6.5593 5.1424 -2.4953 0.2868 0 8
6.4758 5.2472 -2.4953 0.2868 0 8
6.3906 5.3506 -2.4953 0.2868 0 8
6.3037 5.4527 -2.4953 0.2868 0 8
6.2152 5.5534 -2.4953 0.2868 0 8
6.1251 5.6526 -2.4953 0.2868 0 8
6.0334 5.7503 -2.4953 0.2868 0 8
5.9402 5.8466 -2.4953 0.2868 0 8
5.8454 5.9414 -2.4953 0.2868 0 8
5.7491 6.0346 -2.4953 0.2868 0 8
7.3579 -3.3616 -2.4953 0.2948 0 8
7.4110 -3.2429 -2.4953 0.2948 0 8
7.4622 -3.1233 -2.4953 0.2948 0 8
7.5115 -3.0029 -2.4953 0.2948 0 8
7.5588 -2.8817 -2.4953 0.2948 0 8
7.6041 -2.7598 -2.4953 0.2948 0 8
7.6475 -2.6372 -2.4953 0.2948 0 8
7.6889 -2.5139 -2.4953 0.2948 0 8
7.7284 -2.3899 -2.4953 0.2948 0 8
7.7658 -2.2654 -2.4953 0.2948 0 8
7.8012 -2.1402 -2.4953 0.2948 0 8
7.8346 -2.0145 -2.4953 0.2948 0 8
7.8660 -1.8882 -2.4953 0.2948 0 8
7.8954 -1.7615 -2.4953 0.2948 0 8
7.9227 -1.6343 -2.4953 0.2948 0 8
7.9479 -1.5067 -2.4953 0.2948 0 8
7.9711 -1.3787 -2.4953 0.2948 0 8
7.9923 -1.2504 -2.4953 0.2948 0 8
8.0113 -1.1217 -2.4953 0.2948 0 8
8.0283 -0.9927 -2.4953 0.2948 0 8
8.0432 -0.8635 -2.4953 0.2948 0 8
8.0561 -0.7341 -2.4953 0.2948 0 8
8.0669 -0.6045 -2.4953 0.2948 0 8
8.0755 -0.4747 -2.4953 0.2948 0 8
8.0821 -0.3447 -2.4953 0.2948 0 8
8.0866 -0.2147 -2.4953 0.2948 0 8
8.0890 -0.0847 -2.4953 0.2948 0 8
8.0893 0.0454 -2.4953 0.2948 0 8
8.0876 0.1755 -2.4953 0.2948 0 8
8.0837 0.3055 -2.4953 0.2948 0 8
8.0777 0.4354 -2.4953 0.2948 0 8
8.0697 0.5652 -2.4953 0.2948 0 8
8.0596 0.6949 -2.4953 0.2948 0 8
8.0473 0.8244 -2.4953 0.2948 0 8
8.0331 0.9537 -2.4953 0.2948 0 8
8.0167 1.0828 -2.4953 0.2948 0 8
7.9982 1.2115 -2.4953 0.2948 0 8
7.9777 1.3400 -2.4953 0.2948 0 8
7.9551 1.4681 -2.4953 0.2948 0 8
7.9305 1.5958 -2.4953 0.2948 0 8
7.9038 1.7231 -2.4953 0.2948 0 8
7.8751 1.8500 -2.4953 0.2948 0 8
7.8443 1.9764 -2.4953 0.2948 0 8
7.8115 2.1023 -2.4953 0.2948 0 8
7.7767 2.2276 -2.4953 0.2948 0 8
7.7399 2.3524 -2.4953 0.2948 0 8
7.7011 2.4765 -2.4953 0.2948 0 8
7.6603 2.6000 -2.4953 0.2948 0 8
7.6175 2.7229 -2.4953 0.2948 0 8
7.5727 2.8450 -2.4953 0.2948 0 8
7.5260 2.9664 -2.4953 0.2948 0 8
7.4773 3.0870 -2.4953 0.2948 0 8
7.4267 3.2068 -2.4953 0.2948 0 8
7.3742 3.3258 -2.4953 0.2948 0 8
7.3197 3.4440 -2.4953 0.2948 0 8
7.2634 3.5612 -2.4953 0.2948 0 8
7.2052 3.6776 -2.4953 0.2948 0 8
7.1451 3.7930 -2.4953 0.2948 0 8
7.0832 3.9074 -2.4953 0.2948 0 8
7.0195 4.0207 -2.4953 0.2948 0 8
6.9539 4.1331 -2.4953 0.2948 0 8
6.8866 4.2444 -2.4953 0.2948 0 8
6.8174 4.3546 -2.4953 0.2948 0 8
6.7465 4.4636 -2.4953 0.2948 0 8
6.6739 4.5715 -2.4953 0.2948 0 8
6.5995 4.6782 -2.4953 0.2948 0 8
6.5234 4.7838 -2.4953 0.2948 0 8
6.4457 4.8880 -2.4953 0.2948 0 8
6.3662 4.9910 -2.4953 0.2948 0 8
6.2852 5.0928 -2.4953 0.2948 0 8
6.2025 5.1932 -2.4953 0.2948 0 8
6.1182 5.2922 -2.4953 0.2948 0 8
6.0323 5.3899 -2.4953 0.2948 0 8
5.9448 5.4862 -2.4953 0.2948 0 8
5.8558 5.5811 -2.4953 0.2948 0 8
5.7653 5.6745 -2.4953 0.2948 0 8
5.6734 5.7665 -2.4953 0.2948 0 8
5.5799 5.8570 -2.4953 0.2948 0 8
7.1465 -3.2650 -2.4953 0.3027 0 8
7.1981 -3.1497 -2.4953 0.3027 0 8
7.2478 -3.0336 -2.4953 0.3027 0 8
7.2956 -2.9166 -2.4953 0.3027 0 8
7.3416 -2.7989 -2.4953 0.3027 0 8
7.3856 -2.6805 -2.4953 0.3027 0 8
7.4278 -2.5614 -2.4953 0.3027 0 8
7.4680 -2.4417 -2.4953 0.3027 0 8
7.5063 -2.3213 -2.4953 0.3027 0 8
7.5427 -2.2003 -2.4953 0.3027 0 8
7.5771 -2.0787 -2.4953 0.3027 0 8
7.6095 -1.9566 -2.4953 0.3027 0 8
7.6400 -1.8340 -2.4953 0.3027 0 8
7.6685 -1.7109 -2.4953 0.3027 0 8
7.6950 -1.5874 -2.4953 0.3027 0 8
7.7195 -1.4634 -2.4953 0.3027 0 8
7.7421 -1.3391 -2.4953 0.3027 0 8
7.7626 -1.2145 -2.4953 0.3027 0 8
7.7811 -1.0895 -2.4953 0.3027 0 8
7.7976 -0.9642 -2.4953 0.3027 0 8
7.8121 -0.8387 -2.4953 0.3027 0 8
7.8246 -0.7130 -2.4953 0.3027 0 8
7.8351 -0.5871 -2.4953 0.3027 0 8
7.8435 -0.4610 -2.4953 0.3027 0 8
7.8499 -0.3348 -2.4953 0.3027 0 8
7.8543 -0.2086 -2.4953 0.3027 0 8
7.8566 -0.0823 -2.4953 0.3027 0 8
7.8569 0.0441 -2.4953 0.3027 0 8
7.8552 0.1704 -2.4953 0.3027 0 8
7.8514 0.2967 -2.4953 0.3027 0 8
7.8456 0.4229 -2.4953 0.3027 0 8
7.8378 0.5490 -2.4953 0.3027 0 8
7.8280 0.6750 -2.4953 0.3027 0 8
7.8161 0.8007 -2.4953 0.3027 0 8
7.8022 0.9263 -2.4953 0.3027 0 8
7.7863 1.0517 -2.4953 0.3027 0 8
7.7684 1.1767 -2.4953 0.3027 0 8
7.7485 1.3015 -2.4953 0.3027 0 8
7.7266 1.4259 -2.4953 0.3027 0 8
7.7026 1.5500 -2.4953 0.3027 0 8
7.6767 1.6736 -2.4953 0.3027 0 8
7.6488 1.7968 -2.4953 0.3027 0 8
7.6189 1.9196 -2.4953 0.3027 0 8
7.5871 2.0419 -2.4953 0.3027 0 8
7.5533 2.1636 -2.4953 0.3027 0 8
7.5175 2.2848 -2.4953 0.3027 0 8
7.4798 2.4053 -2.4953 0.3027 0 8
7.4401 2.5253 -2.4953 0.3027 0 8
7.3986 2.6446 -2.4953 0.3027 0 8
7.3551 2.7632 -2.4953 0.3027 0 8
7.3097 2.8811 -2.4953 0.3027 0 8
7.2624 2.9983 -2.4953 0.3027 0 8
7.2133 3.1147 -2.4953 0.3027 0 8
7.1623 3.2303 -2.4953 0.3027 0 8
7.1094 3.3450 -2.4953 0.3027 0 8
7.0547 3.4589 -2.4953 0.3027 0 8
6.9982 3.5719 -2.4953 0.3027 0 8
6.9398 3.6840 -2.4953 0.3027 0 8
6.8797 3.7951 -2.4953 0.3027 0 8
6.8178 3.9052 -2.4953 0.3027 0 8
6.7541 4.0143 -2.4953 0.3027 0 8
6.6887 4.1224 -2.4953 0.3027 0 8
6.6215 4.2294 -2.4953 0.3027 0 8
6.5527 4.3354 -2.4953 0.3027 0 8
6.4821 4.4402 -2.4953 0.3027 0 8
6.4099 4.5438 -2.4953 0.3027 0 8
6.3360 4.6463 -2.4953 0.3027 0 8
6.2605 4.7476 -2.4953 0.3027 0 8
6.1833 4.8476 -2.4953 0.3027 0 8
6.1046 4.9464 -2.4953 0.3027 0 8
6.0242 5.0439 -2.4953 0.3027 0 8
5.9424 5.1402 -2.4953 0.3027 0 8
5.8589 5.2350 -2.4953 0.3027 0 8
5.7740 5.3286 -2.4953 0.3027 0 8
5.6876 5.4207 -2.4953 0.3027 0 8
5.5997 5.5115 -2.4953 0.3027 0 8
5.5103 5.6008 -2.4953 0.3027 0 8
5.4196 5.6887 -2.4953 0.3027 0 8
6.9459 -3.1734 -2.4953 0.3106 0 8
6.9960 -3.0613 -2.4953 0.3106 0 8
7.0443 -2.9484 -2.4953 0.3106 0 8
7.0908 -2.8347 -2.4953 0.3106 0 8
7.1355 -2.7204 -2.4953 0.3106 0 8
7.1783 -2.6053 -2.4953 0.3106 0 8
7.2192 -2.4895 -2.4953 0.3106 0 8
7.2583 -2.3731 -2.4953 0.3106 0 8
7.2956 -2.2561 -2.4953 0.3106 0 8
7.3309 -2.1385 -2.4953 0.3106 0 8
7.3643 -2.0203 -2.4953 0.3106 0 8
7.3959 -1.9017 -2.4953 0.3106 0 8
7.4255 -1.7825 -2.4953 0.3106 0 8
7.4532 -1.6629 -2.4953 0.3106 0 8
7.4790 -1.5428 -2.4953 0.3106 0 8
7.5028 -1.4223 -2.4953 0.3106 0 8
7.5247 -1.3015 -2.4953 0.3106 0 8
7.5447 -1.1804 -2.4953 0.3106 0 8
7.5627 -1.0589 -2.4953 0.3106 0 8
7.5787 -0.9372 -2.4953 0.3106 0 8
7.5928 -0.8152 -2.4953 0.3106 0 8
7.6049 -0.6930 -2.4953 0.3106 0 8
7.6151 -0.5706 -2.4953 0.3106 0 8
7.6233 -0.4481 -2.4953 0.3106 0 8
7.6295 -0.3254 -2.4953 0.3106 0 8
7.6337 -0.2027 -2.4953 0.3106 0 8
7.6360 -0.0799 -2.4953 0.3106 0 8
7.6363 0.0428 -2.4953 0.3106 0 8
7.6346 0.1656 -2.4953 0.3106 0 8
7.6310 0.2884 -2.4953 0.3106 0 8
7.6254 0.4110 -2.4953 0.3106 0 8
7.6178 0.5336 -2.4953 0.3106 0 8
7.6082 0.6560 -2.4953 0.3106 0 8
7.5967 0.7783 -2.4953 0.3106 0 8
7.5832 0.9003 -2.4953 0.3106 0 8
7.5677 1.0221 -2.4953 0.3106 0 8
7.5503 1.1437 -2.4953 0.3106 0 8
7.5309 1.2649 -2.4953 0.3106 0 8
7.5096 1.3859 -2.4953 0.3106 0 8
7.4864 1.5064 -2.4953 0.3106 0 8
7.4612 1.6266 -2.4953 0.3106 0 8
7.4341 1.7464 -2.4953 0.3106 0 8
7.4050 1.8657 -2.4953 0.3106 0 8
7.3741 1.9845 -2.4953 0.3106 0 8
7.3412 2.1028 -2.4953 0.3106 0 8
7.3064 2.2206 -2.4953 0.3106 0 8
7.2698 2.3378 -2.4953 0.3106 0 8
7.2313 2.4544 -2.4953 0.3106 0 8
7.1909 2.5704 -2.4953 0.3106 0 8
7.1486 2.6857 -2.4953 0.3106 0 8
7.1045 2.8003 -2.4953 0.3106 0 8
7.0585 2.9141 -2.4953 0.3106 0 8
7.0108 3.0273 -2.4953 0.3106 0 8
6.9612 3.1396 -2.4953 0.3106 0 8
6.9098 3.2511 -2.4953 0.3106 0 8
6.8566 3.3618 -2.4953 0.3106 0 8
6.8017 3.4716 -2.4953 0.3106 0 8
6.7450 3.5805 -2.4953 0.3106 0 8
6.6866 3.6885 -2.4953 0.3106 0 8
6.6264 3.7956 -2.4953 0.3106 0 8
6.5645 3.9016 -2.4953 0.3106 0 8
6.5009 4.0067 -2.4953 0.3106 0 8
6.4356 4.1107 -2.4953 0.3106 0 8
6.3687 4.2136 -2.4953 0.3106 0 8
6.3001 4.3155 -2.4953 0.3106 0 8
6.2299 4.4163 -2.4953 0.3106 0 8
6.1581 4.5159 -2.4953 0.3106 0 8
6.0847 4.6143 -2.4953 0.3106 0 8
6.0097 4.7115 -2.4953 0.3106 0 8
5.9332 4.8076 -2.4953 0.3106 0 8
5.8551 4.9023 -2.4953 0.3106 0 8
5.7755 4.9959 -2.4953 0.3106 0 8
5.6944 5.0881 -2.4953 0.3106 0 8
5.6119 5.1790 -2.4953 0.3106 0 8
5.5279 5.2685 -2.4953 0.3106 0 8
5.4425 5.3567 -2.4953 0.3106 0 8
5.3556 5.4436 -2.4953 0.3106 0 8
5.2674 5.5290 -2.4953 0.3106 0 8
6.7552 -3.0863 -2.4953 0.3185 0 8
6.8039 -2.9772 -2.4953 0.3185 0 8
6.8509 -2.8674 -2.4953 0.3185 0 8
6.8961 -2.7569 -2.4953 0.3185 0 8
6.9396 -2.6457 -2.4953 0.3185 0 8
6.9812 -2.5337 -2.4953 0.3185 0 8
7.0211 -2.4212 -2.4953 0.3185 0 8
7.0591 -2.3080 -2.4953 0.3185 0 8
7.0953 -2.1942 -2.4953 0.3185 0 8
7.1296 -2.0798 -2.4953 0.3185 0 8
7.1622 -1.9649 -2.4953 0.3185 0 8
7.1928 -1.8495 -2.4953 0.3185 0 8
7.2216 -1.7336 -2.4953 0.3185 0 8
7.2486 -1.6172 -2.4953 0.3185 0 8
7.2737 -1.5005 -2.4953 0.3185 0 8
7.2968 -1.3833 -2.4953 0.3185 0 8
7.3181 -1.2658 -2.4953 0.3185 0 8
7.3375 -1.1480 -2.4953 0.3185 0 8
7.3551 -1.0298 -2.4953 0.3185 0 8
7.3707 -0.9114 -2.4953 0.3185 0 8
7.3844 -0.7928 -2.4953 0.3185 0 8
7.3962 -0.6739 -2.4953 0.3185 0 8
7.4060 -0.5549 -2.4953 0.3185 0 8
7.4140 -0.4358 -2.4953 0.3185 0 8
7.4201 -0.3165 -2.4953 0.3185 0 8
7.4242 -0.1972 -2.4953 0.3185 0 8
7.4264 -0.0778 -2.4953 0.3185 0 8
