ply
format ascii 1.0
element vertex 1358
property float32 x
property float32 y
property float32 z
property float32 CosAngle
property uint32 ObjIdx
property uint32 ObjTag
end_header
-7.5469 99.7724 -2.4953 0.0249 0 8
-9.1511 99.6381 -2.4953 0.0249 0 8
-10.7531 99.4779 -2.4953 0.0249 0 8
-12.3523 99.2920 -2.4953 0.0249 0 8
-13.9482 99.0804 -2.4953 0.0249 0 8
-15.5405 98.8432 -2.4953 0.0249 0 8
-17.1288 98.5805 -2.4953 0.0249 0 8
-18.7128 98.2920 -2.4953 0.0249 0 8
-20.2918 97.9782 -2.4953 0.0249 0 8
-21.8656 97.6391 -2.4953 0.0249 0 8
-23.4337 97.2746 -2.4953 0.0249 0 8
-24.9957 96.8850 -2.4953 0.0249 0 8
-26.5513 96.4703 -2.4953 0.0249 0 8
-28.1000 96.0306 -2.4953 0.0249 0 8
-29.6414 95.5661 -2.4953 0.0249 0 8
-31.1752 95.0768 -2.4953 0.0249 0 8
-32.7008 94.5629 -2.4953 0.0249 0 8
-34.2181 94.0245 -2.4953 0.0249 0 8
-35.7264 93.4618 -2.4953 0.0249 0 8
-37.2255 92.8748 -2.4953 0.0249 0 8
-41.0796 97.8990 -2.6477 0.0249 0 7
-42.6493 97.2254 -2.6477 0.0249 0 7
-44.2081 96.5266 -2.6477 0.0249 0 7
-45.7554 95.8029 -2.6477 0.0249 0 7
-47.2909 95.0543 -2.6477 0.0249 0 7
-48.8141 94.2811 -2.6477 0.0249 0 7
-50.3248 93.4835 -2.6477 0.0249 0 7
-51.8225 92.6619 -2.6477 0.0249 0 7
-53.3066 91.8159 -2.6477 0.0249 0 7
-54.7769 90.9463 -2.6477 0.0249 0 7
-56.1194 89.8712 -2.6423 0.0339 0 8
-56.2722 86.9693 -2.5833 0.5399 0 8
-56.2916 84.0043 -2.5218 0.5540 0 8
-57.0297 82.2137 -2.4953 0.0249 0 8
-58.3450 81.2856 -2.4953 0.0249 0 8
-59.6453 80.3363 -2.4953 0.0249 0 8
-60.9301 79.3663 -2.4953 0.0249 0 8
-62.1992 78.3757 -2.4953 0.0249 0 8
-63.4521 77.3648 -2.4953 0.0249 0 14
-64.6887 76.3338 -2.4953 0.0249 0 14
-65.9085 75.2832 -2.4953 0.0249 0 14
-67.1113 74.2130 -2.4953 0.0249 0 14
-68.2966 73.1236 -2.4953 0.0249 0 14
50.8740 55.1494 -2.4953 0.0332 0 8
49.9802 55.9607 -2.4953 0.0332 0 8
51.9909 60.1322 -2.6436 0.0294 0 8
51.0947 61.0542 -2.6477 0.0332 0 7
50.1058 61.8684 -2.6477 0.0332 0 7
49.1038 62.6665 -2.6477 0.0332 0 7
48.0892 63.4485 -2.6477 0.0332 0 7
47.0622 64.2140 -2.6477 0.0332 0 7
46.0229 64.9629 -2.6477 0.0332 0 7
44.9718 65.6949 -2.6477 0.0332 0 7
43.9090 66.4100 -2.6477 0.0332 0 7
42.8348 67.1079 -2.6477 0.0332 0 7
41.7495 67.7884 -2.6477 0.0332 0 7
40.6534 68.4513 -2.6477 0.0332 0 7
39.5468 69.0965 -2.6477 0.0332 0 7
38.4300 69.7239 -2.6477 0.0332 0 7
37.3032 70.3332 -2.6477 0.0332 0 7
36.1667 70.9243 -2.6477 0.0332 0 7
35.0209 71.4970 -2.6477 0.0332 0 7
33.8661 72.0512 -2.6477 0.0332 0 7
32.7025 72.5867 -2.6477 0.0332 0 7
31.5303 73.1035 -2.6477 0.0332 0 7
30.3500 73.6013 -2.6477 0.0332 0 7
29.1563 74.0659 -2.6472 0.0490 0 8
27.9050 74.3764 -2.6419 0.0491 0 8
26.5863 74.4840 -2.6302 0.9312 0 8
25.2431 74.4850 -2.6155 0.9364 0 8
23.9144 74.4858 -2.6017 0.9414 0 8
22.5993 74.4865 -2.5887 0.9461 0 8
21.2969 74.4871 -2.5765 0.9506 0 8
20.0064 74.4876 -2.5650 0.9548 0 8
18.7269 74.4880 -2.5543 0.9588 0 8
17.4577 74.4882 -2.5444 0.9626 0 8
16.1980 74.4883 -2.5351 0.9661 0 8
14.9471 74.4883 -2.5266 0.9693 0 8
13.7042 74.4881 -2.5188 0.9723 0 8
12.4686 74.4879 -2.5117 0.9751 0 8
11.2397 74.4875 -2.5052 0.9776 0 8
10.0170 74.4897 -2.4996 0.7237 0 8
8.8020 74.5127 -2.4953 0.0332 0 8
7.6020 74.6447 -2.4953 0.0332 0 8
6.4001 74.7573 -2.4953 0.0332 0 8
5.1964 74.8506 -2.4953 0.0332 0 8
3.9915 74.9246 -2.4953 0.0332 0 8
2.7855 74.9791 -2.4953 0.0332 0 8
1.5787 75.0142 -2.4953 0.0332 0 8
0.3716 75.0299 -2.4953 0.0332 0 8
-0.8356 75.0261 -2.4953 0.0332 0 8
-2.0426 75.0030 -2.4953 0.0332 0 8
-3.2491 74.9604 -2.4953 0.0332 0 8
-4.4547 74.8984 -2.4953 0.0332 0 8
-5.6592 74.8170 -2.4953 0.0332 0 8
-6.8622 74.7163 -2.4953 0.0332 0 8
-8.0634 74.5962 -2.4953 0.0332 0 8
-9.2640 74.4689 -2.4957 0.7253 0 8
-10.4825 74.4622 -2.5008 0.7238 0 8
-11.7066 74.4579 -2.5066 0.9771 0 8
-12.9370 74.4551 -2.5132 0.9745 0 8
-14.1741 74.4521 -2.5205 0.9717 0 8
-15.4188 74.4491 -2.5285 0.9686 0 8
-16.6716 74.4459 -2.5371 0.9653 0 8
-17.9334 74.4425 -2.5465 0.9618 0 8
-19.2048 74.4390 -2.5567 0.9579 0 8
-20.4867 74.4354 -2.5675 0.9539 0 8
-21.7798 74.4316 -2.5791 0.9496 0 8
-23.0849 74.4276 -2.5915 0.9450 0 8
-24.4031 74.4235 -2.6047 0.9403 0 8
-25.7349 74.4192 -2.6187 0.9352 0 8
-27.0815 74.4147 -2.6336 0.9299 0 8
-28.3770 74.2354 -2.6430 0.0491 0 8
-29.6195 73.8984 -2.6477 0.0332 0 7
-30.8046 73.4123 -2.6477 0.0332 0 7
-31.9818 72.9071 -2.6477 0.0332 0 6
-33.1507 72.3831 -2.6477 0.0332 0 7
-34.3110 71.8404 -2.6477 0.0332 0 7
-35.4624 71.2791 -2.6477 0.0332 0 7
-36.6046 70.6993 -2.6477 0.0332 0 7
-37.7374 70.1011 -2.6477 0.0332 0 7
-38.8604 69.4849 -2.6477 0.0332 0 7
-39.9734 68.8506 -2.6477 0.0332 0 7
-41.0760 68.1986 -2.6477 0.0332 0 7
-42.1679 67.5289 -2.6477 0.0332 0 7
-43.2490 66.8417 -2.6477 0.0332 0 7
-44.3188 66.1372 -2.6477 0.0332 0 7
-45.3772 65.4156 -2.6477 0.0332 0 7
-46.4238 64.6770 -2.6477 0.0332 0 7
-47.4584 63.9217 -2.6477 0.0332 0 7
-48.4807 63.1499 -2.6477 0.0332 0 7
-49.4904 62.3617 -2.6477 0.0332 0 7
-50.4874 61.5574 -2.6477 0.0332 0 7
-51.4713 60.7370 -2.6477 0.0332 0 7
-52.4419 59.9010 -2.6477 0.0332 0 7
-53.3989 59.0495 -2.6477 0.0332 0 7
-54.3420 58.1828 -2.6477 0.0332 0 7
43.1760 46.8045 -2.6477 0.0415 0 7
42.4174 47.4931 -2.6477 0.0415 0 7
41.6478 48.1694 -2.6477 0.0415 0 7
40.8673 48.8333 -2.6477 0.0415 0 7
40.0763 49.4845 -2.6477 0.0415 0 7
39.2750 50.1229 -2.6477 0.0415 0 7
38.4635 50.7483 -2.6477 0.0415 0 7
35.4753 48.4043 -2.4953 0.0415 0 8
34.6919 48.9688 -2.4953 0.0415 0 8
33.8996 49.5206 -2.4953 0.0415 0 8
33.0984 50.0596 -2.4953 0.0415 0 8
32.2887 50.5857 -2.4953 0.0415 0 8
31.4706 51.0986 -2.4953 0.0415 0 8
30.6444 51.5984 -2.4953 0.0415 0 8
29.8103 52.0847 -2.4953 0.0415 0 8
28.9684 52.5576 -2.4953 0.0415 0 8
28.1190 53.0169 -2.4953 0.0415 0 8
27.2624 53.4625 -2.4953 0.0415 0 8
26.3987 53.8942 -2.4953 0.0415 0 8
25.5281 54.3119 -2.4953 0.0415 0 8
24.6510 54.7156 -2.4953 0.0415 0 8
23.7674 55.1052 -2.4953 0.0415 0 8
22.8778 55.4804 -2.4953 0.0415 0 8
21.9822 55.8413 -2.4953 0.0415 0 8
21.0809 56.1878 -2.4953 0.0415 0 8
20.1741 56.5197 -2.4953 0.0415 0 8
19.2622 56.8370 -2.4953 0.0415 0 8
18.3452 57.1395 -2.4953 0.0415 0 8
17.4235 57.4273 -2.4953 0.0415 0 8
16.4973 57.7002 -2.4953 0.0415 0 8
15.5668 57.9582 -2.4953 0.0415 0 8
14.6323 58.2011 -2.4953 0.0415 0 8
13.6939 58.4290 -2.4953 0.0415 0 8
12.7521 58.6418 -2.4953 0.0415 0 8
11.8069 58.8393 -2.4953 0.0415 0 8
10.8587 59.0217 -2.4953 0.0415 0 8
9.9077 59.1888 -2.4953 0.0415 0 8
8.9541 59.3405 -2.4953 0.0415 0 8
7.9982 59.4769 -2.4953 0.0415 0 8
7.0402 59.5979 -2.4953 0.0415 0 8
6.0804 59.7034 -2.4953 0.0415 0 8
5.1190 59.7935 -2.4953 0.0415 0 8
4.1563 59.8682 -2.4953 0.0415 0 8
3.1925 59.9273 -2.4953 0.0415 0 8
2.2279 59.9709 -2.4953 0.0415 0 8
1.2627 59.9990 -2.4953 0.0415 0 8
0.2972 60.0115 -2.4953 0.0415 0 8
-0.6684 60.0085 -2.4953 0.0415 0 8
-1.6337 59.9900 -2.4953 0.0415 0 8
-2.5988 59.9560 -2.4953 0.0415 0 8
-3.5631 59.9064 -2.4953 0.0415 0 8
-4.5265 59.8413 -2.4953 0.0415 0 8
-5.4887 59.7607 -2.4953 0.0415 0 8
-6.4495 59.6647 -2.4953 0.0415 0 8
-7.4086 59.5532 -2.4953 0.0415 0 8
-8.3658 59.4263 -2.4953 0.0415 0 8
-9.3209 59.2840 -2.4953 0.0415 0 8
-10.2735 59.1264 -2.4953 0.0415 0 8
-11.2235 58.9534 -2.4953 0.0415 0 8
-12.1706 58.7652 -2.4953 0.0415 0 8
-13.1145 58.5618 -2.4953 0.0415 0 8
-14.0550 58.3432 -2.4953 0.0415 0 8
-14.9919 58.1095 -2.4953 0.0415 0 8
-15.9249 57.8608 -2.4953 0.0415 0 8
-16.8538 57.5971 -2.4953 0.0415 0 8
-17.7783 57.3185 -2.4953 0.0415 0 8
-18.6982 57.0250 -2.4953 0.0415 0 8
-19.6133 56.7168 -2.4953 0.0415 0 8
-20.5233 56.3939 -2.4953 0.0415 0 8
-21.4279 56.0564 -2.4953 0.0415 0 8
-22.3271 55.7043 -2.4953 0.0415 0 8
-23.2204 55.3379 -2.4953 0.0415 0 8
-24.1078 54.9571 -2.4953 0.0415 0 8
-24.9889 54.5622 -2.4953 0.0415 0 8
-25.8635 54.1530 -2.4953 0.0415 0 8
-26.7314 53.7299 -2.4953 0.0415 0 8
-27.5925 53.2929 -2.4953 0.0415 0 8
-28.4464 52.8420 -2.4953 0.0415 0 8
-29.2929 52.3775 -2.4953 0.0415 0 8
-30.1318 51.8994 -2.4953 0.0415 0 8
-30.9630 51.4079 -2.4953 0.0415 0 8
-31.7861 50.9030 -2.4953 0.0415 0 8
-32.6009 50.3850 -2.4953 0.0415 0 8
-33.4074 49.8540 -2.4953 0.0415 0 8
-34.2052 49.3100 -2.4953 0.0415 0 8
-34.9941 48.7533 -2.4953 0.0415 0 8
-35.7740 48.1840 -2.4953 0.0415 0 8
-36.5446 47.6022 -2.4953 0.0415 0 8
-37.3057 47.0080 -2.4953 0.0415 0 8
-40.3816 49.2358 -2.6477 0.0415 0 7
-41.1686 48.5796 -2.6477 0.0415 0 7
-41.9449 47.9109 -2.6477 0.0415 0 7
-42.7103 47.2299 -2.6477 0.0415 0 7
-43.4646 46.5366 -2.6477 0.0415 0 6
33.9003 36.7494 -2.4953 0.0498 0 8
33.3046 37.2901 -2.4953 0.0498 0 8
32.7004 37.8210 -2.4953 0.0498 0 8
32.0877 38.3423 -2.4953 0.0498 0 8
31.4666 38.8536 -2.4953 0.0498 0 8
30.8374 39.3548 -2.4953 0.0498 0 8
30.2002 39.8459 -2.4953 0.0498 0 8
29.5552 40.3266 -2.4953 0.0498 0 8
28.9026 40.7969 -2.4953 0.0498 0 8
28.2424 41.2567 -2.4953 0.0498 0 8
27.5750 41.7057 -2.4953 0.0498 0 8
26.9004 42.1440 -2.4953 0.0498 0 8
26.2189 42.5713 -2.4953 0.0498 0 8
25.5305 42.9877 -2.4953 0.0498 0 8
24.8356 43.3929 -2.4953 0.0498 0 8
24.1342 43.7869 -2.4953 0.0498 0 8
23.4265 44.1695 -2.4953 0.0498 0 8
22.7129 44.5407 -2.4953 0.0498 0 8
21.9933 44.9004 -2.4953 0.0498 0 8
21.2680 45.2484 -2.4953 0.0498 0 8
20.5373 45.5847 -2.4953 0.0498 0 8
19.8012 45.9093 -2.4953 0.0498 0 8
19.0599 46.2219 -2.4953 0.0498 0 8
18.3138 46.5226 -2.4953 0.0498 0 8
17.5629 46.8112 -2.4953 0.0498 0 8
16.8075 47.0878 -2.4953 0.0498 0 8
16.0477 47.3521 -2.4953 0.0498 0 8
15.2838 47.6042 -2.4953 0.0498 0 8
14.5159 47.8439 -2.4953 0.0498 0 8
13.7442 48.0712 -2.4953 0.0498 0 8
12.9690 48.2862 -2.4953 0.0498 0 8
12.1904 48.4886 -2.4953 0.0498 0 8
11.4087 48.6784 -2.4953 0.0498 0 8
10.6240 48.8557 -2.4953 0.0498 0 8
9.8366 49.0203 -2.4953 0.0498 0 8
9.0466 49.1722 -2.4953 0.0498 0 8
8.2543 49.3114 -2.4953 0.0498 0 8
7.4598 49.4378 -2.4953 0.0498 0 8
6.6634 49.5515 -2.4953 0.0498 0 8
5.8653 49.6522 -2.4953 0.0498 0 8
5.0657 49.7402 -2.4953 0.0498 0 8
4.2648 49.8152 -2.4953 0.0498 0 8
3.4627 49.8774 -2.4953 0.0498 0 8
2.6597 49.9267 -2.4953 0.0498 0 8
1.8561 49.9630 -2.4953 0.0498 0 8
1.0520 49.9864 -2.4953 0.0498 0 8
0.2476 49.9969 -2.4953 0.0498 0 8
-0.5568 49.9944 -2.4953 0.0498 0 8
-1.3611 49.9789 -2.4953 0.0498 0 8
-2.1651 49.9506 -2.4953 0.0498 0 8
-2.9685 49.9093 -2.4953 0.0498 0 8
-3.7711 49.8550 -2.4953 0.0498 0 8
-4.5727 49.7879 -2.4953 0.0498 0 8
-5.3732 49.7079 -2.4953 0.0498 0 8
-6.1723 49.6150 -2.4953 0.0498 0 8
-6.9697 49.5093 -2.4953 0.0498 0 8
-7.7654 49.3908 -2.4953 0.0498 0 8
-8.5591 49.2594 -2.4953 0.0498 0 8
-9.3505 49.1153 -2.4953 0.0498 0 8
-10.1395 48.9585 -2.4953 0.0498 0 8
-10.9259 48.7890 -2.4953 0.0498 0 8
-11.7095 48.6070 -2.4953 0.0498 0 8
-12.4901 48.4123 -2.4953 0.0498 0 8
-13.2674 48.2050 -2.4953 0.0498 0 8
-14.0412 47.9853 -2.4953 0.0498 0 8
-14.8115 47.7532 -2.4953 0.0498 0 8
-15.5779 47.5087 -2.4953 0.0498 0 8
-16.3402 47.2519 -2.4953 0.0498 0 8
-17.0984 46.9829 -2.4953 0.0498 0 8
-17.8521 46.7017 -2.4953 0.0498 0 8
-18.6012 46.4085 -2.4953 0.0498 0 8
-19.3454 46.1032 -2.4953 0.0498 0 8
-20.0847 45.7860 -2.4953 0.0498 0 8
-20.8187 45.4569 -2.4953 0.0498 0 8
-21.5474 45.1160 -2.4953 0.0498 0 8
-22.2705 44.7635 -2.4953 0.0498 0 8
-22.9879 44.3994 -2.4953 0.0498 0 8
-23.6993 44.0238 -2.4953 0.0498 0 8
-24.4045 43.6368 -2.4953 0.0498 0 8
-25.1034 43.2385 -2.4953 0.0498 0 8
-25.7959 42.8289 -2.4953 0.0498 0 8
-26.4816 42.4084 -2.4953 0.0498 0 8
-27.1605 41.9768 -2.4953 0.0498 0 8
-27.8324 41.5344 -2.4953 0.0498 0 8
-28.4970 41.0812 -2.4953 0.0498 0 8
-29.1543 40.6174 -2.4953 0.0498 0 8
-29.8040 40.1431 -2.4953 0.0498 0 8
-30.4461 39.6584 -2.4953 0.0498 0 8
-31.0802 39.1634 -2.4953 0.0498 0 8
-31.7063 38.6582 -2.4953 0.0498 0 8
-32.3241 38.1431 -2.4953 0.0498 0 8
-32.9337 37.6181 -2.4953 0.0498 0 8
-33.5347 37.0833 -2.4953 0.0498 0 8
-34.1269 36.5390 -2.4953 0.0498 0 8
30.7894 33.3768 -2.6448 0.0646 0 8
29.7439 33.3031 -2.6007 0.5144 0 8
28.5828 33.0586 -2.5453 0.6342 0 8
27.6083 32.9898 -2.5055 0.7401 0 8
26.9633 33.2931 -2.4953 0.0581 0 8
26.4242 33.7226 -2.4953 0.0581 0 8
25.8782 34.1434 -2.4953 0.0581 0 8
25.3255 34.5554 -2.4953 0.0581 0 8
24.7662 34.9583 -2.4953 0.0581 0 8
24.2006 35.3523 -2.4953 0.0581 0 8
23.6287 35.7371 -2.4953 0.0581 0 8
23.0506 36.1126 -2.4953 0.0581 0 8
22.4666 36.4788 -2.4953 0.0581 0 8
21.8768 36.8356 -2.4953 0.0581 0 8
21.2813 37.1828 -2.4953 0.0581 0 8
20.6803 37.5204 -2.4953 0.0581 0 8
20.0739 37.8483 -2.4953 0.0581 0 8
19.4623 38.1663 -2.4953 0.0581 0 8
18.8458 38.4745 -2.4953 0.0581 0 8
18.2243 38.7728 -2.4953 0.0581 0 8
17.5981 39.0610 -2.4953 0.0581 0 8
16.9674 39.3391 -2.4953 0.0581 0 8
16.3322 39.6070 -2.4953 0.0581 0 8
15.6929 39.8646 -2.4953 0.0581 0 8
15.0494 40.1119 -2.4953 0.0581 0 8
14.4021 40.3489 -2.4953 0.0581 0 8
13.7511 40.5754 -2.4953 0.0581 0 8
13.0965 40.7914 -2.4953 0.0581 0 8
12.4385 40.9968 -2.4953 0.0581 0 8
11.7772 41.1916 -2.4953 0.0581 0 8
11.1130 41.3758 -2.4953 0.0581 0 8
10.4458 41.5492 -2.4953 0.0581 0 8
9.7760 41.7119 -2.4953 0.0581 0 8
9.1036 41.8638 -2.4953 0.0581 0 8
8.4288 42.0048 -2.4953 0.0581 0 8
7.7519 42.1350 -2.4953 0.0581 0 8
7.0730 42.2543 -2.4953 0.0581 0 8
6.3922 42.3626 -2.4953 0.0581 0 8
5.7098 42.4600 -2.4953 0.0581 0 8
5.0259 42.5464 -2.4953 0.0581 0 8
4.3407 42.6217 -2.4953 0.0581 0 8
3.6544 42.6860 -2.4953 0.0581 0 8
2.9671 42.7393 -2.4953 0.0581 0 8
2.2791 42.7815 -2.4953 0.0581 0 8
1.5905 42.8126 -2.4953 0.0581 0 8
0.9015 42.8327 -2.4953 0.0581 0 8
0.2122 42.8417 -2.4953 0.0581 0 8
-0.4771 42.8395 -2.4953 0.0581 0 8
-1.1663 42.8263 -2.4953 0.0581 0 8
-1.8552 42.8020 -2.4953 0.0581 0 8
-2.5436 42.7666 -2.4953 0.0581 0 8
-3.2314 42.7201 -2.4953 0.0581 0 8
-3.9183 42.6626 -2.4953 0.0581 0 8
-4.6042 42.5941 -2.4953 0.0581 0 8
-5.2890 42.5145 -2.4953 0.0581 0 8
-5.9723 42.4239 -2.4953 0.0581 0 8
-6.6541 42.3223 -2.4953 0.0581 0 8
-7.3341 42.2097 -2.4953 0.0581 0 8
-8.0124 42.0863 -2.4953 0.0581 0 8
-8.6884 41.9519 -2.4953 0.0581 0 8
-9.3623 41.8067 -2.4953 0.0581 0 8
-10.0337 41.6507 -2.4953 0.0581 0 8
-10.7026 41.4838 -2.4953 0.0581 0 8
-11.3686 41.3063 -2.4953 0.0581 0 8
-12.0317 41.1180 -2.4953 0.0581 0 8
-12.6917 40.9191 -2.4953 0.0581 0 8
-13.3485 40.7096 -2.4953 0.0581 0 8
-14.0017 40.4896 -2.4953 0.0581 0 8
-14.6514 40.2590 -2.4953 0.0581 0 8
-15.2972 40.0181 -2.4953 0.0581 0 8
-15.9391 39.7668 -2.4953 0.0581 0 8
-16.5768 39.5052 -2.4953 0.0581 0 8
-17.2103 39.2334 -2.4953 0.0581 0 8
-17.8393 38.9514 -2.4953 0.0581 0 8
-18.4637 38.6593 -2.4953 0.0581 0 8
-19.0833 38.3573 -2.4953 0.0581 0 8
-19.6980 38.0453 -2.4953 0.0581 0 8
-20.3076 37.7234 -2.4953 0.0581 0 8
-20.9119 37.3918 -2.4953 0.0581 0 8
-21.5108 37.0505 -2.4953 0.0581 0 8
-22.1041 36.6996 -2.4953 0.0581 0 8
-22.6918 36.3392 -2.4953 0.0581 0 8
-23.2735 35.9694 -2.4953 0.0581 0 8
-23.8492 35.5903 -2.4953 0.0581 0 8
-24.4187 35.2020 -2.4953 0.0581 0 8
-24.9819 34.8045 -2.4953 0.0581 0 8
-25.5387 34.3981 -2.4953 0.0581 0 8
-26.0888 33.9827 -2.4953 0.0581 0 8
-26.6322 33.5586 -2.4953 0.0581 0 8
-27.1687 33.1257 -2.4953 0.0581 0 8
-27.8225 32.8311 -2.5065 0.7612 0 8
-28.7350 32.8222 -2.5408 0.7510 0 8
-29.6782 32.8188 -2.5771 0.7181 0 8
-30.7316 32.9036 -2.6223 0.6088 0 8
26.9607 29.2265 -2.6477 0.0664 0 7
26.4870 29.6565 -2.6477 0.0664 0 7
26.0064 30.0788 -2.6477 0.0664 0 7
25.5191 30.4933 -2.6477 0.0664 0 7
25.0252 30.9000 -2.6477 0.0664 0 7
24.5248 31.2986 -2.6477 0.0664 0 7
24.0180 31.6892 -2.6477 0.0664 0 7
23.5051 32.0715 -2.6477 0.0664 0 7
22.9860 32.4455 -2.6477 0.0664 0 7
22.4236 32.7565 -2.6433 0.0804 0 8
21.7833 32.9460 -2.6299 0.8290 0 8
21.0312 32.9490 -2.6028 0.8376 0 8
20.2943 32.9517 -2.5769 0.8460 0 8
19.5717 32.9543 -2.5521 0.8543 0 8
18.8625 32.9567 -2.5285 0.8622 0 8
18.1661 32.9590 -2.5059 0.8700 0 8
17.5646 33.1170 -2.4961 0.6694 0 8
17.0236 33.3840 -2.4953 0.0664 0 8
16.4843 33.6535 -2.4953 0.0664 0 8
15.9407 33.9144 -2.4953 0.0664 0 8
15.3930 34.1665 -2.4953 0.0664 0 8
14.8413 34.4097 -2.4953 0.0664 0 8
14.2857 34.6441 -2.4953 0.0664 0 8
13.7265 34.8694 -2.4953 0.0664 0 8
13.1637 35.0858 -2.4953 0.0664 0 8
12.5975 35.2930 -2.4953 0.0664 0 8
12.0280 35.4911 -2.4953 0.0664 0 8
11.4554 35.6801 -2.4953 0.0664 0 8
10.8799 35.8598 -2.4953 0.0664 0 8
10.3015 36.0302 -2.4953 0.0664 0 8
9.7205 36.1912 -2.4953 0.0664 0 8
9.1369 36.3429 -2.4953 0.0664 0 8
8.5510 36.4853 -2.4953 0.0664 0 8
7.9629 36.6181 -2.4953 0.0664 0 8
7.3727 36.7415 -2.4953 0.0664 0 8
6.7806 36.8554 -2.4953 0.0664 0 8
6.1867 36.9597 -2.4953 0.0664 0 8
5.5913 37.0544 -2.4953 0.0664 0 8
4.9944 37.1396 -2.4953 0.0664 0 8
4.3961 37.2151 -2.4953 0.0664 0 8
3.7968 37.2811 -2.4953 0.0664 0 8
3.1965 37.3373 -2.4953 0.0664 0 8
2.5953 37.3839 -2.4953 0.0664 0 8
1.9935 37.4208 -2.4953 0.0664 0 8
1.3912 37.4481 -2.4953 0.0664 0 8
0.7885 37.4656 -2.4953 0.0664 0 8
0.1856 37.4734 -2.4953 0.0664 0 8
-0.4173 37.4716 -2.4953 0.0664 0 8
-1.0202 37.4600 -2.4953 0.0664 0 8
-1.6227 37.4388 -2.4953 0.0664 0 8
-2.2249 37.4078 -2.4953 0.0664 0 8
-2.8265 37.3672 -2.4953 0.0664 0 8
-3.4273 37.3168 -2.4953 0.0664 0 8
-4.0273 37.2569 -2.4953 0.0664 0 8
-4.6262 37.1872 -2.4953 0.0664 0 8
-5.2239 37.1080 -2.4953 0.0664 0 8
-5.8203 37.0191 -2.4953 0.0664 0 8
-6.4152 36.9207 -2.4953 0.0664 0 8
-7.0084 36.8127 -2.4953 0.0664 0 8
-7.5997 36.6952 -2.4953 0.0664 0 8
-8.1892 36.5682 -2.4953 0.0664 0 8
-8.7765 36.4317 -2.4953 0.0664 0 8
-9.3615 36.2858 -2.4953 0.0664 0 8
-9.9441 36.1304 -2.4953 0.0664 0 8
-10.5241 35.9658 -2.4953 0.0664 0 8
-11.1014 35.7918 -2.4953 0.0664 0 8
-11.6758 35.6085 -2.4953 0.0664 0 8
-12.2473 35.4161 -2.4953 0.0664 0 8
-12.8155 35.2144 -2.4953 0.0664 0 8
-13.3804 35.0037 -2.4953 0.0664 0 8
-13.9419 34.7839 -2.4953 0.0664 0 8
-14.4997 34.5551 -2.4953 0.0664 0 8
-15.0538 34.3173 -2.4953 0.0664 0 8
-15.6040 34.0706 -2.4953 0.0664 0 8
-16.1501 33.8152 -2.4953 0.0664 0 8
-16.6921 33.5510 -2.4953 0.0664 0 8
-17.2298 33.2781 -2.4953 0.0664 0 8
-17.7630 32.9965 -2.4953 0.0664 0 8
-18.3759 32.8573 -2.5068 0.8697 0 8
-19.0727 32.8511 -2.5294 0.8619 0 8
-19.7824 32.8448 -2.5531 0.8539 0 8
-20.5056 32.8382 -2.5779 0.8457 0 8
-21.2430 32.8313 -2.6038 0.8373 0 8
-21.9956 32.8242 -2.6310 0.8287 0 8
-22.6275 32.6196 -2.6435 0.0804 0 8
-23.1862 32.3027 -2.6477 0.0664 0 7
-23.7029 31.9255 -2.6477 0.0664 0 7
-24.2135 31.5400 -2.6477 0.0664 0 7
-24.7179 31.1463 -2.6477 0.0664 0 7
-25.2158 30.7446 -2.6477 0.0664 0 7
-25.7072 30.3349 -2.6477 0.0664 0 7
-26.1919 29.9174 -2.6477 0.0664 0 6
-26.6699 29.4921 -2.6477 0.0664 0 7
-27.1409 29.0592 -2.6477 0.0664 0 7
23.9557 25.9689 -2.6477 0.0747 0 7
23.5348 26.3510 -2.6477 0.0747 0 7
23.1078 26.7262 -2.6477 0.0747 0 7
22.6748 27.0946 -2.6477 0.0747 0 7
22.2359 27.4559 -2.6477 0.0747 0 7
21.7913 27.8101 -2.6477 0.0747 0 7
21.3410 28.1571 -2.6477 0.0747 0 7
20.8852 28.4968 -2.6477 0.0747 0 7
20.4240 28.8292 -2.6477 0.0747 0 7
19.9575 29.1540 -2.6477 0.0747 0 7
19.4859 29.4714 -2.6477 0.0747 0 7
19.0092 29.7811 -2.6477 0.0747 0 7
18.5276 30.0831 -2.6477 0.0747 0 7
18.0411 30.3773 -2.6477 0.0747 0 7
17.5501 30.6636 -2.6477 0.0747 0 7
17.0544 30.9420 -2.6477 0.0747 0 7
16.5544 31.2124 -2.6477 0.0747 0 7
16.0500 31.4747 -2.6477 0.0747 0 7
15.5416 31.7289 -2.6477 0.0747 0 7
15.0290 31.9748 -2.6477 0.0747 0 7
14.5127 32.2125 -2.6477 0.0747 0 7
13.9925 32.4418 -2.6477 0.0747 0 7
13.4551 32.6297 -2.6450 0.0903 0 8
12.9137 32.8047 -2.6420 0.0904 0 8
12.3507 32.9189 -2.6348 0.9307 0 8
11.7505 32.9201 -2.6195 0.9362 0 8
11.1570 32.9211 -2.6049 0.9414 0 8
10.5699 32.9220 -2.5912 0.9464 0 8
9.9888 32.9228 -2.5783 0.9511 0 8
9.4133 32.9235 -2.5661 0.9556 0 8
8.8429 32.9240 -2.5548 0.9599 0 8
8.2775 32.9244 -2.5441 0.9639 0 8
7.7165 32.9247 -2.5342 0.9676 0 8
7.1598 32.9248 -2.5250 0.9712 0 8
6.6068 32.9249 -2.5166 0.9744 0 8
6.0574 32.9248 -2.5088 0.9775 0 8
5.5114 32.9255 -2.5018 0.7479 0 8
4.9689 32.9300 -2.4957 0.7497 0 8
4.4377 33.0001 -2.4953 0.0747 0 8
3.9076 33.0790 -2.4962 0.7529 0 8
3.3736 33.1258 -2.4953 0.0747 0 8
2.8402 33.1757 -2.4953 0.0747 0 8
2.3061 33.2171 -2.4953 0.0747 0 8
1.7713 33.2500 -2.4953 0.0747 0 8
1.2361 33.2741 -2.4953 0.0747 0 8
0.7006 33.2897 -2.4953 0.0747 0 8
0.1649 33.2967 -2.4953 0.0747 0 8
-0.3708 33.2950 -2.4953 0.0747 0 8
-0.9065 33.2848 -2.4953 0.0747 0 8
-1.4419 33.2659 -2.4953 0.0747 0 8
-1.9769 33.2384 -2.4953 0.0747 0 8
-2.5115 33.2023 -2.4953 0.0747 0 8
-3.0453 33.1575 -2.4953 0.0747 0 8
-3.5784 33.1043 -2.4953 0.0747 0 8
-4.1107 33.0424 -2.4953 0.0747 0 8
-4.6417 32.9720 -2.4953 0.0747 0 8
-5.1729 32.9016 -2.4959 0.7496 0 8
-5.7155 32.8940 -2.5020 0.7480 0 8
-6.2617 32.8905 -2.5091 0.9773 0 8
-6.8112 32.8875 -2.5169 0.9743 0 8
-7.3642 32.8844 -2.5254 0.9710 0 8
-7.9211 32.8812 -2.5346 0.9675 0 8
-8.4823 32.8778 -2.5445 0.9637 0 8
-9.0479 32.8742 -2.5552 0.9597 0 8
-9.6184 32.8705 -2.5666 0.9554 0 8
-10.1941 32.8667 -2.5788 0.9509 0 8
-10.7755 32.8626 -2.5917 0.9462 0 8
-11.3628 32.8585 -2.6055 0.9412 0 8
-11.9565 32.8541 -2.6200 0.9359 0 8
-12.5570 32.8496 -2.6355 0.9305 0 8
-13.1169 32.7257 -2.6421 0.0904 0 8
-13.6572 32.5473 -2.6451 0.0903 0 8
-14.1928 32.3547 -2.6477 0.0747 0 7
-14.7116 32.1221 -2.6477 0.0747 0 7
-15.2265 31.8813 -2.6477 0.0747 0 7
-15.7375 31.6321 -2.6477 0.0747 0 7
-16.2444 31.3748 -2.6477 0.0747 0 7
-16.7471 31.1094 -2.6477 0.0747 0 7
-17.2454 30.8359 -2.6477 0.0747 0 7
-17.7394 30.5545 -2.6477 0.0747 0 7
-18.2287 30.2651 -2.6477 0.0747 0 7
-18.7133 29.9679 -2.6477 0.0747 0 7
-19.1930 29.6629 -2.6477 0.0747 0 7
-19.6678 29.3503 -2.6477 0.0747 0 7
-20.1375 29.0301 -2.6477 0.0747 0 7
-20.6019 28.7023 -2.6477 0.0747 0 7
-21.0610 28.3671 -2.6477 0.0747 0 7
-21.5147 28.0246 -2.6477 0.0747 0 7
-21.9628 27.6748 -2.6477 0.0747 0 7
-22.4052 27.3179 -2.6477 0.0747 0 7
-22.8419 26.9538 -2.6477 0.0747 0 7
-23.2726 26.5828 -2.6477 0.0747 0 7
-23.6973 26.2049 -2.6477 0.0747 0 7
-24.1158 25.8203 -2.6477 0.0747 0 7
20.3722 22.0843 -2.5029 0.0830 0 14
20.0143 22.4092 -2.5029 0.0830 0 8
20.7879 24.0430 -2.6477 0.0830 0 7
20.3983 24.3744 -2.6477 0.0830 0 7
20.0035 24.6995 -2.6477 0.0830 0 7
19.6035 25.0181 -2.6477 0.0830 0 7
19.1985 25.3303 -2.6477 0.0830 0 7
18.7884 25.6359 -2.6477 0.0830 0 7
18.3735 25.9348 -2.6477 0.0830 0 7
17.9539 26.2271 -2.6477 0.0830 0 7
17.5296 26.5126 -2.6477 0.0830 0 7
17.1007 26.7912 -2.6477 0.0830 0 7
16.6675 27.0629 -2.6477 0.0830 0 7
16.2299 27.3275 -2.6477 0.0830 0 7
15.7881 27.5851 -2.6477 0.0830 0 7
15.3422 27.8356 -2.6477 0.0830 0 7
14.8924 28.0788 -2.6477 0.0830 0 7
14.4387 28.3148 -2.6477 0.0830 0 7
13.9813 28.5434 -2.6477 0.0830 0 7
13.5202 28.7647 -2.6477 0.0830 0 7
13.0557 28.9785 -2.6477 0.0830 0 7
12.5877 29.1848 -2.6477 0.0830 0 7
12.1165 29.3836 -2.6477 0.0830 0 7
11.6422 29.5747 -2.6477 0.0830 0 7
11.1648 29.7582 -2.6477 0.0830 0 7
10.6846 29.9340 -2.6477 0.0830 0 6
10.2016 30.1020 -2.6477 0.0830 0 7
9.7160 30.2622 -2.6477 0.0830 0 7
9.2278 30.4146 -2.6477 0.0830 0 7
8.7373 30.5592 -2.6477 0.0830 0 7
8.2445 30.6958 -2.6477 0.0830 0 7
7.7495 30.8245 -2.6477 0.0830 0 7
7.2526 30.9452 -2.6477 0.0830 0 7
6.7538 31.0578 -2.6477 0.0830 0 7
6.2532 31.1625 -2.6477 0.0830 0 7
5.7510 31.2591 -2.6477 0.0830 0 7
5.2473 31.3475 -2.6477 0.0830 0 7
4.7423 31.4279 -2.6477 0.0830 0 7
4.2360 31.5001 -2.6477 0.0830 0 7
3.7286 31.5642 -2.6477 0.0830 0 7
3.2203 31.6201 -2.6477 0.0830 0 7
2.7111 31.6678 -2.6477 0.0830 0 7
2.2013 31.7074 -2.6477 0.0830 0 7
1.6908 31.7387 -2.6477 0.0830 0 7
1.1800 31.7618 -2.6477 0.0830 0 7
0.6688 31.7767 -2.6477 0.0830 0 7
0.1574 31.7833 -2.6477 0.0830 0 7
-0.3540 31.7817 -2.6477 0.0830 0 7
-0.8653 31.7719 -2.6477 0.0830 0 7
-1.3764 31.7539 -2.6477 0.0830 0 7
-1.8871 31.7276 -2.6477 0.0830 0 7
-2.3973 31.6932 -2.6477 0.0830 0 7
-2.9069 31.6505 -2.6477 0.0830 0 7
-3.4158 31.5996 -2.6477 0.0830 0 7
-3.9238 31.5406 -2.6477 0.0830 0 7
-4.4307 31.4733 -2.6477 0.0830 0 7
-4.9365 31.3980 -2.6477 0.0830 0 7
-5.4410 31.3145 -2.6477 0.0830 0 7
-5.9442 31.2229 -2.6477 0.0830 0 7
-6.4458 31.1232 -2.6477 0.0830 0 7
-6.9457 31.0155 -2.6477 0.0830 0 7
-7.4438 30.8997 -2.6477 0.0830 0 7
-7.9400 30.7759 -2.6477 0.0830 0 7
-8.4341 30.6442 -2.6477 0.0830 0 7
-8.9261 30.5046 -2.6477 0.0830 0 7
-9.4157 30.3570 -2.6477 0.0830 0 7
-9.9029 30.2016 -2.6477 0.0830 0 7
-10.3876 30.0383 -2.6477 0.0830 0 7
-10.8695 29.8673 -2.6477 0.0830 0 6
-11.3487 29.6886 -2.6477 0.0830 0 7
-11.8249 29.5021 -2.6477 0.0830 0 7
-12.2980 29.3081 -2.6477 0.0830 0 7
-12.7679 29.1064 -2.6477 0.0830 0 7
-13.2346 28.8972 -2.6477 0.0830 0 7
-13.6978 28.6805 -2.6477 0.0830 0 7
-14.1575 28.4564 -2.6477 0.0830 0 7
-14.6135 28.2250 -2.6477 0.0830 0 7
-15.0658 27.9862 -2.6477 0.0830 0 7
-15.5141 27.7402 -2.6477 0.0830 0 7
-15.9584 27.4869 -2.6477 0.0830 0 7
-16.3986 27.2266 -2.6477 0.0830 0 7
-16.8345 26.9593 -2.6477 0.0830 0 7
-17.2661 26.6849 -2.6477 0.0830 0 7
-17.6932 26.4037 -2.6477 0.0830 0 7
-18.1157 26.1156 -2.6477 0.0830 0 7
-18.5336 25.8207 -2.6477 0.0830 0 7
-18.9466 25.5192 -2.6477 0.0830 0 7
-19.3547 25.2111 -2.6477 0.0830 0 7
-19.7579 24.8964 -2.6477 0.0830 0 7
-20.1559 24.5753 -2.6477 0.0830 0 7
-20.5487 24.2478 -2.6477 0.0830 0 7
-20.9361 23.9140 -2.6477 0.0830 0 7
-20.1525 22.2850 -2.5029 0.0830 0 8
-20.5084 21.9579 -2.5029 0.0830 0 14
18.5112 20.0669 -2.5029 0.0913 0 14
18.1860 20.3621 -2.5029 0.0913 0 14
17.8560 20.6521 -2.5029 0.0913 0 14
17.5214 20.9367 -2.5029 0.0913 0 14
17.1823 21.2159 -2.5029 0.0913 0 14
16.8387 21.4896 -2.5029 0.0913 0 14
16.4908 21.7578 -2.5029 0.0913 0 14
16.1386 22.0203 -2.5029 0.0913 0 14
15.7822 22.2771 -2.5029 0.0913 0 14
16.3138 23.8313 -2.6477 0.0913 0 7
15.9283 24.0907 -2.6477 0.0913 0 7
15.5386 24.3438 -2.6477 0.0913 0 7
15.1449 24.5907 -2.6477 0.0913 0 7
14.7473 24.8312 -2.6477 0.0913 0 7
14.3459 25.0652 -2.6477 0.0913 0 7
13.9407 25.2928 -2.6477 0.0913 0 7
13.5320 25.5138 -2.6477 0.0913 0 7
13.1197 25.7282 -2.6477 0.0913 0 7
12.7041 25.9360 -2.6477 0.0913 0 7
12.2851 26.1370 -2.6477 0.0913 0 7
11.8630 26.3313 -2.6477 0.0913 0 7
11.4378 26.5188 -2.6477 0.0913 0 7
11.0097 26.6994 -2.6477 0.0913 0 7
10.5787 26.8731 -2.6477 0.0913 0 7
10.1449 27.0398 -2.6477 0.0913 0 7
9.7086 27.1995 -2.6477 0.0913 0 7
9.2697 27.3522 -2.6477 0.0913 0 7
8.8284 27.4978 -2.6477 0.0913 0 7
8.3849 27.6363 -2.6477 0.0913 0 7
7.9391 27.7676 -2.6477 0.0913 0 7
7.4913 27.8918 -2.6477 0.0913 0 7
7.0416 28.0087 -2.6477 0.0913 0 7
6.5901 28.1183 -2.6477 0.0913 0 7
6.1368 28.2207 -2.6477 0.0913 0 7
5.6820 28.3158 -2.6477 0.0913 0 7
5.2256 28.4036 -2.6477 0.0913 0 7
4.7680 28.4840 -2.6477 0.0913 0 7
4.3091 28.5570 -2.6477 0.0913 0 7
3.8490 28.6226 -2.6477 0.0913 0 7
3.3880 28.6808 -2.6477 0.0913 0 7
2.9261 28.7316 -2.6477 0.0913 0 7
2.4635 28.7750 -2.6477 0.0913 0 7
2.0002 28.8109 -2.6477 0.0913 0 7
1.5364 28.8394 -2.6477 0.0913 0 7
1.0722 28.8604 -2.6477 0.0913 0 7
0.6077 28.8739 -2.6477 0.0913 0 7
0.1430 28.8799 -2.6477 0.0913 0 7
-0.3216 28.8785 -2.6477 0.0913 0 7
-0.7862 28.8696 -2.6477 0.0913 0 7
-1.2506 28.8532 -2.6477 0.0913 0 7
-1.7147 28.8293 -2.6477 0.0913 0 7
-2.1783 28.7980 -2.6477 0.0913 0 7
-2.6414 28.7592 -2.6477 0.0913 0 7
-3.1038 28.7130 -2.6477 0.0913 0 7
-3.5653 28.6593 -2.6477 0.0913 0 7
-4.0260 28.5983 -2.6477 0.0913 0 7
-4.4856 28.5298 -2.6477 0.0913 0 7
-4.9440 28.4539 -2.6477 0.0913 0 7
-5.4012 28.3707 -2.6477 0.0913 0 7
-5.8570 28.2801 -2.6477 0.0913 0 7
-6.3112 28.1822 -2.6477 0.0913 0 7
-6.7638 28.0770 -2.6477 0.0913 0 7
-7.2147 27.9646 -2.6477 0.0913 0 7
-7.6637 27.8449 -2.6477 0.0913 0 7
-8.1107 27.7180 -2.6477 0.0913 0 7
-8.5556 27.5839 -2.6477 0.0913 0 7
-8.9983 27.4427 -2.6477 0.0913 0 7
-9.4387 27.2943 -2.6477 0.0913 0 7
-9.8766 27.1389 -2.6477 0.0913 0 7
-10.3120 26.9765 -2.6477 0.0913 0 7
-10.7447 26.8071 -2.6477 0.0913 0 7
-11.1746 26.6308 -2.6477 0.0913 0 7
-11.6016 26.4475 -2.6477 0.0913 0 7
-12.0256 26.2575 -2.6477 0.0913 0 7
-12.4465 26.0606 -2.6477 0.0913 0 7
-12.8642 25.8569 -2.6477 0.0913 0 7
-13.2786 25.6466 -2.6477 0.0913 0 7
-13.6895 25.4296 -2.6477 0.0913 0 7
-14.0969 25.2061 -2.6477 0.0913 0 7
-14.5006 24.9760 -2.6477 0.0913 0 7
-14.9006 24.7395 -2.6477 0.0913 0 7
-15.2967 24.4965 -2.6477 0.0913 0 7
-15.6889 24.2473 -2.6477 0.0913 0 7
-16.0769 23.9917 -2.6477 0.0913 0 7
-16.4609 23.7299 -2.6477 0.0913 0 7
-15.9197 22.1791 -2.5029 0.0913 0 14
-16.2744 21.9201 -2.5029 0.0913 0 14
-16.6250 21.6554 -2.5029 0.0913 0 14
-16.9713 21.3851 -2.5029 0.0913 0 14
-17.3131 21.1093 -2.5029 0.0913 0 14
-17.6506 20.8280 -2.5029 0.0913 0 14
-17.9834 20.5413 -2.5029 0.0913 0 14
-18.3116 20.2493 -2.5029 0.0913 0 14
-18.6350 19.9520 -2.5029 0.0913 0 14
17.5216 18.9941 -2.5858 0.7354 0 8
16.9689 18.9994 -2.5490 0.7460 0 8
16.4314 19.0044 -2.5139 0.7565 0 8
16.0528 19.1818 -2.5029 0.0996 0 14
15.7421 19.4376 -2.5029 0.0996 0 14
15.4273 19.6884 -2.5029 0.0996 0 14
15.1085 19.9340 -2.5029 0.0996 0 14
14.7858 20.1745 -2.5029 0.0996 0 14
14.4593 20.4098 -2.5029 0.0996 0 14
14.1291 20.6398 -2.5029 0.0996 0 14
13.7952 20.8645 -2.5029 0.0996 0 14
13.4577 21.0837 -2.5029 0.0996 0 14
13.1167 21.2975 -2.5029 0.0996 0 14
12.7724 21.5058 -2.5029 0.0996 0 14
12.4247 21.7085 -2.5029 0.0996 0 14
12.0738 21.9056 -2.5029 0.0996 0 14
11.7198 22.0970 -2.5029 0.0996 0 14
11.3628 22.2827 -2.5029 0.0996 0 14
11.6392 23.7620 -2.6477 0.0996 0 7
11.2554 23.9462 -2.6477 0.0996 0 7
10.8687 24.1242 -2.6477 0.0996 0 7
10.4791 24.2960 -2.6477 0.0996 0 7
10.0868 24.4614 -2.6477 0.0996 0 7
9.6920 24.6206 -2.6477 0.0996 0 7
9.2946 24.7733 -2.6477 0.0996 0 7
8.8948 24.9196 -2.6477 0.0996 0 7
8.4927 25.0595 -2.6477 0.0996 0 7
8.0884 25.1929 -2.6477 0.0996 0 7
7.6820 25.3198 -2.6477 0.0996 0 7
7.2737 25.4401 -2.6477 0.0996 0 7
6.8634 25.5539 -2.6477 0.0996 0 7
6.4514 25.6610 -2.6477 0.0996 0 7
6.0377 25.7614 -2.6477 0.0996 0 7
5.6224 25.8552 -2.6477 0.0996 0 7
5.2057 25.9424 -2.6477 0.0996 0 7
4.7876 26.0228 -2.6477 0.0996 0 7
4.3683 26.0964 -2.6477 0.0996 0 7
3.9479 26.1633 -2.6477 0.0996 0 7
3.5264 26.2235 -2.6477 0.0996 0 7
3.1040 26.2768 -2.6477 0.0996 0 7
2.6809 26.3234 -2.6477 0.0996 0 7
2.2570 26.3631 -2.6477 0.0996 0 7
1.8325 26.3960 -2.6477 0.0996 0 7
1.4076 26.4220 -2.6477 0.0996 0 7
0.9823 26.4413 -2.6477 0.0996 0 7
0.5567 26.4537 -2.6477 0.0996 0 7
0.1311 26.4592 -2.6477 0.0996 0 6
-0.2947 26.4579 -2.6477 0.0996 0 6
-0.7203 26.4497 -2.6477 0.0996 0 6
-1.1458 26.4347 -2.6477 0.0996 0 6
-1.5710 26.4128 -2.6477 0.0996 0 6
-1.9958 26.3841 -2.6477 0.0996 0 7
-2.4200 26.3486 -2.6477 0.0996 0 7
-2.8436 26.3063 -2.6477 0.0996 0 7
-3.2665 26.2571 -2.6477 0.0996 0 7
-3.6885 26.2012 -2.6477 0.0996 0 7
-4.1096 26.1384 -2.6477 0.0996 0 7
-4.5296 26.0689 -2.6477 0.0996 0 7
-4.9485 25.9927 -2.6477 0.0996 0 7
-5.3660 25.9097 -2.6477 0.0996 0 7
-5.7822 25.8200 -2.6477 0.0996 0 7
-6.1969 25.7236 -2.6477 0.0996 0 7
-6.6100 25.6206 -2.6477 0.0996 0 7
-7.0213 25.5109 -2.6477 0.0996 0 7
-7.4309 25.3946 -2.6477 0.0996 0 7
-7.8385 25.2718 -2.6477 0.0996 0 7
-8.2441 25.1424 -2.6477 0.0996 0 7
-8.6475 25.0065 -2.6477 0.0996 0 7
-9.0487 24.8641 -2.6477 0.0996 0 7
-9.4476 24.7153 -2.6477 0.0996 0 7
-9.8440 24.5601 -2.6477 0.0996 0 7
-10.2379 24.3986 -2.6477 0.0996 0 7
-10.6292 24.2307 -2.6477 0.0996 0 7
-11.0176 24.0565 -2.6477 0.0996 0 7
-11.4033 23.8762 -2.6477 0.0996 0 7
-11.7859 23.6896 -2.6477 0.0996 0 7
-11.5003 22.2121 -2.5029 0.0996 0 14
-11.8562 22.0241 -2.5029 0.0996 0 14
-12.2090 21.8305 -2.5029 0.0996 0 14
-12.5587 21.6313 -2.5029 0.0996 0 14
-12.9051 21.4264 -2.5029 0.0996 0 14
-13.2482 21.2160 -2.5029 0.0996 0 14
-13.5878 21.0001 -2.5029 0.0996 0 14
-13.9239 20.7788 -2.5029 0.0996 0 14
-14.2565 20.5520 -2.5029 0.0996 0 14
-14.5853 20.3200 -2.5029 0.0996 0 14
-14.9103 20.0827 -2.5029 0.0996 0 14
-15.2315 19.8402 -2.5029 0.0996 0 14
-15.5487 19.5926 -2.5029 0.0996 0 14
-15.8620 19.3399 -2.5029 0.0996 0 14
-16.1711 19.0821 -2.5029 0.0996 0 14
-16.5574 18.9125 -2.5153 0.7561 0 8
-17.0955 18.9045 -2.5505 0.7456 0 8
-17.6488 18.8961 -2.5873 0.7350 0 8
16.5510 17.9419 -2.6477 0.1078 0 7
16.2602 18.2059 -2.6477 0.1078 0 7
15.9652 18.4652 -2.6477 0.1078 0 6
15.6660 18.7196 -2.6477 0.1078 0 7
15.3628 18.9693 -2.6477 0.1078 0 7
14.8732 18.9813 -2.6156 0.7874 0 8
14.3898 18.9858 -2.5840 0.7971 0 8
13.9177 18.9901 -2.5538 0.8065 0 8
13.4564 18.9941 -2.5249 0.8157 0 8
13.0347 19.0411 -2.5029 0.1078 0 8
12.7266 19.2483 -2.5029 0.1078 0 14
12.4153 19.4506 -2.5029 0.1078 0 14
12.1007 19.6478 -2.5029 0.1078 0 14
11.7830 19.8400 -2.5029 0.1078 0 14
11.4623 20.0270 -2.5029 0.1078 0 14
11.1386 20.2088 -2.5029 0.1078 0 14
10.8120 20.3854 -2.5029 0.1078 0 14
10.4826 20.5568 -2.5029 0.1078 0 14
10.1505 20.7228 -2.5029 0.1078 0 14
9.8158 20.8834 -2.5029 0.1078 0 14
9.4785 21.0386 -2.5029 0.1078 0 14
9.1388 21.1884 -2.5029 0.1078 0 14
8.7967 21.3327 -2.5029 0.1078 0 14
8.4523 21.4715 -2.5029 0.1078 0 14
8.1058 21.6047 -2.5029 0.1078 0 14
7.7571 21.7323 -2.5029 0.1078 0 14
7.4065 21.8543 -2.5029 0.1078 0 14
7.0539 21.9706 -2.5029 0.1078 0 14
6.6995 22.0813 -2.5029 0.1078 0 14
6.3433 22.1862 -2.5029 0.1078 0 14
5.9856 22.2854 -2.5029 0.1078 0 8
5.6263 22.3788 -2.5029 0.1078 0 8
5.5700 23.7660 -2.6477 0.1078 0 7
5.1869 23.8525 -2.6477 0.1078 0 7
4.8025 23.9329 -2.6477 0.1078 0 7
4.4168 24.0071 -2.6477 0.1078 0 7
4.0299 24.0750 -2.6477 0.1078 0 7
3.6421 24.1368 -2.6477 0.1078 0 7
3.2533 24.1922 -2.6477 0.1078 0 7
2.8636 24.2414 -2.6477 0.1078 0 7
2.4732 24.2844 -2.6477 0.1078 0 7
2.0822 24.3210 -2.6477 0.1078 0 7
1.6906 24.3514 -2.6477 0.1078 0 7
1.2986 24.3754 -2.6477 0.1078 0 7
0.9062 24.3932 -2.6477 0.1078 0 7
0.5136 24.4046 -2.6477 0.1078 0 7
0.1209 24.4097 -2.6477 0.1078 0 7
-0.2718 24.4085 -2.6477 0.1078 0 7
-0.6645 24.4009 -2.6477 0.1078 0 7
-1.0570 24.3871 -2.6477 0.1078 0 7
-1.4493 24.3669 -2.6477 0.1078 0 7
-1.8411 24.3405 -2.6477 0.1078 0 7
-2.2325 24.3077 -2.6477 0.1078 0 7
-2.6233 24.2686 -2.6477 0.1078 0 7
-3.0135 24.2233 -2.6477 0.1078 0 7
-3.4028 24.1717 -2.6477 0.1078 0 7
-3.7913 24.1138 -2.6477 0.1078 0 7
-4.1788 24.0497 -2.6477 0.1078 0 7
-4.5652 23.9793 -2.6477 0.1078 0 7
-4.9504 23.9028 -2.6477 0.1078 0 7
-5.3343 23.8200 -2.6477 0.1078 0 7
-5.7169 23.7311 -2.6477 0.1078 0 7
-5.7645 22.3436 -2.5029 0.1078 0 8
-6.1232 22.2479 -2.5029 0.1078 0 8
-6.4804 22.1465 -2.5029 0.1078 0 14
-6.8359 22.0394 -2.5029 0.1078 0 14
-7.1896 21.9266 -2.5029 0.1078 0 14
-7.5415 21.8081 -2.5029 0.1078 0 14
-7.8914 21.6839 -2.5029 0.1078 0 14
-8.2392 21.5541 -2.5029 0.1078 0 14
-8.5849 21.4188 -2.5029 0.1078 0 14
-8.9284 21.2779 -2.5029 0.1078 0 14
-9.2696 21.1315 -2.5029 0.1078 0 14
-9.6084 20.9796 -2.5029 0.1078 0 14
-9.9447 20.8223 -2.5029 0.1078 0 14
-10.2785 20.6596 -2.5029 0.1078 0 14
-10.6095 20.4915 -2.5029 0.1078 0 14
-10.9379 20.3182 -2.5029 0.1078 0 14
-11.2633 20.1396 -2.5029 0.1078 0 14
-11.5859 19.9557 -2.5029 0.1078 0 14
-11.9055 19.7667 -2.5029 0.1078 0 14
-12.2220 19.5726 -2.5029 0.1078 0 14
-12.5353 19.3735 -2.5029 0.1078 0 14
-12.8454 19.1693 -2.5029 0.1078 0 14
-13.1522 18.9601 -2.5029 0.1078 0 8
-13.5795 18.9188 -2.5260 0.8154 0 8
-14.0412 18.9122 -2.5549 0.8061 0 8
-14.5137 18.9052 -2.5852 0.7967 0 8
-14.9975 18.8980 -2.6169 0.7870 0 8
-15.4798 18.8739 -2.6477 0.1078 0 7
-15.7815 18.6224 -2.6477 0.1078 0 7
-16.0791 18.3661 -2.6477 0.1078 0 6
-16.3725 18.1050 -2.6477 0.1078 0 7
-16.6616 17.8392 -2.6477 0.1078 0 7
15.3592 16.6499 -2.6477 0.1161 0 7
15.0893 16.8949 -2.6477 0.1161 0 7
14.8155 17.1355 -2.6477 0.1161 0 7
14.5379 17.3717 -2.6477 0.1161 0 7
14.2565 17.6033 -2.6477 0.1161 0 7
13.9714 17.8304 -2.6477 0.1161 0 7
13.6828 18.0529 -2.6477 0.1161 0 7
13.3905 18.2707 -2.6477 0.1161 0 7
13.0948 18.4838 -2.6477 0.1161 0 6
12.7957 18.6921 -2.6477 0.1161 0 7
12.4934 18.8955 -2.6477 0.1161 0 7
12.1090 18.9708 -2.6306 0.8429 0 8
11.6860 18.9744 -2.6047 0.8513 0 8
11.2710 18.9779 -2.5799 0.8595 0 8
10.8637 18.9811 -2.5563 0.8674 0 8
10.4636 18.9842 -2.5337 0.8751 0 8
10.0703 18.9871 -2.5121 0.8827 0 8
9.7278 19.0765 -2.5029 0.1161 0 8
9.4196 19.2305 -2.5029 0.1161 0 14
9.1089 19.3796 -2.5029 0.1161 0 14
8.7960 19.5236 -2.5029 0.1161 0 14
8.4807 19.6626 -2.5029 0.1161 0 14
8.1632 19.7965 -2.5029 0.1161 0 14
7.8437 19.9253 -2.5029 0.1161 0 14
7.5221 20.0489 -2.5029 0.1161 0 14
7.1985 20.1674 -2.5029 0.1161 0 14
6.8731 20.2806 -2.5029 0.1161 0 14
6.5459 20.3885 -2.5029 0.1161 0 14
6.2171 20.4912 -2.5029 0.1161 0 14
5.8866 20.5886 -2.5029 0.1161 0 14
5.5545 20.6806 -2.5029 0.1161 0 14
5.2211 20.7673 -2.5029 0.1161 0 14
4.8863 20.8487 -2.5029 0.1161 0 14
4.5502 20.9246 -2.5029 0.1161 0 14
4.2129 20.9951 -2.5029 0.1161 0 14
3.8746 21.0601 -2.5029 0.1161 0 14
3.5353 21.1198 -2.5029 0.1161 0 14
3.1950 21.1739 -2.5029 0.1161 0 14
2.8539 21.2226 -2.5029 0.1161 0 14
2.5121 21.2657 -2.5029 0.1161 0 14
2.1696 21.3034 -2.5029 0.1161 0 14
1.8266 21.3355 -2.5029 0.1161 0 14
1.4831 21.3622 -2.5029 0.1161 0 14
1.1392 21.3833 -2.5029 0.1161 0 14
0.7950 21.3988 -2.5029 0.1161 0 14
0.4506 21.4089 -2.5029 0.1161 0 14
0.1061 21.4133 -2.5029 0.1161 0 14
-0.2385 21.4123 -2.5029 0.1161 0 14
-0.5830 21.4057 -2.5029 0.1161 0 14
-0.9273 21.3935 -2.5029 0.1161 0 14
-1.2714 21.3758 -2.5029 0.1161 0 14
-1.6151 21.3526 -2.5029 0.1161 0 14
-1.9585 21.3238 -2.5029 0.1161 0 14
-2.3013 21.2896 -2.5029 0.1161 0 14
-2.6436 21.2498 -2.5029 0.1161 0 14
-2.9851 21.2045 -2.5029 0.1161 0 14
-3.3259 21.1537 -2.5029 0.1161 0 14
-3.6658 21.0975 -2.5029 0.1161 0 14
-4.0048 21.0358 -2.5029 0.1161 0 14
-4.3427 20.9686 -2.5029 0.1161 0 14
-4.6795 20.8960 -2.5029 0.1161 0 14
-5.0151 20.8180 -2.5029 0.1161 0 14
-5.3494 20.7346 -2.5029 0.1161 0 14
-5.6823 20.6459 -2.5029 0.1161 0 14
-6.0138 20.5518 -2.5029 0.1161 0 14
-6.3436 20.4524 -2.5029 0.1161 0 14
-6.6719 20.3477 -2.5029 0.1161 0 14
-6.9984 20.2377 -2.5029 0.1161 0 14
-7.3231 20.1225 -2.5029 0.1161 0 14
-7.6459 20.0020 -2.5029 0.1161 0 14
-7.9668 19.8764 -2.5029 0.1161 0 14
-8.2855 19.7457 -2.5029 0.1161 0 14
-8.6021 19.6098 -2.5029 0.1161 0 14
-8.9165 19.4689 -2.5029 0.1161 0 14
-9.2286 19.3229 -2.5029 0.1161 0 14
-9.5383 19.1719 -2.5029 0.1161 0 14
-9.8455 19.0160 -2.5029 0.1161 0 8
-10.1909 18.9306 -2.5129 0.8824 0 8
-10.5844 18.9255 -2.5345 0.8748 0 8
-10.9847 18.9202 -2.5572 0.8671 0 8
-11.3923 18.9147 -2.5808 0.8591 0 8
-11.8076 18.9090 -2.6057 0.8510 0 8
-12.2309 18.9030 -2.6316 0.8426 0 8
-12.6100 18.8179 -2.6477 0.1161 0 7
-12.9111 18.6126 -2.6477 0.1161 0 7
-13.2090 18.4025 -2.6477 0.1161 0 6
-13.5033 18.1876 -2.6477 0.1161 0 7
-13.7941 17.9679 -2.6477 0.1161 0 7
-14.0814 17.7437 -2.6477 0.1161 0 7
-14.3651 17.5148 -2.6477 0.1161 0 7
-14.6451 17.2814 -2.6477 0.1161 0 7
-14.9212 17.0436 -2.6477 0.1161 0 7
-15.1935 16.8013 -2.6477 0.1161 0 7
-15.4618 16.5547 -2.6477 0.1161 0 7
14.3256 15.5295 -2.6477 0.1243 0 7
14.0739 15.7580 -2.6477 0.1243 0 7
13.8185 15.9824 -2.6477 0.1243 0 7
13.5596 16.2027 -2.6477 0.1243 0 7
13.2971 16.4187 -2.6477 0.1243 0 7
13.0313 16.6306 -2.6477 0.1243 0 7
12.7620 16.8381 -2.6477 0.1243 0 7
12.4894 17.0412 -2.6477 0.1243 0 7
12.2136 17.2400 -2.6477 0.1243 0 7
11.9347 17.4342 -2.6477 0.1243 0 7
11.6526 17.6240 -2.6477 0.1243 0 7
11.3676 17.8092 -2.6477 0.1243 0 7
11.0796 17.9898 -2.6477 0.1243 0 7
10.7887 18.1657 -2.6477 0.1243 0 7
10.4950 18.3370 -2.6477 0.1243 0 7
10.1986 18.5034 -2.6477 0.1243 0 6
9.8996 18.6651 -2.6477 0.1243 0 7
9.5980 18.8220 -2.6477 0.1243 0 7
9.2871 18.9602 -2.6457 0.8976 0 8
8.9131 18.9628 -2.6258 0.9045 0 8
8.5444 18.9653 -2.6067 0.9111 0 8
8.1810 18.9677 -2.5886 0.9174 0 8
7.8224 18.9699 -2.5714 0.9236 0 8
7.4684 18.9719 -2.5551 0.9295 0 8
7.1187 18.9738 -2.5396 0.9352 0 8
6.7731 18.9756 -2.5249 0.9406 0 8
6.4314 18.9772 -2.5110 0.9458 0 8
6.1054 19.0165 -2.5029 0.1243 0 8
5.7987 19.1123 -2.5029 0.1243 0 8
5.4904 19.2031 -2.5029 0.1243 0 14
5.1808 19.2890 -2.5029 0.1243 0 14
4.8697 19.3698 -2.5029 0.1243 0 14
4.5575 19.4457 -2.5029 0.1243 0 14
4.2440 19.5165 -2.5029 0.1243 0 14
3.9294 19.5822 -2.5029 0.1243 0 14
3.6139 19.6429 -2.5029 0.1243 0 14
3.2974 19.6985 -2.5029 0.1243 0 14
2.9800 19.7490 -2.5029 0.1243 0 14
2.6619 19.7944 -2.5029 0.1243 0 14
2.3430 19.8347 -2.5029 0.1243 0 14
2.0236 19.8698 -2.5029 0.1243 0 14
1.7037 19.8998 -2.5029 0.1243 0 14
1.3833 19.9246 -2.5029 0.1243 0 14
1.0625 19.9443 -2.5029 0.1243 0 14
0.7415 19.9588 -2.5029 0.1243 0 14
0.4202 19.9682 -2.5029 0.1243 0 14
0.0989 19.9724 -2.5029 0.1243 0 14
-0.2224 19.9714 -2.5029 0.1243 0 14
-0.5437 19.9652 -2.5029 0.1243 0 14
-0.8649 19.9539 -2.5029 0.1243 0 14
-1.1858 19.9374 -2.5029 0.1243 0 14
-1.5064 19.9157 -2.5029 0.1243 0 14
-1.8267 19.8889 -2.5029 0.1243 0 14
-2.1464 19.8569 -2.5029 0.1243 0 14
-2.4657 19.8198 -2.5029 0.1243 0 14
-2.7842 19.7776 -2.5029 0.1243 0 14
-3.1021 19.7302 -2.5029 0.1243 0 14
-3.4191 19.6778 -2.5029 0.1243 0 14
-3.7353 19.6202 -2.5029 0.1243 0 14
-4.0505 19.5576 -2.5029 0.1243 0 14
-4.3646 19.4899 -2.5029 0.1243 0 14
-4.6776 19.4171 -2.5029 0.1243 0 14
-4.9894 19.3393 -2.5029 0.1243 0 14
-5.2999 19.2566 -2.5029 0.1243 0 14
-5.6091 19.1688 -2.5029 0.1243 0 14
-5.9168 19.0761 -2.5029 0.1243 0 8
-6.2229 18.9784 -2.5029 0.1243 0 8
-6.5500 18.9410 -2.5115 0.9456 0 8
-6.8919 18.9375 -2.5254 0.9404 0 8
-7.2376 18.9338 -2.5402 0.9349 0 8
-7.5874 18.9299 -2.5557 0.9293 0 8
-7.9415 18.9259 -2.5721 0.9233 0 8
-8.3003 18.9217 -2.5893 0.9172 0 8
-8.6639 18.9174 -2.6075 0.9108 0 8
-9.0328 18.9128 -2.6265 0.9042 0 8
-9.4071 18.9081 -2.6465 0.8974 0 8
-9.7142 18.7623 -2.6477 0.1243 0 7
-10.0148 18.6036 -2.6477 0.1243 0 7
-10.3128 18.4400 -2.6477 0.1243 0 6
-10.6082 18.2717 -2.6477 0.1243 0 7
-10.9008 18.0986 -2.6477 0.1243 0 7
-11.1906 17.9209 -2.6477 0.1243 0 7
-11.4775 17.7386 -2.6477 0.1243 0 7
-11.7614 17.5516 -2.6477 0.1243 0 7
-12.0423 17.3601 -2.6477 0.1243 0 7
-12.3200 17.1641 -2.6477 0.1243 0 7
-12.5946 16.9636 -2.6477 0.1243 0 7
-12.8659 16.7588 -2.6477 0.1243 0 7
-13.1339 16.5496 -2.6477 0.1243 0 7
-13.3984 16.3362 -2.6477 0.1243 0 7
-13.6595 16.1185 -2.6477 0.1243 0 7
-13.9171 15.8966 -2.6477 0.1243 0 7
-14.1711 15.6707 -2.6477 0.1243 0 7
-14.4214 15.4406 -2.6477 0.1243 0 7
13.4206 14.5484 -2.6477 0.1326 0 7
13.1848 14.7625 -2.6477 0.1326 0 7
12.9456 14.9727 -2.6477 0.1326 0 6
12.7030 15.1791 -2.6477 0.1326 0 7
12.4571 15.3815 -2.6477 0.1326 0 7
12.2080 15.5799 -2.6477 0.1326 0 7
11.9558 15.7743 -2.6477 0.1326 0 7
11.7004 15.9646 -2.6477 0.1326 0 7
11.4421 16.1508 -2.6477 0.1326 0 7
11.1807 16.3328 -2.6477 0.1326 0 7
10.9165 16.5106 -2.6477 0.1326 0 7
10.6494 16.6841 -2.6477 0.1326 0 7
10.3796 16.8533 -2.6477 0.1326 0 7
10.1071 17.0181 -2.6477 0.1326 0 7
9.8320 17.1785 -2.6477 0.1326 0 7
9.5543 17.3345 -2.6477 0.1326 0 7
9.2742 17.4860 -2.6477 0.1326 0 7
8.9916 17.6329 -2.6477 0.1326 0 7
8.7068 17.7753 -2.6477 0.1326 0 7
8.4196 17.9131 -2.6477 0.1326 0 7
8.1304 18.0463 -2.6477 0.1326 0 7
7.8390 18.1747 -2.6477 0.1326 0 7
7.5455 18.2985 -2.6477 0.1326 0 7
7.2501 18.4175 -2.6477 0.1326 0 6
6.9529 18.5318 -2.6477 0.1326 0 7
6.6538 18.6413 -2.6477 0.1326 0 7
6.3530 18.7459 -2.6477 0.1326 0 7
6.0506 18.8457 -2.6477 0.1326 0 7
5.7466 18.9406 -2.6477 0.1326 0 7
5.4184 18.9511 -2.6366 0.9604 0 8
5.0903 18.9523 -2.6250 0.9647 0 8
4.7651 18.9534 -2.6142 0.9687 0 8
4.4423 18.9544 -2.6042 0.9724 0 8
4.1220 18.9552 -2.5948 0.9759 0 8
3.8038 18.9559 -2.5862 0.9792 0 8
3.4876 18.9565 -2.5783 0.9822 0 8
3.1732 18.9570 -2.5711 0.9849 0 8
2.8605 18.9573 -2.5646 0.9874 0 8
2.5493 18.9576 -2.5587 0.9897 0 8
2.2394 18.9577 -2.5535 0.9917 0 8
1.9307 18.9576 -2.5490 0.9935 0 8
1.6230 18.9575 -2.5452 0.9950 0 8
1.3161 18.9572 -2.5420 0.9962 0 8
1.0099 18.9569 -2.5394 0.9972 0 8
0.7042 18.9564 -2.5375 0.9980 0 8
0.3989 18.9557 -2.5362 0.9985 0 8
0.0939 18.9550 -2.5356 0.9987 0 8
-0.2111 18.9563 -2.5359 0.9969 0 8
-0.5162 18.9547 -2.5364 0.9985 0 8
-0.8215 18.9529 -2.5376 0.9980 0 8
-1.1271 18.9509 -2.5395 0.9973 0 8
-1.4334 18.9496 -2.5421 0.9962 0 8
-1.7403 18.9481 -2.5453 0.9949 0 8
-2.0480 18.9465 -2.5492 0.9934 0 8
-2.3568 18.9448 -2.5537 0.9916 0 8
-2.6667 18.9430 -2.5589 0.9896 0 8
-2.9780 18.9411 -2.5648 0.9873 0 8
-3.2907 18.9390 -2.5714 0.9848 0 8
-3.6052 18.9368 -2.5786 0.9821 0 8
-3.9214 18.9344 -2.5865 0.9790 0 8
-4.2397 18.9319 -2.5952 0.9758 0 8
-4.5601 18.9293 -2.6046 0.9723 0 8
-4.8829 18.9265 -2.6146 0.9685 0 8
-5.2083 18.9236 -2.6255 0.9645 0 8
-5.5364 18.9206 -2.6371 0.9603 0 8
-5.8636 18.9047 -2.6477 0.1326 0 7
-6.1670 18.8079 -2.6477 0.1326 0 7
-6.4688 18.7063 -2.6477 0.1326 0 7
-6.7690 18.5998 -2.6477 0.1326 0 7
-7.0673 18.4884 -2.6477 0.1326 0 7
-7.3639 18.3723 -2.6477 0.1326 0 6
-7.6585 18.2515 -2.6477 0.1326 0 7
-7.9512 18.1259 -2.6477 0.1326 0 7
-8.2418 17.9956 -2.6477 0.1326 0 7
-8.5303 17.8607 -2.6477 0.1326 0 7
-8.8165 17.7211 -2.6477 0.1326 0 7
-9.1005 17.5770 -2.6477 0.1326 0 7
-9.3821 17.4283 -2.6477 0.1326 0 7
-9.6613 17.2751 -2.6477 0.1326 0 7
-9.9380 17.1174 -2.6477 0.1326 0 7
-10.2122 16.9553 -2.6477 0.1326 0 7
-10.4836 16.7888 -2.6477 0.1326 0 7
-10.7524 16.6179 -2.6477 0.1326 0 7
-11.0184 16.4428 -2.6477 0.1326 0 7
-11.2815 16.2634 -2.6477 0.1326 0 7
-11.5417 16.0798 -2.6477 0.1326 0 7
-11.7989 15.8920 -2.6477 0.1326 0 7
-12.0531 15.7001 -2.6477 0.1326 0 7
-12.3041 15.5041 -2.6477 0.1326 0 7
-12.5520 15.3042 -2.6477 0.1326 0 7
-12.7966 15.1002 -2.6477 0.1326 0 7
-13.0379 14.8924 -2.6477 0.1326 0 7
-13.2758 14.6807 -2.6477 0.1326 0 7
-13.5103 14.4652 -2.6477 0.1326 0 7
12.6215 13.6822 -2.6477 0.1408 0 7
12.3997 13.8835 -2.6477 0.1408 0 7
12.1747 14.0812 -2.6477 0.1408 0 7
11.9466 14.2752 -2.6477 0.1408 0 7
11.7153 14.4656 -2.6477 0.1408 0 7
11.4811 14.6522 -2.6477 0.1408 0 7
11.2439 14.8350 -2.6477 0.1408 0 7
11.0037 15.0140 -2.6477 0.1408 0 7
10.7607 15.1891 -2.6477 0.1408 0 7
10.5150 15.3603 -2.6477 0.1408 0 7
10.2665 15.5275 -2.6477 0.1408 0 7
10.0153 15.6906 -2.6477 0.1408 0 7
9.7616 15.8498 -2.6477 0.1408 0 7
9.5053 16.0048 -2.6477 0.1408 0 7
9.2465 16.1556 -2.6477 0.1408 0 7
8.9854 16.3023 -2.6477 0.1408 0 7
8.7219 16.4448 -2.6477 0.1408 0 7
8.4562 16.5830 -2.6477 0.1408 0 7
8.1883 16.7169 -2.6477 0.1408 0 7
7.9183 16.8465 -2.6477 0.1408 0 7
7.6462 16.9717 -2.6477 0.1408 0 7
7.3722 17.0925 -2.6477 0.1408 0 7
7.0962 17.2089 -2.6477 0.1408 0 7
6.8184 17.3209 -2.6477 0.1408 0 7
6.5389 17.4283 -2.6477 0.1408 0 7
6.2576 17.5313 -2.6477 0.1408 0 7
5.9747 17.6297 -2.6477 0.1408 0 7
5.6903 17.7235 -2.6477 0.1408 0 7
5.4044 17.8128 -2.6477 0.1408 0 7
5.1171 17.8974 -2.6477 0.1408 0 7
4.8285 17.9774 -2.6477 0.1408 0 7
4.5386 18.0528 -2.6477 0.1408 0 7
4.2476 18.1235 -2.6477 0.1408 0 7
3.9554 18.1895 -2.6477 0.1408 0 7
3.6623 18.2508 -2.6477 0.1408 0 7
3.3682 18.3073 -2.6477 0.1408 0 7
3.0732 18.3591 -2.6477 0.1408 0 7
2.7774 18.4062 -2.6477 0.1408 0 6
2.4809 18.4485 -2.6477 0.1408 0 6
2.1837 18.4860 -2.6477 0.1408 0 6
1.8860 18.5188 -2.6477 0.1408 0 7
1.5878 18.5467 -2.6477 0.1408 0 7
1.2892 18.5699 -2.6477 0.1408 0 7
0.9903 18.5882 -2.6477 0.1408 0 7
0.6911 18.6017 -2.6477 0.1408 0 7
0.3916 18.6105 -2.6477 0.1408 0 7
0.0922 18.6144 -2.6477 0.1408 0 7
-0.2073 18.6134 -2.6477 0.1408 0 7
-0.5067 18.6077 -2.6477 0.1408 0 7
-0.8061 18.5971 -2.6477 0.1408 0 7
-1.1052 18.5817 -2.6477 0.1408 0 7
-1.4040 18.5616 -2.6477 0.1408 0 7
-1.7025 18.5366 -2.6477 0.1408 0 7
-2.0005 18.5068 -2.6477 0.1408 0 7
-2.2980 18.4722 -2.6477 0.1408 0 6
-2.5949 18.4328 -2.6477 0.1408 0 6
-2.8911 18.3887 -2.6477 0.1408 0 6
-3.1866 18.3398 -2.6477 0.1408 0 7
-3.4813 18.2861 -2.6477 0.1408 0 7
-3.7751 18.2278 -2.6477 0.1408 0 7
-4.0678 18.1647 -2.6477 0.1408 0 7
-4.3596 18.0969 -2.6477 0.1408 0 7
-4.6502 18.0244 -2.6477 0.1408 0 7
-4.9396 17.9472 -2.6477 0.1408 0 7
-5.2277 17.8654 -2.6477 0.1408 0 7
-5.5145 17.7790 -2.6477 0.1408 0 7
-5.7998 17.6880 -2.6477 0.1408 0 7
-6.0836 17.5924 -2.6477 0.1408 0 7
-6.3659 17.4922 -2.6477 0.1408 0 7
-6.6465 17.3875 -2.6477 0.1408 0 7
-6.9254 17.2784 -2.6477 0.1408 0 7
-7.2025 17.1647 -2.6477 0.1408 0 7
-7.4777 17.0466 -2.6477 0.1408 0 7
-7.7510 16.9241 -2.6477 0.1408 0 7
-8.0223 16.7972 -2.6477 0.1408 0 7
-8.2915 16.6659 -2.6477 0.1408 0 7
-8.5586 16.5304 -2.6477 0.1408 0 7
-8.8235 16.3905 -2.6477 0.1408 0 7
-9.0860 16.2464 -2.6477 0.1408 0 7
-9.3463 16.0981 -2.6477 0.1408 0 7
-9.6041 15.9457 -2.6477 0.1408 0 7
-9.8594 15.7891 -2.6477 0.1408 0 7
-10.1121 15.6284 -2.6477 0.1408 0 7
-10.3623 15.4637 -2.6477 0.1408 0 7
-10.6097 15.2950 -2.6477 0.1408 0 7
-10.8544 15.1223 -2.6477 0.1408 0 7
-11.0964 14.9457 -2.6477 0.1408 0 7
-11.3354 14.7652 -2.6477 0.1408 0 7
-11.5715 14.5809 -2.6477 0.1408 0 7
-11.8046 14.3929 -2.6477 0.1408 0 7
-12.0346 14.2011 -2.6477 0.1408 0 7
-12.2616 14.0056 -2.6477 0.1408 0 7
-12.4853 13.8065 -2.6477 0.1408 0 7
