ply
format ascii 1.0
element vertex 1360
property float32 x
property float32 y
property float32 z
property float32 CosAngle
property uint32 ObjIdx
property uint32 ObjTag
end_header
-5.8855 25.7966 -2.6477 0.0996 0 7
-6.3018 25.6981 -2.6477 0.0996 0 7
-6.7164 25.5929 -2.6477 0.0996 0 7
-7.1293 25.4810 -2.6477 0.0996 0 7
-7.5402 25.3624 -2.6477 0.0996 0 7
-7.9493 25.2372 -2.6477 0.0996 0 7
-8.3562 25.1054 -2.6477 0.0996 0 7
-8.7610 24.9670 -2.6477 0.0996 0 7
-9.1635 24.8221 -2.6477 0.0996 0 7
-9.5636 24.6707 -2.6477 0.0996 0 7
-9.9612 24.5129 -2.6477 0.0996 0 7
-10.3562 24.3486 -2.6477 0.0996 0 7
-10.7485 24.1780 -2.6477 0.0996 0 7
-11.1379 24.0011 -2.6477 0.0996 0 7
-11.5245 23.8179 -2.6477 0.0996 0 7
-11.2569 22.3364 -2.5029 0.0996 0 8
-11.6165 22.1515 -2.5029 0.0996 0 14
-11.9731 21.9608 -2.5029 0.0996 0 14
-12.3266 21.7644 -2.5029 0.0996 0 14
-12.6768 21.5623 -2.5029 0.0996 0 14
-13.0238 21.3545 -2.5029 0.0996 0 14
-13.3673 21.1412 -2.5029 0.0996 0 14
-13.7073 20.9223 -2.5029 0.0996 0 14
-14.0438 20.6979 -2.5029 0.0996 0 14
-14.3765 20.4682 -2.5029 0.0996 0 14
-14.7056 20.2331 -2.5029 0.0996 0 14
-15.0307 19.9927 -2.5029 0.0996 0 14
-15.3520 19.7471 -2.5029 0.0996 0 14
-15.6692 19.4964 -2.5029 0.0996 0 14
-15.9824 19.2405 -2.5029 0.0996 0 14
-16.2913 18.9796 -2.5029 0.0996 0 8
-16.7695 18.9094 -2.5291 0.7519 0 8
-17.3162 18.9012 -2.5651 0.7414 0 8
-17.8786 18.8926 -2.6028 0.7306 0 8
-18.4579 18.8837 -2.6423 0.7197 0 8
-18.7987 18.6203 -2.6477 0.0996 0 7
-19.0972 18.3140 -2.6477 0.0996 0 7
-19.3908 18.0029 -2.6477 0.0996 0 7
-19.6793 17.6870 -2.6477 0.0996 0 7
-19.9627 17.3666 -2.6477 0.0996 0 7
-20.2408 17.0416 -2.6477 0.0996 0 7
-20.5137 16.7121 -2.6477 0.0996 0 7
-20.7812 16.3782 -2.6477 0.0996 0 7
-21.0432 16.0402 -2.6477 0.0996 0 7
-21.2998 15.6979 -2.6477 0.0996 0 7
-21.5508 15.3515 -2.6477 0.0996 0 7
-21.7962 15.0011 -2.6477 0.0996 0 7
-22.0358 14.6468 -2.6477 0.0996 0 7
-22.2697 14.2886 -2.6477 0.0996 0 7
-22.4978 13.9267 -2.6477 0.0996 0 7
-22.7200 13.5612 -2.6477 0.0996 0 7
-22.9363 13.1921 -2.6477 0.0996 0 7
-23.1466 12.8196 -2.6477 0.0996 0 7
-23.3508 12.4437 -2.6477 0.0996 0 7
-23.5489 12.0646 -2.6477 0.0996 0 7
-23.7409 11.6823 -2.6477 0.0996 0 7
-23.9267 11.2969 -2.6477 0.0996 0 7
-24.1061 10.9086 -2.6477 0.0996 0 7
-24.2794 10.5175 -2.6477 0.0996 0 7
-24.4462 10.1236 -2.6477 0.0996 0 7
-24.6067 9.7271 -2.6477 0.0996 0 7
-24.7607 9.3280 -2.6477 0.0996 0 7
-24.9083 8.9265 -2.6477 0.0996 0 7
-23.6075 8.0321 -2.4953 0.0996 0 8
-23.7343 7.6494 -2.4953 0.0996 0 8
-23.8548 7.2647 -2.4953 0.0996 0 8
-23.9692 6.8781 -2.4953 0.0996 0 8
-24.0772 6.4897 -2.4953 0.0996 0 8
-24.1790 6.0996 -2.4953 0.0996 0 8
-24.2745 5.7079 -2.4953 0.0996 0 8
-24.3636 5.3147 -2.4953 0.0996 0 8
-24.4463 4.9202 -2.4953 0.0996 0 8
-24.5226 4.5243 -2.4953 0.0996 0 8
-24.5926 4.1273 -2.4953 0.0996 0 8
-24.6561 3.7291 -2.4953 0.0996 0 8
-24.7131 3.3301 -2.4953 0.0996 0 8
-24.7638 2.9301 -2.4953 0.0996 0 8
-24.8079 2.5294 -2.4953 0.0996 0 8
-24.8455 2.1280 -2.4953 0.0996 0 8
-24.8767 1.7260 -2.4953 0.0996 0 8
-24.9014 1.3236 -2.4953 0.0996 0 8
-24.9195 0.9209 -2.4953 0.0996 0 8
-5.4296 23.7985 -2.6477 0.1078 0 7
-5.8136 23.7076 -2.6477 0.1078 0 7
-5.8573 22.3194 -2.5029 0.1078 0 8
-6.2174 22.2218 -2.5029 0.1078 0 14
-6.5758 22.1184 -2.5029 0.1078 0 14
-6.9325 22.0092 -2.5029 0.1078 0 14
-7.2874 21.8943 -2.5029 0.1078 0 14
-7.6405 21.7736 -2.5029 0.1078 0 14
-7.9914 21.6472 -2.5029 0.1078 0 14
-8.3404 21.5152 -2.5029 0.1078 0 14
-8.6871 21.3775 -2.5029 0.1078 0 14
-9.0316 21.2343 -2.5029 0.1078 0 14
-9.3737 21.0855 -2.5029 0.1078 0 14
-9.7133 20.9312 -2.5029 0.1078 0 14
-10.0504 20.7715 -2.5029 0.1078 0 14
-10.3849 20.6063 -2.5029 0.1078 0 14
-10.7167 20.4357 -2.5029 0.1078 0 14
-11.0457 20.2598 -2.5029 0.1078 0 14
-11.3718 20.0785 -2.5029 0.1078 0 14
-11.6949 19.8921 -2.5029 0.1078 0 14
-12.0150 19.7004 -2.5029 0.1078 0 14
-12.3319 19.5036 -2.5029 0.1078 0 14
-12.6456 19.3017 -2.5029 0.1078 0 14
-12.9560 19.0947 -2.5029 0.1078 0 14
-13.2923 18.9245 -2.5084 0.6526 0 8
-13.7486 18.9164 -2.5365 0.8120 0 8
-14.2164 18.9096 -2.5661 0.8026 0 8
-14.6954 18.9025 -2.5970 0.7931 0 8
-15.1860 18.8952 -2.6294 0.7833 0 8
-15.5973 18.7769 -2.6477 0.1078 0 7
-15.8988 18.5223 -2.6477 0.1078 0 7
-16.1962 18.2628 -2.6477 0.1078 0 7
-16.4893 17.9986 -2.6477 0.1078 0 7
-16.7781 17.7297 -2.6477 0.1078 0 7
-17.0625 17.4562 -2.6477 0.1078 0 7
-17.3425 17.1780 -2.6477 0.1078 0 7
-17.6180 16.8954 -2.6477 0.1078 0 7
-17.8888 16.6084 -2.6477 0.1078 0 7
-18.1550 16.3170 -2.6477 0.1078 0 7
-18.4164 16.0214 -2.6477 0.1078 0 7
-18.6730 15.7215 -2.6477 0.1078 0 7
-18.9247 15.4176 -2.6477 0.1078 0 7
-19.1715 15.1096 -2.6477 0.1078 0 7
-19.4133 14.7977 -2.6477 0.1078 0 7
-19.6500 14.4820 -2.6477 0.1078 0 7
-19.8815 14.1624 -2.6477 0.1078 0 7
-20.1079 13.8391 -2.6477 0.1078 0 7
-20.3290 13.5122 -2.6477 0.1078 0 7
-20.5448 13.1818 -2.6477 0.1078 0 7
-20.7552 12.8480 -2.6477 0.1078 0 7
-20.9602 12.5107 -2.6477 0.1078 0 7
-21.1597 12.1703 -2.6477 0.1078 0 7
-21.3537 11.8266 -2.6477 0.1078 0 7
-21.5421 11.4798 -2.6477 0.1078 0 7
-21.7249 11.1301 -2.6477 0.1078 0 7
-21.9020 10.7774 -2.6477 0.1078 0 7
-22.0733 10.4219 -2.6477 0.1078 0 7
-22.2389 10.0637 -2.6477 0.1078 0 7
-22.3987 9.7028 -2.6477 0.1078 0 7
-22.5527 9.3395 -2.6477 0.1078 0 7
-22.7007 8.9736 -2.6477 0.1078 0 7
-21.5280 8.1101 -2.4953 0.1078 0 8
-21.6563 7.7611 -2.4953 0.1078 0 8
-21.7789 7.4099 -2.4953 0.1078 0 8
-21.8959 7.0569 -2.4953 0.1078 0 8
-22.0071 6.7020 -2.4953 0.1078 0 8
-22.1126 6.3453 -2.4953 0.1078 0 8
-22.2122 5.9870 -2.4953 0.1078 0 8
-22.3061 5.6271 -2.4953 0.1078 0 8
-22.3942 5.2658 -2.4953 0.1078 0 8
-22.4764 4.9031 -2.4953 0.1078 0 8
-22.5527 4.5390 -2.4953 0.1078 0 8
-22.6231 4.1739 -2.4953 0.1078 0 8
-22.6877 3.8076 -2.4953 0.1078 0 8
-22.7463 3.4403 -2.4953 0.1078 0 8
-22.7989 3.0721 -2.4953 0.1078 0 8
-22.8456 2.7031 -2.4953 0.1078 0 8
-22.8863 2.3334 -2.4953 0.1078 0 8
-22.9210 1.9631 -2.4953 0.1078 0 8
-22.9498 1.5923 -2.4953 0.1078 0 8
-22.9725 1.2211 -2.4953 0.1078 0 8
-22.9893 0.8496 -2.4953 0.1078 0 8
-4.7631 20.8771 -2.5029 0.1161 0 14
-5.1000 20.7974 -2.5029 0.1161 0 14
-5.4355 20.7122 -2.5029 0.1161 0 14
-5.7697 20.6217 -2.5029 0.1161 0 14
-6.1023 20.5257 -2.5029 0.1161 0 14
-6.4333 20.4243 -2.5029 0.1161 0 14
-6.7627 20.3177 -2.5029 0.1161 0 14
-7.0903 20.2057 -2.5029 0.1161 0 14
-7.4160 20.0884 -2.5029 0.1161 0 14
-7.7398 19.9659 -2.5029 0.1161 0 14
-8.0615 19.8382 -2.5029 0.1161 0 14
-8.3812 19.7053 -2.5029 0.1161 0 14
-8.6987 19.5672 -2.5029 0.1161 0 14
-9.0139 19.4240 -2.5029 0.1161 0 14
-9.3267 19.2757 -2.5029 0.1161 0 14
-9.6371 19.1224 -2.5029 0.1161 0 14
-9.9450 18.9641 -2.5029 0.1161 0 8
-10.3201 18.9290 -2.5199 0.8799 0 8
-10.7178 18.9238 -2.5420 0.8723 0 8
-11.1224 18.9184 -2.5651 0.8644 0 8
-11.5346 18.9128 -2.5893 0.8563 0 8
-11.9546 18.9069 -2.6146 0.8481 0 8
-12.3829 18.9008 -2.6411 0.8395 0 8
-12.7185 18.7447 -2.6477 0.1161 0 7
-13.0199 18.5367 -2.6477 0.1161 0 7
-13.3178 18.3238 -2.6477 0.1161 0 7
-13.6123 18.1061 -2.6477 0.1161 0 7
-13.9033 17.8836 -2.6477 0.1161 0 7
-14.1905 17.6565 -2.6477 0.1161 0 7
-14.4742 17.4248 -2.6477 0.1161 0 7
-14.7540 17.1885 -2.6477 0.1161 0 7
-15.0299 16.9478 -2.6477 0.1161 0 7
-15.3019 16.7026 -2.6477 0.1161 0 7
-15.5700 16.4530 -2.6477 0.1161 0 7
-15.8339 16.1992 -2.6477 0.1161 0 7
-16.0937 15.9410 -2.6477 0.1161 0 7
-16.3493 15.6788 -2.6477 0.1161 0 7
-16.6007 15.4124 -2.6477 0.1161 0 7
-16.8477 15.1420 -2.6477 0.1161 0 7
-17.0902 14.8677 -2.6477 0.1161 0 7
-17.3284 14.5895 -2.6477 0.1161 0 7
-17.5620 14.3074 -2.6477 0.1161 0 7
-17.7910 14.0216 -2.6477 0.1161 0 7
-18.0153 13.7322 -2.6477 0.1161 0 7
-18.2350 13.4391 -2.6477 0.1161 0 7
-18.4499 13.1426 -2.6477 0.1161 0 7
-18.6600 12.8426 -2.6477 0.1161 0 7
-18.8651 12.5392 -2.6477 0.1161 0 7
-19.0654 12.2326 -2.6477 0.1161 0 7
-19.2606 11.9228 -2.6477 0.1161 0 7
-19.4509 11.6099 -2.6477 0.1161 0 7
-19.6360 11.2939 -2.6477 0.1161 0 7
-19.8160 10.9750 -2.6477 0.1161 0 7
-19.9909 10.6532 -2.6477 0.1161 0 7
-20.1605 10.3286 -2.6477 0.1161 0 7
-20.3248 10.0013 -2.6477 0.1161 0 7
-20.4839 9.6714 -2.6477 0.1161 0 7
-20.6375 9.3390 -2.6477 0.1161 0 7
-20.7858 9.0041 -2.6477 0.1161 0 7
-19.7240 8.1681 -2.4953 0.1161 0 8
-19.8535 7.8481 -2.4953 0.1161 0 8
-19.9778 7.5261 -2.4953 0.1161 0 8
-20.0968 7.2022 -2.4953 0.1161 0 8
-20.2106 6.8764 -2.4953 0.1161 0 8
-20.3192 6.5487 -2.4953 0.1161 0 8
-20.4224 6.2194 -2.4953 0.1161 0 8
-20.5203 5.8884 -2.4953 0.1161 0 8
-20.6128 5.5559 -2.4953 0.1161 0 8
-20.6999 5.2219 -2.4953 0.1161 0 8
-20.7816 4.8866 -2.4953 0.1161 0 8
-20.8579 4.5500 -2.4953 0.1161 0 8
-20.9287 4.2122 -2.4953 0.1161 0 8
-20.9941 3.8733 -2.4953 0.1161 0 8
-21.0540 3.5334 -2.4953 0.1161 0 8
-21.1084 3.1926 -2.4953 0.1161 0 8
-21.1572 2.8509 -2.4953 0.1161 0 8
-21.2005 2.5085 -2.4953 0.1161 0 8
-21.2383 2.1654 -2.4953 0.1161 0 8
-21.2705 1.8218 -2.4953 0.1161 0 8
-21.2972 1.4777 -2.4953 0.1161 0 8
-21.3183 1.1332 -2.4953 0.1161 0 8
-21.3338 0.7884 -2.4953 0.1161 0 8
-4.4426 19.4722 -2.5029 0.1243 0 14
-4.7568 19.3979 -2.5029 0.1243 0 14
-5.0698 19.3184 -2.5029 0.1243 0 14
-5.3814 19.2340 -2.5029 0.1243 0 14
-5.6917 19.1444 -2.5029 0.1243 0 14
-6.0004 19.0499 -2.5029 0.1243 0 8
-6.3076 18.9504 -2.5029 0.1243 0 8
-6.6461 18.9400 -2.5154 0.9442 0 8
-6.9907 18.9364 -2.5296 0.9389 0 8
-7.3393 18.9327 -2.5446 0.9333 0 8
-7.6920 18.9288 -2.5605 0.9275 0 8
-8.0492 18.9247 -2.5772 0.9215 0 8
-8.4112 18.9204 -2.5948 0.9153 0 8
-8.7781 18.9160 -2.6133 0.9088 0 8
-9.1504 18.9113 -2.6327 0.9021 0 8
-9.5086 18.8673 -2.6477 0.1243 0 7
-9.8123 18.7111 -2.6477 0.1243 0 7
-10.1135 18.5501 -2.6477 0.1243 0 7
-10.4121 18.3841 -2.6477 0.1243 0 6
-10.7080 18.2134 -2.6477 0.1243 0 7
-11.0010 18.0379 -2.6477 0.1243 0 7
-11.2912 17.8577 -2.6477 0.1243 0 7
-11.5784 17.6728 -2.6477 0.1243 0 7
-11.8626 17.4833 -2.6477 0.1243 0 7
-12.1437 17.2893 -2.6477 0.1243 0 7
-12.4216 17.0907 -2.6477 0.1243 0 7
-12.6963 16.8877 -2.6477 0.1243 0 7
-12.9677 16.6802 -2.6477 0.1243 0 7
-13.2356 16.4684 -2.6477 0.1243 0 7
-13.5001 16.2522 -2.6477 0.1243 0 7
-13.7611 16.0319 -2.6477 0.1243 0 7
-14.0185 15.8073 -2.6477 0.1243 0 7
-14.2722 15.5786 -2.6477 0.1243 0 7
-14.5222 15.3458 -2.6477 0.1243 0 7
-14.7684 15.1091 -2.6477 0.1243 0 7
-15.0108 14.8683 -2.6477 0.1243 0 6
-15.2491 14.6237 -2.6477 0.1243 0 7
-15.4836 14.3753 -2.6477 0.1243 0 7
-15.7139 14.1231 -2.6477 0.1243 0 7
-15.9402 13.8672 -2.6477 0.1243 0 7
-16.1623 13.6077 -2.6477 0.1243 0 7
-16.3802 13.3446 -2.6477 0.1243 0 7
-16.5938 13.0780 -2.6477 0.1243 0 7
-16.8030 12.8081 -2.6477 0.1243 0 7
-17.0079 12.5348 -2.6477 0.1243 0 7
-17.2083 12.2582 -2.6477 0.1243 0 7
-17.4042 11.9784 -2.6477 0.1243 0 7
-17.5956 11.6954 -2.6477 0.1243 0 7
-17.7824 11.4095 -2.6477 0.1243 0 6
-17.9645 11.1205 -2.6477 0.1243 0 7
-18.1419 10.8286 -2.6477 0.1243 0 7
-18.3146 10.5339 -2.6477 0.1243 0 7
-18.4825 10.2364 -2.6477 0.1243 0 7
-18.6456 9.9363 -2.6477 0.1243 0 7
-18.8038 9.6336 -2.6477 0.1243 0 7
-18.9571 9.3283 -2.6477 0.1243 0 7
-19.1054 9.0206 -2.6477 0.1243 0 7
-18.1408 8.2092 -2.4953 0.1243 0 8
-18.2712 7.9148 -2.4953 0.1243 0 8
-18.3967 7.6184 -2.4953 0.1243 0 8
-18.5175 7.3200 -2.4953 0.1243 0 8
-18.6334 7.0197 -2.4953 0.1243 0 8
-18.7444 6.7175 -2.4953 0.1243 0 8
-18.8506 6.4136 -2.4953 0.1243 0 8
-18.9518 6.1080 -2.4953 0.1243 0 8
-19.0481 5.8009 -2.4953 0.1243 0 8
-19.1394 5.4921 -2.4953 0.1243 0 8
-19.2257 5.1820 -2.4953 0.1243 0 8
-19.3069 4.8705 -2.4953 0.1243 0 8
-19.3831 4.5578 -2.4953 0.1243 0 8
-19.4543 4.2438 -2.4953 0.1243 0 8
-19.5204 3.9287 -2.4953 0.1243 0 8
-19.5813 3.6127 -2.4953 0.1243 0 8
-19.6372 3.2956 -2.4953 0.1243 0 8
-19.6879 2.9777 -2.4953 0.1243 0 8
-19.7334 2.6590 -2.4953 0.1243 0 8
-19.7739 2.3397 -2.4953 0.1243 0 8
-19.8091 2.0197 -2.4953 0.1243 0 8
-19.8392 1.6992 -2.4953 0.1243 0 8
-19.8640 1.3782 -2.4953 0.1243 0 8
-19.8837 1.0569 -2.4953 0.1243 0 8
-19.8982 0.7353 -2.4953 0.1243 0 8
-4.3192 18.9313 -2.5975 0.9749 0 8
-4.6417 18.9286 -2.6070 0.9713 0 8
-4.9667 18.9258 -2.6174 0.9675 0 8
-5.2944 18.9228 -2.6285 0.9634 0 8
-5.6248 18.9197 -2.6403 0.9591 0 8
-5.9465 18.8788 -2.6477 0.1326 0 7
-6.2509 18.7802 -2.6477 0.1326 0 7
-6.5537 18.6767 -2.6477 0.1326 0 7
-6.8548 18.5683 -2.6477 0.1326 0 7
-7.1541 18.4550 -2.6477 0.1326 0 6
-7.4515 18.3370 -2.6477 0.1326 0 7
-7.7470 18.2141 -2.6477 0.1326 0 7
-8.0404 18.0865 -2.6477 0.1326 0 7
-8.3318 17.9541 -2.6477 0.1326 0 7
-8.6210 17.8171 -2.6477 0.1326 0 7
-8.9079 17.6754 -2.6477 0.1326 0 7
-9.1925 17.5291 -2.6477 0.1326 0 7
-9.4746 17.3782 -2.6477 0.1326 0 7
-9.7544 17.2227 -2.6477 0.1326 0 7
-10.0315 17.0628 -2.6477 0.1326 0 7
-10.3060 16.8984 -2.6477 0.1326 0 7
-10.5779 16.7296 -2.6477 0.1326 0 7
-10.8470 16.5564 -2.6477 0.1326 0 7
-11.1132 16.3789 -2.6477 0.1326 0 7
-11.3765 16.1971 -2.6477 0.1326 0 7
-11.6369 16.0110 -2.6477 0.1326 0 7
-11.8942 15.8208 -2.6477 0.1326 0 7
-12.1484 15.6264 -2.6477 0.1326 0 7
-12.3995 15.4280 -2.6477 0.1326 0 7
-12.6473 15.2255 -2.6477 0.1326 0 7
-12.8918 15.0191 -2.6477 0.1326 0 7
-13.1329 14.8087 -2.6477 0.1326 0 7
-13.3706 14.5944 -2.6477 0.1326 0 7
-13.6048 14.3764 -2.6477 0.1326 0 7
-13.8354 14.1546 -2.6477 0.1326 0 7
-14.0624 13.9290 -2.6477 0.1326 0 7
-14.2858 13.6999 -2.6477 0.1326 0 7
-14.5054 13.4671 -2.6477 0.1326 0 7
-14.7212 13.2309 -2.6477 0.1326 0 7
-14.9332 12.9912 -2.6477 0.1326 0 7
-15.1413 12.7480 -2.6477 0.1326 0 7
-15.3453 12.5016 -2.6477 0.1326 0 7
-15.5455 12.2518 -2.6477 0.1326 0 7
-15.7415 11.9989 -2.6477 0.1326 0 7
-15.9334 11.7429 -2.6477 0.1326 0 7
-16.1212 11.4838 -2.6477 0.1326 0 7
-16.3047 11.2217 -2.6477 0.1326 0 7
-16.4840 10.9566 -2.6477 0.1326 0 7
-16.6590 10.6887 -2.6477 0.1326 0 7
-16.8296 10.4180 -2.6477 0.1326 0 7
-16.9958 10.1445 -2.6477 0.1326 0 7
-17.1576 9.8684 -2.6477 0.1326 0 7
-17.3149 9.5898 -2.6477 0.1326 0 7
-17.4677 9.3086 -2.6477 0.1326 0 7
-17.6159 9.0250 -2.6477 0.1326 0 7
-16.7373 8.2360 -2.4953 0.1326 0 8
-16.8682 7.9643 -2.4953 0.1326 0 8
-16.9948 7.6906 -2.4953 0.1326 0 8
-17.1169 7.4148 -2.4953 0.1326 0 8
-17.2345 7.1371 -2.4953 0.1326 0 8
-17.3477 6.8576 -2.4953 0.1326 0 8
-17.4563 6.5762 -2.4953 0.1326 0 8
-17.5603 6.2932 -2.4953 0.1326 0 8
-17.6597 6.0085 -2.4953 0.1326 0 8
-17.7546 5.7222 -2.4953 0.1326 0 8
-17.8447 5.4344 -2.4953 0.1326 0 8
-17.9303 5.1452 -2.4953 0.1326 0 8
-18.0111 4.8547 -2.4953 0.1326 0 8
-18.0872 4.5628 -2.4953 0.1326 0 8
-18.1586 4.2698 -2.4953 0.1326 0 8
-18.2253 3.9757 -2.4953 0.1326 0 8
-18.2872 3.6806 -2.4953 0.1326 0 8
-18.3443 3.3844 -2.4953 0.1326 0 8
-18.3966 3.0874 -2.4953 0.1326 0 8
-18.4441 2.7896 -2.4953 0.1326 0 8
-18.4868 2.4911 -2.4953 0.1326 0 8
-18.5247 2.1919 -2.4953 0.1326 0 8
-18.5577 1.8921 -2.4953 0.1326 0 8
-18.5858 1.5918 -2.4953 0.1326 0 8
-18.6092 1.2912 -2.4953 0.1326 0 8
-18.6276 0.9901 -2.4953 0.1326 0 8
-18.6412 0.6889 -2.4953 0.1326 0 8
-4.1405 18.1482 -2.6477 0.1408 0 7
-4.4334 18.0789 -2.6477 0.1408 0 7
-4.7251 18.0049 -2.6477 0.1408 0 7
-5.0155 17.9262 -2.6477 0.1408 0 7
-5.3047 17.8427 -2.6477 0.1408 0 7
-5.5924 17.7547 -2.6477 0.1408 0 7
-5.8787 17.6619 -2.6477 0.1408 0 7
-6.1635 17.5646 -2.6477 0.1408 0 7
-6.4466 17.4626 -2.6477 0.1408 0 7
-6.7281 17.3561 -2.6477 0.1408 0 7
-7.0078 17.2451 -2.6477 0.1408 0 7
-7.2857 17.1296 -2.6477 0.1408 0 7
-7.5617 17.0095 -2.6477 0.1408 0 7
-7.8357 16.8851 -2.6477 0.1408 0 7
-8.1076 16.7562 -2.6477 0.1408 0 7
-8.3774 16.6229 -2.6477 0.1408 0 7
-8.6451 16.4853 -2.6477 0.1408 0 7
-8.9105 16.3434 -2.6477 0.1408 0 7
-9.1735 16.1972 -2.6477 0.1408 0 7
-9.4342 16.0468 -2.6477 0.1408 0 7
-9.6924 15.8922 -2.6477 0.1408 0 7
-9.9480 15.7334 -2.6477 0.1408 0 7
-10.2011 15.5705 -2.6477 0.1408 0 7
-10.4515 15.4036 -2.6477 0.1408 0 7
-10.6991 15.2326 -2.6477 0.1408 0 7
-10.9440 15.0576 -2.6477 0.1408 0 7
-11.1860 14.8787 -2.6477 0.1408 0 7
-11.4251 14.6959 -2.6477 0.1408 0 7
-11.6611 14.5093 -2.6477 0.1408 0 7
-11.8942 14.3189 -2.6477 0.1408 0 7
-12.1241 14.1248 -2.6477 0.1408 0 7
-12.3509 13.9269 -2.6477 0.1408 0 7
-12.5744 13.7254 -2.6477 0.1408 0 7
-12.7947 13.5203 -2.6477 0.1408 0 7
-13.0116 13.3117 -2.6477 0.1408 0 7
-13.2251 13.0996 -2.6477 0.1408 0 7
-13.4351 12.8841 -2.6477 0.1408 0 7
-13.6417 12.6652 -2.6477 0.1408 0 7
-13.8446 12.4430 -2.6477 0.1408 0 7
-14.0440 12.2176 -2.6477 0.1408 0 7
-14.2397 11.9889 -2.6477 0.1408 0 7
-14.4316 11.7572 -2.6477 0.1408 0 7
-14.6198 11.5223 -2.6477 0.1408 0 7
-14.8042 11.2845 -2.6477 0.1408 0 7
-14.9847 11.0437 -2.6477 0.1408 0 7
-15.1613 10.8000 -2.6477 0.1408 0 7
-15.3339 10.5535 -2.6477 0.1408 0 7
-15.5025 10.3042 -2.6477 0.1408 0 7
-15.6670 10.0522 -2.6477 0.1408 0 7
-15.8275 9.7976 -2.6477 0.1408 0 7
-15.9838 9.5404 -2.6477 0.1408 0 7
-16.1360 9.2808 -2.6477 0.1408 0 7
-16.2839 9.0187 -2.6477 0.1408 0 7
-15.4820 8.2504 -2.4953 0.1408 0 8
-15.6134 7.9990 -2.4953 0.1408 0 8
-15.7406 7.7455 -2.4953 0.1408 0 8
-15.8638 7.4901 -2.4953 0.1408 0 8
-15.9828 7.2326 -2.4953 0.1408 0 8
-16.0977 6.9733 -2.4953 0.1408 0 8
-16.2083 6.7121 -2.4953 0.1408 0 8
-16.3147 6.4492 -2.4953 0.1408 0 8
-16.4168 6.1846 -2.4953 0.1408 0 8
-16.5146 5.9184 -2.4953 0.1408 0 8
-16.6082 5.6507 -2.4953 0.1408 0 8
-16.6973 5.3814 -2.4953 0.1408 0 8
-16.7822 5.1108 -2.4953 0.1408 0 8
-16.8626 4.8388 -2.4953 0.1408 0 8
-16.9386 4.5656 -2.4953 0.1408 0 8
-17.0102 4.2911 -2.4953 0.1408 0 8
-17.0774 4.0156 -2.4953 0.1408 0 8
-17.1401 3.7390 -2.4953 0.1408 0 8
-17.1983 3.4614 -2.4953 0.1408 0 8
-17.2520 3.1829 -2.4953 0.1408 0 8
-17.3012 2.9036 -2.4953 0.1408 0 8
-17.3459 2.6235 -2.4953 0.1408 0 8
-17.3860 2.3427 -2.4953 0.1408 0 8
-17.4216 2.0613 -2.4953 0.1408 0 8
-17.4526 1.7794 -2.4953 0.1408 0 8
-17.4791 1.4971 -2.4953 0.1408 0 8
-17.5011 1.2143 -2.4953 0.1408 0 8
-17.5184 0.9312 -2.4953 0.1408 0 8
-17.5312 0.6479 -2.4953 0.1408 0 8
-3.9073 17.1261 -2.6477 0.1490 0 7
-4.1837 17.0607 -2.6477 0.1490 0 7
-4.4589 16.9908 -2.6477 0.1490 0 7
-4.7330 16.9165 -2.6477 0.1490 0 7
-5.0059 16.8378 -2.6477 0.1490 0 7
-5.2774 16.7546 -2.6477 0.1490 0 7
-5.5476 16.6671 -2.6477 0.1490 0 7
-5.8163 16.5753 -2.6477 0.1490 0 7
-6.0835 16.4791 -2.6477 0.1490 0 7
-6.3492 16.3786 -2.6477 0.1490 0 7
-6.6131 16.2738 -2.6477 0.1490 0 7
-6.8753 16.1648 -2.6477 0.1490 0 7
-7.1358 16.0515 -2.6477 0.1490 0 7
-7.3943 15.9340 -2.6477 0.1490 0 7
-7.6510 15.8124 -2.6477 0.1490 0 7
-7.9056 15.6867 -2.6477 0.1490 0 7
-8.1582 15.5568 -2.6477 0.1490 0 7
-8.4086 15.4229 -2.6477 0.1490 0 7
-8.6568 15.2849 -2.6477 0.1490 0 7
-8.9028 15.1430 -2.6477 0.1490 0 7
-9.1465 14.9971 -2.6477 0.1490 0 7
-9.3877 14.8472 -2.6477 0.1490 0 7
-9.6265 14.6935 -2.6477 0.1490 0 7
-9.8628 14.5360 -2.6477 0.1490 0 7
-10.0965 14.3746 -2.6477 0.1490 0 7
-10.3276 14.2095 -2.6477 0.1490 0 7
-10.5559 14.0407 -2.6477 0.1490 0 7
-10.7816 13.8682 -2.6477 0.1490 0 7
-11.0043 13.6921 -2.6477 0.1490 0 7
-11.2243 13.5124 -2.6477 0.1490 0 7
-11.4412 13.3292 -2.6477 0.1490 0 7
-11.6552 13.1425 -2.6477 0.1490 0 7
-11.8662 12.9523 -2.6477 0.1490 0 7
-12.0740 12.7588 -2.6477 0.1490 0 7
-12.2787 12.5620 -2.6477 0.1490 0 7
-12.4802 12.3618 -2.6477 0.1490 0 7
-12.6784 12.1584 -2.6477 0.1490 0 7
-12.8733 11.9519 -2.6477 0.1490 0 7
-13.0649 11.7422 -2.6477 0.1490 0 7
-13.2530 11.5294 -2.6477 0.1490 0 7
-13.4376 11.3137 -2.6477 0.1490 0 7
-13.6188 11.0950 -2.6477 0.1490 0 7
-13.7964 10.8733 -2.6477 0.1490 0 7
-13.9704 10.6489 -2.6477 0.1490 0 7
-14.1407 10.4216 -2.6477 0.1490 0 7
-14.3073 10.1917 -2.6477 0.1490 0 7
-14.4702 9.9590 -2.6477 0.1490 0 7
-14.6293 9.7238 -2.6477 0.1490 0 7
-14.7846 9.4860 -2.6477 0.1490 0 7
-14.9360 9.2458 -2.6477 0.1490 0 7
-15.0836 9.0031 -2.6477 0.1490 0 7
-14.3507 8.2540 -2.4953 0.1490 0 8
-14.4822 8.0209 -2.4953 0.1490 0 8
-14.6100 7.7857 -2.4953 0.1490 0 8
-14.7340 7.5485 -2.4953 0.1490 0 8
-14.8541 7.3093 -2.4953 0.1490 0 8
-14.9703 7.0682 -2.4953 0.1490 0 8
-15.0826 6.8253 -2.4953 0.1490 0 8
-15.1910 6.5805 -2.4953 0.1490 0 8
-15.2954 6.3341 -2.4953 0.1490 0 8
-15.3958 6.0860 -2.4953 0.1490 0 8
-15.4922 5.8363 -2.4953 0.1490 0 8
-15.5845 5.5851 -2.4953 0.1490 0 8
-15.6727 5.3324 -2.4953 0.1490 0 8
-15.7569 5.0783 -2.4953 0.1490 0 8
-15.8369 4.8229 -2.4953 0.1490 0 8
-15.9128 4.5663 -2.4953 0.1490 0 8
-15.9846 4.3084 -2.4953 0.1490 0 8
-16.0521 4.0494 -2.4953 0.1490 0 8
-16.1155 3.7894 -2.4953 0.1490 0 8
-16.1747 3.5284 -2.4953 0.1490 0 8
-16.2296 3.2664 -2.4953 0.1490 0 8
-16.2803 3.0036 -2.4953 0.1490 0 8
-16.3267 2.7400 -2.4953 0.1490 0 8
-16.3689 2.4757 -2.4953 0.1490 0 8
-16.4068 2.2108 -2.4953 0.1490 0 8
-16.4404 1.9452 -2.4953 0.1490 0 8
-16.4697 1.6792 -2.4953 0.1490 0 8
-16.4946 1.4127 -2.4953 0.1490 0 8
-16.5153 1.1459 -2.4953 0.1490 0 8
-16.5317 0.8787 -2.4953 0.1490 0 8
-16.5437 0.6114 -2.4953 0.1490 0 8
-3.6985 16.2107 -2.6477 0.1573 0 7
-3.9601 16.1488 -2.6477 0.1573 0 7
-4.2206 16.0827 -2.6477 0.1573 0 7
-4.4801 16.0124 -2.6477 0.1573 0 7
-4.7383 15.9378 -2.6477 0.1573 0 7
-4.9954 15.8592 -2.6477 0.1573 0 7
-5.2511 15.7763 -2.6477 0.1573 0 7
-5.5055 15.6894 -2.6477 0.1573 0 7
-5.7584 15.5983 -2.6477 0.1573 0 7
-6.0098 15.5032 -2.6477 0.1573 0 7
-6.2597 15.4040 -2.6477 0.1573 0 7
-6.5079 15.3008 -2.6477 0.1573 0 7
-6.7544 15.1936 -2.6477 0.1573 0 7
-6.9991 15.0824 -2.6477 0.1573 0 7
-7.2420 14.9673 -2.6477 0.1573 0 6
-7.4831 14.8482 -2.6477 0.1573 0 7
-7.7221 14.7253 -2.6477 0.1573 0 7
-7.9592 14.5986 -2.6477 0.1573 0 7
-8.1942 14.4680 -2.6477 0.1573 0 7
-8.4270 14.3336 -2.6477 0.1573 0 7
-8.6576 14.1955 -2.6477 0.1573 0 7
-8.8860 14.0537 -2.6477 0.1573 0 7
-9.1120 13.9082 -2.6477 0.1573 0 7
-9.3357 13.7591 -2.6477 0.1573 0 7
-9.5569 13.6063 -2.6477 0.1573 0 7
-9.7756 13.4501 -2.6477 0.1573 0 7
-9.9918 13.2903 -2.6477 0.1573 0 7
-10.2053 13.1270 -2.6477 0.1573 0 7
-10.4162 12.9603 -2.6477 0.1573 0 7
-10.6244 12.7902 -2.6477 0.1573 0 7
-10.8297 12.6168 -2.6477 0.1573 0 7
-11.0323 12.4401 -2.6477 0.1573 0 7
-11.2320 12.2601 -2.6477 0.1573 0 7
-11.4287 12.0769 -2.6477 0.1573 0 7
-11.6224 11.8906 -2.6477 0.1573 0 7
-11.8132 11.7011 -2.6477 0.1573 0 7
-12.0008 11.5086 -2.6477 0.1573 0 7
-12.1853 11.3131 -2.6477 0.1573 0 7
-12.3666 11.1146 -2.6477 0.1573 0 7
-12.5446 10.9132 -2.6477 0.1573 0 7
-12.7194 10.7090 -2.6477 0.1573 0 7
-12.8909 10.5020 -2.6477 0.1573 0 7
-13.0590 10.2922 -2.6477 0.1573 0 7
-13.2237 10.0797 -2.6477 0.1573 0 7
-13.3849 9.8646 -2.6477 0.1573 0 7
-13.5426 9.6469 -2.6477 0.1573 0 7
-13.6968 9.4268 -2.6477 0.1573 0 7
-13.8474 9.2041 -2.6477 0.1573 0 7
-13.9944 8.9790 -2.6477 0.1573 0 7
-13.3240 8.2479 -2.4953 0.1573 0 8
-13.4556 8.0314 -2.4953 0.1573 0 8
-13.5837 7.8128 -2.4953 0.1573 0 8
-13.7082 7.5922 -2.4953 0.1573 0 8
-13.8291 7.3696 -2.4953 0.1573 0 8
-13.9465 7.1450 -2.4953 0.1573 0 8
-14.0602 6.9186 -2.4953 0.1573 0 8
-14.1702 6.6904 -2.4953 0.1573 0 8
-14.2765 6.4605 -2.4953 0.1573 0 8
-14.3791 6.2288 -2.4953 0.1573 0 8
-14.4779 5.9956 -2.4953 0.1573 0 8
-14.5729 5.7607 -2.4953 0.1573 0 8
-14.6641 5.5244 -2.4953 0.1573 0 8
-14.7515 5.2866 -2.4953 0.1573 0 8
-14.8351 5.0474 -2.4953 0.1573 0 8
-14.9147 4.8069 -2.4953 0.1573 0 8
-14.9905 4.5652 -2.4953 0.1573 0 8
-15.0623 4.3222 -2.4953 0.1573 0 8
-15.1303 4.0782 -2.4953 0.1573 0 8
-15.1942 3.8330 -2.4953 0.1573 0 8
-15.2542 3.5869 -2.4953 0.1573 0 8
-15.3102 3.3398 -2.4953 0.1573 0 8
-15.3622 3.0918 -2.4953 0.1573 0 8
-15.4101 2.8431 -2.4953 0.1573 0 8
-15.4541 2.5936 -2.4953 0.1573 0 8
-15.4940 2.3434 -2.4953 0.1573 0 8
-15.5299 2.0926 -2.4953 0.1573 0 8
-15.5617 1.8413 -2.4953 0.1573 0 8
-15.5894 1.5895 -2.4953 0.1573 0 8
-15.6131 1.3372 -2.4953 0.1573 0 8
-15.6326 1.0846 -2.4953 0.1573 0 8
-15.6481 0.8318 -2.4953 0.1573 0 8
-15.6595 0.5787 -2.4953 0.1573 0 8
-3.5103 15.3862 -2.6477 0.1655 0 7
-3.7586 15.3274 -2.6477 0.1655 0 7
-4.0059 15.2647 -2.6477 0.1655 0 7
-4.2522 15.1979 -2.6477 0.1655 0 7
-4.4973 15.1272 -2.6477 0.1655 0 7
-4.7413 15.0525 -2.6477 0.1655 0 7
-4.9840 14.9739 -2.6477 0.1655 0 7
-5.2254 14.8914 -2.6477 0.1655 0 7
-5.4655 14.8049 -2.6477 0.1655 0 7
-5.7041 14.7146 -2.6477 0.1655 0 7
-5.9413 14.6205 -2.6477 0.1655 0 7
-6.1769 14.5226 -2.6477 0.1655 0 7
-6.4108 14.4208 -2.6477 0.1655 0 7
-6.6431 14.3153 -2.6477 0.1655 0 7
-6.8737 14.2060 -2.6477 0.1655 0 7
-7.1025 14.0930 -2.6477 0.1655 0 7
-7.3294 13.9764 -2.6477 0.1655 0 7
-7.5544 13.8560 -2.6477 0.1655 0 7
-7.7774 13.7321 -2.6477 0.1655 0 7
-7.9984 13.6046 -2.6477 0.1655 0 7
-8.2173 13.4735 -2.6477 0.1655 0 7
-8.4340 13.3389 -2.6477 0.1655 0 7
-8.6486 13.2008 -2.6477 0.1655 0 7
-8.8608 13.0592 -2.6477 0.1655 0 7
-9.0708 12.9143 -2.6477 0.1655 0 7
-9.2784 12.7660 -2.6477 0.1655 0 7
-9.4835 12.6143 -2.6477 0.1655 0 7
-9.6862 12.4593 -2.6477 0.1655 0 7
-9.8864 12.3011 -2.6477 0.1655 0 7
-10.0840 12.1397 -2.6477 0.1655 0 7
-10.2789 11.9751 -2.6477 0.1655 0 7
-10.4712 11.8073 -2.6477 0.1655 0 7
-10.6607 11.6365 -2.6477 0.1655 0 7
-10.8474 11.4626 -2.6477 0.1655 0 6
-11.0313 11.2858 -2.6477 0.1655 0 7
-11.2123 11.1059 -2.6477 0.1655 0 7
-11.3904 10.9232 -2.6477 0.1655 0 7
-11.5655 10.7377 -2.6477 0.1655 0 7
-11.7376 10.5493 -2.6477 0.1655 0 7
-11.9066 10.3582 -2.6477 0.1655 0 7
-12.0725 10.1643 -2.6477 0.1655 0 7
-12.2352 9.9678 -2.6477 0.1655 0 7
-12.3948 9.7687 -2.6477 0.1655 0 7
-12.5511 9.5670 -2.6477 0.1655 0 7
-12.7041 9.3629 -2.6477 0.1655 0 7
-12.8538 9.1563 -2.6477 0.1655 0 7
-13.0002 8.9473 -2.6477 0.1655 0 7
-12.3866 8.2331 -2.4953 0.1655 0 8
-12.5181 8.0318 -2.4953 0.1655 0 8
-12.6463 7.8284 -2.4953 0.1655 0 8
-12.7712 7.6229 -2.4953 0.1655 0 8
-12.8927 7.4154 -2.4953 0.1655 0 8
-13.0110 7.2060 -2.4953 0.1655 0 8
-13.1258 6.9947 -2.4953 0.1655 0 8
-13.2371 6.7816 -2.4953 0.1655 0 8
-13.3450 6.5667 -2.4953 0.1655 0 8
-13.4494 6.3501 -2.4953 0.1655 0 8
-13.5503 6.1319 -2.4953 0.1655 0 8
-13.6477 5.9120 -2.4953 0.1655 0 8
-13.7415 5.6906 -2.4953 0.1655 0 8
-13.8317 5.4677 -2.4953 0.1655 0 8
-13.9183 5.2434 -2.4953 0.1655 0 8
-14.0012 5.0177 -2.4953 0.1655 0 8
-14.0805 4.7907 -2.4953 0.1655 0 8
-14.1561 4.5624 -2.4953 0.1655 0 8
-14.2280 4.3330 -2.4953 0.1655 0 8
-14.2962 4.1024 -2.4953 0.1655 0 8
-14.3607 3.8707 -2.4953 0.1655 0 8
-14.4214 3.6381 -2.4953 0.1655 0 8
-14.4783 3.4044 -2.4953 0.1655 0 8
-14.5314 3.1699 -2.4953 0.1655 0 8
-14.5808 2.9346 -2.4953 0.1655 0 8
-14.6263 2.6985 -2.4953 0.1655 0 8
-14.6681 2.4617 -2.4953 0.1655 0 8
-14.7059 2.2242 -2.4953 0.1655 0 8
-14.7400 1.9862 -2.4953 0.1655 0 8
-14.7702 1.7476 -2.4953 0.1655 0 8
-14.7965 1.5086 -2.4953 0.1655 0 8
-14.8189 1.2692 -2.4953 0.1655 0 8
-14.8375 1.0295 -2.4953 0.1655 0 8
-14.8522 0.7895 -2.4953 0.1655 0 8
-14.8630 0.5493 -2.4953 0.1655 0 8
-3.3400 14.6395 -2.6477 0.1736 0 7
-3.5762 14.5836 -2.6477 0.1736 0 7
-3.8115 14.5239 -2.6477 0.1736 0 7
-4.0458 14.4604 -2.6477 0.1736 0 7
-4.2791 14.3931 -2.6477 0.1736 0 7
-4.5112 14.3220 -2.6477 0.1736 0 7
-4.7421 14.2472 -2.6477 0.1736 0 7
-4.9719 14.1687 -2.6477 0.1736 0 7
-5.2003 14.0865 -2.6477 0.1736 0 7
-5.4273 14.0005 -2.6477 0.1736 0 7
-5.6529 13.9110 -2.6477 0.1736 0 7
-5.8771 13.8178 -2.6477 0.1736 0 7
-6.0997 13.7210 -2.6477 0.1736 0 7
-6.3207 13.6205 -2.6477 0.1736 0 7
-6.5401 13.5166 -2.6477 0.1736 0 7
-6.7578 13.4091 -2.6477 0.1736 0 7
-6.9737 13.2981 -2.6477 0.1736 0 7
-7.1877 13.1836 -2.6477 0.1736 0 7
-7.3999 13.0657 -2.6477 0.1736 0 7
-7.6102 12.9443 -2.6477 0.1736 0 7
-7.8185 12.8196 -2.6477 0.1736 0 7
-8.0247 12.6915 -2.6477 0.1736 0 7
-8.2288 12.5601 -2.6477 0.1736 0 7
-8.4308 12.4255 -2.6477 0.1736 0 7
-8.6306 12.2876 -2.6477 0.1736 0 7
-8.8281 12.1464 -2.6477 0.1736 0 7
-9.0233 12.0021 -2.6477 0.1736 0 7
-9.2162 11.8547 -2.6477 0.1736 0 7
-9.4066 11.7041 -2.6477 0.1736 0 7
-9.5946 11.5505 -2.6477 0.1736 0 7
-9.7801 11.3939 -2.6477 0.1736 0 6
-9.9630 11.2343 -2.6477 0.1736 0 7
-10.1433 11.0718 -2.6477 0.1736 0 7
-10.3210 10.9063 -2.6477 0.1736 0 7
-10.4959 10.7381 -2.6477 0.1736 0 7
-10.6682 10.5670 -2.6477 0.1736 0 7
-10.8376 10.3931 -2.6477 0.1736 0 7
-11.0042 10.2166 -2.6477 0.1736 0 7
-11.1679 10.0373 -2.6477 0.1736 0 7
-11.3288 9.8555 -2.6477 0.1736 0 7
-11.4866 9.6710 -2.6477 0.1736 0 7
-11.6415 9.4841 -2.6477 0.1736 0 7
-11.7933 9.2946 -2.6477 0.1736 0 7
-11.9420 9.1028 -2.6477 0.1736 0 7
-11.3918 8.3957 -2.4953 0.1736 0 8
-11.5261 8.2105 -2.4953 0.1736 0 8
-11.6573 8.0231 -2.4953 0.1736 0 8
-11.7855 7.8336 -2.4953 0.1736 0 8
-11.9106 7.6420 -2.4953 0.1736 0 8
-12.0326 7.4484 -2.4953 0.1736 0 8
-12.1514 7.2529 -2.4953 0.1736 0 8
-12.2671 7.0555 -2.4953 0.1736 0 8
-12.3795 6.8563 -2.4953 0.1736 0 8
-12.4888 6.6553 -2.4953 0.1736 0 8
-12.5947 6.4525 -2.4953 0.1736 0 8
-12.6974 6.2480 -2.4953 0.1736 0 8
-12.7967 6.0420 -2.4953 0.1736 0 8
-12.8927 5.8343 -2.4953 0.1736 0 8
-12.9854 5.6251 -2.4953 0.1736 0 8
-13.0746 5.4144 -2.4953 0.1736 0 8
-13.1604 5.2023 -2.4953 0.1736 0 8
-13.2428 4.9889 -2.4953 0.1736 0 8
-13.3218 4.7742 -2.4953 0.1736 0 8
-13.3972 4.5582 -2.4953 0.1736 0 8
-13.4691 4.3410 -2.4953 0.1736 0 8
-13.5375 4.1227 -2.4953 0.1736 0 8
-13.6024 3.9033 -2.4953 0.1736 0 8
-13.6638 3.6829 -2.4953 0.1736 0 8
-13.7215 3.4615 -2.4953 0.1736 0 8
-13.7757 3.2392 -2.4953 0.1736 0 8
-13.8262 3.0161 -2.4953 0.1736 0 8
-13.8732 2.7922 -2.4953 0.1736 0 8
-13.9165 2.5675 -2.4953 0.1736 0 8
-13.9562 2.3422 -2.4953 0.1736 0 8
-13.9923 2.1163 -2.4953 0.1736 0 8
-14.0246 1.8898 -2.4953 0.1736 0 8
-14.0534 1.6628 -2.4953 0.1736 0 8
-14.0784 1.4354 -2.4953 0.1736 0 8
-14.0998 1.2076 -2.4953 0.1736 0 8
-14.1174 0.9795 -2.4953 0.1736 0 8
-14.1314 0.7512 -2.4953 0.1736 0 8
-14.1417 0.5226 -2.4953 0.1736 0 8
-3.1850 13.9600 -2.6477 0.1818 0 7
-3.4102 13.9067 -2.6477 0.1818 0 7
-3.6346 13.8498 -2.6477 0.1818 0 7
-3.8580 13.7892 -2.6477 0.1818 0 7
-4.0805 13.7250 -2.6477 0.1818 0 7
-4.3018 13.6573 -2.6477 0.1818 0 7
-4.5220 13.5860 -2.6477 0.1818 0 7
-4.7411 13.5111 -2.6477 0.1818 0 7
-4.9589 13.4327 -2.6477 0.1818 0 7
-5.1754 13.3507 -2.6477 0.1818 0 7
-5.3906 13.2653 -2.6477 0.1818 0 7
-5.6043 13.1764 -2.6477 0.1818 0 7
-5.8166 13.0841 -2.6477 0.1818 0 7
-6.0274 12.9884 -2.6477 0.1818 0 7
-6.2366 12.8892 -2.6477 0.1818 0 7
-6.4441 12.7867 -2.6477 0.1818 0 7
-6.6500 12.6809 -2.6477 0.1818 0 7
-6.8541 12.5717 -2.6477 0.1818 0 7
-7.0565 12.4593 -2.6477 0.1818 0 7
-7.2570 12.3436 -2.6477 0.1818 0 7
-7.4556 12.2246 -2.6477 0.1818 0 7
-7.6522 12.1025 -2.6477 0.1818 0 7
-7.8469 11.9772 -2.6477 0.1818 0 7
-8.0395 11.8488 -2.6477 0.1818 0 7
-8.2300 11.7172 -2.6477 0.1818 0 7
-8.4184 11.5827 -2.6477 0.1818 0 7
-8.6045 11.4451 -2.6477 0.1818 0 6
-8.7884 11.3045 -2.6477 0.1818 0 7
-8.9700 11.1609 -2.6477 0.1818 0 7
-9.1493 11.0144 -2.6477 0.1818 0 7
-9.3261 10.8651 -2.6477 0.1818 0 7
-9.5006 10.7129 -2.6477 0.1818 0 7
-9.6725 10.5579 -2.6477 0.1818 0 7
-9.8420 10.4001 -2.6477 0.1818 0 7
-10.0088 10.2397 -2.6477 0.1818 0 7
-10.1730 10.0765 -2.6477 0.1818 0 7
-10.3346 9.9107 -2.6477 0.1818 0 7
-10.4935 9.7424 -2.6477 0.1818 0 7
-10.6496 9.5715 -2.6477 0.1818 0 7
-10.8029 9.3980 -2.6477 0.1818 0 7
-10.9535 9.2222 -2.6477 0.1818 0 7
-11.1011 9.0439 -2.6477 0.1818 0 7
-10.5986 8.3531 -2.4953 0.1818 0 8
-10.7322 8.1806 -2.4953 0.1818 0 8
-10.8631 8.0061 -2.4953 0.1818 0 8
-10.9911 7.8294 -2.4953 0.1818 0 8
-11.1162 7.6507 -2.4953 0.1818 0 8
-11.2385 7.4700 -2.4953 0.1818 0 8
-11.3578 7.2873 -2.4953 0.1818 0 8
-11.4741 7.1027 -2.4953 0.1818 0 8
-11.5874 6.9163 -2.4953 0.1818 0 8
-11.6977 6.7281 -2.4953 0.1818 0 8
-11.8050 6.5381 -2.4953 0.1818 0 8
-11.9091 6.3464 -2.4953 0.1818 0 8
-12.0102 6.1530 -2.4953 0.1818 0 8
-12.1081 5.9580 -2.4953 0.1818 0 8
-12.2028 5.7615 -2.4953 0.1818 0 8
-12.2943 5.5635 -2.4953 0.1818 0 8
-12.3827 5.3640 -2.4953 0.1818 0 8
-12.4678 5.1631 -2.4953 0.1818 0 8
-12.5496 4.9609 -2.4953 0.1818 0 8
-12.6282 4.7574 -2.4953 0.1818 0 8
-12.7034 4.5526 -2.4953 0.1818 0 8
-12.7754 4.3466 -2.4953 0.1818 0 8
-12.8440 4.1395 -2.4953 0.1818 0 8
-12.9092 3.9313 -2.4953 0.1818 0 8
-12.9711 3.7221 -2.4953 0.1818 0 8
-13.0296 3.5119 -2.4953 0.1818 0 8
-13.0846 3.3008 -2.4953 0.1818 0 8
-13.1363 3.0889 -2.4953 0.1818 0 8
-13.1845 2.8761 -2.4953 0.1818 0 8
-13.2293 2.6626 -2.4953 0.1818 0 8
-13.2706 2.4484 -2.4953 0.1818 0 8
-13.3085 2.2335 -2.4953 0.1818 0 8
-13.3428 2.0181 -2.4953 0.1818 0 8
-13.3737 1.8021 -2.4953 0.1818 0 8
-13.4011 1.5856 -2.4953 0.1818 0 8
-13.4250 1.3688 -2.4953 0.1818 0 8
-13.4453 1.1516 -2.4953 0.1818 0 8
-13.4622 0.9340 -2.4953 0.1818 0 8
-13.4756 0.7163 -2.4953 0.1818 0 8
-13.4854 0.4983 -2.4953 0.1818 0 8
-3.0433 13.3390 -2.6477 0.1900 0 7
-3.2585 13.2881 -2.6477 0.1900 0 7
-3.4729 13.2337 -2.6477 0.1900 0 7
-3.6864 13.1758 -2.6477 0.1900 0 7
-3.8989 13.1145 -2.6477 0.1900 0 7
-4.1105 13.0497 -2.6477 0.1900 0 7
-4.3209 12.9816 -2.6477 0.1900 0 7
-4.5302 12.9100 -2.6477 0.1900 0 7
-4.7383 12.8351 -2.6477 0.1900 0 7
-4.9452 12.7568 -2.6477 0.1900 0 7
-5.1508 12.6752 -2.6477 0.1900 0 7
-5.3550 12.5903 -2.6477 0.1900 0 7
-5.5579 12.5021 -2.6477 0.1900 0 7
-5.7592 12.4106 -2.6477 0.1900 0 7
-5.9591 12.3159 -2.6477 0.1900 0 7
-6.1574 12.2179 -2.6477 0.1900 0 7
-6.3542 12.1168 -2.6477 0.1900 0 7
-6.5492 12.0125 -2.6477 0.1900 0 7
-6.7426 11.9050 -2.6477 0.1900 0 7
-6.9342 11.7944 -2.6477 0.1900 0 7
-7.1239 11.6808 -2.6477 0.1900 0 7
-7.3118 11.5641 -2.6477 0.1900 0 7
-7.4979 11.4444 -2.6477 0.1900 0 6
-7.6819 11.3217 -2.6477 0.1900 0 7
-7.8639 11.1960 -2.6477 0.1900 0 7
-8.0439 11.0674 -2.6477 0.1900 0 7
-8.2217 10.9359 -2.6477 0.1900 0 7
-8.3974 10.8016 -2.6477 0.1900 0 7
-8.5710 10.6644 -2.6477 0.1900 0 7
-8.7423 10.5244 -2.6477 0.1900 0 7
-8.9113 10.3817 -2.6477 0.1900 0 7
-9.0779 10.2363 -2.6477 0.1900 0 7
-9.2422 10.0882 -2.6477 0.1900 0 7
-9.4041 9.9375 -2.6477 0.1900 0 7
-9.5635 9.7842 -2.6477 0.1900 0 7
-9.7205 9.6283 -2.6477 0.1900 0 7
-9.8749 9.4699 -2.6477 0.1900 0 7
-10.0267 9.3090 -2.6477 0.1900 0 7
-10.1759 9.1457 -2.6477 0.1900 0 7
-10.3224 8.9800 -2.6477 0.1900 0 7
-9.8638 8.3047 -2.4953 0.1900 0 8
-9.9967 8.1441 -2.4953 0.1900 0 8
-10.1271 7.9815 -2.4953 0.1900 0 8
-10.2548 7.8167 -2.4953 0.1900 0 8
-10.3798 7.6499 -2.4953 0.1900 0 8
-10.5022 7.4811 -2.4953 0.1900 0 8
-10.6217 7.3103 -2.4953 0.1900 0 8
-10.7385 7.1377 -2.4953 0.1900 0 8
-10.8525 6.9631 -2.4953 0.1900 0 8
-10.9637 6.7868 -2.4953 0.1900 0 8
-11.0719 6.6086 -2.4953 0.1900 0 8
-11.1773 6.4288 -2.4953 0.1900 0 8
-11.2798 6.2472 -2.4953 0.1900 0 8
-11.3793 6.0641 -2.4953 0.1900 0 8
-11.4759 5.8793 -2.4953 0.1900 0 8
-11.5694 5.6930 -2.4953 0.1900 0 8
-11.6599 5.5052 -2.4953 0.1900 0 8
-11.7474 5.3160 -2.4953 0.1900 0 8
-11.8318 5.1254 -2.4953 0.1900 0 8
-11.9131 4.9334 -2.4953 0.1900 0 8
-11.9914 4.7402 -2.4953 0.1900 0 8
-12.0664 4.5457 -2.4953 0.1900 0 8
-12.1383 4.3501 -2.4953 0.1900 0 8
-12.2071 4.1533 -2.4953 0.1900 0 8
-12.2726 3.9554 -2.4953 0.1900 0 8
-12.3349 3.7565 -2.4953 0.1900 0 8
-12.3941 3.5565 -2.4953 0.1900 0 8
-12.4499 3.3557 -2.4953 0.1900 0 8
-12.5026 3.1540 -2.4953 0.1900 0 8
-12.5519 2.9515 -2.4953 0.1900 0 8
-12.5980 2.7482 -2.4953 0.1900 0 8
-12.6408 2.5441 -2.4953 0.1900 0 8
-12.6803 2.3394 -2.4953 0.1900 0 8
-12.7164 2.1341 -2.4953 0.1900 0 8
-12.7493 1.9283 -2.4953 0.1900 0 8
-12.7788 1.7219 -2.4953 0.1900 0 8
-12.8049 1.5151 -2.4953 0.1900 0 8
-12.8278 1.3079 -2.4953 0.1900 0 8
-12.8472 1.1003 -2.4953 0.1900 0 8
-12.8633 0.8925 -2.4953 0.1900 0 8
-12.8761 0.6844 -2.4953 0.1900 0 8
-12.8855 0.4762 -2.4953 0.1900 0 8
-2.9133 12.7692 -2.6477 0.1981 0 7
-3.1193 12.7204 -2.6477 0.1981 0 7
-3.3246 12.6683 -2.6477 0.1981 0 7
-3.5289 12.6129 -2.6477 0.1981 0 7
-3.7324 12.5542 -2.6477 0.1981 0 7
-3.9348 12.4922 -2.6477 0.1981 0 7
-4.1363 12.4270 -2.6477 0.1981 0 7
-4.3366 12.3585 -2.6477 0.1981 0 7
-4.5359 12.2868 -2.6477 0.1981 0 7
-4.7339 12.2118 -2.6477 0.1981 0 7
-4.9307 12.1337 -2.6477 0.1981 0 7
-5.1262 12.0524 -2.6477 0.1981 0 7
-5.3204 11.9679 -2.6477 0.1981 0 7
-5.5132 11.8804 -2.6477 0.1981 0 7
-5.7045 11.7897 -2.6477 0.1981 0 7
-5.8944 11.6959 -2.6477 0.1981 0 7
-6.0827 11.5991 -2.6477 0.1981 0 7
-6.2694 11.4993 -2.6477 0.1981 0 7
-6.4545 11.3964 -2.6477 0.1981 0 6
-6.6379 11.2906 -2.6477 0.1981 0 7
-6.8196 11.1818 -2.6477 0.1981 0 7
-6.9995 11.0701 -2.6477 0.1981 0 7
-7.1775 10.9555 -2.6477 0.1981 0 7
-7.3537 10.8380 -2.6477 0.1981 0 7
-7.5279 10.7177 -2.6477 0.1981 0 7
-7.7002 10.5946 -2.6477 0.1981 0 7
-7.8705 10.4687 -2.6477 0.1981 0 7
-8.0387 10.3401 -2.6477 0.1981 0 7
-8.2048 10.2088 -2.6477 0.1981 0 7
-8.3688 10.0748 -2.6477 0.1981 0 7
-8.5306 9.9382 -2.6477 0.1981 0 7
-8.6901 9.7990 -2.6477 0.1981 0 7
-8.8474 9.6572 -2.6477 0.1981 0 7
-9.0024 9.5129 -2.6477 0.1981 0 7
-9.1550 9.3662 -2.6477 0.1981 0 7
-9.3052 9.2169 -2.6477 0.1981 0 7
-9.4530 9.0653 -2.6477 0.1981 0 7
-9.0458 8.3983 -2.4953 0.1981 0 8
-9.1804 8.2510 -2.4953 0.1981 0 8
-9.3126 8.1015 -2.4953 0.1981 0 8
-9.4424 7.9499 -2.4953 0.1981 0 8
-9.5697 7.7962 -2.4953 0.1981 0 8
-9.6944 7.6405 -2.4953 0.1981 0 8
-9.8167 7.4828 -2.4953 0.1981 0 8
-9.9364 7.3231 -2.4953 0.1981 0 8
-10.0535 7.1615 -2.4953 0.1981 0 8
-10.1679 6.9980 -2.4953 0.1981 0 8
-10.2797 6.8327 -2.4953 0.1981 0 8
-10.3889 6.6656 -2.4953 0.1981 0 8
-10.4953 6.4968 -2.4953 0.1981 0 8
-10.5989 6.3263 -2.4953 0.1981 0 8
-10.6998 6.1541 -2.4953 0.1981 0 8
-10.7979 5.9803 -2.4953 0.1981 0 8
-10.8932 5.8050 -2.4953 0.1981 0 8
-10.9856 5.6281 -2.4953 0.1981 0 8
-11.0752 5.4498 -2.4953 0.1981 0 8
-11.1618 5.2700 -2.4953 0.1981 0 8
-11.2456 5.0889 -2.4953 0.1981 0 8
-11.3264 4.9064 -2.4953 0.1981 0 8
-11.4042 4.7227 -2.4953 0.1981 0 8
-11.4791 4.5377 -2.4953 0.1981 0 8
-11.5509 4.3515 -2.4953 0.1981 0 8
-11.6197 4.1642 -2.4953 0.1981 0 8
-11.6856 3.9758 -2.4953 0.1981 0 8
-11.7483 3.7864 -2.4953 0.1981 0 8
-11.8080 3.5960 -2.4953 0.1981 0 8
-11.8646 3.4046 -2.4953 0.1981 0 8
-11.9181 3.2123 -2.4953 0.1981 0 8
-11.9684 3.0193 -2.4953 0.1981 0 8
-12.0157 2.8254 -2.4953 0.1981 0 8
-12.0598 2.6308 -2.4953 0.1981 0 8
-12.1007 2.4354 -2.4953 0.1981 0 8
-12.1385 2.2395 -2.4953 0.1981 0 8
-12.1731 2.0430 -2.4953 0.1981 0 8
-12.2046 1.8459 -2.4953 0.1981 0 8
-12.2328 1.6484 -2.4953 0.1981 0 8
-12.2579 1.4504 -2.4953 0.1981 0 8
-12.2797 1.2520 -2.4953 0.1981 0 8
-12.2984 1.0533 -2.4953 0.1981 0 8
-12.3138 0.8544 -2.4953 0.1981 0 8
-12.3260 0.6552 -2.4953 0.1981 0 8
-12.3350 0.4558 -2.4953 0.1981 0 8
-2.7935 12.2443 -2.6477 0.2063 0 7
-2.9911 12.1975 -2.6477 0.2063 0 7
-3.1879 12.1476 -2.6477 0.2063 0 7
-3.3839 12.0945 -2.6477 0.2063 0 7
-3.5790 12.0382 -2.6477 0.2063 0 7
-3.7731 11.9788 -2.6477 0.2063 0 7
-3.9663 11.9162 -2.6477 0.2063 0 7
-4.1584 11.8505 -2.6477 0.2063 0 7
-4.3494 11.7817 -2.6477 0.2063 0 7
-4.5393 11.7099 -2.6477 0.2063 0 7
-4.7280 11.6350 -2.6477 0.2063 0 7
-4.9155 11.5570 -2.6477 0.2063 0 7
-5.1017 11.4760 -2.6477 0.2063 0 6
-5.2866 11.3921 -2.6477 0.2063 0 6
-5.4701 11.3051 -2.6477 0.2063 0 7
-5.6521 11.2152 -2.6477 0.2063 0 7
-5.8327 11.1223 -2.6477 0.2063 0 7
-6.0117 11.0266 -2.6477 0.2063 0 7
-6.1892 10.9280 -2.6477 0.2063 0 7
-6.3651 10.8265 -2.6477 0.2063 0 7
-6.5393 10.7222 -2.6477 0.2063 0 7
-6.7118 10.6150 -2.6477 0.2063 0 7
-6.8825 10.5051 -2.6477 0.2063 0 7
-7.0514 10.3925 -2.6477 0.2063 0 7
-7.2185 10.2772 -2.6477 0.2063 0 7
-7.3837 10.1591 -2.6477 0.2063 0 7
-7.5470 10.0384 -2.6477 0.2063 0 7
-7.7083 9.9151 -2.6477 0.2063 0 7
-7.8676 9.7892 -2.6477 0.2063 0 7
-8.0248 9.6607 -2.6477 0.2063 0 7
-8.1799 9.5297 -2.6477 0.2063 0 7
-8.3329 9.3962 -2.6477 0.2063 0 7
-8.4837 9.2603 -2.6477 0.2063 0 7
-8.6323 9.1219 -2.6477 0.2063 0 7
-8.7787 8.9812 -2.6477 0.2063 0 7
-8.4091 8.3294 -2.4953 0.2063 0 8
-8.5427 8.1923 -2.4953 0.2063 0 8
-8.6740 8.0532 -2.4953 0.2063 0 8
-8.8031 7.9119 -2.4953 0.2063 0 8
-8.9298 7.7685 -2.4953 0.2063 0 8
-9.0543 7.6231 -2.4953 0.2063 0 8
-9.1763 7.4758 -2.4953 0.2063 0 8
-9.2960 7.3264 -2.4953 0.2063 0 8
-9.4132 7.1752 -2.4953 0.2063 0 8
-9.5280 7.0221 -2.4953 0.2063 0 8
-9.6403 6.8671 -2.4953 0.2063 0 8
-9.7500 6.7104 -2.4953 0.2063 0 8
-9.8572 6.5519 -2.4953 0.2063 0 8
-9.9618 6.3917 -2.4953 0.2063 0 8
-10.0639 6.2298 -2.4953 0.2063 0 8
-10.1633 6.0663 -2.4953 0.2063 0 8
-10.2600 5.9012 -2.4953 0.2063 0 8
-10.3541 5.7345 -2.4953 0.2063 0 8
-10.4454 5.5664 -2.4953 0.2063 0 8
-10.5341 5.3968 -2.4953 0.2063 0 8
-10.6199 5.2258 -2.4953 0.2063 0 8
-10.7030 5.0534 -2.4953 0.2063 0 8
-10.7833 4.8797 -2.4953 0.2063 0 8
-10.8608 4.7048 -2.4953 0.2063 0 8
-10.9354 4.5286 -2.4953 0.2063 0 8
-11.0072 4.3512 -2.4953 0.2063 0 8
-11.0761 4.1727 -2.4953 0.2063 0 8
-11.1421 3.9931 -2.4953 0.2063 0 8
-11.2052 3.8124 -2.4953 0.2063 0 8
-11.2654 3.6308 -2.4953 0.2063 0 8
-11.3226 3.4482 -2.4953 0.2063 0 8
-11.3769 3.2647 -2.4953 0.2063 0 8
-11.4282 3.0803 -2.4953 0.2063 0 8
-11.4765 2.8952 -2.4953 0.2063 0 8
-11.5218 2.7092 -2.4953 0.2063 0 8
-11.5641 2.5226 -2.4953 0.2063 0 8
-11.6034 2.3353 -2.4953 0.2063 0 8
-11.6396 2.1475 -2.4953 0.2063 0 8
-11.6728 1.9590 -2.4953 0.2063 0 8
-11.7029 1.7700 -2.4953 0.2063 0 8
-11.7300 1.5806 -2.4953 0.2063 0 8
-11.7541 1.3908 -2.4953 0.2063 0 8
-11.7750 1.2006 -2.4953 0.2063 0 8
-11.7929 1.0100 -2.4953 0.2063 0 8
-11.8077 0.8193 -2.4953 0.2063 0 8
-11.8194 0.6283 -2.4953 0.2063 0 8
-11.8280 0.4371 -2.4953 0.2063 0 8
-2.6829 11.7593 -2.6477 0.2144 0 7
-2.8726 11.7143 -2.6477 0.2144 0 7
-3.0616 11.6664 -2.6477 0.2144 0 7
-3.2498 11.6153 -2.6477 0.2144 0 7
-3.4372 11.5613 -2.6477 0.2144 0 7
-3.6236 11.5042 -2.6477 0.2144 0 7
-3.8091 11.4441 -2.6477 0.2144 0 6
-3.9937 11.3811 -2.6477 0.2144 0 6
-4.1771 11.3150 -2.6477 0.2144 0 7
-4.3595 11.2460 -2.6477 0.2144 0 7
-4.5407 11.1740 -2.6477 0.2144 0 7
-4.7208 11.0992 -2.6477 0.2144 0 7
-4.8996 11.0214 -2.6477 0.2144 0 7
-5.0772 10.9408 -2.6477 0.2144 0 7
-5.2534 10.8573 -2.6477 0.2144 0 7
-5.4282 10.7709 -2.6477 0.2144 0 7
-5.6016 10.6817 -2.6477 0.2144 0 7
-5.7736 10.5898 -2.6477 0.2144 0 7
-5.9440 10.4951 -2.6477 0.2144 0 7
-6.1129 10.3976 -2.6477 0.2144 0 7
-6.2802 10.2974 -2.6477 0.2144 0 7
-6.4459 10.1945 -2.6477 0.2144 0 7
-6.6098 10.0890 -2.6477 0.2144 0 7
-6.7721 9.9808 -2.6477 0.2144 0 7
-6.9326 9.8700 -2.6477 0.2144 0 7
-7.0912 9.7567 -2.6477 0.2144 0 7
-7.2480 9.6408 -2.6477 0.2144 0 7
-7.4029 9.5223 -2.6477 0.2144 0 7
-7.5559 9.4014 -2.6477 0.2144 0 7
-7.7069 9.2780 -2.6477 0.2144 0 7
-7.8559 9.1522 -2.6477 0.2144 0 7
-8.0028 9.0240 -2.6477 0.2144 0 7
-7.6787 8.3815 -2.4953 0.2144 0 8
-7.8132 8.2563 -2.4953 0.2144 0 8
-7.9456 8.1289 -2.4953 0.2144 0 8
-8.0760 7.9994 -2.4953 0.2144 0 8
-8.2043 7.8678 -2.4953 0.2144 0 8
-8.3304 7.7341 -2.4953 0.2144 0 8
-8.4543 7.5984 -2.4953 0.2144 0 8
-8.5761 7.4608 -2.4953 0.2144 0 8
-8.6956 7.3212 -2.4953 0.2144 0 8
-8.8128 7.1796 -2.4953 0.2144 0 8
-8.9277 7.0362 -2.4953 0.2144 0 8
-9.0403 6.8910 -2.4953 0.2144 0 8
-9.1505 6.7439 -2.4953 0.2144 0 8
-9.2584 6.5951 -2.4953 0.2144 0 8
-9.3638 6.4446 -2.4953 0.2144 0 8
-9.4667 6.2923 -2.4953 0.2144 0 8
-9.5672 6.1385 -2.4953 0.2144 0 8
-9.6652 5.9830 -2.4953 0.2144 0 8
-9.7607 5.8260 -2.4953 0.2144 0 8
-9.8536 5.6674 -2.4953 0.2144 0 8
-9.9439 5.5074 -2.4953 0.2144 0 8
-10.0316 5.3459 -2.4953 0.2144 0 8
-10.1168 5.1830 -2.4953 0.2144 0 8
-10.1992 5.0188 -2.4953 0.2144 0 8
-10.2790 4.8532 -2.4953 0.2144 0 8
-10.3561 4.6864 -2.4953 0.2144 0 8
-10.4306 4.5184 -2.4953 0.2144 0 8
-10.5022 4.3492 -2.4953 0.2144 0 8
-10.5712 4.1788 -2.4953 0.2144 0 8
-10.6374 4.0074 -2.4953 0.2144 0 8
-10.7008 3.8349 -2.4953 0.2144 0 8
-10.7614 3.6614 -2.4953 0.2144 0 8
-10.8191 3.4869 -2.4953 0.2144 0 8
-10.8741 3.3116 -2.4953 0.2144 0 8
-10.9262 3.1353 -2.4953 0.2144 0 8
-10.9755 2.9583 -2.4953 0.2144 0 8
-11.0219 2.7805 -2.4953 0.2144 0 8
-11.0654 2.6019 -2.4953 0.2144 0 8
-11.1060 2.4227 -2.4953 0.2144 0 8
-11.1437 2.2428 -2.4953 0.2144 0 8
-11.1785 2.0624 -2.4953 0.2144 0 8
-11.2104 1.8814 -2.4953 0.2144 0 8
-11.2393 1.6999 -2.4953 0.2144 0 8
-11.2654 1.5180 -2.4953 0.2144 0 8
-11.2884 1.3357 -2.4953 0.2144 0 8
-11.3085 1.1530 -2.4953 0.2144 0 8
-11.3257 0.9700 -2.4953 0.2144 0 8
-11.3399 0.7868 -2.4953 0.2144 0 8
-11.3511 0.6034 -2.4953 0.2144 0 8
-11.3594 0.4198 -2.4953 0.2144 0 8
-2.5803 11.3096 -2.6477 0.2225 0 7
-2.7628 11.2664 -2.6477 0.2225 0 7
-2.9446 11.2203 -2.6477 0.2225 0 7
-3.1256 11.1712 -2.6477 0.2225 0 7
-3.3057 11.1192 -2.6477 0.2225 0 7
-3.4851 11.0643 -2.6477 0.2225 0 7
-3.6635 11.0065 -2.6477 0.2225 0 7
-3.8410 10.9459 -2.6477 0.2225 0 7
-4.0174 10.8823 -2.6477 0.2225 0 7
-4.1928 10.8160 -2.6477 0.2225 0 7
-4.3671 10.7468 -2.6477 0.2225 0 7
-4.5403 10.6748 -2.6477 0.2225 0 7
-4.7123 10.6000 -2.6477 0.2225 0 7
-4.8830 10.5224 -2.6477 0.2225 0 7
-5.0525 10.4421 -2.6477 0.2225 0 7
-5.2206 10.3590 -2.6477 0.2225 0 7
-5.3874 10.2733 -2.6477 0.2225 0 7
-5.5528 10.1848 -2.6477 0.2225 0 7
-5.7167 10.0937 -2.6477 0.2225 0 7
-5.8792 10.0000 -2.6477 0.2225 0 7
-6.0401 9.9037 -2.6477 0.2225 0 7
-6.1994 9.8047 -2.6477 0.2225 0 7
-6.3571 9.7032 -2.6477 0.2225 0 7
-6.5131 9.5992 -2.6477 0.2225 0 7
-6.6675 9.4926 -2.6477 0.2225 0 7
-6.8201 9.3836 -2.6477 0.2225 0 7
-6.9709 9.2721 -2.6477 0.2225 0 7
-7.1198 9.1582 -2.6477 0.2225 0 7
-7.2670 9.0419 -2.6477 0.2225 0 7
-6.9856 8.4096 -2.4953 0.2225 0 8
-7.1206 8.2956 -2.4953 0.2225 0 8
-7.2538 8.1794 -2.4953 0.2225 0 8
-7.3851 8.0610 -2.4953 0.2225 0 8
-7.5144 7.9406 -2.4953 0.2225 0 8
-7.6418 7.8181 -2.4953 0.2225 0 8
-7.7672 7.6935 -2.4953 0.2225 0 8
-7.8906 7.5669 -2.4953 0.2225 0 8
-8.0119 7.4384 -2.4953 0.2225 0 8
-8.1311 7.3079 -2.4953 0.2225 0 8
-8.2481 7.1755 -2.4953 0.2225 0 8
-8.3631 7.0412 -2.4953 0.2225 0 8
-8.4758 6.9051 -2.4953 0.2225 0 8
-8.5863 6.7671 -2.4953 0.2225 0 8
-8.6946 6.6275 -2.4953 0.2225 0 8
-8.8006 6.4860 -2.4953 0.2225 0 8
-8.9043 6.3429 -2.4953 0.2225 0 8
-9.0057 6.1981 -2.4953 0.2225 0 8
-9.1047 6.0517 -2.4953 0.2225 0 8
-9.2014 5.9037 -2.4953 0.2225 0 8
-9.2956 5.7542 -2.4953 0.2225 0 8
-9.3874 5.6032 -2.4953 0.2225 0 8
-9.4768 5.4507 -2.4953 0.2225 0 8
-9.5637 5.2968 -2.4953 0.2225 0 8
-9.6481 5.1415 -2.4953 0.2225 0 8
-9.7299 4.9848 -2.4953 0.2225 0 8
-9.8092 4.8269 -2.4953 0.2225 0 8
-9.8860 4.6677 -2.4953 0.2225 0 8
-9.9601 4.5072 -2.4953 0.2225 0 8
-10.0317 4.3456 -2.4953 0.2225 0 8
-10.1007 4.1829 -2.4953 0.2225 0 8
-10.1670 4.0190 -2.4953 0.2225 0 8
-10.2306 3.8541 -2.4953 0.2225 0 8
-10.2916 3.6882 -2.4953 0.2225 0 8
-10.3498 3.5214 -2.4953 0.2225 0 8
-10.4054 3.3536 -2.4953 0.2225 0 8
-10.4583 3.1849 -2.4953 0.2225 0 8
-10.5084 3.0154 -2.4953 0.2225 0 8
-10.5558 2.8452 -2.4953 0.2225 0 8
-10.6004 2.6741 -2.4953 0.2225 0 8
-10.6422 2.5024 -2.4953 0.2225 0 8
-10.6813 2.3301 -2.4953 0.2225 0 8
-10.7176 2.1571 -2.4953 0.2225 0 8
-10.7511 1.9835 -2.4953 0.2225 0 8
-10.7817 1.8094 -2.4953 0.2225 0 8
-10.8096 1.6349 -2.4953 0.2225 0 8
-10.8346 1.4599 -2.4953 0.2225 0 8
-10.8568 1.2846 -2.4953 0.2225 0 8
-10.8761 1.1089 -2.4953 0.2225 0 8
-10.8926 0.9329 -2.4953 0.2225 0 8
-10.9063 0.7567 -2.4953 0.2225 0 8
-10.9171 0.5803 -2.4953 0.2225 0 8
-10.9250 0.4037 -2.4953 0.2225 0 8
-2.4849 10.8915 -2.6477 0.2306 0 7
-2.6606 10.8499 -2.6477 0.2306 0 7
-2.8357 10.8055 -2.6477 0.2306 0 7
-3.0100 10.7583 -2.6477 0.2306 0 7
-3.1836 10.7082 -2.6477 0.2306 0 7
-3.3563 10.6553 -2.6477 0.2306 0 7
-3.5281 10.5997 -2.6477 0.2306 0 7
-3.6990 10.5412 -2.6477 0.2306 0 7
-3.8689 10.4801 -2.6477 0.2306 0 7
-4.0378 10.4162 -2.6477 0.2306 0 7
-4.2057 10.3495 -2.6477 0.2306 0 7
-4.3725 10.2802 -2.6477 0.2306 0 7
-4.5381 10.2081 -2.6477 0.2306 0 7
-4.7025 10.1334 -2.6477 0.2306 0 7
-4.8657 10.0561 -2.6477 0.2306 0 7
-5.0277 9.9761 -2.6477 0.2306 0 7
-5.1883 9.8935 -2.6477 0.2306 0 7
-5.3475 9.8084 -2.6477 0.2306 0 7
-5.5054 9.7206 -2.6477 0.2306 0 7
-5.6618 9.6304 -2.6477 0.2306 0 7
-5.8168 9.5376 -2.6477 0.2306 0 7
-5.9702 9.4423 -2.6477 0.2306 0 7
-6.1221 9.3445 -2.6477 0.2306 0 7
-6.2724 9.2443 -2.6477 0.2306 0 7
-6.4210 9.1417 -2.6477 0.2306 0 7
-6.5679 9.0367 -2.6477 0.2306 0 7
-6.3268 8.4154 -2.4953 0.2306 0 8
-6.4620 8.3120 -2.4953 0.2306 0 8
-6.5955 8.2065 -2.4953 0.2306 0 8
-6.7273 8.0987 -2.4953 0.2306 0 8
-6.8574 7.9889 -2.4953 0.2306 0 8
-6.9856 7.8770 -2.4953 0.2306 0 8
-7.1121 7.7631 -2.4953 0.2306 0 8
-7.2366 7.6471 -2.4953 0.2306 0 8
-7.3593 7.5291 -2.4953 0.2306 0 8
-7.4801 7.4091 -2.4953 0.2306 0 8
-7.5989 7.2872 -2.4953 0.2306 0 8
-7.7157 7.1634 -2.4953 0.2306 0 8
-7.8305 7.0378 -2.4953 0.2306 0 8
-7.9433 6.9102 -2.4953 0.2306 0 8
-8.0539 6.7809 -2.4953 0.2306 0 8
-8.1625 6.6498 -2.4953 0.2306 0 8
-8.2689 6.5170 -2.4953 0.2306 0 8
-8.3732 6.3825 -2.4953 0.2306 0 8
-8.4753 6.2463 -2.4953 0.2306 0 8
-8.5752 6.1084 -2.4953 0.2306 0 8
-8.6728 5.9690 -2.4953 0.2306 0 8
-8.7682 5.8280 -2.4953 0.2306 0 8
