ply
format ascii 1.0
element vertex 1348
property float32 x
property float32 y
property float32 z
property float32 CosAngle
property uint32 ObjIdx
property uint32 ObjTag
end_header
-44.3116 10.1479 -2.6477 0.0581 0 7
-44.4697 9.4314 -2.6477 0.0581 0 7
-44.6161 8.7123 -2.6477 0.0581 0 7
-44.7509 7.9910 -2.6477 0.0581 0 7
-44.8741 7.2676 -2.6477 0.0581 0 7
-44.9856 6.5423 -2.6477 0.0581 0 7
-45.0853 5.8153 -2.6477 0.0581 0 7
-45.1733 5.0868 -2.6477 0.0581 0 7
-45.2495 4.3569 -2.6477 0.0581 0 7
-45.3140 3.6260 -2.6477 0.0581 0 7
-45.3666 2.8940 -2.6477 0.0581 0 7
-4.4428 37.2096 -2.4953 0.0664 0 8
-5.0428 37.1330 -2.4953 0.0664 0 8
-5.6416 37.0468 -2.4953 0.0664 0 8
-6.2388 36.9509 -2.4953 0.0664 0 8
-6.8345 36.8454 -2.4953 0.0664 0 8
-7.4283 36.7303 -2.4953 0.0664 0 8
-8.0203 36.6056 -2.4953 0.0664 0 8
-8.6101 36.4714 -2.4953 0.0664 0 8
-9.1977 36.3276 -2.4953 0.0664 0 8
-9.7829 36.1744 -2.4953 0.0664 0 8
-10.3655 36.0118 -2.4953 0.0664 0 8
-10.9455 35.8398 -2.4953 0.0664 0 8
-11.5226 35.6584 -2.4953 0.0664 0 8
-12.0966 35.4678 -2.4953 0.0664 0 8
-12.6676 35.2679 -2.4953 0.0664 0 8
-13.2352 35.0588 -2.4953 0.0664 0 8
-13.7994 34.8406 -2.4953 0.0664 0 8
-14.3600 34.6134 -2.4953 0.0664 0 8
-14.9169 34.3770 -2.4953 0.0664 0 8
-15.4698 34.1318 -2.4953 0.0664 0 8
-16.0187 33.8776 -2.4953 0.0664 0 8
-16.5635 33.6146 -2.4953 0.0664 0 8
-17.1039 33.3429 -2.4953 0.0664 0 8
-17.6399 33.0625 -2.4953 0.0664 0 8
-18.2191 32.8595 -2.5018 0.6649 0 8
-18.9149 32.8525 -2.5242 0.8637 0 8
-19.6239 32.8462 -2.5477 0.8557 0 8
-20.3464 32.8396 -2.5724 0.8475 0 8
-21.0831 32.8328 -2.5982 0.8391 0 8
-21.8348 32.8257 -2.6252 0.8305 0 8
-22.5088 32.6823 -2.6424 0.0804 0 8
-23.0782 32.3776 -2.6475 0.0802 0 8
-23.5990 32.0024 -2.6477 0.0664 0 7
-24.1125 31.6173 -2.6477 0.0664 0 7
-24.6197 31.2240 -2.6477 0.0664 0 7
-25.1205 30.8225 -2.6477 0.0664 0 7
-25.6148 30.4130 -2.6477 0.0664 0 7
-26.1024 29.9956 -2.6477 0.0664 0 7
-26.5831 29.5703 -2.6477 0.0664 0 7
-27.0570 29.1374 -2.6477 0.0664 0 7
-27.5238 28.6968 -2.6477 0.0664 0 7
-27.9834 28.2488 -2.6477 0.0664 0 7
-28.4358 27.7934 -2.6477 0.0664 0 7
-28.8807 27.3308 -2.6477 0.0664 0 7
-29.3181 26.8611 -2.6477 0.0664 0 7
-29.7479 26.3843 -2.6477 0.0664 0 6
-30.1699 25.9007 -2.6477 0.0664 0 7
-30.5840 25.4103 -2.6477 0.0664 0 7
-30.9902 24.9133 -2.6477 0.0664 0 7
-31.3883 24.4099 -2.6477 0.0664 0 7
-31.7783 23.9000 -2.6477 0.0664 0 7
-30.4013 22.1053 -2.5029 0.0664 0 14
-30.7542 21.6116 -2.5029 0.0664 0 14
-31.0990 21.1123 -2.5029 0.0664 0 14
-31.4358 20.6076 -2.5029 0.0664 0 14
-31.7643 20.0975 -2.5029 0.0664 0 14
-32.0846 19.5823 -2.5029 0.0664 0 14
-34.2705 20.1644 -2.6477 0.0664 0 7
-34.5915 19.6085 -2.6477 0.0664 0 7
-34.9035 19.0476 -2.6477 0.0664 0 7
-35.2064 18.4817 -2.6477 0.0664 0 7
-35.5002 17.9110 -2.6477 0.0664 0 7
-35.7847 17.3356 -2.6477 0.0664 0 7
-36.0598 16.7558 -2.6477 0.0664 0 7
-36.3256 16.1715 -2.6477 0.0664 0 7
-36.5819 15.5830 -2.6477 0.0664 0 7
-36.8287 14.9905 -2.6477 0.0664 0 6
-37.0659 14.3941 -2.6477 0.0664 0 7
-37.2934 13.7939 -2.6477 0.0664 0 7
-37.5112 13.1901 -2.6477 0.0664 0 7
-37.7192 12.5829 -2.6477 0.0664 0 7
-37.9174 11.9724 -2.6477 0.0664 0 7
-38.1057 11.3588 -2.6477 0.0664 0 7
-38.2841 10.7422 -2.6477 0.0664 0 7
-38.4525 10.1229 -2.6477 0.0664 0 7
-38.6109 9.5009 -2.6477 0.0664 0 7
-38.7592 8.8764 -2.6477 0.0664 0 7
-38.8975 8.2496 -2.6477 0.0664 0 7
-39.0256 7.6206 -2.6477 0.0664 0 7
-39.1435 6.9897 -2.6477 0.0664 0 7
-39.2512 6.3569 -2.6477 0.0664 0 7
-39.3487 5.7225 -2.6477 0.0664 0 7
-39.4360 5.0866 -2.6477 0.0664 0 7
-39.5129 4.4494 -2.6477 0.0664 0 7
-39.5796 3.8110 -2.6477 0.0664 0 6
-39.6360 3.1716 -2.6477 0.0664 0 6
-39.6820 2.5314 -2.6477 0.0664 0 6
-3.9476 33.0623 -2.4953 0.0747 0 8
-4.4808 32.9942 -2.4953 0.0747 0 8
-5.0128 32.9176 -2.4953 0.0747 0 8
-5.5543 32.8964 -2.5001 0.7486 0 8
-6.1010 32.8913 -2.5069 0.9782 0 8
-6.6514 32.8884 -2.5145 0.9752 0 8
-7.2052 32.8853 -2.5229 0.9720 0 8
-7.7628 32.8821 -2.5319 0.9685 0 8
-8.3245 32.8787 -2.5417 0.9648 0 8
-8.8907 32.8752 -2.5522 0.9608 0 8
-9.4616 32.8715 -2.5634 0.9566 0 8
-10.0378 32.8677 -2.5754 0.9522 0 8
-10.6195 32.8637 -2.5882 0.9475 0 8
-11.2071 32.8596 -2.6018 0.9425 0 8
-11.8010 32.8553 -2.6162 0.9373 0 8
-12.4016 32.8508 -2.6314 0.9319 0 8
-12.9792 32.7699 -2.6414 0.0904 0 8
-13.5217 32.5928 -2.6443 0.0903 0 8
-14.0626 32.4082 -2.6474 0.0902 0 8
-14.5851 32.1797 -2.6477 0.0747 0 7
-15.1026 31.9401 -2.6477 0.0747 0 7
-15.6162 31.6922 -2.6477 0.0747 0 7
-16.1258 31.4360 -2.6477 0.0747 0 7
-16.6311 31.1716 -2.6477 0.0747 0 7
-17.1321 30.8991 -2.6477 0.0747 0 7
-17.6286 30.6185 -2.6477 0.0747 0 7
-18.1206 30.3299 -2.6477 0.0747 0 7
-18.6078 30.0335 -2.6477 0.0747 0 7
-19.0902 29.7292 -2.6477 0.0747 0 7
-19.5676 29.4172 -2.6477 0.0747 0 7
-20.0399 29.0975 -2.6477 0.0747 0 7
-20.5069 28.7702 -2.6477 0.0747 0 7
-20.9687 28.4355 -2.6477 0.0747 0 7
-21.4249 28.0933 -2.6477 0.0747 0 7
-21.8756 27.7438 -2.6477 0.0747 0 7
-22.3206 27.3871 -2.6477 0.0747 0 7
-22.7598 27.0232 -2.6477 0.0747 0 7
-23.1930 26.6523 -2.6477 0.0747 0 7
-23.6202 26.2745 -2.6477 0.0747 0 7
-24.0412 25.8898 -2.6477 0.0747 0 7
-24.4560 25.4983 -2.6477 0.0747 0 7
-24.8644 25.1002 -2.6477 0.0747 0 7
-25.2663 24.6956 -2.6477 0.0747 0 7
-25.6617 24.2846 -2.6477 0.0747 0 7
-26.0503 23.8672 -2.6477 0.0747 0 7
-24.9868 22.1616 -2.5029 0.0747 0 14
-25.3413 21.7554 -2.5029 0.0747 0 14
-25.6892 21.3435 -2.5029 0.0747 0 14
-26.0304 20.9260 -2.5029 0.0747 0 14
-26.3647 20.5031 -2.5029 0.0747 0 14
-26.6923 20.0749 -2.5029 0.0747 0 14
-27.0128 19.6414 -2.5029 0.0747 0 14
-27.3264 19.2028 -2.5029 0.0747 0 14
-27.8114 18.8805 -2.5191 0.5666 0 8
-28.7802 18.8668 -2.5789 0.5535 0 8
-29.7960 18.8522 -2.6423 0.5402 0 8
-30.1576 18.4060 -2.6477 0.0747 0 6
-30.4507 17.9169 -2.6477 0.0747 0 7
-30.7360 17.4230 -2.6477 0.0747 0 6
-31.0132 16.9246 -2.6477 0.0747 0 7
-31.2824 16.4218 -2.6477 0.0747 0 7
-31.5434 15.9147 -2.6477 0.0747 0 7
-31.7962 15.4034 -2.6477 0.0747 0 7
-32.0406 14.8882 -2.6477 0.0747 0 7
-32.2768 14.3690 -2.6477 0.0747 0 7
-32.5045 13.8462 -2.6477 0.0747 0 7
-32.7238 13.3197 -2.6477 0.0747 0 7
-32.9345 12.7897 -2.6477 0.0747 0 7
-33.1367 12.2564 -2.6477 0.0747 0 7
-33.3302 11.7200 -2.6477 0.0747 0 7
-33.5150 11.1804 -2.6477 0.0747 0 7
-33.6912 10.6380 -2.6477 0.0747 0 7
-33.8585 10.0928 -2.6477 0.0747 0 7
-34.0170 9.5449 -2.6477 0.0747 0 7
-34.1666 8.9946 -2.6477 0.0747 0 7
-34.3074 8.4419 -2.6477 0.0747 0 7
-32.4568 7.4330 -2.4953 0.0747 0 8
-32.5726 6.9081 -2.4953 0.0747 0 8
-32.6799 6.3815 -2.4953 0.0747 0 8
-32.7786 5.8531 -2.4953 0.0747 0 8
-32.8688 5.3233 -2.4953 0.0747 0 8
-32.9505 4.7920 -2.4953 0.0747 0 8
-33.0235 4.2595 -2.4953 0.0747 0 8
-33.0880 3.7259 -2.4953 0.0747 0 8
-33.1438 3.1913 -2.4953 0.0747 0 8
-33.1911 2.6559 -2.4953 0.0747 0 8
-33.2295 2.1198 -2.4953 0.0747 0 8
-3.7682 31.5595 -2.6477 0.0830 0 7
-4.2771 31.4946 -2.6477 0.0830 0 7
-4.7849 31.4214 -2.6477 0.0830 0 7
-5.2915 31.3401 -2.6477 0.0830 0 7
-5.7967 31.2506 -2.6477 0.0830 0 7
-6.3004 31.1530 -2.6477 0.0830 0 7
-6.8024 31.0472 -2.6477 0.0830 0 7
-7.3027 30.9334 -2.6477 0.0830 0 7
-7.8011 30.8115 -2.6477 0.0830 0 7
-8.2974 30.6815 -2.6477 0.0830 0 7
-8.7916 30.5436 -2.6477 0.0830 0 7
-9.2835 30.3977 -2.6477 0.0830 0 7
-9.7729 30.2439 -2.6477 0.0830 0 7
-10.2598 30.0822 -2.6477 0.0830 0 7
-10.7441 29.9127 -2.6477 0.0830 0 6
-11.2255 29.7353 -2.6477 0.0830 0 7
-11.7040 29.5503 -2.6477 0.0830 0 7
-12.1795 29.3575 -2.6477 0.0830 0 7
-12.6518 29.1571 -2.6477 0.0830 0 7
-13.1208 28.9490 -2.6477 0.0830 0 7
-13.5864 28.7335 -2.6477 0.0830 0 7
-14.0484 28.5104 -2.6477 0.0830 0 7
-14.5068 28.2800 -2.6477 0.0830 0 7
-14.9614 28.0421 -2.6477 0.0830 0 7
-15.4121 27.7969 -2.6477 0.0830 0 7
-15.8588 27.5445 -2.6477 0.0830 0 7
-16.3014 27.2850 -2.6477 0.0830 0 7
-16.7397 27.0183 -2.6477 0.0830 0 7
-17.1736 26.7445 -2.6477 0.0830 0 7
-17.6031 26.4638 -2.6477 0.0830 0 7
-18.0279 26.1763 -2.6477 0.0830 0 7
-18.4481 25.8818 -2.6477 0.0830 0 7
-18.8635 25.5807 -2.6477 0.0830 0 7
-19.2740 25.2729 -2.6477 0.0830 0 7
-19.6794 24.9585 -2.6477 0.0830 0 7
-20.0797 24.6375 -2.6477 0.0830 0 7
-20.4748 24.3102 -2.6477 0.0830 0 7
-20.8645 23.9765 -2.6477 0.0830 0 7
-20.0869 22.3441 -2.5029 0.0830 0 8
-20.4450 22.0170 -2.5029 0.0830 0 14
-20.7977 21.6841 -2.5029 0.0830 0 14
-21.1450 21.3456 -2.5029 0.0830 0 14
-21.4868 21.0014 -2.5029 0.0830 0 14
-21.8230 20.6519 -2.5029 0.0830 0 14
-22.1535 20.2969 -2.5029 0.0830 0 14
-22.4783 19.9367 -2.5029 0.0830 0 14
-22.7972 19.5712 -2.5029 0.0830 0 14
-23.1101 19.2007 -2.5029 0.0830 0 14
-23.5024 18.8938 -2.5120 0.6312 0 8
-24.2806 18.8823 -2.5623 0.6188 0 8
-25.0906 18.8703 -2.6153 0.6063 0 8
-25.7066 18.6916 -2.6477 0.0830 0 7
-26.0049 18.2742 -2.6477 0.0830 0 7
-26.2965 17.8521 -2.6477 0.0830 0 7
-26.5812 17.4253 -2.6477 0.0830 0 7
-26.8591 16.9939 -2.6477 0.0830 0 7
-27.1299 16.5582 -2.6477 0.0830 0 7
-27.3936 16.1181 -2.6477 0.0830 0 7
-27.6502 15.6738 -2.6477 0.0830 0 7
-27.8996 15.2254 -2.6477 0.0830 0 7
-28.1418 14.7731 -2.6477 0.0830 0 7
-28.3766 14.3169 -2.6477 0.0830 0 7
-28.6040 13.8570 -2.6477 0.0830 0 7
-28.8239 13.3935 -2.6477 0.0830 0 7
-29.0364 12.9265 -2.6477 0.0830 0 7
-29.2412 12.4561 -2.6477 0.0830 0 7
-29.4385 11.9824 -2.6477 0.0830 0 7
-29.6281 11.5057 -2.6477 0.0830 0 7
-29.8099 11.0260 -2.6477 0.0830 0 7
-29.9840 10.5434 -2.6477 0.0830 0 7
-30.1503 10.0580 -2.6477 0.0830 0 7
-30.3087 9.5700 -2.6477 0.0830 0 7
-30.4592 9.0795 -2.6477 0.0830 0 7
-28.8404 8.0924 -2.4953 0.0830 0 8
-28.9673 7.6265 -2.4953 0.0830 0 8
-29.0866 7.1572 -2.4953 0.0830 0 8
-29.1983 6.6868 -2.4953 0.0830 0 8
-29.3025 6.2146 -2.4953 0.0830 0 8
-29.3989 5.7408 -2.4953 0.0830 0 8
-29.4878 5.2655 -2.4953 0.0830 0 8
-29.5689 4.7888 -2.4953 0.0830 0 8
-29.6424 4.3109 -2.4953 0.0830 0 8
-29.7081 3.8319 -2.4953 0.0830 0 8
-29.7661 3.3518 -2.4953 0.0830 0 8
-29.8163 2.8709 -2.4953 0.0830 0 8
-29.8588 2.3893 -2.4953 0.0830 0 8
-29.8935 1.9069 -2.4953 0.0830 0 8
-3.4239 28.6766 -2.6477 0.0913 0 7
-3.8864 28.6176 -2.6477 0.0913 0 7
-4.3478 28.5511 -2.6477 0.0913 0 7
-4.8081 28.4772 -2.6477 0.0913 0 7
-5.2672 28.3959 -2.6477 0.0913 0 7
-5.7248 28.3072 -2.6477 0.0913 0 7
-6.1810 28.2111 -2.6477 0.0913 0 7
-6.6356 28.1076 -2.6477 0.0913 0 7
-7.0884 27.9969 -2.6477 0.0913 0 7
-7.5394 27.8788 -2.6477 0.0913 0 7
-7.9885 27.7534 -2.6477 0.0913 0 7
-8.4354 27.6209 -2.6477 0.0913 0 7
-8.8802 27.4811 -2.6477 0.0913 0 7
-9.3226 27.3342 -2.6477 0.0913 0 7
-9.7626 27.1802 -2.6477 0.0913 0 7
-10.2001 27.0190 -2.6477 0.0913 0 7
-10.6349 26.8509 -2.6477 0.0913 0 7
-11.0669 26.6757 -2.6477 0.0913 0 7
-11.4961 26.4936 -2.6477 0.0913 0 7
-11.9222 26.3046 -2.6477 0.0913 0 7
-12.3453 26.1087 -2.6477 0.0913 0 7
-12.7651 25.9060 -2.6477 0.0913 0 7
-13.1816 25.6966 -2.6477 0.0913 0 7
-13.5947 25.4805 -2.6477 0.0913 0 7
-14.0042 25.2577 -2.6477 0.0913 0 7
-14.4101 25.0284 -2.6477 0.0913 0 7
-14.8122 24.7925 -2.6477 0.0913 0 7
-15.2105 24.5502 -2.6477 0.0913 0 7
-15.6048 24.3014 -2.6477 0.0913 0 7
-15.9950 24.0464 -2.6477 0.0913 0 7
-16.3811 23.7851 -2.6477 0.0913 0 7
-15.8463 22.2316 -2.5029 0.0913 0 8
-16.2031 21.9729 -2.5029 0.0913 0 14
-16.5556 21.7085 -2.5029 0.0913 0 14
-16.9039 21.4384 -2.5029 0.0913 0 14
-17.2477 21.1628 -2.5029 0.0913 0 14
-17.5871 20.8816 -2.5029 0.0913 0 14
-17.9219 20.5950 -2.5029 0.0913 0 14
-18.2520 20.3030 -2.5029 0.0913 0 14
-18.5773 20.0057 -2.5029 0.0913 0 14
-18.8978 19.7033 -2.5029 0.0913 0 14
-19.2134 19.3957 -2.5029 0.0913 0 14
-19.5240 19.0830 -2.5029 0.0913 0 14
-19.9738 18.9019 -2.5211 0.6916 0 8
-20.6203 18.8922 -2.5639 0.6801 0 8
-21.2892 18.8820 -2.6088 0.6684 0 8
-21.9129 18.8121 -2.6477 0.0913 0 7
-22.2137 18.4559 -2.6477 0.0913 0 7
-22.5087 18.0950 -2.6477 0.0913 0 7
-22.7979 17.7293 -2.6477 0.0913 0 7
-23.0811 17.3590 -2.6477 0.0913 0 7
-23.3583 16.9841 -2.6477 0.0913 0 7
-23.6294 16.6049 -2.6477 0.0913 0 7
-23.8943 16.2213 -2.6477 0.0913 0 7
-24.1531 15.8335 -2.6477 0.0913 0 7
-24.4055 15.4416 -2.6477 0.0913 0 7
-24.6516 15.0456 -2.6477 0.0913 0 7
-24.8912 14.6457 -2.6477 0.0913 0 7
-25.1244 14.2420 -2.6477 0.0913 0 7
-25.3510 13.8346 -2.6477 0.0913 0 7
-25.5710 13.4236 -2.6477 0.0913 0 7
-25.7844 13.0091 -2.6477 0.0913 0 7
-25.9910 12.5912 -2.6477 0.0913 0 7
-26.1909 12.1700 -2.6477 0.0913 0 7
-26.3839 11.7456 -2.6477 0.0913 0 7
-26.5701 11.3182 -2.6477 0.0913 0 6
-26.7493 10.8879 -2.6477 0.0913 0 7
-26.9215 10.4547 -2.6477 0.0913 0 7
-27.0868 10.0187 -2.6477 0.0913 0 7
-27.2450 9.5802 -2.6477 0.0913 0 7
-27.3961 9.1392 -2.6477 0.0913 0 7
-25.9548 8.1952 -2.4953 0.0913 0 8
-26.0837 7.7752 -2.4953 0.0913 0 8
-26.2058 7.3532 -2.4953 0.0913 0 8
-26.3211 6.9292 -2.4953 0.0913 0 8
-26.4295 6.5034 -2.4953 0.0913 0 8
-26.5311 6.0760 -2.4953 0.0913 0 8
-26.6257 5.6469 -2.4953 0.0913 0 8
-26.7134 5.2164 -2.4953 0.0913 0 8
-26.7941 4.7845 -2.4953 0.0913 0 8
-26.8678 4.3514 -2.4953 0.0913 0 8
-26.9346 3.9171 -2.4953 0.0913 0 8
-26.9943 3.4818 -2.4953 0.0913 0 8
-27.0470 3.0456 -2.4953 0.0913 0 8
-27.0926 2.6086 -2.4953 0.0913 0 8
-27.1312 2.1710 -2.4953 0.0913 0 8
-27.1627 1.7327 -2.4953 0.0913 0 8
-3.1369 26.2729 -2.6477 0.0996 0 7
-3.5606 26.2188 -2.6477 0.0996 0 7
-3.9834 26.1580 -2.6477 0.0996 0 7
-4.4051 26.0903 -2.6477 0.0996 0 7
-4.8257 26.0157 -2.6477 0.0996 0 7
-5.2450 25.9344 -2.6477 0.0996 0 7
-5.6629 25.8464 -2.6477 0.0996 0 7
-6.0794 25.7516 -2.6477 0.0996 0 7
-6.4943 25.6501 -2.6477 0.0996 0 7
-6.9075 25.5420 -2.6477 0.0996 0 7
-7.3189 25.4271 -2.6477 0.0996 0 7
-7.7284 25.3057 -2.6477 0.0996 0 7
-8.1358 25.1776 -2.6477 0.0996 0 7
-8.5412 25.0430 -2.6477 0.0996 0 7
-8.9443 24.9019 -2.6477 0.0996 0 7
-9.3451 24.7543 -2.6477 0.0996 0 7
-9.7435 24.6002 -2.6477 0.0996 0 7
-10.1393 24.4397 -2.6477 0.0996 0 7
-10.5325 24.2729 -2.6477 0.0996 0 7
-10.9229 24.0997 -2.6477 0.0996 0 7
-11.3105 23.9203 -2.6477 0.0996 0 7
-11.6951 23.7346 -2.6477 0.0996 0 7
-11.4163 22.2553 -2.5029 0.0996 0 8
-11.7741 22.0682 -2.5029 0.0996 0 14
-12.1288 21.8752 -2.5029 0.0996 0 14
-12.4803 21.6766 -2.5029 0.0996 0 14
-12.8286 21.4723 -2.5029 0.0996 0 14
-13.1735 21.2624 -2.5029 0.0996 0 14
-13.5150 21.0470 -2.5029 0.0996 0 14
-13.8530 20.8261 -2.5029 0.0996 0 14
-14.1874 20.5998 -2.5029 0.0996 0 14
-14.5180 20.3681 -2.5029 0.0996 0 14
-14.8449 20.1311 -2.5029 0.0996 0 14
-15.1679 19.8889 -2.5029 0.0996 0 14
-15.4870 19.6414 -2.5029 0.0996 0 14
-15.8020 19.3889 -2.5029 0.0996 0 14
-16.1129 19.1313 -2.5029 0.0996 0 14
-16.4601 18.9151 -2.5090 0.6024 0 8
-16.9961 18.9060 -2.5439 0.7475 0 8
-17.5484 18.8977 -2.5806 0.7369 0 8
-18.1168 18.8890 -2.6190 0.7261 0 8
-18.6212 18.7978 -2.6477 0.0996 0 7
-18.9222 18.4948 -2.6477 0.0996 0 7
-19.2183 18.1869 -2.6477 0.0996 0 7
-19.5093 17.8743 -2.6477 0.0996 0 7
-19.7953 17.5571 -2.6477 0.0996 0 7
-20.0761 17.2353 -2.6477 0.0996 0 7
-20.3517 16.9090 -2.6477 0.0996 0 7
-20.6220 16.5782 -2.6477 0.0996 0 7
-20.8869 16.2432 -2.6477 0.0996 0 7
-21.1464 15.9039 -2.6477 0.0996 0 7
-21.4004 15.5605 -2.6477 0.0996 0 7
-21.6488 15.2131 -2.6477 0.0996 0 7
-21.8916 14.8616 -2.6477 0.0996 0 6
-22.1285 14.5063 -2.6477 0.0996 0 7
-22.3598 14.1472 -2.6477 0.0996 0 7
-22.5852 13.7844 -2.6477 0.0996 0 7
-22.8048 13.4181 -2.6477 0.0996 0 7
-23.0185 13.0482 -2.6477 0.0996 0 7
-23.2261 12.6750 -2.6477 0.0996 0 7
-23.4277 12.2984 -2.6477 0.0996 0 7
-23.6231 11.9186 -2.6477 0.0996 0 7
-23.8124 11.5358 -2.6477 0.0996 0 7
-23.9955 11.1499 -2.6477 0.0996 0 7
-24.1724 10.7611 -2.6477 0.0996 0 7
-24.3429 10.3695 -2.6477 0.0996 0 7
-24.5072 9.9752 -2.6477 0.0996 0 7
-24.6650 9.5784 -2.6477 0.0996 0 7
-24.8164 9.1790 -2.6477 0.0996 0 7
-23.5246 8.2720 -2.4953 0.0996 0 8
-23.6550 7.8912 -2.4953 0.0996 0 8
-23.7793 7.5083 -2.4953 0.0996 0 8
-23.8974 7.1235 -2.4953 0.0996 0 8
-24.0093 6.7368 -2.4953 0.0996 0 8
-24.1149 6.3484 -2.4953 0.0996 0 8
-24.2142 5.9583 -2.4953 0.0996 0 8
-24.3072 5.5667 -2.4953 0.0996 0 8
-24.3939 5.1736 -2.4953 0.0996 0 8
-24.4742 4.7791 -2.4953 0.0996 0 8
-24.5482 4.3835 -2.4953 0.0996 0 8
-24.6157 3.9866 -2.4953 0.0996 0 8
-24.6769 3.5888 -2.4953 0.0996 0 8
-24.7316 3.1900 -2.4953 0.0996 0 8
-24.7799 2.7904 -2.4953 0.0996 0 8
-24.8217 2.3900 -2.4953 0.0996 0 8
-24.8571 1.9890 -2.4953 0.0996 0 8
-24.8859 1.5875 -2.4953 0.0996 0 8
-2.8940 24.2378 -2.6477 0.1078 0 7
-3.2848 24.1880 -2.6477 0.1078 0 7
-3.6748 24.1318 -2.6477 0.1078 0 7
-4.0639 24.0693 -2.6477 0.1078 0 7
-4.4519 24.0006 -2.6477 0.1078 0 7
-4.8387 23.9256 -2.6477 0.1078 0 7
-5.2243 23.8444 -2.6477 0.1078 0 7
-5.6085 23.7569 -2.6477 0.1078 0 7
-5.6636 22.3694 -2.5029 0.1078 0 8
-6.0240 22.2750 -2.5029 0.1078 0 8
-6.3828 22.1749 -2.5029 0.1078 0 14
-6.7399 22.0690 -2.5029 0.1078 0 14
-7.0952 21.9573 -2.5029 0.1078 0 14
-7.4487 21.8399 -2.5029 0.1078 0 14
-7.8003 21.7168 -2.5029 0.1078 0 14
-8.1498 21.5881 -2.5029 0.1078 0 14
-8.4972 21.4537 -2.5029 0.1078 0 14
-8.8424 21.3138 -2.5029 0.1078 0 14
-9.1853 21.1683 -2.5029 0.1078 0 14
-9.5258 21.0172 -2.5029 0.1078 0 14
-9.8638 20.8607 -2.5029 0.1078 0 14
-10.1993 20.6988 -2.5029 0.1078 0 14
-10.5321 20.5315 -2.5029 0.1078 0 14
-10.8621 20.3588 -2.5029 0.1078 0 14
-11.1893 20.1808 -2.5029 0.1078 0 14
-11.5136 19.9975 -2.5029 0.1078 0 14
-11.8349 19.8091 -2.5029 0.1078 0 14
-12.1531 19.6155 -2.5029 0.1078 0 14
-12.4682 19.4167 -2.5029 0.1078 0 14
-12.7800 19.2130 -2.5029 0.1078 0 14
-13.0884 19.0042 -2.5029 0.1078 0 8
-13.4859 18.9201 -2.5202 0.8172 0 8
-13.9471 18.9135 -2.5489 0.8080 0 8
-14.4189 18.9066 -2.5791 0.7986 0 8
-14.9020 18.8995 -2.6106 0.7889 0 8
-15.3970 18.8920 -2.6435 0.7791 0 8
-15.7247 18.6703 -2.6477 0.1078 0 7
-16.0240 18.4141 -2.6477 0.1078 0 6
-16.3192 18.1530 -2.6477 0.1078 0 7
-16.6101 17.8872 -2.6477 0.1078 0 7
-16.8967 17.6168 -2.6477 0.1078 0 7
-17.1788 17.3418 -2.6477 0.1078 0 7
-17.4565 17.0622 -2.6477 0.1078 0 7
-17.7296 16.7782 -2.6477 0.1078 0 7
-17.9982 16.4898 -2.6477 0.1078 0 7
-18.2620 16.1971 -2.6477 0.1078 0 7
-18.5211 15.9002 -2.6477 0.1078 0 7
-18.7753 15.5992 -2.6477 0.1078 0 7
-19.0247 15.2941 -2.6477 0.1078 0 7
-19.2691 14.9850 -2.6477 0.1078 0 7
-19.5084 14.6720 -2.6477 0.1078 0 7
-19.7427 14.3552 -2.6477 0.1078 0 7
-19.9719 14.0347 -2.6477 0.1078 0 7
-20.1958 13.7105 -2.6477 0.1078 0 7
-20.4145 13.3827 -2.6477 0.1078 0 7
-20.6279 13.0514 -2.6477 0.1078 0 7
-20.8358 12.7167 -2.6477 0.1078 0 7
-21.0384 12.3788 -2.6477 0.1078 0 7
-21.2355 12.0375 -2.6477 0.1078 0 7
-21.4270 11.6932 -2.6477 0.1078 0 7
-21.6130 11.3458 -2.6477 0.1078 0 6
-21.7933 10.9954 -2.6477 0.1078 0 7
-21.9680 10.6422 -2.6477 0.1078 0 7
-22.1369 10.2862 -2.6477 0.1078 0 7
-22.3000 9.9276 -2.6477 0.1078 0 7
-22.4574 9.5663 -2.6477 0.1078 0 7
-22.6089 9.2026 -2.6477 0.1078 0 7
-21.4447 8.3278 -2.4953 0.1078 0 8
-21.5763 7.9806 -2.4953 0.1078 0 8
-21.7024 7.6312 -2.4953 0.1078 0 8
-21.8227 7.2799 -2.4953 0.1078 0 8
-21.9374 6.9267 -2.4953 0.1078 0 8
-22.0463 6.5717 -2.4953 0.1078 0 8
-22.1495 6.2150 -2.4953 0.1078 0 8
-22.2470 5.8567 -2.4953 0.1078 0 8
-22.3386 5.4968 -2.4953 0.1078 0 8
-22.4244 5.1355 -2.4953 0.1078 0 8
-22.5044 4.7728 -2.4953 0.1078 0 8
-22.5785 4.4090 -2.4953 0.1078 0 8
-22.6467 4.0439 -2.4953 0.1078 0 8
-22.7091 3.6778 -2.4953 0.1078 0 8
-22.7655 3.3108 -2.4953 0.1078 0 8
-22.8159 2.9429 -2.4953 0.1078 0 8
-22.8605 2.5742 -2.4953 0.1078 0 8
-22.8991 2.2049 -2.4953 0.1078 0 8
-22.9317 1.8350 -2.4953 0.1078 0 8
-22.9583 1.4645 -2.4953 0.1078 0 8
-2.5387 21.2626 -2.5029 0.1161 0 14
-2.8816 21.2188 -2.5029 0.1161 0 14
-3.2237 21.1695 -2.5029 0.1161 0 14
-3.5650 21.1147 -2.5029 0.1161 0 14
-3.9054 21.0545 -2.5029 0.1161 0 14
-4.2448 20.9887 -2.5029 0.1161 0 14
-4.5830 20.9174 -2.5029 0.1161 0 14
-4.9200 20.8407 -2.5029 0.1161 0 14
-5.2558 20.7586 -2.5029 0.1161 0 14
-5.5902 20.6710 -2.5029 0.1161 0 14
-5.9231 20.5781 -2.5029 0.1161 0 14
-6.2545 20.4798 -2.5029 0.1161 0 14
-6.5843 20.3762 -2.5029 0.1161 0 14
-6.9123 20.2673 -2.5029 0.1161 0 14
-7.2386 20.1530 -2.5029 0.1161 0 14
-7.5630 20.0336 -2.5029 0.1161 0 14
-7.8854 19.9089 -2.5029 0.1161 0 14
-8.2057 19.7790 -2.5029 0.1161 0 14
-8.5239 19.6440 -2.5029 0.1161 0 14
-8.8399 19.5038 -2.5029 0.1161 0 14
-9.1535 19.3586 -2.5029 0.1161 0 14
-9.4648 19.2083 -2.5029 0.1161 0 14
-9.7737 19.0530 -2.5029 0.1161 0 8
-10.1017 18.9335 -2.5083 0.7027 0 8
-10.4940 18.9267 -2.5295 0.8766 0 8
-10.8940 18.9214 -2.5520 0.8689 0 8
-11.3013 18.9160 -2.5755 0.8609 0 8
-11.7162 18.9102 -2.6001 0.8528 0 8
-12.1391 18.9043 -2.6259 0.8444 0 8
-12.5457 18.8608 -2.6477 0.1161 0 7
-12.8485 18.6558 -2.6477 0.1161 0 7
-13.1480 18.4460 -2.6477 0.1161 0 6
-13.4440 18.2314 -2.6477 0.1161 0 7
-13.7366 18.0120 -2.6477 0.1161 0 7
-14.0255 17.7879 -2.6477 0.1161 0 7
-14.3108 17.5592 -2.6477 0.1161 0 7
-14.5924 17.3259 -2.6477 0.1161 0 7
-14.8702 17.0881 -2.6477 0.1161 0 7
-15.1441 16.8458 -2.6477 0.1161 0 7
-15.4140 16.5992 -2.6477 0.1161 0 7
-15.6799 16.3482 -2.6477 0.1161 0 7
-15.9418 16.0930 -2.6477 0.1161 0 7
-16.1995 15.8336 -2.6477 0.1161 0 7
-16.4529 15.5700 -2.6477 0.1161 0 7
-16.7021 15.3024 -2.6477 0.1161 0 7
-16.9470 15.0308 -2.6477 0.1161 0 7
-17.1874 14.7553 -2.6477 0.1161 0 7
-17.4233 14.4759 -2.6477 0.1161 0 7
-17.6547 14.1928 -2.6477 0.1161 0 7
-17.8815 13.9060 -2.6477 0.1161 0 7
-18.1037 13.6155 -2.6477 0.1161 0 7
-18.3211 13.3215 -2.6477 0.1161 0 7
-18.5337 13.0241 -2.6477 0.1161 0 7
-18.7415 12.7232 -2.6477 0.1161 0 7
-18.9445 12.4190 -2.6477 0.1161 0 7
-19.1425 12.1116 -2.6477 0.1161 0 7
-19.3355 11.8010 -2.6477 0.1161 0 7
-19.5235 11.4874 -2.6477 0.1161 0 7
-19.7063 11.1707 -2.6477 0.1161 0 7
-19.8841 10.8512 -2.6477 0.1161 0 7
-20.0567 10.5288 -2.6477 0.1161 0 7
-20.2240 10.2037 -2.6477 0.1161 0 7
-20.3861 9.8759 -2.6477 0.1161 0 7
-20.5428 9.5455 -2.6477 0.1161 0 7
-20.6942 9.2127 -2.6477 0.1161 0 7
-19.6407 8.3665 -2.4953 0.1161 0 8
-19.7732 8.0483 -2.4953 0.1161 0 8
-19.9005 7.7281 -2.4953 0.1161 0 8
-20.0227 7.4059 -2.4953 0.1161 0 8
-20.1396 7.0817 -2.4953 0.1161 0 8
-20.2513 6.7557 -2.4953 0.1161 0 8
-20.3577 6.4279 -2.4953 0.1161 0 8
-20.4588 6.0985 -2.4953 0.1161 0 8
-20.5546 5.7675 -2.4953 0.1161 0 8
-20.6450 5.4349 -2.4953 0.1161 0 8
-20.7300 5.1010 -2.4953 0.1161 0 8
-20.8097 4.7657 -2.4953 0.1161 0 8
-20.8839 4.4292 -2.4953 0.1161 0 8
-20.9527 4.0915 -2.4953 0.1161 0 8
-21.0160 3.7527 -2.4953 0.1161 0 8
-21.0738 3.4130 -2.4953 0.1161 0 8
-21.1262 3.0724 -2.4953 0.1161 0 8
-21.1730 2.7310 -2.4953 0.1161 0 8
-21.2143 2.3888 -2.4953 0.1161 0 8
-21.2501 2.0461 -2.4953 0.1161 0 8
-21.2804 1.7028 -2.4953 0.1161 0 8
-21.3051 1.3591 -2.4953 0.1161 0 8
-2.3679 19.8317 -2.5029 0.1243 0 14
-2.6877 19.7909 -2.5029 0.1243 0 14
-3.0068 19.7450 -2.5029 0.1243 0 14
-3.3251 19.6939 -2.5029 0.1243 0 14
-3.6426 19.6376 -2.5029 0.1243 0 14
-3.9591 19.5763 -2.5029 0.1243 0 14
-4.2746 19.5098 -2.5029 0.1243 0 14
-4.5890 19.4383 -2.5029 0.1243 0 14
-4.9021 19.3617 -2.5029 0.1243 0 14
-5.2140 19.2800 -2.5029 0.1243 0 14
-5.5245 19.1933 -2.5029 0.1243 0 14
-5.8337 19.1017 -2.5029 0.1243 0 14
-6.1412 19.0050 -2.5029 0.1243 0 8
-6.4609 18.9437 -2.5082 0.7526 0 8
-6.8023 18.9384 -2.5217 0.9418 0 8
-7.1481 18.9348 -2.5363 0.9364 0 8
-7.4980 18.9309 -2.5517 0.9307 0 8
-7.8522 18.9270 -2.5679 0.9249 0 8
-8.2110 18.9228 -2.5850 0.9187 0 8
-8.5746 18.9185 -2.6029 0.9124 0 8
-8.9433 18.9139 -2.6218 0.9058 0 8
-9.3175 18.9092 -2.6417 0.8990 0 8
-9.6433 18.7988 -2.6477 0.1243 0 7
-9.9455 18.6407 -2.6477 0.1243 0 7
-10.2451 18.4778 -2.6477 0.1243 0 7
-10.5420 18.3100 -2.6477 0.1243 0 7
-10.8362 18.1374 -2.6477 0.1243 0 7
-11.1275 17.9601 -2.6477 0.1243 0 7
-11.4160 17.7782 -2.6477 0.1243 0 7
-11.7015 17.5916 -2.6477 0.1243 0 7
-11.9839 17.4004 -2.6477 0.1243 0 7
-12.2632 17.2047 -2.6477 0.1243 0 7
-12.5393 17.0045 -2.6477 0.1243 0 7
-12.8122 16.7999 -2.6477 0.1243 0 7
-13.0817 16.5909 -2.6477 0.1243 0 7
-13.3478 16.3776 -2.6477 0.1243 0 7
-13.6104 16.1600 -2.6477 0.1243 0 7
-13.8695 15.9382 -2.6477 0.1243 0 7
-14.1250 15.7122 -2.6477 0.1243 0 7
-14.3768 15.4822 -2.6477 0.1243 0 7
-14.6248 15.2481 -2.6477 0.1243 0 7
-14.8690 15.0100 -2.6477 0.1243 0 7
-15.1094 14.7681 -2.6477 0.1243 0 7
-15.3458 14.5223 -2.6477 0.1243 0 7
-15.5782 14.2727 -2.6477 0.1243 0 7
-15.8066 14.0193 -2.6477 0.1243 0 7
-16.0308 13.7624 -2.6477 0.1243 0 7
-16.2509 13.5018 -2.6477 0.1243 0 7
-16.4667 13.2377 -2.6477 0.1243 0 7
-16.6782 12.9702 -2.6477 0.1243 0 7
-16.8854 12.6993 -2.6477 0.1243 0 7
-17.0882 12.4251 -2.6477 0.1243 0 7
-17.2865 12.1476 -2.6477 0.1243 0 7
-17.4804 11.8670 -2.6477 0.1243 0 7
-17.6696 11.5833 -2.6477 0.1243 0 7
-17.8543 11.2966 -2.6477 0.1243 0 7
-18.0343 11.0069 -2.6477 0.1243 0 7
-18.2097 10.7144 -2.6477 0.1243 0 7
-18.3802 10.4190 -2.6477 0.1243 0 7
-18.5460 10.1210 -2.6477 0.1243 0 7
-18.7070 9.8203 -2.6477 0.1243 0 7
-18.8631 9.5170 -2.6477 0.1243 0 7
-19.0142 9.2113 -2.6477 0.1243 0 7
-18.0576 8.3907 -2.4953 0.1243 0 8
-18.1906 8.0981 -2.4953 0.1243 0 8
-18.3190 7.8035 -2.4953 0.1243 0 8
-18.4426 7.5067 -2.4953 0.1243 0 8
-18.5613 7.2081 -2.4953 0.1243 0 8
-18.6753 6.9075 -2.4953 0.1243 0 8
-18.7843 6.6052 -2.4953 0.1243 0 8
-18.8885 6.3011 -2.4953 0.1243 0 8
-18.9878 5.9954 -2.4953 0.1243 0 8
-19.0821 5.6881 -2.4953 0.1243 0 8
-19.1714 5.3793 -2.4953 0.1243 0 8
-19.2557 5.0692 -2.4953 0.1243 0 8
-19.3350 4.7577 -2.4953 0.1243 0 8
-19.4093 4.4450 -2.4953 0.1243 0 8
-19.4785 4.1311 -2.4953 0.1243 0 8
-19.5427 3.8161 -2.4953 0.1243 0 8
-19.6017 3.5002 -2.4953 0.1243 0 8
-19.6557 3.1833 -2.4953 0.1243 0 8
-19.7045 2.8656 -2.4953 0.1243 0 8
-19.7482 2.5472 -2.4953 0.1243 0 8
-19.7868 2.2281 -2.4953 0.1243 0 8
-19.8201 1.9084 -2.4953 0.1243 0 8
-19.8484 1.5882 -2.4953 0.1243 0 8
-19.8714 1.2676 -2.4953 0.1243 0 8
-2.2621 18.9454 -2.5523 0.9922 0 8
-2.5726 18.9436 -2.5573 0.9902 0 8
-2.8845 18.9417 -2.5630 0.9880 0 8
-3.1978 18.9396 -2.5694 0.9856 0 8
-3.5127 18.9374 -2.5764 0.9829 0 8
-3.8294 18.9351 -2.5842 0.9799 0 8
-4.1481 18.9327 -2.5926 0.9767 0 8
-4.4690 18.9301 -2.6018 0.9733 0 8
-4.7922 18.9273 -2.6117 0.9696 0 8
-5.1179 18.9245 -2.6224 0.9657 0 8
-5.4463 18.9214 -2.6338 0.9615 0 8
-5.7776 18.9183 -2.6460 0.9570 0 8
-6.0861 18.8343 -2.6477 0.1326 0 7
-6.3893 18.7336 -2.6477 0.1326 0 7
-6.6908 18.6280 -2.6477 0.1326 0 7
-6.9906 18.5176 -2.6477 0.1326 0 7
-7.2886 18.4023 -2.6477 0.1326 0 6
-7.5847 18.2823 -2.6477 0.1326 0 7
-7.8789 18.1575 -2.6477 0.1326 0 7
-8.1709 18.0279 -2.6477 0.1326 0 7
-8.4609 17.8937 -2.6477 0.1326 0 7
-8.7486 17.7548 -2.6477 0.1326 0 7
-9.0341 17.6112 -2.6477 0.1326 0 7
-9.3172 17.4631 -2.6477 0.1326 0 7
-9.5978 17.3104 -2.6477 0.1326 0 7
-9.8760 17.1533 -2.6477 0.1326 0 7
-10.1516 16.9916 -2.6477 0.1326 0 7
-10.4246 16.8255 -2.6477 0.1326 0 7
-10.6948 16.6551 -2.6477 0.1326 0 7
-10.9622 16.4803 -2.6477 0.1326 0 7
-11.2268 16.3012 -2.6477 0.1326 0 7
-11.4885 16.1178 -2.6477 0.1326 0 7
-11.7472 15.9303 -2.6477 0.1326 0 7
-12.0028 15.7386 -2.6477 0.1326 0 7
-12.2553 15.5428 -2.6477 0.1326 0 7
-12.5046 15.3430 -2.6477 0.1326 0 7
-12.7506 15.1391 -2.6477 0.1326 0 7
-12.9933 14.9313 -2.6477 0.1326 0 7
-13.2326 14.7196 -2.6477 0.1326 0 7
-13.4685 14.5041 -2.6477 0.1326 0 7
-13.7009 14.2848 -2.6477 0.1326 0 7
-13.9297 14.0618 -2.6477 0.1326 0 7
-14.1548 13.8351 -2.6477 0.1326 0 7
-14.3763 13.6048 -2.6477 0.1326 0 7
-14.5940 13.3710 -2.6477 0.1326 0 7
-14.8080 13.1337 -2.6477 0.1326 0 7
-15.0181 12.8929 -2.6477 0.1326 0 7
-15.2242 12.6488 -2.6477 0.1326 0 7
-15.4264 12.4014 -2.6477 0.1326 0 7
-15.6246 12.1508 -2.6477 0.1326 0 7
-15.8187 11.8970 -2.6477 0.1326 0 7
-16.0087 11.6401 -2.6477 0.1326 0 7
-16.1945 11.3802 -2.6477 0.1326 0 6
-16.3761 11.1173 -2.6477 0.1326 0 7
-16.5534 10.8515 -2.6477 0.1326 0 7
-16.7264 10.5829 -2.6477 0.1326 0 7
-16.8950 10.3115 -2.6477 0.1326 0 7
-17.0593 10.0375 -2.6477 0.1326 0 7
-17.2191 9.7608 -2.6477 0.1326 0 7
-17.3744 9.4816 -2.6477 0.1326 0 7
-17.5252 9.1999 -2.6477 0.1326 0 7
-16.6542 8.4026 -2.4953 0.1326 0 8
-16.7877 8.1327 -2.4953 0.1326 0 8
-16.9168 7.8606 -2.4953 0.1326 0 8
-17.0415 7.5866 -2.4953 0.1326 0 8
-17.1617 7.3105 -2.4953 0.1326 0 8
-17.2775 7.0325 -2.4953 0.1326 0 8
-17.3887 6.7527 -2.4953 0.1326 0 8
-17.4955 6.4711 -2.4953 0.1326 0 8
-17.5977 6.1879 -2.4953 0.1326 0 8
-17.6953 5.9030 -2.4953 0.1326 0 8
-17.7882 5.6166 -2.4953 0.1326 0 8
-17.8766 5.3288 -2.4953 0.1326 0 8
-17.9602 5.0395 -2.4953 0.1326 0 8
-18.0393 4.7489 -2.4953 0.1326 0 8
-18.1136 4.4571 -2.4953 0.1326 0 8
-18.1832 4.1642 -2.4953 0.1326 0 8
-18.2480 3.8701 -2.4953 0.1326 0 8
-18.3081 3.5751 -2.4953 0.1326 0 8
-18.3634 3.2791 -2.4953 0.1326 0 8
-18.4139 2.9822 -2.4953 0.1326 0 8
-18.4597 2.6846 -2.4953 0.1326 0 8
-18.5006 2.3863 -2.4953 0.1326 0 8
-18.5367 2.0873 -2.4953 0.1326 0 8
-18.5680 1.7878 -2.4953 0.1326 0 8
-18.5945 1.4879 -2.4953 0.1326 0 8
-18.6161 1.1875 -2.4953 0.1326 0 8
-2.2069 18.4833 -2.6477 0.1408 0 6
-2.5049 18.4453 -2.6477 0.1408 0 6
-2.8024 18.4024 -2.6477 0.1408 0 6
-3.0990 18.3548 -2.6477 0.1408 0 7
-3.3949 18.3024 -2.6477 0.1408 0 7
-3.6899 18.2452 -2.6477 0.1408 0 7
-3.9839 18.1833 -2.6477 0.1408 0 7
-4.2769 18.1166 -2.6477 0.1408 0 7
-4.5688 18.0452 -2.6477 0.1408 0 7
-4.8595 17.9691 -2.6477 0.1408 0 7
-5.1489 17.8883 -2.6477 0.1408 0 7
-5.4370 17.8029 -2.6477 0.1408 0 7
-5.7237 17.7128 -2.6477 0.1408 0 7
-6.0088 17.6181 -2.6477 0.1408 0 7
-6.2924 17.5188 -2.6477 0.1408 0 7
-6.5744 17.4149 -2.6477 0.1408 0 7
-6.8546 17.3065 -2.6477 0.1408 0 7
-7.1331 17.1937 -2.6477 0.1408 0 7
-7.4097 17.0763 -2.6477 0.1408 0 7
-7.6844 16.9544 -2.6477 0.1408 0 7
-7.9571 16.8282 -2.6477 0.1408 0 7
-8.2277 16.6976 -2.6477 0.1408 0 7
-8.4961 16.5626 -2.6477 0.1408 0 7
-8.7624 16.4233 -2.6477 0.1408 0 7
-9.0263 16.2797 -2.6477 0.1408 0 7
-9.2879 16.1319 -2.6477 0.1408 0 7
-9.5471 15.9798 -2.6477 0.1408 0 7
-9.8038 15.8236 -2.6477 0.1408 0 7
-10.0580 15.6633 -2.6477 0.1408 0 7
-10.3095 15.4989 -2.6477 0.1408 0 7
-10.5583 15.3305 -2.6477 0.1408 0 7
-10.8044 15.1581 -2.6477 0.1408 0 7
-11.0477 14.9817 -2.6477 0.1408 0 7
-11.2881 14.8014 -2.6477 0.1408 0 7
-11.5255 14.6173 -2.6477 0.1408 0 7
-11.7600 14.4293 -2.6477 0.1408 0 7
-11.9914 14.2376 -2.6477 0.1408 0 7
-12.2196 14.0422 -2.6477 0.1408 0 7
-12.4447 13.8431 -2.6477 0.1408 0 7
-12.6665 13.6405 -2.6477 0.1408 0 7
-12.8851 13.4342 -2.6477 0.1408 0 7
-13.1002 13.2245 -2.6477 0.1408 0 7
-13.3120 13.0113 -2.6477 0.1408 0 7
-13.5203 12.7947 -2.6477 0.1408 0 7
-13.7250 12.5748 -2.6477 0.1408 0 7
-13.9262 12.3516 -2.6477 0.1408 0 7
-14.1238 12.1252 -2.6477 0.1408 0 7
-14.3177 11.8957 -2.6477 0.1408 0 7
-14.5078 11.6630 -2.6477 0.1408 0 7
-14.6942 11.4273 -2.6477 0.1408 0 6
-14.8768 11.1886 -2.6477 0.1408 0 7
-15.0554 10.9470 -2.6477 0.1408 0 7
-15.2302 10.7026 -2.6477 0.1408 0 7
-15.4009 10.4553 -2.6477 0.1408 0 7
-15.5677 10.2054 -2.6477 0.1408 0 7
-15.7304 9.9528 -2.6477 0.1408 0 7
-15.8890 9.6975 -2.6477 0.1408 0 7
-16.0435 9.4398 -2.6477 0.1408 0 7
-16.1938 9.1796 -2.6477 0.1408 0 7
-15.3993 8.4037 -2.4953 0.1408 0 8
-15.5329 8.1541 -2.4953 0.1408 0 8
-15.6625 7.9023 -2.4953 0.1408 0 8
-15.7881 7.6484 -2.4953 0.1408 0 8
-15.9095 7.3926 -2.4953 0.1408 0 8
-16.0267 7.1348 -2.4953 0.1408 0 8
-16.1398 6.8752 -2.4953 0.1408 0 8
-16.2487 6.6138 -2.4953 0.1408 0 8
-16.3533 6.3506 -2.4953 0.1408 0 8
-16.4537 6.0858 -2.4953 0.1408 0 8
-16.5498 5.8194 -2.4953 0.1408 0 8
-16.6416 5.5515 -2.4953 0.1408 0 8
-16.7290 5.2822 -2.4953 0.1408 0 8
-16.8121 5.0115 -2.4953 0.1408 0 8
-16.8908 4.7394 -2.4953 0.1408 0 8
-16.9651 4.4662 -2.4953 0.1408 0 8
-17.0350 4.1917 -2.4953 0.1408 0 8
-17.1004 3.9162 -2.4953 0.1408 0 8
-17.1614 3.6397 -2.4953 0.1408 0 8
-17.2179 3.3622 -2.4953 0.1408 0 8
-17.2700 3.0838 -2.4953 0.1408 0 8
-17.3175 2.8047 -2.4953 0.1408 0 8
-17.3605 2.5248 -2.4953 0.1408 0 8
-17.3990 2.2442 -2.4953 0.1408 0 8
-17.4330 1.9630 -2.4953 0.1408 0 8
-17.4624 1.6814 -2.4953 0.1408 0 8
-17.4872 1.3993 -2.4953 0.1408 0 8
-17.5075 1.1168 -2.4953 0.1408 0 8
-2.0826 17.4423 -2.6477 0.1490 0 7
-2.3639 17.4064 -2.6477 0.1490 0 7
-2.6445 17.3659 -2.6477 0.1490 0 7
-2.9245 17.3210 -2.6477 0.1490 0 7
-3.2037 17.2715 -2.6477 0.1490 0 7
-3.4821 17.2176 -2.6477 0.1490 0 7
-3.7596 17.1591 -2.6477 0.1490 0 7
-4.0360 17.0962 -2.6477 0.1490 0 7
-4.3115 17.0288 -2.6477 0.1490 0 7
-4.5858 16.9570 -2.6477 0.1490 0 7
-4.8589 16.8808 -2.6477 0.1490 0 7
-5.1308 16.8001 -2.6477 0.1490 0 7
-5.4013 16.7151 -2.6477 0.1490 0 7
-5.6704 16.6258 -2.6477 0.1490 0 7
-5.9380 16.5321 -2.6477 0.1490 0 7
-6.2041 16.4341 -2.6477 0.1490 0 7
-6.4686 16.3318 -2.6477 0.1490 0 7
-6.7313 16.2252 -2.6477 0.1490 0 7
-6.9924 16.1145 -2.6477 0.1490 0 7
-7.2516 15.9995 -2.6477 0.1490 0 7
-7.5089 15.8804 -2.6477 0.1490 0 7
-7.7643 15.7571 -2.6477 0.1490 0 7
-8.0176 15.6297 -2.6477 0.1490 0 7
-8.2688 15.4983 -2.6477 0.1490 0 7
-8.5179 15.3628 -2.6477 0.1490 0 7
-8.7648 15.2233 -2.6477 0.1490 0 7
-9.0094 15.0798 -2.6477 0.1490 0 7
-9.2516 14.9324 -2.6477 0.1490 0 7
-9.4915 14.7811 -2.6477 0.1490 0 7
-9.7288 14.6260 -2.6477 0.1490 0 7
-9.9636 14.4670 -2.6477 0.1490 0 7
-10.1959 14.3043 -2.6477 0.1490 0 7
-10.4254 14.1379 -2.6477 0.1490 0 7
-10.6523 13.9678 -2.6477 0.1490 0 7
-10.8764 13.7940 -2.6477 0.1490 0 7
-11.0976 13.6166 -2.6477 0.1490 0 7
-11.3160 13.4357 -2.6477 0.1490 0 7
-11.5314 13.2513 -2.6477 0.1490 0 7
-11.7438 13.0634 -2.6477 0.1490 0 7
-11.9531 12.8722 -2.6477 0.1490 0 7
-12.1593 12.6775 -2.6477 0.1490 0 7
-12.3624 12.4796 -2.6477 0.1490 0 7
-12.5622 12.2784 -2.6477 0.1490 0 7
-12.7588 12.0741 -2.6477 0.1490 0 7
-12.9520 11.8666 -2.6477 0.1490 0 7
-13.1419 11.6559 -2.6477 0.1490 0 7
-13.3283 11.4423 -2.6477 0.1490 0 6
-13.5113 11.2257 -2.6477 0.1490 0 7
-13.6907 11.0061 -2.6477 0.1490 0 7
-13.8666 10.7837 -2.6477 0.1490 0 7
-14.0388 10.5584 -2.6477 0.1490 0 7
-14.2074 10.3304 -2.6477 0.1490 0 7
-14.3723 10.0998 -2.6477 0.1490 0 7
-14.5335 9.8665 -2.6477 0.1490 0 7
-14.6909 9.6306 -2.6477 0.1490 0 7
-14.8444 9.3922 -2.6477 0.1490 0 7
-14.9941 9.1513 -2.6477 0.1490 0 7
-14.2684 8.3954 -2.4953 0.1490 0 8
-14.4021 8.1639 -2.4953 0.1490 0 8
-14.5320 7.9304 -2.4953 0.1490 0 8
-14.6581 7.6948 -2.4953 0.1490 0 8
-14.7804 7.4572 -2.4953 0.1490 0 8
-14.8988 7.2176 -2.4953 0.1490 0 8
-15.0134 6.9762 -2.4953 0.1490 0 8
-15.1240 6.7329 -2.4953 0.1490 0 8
-15.2308 6.4879 -2.4953 0.1490 0 8
-15.3335 6.2412 -2.4953 0.1490 0 8
-15.4322 5.9929 -2.4953 0.1490 0 8
-15.5270 5.7430 -2.4953 0.1490 0 8
-15.6176 5.4917 -2.4953 0.1490 0 8
-15.7043 5.2388 -2.4953 0.1490 0 8
-15.7868 4.9847 -2.4953 0.1490 0 8
-15.8652 4.7292 -2.4953 0.1490 0 8
-15.9394 4.4725 -2.4953 0.1490 0 8
-16.0096 4.2146 -2.4953 0.1490 0 8
-16.0755 3.9557 -2.4953 0.1490 0 8
-16.1373 3.6956 -2.4953 0.1490 0 8
-16.1948 3.4347 -2.4953 0.1490 0 8
-16.2482 3.1728 -2.4953 0.1490 0 8
-16.2973 2.9101 -2.4953 0.1490 0 8
-16.3421 2.6467 -2.4953 0.1490 0 8
-16.3827 2.3826 -2.4953 0.1490 0 8
-16.4190 2.1178 -2.4953 0.1490 0 8
-16.4511 1.8525 -2.4953 0.1490 0 8
-16.4788 1.5867 -2.4953 0.1490 0 8
-16.5023 1.3205 -2.4953 0.1490 0 8
-16.5215 1.0539 -2.4953 0.1490 0 8
-1.9713 16.5100 -2.6477 0.1573 0 7
-2.2375 16.4761 -2.6477 0.1573 0 7
-2.5032 16.4378 -2.6477 0.1573 0 7
-2.7682 16.3952 -2.6477 0.1573 0 7
-3.0325 16.3484 -2.6477 0.1573 0 7
-3.2960 16.2973 -2.6477 0.1573 0 7
-3.5586 16.2420 -2.6477 0.1573 0 7
-3.8203 16.1825 -2.6477 0.1573 0 7
-4.0810 16.1187 -2.6477 0.1573 0 7
-4.3407 16.0507 -2.6477 0.1573 0 7
-4.5992 15.9785 -2.6477 0.1573 0 7
-4.8565 15.9022 -2.6477 0.1573 0 7
-5.1126 15.8218 -2.6477 0.1573 0 7
-5.3673 15.7372 -2.6477 0.1573 0 7
-5.6206 15.6485 -2.6477 0.1573 0 7
-5.8725 15.5557 -2.6477 0.1573 0 7
-6.1228 15.4589 -2.6477 0.1573 0 7
-6.3716 15.3581 -2.6477 0.1573 0 7
-6.6187 15.2532 -2.6477 0.1573 0 7
-6.8640 15.1444 -2.6477 0.1573 0 7
-7.1076 15.0316 -2.6477 0.1573 0 7
-7.3493 14.9149 -2.6477 0.1573 0 6
-7.5891 14.7943 -2.6477 0.1573 0 7
-7.8269 14.6699 -2.6477 0.1573 0 7
-8.0627 14.5417 -2.6477 0.1573 0 7
-8.2964 14.4096 -2.6477 0.1573 0 7
-8.5279 14.2738 -2.6477 0.1573 0 7
-8.7572 14.1343 -2.6477 0.1573 0 7
-8.9842 13.9911 -2.6477 0.1573 0 7
-9.2089 13.8443 -2.6477 0.1573 0 7
-9.4311 13.6938 -2.6477 0.1573 0 7
-9.6509 13.5398 -2.6477 0.1573 0 7
-9.8682 13.3823 -2.6477 0.1573 0 7
-10.0830 13.2212 -2.6477 0.1573 0 7
-10.2951 13.0567 -2.6477 0.1573 0 7
-10.5045 12.8889 -2.6477 0.1573 0 7
-10.7112 12.7176 -2.6477 0.1573 0 7
-10.9150 12.5431 -2.6477 0.1573 0 7
-11.1161 12.3652 -2.6477 0.1573 0 7
-11.3142 12.1842 -2.6477 0.1573 0 7
-11.5094 12.0000 -2.6477 0.1573 0 7
-11.7016 11.8126 -2.6477 0.1573 0 7
-11.8908 11.6222 -2.6477 0.1573 0 7
-12.0768 11.4288 -2.6477 0.1573 0 6
-12.2598 11.2323 -2.6477 0.1573 0 7
-12.4395 11.0330 -2.6477 0.1573 0 7
-12.6159 10.8307 -2.6477 0.1573 0 7
-12.7891 10.6257 -2.6477 0.1573 0 7
-12.9590 10.4178 -2.6477 0.1573 0 7
-13.1255 10.2073 -2.6477 0.1573 0 7
-13.2885 9.9941 -2.6477 0.1573 0 7
-13.4481 9.7783 -2.6477 0.1573 0 7
-13.6042 9.5600 -2.6477 0.1573 0 7
-13.7567 9.3391 -2.6477 0.1573 0 7
-13.9057 9.1158 -2.6477 0.1573 0 7
-13.2422 8.3785 -2.4953 0.1573 0 8
-13.3758 8.1636 -2.4953 0.1573 0 8
-13.5058 7.9467 -2.4953 0.1573 0 8
-13.6323 7.7276 -2.4953 0.1573 0 8
-13.7553 7.5066 -2.4953 0.1573 0 8
-13.8747 7.2835 -2.4953 0.1573 0 8
-13.9904 7.0586 -2.4953 0.1573 0 8
-14.1025 6.8319 -2.4953 0.1573 0 8
-14.2110 6.6033 -2.4953 0.1573 0 8
-14.3157 6.3731 -2.4953 0.1573 0 8
-14.4167 6.1412 -2.4953 0.1573 0 8
-14.5140 5.9077 -2.4953 0.1573 0 8
-14.6074 5.6726 -2.4953 0.1573 0 8
-14.6971 5.4361 -2.4953 0.1573 0 8
-14.7829 5.1982 -2.4953 0.1573 0 8
-14.8649 4.9589 -2.4953 0.1573 0 8
-14.9430 4.7183 -2.4953 0.1573 0 8
-15.0172 4.4764 -2.4953 0.1573 0 8
-15.0875 4.2335 -2.4953 0.1573 0 8
-15.1539 3.9894 -2.4953 0.1573 0 8
-15.2163 3.7442 -2.4953 0.1573 0 8
-15.2748 3.4981 -2.4953 0.1573 0 8
-15.3293 3.2511 -2.4953 0.1573 0 8
-15.3797 3.0032 -2.4953 0.1573 0 8
-15.4262 2.7546 -2.4953 0.1573 0 8
-15.4687 2.5052 -2.4953 0.1573 0 8
-15.5071 2.2552 -2.4953 0.1573 0 8
-15.5415 2.0046 -2.4953 0.1573 0 8
-15.5718 1.7535 -2.4953 0.1573 0 8
-15.5981 1.5019 -2.4953 0.1573 0 8
-15.6203 1.2499 -2.4953 0.1573 0 8
-15.6384 0.9976 -2.4953 0.1573 0 8
-1.8710 15.6703 -2.6477 0.1655 0 7
-2.1237 15.6380 -2.6477 0.1655 0 7
-2.3759 15.6017 -2.6477 0.1655 0 7
-2.6274 15.5613 -2.6477 0.1655 0 7
-2.8782 15.5169 -2.6477 0.1655 0 7
-3.1283 15.4684 -2.6477 0.1655 0 7
-3.3776 15.4159 -2.6477 0.1655 0 7
-3.6260 15.3594 -2.6477 0.1655 0 7
-3.8735 15.2988 -2.6477 0.1655 0 7
-4.1199 15.2343 -2.6477 0.1655 0 7
-4.3653 15.1658 -2.6477 0.1655 0 7
-4.6095 15.0934 -2.6477 0.1655 0 7
-4.8526 15.0170 -2.6477 0.1655 0 7
-5.0943 14.9367 -2.6477 0.1655 0 7
-5.3348 14.8525 -2.6477 0.1655 0 7
-5.5738 14.7645 -2.6477 0.1655 0 7
-5.8114 14.6726 -2.6477 0.1655 0 7
-6.0475 14.5769 -2.6477 0.1655 0 7
-6.2820 14.4774 -2.6477 0.1655 0 7
-6.5149 14.3741 -2.6477 0.1655 0 7
-6.7461 14.2671 -2.6477 0.1655 0 7
-6.9755 14.1563 -2.6477 0.1655 0 7
-7.2031 14.0419 -2.6477 0.1655 0 7
-7.4288 13.9238 -2.6477 0.1655 0 7
-7.6526 13.8020 -2.6477 0.1655 0 7
-7.8744 13.6767 -2.6477 0.1655 0 7
-8.0941 13.5478 -2.6477 0.1655 0 7
-8.3117 13.4154 -2.6477 0.1655 0 7
-8.5272 13.2795 -2.6477 0.1655 0 7
-8.7405 13.1401 -2.6477 0.1655 0 7
-8.9514 12.9973 -2.6477 0.1655 0 7
-9.1601 12.8511 -2.6477 0.1655 0 7
-9.3663 12.7016 -2.6477 0.1655 0 7
-9.5701 12.5487 -2.6477 0.1655 0 7
-9.7714 12.3926 -2.6477 0.1655 0 7
-9.9702 12.2333 -2.6477 0.1655 0 7
-10.1664 12.0708 -2.6477 0.1655 0 7
-10.3599 11.9051 -2.6477 0.1655 0 7
-10.5507 11.7363 -2.6477 0.1655 0 7
-10.7388 11.5645 -2.6477 0.1655 0 7
-10.9240 11.3896 -2.6477 0.1655 0 6
-11.1065 11.2118 -2.6477 0.1655 0 7
-11.2860 11.0311 -2.6477 0.1655 0 7
-11.4626 10.8475 -2.6477 0.1655 0 7
-11.6362 10.6610 -2.6477 0.1655 0 7
-11.8068 10.4718 -2.6477 0.1655 0 7
-11.9743 10.2798 -2.6477 0.1655 0 7
-12.1386 10.0852 -2.6477 0.1655 0 7
-12.2998 9.8880 -2.6477 0.1655 0 7
-12.4579 9.6881 -2.6477 0.1655 0 7
-12.6126 9.4858 -2.6477 0.1655 0 7
-12.7641 9.2810 -2.6477 0.1655 0 7
-12.9122 9.0737 -2.6477 0.1655 0 7
-12.3055 8.3539 -2.4953 0.1655 0 8
-12.4387 8.1542 -2.4953 0.1655 0 8
-12.5687 7.9523 -2.4953 0.1655 0 8
-12.6954 7.7484 -2.4953 0.1655 0 8
-12.8189 7.5425 -2.4953 0.1655 0 8
-12.9389 7.3346 -2.4953 0.1655 0 8
-13.0556 7.1247 -2.4953 0.1655 0 8
-13.1689 6.9131 -2.4953 0.1655 0 8
-13.2788 6.6996 -2.4953 0.1655 0 8
-13.3852 6.4844 -2.4953 0.1655 0 8
-13.4882 6.2675 -2.4953 0.1655 0 8
-13.5876 6.0489 -2.4953 0.1655 0 8
-13.6834 5.8288 -2.4953 0.1655 0 8
-13.7757 5.6072 -2.4953 0.1655 0 8
-13.8645 5.3841 -2.4953 0.1655 0 8
-13.9496 5.1596 -2.4953 0.1655 0 8
-14.0310 4.9338 -2.4953 0.1655 0 8
-14.1088 4.7066 -2.4953 0.1655 0 8
-14.1830 4.4783 -2.4953 0.1655 0 8
-14.2534 4.2488 -2.4953 0.1655 0 8
-14.3201 4.0181 -2.4953 0.1655 0 8
-14.3831 3.7865 -2.4953 0.1655 0 8
-14.4424 3.5538 -2.4953 0.1655 0 8
-14.4979 3.3202 -2.4953 0.1655 0 8
-14.5496 3.0857 -2.4953 0.1655 0 8
-14.5975 2.8505 -2.4953 0.1655 0 8
-14.6416 2.6145 -2.4953 0.1655 0 8
-14.6819 2.3778 -2.4953 0.1655 0 8
-14.7184 2.1405 -2.4953 0.1655 0 8
-14.7510 1.9026 -2.4953 0.1655 0 8
-14.7798 1.6643 -2.4953 0.1655 0 8
-14.8047 1.4255 -2.4953 0.1655 0 8
-14.8258 1.1863 -2.4953 0.1655 0 8
-14.8430 0.9469 -2.4953 0.1655 0 8
-1.7801 14.9098 -2.6477 0.1736 0 7
-2.0205 14.8791 -2.6477 0.1736 0 7
-2.2606 14.8446 -2.6477 0.1736 0 7
-2.4999 14.8061 -2.6477 0.1736 0 7
-2.7386 14.7639 -2.6477 0.1736 0 7
-2.9765 14.7177 -2.6477 0.1736 0 7
-3.2137 14.6678 -2.6477 0.1736 0 7
-3.4500 14.6140 -2.6477 0.1736 0 7
-3.6855 14.5564 -2.6477 0.1736 0 7
-3.9200 14.4950 -2.6477 0.1736 0 7
-4.1534 14.4298 -2.6477 0.1736 0 7
-4.3858 14.3609 -2.6477 0.1736 0 7
-4.6171 14.2882 -2.6477 0.1736 0 7
-4.8471 14.2119 -2.6477 0.1736 0 7
-5.0759 14.1318 -2.6477 0.1736 0 7
-5.3033 14.0480 -2.6477 0.1736 0 7
-5.5294 13.9605 -2.6477 0.1736 0 7
-5.7540 13.8695 -2.6477 0.1736 0 7
-5.9771 13.7748 -2.6477 0.1736 0 7
-6.1987 13.6765 -2.6477 0.1736 0 7
-6.4187 13.5747 -2.6477 0.1736 0 7
-6.6370 13.4693 -2.6477 0.1736 0 7
-6.8535 13.3604 -2.6477 0.1736 0 7
-7.0683 13.2480 -2.6477 0.1736 0 7
-7.2812 13.1322 -2.6477 0.1736 0 7
-7.4922 13.0130 -2.6477 0.1736 0 7
-7.7013 12.8903 -2.6477 0.1736 0 7
-7.9084 12.7643 -2.6477 0.1736 0 7
-8.1134 12.6350 -2.6477 0.1736 0 7
-8.3163 12.5024 -2.6477 0.1736 0 7
-8.5170 12.3665 -2.6477 0.1736 0 7
-8.7155 12.2275 -2.6477 0.1736 0 7
-8.9118 12.0852 -2.6477 0.1736 0 7
-9.1057 11.9398 -2.6477 0.1736 0 7
-9.2972 11.7912 -2.6477 0.1736 0 7
-9.4863 11.6396 -2.6477 0.1736 0 7
-9.6730 11.4850 -2.6477 0.1736 0 7
-9.8571 11.3273 -2.6477 0.1736 0 7
-10.0387 11.1667 -2.6477 0.1736 0 7
-10.2176 11.0032 -2.6477 0.1736 0 7
-10.3939 10.8369 -2.6477 0.1736 0 7
-10.5675 10.6677 -2.6477 0.1736 0 7
-10.7383 10.4957 -2.6477 0.1736 0 7
-10.9063 10.3210 -2.6477 0.1736 0 7
-11.0715 10.1436 -2.6477 0.1736 0 7
-11.2338 9.9636 -2.6477 0.1736 0 7
-11.3931 9.7810 -2.6477 0.1736 0 7
-11.5495 9.5958 -2.6477 0.1736 0 7
-11.7029 9.4081 -2.6477 0.1736 0 7
-11.8533 9.2180 -2.6477 0.1736 0 7
-12.0005 9.0254 -2.6477 0.1736 0 7
-11.4456 8.3223 -2.4953 0.1736 0 8
-11.5784 8.1364 -2.4953 0.1736 0 8
-11.7083 7.9485 -2.4953 0.1736 0 8
-11.8351 7.7584 -2.4953 0.1736 0 8
-11.9587 7.5664 -2.4953 0.1736 0 8
-12.0793 7.3724 -2.4953 0.1736 0 8
-12.1967 7.1764 -2.4953 0.1736 0 8
-12.3110 6.9786 -2.4953 0.1736 0 8
-12.4220 6.7790 -2.4953 0.1736 0 8
-12.5299 6.5776 -2.4953 0.1736 0 8
-12.6344 6.3745 -2.4953 0.1736 0 8
-12.7356 6.1697 -2.4953 0.1736 0 8
-12.8336 5.9633 -2.4953 0.1736 0 8
-12.9282 5.7554 -2.4953 0.1736 0 8
-13.0194 5.5460 -2.4953 0.1736 0 8
-13.1072 5.3351 -2.4953 0.1736 0 8
-13.1916 5.1228 -2.4953 0.1736 0 8
-13.2726 4.9092 -2.4953 0.1736 0 8
-13.3501 4.6943 -2.4953 0.1736 0 8
-13.4241 4.4782 -2.4953 0.1736 0 8
-13.4947 4.2609 -2.4953 0.1736 0 8
-13.5617 4.0426 -2.4953 0.1736 0 8
-13.6252 3.8231 -2.4953 0.1736 0 8
-13.6851 3.6027 -2.4953 0.1736 0 8
-13.7415 3.3813 -2.4953 0.1736 0 8
-13.7943 3.1591 -2.4953 0.1736 0 8
-13.8435 2.9360 -2.4953 0.1736 0 8
-13.8891 2.7122 -2.4953 0.1736 0 8
-13.9310 2.4876 -2.4953 0.1736 0 8
-13.9694 2.2624 -2.4953 0.1736 0 8
-14.0041 2.0366 -2.4953 0.1736 0 8
-14.0351 1.8103 -2.4953 0.1736 0 8
-14.0625 1.5835 -2.4953 0.1736 0 8
-14.0862 1.3563 -2.4953 0.1736 0 8
-14.1063 1.1288 -2.4953 0.1736 0 8
-14.1227 0.9009 -2.4953 0.1736 0 8
-1.6976 14.2178 -2.6477 0.1818 0 7
-1.9269 14.1885 -2.6477 0.1818 0 7
-2.1556 14.1556 -2.6477 0.1818 0 7
-2.3839 14.1189 -2.6477 0.1818 0 7
-2.6114 14.0786 -2.6477 0.1818 0 7
-2.8384 14.0346 -2.6477 0.1818 0 7
-3.0645 13.9870 -2.6477 0.1818 0 7
-3.2899 13.9357 -2.6477 0.1818 0 7
-3.5144 13.8808 -2.6477 0.1818 0 7
-3.7380 13.8222 -2.6477 0.1818 0 7
-3.9607 13.7601 -2.6477 0.1818 0 7
-4.1823 13.6944 -2.6477 0.1818 0 7
-4.4028 13.6251 -2.6477 0.1818 0 7
-4.6221 13.5522 -2.6477 0.1818 0 7
-4.8403 13.4759 -2.6477 0.1818 0 7
-5.0572 13.3960 -2.6477 0.1818 0 7
-5.2727 13.3126 -2.6477 0.1818 0 7
-5.4869 13.2257 -2.6477 0.1818 0 7
-5.6997 13.1355 -2.6477 0.1818 0 7
-5.9110 13.0417 -2.6477 0.1818 0 7
-6.1208 12.9446 -2.6477 0.1818 0 7
-6.3289 12.8441 -2.6477 0.1818 0 7
-6.5354 12.7403 -2.6477 0.1818 0 7
-6.7402 12.6332 -2.6477 0.1818 0 7
-6.9433 12.5227 -2.6477 0.1818 0 7
-7.1445 12.4090 -2.6477 0.1818 0 7
-7.3439 12.2921 -2.6477 0.1818 0 7
-7.5413 12.1719 -2.6477 0.1818 0 7
-7.7368 12.0486 -2.6477 0.1818 0 7
-7.9303 11.9221 -2.6477 0.1818 0 7
-8.1217 11.7926 -2.6477 0.1818 0 7
-8.3110 11.6599 -2.6477 0.1818 0 7
-8.4981 11.5243 -2.6477 0.1818 0 7
-8.6830 11.3856 -2.6477 0.1818 0 6
-8.8657 11.2439 -2.6477 0.1818 0 7
-9.0460 11.0994 -2.6477 0.1818 0 7
-9.2240 10.9519 -2.6477 0.1818 0 7
-9.3996 10.8016 -2.6477 0.1818 0 7
-9.5727 10.6485 -2.6477 0.1818 0 7
-9.7434 10.4925 -2.6477 0.1818 0 7
-9.9115 10.3339 -2.6477 0.1818 0 7
-10.0770 10.1726 -2.6477 0.1818 0 7
-10.2399 10.0086 -2.6477 0.1818 0 7
-10.4001 9.8420 -2.6477 0.1818 0 7
-10.5576 9.6728 -2.6477 0.1818 0 7
-10.7124 9.5012 -2.6477 0.1818 0 7
-10.8644 9.3270 -2.6477 0.1818 0 7
-11.0135 9.1504 -2.6477 0.1818 0 7
-11.1598 8.9714 -2.6477 0.1818 0 7
-10.6529 8.2845 -2.4954 0.5569 0 8
-10.7848 8.1111 -2.4953 0.1818 0 8
-10.9144 7.9360 -2.4953 0.1818 0 8
-11.0410 7.7588 -2.4953 0.1818 0 8
-11.1649 7.5796 -2.4953 0.1818 0 8
-11.2857 7.3983 -2.4953 0.1818 0 8
-11.4037 7.2152 -2.4953 0.1818 0 8
-11.5187 7.0302 -2.4953 0.1818 0 8
-11.6307 6.8433 -2.4953 0.1818 0 8
-11.7396 6.6547 -2.4953 0.1818 0 8
-11.8455 6.4643 -2.4953 0.1818 0 8
-11.9483 6.2723 -2.4953 0.1818 0 8
-12.0480 6.0786 -2.4953 0.1818 0 8
-12.1445 5.8833 -2.4953 0.1818 0 8
-12.2379 5.6865 -2.4953 0.1818 0 8
-12.3281 5.4883 -2.4953 0.1818 0 8
-12.4151 5.2885 -2.4953 0.1818 0 8
-12.4989 5.0875 -2.4953 0.1818 0 8
-12.5793 4.8850 -2.4953 0.1818 0 8
-12.6566 4.6813 -2.4953 0.1818 0 8
-12.7305 4.4764 -2.4953 0.1818 0 8
-12.8011 4.2704 -2.4953 0.1818 0 8
-12.8683 4.0632 -2.4953 0.1818 0 8
-12.9322 3.8549 -2.4953 0.1818 0 8
-12.9928 3.6457 -2.4953 0.1818 0 8
-13.0499 3.4355 -2.4953 0.1818 0 8
-13.1037 3.2244 -2.4953 0.1818 0 8
-13.1540 3.0124 -2.4953 0.1818 0 8
-13.2009 2.7997 -2.4953 0.1818 0 8
-13.2444 2.5863 -2.4953 0.1818 0 8
-13.2845 2.3722 -2.4953 0.1818 0 8
-13.3210 2.1574 -2.4953 0.1818 0 8
-13.3541 1.9421 -2.4953 0.1818 0 8
-13.3837 1.7263 -2.4953 0.1818 0 8
-13.4098 1.5100 -2.4953 0.1818 0 8
-13.4325 1.2934 -2.4953 0.1818 0 8
-13.4516 1.0764 -2.4953 0.1818 0 8
-13.4672 0.8591 -2.4953 0.1818 0 8
-1.6221 13.5853 -2.6477 0.1900 0 7
-1.8411 13.5573 -2.6477 0.1900 0 7
-2.0597 13.5259 -2.6477 0.1900 0 7
-2.2778 13.4908 -2.6477 0.1900 0 7
-2.4953 13.4523 -2.6477 0.1900 0 7
-2.7121 13.4103 -2.6477 0.1900 0 7
-2.9282 13.3648 -2.6477 0.1900 0 7
-3.1436 13.3157 -2.6477 0.1900 0 7
-3.3581 13.2633 -2.6477 0.1900 0 7
-3.5717 13.2073 -2.6477 0.1900 0 7
-3.7845 13.1480 -2.6477 0.1900 0 7
-3.9962 13.0852 -2.6477 0.1900 0 7
-4.2069 13.0189 -2.6477 0.1900 0 7
-4.4165 12.9494 -2.6477 0.1900 0 7
-4.6250 12.8764 -2.6477 0.1900 0 7
-4.8322 12.8000 -2.6477 0.1900 0 7
-5.0382 12.7204 -2.6477 0.1900 0 7
-5.2429 12.6374 -2.6477 0.1900 0 7
-5.4462 12.5511 -2.6477 0.1900 0 7
-5.6481 12.4616 -2.6477 0.1900 0 7
-5.8485 12.3688 -2.6477 0.1900 0 7
-6.0474 12.2728 -2.6477 0.1900 0 7
-6.2447 12.1735 -2.6477 0.1900 0 7
-6.4404 12.0712 -2.6477 0.1900 0 7
-6.6344 11.9656 -2.6477 0.1900 0 7
-6.8267 11.8570 -2.6477 0.1900 0 7
-7.0172 11.7452 -2.6477 0.1900 0 7
-7.2058 11.6304 -2.6477 0.1900 0 7
-7.3926 11.5126 -2.6477 0.1900 0 7
-7.5775 11.3918 -2.6477 0.1900 0 6
-7.7604 11.2680 -2.6477 0.1900 0 7
-7.9413 11.1412 -2.6477 0.1900 0 7
