ply
format ascii 1.0
element vertex 1348
property float32 x
property float32 y
property float32 z
property float32 CosAngle
property uint32 ObjIdx
property uint32 ObjTag
end_header
-34.8525 29.1857 -2.6477 0.0581 0 7
-35.3190 28.6195 -2.6477 0.0581 0 7
-35.7762 28.0458 -2.6477 0.0581 0 7
-36.2241 27.4648 -2.6477 0.0581 0 7
-36.6626 26.8766 -2.6477 0.0581 0 7
-37.0916 26.2815 -2.6477 0.0581 0 7
-37.5109 25.6795 -2.6477 0.0581 0 7
-37.9204 25.0708 -2.6477 0.0581 0 6
-38.3201 24.4556 -2.6477 0.0581 0 7
-38.7097 23.8340 -2.6477 0.0581 0 7
-39.0893 23.2062 -2.6477 0.0581 0 7
-39.4587 22.5723 -2.6477 0.0581 0 7
-39.8179 21.9326 -2.6477 0.0581 0 7
-40.1666 21.2872 -2.6477 0.0581 0 7
-40.5049 20.6362 -2.6477 0.0581 0 7
-40.8327 19.9799 -2.6477 0.0581 0 7
-41.1498 19.3183 -2.6477 0.0581 0 7
-41.4562 18.6517 -2.6477 0.0581 0 7
-41.7518 17.9803 -2.6477 0.0581 0 7
-42.0365 17.3042 -2.6477 0.0581 0 7
-42.3103 16.6235 -2.6477 0.0581 0 7
-42.5731 15.9385 -2.6477 0.0581 0 7
-42.8247 15.2495 -2.6477 0.0581 0 7
-43.0652 14.5564 -2.6477 0.0581 0 7
-43.2945 13.8595 -2.6477 0.0581 0 7
-43.5125 13.1590 -2.6477 0.0581 0 7
-43.7192 12.4551 -2.6477 0.0581 0 7
-43.9146 11.7480 -2.6477 0.0581 0 7
-44.0984 11.0377 -2.6477 0.0581 0 7
-44.2708 10.3247 -2.6477 0.0581 0 7
-44.4316 9.6089 -2.6477 0.0581 0 7
-44.5809 8.8906 -2.6477 0.0581 0 7
-44.7186 8.1700 -2.6477 0.0581 0 7
-44.8446 7.4473 -2.6477 0.0581 0 7
-44.9590 6.7226 -2.6477 0.0581 0 7
-45.0616 5.9962 -2.6477 0.0581 0 7
-45.1525 5.2682 -2.6477 0.0581 0 7
-45.2316 4.5388 -2.6477 0.0581 0 7
-45.2990 3.8083 -2.6477 0.0581 0 7
-45.3545 3.0768 -2.6477 0.0581 0 7
-45.3983 2.3445 -2.6477 0.0581 0 7
-45.4302 1.6115 -2.6477 0.0581 0 7
-45.4503 0.8782 -2.6477 0.0581 0 7
-45.4586 0.1446 -2.6477 0.0581 0 7
-45.4550 -0.5891 -2.6477 0.0581 0 7
-45.4396 -1.3225 -2.6477 0.0581 0 7
-45.4123 -2.0556 -2.6477 0.0581 0 7
-45.3732 -2.7882 -2.6477 0.0581 0 7
-45.3223 -3.5201 -2.6477 0.0581 0 7
-16.4366 33.6769 -2.4953 0.0664 0 8
-16.9779 33.4072 -2.4953 0.0664 0 8
-17.5148 33.1289 -2.4953 0.0664 0 8
-18.0597 32.8647 -2.4970 0.6662 0 8
-18.7504 32.8540 -2.5189 0.8655 0 8
-19.4562 32.8477 -2.5421 0.8576 0 8
-20.1753 32.8412 -2.5665 0.8495 0 8
-20.9084 32.8344 -2.5920 0.8411 0 8
-21.6563 32.8274 -2.6187 0.8326 0 8
-22.3741 32.7530 -2.6412 0.0804 0 8
-22.9440 32.4503 -2.6463 0.0803 0 8
-23.4767 32.0923 -2.6477 0.0664 0 7
-23.9915 31.7092 -2.6477 0.0664 0 7
-24.5001 31.3179 -2.6477 0.0664 0 7
-25.0023 30.9185 -2.6477 0.0664 0 7
-25.4980 30.5110 -2.6477 0.0664 0 7
-25.9871 30.0955 -2.6477 0.0664 0 7
-26.4694 29.6722 -2.6477 0.0664 0 7
-26.9448 29.2411 -2.6477 0.0664 0 7
-27.4132 28.8025 -2.6477 0.0664 0 7
-27.8744 28.3564 -2.6477 0.0664 0 7
-28.3284 27.9029 -2.6477 0.0664 0 7
-28.7750 27.4415 -2.6477 0.0664 0 7
-29.2141 26.9741 -2.6477 0.0664 0 7
-29.6456 26.4992 -2.6477 0.0664 0 7
-30.0694 26.0173 -2.6477 0.0664 0 7
-30.4853 25.5286 -2.6477 0.0664 0 7
-30.8934 25.0333 -2.6477 0.0664 0 7
-31.2933 24.5315 -2.6477 0.0664 0 7
-31.6851 24.0233 -2.6477 0.0664 0 7
-30.3151 22.2234 -2.5029 0.0664 0 8
-30.6698 21.7313 -2.5029 0.0664 0 14
-31.0165 21.2335 -2.5029 0.0664 0 14
-31.3551 20.7303 -2.5029 0.0664 0 14
-31.6856 20.2215 -2.5029 0.0664 0 14
-32.0078 19.7075 -2.5029 0.0664 0 14
-34.1913 20.2984 -2.6477 0.0664 0 7
-34.5144 19.7439 -2.6477 0.0664 0 7
-34.8285 19.1844 -2.6477 0.0664 0 7
-35.1336 18.6198 -2.6477 0.0664 0 7
-35.4295 18.0504 -2.6477 0.0664 0 7
-35.7162 17.4763 -2.6477 0.0664 0 7
-35.9936 16.8976 -2.6477 0.0664 0 7
-36.2616 16.3146 -2.6477 0.0664 0 7
-36.5201 15.7273 -2.6477 0.0664 0 7
-36.7692 15.1359 -2.6477 0.0664 0 7
-37.0086 14.5405 -2.6477 0.0664 0 6
-37.2385 13.9414 -2.6477 0.0664 0 7
-37.4586 13.3387 -2.6477 0.0664 0 7
-37.6690 12.7324 -2.6477 0.0664 0 7
-37.8696 12.1229 -2.6477 0.0664 0 7
-38.0603 11.5102 -2.6477 0.0664 0 7
-38.2411 10.8945 -2.6477 0.0664 0 7
-38.4119 10.2759 -2.6477 0.0664 0 7
-38.5727 9.6547 -2.6477 0.0664 0 7
-38.7235 9.0310 -2.6477 0.0664 0 7
-38.8642 8.4049 -2.6477 0.0664 0 7
-38.9948 7.7766 -2.6477 0.0664 0 7
-39.1152 7.1463 -2.6477 0.0664 0 7
-39.2254 6.5141 -2.6477 0.0664 0 7
-39.3254 5.8802 -2.6477 0.0664 0 7
-39.4152 5.2448 -2.6477 0.0664 0 7
-39.4947 4.6081 -2.6477 0.0664 0 7
-39.5639 3.9701 -2.6477 0.0664 0 6
-39.6229 3.3311 -2.6477 0.0664 0 6
-39.6715 2.6913 -2.6477 0.0664 0 6
-39.7097 2.0507 -2.6477 0.0664 0 6
-37.4504 1.3284 -2.4953 0.0664 0 8
-37.4669 0.7239 -2.4953 0.0664 0 8
-37.4737 0.1192 -2.4953 0.0664 0 8
-37.4708 -0.4856 -2.4953 0.0664 0 8
-37.4580 -1.0902 -2.4953 0.0664 0 8
-37.4411 -1.6948 -2.4956 0.7516 0 8
-37.4034 -2.2985 -2.4953 0.0664 0 8
-37.3614 -2.9018 -2.4953 0.0664 0 8
-15.4966 31.7509 -2.6477 0.0747 0 7
-16.0070 31.4966 -2.6477 0.0747 0 7
-16.5131 31.2342 -2.6477 0.0747 0 7
-17.0151 30.9637 -2.6477 0.0747 0 7
-17.5125 30.6850 -2.6477 0.0747 0 7
-18.0054 30.3984 -2.6477 0.0747 0 7
-18.4937 30.1039 -2.6477 0.0747 0 7
-18.9771 29.8015 -2.6477 0.0747 0 7
-19.4555 29.4914 -2.6477 0.0747 0 7
-19.9289 29.1736 -2.6477 0.0747 0 7
-20.3971 28.8482 -2.6477 0.0747 0 7
-20.8600 28.5153 -2.6477 0.0747 0 7
-21.3175 28.1749 -2.6477 0.0747 0 7
-21.7694 27.8272 -2.6477 0.0747 0 7
-22.2156 27.4723 -2.6477 0.0747 0 7
-22.6561 27.1102 -2.6477 0.0747 0 7
-23.0906 26.7411 -2.6477 0.0747 0 7
-23.5191 26.3650 -2.6477 0.0747 0 6
-23.9416 25.9820 -2.6477 0.0747 0 7
-24.3577 25.5922 -2.6477 0.0747 0 7
-24.7675 25.1958 -2.6477 0.0747 0 7
-25.1709 24.7928 -2.6477 0.0747 0 7
-25.5678 24.3834 -2.6477 0.0747 0 7
-25.9579 23.9676 -2.6477 0.0747 0 7
-24.9009 22.2581 -2.5029 0.0747 0 8
-25.2569 21.8533 -2.5029 0.0747 0 14
-25.6063 21.4429 -2.5029 0.0747 0 14
-25.9490 21.0268 -2.5029 0.0747 0 14
-26.2849 20.6054 -2.5029 0.0747 0 14
-26.6140 20.1785 -2.5029 0.0747 0 14
-26.9362 19.7464 -2.5029 0.0747 0 14
-27.2514 19.3091 -2.5029 0.0747 0 14
-27.5898 18.8876 -2.5056 0.4528 0 8
-28.5417 18.8702 -2.5641 0.5566 0 8
-29.5456 18.8558 -2.6266 0.5434 0 8
-30.0854 18.5238 -2.6477 0.0747 0 7
-30.3804 18.0360 -2.6477 0.0747 0 7
-30.6675 17.5433 -2.6477 0.0747 0 6
-30.9466 17.0461 -2.6477 0.0747 0 6
-31.2177 16.5445 -2.6477 0.0747 0 7
-31.4806 16.0385 -2.6477 0.0747 0 7
-31.7353 15.5284 -2.6477 0.0747 0 7
-31.9818 15.0142 -2.6477 0.0747 0 7
-32.2199 14.4962 -2.6477 0.0747 0 7
-32.4496 13.9743 -2.6477 0.0747 0 7
-32.6709 13.4489 -2.6477 0.0747 0 7
-32.8837 12.9199 -2.6477 0.0747 0 7
-33.0879 12.3875 -2.6477 0.0747 0 7
-33.2835 11.8519 -2.6477 0.0747 0 7
-33.4705 11.3133 -2.6477 0.0747 0 7
-33.6487 10.7717 -2.6477 0.0747 0 7
-33.8181 10.2272 -2.6477 0.0747 0 7
-33.9787 9.6802 -2.6477 0.0747 0 7
-34.1305 9.1306 -2.6477 0.0747 0 7
-34.2735 8.5786 -2.6477 0.0747 0 7
-32.4269 7.5625 -2.4953 0.0747 0 8
-32.5447 7.0382 -2.4953 0.0747 0 8
-32.6541 6.5121 -2.4953 0.0747 0 8
-32.7550 5.9843 -2.4953 0.0747 0 8
-32.8472 5.4549 -2.4953 0.0747 0 8
-32.9310 4.9241 -2.4953 0.0747 0 8
-33.0062 4.3920 -2.4953 0.0747 0 8
-33.0727 3.8588 -2.4953 0.0747 0 8
-33.1307 3.3246 -2.4953 0.0747 0 8
-33.1801 2.7895 -2.4953 0.0747 0 8
-33.2207 2.2537 -2.4953 0.0747 0 8
-33.2528 1.7172 -2.4953 0.0747 0 8
-33.2762 1.1804 -2.4953 0.0747 0 8
-33.2909 0.6432 -2.4953 0.0747 0 8
-33.2969 0.1059 -2.4953 0.0747 0 8
-33.2943 -0.4315 -2.4953 0.0747 0 8
-33.2830 -0.9687 -2.4953 0.0747 0 8
-33.2630 -1.5057 -2.4953 0.0747 0 8
-33.2344 -2.0423 -2.4953 0.0747 0 8
-33.1971 -2.5784 -2.4953 0.0747 0 8
-13.9408 28.5632 -2.6477 0.0830 0 7
-14.3999 28.3345 -2.6477 0.0830 0 7
-14.8553 28.0985 -2.6477 0.0830 0 7
-15.3068 27.8551 -2.6477 0.0830 0 7
-15.7543 27.6044 -2.6477 0.0830 0 7
-16.1978 27.3466 -2.6477 0.0830 0 7
-16.6370 27.0816 -2.6477 0.0830 0 7
-17.0719 26.8096 -2.6477 0.0830 0 7
-17.5023 26.5306 -2.6477 0.0830 0 7
-17.9281 26.2447 -2.6477 0.0830 0 7
-18.3493 25.9520 -2.6477 0.0830 0 7
-18.7657 25.6525 -2.6477 0.0830 0 7
-19.1773 25.3463 -2.6477 0.0830 0 7
-19.5838 25.0335 -2.6477 0.0830 0 7
-19.9853 24.7142 -2.6477 0.0830 0 7
-20.3815 24.3885 -2.6477 0.0830 0 7
-20.7724 24.0564 -2.6477 0.0830 0 7
-21.1579 23.7180 -2.6477 0.0830 0 7
-20.3602 22.0954 -2.5029 0.0830 0 14
-20.7141 21.7639 -2.5029 0.0830 0 14
-21.0626 21.4268 -2.5029 0.0830 0 14
-21.4057 21.0841 -2.5029 0.0830 0 14
-21.7432 20.7359 -2.5029 0.0830 0 14
-22.0749 20.3824 -2.5029 0.0830 0 14
-22.4010 20.0235 -2.5029 0.0830 0 14
-22.7212 19.6593 -2.5029 0.0830 0 14
-23.0355 19.2901 -2.5029 0.0830 0 14
-23.3438 18.9158 -2.5029 0.0830 0 8
-24.0906 18.8852 -2.5499 0.6218 0 8
-24.8925 18.8732 -2.6022 0.6093 0 8
-25.6337 18.7915 -2.6477 0.0830 0 7
-25.9335 18.3754 -2.6477 0.0830 0 6
-26.2267 17.9545 -2.6477 0.0830 0 7
-26.5130 17.5289 -2.6477 0.0830 0 7
-26.7925 17.0987 -2.6477 0.0830 0 7
-27.0649 16.6641 -2.6477 0.0830 0 7
-27.3303 16.2252 -2.6477 0.0830 0 7
-27.5886 15.7820 -2.6477 0.0830 0 7
-27.8397 15.3348 -2.6477 0.0830 0 7
-28.0835 14.8835 -2.6477 0.0830 0 7
-28.3201 14.4283 -2.6477 0.0830 0 7
-28.5492 13.9694 -2.6477 0.0830 0 7
-28.7709 13.5069 -2.6477 0.0830 0 7
-28.9852 13.0408 -2.6477 0.0830 0 7
-29.1918 12.5714 -2.6477 0.0830 0 7
-29.3909 12.0987 -2.6477 0.0830 0 7
-29.5823 11.6228 -2.6477 0.0830 0 7
-29.7660 11.1438 -2.6477 0.0830 0 7
-29.9420 10.6622 -2.6477 0.0830 0 7
-30.1102 10.1775 -2.6477 0.0830 0 7
-30.2705 9.6903 -2.6477 0.0830 0 7
-30.4229 9.2005 -2.6477 0.0830 0 7
-28.8080 8.2071 -2.4953 0.0830 0 8
-28.9367 7.7411 -2.4953 0.0830 0 8
-29.0578 7.2730 -2.4953 0.0830 0 8
-29.1714 6.8033 -2.4953 0.0830 0 8
-29.2774 6.3316 -2.4953 0.0830 0 8
-29.3758 5.8583 -2.4953 0.0830 0 8
-29.4665 5.3834 -2.4953 0.0830 0 8
-29.5495 4.9072 -2.4953 0.0830 0 8
-29.6249 4.4298 -2.4953 0.0830 0 8
-29.6925 3.9511 -2.4953 0.0830 0 8
-29.7524 3.4714 -2.4953 0.0830 0 8
-29.8045 2.9908 -2.4953 0.0830 0 8
-29.8489 2.5094 -2.4953 0.0830 0 8
-29.8855 2.0274 -2.4953 0.0830 0 8
-29.9144 1.5448 -2.4953 0.0830 0 8
-29.9354 1.0619 -2.4953 0.0830 0 8
-29.9486 0.5787 -2.4953 0.0830 0 8
-29.9541 0.0953 -2.4953 0.0830 0 8
-29.9517 -0.3881 -2.4953 0.0830 0 8
-29.9415 -0.8715 -2.4953 0.0830 0 8
-29.9236 -1.3545 -2.4953 0.0830 0 8
-29.8978 -1.8373 -2.4953 0.0830 0 8
-29.8643 -2.3195 -2.4953 0.0830 0 8
-12.6673 25.9540 -2.6477 0.0913 0 7
-13.0845 25.7462 -2.6477 0.0913 0 7
-13.4983 25.5317 -2.6477 0.0913 0 7
-13.9085 25.3105 -2.6477 0.0913 0 7
-14.3152 25.0828 -2.6477 0.0913 0 7
-14.7181 24.8485 -2.6477 0.0913 0 7
-15.1172 24.6077 -2.6477 0.0913 0 7
-15.5124 24.3606 -2.6477 0.0913 0 7
-15.9035 24.1070 -2.6477 0.0913 0 7
-16.2904 23.8473 -2.6477 0.0913 0 7
-15.7614 22.2918 -2.5029 0.0913 0 8
-16.1191 22.0345 -2.5029 0.0913 0 14
-16.4726 21.7715 -2.5029 0.0913 0 14
-16.8218 21.5029 -2.5029 0.0913 0 14
-17.1666 21.2286 -2.5029 0.0913 0 14
-17.5070 20.9488 -2.5029 0.0913 0 14
-17.8427 20.6636 -2.5029 0.0913 0 14
-18.1739 20.3729 -2.5029 0.0913 0 14
-18.5003 20.0770 -2.5029 0.0913 0 14
-18.8219 19.7758 -2.5029 0.0913 0 14
-19.1386 19.4695 -2.5029 0.0913 0 14
-19.4503 19.1581 -2.5029 0.0913 0 14
-19.8224 18.9042 -2.5112 0.6944 0 8
-20.4636 18.8946 -2.5535 0.6829 0 8
-21.1268 18.8845 -2.5978 0.6712 0 8
-21.8135 18.8740 -2.6445 0.6594 0 8
-22.1420 18.5419 -2.6477 0.0913 0 7
-22.4384 18.1821 -2.6477 0.0913 0 7
-22.7289 17.8177 -2.6477 0.0913 0 7
-23.0134 17.4485 -2.6477 0.0913 0 7
-23.2920 17.0749 -2.6477 0.0913 0 7
-23.5645 16.6968 -2.6477 0.0913 0 7
-23.8309 16.3143 -2.6477 0.0913 0 7
-24.0911 15.9276 -2.6477 0.0913 0 7
-24.3450 15.5368 -2.6477 0.0913 0 7
-24.5925 15.1419 -2.6477 0.0913 0 7
-24.8337 14.7430 -2.6477 0.0913 0 7
-25.0684 14.3404 -2.6477 0.0913 0 7
-25.2965 13.9339 -2.6477 0.0913 0 7
-25.5181 13.5239 -2.6477 0.0913 0 7
-25.7330 13.1103 -2.6477 0.0913 0 7
-25.9413 12.6933 -2.6477 0.0913 0 7
-26.1427 12.2730 -2.6477 0.0913 0 7
-26.3374 11.8496 -2.6477 0.0913 0 7
-26.5252 11.4230 -2.6477 0.0913 0 7
-26.7061 10.9934 -2.6477 0.0913 0 7
-26.8800 10.5610 -2.6477 0.0913 0 7
-27.0469 10.1259 -2.6477 0.0913 0 7
-27.2068 9.6881 -2.6477 0.0913 0 7
-27.3596 9.2478 -2.6477 0.0913 0 7
-25.9221 8.2982 -2.4953 0.0913 0 8
-26.0526 7.8788 -2.4953 0.0913 0 8
-26.1764 7.4574 -2.4953 0.0913 0 8
-26.2933 7.0340 -2.4953 0.0913 0 8
-26.4034 6.6087 -2.4953 0.0913 0 8
-26.5066 6.1818 -2.4953 0.0913 0 8
-26.6029 5.7532 -2.4953 0.0913 0 8
-26.6923 5.3231 -2.4953 0.0913 0 8
-26.7747 4.8917 -2.4953 0.0913 0 8
-26.8502 4.4590 -2.4953 0.0913 0 8
-26.9186 4.0251 -2.4953 0.0913 0 8
-26.9801 3.5902 -2.4953 0.0913 0 8
-27.0345 3.1543 -2.4953 0.0913 0 8
-27.0819 2.7176 -2.4953 0.0913 0 8
-27.1222 2.2802 -2.4953 0.0913 0 8
-27.1555 1.8422 -2.4953 0.0913 0 8
-27.1817 1.4037 -2.4953 0.0913 0 8
-27.2008 0.9649 -2.4953 0.0913 0 8
-27.2128 0.5258 -2.4953 0.0913 0 8
-27.2178 0.0866 -2.4953 0.0913 0 8
-27.2156 -0.3527 -2.4953 0.0913 0 8
-27.2064 -0.7919 -2.4953 0.0913 0 8
-27.1901 -1.2308 -2.4953 0.0913 0 8
-27.1667 -1.6694 -2.4953 0.0913 0 8
-27.1362 -2.1076 -2.4953 0.0913 0 8
-11.6055 23.7785 -2.6477 0.0996 0 7
-11.3322 22.2983 -2.5029 0.0996 0 8
-11.6906 22.1125 -2.5029 0.0996 0 14
-12.0459 21.9210 -2.5029 0.0996 0 14
-12.3981 21.7237 -2.5029 0.0996 0 14
-12.7471 21.5208 -2.5029 0.0996 0 14
-13.0927 21.3123 -2.5029 0.0996 0 14
-13.4350 21.0982 -2.5029 0.0996 0 14
-13.7737 20.8786 -2.5029 0.0996 0 14
-14.1088 20.6537 -2.5029 0.0996 0 14
-14.4403 20.4233 -2.5029 0.0996 0 14
-14.7680 20.1876 -2.5029 0.0996 0 14
-15.0918 19.9467 -2.5029 0.0996 0 14
-15.4118 19.7005 -2.5029 0.0996 0 14
-15.7277 19.4492 -2.5029 0.0996 0 14
-16.0395 19.1929 -2.5029 0.0996 0 14
-16.3472 18.9315 -2.5029 0.0996 0 8
-16.8670 18.9079 -2.5354 0.7500 0 8
-17.4155 18.8997 -2.5717 0.7395 0 8
-17.9798 18.8911 -2.6097 0.7287 0 8
-18.5486 18.8694 -2.6477 0.0996 0 7
-18.8508 18.5676 -2.6477 0.0996 0 7
-19.1479 18.2609 -2.6477 0.0996 0 7
-19.4401 17.9496 -2.6477 0.0996 0 7
-19.7272 17.6335 -2.6477 0.0996 0 7
-20.0093 17.3129 -2.6477 0.0996 0 7
-20.2861 16.9877 -2.6477 0.0996 0 7
-20.5576 16.6581 -2.6477 0.0996 0 7
-20.8237 16.3242 -2.6477 0.0996 0 7
-21.0844 15.9860 -2.6477 0.0996 0 7
-21.3396 15.6436 -2.6477 0.0996 0 7
-21.5893 15.2973 -2.6477 0.0996 0 7
-21.8334 14.9469 -2.6477 0.0996 0 7
-22.0718 14.5926 -2.6477 0.0996 0 7
-22.3044 14.2345 -2.6477 0.0996 0 7
-22.5312 13.8727 -2.6477 0.0996 0 7
-22.7521 13.5073 -2.6477 0.0996 0 7
-22.9671 13.1383 -2.6477 0.0996 0 7
-23.1762 12.7660 -2.6477 0.0996 0 7
-23.3792 12.3903 -2.6477 0.0996 0 7
-23.5761 12.0114 -2.6477 0.0996 0 7
-23.7669 11.6294 -2.6477 0.0996 0 7
-23.9514 11.2443 -2.6477 0.0996 0 7
-24.1298 10.8563 -2.6477 0.0996 0 7
-24.3018 10.4655 -2.6477 0.0996 0 7
-24.4676 10.0720 -2.6477 0.0996 0 7
-24.6269 9.6758 -2.6477 0.0996 0 7
-24.7799 9.2771 -2.6477 0.0996 0 7
-23.4916 8.3651 -2.4953 0.0996 0 8
-23.6235 7.9849 -2.4953 0.0996 0 8
-23.7493 7.6027 -2.4953 0.0996 0 8
-23.8689 7.2184 -2.4953 0.0996 0 8
-23.9823 6.8323 -2.4953 0.0996 0 8
-24.0894 6.4444 -2.4953 0.0996 0 8
-24.1903 6.0548 -2.4953 0.0996 0 8
-24.2848 5.6636 -2.4953 0.0996 0 8
-24.3731 5.2710 -2.4953 0.0996 0 8
-24.4549 4.8769 -2.4953 0.0996 0 8
-24.5305 4.4817 -2.4953 0.0996 0 8
-24.5996 4.0852 -2.4953 0.0996 0 8
-24.6623 3.6877 -2.4953 0.0996 0 8
-24.7186 3.2892 -2.4953 0.0996 0 8
-24.7685 2.8899 -2.4953 0.0996 0 8
-24.8119 2.4898 -2.4953 0.0996 0 8
-24.8488 2.0891 -2.4953 0.0996 0 8
-24.8793 1.6878 -2.4953 0.0996 0 8
-24.9033 1.2861 -2.4953 0.0996 0 8
-24.9208 0.8840 -2.4953 0.0996 0 8
-24.9319 0.4817 -2.4953 0.0996 0 8
-24.9364 0.0793 -2.4953 0.0996 0 8
-24.9344 -0.3231 -2.4953 0.0996 0 8
-24.9259 -0.7255 -2.4953 0.0996 0 8
-24.9110 -1.1276 -2.4953 0.0996 0 8
-24.8896 -1.5295 -2.4953 0.0996 0 8
-24.8616 -1.9310 -2.4953 0.0996 0 8
-10.1211 20.7371 -2.5029 0.1078 0 14
-10.4545 20.5711 -2.5029 0.1078 0 14
-10.7851 20.3997 -2.5029 0.1078 0 14
-11.1129 20.2230 -2.5029 0.1078 0 14
-11.4378 20.0410 -2.5029 0.1078 0 14
-11.7597 19.8538 -2.5029 0.1078 0 14
-12.0786 19.6615 -2.5029 0.1078 0 14
-12.3943 19.4640 -2.5029 0.1078 0 14
-12.7068 19.2614 -2.5029 0.1078 0 14
-13.0160 19.0539 -2.5029 0.1078 0 8
-13.3786 18.9217 -2.5136 0.8194 0 8
-13.8371 18.9151 -2.5420 0.8102 0 8
-14.3062 18.9083 -2.5718 0.8008 0 8
-14.7865 18.9012 -2.6030 0.7912 0 8
-15.2785 18.8938 -2.6356 0.7815 0 8
-15.6531 18.7305 -2.6477 0.1078 0 7
-15.9533 18.4754 -2.6477 0.1078 0 7
-16.2494 18.2155 -2.6477 0.1078 0 7
-16.5412 17.9509 -2.6477 0.1078 0 7
-16.8287 17.6817 -2.6477 0.1078 0 7
-17.1119 17.4078 -2.6477 0.1078 0 7
-17.3906 17.1294 -2.6477 0.1078 0 7
-17.6648 16.8465 -2.6477 0.1078 0 7
-17.9343 16.5592 -2.6477 0.1078 0 7
-18.1992 16.2677 -2.6477 0.1078 0 7
-18.4594 15.9718 -2.6477 0.1078 0 7
-18.7147 15.6718 -2.6477 0.1078 0 7
-18.9652 15.3678 -2.6477 0.1078 0 7
-19.2107 15.0597 -2.6477 0.1078 0 7
-19.4513 14.7478 -2.6477 0.1078 0 7
-19.6867 14.4319 -2.6477 0.1078 0 7
-19.9171 14.1124 -2.6477 0.1078 0 7
-20.1422 13.7891 -2.6477 0.1078 0 7
-20.3621 13.4623 -2.6477 0.1078 0 7
-20.5767 13.1319 -2.6477 0.1078 0 7
-20.7860 12.7981 -2.6477 0.1078 0 7
-20.9898 12.4610 -2.6477 0.1078 0 7
-21.1881 12.1207 -2.6477 0.1078 0 7
-21.3810 11.7772 -2.6477 0.1078 0 7
-21.5683 11.4306 -2.6477 0.1078 0 6
-21.7499 11.0810 -2.6477 0.1078 0 7
-21.9259 10.7286 -2.6477 0.1078 0 7
-22.0962 10.3733 -2.6477 0.1078 0 7
-22.2607 10.0154 -2.6477 0.1078 0 7
-22.4194 9.6549 -2.6477 0.1078 0 7
-22.5723 9.2918 -2.6477 0.1078 0 7
-22.7194 8.9263 -2.6477 0.1078 0 7
-21.5446 8.0659 -2.4953 0.1078 0 8
-21.6719 7.7172 -2.4953 0.1078 0 8
-21.7937 7.3664 -2.4953 0.1078 0 8
-21.9097 7.0138 -2.4953 0.1078 0 8
-22.0200 6.6593 -2.4953 0.1078 0 8
-22.1246 6.3031 -2.4953 0.1078 0 8
-22.2235 5.9452 -2.4953 0.1078 0 8
-22.3165 5.5858 -2.4953 0.1078 0 8
-22.4038 5.2249 -2.4953 0.1078 0 8
-22.4852 4.8627 -2.4953 0.1078 0 8
-22.5607 4.4992 -2.4953 0.1078 0 8
-22.6304 4.1345 -2.4953 0.1078 0 8
-22.6941 3.7688 -2.4953 0.1078 0 8
-22.7520 3.4021 -2.4953 0.1078 0 8
-22.8039 3.0344 -2.4953 0.1078 0 8
-22.8500 2.6660 -2.4953 0.1078 0 8
-22.8900 2.2969 -2.4953 0.1078 0 8
-22.9241 1.9272 -2.4953 0.1078 0 8
-22.9522 1.5571 -2.4953 0.1078 0 8
-22.9743 1.1864 -2.4953 0.1078 0 8
-22.9905 0.8155 -2.4953 0.1078 0 8
-23.0007 0.4444 -2.4953 0.1078 0 8
-23.0048 0.0732 -2.4953 0.1078 0 8
-23.0030 -0.2981 -2.4953 0.1078 0 8
-22.9952 -0.6693 -2.4953 0.1078 0 8
-22.9814 -1.0403 -2.4953 0.1078 0 8
-22.9616 -1.4110 -2.4953 0.1078 0 8
-22.9359 -1.7814 -2.4953 0.1078 0 8
-9.3923 19.2439 -2.5029 0.1161 0 14
-9.7028 19.0921 -2.5032 0.7090 0 8
-10.0124 18.9382 -2.5039 0.7039 0 8
-10.4012 18.9279 -2.5244 0.8784 0 8
-10.7995 18.9227 -2.5466 0.8707 0 8
-11.2050 18.9173 -2.5699 0.8628 0 8
-11.6179 18.9116 -2.5942 0.8547 0 8
-12.0388 18.9057 -2.6197 0.8464 0 8
-12.4681 18.8996 -2.6464 0.8378 0 8
-12.7774 18.7046 -2.6477 0.1161 0 7
-13.0776 18.4960 -2.6477 0.1161 0 7
-13.3744 18.2825 -2.6477 0.1161 0 7
-13.6677 18.0643 -2.6477 0.1161 0 7
-13.9574 17.8414 -2.6477 0.1161 0 7
-14.2435 17.6138 -2.6477 0.1161 0 7
-14.5259 17.3817 -2.6477 0.1161 0 7
-14.8045 17.1450 -2.6477 0.1161 0 7
-15.0793 16.9039 -2.6477 0.1161 0 7
-15.3501 16.6583 -2.6477 0.1161 0 7
-15.6169 16.4084 -2.6477 0.1161 0 7
-15.8797 16.1543 -2.6477 0.1161 0 7
-16.1383 15.8959 -2.6477 0.1161 0 7
-16.3928 15.6334 -2.6477 0.1161 0 7
-16.6429 15.3668 -2.6477 0.1161 0 7
-16.8887 15.0962 -2.6477 0.1161 0 7
-17.1301 14.8217 -2.6477 0.1161 0 7
-17.3671 14.5433 -2.6477 0.1161 0 7
-17.5996 14.2612 -2.6477 0.1161 0 7
-17.8274 13.9753 -2.6477 0.1161 0 7
-18.0506 13.6858 -2.6477 0.1161 0 7
-18.2691 13.3927 -2.6477 0.1161 0 7
-18.4829 13.0961 -2.6477 0.1161 0 7
-18.6918 12.7962 -2.6477 0.1161 0 7
-18.8959 12.4929 -2.6477 0.1161 0 7
-19.0950 12.1863 -2.6477 0.1161 0 7
-19.2892 11.8765 -2.6477 0.1161 0 7
-19.4783 11.5637 -2.6477 0.1161 0 7
-19.6624 11.2479 -2.6477 0.1161 0 7
-19.8414 10.9291 -2.6477 0.1161 0 7
-20.0152 10.6075 -2.6477 0.1161 0 7
-20.1837 10.2831 -2.6477 0.1161 0 7
-20.3471 9.9560 -2.6477 0.1161 0 7
-20.5051 9.6264 -2.6477 0.1161 0 7
-20.6578 9.2942 -2.6477 0.1161 0 7
-20.8050 8.9596 -2.6477 0.1161 0 7
-19.7412 8.1264 -2.4953 0.1161 0 8
-19.8698 7.8068 -2.4953 0.1161 0 8
-19.9932 7.4851 -2.4953 0.1161 0 8
-20.1114 7.1615 -2.4953 0.1161 0 8
-20.2243 6.8360 -2.4953 0.1161 0 8
-20.3320 6.5087 -2.4953 0.1161 0 8
-20.4344 6.1798 -2.4953 0.1161 0 8
-20.5315 5.8492 -2.4953 0.1161 0 8
-20.6232 5.5171 -2.4953 0.1161 0 8
-20.7096 5.1836 -2.4953 0.1161 0 8
-20.7905 4.8487 -2.4953 0.1161 0 8
-20.8660 4.5125 -2.4953 0.1161 0 8
-20.9361 4.1752 -2.4953 0.1161 0 8
-21.0008 3.8368 -2.4953 0.1161 0 8
-21.0600 3.4974 -2.4953 0.1161 0 8
-21.1137 3.1571 -2.4953 0.1161 0 8
-21.1619 2.8159 -2.4953 0.1161 0 8
-21.2046 2.4741 -2.4953 0.1161 0 8
-21.2417 2.1315 -2.4953 0.1161 0 8
-21.2734 1.7885 -2.4953 0.1161 0 8
-21.2994 1.4449 -2.4953 0.1161 0 8
-21.3200 1.1010 -2.4953 0.1161 0 8
-21.3350 0.7568 -2.4953 0.1161 0 8
-21.3444 0.4124 -2.4953 0.1161 0 8
-21.3483 0.0679 -2.4953 0.1161 0 8
-21.3466 -0.2766 -2.4953 0.1161 0 8
-21.3394 -0.6211 -2.4953 0.1161 0 8
-21.3266 -0.9654 -2.4953 0.1161 0 8
-21.3082 -1.3094 -2.4953 0.1161 0 8
-21.2843 -1.6531 -2.4953 0.1161 0 8
-9.2295 18.9103 -2.6370 0.9006 0 8
-9.5722 18.8351 -2.6477 0.1243 0 7
-9.8749 18.6782 -2.6477 0.1243 0 7
-10.1751 18.5164 -2.6477 0.1243 0 7
-10.4723 18.3498 -2.6477 0.1243 0 6
-10.7673 18.1784 -2.6477 0.1243 0 7
-11.0593 18.0022 -2.6477 0.1243 0 7
-11.3484 17.8214 -2.6477 0.1243 0 7
-11.6345 17.6360 -2.6477 0.1243 0 7
-11.9176 17.4459 -2.6477 0.1243 0 7
-12.1976 17.2513 -2.6477 0.1243 0 7
-12.4744 17.0522 -2.6477 0.1243 0 7
-12.7479 16.8487 -2.6477 0.1243 0 7
-13.0182 16.6408 -2.6477 0.1243 0 7
-13.2850 16.4285 -2.6477 0.1243 0 7
-13.5484 16.2120 -2.6477 0.1243 0 7
-13.8083 15.9913 -2.6477 0.1243 0 7
-14.0645 15.7663 -2.6477 0.1243 0 7
-14.3172 15.5373 -2.6477 0.1243 0 7
-14.5660 15.3042 -2.6477 0.1243 0 7
-14.8111 15.0672 -2.6477 0.1243 0 7
-15.0523 14.8262 -2.6477 0.1243 0 7
-15.2896 14.5814 -2.6477 0.1243 0 7
-15.5229 14.3327 -2.6477 0.1243 0 7
-15.7522 14.0804 -2.6477 0.1243 0 7
-15.9774 13.8243 -2.6477 0.1243 0 7
-16.1984 13.5647 -2.6477 0.1243 0 7
-16.4152 13.3015 -2.6477 0.1243 0 7
-16.6277 13.0349 -2.6477 0.1243 0 7
-16.8359 12.7648 -2.6477 0.1243 0 7
-17.0397 12.4915 -2.6477 0.1243 0 7
-17.2391 12.2149 -2.6477 0.1243 0 7
-17.4340 11.9351 -2.6477 0.1243 0 7
-17.6243 11.6522 -2.6477 0.1243 0 7
-17.8100 11.3662 -2.6477 0.1243 0 6
-17.9912 11.0773 -2.6477 0.1243 0 7
-18.1676 10.7856 -2.6477 0.1243 0 7
-18.3393 10.4910 -2.6477 0.1243 0 7
-18.5062 10.1936 -2.6477 0.1243 0 7
-18.6683 9.8937 -2.6477 0.1243 0 7
-18.8255 9.5911 -2.6477 0.1243 0 7
-18.9778 9.2861 -2.6477 0.1243 0 7
-19.1252 8.9786 -2.6477 0.1243 0 7
-18.1586 8.1698 -2.4953 0.1243 0 8
-18.2881 7.8757 -2.4953 0.1243 0 8
-18.4128 7.5795 -2.4953 0.1243 0 8
-18.5327 7.2814 -2.4953 0.1243 0 8
-18.6478 6.9814 -2.4953 0.1243 0 8
-18.7580 6.6795 -2.4953 0.1243 0 8
-18.8634 6.3760 -2.4953 0.1243 0 8
-18.9638 6.0707 -2.4953 0.1243 0 8
-19.0593 5.7639 -2.4953 0.1243 0 8
-19.1498 5.4556 -2.4953 0.1243 0 8
-19.2354 5.1458 -2.4953 0.1243 0 8
-19.3159 4.8347 -2.4953 0.1243 0 8
-19.3914 4.5224 -2.4953 0.1243 0 8
-19.4619 4.2089 -2.4953 0.1243 0 8
-19.5273 3.8942 -2.4953 0.1243 0 8
-19.5876 3.5786 -2.4953 0.1243 0 8
-19.6428 3.2620 -2.4953 0.1243 0 8
-19.6929 2.9446 -2.4953 0.1243 0 8
-19.7378 2.6264 -2.4953 0.1243 0 8
-19.7776 2.3076 -2.4953 0.1243 0 8
-19.8123 1.9881 -2.4953 0.1243 0 8
-19.8418 1.6681 -2.4953 0.1243 0 8
-19.8661 1.3477 -2.4953 0.1243 0 8
-19.8853 1.0269 -2.4953 0.1243 0 8
-19.8993 0.7059 -2.4953 0.1243 0 8
-19.9081 0.3847 -2.4953 0.1243 0 8
-19.9117 0.0633 -2.4953 0.1243 0 8
-19.9101 -0.2580 -2.4953 0.1243 0 8
-19.9034 -0.5793 -2.4953 0.1243 0 8
-19.8914 -0.9004 -2.4953 0.1243 0 8
-19.8743 -1.2213 -2.4953 0.1243 0 8
-19.8520 -1.5419 -2.4953 0.1243 0 8
-8.6816 17.7877 -2.6477 0.1326 0 7
-8.9675 17.6452 -2.6477 0.1326 0 7
-9.2511 17.4982 -2.6477 0.1326 0 7
-9.5323 17.3466 -2.6477 0.1326 0 7
-9.8110 17.1905 -2.6477 0.1326 0 7
-10.0871 17.0300 -2.6477 0.1326 0 7
-10.3606 16.8650 -2.6477 0.1326 0 7
-10.6314 16.6956 -2.6477 0.1326 0 7
-10.8995 16.5218 -2.6477 0.1326 0 7
-11.1647 16.3438 -2.6477 0.1326 0 7
-11.4270 16.1615 -2.6477 0.1326 0 7
-11.6863 15.9750 -2.6477 0.1326 0 7
-11.9426 15.7843 -2.6477 0.1326 0 7
-12.1958 15.5895 -2.6477 0.1326 0 7
-12.4457 15.3907 -2.6477 0.1326 0 7
-12.6925 15.1878 -2.6477 0.1326 0 7
-12.9359 14.9810 -2.6477 0.1326 0 7
-13.1760 14.7703 -2.6477 0.1326 0 7
-13.4127 14.5557 -2.6477 0.1326 0 7
-13.6458 14.3374 -2.6477 0.1326 0 7
-13.8754 14.1153 -2.6477 0.1326 0 7
-14.1014 13.8896 -2.6477 0.1326 0 7
-14.3237 13.6602 -2.6477 0.1326 0 7
-14.5423 13.4273 -2.6477 0.1326 0 7
-14.7571 13.1908 -2.6477 0.1326 0 7
-14.9680 12.9510 -2.6477 0.1326 0 7
-15.1751 12.7077 -2.6477 0.1326 0 7
-15.3782 12.4612 -2.6477 0.1326 0 7
-15.5773 12.2114 -2.6477 0.1326 0 7
-15.7723 11.9584 -2.6477 0.1326 0 7
-15.9633 11.7023 -2.6477 0.1326 0 7
-16.1500 11.4432 -2.6477 0.1326 0 6
-16.3326 11.1811 -2.6477 0.1326 0 7
-16.5109 10.9161 -2.6477 0.1326 0 7
-16.6849 10.6482 -2.6477 0.1326 0 7
-16.8546 10.3775 -2.6477 0.1326 0 7
-17.0199 10.1042 -2.6477 0.1326 0 7
-17.1807 9.8282 -2.6477 0.1326 0 7
-17.3371 9.5497 -2.6477 0.1326 0 7
-17.4889 9.2686 -2.6477 0.1326 0 7
-17.6362 8.9852 -2.6477 0.1326 0 7
-16.7556 8.1987 -2.4953 0.1326 0 8
-16.8857 7.9272 -2.4953 0.1326 0 8
-17.0114 7.6537 -2.4953 0.1326 0 8
-17.1327 7.3782 -2.4953 0.1326 0 8
-17.2496 7.1007 -2.4953 0.1326 0 8
-17.3619 6.8214 -2.4953 0.1326 0 8
-17.4697 6.5403 -2.4953 0.1326 0 8
-17.5730 6.2576 -2.4953 0.1326 0 8
-17.6717 5.9732 -2.4953 0.1326 0 8
-17.7658 5.6872 -2.4953 0.1326 0 8
-17.8553 5.3998 -2.4953 0.1326 0 8
-17.9401 5.1109 -2.4953 0.1326 0 8
-18.0202 4.8207 -2.4953 0.1326 0 8
-18.0957 4.5293 -2.4953 0.1326 0 8
-18.1664 4.2367 -2.4953 0.1326 0 8
-18.2324 3.9430 -2.4953 0.1326 0 8
-18.2937 3.6482 -2.4953 0.1326 0 8
-18.3502 3.3525 -2.4953 0.1326 0 8
-18.4018 3.0560 -2.4953 0.1326 0 8
-18.4488 2.7586 -2.4953 0.1326 0 8
-18.4909 2.4605 -2.4953 0.1326 0 8
-18.5282 2.1618 -2.4953 0.1326 0 8
-18.5607 1.8625 -2.4953 0.1326 0 8
-18.5883 1.5627 -2.4953 0.1326 0 8
-18.6111 1.2626 -2.4953 0.1326 0 8
-18.6291 0.9620 -2.4953 0.1326 0 8
-18.6422 0.6613 -2.4953 0.1326 0 8
-18.6504 0.3604 -2.4953 0.1326 0 8
-18.6538 0.0593 -2.4953 0.1326 0 8
-18.6523 -0.2417 -2.4953 0.1326 0 8
-18.6460 -0.5427 -2.4953 0.1326 0 8
-18.6348 -0.8435 -2.4953 0.1326 0 8
-18.6188 -1.1441 -2.4953 0.1326 0 8
-18.5979 -1.4445 -2.4953 0.1326 0 8
-8.1646 16.7285 -2.6477 0.1408 0 7
-8.4335 16.5945 -2.6477 0.1408 0 7
-8.7002 16.4563 -2.6477 0.1408 0 7
-8.9647 16.3137 -2.6477 0.1408 0 7
-9.2268 16.1669 -2.6477 0.1408 0 7
-9.4865 16.0159 -2.6477 0.1408 0 7
-9.7437 15.8607 -2.6477 0.1408 0 7
-9.9984 15.7014 -2.6477 0.1408 0 7
-10.2505 15.5380 -2.6477 0.1408 0 7
-10.4999 15.3706 -2.6477 0.1408 0 7
-10.7466 15.1991 -2.6477 0.1408 0 7
-10.9904 15.0237 -2.6477 0.1408 0 7
-11.2315 14.8444 -2.6477 0.1408 0 7
-11.4696 14.6612 -2.6477 0.1408 0 7
-11.7047 14.4742 -2.6477 0.1408 0 7
-11.9367 14.2835 -2.6477 0.1408 0 7
-12.1657 14.0890 -2.6477 0.1408 0 7
-12.3915 13.8908 -2.6477 0.1408 0 7
-12.6140 13.6890 -2.6477 0.1408 0 7
-12.8333 13.4837 -2.6477 0.1408 0 7
-13.0492 13.2748 -2.6477 0.1408 0 7
-13.2617 13.0625 -2.6477 0.1408 0 7
-13.4708 12.8468 -2.6477 0.1408 0 7
-13.6764 12.6277 -2.6477 0.1408 0 7
-13.8784 12.4054 -2.6477 0.1408 0 7
-14.0768 12.1798 -2.6477 0.1408 0 7
-14.2715 11.9510 -2.6477 0.1408 0 7
-14.4625 11.7192 -2.6477 0.1408 0 7
-14.6497 11.4843 -2.6477 0.1408 0 7
-14.8331 11.2463 -2.6477 0.1408 0 7
-15.0127 11.0055 -2.6477 0.1408 0 7
-15.1884 10.7618 -2.6477 0.1408 0 7
-15.3600 10.5153 -2.6477 0.1408 0 7
-15.5277 10.2661 -2.6477 0.1408 0 7
-15.6914 10.0141 -2.6477 0.1408 0 7
-15.8510 9.7596 -2.6477 0.1408 0 7
-16.0064 9.5025 -2.6477 0.1408 0 7
-16.1577 9.2430 -2.6477 0.1408 0 7
-16.3047 8.9810 -2.6477 0.1408 0 7
-15.5008 8.2150 -2.4953 0.1408 0 8
-15.6314 7.9638 -2.4953 0.1408 0 8
-15.7578 7.7105 -2.4953 0.1408 0 8
-15.8802 7.4552 -2.4953 0.1408 0 8
-15.9985 7.1979 -2.4953 0.1408 0 8
-16.1125 6.9388 -2.4953 0.1408 0 8
-16.2224 6.6779 -2.4953 0.1408 0 8
-16.3281 6.4152 -2.4953 0.1408 0 8
-16.4295 6.1509 -2.4953 0.1408 0 8
-16.5266 5.8850 -2.4953 0.1408 0 8
-16.6194 5.6175 -2.4953 0.1408 0 8
-16.7079 5.3486 -2.4953 0.1408 0 8
-16.7920 5.0782 -2.4953 0.1408 0 8
-16.8718 4.8066 -2.4953 0.1408 0 8
-16.9472 4.5337 -2.4953 0.1408 0 8
-17.0182 4.2596 -2.4953 0.1408 0 8
-17.0847 3.9844 -2.4953 0.1408 0 8
-17.1467 3.7082 -2.4953 0.1408 0 8
-17.2043 3.4310 -2.4953 0.1408 0 8
-17.2575 3.1529 -2.4953 0.1408 0 8
-17.3061 2.8740 -2.4953 0.1408 0 8
-17.3502 2.5943 -2.4953 0.1408 0 8
-17.3898 2.3140 -2.4953 0.1408 0 8
-17.4249 2.0331 -2.4953 0.1408 0 8
-17.4555 1.7516 -2.4953 0.1408 0 8
-17.4815 1.4697 -2.4953 0.1408 0 8
-17.5029 1.1874 -2.4953 0.1408 0 8
-17.5198 0.9048 -2.4953 0.1408 0 8
-17.5321 0.6219 -2.4953 0.1408 0 8
-17.5399 0.3389 -2.4953 0.1408 0 8
-17.5430 0.0558 -2.4953 0.1408 0 8
-17.5417 -0.2273 -2.4953 0.1408 0 8
-17.5357 -0.5104 -2.4953 0.1408 0 8
-17.5252 -0.7933 -2.4953 0.1408 0 8
-17.5101 -1.0760 -2.4953 0.1408 0 8
-17.4904 -1.3585 -2.4953 0.1408 0 8
-7.7048 15.7863 -2.6477 0.1490 0 7
-7.9585 15.6599 -2.6477 0.1490 0 7
-8.2102 15.5294 -2.6477 0.1490 0 7
-8.4597 15.3949 -2.6477 0.1490 0 7
-8.7071 15.2563 -2.6477 0.1490 0 7
-8.9522 15.1138 -2.6477 0.1490 0 7
-9.1949 14.9674 -2.6477 0.1490 0 7
-9.4352 14.8171 -2.6477 0.1490 0 7
-9.6731 14.6629 -2.6477 0.1490 0 7
-9.9085 14.5049 -2.6477 0.1490 0 7
-10.1413 14.3431 -2.6477 0.1490 0 7
-10.3714 14.1776 -2.6477 0.1490 0 7
-10.5989 14.0083 -2.6477 0.1490 0 7
-10.8235 13.8355 -2.6477 0.1490 0 7
-11.0454 13.6590 -2.6477 0.1490 0 7
-11.2644 13.4790 -2.6477 0.1490 0 7
-11.4805 13.2954 -2.6477 0.1490 0 7
-11.6935 13.1084 -2.6477 0.1490 0 7
-11.9036 12.9180 -2.6477 0.1490 0 7
-12.1105 12.7242 -2.6477 0.1490 0 7
-12.3142 12.5271 -2.6477 0.1490 0 7
-12.5148 12.3268 -2.6477 0.1490 0 7
-12.7121 12.1232 -2.6477 0.1490 0 7
-12.9061 11.9165 -2.6477 0.1490 0 7
-13.0967 11.7067 -2.6477 0.1490 0 7
-13.2839 11.4938 -2.6477 0.1490 0 7
-13.4677 11.2779 -2.6477 0.1490 0 7
-13.6479 11.0591 -2.6477 0.1490 0 7
-13.8246 10.8374 -2.6477 0.1490 0 7
-13.9977 10.6129 -2.6477 0.1490 0 7
-14.1671 10.3856 -2.6477 0.1490 0 7
-14.3329 10.1557 -2.6477 0.1490 0 7
-14.4949 9.9230 -2.6477 0.1490 0 7
-14.6532 9.6878 -2.6477 0.1490 0 7
-14.8076 9.4501 -2.6477 0.1490 0 7
-14.9582 9.2099 -2.6477 0.1490 0 7
-15.1049 8.9673 -2.6477 0.1490 0 7
-14.3700 8.2203 -2.4953 0.1490 0 8
-14.5007 7.9874 -2.4953 0.1490 0 8
-14.6278 7.7523 -2.4953 0.1490 0 8
-14.7510 7.5152 -2.4953 0.1490 0 8
-14.8703 7.2762 -2.4953 0.1490 0 8
-14.9858 7.0353 -2.4953 0.1490 0 8
-15.0974 6.7925 -2.4953 0.1490 0 8
-15.2050 6.5480 -2.4953 0.1490 0 8
-15.3087 6.3018 -2.4953 0.1490 0 8
-15.4084 6.0539 -2.4953 0.1490 0 8
-15.5041 5.8044 -2.4953 0.1490 0 8
-15.5958 5.5535 -2.4953 0.1490 0 8
-15.6834 5.3011 -2.4953 0.1490 0 8
-15.7669 5.0473 -2.4953 0.1490 0 8
-15.8463 4.7922 -2.4953 0.1490 0 8
-15.9215 4.5359 -2.4953 0.1490 0 8
-15.9927 4.2783 -2.4953 0.1490 0 8
-16.0596 4.0197 -2.4953 0.1490 0 8
-16.1224 3.7600 -2.4953 0.1490 0 8
-16.1810 3.4993 -2.4953 0.1490 0 8
-16.2353 3.2377 -2.4953 0.1490 0 8
-16.2855 2.9753 -2.4953 0.1490 0 8
-16.3314 2.7121 -2.4953 0.1490 0 8
-16.3730 2.4482 -2.4953 0.1490 0 8
-16.4104 2.1837 -2.4953 0.1490 0 8
-16.4435 1.9186 -2.4953 0.1490 0 8
-16.4723 1.6529 -2.4953 0.1490 0 8
-16.4968 1.3869 -2.4953 0.1490 0 8
-16.5171 1.1205 -2.4953 0.1490 0 8
-16.5330 0.8538 -2.4953 0.1490 0 8
-16.5446 0.5869 -2.4953 0.1490 0 8
-16.5519 0.3198 -2.4953 0.1490 0 8
-16.5550 0.0527 -2.4953 0.1490 0 8
-16.5536 -0.2145 -2.4953 0.1490 0 8
-16.5480 -0.4816 -2.4953 0.1490 0 8
-16.5381 -0.7486 -2.4953 0.1490 0 8
-16.5239 -1.0154 -2.4953 0.1490 0 8
-16.5053 -1.2819 -2.4953 0.1490 0 8
-7.2930 14.9425 -2.6477 0.1573 0 6
-7.5332 14.8229 -2.6477 0.1573 0 7
-7.7714 14.6994 -2.6477 0.1573 0 7
-8.0076 14.5721 -2.6477 0.1573 0 7
-8.2417 14.4409 -2.6477 0.1573 0 7
-8.4737 14.3061 -2.6477 0.1573 0 7
-8.7035 14.1674 -2.6477 0.1573 0 7
-8.9310 14.0251 -2.6477 0.1573 0 7
-9.1561 13.8792 -2.6477 0.1573 0 7
-9.3789 13.7296 -2.6477 0.1573 0 7
-9.5993 13.5765 -2.6477 0.1573 0 7
-9.8171 13.4198 -2.6477 0.1573 0 7
-10.0324 13.2596 -2.6477 0.1573 0 7
-10.2451 13.0960 -2.6477 0.1573 0 7
-10.4551 12.9290 -2.6477 0.1573 0 7
-10.6623 12.7586 -2.6477 0.1573 0 7
-10.8669 12.5848 -2.6477 0.1573 0 7
-11.0685 12.4078 -2.6477 0.1573 0 7
-11.2673 12.2276 -2.6477 0.1573 0 7
-11.4632 12.0442 -2.6477 0.1573 0 7
-11.6561 11.8576 -2.6477 0.1573 0 7
-11.8459 11.6680 -2.6477 0.1573 0 7
-12.0327 11.4753 -2.6477 0.1573 0 7
-12.2163 11.2796 -2.6477 0.1573 0 7
-12.3967 11.0810 -2.6477 0.1573 0 7
-12.5739 10.8795 -2.6477 0.1573 0 7
-12.7479 10.6751 -2.6477 0.1573 0 7
-12.9185 10.4680 -2.6477 0.1573 0 7
-13.0857 10.2582 -2.6477 0.1573 0 7
-13.2496 10.0457 -2.6477 0.1573 0 7
-13.4100 9.8306 -2.6477 0.1573 0 7
-13.5668 9.6129 -2.6477 0.1573 0 7
-13.7202 9.3927 -2.6477 0.1573 0 7
-13.8700 9.1700 -2.6477 0.1573 0 7
-14.0162 8.9450 -2.6477 0.1573 0 7
-13.3437 8.2159 -2.4953 0.1573 0 8
-13.4746 7.9995 -2.4953 0.1573 0 8
-13.6019 7.7810 -2.4953 0.1573 0 8
-13.7257 7.5605 -2.4953 0.1573 0 8
-13.8459 7.3380 -2.4953 0.1573 0 8
-13.9626 7.1136 -2.4953 0.1573 0 8
-14.0755 6.8873 -2.4953 0.1573 0 8
-14.1849 6.6593 -2.4953 0.1573 0 8
-14.2905 6.4295 -2.4953 0.1573 0 8
-14.3924 6.1980 -2.4953 0.1573 0 8
-14.4905 5.9650 -2.4953 0.1573 0 8
-14.5849 5.7303 -2.4953 0.1573 0 8
-14.6755 5.4942 -2.4953 0.1573 0 8
-14.7622 5.2567 -2.4953 0.1573 0 8
-14.8451 5.0178 -2.4953 0.1573 0 8
-14.9242 4.7776 -2.4953 0.1573 0 8
-14.9993 4.5361 -2.4953 0.1573 0 8
-15.0706 4.2934 -2.4953 0.1573 0 8
-15.1379 4.0497 -2.4953 0.1573 0 8
-15.2013 3.8048 -2.4953 0.1573 0 8
-15.2607 3.5590 -2.4953 0.1573 0 8
-15.3162 3.3123 -2.4953 0.1573 0 8
-15.3676 3.0647 -2.4953 0.1573 0 8
-15.4151 2.8163 -2.4953 0.1573 0 8
-15.4585 2.5672 -2.4953 0.1573 0 8
-15.4979 2.3174 -2.4953 0.1573 0 8
-15.5333 2.0670 -2.4953 0.1573 0 8
-15.5646 1.8160 -2.4953 0.1573 0 8
-15.5919 1.5646 -2.4953 0.1573 0 8
-15.6151 1.3128 -2.4953 0.1573 0 8
-15.6343 1.0606 -2.4953 0.1573 0 8
-15.6494 0.8082 -2.4953 0.1573 0 8
-15.6604 0.5555 -2.4953 0.1573 0 8
-15.6673 0.3027 -2.4953 0.1573 0 8
-15.6701 0.0498 -2.4953 0.1573 0 8
-15.6689 -0.2031 -2.4953 0.1573 0 8
-15.6636 -0.4559 -2.4953 0.1573 0 8
-15.6542 -0.7086 -2.4953 0.1573 0 8
-15.6407 -0.9611 -2.4953 0.1573 0 8
-15.6232 -1.2134 -2.4953 0.1573 0 8
-6.9220 14.1825 -2.6477 0.1655 0 7
-7.1500 14.0690 -2.6477 0.1655 0 7
-7.3761 13.9517 -2.6477 0.1655 0 7
-7.6003 13.8309 -2.6477 0.1655 0 7
-7.8225 13.7064 -2.6477 0.1655 0 7
-8.0427 13.5784 -2.6477 0.1655 0 7
-8.2608 13.4468 -2.6477 0.1655 0 7
-8.4767 13.3118 -2.6477 0.1655 0 7
-8.6904 13.1733 -2.6477 0.1655 0 7
-8.9019 13.0313 -2.6477 0.1655 0 7
-9.1110 12.8859 -2.6477 0.1655 0 7
-9.3178 12.7372 -2.6477 0.1655 0 7
-9.5221 12.5852 -2.6477 0.1655 0 7
-9.7240 12.4299 -2.6477 0.1655 0 7
-9.9233 12.2714 -2.6477 0.1655 0 7
-10.1200 12.1096 -2.6477 0.1655 0 7
-10.3141 11.9447 -2.6477 0.1655 0 7
-10.5056 11.7767 -2.6477 0.1655 0 7
-10.6942 11.6057 -2.6477 0.1655 0 7
-10.8801 11.4316 -2.6477 0.1655 0 6
-11.0632 11.2545 -2.6477 0.1655 0 7
-11.2434 11.0745 -2.6477 0.1655 0 7
-11.4206 10.8916 -2.6477 0.1655 0 7
-11.5949 10.7059 -2.6477 0.1655 0 7
-11.7662 10.5174 -2.6477 0.1655 0 7
-11.9344 10.3261 -2.6477 0.1655 0 7
-12.0995 10.1322 -2.6477 0.1655 0 7
-12.2614 9.9356 -2.6477 0.1655 0 7
-12.4201 9.7364 -2.6477 0.1655 0 7
-12.5756 9.5347 -2.6477 0.1655 0 7
-12.7279 9.3305 -2.6477 0.1655 0 7
-12.8768 9.1239 -2.6477 0.1655 0 7
-12.2728 8.4018 -2.4953 0.1655 0 8
-12.4068 8.2027 -2.4953 0.1655 0 8
-12.5375 8.0014 -2.4953 0.1655 0 8
-12.6650 7.7980 -2.4953 0.1655 0 8
-12.7892 7.5926 -2.4953 0.1655 0 8
-12.9101 7.3852 -2.4953 0.1655 0 8
-13.0276 7.1759 -2.4953 0.1655 0 8
-13.1417 6.9647 -2.4953 0.1655 0 8
-13.2524 6.7517 -2.4953 0.1655 0 8
-13.3596 6.5370 -2.4953 0.1655 0 8
-13.4634 6.3206 -2.4953 0.1655 0 8
-13.5636 6.1025 -2.4953 0.1655 0 8
-13.6603 5.8828 -2.4953 0.1655 0 8
-13.7535 5.6616 -2.4953 0.1655 0 8
-13.8431 5.4389 -2.4953 0.1655 0 8
-13.9290 5.2148 -2.4953 0.1655 0 8
-14.0114 4.9893 -2.4953 0.1655 0 8
-14.0901 4.7625 -2.4953 0.1655 0 8
-14.1651 4.5345 -2.4953 0.1655 0 8
-14.2364 4.3054 -2.4953 0.1655 0 8
-14.3040 4.0751 -2.4953 0.1655 0 8
-14.3679 3.8437 -2.4953 0.1655 0 8
-14.4281 3.6113 -2.4953 0.1655 0 8
-14.4845 3.3780 -2.4953 0.1655 0 8
-14.5371 3.1438 -2.4953 0.1655 0 8
-14.5860 2.9088 -2.4953 0.1655 0 8
-14.6310 2.6731 -2.4953 0.1655 0 8
-14.6722 2.4366 -2.4953 0.1655 0 8
-14.7097 2.1995 -2.4953 0.1655 0 8
-14.7432 1.9618 -2.4953 0.1655 0 8
-14.7730 1.7236 -2.4953 0.1655 0 8
-14.7989 1.4850 -2.4953 0.1655 0 8
-14.8209 1.2460 -2.4953 0.1655 0 8
-14.8391 1.0067 -2.4953 0.1655 0 8
-14.8534 0.7671 -2.4953 0.1655 0 8
-14.8638 0.5273 -2.4953 0.1655 0 8
-14.8704 0.2873 -2.4953 0.1655 0 8
-14.8731 0.0473 -2.4953 0.1655 0 8
-14.8719 -0.1927 -2.4953 0.1655 0 8
-14.8669 -0.4327 -2.4953 0.1655 0 8
-14.8580 -0.6726 -2.4953 0.1655 0 8
-14.8452 -0.9123 -2.4953 0.1655 0 8
-14.8285 -1.1517 -2.4953 0.1655 0 8
-6.5861 13.4942 -2.6477 0.1736 0 7
-6.8030 13.3862 -2.6477 0.1736 0 7
-7.0182 13.2747 -2.6477 0.1736 0 7
-7.2315 13.1597 -2.6477 0.1736 0 7
-7.4429 13.0412 -2.6477 0.1736 0 7
-7.6524 12.9194 -2.6477 0.1736 0 7
-7.8599 12.7943 -2.6477 0.1736 0 7
-8.0653 12.6658 -2.6477 0.1736 0 7
-8.2687 12.5340 -2.6477 0.1736 0 7
-8.4699 12.3989 -2.6477 0.1736 0 7
-8.6689 12.2606 -2.6477 0.1736 0 7
-8.8656 12.1191 -2.6477 0.1736 0 7
-9.0600 11.9745 -2.6477 0.1736 0 7
-9.2521 11.8267 -2.6477 0.1736 0 7
-9.4417 11.6758 -2.6477 0.1736 0 7
-9.6289 11.5220 -2.6477 0.1736 0 7
-9.8136 11.3651 -2.6477 0.1736 0 6
-9.9957 11.2052 -2.6477 0.1736 0 7
-10.1753 11.0424 -2.6477 0.1736 0 7
-10.3521 10.8768 -2.6477 0.1736 0 7
-10.5263 10.7083 -2.6477 0.1736 0 7
-10.6977 10.5370 -2.6477 0.1736 0 7
-10.8664 10.3630 -2.6477 0.1736 0 7
-11.0322 10.1863 -2.6477 0.1736 0 7
-11.1952 10.0070 -2.6477 0.1736 0 7
-11.3552 9.8250 -2.6477 0.1736 0 7
-11.5123 9.6405 -2.6477 0.1736 0 7
-11.6664 9.4534 -2.6477 0.1736 0 7
-11.8174 9.2639 -2.6477 0.1736 0 7
-11.9654 9.0720 -2.6477 0.1736 0 7
-11.4131 8.3667 -2.4953 0.1736 0 8
-11.5467 8.1815 -2.4953 0.1736 0 8
-11.6772 7.9941 -2.4953 0.1736 0 8
-11.8047 7.8046 -2.4953 0.1736 0 8
-11.9291 7.6130 -2.4953 0.1736 0 8
-12.0504 7.4195 -2.4953 0.1736 0 8
-12.1686 7.2241 -2.4953 0.1736 0 8
-12.2836 7.0268 -2.4953 0.1736 0 8
-12.3954 6.8277 -2.4953 0.1736 0 8
-12.5039 6.6267 -2.4953 0.1736 0 8
-12.6092 6.4241 -2.4953 0.1736 0 8
-12.7113 6.2198 -2.4953 0.1736 0 8
-12.8100 6.0138 -2.4953 0.1736 0 8
-12.9054 5.8063 -2.4953 0.1736 0 8
-12.9974 5.5973 -2.4953 0.1736 0 8
-13.0860 5.3868 -2.4953 0.1736 0 8
-13.1713 5.1749 -2.4953 0.1736 0 8
-13.2531 4.9617 -2.4953 0.1736 0 8
-13.3314 4.7472 -2.4953 0.1736 0 8
-13.4063 4.5314 -2.4953 0.1736 0 8
-13.4776 4.3145 -2.4953 0.1736 0 8
-13.5455 4.0964 -2.4953 0.1736 0 8
-13.6099 3.8773 -2.4953 0.1736 0 8
-13.6707 3.6572 -2.4953 0.1736 0 8
-13.7279 3.4361 -2.4953 0.1736 0 8
-13.7816 3.2141 -2.4953 0.1736 0 8
-13.8316 2.9913 -2.4953 0.1736 0 8
-13.8781 2.7676 -2.4953 0.1736 0 8
-13.9210 2.5433 -2.4953 0.1736 0 8
-13.9602 2.3183 -2.4953 0.1736 0 8
-13.9958 2.0928 -2.4953 0.1736 0 8
-14.0277 1.8666 -2.4953 0.1736 0 8
-14.0560 1.6400 -2.4953 0.1736 0 8
-14.0807 1.4129 -2.4953 0.1736 0 8
-14.1016 1.1855 -2.4953 0.1736 0 8
-14.1189 0.9578 -2.4953 0.1736 0 8
-14.1326 0.7298 -2.4953 0.1736 0 8
-14.1425 0.5017 -2.4953 0.1736 0 8
-14.1487 0.2734 -2.4953 0.1736 0 8
-14.1513 0.0450 -2.4953 0.1736 0 8
-14.1502 -0.1834 -2.4953 0.1736 0 8
-14.1454 -0.4117 -2.4953 0.1736 0 8
-14.1369 -0.6399 -2.4953 0.1736 0 8
-14.1247 -0.8680 -2.4953 0.1736 0 8
-14.1089 -1.0958 -2.4953 0.1736 0 8
-6.2804 12.8679 -2.6477 0.1818 0 7
-6.4873 12.7649 -2.6477 0.1818 0 7
-6.6924 12.6585 -2.6477 0.1818 0 7
-6.8958 12.5489 -2.6477 0.1818 0 7
-7.0974 12.4360 -2.6477 0.1818 0 7
-7.2972 12.3198 -2.6477 0.1818 0 7
-7.4951 12.2004 -2.6477 0.1818 0 7
-7.6910 12.0779 -2.6477 0.1818 0 7
-7.8849 11.9522 -2.6477 0.1818 0 7
-8.0767 11.8234 -2.6477 0.1818 0 7
-8.2665 11.6915 -2.6477 0.1818 0 7
-8.4541 11.5566 -2.6477 0.1818 0 7
-8.6395 11.4187 -2.6477 0.1818 0 6
-8.8226 11.2778 -2.6477 0.1818 0 7
-9.0035 11.1339 -2.6477 0.1818 0 7
-9.1820 10.9872 -2.6477 0.1818 0 7
-9.3581 10.8376 -2.6477 0.1818 0 7
-9.5318 10.6851 -2.6477 0.1818 0 7
-9.7030 10.5299 -2.6477 0.1818 0 7
-9.8716 10.3720 -2.6477 0.1818 0 7
-10.0377 10.2113 -2.6477 0.1818 0 7
-10.2012 10.0480 -2.6477 0.1818 0 7
-10.3621 9.8820 -2.6477 0.1818 0 7
-10.5202 9.7135 -2.6477 0.1818 0 7
-10.6756 9.5425 -2.6477 0.1818 0 7
-10.8282 9.3690 -2.6477 0.1818 0 7
-10.9780 9.1930 -2.6477 0.1818 0 7
-11.1249 9.0147 -2.6477 0.1818 0 7
-10.6203 8.3255 -2.4953 0.1818 0 8
-10.7532 8.1530 -2.4953 0.1818 0 8
-10.8834 7.9784 -2.4953 0.1818 0 8
-11.0107 7.8017 -2.4953 0.1818 0 8
-11.1352 7.6230 -2.4953 0.1818 0 8
-11.2568 7.4423 -2.4953 0.1818 0 8
-11.3754 7.2597 -2.4953 0.1818 0 8
-11.4911 7.0752 -2.4953 0.1818 0 8
-11.6038 6.8888 -2.4953 0.1818 0 8
-11.7134 6.7007 -2.4953 0.1818 0 8
-11.8200 6.5108 -2.4953 0.1818 0 8
-11.9236 6.3192 -2.4953 0.1818 0 8
-12.0240 6.1259 -2.4953 0.1818 0 8
-12.1213 5.9311 -2.4953 0.1818 0 8
-12.2154 5.7347 -2.4953 0.1818 0 8
-12.3064 5.5368 -2.4953 0.1818 0 8
-12.3941 5.3375 -2.4953 0.1818 0 8
-12.4787 5.1368 -2.4953 0.1818 0 8
-12.5599 4.9347 -2.4953 0.1818 0 8
-12.6379 4.7314 -2.4953 0.1818 0 8
-12.7126 4.5268 -2.4953 0.1818 0 8
-12.7840 4.3211 -2.4953 0.1818 0 8
-12.8521 4.1142 -2.4953 0.1818 0 8
-12.9168 3.9063 -2.4953 0.1818 0 8
-12.9782 3.6973 -2.4953 0.1818 0 8
-13.0362 3.4874 -2.4953 0.1818 0 8
-13.0907 3.2766 -2.4953 0.1818 0 8
-13.1419 3.0649 -2.4953 0.1818 0 8
-13.1897 2.8524 -2.4953 0.1818 0 8
-13.2340 2.6392 -2.4953 0.1818 0 8
-13.2749 2.4253 -2.4953 0.1818 0 8
-13.3123 2.2107 -2.4953 0.1818 0 8
-13.3462 1.9956 -2.4953 0.1818 0 8
-13.3767 1.7800 -2.4953 0.1818 0 8
-13.4036 1.5639 -2.4953 0.1818 0 8
-13.4271 1.3474 -2.4953 0.1818 0 8
-13.4471 1.1305 -2.4953 0.1818 0 8
-13.4636 0.9134 -2.4953 0.1818 0 8
-13.4766 0.6960 -2.4953 0.1818 0 8
-13.4861 0.4784 -2.4953 0.1818 0 8
-13.4921 0.2607 -2.4953 0.1818 0 8
-13.4945 0.0429 -2.4953 0.1818 0 8
-13.4934 -0.1749 -2.4953 0.1818 0 8
-13.4889 -0.3926 -2.4953 0.1818 0 8
-13.4808 -0.6102 -2.4953 0.1818 0 8
-13.4692 -0.8277 -2.4953 0.1818 0 8
-13.4541 -1.0450 -2.4953 0.1818 0 8
-6.0010 12.2955 -2.6477 0.1900 0 7
-6.1987 12.1970 -2.6477 0.1900 0 7
-6.3947 12.0954 -2.6477 0.1900 0 7
-6.5891 11.9906 -2.6477 0.1900 0 7
-6.7817 11.8827 -2.6477 0.1900 0 7
-6.9726 11.7718 -2.6477 0.1900 0 7
-7.1617 11.6577 -2.6477 0.1900 0 7
-7.3488 11.5406 -2.6477 0.1900 0 7
-7.5342 11.4205 -2.6477 0.1900 0 6
-7.7174 11.2974 -2.6477 0.1900 0 7
-7.8988 11.1714 -2.6477 0.1900 0 7
-8.0780 11.0425 -2.6477 0.1900 0 7
-8.2552 10.9107 -2.6477 0.1900 0 7
-8.4302 10.7761 -2.6477 0.1900 0 7
-8.6030 10.6386 -2.6477 0.1900 0 7
-8.7735 10.4984 -2.6477 0.1900 0 7
-8.9418 10.3555 -2.6477 0.1900 0 7
-9.1078 10.2098 -2.6477 0.1900 0 7
-9.2713 10.0615 -2.6477 0.1900 0 7
-9.4325 9.9106 -2.6477 0.1900 0 7
-9.5912 9.7571 -2.6477 0.1900 0 7
-9.7474 9.6010 -2.6477 0.1900 0 7
-9.9011 9.4424 -2.6477 0.1900 0 7
-10.0522 9.2814 -2.6477 0.1900 0 7
-10.2006 9.1180 -2.6477 0.1900 0 7
-10.3465 8.9522 -2.6477 0.1900 0 7
-9.8934 8.2848 -2.4972 0.5815 0 8
-10.0181 8.1178 -2.4953 0.1900 0 8
-10.1478 7.9551 -2.4953 0.1900 0 8
-10.2749 7.7903 -2.4953 0.1900 0 8
-10.3993 7.6235 -2.4953 0.1900 0 8
-10.5209 7.4547 -2.4953 0.1900 0 8
-10.6399 7.2839 -2.4953 0.1900 0 8
-10.7560 7.1113 -2.4953 0.1900 0 8
-10.8694 6.9368 -2.4953 0.1900 0 8
-10.9799 6.7604 -2.4953 0.1900 0 8
-11.0876 6.5824 -2.4953 0.1900 0 8
-11.1924 6.4026 -2.4953 0.1900 0 8
-11.2942 6.2211 -2.4953 0.1900 0 8
-11.3932 6.0380 -2.4953 0.1900 0 8
-11.4891 5.8534 -2.4953 0.1900 0 8
-11.5821 5.6672 -2.4953 0.1900 0 8
-11.6720 5.4796 -2.4953 0.1900 0 8
-11.7589 5.2905 -2.4953 0.1900 0 8
-11.8428 5.1001 -2.4953 0.1900 0 8
-11.9235 4.9083 -2.4953 0.1900 0 8
-12.0012 4.7152 -2.4953 0.1900 0 8
-12.0757 4.5209 -2.4953 0.1900 0 8
-12.1471 4.3255 -2.4953 0.1900 0 8
-12.2153 4.1289 -2.4953 0.1900 0 8
-12.2804 3.9312 -2.4953 0.1900 0 8
-12.3422 3.7325 -2.4953 0.1900 0 8
-12.4008 3.5329 -2.4953 0.1900 0 8
-12.4562 3.3323 -2.4953 0.1900 0 8
-12.5084 3.1308 -2.4953 0.1900 0 8
-12.5573 2.9286 -2.4953 0.1900 0 8
-12.6029 2.7255 -2.4953 0.1900 0 8
-12.6453 2.5218 -2.4953 0.1900 0 8
-12.6843 2.3174 -2.4953 0.1900 0 8
-12.7200 2.1124 -2.4953 0.1900 0 8
-12.7525 1.9068 -2.4953 0.1900 0 8
-12.7816 1.7008 -2.4953 0.1900 0 8
-12.8074 1.4943 -2.4953 0.1900 0 8
-12.8298 1.2874 -2.4953 0.1900 0 8
-12.8489 1.0802 -2.4953 0.1900 0 8
-12.8647 0.8727 -2.4953 0.1900 0 8
-12.8771 0.6650 -2.4953 0.1900 0 8
-12.8862 0.4571 -2.4953 0.1900 0 8
-12.8919 0.2491 -2.4953 0.1900 0 8
-12.8942 0.0410 -2.4953 0.1900 0 8
-12.8932 -0.1671 -2.4953 0.1900 0 8
-12.8888 -0.3751 -2.4953 0.1900 0 8
-12.8811 -0.5831 -2.4953 0.1900 0 8
-12.8700 -0.7909 -2.4953 0.1900 0 8
-12.8555 -0.9985 -2.4953 0.1900 0 8
-5.7446 11.7702 -2.6477 0.1981 0 7
-5.9339 11.6760 -2.6477 0.1981 0 7
-6.1215 11.5787 -2.6477 0.1981 0 7
-6.3076 11.4784 -2.6477 0.1981 0 6
-6.4920 11.3751 -2.6477 0.1981 0 6
-6.6747 11.2688 -2.6477 0.1981 0 7
-6.8557 11.1597 -2.6477 0.1981 0 7
-7.0349 11.0476 -2.6477 0.1981 0 7
-7.2123 10.9326 -2.6477 0.1981 0 7
-7.3877 10.8148 -2.6477 0.1981 0 7
-7.5613 10.6942 -2.6477 0.1981 0 7
-7.7329 10.5707 -2.6477 0.1981 0 7
-7.9025 10.4446 -2.6477 0.1981 0 7
-8.0700 10.3157 -2.6477 0.1981 0 7
-8.2354 10.1841 -2.6477 0.1981 0 7
-8.3987 10.0499 -2.6477 0.1981 0 7
-8.5598 9.9130 -2.6477 0.1981 0 7
-8.7187 9.7736 -2.6477 0.1981 0 7
-8.8753 9.6316 -2.6477 0.1981 0 7
-9.0295 9.4872 -2.6477 0.1981 0 7
-9.1814 9.3402 -2.6477 0.1981 0 7
-9.3310 9.1908 -2.6477 0.1981 0 7
-9.4781 9.0390 -2.6477 0.1981 0 7
-9.0688 8.3735 -2.4953 0.1981 0 8
-9.2028 8.2261 -2.4953 0.1981 0 8
-9.3343 8.0765 -2.4953 0.1981 0 8
-9.4635 7.9248 -2.4953 0.1981 0 8
-9.5901 7.7710 -2.4953 0.1981 0 8
-9.7143 7.6152 -2.4953 0.1981 0 8
-9.8359 7.4575 -2.4953 0.1981 0 8
-9.9550 7.2978 -2.4953 0.1981 0 8
-10.0714 7.1362 -2.4953 0.1981 0 8
-10.1853 6.9727 -2.4953 0.1981 0 8
-10.2965 6.8075 -2.4953 0.1981 0 8
-10.4050 6.6404 -2.4953 0.1981 0 8
-10.5108 6.4716 -2.4953 0.1981 0 8
-10.6139 6.3012 -2.4953 0.1981 0 8
-10.7142 6.1291 -2.4953 0.1981 0 8
-10.8117 5.9553 -2.4953 0.1981 0 8
-10.9064 5.7801 -2.4953 0.1981 0 8
-10.9983 5.6033 -2.4953 0.1981 0 8
-11.0873 5.4251 -2.4953 0.1981 0 8
-11.1734 5.2455 -2.4953 0.1981 0 8
-11.2566 5.0645 -2.4953 0.1981 0 8
-11.3368 4.8822 -2.4953 0.1981 0 8
-11.4141 4.6986 -2.4953 0.1981 0 8
-11.4885 4.5138 -2.4953 0.1981 0 8
-11.5598 4.3278 -2.4953 0.1981 0 8
-11.6282 4.1407 -2.4953 0.1981 0 8
-11.6935 3.9525 -2.4953 0.1981 0 8
-11.7557 3.7633 -2.4953 0.1981 0 8
-11.8149 3.5731 -2.4953 0.1981 0 8
-11.8711 3.3819 -2.4953 0.1981 0 8
-11.9241 3.1899 -2.4953 0.1981 0 8
-11.9740 2.9971 -2.4953 0.1981 0 8
-12.0208 2.8034 -2.4953 0.1981 0 8
-12.0645 2.6091 -2.4953 0.1981 0 8
-12.1050 2.4141 -2.4953 0.1981 0 8
-12.1424 2.2184 -2.4953 0.1981 0 8
-12.1766 2.0221 -2.4953 0.1981 0 8
-12.2077 1.8254 -2.4953 0.1981 0 8
-12.2355 1.6281 -2.4953 0.1981 0 8
-12.2602 1.4305 -2.4953 0.1981 0 8
-12.2817 1.2324 -2.4953 0.1981 0 8
-12.3000 1.0341 -2.4953 0.1981 0 8
-12.3151 0.8354 -2.4953 0.1981 0 8
-12.3270 0.6366 -2.4953 0.1981 0 8
-12.3356 0.4376 -2.4953 0.1981 0 8
-12.3411 0.2385 -2.4953 0.1981 0 8
-12.3433 0.0393 -2.4953 0.1981 0 8
-12.3424 -0.1599 -2.4953 0.1981 0 8
-12.3382 -0.3591 -2.4953 0.1981 0 8
-12.3308 -0.5582 -2.4953 0.1981 0 8
-12.3202 -0.7571 -2.4953 0.1981 0 8
-12.3063 -0.9558 -2.4953 0.1981 0 8
-5.5085 11.2864 -2.6477 0.2063 0 7
-5.6899 11.1960 -2.6477 0.2063 0 7
-5.8699 11.1028 -2.6477 0.2063 0 7
-6.0483 11.0066 -2.6477 0.2063 0 7
-6.2251 10.9075 -2.6477 0.2063 0 7
-6.4004 10.8057 -2.6477 0.2063 0 7
-6.5739 10.7010 -2.6477 0.2063 0 7
-6.7457 10.5935 -2.6477 0.2063 0 7
-6.9158 10.4832 -2.6477 0.2063 0 7
-7.0841 10.3703 -2.6477 0.2063 0 7
-7.2505 10.2546 -2.6477 0.2063 0 7
-7.4151 10.1363 -2.6477 0.2063 0 7
-7.5777 10.0153 -2.6477 0.2063 0 7
-7.7383 9.8917 -2.6477 0.2063 0 7
-7.8969 9.7655 -2.6477 0.2063 0 7
-8.0535 9.6368 -2.6477 0.2063 0 7
-8.2080 9.5056 -2.6477 0.2063 0 7
-8.3603 9.3719 -2.6477 0.2063 0 7
-8.5105 9.2357 -2.6477 0.2063 0 7
-8.6584 9.0972 -2.6477 0.2063 0 7
-8.8041 8.9563 -2.6477 0.2063 0 7
-8.4325 8.3058 -2.4953 0.2063 0 8
-8.5654 8.1686 -2.4953 0.2063 0 8
-8.6961 8.0293 -2.4953 0.2063 0 8
