ply
format ascii 1.0
element vertex 1409
property float32 x
property float32 y
property float32 z
property float32 CosAngle
property uint32 ObjIdx
property uint32 ObjTag
end_header
18.3579 10.4583 -2.6477 0.1243 0 7
18.1875 10.7520 -2.6477 0.1243 0 7
18.0123 11.0430 -2.6477 0.1243 0 7
17.8324 11.3311 -2.6477 0.1243 0 7
17.6480 11.6162 -2.6477 0.1243 0 7
17.4590 11.8984 -2.6477 0.1243 0 7
17.2655 12.1775 -2.6477 0.1243 0 7
17.0675 12.4534 -2.6477 0.1243 0 7
16.8652 12.7262 -2.6477 0.1243 0 7
16.6584 12.9956 -2.6477 0.1243 0 7
16.4474 13.2617 -2.6477 0.1243 0 7
16.2321 13.5244 -2.6477 0.1243 0 7
16.0126 13.7835 -2.6477 0.1243 0 7
15.7890 14.0391 -2.6477 0.1243 0 7
15.5613 14.2911 -2.6477 0.1243 0 7
15.3296 14.5394 -2.6477 0.1243 0 7
15.0939 14.7839 -2.6477 0.1243 0 7
14.8542 15.0246 -2.6477 0.1243 0 6
14.6109 15.2614 -2.6477 0.1243 0 7
14.3637 15.4943 -2.6477 0.1243 0 7
14.1128 15.7232 -2.6477 0.1243 0 7
13.8582 15.9480 -2.6477 0.1243 0 7
13.6001 16.1687 -2.6477 0.1243 0 7
13.3384 16.3852 -2.6477 0.1243 0 7
13.0733 16.5975 -2.6477 0.1243 0 7
12.8048 16.8055 -2.6477 0.1243 0 7
12.5331 17.0091 -2.6477 0.1243 0 7
12.2581 17.2084 -2.6477 0.1243 0 7
11.9799 17.4032 -2.6477 0.1243 0 7
11.6986 17.5935 -2.6477 0.1243 0 7
11.4143 17.7793 -2.6477 0.1243 0 7
11.1270 17.9605 -2.6477 0.1243 0 7
10.8369 18.1370 -2.6477 0.1243 0 7
10.5440 18.3088 -2.6477 0.1243 0 7
10.2482 18.4760 -2.6477 0.1243 0 6
9.9500 18.6383 -2.6477 0.1243 0 7
9.6491 18.7958 -2.6477 0.1243 0 7
9.3457 18.9485 -2.6477 0.1243 0 7
8.6203 -0.5252 -1.1553 0.4024 25 10
8.5811 -0.3845 -1.1490 0.4046 25 10
8.5486 -0.2454 -1.1440 0.4239 25 10
8.5309 -0.1077 -1.1412 0.4229 25 10
8.5207 0.0294 -1.1398 0.4235 25 10
8.5385 0.1667 -1.1424 0.4225 25 10
8.5597 0.3048 -1.1457 0.4183 25 10
8.5980 0.4447 -1.1517 0.4037 25 10
8.6599 0.5876 -1.1611 0.3032 25 10
18.5884 1.5618 -2.4953 0.1326 0 8
18.5609 1.8604 -2.4953 0.1326 0 8
18.5286 2.1585 -2.4953 0.1326 0 8
18.4915 2.4560 -2.4953 0.1326 0 8
18.4496 2.7529 -2.4953 0.1326 0 8
18.4030 3.0491 -2.4953 0.1326 0 8
18.3516 3.3445 -2.4953 0.1326 0 8
18.2955 3.6391 -2.4953 0.1326 0 8
18.2346 3.9327 -2.4953 0.1326 0 8
18.1690 4.2253 -2.4953 0.1326 0 8
18.0988 4.5168 -2.4953 0.1326 0 8
18.0239 4.8071 -2.4953 0.1326 0 8
17.9443 5.0962 -2.4953 0.1326 0 8
17.8600 5.3840 -2.4953 0.1326 0 8
17.7712 5.6704 -2.4953 0.1326 0 8
17.6777 5.9553 -2.4953 0.1326 0 8
17.5797 6.2386 -2.4953 0.1326 0 8
17.4772 6.5204 -2.4953 0.1326 0 8
17.3701 6.8005 -2.4953 0.1326 0 8
17.2586 7.0788 -2.4953 0.1326 0 8
17.1425 7.3553 -2.4953 0.1326 0 8
17.0221 7.6299 -2.4953 0.1326 0 8
16.8973 7.9025 -2.4953 0.1326 0 8
16.7680 8.1731 -2.4953 0.1326 0 8
16.6345 8.4416 -2.4953 0.1326 0 8
17.5042 9.2397 -2.6477 0.1326 0 7
17.3535 9.5199 -2.6477 0.1326 0 7
17.1982 9.7976 -2.6477 0.1326 0 7
17.0385 10.0728 -2.6477 0.1326 0 7
16.8744 10.3453 -2.6477 0.1326 0 7
16.7059 10.6152 -2.6477 0.1326 0 7
16.5331 10.8824 -2.6477 0.1326 0 7
16.3560 11.1467 -2.6477 0.1326 0 7
16.1748 11.4082 -2.6477 0.1326 0 7
15.9893 11.6667 -2.6477 0.1326 0 7
15.7997 11.9222 -2.6477 0.1326 0 7
15.6060 12.1746 -2.6477 0.1326 0 7
15.4083 12.4239 -2.6477 0.1326 0 7
15.2066 12.6700 -2.6477 0.1326 0 7
15.0010 12.9128 -2.6477 0.1326 0 7
14.7915 13.1522 -2.6477 0.1326 0 7
14.5782 13.3883 -2.6477 0.1326 0 7
14.3611 13.6209 -2.6477 0.1326 0 7
14.1403 13.8499 -2.6477 0.1326 0 7
13.9159 14.0754 -2.6477 0.1326 0 7
13.6878 14.2973 -2.6477 0.1326 0 7
13.4563 14.5155 -2.6477 0.1326 0 7
13.2212 14.7299 -2.6477 0.1326 0 7
12.9827 14.9405 -2.6477 0.1326 0 6
12.7409 15.1473 -2.6477 0.1326 0 7
12.4958 15.3501 -2.6477 0.1326 0 7
12.2474 15.5490 -2.6477 0.1326 0 7
11.9959 15.7438 -2.6477 0.1326 0 7
11.7413 15.9346 -2.6477 0.1326 0 7
11.4837 16.1213 -2.6477 0.1326 0 7
11.2231 16.3038 -2.6477 0.1326 0 7
10.9595 16.4821 -2.6477 0.1326 0 7
10.6932 16.6561 -2.6477 0.1326 0 7
10.4241 16.8258 -2.6477 0.1326 0 7
10.1523 16.9912 -2.6477 0.1326 0 7
9.8778 17.1522 -2.6477 0.1326 0 7
9.6009 17.3088 -2.6477 0.1326 0 7
9.3214 17.4608 -2.6477 0.1326 0 7
9.0396 17.6084 -2.6477 0.1326 0 7
8.7553 17.7515 -2.6477 0.1326 0 7
8.4530 -0.5150 -1.2045 0.4226 25 10
8.4193 -0.3772 -1.1987 0.4246 25 10
8.3905 -0.2409 -1.1939 0.4314 25 10
8.3731 -0.1057 -1.1911 0.4324 25 10
8.3629 0.0288 -1.1895 0.4330 25 10
8.3807 0.1636 -1.1923 0.4320 25 10
8.4000 0.2991 -1.1955 0.4258 25 10
8.4338 0.4362 -1.2012 0.4238 25 10
8.4791 0.5753 -1.2088 0.3874 25 10
17.4815 1.4688 -2.4953 0.1408 0 8
17.4557 1.7496 -2.4953 0.1408 0 8
17.4253 2.0299 -2.4953 0.1408 0 8
17.3904 2.3098 -2.4953 0.1408 0 8
17.3510 2.5890 -2.4953 0.1408 0 8
17.3072 2.8676 -2.4953 0.1408 0 8
17.2589 3.1454 -2.4953 0.1408 0 8
17.2061 3.4224 -2.4953 0.1408 0 8
17.1488 3.6985 -2.4953 0.1408 0 8
17.0872 3.9737 -2.4953 0.1408 0 8
17.0211 4.2478 -2.4953 0.1408 0 8
16.9506 4.5209 -2.4953 0.1408 0 8
16.8757 4.7927 -2.4953 0.1408 0 8
16.7965 5.0634 -2.4953 0.1408 0 8
16.7130 5.3327 -2.4953 0.1408 0 8
16.6251 5.6007 -2.4953 0.1408 0 8
16.5329 5.8672 -2.4953 0.1408 0 8
16.4365 6.1321 -2.4953 0.1408 0 8
16.3358 6.3955 -2.4953 0.1408 0 8
16.2309 6.6573 -2.4953 0.1408 0 8
16.1218 6.9173 -2.4953 0.1408 0 8
16.0085 7.1756 -2.4953 0.1408 0 8
15.8911 7.4320 -2.4953 0.1408 0 8
15.7696 7.6864 -2.4953 0.1408 0 8
15.6440 7.9389 -2.4953 0.1408 0 8
15.5144 8.1894 -2.4953 0.1408 0 8
15.3808 8.4377 -2.4953 0.1408 0 8
16.1741 9.2142 -2.6477 0.1408 0 7
16.0239 9.4730 -2.6477 0.1408 0 7
15.8696 9.7293 -2.6477 0.1408 0 7
15.7111 9.9831 -2.6477 0.1408 0 7
15.5486 10.2344 -2.6477 0.1408 0 7
15.3821 10.4830 -2.6477 0.1408 0 7
15.2116 10.7289 -2.6477 0.1408 0 7
15.0372 10.9720 -2.6477 0.1408 0 7
14.8589 11.2123 -2.6477 0.1408 0 7
14.6768 11.4497 -2.6477 0.1408 0 6
14.4908 11.6841 -2.6477 0.1408 0 7
14.3012 11.9155 -2.6477 0.1408 0 7
14.1078 12.1439 -2.6477 0.1408 0 7
13.9108 12.3691 -2.6477 0.1408 0 7
13.7101 12.5911 -2.6477 0.1408 0 7
13.5060 12.8098 -2.6477 0.1408 0 7
13.2983 13.0252 -2.6477 0.1408 0 7
13.0872 13.2373 -2.6477 0.1408 0 7
12.8728 13.4460 -2.6477 0.1408 0 7
12.6550 13.6511 -2.6477 0.1408 0 7
12.4339 13.8528 -2.6477 0.1408 0 7
12.2097 14.0509 -2.6477 0.1408 0 7
11.9822 14.2453 -2.6477 0.1408 0 7
11.7517 14.4361 -2.6477 0.1408 0 7
11.5181 14.6231 -2.6477 0.1408 0 7
11.2816 14.8064 -2.6477 0.1408 0 7
11.0422 14.9858 -2.6477 0.1408 0 7
10.7999 15.1613 -2.6477 0.1408 0 7
10.5548 15.3330 -2.6477 0.1408 0 7
10.3069 15.5006 -2.6477 0.1408 0 7
10.0565 15.6643 -2.6477 0.1408 0 7
9.8034 15.8239 -2.6477 0.1408 0 7
9.5478 15.9795 -2.6477 0.1408 0 7
9.2897 16.1309 -2.6477 0.1408 0 7
9.0292 16.2781 -2.6477 0.1408 0 7
8.7664 16.4211 -2.6477 0.1408 0 7
8.5013 16.5599 -2.6477 0.1408 0 7
8.2340 16.6944 -2.6477 0.1408 0 7
8.3221 -0.5070 -1.2567 0.5118 25 10
8.2861 -0.3713 -1.2502 0.5145 25 10
8.2566 -0.2370 -1.2450 0.5205 25 10
8.2421 -0.1041 -1.2424 0.5142 25 10
8.2341 0.0284 -1.2411 0.5148 25 10
8.2480 0.1611 -1.2434 0.5138 25 10
8.2643 0.2943 -1.2464 0.5079 25 10
8.3016 0.4293 -1.2529 0.5133 25 10
8.3415 0.5660 -1.2602 0.4893 25 10
8.9042 0.7481 -1.3468 0.0984 25 10
16.4725 1.6510 -2.4953 0.1490 0 8
16.4438 1.9156 -2.4953 0.1490 0 8
16.4109 2.1797 -2.4953 0.1490 0 8
16.3738 2.4432 -2.4953 0.1490 0 8
16.3324 2.7060 -2.4953 0.1490 0 8
16.2868 2.9682 -2.4953 0.1490 0 8
16.2370 3.2296 -2.4953 0.1490 0 8
16.1829 3.4902 -2.4953 0.1490 0 8
16.1248 3.7499 -2.4953 0.1490 0 8
16.0624 4.0086 -2.4953 0.1490 0 8
15.9959 4.2662 -2.4953 0.1490 0 8
15.9252 4.5228 -2.4953 0.1490 0 8
15.8505 4.7782 -2.4953 0.1490 0 8
15.7716 5.0324 -2.4953 0.1490 0 8
15.6887 5.2852 -2.4953 0.1490 0 8
15.6017 5.5367 -2.4953 0.1490 0 8
15.5107 5.7868 -2.4953 0.1490 0 8
15.4157 6.0353 -2.4953 0.1490 0 8
15.3167 6.2823 -2.4953 0.1490 0 8
15.2137 6.5277 -2.4953 0.1490 0 8
15.1069 6.7714 -2.4953 0.1490 0 8
14.9961 7.0134 -2.4953 0.1490 0 8
14.8814 7.2535 -2.4953 0.1490 0 8
14.7629 7.4918 -2.4953 0.1490 0 8
14.6405 7.7281 -2.4953 0.1490 0 8
14.5144 7.9624 -2.4953 0.1490 0 8
14.3846 8.1947 -2.4953 0.1490 0 8
14.2510 8.4249 -2.4953 0.1490 0 8
14.9757 9.1813 -2.6477 0.1490 0 7
14.8262 9.4209 -2.6477 0.1490 0 7
14.6729 9.6580 -2.6477 0.1490 0 7
14.5157 9.8926 -2.6477 0.1490 0 7
14.3549 10.1246 -2.6477 0.1490 0 7
14.1903 10.3540 -2.6477 0.1490 0 7
14.0220 10.5808 -2.6477 0.1490 0 7
13.8501 10.8048 -2.6477 0.1490 0 7
13.6747 11.0260 -2.6477 0.1490 0 7
13.4957 11.2444 -2.6477 0.1490 0 7
13.3132 11.4599 -2.6477 0.1490 0 6
13.1272 11.6724 -2.6477 0.1490 0 7
12.9379 11.8819 -2.6477 0.1490 0 7
12.7453 12.0883 -2.6477 0.1490 0 7
12.5493 12.2916 -2.6477 0.1490 0 7
12.3501 12.4917 -2.6477 0.1490 0 7
12.1477 12.6886 -2.6477 0.1490 0 7
11.9422 12.8823 -2.6477 0.1490 0 7
11.7336 13.0726 -2.6477 0.1490 0 7
11.5220 13.2595 -2.6477 0.1490 0 7
11.3074 13.4430 -2.6477 0.1490 0 7
11.0898 13.6230 -2.6477 0.1490 0 7
10.8694 13.7995 -2.6477 0.1490 0 7
10.6462 13.9724 -2.6477 0.1490 0 7
10.4202 14.1417 -2.6477 0.1490 0 7
10.1916 14.3074 -2.6477 0.1490 0 7
9.9603 14.4694 -2.6477 0.1490 0 7
9.7264 14.6276 -2.6477 0.1490 0 7
9.4900 14.7820 -2.6477 0.1490 0 7
9.2512 14.9327 -2.6477 0.1490 0 7
9.0100 15.0794 -2.6477 0.1490 0 7
8.7664 15.2223 -2.6477 0.1490 0 7
8.5206 15.3613 -2.6477 0.1490 0 7
8.2726 15.4962 -2.6477 0.1490 0 7
8.0225 15.6272 -2.6477 0.1490 0 7
7.7702 15.7541 -2.6477 0.1490 0 7
8.1996 -0.4996 -1.3081 0.5188 25 10
8.1626 -0.3657 -1.3011 0.5134 25 10
8.1358 -0.2336 -1.2960 0.5275 25 10
8.1207 -0.1025 -1.2932 0.5287 25 10
8.1119 0.0280 -1.2917 0.5293 25 10
8.1273 0.1587 -1.2944 0.5282 25 10
8.1421 0.2900 -1.2973 0.5270 25 10
8.1786 0.4230 -1.3041 0.5122 25 10
8.2158 0.5574 -1.3113 0.4962 25 10
8.3736 0.7035 -1.3381 0.3383 25 10
15.5921 1.5628 -2.4953 0.1573 0 8
15.5650 1.8132 -2.4953 0.1573 0 8
15.5338 2.0632 -2.4953 0.1573 0 8
15.4986 2.3126 -2.4953 0.1573 0 8
15.4595 2.5614 -2.4953 0.1573 0 8
15.4163 2.8096 -2.4953 0.1573 0 8
15.3691 3.0570 -2.4953 0.1573 0 8
15.3180 3.3037 -2.4953 0.1573 0 8
15.2629 3.5495 -2.4953 0.1573 0 8
15.2039 3.7943 -2.4953 0.1573 0 8
15.1410 4.0382 -2.4953 0.1573 0 8
15.0741 4.2811 -2.4953 0.1573 0 8
15.0033 4.5228 -2.4953 0.1573 0 8
14.9287 4.7634 -2.4953 0.1573 0 8
14.8502 5.0027 -2.4953 0.1573 0 8
14.7679 5.2408 -2.4953 0.1573 0 8
14.6817 5.4775 -2.4953 0.1573 0 8
14.5918 5.7128 -2.4953 0.1573 0 8
14.4981 5.9466 -2.4953 0.1573 0 8
14.4006 6.1788 -2.4953 0.1573 0 8
14.2994 6.4095 -2.4953 0.1573 0 8
14.1946 6.6385 -2.4953 0.1573 0 8
14.0860 6.8658 -2.4953 0.1573 0 8
13.9738 7.0914 -2.4953 0.1573 0 8
13.8581 7.3151 -2.4953 0.1573 0 8
13.7387 7.5369 -2.4953 0.1573 0 8
13.6158 7.7567 -2.4953 0.1573 0 8
13.4893 7.9746 -2.4953 0.1573 0 8
13.3594 8.1904 -2.4953 0.1573 0 8
13.2260 8.4041 -2.4953 0.1573 0 8
13.8887 9.1418 -2.6477 0.1573 0 7
13.7399 9.3638 -2.6477 0.1573 0 7
13.5876 9.5835 -2.6477 0.1573 0 7
13.4318 9.8006 -2.6477 0.1573 0 7
13.2726 10.0153 -2.6477 0.1573 0 7
13.1099 10.2273 -2.6477 0.1573 0 7
12.9438 10.4367 -2.6477 0.1573 0 7
12.7744 10.6434 -2.6477 0.1573 0 7
12.6016 10.8474 -2.6477 0.1573 0 7
12.4256 11.0485 -2.6477 0.1573 0 7
12.2464 11.2468 -2.6477 0.1573 0 7
12.0641 11.4422 -2.6477 0.1573 0 6
11.8786 11.6347 -2.6477 0.1573 0 7
11.6901 11.8241 -2.6477 0.1573 0 7
11.4985 12.0105 -2.6477 0.1573 0 7
11.3040 12.1937 -2.6477 0.1573 0 7
11.1065 12.3739 -2.6477 0.1573 0 7
10.9062 12.5508 -2.6477 0.1573 0 7
10.7030 12.7245 -2.6477 0.1573 0 7
10.4971 12.8949 -2.6477 0.1573 0 7
10.2885 13.0619 -2.6477 0.1573 0 7
10.0772 13.2256 -2.6477 0.1573 0 7
9.8633 13.3859 -2.6477 0.1573 0 7
9.6469 13.5427 -2.6477 0.1573 0 7
9.4279 13.6960 -2.6477 0.1573 0 7
9.2066 13.8458 -2.6477 0.1573 0 7
8.9828 13.9920 -2.6477 0.1573 0 7
8.7568 14.1346 -2.6477 0.1573 0 7
8.5284 14.2735 -2.6477 0.1573 0 7
8.2979 14.4087 -2.6477 0.1573 0 7
8.0652 14.5402 -2.6477 0.1573 0 7
7.8305 14.6680 -2.6477 0.1573 0 7
7.5937 14.7920 -2.6477 0.1573 0 7
7.3549 14.9121 -2.6477 0.1573 0 6
8.0439 -0.4901 -1.3520 0.3506 25 10
7.9978 -0.3583 -1.3431 0.3349 25 10
7.9593 -0.2285 -1.3359 0.3448 25 10
7.9404 -0.1003 -1.3323 0.3626 25 10
7.9345 0.0274 -1.3312 0.3629 25 10
7.9483 0.1552 -1.3337 0.3453 25 10
7.9674 0.2837 -1.3375 0.3444 25 10
8.0177 0.4147 -1.3469 0.3519 25 10
8.0654 0.5472 -1.3562 0.3449 25 10
8.2337 0.6918 -1.3862 0.3436 25 10
14.7990 1.4833 -2.4953 0.1655 0 8
14.7733 1.7210 -2.4953 0.1655 0 8
14.7437 1.9582 -2.4953 0.1655 0 8
14.7103 2.1950 -2.4953 0.1655 0 8
14.6732 2.4311 -2.4953 0.1655 0 8
14.6322 2.6667 -2.4953 0.1655 0 8
14.5874 2.9015 -2.4953 0.1655 0 8
14.5389 3.1356 -2.4953 0.1655 0 8
14.4866 3.3689 -2.4953 0.1655 0 8
14.4306 3.6013 -2.4953 0.1655 0 8
14.3708 3.8328 -2.4953 0.1655 0 8
14.3074 4.0633 -2.4953 0.1655 0 8
14.2402 4.2928 -2.4953 0.1655 0 8
14.1694 4.5211 -2.4953 0.1655 0 8
14.0949 4.7483 -2.4953 0.1655 0 8
14.0167 4.9742 -2.4953 0.1655 0 8
13.9350 5.1989 -2.4953 0.1655 0 8
13.8496 5.4222 -2.4953 0.1655 0 8
13.7607 5.6441 -2.4953 0.1655 0 8
13.6682 5.8646 -2.4953 0.1655 0 8
13.5721 6.0835 -2.4953 0.1655 0 8
13.4726 6.3009 -2.4953 0.1655 0 8
13.3696 6.5166 -2.4953 0.1655 0 8
13.2631 6.7307 -2.4953 0.1655 0 8
13.1532 6.9430 -2.4953 0.1655 0 8
13.0399 7.1535 -2.4953 0.1655 0 8
12.9232 7.3622 -2.4953 0.1655 0 8
12.8032 7.5690 -2.4953 0.1655 0 8
12.6799 7.7738 -2.4953 0.1655 0 8
12.5533 7.9766 -2.4953 0.1655 0 8
12.4235 8.1774 -2.4953 0.1655 0 8
12.2904 8.3760 -2.4953 0.1655 0 8
12.8965 9.0960 -2.6477 0.1655 0 7
12.7486 9.3021 -2.6477 0.1655 0 7
12.5975 9.5059 -2.6477 0.1655 0 7
12.4431 9.7071 -2.6477 0.1655 0 7
12.2854 9.9059 -2.6477 0.1655 0 7
12.1246 10.1021 -2.6477 0.1655 0 7
11.9607 10.2957 -2.6477 0.1655 0 7
11.7936 10.4866 -2.6477 0.1655 0 7
11.6235 10.6748 -2.6477 0.1655 0 7
11.4505 10.8602 -2.6477 0.1655 0 7
11.2744 11.0429 -2.6477 0.1655 0 7
11.0955 11.2227 -2.6477 0.1655 0 7
10.9136 11.3996 -2.6477 0.1655 0 7
10.7290 11.5735 -2.6477 0.1655 0 7
10.5416 11.7445 -2.6477 0.1655 0 7
10.3514 11.9124 -2.6477 0.1655 0 7
10.1586 12.0773 -2.6477 0.1655 0 7
9.9632 12.2390 -2.6477 0.1655 0 7
9.7652 12.3976 -2.6477 0.1655 0 7
9.5646 12.5529 -2.6477 0.1655 0 7
9.3616 12.7050 -2.6477 0.1655 0 7
9.1562 12.8539 -2.6477 0.1655 0 7
8.9484 12.9994 -2.6477 0.1655 0 7
8.7383 13.1415 -2.6477 0.1655 0 7
8.5259 13.2803 -2.6477 0.1655 0 7
8.3114 13.4156 -2.6477 0.1655 0 7
8.0947 13.5475 -2.6477 0.1655 0 7
7.8758 13.6759 -2.6477 0.1655 0 7
7.6550 13.8007 -2.6477 0.1655 0 7
7.4322 13.9219 -2.6477 0.1655 0 7
7.2075 14.0396 -2.6477 0.1655 0 7
6.9808 14.1537 -2.6477 0.1655 0 7
7.8604 -0.4789 -1.3886 0.3583 25 10
7.8072 -0.3498 -1.3780 0.3426 25 10
7.7729 -0.2231 -1.3711 0.3698 25 10
7.7636 -0.0980 -1.3690 0.3703 25 10
7.7580 0.0268 -1.3679 0.3706 25 10
7.7677 0.1517 -1.3699 0.3701 25 10
7.7804 0.2771 -1.3728 0.3521 25 10
7.8316 0.4050 -1.3828 0.3414 25 10
7.8853 0.5350 -1.3936 0.3523 25 10
8.0723 0.6782 -1.4284 0.2689 25 10
14.0808 1.4113 -2.4953 0.1736 0 8
14.0563 1.6375 -2.4953 0.1736 0 8
14.0282 1.8632 -2.4953 0.1736 0 8
13.9964 2.0884 -2.4953 0.1736 0 8
13.9611 2.3131 -2.4953 0.1736 0 8
13.9221 2.5373 -2.4953 0.1736 0 8
13.8795 2.7607 -2.4953 0.1736 0 8
13.8333 2.9835 -2.4953 0.1736 0 8
13.7836 3.2054 -2.4953 0.1736 0 8
13.7303 3.4266 -2.4953 0.1736 0 8
13.6734 3.6468 -2.4953 0.1736 0 8
13.6130 3.8661 -2.4953 0.1736 0 8
13.5491 4.0844 -2.4953 0.1736 0 8
13.4817 4.3017 -2.4953 0.1736 0 8
13.4108 4.5178 -2.4953 0.1736 0 8
13.3365 4.7328 -2.4953 0.1736 0 8
13.2587 4.9466 -2.4953 0.1736 0 8
13.1775 5.1591 -2.4953 0.1736 0 8
13.0929 5.3702 -2.4953 0.1736 0 8
13.0048 5.5800 -2.4953 0.1736 0 8
12.9135 5.7883 -2.4953 0.1736 0 8
12.8188 5.9951 -2.4953 0.1736 0 8
12.7207 6.2004 -2.4953 0.1736 0 8
12.6194 6.4040 -2.4953 0.1736 0 8
12.5149 6.6061 -2.4953 0.1736 0 8
12.4071 6.8064 -2.4953 0.1736 0 8
12.2961 7.0049 -2.4953 0.1736 0 8
12.1819 7.2016 -2.4953 0.1736 0 8
12.0645 7.3965 -2.4953 0.1736 0 8
11.9441 7.5895 -2.4953 0.1736 0 8
11.8206 7.7805 -2.4953 0.1736 0 8
11.6940 7.9695 -2.4953 0.1736 0 8
11.5644 8.1564 -2.4953 0.1736 0 8
11.4367 8.3449 -2.4964 0.5317 0 8
11.9861 9.0445 -2.6477 0.1736 0 7
11.8392 9.2360 -2.6477 0.1736 0 7
11.6892 9.4251 -2.6477 0.1736 0 7
11.5362 9.6118 -2.6477 0.1736 0 7
11.3802 9.7960 -2.6477 0.1736 0 7
11.2213 9.9777 -2.6477 0.1736 0 7
11.0595 10.1567 -2.6477 0.1736 0 7
10.8948 10.3332 -2.6477 0.1736 0 7
10.7273 10.5070 -2.6477 0.1736 0 7
10.5570 10.6781 -2.6477 0.1736 0 7
10.3840 10.8464 -2.6477 0.1736 0 7
10.2083 11.0119 -2.6477 0.1736 0 7
10.0300 11.1745 -2.6477 0.1736 0 7
9.8491 11.3343 -2.6477 0.1736 0 7
9.6657 11.4912 -2.6477 0.1736 0 6
9.4797 11.6450 -2.6477 0.1736 0 7
9.2913 11.7959 -2.6477 0.1736 0 7
9.1005 11.9437 -2.6477 0.1736 0 7
8.9073 12.0885 -2.6477 0.1736 0 7
8.7118 12.2301 -2.6477 0.1736 0 7
8.5141 12.3685 -2.6477 0.1736 0 7
8.3142 12.5038 -2.6477 0.1736 0 7
8.1122 12.6358 -2.6477 0.1736 0 7
7.9080 12.7646 -2.6477 0.1736 0 7
7.7018 12.8900 -2.6477 0.1736 0 7
7.4936 13.0122 -2.6477 0.1736 0 7
7.2835 13.1309 -2.6477 0.1736 0 7
7.0715 13.2463 -2.6477 0.1736 0 7
6.8577 13.3583 -2.6477 0.1736 0 7
6.6421 13.4668 -2.6477 0.1736 0 7
7.7230 -0.4705 -1.4307 0.9140 25 10
7.6807 -0.3441 -1.4216 0.9199 25 10
7.6579 -0.2198 -1.4166 0.9863 25 10
7.6448 -0.0965 -1.4137 0.9883 25 10
7.6372 0.0263 -1.4122 0.9894 25 10
7.6504 0.1494 -1.4149 0.9875 25 10
7.6636 0.2729 -1.4180 0.9853 25 10
7.6988 0.3982 -1.4255 0.9174 25 10
7.7487 0.5258 -1.4361 0.7116 25 10
7.9236 0.6657 -1.4703 0.3681 25 10
8.2003 0.8219 -1.5239 0.2639 25 10
13.4039 1.5615 -2.4953 0.1818 0 8
13.3771 1.7767 -2.4953 0.1818 0 8
13.3468 1.9915 -2.4953 0.1818 0 8
13.3131 2.2058 -2.4953 0.1818 0 8
13.2759 2.4195 -2.4953 0.1818 0 8
13.2353 2.6326 -2.4953 0.1818 0 8
13.1913 2.8450 -2.4953 0.1818 0 8
13.1438 3.0566 -2.4953 0.1818 0 8
13.0930 3.2675 -2.4953 0.1818 0 8
13.0388 3.4776 -2.4953 0.1818 0 8
12.9812 3.6867 -2.4953 0.1818 0 8
12.9203 3.8949 -2.4953 0.1818 0 8
12.8560 4.1020 -2.4953 0.1818 0 8
12.7884 4.3082 -2.4953 0.1818 0 8
12.7175 4.5132 -2.4953 0.1818 0 8
12.6433 4.7170 -2.4953 0.1818 0 8
12.5659 4.9196 -2.4953 0.1818 0 8
12.4852 5.1209 -2.4953 0.1818 0 8
12.4012 5.3210 -2.4953 0.1818 0 8
12.3141 5.5196 -2.4953 0.1818 0 8
12.2238 5.7168 -2.4953 0.1818 0 8
12.1303 5.9126 -2.4953 0.1818 0 8
12.0337 6.1068 -2.4953 0.1818 0 8
11.9340 6.2994 -2.4953 0.1818 0 8
11.8312 6.4905 -2.4953 0.1818 0 8
11.7254 6.6798 -2.4953 0.1818 0 8
11.6165 6.8674 -2.4953 0.1818 0 8
11.5046 7.0532 -2.4953 0.1818 0 8
11.3897 7.2372 -2.4953 0.1818 0 8
11.2719 7.4194 -2.4953 0.1818 0 8
11.1512 7.5996 -2.4953 0.1818 0 8
11.0276 7.7779 -2.4953 0.1818 0 8
10.9012 7.9541 -2.4953 0.1818 0 8
10.7719 8.1283 -2.4953 0.1818 0 8
10.6399 8.3004 -2.4953 0.1818 0 8
10.5051 8.4704 -2.4953 0.1818 0 8
11.0008 9.1657 -2.6477 0.1818 0 7
10.8520 9.3413 -2.6477 0.1818 0 7
10.7005 9.5146 -2.6477 0.1818 0 7
10.5462 9.6853 -2.6477 0.1818 0 7
10.3891 9.8536 -2.6477 0.1818 0 7
10.2294 10.0193 -2.6477 0.1818 0 7
10.0670 10.1825 -2.6477 0.1818 0 7
9.9020 10.3429 -2.6477 0.1818 0 7
9.7345 10.5008 -2.6477 0.1818 0 7
9.5645 10.6559 -2.6477 0.1818 0 7
9.3920 10.8082 -2.6477 0.1818 0 7
9.2170 10.9578 -2.6477 0.1818 0 7
9.0397 11.1046 -2.6477 0.1818 0 7
8.8600 11.2484 -2.6477 0.1818 0 7
8.6781 11.3894 -2.6477 0.1818 0 7
8.4939 11.5274 -2.6477 0.1818 0 7
8.3075 11.6624 -2.6477 0.1818 0 7
8.1190 11.7945 -2.6477 0.1818 0 7
7.9283 11.9234 -2.6477 0.1818 0 7
7.7357 12.0493 -2.6477 0.1818 0 7
7.5410 12.1721 -2.6477 0.1818 0 7
7.3444 12.2918 -2.6477 0.1818 0 7
7.1458 12.4082 -2.6477 0.1818 0 7
6.9455 12.5215 -2.6477 0.1818 0 7
6.7433 12.6315 -2.6477 0.1818 0 7
6.5394 12.7383 -2.6477 0.1818 0 7
6.3338 12.8417 -2.6477 0.1818 0 7
7.7003 -0.4691 -1.4929 0.9153 25 10
7.6583 -0.3431 -1.4835 0.9211 25 10
7.6401 -0.2193 -1.4791 0.9870 25 10
7.6270 -0.0963 -1.4761 0.9891 25 10
7.6216 0.0263 -1.4749 0.9971 25 10
7.6327 0.1490 -1.4773 0.9882 25 10
7.6457 0.2723 -1.4805 0.9861 25 10
7.6763 0.3970 -1.4875 0.9186 25 10
7.7214 0.5239 -1.4977 0.8757 25 10
7.8179 0.6569 -1.5182 0.7033 25 10
8.0804 0.8099 -1.5715 0.1857 25 10
12.8076 1.4920 -2.4953 0.1900 0 8
12.7820 1.6977 -2.4953 0.1900 0 8
12.7531 1.9029 -2.4953 0.1900 0 8
12.7208 2.1077 -2.4953 0.1900 0 8
12.6853 2.3119 -2.4953 0.1900 0 8
12.6465 2.5155 -2.4953 0.1900 0 8
12.6044 2.7184 -2.4953 0.1900 0 8
12.5591 2.9207 -2.4953 0.1900 0 8
12.5106 3.1222 -2.4953 0.1900 0 8
12.4588 3.3229 -2.4953 0.1900 0 8
12.4037 3.5227 -2.4953 0.1900 0 8
12.3455 3.7216 -2.4953 0.1900 0 8
12.2841 3.9196 -2.4953 0.1900 0 8
12.2195 4.1165 -2.4953 0.1900 0 8
12.1518 4.3124 -2.4953 0.1900 0 8
12.0809 4.5072 -2.4953 0.1900 0 8
12.0069 4.7008 -2.4953 0.1900 0 8
11.9298 4.8931 -2.4953 0.1900 0 8
11.8496 5.0843 -2.4953 0.1900 0 8
11.7663 5.2741 -2.4953 0.1900 0 8
11.6800 5.4625 -2.4953 0.1900 0 8
11.5907 5.6496 -2.4953 0.1900 0 8
11.4984 5.8351 -2.4953 0.1900 0 8
11.4031 6.0192 -2.4953 0.1900 0 8
11.3049 6.2017 -2.4953 0.1900 0 8
11.2037 6.3826 -2.4953 0.1900 0 8
11.0997 6.5619 -2.4953 0.1900 0 8
10.9928 6.7395 -2.4953 0.1900 0 8
10.8830 6.9153 -2.4953 0.1900 0 8
10.7705 7.0893 -2.4953 0.1900 0 8
10.6551 7.2615 -2.4953 0.1900 0 8
10.5370 7.4319 -2.4953 0.1900 0 8
10.4162 7.6003 -2.4953 0.1900 0 8
10.2927 7.7667 -2.4953 0.1900 0 8
10.1665 7.9312 -2.4953 0.1900 0 8
10.0378 8.0935 -2.4953 0.1900 0 8
9.9064 8.2538 -2.4953 0.1900 0 8
9.7724 8.4120 -2.4953 0.1900 0 8
10.2245 9.0913 -2.6477 0.1900 0 7
10.0770 9.2545 -2.6477 0.1900 0 7
9.9269 9.4153 -2.6477 0.1900 0 7
9.7743 9.5736 -2.6477 0.1900 0 7
9.6192 9.7295 -2.6477 0.1900 0 7
9.4615 9.8828 -2.6477 0.1900 0 7
9.3015 10.0336 -2.6477 0.1900 0 7
9.1390 10.1819 -2.6477 0.1900 0 7
8.9742 10.3274 -2.6477 0.1900 0 7
8.8070 10.4704 -2.6477 0.1900 0 7
8.6375 10.6106 -2.6477 0.1900 0 7
8.4659 10.7480 -2.6477 0.1900 0 7
8.2920 10.8827 -2.6477 0.1900 0 7
8.1160 11.0146 -2.6477 0.1900 0 7
7.9379 11.1436 -2.6477 0.1900 0 7
7.7578 11.2698 -2.6477 0.1900 0 7
7.5756 11.3930 -2.6477 0.1900 0 7
7.3915 11.5133 -2.6477 0.1900 0 6
7.2055 11.6306 -2.6477 0.1900 0 7
7.0176 11.7450 -2.6477 0.1900 0 7
6.8279 11.8562 -2.6477 0.1900 0 7
6.6365 11.9645 -2.6477 0.1900 0 7
6.4433 12.0696 -2.6477 0.1900 0 7
6.2485 12.1716 -2.6477 0.1900 0 7
6.0520 12.2705 -2.6477 0.1900 0 7
7.6777 -0.4678 -1.5550 0.9165 25 10
7.6393 -0.3423 -1.5459 0.9672 25 10
7.6224 -0.2188 -1.5415 0.9877 25 10
7.6104 -0.0961 -1.5386 0.9968 25 10
7.6065 0.0262 -1.5377 0.9974 25 10
7.6149 0.1487 -1.5397 0.9889 25 10
7.6279 0.2717 -1.5430 0.9868 25 10
7.6538 0.3958 -1.5493 0.9198 25 10
7.6990 0.5224 -1.5600 0.8768 25 10
7.7819 0.6538 -1.5787 0.7054 25 10
8.0382 0.8057 -1.6331 0.1863 25 10
12.2605 1.4283 -2.4953 0.1981 0 8
12.2359 1.6252 -2.4953 0.1981 0 8
12.2082 1.8216 -2.4953 0.1981 0 8
12.1774 2.0176 -2.4953 0.1981 0 8
12.1434 2.2131 -2.4953 0.1981 0 8
12.1062 2.4080 -2.4953 0.1981 0 8
12.0660 2.6023 -2.4953 0.1981 0 8
12.0226 2.7959 -2.4953 0.1981 0 8
11.9761 2.9888 -2.4953 0.1981 0 8
11.9265 3.1809 -2.4953 0.1981 0 8
11.8738 3.3722 -2.4953 0.1981 0 8
11.8181 3.5626 -2.4953 0.1981 0 8
11.7593 3.7521 -2.4953 0.1981 0 8
11.6975 3.9406 -2.4953 0.1981 0 8
11.6326 4.1281 -2.4953 0.1981 0 8
11.5648 4.3146 -2.4953 0.1981 0 8
11.4939 4.4999 -2.4953 0.1981 0 8
11.4201 4.6841 -2.4953 0.1981 0 8
11.3433 4.8671 -2.4953 0.1981 0 8
11.2636 5.0488 -2.4953 0.1981 0 8
11.1810 5.2291 -2.4953 0.1981 0 8
11.0955 5.4082 -2.4953 0.1981 0 8
11.0072 5.5858 -2.4953 0.1981 0 8
10.9160 5.7621 -2.4953 0.1981 0 8
10.8219 5.9368 -2.4953 0.1981 0 8
10.7251 6.1100 -2.4953 0.1981 0 8
10.6255 6.2816 -2.4953 0.1981 0 8
10.5232 6.4515 -2.4953 0.1981 0 8
10.4181 6.6199 -2.4953 0.1981 0 8
10.3104 6.7865 -2.4953 0.1981 0 8
10.1999 6.9513 -2.4953 0.1981 0 8
10.0869 7.1144 -2.4953 0.1981 0 8
9.9712 7.2756 -2.4953 0.1981 0 8
9.8530 7.4349 -2.4953 0.1981 0 8
9.7322 7.5923 -2.4953 0.1981 0 8
9.6089 7.7478 -2.4953 0.1981 0 8
9.4831 7.9012 -2.4953 0.1981 0 8
9.3549 8.0526 -2.4953 0.1981 0 8
9.2243 8.2020 -2.4953 0.1981 0 8
9.0912 8.3492 -2.4953 0.1981 0 8
9.5028 9.0130 -2.6477 0.1981 0 7
9.3568 9.1646 -2.6477 0.1981 0 7
9.2082 9.3138 -2.6477 0.1981 0 7
9.0573 9.4606 -2.6477 0.1981 0 7
8.9041 9.6050 -2.6477 0.1981 0 7
8.7486 9.7469 -2.6477 0.1981 0 7
8.5908 9.8862 -2.6477 0.1981 0 7
8.4307 10.0230 -2.6477 0.1981 0 7
8.2685 10.1573 -2.6477 0.1981 0 7
8.1042 10.2888 -2.6477 0.1981 0 7
7.9378 10.4178 -2.6477 0.1981 0 7
7.7693 10.5440 -2.6477 0.1981 0 7
7.5988 10.6675 -2.6477 0.1981 0 7
7.4264 10.7883 -2.6477 0.1981 0 7
7.2520 10.9063 -2.6477 0.1981 0 7
7.0758 11.0214 -2.6477 0.1981 0 7
6.8977 11.1338 -2.6477 0.1981 0 7
6.7178 11.2432 -2.6477 0.1981 0 7
6.5362 11.3497 -2.6477 0.1981 0 7
6.3530 11.4533 -2.6477 0.1981 0 6
6.1680 11.5539 -2.6477 0.1981 0 7
5.9815 11.6516 -2.6477 0.1981 0 7
5.7935 11.7462 -2.6477 0.1981 0 7
7.6552 -0.4664 -1.6169 0.9176 25 10
7.6212 -0.3415 -1.6083 0.9678 25 10
7.6046 -0.2183 -1.6039 0.9883 25 10
7.5953 -0.0959 -1.6014 0.9971 25 10
7.5914 0.0262 -1.6004 0.9977 25 10
7.5983 0.1484 -1.6022 0.9966 25 10
7.6102 0.2710 -1.6054 0.9874 25 10
7.6317 0.3947 -1.6111 0.9662 25 10
7.6767 0.5209 -1.6221 0.8778 25 10
7.7461 0.6508 -1.6388 0.7075 25 10
7.9963 0.8015 -1.6942 0.1870 25 10
11.7565 1.3696 -2.4953 0.2063 0 8
11.7330 1.5584 -2.4953 0.2063 0 8
11.7064 1.7467 -2.4953 0.2063 0 8
11.6769 1.9347 -2.4953 0.2063 0 8
11.6442 2.1221 -2.4953 0.2063 0 8
11.6086 2.3090 -2.4953 0.2063 0 8
11.5700 2.4953 -2.4953 0.2063 0 8
11.5284 2.6810 -2.4953 0.2063 0 8
11.4838 2.8659 -2.4953 0.2063 0 8
11.4363 3.0501 -2.4953 0.2063 0 8
11.3858 3.2336 -2.4953 0.2063 0 8
11.3323 3.4162 -2.4953 0.2063 0 8
11.2760 3.5979 -2.4953 0.2063 0 8
11.2167 3.7787 -2.4953 0.2063 0 8
11.1545 3.9585 -2.4953 0.2063 0 8
11.0894 4.1373 -2.4953 0.2063 0 8
11.0215 4.3150 -2.4953 0.2063 0 8
10.9507 4.4916 -2.4953 0.2063 0 8
10.8771 4.6670 -2.4953 0.2063 0 8
10.8007 4.8412 -2.4953 0.2063 0 8
10.7215 5.0142 -2.4953 0.2063 0 8
10.6395 5.1859 -2.4953 0.2063 0 8
10.5547 5.3563 -2.4953 0.2063 0 8
10.4673 5.5252 -2.4953 0.2063 0 8
10.3771 5.6928 -2.4953 0.2063 0 8
10.2843 5.8588 -2.4953 0.2063 0 8
10.1888 6.0234 -2.4953 0.2063 0 8
10.0906 6.1864 -2.4953 0.2063 0 8
9.9899 6.3478 -2.4953 0.2063 0 8
9.8866 6.5075 -2.4953 0.2063 0 8
9.7807 6.6656 -2.4953 0.2063 0 8
9.6723 6.8219 -2.4953 0.2063 0 8
9.5614 6.9765 -2.4953 0.2063 0 8
9.4480 7.1293 -2.4953 0.2063 0 8
9.3322 7.2803 -2.4953 0.2063 0 8
9.2140 7.4293 -2.4953 0.2063 0 8
9.0934 7.5765 -2.4953 0.2063 0 8
8.9704 7.7216 -2.4953 0.2063 0 8
8.8451 7.8648 -2.4953 0.2063 0 8
8.7176 8.0060 -2.4953 0.2063 0 8
8.5877 8.1451 -2.4953 0.2063 0 8
8.4557 8.2821 -2.4953 0.2063 0 8
8.3215 8.4169 -2.4953 0.2063 0 8
8.6850 9.0718 -2.6477 0.2063 0 7
8.5381 9.2102 -2.6477 0.2063 0 7
8.3890 9.3462 -2.6477 0.2063 0 7
8.2376 9.4799 -2.6477 0.2063 0 7
8.0842 9.6111 -2.6477 0.2063 0 7
7.9287 9.7398 -2.6477 0.2063 0 7
7.7711 9.8659 -2.6477 0.2063 0 7
7.6115 9.9896 -2.6477 0.2063 0 7
7.4500 10.1106 -2.6477 0.2063 0 7
7.2865 10.2291 -2.6477 0.2063 0 7
7.1211 10.3449 -2.6477 0.2063 0 7
6.9539 10.4580 -2.6477 0.2063 0 7
6.7849 10.5684 -2.6477 0.2063 0 7
6.6142 10.6761 -2.6477 0.2063 0 7
6.4417 10.7811 -2.6477 0.2063 0 7
6.2676 10.8832 -2.6477 0.2063 0 7
6.0918 10.9825 -2.6477 0.2063 0 7
5.9145 11.0790 -2.6477 0.2063 0 7
5.7357 11.1727 -2.6477 0.2063 0 7
5.5553 11.2634 -2.6477 0.2063 0 7
7.6327 -0.4650 -1.6786 0.9187 25 10
7.6031 -0.3407 -1.6707 0.9684 25 10
7.5870 -0.2178 -1.6662 0.9961 25 10
7.5802 -0.0957 -1.6641 0.9973 25 10
7.5763 0.0261 -1.6631 0.9979 25 10
7.5831 0.1481 -1.6649 0.9968 25 10
7.5924 0.2704 -1.6677 0.9879 25 10
7.6135 0.3938 -1.6735 0.9667 25 10
7.6545 0.5194 -1.6841 0.8788 25 10
7.7105 0.6478 -1.6985 0.7095 25 10
7.9547 0.7973 -1.7549 0.1876 25 10
11.2908 1.3153 -2.4953 0.2144 0 8
11.2682 1.4966 -2.4953 0.2144 0 8
11.2427 1.6775 -2.4953 0.2144 0 8
11.2143 1.8580 -2.4953 0.2144 0 8
11.1830 2.0381 -2.4953 0.2144 0 8
11.1488 2.2176 -2.4953 0.2144 0 8
11.1117 2.3965 -2.4953 0.2144 0 8
11.0717 2.5748 -2.4953 0.2144 0 8
11.0289 2.7524 -2.4953 0.2144 0 8
10.9832 2.9293 -2.4953 0.2144 0 8
10.9347 3.1055 -2.4953 0.2144 0 8
10.8834 3.2808 -2.4953 0.2144 0 8
10.8293 3.4554 -2.4953 0.2144 0 8
10.7723 3.6290 -2.4953 0.2144 0 8
10.7126 3.8017 -2.4953 0.2144 0 8
10.6501 3.9734 -2.4953 0.2144 0 8
10.5849 4.1440 -2.4953 0.2144 0 8
10.5169 4.3136 -2.4953 0.2144 0 8
10.4462 4.4821 -2.4953 0.2144 0 8
10.3728 4.6495 -2.4953 0.2144 0 8
10.2967 4.8156 -2.4953 0.2144 0 8
10.2180 4.9805 -2.4953 0.2144 0 8
10.1366 5.1441 -2.4953 0.2144 0 8
10.0526 5.3063 -2.4953 0.2144 0 8
9.9660 5.4672 -2.4953 0.2144 0 8
9.8769 5.6267 -2.4953 0.2144 0 8
9.7851 5.7848 -2.4953 0.2144 0 8
9.6909 5.9413 -2.4953 0.2144 0 8
9.5941 6.0963 -2.4953 0.2144 0 8
9.4949 6.2497 -2.4953 0.2144 0 8
9.3932 6.4015 -2.4953 0.2144 0 8
9.2891 6.5517 -2.4953 0.2144 0 8
9.1826 6.7001 -2.4953 0.2144 0 8
9.0737 6.8469 -2.4953 0.2144 0 8
8.9625 6.9918 -2.4953 0.2144 0 8
8.8490 7.1350 -2.4953 0.2144 0 8
8.7331 7.2763 -2.4953 0.2144 0 8
8.6150 7.4158 -2.4953 0.2144 0 8
8.4947 7.5533 -2.4953 0.2144 0 8
8.3722 7.6888 -2.4953 0.2144 0 8
8.2475 7.8224 -2.4953 0.2144 0 8
8.1208 7.9540 -2.4953 0.2144 0 8
7.9918 8.0835 -2.4953 0.2144 0 8
7.8609 8.2109 -2.4953 0.2144 0 8
7.7279 8.3362 -2.4953 0.2144 0 8
7.5929 8.4593 -2.4953 0.2144 0 8
7.9113 9.1043 -2.6477 0.2144 0 7
7.7640 9.2303 -2.6477 0.2144 0 7
7.6146 9.3539 -2.6477 0.2144 0 7
7.4632 9.4751 -2.6477 0.2144 0 7
7.3100 9.5939 -2.6477 0.2144 0 7
7.1548 9.7101 -2.6477 0.2144 0 7
6.9978 9.8239 -2.6477 0.2144 0 7
6.8390 9.9351 -2.6477 0.2144 0 7
6.6784 10.0437 -2.6477 0.2144 0 7
6.5161 10.1498 -2.6477 0.2144 0 7
6.3521 10.2532 -2.6477 0.2144 0 7
6.1865 10.3540 -2.6477 0.2144 0 7
6.0193 10.4521 -2.6477 0.2144 0 7
5.8505 10.5475 -2.6477 0.2144 0 7
5.6802 10.6402 -2.6477 0.2144 0 7
5.5085 10.7301 -2.6477 0.2144 0 7
5.3353 10.8172 -2.6477 0.2144 0 7
7.6102 -0.4636 -1.7402 0.9196 25 10
7.5851 -0.3398 -1.7330 0.9689 25 10
7.5719 -0.2174 -1.7289 0.9962 25 10
7.5651 -0.0955 -1.7268 0.9974 25 10
7.5612 0.0261 -1.7258 0.9980 25 10
7.5680 0.1478 -1.7277 0.9969 25 10
7.5748 0.2698 -1.7300 0.9956 25 10
7.5954 0.3928 -1.7359 0.9672 25 10
7.6323 0.5179 -1.7460 0.8797 25 10
7.6874 0.6459 -1.7608 0.8723 25 10
7.9257 0.7944 -1.8181 0.3005 25 10
10.8591 1.2650 -2.4953 0.2225 0 8
10.8373 1.4394 -2.4953 0.2225 0 8
10.8128 1.6134 -2.4953 0.2225 0 8
10.7855 1.7870 -2.4953 0.2225 0 8
10.7553 1.9601 -2.4953 0.2225 0 8
10.7224 2.1328 -2.4953 0.2225 0 8
10.6868 2.3048 -2.4953 0.2225 0 8
10.6484 2.4763 -2.4953 0.2225 0 8
10.6072 2.6471 -2.4953 0.2225 0 8
10.5633 2.8173 -2.4953 0.2225 0 8
10.5166 2.9867 -2.4953 0.2225 0 8
10.4672 3.1554 -2.4953 0.2225 0 8
10.4152 3.3232 -2.4953 0.2225 0 8
10.3604 3.4902 -2.4953 0.2225 0 8
10.3030 3.6563 -2.4953 0.2225 0 8
10.2429 3.8214 -2.4953 0.2225 0 8
10.1801 3.9856 -2.4953 0.2225 0 8
10.1147 4.1487 -2.4953 0.2225 0 8
10.0467 4.3107 -2.4953 0.2225 0 8
9.9762 4.4717 -2.4953 0.2225 0 8
9.9030 4.6314 -2.4953 0.2225 0 8
9.8273 4.7900 -2.4953 0.2225 0 8
9.7490 4.9474 -2.4953 0.2225 0 8
9.6682 5.1034 -2.4953 0.2225 0 8
9.5849 5.2582 -2.4953 0.2225 0 8
9.4992 5.4116 -2.4953 0.2225 0 8
9.4110 5.5636 -2.4953 0.2225 0 8
9.3203 5.7141 -2.4953 0.2225 0 8
9.2273 5.8632 -2.4953 0.2225 0 8
9.1318 6.0107 -2.4953 0.2225 0 8
9.0340 6.1568 -2.4953 0.2225 0 8
8.9339 6.3012 -2.4953 0.2225 0 8
8.8315 6.4439 -2.4953 0.2225 0 8
8.7268 6.5851 -2.4953 0.2225 0 8
8.6198 6.7245 -2.4953 0.2225 0 8
8.5106 6.8622 -2.4953 0.2225 0 8
8.3992 6.9981 -2.4953 0.2225 0 8
8.2856 7.1322 -2.4953 0.2225 0 8
8.1699 7.2645 -2.4953 0.2225 0 8
8.0521 7.3948 -2.4953 0.2225 0 8
7.9322 7.5233 -2.4953 0.2225 0 8
7.8102 7.6498 -2.4953 0.2225 0 8
7.6862 7.7744 -2.4953 0.2225 0 8
7.5603 7.8969 -2.4953 0.2225 0 8
7.4324 8.0174 -2.4953 0.2225 0 8
7.3026 8.1359 -2.4953 0.2225 0 8
7.1708 8.2522 -2.4953 0.2225 0 8
7.0373 8.3664 -2.4953 0.2225 0 8
7.3234 8.9963 -2.6477 0.2225 0 7
7.1779 9.1128 -2.6477 0.2225 0 7
7.0305 9.2270 -2.6477 0.2225 0 7
6.8812 9.3388 -2.6477 0.2225 0 7
6.7302 9.4482 -2.6477 0.2225 0 7
6.5775 9.5552 -2.6477 0.2225 0 7
6.4231 9.6597 -2.6477 0.2225 0 7
6.2670 9.7617 -2.6477 0.2225 0 7
6.1093 9.8611 -2.6477 0.2225 0 7
5.9500 9.9581 -2.6477 0.2225 0 7
5.7891 10.0524 -2.6477 0.2225 0 7
5.6268 10.1442 -2.6477 0.2225 0 7
5.4630 10.2333 -2.6477 0.2225 0 7
5.2978 10.3198 -2.6477 0.2225 0 7
5.1313 10.4036 -2.6477 0.2225 0 7
7.5995 -0.4630 -1.8045 0.9191 25 10
7.5732 -0.3393 -1.7967 0.9395 25 10
7.5611 -0.2171 -1.7928 0.9670 25 10
7.5538 -0.0954 -1.7904 0.9682 25 10
7.5497 0.0260 -1.7893 0.9688 25 10
7.5569 0.1476 -1.7914 0.9677 25 10
7.5642 0.2694 -1.7939 0.9664 25 10
7.5843 0.3922 -1.7999 0.9378 25 10
7.6207 0.5171 -1.8103 0.8577 25 10
7.6762 0.6449 -1.8257 0.8504 25 10
7.9210 0.7939 -1.8867 0.4532 25 10
10.4577 1.2182 -2.4953 0.2306 0 8
10.4367 1.3862 -2.4953 0.2306 0 8
10.4131 1.5538 -2.4953 0.2306 0 8
10.3868 1.7209 -2.4953 0.2306 0 8
10.3578 1.8877 -2.4953 0.2306 0 8
10.3261 2.0539 -2.4953 0.2306 0 8
10.2917 2.2196 -2.4953 0.2306 0 8
10.2547 2.3848 -2.4953 0.2306 0 8
10.2151 2.5493 -2.4953 0.2306 0 8
10.1728 2.7132 -2.4953 0.2306 0 8
10.1279 2.8763 -2.4953 0.2306 0 8
10.0803 3.0387 -2.4953 0.2306 0 8
10.0302 3.2004 -2.4953 0.2306 0 8
9.9774 3.3612 -2.4953 0.2306 0 8
9.9221 3.5211 -2.4953 0.2306 0 8
9.8642 3.6802 -2.4953 0.2306 0 8
9.8038 3.8382 -2.4953 0.2306 0 8
9.7408 3.9953 -2.4953 0.2306 0 8
9.6754 4.1514 -2.4953 0.2306 0 8
9.6074 4.3064 -2.4953 0.2306 0 8
9.5369 4.4602 -2.4953 0.2306 0 8
9.4640 4.6130 -2.4953 0.2306 0 8
9.3886 4.7645 -2.4953 0.2306 0 8
9.3108 4.9148 -2.4953 0.2306 0 8
9.2306 5.0638 -2.4953 0.2306 0 8
9.1480 5.2115 -2.4953 0.2306 0 8
9.0631 5.3579 -2.4953 0.2306 0 8
8.9758 5.5029 -2.4953 0.2306 0 8
8.8862 5.6464 -2.4953 0.2306 0 8
8.7943 5.7886 -2.4953 0.2306 0 8
8.7001 5.9292 -2.4953 0.2306 0 8
8.6037 6.0682 -2.4953 0.2306 0 8
8.5050 6.2057 -2.4953 0.2306 0 8
8.4042 6.3417 -2.4953 0.2306 0 8
8.3012 6.4759 -2.4953 0.2306 0 8
8.1960 6.6085 -2.4953 0.2306 0 8
8.0887 6.7394 -2.4953 0.2306 0 8
7.9793 6.8686 -2.4953 0.2306 0 8
7.8679 6.9959 -2.4953 0.2306 0 8
7.7544 7.1215 -2.4953 0.2306 0 8
7.6390 7.2452 -2.4953 0.2306 0 8
7.5215 7.3671 -2.4953 0.2306 0 8
7.4021 7.4870 -2.4953 0.2306 0 8
7.2808 7.6050 -2.4953 0.2306 0 8
7.1576 7.7211 -2.4953 0.2306 0 8
7.0326 7.8351 -2.4953 0.2306 0 8
6.9058 7.9471 -2.4953 0.2306 0 8
6.7771 8.0571 -2.4953 0.2306 0 8
6.6467 8.1650 -2.4953 0.2306 0 8
6.5146 8.2708 -2.4953 0.2306 0 8
6.3809 8.3744 -2.4953 0.2306 0 8
6.6269 8.9936 -2.6477 0.2306 0 7
6.4815 9.0990 -2.6477 0.2306 0 7
6.3344 9.2020 -2.6477 0.2306 0 7
6.1856 9.3026 -2.6477 0.2306 0 7
6.0353 9.4008 -2.6477 0.2306 0 7
5.8834 9.4966 -2.6477 0.2306 0 7
5.7300 9.5900 -2.6477 0.2306 0 7
5.5751 9.6808 -2.6477 0.2306 0 7
5.4188 9.7692 -2.6477 0.2306 0 7
5.2611 9.8550 -2.6477 0.2306 0 7
5.1020 9.9383 -2.6477 0.2306 0 7
4.9416 10.0190 -2.6477 0.2306 0 7
7.6026 -0.4632 -1.8722 0.9169 25 10
7.5742 -0.3394 -1.8636 0.9375 25 10
7.5617 -0.2171 -1.8594 0.9650 25 10
7.5573 -0.0954 -1.8577 0.9271 25 10
7.5593 0.0261 -1.8581 0.9269 25 10
7.5576 0.1476 -1.8580 0.9657 25 10
7.5649 0.2694 -1.8606 0.9643 25 10
7.5853 0.3923 -1.8670 0.9358 25 10
7.6234 0.5173 -1.8781 0.8557 25 10
7.6866 0.6458 -1.8960 0.7648 25 10
7.9063 0.7924 -1.9531 0.4532 25 10
10.0834 1.1747 -2.4953 0.2387 0 8
10.0633 1.3366 -2.4953 0.2387 0 8
10.0405 1.4982 -2.4953 0.2387 0 8
10.0151 1.6594 -2.4953 0.2387 0 8
9.9871 1.8201 -2.4953 0.2387 0 8
9.9566 1.9804 -2.4953 0.2387 0 8
9.9235 2.1402 -2.4953 0.2387 0 8
9.8878 2.2994 -2.4953 0.2387 0 8
9.8495 2.4581 -2.4953 0.2387 0 8
9.8088 2.6161 -2.4953 0.2387 0 8
9.7654 2.7734 -2.4953 0.2387 0 8
9.7196 2.9300 -2.4953 0.2387 0 8
9.6713 3.0859 -2.4953 0.2387 0 8
9.6204 3.2409 -2.4953 0.2387 0 8
9.5671 3.3951 -2.4953 0.2387 0 8
9.5113 3.5485 -2.4953 0.2387 0 8
9.4530 3.7009 -2.4953 0.2387 0 8
9.3923 3.8524 -2.4953 0.2387 0 8
9.3292 4.0028 -2.4953 0.2387 0 8
9.2636 4.1523 -2.4953 0.2387 0 8
9.1957 4.3006 -2.4953 0.2387 0 8
9.1254 4.4479 -2.4953 0.2387 0 8
9.0527 4.5940 -2.4953 0.2387 0 8
8.9777 4.7389 -2.4953 0.2387 0 8
8.9003 4.8826 -2.4953 0.2387 0 8
8.8207 5.0250 -2.4953 0.2387 0 8
8.7388 5.1662 -2.4953 0.2387 0 8
8.6546 5.3060 -2.4953 0.2387 0 8
8.5682 5.4444 -2.4953 0.2387 0 8
8.4796 5.5814 -2.4953 0.2387 0 8
8.3888 5.7170 -2.4953 0.2387 0 8
8.2958 5.8511 -2.4953 0.2387 0 8
8.2007 5.9837 -2.4953 0.2387 0 8
8.1034 6.1147 -2.4953 0.2387 0 8
8.0041 6.2442 -2.4953 0.2387 0 8
7.9027 6.3720 -2.4953 0.2387 0 8
7.7993 6.4982 -2.4953 0.2387 0 8
7.6938 6.6228 -2.4953 0.2387 0 8
7.5864 6.7456 -2.4953 0.2387 0 8
7.4770 6.8667 -2.4953 0.2387 0 8
7.3656 6.9859 -2.4953 0.2387 0 8
7.2524 7.1034 -2.4953 0.2387 0 8
7.1373 7.2191 -2.4953 0.2387 0 8
7.0203 7.3329 -2.4953 0.2387 0 8
6.9015 7.4448 -2.4953 0.2387 0 8
6.7810 7.5547 -2.4953 0.2387 0 8
6.6587 7.6628 -2.4953 0.2387 0 8
6.5346 7.7688 -2.4953 0.2387 0 8
6.4089 7.8728 -2.4953 0.2387 0 8
6.2815 7.9748 -2.4953 0.2387 0 8
6.1525 8.0748 -2.4953 0.2387 0 8
6.0219 8.1726 -2.4953 0.2387 0 8
5.8898 8.2684 -2.4953 0.2387 0 8
5.7561 8.3620 -2.4953 0.2387 0 8
5.6210 8.4534 -2.4953 0.2387 0 8
5.8193 9.0644 -2.6477 0.2387 0 7
5.6729 9.1568 -2.6477 0.2387 0 7
5.5250 9.2468 -2.6477 0.2387 0 7
5.3756 9.3344 -2.6477 0.2387 0 7
5.2249 9.4196 -2.6477 0.2387 0 7
5.0728 9.5024 -2.6477 0.2387 0 7
4.9194 9.5827 -2.6477 0.2387 0 7
4.7648 9.6605 -2.6477 0.2387 0 7
7.6058 -0.4634 -1.9403 0.9146 25 10
7.5754 -0.3394 -1.9309 0.9190 25 10
7.5638 -0.2171 -1.9268 0.9240 25 10
7.5673 -0.0955 -1.9270 0.9239 25 10
7.5693 0.0261 -1.9274 0.9237 25 10
7.5658 0.1477 -1.9269 0.9240 25 10
7.5655 0.2694 -1.9276 0.9623 25 10
7.5884 0.3925 -1.9348 0.9171 25 10
7.6260 0.5174 -1.9463 0.8536 25 10
7.7000 0.6469 -1.9676 0.7618 25 10
7.9060 0.7924 -2.0232 0.3971 25 10
9.7337 1.1339 -2.4953 0.2468 0 8
9.7142 1.2902 -2.4953 0.2468 0 8
9.6922 1.4462 -2.4953 0.2468 0 8
9.6677 1.6018 -2.4953 0.2468 0 8
9.6407 1.7570 -2.4953 0.2468 0 8
9.6113 1.9117 -2.4953 0.2468 0 8
9.5793 2.0660 -2.4953 0.2468 0 8
9.5448 2.2197 -2.4953 0.2468 0 8
9.5079 2.3728 -2.4953 0.2468 0 8
9.4686 2.5253 -2.4953 0.2468 0 8
9.4267 2.6772 -2.4953 0.2468 0 8
9.3825 2.8284 -2.4953 0.2468 0 8
9.3358 2.9788 -2.4953 0.2468 0 8
9.2867 3.1285 -2.4953 0.2468 0 8
9.2352 3.2774 -2.4953 0.2468 0 8
9.1814 3.4254 -2.4953 0.2468 0 8
9.1251 3.5725 -2.4953 0.2468 0 8
9.0665 3.7188 -2.4953 0.2468 0 8
9.0056 3.8640 -2.4953 0.2468 0 8
8.9423 4.0083 -2.4953 0.2468 0 8
8.8767 4.1515 -2.4953 0.2468 0 8
8.8089 4.2936 -2.4953 0.2468 0 8
8.7387 4.4347 -2.4953 0.2468 0 8
8.6663 4.5746 -2.4953 0.2468 0 8
8.5916 4.7133 -2.4953 0.2468 0 8
8.5148 4.8508 -2.4953 0.2468 0 8
8.4357 4.9870 -2.4953 0.2468 0 8
8.3544 5.1219 -2.4953 0.2468 0 8
8.2710 5.2556 -2.4953 0.2468 0 8
8.1855 5.3878 -2.4953 0.2468 0 8
8.0978 5.5187 -2.4953 0.2468 0 8
8.0081 5.6482 -2.4953 0.2468 0 8
7.9163 5.7761 -2.4953 0.2468 0 8
7.8224 5.9026 -2.4953 0.2468 0 8
7.7265 6.0276 -2.4953 0.2468 0 8
7.6286 6.1510 -2.4953 0.2468 0 8
7.5288 6.2729 -2.4953 0.2468 0 8
7.4270 6.3931 -2.4953 0.2468 0 8
7.3232 6.5116 -2.4953 0.2468 0 8
7.2176 6.6285 -2.4953 0.2468 0 8
7.1101 6.7437 -2.4953 0.2468 0 8
7.0008 6.8571 -2.4953 0.2468 0 8
6.8897 6.9687 -2.4953 0.2468 0 8
6.7768 7.0786 -2.4953 0.2468 0 8
6.6622 7.1866 -2.4953 0.2468 0 8
6.5458 7.2927 -2.4953 0.2468 0 8
6.4277 7.3970 -2.4953 0.2468 0 8
6.3080 7.4994 -2.4953 0.2468 0 8
6.1866 7.5998 -2.4953 0.2468 0 8
6.0637 7.6982 -2.4953 0.2468 0 8
5.9391 7.7947 -2.4953 0.2468 0 8
5.8131 7.8892 -2.4953 0.2468 0 8
5.6855 7.9816 -2.4953 0.2468 0 8
5.5565 8.0719 -2.4953 0.2468 0 8
5.4260 8.1602 -2.4953 0.2468 0 8
5.2942 8.2464 -2.4953 0.2468 0 8
5.1609 8.3304 -2.4953 0.2468 0 8
5.0264 8.4123 -2.4953 0.2468 0 8
5.1892 9.0107 -2.6477 0.2468 0 7
5.0437 9.0929 -2.6477 0.2468 0 7
4.8969 9.1728 -2.6477 0.2468 0 7
4.7488 9.2503 -2.6477 0.2468 0 7
4.5995 9.3255 -2.6477 0.2468 0 7
7.6168 -0.4640 -2.0107 0.8130 25 10
7.5842 -0.3398 -2.0005 0.8464 25 10
7.5761 -0.2175 -1.9971 0.8886 25 10
7.5799 -0.0957 -1.9975 0.8884 25 10
7.5804 0.0261 -1.9974 0.9288 25 10
7.5782 0.1480 -1.9973 0.8885 25 10
7.5746 0.2698 -1.9972 0.8886 25 10
7.5978 0.3929 -2.0047 0.8446 25 10
7.6448 0.5187 -2.0190 0.7225 25 10
7.7226 0.6488 -2.0421 0.7201 25 10
7.9259 0.7944 -2.0989 0.5415 25 10
9.4061 1.0957 -2.4953 0.2548 0 8
9.3873 1.2468 -2.4953 0.2548 0 8
9.3660 1.3975 -2.4953 0.2548 0 8
9.3424 1.5479 -2.4953 0.2548 0 8
9.3163 1.6979 -2.4953 0.2548 0 8
9.2878 1.8474 -2.4953 0.2548 0 8
9.2569 1.9964 -2.4953 0.2548 0 8
9.2236 2.1450 -2.4953 0.2548 0 8
9.1879 2.2930 -2.4953 0.2548 0 8
9.1499 2.4403 -2.4953 0.2548 0 8
9.1095 2.5871 -2.4953 0.2548 0 8
9.0667 2.7332 -2.4953 0.2548 0 8
9.0216 2.8786 -2.4953 0.2548 0 8
8.9742 3.0232 -2.4953 0.2548 0 8
8.9244 3.1671 -2.4953 0.2548 0 8
8.8723 3.3101 -2.4953 0.2548 0 8
8.8180 3.4523 -2.4953 0.2548 0 8
8.7614 3.5936 -2.4953 0.2548 0 8
8.7025 3.7340 -2.4953 0.2548 0 8
8.6413 3.8733 -2.4953 0.2548 0 8
8.5780 4.0117 -2.4953 0.2548 0 8
8.5124 4.1491 -2.4953 0.2548 0 8
8.4446 4.2854 -2.4953 0.2548 0 8
8.3746 4.4206 -2.4953 0.2548 0 8
8.3025 4.5546 -2.4953 0.2548 0 8
8.2282 4.6875 -2.4953 0.2548 0 8
8.1518 4.8191 -2.4953 0.2548 0 8
8.0733 4.9495 -2.4953 0.2548 0 8
7.9926 5.0787 -2.4953 0.2548 0 8
7.9100 5.2065 -2.4953 0.2548 0 8
7.8253 5.3330 -2.4953 0.2548 0 8
7.7385 5.4581 -2.4953 0.2548 0 8
7.6498 5.5817 -2.4953 0.2548 0 8
7.5591 5.7040 -2.4953 0.2548 0 8
7.4664 5.8247 -2.4953 0.2548 0 8
7.3719 5.9440 -2.4953 0.2548 0 8
7.2754 6.0617 -2.4953 0.2548 0 8
7.1770 6.1779 -2.4953 0.2548 0 8
7.0768 6.2925 -2.4953 0.2548 0 8
6.9747 6.4054 -2.4953 0.2548 0 8
6.8708 6.5167 -2.4953 0.2548 0 8
6.7652 6.6263 -2.4953 0.2548 0 8
6.6578 6.7342 -2.4953 0.2548 0 8
6.5487 6.8403 -2.4953 0.2548 0 8
6.4379 6.9447 -2.4953 0.2548 0 8
6.3255 7.0473 -2.4953 0.2548 0 8
6.2114 7.1480 -2.4953 0.2548 0 8
6.0957 7.2470 -2.4953 0.2548 0 8
5.9784 7.3440 -2.4953 0.2548 0 8
5.8596 7.4391 -2.4953 0.2548 0 8
5.7392 7.5324 -2.4953 0.2548 0 8
5.6174 7.6236 -2.4953 0.2548 0 8
5.4942 7.7129 -2.4953 0.2548 0 8
5.3695 7.8003 -2.4953 0.2548 0 8
5.2434 7.8856 -2.4953 0.2548 0 8
5.1160 7.9688 -2.4953 0.2548 0 8
4.9872 8.0500 -2.4953 0.2548 0 8
4.8572 8.1292 -2.4953 0.2548 0 8
4.7259 8.2062 -2.4953 0.2548 0 8
4.5934 8.2811 -2.4953 0.2548 0 8
4.4597 8.3538 -2.4953 0.2548 0 8
4.3248 8.4245 -2.4953 0.2548 0 8
4.4447 9.0116 -2.6477 0.2548 0 7
7.6385 -0.4654 -2.0846 0.8089 25 10
7.6021 -0.3406 -2.0730 0.8425 25 10
7.5921 -0.2180 -2.0690 0.8847 25 10
7.5915 -0.0958 -2.0682 0.9253 25 10
7.5888 0.0262 -2.0673 0.9257 25 10
7.5936 0.1483 -2.0690 0.9249 25 10
7.5905 0.2703 -2.0690 0.8847 25 10
7.6167 0.3939 -2.0776 0.8116 25 10
7.6682 0.5203 -2.0937 0.7187 25 10
7.7529 0.6514 -2.1194 0.4038 25 10
7.9389 0.7957 -2.1734 0.5394 25 10
9.0985 1.0599 -2.4953 0.2628 0 8
9.0803 1.2060 -2.4953 0.2628 0 8
9.0597 1.3518 -2.4953 0.2628 0 8
9.0368 1.4973 -2.4953 0.2628 0 8
9.0116 1.6423 -2.4953 0.2628 0 8
8.9840 1.7870 -2.4953 0.2628 0 8
8.9542 1.9312 -2.4953 0.2628 0 8
8.9220 2.0748 -2.4953 0.2628 0 8
8.8875 2.2180 -2.4953 0.2628 0 8
8.8507 2.3605 -2.4953 0.2628 0 8
8.8116 2.5025 -2.4953 0.2628 0 8
8.7702 2.6438 -2.4953 0.2628 0 8
8.7266 2.7844 -2.4953 0.2628 0 8
8.6807 2.9244 -2.4953 0.2628 0 8
8.6326 3.0635 -2.4953 0.2628 0 8
8.5822 3.2019 -2.4953 0.2628 0 8
8.5296 3.3394 -2.4953 0.2628 0 8
8.4749 3.4761 -2.4953 0.2628 0 8
8.4179 3.6118 -2.4953 0.2628 0 8
8.3588 3.7467 -2.4953 0.2628 0 8
8.2975 3.8806 -2.4953 0.2628 0 8
8.2340 4.0134 -2.4953 0.2628 0 8
8.1684 4.1453 -2.4953 0.2628 0 8
8.1007 4.2760 -2.4953 0.2628 0 8
8.0310 4.4057 -2.4953 0.2628 0 8
7.9591 4.5342 -2.4953 0.2628 0 8
7.8852 4.6616 -2.4953 0.2628 0 8
7.8093 4.7877 -2.4953 0.2628 0 8
7.7313 4.9126 -2.4953 0.2628 0 8
7.6513 5.0362 -2.4953 0.2628 0 8
7.5694 5.1586 -2.4953 0.2628 0 8
7.4855 5.2796 -2.4953 0.2628 0 8
7.3997 5.3992 -2.4953 0.2628 0 8
7.3119 5.5175 -2.4953 0.2628 0 8
7.2223 5.6343 -2.4953 0.2628 0 8
7.1308 5.7496 -2.4953 0.2628 0 8
7.0375 5.8635 -2.4953 0.2628 0 8
6.9423 5.9759 -2.4953 0.2628 0 8
6.8453 6.0867 -2.4953 0.2628 0 8
6.7466 6.1959 -2.4953 0.2628 0 8
6.6462 6.3036 -2.4953 0.2628 0 8
6.5440 6.4096 -2.4953 0.2628 0 8
6.4401 6.5139 -2.4953 0.2628 0 8
6.3346 6.6166 -2.4953 0.2628 0 8
6.2274 6.7176 -2.4953 0.2628 0 8
6.1186 6.8168 -2.4953 0.2628 0 8
6.0083 6.9143 -2.4953 0.2628 0 8
5.8963 7.0100 -2.4953 0.2628 0 8
5.7829 7.1038 -2.4953 0.2628 0 8
5.6680 7.1959 -2.4953 0.2628 0 8
5.5516 7.2861 -2.4953 0.2628 0 8
5.4337 7.3743 -2.4953 0.2628 0 8
5.3145 7.4607 -2.4953 0.2628 0 8
5.1939 7.5452 -2.4953 0.2628 0 8
5.0719 7.6277 -2.4953 0.2628 0 8
4.9487 7.7082 -2.4953 0.2628 0 8
4.8241 7.7868 -2.4953 0.2628 0 8
4.6984 7.8633 -2.4953 0.2628 0 8
4.5714 7.9378 -2.4953 0.2628 0 8
4.4432 8.0103 -2.4953 0.2628 0 8
4.3138 8.0807 -2.4953 0.2628 0 8
4.1834 8.1490 -2.4953 0.2628 0 8
4.0519 8.2152 -2.4953 0.2628 0 8
7.6604 -0.4667 -2.1593 0.8047 25 10
7.6222 -0.3415 -2.1467 0.8095 25 10
7.6049 -0.2183 -2.1406 0.9212 25 10
7.6000 -0.0960 -2.1385 0.9221 25 10
7.5973 0.0262 -2.1375 0.9225 25 10
7.6021 0.1484 -2.1393 0.9218 25 10
7.6067 0.2709 -2.1415 0.8808 25 10
7.6385 0.3951 -2.1520 0.8075 25 10
7.6915 0.5219 -2.1690 0.7207 25 10
8.3311 0.7000 -2.3523 0.6471 25 10
8.3340 0.8353 -2.3566 0.6459 25 10
8.8091 1.0262 -2.4953 0.2708 0 8
8.7915 1.1677 -2.4953 0.2708 0 8
8.7716 1.3088 -2.4953 0.2708 0 8
8.7494 1.4497 -2.4953 0.2708 0 8
8.7250 1.5901 -2.4953 0.2708 0 8
8.6983 1.7301 -2.4953 0.2708 0 8
8.6694 1.8697 -2.4953 0.2708 0 8
8.6382 2.0088 -2.4953 0.2708 0 8
8.6048 2.1474 -2.4953 0.2708 0 8
8.5692 2.2855 -2.4953 0.2708 0 8
8.5313 2.4229 -2.4953 0.2708 0 8
8.4913 2.5597 -2.4953 0.2708 0 8
8.4490 2.6959 -2.4953 0.2708 0 8
8.4046 2.8313 -2.4953 0.2708 0 8
8.3580 2.9661 -2.4953 0.2708 0 8
8.3093 3.1000 -2.4953 0.2708 0 8
8.2584 3.2332 -2.4953 0.2708 0 8
8.2053 3.3655 -2.4953 0.2708 0 8
8.1502 3.4970 -2.4953 0.2708 0 8
8.0929 3.6275 -2.4953 0.2708 0 8
8.0336 3.7571 -2.4953 0.2708 0 8
7.9721 3.8858 -2.4953 0.2708 0 8
7.9086 4.0134 -2.4953 0.2708 0 8
7.8431 4.1400 -2.4953 0.2708 0 8
7.7756 4.2656 -2.4953 0.2708 0 8
7.7060 4.3900 -2.4953 0.2708 0 8
7.6344 4.5133 -2.4953 0.2708 0 8
7.5609 4.6354 -2.4953 0.2708 0 8
7.4854 4.7564 -2.4953 0.2708 0 8
7.4080 4.8761 -2.4953 0.2708 0 8
7.3286 4.9945 -2.4953 0.2708 0 8
7.2474 5.1117 -2.4953 0.2708 0 8
7.1643 5.2275 -2.4953 0.2708 0 8
7.0794 5.3420 -2.4953 0.2708 0 8
6.9926 5.4551 -2.4953 0.2708 0 8
6.9040 5.5668 -2.4953 0.2708 0 8
6.8136 5.6770 -2.4953 0.2708 0 8
6.7215 5.7858 -2.4953 0.2708 0 8
6.6276 5.8931 -2.4953 0.2708 0 8
6.5321 5.9989 -2.4953 0.2708 0 8
6.4348 6.1031 -2.4953 0.2708 0 8
6.3359 6.2057 -2.4953 0.2708 0 8
6.2353 6.3068 -2.4953 0.2708 0 8
6.1331 6.4062 -2.4953 0.2708 0 8
6.0293 6.5039 -2.4953 0.2708 0 8
5.9240 6.6000 -2.4953 0.2708 0 8
5.8172 6.6944 -2.4953 0.2708 0 8
5.7088 6.7870 -2.4953 0.2708 0 8
5.5990 6.8779 -2.4953 0.2708 0 8
5.4877 6.9670 -2.4953 0.2708 0 8
5.3750 7.0543 -2.4953 0.2708 0 8
5.2609 7.1398 -2.4953 0.2708 0 8
5.1455 7.2235 -2.4953 0.2708 0 8
5.0287 7.3052 -2.4953 0.2708 0 8
4.9106 7.3851 -2.4953 0.2708 0 8
4.7913 7.4631 -2.4953 0.2708 0 8
4.6707 7.5391 -2.4953 0.2708 0 8
4.5489 7.6132 -2.4953 0.2708 0 8
4.4260 7.6854 -2.4953 0.2708 0 8
4.3019 7.7555 -2.4953 0.2708 0 8
4.1766 7.8237 -2.4953 0.2708 0 8
4.0503 7.8898 -2.4953 0.2708 0 8
3.9230 7.9539 -2.4953 0.2708 0 8
8.5782 -0.5226 -2.4953 0.2788 0 8
8.5855 -0.3847 -2.4953 0.2788 0 8
8.5906 -0.2466 -2.4953 0.2788 0 8
8.5934 -0.1085 -2.4953 0.2788 0 8
8.5941 0.0296 -2.4953 0.2788 0 8
8.5925 0.1678 -2.4953 0.2788 0 8
8.5887 0.3059 -2.4953 0.2788 0 8
8.5826 0.4439 -2.4953 0.2788 0 8
8.5744 0.5818 -2.4953 0.2788 0 8
8.4703 0.7117 -2.4680 0.2998 25 10
8.5513 0.8571 -2.4953 0.2788 0 8
8.5364 0.9944 -2.4953 0.2788 0 8
8.5193 1.1315 -2.4953 0.2788 0 8
8.5000 1.2683 -2.4953 0.2788 0 8
8.4785 1.4048 -2.4953 0.2788 0 8
8.4548 1.5409 -2.4953 0.2788 0 8
8.4290 1.6766 -2.4953 0.2788 0 8
8.4009 1.8118 -2.4953 0.2788 0 8
8.3707 1.9466 -2.4953 0.2788 0 8
8.3384 2.0809 -2.4953 0.2788 0 8
8.3038 2.2147 -2.4953 0.2788 0 8
8.2672 2.3479 -2.4953 0.2788 0 8
8.2284 2.4805 -2.4953 0.2788 0 8
8.1874 2.6124 -2.4953 0.2788 0 8
8.1444 2.7437 -2.4953 0.2788 0 8
8.0992 2.8742 -2.4953 0.2788 0 8
8.0520 3.0040 -2.4953 0.2788 0 8
8.0027 3.1331 -2.4953 0.2788 0 8
7.9513 3.2613 -2.4953 0.2788 0 8
7.8978 3.3887 -2.4953 0.2788 0 8
7.8423 3.5152 -2.4953 0.2788 0 8
7.7848 3.6408 -2.4953 0.2788 0 8
7.7253 3.7655 -2.4953 0.2788 0 8
7.6638 3.8892 -2.4953 0.2788 0 8
7.6003 4.0118 -2.4953 0.2788 0 8
7.5348 4.1335 -2.4953 0.2788 0 8
7.4674 4.2541 -2.4953 0.2788 0 8
7.3980 4.3735 -2.4953 0.2788 0 8
7.3268 4.4919 -2.4953 0.2788 0 8
