ply
format ascii 1.0
element vertex 1357
property float32 x
property float32 y
property float32 z
property float32 CosAngle
property uint32 ObjIdx
property uint32 ObjTag
end_header
-13.3064 -13.0731 -2.4953 0.1326 0 8
-13.0946 -13.2853 -2.4953 0.1326 0 8
-12.8793 -13.4941 -2.4953 0.1326 0 8
-12.6608 -13.6993 -2.4953 0.1326 0 8
-12.4390 -13.9010 -2.4953 0.1326 0 8
-12.2140 -14.0992 -2.4953 0.1326 0 8
-11.9858 -14.2936 -2.4953 0.1326 0 8
-11.7545 -14.4844 -2.4953 0.1326 0 8
-11.5202 -14.6715 -2.4953 0.1326 0 8
-11.2829 -14.8547 -2.4953 0.1326 0 8
-11.0427 -15.0342 -2.4953 0.1326 0 8
-10.7997 -15.2097 -2.4953 0.1326 0 8
-10.5538 -15.3813 -2.4953 0.1326 0 8
-10.3052 -15.5489 -2.4953 0.1326 0 8
-10.0540 -15.7126 -2.4953 0.1326 0 8
-9.8002 -15.8721 -2.4953 0.1326 0 8
-9.5438 -16.0276 -2.4953 0.1326 0 8
-9.2850 -16.1789 -2.4953 0.1326 0 8
-9.0237 -16.3261 -2.4953 0.1326 0 8
-8.7602 -16.4690 -2.4953 0.1326 0 8
-8.4943 -16.6076 -2.4953 0.1326 0 8
-8.2263 -16.7420 -2.4953 0.1326 0 8
-7.9562 -16.8721 -2.4953 0.1326 0 8
-7.6840 -16.9978 -2.4953 0.1326 0 8
-7.4098 -17.1191 -2.4953 0.1326 0 8
-7.1337 -17.2359 -2.4953 0.1326 0 8
-6.8558 -17.3484 -2.4953 0.1326 0 8
-6.5760 -17.4563 -2.4953 0.1326 0 8
-6.2946 -17.5598 -2.4953 0.1326 0 8
-6.0116 -17.6586 -2.4953 0.1326 0 8
-5.7270 -17.7530 -2.4953 0.1326 0 8
-5.4409 -17.8427 -2.4953 0.1326 0 8
-5.1535 -17.9279 -2.4953 0.1326 0 8
-4.8647 -18.0084 -2.4953 0.1326 0 8
-4.5746 -18.0843 -2.4953 0.1326 0 8
-4.2834 -18.1555 -2.4953 0.1326 0 8
-3.9910 -18.2219 -2.4953 0.1326 0 8
-3.6976 -18.2837 -2.4953 0.1326 0 8
-3.4033 -18.3408 -2.4953 0.1326 0 8
-3.1081 -18.3931 -2.4953 0.1326 0 8
-2.8120 -18.4407 -2.4953 0.1326 0 8
-2.5153 -18.4835 -2.4953 0.1326 0 8
-2.2179 -18.5215 -2.4953 0.1326 0 8
-1.9199 -18.5548 -2.4953 0.1326 0 8
-1.6215 -18.5833 -2.4953 0.1326 0 8
-1.3226 -18.6069 -2.4953 0.1326 0 8
-1.0234 -18.6258 -2.4953 0.1326 0 8
-0.7239 -18.6398 -2.4953 0.1326 0 8
-0.4242 -18.6491 -2.4953 0.1326 0 8
-0.1244 -18.6535 -2.4953 0.1326 0 8
0.1754 -18.6531 -2.4953 0.1326 0 8
0.4752 -18.6478 -2.4953 0.1326 0 8
0.7748 -18.6378 -2.4953 0.1326 0 8
1.0743 -18.6229 -2.4953 0.1326 0 8
1.3735 -18.6032 -2.4953 0.1326 0 8
1.6723 -18.5788 -2.4953 0.1326 0 8
1.9707 -18.5495 -2.4953 0.1326 0 8
2.2685 -18.5154 -2.4953 0.1326 0 8
2.5658 -18.4766 -2.4953 0.1326 0 8
2.8625 -18.4330 -2.4953 0.1326 0 8
3.1583 -18.3846 -2.4953 0.1326 0 8
3.4534 -18.3313 -2.4953 0.1326 0 8
3.7476 -18.2735 -2.4953 0.1326 0 8
4.0408 -18.2110 -2.4953 0.1326 0 8
4.3330 -18.1437 -2.4953 0.1326 0 8
4.6240 -18.0717 -2.4953 0.1326 0 8
4.9139 -17.9950 -2.4953 0.1326 0 8
5.2025 -17.9137 -2.4953 0.1326 0 8
5.4897 -17.8278 -2.4953 0.1326 0 8
5.7755 -17.7373 -2.4953 0.1326 0 8
6.0599 -17.6422 -2.4953 0.1326 0 8
6.3426 -17.5425 -2.4953 0.1326 0 8
6.6238 -17.4383 -2.4953 0.1326 0 8
6.9032 -17.3296 -2.4953 0.1326 0 8
7.1808 -17.2164 -2.4953 0.1326 0 8
7.4566 -17.0987 -2.4953 0.1326 0 8
7.7304 -16.9767 -2.4953 0.1326 0 8
8.0023 -16.8502 -2.4953 0.1326 0 8
8.2721 -16.7195 -2.4953 0.1326 0 8
8.5397 -16.5843 -2.4953 0.1326 0 8
8.8052 -16.4449 -2.4953 0.1326 0 8
9.0683 -16.3013 -2.4953 0.1326 0 8
9.3292 -16.1535 -2.4953 0.1326 0 8
9.5876 -16.0014 -2.4953 0.1326 0 8
9.8435 -15.8453 -2.4953 0.1326 0 8
10.0969 -15.6850 -2.4953 0.1326 0 8
10.3477 -15.5207 -2.4953 0.1326 0 8
10.5958 -15.3524 -2.4953 0.1326 0 8
10.8412 -15.1801 -2.4953 0.1326 0 8
11.0838 -15.0039 -2.4953 0.1326 0 8
11.3235 -14.8238 -2.4953 0.1326 0 8
11.5603 -14.6399 -2.4953 0.1326 0 8
11.7941 -14.4522 -2.4953 0.1326 0 8
12.0248 -14.2608 -2.4953 0.1326 0 8
12.2525 -14.0657 -2.4953 0.1326 0 8
12.4770 -13.8670 -2.4953 0.1326 0 8
12.6982 -13.6646 -2.4953 0.1326 0 8
12.9162 -13.4588 -2.4953 0.1326 0 8
13.1308 -13.2495 -2.4953 0.1326 0 8
13.3421 -13.0367 -2.4953 0.1326 0 8
13.5499 -12.8206 -2.4953 0.1326 0 8
13.7542 -12.6012 -2.4953 0.1326 0 8
13.9550 -12.3785 -2.4953 0.1326 0 8
14.1521 -12.1526 -2.4953 0.1326 0 8
14.3456 -11.9236 -2.4953 0.1326 0 8
14.5354 -11.6914 -2.4953 0.1326 0 8
14.7214 -11.4563 -2.4953 0.1326 0 8
14.9036 -11.2182 -2.4953 0.1326 0 8
15.0820 -10.9772 -2.4953 0.1326 0 8
15.2565 -10.7334 -2.4953 0.1326 0 8
15.4270 -10.4869 -2.4953 0.1326 0 8
15.5936 -10.2375 -2.4953 0.1326 0 8
15.7561 -9.9856 -2.4953 0.1326 0 8
15.9146 -9.7311 -2.4953 0.1326 0 8
16.0689 -9.4740 -2.4953 0.1326 0 8
16.2191 -9.2145 -2.4953 0.1326 0 8
16.3651 -8.9527 -2.4953 0.1326 0 8
16.5069 -8.6885 -2.4953 0.1326 0 8
16.6444 -8.4221 -2.4953 0.1326 0 8
16.7776 -8.1535 -2.4953 0.1326 0 8
16.9065 -7.8828 -2.4953 0.1326 0 8
17.0310 -7.6100 -2.4953 0.1326 0 8
17.1511 -7.3353 -2.4953 0.1326 0 8
17.2668 -7.0587 -2.4953 0.1326 0 8
17.3780 -6.7803 -2.4953 0.1326 0 8
17.4847 -6.5001 -2.4953 0.1326 0 8
17.5870 -6.2183 -2.4953 0.1326 0 8
17.6846 -5.9348 -2.4953 0.1326 0 8
17.7777 -5.6498 -2.4953 0.1326 0 8
17.8662 -5.3633 -2.4953 0.1326 0 8
17.9501 -5.0755 -2.4953 0.1326 0 8
18.0294 -4.7863 -2.4953 0.1326 0 8
18.1040 -4.4960 -2.4953 0.1326 0 8
18.1739 -4.2044 -2.4953 0.1326 0 8
18.2391 -3.9118 -2.4953 0.1326 0 8
18.2996 -3.6181 -2.4953 0.1326 0 8
18.3554 -3.3235 -2.4953 0.1326 0 8
18.4065 -3.0281 -2.4953 0.1326 0 8
18.4527 -2.7319 -2.4953 0.1326 0 8
18.4943 -2.4349 -2.4953 0.1326 0 8
18.5310 -2.1374 -2.4953 0.1326 0 8
18.5630 -1.8393 -2.4953 0.1326 0 8
18.5901 -1.5407 -2.4953 0.1326 0 8
8.6520 -0.5772 -1.1599 0.3035 25 10
8.5952 -0.4348 -1.1512 0.4038 25 10
8.5572 -0.2951 -1.1453 0.4185 25 10
8.5373 -0.1571 -1.1422 0.4226 25 10
8.5194 -0.0198 -1.1396 0.4235 25 10
8.5322 0.1173 -1.1414 0.4229 25 10
8.5499 0.2551 -1.1442 0.4238 25 10
8.5839 0.3942 -1.1494 0.4044 25 10
8.6231 0.5350 -1.1557 0.4023 25 10
18.5971 1.4543 -2.4953 0.1326 0 8
18.5713 1.7530 -2.4953 0.1326 0 8
18.5408 2.0513 -2.4953 0.1326 0 8
18.5054 2.3490 -2.4953 0.1326 0 8
18.4653 2.6461 -2.4953 0.1326 0 8
18.4203 2.9425 -2.4953 0.1326 0 8
18.3707 3.2382 -2.4953 0.1326 0 8
18.3162 3.5331 -2.4953 0.1326 0 8
18.2571 3.8270 -2.4953 0.1326 0 8
18.1932 4.1199 -2.4953 0.1326 0 8
18.1247 4.4118 -2.4953 0.1326 0 8
18.0514 4.7025 -2.4953 0.1326 0 8
17.9735 4.9920 -2.4953 0.1326 0 8
17.8909 5.2803 -2.4953 0.1326 0 8
17.8038 5.5671 -2.4953 0.1326 0 8
17.7120 5.8526 -2.4953 0.1326 0 8
17.6157 6.1365 -2.4953 0.1326 0 8
17.5148 6.4188 -2.4953 0.1326 0 8
17.4093 6.6995 -2.4953 0.1326 0 8
17.2994 6.9784 -2.4953 0.1326 0 8
17.1850 7.2556 -2.4953 0.1326 0 8
17.0662 7.5308 -2.4953 0.1326 0 8
16.9429 7.8041 -2.4953 0.1326 0 8
16.8153 8.0754 -2.4953 0.1326 0 8
16.6834 8.3447 -2.4953 0.1326 0 8
17.5577 9.1377 -2.6477 0.1326 0 7
17.4086 9.4187 -2.6477 0.1326 0 7
17.2549 9.6973 -2.6477 0.1326 0 7
17.0968 9.9733 -2.6477 0.1326 0 7
16.9344 10.2468 -2.6477 0.1326 0 7
16.7675 10.5177 -2.6477 0.1326 0 7
16.5963 10.7858 -2.6477 0.1326 0 7
16.4208 11.0512 -2.6477 0.1326 0 7
16.2410 11.3137 -2.6477 0.1326 0 7
16.0571 11.5732 -2.6477 0.1326 0 7
15.8690 11.8298 -2.6477 0.1326 0 7
15.6769 12.0833 -2.6477 0.1326 0 7
15.4806 12.3337 -2.6477 0.1326 0 7
15.2804 12.5809 -2.6477 0.1326 0 7
15.0762 12.8249 -2.6477 0.1326 0 7
14.8681 13.0656 -2.6477 0.1326 0 7
14.6562 13.3028 -2.6477 0.1326 0 7
14.4405 13.5367 -2.6477 0.1326 0 7
14.2211 13.7670 -2.6477 0.1326 0 7
13.9980 13.9938 -2.6477 0.1326 0 7
13.7713 14.2170 -2.6477 0.1326 0 7
13.5410 14.4365 -2.6477 0.1326 0 7
13.3072 14.6522 -2.6477 0.1326 0 7
13.0700 14.8642 -2.6477 0.1326 0 7
12.8294 15.0724 -2.6477 0.1326 0 7
12.5855 15.2766 -2.6477 0.1326 0 7
-12.5141 -12.2947 -2.4953 0.1408 0 8
-12.3148 -12.4942 -2.4953 0.1408 0 8
-12.1124 -12.6905 -2.4953 0.1408 0 8
-11.9069 -12.8836 -2.4953 0.1408 0 8
-11.6983 -13.0733 -2.4953 0.1408 0 8
-11.4867 -13.2596 -2.4953 0.1408 0 8
-11.2721 -13.4425 -2.4953 0.1408 0 8
-11.0546 -13.6220 -2.4953 0.1408 0 8
-10.8342 -13.7979 -2.4953 0.1408 0 8
-10.6111 -13.9702 -2.4953 0.1408 0 8
-10.3852 -14.1389 -2.4953 0.1408 0 8
-10.1566 -14.3040 -2.4953 0.1408 0 8
-9.9254 -14.4654 -2.4953 0.1408 0 8
-9.6916 -14.6231 -2.4953 0.1408 0 8
-9.4553 -14.7769 -2.4953 0.1408 0 8
-9.2166 -14.9270 -2.4953 0.1408 0 8
-8.9755 -15.0732 -2.4953 0.1408 0 8
-8.7321 -15.2155 -2.4953 0.1408 0 8
-8.4864 -15.3539 -2.4953 0.1408 0 8
-8.2385 -15.4883 -2.4953 0.1408 0 8
-7.9885 -15.6187 -2.4953 0.1408 0 8
-7.7365 -15.7451 -2.4953 0.1408 0 8
-7.4824 -15.8674 -2.4953 0.1408 0 8
-7.2264 -15.9856 -2.4953 0.1408 0 8
-6.9686 -16.0997 -2.4953 0.1408 0 8
-6.7089 -16.2096 -2.4953 0.1408 0 8
-6.4475 -16.3154 -2.4953 0.1408 0 8
-6.1845 -16.4169 -2.4953 0.1408 0 8
-5.9198 -16.5141 -2.4953 0.1408 0 8
-5.6536 -16.6072 -2.4953 0.1408 0 8
-5.3860 -16.6959 -2.4953 0.1408 0 8
-5.1170 -16.7803 -2.4953 0.1408 0 8
-4.8466 -16.8604 -2.4953 0.1408 0 8
-4.5750 -16.9361 -2.4953 0.1408 0 8
-4.3022 -17.0074 -2.4953 0.1408 0 8
-4.0283 -17.0744 -2.4953 0.1408 0 8
-3.7534 -17.1369 -2.4953 0.1408 0 8
-3.4774 -17.1950 -2.4953 0.1408 0 8
-3.2006 -17.2487 -2.4953 0.1408 0 8
-2.9230 -17.2979 -2.4953 0.1408 0 8
-2.6446 -17.3426 -2.4953 0.1408 0 8
-2.3655 -17.3829 -2.4953 0.1408 0 8
-2.0858 -17.4187 -2.4953 0.1408 0 8
-1.8056 -17.4500 -2.4953 0.1408 0 8
-1.5249 -17.4767 -2.4953 0.1408 0 8
-1.2438 -17.4990 -2.4953 0.1408 0 8
-0.9624 -17.5167 -2.4953 0.1408 0 8
-0.6808 -17.5299 -2.4953 0.1408 0 8
-0.3989 -17.5386 -2.4953 0.1408 0 8
-0.1170 -17.5427 -2.4953 0.1408 0 8
0.1650 -17.5424 -2.4953 0.1408 0 8
0.4469 -17.5374 -2.4953 0.1408 0 8
0.7287 -17.5280 -2.4953 0.1408 0 8
1.0103 -17.5140 -2.4953 0.1408 0 8
1.2917 -17.4955 -2.4953 0.1408 0 8
1.5727 -17.4725 -2.4953 0.1408 0 8
1.8533 -17.4450 -2.4953 0.1408 0 8
2.1335 -17.4129 -2.4953 0.1408 0 8
2.4130 -17.3764 -2.4953 0.1408 0 8
2.6920 -17.3353 -2.4953 0.1408 0 8
2.9703 -17.2898 -2.4953 0.1408 0 8
3.2478 -17.2399 -2.4953 0.1408 0 8
3.5244 -17.1854 -2.4953 0.1408 0 8
3.8002 -17.1266 -2.4953 0.1408 0 8
4.0750 -17.0633 -2.4953 0.1408 0 8
4.3487 -16.9956 -2.4953 0.1408 0 8
4.6213 -16.9235 -2.4953 0.1408 0 8
4.8927 -16.8470 -2.4953 0.1408 0 8
5.1628 -16.7662 -2.4953 0.1408 0 8
5.4316 -16.6811 -2.4953 0.1408 0 8
5.6990 -16.5916 -2.4953 0.1408 0 8
5.9649 -16.4979 -2.4953 0.1408 0 8
6.2293 -16.3999 -2.4953 0.1408 0 8
6.4921 -16.2977 -2.4953 0.1408 0 8
6.7532 -16.1912 -2.4953 0.1408 0 8
7.0126 -16.0806 -2.4953 0.1408 0 8
7.2701 -15.9658 -2.4953 0.1408 0 8
7.5258 -15.8469 -2.4953 0.1408 0 8
7.7795 -15.7239 -2.4953 0.1408 0 8
8.0312 -15.5968 -2.4953 0.1408 0 8
8.2808 -15.4657 -2.4953 0.1408 0 8
8.5284 -15.3306 -2.4953 0.1408 0 8
8.7736 -15.1916 -2.4953 0.1408 0 8
9.0167 -15.0486 -2.4953 0.1408 0 8
9.2574 -14.9018 -2.4953 0.1408 0 8
9.4957 -14.7510 -2.4953 0.1408 0 8
9.7315 -14.5965 -2.4953 0.1408 0 8
9.9649 -14.4382 -2.4953 0.1408 0 8
10.1956 -14.2762 -2.4953 0.1408 0 8
10.4238 -14.1105 -2.4953 0.1408 0 8
10.6492 -13.9411 -2.4953 0.1408 0 8
10.8719 -13.7682 -2.4953 0.1408 0 8
11.0918 -13.5917 -2.4953 0.1408 0 8
11.3088 -13.4116 -2.4953 0.1408 0 8
11.5229 -13.2282 -2.4953 0.1408 0 8
11.7340 -13.0412 -2.4953 0.1408 0 8
11.9421 -12.8510 -2.4953 0.1408 0 8
12.1471 -12.6574 -2.4953 0.1408 0 8
12.3490 -12.4605 -2.4953 0.1408 0 8
12.5476 -12.2604 -2.4953 0.1408 0 8
12.7431 -12.0572 -2.4953 0.1408 0 8
12.9352 -11.8508 -2.4953 0.1408 0 8
13.1240 -11.6414 -2.4953 0.1408 0 8
13.3094 -11.4289 -2.4953 0.1408 0 8
13.4914 -11.2136 -2.4953 0.1408 0 8
13.6699 -10.9953 -2.4953 0.1408 0 8
13.8448 -10.7741 -2.4953 0.1408 0 8
14.0162 -10.5502 -2.4953 0.1408 0 8
14.1840 -10.3236 -2.4953 0.1408 0 8
14.3480 -10.0943 -2.4953 0.1408 0 8
14.5084 -9.8624 -2.4953 0.1408 0 8
14.6651 -9.6279 -2.4953 0.1408 0 8
14.8179 -9.3910 -2.4953 0.1408 0 8
14.9669 -9.1516 -2.4953 0.1408 0 8
15.1121 -8.9099 -2.4953 0.1408 0 8
15.2533 -8.6659 -2.4953 0.1408 0 8
15.3906 -8.4196 -2.4953 0.1408 0 8
15.5240 -8.1711 -2.4953 0.1408 0 8
15.6533 -7.9206 -2.4953 0.1408 0 8
15.7786 -7.6680 -2.4953 0.1408 0 8
15.8998 -7.4134 -2.4953 0.1408 0 8
16.0169 -7.1569 -2.4953 0.1408 0 8
16.1298 -6.8985 -2.4953 0.1408 0 8
16.2386 -6.6384 -2.4953 0.1408 0 8
16.3432 -6.3765 -2.4953 0.1408 0 8
16.4436 -6.1131 -2.4953 0.1408 0 8
16.5397 -5.8481 -2.4953 0.1408 0 8
16.6316 -5.5814 -2.4953 0.1408 0 8
16.7191 -5.3134 -2.4953 0.1408 0 8
16.8024 -5.0440 -2.4953 0.1408 0 8
16.8813 -4.7733 -2.4953 0.1408 0 8
16.9558 -4.5013 -2.4953 0.1408 0 8
17.0260 -4.2282 -2.4953 0.1408 0 8
17.0917 -3.9541 -2.4953 0.1408 0 8
17.1531 -3.6788 -2.4953 0.1408 0 8
17.2100 -3.4027 -2.4953 0.1408 0 8
17.2624 -3.1256 -2.4953 0.1408 0 8
17.3104 -2.8478 -2.4953 0.1408 0 8
17.3540 -2.5692 -2.4953 0.1408 0 8
17.3930 -2.2900 -2.4953 0.1408 0 8
17.4276 -2.0101 -2.4953 0.1408 0 8
17.4576 -1.7297 -2.4953 0.1408 0 8
17.4832 -1.4489 -2.4953 0.1408 0 8
8.4732 -0.5653 -1.2079 0.3877 25 10
8.4314 -0.4265 -1.2008 0.4239 25 10
8.3976 -0.2896 -1.1951 0.4259 25 10
8.3794 -0.1542 -1.1921 0.4321 25 10
8.3616 -0.0194 -1.1893 0.4331 25 10
8.3743 0.1152 -1.1912 0.4324 25 10
8.3917 0.2503 -1.1941 0.4313 25 10
8.4217 0.3868 -1.1991 0.4245 25 10
8.4554 0.5246 -1.2050 0.4098 25 10
8.8268 0.6903 -1.2593 0.0995 25 10
17.4655 1.6486 -2.4953 0.1408 0 8
17.4367 1.9291 -2.4953 0.1408 0 8
17.4035 2.2091 -2.4953 0.1408 0 8
17.3657 2.4885 -2.4953 0.1408 0 8
17.3235 2.7673 -2.4953 0.1408 0 8
17.2768 3.0454 -2.4953 0.1408 0 8
17.2256 3.3227 -2.4953 0.1408 0 8
17.1700 3.5991 -2.4953 0.1408 0 8
17.1099 3.8746 -2.4953 0.1408 0 8
17.0454 4.1491 -2.4953 0.1408 0 8
16.9765 4.4225 -2.4953 0.1408 0 8
16.9033 4.6948 -2.4953 0.1408 0 8
16.8256 4.9659 -2.4953 0.1408 0 8
16.7436 5.2356 -2.4953 0.1408 0 8
16.6573 5.5041 -2.4953 0.1408 0 8
16.5667 5.7711 -2.4953 0.1408 0 8
16.4718 6.0366 -2.4953 0.1408 0 8
16.3727 6.3006 -2.4953 0.1408 0 8
16.2693 6.5629 -2.4953 0.1408 0 8
16.1617 6.8235 -2.4953 0.1408 0 8
16.0500 7.0824 -2.4953 0.1408 0 8
15.9340 7.3394 -2.4953 0.1408 0 8
15.8140 7.5946 -2.4953 0.1408 0 8
15.6899 7.8478 -2.4953 0.1408 0 8
15.5618 8.0989 -2.4953 0.1408 0 8
15.4424 8.3550 -2.4974 0.4310 0 8
16.2275 9.1198 -2.6477 0.1408 0 7
16.0788 9.3795 -2.6477 0.1408 0 7
15.9260 9.6367 -2.6477 0.1408 0 7
15.7690 9.8914 -2.6477 0.1408 0 7
15.6080 10.1436 -2.6477 0.1408 0 7
15.4430 10.3931 -2.6477 0.1408 0 7
15.2740 10.6400 -2.6477 0.1408 0 7
15.1010 10.8841 -2.6477 0.1408 0 7
14.9241 11.1254 -2.6477 0.1408 0 7
14.7434 11.3638 -2.6477 0.1408 0 7
14.5588 11.5993 -2.6477 0.1408 0 7
14.3705 11.8318 -2.6477 0.1408 0 7
14.1785 12.0612 -2.6477 0.1408 0 7
13.9828 12.2876 -2.6477 0.1408 0 7
13.7835 12.5107 -2.6477 0.1408 0 7
13.5806 12.7306 -2.6477 0.1408 0 7
13.3743 12.9472 -2.6477 0.1408 0 7
13.1645 13.1605 -2.6477 0.1408 0 7
12.9512 13.3704 -2.6477 0.1408 0 7
12.7347 13.5768 -2.6477 0.1408 0 7
12.5148 13.7798 -2.6477 0.1408 0 7
12.2917 13.9791 -2.6477 0.1408 0 7
12.0655 14.1749 -2.6477 0.1408 0 7
11.8361 14.3670 -2.6477 0.1408 0 7
-11.8092 -11.6022 -2.4953 0.1490 0 8
-11.6212 -11.7905 -2.4953 0.1490 0 8
-11.4302 -11.9758 -2.4953 0.1490 0 8
-11.2363 -12.1579 -2.4953 0.1490 0 8
-11.0394 -12.3369 -2.4953 0.1490 0 8
-10.8397 -12.5128 -2.4953 0.1490 0 8
-10.6372 -12.6854 -2.4953 0.1490 0 8
-10.4320 -12.8544 -2.4953 0.1490 0 8
-10.2240 -13.0207 -2.4953 0.1490 0 8
-10.0134 -13.1834 -2.4953 0.1490 0 8
-9.8002 -13.3426 -2.4953 0.1490 0 8
-9.5845 -13.4984 -2.4953 0.1490 0 8
-9.3663 -13.6507 -2.4953 0.1490 0 8
-9.1457 -13.7994 -2.4953 0.1490 0 8
-8.9228 -13.9447 -2.4953 0.1490 0 8
-8.6975 -14.0863 -2.4953 0.1490 0 8
-8.4700 -14.2242 -2.4953 0.1490 0 8
-8.2403 -14.3585 -2.4953 0.1490 0 8
-8.0084 -14.4891 -2.4953 0.1490 0 8
-7.7745 -14.6160 -2.4953 0.1490 0 8
-7.5386 -14.7390 -2.4953 0.1490 0 8
-7.3007 -14.8583 -2.4953 0.1490 0 8
-7.0610 -14.9737 -2.4953 0.1490 0 8
-6.8194 -15.0853 -2.4953 0.1490 0 8
-6.5761 -15.1929 -2.4953 0.1490 0 8
-6.3310 -15.2966 -2.4953 0.1490 0 8
-6.0844 -15.3964 -2.4953 0.1490 0 8
-5.8361 -15.4922 -2.4953 0.1490 0 8
-5.5864 -15.5840 -2.4953 0.1490 0 8
-5.3352 -15.6718 -2.4953 0.1490 0 8
-5.0826 -15.7555 -2.4953 0.1490 0 8
-4.8288 -15.8352 -2.4953 0.1490 0 8
-4.5736 -15.9107 -2.4953 0.1490 0 8
-4.3173 -15.9822 -2.4953 0.1490 0 8
-4.0599 -16.0495 -2.4953 0.1490 0 8
-3.8014 -16.1127 -2.4953 0.1490 0 8
-3.5420 -16.1717 -2.4953 0.1490 0 8
-3.2816 -16.2265 -2.4953 0.1490 0 8
-3.0204 -16.2772 -2.4953 0.1490 0 8
-2.7584 -16.3236 -2.4953 0.1490 0 8
-2.4957 -16.3658 -2.4953 0.1490 0 8
-2.2323 -16.4038 -2.4953 0.1490 0 8
-1.9684 -16.4376 -2.4953 0.1490 0 8
-1.7039 -16.4671 -2.4953 0.1490 0 8
-1.4390 -16.4924 -2.4953 0.1490 0 8
-1.1738 -16.5134 -2.4953 0.1490 0 8
-0.9082 -16.5301 -2.4953 0.1490 0 8
-0.6424 -16.5426 -2.4953 0.1490 0 8
-0.3765 -16.5508 -2.4953 0.1490 0 8
-0.1104 -16.5547 -2.4953 0.1490 0 8
0.1557 -16.5543 -2.4953 0.1490 0 8
0.4217 -16.5497 -2.4953 0.1490 0 8
0.6877 -16.5407 -2.4953 0.1490 0 8
0.9534 -16.5276 -2.4953 0.1490 0 8
1.2189 -16.5101 -2.4953 0.1490 0 8
1.4841 -16.4884 -2.4953 0.1490 0 8
1.7489 -16.4624 -2.4953 0.1490 0 8
2.0133 -16.4322 -2.4953 0.1490 0 8
2.2771 -16.3977 -2.4953 0.1490 0 8
2.5404 -16.3590 -2.4953 0.1490 0 8
2.8030 -16.3160 -2.4953 0.1490 0 8
3.0649 -16.2689 -2.4953 0.1490 0 8
3.3259 -16.2176 -2.4953 0.1490 0 8
3.5862 -16.1620 -2.4953 0.1490 0 8
3.8455 -16.1022 -2.4953 0.1490 0 8
4.1038 -16.0383 -2.4953 0.1490 0 8
4.3610 -15.9703 -2.4953 0.1490 0 8
4.6171 -15.8982 -2.4953 0.1490 0 8
4.8720 -15.8219 -2.4953 0.1490 0 8
5.1257 -15.7416 -2.4953 0.1490 0 8
5.3780 -15.6571 -2.4953 0.1490 0 8
5.6290 -15.5687 -2.4953 0.1490 0 8
5.8785 -15.4762 -2.4953 0.1490 0 8
6.1264 -15.3797 -2.4953 0.1490 0 8
6.3728 -15.2793 -2.4953 0.1490 0 8
6.6176 -15.1749 -2.4953 0.1490 0 8
6.8606 -15.0666 -2.4953 0.1490 0 8
7.1019 -14.9543 -2.4953 0.1490 0 8
7.3413 -14.8383 -2.4953 0.1490 0 8
7.5789 -14.7184 -2.4953 0.1490 0 8
7.8144 -14.5946 -2.4953 0.1490 0 8
8.0480 -14.4672 -2.4953 0.1490 0 8
8.2795 -14.3359 -2.4953 0.1490 0 8
8.5088 -14.2010 -2.4953 0.1490 0 8
8.7360 -14.0624 -2.4953 0.1490 0 8
8.9609 -13.9202 -2.4953 0.1490 0 8
9.1834 -13.7744 -2.4953 0.1490 0 8
9.4036 -13.6250 -2.4953 0.1490 0 8
9.6214 -13.4721 -2.4953 0.1490 0 8
9.8367 -13.3157 -2.4953 0.1490 0 8
10.0494 -13.1559 -2.4953 0.1490 0 8
10.2596 -12.9927 -2.4953 0.1490 0 8
10.4671 -12.8261 -2.4953 0.1490 0 8
10.6718 -12.6563 -2.4953 0.1490 0 8
10.8739 -12.4831 -2.4953 0.1490 0 8
11.0731 -12.3067 -2.4953 0.1490 0 8
11.2695 -12.1272 -2.4953 0.1490 0 8
11.4629 -11.9445 -2.4953 0.1490 0 8
11.6534 -11.7587 -2.4953 0.1490 0 8
11.8409 -11.5699 -2.4953 0.1490 0 8
12.0253 -11.3781 -2.4953 0.1490 0 8
12.2066 -11.1833 -2.4953 0.1490 0 8
12.3848 -10.9857 -2.4953 0.1490 0 8
12.5598 -10.7852 -2.4953 0.1490 0 8
12.7315 -10.5820 -2.4953 0.1490 0 8
12.8999 -10.3760 -2.4953 0.1490 0 8
13.0650 -10.1673 -2.4953 0.1490 0 8
13.2268 -9.9560 -2.4953 0.1490 0 8
13.3851 -9.7421 -2.4953 0.1490 0 8
13.5399 -9.5258 -2.4953 0.1490 0 8
13.6913 -9.3069 -2.4953 0.1490 0 8
13.8391 -9.0857 -2.4953 0.1490 0 8
13.9833 -8.8621 -2.4953 0.1490 0 8
14.1239 -8.6362 -2.4953 0.1490 0 8
14.2609 -8.4081 -2.4953 0.1490 0 8
14.3942 -8.1778 -2.4953 0.1490 0 8
14.5238 -7.9454 -2.4953 0.1490 0 8
14.6496 -7.7109 -2.4953 0.1490 0 8
14.7717 -7.4745 -2.4953 0.1490 0 8
14.8899 -7.2361 -2.4953 0.1490 0 8
15.0043 -6.9958 -2.4953 0.1490 0 8
15.1148 -6.7538 -2.4953 0.1490 0 8
15.2213 -6.5100 -2.4953 0.1490 0 8
15.3240 -6.2645 -2.4953 0.1490 0 8
15.4227 -6.0174 -2.4953 0.1490 0 8
15.5174 -5.7687 -2.4953 0.1490 0 8
15.6081 -5.5186 -2.4953 0.1490 0 8
15.6948 -5.2670 -2.4953 0.1490 0 8
15.7775 -5.0141 -2.4953 0.1490 0 8
15.8560 -4.7599 -2.4953 0.1490 0 8
15.9305 -4.5044 -2.4953 0.1490 0 8
16.0008 -4.2478 -2.4953 0.1490 0 8
16.0670 -3.9901 -2.4953 0.1490 0 8
16.1291 -3.7313 -2.4953 0.1490 0 8
16.1869 -3.4716 -2.4953 0.1490 0 8
16.2406 -3.2110 -2.4953 0.1490 0 8
16.2902 -2.9496 -2.4953 0.1490 0 8
16.3355 -2.6874 -2.4953 0.1490 0 8
16.3765 -2.4245 -2.4953 0.1490 0 8
16.4134 -2.1610 -2.4953 0.1490 0 8
16.4460 -1.8969 -2.4953 0.1490 0 8
16.4744 -1.6323 -2.4953 0.1490 0 8
8.6899 -0.7202 -1.3143 0.0217 25 10
8.3368 -0.5562 -1.2594 0.4897 25 10
8.2991 -0.4198 -1.2525 0.5135 25 10
8.2621 -0.2849 -1.2460 0.5200 25 10
8.2471 -0.1517 -1.2433 0.5139 25 10
8.2331 -0.0191 -1.2409 0.5148 25 10
8.2431 0.1133 -1.2426 0.5142 25 10
8.2577 0.2463 -1.2452 0.5204 25 10
8.2886 0.3807 -1.2506 0.5143 25 10
8.3246 0.5165 -1.2571 0.5116 25 10
8.4219 0.6586 -1.2733 0.3370 25 10
16.4818 1.5558 -2.4953 0.1490 0 8
16.4546 1.8205 -2.4953 0.1490 0 8
16.4233 2.0847 -2.4953 0.1490 0 8
16.3876 2.3484 -2.4953 0.1490 0 8
16.3478 2.6115 -2.4953 0.1490 0 8
16.3037 2.8739 -2.4953 0.1490 0 8
16.2554 3.1355 -2.4953 0.1490 0 8
16.2029 3.3964 -2.4953 0.1490 0 8
16.1462 3.6564 -2.4953 0.1490 0 8
16.0854 3.9154 -2.4953 0.1490 0 8
16.0204 4.1734 -2.4953 0.1490 0 8
15.9512 4.4304 -2.4953 0.1490 0 8
15.8779 4.6862 -2.4953 0.1490 0 8
15.8006 4.9408 -2.4953 0.1490 0 8
15.7191 5.1941 -2.4953 0.1490 0 8
15.6336 5.4460 -2.4953 0.1490 0 8
15.5441 5.6966 -2.4953 0.1490 0 8
15.4505 5.9457 -2.4953 0.1490 0 8
15.3529 6.1932 -2.4953 0.1490 0 8
15.2514 6.4392 -2.4953 0.1490 0 8
15.1460 6.6835 -2.4953 0.1490 0 8
15.0366 6.9261 -2.4953 0.1490 0 8
14.9233 7.1668 -2.4953 0.1490 0 8
14.8062 7.4058 -2.4953 0.1490 0 8
14.6853 7.6428 -2.4953 0.1490 0 8
14.5605 7.8778 -2.4953 0.1490 0 8
14.4320 8.1108 -2.4953 0.1490 0 8
14.2998 8.3417 -2.4953 0.1490 0 8
15.0290 9.0939 -2.6477 0.1490 0 7
14.8809 9.3343 -2.6477 0.1490 0 7
14.7289 9.5723 -2.6477 0.1490 0 7
14.5732 9.8077 -2.6477 0.1490 0 7
14.4137 10.0407 -2.6477 0.1490 0 7
14.2504 10.2711 -2.6477 0.1490 0 7
14.0835 10.4988 -2.6477 0.1490 0 7
13.9130 10.7238 -2.6477 0.1490 0 7
13.7388 10.9460 -2.6477 0.1490 0 7
13.5611 11.1654 -2.6477 0.1490 0 7
13.3799 11.3819 -2.6477 0.1490 0 7
13.1952 11.5955 -2.6477 0.1490 0 7
13.0072 11.8061 -2.6477 0.1490 0 7
12.8157 12.0136 -2.6477 0.1490 0 7
12.6210 12.2180 -2.6477 0.1490 0 7
12.4230 12.4193 -2.6477 0.1490 0 7
12.2218 12.6173 -2.6477 0.1490 0 7
12.0174 12.8121 -2.6477 0.1490 0 7
11.8100 13.0036 -2.6477 0.1490 0 7
11.5994 13.1918 -2.6477 0.1490 0 7
11.3859 13.3765 -2.6477 0.1490 0 7
11.1694 13.5578 -2.6477 0.1490 0 7
-11.1781 -10.9821 -2.4953 0.1573 0 8
-11.0001 -11.1604 -2.4953 0.1573 0 8
-10.8193 -11.3357 -2.4953 0.1573 0 8
-10.6357 -11.5081 -2.4953 0.1573 0 8
-10.4494 -11.6776 -2.4953 0.1573 0 8
-10.2604 -11.8440 -2.4953 0.1573 0 8
-10.0687 -12.0074 -2.4953 0.1573 0 8
-9.8744 -12.1677 -2.4953 0.1573 0 8
-9.6776 -12.3248 -2.4953 0.1573 0 8
-9.4782 -12.4787 -2.4953 0.1573 0 8
-9.2764 -12.6295 -2.4953 0.1573 0 8
-9.0723 -12.7769 -2.4953 0.1573 0 8
-8.8657 -12.9211 -2.4953 0.1573 0 8
-8.6569 -13.0619 -2.4953 0.1573 0 8
-8.4459 -13.1994 -2.4953 0.1573 0 8
-8.2326 -13.3334 -2.4953 0.1573 0 8
-8.0173 -13.4640 -2.4953 0.1573 0 8
-7.7998 -13.5911 -2.4953 0.1573 0 8
-7.5804 -13.7147 -2.4953 0.1573 0 8
-7.3590 -13.8348 -2.4953 0.1573 0 8
-7.1357 -13.9515 -2.4953 0.1573 0 8
-6.9105 -14.0642 -2.4953 0.1573 0 8
-6.6836 -14.1734 -2.4953 0.1573 0 8
-6.4549 -14.2790 -2.4953 0.1573 0 8
-6.2246 -14.3809 -2.4953 0.1573 0 8
-5.9927 -14.4791 -2.4953 0.1573 0 8
-5.7592 -14.5735 -2.4953 0.1573 0 8
-5.5242 -14.6642 -2.4953 0.1573 0 8
-5.2878 -14.7511 -2.4953 0.1573 0 8
-5.0501 -14.8342 -2.4953 0.1573 0 8
-4.8110 -14.9134 -2.4953 0.1573 0 8
-4.5707 -14.9888 -2.4953 0.1573 0 8
-4.3292 -15.0603 -2.4953 0.1573 0 8
-4.0866 -15.1280 -2.4953 0.1573 0 8
-3.8429 -15.1917 -2.4953 0.1573 0 8
-3.5982 -15.2515 -2.4953 0.1573 0 8
-3.3526 -15.3074 -2.4953 0.1573 0 8
-3.1062 -15.3593 -2.4953 0.1573 0 8
-2.8589 -15.4072 -2.4953 0.1573 0 8
-2.6109 -15.4512 -2.4953 0.1573 0 8
-2.3623 -15.4911 -2.4953 0.1573 0 8
-2.1130 -15.5271 -2.4953 0.1573 0 8
-1.8632 -15.5591 -2.4953 0.1573 0 8
-1.6128 -15.5870 -2.4953 0.1573 0 8
-1.3621 -15.6109 -2.4953 0.1573 0 8
-1.1110 -15.6308 -2.4953 0.1573 0 8
-0.8597 -15.6466 -2.4953 0.1573 0 8
-0.6081 -15.6584 -2.4953 0.1573 0 8
-0.3563 -15.6662 -2.4953 0.1573 0 8
-0.1045 -15.6699 -2.4953 0.1573 0 8
0.1474 -15.6695 -2.4953 0.1573 0 8
0.3992 -15.6651 -2.4953 0.1573 0 8
0.6509 -15.6567 -2.4953 0.1573 0 8
0.9025 -15.6442 -2.4953 0.1573 0 8
1.1538 -15.6277 -2.4953 0.1573 0 8
1.4048 -15.6071 -2.4953 0.1573 0 8
1.6555 -15.5825 -2.4953 0.1573 0 8
1.9057 -15.5539 -2.4953 0.1573 0 8
2.1554 -15.5213 -2.4953 0.1573 0 8
2.4046 -15.4846 -2.4953 0.1573 0 8
2.6532 -15.4440 -2.4953 0.1573 0 8
2.9010 -15.3993 -2.4953 0.1573 0 8
3.1482 -15.3507 -2.4953 0.1573 0 8
3.3945 -15.2981 -2.4953 0.1573 0 8
3.6399 -15.2416 -2.4953 0.1573 0 8
3.8844 -15.1811 -2.4953 0.1573 0 8
4.1279 -15.1167 -2.4953 0.1573 0 8
4.3703 -15.0485 -2.4953 0.1573 0 8
4.6116 -14.9763 -2.4953 0.1573 0 8
4.8517 -14.9002 -2.4953 0.1573 0 8
5.0906 -14.8203 -2.4953 0.1573 0 8
5.3281 -14.7366 -2.4953 0.1573 0 8
5.5643 -14.6490 -2.4953 0.1573 0 8
5.7990 -14.5577 -2.4953 0.1573 0 8
6.0322 -14.4626 -2.4953 0.1573 0 8
6.2639 -14.3638 -2.4953 0.1573 0 8
6.4939 -14.2613 -2.4953 0.1573 0 8
6.7223 -14.1551 -2.4953 0.1573 0 8
6.9490 -14.0452 -2.4953 0.1573 0 8
7.1738 -13.9317 -2.4953 0.1573 0 8
7.3968 -13.8146 -2.4953 0.1573 0 8
7.6179 -13.6939 -2.4953 0.1573 0 8
7.8370 -13.5697 -2.4953 0.1573 0 8
8.0541 -13.4420 -2.4953 0.1573 0 8
8.2691 -13.3108 -2.4953 0.1573 0 8
8.4819 -13.1762 -2.4953 0.1573 0 8
8.6926 -13.0382 -2.4953 0.1573 0 8
8.9010 -12.8968 -2.4953 0.1573 0 8
9.1072 -12.7521 -2.4953 0.1573 0 8
9.3109 -12.6041 -2.4953 0.1573 0 8
9.5123 -12.4528 -2.4953 0.1573 0 8
9.7112 -12.2983 -2.4953 0.1573 0 8
9.9076 -12.1406 -2.4953 0.1573 0 8
10.1015 -11.9798 -2.4953 0.1573 0 8
10.2927 -11.8159 -2.4953 0.1573 0 8
10.4813 -11.6490 -2.4953 0.1573 0 8
10.6672 -11.4790 -2.4953 0.1573 0 8
10.8503 -11.3061 -2.4953 0.1573 0 8
11.0306 -11.1302 -2.4953 0.1573 0 8
11.2081 -10.9515 -2.4953 0.1573 0 8
11.3826 -10.7700 -2.4953 0.1573 0 8
11.5542 -10.5856 -2.4953 0.1573 0 8
11.7229 -10.3986 -2.4953 0.1573 0 8
11.8885 -10.2088 -2.4953 0.1573 0 8
12.0510 -10.0164 -2.4953 0.1573 0 8
12.2105 -9.8214 -2.4953 0.1573 0 8
12.3667 -9.6239 -2.4953 0.1573 0 8
12.5198 -9.4239 -2.4953 0.1573 0 8
12.6697 -9.2215 -2.4953 0.1573 0 8
12.8162 -9.0166 -2.4953 0.1573 0 8
12.9595 -8.8095 -2.4953 0.1573 0 8
13.0994 -8.6001 -2.4953 0.1573 0 8
13.2359 -8.3884 -2.4953 0.1573 0 8
13.3691 -8.1746 -2.4953 0.1573 0 8
13.4987 -7.9587 -2.4953 0.1573 0 8
13.6249 -7.7407 -2.4953 0.1573 0 8
13.7475 -7.5207 -2.4953 0.1573 0 8
13.8666 -7.2988 -2.4953 0.1573 0 8
13.9822 -7.0750 -2.4953 0.1573 0 8
14.0941 -6.8493 -2.4953 0.1573 0 8
14.2023 -6.6219 -2.4953 0.1573 0 8
14.3069 -6.3928 -2.4953 0.1573 0 8
14.4078 -6.1620 -2.4953 0.1573 0 8
14.5050 -5.9297 -2.4953 0.1573 0 8
14.5984 -5.6958 -2.4953 0.1573 0 8
14.6881 -5.4604 -2.4953 0.1573 0 8
14.7739 -5.2237 -2.4953 0.1573 0 8
14.8560 -4.9855 -2.4953 0.1573 0 8
14.9342 -4.7461 -2.4953 0.1573 0 8
15.0085 -4.5055 -2.4953 0.1573 0 8
15.0790 -4.2637 -2.4953 0.1573 0 8
15.1456 -4.0208 -2.4953 0.1573 0 8
15.2083 -3.7768 -2.4953 0.1573 0 8
15.2670 -3.5319 -2.4953 0.1573 0 8
15.3218 -3.2861 -2.4953 0.1573 0 8
15.3726 -3.0394 -2.4953 0.1573 0 8
15.4195 -2.7919 -2.4953 0.1573 0 8
15.4624 -2.5438 -2.4953 0.1573 0 8
15.5013 -2.2949 -2.4953 0.1573 0 8
15.5361 -2.0455 -2.4953 0.1573 0 8
15.5670 -1.7955 -2.4953 0.1573 0 8
15.5939 -1.5451 -2.4953 0.1573 0 8
8.3552 -0.6925 -1.3350 0.3391 25 10
8.2120 -0.5478 -1.3106 0.5178 25 10
8.1760 -0.4136 -1.3036 0.5124 25 10
8.1411 -0.2807 -1.2971 0.5271 25 10
8.1262 -0.1495 -1.2942 0.5283 25 10
8.1108 -0.0188 -1.2915 0.5294 25 10
8.1218 0.1117 -1.2934 0.5286 25 10
8.1368 0.2427 -1.2963 0.5274 25 10
8.1652 0.3750 -1.3016 0.5132 25 10
8.2020 0.5089 -1.3086 0.5186 25 10
8.2808 0.6476 -1.3226 0.3423 25 10
15.6009 1.4726 -2.4953 0.1573 0 8
15.5752 1.7232 -2.4953 0.1573 0 8
15.5455 1.9733 -2.4953 0.1573 0 8
15.5118 2.2229 -2.4953 0.1573 0 8
15.4740 2.4719 -2.4953 0.1573 0 8
15.4323 2.7203 -2.4953 0.1573 0 8
15.3866 2.9680 -2.4953 0.1573 0 8
15.3369 3.2149 -2.4953 0.1573 0 8
15.2832 3.4609 -2.4953 0.1573 0 8
15.2256 3.7061 -2.4953 0.1573 0 8
15.1641 3.9504 -2.4953 0.1573 0 8
15.0987 4.1936 -2.4953 0.1573 0 8
15.0293 4.4357 -2.4953 0.1573 0 8
14.9561 4.6767 -2.4953 0.1573 0 8
14.8790 4.9165 -2.4953 0.1573 0 8
14.7980 5.1550 -2.4953 0.1573 0 8
14.7133 5.3921 -2.4953 0.1573 0 8
14.6247 5.6279 -2.4953 0.1573 0 8
14.5324 5.8622 -2.4953 0.1573 0 8
14.4363 6.0950 -2.4953 0.1573 0 8
14.3365 6.3263 -2.4953 0.1573 0 8
14.2329 6.5559 -2.4953 0.1573 0 8
14.1257 6.7838 -2.4953 0.1573 0 8
14.0149 7.0099 -2.4953 0.1573 0 8
13.9004 7.2343 -2.4953 0.1573 0 8
13.7823 7.4568 -2.4953 0.1573 0 8
13.6607 7.6773 -2.4953 0.1573 0 8
13.5355 7.8959 -2.4953 0.1573 0 8
13.4069 8.1124 -2.4953 0.1573 0 8
13.2748 8.3268 -2.4953 0.1573 0 8
13.9417 9.0606 -2.6477 0.1573 0 7
13.7943 9.2835 -2.6477 0.1573 0 7
13.6433 9.5041 -2.6477 0.1573 0 7
13.4888 9.7221 -2.6477 0.1573 0 7
13.3308 9.9376 -2.6477 0.1573 0 7
13.1694 10.1506 -2.6477 0.1573 0 7
13.0045 10.3610 -2.6477 0.1573 0 7
12.8363 10.5686 -2.6477 0.1573 0 7
12.6648 10.7736 -2.6477 0.1573 0 7
12.4900 10.9757 -2.6477 0.1573 0 7
12.3120 11.1751 -2.6477 0.1573 0 7
12.1308 11.3715 -2.6477 0.1573 0 7
11.9465 11.5650 -2.6477 0.1573 0 7
11.7590 11.7555 -2.6477 0.1573 0 7
11.5686 11.9430 -2.6477 0.1573 0 7
11.3751 12.1274 -2.6477 0.1573 0 7
11.1788 12.3086 -2.6477 0.1573 0 7
10.9795 12.4867 -2.6477 0.1573 0 7
10.7774 12.6616 -2.6477 0.1573 0 7
10.5725 12.8331 -2.6477 0.1573 0 7
-10.6095 -10.4235 -2.4953 0.1655 0 8
-10.4406 -10.5927 -2.4953 0.1655 0 8
-10.2690 -10.7591 -2.4953 0.1655 0 8
-10.0948 -10.9228 -2.4953 0.1655 0 8
-9.9179 -11.0836 -2.4953 0.1655 0 8
-9.7385 -11.2416 -2.4953 0.1655 0 8
-9.5566 -11.3967 -2.4953 0.1655 0 8
-9.3722 -11.5488 -2.4953 0.1655 0 8
-9.1853 -11.6979 -2.4953 0.1655 0 8
-8.9961 -11.8440 -2.4953 0.1655 0 8
-8.8046 -11.9871 -2.4953 0.1655 0 8
-8.6108 -12.1271 -2.4953 0.1655 0 8
-8.4148 -12.2639 -2.4953 0.1655 0 8
-8.2166 -12.3975 -2.4953 0.1655 0 8
-8.0163 -12.5280 -2.4953 0.1655 0 8
-7.8139 -12.6552 -2.4953 0.1655 0 8
-7.6095 -12.7792 -2.4953 0.1655 0 8
-7.4031 -12.8998 -2.4953 0.1655 0 8
-7.1948 -13.0171 -2.4953 0.1655 0 8
-6.9847 -13.1311 -2.4953 0.1655 0 8
-6.7727 -13.2417 -2.4953 0.1655 0 8
-6.5590 -13.3488 -2.4953 0.1655 0 8
-6.3436 -13.4525 -2.4953 0.1655 0 8
-6.1266 -13.5527 -2.4953 0.1655 0 8
-5.9080 -13.6494 -2.4953 0.1655 0 8
-5.6879 -13.7426 -2.4953 0.1655 0 8
-5.4663 -13.8323 -2.4953 0.1655 0 8
-5.2432 -13.9183 -2.4953 0.1655 0 8
-5.0189 -14.0008 -2.4953 0.1655 0 8
-4.7932 -14.0797 -2.4953 0.1655 0 8
-4.5663 -14.1549 -2.4953 0.1655 0 8
-4.3382 -14.2264 -2.4953 0.1655 0 8
-4.1090 -14.2943 -2.4953 0.1655 0 8
-3.8787 -14.3585 -2.4953 0.1655 0 8
-3.6474 -14.4190 -2.4953 0.1655 0 8
-3.4152 -14.4758 -2.4953 0.1655 0 8
-3.1821 -14.5288 -2.4953 0.1655 0 8
-2.9482 -14.5781 -2.4953 0.1655 0 8
-2.7135 -14.6236 -2.4953 0.1655 0 8
-2.4781 -14.6653 -2.4953 0.1655 0 8
-2.2421 -14.7032 -2.4953 0.1655 0 8
-2.0055 -14.7374 -2.4953 0.1655 0 8
-1.7684 -14.7677 -2.4953 0.1655 0 8
-1.5308 -14.7942 -2.4953 0.1655 0 8
-1.2928 -14.8169 -2.4953 0.1655 0 8
-1.0545 -14.8358 -2.4953 0.1655 0 8
-0.8160 -14.8508 -2.4953 0.1655 0 8
-0.5772 -14.8620 -2.4953 0.1655 0 8
-0.3382 -14.8693 -2.4953 0.1655 0 8
-0.0992 -14.8729 -2.4953 0.1655 0 8
0.1399 -14.8725 -2.4953 0.1655 0 8
0.3789 -14.8684 -2.4953 0.1655 0 8
0.6178 -14.8604 -2.4953 0.1655 0 8
0.8566 -14.8485 -2.4953 0.1655 0 8
1.0951 -14.8328 -2.4953 0.1655 0 8
1.3333 -14.8133 -2.4953 0.1655 0 8
1.5712 -14.7900 -2.4953 0.1655 0 8
1.8088 -14.7628 -2.4953 0.1655 0 8
2.0458 -14.7318 -2.4953 0.1655 0 8
2.2823 -14.6970 -2.4953 0.1655 0 8
2.5182 -14.6585 -2.4953 0.1655 0 8
2.7535 -14.6161 -2.4953 0.1655 0 8
2.9880 -14.5699 -2.4953 0.1655 0 8
3.2218 -14.5202 -2.4953 0.1655 0 8
3.4548 -14.4664 -2.4953 0.1655 0 8
3.6868 -14.4090 -2.4953 0.1655 0 8
3.9180 -14.3479 -2.4953 0.1655 0 8
4.1481 -14.2830 -2.4953 0.1655 0 8
4.3771 -14.2145 -2.4953 0.1655 0 8
4.6050 -14.1423 -2.4953 0.1655 0 8
4.8317 -14.0665 -2.4953 0.1655 0 8
5.0571 -13.9870 -2.4953 0.1655 0 8
5.2813 -13.9039 -2.4953 0.1655 0 8
5.5041 -13.8173 -2.4953 0.1655 0 8
5.7254 -13.7270 -2.4953 0.1655 0 8
5.9453 -13.6332 -2.4953 0.1655 0 8
6.1636 -13.5359 -2.4953 0.1655 0 8
6.3804 -13.4351 -2.4953 0.1655 0 8
6.5955 -13.3308 -2.4953 0.1655 0 8
6.8089 -13.2231 -2.4953 0.1655 0 8
7.0206 -13.1120 -2.4953 0.1655 0 8
7.2304 -12.9974 -2.4953 0.1655 0 8
7.4384 -12.8795 -2.4953 0.1655 0 8
7.6444 -12.7583 -2.4953 0.1655 0 8
7.8485 -12.6338 -2.4953 0.1655 0 8
8.0505 -12.5060 -2.4953 0.1655 0 8
8.2505 -12.3750 -2.4953 0.1655 0 8
8.4483 -12.2408 -2.4953 0.1655 0 8
8.6439 -12.1035 -2.4953 0.1655 0 8
8.8373 -11.9630 -2.4953 0.1655 0 8
9.0285 -11.8194 -2.4953 0.1655 0 8
9.2173 -11.6728 -2.4953 0.1655 0 8
9.4037 -11.5231 -2.4953 0.1655 0 8
9.5877 -11.3705 -2.4953 0.1655 0 8
9.7692 -11.2149 -2.4953 0.1655 0 8
9.9482 -11.0565 -2.4953 0.1655 0 8
10.1246 -10.8951 -2.4953 0.1655 0 8
10.2984 -10.7310 -2.4953 0.1655 0 8
10.4695 -10.5641 -2.4953 0.1655 0 8
10.6380 -10.3945 -2.4953 0.1655 0 8
10.8037 -10.2222 -2.4953 0.1655 0 8
10.9666 -10.0472 -2.4953 0.1655 0 8
11.1266 -9.8696 -2.4953 0.1655 0 8
11.2838 -9.6895 -2.4953 0.1655 0 8
11.4381 -9.5069 -2.4953 0.1655 0 8
11.5894 -9.3219 -2.4953 0.1655 0 8
11.7377 -9.1344 -2.4953 0.1655 0 8
11.8830 -8.9446 -2.4953 0.1655 0 8
12.0253 -8.7524 -2.4953 0.1655 0 8
12.1644 -8.5580 -2.4953 0.1655 0 8
12.3003 -8.3614 -2.4953 0.1655 0 8
12.4331 -8.1626 -2.4953 0.1655 0 8
12.5627 -7.9618 -2.4953 0.1655 0 8
12.6891 -7.7588 -2.4953 0.1655 0 8
12.8121 -7.5539 -2.4953 0.1655 0 8
12.9319 -7.3470 -2.4953 0.1655 0 8
13.0483 -7.1382 -2.4953 0.1655 0 8
13.1613 -6.9275 -2.4953 0.1655 0 8
13.2710 -6.7151 -2.4953 0.1655 0 8
13.3772 -6.5010 -2.4953 0.1655 0 8
13.4799 -6.2851 -2.4953 0.1655 0 8
13.5792 -6.0677 -2.4953 0.1655 0 8
13.6750 -5.8486 -2.4953 0.1655 0 8
13.7672 -5.6281 -2.4953 0.1655 0 8
13.8559 -5.4061 -2.4953 0.1655 0 8
13.9410 -5.1827 -2.4953 0.1655 0 8
14.0225 -4.9580 -2.4953 0.1655 0 8
14.1004 -4.7320 -2.4953 0.1655 0 8
14.1746 -4.5047 -2.4953 0.1655 0 8
14.2452 -4.2763 -2.4953 0.1655 0 8
14.3120 -4.0468 -2.4953 0.1655 0 8
14.3752 -3.8163 -2.4953 0.1655 0 8
14.4347 -3.5847 -2.4953 0.1655 0 8
14.4905 -3.3523 -2.4953 0.1655 0 8
14.5425 -3.1189 -2.4953 0.1655 0 8
14.5907 -2.8848 -2.4953 0.1655 0 8
14.6352 -2.6499 -2.4953 0.1655 0 8
14.6759 -2.4144 -2.4953 0.1655 0 8
14.7128 -2.1782 -2.4953 0.1655 0 8
14.7459 -1.9414 -2.4953 0.1655 0 8
14.7752 -1.7042 -2.4953 0.1655 0 8
14.8007 -1.4665 -2.4953 0.1655 0 8
8.2159 -0.6809 -1.3831 0.3444 25 10
8.0604 -0.5377 -1.3553 0.3498 25 10
8.0144 -0.4054 -1.3463 0.3521 25 10
7.9661 -0.2747 -1.3373 0.3444 25 10
7.9469 -0.1462 -1.3335 0.3454 25 10
7.9337 -0.0184 -1.3310 0.3630 25 10
7.9412 0.1092 -1.3324 0.3457 25 10
7.9606 0.2375 -1.3361 0.3447 25 10
8.0011 0.3675 -1.3438 0.3528 25 10
8.0471 0.4993 -1.3527 0.3505 25 10
8.1440 0.6369 -1.3705 0.3475 25 10
8.6346 0.8150 -1.4551 0.0217 25 10
14.7830 1.6355 -2.4953 0.1655 0 8
14.7548 1.8729 -2.4953 0.1655 0 8
14.7228 2.1098 -2.4953 0.1655 0 8
14.6870 2.3462 -2.4953 0.1655 0 8
14.6474 2.5819 -2.4953 0.1655 0 8
14.6040 2.8170 -2.4953 0.1655 0 8
14.5568 3.0513 -2.4953 0.1655 0 8
14.5059 3.2849 -2.4953 0.1655 0 8
14.4512 3.5176 -2.4953 0.1655 0 8
14.3928 3.7494 -2.4953 0.1655 0 8
14.3307 3.9803 -2.4953 0.1655 0 8
14.2649 4.2101 -2.4953 0.1655 0 8
14.1954 4.4388 -2.4953 0.1655 0 8
14.1222 4.6664 -2.4953 0.1655 0 8
14.0454 4.8928 -2.4953 0.1655 0 8
13.9649 5.1179 -2.4953 0.1655 0 8
13.8809 5.3417 -2.4953 0.1655 0 8
13.7932 5.5641 -2.4953 0.1655 0 8
13.7020 5.7850 -2.4953 0.1655 0 8
13.6073 6.0045 -2.4953 0.1655 0 8
13.5090 6.2224 -2.4953 0.1655 0 8
13.4072 6.4387 -2.4953 0.1655 0 8
13.3020 6.6534 -2.4953 0.1655 0 8
13.1934 6.8663 -2.4953 0.1655 0 8
13.0813 7.0775 -2.4953 0.1655 0 8
12.9659 7.2868 -2.4953 0.1655 0 8
12.8471 7.4943 -2.4953 0.1655 0 8
12.7250 7.6998 -2.4953 0.1655 0 8
12.5996 7.9033 -2.4953 0.1655 0 8
12.4709 8.1048 -2.4953 0.1655 0 8
12.3391 8.3042 -2.4953 0.1655 0 8
12.9494 9.0207 -2.6477 0.1655 0 7
12.8027 9.2276 -2.6477 0.1655 0 7
12.6528 9.4322 -2.6477 0.1655 0 7
12.4995 9.6343 -2.6477 0.1655 0 7
12.3431 9.8340 -2.6477 0.1655 0 7
12.1834 10.0311 -2.6477 0.1655 0 7
12.0206 10.2256 -2.6477 0.1655 0 7
11.8547 10.4175 -2.6477 0.1655 0 7
11.6857 10.6067 -2.6477 0.1655 0 7
11.5138 10.7931 -2.6477 0.1655 0 7
11.3388 10.9768 -2.6477 0.1655 0 7
11.1609 11.1576 -2.6477 0.1655 0 7
10.9802 11.3355 -2.6477 0.1655 0 7
10.7966 11.5105 -2.6477 0.1655 0 6
10.6102 11.6826 -2.6477 0.1655 0 7
10.4210 11.8516 -2.6477 0.1655 0 7
10.2292 12.0176 -2.6477 0.1655 0 7
10.0347 12.1804 -2.6477 0.1655 0 7
-10.0946 -9.9177 -2.4953 0.1736 0 8
-9.9339 -10.0786 -2.4953 0.1736 0 8
-9.7707 -10.2370 -2.4953 0.1736 0 8
-9.6049 -10.3927 -2.4953 0.1736 0 8
-9.4366 -10.5457 -2.4953 0.1736 0 8
-9.2659 -10.6960 -2.4953 0.1736 0 8
-9.0928 -10.8436 -2.4953 0.1736 0 8
-8.9173 -10.9883 -2.4953 0.1736 0 8
-8.7396 -11.1302 -2.4953 0.1736 0 8
-8.5595 -11.2692 -2.4953 0.1736 0 8
-8.3773 -11.4054 -2.4953 0.1736 0 8
-8.1929 -11.5385 -2.4953 0.1736 0 8
-8.0064 -11.6687 -2.4953 0.1736 0 8
-7.8178 -11.7959 -2.4953 0.1736 0 8
-7.6273 -11.9200 -2.4953 0.1736 0 8
-7.4347 -12.0411 -2.4953 0.1736 0 8
-7.2402 -12.1591 -2.4953 0.1736 0 8
-7.0438 -12.2738 -2.4953 0.1736 0 8
-6.8457 -12.3854 -2.4953 0.1736 0 8
-6.6457 -12.4938 -2.4953 0.1736 0 8
-6.4441 -12.5990 -2.4953 0.1736 0 8
-6.2407 -12.7010 -2.4953 0.1736 0 8
-6.0358 -12.7996 -2.4953 0.1736 0 8
-5.8293 -12.8950 -2.4953 0.1736 0 8
-5.6213 -12.9870 -2.4953 0.1736 0 8
-5.4118 -13.0757 -2.4953 0.1736 0 8
-5.2010 -13.1610 -2.4953 0.1736 0 8
-4.9888 -13.2429 -2.4953 0.1736 0 8
-4.7753 -13.3213 -2.4953 0.1736 0 8
-4.5606 -13.3964 -2.4953 0.1736 0 8
-4.3447 -13.4679 -2.4953 0.1736 0 8
-4.1277 -13.5360 -2.4953 0.1736 0 8
-3.9096 -13.6006 -2.4953 0.1736 0 8
-3.6905 -13.6617 -2.4953 0.1736 0 8
-3.4704 -13.7193 -2.4953 0.1736 0 8
-3.2495 -13.7733 -2.4953 0.1736 0 8
-3.0277 -13.8237 -2.4953 0.1736 0 8
-2.8051 -13.8706 -2.4953 0.1736 0 8
-2.5818 -13.9139 -2.4953 0.1736 0 8
-2.3579 -13.9536 -2.4953 0.1736 0 8
-2.1333 -13.9897 -2.4953 0.1736 0 8
-1.9082 -14.0221 -2.4953 0.1736 0 8
-1.6826 -14.0510 -2.4953 0.1736 0 8
-1.4565 -14.0762 -2.4953 0.1736 0 8
-1.2301 -14.0978 -2.4953 0.1736 0 8
-1.0034 -14.1158 -2.4953 0.1736 0 8
-0.7764 -14.1301 -2.4953 0.1736 0 8
-0.5491 -14.1407 -2.4953 0.1736 0 8
-0.3218 -14.1477 -2.4953 0.1736 0 8
-0.0944 -14.1511 -2.4953 0.1736 0 8
0.1331 -14.1508 -2.4953 0.1736 0 8
0.3605 -14.1468 -2.4953 0.1736 0 8
0.5878 -14.1392 -2.4953 0.1736 0 8
0.8150 -14.1279 -2.4953 0.1736 0 8
1.0419 -14.1130 -2.4953 0.1736 0 8
1.2686 -14.0944 -2.4953 0.1736 0 8
1.4950 -14.0722 -2.4953 0.1736 0 8
1.7210 -14.0464 -2.4953 0.1736 0 8
1.9465 -14.0169 -2.4953 0.1736 0 8
2.1715 -13.9838 -2.4953 0.1736 0 8
2.3960 -13.9471 -2.4953 0.1736 0 8
2.6199 -13.9068 -2.4953 0.1736 0 8
2.8430 -13.8628 -2.4953 0.1736 0 8
3.0655 -13.8154 -2.4953 0.1736 0 8
3.2871 -13.7643 -2.4953 0.1736 0 8
3.5079 -13.7097 -2.4953 0.1736 0 8
3.7278 -13.6516 -2.4953 0.1736 0 8
3.9467 -13.5899 -2.4953 0.1736 0 8
4.1647 -13.5247 -2.4953 0.1736 0 8
4.3815 -13.4560 -2.4953 0.1736 0 8
4.5972 -13.3839 -2.4953 0.1736 0 8
4.8117 -13.3082 -2.4953 0.1736 0 8
5.0250 -13.2292 -2.4953 0.1736 0 8
5.2369 -13.1467 -2.4953 0.1736 0 8
5.4476 -13.0609 -2.4953 0.1736 0 8
5.6568 -12.9716 -2.4953 0.1736 0 8
5.8645 -12.8790 -2.4953 0.1736 0 8
6.0708 -12.7831 -2.4953 0.1736 0 8
6.2754 -12.6839 -2.4953 0.1736 0 8
6.4785 -12.5814 -2.4953 0.1736 0 8
6.6799 -12.4756 -2.4953 0.1736 0 8
6.8795 -12.3667 -2.4953 0.1736 0 8
7.0774 -12.2545 -2.4953 0.1736 0 8
7.2734 -12.1392 -2.4953 0.1736 0 8
7.4676 -12.0207 -2.4953 0.1736 0 8
7.6598 -11.8991 -2.4953 0.1736 0 8
7.8501 -11.7745 -2.4953 0.1736 0 8
8.0383 -11.6468 -2.4953 0.1736 0 8
8.2244 -11.5161 -2.4953 0.1736 0 8
8.4085 -11.3824 -2.4953 0.1736 0 8
8.5903 -11.2458 -2.4953 0.1736 0 8
8.7700 -11.1063 -2.4953 0.1736 0 8
8.9473 -10.9639 -2.4953 0.1736 0 8
9.1224 -10.8187 -2.4953 0.1736 0 8
9.2951 -10.6707 -2.4953 0.1736 0 8
9.4654 -10.5199 -2.4953 0.1736 0 8
9.6333 -10.3664 -2.4953 0.1736 0 8
9.7986 -10.2102 -2.4953 0.1736 0 8
9.9614 -10.0514 -2.4953 0.1736 0 8
10.1217 -9.8900 -2.4953 0.1736 0 8
10.2794 -9.7261 -2.4953 0.1736 0 8
10.4343 -9.5596 -2.4953 0.1736 0 8
10.5866 -9.3907 -2.4953 0.1736 0 8
10.7362 -9.2193 -2.4953 0.1736 0 8
10.8830 -9.0456 -2.4953 0.1736 0 8
11.0270 -8.8695 -2.4953 0.1736 0 8
11.1681 -8.6911 -2.4953 0.1736 0 8
11.3063 -8.5105 -2.4953 0.1736 0 8
11.4417 -8.3277 -2.4953 0.1736 0 8
11.5740 -8.1427 -2.4953 0.1736 0 8
11.7034 -7.9556 -2.4953 0.1736 0 8
11.8298 -7.7665 -2.4953 0.1736 0 8
11.9531 -7.5754 -2.4953 0.1736 0 8
12.0733 -7.3823 -2.4953 0.1736 0 8
12.1904 -7.1873 -2.4953 0.1736 0 8
12.3043 -6.9904 -2.4953 0.1736 0 8
12.4151 -6.7918 -2.4953 0.1736 0 8
12.5226 -6.5914 -2.4953 0.1736 0 8
12.6269 -6.3892 -2.4953 0.1736 0 8
12.7280 -6.1855 -2.4953 0.1736 0 8
12.8258 -5.9801 -2.4953 0.1736 0 8
12.9202 -5.7732 -2.4953 0.1736 0 8
13.0113 -5.5648 -2.4953 0.1736 0 8
13.0991 -5.3549 -2.4953 0.1736 0 8
13.1835 -5.1437 -2.4953 0.1736 0 8
13.2644 -4.9312 -2.4953 0.1736 0 8
13.3420 -4.7174 -2.4953 0.1736 0 8
13.4161 -4.5023 -2.4953 0.1736 0 8
13.4867 -4.2861 -2.4953 0.1736 0 8
13.5538 -4.0688 -2.4953 0.1736 0 8
13.6175 -3.8504 -2.4953 0.1736 0 8
13.6776 -3.6311 -2.4953 0.1736 0 8
13.7342 -3.4108 -2.4953 0.1736 0 8
13.7873 -3.1896 -2.4953 0.1736 0 8
13.8367 -2.9676 -2.4953 0.1736 0 8
13.8826 -2.7448 -2.4953 0.1736 0 8
13.9250 -2.5213 -2.4953 0.1736 0 8
13.9637 -2.2972 -2.4953 0.1736 0 8
13.9988 -2.0725 -2.4953 0.1736 0 8
14.0303 -1.8472 -2.4953 0.1736 0 8
14.0582 -1.6215 -2.4953 0.1736 0 8
8.4764 -0.8399 -1.5019 0.0859 25 10
8.0524 -0.6674 -1.4247 0.3628 25 10
7.8784 -0.5256 -1.3923 0.3526 25 10
7.8276 -0.3960 -1.3820 0.3416 25 10
7.7791 -0.2682 -1.3725 0.3522 25 10
7.7671 -0.1429 -1.3698 0.3702 25 10
7.7572 -0.0180 -1.3678 0.3707 25 10
7.7643 0.1068 -1.3692 0.3703 25 10
7.7740 0.2319 -1.3714 0.3525 25 10
7.8111 0.3588 -1.3788 0.3424 25 10
7.8634 0.4879 -1.3892 0.3581 25 10
7.9957 0.6253 -1.4142 0.3655 25 10
8.2570 0.7794 -1.4624 0.3418 25 10
14.0656 1.5561 -2.4953 0.1736 0 8
14.0387 1.7820 -2.4953 0.1736 0 8
14.0083 2.0074 -2.4953 0.1736 0 8
13.9742 2.2323 -2.4953 0.1736 0 8
13.9365 2.4566 -2.4953 0.1736 0 8
13.8952 2.6803 -2.4953 0.1736 0 8
13.8504 2.9033 -2.4953 0.1736 0 8
13.8019 3.1255 -2.4953 0.1736 0 8
13.7499 3.3469 -2.4953 0.1736 0 8
13.6943 3.5675 -2.4953 0.1736 0 8
13.6352 3.7871 -2.4953 0.1736 0 8
13.5726 4.0058 -2.4953 0.1736 0 8
13.5065 4.2234 -2.4953 0.1736 0 8
13.4368 4.4399 -2.4953 0.1736 0 8
13.3637 4.6553 -2.4953 0.1736 0 8
13.2872 4.8695 -2.4953 0.1736 0 8
13.2072 5.0824 -2.4953 0.1736 0 8
13.1238 5.2940 -2.4953 0.1736 0 8
13.0371 5.5043 -2.4953 0.1736 0 8
12.9469 5.7131 -2.4953 0.1736 0 8
12.8534 5.9205 -2.4953 0.1736 0 8
12.7566 6.1263 -2.4953 0.1736 0 8
12.6565 6.3305 -2.4953 0.1736 0 8
12.5531 6.5331 -2.4953 0.1736 0 8
12.4465 6.7340 -2.4953 0.1736 0 8
12.3366 6.9332 -2.4953 0.1736 0 8
12.2236 7.1306 -2.4953 0.1736 0 8
12.1074 7.3261 -2.4953 0.1736 0 8
11.9881 7.5198 -2.4953 0.1736 0 8
11.8657 7.7115 -2.4953 0.1736 0 8
11.7402 7.9012 -2.4953 0.1736 0 8
11.6117 8.0888 -2.4953 0.1736 0 8
11.4802 8.2744 -2.4953 0.1736 0 8
11.3458 8.4579 -2.4953 0.1736 0 8
11.8929 9.1668 -2.6477 0.1736 0 7
11.7440 9.3567 -2.6477 0.1736 0 7
11.5922 9.5443 -2.6477 0.1736 0 7
11.4373 9.7294 -2.6477 0.1736 0 7
11.2794 9.9119 -2.6477 0.1736 0 7
11.1186 10.0919 -2.6477 0.1736 0 7
10.9550 10.2693 -2.6477 0.1736 0 7
10.7885 10.4441 -2.6477 0.1736 0 7
10.6193 10.6161 -2.6477 0.1736 0 7
10.4473 10.7854 -2.6477 0.1736 0 7
10.2726 10.9519 -2.6477 0.1736 0 7
10.0952 11.1156 -2.6477 0.1736 0 7
9.9153 11.2764 -2.6477 0.1736 0 7
9.7328 11.4343 -2.6477 0.1736 0 6
9.5477 11.5893 -2.6477 0.1736 0 7
-9.6261 -9.4574 -2.4953 0.1818 0 8
-9.4729 -9.6109 -2.4953 0.1818 0 8
-9.3172 -9.7619 -2.4953 0.1818 0 8
-9.1591 -9.9103 -2.4953 0.1818 0 8
-8.9986 -10.0563 -2.4953 0.1818 0 8
-8.8358 -10.1996 -2.4953 0.1818 0 8
-8.6708 -10.3403 -2.4953 0.1818 0 8
-8.5034 -10.4783 -2.4953 0.1818 0 8
-8.3339 -10.6136 -2.4953 0.1818 0 8
-8.1623 -10.7462 -2.4953 0.1818 0 8
-7.9885 -10.8760 -2.4953 0.1818 0 8
-7.8127 -11.0030 -2.4953 0.1818 0 8
-7.6348 -11.1271 -2.4953 0.1818 0 8
-7.4550 -11.2484 -2.4953 0.1818 0 8
-7.2733 -11.3665 -2.4953 0.1818 0 8
-7.0896 -11.4822 -2.4953 0.1818 0 8
-6.9042 -11.5947 -2.4953 0.1818 0 8
-6.7169 -11.7041 -2.4953 0.1818 0 8
-6.5279 -11.8106 -2.4953 0.1818 0 8
-6.3373 -11.9140 -2.4953 0.1818 0 8
-6.1450 -12.0143 -2.4953 0.1818 0 8
-5.9511 -12.1115 -2.4953 0.1818 0 8
-5.7557 -12.2056 -2.4953 0.1818 0 8
-5.5587 -12.2965 -2.4953 0.1818 0 8
-5.3604 -12.3843 -2.4953 0.1818 0 8
-5.1606 -12.4688 -2.4953 0.1818 0 8
-4.9596 -12.5501 -2.4953 0.1818 0 8
-4.7572 -12.6282 -2.4953 0.1818 0 8
-4.5537 -12.7031 -2.4953 0.1818 0 8
-4.3489 -12.7746 -2.4953 0.1818 0 8
-4.1430 -12.8429 -2.4953 0.1818 0 8
-3.9361 -12.9078 -2.4953 0.1818 0 8
-3.7281 -12.9694 -2.4953 0.1818 0 8
-3.5192 -13.0276 -2.4953 0.1818 0 8
-3.3094 -13.0825 -2.4953 0.1818 0 8
-3.0987 -13.1340 -2.4953 0.1818 0 8
-2.8872 -13.1821 -2.4953 0.1818 0 8
-2.6749 -13.2268 -2.4953 0.1818 0 8
-2.4620 -13.2681 -2.4953 0.1818 0 8
-2.2484 -13.3059 -2.4953 0.1818 0 8
-2.0343 -13.3404 -2.4953 0.1818 0 8
-1.8196 -13.3713 -2.4953 0.1818 0 8
-1.6045 -13.3989 -2.4953 0.1818 0 8
-1.3889 -13.4229 -2.4953 0.1818 0 8
-1.1730 -13.4435 -2.4953 0.1818 0 8
-0.9568 -13.4606 -2.4953 0.1818 0 8
-0.7403 -13.4743 -2.4953 0.1818 0 8
-0.5237 -13.4844 -2.4953 0.1818 0 8
-0.3069 -13.4911 -2.4953 0.1818 0 8
-0.0900 -13.4943 -2.4953 0.1818 0 8
0.1269 -13.4940 -2.4953 0.1818 0 8
0.3438 -13.4902 -2.4953 0.1818 0 8
0.5605 -13.4829 -2.4953 0.1818 0 8
0.7772 -13.4722 -2.4953 0.1818 0 8
0.9936 -13.4579 -2.4953 0.1818 0 8
1.2098 -13.4402 -2.4953 0.1818 0 8
1.4256 -13.4191 -2.4953 0.1818 0 8
1.6411 -13.3944 -2.4953 0.1818 0 8
1.8562 -13.3663 -2.4953 0.1818 0 8
2.0708 -13.3348 -2.4953 0.1818 0 8
2.2848 -13.2997 -2.4953 0.1818 0 8
2.4983 -13.2613 -2.4953 0.1818 0 8
2.7111 -13.2194 -2.4953 0.1818 0 8
2.9232 -13.1742 -2.4953 0.1818 0 8
3.1346 -13.1255 -2.4953 0.1818 0 8
3.3451 -13.0734 -2.4953 0.1818 0 8
3.5548 -13.0179 -2.4953 0.1818 0 8
3.7636 -12.9591 -2.4953 0.1818 0 8
3.9714 -12.8970 -2.4953 0.1818 0 8
4.1781 -12.8315 -2.4953 0.1818 0 8
4.3838 -12.7627 -2.4953 0.1818 0 8
4.5884 -12.6906 -2.4953 0.1818 0 8
4.7917 -12.6152 -2.4953 0.1818 0 8
4.9939 -12.5365 -2.4953 0.1818 0 8
5.1947 -12.4547 -2.4953 0.1818 0 8
5.3942 -12.3696 -2.4953 0.1818 0 8
5.5923 -12.2813 -2.4953 0.1818 0 8
5.7890 -12.1898 -2.4953 0.1818 0 8
5.9842 -12.0952 -2.4953 0.1818 0 8
6.1778 -11.9974 -2.4953 0.1818 0 8
6.3698 -11.8966 -2.4953 0.1818 0 8
6.5602 -11.7927 -2.4953 0.1818 0 8
6.7489 -11.6857 -2.4953 0.1818 0 8
6.9358 -11.5757 -2.4953 0.1818 0 8
7.1210 -11.4628 -2.4953 0.1818 0 8
7.3043 -11.3468 -2.4953 0.1818 0 8
7.4857 -11.2280 -2.4953 0.1818 0 8
7.6652 -11.1062 -2.4953 0.1818 0 8
7.8427 -10.9816 -2.4953 0.1818 0 8
8.0182 -10.8541 -2.4953 0.1818 0 8
8.1916 -10.7238 -2.4953 0.1818 0 8
8.3629 -10.5908 -2.4953 0.1818 0 8
8.5321 -10.4550 -2.4953 0.1818 0 8
8.6990 -10.3165 -2.4953 0.1818 0 8
8.8637 -10.1754 -2.4953 0.1818 0 8
9.0261 -10.0316 -2.4953 0.1818 0 8
9.1861 -9.8853 -2.4953 0.1818 0 8
9.3438 -9.7363 -2.4953 0.1818 0 8
9.4991 -9.5850 -2.4953 0.1818 0 8
9.6519 -9.4310 -2.4953 0.1818 0 8
9.8023 -9.2747 -2.4953 0.1818 0 8
9.9501 -9.1159 -2.4953 0.1818 0 8
10.0953 -8.9548 -2.4953 0.1818 0 8
10.2379 -8.7914 -2.4953 0.1818 0 8
10.3779 -8.6257 -2.4953 0.1818 0 8
10.5152 -8.4578 -2.4953 0.1818 0 8
10.6498 -8.2877 -2.4953 0.1818 0 8
10.7816 -8.1155 -2.4953 0.1818 0 8
10.9106 -7.9412 -2.4953 0.1818 0 8
11.0368 -7.7648 -2.4953 0.1818 0 8
11.1602 -7.5864 -2.4953 0.1818 0 8
11.2807 -7.4060 -2.4953 0.1818 0 8
11.3983 -7.2238 -2.4953 0.1818 0 8
11.5129 -7.0396 -2.4953 0.1818 0 8
11.6246 -6.8537 -2.4953 0.1818 0 8
11.7332 -6.6660 -2.4953 0.1818 0 8
11.8388 -6.4765 -2.4953 0.1818 0 8
11.9414 -6.2854 -2.4953 0.1818 0 8
12.0409 -6.0927 -2.4953 0.1818 0 8
12.1372 -5.8984 -2.4953 0.1818 0 8
12.2305 -5.7025 -2.4953 0.1818 0 8
12.3205 -5.5052 -2.4953 0.1818 0 8
12.4074 -5.3065 -2.4953 0.1818 0 8
12.4911 -5.1064 -2.4953 0.1818 0 8
12.5716 -4.9050 -2.4953 0.1818 0 8
12.6488 -4.7023 -2.4953 0.1818 0 8
12.7227 -4.4984 -2.4953 0.1818 0 8
12.7934 -4.2933 -2.4953 0.1818 0 8
12.8607 -4.0872 -2.4953 0.1818 0 8
12.9248 -3.8799 -2.4953 0.1818 0 8
12.9855 -3.6717 -2.4953 0.1818 0 8
13.0428 -3.4625 -2.4953 0.1818 0 8
13.0968 -3.2525 -2.4953 0.1818 0 8
13.1473 -3.0415 -2.4953 0.1818 0 8
13.1945 -2.8298 -2.4953 0.1818 0 8
13.2383 -2.6174 -2.4953 0.1818 0 8
13.2787 -2.4043 -2.4953 0.1818 0 8
13.3156 -2.1906 -2.4953 0.1818 0 8
13.3491 -1.9763 -2.4953 0.1818 0 8
