ply
format ascii 1.0
element vertex 1380
property float32 x
property float32 y
property float32 z
property float32 CosAngle
property uint32 ObjIdx
property uint32 ObjTag
end_header
-9.1715 24.8191 -2.6477 0.0996 0 7
-9.5687 24.6687 -2.6477 0.0996 0 7
-9.9634 24.5120 -2.6477 0.0996 0 7
-10.3555 24.3489 -2.6477 0.0996 0 7
-10.7449 24.1796 -2.6477 0.0996 0 7
-11.1316 24.0040 -2.6477 0.0996 0 7
-11.5154 23.8223 -2.6477 0.0996 0 7
-11.2458 22.3420 -2.5029 0.0996 0 8
-11.6029 22.1586 -2.5029 0.0996 0 14
-11.9570 21.9696 -2.5029 0.0996 0 14
-12.3081 21.7748 -2.5029 0.0996 0 14
-12.6560 21.5745 -2.5029 0.0996 0 14
-13.0006 21.3686 -2.5029 0.0996 0 14
-13.3419 21.1572 -2.5029 0.0996 0 14
-13.6797 20.9403 -2.5029 0.0996 0 14
-14.0141 20.7181 -2.5029 0.0996 0 14
-14.3448 20.4905 -2.5029 0.0996 0 14
-14.6718 20.2576 -2.5029 0.0996 0 14
18.0743 16.4063 -2.6477 0.1078 0 7
17.8087 16.6943 -2.6477 0.1078 0 7
17.5385 16.9779 -2.6477 0.1078 0 7
17.2637 17.2572 -2.6477 0.1078 0 7
16.9845 17.5321 -2.6477 0.1078 0 7
16.7010 17.8024 -2.6477 0.1078 0 7
16.4131 18.0682 -2.6477 0.1078 0 7
16.1210 18.3292 -2.6477 0.1078 0 7
15.8247 18.5856 -2.6477 0.1078 0 7
15.5244 18.8372 -2.6477 0.1078 0 7
15.1362 18.9788 -2.6331 0.7822 0 8
14.6477 18.9834 -2.6008 0.7919 0 8
14.1708 18.9878 -2.5699 0.8014 0 8
13.7049 18.9920 -2.5403 0.8107 0 8
13.2494 18.9959 -2.5121 0.8199 0 8
12.8953 19.1357 -2.5029 0.1078 0 8
12.5866 19.3402 -2.5029 0.1078 0 14
12.2745 19.5397 -2.5029 0.1078 0 14
11.9594 19.7342 -2.5029 0.1078 0 14
11.6411 19.9236 -2.5029 0.1078 0 14
11.3198 20.1079 -2.5029 0.1078 0 14
10.9956 20.2870 -2.5029 0.1078 0 14
10.6686 20.4608 -2.5029 0.1078 0 14
10.3389 20.6294 -2.5029 0.1078 0 14
10.0064 20.7927 -2.5029 0.1078 0 14
9.6714 20.9506 -2.5029 0.1078 0 14
9.3340 21.1031 -2.5029 0.1078 0 14
8.9941 21.2502 -2.5029 0.1078 0 14
8.6519 21.3918 -2.5029 0.1078 0 14
8.3074 21.5279 -2.5029 0.1078 0 14
7.9608 21.6585 -2.5029 0.1078 0 14
7.6122 21.7835 -2.5029 0.1078 0 14
7.2616 21.9028 -2.5029 0.1078 0 14
6.9092 22.0166 -2.5029 0.1078 0 14
6.5549 22.1246 -2.5029 0.1078 0 14
6.1990 22.2270 -2.5029 0.1078 0 14
5.8415 22.3236 -2.5029 0.1078 0 8
5.4823 22.4145 -2.5029 0.1078 0 8
5.4183 23.8011 -2.6477 0.1078 0 7
5.0356 23.8850 -2.6477 0.1078 0 7
4.6516 23.9627 -2.6477 0.1078 0 7
4.2664 24.0343 -2.6477 0.1078 0 7
3.8801 24.0996 -2.6477 0.1078 0 7
3.4928 24.1588 -2.6477 0.1078 0 7
3.1046 24.2118 -2.6477 0.1078 0 7
2.7156 24.2585 -2.6477 0.1078 0 7
2.3260 24.2989 -2.6477 0.1078 0 7
1.9357 24.3331 -2.6477 0.1078 0 7
1.5449 24.3611 -2.6477 0.1078 0 7
1.1537 24.3827 -2.6477 0.1078 0 7
0.7622 24.3981 -2.6477 0.1078 0 7
0.3706 24.4072 -2.6477 0.1078 0 7
-0.0212 24.4100 -2.6477 0.1078 0 7
-0.4130 24.4065 -2.6477 0.1078 0 7
-0.8046 24.3967 -2.6477 0.1078 0 7
-1.1961 24.3807 -2.6477 0.1078 0 7
-1.5872 24.3583 -2.6477 0.1078 0 7
-1.9779 24.3297 -2.6477 0.1078 0 7
-2.3682 24.2948 -2.6477 0.1078 0 7
-2.7578 24.2537 -2.6477 0.1078 0 7
-3.1467 24.2063 -2.6477 0.1078 0 7
-3.5348 24.1527 -2.6477 0.1078 0 7
-3.9220 24.0929 -2.6477 0.1078 0 7
-4.3081 24.0268 -2.6477 0.1078 0 7
-4.6932 23.9546 -2.6477 0.1078 0 7
-5.0770 23.8762 -2.6477 0.1078 0 7
-5.4596 23.7916 -2.6477 0.1078 0 7
-5.8407 23.7009 -2.6477 0.1078 0 7
-5.8802 22.3134 -2.5029 0.1078 0 8
-6.2376 22.2162 -2.5029 0.1078 0 14
-6.5933 22.1132 -2.5029 0.1078 0 14
-6.9474 22.0045 -2.5029 0.1078 0 14
-7.2997 21.8902 -2.5029 0.1078 0 14
-7.6500 21.7702 -2.5029 0.1078 0 14
-7.9984 21.6446 -2.5029 0.1078 0 14
-8.3448 21.5135 -2.5029 0.1078 0 14
-8.6890 21.3768 -2.5029 0.1078 0 14
-9.0310 21.2346 -2.5029 0.1078 0 14
-9.3706 21.0869 -2.5029 0.1078 0 14
-9.7078 20.9338 -2.5029 0.1078 0 14
-10.0425 20.7753 -2.5029 0.1078 0 14
-10.3747 20.6114 -2.5029 0.1078 0 14
-10.7042 20.4423 -2.5029 0.1078 0 14
-11.0309 20.2678 -2.5029 0.1078 0 14
-11.3547 20.0882 -2.5029 0.1078 0 14
-11.6757 19.9034 -2.5029 0.1078 0 14
-11.9936 19.7134 -2.5029 0.1078 0 14
-12.3085 19.5184 -2.5029 0.1078 0 14
-12.6201 19.3183 -2.5029 0.1078 0 14
-12.9286 19.1133 -2.5029 0.1078 0 14
-13.2503 18.9271 -2.5060 0.6532 0 8
-13.7009 18.9171 -2.5335 0.8129 0 8
16.7728 15.2249 -2.6477 0.1161 0 7
16.5263 15.4921 -2.6477 0.1161 0 7
16.2756 15.7554 -2.6477 0.1161 0 7
16.0206 16.0146 -2.6477 0.1161 0 7
15.7615 16.2696 -2.6477 0.1161 0 7
15.4984 16.5205 -2.6477 0.1161 0 7
15.2312 16.7671 -2.6477 0.1161 0 7
14.9601 17.0094 -2.6477 0.1161 0 7
14.6852 17.2473 -2.6477 0.1161 0 7
14.4065 17.4808 -2.6477 0.1161 0 7
14.1241 17.7097 -2.6477 0.1161 0 7
13.8381 17.9341 -2.6477 0.1161 0 7
13.5484 18.1539 -2.6477 0.1161 0 7
13.2553 18.3690 -2.6477 0.1161 0 7
12.9588 18.5794 -2.6477 0.1161 0 7
12.6590 18.7850 -2.6477 0.1161 0 7
12.3448 18.9687 -2.6453 0.8382 0 8
11.9182 18.9725 -2.6188 0.8467 0 8
11.4998 18.9760 -2.5935 0.8550 0 8
11.0894 18.9793 -2.5693 0.8630 0 8
10.6863 18.9825 -2.5462 0.8708 0 8
10.2902 18.9855 -2.5241 0.8785 0 8
9.9037 18.9937 -2.5037 0.7039 0 8
9.5953 19.1458 -2.5031 0.7091 0 8
9.2859 19.2954 -2.5029 0.1161 0 14
8.9750 19.4420 -2.5029 0.1161 0 14
8.6618 19.5835 -2.5029 0.1161 0 14
8.3464 19.7200 -2.5029 0.1161 0 14
8.0288 19.8514 -2.5029 0.1161 0 14
7.7092 19.9777 -2.5029 0.1161 0 14
7.3876 20.0989 -2.5029 0.1161 0 14
7.0641 20.2149 -2.5029 0.1161 0 14
6.7387 20.3256 -2.5029 0.1161 0 14
6.4116 20.4312 -2.5029 0.1161 0 14
6.0829 20.5314 -2.5029 0.1161 0 14
5.7526 20.6264 -2.5029 0.1161 0 14
5.4208 20.7161 -2.5029 0.1161 0 14
5.0876 20.8004 -2.5029 0.1161 0 14
4.7531 20.8794 -2.5029 0.1161 0 14
4.4174 20.9530 -2.5029 0.1161 0 14
4.0806 21.0212 -2.5029 0.1161 0 14
3.7427 21.0840 -2.5029 0.1161 0 14
3.4038 21.1413 -2.5029 0.1161 0 14
3.0641 21.1932 -2.5029 0.1161 0 14
2.7235 21.2397 -2.5029 0.1161 0 14
2.3823 21.2807 -2.5029 0.1161 0 14
2.0404 21.3162 -2.5029 0.1161 0 14
1.6981 21.3462 -2.5029 0.1161 0 14
1.3553 21.3707 -2.5029 0.1161 0 14
1.0121 21.3897 -2.5029 0.1161 0 14
0.6687 21.4032 -2.5029 0.1161 0 14
0.3251 21.4111 -2.5029 0.1161 0 14
-0.0186 21.4136 -2.5029 0.1161 0 14
-0.3623 21.4105 -2.5029 0.1161 0 14
-0.7059 21.4020 -2.5029 0.1161 0 14
-1.0492 21.3879 -2.5029 0.1161 0 14
-1.3924 21.3683 -2.5029 0.1161 0 14
-1.7351 21.3432 -2.5029 0.1161 0 14
-2.0775 21.3126 -2.5029 0.1161 0 14
-2.4192 21.2765 -2.5029 0.1161 0 14
-2.7604 21.2349 -2.5029 0.1161 0 14
-3.1009 21.1879 -2.5029 0.1161 0 14
-3.4405 21.1354 -2.5029 0.1161 0 14
-3.7793 21.0774 -2.5029 0.1161 0 14
-4.1171 21.0141 -2.5029 0.1161 0 14
-4.4538 20.9453 -2.5029 0.1161 0 14
-4.7894 20.8711 -2.5029 0.1161 0 14
-5.1238 20.7916 -2.5029 0.1161 0 14
-5.4568 20.7067 -2.5029 0.1161 0 14
-5.7884 20.6164 -2.5029 0.1161 0 14
-6.1185 20.5208 -2.5029 0.1161 0 14
-6.4471 20.4200 -2.5029 0.1161 0 14
-6.7740 20.3139 -2.5029 0.1161 0 14
-7.0992 20.2026 -2.5029 0.1161 0 14
-7.4225 20.0860 -2.5029 0.1161 0 14
-7.7439 19.9643 -2.5029 0.1161 0 14
-8.0633 19.8375 -2.5029 0.1161 0 14
-8.3806 19.7055 -2.5029 0.1161 0 14
-8.6958 19.5685 -2.5029 0.1161 0 14
-9.0088 19.4264 -2.5029 0.1161 0 14
-9.3194 19.2793 -2.5029 0.1161 0 14
-9.6276 19.1272 -2.5029 0.1161 0 14
-9.9334 18.9702 -2.5029 0.1161 0 8
-10.3023 18.9292 -2.5190 0.8802 0 8
-10.6967 18.9241 -2.5408 0.8727 0 8
-11.0981 18.9187 -2.5637 0.8649 0 8
-11.5067 18.9131 -2.5876 0.8569 0 8
-11.9231 18.9074 -2.6127 0.8487 0 8
-12.3477 18.9013 -2.6389 0.8402 0 8
-12.6916 18.7630 -2.6477 0.1161 0 7
-12.9911 18.5569 -2.6477 0.1161 0 7
-13.2872 18.3460 -2.6477 0.1161 0 6
15.6441 14.2004 -2.6477 0.1243 0 7
15.4142 14.4496 -2.6477 0.1243 0 7
15.1803 14.6951 -2.6477 0.1243 0 7
14.9426 14.9369 -2.6477 0.1243 0 6
14.7009 15.1748 -2.6477 0.1243 0 7
14.4554 15.4088 -2.6477 0.1243 0 7
14.2063 15.6388 -2.6477 0.1243 0 7
13.9534 15.8648 -2.6477 0.1243 0 7
13.6970 16.0867 -2.6477 0.1243 0 7
13.4371 16.3044 -2.6477 0.1243 0 7
13.1737 16.5180 -2.6477 0.1243 0 7
12.9069 16.7273 -2.6477 0.1243 0 7
12.6367 16.9323 -2.6477 0.1243 0 7
12.3634 17.1329 -2.6477 0.1243 0 7
12.0868 17.3291 -2.6477 0.1243 0 7
11.8071 17.5209 -2.6477 0.1243 0 7
11.5244 17.7081 -2.6477 0.1243 0 7
11.2387 17.8908 -2.6477 0.1243 0 7
10.9501 18.0689 -2.6477 0.1243 0 7
10.6587 18.2423 -2.6477 0.1243 0 7
10.3646 18.4110 -2.6477 0.1243 0 6
10.0677 18.5750 -2.6477 0.1243 0 7
9.7683 18.7342 -2.6477 0.1243 0 7
9.4664 18.8885 -2.6477 0.1243 0 7
9.1251 18.9613 -2.6370 0.9006 0 8
8.7543 18.9639 -2.6175 0.9073 0 8
8.3889 18.9663 -2.5989 0.9138 0 8
8.0284 18.9686 -2.5812 0.9201 0 8
7.6726 18.9707 -2.5644 0.9261 0 8
7.3214 18.9727 -2.5485 0.9319 0 8
6.9743 18.9745 -2.5334 0.9375 0 8
6.6312 18.9762 -2.5190 0.9428 0 8
6.2930 18.9814 -2.5060 0.7533 0 8
5.9802 19.0563 -2.5029 0.1243 0 8
5.6736 19.1498 -2.5029 0.1243 0 14
5.3655 19.2384 -2.5029 0.1243 0 14
5.0560 19.3220 -2.5029 0.1243 0 14
4.7453 19.4007 -2.5029 0.1243 0 14
4.4333 19.4744 -2.5029 0.1243 0 14
4.1202 19.5430 -2.5029 0.1243 0 14
3.8060 19.6066 -2.5029 0.1243 0 14
3.4908 19.6652 -2.5029 0.1243 0 14
3.1748 19.7187 -2.5029 0.1243 0 14
2.8579 19.7671 -2.5029 0.1243 0 14
2.5403 19.8104 -2.5029 0.1243 0 14
2.2220 19.8486 -2.5029 0.1243 0 14
1.9031 19.8817 -2.5029 0.1243 0 14
1.5838 19.9097 -2.5029 0.1243 0 14
1.2641 19.9326 -2.5029 0.1243 0 14
0.9440 19.9503 -2.5029 0.1243 0 14
0.6237 19.9629 -2.5029 0.1243 0 14
0.3032 19.9703 -2.5029 0.1243 0 14
-0.0173 19.9726 -2.5029 0.1243 0 14
-0.3379 19.9697 -2.5029 0.1243 0 14
-0.6584 19.9617 -2.5029 0.1243 0 14
-0.9786 19.9486 -2.5029 0.1243 0 14
-1.2987 19.9303 -2.5029 0.1243 0 14
-1.6184 19.9069 -2.5029 0.1243 0 14
-1.9377 19.8784 -2.5029 0.1243 0 14
-2.2565 19.8447 -2.5029 0.1243 0 14
-2.5747 19.8060 -2.5029 0.1243 0 14
-2.8922 19.7621 -2.5029 0.1243 0 14
-3.2090 19.7131 -2.5029 0.1243 0 14
-3.5250 19.6591 -2.5029 0.1243 0 14
-3.8400 19.6000 -2.5029 0.1243 0 14
-4.1541 19.5358 -2.5029 0.1243 0 14
-4.4671 19.4666 -2.5029 0.1243 0 14
-4.7790 19.3924 -2.5029 0.1243 0 14
-5.0896 19.3132 -2.5029 0.1243 0 14
-5.3989 19.2291 -2.5029 0.1243 0 14
-5.7068 19.1399 -2.5029 0.1243 0 14
-6.0133 19.0459 -2.5029 0.1243 0 8
-6.3189 18.9492 -2.5032 0.7541 0 8
-6.6555 18.9399 -2.5158 0.9440 0 8
-6.9976 18.9364 -2.5299 0.9387 0 8
-7.3437 18.9326 -2.5448 0.9332 0 8
-7.6939 18.9288 -2.5605 0.9275 0 8
-8.0486 18.9247 -2.5771 0.9215 0 8
-8.4079 18.9205 -2.5946 0.9153 0 8
-8.7721 18.9160 -2.6130 0.9089 0 8
-9.1416 18.9114 -2.6323 0.9022 0 8
-9.4992 18.8721 -2.6477 0.1243 0 7
-9.8008 18.7172 -2.6477 0.1243 0 7
-10.1000 18.5575 -2.6477 0.1243 0 7
-10.3965 18.3930 -2.6477 0.1243 0 6
-10.6904 18.2237 -2.6477 0.1243 0 7
-10.9815 18.0498 -2.6477 0.1243 0 7
-11.2698 17.8712 -2.6477 0.1243 0 7
-11.5551 17.6881 -2.6477 0.1243 0 7
-11.8375 17.5003 -2.6477 0.1243 0 7
-12.1169 17.3081 -2.6477 0.1243 0 7
-12.3931 17.1114 -2.6477 0.1243 0 7
14.6558 13.3033 -2.6477 0.1326 0 7
14.4404 13.5368 -2.6477 0.1326 0 7
14.2213 13.7668 -2.6477 0.1326 0 7
13.9985 13.9933 -2.6477 0.1326 0 7
13.7721 14.2161 -2.6477 0.1326 0 7
13.5422 14.4353 -2.6477 0.1326 0 7
13.3088 14.6508 -2.6477 0.1326 0 7
13.0719 14.8625 -2.6477 0.1326 0 7
12.8317 15.0704 -2.6477 0.1326 0 7
12.5882 15.2744 -2.6477 0.1326 0 7
12.3414 15.4745 -2.6477 0.1326 0 7
12.0915 15.6705 -2.6477 0.1326 0 7
11.8384 15.8626 -2.6477 0.1326 0 7
11.5823 16.0505 -2.6477 0.1326 0 7
11.3232 16.2344 -2.6477 0.1326 0 7
11.0612 16.4140 -2.6477 0.1326 0 7
10.7963 16.5894 -2.6477 0.1326 0 7
10.5287 16.7606 -2.6477 0.1326 0 7
10.2584 16.9274 -2.6477 0.1326 0 7
9.9853 17.0898 -2.6477 0.1326 0 7
9.7098 17.2479 -2.6477 0.1326 0 7
9.4317 17.4015 -2.6477 0.1326 0 7
9.1512 17.5506 -2.6477 0.1326 0 7
8.8684 17.6953 -2.6477 0.1326 0 7
8.5832 17.8353 -2.6477 0.1326 0 7
8.2959 17.9708 -2.6477 0.1326 0 7
8.0064 18.1016 -2.6477 0.1326 0 7
7.7148 18.2278 -2.6477 0.1326 0 7
7.4213 18.3492 -2.6477 0.1326 0 7
7.1259 18.4660 -2.6477 0.1326 0 6
6.8285 18.5780 -2.6477 0.1326 0 7
6.5295 18.6852 -2.6477 0.1326 0 7
6.2288 18.7875 -2.6477 0.1326 0 7
5.9264 18.8851 -2.6477 0.1326 0 7
5.6145 18.9503 -2.6438 0.9578 0 8
5.2855 18.9516 -2.6318 0.9622 0 8
4.9594 18.9528 -2.6206 0.9663 0 8
4.6360 18.9538 -2.6101 0.9702 0 8
4.3150 18.9547 -2.6004 0.9738 0 8
3.9963 18.9555 -2.5914 0.9772 0 8
3.6797 18.9562 -2.5830 0.9804 0 8
3.3651 18.9567 -2.5754 0.9833 0 8
3.0521 18.9571 -2.5685 0.9859 0 8
2.7408 18.9574 -2.5622 0.9883 0 8
2.4309 18.9576 -2.5567 0.9905 0 8
2.1222 18.9577 -2.5517 0.9924 0 8
1.8147 18.9576 -2.5475 0.9940 0 8
1.5080 18.9574 -2.5439 0.9955 0 8
1.2022 18.9571 -2.5409 0.9966 0 8
0.8970 18.9567 -2.5386 0.9975 0 8
0.5922 18.9562 -2.5369 0.9982 0 8
0.2878 18.9555 -2.5359 0.9986 0 8
-0.0165 18.9566 -2.5358 0.9970 0 8
-0.3207 18.9558 -2.5360 0.9987 0 8
-0.6251 18.9540 -2.5368 0.9984 0 8
-0.9298 18.9522 -2.5382 0.9978 0 8
-1.2348 18.9504 -2.5403 0.9969 0 8
-1.5405 18.9491 -2.5431 0.9958 0 8
-1.8469 18.9476 -2.5466 0.9944 0 8
-2.1543 18.9460 -2.5507 0.9928 0 8
-2.4626 18.9442 -2.5554 0.9910 0 8
-2.7722 18.9424 -2.5609 0.9889 0 8
-3.0832 18.9404 -2.5669 0.9865 0 8
-3.3957 18.9383 -2.5737 0.9839 0 8
-3.7099 18.9360 -2.5812 0.9811 0 8
-4.0261 18.9336 -2.5893 0.9780 0 8
-4.3442 18.9311 -2.5982 0.9747 0 8
-4.6646 18.9284 -2.6077 0.9711 0 8
-4.9874 18.9256 -2.6181 0.9673 0 8
-5.3129 18.9227 -2.6291 0.9632 0 8
-5.6411 18.9196 -2.6409 0.9589 0 8
-5.9592 18.8748 -2.6477 0.1326 0 7
-6.2614 18.7767 -2.6477 0.1326 0 7
-6.5619 18.6738 -2.6477 0.1326 0 7
-6.8608 18.5661 -2.6477 0.1326 0 7
-7.1578 18.4536 -2.6477 0.1326 0 6
-7.4532 18.3363 -2.6477 0.1326 0 7
-7.7465 18.2143 -2.6477 0.1326 0 7
-8.0378 18.0877 -2.6477 0.1326 0 7
-8.3271 17.9563 -2.6477 0.1326 0 7
-8.6142 17.8204 -2.6477 0.1326 0 7
-8.8991 17.6798 -2.6477 0.1326 0 7
-9.1817 17.5347 -2.6477 0.1326 0 7
-9.4619 17.3851 -2.6477 0.1326 0 7
-9.7397 17.2310 -2.6477 0.1326 0 7
-10.0150 17.0725 -2.6477 0.1326 0 7
-10.2877 16.9095 -2.6477 0.1326 0 7
-10.5578 16.7423 -2.6477 0.1326 0 7
-10.8251 16.5706 -2.6477 0.1326 0 7
-11.0897 16.3948 -2.6477 0.1326 0 7
-11.3514 16.2147 -2.6477 0.1326 0 7
-11.6102 16.0304 -2.6477 0.1326 0 7
13.7831 12.5111 -2.6477 0.1408 0 7
13.5806 12.7307 -2.6477 0.1408 0 7
13.3745 12.9470 -2.6477 0.1408 0 7
13.1650 13.1600 -2.6477 0.1408 0 7
12.9521 13.3696 -2.6477 0.1408 0 7
12.7358 13.5758 -2.6477 0.1408 0 7
12.5163 13.7784 -2.6477 0.1408 0 7
12.2936 13.9775 -2.6477 0.1408 0 7
12.0676 14.1730 -2.6477 0.1408 0 7
11.8386 14.3649 -2.6477 0.1408 0 7
11.6065 14.5530 -2.6477 0.1408 0 7
11.3715 14.7374 -2.6477 0.1408 0 7
11.1335 14.9180 -2.6477 0.1408 0 7
10.8926 15.0948 -2.6477 0.1408 0 7
10.6490 15.2677 -2.6477 0.1408 0 7
10.4026 15.4366 -2.6477 0.1408 0 7
10.1535 15.6016 -2.6477 0.1408 0 7
9.9018 15.7625 -2.6477 0.1408 0 7
9.6475 15.9194 -2.6477 0.1408 0 7
9.3908 16.0722 -2.6477 0.1408 0 7
9.1316 16.2209 -2.6477 0.1408 0 7
8.8701 16.3653 -2.6477 0.1408 0 7
8.6063 16.5056 -2.6477 0.1408 0 7
8.3403 16.6416 -2.6477 0.1408 0 7
8.0721 16.7733 -2.6477 0.1408 0 7
7.8019 16.9007 -2.6477 0.1408 0 7
7.5296 17.0237 -2.6477 0.1408 0 7
7.2554 17.1424 -2.6477 0.1408 0 7
6.9794 17.2566 -2.6477 0.1408 0 7
6.7015 17.3664 -2.6477 0.1408 0 7
6.4219 17.4717 -2.6477 0.1408 0 7
6.1407 17.5725 -2.6477 0.1408 0 7
5.8579 17.6688 -2.6477 0.1408 0 7
5.5736 17.7606 -2.6477 0.1408 0 7
5.2878 17.8477 -2.6477 0.1408 0 7
5.0007 17.9303 -2.6477 0.1408 0 7
4.7123 18.0083 -2.6477 0.1408 0 7
4.4226 18.0816 -2.6477 0.1408 0 7
4.1319 18.1502 -2.6477 0.1408 0 7
3.8400 18.2142 -2.6477 0.1408 0 7
3.5472 18.2735 -2.6477 0.1408 0 7
3.2535 18.3281 -2.6477 0.1408 0 7
2.9589 18.3779 -2.6477 0.1408 0 7
2.6636 18.4230 -2.6477 0.1408 0 6
2.3675 18.4634 -2.6477 0.1408 0 6
2.0709 18.4990 -2.6477 0.1408 0 6
1.7737 18.5299 -2.6477 0.1408 0 7
1.4761 18.5560 -2.6477 0.1408 0 7
1.1781 18.5773 -2.6477 0.1408 0 7
0.8798 18.5938 -2.6477 0.1408 0 7
0.5813 18.6055 -2.6477 0.1408 0 7
0.2825 18.6124 -2.6477 0.1408 0 7
-0.0161 18.6146 -2.6477 0.1408 0 7
-0.3149 18.6119 -2.6477 0.1408 0 7
-0.6136 18.6045 -2.6477 0.1408 0 7
-0.9121 18.5922 -2.6477 0.1408 0 7
-1.2104 18.5752 -2.6477 0.1408 0 7
-1.5083 18.5534 -2.6477 0.1408 0 7
-1.8059 18.5268 -2.6477 0.1408 0 7
-2.1030 18.4954 -2.6477 0.1408 0 7
-2.3996 18.4593 -2.6477 0.1408 0 6
-2.6955 18.4184 -2.6477 0.1408 0 6
-2.9908 18.3727 -2.6477 0.1408 0 6
-3.2853 18.3224 -2.6477 0.1408 0 7
-3.5789 18.2673 -2.6477 0.1408 0 7
-3.8717 18.2075 -2.6477 0.1408 0 7
-4.1634 18.1430 -2.6477 0.1408 0 7
-4.4540 18.0739 -2.6477 0.1408 0 7
-4.7435 18.0000 -2.6477 0.1408 0 7
-5.0318 17.9216 -2.6477 0.1408 0 7
-5.3188 17.8385 -2.6477 0.1408 0 7
-5.6044 17.7509 -2.6477 0.1408 0 7
-5.8886 17.6586 -2.6477 0.1408 0 7
-6.1712 17.5619 -2.6477 0.1408 0 7
-6.4523 17.4606 -2.6477 0.1408 0 7
-6.7317 17.3547 -2.6477 0.1408 0 7
-7.0093 17.2445 -2.6477 0.1408 0 7
-7.2852 17.1298 -2.6477 0.1408 0 7
-7.5592 17.0106 -2.6477 0.1408 0 7
-7.8312 16.8871 -2.6477 0.1408 0 7
-8.1012 16.7593 -2.6477 0.1408 0 7
-8.3692 16.6271 -2.6477 0.1408 0 7
-8.6350 16.4906 -2.6477 0.1408 0 7
-8.8985 16.3499 -2.6477 0.1408 0 7
-9.1598 16.2050 -2.6477 0.1408 0 7
-9.4187 16.0559 -2.6477 0.1408 0 7
-9.6751 15.9027 -2.6477 0.1408 0 7
-9.9291 15.7453 -2.6477 0.1408 0 7
-10.1806 15.5839 -2.6477 0.1408 0 7
-10.4294 15.4185 -2.6477 0.1408 0 7
-10.6755 15.2492 -2.6477 0.1408 0 7
-10.9188 15.0759 -2.6477 0.1408 0 7
13.0068 11.8065 -2.6477 0.1490 0 7
12.8157 12.0137 -2.6477 0.1490 0 7
12.6212 12.2178 -2.6477 0.1490 0 7
12.4235 12.4188 -2.6477 0.1490 0 7
12.2226 12.6166 -2.6477 0.1490 0 7
12.0185 12.8111 -2.6477 0.1490 0 7
11.8113 13.0024 -2.6477 0.1490 0 7
11.6011 13.1903 -2.6477 0.1490 0 7
11.3879 13.3748 -2.6477 0.1490 0 7
11.1718 13.5558 -2.6477 0.1490 0 7
10.9528 13.7334 -2.6477 0.1490 0 7
10.7310 13.9074 -2.6477 0.1490 0 7
10.5064 14.0778 -2.6477 0.1490 0 7
10.2791 14.2446 -2.6477 0.1490 0 7
10.0492 14.4078 -2.6477 0.1490 0 7
9.8167 14.5672 -2.6477 0.1490 0 7
9.5816 14.7229 -2.6477 0.1490 0 7
9.3441 14.8747 -2.6477 0.1490 0 7
9.1041 15.0228 -2.6477 0.1490 0 7
8.8618 15.1670 -2.6477 0.1490 0 7
8.6173 15.3072 -2.6477 0.1490 0 7
8.3705 15.4436 -2.6477 0.1490 0 7
8.1216 15.5759 -2.6477 0.1490 0 7
7.8705 15.7043 -2.6477 0.1490 0 7
7.6175 15.8286 -2.6477 0.1490 0 7
7.3625 15.9488 -2.6477 0.1490 0 7
7.1055 16.0649 -2.6477 0.1490 0 7
6.8468 16.1769 -2.6477 0.1490 0 7
6.5863 16.2847 -2.6477 0.1490 0 7
6.3241 16.3883 -2.6477 0.1490 0 7
6.0602 16.4877 -2.6477 0.1490 0 7
5.7948 16.5828 -2.6477 0.1490 0 7
5.5279 16.6737 -2.6477 0.1490 0 7
5.2596 16.7602 -2.6477 0.1490 0 7
4.9900 16.8425 -2.6477 0.1490 0 7
4.7190 16.9204 -2.6477 0.1490 0 7
4.4468 16.9940 -2.6477 0.1490 0 7
4.1735 17.0631 -2.6477 0.1490 0 7
3.8991 17.1279 -2.6477 0.1490 0 7
3.6237 17.1883 -2.6477 0.1490 0 7
3.3474 17.2443 -2.6477 0.1490 0 7
3.0702 17.2958 -2.6477 0.1490 0 7
2.7922 17.3428 -2.6477 0.1490 0 7
2.5135 17.3854 -2.6477 0.1490 0 7
2.2342 17.4235 -2.6477 0.1490 0 7
1.9543 17.4571 -2.6477 0.1490 0 7
1.6738 17.4862 -2.6477 0.1490 0 7
1.3930 17.5108 -2.6477 0.1490 0 7
1.1118 17.5309 -2.6477 0.1490 0 7
0.8303 17.5465 -2.6477 0.1490 0 7
0.5485 17.5576 -2.6477 0.1490 0 7
0.2667 17.5641 -2.6477 0.1490 0 7
-0.0152 17.5661 -2.6477 0.1490 0 7
-0.2972 17.5636 -2.6477 0.1490 0 7
-0.5790 17.5566 -2.6477 0.1490 0 7
-0.8607 17.5450 -2.6477 0.1490 0 7
-1.1422 17.5290 -2.6477 0.1490 0 7
-1.4234 17.5084 -2.6477 0.1490 0 7
-1.7042 17.4833 -2.6477 0.1490 0 7
-1.9846 17.4537 -2.6477 0.1490 0 7
-2.2644 17.4196 -2.6477 0.1490 0 7
-2.5437 17.3810 -2.6477 0.1490 0 7
-2.8224 17.3379 -2.6477 0.1490 0 7
-3.1003 17.2904 -2.6477 0.1490 0 7
-3.3774 17.2384 -2.6477 0.1490 0 7
-3.6536 17.1820 -2.6477 0.1490 0 7
-3.9289 17.1211 -2.6477 0.1490 0 7
-4.2032 17.0559 -2.6477 0.1490 0 7
-4.4764 16.9862 -2.6477 0.1490 0 7
-4.7484 16.9122 -2.6477 0.1490 0 7
-5.0192 16.8338 -2.6477 0.1490 0 7
-5.2887 16.7511 -2.6477 0.1490 0 7
-5.5569 16.6640 -2.6477 0.1490 0 7
-5.8236 16.5727 -2.6477 0.1490 0 7
-6.0889 16.4771 -2.6477 0.1490 0 7
-6.3525 16.3773 -2.6477 0.1490 0 7
-6.6146 16.2732 -2.6477 0.1490 0 7
-6.8749 16.1649 -2.6477 0.1490 0 7
-7.1334 16.0525 -2.6477 0.1490 0 7
-7.3901 15.9360 -2.6477 0.1490 0 7
-7.6450 15.8153 -2.6477 0.1490 0 7
-7.8978 15.6906 -2.6477 0.1490 0 7
-8.1486 15.5618 -2.6477 0.1490 0 7
-8.3973 15.4290 -2.6477 0.1490 0 7
-8.6439 15.2923 -2.6477 0.1490 0 7
-8.8882 15.1516 -2.6477 0.1490 0 7
-9.1302 15.0070 -2.6477 0.1490 0 7
-9.3699 14.8585 -2.6477 0.1490 0 7
-9.6071 14.7062 -2.6477 0.1490 0 7
-9.8419 14.5501 -2.6477 0.1490 0 7
-10.0742 14.3903 -2.6477 0.1490 0 7
-10.3038 14.2267 -2.6477 0.1490 0 7
12.3116 11.1754 -2.6477 0.1573 0 7
12.1307 11.3716 -2.6477 0.1573 0 7
11.9466 11.5648 -2.6477 0.1573 0 7
11.7595 11.7551 -2.6477 0.1573 0 7
11.5693 11.9423 -2.6477 0.1573 0 7
11.3762 12.1264 -2.6477 0.1573 0 7
11.1801 12.3074 -2.6477 0.1573 0 7
10.9811 12.4853 -2.6477 0.1573 0 7
10.7793 12.6599 -2.6477 0.1573 0 7
10.5747 12.8313 -2.6477 0.1573 0 7
10.3674 12.9994 -2.6477 0.1573 0 7
10.1575 13.1641 -2.6477 0.1573 0 7
9.9449 13.3254 -2.6477 0.1573 0 7
9.7297 13.4833 -2.6477 0.1573 0 7
9.5121 13.6377 -2.6477 0.1573 0 7
9.2920 13.7886 -2.6477 0.1573 0 7
9.0695 13.9360 -2.6477 0.1573 0 7
8.8447 14.0797 -2.6477 0.1573 0 7
8.6175 14.2199 -2.6477 0.1573 0 7
8.3882 14.3563 -2.6477 0.1573 0 7
8.1567 14.4891 -2.6477 0.1573 0 7
7.9231 14.6182 -2.6477 0.1573 0 7
7.6875 14.7434 -2.6477 0.1573 0 7
7.4499 14.8649 -2.6477 0.1573 0 7
7.2104 14.9826 -2.6477 0.1573 0 6
6.9689 15.0964 -2.6477 0.1573 0 7
6.7258 15.2063 -2.6477 0.1573 0 7
6.4808 15.3123 -2.6477 0.1573 0 7
6.2343 15.4143 -2.6477 0.1573 0 7
5.9861 15.5124 -2.6477 0.1573 0 7
5.7363 15.6064 -2.6477 0.1573 0 7
5.4851 15.6965 -2.6477 0.1573 0 7
5.2325 15.7825 -2.6477 0.1573 0 7
4.9785 15.8645 -2.6477 0.1573 0 7
4.7233 15.9423 -2.6477 0.1573 0 7
4.4668 16.0161 -2.6477 0.1573 0 7
4.2092 16.0857 -2.6477 0.1573 0 7
3.9505 16.1512 -2.6477 0.1573 0 7
3.6907 16.2125 -2.6477 0.1573 0 7
3.4301 16.2696 -2.6477 0.1573 0 7
3.1685 16.3226 -2.6477 0.1573 0 7
2.9061 16.3714 -2.6477 0.1573 0 7
2.6430 16.4159 -2.6477 0.1573 0 7
2.3792 16.4562 -2.6477 0.1573 0 7
2.1148 16.4923 -2.6477 0.1573 0 7
1.8498 16.5241 -2.6477 0.1573 0 7
1.5844 16.5516 -2.6477 0.1573 0 7
1.3185 16.5749 -2.6477 0.1573 0 7
1.0523 16.5939 -2.6477 0.1573 0 7
0.7859 16.6087 -2.6477 0.1573 0 7
0.5192 16.6192 -2.6477 0.1573 0 7
0.2524 16.6254 -2.6477 0.1573 0 7
-0.0144 16.6273 -2.6477 0.1573 0 7
-0.2813 16.6249 -2.6477 0.1573 0 7
-0.5481 16.6183 -2.6477 0.1573 0 7
-0.8147 16.6073 -2.6477 0.1573 0 7
-1.0812 16.5921 -2.6477 0.1573 0 7
-1.3473 16.5726 -2.6477 0.1573 0 7
-1.6131 16.5489 -2.6477 0.1573 0 7
-1.8785 16.5208 -2.6477 0.1573 0 7
-2.1434 16.4886 -2.6477 0.1573 0 7
-2.4078 16.4520 -2.6477 0.1573 0 7
-2.6715 16.4113 -2.6477 0.1573 0 7
-2.9346 16.3663 -2.6477 0.1573 0 7
-3.1968 16.3171 -2.6477 0.1573 0 7
-3.4583 16.2637 -2.6477 0.1573 0 7
-3.7189 16.2061 -2.6477 0.1573 0 7
-3.9785 16.1443 -2.6477 0.1573 0 7
-4.2371 16.0784 -2.6477 0.1573 0 7
-4.4946 16.0083 -2.6477 0.1573 0 7
-4.7509 15.9341 -2.6477 0.1573 0 7
-5.0061 15.8558 -2.6477 0.1573 0 7
-5.2599 15.7734 -2.6477 0.1573 0 7
-5.5124 15.6870 -2.6477 0.1573 0 7
-5.7634 15.5965 -2.6477 0.1573 0 7
-6.0130 15.5020 -2.6477 0.1573 0 7
-6.2610 15.4035 -2.6477 0.1573 0 7
-6.5074 15.3010 -2.6477 0.1573 0 7
-6.7522 15.1946 -2.6477 0.1573 0 7
-6.9952 15.0842 -2.6477 0.1573 0 7
-7.2364 14.9700 -2.6477 0.1573 0 6
-7.4757 14.8520 -2.6477 0.1573 0 6
-7.7131 14.7301 -2.6477 0.1573 0 7
-7.9485 14.6044 -2.6477 0.1573 0 7
-8.1819 14.4749 -2.6477 0.1573 0 7
-8.4131 14.3418 -2.6477 0.1573 0 7
-8.6422 14.2049 -2.6477 0.1573 0 7
-8.8691 14.0643 -2.6477 0.1573 0 7
-9.0937 13.9202 -2.6477 0.1573 0 7
-9.3159 13.7724 -2.6477 0.1573 0 7
-9.5358 13.6212 -2.6477 0.1573 0 7
-9.7531 13.4664 -2.6477 0.1573 0 7
11.6854 10.6070 -2.6477 0.1655 0 7
11.5137 10.7932 -2.6477 0.1655 0 7
11.3390 10.9766 -2.6477 0.1655 0 7
11.1614 11.1572 -2.6477 0.1655 0 7
10.9809 11.3349 -2.6477 0.1655 0 7
10.7975 11.5096 -2.6477 0.1655 0 6
10.6114 11.6814 -2.6477 0.1655 0 7
10.4226 11.8502 -2.6477 0.1655 0 7
10.2310 12.0160 -2.6477 0.1655 0 7
10.0369 12.1786 -2.6477 0.1655 0 7
9.8401 12.3382 -2.6477 0.1655 0 7
9.6408 12.4945 -2.6477 0.1655 0 7
9.4390 12.6476 -2.6477 0.1655 0 7
9.2348 12.7975 -2.6477 0.1655 0 7
9.0283 12.9440 -2.6477 0.1655 0 7
8.8194 13.0873 -2.6477 0.1655 0 7
8.6082 13.2271 -2.6477 0.1655 0 7
8.3948 13.3636 -2.6477 0.1655 0 7
8.1792 13.4966 -2.6477 0.1655 0 7
7.9616 13.6261 -2.6477 0.1655 0 7
7.7418 13.7522 -2.6477 0.1655 0 7
7.5201 13.8746 -2.6477 0.1655 0 7
7.2965 13.9935 -2.6477 0.1655 0 7
7.0710 14.1089 -2.6477 0.1655 0 7
6.8436 14.2205 -2.6477 0.1655 0 7
6.6145 14.3285 -2.6477 0.1655 0 7
6.3837 14.4328 -2.6477 0.1655 0 7
6.1512 14.5334 -2.6477 0.1655 0 7
5.9172 14.6303 -2.6477 0.1655 0 7
5.6816 14.7233 -2.6477 0.1655 0 7
5.4446 14.8127 -2.6477 0.1655 0 7
5.2061 14.8981 -2.6477 0.1655 0 7
4.9664 14.9798 -2.6477 0.1655 0 7
4.7253 15.0575 -2.6477 0.1655 0 7
4.4830 15.1314 -2.6477 0.1655 0 7
4.2396 15.2014 -2.6477 0.1655 0 7
3.9951 15.2675 -2.6477 0.1655 0 7
3.7495 15.3297 -2.6477 0.1655 0 7
3.5030 15.3879 -2.6477 0.1655 0 7
3.2556 15.4421 -2.6477 0.1655 0 7
3.0073 15.4924 -2.6477 0.1655 0 7
2.7583 15.5387 -2.6477 0.1655 0 7
2.5086 15.5809 -2.6477 0.1655 0 7
2.2582 15.6192 -2.6477 0.1655 0 7
2.0072 15.6534 -2.6477 0.1655 0 7
1.7557 15.6836 -2.6477 0.1655 0 7
1.5038 15.7098 -2.6477 0.1655 0 7
1.2515 15.7319 -2.6477 0.1655 0 7
0.9988 15.7499 -2.6477 0.1655 0 7
0.7459 15.7639 -2.6477 0.1655 0 7
0.4928 15.7739 -2.6477 0.1655 0 7
0.2396 15.7798 -2.6477 0.1655 0 7
-0.0137 15.7816 -2.6477 0.1655 0 7
-0.2670 15.7793 -2.6477 0.1655 0 7
-0.5202 15.7730 -2.6477 0.1655 0 7
-0.7733 15.7626 -2.6477 0.1655 0 7
-1.0262 15.7482 -2.6477 0.1655 0 7
-1.2788 15.7297 -2.6477 0.1655 0 7
-1.5311 15.7071 -2.6477 0.1655 0 7
-1.7830 15.6805 -2.6477 0.1655 0 7
-2.0344 15.6499 -2.6477 0.1655 0 7
-2.2853 15.6152 -2.6477 0.1655 0 7
-2.5356 15.5765 -2.6477 0.1655 0 7
-2.7853 15.5338 -2.6477 0.1655 0 7
-3.0342 15.4871 -2.6477 0.1655 0 7
-3.2824 15.4364 -2.6477 0.1655 0 7
-3.5297 15.3818 -2.6477 0.1655 0 7
-3.7762 15.3231 -2.6477 0.1655 0 7
-4.0216 15.2606 -2.6477 0.1655 0 7
-4.2660 15.1941 -2.6477 0.1655 0 7
-4.5093 15.1236 -2.6477 0.1655 0 7
-4.7514 15.0493 -2.6477 0.1655 0 7
-4.9924 14.9711 -2.6477 0.1655 0 7
-5.2320 14.8891 -2.6477 0.1655 0 7
-5.4703 14.8032 -2.6477 0.1655 0 7
-5.7072 14.7135 -2.6477 0.1655 0 7
-5.9426 14.6200 -2.6477 0.1655 0 7
-6.1764 14.5227 -2.6477 0.1655 0 7
-6.4087 14.4217 -2.6477 0.1655 0 7
-6.6394 14.3170 -2.6477 0.1655 0 7
-6.8683 14.2086 -2.6477 0.1655 0 7
-7.0954 14.0965 -2.6477 0.1655 0 7
-7.3208 13.9809 -2.6477 0.1655 0 7
-7.5442 13.8616 -2.6477 0.1655 0 7
-7.7657 13.7387 -2.6477 0.1655 0 7
-7.9852 13.6123 -2.6477 0.1655 0 7
-8.2027 13.4824 -2.6477 0.1655 0 7
-8.4180 13.3490 -2.6477 0.1655 0 7
-8.6311 13.2122 -2.6477 0.1655 0 7
-8.8421 13.0719 -2.6477 0.1655 0 7
-9.0507 12.9284 -2.6477 0.1655 0 7
-9.2571 12.7814 -2.6477 0.1655 0 7
11.1183 10.0923 -2.6477 0.1736 0 7
10.9549 10.2694 -2.6477 0.1736 0 7
10.7887 10.4439 -2.6477 0.1736 0 7
10.6197 10.6157 -2.6477 0.1736 0 7
10.4480 10.7848 -2.6477 0.1736 0 7
10.2735 10.9511 -2.6477 0.1736 0 7
10.0964 11.1145 -2.6477 0.1736 0 7
9.9168 11.2751 -2.6477 0.1736 0 7
9.7345 11.4328 -2.6477 0.1736 0 6
9.5498 11.5876 -2.6477 0.1736 0 7
9.3626 11.7394 -2.6477 0.1736 0 7
9.1729 11.8881 -2.6477 0.1736 0 7
8.9810 12.0338 -2.6477 0.1736 0 7
8.7867 12.1764 -2.6477 0.1736 0 7
8.5901 12.3159 -2.6477 0.1736 0 7
8.3914 12.4522 -2.6477 0.1736 0 7
8.1904 12.5852 -2.6477 0.1736 0 7
7.9874 12.7151 -2.6477 0.1736 0 7
7.7823 12.8416 -2.6477 0.1736 0 7
7.5752 12.9649 -2.6477 0.1736 0 7
7.3661 13.0848 -2.6477 0.1736 0 7
7.1552 13.2013 -2.6477 0.1736 0 7
6.9424 13.3144 -2.6477 0.1736 0 7
6.7278 13.4241 -2.6477 0.1736 0 7
6.5115 13.5304 -2.6477 0.1736 0 7
6.2935 13.6332 -2.6477 0.1736 0 7
6.0739 13.7324 -2.6477 0.1736 0 7
5.8527 13.8281 -2.6477 0.1736 0 7
5.6300 13.9203 -2.6477 0.1736 0 7
5.4059 14.0088 -2.6477 0.1736 0 7
5.1803 14.0938 -2.6477 0.1736 0 7
4.9535 14.1751 -2.6477 0.1736 0 7
4.7253 14.2528 -2.6477 0.1736 0 7
4.4960 14.3268 -2.6477 0.1736 0 7
4.2655 14.3971 -2.6477 0.1736 0 7
4.0339 14.4637 -2.6477 0.1736 0 7
3.8012 14.5266 -2.6477 0.1736 0 7
3.5676 14.5857 -2.6477 0.1736 0 7
3.3330 14.6411 -2.6477 0.1736 0 7
3.0976 14.6927 -2.6477 0.1736 0 7
2.8614 14.7405 -2.6477 0.1736 0 7
2.6244 14.7846 -2.6477 0.1736 0 7
2.3868 14.8248 -2.6477 0.1736 0 7
2.1486 14.8612 -2.6477 0.1736 0 7
1.9098 14.8937 -2.6477 0.1736 0 7
1.6705 14.9225 -2.6477 0.1736 0 7
1.4308 14.9474 -2.6477 0.1736 0 7
1.1907 14.9684 -2.6477 0.1736 0 7
0.9503 14.9856 -2.6477 0.1736 0 7
0.7097 14.9989 -2.6477 0.1736 0 7
0.4689 15.0084 -2.6477 0.1736 0 7
0.2280 15.0140 -2.6477 0.1736 0 7
-0.0130 15.0157 -2.6477 0.1736 0 7
-0.2540 15.0135 -2.6477 0.1736 0 7
-0.4950 15.0075 -2.6477 0.1736 0 7
-0.7358 14.9977 -2.6477 0.1736 0 7
-0.9764 14.9839 -2.6477 0.1736 0 6
-1.2167 14.9663 -2.6477 0.1736 0 6
-1.4568 14.9449 -2.6477 0.1736 0 6
-1.6964 14.9196 -2.6477 0.1736 0 7
-1.9357 14.8904 -2.6477 0.1736 0 7
-2.1744 14.8574 -2.6477 0.1736 0 7
-2.4126 14.8206 -2.6477 0.1736 0 7
-2.6501 14.7800 -2.6477 0.1736 0 7
-2.8870 14.7355 -2.6477 0.1736 0 7
-3.1231 14.6873 -2.6477 0.1736 0 7
-3.3584 14.6353 -2.6477 0.1736 0 7
-3.5929 14.5795 -2.6477 0.1736 0 7
-3.8264 14.5200 -2.6477 0.1736 0 7
-4.0590 14.4567 -2.6477 0.1736 0 7
-4.2905 14.3897 -2.6477 0.1736 0 7
-4.5209 14.3190 -2.6477 0.1736 0 7
-4.7501 14.2446 -2.6477 0.1736 0 7
-4.9781 14.1665 -2.6477 0.1736 0 7
-5.2048 14.0848 -2.6477 0.1736 0 7
-5.4302 13.9994 -2.6477 0.1736 0 7
-5.6542 13.9105 -2.6477 0.1736 0 7
-5.8767 13.8179 -2.6477 0.1736 0 7
-6.0977 13.7218 -2.6477 0.1736 0 7
-6.3172 13.6222 -2.6477 0.1736 0 7
-6.5350 13.5191 -2.6477 0.1736 0 7
-6.7511 13.4124 -2.6477 0.1736 0 7
-6.9655 13.3024 -2.6477 0.1736 0 7
-7.1781 13.1889 -2.6477 0.1736 0 7
-7.3888 13.0720 -2.6477 0.1736 0 7
-7.5977 12.9517 -2.6477 0.1736 0 7
-7.8046 12.8281 -2.6477 0.1736 0 7
-8.0095 12.7012 -2.6477 0.1736 0 7
-8.2123 12.5710 -2.6477 0.1736 0 7
-8.4130 12.4376 -2.6477 0.1736 0 7
-8.6115 12.3009 -2.6477 0.1736 0 7
-8.8078 12.1611 -2.6477 0.1736 0 7
10.6023 9.6238 -2.6477 0.1818 0 7
10.4465 9.7928 -2.6477 0.1818 0 7
10.2880 9.9592 -2.6477 0.1818 0 7
10.1268 10.1230 -2.6477 0.1818 0 7
9.9630 10.2842 -2.6477 0.1818 0 7
9.7967 10.4428 -2.6477 0.1818 0 7
9.6278 10.5987 -2.6477 0.1818 0 7
9.4565 10.7518 -2.6477 0.1818 0 7
9.2827 10.9022 -2.6477 0.1818 0 7
9.1065 11.0498 -2.6477 0.1818 0 7
8.9280 11.1945 -2.6477 0.1818 0 7
8.7472 11.3364 -2.6477 0.1818 0 7
8.5642 11.4753 -2.6477 0.1818 0 6
8.3789 11.6113 -2.6477 0.1818 0 7
8.1914 11.7443 -2.6477 0.1818 0 7
8.0019 11.8742 -2.6477 0.1818 0 7
7.8103 12.0011 -2.6477 0.1818 0 7
7.6167 12.1249 -2.6477 0.1818 0 7
7.4211 12.2456 -2.6477 0.1818 0 7
7.2236 12.3631 -2.6477 0.1818 0 7
7.0242 12.4775 -2.6477 0.1818 0 7
6.8231 12.5886 -2.6477 0.1818 0 7
6.6202 12.6965 -2.6477 0.1818 0 7
6.4155 12.8011 -2.6477 0.1818 0 7
6.2093 12.9024 -2.6477 0.1818 0 7
6.0014 13.0004 -2.6477 0.1818 0 7
5.7920 13.0950 -2.6477 0.1818 0 7
5.5811 13.1863 -2.6477 0.1818 0 7
5.3687 13.2742 -2.6477 0.1818 0 7
5.1550 13.3586 -2.6477 0.1818 0 7
4.9399 13.4397 -2.6477 0.1818 0 7
4.7236 13.5172 -2.6477 0.1818 0 7
4.5060 13.5913 -2.6477 0.1818 0 7
4.2873 13.6618 -2.6477 0.1818 0 7
4.0675 13.7289 -2.6477 0.1818 0 7
3.8466 13.7924 -2.6477 0.1818 0 7
3.6248 13.8524 -2.6477 0.1818 0 7
3.4020 13.9088 -2.6477 0.1818 0 7
3.1783 13.9616 -2.6477 0.1818 0 7
2.9538 14.0108 -2.6477 0.1818 0 7
2.7286 14.0564 -2.6477 0.1818 0 7
2.5026 14.0984 -2.6477 0.1818 0 7
2.2760 14.1367 -2.6477 0.1818 0 7
2.0489 14.1714 -2.6477 0.1818 0 7
1.8212 14.2025 -2.6477 0.1818 0 7
1.5930 14.2299 -2.6477 0.1818 0 7
1.3644 14.2536 -2.6477 0.1818 0 7
1.1355 14.2737 -2.6477 0.1818 0 7
0.9062 14.2901 -2.6477 0.1818 0 7
0.6768 14.3028 -2.6477 0.1818 0 7
0.4471 14.3118 -2.6477 0.1818 0 7
0.2174 14.3171 -2.6477 0.1818 0 7
-0.0124 14.3188 -2.6477 0.1818 0 7
-0.2422 14.3167 -2.6477 0.1818 0 7
-0.4720 14.3110 -2.6477 0.1818 0 7
-0.7016 14.3016 -2.6477 0.1818 0 7
-0.9311 14.2885 -2.6477 0.1818 0 7
-1.1602 14.2717 -2.6477 0.1818 0 7
-1.3892 14.2512 -2.6477 0.1818 0 7
-1.6177 14.2271 -2.6477 0.1818 0 7
-1.8458 14.1993 -2.6477 0.1818 0 7
-2.0735 14.1678 -2.6477 0.1818 0 7
-2.3006 14.1327 -2.6477 0.1818 0 7
-2.5271 14.0940 -2.6477 0.1818 0 7
-2.7530 14.0516 -2.6477 0.1818 0 7
-2.9782 14.0056 -2.6477 0.1818 0 7
-3.2026 13.9560 -2.6477 0.1818 0 7
-3.4261 13.9028 -2.6477 0.1818 0 7
-3.6488 13.8460 -2.6477 0.1818 0 7
-3.8706 13.7857 -2.6477 0.1818 0 7
-4.0913 13.7218 -2.6477 0.1818 0 7
-4.3110 13.6544 -2.6477 0.1818 0 7
-4.5296 13.5834 -2.6477 0.1818 0 7
-4.7470 13.5090 -2.6477 0.1818 0 7
-4.9632 13.4311 -2.6477 0.1818 0 7
-5.1782 13.3497 -2.6477 0.1818 0 7
-5.3917 13.2648 -2.6477 0.1818 0 7
-5.6039 13.1766 -2.6477 0.1818 0 7
-5.8147 13.0850 -2.6477 0.1818 0 7
-6.0240 12.9900 -2.6477 0.1818 0 7
-6.2317 12.8916 -2.6477 0.1818 0 7
-6.4378 12.7899 -2.6477 0.1818 0 7
-6.6422 12.6850 -2.6477 0.1818 0 7
-6.8449 12.5767 -2.6477 0.1818 0 7
-7.0459 12.4652 -2.6477 0.1818 0 7
-7.2451 12.3506 -2.6477 0.1818 0 7
-7.4423 12.2327 -2.6477 0.1818 0 7
-7.6377 12.1117 -2.6477 0.1818 0 7
-7.8311 11.9875 -2.6477 0.1818 0 7
-8.0225 11.8603 -2.6477 0.1818 0 7
-8.2118 11.7300 -2.6477 0.1818 0 7
-8.3990 11.5967 -2.6477 0.1818 0 7
10.1306 9.1957 -2.6477 0.1900 0 7
9.9818 9.3571 -2.6477 0.1900 0 7
9.8303 9.5161 -2.6477 0.1900 0 7
9.6763 9.6727 -2.6477 0.1900 0 7
9.5198 9.8267 -2.6477 0.1900 0 7
9.3609 9.9782 -2.6477 0.1900 0 7
9.1995 10.1272 -2.6477 0.1900 0 7
9.0358 10.2735 -2.6477 0.1900 0 7
8.8698 10.4172 -2.6477 0.1900 0 7
8.7014 10.5582 -2.6477 0.1900 0 7
8.5308 10.6965 -2.6477 0.1900 0 7
8.3581 10.8321 -2.6477 0.1900 0 7
8.1832 10.9648 -2.6477 0.1900 0 7
8.0061 11.0947 -2.6477 0.1900 0 7
7.8270 11.2218 -2.6477 0.1900 0 7
7.6459 11.3460 -2.6477 0.1900 0 7
7.4628 11.4672 -2.6477 0.1900 0 6
7.2778 11.5855 -2.6477 0.1900 0 7
7.0910 11.7008 -2.6477 0.1900 0 7
6.9022 11.8131 -2.6477 0.1900 0 7
6.7118 11.9224 -2.6477 0.1900 0 7
6.5195 12.0286 -2.6477 0.1900 0 7
6.3257 12.1317 -2.6477 0.1900 0 7
6.1301 12.2316 -2.6477 0.1900 0 7
5.9330 12.3284 -2.6477 0.1900 0 7
5.7344 12.4221 -2.6477 0.1900 0 7
5.5343 12.5125 -2.6477 0.1900 0 7
5.3328 12.5997 -2.6477 0.1900 0 7
5.1299 12.6837 -2.6477 0.1900 0 7
4.9256 12.7644 -2.6477 0.1900 0 7
4.7202 12.8418 -2.6477 0.1900 0 7
4.5134 12.9159 -2.6477 0.1900 0 7
4.3056 12.9867 -2.6477 0.1900 0 7
4.0966 13.0541 -2.6477 0.1900 0 7
3.8866 13.1182 -2.6477 0.1900 0 7
3.6755 13.1788 -2.6477 0.1900 0 7
3.4635 13.2361 -2.6477 0.1900 0 7
3.2506 13.2900 -2.6477 0.1900 0 7
3.0369 13.3405 -2.6477 0.1900 0 7
2.8224 13.3875 -2.6477 0.1900 0 7
2.6072 13.4311 -2.6477 0.1900 0 7
2.3913 13.4712 -2.6477 0.1900 0 7
2.1748 13.5078 -2.6477 0.1900 0 7
1.9577 13.5410 -2.6477 0.1900 0 7
1.7401 13.5707 -2.6477 0.1900 0 7
1.5221 13.5968 -2.6477 0.1900 0 7
1.3037 13.6195 -2.6477 0.1900 0 7
1.0849 13.6387 -2.6477 0.1900 0 7
0.8659 13.6544 -2.6477 0.1900 0 7
0.6467 13.6665 -2.6477 0.1900 0 7
0.4272 13.6751 -2.6477 0.1900 0 7
0.2077 13.6802 -2.6477 0.1900 0 7
-0.0119 13.6818 -2.6477 0.1900 0 7
-0.2315 13.6798 -2.6477 0.1900 0 7
-0.4510 13.6744 -2.6477 0.1900 0 7
-0.6704 13.6653 -2.6477 0.1900 0 7
-0.8896 13.6528 -2.6477 0.1900 0 7
-1.1086 13.6368 -2.6477 0.1900 0 7
-1.3274 13.6172 -2.6477 0.1900 0 7
-1.5457 13.5942 -2.6477 0.1900 0 7
-1.7637 13.5676 -2.6477 0.1900 0 7
-1.9812 13.5376 -2.6477 0.1900 0 7
-2.1983 13.5040 -2.6477 0.1900 0 7
-2.4147 13.4670 -2.6477 0.1900 0 7
-2.6305 13.4265 -2.6477 0.1900 0 7
-2.8457 13.3826 -2.6477 0.1900 0 7
-3.0601 13.3352 -2.6477 0.1900 0 7
-3.2737 13.2844 -2.6477 0.1900 0 7
-3.4865 13.2301 -2.6477 0.1900 0 7
-3.6984 13.1724 -2.6477 0.1900 0 7
-3.9093 13.1114 -2.6477 0.1900 0 7
-4.1193 13.0469 -2.6477 0.1900 0 7
-4.3281 12.9792 -2.6477 0.1900 0 7
-4.5359 12.9080 -2.6477 0.1900 0 7
-4.7424 12.8336 -2.6477 0.1900 0 7
-4.9478 12.7558 -2.6477 0.1900 0 7
-5.1519 12.6747 -2.6477 0.1900 0 7
-5.3546 12.5904 -2.6477 0.1900 0 7
-5.5560 12.5029 -2.6477 0.1900 0 7
-5.7560 12.4121 -2.6477 0.1900 0 7
-5.9544 12.3181 -2.6477 0.1900 0 7
-6.1514 12.2210 -2.6477 0.1900 0 7
-6.3467 12.1207 -2.6477 0.1900 0 7
-6.5404 12.0172 -2.6477 0.1900 0 7
-6.7325 11.9107 -2.6477 0.1900 0 7
-6.9228 11.8011 -2.6477 0.1900 0 7
-7.1113 11.6885 -2.6477 0.1900 0 7
-7.2979 11.5729 -2.6477 0.1900 0 7
-7.4828 11.4542 -2.6477 0.1900 0 6
-7.6656 11.3327 -2.6477 0.1900 0 7
-7.8465 11.2082 -2.6477 0.1900 0 7
-8.0254 11.0808 -2.6477 0.1900 0 7
9.1396 8.2962 -2.4953 0.1981 0 8
9.0053 8.4418 -2.4953 0.1981 0 8
9.4103 9.1096 -2.6477 0.1981 0 7
9.2629 9.2594 -2.6477 0.1981 0 7
9.1131 9.4069 -2.6477 0.1981 0 7
8.9610 9.5519 -2.6477 0.1981 0 7
8.8065 9.6945 -2.6477 0.1981 0 7
8.6498 9.8346 -2.6477 0.1981 0 7
8.4908 9.9722 -2.6477 0.1981 0 7
8.3297 10.1072 -2.6477 0.1981 0 7
8.1664 10.2396 -2.6477 0.1981 0 7
8.0010 10.3693 -2.6477 0.1981 0 7
7.8336 10.4964 -2.6477 0.1981 0 7
7.6641 10.6207 -2.6477 0.1981 0 7
7.4926 10.7424 -2.6477 0.1981 0 7
7.3193 10.8613 -2.6477 0.1981 0 7
7.1440 10.9773 -2.6477 0.1981 0 7
6.9669 11.0906 -2.6477 0.1981 0 7
6.7880 11.2010 -2.6477 0.1981 0 7
6.6074 11.3085 -2.6477 0.1981 0 7
6.4250 11.4130 -2.6477 0.1981 0 6
6.2410 11.5147 -2.6477 0.1981 0 7
6.0554 11.6134 -2.6477 0.1981 0 7
5.8682 11.7091 -2.6477 0.1981 0 7
5.6796 11.8017 -2.6477 0.1981 0 7
5.4894 11.8914 -2.6477 0.1981 0 7
5.2979 11.9779 -2.6477 0.1981 0 7
5.1049 12.0614 -2.6477 0.1981 0 7
4.9107 12.1418 -2.6477 0.1981 0 7
4.7152 12.2191 -2.6477 0.1981 0 7
4.5185 12.2932 -2.6477 0.1981 0 7
4.3206 12.3641 -2.6477 0.1981 0 7
4.1216 12.4318 -2.6477 0.1981 0 7
3.9216 12.4964 -2.6477 0.1981 0 7
3.7205 12.5577 -2.6477 0.1981 0 7
3.5185 12.6158 -2.6477 0.1981 0 7
3.3156 12.6707 -2.6477 0.1981 0 7
3.1118 12.7222 -2.6477 0.1981 0 7
2.9072 12.7705 -2.6477 0.1981 0 7
2.7019 12.8156 -2.6477 0.1981 0 7
2.4958 12.8573 -2.6477 0.1981 0 7
2.2891 12.8957 -2.6477 0.1981 0 7
2.0819 12.9307 -2.6477 0.1981 0 7
1.8741 12.9625 -2.6477 0.1981 0 7
1.6658 12.9909 -2.6477 0.1981 0 7
1.4571 13.0160 -2.6477 0.1981 0 7
1.2480 13.0377 -2.6477 0.1981 0 7
1.0386 13.0560 -2.6477 0.1981 0 7
0.8289 13.0710 -2.6477 0.1981 0 7
0.6190 13.0826 -2.6477 0.1981 0 7
0.4090 13.0909 -2.6477 0.1981 0 7
0.1988 13.0958 -2.6477 0.1981 0 7
-0.0114 13.0973 -2.6477 0.1981 0 7
-0.2216 13.0954 -2.6477 0.1981 0 7
-0.4317 13.0902 -2.6477 0.1981 0 7
-0.6418 13.0815 -2.6477 0.1981 0 7
-0.8516 13.0696 -2.6477 0.1981 0 7
-1.0613 13.0542 -2.6477 0.1981 0 7
-1.2707 13.0355 -2.6477 0.1981 0 7
-1.4797 13.0134 -2.6477 0.1981 0 7
-1.6884 12.9880 -2.6477 0.1981 0 7
-1.8966 12.9592 -2.6477 0.1981 0 7
-2.1043 12.9271 -2.6477 0.1981 0 7
-2.3115 12.8917 -2.6477 0.1981 0 7
-2.5181 12.8529 -2.6477 0.1981 0 7
-2.7241 12.8108 -2.6477 0.1981 0 7
-2.9294 12.7655 -2.6477 0.1981 0 7
-3.1339 12.7168 -2.6477 0.1981 0 7
-3.3376 12.6649 -2.6477 0.1981 0 7
-3.5404 12.6097 -2.6477 0.1981 0 7
-3.7423 12.5512 -2.6477 0.1981 0 7
-3.9433 12.4896 -2.6477 0.1981 0 7
-4.1432 12.4247 -2.6477 0.1981 0 7
-4.3421 12.3566 -2.6477 0.1981 0 7
-4.5398 12.2853 -2.6477 0.1981 0 7
-4.7364 12.2108 -2.6477 0.1981 0 7
-4.9318 12.1333 -2.6477 0.1981 0 7
-5.1259 12.0525 -2.6477 0.1981 0 7
-5.3187 11.9687 -2.6477 0.1981 0 7
-5.5101 11.8818 -2.6477 0.1981 0 7
-5.7001 11.7919 -2.6477 0.1981 0 7
-5.8886 11.6989 -2.6477 0.1981 0 7
-6.0756 11.6028 -2.6477 0.1981 0 7
-6.2610 11.5038 -2.6477 0.1981 0 7
-6.4448 11.4019 -2.6477 0.1981 0 6
-6.6270 11.2970 -2.6477 0.1981 0 7
-6.8075 11.1891 -2.6477 0.1981 0 7
-6.9862 11.0784 -2.6477 0.1981 0 7
-7.1631 10.9649 -2.6477 0.1981 0 7
-7.3381 10.8485 -2.6477 0.1981 0 7
-7.5113 10.7294 -2.6477 0.1981 0 7
-7.6825 10.6074 -2.6477 0.1981 0 7
8.7640 7.9552 -2.4953 0.2063 0 8
8.6352 8.0948 -2.4953 0.2063 0 8
8.5041 8.2323 -2.4953 0.2063 0 8
8.3709 8.3678 -2.4953 0.2063 0 8
8.7385 9.0202 -2.6477 0.2063 0 7
8.5926 9.1593 -2.6477 0.2063 0 7
8.4445 9.2961 -2.6477 0.2063 0 7
8.2942 9.4304 -2.6477 0.2063 0 7
8.1418 9.5623 -2.6477 0.2063 0 7
7.9873 9.6917 -2.6477 0.2063 0 7
7.8307 9.8187 -2.6477 0.2063 0 7
7.6721 9.9431 -2.6477 0.2063 0 7
7.5116 10.0649 -2.6477 0.2063 0 7
7.3491 10.1842 -2.6477 0.2063 0 7
7.1847 10.3008 -2.6477 0.2063 0 7
7.0184 10.4148 -2.6477 0.2063 0 7
6.8504 10.5261 -2.6477 0.2063 0 7
6.6806 10.6347 -2.6477 0.2063 0 7
6.5090 10.7406 -2.6477 0.2063 0 7
6.3358 10.8436 -2.6477 0.2063 0 7
6.1609 10.9439 -2.6477 0.2063 0 7
5.9845 11.0414 -2.6477 0.2063 0 7
5.8065 11.1360 -2.6477 0.2063 0 7
5.6270 11.2278 -2.6477 0.2063 0 7
5.4461 11.3167 -2.6477 0.2063 0 7
5.2638 11.4026 -2.6477 0.2063 0 6
5.0801 11.4856 -2.6477 0.2063 0 6
4.8951 11.5657 -2.6477 0.2063 0 7
4.7089 11.6427 -2.6477 0.2063 0 7
4.5214 11.7168 -2.6477 0.2063 0 7
4.3328 11.7879 -2.6477 0.2063 0 7
4.1430 11.8559 -2.6477 0.2063 0 7
3.9522 11.9209 -2.6477 0.2063 0 7
3.7604 11.9828 -2.6477 0.2063 0 7
3.5676 12.0416 -2.6477 0.2063 0 7
3.3739 12.0973 -2.6477 0.2063 0 7
3.1793 12.1499 -2.6477 0.2063 0 7
2.9839 12.1993 -2.6477 0.2063 0 7
2.7877 12.2456 -2.6477 0.2063 0 7
2.5908 12.2888 -2.6477 0.2063 0 7
2.3932 12.3288 -2.6477 0.2063 0 7
2.1951 12.3656 -2.6477 0.2063 0 7
1.9963 12.3993 -2.6477 0.2063 0 7
1.7971 12.4297 -2.6477 0.2063 0 7
1.5973 12.4569 -2.6477 0.2063 0 7
1.3972 12.4810 -2.6477 0.2063 0 7
1.1967 12.5018 -2.6477 0.2063 0 7
0.9959 12.5194 -2.6477 0.2063 0 7
0.7949 12.5338 -2.6477 0.2063 0 7
0.5936 12.5449 -2.6477 0.2063 0 7
0.3922 12.5528 -2.6477 0.2063 0 7
0.1907 12.5575 -2.6477 0.2063 0 7
-0.0109 12.5589 -2.6477 0.2063 0 7
-0.2125 12.5571 -2.6477 0.2063 0 7
-0.4140 12.5521 -2.6477 0.2063 0 7
-0.6154 12.5438 -2.6477 0.2063 0 7
-0.8166 12.5324 -2.6477 0.2063 0 7
-1.0176 12.5176 -2.6477 0.2063 0 7
-1.2184 12.4997 -2.6477 0.2063 0 7
-1.4189 12.4785 -2.6477 0.2063 0 7
-1.6190 12.4541 -2.6477 0.2063 0 7
-1.8186 12.4266 -2.6477 0.2063 0 7
-2.0178 12.3958 -2.6477 0.2063 0 7
-2.2165 12.3618 -2.6477 0.2063 0 7
-2.4146 12.3246 -2.6477 0.2063 0 7
-2.6121 12.2843 -2.6477 0.2063 0 7
-2.8090 12.2408 -2.6477 0.2063 0 7
-3.0051 12.1941 -2.6477 0.2063 0 7
-3.2004 12.1443 -2.6477 0.2063 0 7
-3.3949 12.0914 -2.6477 0.2063 0 7
-3.5885 12.0353 -2.6477 0.2063 0 7
-3.7812 11.9762 -2.6477 0.2063 0 7
-3.9729 11.9140 -2.6477 0.2063 0 7
-4.1636 11.8487 -2.6477 0.2063 0 7
-4.3532 11.7803 -2.6477 0.2063 0 7
-4.5417 11.7089 -2.6477 0.2063 0 7
-4.7291 11.6345 -2.6477 0.2063 0 7
-4.9152 11.5572 -2.6477 0.2063 0 7
-5.1001 11.4768 -2.6477 0.2063 0 6
-5.2836 11.3934 -2.6477 0.2063 0 6
-5.4658 11.3072 -2.6477 0.2063 0 7
-5.6465 11.2180 -2.6477 0.2063 0 7
-5.8259 11.1259 -2.6477 0.2063 0 7
-6.0037 11.0310 -2.6477 0.2063 0 7
-6.1799 10.9332 -2.6477 0.2063 0 7
-6.3546 10.8326 -2.6477 0.2063 0 7
-6.5276 10.7292 -2.6477 0.2063 0 7
-6.6990 10.6231 -2.6477 0.2063 0 7
-6.8686 10.5142 -2.6477 0.2063 0 7
-7.0365 10.4026 -2.6477 0.2063 0 7
-7.2026 10.2883 -2.6477 0.2063 0 7
-7.3667 10.1714 -2.6477 0.2063 0 7
8.4168 7.6400 -2.4953 0.2144 0 8
8.2931 7.7741 -2.4953 0.2144 0 8
8.1673 7.9062 -2.4953 0.2144 0 8
8.0393 8.0363 -2.4953 0.2144 0 8
7.9093 8.1643 -2.4953 0.2144 0 8
7.7772 8.2902 -2.4953 0.2144 0 8
7.6432 8.4139 -2.4953 0.2144 0 8
7.9657 9.0568 -2.6477 0.2144 0 7
7.8193 9.1835 -2.6477 0.2144 0 7
7.6709 9.3078 -2.6477 0.2144 0 7
7.5205 9.4297 -2.6477 0.2144 0 7
7.3682 9.5492 -2.6477 0.2144 0 7
7.2140 9.6662 -2.6477 0.2144 0 7
7.0579 9.7808 -2.6477 0.2144 0 7
6.9001 9.8928 -2.6477 0.2144 0 7
6.7404 10.0022 -2.6477 0.2144 0 7
6.5790 10.1091 -2.6477 0.2144 0 7
6.4159 10.2134 -2.6477 0.2144 0 7
6.2512 10.3151 -2.6477 0.2144 0 7
6.0848 10.4141 -2.6477 0.2144 0 7
5.9169 10.5104 -2.6477 0.2144 0 7
5.7474 10.6040 -2.6477 0.2144 0 7
5.5765 10.6949 -2.6477 0.2144 0 7
5.4041 10.7830 -2.6477 0.2144 0 7
5.2304 10.8683 -2.6477 0.2144 0 7
5.0553 10.9509 -2.6477 0.2144 0 7
4.8789 11.0306 -2.6477 0.2144 0 7
4.7012 11.1075 -2.6477 0.2144 0 7
4.5223 11.1815 -2.6477 0.2144 0 7
4.3423 11.2527 -2.6477 0.2144 0 7
4.1611 11.3209 -2.6477 0.2144 0 7
3.9789 11.3862 -2.6477 0.2144 0 6
3.7957 11.4486 -2.6477 0.2144 0 6
3.6114 11.5081 -2.6477 0.2144 0 7
3.4263 11.5645 -2.6477 0.2144 0 7
3.2402 11.6180 -2.6477 0.2144 0 7
3.0533 11.6685 -2.6477 0.2144 0 7
2.8657 11.7160 -2.6477 0.2144 0 7
2.6773 11.7605 -2.6477 0.2144 0 7
2.4882 11.8020 -2.6477 0.2144 0 7
2.2984 11.8404 -2.6477 0.2144 0 7
2.1081 11.8758 -2.6477 0.2144 0 7
1.9172 11.9081 -2.6477 0.2144 0 7
1.7259 11.9373 -2.6477 0.2144 0 7
1.5341 11.9635 -2.6477 0.2144 0 7
1.3419 11.9865 -2.6477 0.2144 0 7
1.1493 12.0065 -2.6477 0.2144 0 7
0.9565 12.0234 -2.6477 0.2144 0 7
0.7634 12.0372 -2.6477 0.2144 0 7
0.5701 12.0479 -2.6477 0.2144 0 7
0.3766 12.0555 -2.6477 0.2144 0 7
0.1831 12.0600 -2.6477 0.2144 0 7
-0.0105 12.0614 -2.6477 0.2144 0 7
-0.2040 12.0597 -2.6477 0.2144 0 7
-0.3976 12.0549 -2.6477 0.2144 0 7
-0.5910 12.0469 -2.6477 0.2144 0 7
-0.7843 12.0359 -2.6477 0.2144 0 7
-0.9773 12.0218 -2.6477 0.2144 0 7
-1.1702 12.0045 -2.6477 0.2144 0 7
-1.3627 11.9842 -2.6477 0.2144 0 7
-1.5548 11.9608 -2.6477 0.2144 0 7
-1.7466 11.9343 -2.6477 0.2144 0 7
-1.9379 11.9047 -2.6477 0.2144 0 7
-2.1287 11.8721 -2.6477 0.2144 0 7
-2.3190 11.8364 -2.6477 0.2144 0 7
-2.5087 11.7976 -2.6477 0.2144 0 7
-2.6977 11.7559 -2.6477 0.2144 0 7
-2.8860 11.7111 -2.6477 0.2144 0 7
-3.0736 11.6632 -2.6477 0.2144 0 7
-3.2604 11.6124 -2.6477 0.2144 0 7
-3.4463 11.5586 -2.6477 0.2144 0 7
-3.6314 11.5018 -2.6477 0.2144 0 7
-3.8155 11.4420 -2.6477 0.2144 0 6
-3.9987 11.3793 -2.6477 0.2144 0 6
-4.1808 11.3137 -2.6477 0.2144 0 7
-4.3618 11.2451 -2.6477 0.2144 0 7
-4.5417 11.1737 -2.6477 0.2144 0 7
-4.7205 11.0993 -2.6477 0.2144 0 7
-4.8980 11.0221 -2.6477 0.2144 0 7
-5.0743 10.9421 -2.6477 0.2144 0 7
-5.2492 10.8593 -2.6477 0.2144 0 7
-5.4229 10.7736 -2.6477 0.2144 0 7
-5.5951 10.6852 -2.6477 0.2144 0 7
-5.7658 10.5940 -2.6477 0.2144 0 7
-5.9351 10.5001 -2.6477 0.2144 0 7
-6.1029 10.4035 -2.6477 0.2144 0 7
-6.2691 10.3042 -2.6477 0.2144 0 7
-6.4336 10.2023 -2.6477 0.2144 0 7
-6.5965 10.0977 -2.6477 0.2144 0 7
-6.7578 9.9905 -2.6477 0.2144 0 7
-6.9172 9.8808 -2.6477 0.2144 0 7
-7.0749 9.7685 -2.6477 0.2144 0 7
8.0949 7.3479 -2.4953 0.2225 0 8
7.9760 7.4769 -2.4953 0.2225 0 8
7.8550 7.6039 -2.4953 0.2225 0 8
7.7319 7.7290 -2.4953 0.2225 0 8
7.6069 7.8521 -2.4953 0.2225 0 8
7.4799 7.9732 -2.4953 0.2225 0 8
7.3509 8.0922 -2.4953 0.2225 0 8
7.2201 8.2091 -2.4953 0.2225 0 8
7.0874 8.3239 -2.4953 0.2225 0 8
6.9529 8.4366 -2.4953 0.2225 0 8
7.2329 9.0691 -2.6477 0.2225 0 7
7.0865 9.1841 -2.6477 0.2225 0 7
6.9382 9.2966 -2.6477 0.2225 0 7
6.7881 9.4068 -2.6477 0.2225 0 7
6.6362 9.5145 -2.6477 0.2225 0 7
6.4827 9.6198 -2.6477 0.2225 0 7
6.3274 9.7226 -2.6477 0.2225 0 7
6.1706 9.8229 -2.6477 0.2225 0 7
6.0121 9.9206 -2.6477 0.2225 0 7
5.8521 10.0159 -2.6477 0.2225 0 7
5.6906 10.1085 -2.6477 0.2225 0 7
5.5277 10.1985 -2.6477 0.2225 0 7
5.3633 10.2859 -2.6477 0.2225 0 7
5.1975 10.3707 -2.6477 0.2225 0 7
5.0304 10.4528 -2.6477 0.2225 0 7
4.8620 10.5321 -2.6477 0.2225 0 7
4.6923 10.6088 -2.6477 0.2225 0 7
4.5214 10.6828 -2.6477 0.2225 0 7
4.3494 10.7540 -2.6477 0.2225 0 7
4.1762 10.8224 -2.6477 0.2225 0 7
4.0020 10.8880 -2.6477 0.2225 0 7
3.8268 10.9508 -2.6477 0.2225 0 7
3.6505 11.0108 -2.6477 0.2225 0 7
3.4733 11.0680 -2.6477 0.2225 0 7
3.2952 11.1223 -2.6477 0.2225 0 7
3.1163 11.1738 -2.6477 0.2225 0 7
2.9366 11.2224 -2.6477 0.2225 0 7
2.7561 11.2680 -2.6477 0.2225 0 7
2.5749 11.3108 -2.6477 0.2225 0 7
2.3930 11.3507 -2.6477 0.2225 0 7
2.2105 11.3876 -2.6477 0.2225 0 6
2.0275 11.4217 -2.6477 0.2225 0 6
1.8439 11.4527 -2.6477 0.2225 0 6
1.6599 11.4808 -2.6477 0.2225 0 6
1.4754 11.5060 -2.6477 0.2225 0 7
1.2905 11.5282 -2.6477 0.2225 0 7
1.1054 11.5474 -2.6477 0.2225 0 7
0.9199 11.5637 -2.6477 0.2225 0 7
0.7342 11.5770 -2.6477 0.2225 0 7
0.5483 11.5872 -2.6477 0.2225 0 7
0.3622 11.5946 -2.6477 0.2225 0 7
0.1761 11.5989 -2.6477 0.2225 0 7
-0.0101 11.6002 -2.6477 0.2225 0 7
-0.1962 11.5985 -2.6477 0.2225 0 7
-0.3824 11.5939 -2.6477 0.2225 0 7
-0.5684 11.5863 -2.6477 0.2225 0 7
-0.7543 11.5757 -2.6477 0.2225 0 7
-0.9400 11.5621 -2.6477 0.2225 0 7
-1.1254 11.5455 -2.6477 0.2225 0 7
-1.3106 11.5259 -2.6477 0.2225 0 7
-1.4954 11.5034 -2.6477 0.2225 0 7
-1.6797 11.4779 -2.6477 0.2225 0 6
-1.8637 11.4495 -2.6477 0.2225 0 6
-2.0473 11.4181 -2.6477 0.2225 0 6
-2.2303 11.3838 -2.6477 0.2225 0 6
-2.4127 11.3465 -2.6477 0.2225 0 7
-2.5945 11.3063 -2.6477 0.2225 0 7
-2.7757 11.2632 -2.6477 0.2225 0 7
-2.9561 11.2172 -2.6477 0.2225 0 7
-3.1357 11.1684 -2.6477 0.2225 0 7
-3.3146 11.1166 -2.6477 0.2225 0 7
-3.4925 11.0620 -2.6477 0.2225 0 7
-3.6696 11.0045 -2.6477 0.2225 0 7
-3.8458 10.9442 -2.6477 0.2225 0 7
