ply
format ascii 1.0
element vertex 1370
property float32 x
property float32 y
property float32 z
property float32 CosAngle
property uint32 ObjIdx
property uint32 ObjTag
end_header
-22.5934 17.9891 -2.6477 0.0913 0 7
-22.8808 17.6221 -2.6477 0.0913 0 7
-23.1622 17.2506 -2.6477 0.0913 0 7
-23.4375 16.8746 -2.6477 0.0913 0 7
15.7897 19.3989 -2.5029 0.0996 0 14
15.4746 19.6512 -2.5029 0.0996 0 14
15.1555 19.8983 -2.5029 0.0996 0 14
14.8324 20.1403 -2.5029 0.0996 0 14
14.5054 20.3771 -2.5029 0.0996 0 14
14.1747 20.6085 -2.5029 0.0996 0 14
13.8403 20.8346 -2.5029 0.0996 0 14
13.5023 21.0552 -2.5029 0.0996 0 14
13.1607 21.2703 -2.5029 0.0996 0 14
12.8158 21.4800 -2.5029 0.0996 0 14
12.4675 21.6840 -2.5029 0.0996 0 14
12.1159 21.8824 -2.5029 0.0996 0 14
11.7612 22.0750 -2.5029 0.0996 0 14
11.4034 22.2620 -2.5029 0.0996 0 14
11.6814 23.7413 -2.6477 0.0996 0 7
11.2968 23.9267 -2.6477 0.0996 0 7
10.9092 24.1059 -2.6477 0.0996 0 7
10.5188 24.2788 -2.6477 0.0996 0 7
10.1256 24.4454 -2.6477 0.0996 0 7
9.7298 24.6056 -2.6477 0.0996 0 7
9.3314 24.7594 -2.6477 0.0996 0 7
8.9307 24.9068 -2.6477 0.0996 0 7
8.5276 25.0477 -2.6477 0.0996 0 7
8.1223 25.1820 -2.6477 0.0996 0 7
7.7148 25.3098 -2.6477 0.0996 0 7
7.3054 25.4310 -2.6477 0.0996 0 7
6.8940 25.5456 -2.6477 0.0996 0 7
6.4809 25.6535 -2.6477 0.0996 0 7
6.0660 25.7548 -2.6477 0.0996 0 7
5.6496 25.8493 -2.6477 0.0996 0 7
5.2318 25.9371 -2.6477 0.0996 0 7
4.8125 26.0182 -2.6477 0.0996 0 7
4.3920 26.0924 -2.6477 0.0996 0 7
3.9704 26.1599 -2.6477 0.0996 0 7
3.5477 26.2206 -2.6477 0.0996 0 7
3.1241 26.2744 -2.6477 0.0996 0 7
2.6997 26.3214 -2.6477 0.0996 0 7
2.2746 26.3616 -2.6477 0.0996 0 7
1.8488 26.3948 -2.6477 0.0996 0 7
1.4226 26.4212 -2.6477 0.0996 0 7
0.9961 26.4408 -2.6477 0.0996 0 7
0.5693 26.4534 -2.6477 0.0996 0 7
0.1423 26.4591 -2.6477 0.0996 0 6
-0.2847 26.4580 -2.6477 0.0996 0 6
-0.7116 26.4499 -2.6477 0.0996 0 6
-1.1384 26.4350 -2.6477 0.0996 0 6
-1.5649 26.4132 -2.6477 0.0996 0 6
-1.9911 26.3845 -2.6477 0.0996 0 7
-2.4164 26.3489 -2.6477 0.0996 0 7
-2.8413 26.3065 -2.6477 0.0996 0 7
-3.2655 26.2572 -2.6477 0.0996 0 7
-3.6888 26.2011 -2.6477 0.0996 0 7
-4.1111 26.1382 -2.6477 0.0996 0 7
-4.5324 26.0684 -2.6477 0.0996 0 7
-4.9525 25.9919 -2.6477 0.0996 0 7
-5.3713 25.9086 -2.6477 0.0996 0 7
-5.7887 25.8185 -2.6477 0.0996 0 7
-6.2046 25.7218 -2.6477 0.0996 0 7
-6.6189 25.6183 -2.6477 0.0996 0 7
-7.0314 25.5081 -2.6477 0.0996 0 7
-7.4422 25.3913 -2.6477 0.0996 0 7
-7.8509 25.2679 -2.6477 0.0996 0 7
-8.2577 25.1379 -2.6477 0.0996 0 7
-8.6623 25.0014 -2.6477 0.0996 0 7
-9.0646 24.8584 -2.6477 0.0996 0 7
-9.4646 24.7089 -2.6477 0.0996 0 7
-9.8621 24.5529 -2.6477 0.0996 0 7
-10.2570 24.3905 -2.6477 0.0996 0 7
-10.6493 24.2219 -2.6477 0.0996 0 7
-11.0388 24.0468 -2.6477 0.0996 0 7
-11.4254 23.8656 -2.6477 0.0996 0 7
-11.8091 23.6781 -2.6477 0.0996 0 7
-11.5231 22.2003 -2.5029 0.0996 0 14
-11.8799 22.0114 -2.5029 0.0996 0 14
-12.2335 21.8168 -2.5029 0.0996 0 14
-12.5840 21.6166 -2.5029 0.0996 0 14
-12.9312 21.4107 -2.5029 0.0996 0 14
-13.2750 21.1992 -2.5029 0.0996 0 14
-13.6154 20.9822 -2.5029 0.0996 0 14
-13.9523 20.7598 -2.5029 0.0996 0 14
-14.2854 20.5319 -2.5029 0.0996 0 14
-14.6149 20.2987 -2.5029 0.0996 0 14
-14.9406 20.0602 -2.5029 0.0996 0 14
-15.2624 19.8165 -2.5029 0.0996 0 14
-15.5802 19.5676 -2.5029 0.0996 0 14
-15.8939 19.3136 -2.5029 0.0996 0 14
-16.2035 19.0546 -2.5029 0.0996 0 8
-16.6152 18.9117 -2.5190 0.7549 0 8
-17.1565 18.9036 -2.5545 0.7445 0 8
-17.7133 18.8952 -2.5916 0.7338 0 8
-18.2865 18.8864 -2.6306 0.7229 0 8
-18.7098 18.7096 -2.6477 0.0996 0 7
-19.0093 18.4052 -2.6477 0.0996 0 6
-19.3038 18.0961 -2.6477 0.0996 0 7
-19.5933 17.7822 -2.6477 0.0996 0 7
-19.8777 17.4637 -2.6477 0.0996 0 7
-20.1570 17.1407 -2.6477 0.0996 0 7
-20.4310 16.8131 -2.6477 0.0996 0 7
-20.6996 16.4812 -2.6477 0.0996 0 7
-20.9629 16.1450 -2.6477 0.0996 0 7
-21.2207 15.8046 -2.6477 0.0996 0 7
-21.4730 15.4601 -2.6477 0.0996 0 7
15.4093 18.9315 -2.6477 0.1078 0 7
14.9465 18.9806 -2.6205 0.7860 0 8
14.4599 18.9851 -2.5885 0.7957 0 8
13.9848 18.9895 -2.5580 0.8051 0 8
13.5206 18.9936 -2.5288 0.8144 0 8
13.0768 19.0122 -2.5029 0.1078 0 8
12.7683 19.2207 -2.5029 0.1078 0 14
12.4564 19.4243 -2.5029 0.1078 0 14
12.1413 19.6228 -2.5029 0.1078 0 14
11.8231 19.8162 -2.5029 0.1078 0 14
11.5017 20.0044 -2.5029 0.1078 0 14
11.1774 20.1874 -2.5029 0.1078 0 14
10.8502 20.3651 -2.5029 0.1078 0 14
10.5201 20.5376 -2.5029 0.1078 0 14
10.1873 20.7047 -2.5029 0.1078 0 14
9.8519 20.8664 -2.5029 0.1078 0 14
9.5139 21.0226 -2.5029 0.1078 0 14
9.1734 21.1734 -2.5029 0.1078 0 14
8.8305 21.3187 -2.5029 0.1078 0 14
8.4853 21.4584 -2.5029 0.1078 0 14
8.1379 21.5926 -2.5029 0.1078 0 14
7.7884 21.7211 -2.5029 0.1078 0 14
7.4369 21.8440 -2.5029 0.1078 0 14
7.0834 21.9611 -2.5029 0.1078 0 14
6.7281 22.0726 -2.5029 0.1078 0 14
6.3710 22.1783 -2.5029 0.1078 0 14
6.0128 22.2803 -2.5031 0.7545 0 8
5.6519 22.3723 -2.5029 0.1078 0 8
5.5962 23.7599 -2.6477 0.1078 0 7
5.2120 23.8471 -2.6477 0.1078 0 7
4.8265 23.9281 -2.6477 0.1078 0 7
4.4397 24.0028 -2.6477 0.1078 0 7
4.0518 24.0714 -2.6477 0.1078 0 7
3.6628 24.1336 -2.6477 0.1078 0 7
3.2729 24.1896 -2.6477 0.1078 0 7
2.8821 24.2393 -2.6477 0.1078 0 7
2.4906 24.2826 -2.6477 0.1078 0 7
2.0984 24.3196 -2.6477 0.1078 0 7
1.7056 24.3503 -2.6477 0.1078 0 7
1.3124 24.3747 -2.6477 0.1078 0 7
0.9189 24.3927 -2.6477 0.1078 0 7
0.5252 24.4044 -2.6477 0.1078 0 7
0.1313 24.4096 -2.6477 0.1078 0 7
-0.2627 24.4086 -2.6477 0.1078 0 7
-0.6565 24.4012 -2.6477 0.1078 0 7
-1.0502 24.3874 -2.6477 0.1078 0 7
-1.4436 24.3673 -2.6477 0.1078 0 7
-1.8367 24.3408 -2.6477 0.1078 0 7
-2.2292 24.3080 -2.6477 0.1078 0 7
-2.6212 24.2689 -2.6477 0.1078 0 7
-3.0125 24.2234 -2.6477 0.1078 0 7
-3.4030 24.1716 -2.6477 0.1078 0 7
-3.7927 24.1136 -2.6477 0.1078 0 7
-4.1813 24.0492 -2.6477 0.1078 0 7
-4.5689 23.9786 -2.6477 0.1078 0 7
-4.9552 23.9017 -2.6477 0.1078 0 7
-5.3403 23.8187 -2.6477 0.1078 0 7
-5.7240 23.7294 -2.6477 0.1078 0 7
-5.7723 22.3416 -2.5029 0.1078 0 8
-6.1324 22.2467 -2.5030 0.7545 0 8
-6.4903 22.1437 -2.5029 0.1078 0 14
-6.8468 22.0360 -2.5029 0.1078 0 14
-7.2015 21.9227 -2.5029 0.1078 0 14
-7.5543 21.8036 -2.5029 0.1078 0 14
-7.9052 21.6789 -2.5029 0.1078 0 14
-8.2540 21.5485 -2.5029 0.1078 0 14
-8.6007 21.4125 -2.5029 0.1078 0 14
-8.9451 21.2709 -2.5029 0.1078 0 14
-9.2872 21.1238 -2.5029 0.1078 0 14
-9.6269 20.9711 -2.5029 0.1078 0 14
-9.9641 20.8130 -2.5029 0.1078 0 14
-10.2986 20.6495 -2.5029 0.1078 0 14
-10.6305 20.4807 -2.5029 0.1078 0 14
-10.9597 20.3064 -2.5029 0.1078 0 14
-11.2859 20.1269 -2.5029 0.1078 0 14
-11.6093 19.9422 -2.5029 0.1078 0 14
-11.9296 19.7522 -2.5029 0.1078 0 14
-12.2468 19.5571 -2.5029 0.1078 0 14
-12.5608 19.3570 -2.5029 0.1078 0 14
-12.8715 19.1517 -2.5029 0.1078 0 14
-13.1789 18.9415 -2.5029 0.1078 0 8
-13.6210 18.9182 -2.5285 0.8145 0 8
-14.0851 18.9115 -2.5577 0.8053 0 8
-14.5600 18.9046 -2.5882 0.7958 0 8
-15.0465 18.8973 -2.6201 0.7861 0 8
-15.5110 18.8483 -2.6477 0.1078 0 7
-15.8131 18.5955 -2.6477 0.1078 0 7
-16.1112 18.3379 -2.6477 0.1078 0 6
-16.4050 18.0755 -2.6477 0.1078 0 7
-16.6946 17.8084 -2.6477 0.1078 0 7
-16.9797 17.5367 -2.6477 0.1078 0 7
-17.2605 17.2604 -2.6477 0.1078 0 7
-17.5369 16.9796 -2.6477 0.1078 0 7
-17.8086 16.6944 -2.6477 0.1078 0 7
-18.0757 16.4048 -2.6477 0.1078 0 7
-18.3380 16.1110 -2.6477 0.1078 0 7
-18.5956 15.8130 -2.6477 0.1078 0 7
-18.8484 15.5108 -2.6477 0.1078 0 7
-19.0963 15.2046 -2.6477 0.1078 0 7
-19.3392 14.8945 -2.6477 0.1078 0 7
-19.5770 14.5804 -2.6477 0.1078 0 7
-19.8097 14.2626 -2.6477 0.1078 0 7
14.2997 17.5683 -2.6477 0.1161 0 7
14.0143 17.7968 -2.6477 0.1161 0 7
13.7253 18.0206 -2.6477 0.1161 0 7
13.4327 18.2397 -2.6477 0.1161 0 7
13.1366 18.4541 -2.6477 0.1161 0 6
12.8371 18.6637 -2.6477 0.1161 0 7
12.5342 18.8684 -2.6477 0.1161 0 7
12.1653 18.9703 -2.6341 0.8418 0 8
11.7399 18.9740 -2.6079 0.8502 0 8
11.3227 18.9774 -2.5830 0.8584 0 8
10.9132 18.9807 -2.5591 0.8664 0 8
10.5110 18.9838 -2.5363 0.8742 0 8
10.1158 18.9868 -2.5146 0.8818 0 8
9.7626 19.0587 -2.5029 0.1161 0 8
9.4538 19.2138 -2.5029 0.1161 0 14
9.1425 19.3638 -2.5029 0.1161 0 14
8.8288 19.5088 -2.5029 0.1161 0 14
8.5128 19.6488 -2.5029 0.1161 0 14
8.1946 19.7836 -2.5029 0.1161 0 14
7.8743 19.9133 -2.5029 0.1161 0 14
7.5519 20.0377 -2.5029 0.1161 0 14
7.2276 20.1570 -2.5029 0.1161 0 14
6.9013 20.2710 -2.5029 0.1161 0 14
6.5733 20.3797 -2.5029 0.1161 0 14
6.2436 20.4832 -2.5029 0.1161 0 14
5.9122 20.5812 -2.5029 0.1161 0 14
5.5793 20.6740 -2.5029 0.1161 0 14
5.2450 20.7613 -2.5029 0.1161 0 14
4.9092 20.8433 -2.5029 0.1161 0 14
4.5722 20.9198 -2.5029 0.1161 0 14
4.2340 20.9908 -2.5029 0.1161 0 14
3.8947 21.0564 -2.5029 0.1161 0 14
3.5544 21.1165 -2.5029 0.1161 0 14
3.2132 21.1711 -2.5029 0.1161 0 14
2.8711 21.2202 -2.5029 0.1161 0 14
2.5283 21.2638 -2.5029 0.1161 0 14
2.1848 21.3018 -2.5029 0.1161 0 14
1.8408 21.3343 -2.5029 0.1161 0 14
1.4963 21.3613 -2.5029 0.1161 0 14
1.1513 21.3826 -2.5029 0.1161 0 14
0.8061 21.3984 -2.5029 0.1161 0 14
0.4607 21.4086 -2.5029 0.1161 0 14
0.1152 21.4133 -2.5029 0.1161 0 14
-0.2304 21.4124 -2.5029 0.1161 0 14
-0.5759 21.4058 -2.5029 0.1161 0 14
-0.9213 21.3938 -2.5029 0.1161 0 14
-1.2664 21.3761 -2.5029 0.1161 0 14
-1.6112 21.3529 -2.5029 0.1161 0 14
-1.9556 21.3241 -2.5029 0.1161 0 14
-2.2995 21.2898 -2.5029 0.1161 0 14
-2.6427 21.2499 -2.5029 0.1161 0 14
-2.9853 21.2045 -2.5029 0.1161 0 14
-3.3271 21.1535 -2.5029 0.1161 0 14
-3.6681 21.0971 -2.5029 0.1161 0 14
-4.0080 21.0352 -2.5029 0.1161 0 14
-4.3470 20.9677 -2.5029 0.1161 0 14
-4.6848 20.8949 -2.5029 0.1161 0 14
-5.0214 20.8165 -2.5029 0.1161 0 14
-5.3566 20.7328 -2.5029 0.1161 0 14
-5.6905 20.6436 -2.5029 0.1161 0 14
-6.0229 20.5491 -2.5029 0.1161 0 14
-6.3537 20.4492 -2.5029 0.1161 0 14
-6.6829 20.3441 -2.5029 0.1161 0 14
-7.0104 20.2336 -2.5029 0.1161 0 14
-7.3360 20.1178 -2.5029 0.1161 0 14
-7.6597 19.9968 -2.5029 0.1161 0 14
-7.9814 19.8706 -2.5029 0.1161 0 14
-8.3010 19.7392 -2.5029 0.1161 0 14
-8.6184 19.6027 -2.5029 0.1161 0 14
-8.9337 19.4610 -2.5029 0.1161 0 14
-9.2466 19.3143 -2.5029 0.1161 0 14
-9.5570 19.1626 -2.5029 0.1161 0 14
-9.8650 19.0059 -2.5029 0.1161 0 8
-10.2170 18.9303 -2.5143 0.8819 0 8
-10.6121 18.9252 -2.5361 0.8743 0 8
-11.0141 18.9198 -2.5588 0.8665 0 8
-11.4235 18.9143 -2.5827 0.8585 0 8
-11.8406 18.9085 -2.6076 0.8503 0 8
-12.2659 18.9025 -2.6338 0.8419 0 8
-12.6356 18.8007 -2.6477 0.1161 0 7
-12.9374 18.5943 -2.6477 0.1161 0 7
-13.2358 18.3831 -2.6477 0.1161 0 6
-13.5307 18.1672 -2.6477 0.1161 0 7
-13.8221 17.9465 -2.6477 0.1161 0 7
-14.1099 17.7211 -2.6477 0.1161 0 7
-14.3940 17.4910 -2.6477 0.1161 0 7
-14.6744 17.2565 -2.6477 0.1161 0 7
-14.9510 17.0174 -2.6477 0.1161 0 7
-15.2237 16.7739 -2.6477 0.1161 0 7
-15.4924 16.5261 -2.6477 0.1161 0 7
-15.7571 16.2739 -2.6477 0.1161 0 7
-16.0176 16.0175 -2.6477 0.1161 0 7
-16.2741 15.7569 -2.6477 0.1161 0 7
-16.5262 15.4923 -2.6477 0.1161 0 7
-16.7740 15.2235 -2.6477 0.1161 0 7
-17.0176 14.9509 -2.6477 0.1161 0 7
-17.2566 14.6743 -2.6477 0.1161 0 7
-17.4912 14.3939 -2.6477 0.1161 0 7
-17.7212 14.1097 -2.6477 0.1161 0 7
-17.9466 13.8219 -2.6477 0.1161 0 7
-18.1673 13.5305 -2.6477 0.1161 0 7
-18.3833 13.2356 -2.6477 0.1161 0 7
13.3374 16.3860 -2.6477 0.1243 0 7
13.0712 16.5991 -2.6477 0.1243 0 7
12.8017 16.8079 -2.6477 0.1243 0 7
12.5288 17.0123 -2.6477 0.1243 0 7
12.2526 17.2123 -2.6477 0.1243 0 7
11.9732 17.4078 -2.6477 0.1243 0 7
11.6908 17.5987 -2.6477 0.1243 0 7
11.4052 17.7851 -2.6477 0.1243 0 7
11.1167 17.9668 -2.6477 0.1243 0 7
10.8253 18.1439 -2.6477 0.1243 0 7
10.5311 18.3162 -2.6477 0.1243 0 7
10.2342 18.4838 -2.6477 0.1243 0 6
9.9346 18.6465 -2.6477 0.1243 0 7
9.6324 18.8044 -2.6477 0.1243 0 7
9.3276 18.9574 -2.6477 0.1243 0 7
8.9530 18.9625 -2.6279 0.9037 0 8
8.5827 18.9651 -2.6087 0.9104 0 8
8.2176 18.9674 -2.5904 0.9168 0 8
7.8575 18.9697 -2.5731 0.9230 0 8
7.5020 18.9717 -2.5566 0.9289 0 8
7.1509 18.9736 -2.5410 0.9346 0 8
6.8039 18.9754 -2.5262 0.9401 0 8
6.4608 18.9770 -2.5122 0.9454 0 8
6.1310 19.0083 -2.5029 0.1243 0 8
5.8234 19.1048 -2.5029 0.1243 0 8
5.5144 19.1963 -2.5029 0.1243 0 14
5.2039 19.2827 -2.5029 0.1243 0 14
4.8920 19.3642 -2.5029 0.1243 0 14
4.5789 19.4406 -2.5029 0.1243 0 14
4.2646 19.5120 -2.5029 0.1243 0 14
3.9491 19.5783 -2.5029 0.1243 0 14
3.6327 19.6395 -2.5029 0.1243 0 14
3.3152 19.6955 -2.5029 0.1243 0 14
2.9970 19.7465 -2.5029 0.1243 0 14
2.6779 19.7923 -2.5029 0.1243 0 14
2.3582 19.8329 -2.5029 0.1243 0 14
2.0378 19.8684 -2.5029 0.1243 0 14
1.7169 19.8987 -2.5029 0.1243 0 14
1.3956 19.9238 -2.5029 0.1243 0 14
1.0739 19.9437 -2.5029 0.1243 0 14
0.7519 19.9584 -2.5029 0.1243 0 14
0.4297 19.9680 -2.5029 0.1243 0 14
0.1074 19.9723 -2.5029 0.1243 0 14
-0.2149 19.9714 -2.5029 0.1243 0 14
-0.5372 19.9654 -2.5029 0.1243 0 14
-0.8593 19.9541 -2.5029 0.1243 0 14
-1.1812 19.9376 -2.5029 0.1243 0 14
-1.5028 19.9160 -2.5029 0.1243 0 14
-1.8240 19.8891 -2.5029 0.1243 0 14
-2.1447 19.8571 -2.5029 0.1243 0 14
-2.4649 19.8199 -2.5029 0.1243 0 14
-2.7844 19.7776 -2.5029 0.1243 0 14
-3.1032 19.7300 -2.5029 0.1243 0 14
-3.4212 19.6774 -2.5029 0.1243 0 14
-3.7383 19.6196 -2.5029 0.1243 0 14
-4.0544 19.5567 -2.5029 0.1243 0 14
-4.3695 19.4888 -2.5029 0.1243 0 14
-4.6835 19.4157 -2.5029 0.1243 0 14
-4.9962 19.3376 -2.5029 0.1243 0 14
-5.3076 19.2545 -2.5029 0.1243 0 14
-5.6176 19.1663 -2.5029 0.1243 0 14
-5.9262 19.0732 -2.5029 0.1243 0 8
-6.2332 18.9750 -2.5029 0.1243 0 8
-6.5625 18.9409 -2.5120 0.9454 0 8
-6.9055 18.9373 -2.5260 0.9402 0 8
-7.2524 18.9336 -2.5408 0.9347 0 8
-7.6035 18.9298 -2.5564 0.9290 0 8
-7.9589 18.9257 -2.5729 0.9231 0 8
-8.3190 18.9215 -2.5902 0.9169 0 8
-8.6840 18.9171 -2.6085 0.9105 0 8
-9.0542 18.9125 -2.6276 0.9038 0 8
-9.4295 18.9069 -2.6477 0.1243 0 7
-9.7334 18.7523 -2.6477 0.1243 0 7
-10.0348 18.5928 -2.6477 0.1243 0 7
-10.3334 18.4284 -2.6477 0.1243 0 6
-10.6296 18.2593 -2.6477 0.1243 0 7
-10.9229 18.0854 -2.6477 0.1243 0 7
-11.2133 17.9067 -2.6477 0.1243 0 7
-11.5008 17.7234 -2.6477 0.1243 0 7
-11.7853 17.5355 -2.6477 0.1243 0 7
-12.0668 17.3431 -2.6477 0.1243 0 7
-12.3451 17.1461 -2.6477 0.1243 0 7
-12.6202 16.9446 -2.6477 0.1243 0 7
-12.8920 16.7388 -2.6477 0.1243 0 7
-13.1604 16.5285 -2.6477 0.1243 0 7
-13.4254 16.3140 -2.6477 0.1243 0 7
-13.6869 16.0952 -2.6477 0.1243 0 7
-13.9449 15.8723 -2.6477 0.1243 0 7
-14.1992 15.6451 -2.6477 0.1243 0 7
-14.4499 15.4140 -2.6477 0.1243 0 7
-14.6967 15.1788 -2.6477 0.1243 0 7
-14.9398 14.9396 -2.6477 0.1243 0 6
-15.1789 14.6966 -2.6477 0.1243 0 7
-15.4141 14.4497 -2.6477 0.1243 0 7
-15.6453 14.1991 -2.6477 0.1243 0 7
-15.8724 13.9448 -2.6477 0.1243 0 7
-16.0953 13.6868 -2.6477 0.1243 0 7
-16.3141 13.4253 -2.6477 0.1243 0 7
-16.5287 13.1603 -2.6477 0.1243 0 7
-16.7389 12.8918 -2.6477 0.1243 0 7
-16.9447 12.6200 -2.6477 0.1243 0 7
-17.1462 12.3449 -2.6477 0.1243 0 7
12.4948 15.3509 -2.6477 0.1326 0 7
12.2455 15.5505 -2.6477 0.1326 0 7
11.9929 15.7461 -2.6477 0.1326 0 7
11.7373 15.9376 -2.6477 0.1326 0 7
11.4786 16.1249 -2.6477 0.1326 0 7
11.2168 16.3080 -2.6477 0.1326 0 7
10.9522 16.4869 -2.6477 0.1326 0 7
10.6847 16.6615 -2.6477 0.1326 0 7
10.4144 16.8318 -2.6477 0.1326 0 7
10.1415 16.9977 -2.6477 0.1326 0 7
9.8658 17.1591 -2.6477 0.1326 0 7
9.5876 17.3161 -2.6477 0.1326 0 7
9.3069 17.4686 -2.6477 0.1326 0 7
9.0238 17.6165 -2.6477 0.1326 0 7
8.7384 17.7598 -2.6477 0.1326 0 7
8.4506 17.8985 -2.6477 0.1326 0 7
8.1607 18.0325 -2.6477 0.1326 0 7
7.8686 18.1619 -2.6477 0.1326 0 7
7.5745 18.2865 -2.6477 0.1326 0 7
7.2784 18.4064 -2.6477 0.1326 0 6
6.9804 18.5214 -2.6477 0.1326 0 7
6.6806 18.6317 -2.6477 0.1326 0 7
6.3791 18.7371 -2.6477 0.1326 0 7
6.0759 18.8375 -2.6477 0.1326 0 7
5.7711 18.9332 -2.6477 0.1326 0 7
5.4439 18.9510 -2.6375 0.9601 0 8
5.1147 18.9522 -2.6259 0.9644 0 8
4.7882 18.9534 -2.6150 0.9684 0 8
4.4643 18.9543 -2.6048 0.9722 0 8
4.1429 18.9552 -2.5954 0.9757 0 8
3.8236 18.9559 -2.5867 0.9790 0 8
3.5063 18.9565 -2.5788 0.9820 0 8
3.1909 18.9570 -2.5715 0.9848 0 8
2.8772 18.9573 -2.5649 0.9873 0 8
2.5650 18.9575 -2.5590 0.9896 0 8
2.2541 18.9577 -2.5538 0.9916 0 8
1.9444 18.9576 -2.5492 0.9934 0 8
1.6357 18.9575 -2.5453 0.9949 0 8
1.3279 18.9572 -2.5421 0.9962 0 8
1.0207 18.9569 -2.5395 0.9972 0 8
0.7141 18.9564 -2.5375 0.9979 0 8
0.4079 18.9558 -2.5362 0.9985 0 8
0.1019 18.9550 -2.5356 0.9987 0 8
-0.2040 18.9563 -2.5359 0.9969 0 8
-0.5100 18.9547 -2.5364 0.9985 0 8
-0.8162 18.9529 -2.5376 0.9980 0 8
-1.1228 18.9510 -2.5395 0.9973 0 8
-1.4299 18.9496 -2.5420 0.9962 0 8
-1.7377 18.9481 -2.5453 0.9949 0 8
-2.0464 18.9466 -2.5492 0.9934 0 8
-2.3561 18.9449 -2.5537 0.9916 0 8
-2.6669 18.9430 -2.5589 0.9896 0 8
-2.9791 18.9411 -2.5648 0.9873 0 8
-3.2928 18.9390 -2.5714 0.9848 0 8
-3.6082 18.9367 -2.5787 0.9820 0 8
-3.9254 18.9344 -2.5867 0.9790 0 8
-4.2447 18.9319 -2.5953 0.9757 0 8
-4.5661 18.9293 -2.6047 0.9722 0 8
-4.8900 18.9265 -2.6149 0.9684 0 8
-5.2164 18.9236 -2.6258 0.9644 0 8
-5.5456 18.9205 -2.6374 0.9602 0 8
-5.8729 18.9018 -2.6477 0.1326 0 7
-6.1772 18.8046 -2.6477 0.1326 0 7
-6.4799 18.7024 -2.6477 0.1326 0 7
-6.7808 18.5954 -2.6477 0.1326 0 7
-7.0800 18.4836 -2.6477 0.1326 0 7
-7.3774 18.3669 -2.6477 0.1326 0 6
-7.6728 18.2455 -2.6477 0.1326 0 7
-7.9663 18.1193 -2.6477 0.1326 0 7
-8.2576 17.9884 -2.6477 0.1326 0 7
-8.5469 17.8528 -2.6477 0.1326 0 7
-8.8338 17.7125 -2.6477 0.1326 0 7
-9.1185 17.5676 -2.6477 0.1326 0 7
-9.4008 17.4182 -2.6477 0.1326 0 7
-9.6807 17.2642 -2.6477 0.1326 0 7
-9.9581 17.1058 -2.6477 0.1326 0 7
-10.2328 16.9428 -2.6477 0.1326 0 7
-10.5049 16.7755 -2.6477 0.1326 0 7
-10.7743 16.6038 -2.6477 0.1326 0 7
-11.0408 16.4278 -2.6477 0.1326 0 7
-11.3044 16.2474 -2.6477 0.1326 0 7
-11.5652 16.0629 -2.6477 0.1326 0 7
-11.8229 15.8742 -2.6477 0.1326 0 7
-12.0775 15.6813 -2.6477 0.1326 0 7
-12.3290 15.4844 -2.6477 0.1326 0 7
-12.5773 15.2834 -2.6477 0.1326 0 7
-12.8223 15.0784 -2.6477 0.1326 0 7
-13.0640 14.8696 -2.6477 0.1326 0 7
-13.3022 14.6568 -2.6477 0.1326 0 7
-13.5370 14.4402 -2.6477 0.1326 0 7
-13.7683 14.2199 -2.6477 0.1326 0 7
-13.9959 13.9958 -2.6477 0.1326 0 7
-14.2200 13.7681 -2.6477 0.1326 0 7
-14.4403 13.5369 -2.6477 0.1326 0 7
-14.6569 13.3021 -2.6477 0.1326 0 7
-14.8697 13.0638 -2.6477 0.1326 0 7
-15.0785 12.8222 -2.6477 0.1326 0 7
-15.2835 12.5772 -2.6477 0.1326 0 7
-15.4845 12.3289 -2.6477 0.1326 0 7
-15.6814 12.0774 -2.6477 0.1326 0 7
-15.8743 11.8228 -2.6477 0.1326 0 7
-16.0630 11.5650 -2.6477 0.1326 0 7
11.7508 14.4368 -2.6477 0.1408 0 7
11.5163 14.6245 -2.6477 0.1408 0 7
11.2788 14.8085 -2.6477 0.1408 0 7
11.0384 14.9886 -2.6477 0.1408 0 7
10.7951 15.1647 -2.6477 0.1408 0 7
10.5489 15.3370 -2.6477 0.1408 0 7
10.3000 15.5052 -2.6477 0.1408 0 7
10.0485 15.6694 -2.6477 0.1408 0 7
9.7943 15.8295 -2.6477 0.1408 0 7
9.5376 15.9855 -2.6477 0.1408 0 7
9.2784 16.1374 -2.6477 0.1408 0 7
9.0167 16.2850 -2.6477 0.1408 0 7
8.7528 16.4284 -2.6477 0.1408 0 7
8.4865 16.5675 -2.6477 0.1408 0 7
8.2180 16.7023 -2.6477 0.1408 0 7
7.9474 16.8327 -2.6477 0.1408 0 7
7.6748 16.9588 -2.6477 0.1408 0 7
7.4001 17.0804 -2.6477 0.1408 0 7
7.1235 17.1976 -2.6477 0.1408 0 7
6.8450 17.3104 -2.6477 0.1408 0 7
6.5648 17.4186 -2.6477 0.1408 0 7
6.2828 17.5222 -2.6477 0.1408 0 7
5.9993 17.6213 -2.6477 0.1408 0 7
5.7141 17.7159 -2.6477 0.1408 0 7
5.4275 17.8058 -2.6477 0.1408 0 7
5.1394 17.8910 -2.6477 0.1408 0 7
4.8500 17.9716 -2.6477 0.1408 0 7
4.5594 18.0476 -2.6477 0.1408 0 7
4.2675 18.1188 -2.6477 0.1408 0 7
3.9746 18.1853 -2.6477 0.1408 0 7
3.6806 18.2471 -2.6477 0.1408 0 7
3.3857 18.3041 -2.6477 0.1408 0 7
3.0898 18.3564 -2.6477 0.1408 0 7
2.7932 18.4038 -2.6477 0.1408 0 6
2.4959 18.4465 -2.6477 0.1408 0 6
2.1978 18.4844 -2.6477 0.1408 0 6
1.8992 18.5174 -2.6477 0.1408 0 7
1.6002 18.5457 -2.6477 0.1408 0 7
1.3007 18.5691 -2.6477 0.1408 0 7
1.0008 18.5877 -2.6477 0.1408 0 7
0.7008 18.6014 -2.6477 0.1408 0 7
0.4004 18.6103 -2.6477 0.1408 0 7
0.1001 18.6143 -2.6477 0.1408 0 7
-0.2003 18.6135 -2.6477 0.1408 0 7
-0.5006 18.6078 -2.6477 0.1408 0 7
-0.8009 18.5973 -2.6477 0.1408 0 7
-1.1009 18.5820 -2.6477 0.1408 0 7
-1.4006 18.5618 -2.6477 0.1408 0 7
-1.7000 18.5368 -2.6477 0.1408 0 7
-1.9989 18.5069 -2.6477 0.1408 0 7
-2.2973 18.4723 -2.6477 0.1408 0 6
-2.5950 18.4328 -2.6477 0.1408 0 6
-2.8923 18.3885 -2.6477 0.1408 0 6
-3.1886 18.3395 -2.6477 0.1408 0 7
-3.4841 18.2856 -2.6477 0.1408 0 7
-3.7788 18.2270 -2.6477 0.1408 0 7
-4.0724 18.1636 -2.6477 0.1408 0 7
-4.3650 18.0956 -2.6477 0.1408 0 7
-4.6565 18.0228 -2.6477 0.1408 0 7
-4.9467 17.9453 -2.6477 0.1408 0 7
-5.2357 17.8631 -2.6477 0.1408 0 7
-5.5232 17.7763 -2.6477 0.1408 0 7
-5.8094 17.6848 -2.6477 0.1408 0 7
-6.0940 17.5888 -2.6477 0.1408 0 7
-6.3771 17.4882 -2.6477 0.1408 0 7
-6.6584 17.3830 -2.6477 0.1408 0 7
-6.9381 17.2733 -2.6477 0.1408 0 7
-7.2160 17.1590 -2.6477 0.1408 0 7
-7.4919 17.0404 -2.6477 0.1408 0 7
-7.7659 16.9172 -2.6477 0.1408 0 7
-8.0379 16.7897 -2.6477 0.1408 0 7
-8.3078 16.6578 -2.6477 0.1408 0 7
-8.5756 16.5216 -2.6477 0.1408 0 7
-8.8411 16.3810 -2.6477 0.1408 0 7
-9.1043 16.2362 -2.6477 0.1408 0 7
-9.3651 16.0872 -2.6477 0.1408 0 7
-9.6235 15.9340 -2.6477 0.1408 0 7
-9.8794 15.7766 -2.6477 0.1408 0 7
-10.1327 15.6151 -2.6477 0.1408 0 7
-10.3834 15.4495 -2.6477 0.1408 0 7
-10.6313 15.2800 -2.6477 0.1408 0 7
-10.8765 15.1064 -2.6477 0.1408 0 7
-11.1189 14.9289 -2.6477 0.1408 0 7
-11.3584 14.7476 -2.6477 0.1408 0 7
-11.5949 14.5623 -2.6477 0.1408 0 7
-11.8284 14.3733 -2.6477 0.1408 0 7
-12.0588 14.1806 -2.6477 0.1408 0 7
-12.2860 13.9841 -2.6477 0.1408 0 7
-12.5101 13.7840 -2.6477 0.1408 0 7
-12.7309 13.5804 -2.6477 0.1408 0 7
-12.9484 13.3731 -2.6477 0.1408 0 7
-13.1626 13.1624 -2.6477 0.1408 0 7
-13.3733 12.9483 -2.6477 0.1408 0 7
-13.5805 12.7308 -2.6477 0.1408 0 7
-13.7841 12.5100 -2.6477 0.1408 0 7
-13.9842 12.2859 -2.6477 0.1408 0 7
-14.1807 12.0587 -2.6477 0.1408 0 7
-14.3734 11.8282 -2.6477 0.1408 0 7
-14.5624 11.5947 -2.6477 0.1408 0 7
-14.7477 11.3582 -2.6477 0.1408 0 6
-14.9290 11.1188 -2.6477 0.1408 0 7
-15.1065 10.8764 -2.6477 0.1408 0 7
11.0890 13.6237 -2.6477 0.1490 0 7
10.8677 13.8008 -2.6477 0.1490 0 7
10.6435 13.9744 -2.6477 0.1490 0 7
10.4166 14.1444 -2.6477 0.1490 0 7
10.1870 14.3106 -2.6477 0.1490 0 7
9.9548 14.4731 -2.6477 0.1490 0 7
9.7199 14.6319 -2.6477 0.1490 0 7
9.4825 14.7869 -2.6477 0.1490 0 7
9.2427 14.9380 -2.6477 0.1490 0 7
9.0004 15.0852 -2.6477 0.1490 0 7
8.7558 15.2285 -2.6477 0.1490 0 7
8.5089 15.3678 -2.6477 0.1490 0 7
8.2598 15.5031 -2.6477 0.1490 0 7
8.0085 15.6344 -2.6477 0.1490 0 7
7.7552 15.7616 -2.6477 0.1490 0 7
7.4998 15.8847 -2.6477 0.1490 0 7
7.2425 16.0036 -2.6477 0.1490 0 7
6.9833 16.1184 -2.6477 0.1490 0 7
6.7223 16.2290 -2.6477 0.1490 0 7
6.4595 16.3354 -2.6477 0.1490 0 7
6.1950 16.4375 -2.6477 0.1490 0 7
5.9290 16.5353 -2.6477 0.1490 0 7
5.6613 16.6288 -2.6477 0.1490 0 7
5.3923 16.7180 -2.6477 0.1490 0 7
5.1218 16.8029 -2.6477 0.1490 0 7
4.8499 16.8833 -2.6477 0.1490 0 7
4.5769 16.9594 -2.6477 0.1490 0 7
4.3026 17.0311 -2.6477 0.1490 0 7
4.0272 17.0983 -2.6477 0.1490 0 7
3.7507 17.1610 -2.6477 0.1490 0 7
3.4733 17.2193 -2.6477 0.1490 0 7
3.1950 17.2731 -2.6477 0.1490 0 7
2.9158 17.3225 -2.6477 0.1490 0 7
2.6359 17.3673 -2.6477 0.1490 0 7
2.3553 17.4075 -2.6477 0.1490 0 7
2.0740 17.4433 -2.6477 0.1490 0 7
1.7923 17.4745 -2.6477 0.1490 0 7
1.5100 17.5011 -2.6477 0.1490 0 7
1.2274 17.5232 -2.6477 0.1490 0 7
0.9445 17.5407 -2.6477 0.1490 0 7
0.6613 17.5537 -2.6477 0.1490 0 7
0.3779 17.5621 -2.6477 0.1490 0 7
0.0945 17.5659 -2.6477 0.1490 0 7
-0.1890 17.5651 -2.6477 0.1490 0 7
-0.4725 17.5598 -2.6477 0.1490 0 7
-0.7558 17.5499 -2.6477 0.1490 0 7
-1.0389 17.5354 -2.6477 0.1490 0 7
-1.3217 17.5163 -2.6477 0.1490 0 7
-1.6042 17.4927 -2.6477 0.1490 0 7
-1.8863 17.4646 -2.6477 0.1490 0 7
-2.1679 17.4319 -2.6477 0.1490 0 7
-2.4489 17.3946 -2.6477 0.1490 0 7
-2.7293 17.3528 -2.6477 0.1490 0 7
-3.0090 17.3065 -2.6477 0.1490 0 7
-3.2879 17.2557 -2.6477 0.1490 0 7
-3.5659 17.2004 -2.6477 0.1490 0 7
-3.8431 17.1406 -2.6477 0.1490 0 7
-4.1192 17.0764 -2.6477 0.1490 0 7
-4.3942 17.0077 -2.6477 0.1490 0 7
-4.6681 16.9345 -2.6477 0.1490 0 7
-4.9408 16.8570 -2.6477 0.1490 0 7
-5.2121 16.7751 -2.6477 0.1490 0 7
-5.4822 16.6888 -2.6477 0.1490 0 7
-5.7508 16.5981 -2.6477 0.1490 0 7
-6.0179 16.5032 -2.6477 0.1490 0 7
-6.2834 16.4039 -2.6477 0.1490 0 7
-6.5473 16.3004 -2.6477 0.1490 0 7
-6.8095 16.1926 -2.6477 0.1490 0 7
-7.0699 16.0806 -2.6477 0.1490 0 7
-7.3285 15.9644 -2.6477 0.1490 0 7
-7.5852 15.8441 -2.6477 0.1490 0 7
-7.8399 15.7196 -2.6477 0.1490 0 7
-8.0926 15.5910 -2.6477 0.1490 0 7
-8.3431 15.4584 -2.6477 0.1490 0 7
-8.5915 15.3217 -2.6477 0.1490 0 7
-8.8376 15.1811 -2.6477 0.1490 0 7
-9.0815 15.0365 -2.6477 0.1490 0 7
-9.3229 14.8880 -2.6477 0.1490 0 7
-9.5620 14.7356 -2.6477 0.1490 0 7
-9.7985 14.5794 -2.6477 0.1490 0 7
-10.0325 14.4194 -2.6477 0.1490 0 7
-10.2639 14.2556 -2.6477 0.1490 0 7
-10.4926 14.0881 -2.6477 0.1490 0 7
-10.7186 13.9169 -2.6477 0.1490 0 7
-10.9418 13.7421 -2.6477 0.1490 0 7
-11.1622 13.5638 -2.6477 0.1490 0 7
-11.3796 13.3819 -2.6477 0.1490 0 7
-11.5941 13.1965 -2.6477 0.1490 0 7
-11.8055 13.0077 -2.6477 0.1490 0 7
-12.0139 12.8155 -2.6477 0.1490 0 7
-12.2191 12.6199 -2.6477 0.1490 0 7
-12.4212 12.4211 -2.6477 0.1490 0 7
-12.6200 12.2190 -2.6477 0.1490 0 7
-12.8156 12.0138 -2.6477 0.1490 0 7
-13.0078 11.8054 -2.6477 0.1490 0 7
-13.1966 11.5939 -2.6477 0.1490 0 7
-13.3820 11.3795 -2.6477 0.1490 0 6
-13.5639 11.1620 -2.6477 0.1490 0 7
-13.7422 10.9417 -2.6477 0.1490 0 7
-13.9170 10.7185 -2.6477 0.1490 0 7
-14.0882 10.4925 -2.6477 0.1490 0 7
-14.2557 10.2638 -2.6477 0.1490 0 7
10.4963 12.8955 -2.6477 0.1573 0 7
10.2868 13.0632 -2.6477 0.1573 0 7
10.0747 13.2275 -2.6477 0.1573 0 7
9.8599 13.3884 -2.6477 0.1573 0 7
9.6426 13.5458 -2.6477 0.1573 0 7
9.4227 13.6996 -2.6477 0.1573 0 7
9.2004 13.8499 -2.6477 0.1573 0 7
8.9757 13.9965 -2.6477 0.1573 0 7
8.7487 14.1396 -2.6477 0.1573 0 7
8.5194 14.2789 -2.6477 0.1573 0 7
8.2878 14.4145 -2.6477 0.1573 0 7
8.0541 14.5464 -2.6477 0.1573 0 7
7.8183 14.6745 -2.6477 0.1573 0 7
7.5805 14.7987 -2.6477 0.1573 0 7
7.3407 14.9192 -2.6477 0.1573 0 6
7.0990 15.0357 -2.6477 0.1573 0 7
6.8554 15.1483 -2.6477 0.1573 0 7
6.6100 15.2569 -2.6477 0.1573 0 7
6.3630 15.3616 -2.6477 0.1573 0 7
6.1142 15.4623 -2.6477 0.1573 0 7
5.8639 15.5590 -2.6477 0.1573 0 7
5.6121 15.6516 -2.6477 0.1573 0 7
5.3588 15.7401 -2.6477 0.1573 0 7
5.1041 15.8245 -2.6477 0.1573 0 7
4.8480 15.9048 -2.6477 0.1573 0 7
4.5907 15.9810 -2.6477 0.1573 0 7
4.3322 16.0530 -2.6477 0.1573 0 7
4.0726 16.1208 -2.6477 0.1573 0 7
3.8119 16.1844 -2.6477 0.1573 0 7
3.5503 16.2438 -2.6477 0.1573 0 7
3.2877 16.2990 -2.6477 0.1573 0 7
3.0242 16.3500 -2.6477 0.1573 0 7
2.7600 16.3966 -2.6477 0.1573 0 7
2.4950 16.4390 -2.6477 0.1573 0 7
2.2294 16.4772 -2.6477 0.1573 0 7
1.9632 16.5110 -2.6477 0.1573 0 7
1.6965 16.5405 -2.6477 0.1573 0 7
1.4293 16.5657 -2.6477 0.1573 0 7
1.1618 16.5867 -2.6477 0.1573 0 7
0.8940 16.6032 -2.6477 0.1573 0 7
0.6259 16.6155 -2.6477 0.1573 0 7
0.3577 16.6234 -2.6477 0.1573 0 7
0.0894 16.6270 -2.6477 0.1573 0 7
-0.1789 16.6263 -2.6477 0.1573 0 7
-0.4472 16.6213 -2.6477 0.1573 0 7
-0.7154 16.6119 -2.6477 0.1573 0 7
-0.9834 16.5982 -2.6477 0.1573 0 7
-1.2511 16.5802 -2.6477 0.1573 0 7
-1.5185 16.5578 -2.6477 0.1573 0 7
-1.7855 16.5311 -2.6477 0.1573 0 7
-2.0520 16.5002 -2.6477 0.1573 0 7
-2.3180 16.4649 -2.6477 0.1573 0 7
-2.5834 16.4254 -2.6477 0.1573 0 7
-2.8482 16.3815 -2.6477 0.1573 0 7
-3.1122 16.3334 -2.6477 0.1573 0 7
-3.3753 16.2811 -2.6477 0.1573 0 7
-3.6377 16.2245 -2.6477 0.1573 0 7
-3.8990 16.1637 -2.6477 0.1573 0 7
-4.1593 16.0987 -2.6477 0.1573 0 7
-4.4186 16.0294 -2.6477 0.1573 0 7
-4.6767 15.9560 -2.6477 0.1573 0 7
-4.9336 15.8785 -2.6477 0.1573 0 7
-5.1892 15.7968 -2.6477 0.1573 0 7
-5.4434 15.7110 -2.6477 0.1573 0 7
-5.6962 15.6211 -2.6477 0.1573 0 7
-5.9476 15.5272 -2.6477 0.1573 0 7
-6.1974 15.4292 -2.6477 0.1573 0 7
-6.4456 15.3271 -2.6477 0.1573 0 7
-6.6921 15.2211 -2.6477 0.1573 0 7
-6.9368 15.1112 -2.6477 0.1573 0 7
-7.1798 14.9972 -2.6477 0.1573 0 7
-7.4209 14.8794 -2.6477 0.1573 0 6
-7.6600 14.7577 -2.6477 0.1573 0 7
-7.8972 14.6322 -2.6477 0.1573 0 7
-8.1323 14.5028 -2.6477 0.1573 0 7
-8.3653 14.3697 -2.6477 0.1573 0 7
-8.5961 14.2329 -2.6477 0.1573 0 7
-8.8246 14.0923 -2.6477 0.1573 0 7
-9.0509 13.9480 -2.6477 0.1573 0 7
-9.2748 13.8002 -2.6477 0.1573 0 7
-9.4963 13.6487 -2.6477 0.1573 0 7
-9.7153 13.4937 -2.6477 0.1573 0 7
-9.9318 13.3351 -2.6477 0.1573 0 7
-10.1457 13.1731 -2.6477 0.1573 0 7
-10.3570 13.0077 -2.6477 0.1573 0 7
-10.5656 12.8388 -2.6477 0.1573 0 7
-10.7714 12.6667 -2.6477 0.1573 0 7
-10.9744 12.4912 -2.6477 0.1573 0 7
-11.1745 12.3124 -2.6477 0.1573 0 7
-11.3718 12.1305 -2.6477 0.1573 0 7
-11.5660 11.9454 -2.6477 0.1573 0 7
-11.7573 11.7572 -2.6477 0.1573 0 7
-11.9455 11.5659 -2.6477 0.1573 0 7
-12.1306 11.3717 -2.6477 0.1573 0 6
-12.3125 11.1744 -2.6477 0.1573 0 7
-12.4913 10.9743 -2.6477 0.1573 0 7
-12.6667 10.7713 -2.6477 0.1573 0 7
-12.8389 10.5655 -2.6477 0.1573 0 7
-13.0078 10.3569 -2.6477 0.1573 0 7
-13.1732 10.1456 -2.6477 0.1573 0 7
-13.3352 9.9317 -2.6477 0.1573 0 7
-13.4937 9.7152 -2.6477 0.1573 0 7
9.9624 12.2396 -2.6477 0.1655 0 7
9.7636 12.3988 -2.6477 0.1655 0 7
9.5623 12.5547 -2.6477 0.1655 0 7
9.3584 12.7074 -2.6477 0.1655 0 7
9.1521 12.8568 -2.6477 0.1655 0 7
8.9435 13.0028 -2.6477 0.1655 0 7
8.7325 13.1454 -2.6477 0.1655 0 7
8.5192 13.2846 -2.6477 0.1655 0 7
8.3037 13.4204 -2.6477 0.1655 0 7
8.0860 13.5526 -2.6477 0.1655 0 7
7.8663 13.6814 -2.6477 0.1655 0 7
7.6444 13.8065 -2.6477 0.1655 0 7
7.4207 13.9281 -2.6477 0.1655 0 7
7.1949 14.0460 -2.6477 0.1655 0 7
6.9673 14.1603 -2.6477 0.1655 0 7
6.7379 14.2709 -2.6477 0.1655 0 7
6.5067 14.3778 -2.6477 0.1655 0 7
6.2738 14.4809 -2.6477 0.1655 0 7
6.0393 14.5803 -2.6477 0.1655 0 7
5.8033 14.6758 -2.6477 0.1655 0 7
5.5657 14.7676 -2.6477 0.1655 0 7
5.3266 14.8555 -2.6477 0.1655 0 7
5.0861 14.9395 -2.6477 0.1655 0 7
4.8445 15.0196 -2.6477 0.1655 0 7
4.6014 15.0959 -2.6477 0.1655 0 7
4.3572 15.1681 -2.6477 0.1655 0 7
4.1119 15.2365 -2.6477 0.1655 0 7
3.8655 15.3009 -2.6477 0.1655 0 7
3.6180 15.3612 -2.6477 0.1655 0 7
3.3697 15.4176 -2.6477 0.1655 0 7
3.1204 15.4700 -2.6477 0.1655 0 7
2.8704 15.5183 -2.6477 0.1655 0 7
2.6196 15.5626 -2.6477 0.1655 0 7
2.3681 15.6029 -2.6477 0.1655 0 7
2.1160 15.6391 -2.6477 0.1655 0 7
1.8633 15.6712 -2.6477 0.1655 0 7
1.6102 15.6992 -2.6477 0.1655 0 7
1.3566 15.7232 -2.6477 0.1655 0 7
1.1027 15.7430 -2.6477 0.1655 0 7
0.8485 15.7587 -2.6477 0.1655 0 7
0.5941 15.7704 -2.6477 0.1655 0 7
0.3395 15.7779 -2.6477 0.1655 0 7
0.0849 15.7813 -2.6477 0.1655 0 7
-0.1698 15.7807 -2.6477 0.1655 0 7
-0.4245 15.7759 -2.6477 0.1655 0 7
-0.6790 15.7670 -2.6477 0.1655 0 7
-0.9333 15.7540 -2.6477 0.1655 0 7
-1.1875 15.7368 -2.6477 0.1655 0 7
-1.4412 15.7156 -2.6477 0.1655 0 7
-1.6947 15.6903 -2.6477 0.1655 0 7
-1.9477 15.6609 -2.6477 0.1655 0 7
-2.2001 15.6275 -2.6477 0.1655 0 7
-2.4520 15.5899 -2.6477 0.1655 0 7
-2.7033 15.5483 -2.6477 0.1655 0 7
-2.9539 15.5027 -2.6477 0.1655 0 7
-3.2037 15.4530 -2.6477 0.1655 0 7
-3.4526 15.3993 -2.6477 0.1655 0 7
-3.7007 15.3415 -2.6477 0.1655 0 7
-3.9478 15.2798 -2.6477 0.1655 0 7
-4.1939 15.2141 -2.6477 0.1655 0 7
-4.4388 15.1445 -2.6477 0.1655 0 7
-4.6826 15.0709 -2.6477 0.1655 0 7
-4.9252 14.9933 -2.6477 0.1655 0 7
-5.1666 14.9119 -2.6477 0.1655 0 7
-5.4065 14.8266 -2.6477 0.1655 0 7
-5.6451 14.7374 -2.6477 0.1655 0 7
-5.8822 14.6444 -2.6477 0.1655 0 7
-6.1177 14.5476 -2.6477 0.1655 0 7
-6.3517 14.4469 -2.6477 0.1655 0 7
-6.5840 14.3426 -2.6477 0.1655 0 7
-6.8146 14.2344 -2.6477 0.1655 0 7
-7.0434 14.1226 -2.6477 0.1655 0 7
-7.2704 14.0071 -2.6477 0.1655 0 7
-7.4955 13.8879 -2.6477 0.1655 0 7
-7.7187 13.7652 -2.6477 0.1655 0 7
-7.9398 13.6388 -2.6477 0.1655 0 7
-8.1589 13.5089 -2.6477 0.1655 0 7
-8.3758 13.3755 -2.6477 0.1655 0 7
-8.5906 13.2386 -2.6477 0.1655 0 7
-8.8031 13.0982 -2.6477 0.1655 0 7
-9.0133 12.9545 -2.6477 0.1655 0 7
-9.2212 12.8073 -2.6477 0.1655 0 7
-9.4267 12.6569 -2.6477 0.1655 0 7
-9.6297 12.5031 -2.6477 0.1655 0 7
-9.8302 12.3461 -2.6477 0.1655 0 7
-10.0282 12.1858 -2.6477 0.1655 0 7
-10.2235 12.0224 -2.6477 0.1655 0 7
-10.4162 11.8558 -2.6477 0.1655 0 7
-10.6062 11.6862 -2.6477 0.1655 0 7
-10.7934 11.5135 -2.6477 0.1655 0 7
-10.9778 11.3378 -2.6477 0.1655 0 7
-11.1593 11.1592 -2.6477 0.1655 0 7
-11.3379 10.9777 -2.6477 0.1655 0 7
-11.5136 10.7933 -2.6477 0.1655 0 7
-11.6863 10.6061 -2.6477 0.1655 0 7
-11.8559 10.4161 -2.6477 0.1655 0 7
-12.0225 10.2234 -2.6477 0.1655 0 7
-12.1859 10.0281 -2.6477 0.1655 0 7
-12.3461 9.8301 -2.6477 0.1655 0 7
-12.5032 9.6296 -2.6477 0.1655 0 7
-12.6569 9.4266 -2.6477 0.1655 0 7
-12.8074 9.2211 -2.6477 0.1655 0 7
9.4789 11.6456 -2.6477 0.1736 0 7
9.2898 11.7971 -2.6477 0.1736 0 7
9.0982 11.9455 -2.6477 0.1736 0 7
8.9042 12.0907 -2.6477 0.1736 0 7
8.7080 12.2328 -2.6477 0.1736 0 7
8.5094 12.3718 -2.6477 0.1736 0 7
8.3087 12.5075 -2.6477 0.1736 0 7
8.1057 12.6399 -2.6477 0.1736 0 7
7.9007 12.7691 -2.6477 0.1736 0 7
7.6936 12.8949 -2.6477 0.1736 0 7
7.4845 13.0174 -2.6477 0.1736 0 7
7.2735 13.1365 -2.6477 0.1736 0 7
7.0605 13.2522 -2.6477 0.1736 0 7
6.8457 13.3644 -2.6477 0.1736 0 7
6.6292 13.4731 -2.6477 0.1736 0 7
6.4109 13.5783 -2.6477 0.1736 0 7
6.1909 13.6800 -2.6477 0.1736 0 7
5.9694 13.7782 -2.6477 0.1736 0 7
5.7462 13.8727 -2.6477 0.1736 0 7
5.5216 13.9636 -2.6477 0.1736 0 7
5.2956 14.0509 -2.6477 0.1736 0 7
5.0681 14.1345 -2.6477 0.1736 0 7
4.8394 14.2145 -2.6477 0.1736 0 7
4.6094 14.2907 -2.6477 0.1736 0 7
4.3781 14.3633 -2.6477 0.1736 0 7
4.1458 14.4320 -2.6477 0.1736 0 7
3.9123 14.4971 -2.6477 0.1736 0 7
3.6779 14.5583 -2.6477 0.1736 0 7
3.4425 14.6158 -2.6477 0.1736 0 7
3.2062 14.6694 -2.6477 0.1736 0 7
2.9690 14.7192 -2.6477 0.1736 0 7
2.7311 14.7652 -2.6477 0.1736 0 7
2.4925 14.8074 -2.6477 0.1736 0 7
2.2532 14.8457 -2.6477 0.1736 0 7
2.0133 14.8801 -2.6477 0.1736 0 7
1.7729 14.9107 -2.6477 0.1736 0 7
1.5320 14.9373 -2.6477 0.1736 0 7
1.2908 14.9601 -2.6477 0.1736 0 7
1.0492 14.9790 -2.6477 0.1736 0 7
0.8073 14.9940 -2.6477 0.1736 0 7
0.5653 15.0050 -2.6477 0.1736 0 7
0.3231 15.0122 -2.6477 0.1736 0 7
0.0808 15.0155 -2.6477 0.1736 0 7
-0.1616 15.0148 -2.6477 0.1736 0 7
-0.4039 15.0103 -2.6477 0.1736 0 7
-0.6460 15.0018 -2.6477 0.1736 0 7
-0.8880 14.9894 -2.6477 0.1736 0 6
-1.1298 14.9731 -2.6477 0.1736 0 6
-1.3713 14.9529 -2.6477 0.1736 0 6
-1.6124 14.9289 -2.6477 0.1736 0 6
-1.8531 14.9009 -2.6477 0.1736 0 7
-2.0934 14.8691 -2.6477 0.1736 0 7
-2.3330 14.8333 -2.6477 0.1736 0 7
-2.5721 14.7938 -2.6477 0.1736 0 7
-2.8105 14.7503 -2.6477 0.1736 0 7
-3.0482 14.7030 -2.6477 0.1736 0 7
-3.2851 14.6519 -2.6477 0.1736 0 7
-3.5211 14.5970 -2.6477 0.1736 0 7
-3.7562 14.5383 -2.6477 0.1736 0 7
-3.9903 14.4758 -2.6477 0.1736 0 7
-4.2234 14.4095 -2.6477 0.1736 0 7
-4.4554 14.3395 -2.6477 0.1736 0 7
-4.6862 14.2657 -2.6477 0.1736 0 7
-4.9158 14.1882 -2.6477 0.1736 0 7
-5.1441 14.1070 -2.6477 0.1736 0 7
-5.3711 14.0222 -2.6477 0.1736 0 7
-5.5967 13.9337 -2.6477 0.1736 0 7
-5.8208 13.8416 -2.6477 0.1736 0 7
-6.0434 13.7458 -2.6477 0.1736 0 7
-6.2645 13.6465 -2.6477 0.1736 0 7
-6.4839 13.5436 -2.6477 0.1736 0 7
-6.7016 13.4372 -2.6477 0.1736 0 7
-6.9176 13.3273 -2.6477 0.1736 0 7
-7.1318 13.2140 -2.6477 0.1736 0 7
-7.3441 13.0972 -2.6477 0.1736 0 7
-7.5545 12.9769 -2.6477 0.1736 0 7
-7.7629 12.8533 -2.6477 0.1736 0 7
-7.9693 12.7264 -2.6477 0.1736 0 7
-8.1737 12.5961 -2.6477 0.1736 0 7
-8.3759 12.4626 -2.6477 0.1736 0 7
-8.5759 12.3258 -2.6477 0.1736 0 7
-8.7737 12.1858 -2.6477 0.1736 0 7
-8.9692 12.0426 -2.6477 0.1736 0 7
-9.1624 11.8963 -2.6477 0.1736 0 7
-9.3532 11.7469 -2.6477 0.1736 0 7
-9.5415 11.5944 -2.6477 0.1736 0 7
-9.7274 11.4389 -2.6477 0.1736 0 6
-9.9107 11.2805 -2.6477 0.1736 0 7
-10.0915 11.1191 -2.6477 0.1736 0 7
-10.2696 10.9548 -2.6477 0.1736 0 7
-10.4450 10.7876 -2.6477 0.1736 0 7
-10.6177 10.6176 -2.6477 0.1736 0 7
-10.7877 10.4449 -2.6477 0.1736 0 7
-10.9549 10.2695 -2.6477 0.1736 0 7
-11.1191 10.0913 -2.6477 0.1736 0 7
-11.2806 9.9106 -2.6477 0.1736 0 7
-11.4390 9.7273 -2.6477 0.1736 0 7
-11.5945 9.5414 -2.6477 0.1736 0 7
-11.7470 9.3530 -2.6477 0.1736 0 7
-11.8964 9.1623 -2.6477 0.1736 0 7
-12.0427 8.9691 -2.6477 0.1736 0 7
-11.4989 8.2791 -2.4984 0.5312 0 8
9.0390 11.1051 -2.6477 0.1818 0 7
8.8586 11.2495 -2.6477 0.1818 0 7
8.6759 11.3910 -2.6477 0.1818 0 7
8.4910 11.5296 -2.6477 0.1818 0 7
8.3038 11.6651 -2.6477 0.1818 0 7
8.1145 11.7976 -2.6477 0.1818 0 7
7.9230 11.9270 -2.6477 0.1818 0 7
7.7295 12.0533 -2.6477 0.1818 0 7
7.5340 12.1764 -2.6477 0.1818 0 7
7.3365 12.2964 -2.6477 0.1818 0 7
7.1371 12.4132 -2.6477 0.1818 0 7
6.9359 12.5268 -2.6477 0.1818 0 7
6.7328 12.6371 -2.6477 0.1818 0 7
6.5280 12.7441 -2.6477 0.1818 0 7
6.3215 12.8478 -2.6477 0.1818 0 7
6.1133 12.9481 -2.6477 0.1818 0 7
5.9036 13.0451 -2.6477 0.1818 0 7
5.6923 13.1387 -2.6477 0.1818 0 7
5.4795 13.2288 -2.6477 0.1818 0 7
5.2654 13.3155 -2.6477 0.1818 0 7
5.0498 13.3988 -2.6477 0.1818 0 7
4.8329 13.4785 -2.6477 0.1818 0 7
4.6148 13.5547 -2.6477 0.1818 0 7
4.3954 13.6274 -2.6477 0.1818 0 7
4.1749 13.6966 -2.6477 0.1818 0 7
3.9534 13.7622 -2.6477 0.1818 0 7
3.7308 13.8242 -2.6477 0.1818 0 7
3.5072 13.8826 -2.6477 0.1818 0 7
3.2827 13.9374 -2.6477 0.1818 0 7
3.0573 13.9886 -2.6477 0.1818 0 7
2.8312 14.0361 -2.6477 0.1818 0 7
2.6043 14.0799 -2.6477 0.1818 0 7
2.3768 14.1201 -2.6477 0.1818 0 7
2.1486 14.1566 -2.6477 0.1818 0 7
1.9199 14.1895 -2.6477 0.1818 0 7
1.6906 14.2186 -2.6477 0.1818 0 7
1.4609 14.2440 -2.6477 0.1818 0 7
1.2309 14.2658 -2.6477 0.1818 0 7
1.0005 14.2838 -2.6477 0.1818 0 7
0.7699 14.2980 -2.6477 0.1818 0 7
0.5390 14.3086 -2.6477 0.1818 0 7
0.3081 14.3154 -2.6477 0.1818 0 7
0.0770 14.3186 -2.6477 0.1818 0 7
-0.1541 14.3179 -2.6477 0.1818 0 7
-0.3851 14.3136 -2.6477 0.1818 0 7
-0.6161 14.3055 -2.6477 0.1818 0 7
-0.8468 14.2937 -2.6477 0.1818 0 7
-1.0774 14.2782 -2.6477 0.1818 0 7
-1.3077 14.2589 -2.6477 0.1818 0 7
-1.5376 14.2360 -2.6477 0.1818 0 7
-1.7671 14.2093 -2.6477 0.1818 0 7
-1.9962 14.1789 -2.6477 0.1818 0 7
-2.2248 14.1449 -2.6477 0.1818 0 7
-2.4527 14.1071 -2.6477 0.1818 0 7
-2.6801 14.0657 -2.6477 0.1818 0 7
-2.9067 14.0206 -2.6477 0.1818 0 7
-3.1326 13.9719 -2.6477 0.1818 0 7
-3.3577 13.9195 -2.6477 0.1818 0 7
-3.5819 13.8635 -2.6477 0.1818 0 7
-3.8051 13.8039 -2.6477 0.1818 0 7
-4.0274 13.7407 -2.6477 0.1818 0 7
-4.2486 13.6739 -2.6477 0.1818 0 7
-4.4687 13.6036 -2.6477 0.1818 0 7
-4.6877 13.5297 -2.6477 0.1818 0 7
-4.9054 13.4523 -2.6477 0.1818 0 7
-5.1218 13.3714 -2.6477 0.1818 0 7
-5.3369 13.2870 -2.6477 0.1818 0 7
-5.5507 13.1991 -2.6477 0.1818 0 7
-5.7630 13.1078 -2.6477 0.1818 0 7
-5.9737 13.0131 -2.6477 0.1818 0 7
-6.1830 12.9150 -2.6477 0.1818 0 7
-6.3906 12.8136 -2.6477 0.1818 0 7
-6.5965 12.7088 -2.6477 0.1818 0 7
-6.8008 12.6007 -2.6477 0.1818 0 7
-7.0032 12.4893 -2.6477 0.1818 0 7
-7.2039 12.3746 -2.6477 0.1818 0 7
-7.4026 12.2568 -2.6477 0.1818 0 7
-7.5994 12.1357 -2.6477 0.1818 0 7
-7.7943 12.0115 -2.6477 0.1818 0 7
-7.9871 11.8841 -2.6477 0.1818 0 7
-8.1779 11.7537 -2.6477 0.1818 0 7
-8.3665 11.6202 -2.6477 0.1818 0 7
-8.5529 11.4837 -2.6477 0.1818 0 7
-8.7371 11.3442 -2.6477 0.1818 0 7
-8.9190 11.2017 -2.6477 0.1818 0 7
-9.0987 11.0563 -2.6477 0.1818 0 7
-9.2759 10.9080 -2.6477 0.1818 0 7
-9.4507 10.7569 -2.6477 0.1818 0 7
-9.6231 10.6030 -2.6477 0.1818 0 7
-9.7929 10.4463 -2.6477 0.1818 0 7
-9.9602 10.2869 -2.6477 0.1818 0 7
-10.1249 10.1249 -2.6477 0.1818 0 7
-10.2870 9.9601 -2.6477 0.1818 0 7
-10.4464 9.7928 -2.6477 0.1818 0 7
-10.6031 9.6230 -2.6477 0.1818 0 7
-10.7570 9.4506 -2.6477 0.1818 0 7
-10.9081 9.2758 -2.6477 0.1818 0 7
-11.0564 9.0986 -2.6477 0.1818 0 7
-10.5570 8.4056 -2.4953 0.1818 0 8
-10.6913 8.2341 -2.4953 0.1818 0 8
-10.8227 8.0605 -2.4953 0.1818 0 8
-10.9514 7.8848 -2.4953 0.1818 0 8
8.6369 10.6111 -2.6477 0.1900 0 7
8.4645 10.7491 -2.6477 0.1900 0 7
8.2900 10.8843 -2.6477 0.1900 0 7
8.1132 11.0167 -2.6477 0.1900 0 7
7.9344 11.1461 -2.6477 0.1900 0 7
7.7535 11.2727 -2.6477 0.1900 0 7
7.5705 11.3964 -2.6477 0.1900 0 6
7.3857 11.5171 -2.6477 0.1900 0 7
7.1989 11.6348 -2.6477 0.1900 0 7
7.0102 11.7494 -2.6477 0.1900 0 7
6.8196 11.8610 -2.6477 0.1900 0 7
6.6273 11.9695 -2.6477 0.1900 0 7
6.4333 12.0749 -2.6477 0.1900 0 7
6.2376 12.1772 -2.6477 0.1900 0 7
6.0403 12.2762 -2.6477 0.1900 0 7
5.8414 12.3721 -2.6477 0.1900 0 7
5.6410 12.4648 -2.6477 0.1900 0 7
5.4391 12.5542 -2.6477 0.1900 0 7
5.2358 12.6403 -2.6477 0.1900 0 7
5.0311 12.7232 -2.6477 0.1900 0 7
4.8251 12.8027 -2.6477 0.1900 0 7
4.6179 12.8789 -2.6477 0.1900 0 7
4.4095 12.9517 -2.6477 0.1900 0 7
4.1999 13.0212 -2.6477 0.1900 0 7
3.9892 13.0873 -2.6477 0.1900 0 7
3.7775 13.1500 -2.6477 0.1900 0 7
3.5648 13.2092 -2.6477 0.1900 0 7
3.3512 13.2650 -2.6477 0.1900 0 7
3.1367 13.3174 -2.6477 0.1900 0 7
2.9213 13.3663 -2.6477 0.1900 0 7
2.7053 13.4117 -2.6477 0.1900 0 7
2.4885 13.4536 -2.6477 0.1900 0 7
2.2710 13.4920 -2.6477 0.1900 0 7
2.0530 13.5269 -2.6477 0.1900 0 7
1.8344 13.5582 -2.6477 0.1900 0 7
1.6154 13.5861 -2.6477 0.1900 0 7
1.3960 13.6104 -2.6477 0.1900 0 7
1.1761 13.6311 -2.6477 0.1900 0 7
0.9560 13.6483 -2.6477 0.1900 0 7
0.7356 13.6620 -2.6477 0.1900 0 7
0.5151 13.6721 -2.6477 0.1900 0 7
0.2944 13.6786 -2.6477 0.1900 0 7
0.0736 13.6816 -2.6477 0.1900 0 7
-0.1472 13.6810 -2.6477 0.1900 0 7
-0.3680 13.6768 -2.6477 0.1900 0 7
-0.5886 13.6691 -2.6477 0.1900 0 7
-0.8092 13.6578 -2.6477 0.1900 0 7
-1.0295 13.6430 -2.6477 0.1900 0 7
-1.2495 13.6246 -2.6477 0.1900 0 7
-1.4692 13.6027 -2.6477 0.1900 0 7
-1.6885 13.5772 -2.6477 0.1900 0 7
-1.9074 13.5482 -2.6477 0.1900 0 7
-2.1258 13.5156 -2.6477 0.1900 0 7
-2.3436 13.4796 -2.6477 0.1900 0 7
-2.5609 13.4400 -2.6477 0.1900 0 7
-2.7774 13.3969 -2.6477 0.1900 0 7
-2.9932 13.3503 -2.6477 0.1900 0 7
-3.2083 13.3003 -2.6477 0.1900 0 7
-3.4225 13.2468 -2.6477 0.1900 0 7
-3.6358 13.1898 -2.6477 0.1900 0 7
-3.8482 13.1294 -2.6477 0.1900 0 7
-4.0596 13.0656 -2.6477 0.1900 0 7
-4.2699 12.9984 -2.6477 0.1900 0 7
-4.4791 12.9278 -2.6477 0.1900 0 7
-4.6872 12.8539 -2.6477 0.1900 0 7
-4.8940 12.7765 -2.6477 0.1900 0 7
-5.0995 12.6959 -2.6477 0.1900 0 7
-5.3037 12.6120 -2.6477 0.1900 0 7
-5.5066 12.5247 -2.6477 0.1900 0 7
-5.7080 12.4342 -2.6477 0.1900 0 7
-5.9079 12.3405 -2.6477 0.1900 0 7
-6.1063 12.2436 -2.6477 0.1900 0 7
-6.3031 12.1434 -2.6477 0.1900 0 7
-6.4982 12.0401 -2.6477 0.1900 0 7
-6.6917 11.9337 -2.6477 0.1900 0 7
-6.8834 11.8241 -2.6477 0.1900 0 7
-7.0733 11.7115 -2.6477 0.1900 0 7
-7.2614 11.5959 -2.6477 0.1900 0 7
-7.4476 11.4772 -2.6477 0.1900 0 7
-7.6318 11.3555 -2.6477 0.1900 0 6
-7.8141 11.2308 -2.6477 0.1900 0 7
-7.9943 11.1033 -2.6477 0.1900 0 7
-8.1724 10.9728 -2.6477 0.1900 0 7
-8.3484 10.8395 -2.6477 0.1900 0 7
-8.5223 10.7034 -2.6477 0.1900 0 7
-8.6939 10.5644 -2.6477 0.1900 0 7
-8.8632 10.4228 -2.6477 0.1900 0 7
-9.0303 10.2784 -2.6477 0.1900 0 7
-9.1950 10.1313 -2.6477 0.1900 0 7
-9.3573 9.9816 -2.6477 0.1900 0 7
-9.5171 9.8293 -2.6477 0.1900 0 7
-9.6745 9.6744 -2.6477 0.1900 0 7
-9.8294 9.5171 -2.6477 0.1900 0 7
-9.9817 9.3572 -2.6477 0.1900 0 7
-10.1314 9.1949 -2.6477 0.1900 0 7
-10.2785 9.0302 -2.6477 0.1900 0 7
-9.8229 8.3530 -2.4953 0.1900 0 8
-9.9564 8.1934 -2.4953 0.1900 0 8
-10.0874 8.0316 -2.4953 0.1900 0 8
-10.2157 7.8678 -2.4953 0.1900 0 8
-10.3413 7.7019 -2.4953 0.1900 0 8
-10.4642 7.5340 -2.4953 0.1900 0 8
8.2679 10.1578 -2.6477 0.1981 0 7
8.1029 10.2899 -2.6477 0.1981 0 7
7.9358 10.4193 -2.6477 0.1981 0 7
7.7666 10.5460 -2.6477 0.1981 0 7
7.5954 10.6700 -2.6477 0.1981 0 7
7.4223 10.7911 -2.6477 0.1981 0 7
7.2471 10.9095 -2.6477 0.1981 0 7
7.0701 11.0250 -2.6477 0.1981 0 7
6.8913 11.1377 -2.6477 0.1981 0 7
6.7107 11.2475 -2.6477 0.1981 0 7
6.5283 11.3543 -2.6477 0.1981 0 7
6.3442 11.4582 -2.6477 0.1981 0 6
6.1585 11.5591 -2.6477 0.1981 0 7
5.9711 11.6569 -2.6477 0.1981 0 7
5.7822 11.7518 -2.6477 0.1981 0 7
5.5918 11.8436 -2.6477 0.1981 0 7
5.4000 11.9323 -2.6477 0.1981 0 7
5.2067 12.0178 -2.6477 0.1981 0 7
5.0121 12.1003 -2.6477 0.1981 0 7
4.8162 12.1796 -2.6477 0.1981 0 7
4.6190 12.2557 -2.6477 0.1981 0 7
4.4206 12.3287 -2.6477 0.1981 0 7
4.2211 12.3984 -2.6477 0.1981 0 7
4.0205 12.4649 -2.6477 0.1981 0 7
3.8188 12.5282 -2.6477 0.1981 0 7
3.6161 12.5882 -2.6477 0.1981 0 7
3.4125 12.6449 -2.6477 0.1981 0 7
3.2080 12.6983 -2.6477 0.1981 0 7
3.0027 12.7484 -2.6477 0.1981 0 7
2.7965 12.7952 -2.6477 0.1981 0 7
2.5897 12.8387 -2.6477 0.1981 0 7
2.3822 12.8788 -2.6477 0.1981 0 7
2.1740 12.9156 -2.6477 0.1981 0 7
1.9653 12.9490 -2.6477 0.1981 0 7
1.7561 12.9790 -2.6477 0.1981 0 7
1.5464 13.0057 -2.6477 0.1981 0 7
1.3363 13.0289 -2.6477 0.1981 0 7
1.1259 13.0488 -2.6477 0.1981 0 7
0.9152 13.0653 -2.6477 0.1981 0 7
0.7042 13.0783 -2.6477 0.1981 0 7
0.4931 13.0880 -2.6477 0.1981 0 7
0.2818 13.0942 -2.6477 0.1981 0 7
0.0704 13.0971 -2.6477 0.1981 0 7
-0.1409 13.0965 -2.6477 0.1981 0 7
-0.3523 13.0925 -2.6477 0.1981 0 7
-0.5635 13.0851 -2.6477 0.1981 0 7
-0.7746 13.0743 -2.6477 0.1981 0 7
-0.9855 13.0601 -2.6477 0.1981 0 7
-1.1961 13.0425 -2.6477 0.1981 0 7
-1.4064 13.0215 -2.6477 0.1981 0 7
-1.6164 12.9971 -2.6477 0.1981 0 7
-1.8259 12.9694 -2.6477 0.1981 0 7
-2.0350 12.9382 -2.6477 0.1981 0 7
-2.2435 12.9037 -2.6477 0.1981 0 7
-2.4514 12.8658 -2.6477 0.1981 0 7
-2.6588 12.8246 -2.6477 0.1981 0 7
-2.8654 12.7800 -2.6477 0.1981 0 7
-3.0712 12.7321 -2.6477 0.1981 0 7
-3.2763 12.6809 -2.6477 0.1981 0 7
-3.4805 12.6263 -2.6477 0.1981 0 7
-3.6838 12.5685 -2.6477 0.1981 0 7
-3.8862 12.5074 -2.6477 0.1981 0 7
-4.0875 12.4431 -2.6477 0.1981 0 7
-4.2878 12.3755 -2.6477 0.1981 0 7
-4.4869 12.3047 -2.6477 0.1981 0 7
-4.6849 12.2307 -2.6477 0.1981 0 7
-4.8817 12.1535 -2.6477 0.1981 0 7
-5.0772 12.0732 -2.6477 0.1981 0 7
-5.2713 11.9896 -2.6477 0.1981 0 7
-5.4641 11.9030 -2.6477 0.1981 0 7
-5.6555 11.8133 -2.6477 0.1981 0 7
-5.8454 11.7205 -2.6477 0.1981 0 7
-6.0338 11.6246 -2.6477 0.1981 0 7
-6.2206 11.5257 -2.6477 0.1981 0 7
-6.4059 11.4239 -2.6477 0.1981 0 6
-6.5893 11.3190 -2.6477 0.1981 0 7
-6.7711 11.2112 -2.6477 0.1981 0 7
-6.9512 11.1005 -2.6477 0.1981 0 7
-7.1294 10.9868 -2.6477 0.1981 0 7
-7.3058 10.8703 -2.6477 0.1981 0 7
-7.4802 10.7510 -2.6477 0.1981 0 7
-7.6528 10.6289 -2.6477 0.1981 0 7
-7.8233 10.5040 -2.6477 0.1981 0 7
-7.9918 10.3764 -2.6477 0.1981 0 7
-8.1582 10.2461 -2.6477 0.1981 0 7
-8.3225 10.1131 -2.6477 0.1981 0 7
-8.4846 9.9775 -2.6477 0.1981 0 7
-8.6445 9.8393 -2.6477 0.1981 0 7
-8.8022 9.6985 -2.6477 0.1981 0 7
-8.9575 9.5552 -2.6477 0.1981 0 7
-9.1105 9.4094 -2.6477 0.1981 0 7
-9.2612 9.2611 -2.6477 0.1981 0 7
-9.4095 9.1105 -2.6477 0.1981 0 7
-9.5552 8.9574 -2.6477 0.1981 0 7
-9.1403 8.2954 -2.4953 0.1981 0 8
-9.2730 8.1468 -2.4953 0.1981 0 8
-9.4033 7.9961 -2.4953 0.1981 0 8
-9.5311 7.8433 -2.4953 0.1981 0 8
-9.6564 7.6885 -2.4953 0.1981 0 8
-9.7792 7.5317 -2.4953 0.1981 0 8
-9.8995 7.3729 -2.4953 0.1981 0 8
-10.0172 7.2122 -2.4953 0.1981 0 8
7.9281 9.7403 -2.6477 0.2063 0 7
7.7699 9.8669 -2.6477 0.2063 0 7
7.6096 9.9910 -2.6477 0.2063 0 7
7.4474 10.1125 -2.6477 0.2063 0 7
7.2832 10.2314 -2.6477 0.2063 0 7
7.1172 10.3476 -2.6477 0.2063 0 7
6.9493 10.4611 -2.6477 0.2063 0 7
6.7795 10.5719 -2.6477 0.2063 0 7
6.6081 10.6799 -2.6477 0.2063 0 7
6.4348 10.7852 -2.6477 0.2063 0 7
6.2600 10.8876 -2.6477 0.2063 0 7
6.0834 10.9872 -2.6477 0.2063 0 7
5.9053 11.0839 -2.6477 0.2063 0 7
5.7257 11.1778 -2.6477 0.2063 0 7
5.5446 11.2687 -2.6477 0.2063 0 7
5.3620 11.3568 -2.6477 0.2063 0 7
5.1780 11.4418 -2.6477 0.2063 0 6
4.9927 11.5239 -2.6477 0.2063 0 7
4.8061 11.6029 -2.6477 0.2063 0 7
4.6182 11.6790 -2.6477 0.2063 0 7
4.4291 11.7520 -2.6477 0.2063 0 7
4.2389 11.8219 -2.6477 0.2063 0 7
4.0476 11.8888 -2.6477 0.2063 0 7
3.8552 11.9526 -2.6477 0.2063 0 7
3.6618 12.0132 -2.6477 0.2063 0 7
3.4675 12.0708 -2.6477 0.2063 0 7
3.2722 12.1252 -2.6477 0.2063 0 7
3.0761 12.1764 -2.6477 0.2063 0 7
2.8792 12.2244 -2.6477 0.2063 0 7
2.6816 12.2693 -2.6477 0.2063 0 7
2.4832 12.3110 -2.6477 0.2063 0 7
2.2842 12.3495 -2.6477 0.2063 0 7
2.0847 12.3847 -2.6477 0.2063 0 7
1.8845 12.4167 -2.6477 0.2063 0 7
1.6839 12.4455 -2.6477 0.2063 0 7
1.4828 12.4711 -2.6477 0.2063 0 7
1.2814 12.4934 -2.6477 0.2063 0 7
1.0796 12.5124 -2.6477 0.2063 0 7
0.8775 12.5282 -2.6477 0.2063 0 7
0.6753 12.5408 -2.6477 0.2063 0 7
