ply
format ascii 1.0
element vertex 1344
property float32 x
property float32 y
property float32 z
property float32 CosAngle
property uint32 ObjIdx
property uint32 ObjTag
end_header
-27.6798 41.6363 -2.4953 0.0498 0 8
-28.3481 41.1842 -2.4953 0.0498 0 8
-29.0090 40.7213 -2.4953 0.0498 0 8
-29.6623 40.2479 -2.4953 0.0498 0 8
-30.3079 39.7640 -2.4953 0.0498 0 8
-30.9457 39.2698 -2.4953 0.0498 0 8
-31.5753 38.7653 -2.4953 0.0498 0 8
-32.1967 38.2507 -2.4953 0.0498 0 8
-32.8098 37.7261 -2.4953 0.0498 0 8
-33.4144 37.1918 -2.4953 0.0498 0 8
-34.0102 36.6477 -2.4953 0.0498 0 8
-34.5971 36.0942 -2.4953 0.0498 0 8
-35.1750 35.5312 -2.4953 0.0498 0 8
-37.9270 37.0940 -2.6477 0.0498 0 6
-38.5206 36.4772 -2.6477 0.0498 0 6
-39.1042 35.8508 -2.6477 0.0498 0 7
-39.6776 35.2151 -2.6477 0.0498 0 7
-40.2408 34.5702 -2.6477 0.0498 0 7
-40.7934 33.9164 -2.6477 0.0498 0 7
-41.3354 33.2537 -2.6477 0.0498 0 7
-41.8666 32.5823 -2.6477 0.0498 0 7
-42.3870 31.9024 -2.6477 0.0498 0 7
-42.8963 31.2143 -2.6477 0.0498 0 7
-43.3943 30.5180 -2.6477 0.0498 0 7
-43.8812 29.8138 -2.6477 0.0498 0 7
-44.3565 29.1018 -2.6477 0.0498 0 6
-44.8204 28.3822 -2.6477 0.0498 0 7
-45.2726 27.6552 -2.6477 0.0498 0 7
-45.7130 26.9211 -2.6477 0.0498 0 7
-46.1414 26.1799 -2.6477 0.0498 0 7
-46.5579 25.4319 -2.6477 0.0498 0 7
-46.9622 24.6773 -2.6477 0.0498 0 6
-47.3543 23.9162 -2.6477 0.0498 0 7
-47.7341 23.1489 -2.6477 0.0498 0 6
-48.1015 22.3756 -2.6477 0.0498 0 7
-48.4563 21.5965 -2.6477 0.0498 0 7
-48.7985 20.8118 -2.6477 0.0498 0 7
-49.1279 20.0216 -2.6477 0.0498 0 7
-49.4447 19.2262 -2.6477 0.0498 0 7
-49.7485 18.4258 -2.6477 0.0498 0 7
-50.0393 17.6206 -2.6477 0.0498 0 7
-50.3172 16.8108 -2.6477 0.0498 0 7
-50.5819 15.9967 -2.6477 0.0498 0 7
-50.8334 15.1783 -2.6477 0.0498 0 7
-51.0717 14.3561 -2.6477 0.0498 0 7
-51.2967 13.5301 -2.6477 0.0498 0 7
-51.5084 12.7005 -2.6477 0.0498 0 7
-51.7066 11.8677 -2.6477 0.0498 0 7
-51.8914 11.0317 -2.6477 0.0498 0 7
-52.0627 10.1929 -2.6477 0.0498 0 7
-52.2204 9.3514 -2.6477 0.0498 0 7
-0.2463 42.8415 -2.4953 0.0581 0 8
-0.9376 42.8319 -2.4953 0.0581 0 8
-1.6286 42.8112 -2.4953 0.0581 0 8
-2.3193 42.7794 -2.4953 0.0581 0 8
-3.0093 42.7364 -2.4953 0.0581 0 8
-3.6986 42.6822 -2.4953 0.0581 0 8
-4.3868 42.6170 -2.4953 0.0581 0 8
-5.0740 42.5407 -2.4953 0.0581 0 8
-5.7598 42.4532 -2.4953 0.0581 0 8
-6.4441 42.3548 -2.4953 0.0581 0 8
-7.1268 42.2453 -2.4953 0.0581 0 8
-7.8076 42.1247 -2.4953 0.0581 0 8
-8.4863 41.9933 -2.4953 0.0581 0 8
-9.1629 41.8509 -2.4953 0.0581 0 8
-9.8370 41.6975 -2.4953 0.0581 0 8
-10.5086 41.5334 -2.4953 0.0581 0 8
-11.1775 41.3584 -2.4953 0.0581 0 8
-11.8434 41.1726 -2.4953 0.0581 0 8
-12.5063 40.9762 -2.4953 0.0581 0 8
-13.1659 40.7690 -2.4953 0.0581 0 8
-13.8221 40.5512 -2.4953 0.0581 0 8
-14.4747 40.3229 -2.4953 0.0581 0 8
-15.1235 40.0841 -2.4953 0.0581 0 8
-15.7683 39.8348 -2.4953 0.0581 0 8
-16.4091 39.5752 -2.4953 0.0581 0 8
-17.0456 39.3052 -2.4953 0.0581 0 8
-17.6776 39.0250 -2.4953 0.0581 0 8
-18.3051 38.7347 -2.4953 0.0581 0 8
-18.9278 38.4343 -2.4953 0.0581 0 8
-19.5455 38.1238 -2.4953 0.0581 0 8
-20.1582 37.8034 -2.4953 0.0581 0 8
-20.7656 37.4732 -2.4953 0.0581 0 8
-21.3676 37.1332 -2.4953 0.0581 0 8
-21.9641 36.7836 -2.4953 0.0581 0 8
-22.5548 36.4244 -2.4953 0.0581 0 8
-23.1396 36.0556 -2.4953 0.0581 0 8
-23.7185 35.6775 -2.4953 0.0581 0 8
-24.2911 35.2902 -2.4953 0.0581 0 8
-24.8574 34.8936 -2.4953 0.0581 0 8
-25.4172 34.4879 -2.4953 0.0581 0 8
-25.9704 34.0733 -2.4953 0.0581 0 8
-26.5169 33.6497 -2.4953 0.0581 0 8
-27.0565 33.2175 -2.4953 0.0581 0 8
-27.6385 32.8354 -2.4998 0.5824 0 8
-28.5465 32.8240 -2.5336 0.7531 0 8
-29.4820 32.8148 -2.5693 0.7426 0 8
-30.5046 32.8702 -2.6119 0.6618 0 8
-31.4174 32.7768 -2.6444 0.0674 0 8
-31.9819 32.3057 -2.6477 0.0581 0 7
-32.4991 31.7854 -2.6477 0.0581 0 7
-33.0078 31.2568 -2.6477 0.0581 0 7
-33.5079 30.7201 -2.6477 0.0581 0 7
-33.9993 30.1754 -2.6477 0.0581 0 7
-34.4818 29.6228 -2.6477 0.0581 0 7
-34.9553 29.0625 -2.6477 0.0581 0 7
-35.4197 28.4946 -2.6477 0.0581 0 7
-35.8750 27.9193 -2.6477 0.0581 0 7
-36.3208 27.3368 -2.6477 0.0581 0 7
-36.7572 26.7471 -2.6477 0.0581 0 7
-37.1840 26.1505 -2.6477 0.0581 0 7
-37.6012 25.5471 -2.6477 0.0581 0 7
-38.0086 24.9370 -2.6477 0.0581 0 7
-38.4060 24.3204 -2.6477 0.0581 0 7
-38.7935 23.6974 -2.6477 0.0581 0 7
-39.1708 23.0683 -2.6477 0.0581 0 6
-39.5380 22.4332 -2.6477 0.0581 0 7
-39.8949 21.7923 -2.6477 0.0581 0 7
-40.2413 21.1456 -2.6477 0.0581 0 6
-40.5773 20.4935 -2.6477 0.0581 0 7
-40.9027 19.8360 -2.6477 0.0581 0 7
-41.2175 19.1734 -2.6477 0.0581 0 7
-41.5215 18.5058 -2.6477 0.0581 0 7
-41.8148 17.8333 -2.6477 0.0581 0 7
-42.0971 17.1562 -2.6477 0.0581 0 7
-42.3685 16.4747 -2.6477 0.0581 0 7
-42.6288 15.7888 -2.6477 0.0581 0 7
-42.8780 15.0989 -2.6477 0.0581 0 6
-43.1161 14.4050 -2.6477 0.0581 0 7
-43.3429 13.7073 -2.6477 0.0581 0 7
-43.5585 13.0061 -2.6477 0.0581 0 7
-43.7627 12.3015 -2.6477 0.0581 0 7
-43.9555 11.5937 -2.6477 0.0581 0 6
-44.1369 10.8829 -2.6477 0.0581 0 7
-44.3068 10.1693 -2.6477 0.0581 0 7
-44.4651 9.4529 -2.6477 0.0581 0 7
-44.6118 8.7342 -2.6477 0.0581 0 7
-44.7470 8.0131 -2.6477 0.0581 0 7
-0.2154 37.4733 -2.4953 0.0664 0 8
-0.8201 37.4649 -2.4953 0.0664 0 8
-1.4246 37.4468 -2.4953 0.0664 0 8
-2.0287 37.4189 -2.4953 0.0664 0 8
-2.6322 37.3813 -2.4953 0.0664 0 8
-3.2351 37.3340 -2.4953 0.0664 0 8
-3.8372 37.2769 -2.4953 0.0664 0 8
-4.4382 37.2102 -2.4953 0.0664 0 8
-5.0381 37.1337 -2.4953 0.0664 0 8
-5.6367 37.0476 -2.4953 0.0664 0 8
-6.2338 36.9518 -2.4953 0.0664 0 8
-6.8293 36.8464 -2.4953 0.0664 0 8
-7.4230 36.7314 -2.4953 0.0664 0 8
-8.0147 36.6068 -2.4953 0.0664 0 8
-8.6044 36.4727 -2.4953 0.0664 0 8
-9.1919 36.3291 -2.4953 0.0664 0 8
-9.7769 36.1760 -2.4953 0.0664 0 8
-10.3594 36.0135 -2.4953 0.0664 0 8
-10.9392 35.8417 -2.4953 0.0664 0 8
-11.5162 35.6605 -2.4953 0.0664 0 8
-12.0901 35.4700 -2.4953 0.0664 0 8
-12.6609 35.2703 -2.4953 0.0664 0 8
-13.2284 35.0614 -2.4953 0.0664 0 8
-13.7925 34.8434 -2.4953 0.0664 0 8
-14.3530 34.6163 -2.4953 0.0664 0 8
-14.9097 34.3801 -2.4953 0.0664 0 8
-15.4626 34.1351 -2.4953 0.0664 0 8
-16.0114 33.8811 -2.4953 0.0664 0 8
-16.5560 33.6183 -2.4953 0.0664 0 8
-17.0964 33.3468 -2.4953 0.0664 0 8
-17.6323 33.0665 -2.4953 0.0664 0 8
-18.2091 32.8598 -2.5015 0.6650 0 8
-18.9044 32.8526 -2.5239 0.8638 0 8
-19.6130 32.8463 -2.5474 0.8559 0 8
-20.3351 32.8397 -2.5720 0.8477 0 8
-21.0714 32.8329 -2.5977 0.8393 0 8
-21.8226 32.8258 -2.6247 0.8306 0 8
-22.4995 32.6873 -2.6423 0.0804 0 8
-23.0687 32.3828 -2.6475 0.0802 0 8
-23.5902 32.0089 -2.6477 0.0664 0 7
-24.1037 31.6241 -2.6477 0.0664 0 7
-24.6109 31.2310 -2.6477 0.0664 0 7
-25.1116 30.8298 -2.6477 0.0664 0 7
-25.6059 30.4205 -2.6477 0.0664 0 7
-26.0934 30.0033 -2.6477 0.0664 0 7
-26.5742 29.5783 -2.6477 0.0664 0 7
-27.0481 29.1457 -2.6477 0.0664 0 7
-27.5149 28.7054 -2.6477 0.0664 0 7
-27.9745 28.2577 -2.6477 0.0664 0 7
-28.4269 27.8025 -2.6477 0.0664 0 7
-28.8718 27.3402 -2.6477 0.0664 0 7
-29.3092 26.8708 -2.6477 0.0664 0 7
-29.7390 26.3943 -2.6477 0.0664 0 6
-30.1611 25.9109 -2.6477 0.0664 0 7
-30.5753 25.4208 -2.6477 0.0664 0 7
-30.9815 24.9241 -2.6477 0.0664 0 7
-31.3797 24.4209 -2.6477 0.0664 0 7
-31.7697 23.9114 -2.6477 0.0664 0 7
-30.3933 22.1163 -2.5029 0.0664 0 14
-30.7462 21.6230 -2.5029 0.0664 0 14
-31.0912 21.1239 -2.5029 0.0664 0 14
-31.4280 20.6195 -2.5029 0.0664 0 14
-31.7566 20.1097 -2.5029 0.0664 0 14
-32.0770 19.5946 -2.5029 0.0664 0 14
-34.2626 20.1778 -2.6477 0.0664 0 7
-34.5837 19.6222 -2.6477 0.0664 0 7
-34.8959 19.0616 -2.6477 0.0664 0 7
-35.1990 18.4960 -2.6477 0.0664 0 7
-35.4928 17.9256 -2.6477 0.0664 0 7
-35.7775 17.3505 -2.6477 0.0664 0 7
-36.0528 16.7709 -2.6477 0.0664 0 7
-36.3187 16.1869 -2.6477 0.0664 0 7
-36.5752 15.5987 -2.6477 0.0664 0 7
-36.8222 15.0065 -2.6477 0.0664 0 6
-37.0596 14.4103 -2.6477 0.0664 0 7
-37.2873 13.8104 -2.6477 0.0664 0 7
-37.5053 13.2069 -2.6477 0.0664 0 7
-37.7135 12.6000 -2.6477 0.0664 0 7
-37.9119 11.9898 -2.6477 0.0664 0 7
-38.1005 11.3764 -2.6477 0.0664 0 7
-38.2791 10.7601 -2.6477 0.0664 0 7
-38.4477 10.1410 -2.6477 0.0664 0 7
-38.6064 9.5192 -2.6477 0.0664 0 7
-38.7550 8.8950 -2.6477 0.0664 0 7
-38.8935 8.2684 -2.6477 0.0664 0 7
-39.0218 7.6398 -2.6477 0.0664 0 7
-39.1400 7.0091 -2.6477 0.0664 0 7
-0.1914 33.2965 -2.4953 0.0747 0 8
-0.7287 33.2891 -2.4953 0.0747 0 8
-1.2658 33.2730 -2.4953 0.0747 0 8
-1.8026 33.2483 -2.4953 0.0747 0 8
-2.3389 33.2149 -2.4953 0.0747 0 8
-2.8745 33.1728 -2.4953 0.0747 0 8
-3.4095 33.1221 -2.4953 0.0747 0 8
-3.9435 33.0627 -2.4953 0.0747 0 8
-4.4765 32.9948 -2.4953 0.0747 0 8
-5.0084 32.9183 -2.4953 0.0747 0 8
-5.5496 32.8964 -2.5001 0.7486 0 8
-6.0962 32.8914 -2.5068 0.9782 0 8
-6.6464 32.8884 -2.5145 0.9752 0 8
-7.2000 32.8853 -2.5228 0.9720 0 8
-7.7574 32.8821 -2.5318 0.9686 0 8
-8.3189 32.8788 -2.5416 0.9649 0 8
-8.8848 32.8752 -2.5520 0.9609 0 8
-9.4556 32.8716 -2.5633 0.9567 0 8
-10.0315 32.8678 -2.5753 0.9522 0 8
-10.6130 32.8638 -2.5880 0.9475 0 8
-11.2004 32.8596 -2.6016 0.9426 0 8
-11.7940 32.8553 -2.6160 0.9374 0 8
-12.3944 32.8508 -2.6312 0.9320 0 8
-12.9726 32.7720 -2.6413 0.0904 0 8
-13.5149 32.5950 -2.6443 0.0903 0 8
-14.0556 32.4107 -2.6474 0.0902 0 8
-14.5782 32.1828 -2.6477 0.0747 0 7
-15.0957 31.9434 -2.6477 0.0747 0 7
-15.6092 31.6956 -2.6477 0.0747 0 7
-16.1186 31.4396 -2.6477 0.0747 0 7
-16.6239 31.1754 -2.6477 0.0747 0 7
-17.1248 30.9031 -2.6477 0.0747 0 7
-17.6213 30.6227 -2.6477 0.0747 0 7
-18.1131 30.3344 -2.6477 0.0747 0 7
-18.6003 30.0381 -2.6477 0.0747 0 7
-19.0826 29.7341 -2.6477 0.0747 0 7
-19.5599 29.4223 -2.6477 0.0747 0 7
-20.0322 29.1028 -2.6477 0.0747 0 7
-20.4992 28.7757 -2.6477 0.0747 0 7
-20.9609 28.4412 -2.6477 0.0747 0 7
-21.4171 28.0993 -2.6477 0.0747 0 7
-21.8678 27.7500 -2.6477 0.0747 0 7
-22.3127 27.3935 -2.6477 0.0747 0 7
-22.7519 27.0299 -2.6477 0.0747 0 7
-23.1851 26.6592 -2.6477 0.0747 0 7
-23.6123 26.2816 -2.6477 0.0747 0 7
-24.0334 25.8972 -2.6477 0.0747 0 7
-24.4481 25.5059 -2.6477 0.0747 0 7
-24.8565 25.1081 -2.6477 0.0747 0 7
-25.2584 24.7037 -2.6477 0.0747 0 7
-25.6538 24.2929 -2.6477 0.0747 0 7
-26.0424 23.8758 -2.6477 0.0747 0 7
-24.9794 22.1700 -2.5029 0.0747 0 14
-25.3339 21.7640 -2.5029 0.0747 0 14
-25.6818 21.3523 -2.5029 0.0747 0 14
-26.0230 20.9351 -2.5029 0.0747 0 14
-26.3575 20.5125 -2.5029 0.0747 0 14
-26.6851 20.0845 -2.5029 0.0747 0 14
-27.0057 19.6512 -2.5029 0.0747 0 14
-27.3193 19.2129 -2.5029 0.0747 0 14
-27.7896 18.8808 -2.5177 0.5669 0 8
-28.7570 18.8671 -2.5775 0.5538 0 8
-29.7714 18.8526 -2.6408 0.5405 0 8
-30.1504 18.4177 -2.6477 0.0747 0 7
-30.4437 17.9288 -2.6477 0.0747 0 7
-30.7291 17.4352 -2.6477 0.0747 0 6
-31.0064 16.9370 -2.6477 0.0747 0 7
-31.2757 16.4344 -2.6477 0.0747 0 7
-31.5368 15.9276 -2.6477 0.0747 0 7
-31.7898 15.4166 -2.6477 0.0747 0 7
-32.0344 14.9017 -2.6477 0.0747 0 7
-32.2707 14.3827 -2.6477 0.0747 0 7
-32.4986 13.8601 -2.6477 0.0747 0 7
-32.7180 13.3339 -2.6477 0.0747 0 7
-32.9289 12.8042 -2.6477 0.0747 0 7
-33.1313 12.2711 -2.6477 0.0747 0 7
-33.3250 11.7349 -2.6477 0.0747 0 7
-33.5100 11.1956 -2.6477 0.0747 0 7
-33.6863 10.6534 -2.6477 0.0747 0 7
-33.8538 10.1084 -2.6477 0.0747 0 7
-34.0126 9.5608 -2.6477 0.0747 0 7
-34.1624 9.0107 -2.6477 0.0747 0 7
-34.3033 8.4582 -2.6477 0.0747 0 7
-32.4533 7.4487 -2.4953 0.0747 0 8
-32.5692 6.9239 -2.4953 0.0747 0 8
-32.6767 6.3975 -2.4953 0.0747 0 8
-32.7758 5.8694 -2.4953 0.0747 0 8
-0.1827 31.7832 -2.6477 0.0830 0 7
-0.6956 31.7761 -2.6477 0.0830 0 7
-1.2083 31.7607 -2.6477 0.0830 0 7
-1.7206 31.7371 -2.6477 0.0830 0 7
-2.2326 31.7052 -2.6477 0.0830 0 7
-2.7439 31.6650 -2.6477 0.0830 0 7
-3.2545 31.6166 -2.6477 0.0830 0 7
-3.7643 31.5600 -2.6477 0.0830 0 7
-4.2731 31.4951 -2.6477 0.0830 0 7
-4.7808 31.4221 -2.6477 0.0830 0 7
-5.2872 31.3408 -2.6477 0.0830 0 7
-5.7923 31.2514 -2.6477 0.0830 0 7
-6.2958 31.1539 -2.6477 0.0830 0 7
-6.7977 31.0482 -2.6477 0.0830 0 7
-7.2979 30.9345 -2.6477 0.0830 0 7
-7.7961 30.8127 -2.6477 0.0830 0 7
-8.2923 30.6829 -2.6477 0.0830 0 7
-8.7864 30.5451 -2.6477 0.0830 0 7
-9.2781 30.3993 -2.6477 0.0830 0 7
-9.7675 30.2456 -2.6477 0.0830 0 7
-10.2543 30.0841 -2.6477 0.0830 0 7
-10.7385 29.9147 -2.6477 0.0830 0 6
-11.2198 29.7375 -2.6477 0.0830 0 7
-11.6982 29.5526 -2.6477 0.0830 0 7
-12.1736 29.3600 -2.6477 0.0830 0 7
-12.6457 29.1597 -2.6477 0.0830 0 7
-13.1147 28.9518 -2.6477 0.0830 0 7
-13.5801 28.7364 -2.6477 0.0830 0 7
-14.0421 28.5136 -2.6477 0.0830 0 7
-14.5004 28.2832 -2.6477 0.0830 0 7
-14.9549 28.0456 -2.6477 0.0830 0 7
-15.4056 27.8006 -2.6477 0.0830 0 7
-15.8522 27.5483 -2.6477 0.0830 0 7
-16.2947 27.2890 -2.6477 0.0830 0 7
-16.7329 27.0225 -2.6477 0.0830 0 7
-17.1668 26.7489 -2.6477 0.0830 0 7
-17.5962 26.4684 -2.6477 0.0830 0 7
-18.0210 26.1810 -2.6477 0.0830 0 7
-18.4412 25.8868 -2.6477 0.0830 0 7
-18.8565 25.5858 -2.6477 0.0830 0 7
-19.2669 25.2782 -2.6477 0.0830 0 7
-19.6723 24.9640 -2.6477 0.0830 0 7
-20.0726 24.6433 -2.6477 0.0830 0 7
-20.4677 24.3162 -2.6477 0.0830 0 7
-20.8574 23.9827 -2.6477 0.0830 0 7
-21.2417 23.6430 -2.6477 0.0830 0 7
-20.4382 22.0232 -2.5029 0.0830 0 14
-20.7909 21.6906 -2.5029 0.0830 0 14
-21.1382 21.3522 -2.5029 0.0830 0 14
-21.4801 21.0083 -2.5029 0.0830 0 14
-21.8163 20.6590 -2.5029 0.0830 0 14
-22.1468 20.3043 -2.5029 0.0830 0 14
-22.4716 19.9442 -2.5029 0.0830 0 14
-22.7905 19.5790 -2.5029 0.0830 0 14
-23.1035 19.2087 -2.5029 0.0830 0 14
-23.4859 18.8941 -2.5110 0.6315 0 8
-24.2632 18.8826 -2.5611 0.6191 0 8
-25.0722 18.8706 -2.6141 0.6065 0 8
-25.6998 18.7009 -2.6477 0.0830 0 7
-25.9982 18.2838 -2.6477 0.0830 0 7
-26.2898 17.8619 -2.6477 0.0830 0 7
-26.5747 17.4353 -2.6477 0.0830 0 7
-26.8526 17.0042 -2.6477 0.0830 0 7
-27.1235 16.5687 -2.6477 0.0830 0 7
-27.3873 16.1288 -2.6477 0.0830 0 7
-27.6440 15.6848 -2.6477 0.0830 0 7
-27.8935 15.2366 -2.6477 0.0830 0 7
-28.1358 14.7845 -2.6477 0.0830 0 7
-28.3707 14.3285 -2.6477 0.0830 0 7
-28.5982 13.8689 -2.6477 0.0830 0 7
-28.8183 13.4056 -2.6477 0.0830 0 7
-29.0309 12.9388 -2.6477 0.0830 0 7
-29.2359 12.4686 -2.6477 0.0830 0 7
-29.4333 11.9952 -2.6477 0.0830 0 7
-29.6230 11.5187 -2.6477 0.0830 0 7
-29.8050 11.0392 -2.6477 0.0830 0 7
-29.9793 10.5569 -2.6477 0.0830 0 7
-30.1457 10.0716 -2.6477 0.0830 0 7
-30.3043 9.5838 -2.6477 0.0830 0 7
-30.4551 9.0936 -2.6477 0.0830 0 7
-28.8366 8.1059 -2.4953 0.0830 0 8
-28.9637 7.6395 -2.4953 0.0830 0 8
-29.0832 7.1710 -2.4953 0.0830 0 8
-29.1951 6.7008 -2.4953 0.0830 0 8
-29.2994 6.2288 -2.4953 0.0830 0 8
-29.3961 5.7552 -2.4953 0.0830 0 8
-29.4852 5.2801 -2.4953 0.0830 0 8
-0.1660 28.8798 -2.6477 0.0913 0 7
-0.6320 28.8733 -2.6477 0.0913 0 7
-1.0979 28.8594 -2.6477 0.0913 0 7
-1.5635 28.8379 -2.6477 0.0913 0 7
-2.0286 28.8089 -2.6477 0.0913 0 7
-2.4932 28.7724 -2.6477 0.0913 0 7
-2.9572 28.7285 -2.6477 0.0913 0 7
-3.4204 28.6770 -2.6477 0.0913 0 7
-3.8827 28.6181 -2.6477 0.0913 0 7
-4.3441 28.5517 -2.6477 0.0913 0 7
-4.8042 28.4779 -2.6477 0.0913 0 7
-5.2631 28.3966 -2.6477 0.0913 0 7
-5.7207 28.3080 -2.6477 0.0913 0 7
-6.1768 28.2120 -2.6477 0.0913 0 7
-6.6312 28.1087 -2.6477 0.0913 0 7
-7.0840 27.9980 -2.6477 0.0913 0 7
-7.5348 27.8800 -2.6477 0.0913 0 7
-7.9838 27.7548 -2.6477 0.0913 0 7
-8.4306 27.6224 -2.6477 0.0913 0 7
-8.8752 27.4827 -2.6477 0.0913 0 7
-9.3176 27.3359 -2.6477 0.0913 0 7
-9.7575 27.1820 -2.6477 0.0913 0 7
-10.1948 27.0210 -2.6477 0.0913 0 7
-10.6296 26.8530 -2.6477 0.0913 0 7
-11.0615 26.6779 -2.6477 0.0913 0 7
-11.4906 26.4960 -2.6477 0.0913 0 7
-11.9166 26.3071 -2.6477 0.0913 0 7
-12.3396 26.1114 -2.6477 0.0913 0 7
-12.7594 25.9089 -2.6477 0.0913 0 7
-13.1758 25.6996 -2.6477 0.0913 0 7
-13.5888 25.4836 -2.6477 0.0913 0 7
-13.9983 25.2610 -2.6477 0.0913 0 7
-14.4041 25.0318 -2.6477 0.0913 0 7
-14.8062 24.7961 -2.6477 0.0913 0 7
-15.2043 24.5540 -2.6477 0.0913 0 7
-15.5986 24.3054 -2.6477 0.0913 0 7
-15.9888 24.0505 -2.6477 0.0913 0 7
-16.3748 23.7894 -2.6477 0.0913 0 7
-15.8403 22.2358 -2.5029 0.0913 0 8
-16.1970 21.9773 -2.5029 0.0913 0 14
-16.5496 21.7131 -2.5029 0.0913 0 14
-16.8978 21.4432 -2.5029 0.0913 0 14
-17.2416 21.1677 -2.5029 0.0913 0 14
-17.5810 20.8867 -2.5029 0.0913 0 14
-17.9158 20.6003 -2.5029 0.0913 0 14
-18.2459 20.3085 -2.5029 0.0913 0 14
-18.5712 20.0114 -2.5029 0.0913 0 14
-18.8917 19.7091 -2.5029 0.0913 0 14
-19.2073 19.4017 -2.5029 0.0913 0 14
-19.5179 19.0892 -2.5029 0.0913 0 14
-19.9610 18.9021 -2.5203 0.6919 0 8
-20.6069 18.8924 -2.5630 0.6803 0 8
-21.2751 18.8823 -2.6078 0.6686 0 8
-21.9065 18.8195 -2.6477 0.0913 0 7
-22.2073 18.4636 -2.6477 0.0913 0 7
-22.5024 18.1028 -2.6477 0.0913 0 7
-22.7916 17.7373 -2.6477 0.0913 0 7
-23.0749 17.3672 -2.6477 0.0913 0 7
-23.3521 16.9926 -2.6477 0.0913 0 7
-23.6233 16.6136 -2.6477 0.0913 0 7
-23.8883 16.2302 -2.6477 0.0913 0 7
-24.1471 15.8426 -2.6477 0.0913 0 7
-24.3996 15.4509 -2.6477 0.0913 0 7
-24.6457 15.0551 -2.6477 0.0913 0 7
-24.8855 14.6555 -2.6477 0.0913 0 7
-25.1187 14.2520 -2.6477 0.0913 0 7
-25.3455 13.8448 -2.6477 0.0913 0 7
-25.5656 13.4339 -2.6477 0.0913 0 7
-25.7790 13.0196 -2.6477 0.0913 0 7
-25.9858 12.6019 -2.6477 0.0913 0 7
-26.1857 12.1810 -2.6477 0.0913 0 7
-26.3789 11.7568 -2.6477 0.0913 0 7
-26.5652 11.3296 -2.6477 0.0913 0 6
-26.7446 10.8995 -2.6477 0.0913 0 7
-26.9170 10.4665 -2.6477 0.0913 0 7
-27.0823 10.0308 -2.6477 0.0913 0 7
-27.2407 9.5924 -2.6477 0.0913 0 7
-27.3919 9.1516 -2.6477 0.0913 0 7
-25.9511 8.2071 -2.4953 0.0913 0 8
-26.0801 7.7873 -2.4953 0.0913 0 8
-26.2024 7.3654 -2.4953 0.0913 0 8
-26.3178 6.9416 -2.4953 0.0913 0 8
-26.4264 6.5160 -2.4953 0.0913 0 8
-26.5281 6.0887 -2.4953 0.0913 0 8
-26.6229 5.6598 -2.4953 0.0913 0 8
-26.7108 5.2295 -2.4953 0.0913 0 8
-26.7917 4.7978 -2.4953 0.0913 0 8
-0.1521 26.4591 -2.6477 0.0996 0 6
-0.5791 26.4532 -2.6477 0.0996 0 6
-1.0059 26.4404 -2.6477 0.0996 0 6
-1.4324 26.4207 -2.6477 0.0996 0 6
-1.8587 26.3942 -2.6477 0.0996 0 7
-2.2843 26.3607 -2.6477 0.0996 0 7
-2.7093 26.3204 -2.6477 0.0996 0 7
-3.1337 26.2733 -2.6477 0.0996 0 7
-3.5573 26.2193 -2.6477 0.0996 0 7
-3.9799 26.1585 -2.6477 0.0996 0 7
-4.4015 26.0908 -2.6477 0.0996 0 7
-4.8220 26.0164 -2.6477 0.0996 0 7
-5.2412 25.9352 -2.6477 0.0996 0 7
-5.6590 25.8473 -2.6477 0.0996 0 7
-6.0754 25.7526 -2.6477 0.0996 0 7
-6.4902 25.6512 -2.6477 0.0996 0 7
-6.9033 25.5431 -2.6477 0.0996 0 7
-7.3145 25.4284 -2.6477 0.0996 0 7
-7.7239 25.3070 -2.6477 0.0996 0 7
-8.1313 25.1791 -2.6477 0.0996 0 7
-8.5366 25.0446 -2.6477 0.0996 0 7
-8.9396 24.9036 -2.6477 0.0996 0 7
-9.3403 24.7561 -2.6477 0.0996 0 7
-9.7386 24.6021 -2.6477 0.0996 0 7
-10.1343 24.4418 -2.6477 0.0996 0 7
-10.5274 24.2751 -2.6477 0.0996 0 7
-10.9178 24.1020 -2.6477 0.0996 0 7
-11.3053 23.9227 -2.6477 0.0996 0 7
-11.6899 23.7372 -2.6477 0.0996 0 7
-11.4113 22.2579 -2.5029 0.0996 0 8
-11.7690 22.0709 -2.5029 0.0996 0 14
-12.1236 21.8781 -2.5029 0.0996 0 14
-12.4751 21.6796 -2.5029 0.0996 0 14
-12.8233 21.4755 -2.5029 0.0996 0 14
-13.1682 21.2657 -2.5029 0.0996 0 14
-13.5097 21.0505 -2.5029 0.0996 0 14
-13.8476 20.8297 -2.5029 0.0996 0 14
-14.1819 20.6035 -2.5029 0.0996 0 14
-14.5126 20.3720 -2.5029 0.0996 0 14
-14.8394 20.1352 -2.5029 0.0996 0 14
-15.1624 19.8931 -2.5029 0.0996 0 14
-15.4814 19.6458 -2.5029 0.0996 0 14
-15.7965 19.3934 -2.5029 0.0996 0 14
-16.1073 19.1360 -2.5029 0.0996 0 14
-16.4507 18.9157 -2.5085 0.6025 0 8
-16.9859 18.9061 -2.5432 0.7477 0 8
-17.5378 18.8978 -2.5799 0.7371 0 8
-18.1057 18.8891 -2.6182 0.7263 0 8
-18.6152 18.8037 -2.6477 0.0996 0 7
-18.9163 18.5008 -2.6477 0.0996 0 7
-19.2123 18.1932 -2.6477 0.0996 0 7
-19.5034 17.8808 -2.6477 0.0996 0 7
-19.7894 17.5637 -2.6477 0.0996 0 7
-20.0703 17.2421 -2.6477 0.0996 0 7
-20.3459 16.9160 -2.6477 0.0996 0 7
-20.6162 16.5854 -2.6477 0.0996 0 7
-20.8812 16.2506 -2.6477 0.0996 0 7
-21.1407 15.9115 -2.6477 0.0996 0 7
-21.3947 15.5683 -2.6477 0.0996 0 7
-21.6432 15.2210 -2.6477 0.0996 0 7
-21.8860 14.8698 -2.6477 0.0996 0 6
-22.1231 14.5147 -2.6477 0.0996 0 7
-22.3544 14.1558 -2.6477 0.0996 0 7
-22.5799 13.7932 -2.6477 0.0996 0 7
-22.7996 13.4270 -2.6477 0.0996 0 7
-23.0133 13.0574 -2.6477 0.0996 0 7
-23.2210 12.6843 -2.6477 0.0996 0 7
-23.4227 12.3079 -2.6477 0.0996 0 7
-23.6182 11.9283 -2.6477 0.0996 0 7
-23.8076 11.5457 -2.6477 0.0996 0 7
-23.9908 11.1600 -2.6477 0.0996 0 7
-24.1678 10.7714 -2.6477 0.0996 0 7
-24.3385 10.3800 -2.6477 0.0996 0 7
-24.5028 9.9859 -2.6477 0.0996 0 7
-24.6608 9.5892 -2.6477 0.0996 0 7
-24.8123 9.1900 -2.6477 0.0996 0 7
-23.5208 8.2825 -2.4953 0.0996 0 8
-23.6514 7.9019 -2.4953 0.0996 0 8
-23.7758 7.5192 -2.4953 0.0996 0 8
-23.8941 7.1345 -2.4953 0.0996 0 8
-24.0061 6.7480 -2.4953 0.0996 0 8
-24.1119 6.3598 -2.4953 0.0996 0 8
-24.2114 5.9698 -2.4953 0.0996 0 8
-24.3045 5.5784 -2.4953 0.0996 0 8
-24.3914 5.1854 -2.4953 0.0996 0 8
-24.4719 4.7912 -2.4953 0.0996 0 8
-24.5460 4.3956 -2.4953 0.0996 0 8
-0.1403 24.4096 -2.6477 0.1078 0 7
-0.5342 24.4041 -2.6477 0.1078 0 7
-0.9279 24.3924 -2.6477 0.1078 0 7
-1.3214 24.3742 -2.6477 0.1078 0 7
-1.7146 24.3497 -2.6477 0.1078 0 7
-2.1073 24.3189 -2.6477 0.1078 0 7
-2.4995 24.2817 -2.6477 0.1078 0 7
-2.8910 24.2382 -2.6477 0.1078 0 7
-3.2817 24.1884 -2.6477 0.1078 0 7
-3.6717 24.1323 -2.6477 0.1078 0 7
-4.0606 24.0699 -2.6477 0.1078 0 7
-4.4485 24.0012 -2.6477 0.1078 0 7
-4.8352 23.9263 -2.6477 0.1078 0 7
-5.2207 23.8452 -2.6477 0.1078 0 7
-5.6048 23.7578 -2.6477 0.1078 0 7
-5.6601 22.3703 -2.5029 0.1078 0 8
-6.0203 22.2760 -2.5029 0.1078 0 8
-6.3790 22.1760 -2.5029 0.1078 0 14
-6.7360 22.0701 -2.5029 0.1078 0 14
-7.0913 21.9586 -2.5029 0.1078 0 14
-7.4447 21.8413 -2.5029 0.1078 0 14
-7.7962 21.7183 -2.5029 0.1078 0 14
-8.1456 21.5897 -2.5029 0.1078 0 14
-8.4930 21.4554 -2.5029 0.1078 0 14
-8.8381 21.3156 -2.5029 0.1078 0 14
-9.1809 21.1702 -2.5029 0.1078 0 14
-9.5213 21.0193 -2.5029 0.1078 0 14
-9.8593 20.8629 -2.5029 0.1078 0 14
-10.1947 20.7011 -2.5029 0.1078 0 14
-10.5274 20.5339 -2.5029 0.1078 0 14
-10.8574 20.3613 -2.5029 0.1078 0 14
-11.1846 20.1834 -2.5029 0.1078 0 14
-11.5088 20.0003 -2.5029 0.1078 0 14
-11.8301 19.8120 -2.5029 0.1078 0 14
-12.1482 19.6185 -2.5029 0.1078 0 14
-12.4632 19.4199 -2.5029 0.1078 0 14
-12.7750 19.2163 -2.5029 0.1078 0 14
-13.0834 19.0076 -2.5029 0.1078 0 8
-13.4784 18.9202 -2.5197 0.8174 0 8
-13.9392 18.9136 -2.5484 0.8082 0 8
-14.4106 18.9068 -2.5785 0.7987 0 8
-14.8934 18.8996 -2.6100 0.7891 0 8
-15.3881 18.8921 -2.6429 0.7793 0 8
-15.7193 18.6749 -2.6477 0.1078 0 7
-16.0186 18.4188 -2.6477 0.1078 0 6
-16.3137 18.1579 -2.6477 0.1078 0 7
-16.6046 17.8923 -2.6477 0.1078 0 7
-16.8912 17.6220 -2.6477 0.1078 0 7
-17.1733 17.3472 -2.6477 0.1078 0 7
-17.4510 17.0678 -2.6477 0.1078 0 7
-17.7242 16.7840 -2.6477 0.1078 0 7
-17.9927 16.4958 -2.6477 0.1078 0 7
-18.2566 16.2033 -2.6477 0.1078 0 7
-18.5157 15.9065 -2.6477 0.1078 0 7
-18.7699 15.6057 -2.6477 0.1078 0 7
-19.0193 15.3008 -2.6477 0.1078 0 7
-19.2638 14.9918 -2.6477 0.1078 0 7
-19.5032 14.6790 -2.6477 0.1078 0 7
-19.7375 14.3624 -2.6477 0.1078 0 7
-19.9667 14.0420 -2.6477 0.1078 0 7
-20.1907 13.7180 -2.6477 0.1078 0 7
-20.4094 13.3904 -2.6477 0.1078 0 7
-20.6229 13.0593 -2.6477 0.1078 0 7
-20.8309 12.7248 -2.6477 0.1078 0 7
-21.0336 12.3870 -2.6477 0.1078 0 7
-21.2307 12.0459 -2.6477 0.1078 0 7
-21.4223 11.7018 -2.6477 0.1078 0 7
-21.6084 11.3546 -2.6477 0.1078 0 6
-21.7888 11.0044 -2.6477 0.1078 0 7
-21.9635 10.6513 -2.6477 0.1078 0 7
-22.1326 10.2955 -2.6477 0.1078 0 7
-22.2958 9.9370 -2.6477 0.1078 0 7
-22.4533 9.5759 -2.6477 0.1078 0 7
-22.6049 9.2124 -2.6477 0.1078 0 7
-21.4411 8.3372 -2.4953 0.1078 0 8
-21.5728 7.9901 -2.4953 0.1078 0 8
-21.6989 7.6410 -2.4953 0.1078 0 8
-21.8194 7.2898 -2.4953 0.1078 0 8
-21.9342 6.9368 -2.4953 0.1078 0 8
-22.0433 6.5819 -2.4953 0.1078 0 8
-22.1466 6.2253 -2.4953 0.1078 0 8
-22.2442 5.8671 -2.4953 0.1078 0 8
-22.3360 5.5074 -2.4953 0.1078 0 8
-22.4219 5.1463 -2.4953 0.1078 0 8
-22.5021 4.7838 -2.4953 0.1078 0 8
-22.5763 4.4200 -2.4953 0.1078 0 8
-22.6447 4.0551 -2.4953 0.1078 0 8
-0.1231 21.4132 -2.5029 0.1161 0 14
-0.4686 21.4085 -2.5029 0.1161 0 14
-0.8140 21.3981 -2.5029 0.1161 0 14
-1.1592 21.3822 -2.5029 0.1161 0 14
-1.5041 21.3607 -2.5029 0.1161 0 14
-1.8486 21.3337 -2.5029 0.1161 0 14
-2.1927 21.3010 -2.5029 0.1161 0 14
-2.5361 21.2629 -2.5029 0.1161 0 14
-2.8789 21.2192 -2.5029 0.1161 0 14
-3.2209 21.1700 -2.5029 0.1161 0 14
-3.5621 21.1152 -2.5029 0.1161 0 14
-3.9024 21.0550 -2.5029 0.1161 0 14
-4.2417 20.9893 -2.5029 0.1161 0 14
-4.5798 20.9181 -2.5029 0.1161 0 14
-4.9168 20.8415 -2.5029 0.1161 0 14
-5.2525 20.7594 -2.5029 0.1161 0 14
-5.5868 20.6720 -2.5029 0.1161 0 14
-5.9196 20.5791 -2.5029 0.1161 0 14
-6.2510 20.4809 -2.5029 0.1161 0 14
-6.5807 20.3774 -2.5029 0.1161 0 14
-6.9086 20.2685 -2.5029 0.1161 0 14
-7.2348 20.1544 -2.5029 0.1161 0 14
-7.5591 20.0350 -2.5029 0.1161 0 14
-7.8814 19.9104 -2.5029 0.1161 0 14
-8.2017 19.7807 -2.5029 0.1161 0 14
-8.5198 19.6457 -2.5029 0.1161 0 14
-8.8357 19.5057 -2.5029 0.1161 0 14
-9.1493 19.3606 -2.5029 0.1161 0 14
-9.4606 19.2104 -2.5029 0.1161 0 14
-9.7693 19.0552 -2.5029 0.1161 0 8
-10.0962 18.9338 -2.5080 0.7027 0 8
-10.4882 18.9268 -2.5292 0.8767 0 8
-10.8880 18.9215 -2.5516 0.8690 0 8
-11.2951 18.9160 -2.5751 0.8610 0 8
-11.7097 18.9103 -2.5997 0.8529 0 8
-12.1324 18.9044 -2.6255 0.8445 0 8
-12.5408 18.8641 -2.6477 0.1161 0 7
-12.8436 18.6592 -2.6477 0.1161 0 7
-13.1430 18.4495 -2.6477 0.1161 0 6
-13.4390 18.2351 -2.6477 0.1161 0 7
-13.7315 18.0158 -2.6477 0.1161 0 7
-14.0205 17.7919 -2.6477 0.1161 0 7
-14.3058 17.5633 -2.6477 0.1161 0 7
-14.5873 17.3302 -2.6477 0.1161 0 7
-14.8651 17.0925 -2.6477 0.1161 0 7
-15.1390 16.8504 -2.6477 0.1161 0 7
-15.4089 16.6039 -2.6477 0.1161 0 7
-15.6749 16.3531 -2.6477 0.1161 0 7
-15.9367 16.0980 -2.6477 0.1161 0 7
-16.1944 15.8388 -2.6477 0.1161 0 7
-16.4479 15.5754 -2.6477 0.1161 0 7
-16.6971 15.3079 -2.6477 0.1161 0 7
-16.9419 15.0365 -2.6477 0.1161 0 7
-17.1824 14.7611 -2.6477 0.1161 0 7
-17.4183 14.4819 -2.6477 0.1161 0 7
-17.6498 14.1990 -2.6477 0.1161 0 7
-17.8766 13.9123 -2.6477 0.1161 0 7
-18.0988 13.6220 -2.6477 0.1161 0 7
-18.3163 13.3282 -2.6477 0.1161 0 7
-18.5289 13.0309 -2.6477 0.1161 0 7
-18.7368 12.7302 -2.6477 0.1161 0 7
-18.9398 12.4262 -2.6477 0.1161 0 7
-19.1378 12.1189 -2.6477 0.1161 0 7
-19.3309 11.8085 -2.6477 0.1161 0 7
-19.5190 11.4950 -2.6477 0.1161 0 7
-19.7019 11.1785 -2.6477 0.1161 0 7
-19.8798 10.8592 -2.6477 0.1161 0 7
-20.0524 10.5369 -2.6477 0.1161 0 7
-20.2198 10.2120 -2.6477 0.1161 0 7
-20.3820 9.8844 -2.6477 0.1161 0 7
-20.5388 9.5542 -2.6477 0.1161 0 7
-20.6903 9.2215 -2.6477 0.1161 0 7
-19.6371 8.3749 -2.4953 0.1161 0 8
-19.7697 8.0569 -2.4953 0.1161 0 8
-19.8971 7.7368 -2.4953 0.1161 0 8
-20.0194 7.4148 -2.4953 0.1161 0 8
-20.1364 7.0907 -2.4953 0.1161 0 8
-20.2482 6.7649 -2.4953 0.1161 0 8
-20.3548 6.4373 -2.4953 0.1161 0 8
-20.4560 6.1079 -2.4953 0.1161 0 8
-20.5519 5.7771 -2.4953 0.1161 0 8
-20.6424 5.4447 -2.4953 0.1161 0 8
-20.7276 5.1108 -2.4953 0.1161 0 8
-20.8074 4.7757 -2.4953 0.1161 0 8
-20.8817 4.4393 -2.4953 0.1161 0 8
-20.9507 4.1017 -2.4953 0.1161 0 8
-21.0141 3.7631 -2.4953 0.1161 0 8
-0.1148 19.9723 -2.5029 0.1243 0 14
-0.4371 19.9678 -2.5029 0.1243 0 14
-0.7593 19.9582 -2.5029 0.1243 0 14
-1.0812 19.9433 -2.5029 0.1243 0 14
-1.4029 19.9233 -2.5029 0.1243 0 14
-1.7242 19.8980 -2.5029 0.1243 0 14
-2.0451 19.8676 -2.5029 0.1243 0 14
-2.3654 19.8320 -2.5029 0.1243 0 14
-2.6852 19.7913 -2.5029 0.1243 0 14
-3.0042 19.7454 -2.5029 0.1243 0 14
-3.3224 19.6943 -2.5029 0.1243 0 14
-3.6398 19.6381 -2.5029 0.1243 0 14
-3.9562 19.5768 -2.5029 0.1243 0 14
-4.2716 19.5105 -2.5029 0.1243 0 14
-4.5859 19.4390 -2.5029 0.1243 0 14
-4.8990 19.3624 -2.5029 0.1243 0 14
-5.2108 19.2809 -2.5029 0.1243 0 14
-5.5213 19.1943 -2.5029 0.1243 0 14
-5.8303 19.1027 -2.5029 0.1243 0 14
-6.1378 19.0061 -2.5029 0.1243 0 8
-6.4571 18.9439 -2.5081 0.7527 0 8
-6.7983 18.9385 -2.5216 0.9418 0 8
-7.1440 18.9348 -2.5361 0.9364 0 8
-7.4937 18.9310 -2.5515 0.9308 0 8
-7.8477 18.9270 -2.5677 0.9249 0 8
-8.2063 18.9228 -2.5847 0.9188 0 8
-8.5697 18.9185 -2.6027 0.9125 0 8
-8.9383 18.9140 -2.6216 0.9059 0 8
-9.3123 18.9093 -2.6414 0.8991 0 8
-9.6390 18.8010 -2.6477 0.1243 0 7
-9.9411 18.6430 -2.6477 0.1243 0 7
-10.2407 18.4802 -2.6477 0.1243 0 7
-10.5376 18.3125 -2.6477 0.1243 0 7
-10.8317 18.1401 -2.6477 0.1243 0 7
-11.1230 17.9629 -2.6477 0.1243 0 7
-11.4115 17.7811 -2.6477 0.1243 0 7
-11.6969 17.5946 -2.6477 0.1243 0 7
-11.9793 17.4036 -2.6477 0.1243 0 7
-12.2586 17.2080 -2.6477 0.1243 0 7
-12.5347 17.0080 -2.6477 0.1243 0 7
-12.8075 16.8035 -2.6477 0.1243 0 7
-13.0770 16.5946 -2.6477 0.1243 0 7
-13.3431 16.3814 -2.6477 0.1243 0 7
-13.6057 16.1640 -2.6477 0.1243 0 7
-13.8648 15.9423 -2.6477 0.1243 0 7
-14.1202 15.7165 -2.6477 0.1243 0 7
-14.3720 15.4866 -2.6477 0.1243 0 7
-14.6200 15.2527 -2.6477 0.1243 0 7
-14.8643 15.0147 -2.6477 0.1243 0 7
-15.1046 14.7729 -2.6477 0.1243 0 7
-15.3411 14.5273 -2.6477 0.1243 0 7
-15.5735 14.2778 -2.6477 0.1243 0 7
-15.8019 14.0246 -2.6477 0.1243 0 7
-16.0261 13.7678 -2.6477 0.1243 0 7
-16.2462 13.5074 -2.6477 0.1243 0 7
-16.4621 13.2435 -2.6477 0.1243 0 7
-16.6736 12.9761 -2.6477 0.1243 0 7
-16.8809 12.7053 -2.6477 0.1243 0 7
-17.0837 12.4313 -2.6477 0.1243 0 7
-17.2821 12.1540 -2.6477 0.1243 0 7
-17.4759 11.8735 -2.6477 0.1243 0 7
-17.6653 11.5900 -2.6477 0.1243 0 7
-17.8500 11.3034 -2.6477 0.1243 0 7
-18.0301 11.0139 -2.6477 0.1243 0 7
-18.2055 10.7215 -2.6477 0.1243 0 7
-18.3761 10.4263 -2.6477 0.1243 0 7
-18.5420 10.1284 -2.6477 0.1243 0 7
-18.7030 9.8279 -2.6477 0.1243 0 7
-18.8592 9.5248 -2.6477 0.1243 0 7
-19.0104 9.2192 -2.6477 0.1243 0 7
-18.0540 8.3983 -2.4953 0.1243 0 8
-18.1872 8.1059 -2.4953 0.1243 0 8
-18.3156 7.8113 -2.4953 0.1243 0 8
-18.4393 7.5147 -2.4953 0.1243 0 8
-18.5582 7.2162 -2.4953 0.1243 0 8
-18.6722 6.9158 -2.4953 0.1243 0 8
-18.7814 6.6136 -2.4953 0.1243 0 8
-18.8857 6.3096 -2.4953 0.1243 0 8
-18.9850 6.0041 -2.4953 0.1243 0 8
-19.0794 5.6969 -2.4953 0.1243 0 8
-19.1689 5.3883 -2.4953 0.1243 0 8
-19.2533 5.0783 -2.4953 0.1243 0 8
-19.3328 4.7669 -2.4953 0.1243 0 8
-19.4072 4.4543 -2.4953 0.1243 0 8
-19.4765 4.1405 -2.4953 0.1243 0 8
-19.5408 3.8257 -2.4953 0.1243 0 8
-19.6000 3.5099 -2.4953 0.1243 0 8
-0.1090 18.9565 -2.5358 0.9970 0 8
-0.4149 18.9552 -2.5362 0.9986 0 8
-0.7210 18.9535 -2.5372 0.9982 0 8
-1.0275 18.9516 -2.5388 0.9976 0 8
-1.3344 18.9500 -2.5412 0.9965 0 8
-1.6420 18.9486 -2.5442 0.9953 0 8
-1.9503 18.9471 -2.5479 0.9939 0 8
-2.2597 18.9454 -2.5522 0.9922 0 8
-2.5702 18.9436 -2.5572 0.9903 0 8
-2.8819 18.9417 -2.5629 0.9881 0 8
-3.1951 18.9396 -2.5693 0.9856 0 8
-3.5099 18.9375 -2.5763 0.9829 0 8
-3.8266 18.9351 -2.5841 0.9800 0 8
-4.1451 18.9327 -2.5926 0.9768 0 8
-4.4659 18.9301 -2.6017 0.9733 0 8
-4.7889 18.9274 -2.6116 0.9696 0 8
-5.1145 18.9245 -2.6223 0.9657 0 8
-5.4428 18.9215 -2.6337 0.9615 0 8
-5.7740 18.9183 -2.6459 0.9571 0 8
-6.0827 18.8354 -2.6477 0.1326 0 7
-6.3858 18.7348 -2.6477 0.1326 0 7
-6.6873 18.6293 -2.6477 0.1326 0 7
-6.9871 18.5189 -2.6477 0.1326 0 7
-7.2850 18.4038 -2.6477 0.1326 0 6
-7.5810 18.2838 -2.6477 0.1326 0 7
-7.8751 18.1591 -2.6477 0.1326 0 7
-8.1671 18.0296 -2.6477 0.1326 0 7
-8.4570 17.8955 -2.6477 0.1326 0 7
-8.7447 17.7567 -2.6477 0.1326 0 7
-9.0301 17.6133 -2.6477 0.1326 0 7
-9.3131 17.4653 -2.6477 0.1326 0 7
-9.5938 17.3127 -2.6477 0.1326 0 7
-9.8719 17.1556 -2.6477 0.1326 0 7
-10.1474 16.9941 -2.6477 0.1326 0 7
-10.4203 16.8281 -2.6477 0.1326 0 7
-10.6906 16.6578 -2.6477 0.1326 0 7
-10.9580 16.4831 -2.6477 0.1326 0 7
-11.2225 16.3041 -2.6477 0.1326 0 7
-11.4842 16.1209 -2.6477 0.1326 0 7
-11.7428 15.9335 -2.6477 0.1326 0 7
-11.9984 15.7419 -2.6477 0.1326 0 7
-12.2509 15.5463 -2.6477 0.1326 0 7
-12.5001 15.3465 -2.6477 0.1326 0 7
-12.7462 15.1428 -2.6477 0.1326 0 7
-12.9889 14.9352 -2.6477 0.1326 0 7
-13.2282 14.7236 -2.6477 0.1326 0 7
-13.4641 14.5082 -2.6477 0.1326 0 7
-13.6964 14.2891 -2.6477 0.1326 0 7
-13.9252 14.0662 -2.6477 0.1326 0 7
-14.1504 13.8396 -2.6477 0.1326 0 7
-14.3719 13.6095 -2.6477 0.1326 0 7
-14.5896 13.3758 -2.6477 0.1326 0 7
-14.8036 13.1386 -2.6477 0.1326 0 7
-15.0137 12.8980 -2.6477 0.1326 0 7
-15.2199 12.6541 -2.6477 0.1326 0 7
-15.4221 12.4068 -2.6477 0.1326 0 7
-15.6203 12.1563 -2.6477 0.1326 0 7
-15.8144 11.9027 -2.6477 0.1326 0 7
-16.0044 11.6459 -2.6477 0.1326 0 7
-16.1903 11.3862 -2.6477 0.1326 0 6
-16.3719 11.1234 -2.6477 0.1326 0 7
-16.5493 10.8578 -2.6477 0.1326 0 7
-16.7223 10.5893 -2.6477 0.1326 0 7
-16.8910 10.3181 -2.6477 0.1326 0 7
-17.0554 10.0442 -2.6477 0.1326 0 7
-17.2152 9.7676 -2.6477 0.1326 0 7
-17.3706 9.4886 -2.6477 0.1326 0 7
-17.5215 9.2070 -2.6477 0.1326 0 7
-17.6677 8.9230 -2.6477 0.1326 0 7
-16.7843 8.1396 -2.4953 0.1326 0 8
-16.9135 7.8678 -2.4953 0.1326 0 8
-17.0382 7.5938 -2.4953 0.1326 0 8
-17.1586 7.3179 -2.4953 0.1326 0 8
-17.2744 7.0400 -2.4953 0.1326 0 8
-17.3858 6.7603 -2.4953 0.1326 0 8
-17.4926 6.4789 -2.4953 0.1326 0 8
-17.5949 6.1958 -2.4953 0.1326 0 8
-17.6926 5.9110 -2.4953 0.1326 0 8
-17.7856 5.6248 -2.4953 0.1326 0 8
-17.8741 5.3370 -2.4953 0.1326 0 8
-17.9579 5.0479 -2.4953 0.1326 0 8
-18.0370 4.7575 -2.4953 0.1326 0 8
-18.1114 4.4658 -2.4953 0.1326 0 8
-18.1811 4.1729 -2.4953 0.1326 0 8
-18.2461 3.8790 -2.4953 0.1326 0 8
-18.3063 3.5840 -2.4953 0.1326 0 8
-18.3618 3.2882 -2.4953 0.1326 0 8
-0.1070 18.6143 -2.6477 0.1408 0 7
-0.4074 18.6101 -2.6477 0.1408 0 7
-0.7076 18.6011 -2.6477 0.1408 0 7
-1.0077 18.5873 -2.6477 0.1408 0 7
-1.3075 18.5686 -2.6477 0.1408 0 7
-1.6070 18.5451 -2.6477 0.1408 0 7
-1.9060 18.5167 -2.6477 0.1408 0 7
-2.2046 18.4836 -2.6477 0.1408 0 6
-2.5025 18.4456 -2.6477 0.1408 0 6
-2.7999 18.4028 -2.6477 0.1408 0 6
-3.0965 18.3552 -2.6477 0.1408 0 7
-3.3923 18.3029 -2.6477 0.1408 0 7
-3.6872 18.2457 -2.6477 0.1408 0 7
-3.9812 18.1839 -2.6477 0.1408 0 7
-4.2741 18.1172 -2.6477 0.1408 0 7
-4.5659 18.0459 -2.6477 0.1408 0 7
-4.8565 17.9699 -2.6477 0.1408 0 7
-5.1459 17.8892 -2.6477 0.1408 0 7
-5.4339 17.8038 -2.6477 0.1408 0 7
-5.7205 17.7138 -2.6477 0.1408 0 7
-6.0056 17.6192 -2.6477 0.1408 0 7
-6.2891 17.5200 -2.6477 0.1408 0 7
-6.5710 17.4162 -2.6477 0.1408 0 7
-6.8512 17.3079 -2.6477 0.1408 0 7
-7.1296 17.1951 -2.6477 0.1408 0 7
-7.4062 17.0778 -2.6477 0.1408 0 7
-7.6808 16.9561 -2.6477 0.1408 0 7
-7.9534 16.8299 -2.6477 0.1408 0 7
-8.2240 16.6994 -2.6477 0.1408 0 7
-8.4924 16.5645 -2.6477 0.1408 0 7
-8.7586 16.4253 -2.6477 0.1408 0 7
-9.0225 16.2818 -2.6477 0.1408 0 7
-9.2841 16.1341 -2.6477 0.1408 0 7
-9.5432 15.9822 -2.6477 0.1408 0 7
-9.7999 15.8261 -2.6477 0.1408 0 7
-10.0540 15.6659 -2.6477 0.1408 0 7
-10.3055 15.5016 -2.6477 0.1408 0 7
-10.5543 15.3333 -2.6477 0.1408 0 7
-10.8003 15.1610 -2.6477 0.1408 0 7
-11.0436 14.9847 -2.6477 0.1408 0 7
-11.2839 14.8046 -2.6477 0.1408 0 7
-11.5214 14.6205 -2.6477 0.1408 0 7
-11.7558 14.4327 -2.6477 0.1408 0 7
-11.9872 14.2411 -2.6477 0.1408 0 7
-12.2154 14.0458 -2.6477 0.1408 0 7
-12.4405 13.8469 -2.6477 0.1408 0 7
-12.6624 13.6443 -2.6477 0.1408 0 7
-12.8809 13.4382 -2.6477 0.1408 0 7
-13.0960 13.2286 -2.6477 0.1408 0 7
-13.3078 13.0156 -2.6477 0.1408 0 7
-13.5161 12.7991 -2.6477 0.1408 0 7
-13.7209 12.5793 -2.6477 0.1408 0 7
-13.9221 12.3563 -2.6477 0.1408 0 7
-14.1197 12.1300 -2.6477 0.1408 0 7
-14.3136 11.9006 -2.6477 0.1408 0 7
-14.5038 11.6681 -2.6477 0.1408 0 7
-14.6901 11.4325 -2.6477 0.1408 0 6
-14.8727 11.1939 -2.6477 0.1408 0 7
-15.0514 10.9525 -2.6477 0.1408 0 7
-15.2262 10.7082 -2.6477 0.1408 0 7
-15.3970 10.4611 -2.6477 0.1408 0 7
-15.5638 10.2112 -2.6477 0.1408 0 7
-15.7266 9.9588 -2.6477 0.1408 0 7
-15.8853 9.7037 -2.6477 0.1408 0 7
-16.0398 9.4461 -2.6477 0.1408 0 7
-16.1901 9.1860 -2.6477 0.1408 0 7
-16.3362 8.9236 -2.6477 0.1408 0 7
-15.5296 8.1604 -2.4953 0.1408 0 8
-15.6593 7.9087 -2.4953 0.1408 0 8
-15.7849 7.6550 -2.4953 0.1408 0 8
-15.9064 7.3993 -2.4953 0.1408 0 8
-16.0237 7.1416 -2.4953 0.1408 0 8
-16.1369 6.8821 -2.4953 0.1408 0 8
-16.2458 6.6208 -2.4953 0.1408 0 8
-16.3505 6.3578 -2.4953 0.1408 0 8
-16.4510 6.0931 -2.4953 0.1408 0 8
-16.5472 5.8269 -2.4953 0.1408 0 8
-16.6391 5.5591 -2.4953 0.1408 0 8
-16.7266 5.2898 -2.4953 0.1408 0 8
-16.8098 5.0192 -2.4953 0.1408 0 8
-16.8886 4.7473 -2.4953 0.1408 0 8
-16.9630 4.4742 -2.4953 0.1408 0 8
-17.0330 4.1999 -2.4953 0.1408 0 8
-17.0985 3.9244 -2.4953 0.1408 0 8
-17.1596 3.6480 -2.4953 0.1408 0 8
-17.2163 3.3706 -2.4953 0.1408 0 8
-17.2684 3.0924 -2.4953 0.1408 0 8
-0.1010 17.5659 -2.6477 0.1490 0 7
-0.3844 17.5619 -2.6477 0.1490 0 7
-0.6678 17.5534 -2.6477 0.1490 0 7
-0.9510 17.5404 -2.6477 0.1490 0 7
-1.2339 17.5228 -2.6477 0.1490 0 7
-1.5165 17.5006 -2.6477 0.1490 0 7
-1.7987 17.4738 -2.6477 0.1490 0 7
-2.0804 17.4425 -2.6477 0.1490 0 7
-2.3616 17.4067 -2.6477 0.1490 0 7
-2.6422 17.3663 -2.6477 0.1490 0 7
-2.9221 17.3214 -2.6477 0.1490 0 7
-3.2013 17.2720 -2.6477 0.1490 0 7
-3.4796 17.2181 -2.6477 0.1490 0 7
-3.7570 17.1597 -2.6477 0.1490 0 7
-4.0334 17.0968 -2.6477 0.1490 0 7
-4.3088 17.0295 -2.6477 0.1490 0 7
-4.5830 16.9578 -2.6477 0.1490 0 7
-4.8560 16.8816 -2.6477 0.1490 0 7
-5.1278 16.8010 -2.6477 0.1490 0 7
-5.3983 16.7161 -2.6477 0.1490 0 7
-5.6673 16.6268 -2.6477 0.1490 0 7
-5.9349 16.5332 -2.6477 0.1490 0 7
-6.2009 16.4353 -2.6477 0.1490 0 7
-6.4653 16.3331 -2.6477 0.1490 0 7
-6.7281 16.2266 -2.6477 0.1490 0 7
-6.9890 16.1159 -2.6477 0.1490 0 7
-7.2482 16.0010 -2.6477 0.1490 0 7
-7.5054 15.8820 -2.6477 0.1490 0 7
-7.7608 15.7588 -2.6477 0.1490 0 7
-8.0140 15.6315 -2.6477 0.1490 0 7
-8.2653 15.5002 -2.6477 0.1490 0 7
-8.5143 15.3648 -2.6477 0.1490 0 7
-8.7611 15.2254 -2.6477 0.1490 0 7
-9.0057 15.0820 -2.6477 0.1490 0 7
-9.2479 14.9347 -2.6477 0.1490 0 7
-9.4877 14.7835 -2.6477 0.1490 0 7
-9.7250 14.6285 -2.6477 0.1490 0 7
-9.9598 14.4697 -2.6477 0.1490 0 7
-10.1920 14.3071 -2.6477 0.1490 0 7
-10.4216 14.1407 -2.6477 0.1490 0 7
-10.6484 13.9707 -2.6477 0.1490 0 7
-10.8725 13.7971 -2.6477 0.1490 0 7
-11.0937 13.6198 -2.6477 0.1490 0 7
-11.3120 13.4390 -2.6477 0.1490 0 7
-11.5274 13.2547 -2.6477 0.1490 0 7
-11.7398 13.0670 -2.6477 0.1490 0 7
-11.9492 12.8758 -2.6477 0.1490 0 7
-12.1554 12.6813 -2.6477 0.1490 0 7
-12.3584 12.4835 -2.6477 0.1490 0 7
-12.5583 12.2825 -2.6477 0.1490 0 7
-12.7548 12.0782 -2.6477 0.1490 0 7
-12.9481 11.8708 -2.6477 0.1490 0 7
-13.1380 11.6603 -2.6477 0.1490 0 7
-13.3244 11.4468 -2.6477 0.1490 0 6
-13.5074 11.2303 -2.6477 0.1490 0 7
-13.6869 11.0109 -2.6477 0.1490 0 7
-13.8628 10.7886 -2.6477 0.1490 0 7
-14.0351 10.5635 -2.6477 0.1490 0 7
-14.2037 10.3356 -2.6477 0.1490 0 7
-14.3686 10.1051 -2.6477 0.1490 0 7
-14.5298 9.8719 -2.6477 0.1490 0 7
-14.6872 9.6361 -2.6477 0.1490 0 7
-14.8408 9.3978 -2.6477 0.1490 0 7
-14.9905 9.1571 -2.6477 0.1490 0 7
-14.2651 8.4009 -2.4953 0.1490 0 8
-14.3988 8.1696 -2.4953 0.1490 0 8
-14.5288 7.9362 -2.4953 0.1490 0 8
-14.6550 7.7007 -2.4953 0.1490 0 8
-14.7773 7.4633 -2.4953 0.1490 0 8
-14.8958 7.2238 -2.4953 0.1490 0 8
-15.0105 6.9825 -2.4953 0.1490 0 8
-15.1212 6.7394 -2.4953 0.1490 0 8
-15.2280 6.4945 -2.4953 0.1490 0 8
-15.3308 6.2479 -2.4953 0.1490 0 8
-15.4296 5.9997 -2.4953 0.1490 0 8
-15.5244 5.7499 -2.4953 0.1490 0 8
-15.6152 5.4987 -2.4953 0.1490 0 8
-15.7019 5.2460 -2.4953 0.1490 0 8
-15.7845 4.9919 -2.4953 0.1490 0 8
-15.8630 4.7365 -2.4953 0.1490 0 8
-15.9374 4.4799 -2.4953 0.1490 0 8
-16.0076 4.2222 -2.4953 0.1490 0 8
-16.0736 3.9633 -2.4953 0.1490 0 8
-16.1355 3.7034 -2.4953 0.1490 0 8
-16.1932 3.4425 -2.4953 0.1490 0 8
-16.2466 3.1808 -2.4953 0.1490 0 8
-16.2958 2.9182 -2.4953 0.1490 0 8
-0.0956 16.6270 -2.6477 0.1573 0 7
-0.3639 16.6233 -2.6477 0.1573 0 7
-0.6321 16.6153 -2.6477 0.1573 0 7
-0.9001 16.6029 -2.6477 0.1573 0 7
-1.1679 16.5862 -2.6477 0.1573 0 7
-1.4354 16.5652 -2.6477 0.1573 0 7
-1.7026 16.5399 -2.6477 0.1573 0 7
-1.9692 16.5103 -2.6477 0.1573 0 7
-2.2354 16.4763 -2.6477 0.1573 0 7
-2.5010 16.4381 -2.6477 0.1573 0 7
-2.7659 16.3956 -2.6477 0.1573 0 7
-3.0302 16.3489 -2.6477 0.1573 0 7
-3.2936 16.2978 -2.6477 0.1573 0 7
-3.5562 16.2426 -2.6477 0.1573 0 7
-3.8178 16.1830 -2.6477 0.1573 0 7
-4.0785 16.1193 -2.6477 0.1573 0 7
-4.3380 16.0514 -2.6477 0.1573 0 7
-4.5965 15.9793 -2.6477 0.1573 0 7
-4.8538 15.9031 -2.6477 0.1573 0 7
-5.1098 15.8227 -2.6477 0.1573 0 7
-5.3644 15.7382 -2.6477 0.1573 0 7
-5.6177 15.6495 -2.6477 0.1573 0 7
-5.8695 15.5569 -2.6477 0.1573 0 7
-6.1198 15.4601 -2.6477 0.1573 0 7
-6.3685 15.3593 -2.6477 0.1573 0 7
-6.6155 15.2546 -2.6477 0.1573 0 7
-6.8608 15.1458 -2.6477 0.1573 0 7
-7.1043 15.0332 -2.6477 0.1573 0 7
-7.3460 14.9166 -2.6477 0.1573 0 6
-7.5857 14.7961 -2.6477 0.1573 0 7
-7.8235 14.6717 -2.6477 0.1573 0 7
-8.0592 14.5436 -2.6477 0.1573 0 7
-8.2929 14.4116 -2.6477 0.1573 0 7
-8.5244 14.2759 -2.6477 0.1573 0 7
-8.7536 14.1365 -2.6477 0.1573 0 7
-8.9806 13.9934 -2.6477 0.1573 0 7
-9.2053 13.8467 -2.6477 0.1573 0 7
-9.4275 13.6963 -2.6477 0.1573 0 7
-9.6473 13.5424 -2.6477 0.1573 0 7
-9.8646 13.3849 -2.6477 0.1573 0 7
-10.0793 13.2240 -2.6477 0.1573 0 7
-10.2914 13.0597 -2.6477 0.1573 0 7
-10.5008 12.8919 -2.6477 0.1573 0 7
-10.7074 12.7208 -2.6477 0.1573 0 7
-10.9113 12.5463 -2.6477 0.1573 0 7
-11.1124 12.3686 -2.6477 0.1573 0 7
-11.3105 12.1877 -2.6477 0.1573 0 7
-11.5057 12.0036 -2.6477 0.1573 0 7
-11.6979 11.8163 -2.6477 0.1573 0 7
-11.8871 11.6260 -2.6477 0.1573 0 7
-12.0731 11.4327 -2.6477 0.1573 0 6
-12.2560 11.2364 -2.6477 0.1573 0 7
-12.4358 11.0371 -2.6477 0.1573 0 7
-12.6123 10.8350 -2.6477 0.1573 0 7
-12.7855 10.6301 -2.6477 0.1573 0 7
-12.9553 10.4224 -2.6477 0.1573 0 7
-13.1218 10.2119 -2.6477 0.1573 0 7
-13.2849 9.9989 -2.6477 0.1573 0 7
-13.4446 9.7832 -2.6477 0.1573 0 7
-13.6007 9.5650 -2.6477 0.1573 0 7
-13.7532 9.3442 -2.6477 0.1573 0 7
-13.9022 9.1211 -2.6477 0.1573 0 7
-13.2390 8.3835 -2.4953 0.1573 0 8
-13.3726 8.1688 -2.4953 0.1573 0 8
-13.5027 7.9519 -2.4953 0.1573 0 8
-13.6292 7.7330 -2.4953 0.1573 0 8
-13.7523 7.5121 -2.4953 0.1573 0 8
-13.8717 7.2892 -2.4953 0.1573 0 8
-13.9875 7.0644 -2.4953 0.1573 0 8
-14.0997 6.8377 -2.4953 0.1573 0 8
-14.2082 6.6093 -2.4953 0.1573 0 8
-14.3130 6.3792 -2.4953 0.1573 0 8
-14.4141 6.1474 -2.4953 0.1573 0 8
-14.5114 5.9140 -2.4953 0.1573 0 8
-14.6050 5.6790 -2.4953 0.1573 0 8
-14.6947 5.4426 -2.4953 0.1573 0 8
-14.7806 5.2048 -2.4953 0.1573 0 8
-14.8627 4.9656 -2.4953 0.1573 0 8
-14.9409 4.7251 -2.4953 0.1573 0 8
-15.0152 4.4834 -2.4953 0.1573 0 8
-15.0856 4.2405 -2.4953 0.1573 0 8
-15.1520 3.9965 -2.4953 0.1573 0 8
-15.2145 3.7515 -2.4953 0.1573 0 8
-15.2731 3.5055 -2.4953 0.1573 0 8
-15.3277 3.2585 -2.4953 0.1573 0 8
-15.3783 3.0108 -2.4953 0.1573 0 8
-15.4249 2.7622 -2.4953 0.1573 0 8
-0.0907 15.7813 -2.6477 0.1655 0 7
-0.3454 15.7778 -2.6477 0.1655 0 7
-0.5999 15.7702 -2.6477 0.1655 0 7
-0.8543 15.7584 -2.6477 0.1655 0 7
-1.1085 15.7426 -2.6477 0.1655 0 7
-1.3624 15.7227 -2.6477 0.1655 0 7
-1.6160 15.6986 -2.6477 0.1655 0 7
-1.8691 15.6705 -2.6477 0.1655 0 7
-2.1217 15.6383 -2.6477 0.1655 0 7
-2.3738 15.6020 -2.6477 0.1655 0 7
-2.6253 15.5617 -2.6477 0.1655 0 7
-2.8760 15.5173 -2.6477 0.1655 0 7
-3.1261 15.4689 -2.6477 0.1655 0 7
-3.3753 15.4164 -2.6477 0.1655 0 7
-3.6236 15.3599 -2.6477 0.1655 0 7
-3.8710 15.2994 -2.6477 0.1655 0 7
-4.1174 15.2350 -2.6477 0.1655 0 7
-4.3627 15.1666 -2.6477 0.1655 0 7
-4.6069 15.0942 -2.6477 0.1655 0 7
-4.8499 15.0179 -2.6477 0.1655 0 7
-5.0916 14.9377 -2.6477 0.1655 0 7
-5.3320 14.8536 -2.6477 0.1655 0 7
-5.5710 14.7656 -2.6477 0.1655 0 7
-5.8085 14.6738 -2.6477 0.1655 0 7
-6.0445 14.5781 -2.6477 0.1655 0 7
-6.2790 14.4787 -2.6477 0.1655 0 7
-6.5118 14.3755 -2.6477 0.1655 0 7
-6.7430 14.2685 -2.6477 0.1655 0 7
-6.9723 14.1579 -2.6477 0.1655 0 7
-7.1999 14.0435 -2.6477 0.1655 0 7
-7.4256 13.9255 -2.6477 0.1655 0 7
-7.6493 13.8038 -2.6477 0.1655 0 7
-7.8711 13.6786 -2.6477 0.1655 0 7
-8.0908 13.5498 -2.6477 0.1655 0 7
-8.3084 13.4175 -2.6477 0.1655 0 7
-8.5238 13.2816 -2.6477 0.1655 0 7
-8.7371 13.1424 -2.6477 0.1655 0 7
-8.9480 12.9997 -2.6477 0.1655 0 7
-9.1566 12.8536 -2.6477 0.1655 0 7
-9.3628 12.7042 -2.6477 0.1655 0 7
-9.5666 12.5514 -2.6477 0.1655 0 7
-9.7679 12.3954 -2.6477 0.1655 0 7
-9.9667 12.2362 -2.6477 0.1655 0 7
-10.1628 12.0737 -2.6477 0.1655 0 7
-10.3563 11.9082 -2.6477 0.1655 0 7
-10.5472 11.7395 -2.6477 0.1655 0 7
-10.7352 11.5678 -2.6477 0.1655 0 7
-10.9205 11.3930 -2.6477 0.1655 0 6
-11.1029 11.2153 -2.6477 0.1655 0 7
-11.2825 11.0347 -2.6477 0.1655 0 7
-11.4591 10.8512 -2.6477 0.1655 0 7
-11.6327 10.6649 -2.6477 0.1655 0 7
-11.8033 10.4757 -2.6477 0.1655 0 7
-11.9708 10.2839 -2.6477 0.1655 0 7
-12.1352 10.0894 -2.6477 0.1655 0 7
-12.2964 9.8923 -2.6477 0.1655 0 7
-12.4544 9.6925 -2.6477 0.1655 0 7
-12.6092 9.4903 -2.6477 0.1655 0 7
-12.7607 9.2856 -2.6477 0.1655 0 7
-12.9089 9.0785 -2.6477 0.1655 0 7
-12.3023 8.3585 -2.4953 0.1655 0 8
-12.4356 8.1589 -2.4953 0.1655 0 8
-12.5657 7.9571 -2.4953 0.1655 0 8
-12.6924 7.7533 -2.4953 0.1655 0 8
-12.8159 7.5475 -2.4953 0.1655 0 8
-12.9360 7.3397 -2.4953 0.1655 0 8
-13.0528 7.1300 -2.4953 0.1655 0 8
-13.1661 6.9184 -2.4953 0.1655 0 8
-13.2761 6.7050 -2.4953 0.1655 0 8
-13.3825 6.4899 -2.4953 0.1655 0 8
-13.4855 6.2731 -2.4953 0.1655 0 8
-13.5850 6.0547 -2.4953 0.1655 0 8
-13.6809 5.8347 -2.4953 0.1655 0 8
-13.7733 5.6132 -2.4953 0.1655 0 8
-13.8621 5.3902 -2.4953 0.1655 0 8
-13.9473 5.1658 -2.4953 0.1655 0 8
-14.0288 4.9400 -2.4953 0.1655 0 8
-14.1067 4.7130 -2.4953 0.1655 0 8
-14.1809 4.4848 -2.4953 0.1655 0 8
-14.2515 4.2553 -2.4953 0.1655 0 8
-14.3183 4.0248 -2.4953 0.1655 0 8
-14.3813 3.7932 -2.4953 0.1655 0 8
-14.4407 3.5607 -2.4953 0.1655 0 8
-14.4963 3.3272 -2.4953 0.1655 0 8
-14.5481 3.0928 -2.4953 0.1655 0 8
-14.5961 2.8576 -2.4953 0.1655 0 8
-14.6403 2.6217 -2.4953 0.1655 0 8
-0.0863 15.0154 -2.6477 0.1736 0 7
-0.3286 15.0121 -2.6477 0.1736 0 7
-0.5708 15.0048 -2.6477 0.1736 0 7
-0.8129 14.9937 -2.6477 0.1736 0 7
-1.0547 14.9786 -2.6477 0.1736 0 6
-1.2963 14.9596 -2.6477 0.1736 0 6
-1.5375 14.9368 -2.6477 0.1736 0 6
-1.7783 14.9100 -2.6477 0.1736 0 7
-2.0188 14.8794 -2.6477 0.1736 0 7
-2.2586 14.8449 -2.6477 0.1736 0 7
-2.4979 14.8065 -2.6477 0.1736 0 7
-2.7365 14.7642 -2.6477 0.1736 0 7
-2.9744 14.7182 -2.6477 0.1736 0 7
-3.2115 14.6682 -2.6477 0.1736 0 7
-3.4478 14.6145 -2.6477 0.1736 0 7
-3.6832 14.5570 -2.6477 0.1736 0 7
-3.9176 14.4956 -2.6477 0.1736 0 7
-4.1510 14.4305 -2.6477 0.1736 0 7
-4.3833 14.3617 -2.6477 0.1736 0 7
-4.6145 14.2891 -2.6477 0.1736 0 7
-4.8445 14.2127 -2.6477 0.1736 0 7
-5.0732 14.1327 -2.6477 0.1736 0 7
-5.3006 14.0490 -2.6477 0.1736 0 7
-5.5266 13.9616 -2.6477 0.1736 0 7
-5.7512 13.8706 -2.6477 0.1736 0 7
-5.9743 13.7760 -2.6477 0.1736 0 7
-6.1958 13.6778 -2.6477 0.1736 0 7
-6.4157 13.5761 -2.6477 0.1736 0 7
-6.6340 13.4708 -2.6477 0.1736 0 7
-6.8505 13.3620 -2.6477 0.1736 0 7
-7.0652 13.2497 -2.6477 0.1736 0 7
-7.2781 13.1339 -2.6477 0.1736 0 7
-7.4891 13.0148 -2.6477 0.1736 0 7
-7.6981 12.8922 -2.6477 0.1736 0 7
-7.9052 12.7663 -2.6477 0.1736 0 7
-8.1102 12.6371 -2.6477 0.1736 0 7
-8.3130 12.5046 -2.6477 0.1736 0 7
-8.5137 12.3688 -2.6477 0.1736 0 7
-8.7122 12.2298 -2.6477 0.1736 0 7
-8.9085 12.0876 -2.6477 0.1736 0 7
-9.1023 11.9423 -2.6477 0.1736 0 7
-9.2939 11.7939 -2.6477 0.1736 0 7
-9.4830 11.6423 -2.6477 0.1736 0 7
-9.6696 11.4878 -2.6477 0.1736 0 7
-9.8537 11.3303 -2.6477 0.1736 0 7
-10.0353 11.1698 -2.6477 0.1736 0 7
-10.2143 11.0064 -2.6477 0.1736 0 7
-10.3905 10.8401 -2.6477 0.1736 0 7
-10.5641 10.6710 -2.6477 0.1736 0 7
-10.7349 10.4992 -2.6477 0.1736 0 7
-10.9029 10.3246 -2.6477 0.1736 0 7
-11.0681 10.1473 -2.6477 0.1736 0 7
-11.2304 9.9674 -2.6477 0.1736 0 7
-11.3898 9.7848 -2.6477 0.1736 0 7
-11.5462 9.5998 -2.6477 0.1736 0 7
-11.6997 9.4122 -2.6477 0.1736 0 7
-11.8500 9.2222 -2.6477 0.1736 0 7
-11.9973 9.0297 -2.6477 0.1736 0 7
-11.4426 8.3264 -2.4953 0.1736 0 8
-11.5754 8.1407 -2.4953 0.1736 0 8
-11.7053 7.9528 -2.4953 0.1736 0 8
-11.8321 7.7629 -2.4953 0.1736 0 8
-11.9558 7.5710 -2.4953 0.1736 0 8
-12.0765 7.3770 -2.4953 0.1736 0 8
-12.1939 7.1812 -2.4953 0.1736 0 8
-12.3082 6.9835 -2.4953 0.1736 0 8
-12.4193 6.7840 -2.4953 0.1736 0 8
-12.5272 6.5827 -2.4953 0.1736 0 8
-12.6318 6.3796 -2.4953 0.1736 0 8
-12.7331 6.1750 -2.4953 0.1736 0 8
-12.8311 5.9687 -2.4953 0.1736 0 8
-12.9257 5.7609 -2.4953 0.1736 0 8
-13.0170 5.5515 -2.4953 0.1736 0 8
-13.1049 5.3408 -2.4953 0.1736 0 8
-13.1894 5.1286 -2.4953 0.1736 0 8
