ply
format ascii 1.0
element vertex 1424
property float32 x
property float32 y
property float32 z
property float32 CosAngle
property uint32 ObjIdx
property uint32 ObjTag
end_header
11.2201 6.3538 -2.4953 0.1900 0 8
11.1165 6.5335 -2.4953 0.1900 0 8
11.0099 6.7114 -2.4953 0.1900 0 8
10.9005 6.8877 -2.4953 0.1900 0 8
10.7883 7.0621 -2.4953 0.1900 0 8
10.6733 7.2348 -2.4953 0.1900 0 8
10.5556 7.4055 -2.4953 0.1900 0 8
10.4351 7.5743 -2.4953 0.1900 0 8
10.3119 7.7412 -2.4953 0.1900 0 8
10.1861 7.9061 -2.4953 0.1900 0 8
10.0576 8.0689 -2.4953 0.1900 0 8
9.9265 8.2296 -2.4953 0.1900 0 8
9.7928 8.3882 -2.4953 0.1900 0 8
10.2464 9.0665 -2.6477 0.1900 0 7
10.0992 9.2302 -2.6477 0.1900 0 7
9.9495 9.3914 -2.6477 0.1900 0 7
9.7971 9.5503 -2.6477 0.1900 0 7
9.6422 9.7066 -2.6477 0.1900 0 7
9.4849 9.8605 -2.6477 0.1900 0 7
9.3250 10.0118 -2.6477 0.1900 0 7
9.1628 10.1605 -2.6477 0.1900 0 7
8.9982 10.3065 -2.6477 0.1900 0 7
8.8312 10.4499 -2.6477 0.1900 0 7
8.6620 10.5906 -2.6477 0.1900 0 7
8.4905 10.7286 -2.6477 0.1900 0 7
8.3168 10.8638 -2.6477 0.1900 0 7
8.1410 10.9962 -2.6477 0.1900 0 7
7.9631 11.1257 -2.6477 0.1900 0 7
7.7831 11.2523 -2.6477 0.1900 0 7
7.6011 11.3761 -2.6477 0.1900 0 7
11.8314 -3.5183 -2.4953 0.1981 0 8
11.8864 -3.3275 -2.4953 0.1981 0 8
11.9384 -3.1359 -2.4953 0.1981 0 8
11.9873 -2.9434 -2.4953 0.1981 0 8
12.0331 -2.7502 -2.4953 0.1981 0 8
12.0758 -2.5563 -2.4953 0.1981 0 8
12.1153 -2.3617 -2.4953 0.1981 0 8
12.1518 -2.1666 -2.4953 0.1981 0 8
12.1850 -1.9708 -2.4953 0.1981 0 8
12.2152 -1.7746 -2.4953 0.1981 0 8
12.2421 -1.5778 -2.4953 0.1981 0 8
12.2659 -1.3807 -2.4953 0.1981 0 8
7.8889 -0.7597 -1.6022 0.3037 25 10
7.7566 -0.6212 -1.5730 0.7079 25 10
7.6855 -0.4913 -1.5568 0.9154 25 10
7.6438 -0.3653 -1.5470 0.9665 25 10
7.6248 -0.2415 -1.5422 0.9873 25 10
7.6117 -0.1186 -1.5389 0.9894 25 10
7.6052 0.0039 -1.5374 0.9976 25 10
7.6126 0.1263 -1.5391 0.9892 25 10
7.6256 0.2493 -1.5424 0.9872 25 10
7.6463 0.3732 -1.5476 0.9208 25 10
7.6890 0.4994 -1.5576 0.8781 25 10
7.7632 0.6297 -1.5745 0.7073 25 10
7.9234 0.7712 -1.6093 0.1891 25 10
12.2645 1.3932 -2.4953 0.1981 0 8
12.2405 1.5903 -2.4953 0.1981 0 8
12.2134 1.7870 -2.4953 0.1981 0 8
12.1830 1.9832 -2.4953 0.1981 0 8
12.1496 2.1789 -2.4953 0.1981 0 8
12.1129 2.3741 -2.4953 0.1981 0 8
12.0732 2.5686 -2.4953 0.1981 0 8
12.0303 2.7625 -2.4953 0.1981 0 8
11.9843 2.9556 -2.4953 0.1981 0 8
11.9352 3.1480 -2.4953 0.1981 0 8
11.8830 3.3396 -2.4953 0.1981 0 8
11.8278 3.5303 -2.4953 0.1981 0 8
11.7695 3.7201 -2.4953 0.1981 0 8
11.7081 3.9089 -2.4953 0.1981 0 8
11.6437 4.0968 -2.4953 0.1981 0 8
11.5763 4.2835 -2.4953 0.1981 0 8
11.5059 4.4692 -2.4953 0.1981 0 8
11.4325 4.6537 -2.4953 0.1981 0 8
11.3562 4.8370 -2.4953 0.1981 0 8
11.2769 5.0190 -2.4953 0.1981 0 8
11.1947 5.1998 -2.4953 0.1981 0 8
11.1096 5.3792 -2.4953 0.1981 0 8
11.0217 5.5572 -2.4953 0.1981 0 8
10.9309 5.7337 -2.4953 0.1981 0 8
10.8372 5.9088 -2.4953 0.1981 0 8
10.7408 6.0824 -2.4953 0.1981 0 8
10.6415 6.2544 -2.4953 0.1981 0 8
10.5396 6.4247 -2.4953 0.1981 0 8
10.4348 6.5934 -2.4953 0.1981 0 8
10.3274 6.7604 -2.4953 0.1981 0 8
10.2174 6.9257 -2.4953 0.1981 0 8
10.1046 7.0891 -2.4953 0.1981 0 8
9.9893 7.2507 -2.4953 0.1981 0 8
9.8714 7.4105 -2.4953 0.1981 0 8
9.7509 7.5683 -2.4953 0.1981 0 8
9.6279 7.7242 -2.4953 0.1981 0 8
9.5024 7.8780 -2.4953 0.1981 0 8
9.3745 8.0299 -2.4953 0.1981 0 8
9.2441 8.1796 -2.4953 0.1981 0 8
9.1217 8.3367 -2.4981 0.6063 0 8
8.9762 8.4727 -2.4953 0.1981 0 8
9.3786 9.1423 -2.6477 0.1981 0 7
9.2303 9.2920 -2.6477 0.1981 0 7
9.0796 9.4392 -2.6477 0.1981 0 7
8.9266 9.5840 -2.6477 0.1981 0 7
8.7713 9.7264 -2.6477 0.1981 0 7
8.6137 9.8662 -2.6477 0.1981 0 7
8.4539 10.0035 -2.6477 0.1981 0 7
8.2919 10.1382 -2.6477 0.1981 0 7
8.1278 10.2703 -2.6477 0.1981 0 7
7.9615 10.3997 -2.6477 0.1981 0 7
7.7932 10.5264 -2.6477 0.1981 0 7
7.6229 10.6504 -2.6477 0.1981 0 7
7.4506 10.7716 -2.6477 0.1981 0 7
7.2763 10.8901 -2.6477 0.1981 0 7
11.3451 -3.3737 -2.4953 0.2063 0 8
11.3979 -3.1907 -2.4953 0.2063 0 8
11.4477 -3.0070 -2.4953 0.2063 0 8
11.4946 -2.8224 -2.4953 0.2063 0 8
11.5385 -2.6372 -2.4953 0.2063 0 8
11.5794 -2.4512 -2.4953 0.2063 0 8
11.6174 -2.2647 -2.4953 0.2063 0 8
11.6523 -2.0775 -2.4953 0.2063 0 8
11.6842 -1.8898 -2.4953 0.2063 0 8
11.7131 -1.7016 -2.4953 0.2063 0 8
11.7389 -1.5130 -2.4953 0.2063 0 8
11.7618 -1.3240 -2.4953 0.2063 0 8
7.8708 -0.7580 -1.6670 0.3038 25 10
7.7210 -0.6184 -1.6330 0.7100 25 10
7.6633 -0.4899 -1.6189 0.8796 25 10
7.6257 -0.3644 -1.6095 0.9671 25 10
7.6070 -0.2409 -1.6045 0.9879 25 10
7.5966 -0.1183 -1.6017 0.9969 25 10
7.5901 0.0039 -1.6001 0.9979 25 10
7.5970 0.1261 -1.6018 0.9968 25 10
7.6078 0.2487 -1.6047 0.9878 25 10
7.6272 0.3723 -1.6099 0.9669 25 10
7.6668 0.4979 -1.6197 0.8791 25 10
7.7276 0.6268 -1.6345 0.7093 25 10
7.8947 0.7684 -1.6722 0.3029 25 10
11.7604 1.3359 -2.4953 0.2063 0 8
11.7374 1.5249 -2.4953 0.2063 0 8
11.7113 1.7135 -2.4953 0.2063 0 8
11.6823 1.9017 -2.4953 0.2063 0 8
11.6502 2.0894 -2.4953 0.2063 0 8
11.6151 2.2765 -2.4953 0.2063 0 8
11.5769 2.4630 -2.4953 0.2063 0 8
11.5358 2.6489 -2.4953 0.2063 0 8
11.4917 2.8342 -2.4953 0.2063 0 8
11.4446 3.0186 -2.4953 0.2063 0 8
11.3946 3.2023 -2.4953 0.2063 0 8
11.3416 3.3852 -2.4953 0.2063 0 8
11.2857 3.5672 -2.4953 0.2063 0 8
11.2269 3.7483 -2.4953 0.2063 0 8
11.1651 3.9284 -2.4953 0.2063 0 8
11.1005 4.1075 -2.4953 0.2063 0 8
11.0330 4.2855 -2.4953 0.2063 0 8
10.9626 4.4624 -2.4953 0.2063 0 8
10.8894 4.6382 -2.4953 0.2063 0 8
10.8134 4.8127 -2.4953 0.2063 0 8
10.7346 4.9860 -2.4953 0.2063 0 8
10.6530 5.1581 -2.4953 0.2063 0 8
10.5686 5.3287 -2.4953 0.2063 0 8
10.4816 5.4981 -2.4953 0.2063 0 8
10.3918 5.6660 -2.4953 0.2063 0 8
10.2993 5.8324 -2.4953 0.2063 0 8
10.2041 5.9973 -2.4953 0.2063 0 8
10.1063 6.1606 -2.4953 0.2063 0 8
10.0059 6.3224 -2.4953 0.2063 0 8
9.9030 6.4825 -2.4953 0.2063 0 8
9.7974 6.6410 -2.4953 0.2063 0 8
9.6893 6.7977 -2.4953 0.2063 0 8
9.5787 6.9527 -2.4953 0.2063 0 8
9.4656 7.1059 -2.4953 0.2063 0 8
9.3501 7.2572 -2.4953 0.2063 0 8
9.2322 7.4067 -2.4953 0.2063 0 8
9.1118 7.5542 -2.4953 0.2063 0 8
8.9891 7.6998 -2.4953 0.2063 0 8
8.8641 7.8434 -2.4953 0.2063 0 8
8.7368 7.9850 -2.4953 0.2063 0 8
8.6072 8.1245 -2.4953 0.2063 0 8
8.4754 8.2619 -2.4953 0.2063 0 8
8.3414 8.3972 -2.4953 0.2063 0 8
8.7064 9.0512 -2.6477 0.2063 0 7
8.5597 9.1901 -2.6477 0.2063 0 7
8.4108 9.3266 -2.6477 0.2063 0 7
8.2597 9.4607 -2.6477 0.2063 0 7
8.1064 9.5923 -2.6477 0.2063 0 7
7.9511 9.7215 -2.6477 0.2063 0 7
7.7937 9.8481 -2.6477 0.2063 0 7
7.6343 9.9722 -2.6477 0.2063 0 7
7.4729 10.0937 -2.6477 0.2063 0 7
7.3095 10.2126 -2.6477 0.2063 0 7
7.1443 10.3289 -2.6477 0.2063 0 7
6.9773 10.4424 -2.6477 0.2063 0 7
10.8956 -3.2400 -2.4953 0.2144 0 8
10.9463 -3.0643 -2.4953 0.2144 0 8
10.9942 -2.8879 -2.4953 0.2144 0 8
11.0392 -2.7106 -2.4953 0.2144 0 8
11.0814 -2.5327 -2.4953 0.2144 0 8
11.1207 -2.3541 -2.4953 0.2144 0 8
11.1571 -2.1750 -2.4953 0.2144 0 8
11.1907 -1.9952 -2.4953 0.2144 0 8
11.2213 -1.8149 -2.4953 0.2144 0 8
11.2491 -1.6342 -2.4953 0.2144 0 8
11.2739 -1.4530 -2.4953 0.2144 0 8
11.2958 -1.2715 -2.4953 0.2144 0 8
7.8527 -0.7562 -1.7318 0.3040 25 10
7.6964 -0.6164 -1.6949 0.8732 25 10
7.6411 -0.4884 -1.6808 0.8806 25 10
7.6076 -0.3635 -1.6719 0.9677 25 10
7.5893 -0.2404 -1.6668 0.9885 25 10
7.5815 -0.1181 -1.6645 0.9971 25 10
7.5750 0.0039 -1.6628 0.9981 25 10
7.5819 0.1258 -1.6646 0.9970 25 10
7.5901 0.2481 -1.6670 0.9883 25 10
7.6091 0.3714 -1.6723 0.9674 25 10
7.6446 0.4965 -1.6816 0.8801 25 10
7.6999 0.6246 -1.6958 0.8727 25 10
7.8764 0.7666 -1.7372 0.3031 25 10
11.2945 1.2830 -2.4953 0.2144 0 8
11.2724 1.4645 -2.4953 0.2144 0 8
11.2474 1.6457 -2.4953 0.2144 0 8
11.2195 1.8264 -2.4953 0.2144 0 8
11.1887 2.0066 -2.4953 0.2144 0 8
11.1549 2.1863 -2.4953 0.2144 0 8
11.1183 2.3655 -2.4953 0.2144 0 8
11.0788 2.5440 -2.4953 0.2144 0 8
11.0365 2.7219 -2.4953 0.2144 0 8
10.9913 2.8991 -2.4953 0.2144 0 8
10.9432 3.0755 -2.4953 0.2144 0 8
10.8923 3.2511 -2.4953 0.2144 0 8
10.8386 3.4259 -2.4953 0.2144 0 8
10.7821 3.5998 -2.4953 0.2144 0 8
10.7228 3.7728 -2.4953 0.2144 0 8
10.6607 3.9447 -2.4953 0.2144 0 8
10.5959 4.1157 -2.4953 0.2144 0 8
10.5283 4.2856 -2.4953 0.2144 0 8
10.4580 4.4544 -2.4953 0.2144 0 8
10.3850 4.6221 -2.4953 0.2144 0 8
10.3093 4.7885 -2.4953 0.2144 0 8
10.2310 4.9537 -2.4953 0.2144 0 8
10.1500 5.1177 -2.4953 0.2144 0 8
10.0663 5.2803 -2.4953 0.2144 0 8
9.9801 5.4415 -2.4953 0.2144 0 8
9.8913 5.6013 -2.4953 0.2144 0 8
9.7999 5.7597 -2.4953 0.2144 0 8
9.7060 5.9166 -2.4953 0.2144 0 8
9.6096 6.0720 -2.4953 0.2144 0 8
9.5107 6.2257 -2.4953 0.2144 0 8
9.4093 6.3779 -2.4953 0.2144 0 8
9.3055 6.5284 -2.4953 0.2144 0 8
9.1993 6.6773 -2.4953 0.2144 0 8
9.0907 6.8244 -2.4953 0.2144 0 8
8.9797 6.9697 -2.4953 0.2144 0 8
8.8664 7.1133 -2.4953 0.2144 0 8
8.7509 7.2550 -2.4953 0.2144 0 8
8.6330 7.3948 -2.4953 0.2144 0 8
8.5130 7.5327 -2.4953 0.2144 0 8
8.3907 7.6687 -2.4953 0.2144 0 8
8.2663 7.8026 -2.4953 0.2144 0 8
8.1397 7.9346 -2.4953 0.2144 0 8
8.0110 8.0645 -2.4953 0.2144 0 8
7.8802 8.1923 -2.4953 0.2144 0 8
7.7475 8.3180 -2.4953 0.2144 0 8
7.6127 8.4416 -2.4953 0.2144 0 8
7.9325 9.0859 -2.6477 0.2144 0 7
7.7853 9.2123 -2.6477 0.2144 0 7
7.6361 9.3364 -2.6477 0.2144 0 7
7.4849 9.4580 -2.6477 0.2144 0 7
7.3318 9.5772 -2.6477 0.2144 0 7
7.1768 9.6939 -2.6477 0.2144 0 7
7.0200 9.8080 -2.6477 0.2144 0 7
6.8613 9.9197 -2.6477 0.2144 0 7
6.7009 10.0288 -2.6477 0.2144 0 7
10.4790 -3.1161 -2.4953 0.2225 0 8
10.5278 -2.9472 -2.4953 0.2225 0 8
10.5738 -2.7774 -2.4953 0.2225 0 8
10.6171 -2.6070 -2.4953 0.2225 0 8
10.6577 -2.4359 -2.4953 0.2225 0 8
10.6955 -2.2641 -2.4953 0.2225 0 8
10.7305 -2.0918 -2.4953 0.2225 0 8
10.7628 -1.9189 -2.4953 0.2225 0 8
10.7922 -1.7455 -2.4953 0.2225 0 8
10.8189 -1.5717 -2.4953 0.2225 0 8
10.8428 -1.3975 -2.4953 0.2225 0 8
10.8639 -1.2229 -2.4953 0.2225 0 8
7.8346 -0.7545 -1.7965 0.3041 25 10
7.6739 -0.6146 -1.7571 0.8741 25 10
7.6190 -0.4870 -1.7425 0.8815 25 10
7.5895 -0.3627 -1.7342 0.9682 25 10
7.5731 -0.2399 -1.7294 0.9960 25 10
7.5663 -0.1179 -1.7272 0.9972 25 10
7.5599 0.0038 -1.7255 0.9982 25 10
7.5668 0.1256 -1.7273 0.9972 25 10
7.5735 0.2476 -1.7295 0.9959 25 10
7.5911 0.3705 -1.7347 0.9679 25 10
7.6225 0.4950 -1.7434 0.8810 25 10
7.6774 0.6228 -1.7581 0.8737 25 10
7.8582 0.7649 -1.8021 0.3032 25 10
10.8626 1.2340 -2.4953 0.2225 0 8
10.8414 1.4085 -2.4953 0.2225 0 8
10.8173 1.5827 -2.4953 0.2225 0 8
10.7905 1.7565 -2.4953 0.2225 0 8
10.7608 1.9299 -2.4953 0.2225 0 8
10.7284 2.1027 -2.4953 0.2225 0 8
10.6932 2.2750 -2.4953 0.2225 0 8
10.6552 2.4467 -2.4953 0.2225 0 8
10.6145 2.6178 -2.4953 0.2225 0 8
10.5710 2.7882 -2.4953 0.2225 0 8
10.5248 2.9579 -2.4953 0.2225 0 8
10.4758 3.1268 -2.4953 0.2225 0 8
10.4242 3.2949 -2.4953 0.2225 0 8
10.3698 3.4621 -2.4953 0.2225 0 8
10.3128 3.6285 -2.4953 0.2225 0 8
10.2531 3.7939 -2.4953 0.2225 0 8
10.1907 3.9583 -2.4953 0.2225 0 8
10.1258 4.1217 -2.4953 0.2225 0 8
10.0581 4.2841 -2.4953 0.2225 0 8
9.9879 4.4453 -2.4953 0.2225 0 8
9.9151 4.6054 -2.4953 0.2225 0 8
9.8398 4.7643 -2.4953 0.2225 0 8
9.7619 4.9220 -2.4953 0.2225 0 8
9.6814 5.0783 -2.4953 0.2225 0 8
9.5985 5.2334 -2.4953 0.2225 0 8
9.5131 5.3871 -2.4953 0.2225 0 8
9.4252 5.5395 -2.4953 0.2225 0 8
9.3348 5.6904 -2.4953 0.2225 0 8
9.2421 5.8398 -2.4953 0.2225 0 8
9.1470 5.9877 -2.4953 0.2225 0 8
9.0495 6.1340 -2.4953 0.2225 0 8
8.9496 6.2788 -2.4953 0.2225 0 8
8.8475 6.4220 -2.4953 0.2225 0 8
8.7430 6.5634 -2.4953 0.2225 0 8
8.6363 6.7032 -2.4953 0.2225 0 8
8.5274 6.8413 -2.4953 0.2225 0 8
8.4162 6.9776 -2.4953 0.2225 0 8
8.3029 7.1120 -2.4953 0.2225 0 8
8.1875 7.2447 -2.4953 0.2225 0 8
8.0699 7.3754 -2.4953 0.2225 0 8
7.9502 7.5043 -2.4953 0.2225 0 8
7.8284 7.6312 -2.4953 0.2225 0 8
7.7047 7.7561 -2.4953 0.2225 0 8
7.5789 7.8791 -2.4953 0.2225 0 8
7.4512 7.9999 -2.4953 0.2225 0 8
7.3216 8.1188 -2.4953 0.2225 0 8
7.1900 8.2355 -2.4953 0.2225 0 8
7.0566 8.3501 -2.4953 0.2225 0 8
6.9214 8.4625 -2.4953 0.2225 0 8
7.1987 9.0963 -2.6477 0.2225 0 7
7.0515 9.2109 -2.6477 0.2225 0 7
6.9024 9.3232 -2.6477 0.2225 0 7
6.7515 9.4330 -2.6477 0.2225 0 7
6.5989 9.5404 -2.6477 0.2225 0 7
6.4446 9.6453 -2.6477 0.2225 0 7
10.0916 -3.0009 -2.4953 0.2306 0 8
10.1386 -2.8382 -2.4953 0.2306 0 8
10.1829 -2.6748 -2.4953 0.2306 0 8
10.2247 -2.5106 -2.4953 0.2306 0 8
10.2637 -2.3458 -2.4953 0.2306 0 8
10.3001 -2.1804 -2.4953 0.2306 0 8
10.3339 -2.0145 -2.4953 0.2306 0 8
10.3649 -1.8480 -2.4953 0.2306 0 8
10.3933 -1.6810 -2.4953 0.2306 0 8
10.4190 -1.5136 -2.4953 0.2306 0 8
10.4420 -1.3458 -2.4953 0.2306 0 8
10.4623 -1.1777 -2.4953 0.2306 0 8
7.8512 -0.7561 -1.8694 0.2790 25 10
7.6626 -0.6137 -1.8219 0.8522 25 10
7.6074 -0.4863 -1.8067 0.8594 25 10
7.5780 -0.3621 -1.7981 0.9388 25 10
7.5624 -0.2395 -1.7932 0.9667 25 10
7.5552 -0.1177 -1.7908 0.9680 25 10
7.5501 0.0038 -1.7894 0.9299 25 10
7.5556 0.1254 -1.7910 0.9679 25 10
7.5629 0.2473 -1.7934 0.9666 25 10
7.5796 0.3699 -1.7985 0.9386 25 10
7.6109 0.4943 -1.8076 0.8590 25 10
7.6662 0.6219 -1.8229 0.8518 25 10
7.8764 0.7666 -1.8756 0.2781 25 10
10.4611 1.1883 -2.4953 0.2306 0 8
10.4406 1.3565 -2.4953 0.2306 0 8
10.4175 1.5242 -2.4953 0.2306 0 8
10.3916 1.6916 -2.4953 0.2306 0 8
10.3630 1.8585 -2.4953 0.2306 0 8
10.3318 2.0250 -2.4953 0.2306 0 8
10.2979 2.1909 -2.4953 0.2306 0 8
10.2613 2.3563 -2.4953 0.2306 0 8
10.2221 2.5210 -2.4953 0.2306 0 8
10.1802 2.6851 -2.4953 0.2306 0 8
10.1357 2.8485 -2.4953 0.2306 0 8
10.0886 3.0112 -2.4953 0.2306 0 8
10.0388 3.1731 -2.4953 0.2306 0 8
9.9865 3.3342 -2.4953 0.2306 0 8
9.9316 3.4944 -2.4953 0.2306 0 8
9.8741 3.6537 -2.4953 0.2306 0 8
9.8140 3.8120 -2.4953 0.2306 0 8
9.7514 3.9694 -2.4953 0.2306 0 8
9.6863 4.1257 -2.4953 0.2306 0 8
9.6187 4.2810 -2.4953 0.2306 0 8
9.5486 4.4352 -2.4953 0.2306 0 8
9.4760 4.5882 -2.4953 0.2306 0 8
9.4010 4.7400 -2.4953 0.2306 0 8
9.3235 4.8906 -2.4953 0.2306 0 8
9.2437 5.0400 -2.4953 0.2306 0 8
9.1614 5.1880 -2.4953 0.2306 0 8
9.0768 5.3347 -2.4953 0.2306 0 8
8.9898 5.4800 -2.4953 0.2306 0 8
8.9005 5.6239 -2.4953 0.2306 0 8
8.8089 5.7663 -2.4953 0.2306 0 8
8.7150 5.9073 -2.4953 0.2306 0 8
8.6188 6.0467 -2.4953 0.2306 0 8
8.5204 6.1846 -2.4953 0.2306 0 8
8.4199 6.3208 -2.4953 0.2306 0 8
8.3171 6.4554 -2.4953 0.2306 0 8
8.2122 6.5884 -2.4953 0.2306 0 8
8.1051 6.7196 -2.4953 0.2306 0 8
7.9960 6.8491 -2.4953 0.2306 0 8
7.8848 6.9769 -2.4953 0.2306 0 8
7.7716 7.1028 -2.4953 0.2306 0 8
7.6563 7.2269 -2.4953 0.2306 0 8
7.5391 7.3491 -2.4953 0.2306 0 8
7.4199 7.4694 -2.4953 0.2306 0 8
7.2988 7.5878 -2.4953 0.2306 0 8
7.1758 7.7042 -2.4953 0.2306 0 8
7.0509 7.8187 -2.4953 0.2306 0 8
6.9242 7.9311 -2.4953 0.2306 0 8
6.7958 8.0414 -2.4953 0.2306 0 8
6.6655 8.1497 -2.4953 0.2306 0 8
6.5336 8.2558 -2.4953 0.2306 0 8
6.3999 8.3599 -2.4953 0.2306 0 8
6.2646 8.4617 -2.4953 0.2306 0 8
6.5020 9.0843 -2.6477 0.2306 0 7
6.3550 9.1877 -2.6477 0.2306 0 7
6.2064 9.2888 -2.6477 0.2306 0 7
9.7305 -2.8935 -2.4953 0.2387 0 8
9.7758 -2.7367 -2.4953 0.2387 0 8
9.8186 -2.5791 -2.4953 0.2387 0 8
9.8588 -2.4208 -2.4953 0.2387 0 8
9.8964 -2.2619 -2.4953 0.2387 0 8
9.9315 -2.1024 -2.4953 0.2387 0 8
9.9641 -1.9424 -2.4953 0.2387 0 8
9.9940 -1.7819 -2.4953 0.2387 0 8
10.0214 -1.6209 -2.4953 0.2387 0 8
10.0462 -1.4595 -2.4953 0.2387 0 8
10.0684 -1.2977 -2.4953 0.2387 0 8
10.0879 -1.1355 -2.4953 0.2387 0 8
7.8510 -0.7561 -1.9387 0.4565 25 10
7.6685 -0.6142 -1.8910 0.7668 25 10
7.6100 -0.4864 -1.8744 0.8574 25 10
7.5790 -0.3622 -1.8650 0.9368 25 10
7.5631 -0.2395 -1.8599 0.9647 25 10
7.5567 -0.1177 -1.8577 0.9271 25 10
7.5600 0.0038 -1.8582 0.9268 25 10
7.5565 0.1254 -1.8576 0.9271 25 10
7.5636 0.2473 -1.8601 0.9646 25 10
7.5806 0.3700 -1.8655 0.9366 25 10
7.6135 0.4945 -1.8753 0.8569 25 10
7.6732 0.6224 -1.8923 0.7663 25 10
7.8654 0.7656 -1.9425 0.4556 25 10
10.0868 1.1458 -2.4953 0.2387 0 8
10.0670 1.3079 -2.4953 0.2387 0 8
10.0447 1.4697 -2.4953 0.2387 0 8
10.0197 1.6311 -2.4953 0.2387 0 8
9.9922 1.7920 -2.4953 0.2387 0 8
9.9621 1.9525 -2.4953 0.2387 0 8
9.9294 2.1125 -2.4953 0.2387 0 8
9.8941 2.2720 -2.4953 0.2387 0 8
9.8563 2.4308 -2.4953 0.2387 0 8
9.8159 2.5890 -2.4953 0.2387 0 8
9.7730 2.7466 -2.4953 0.2387 0 8
9.7276 2.9035 -2.4953 0.2387 0 8
9.6796 3.0595 -2.4953 0.2387 0 8
9.6291 3.2149 -2.4953 0.2387 0 8
9.5762 3.3693 -2.4953 0.2387 0 8
9.5208 3.5229 -2.4953 0.2387 0 8
9.4629 3.6756 -2.4953 0.2387 0 8
9.4025 3.8273 -2.4953 0.2387 0 8
9.3397 3.9781 -2.4953 0.2387 0 8
9.2745 4.1278 -2.4953 0.2387 0 8
9.2069 4.2765 -2.4953 0.2387 0 8
9.1370 4.4240 -2.4953 0.2387 0 8
9.0646 4.5704 -2.4953 0.2387 0 8
8.9899 4.7156 -2.4953 0.2387 0 8
8.9129 4.8596 -2.4953 0.2387 0 8
8.8336 5.0024 -2.4953 0.2387 0 8
8.7520 5.1438 -2.4953 0.2387 0 8
8.6681 5.2839 -2.4953 0.2387 0 8
8.5820 5.4227 -2.4953 0.2387 0 8
8.4936 5.5600 -2.4953 0.2387 0 8
8.4031 5.6959 -2.4953 0.2387 0 8
8.3104 5.8303 -2.4953 0.2387 0 8
8.2155 5.9633 -2.4953 0.2387 0 8
8.1186 6.0946 -2.4953 0.2387 0 8
8.0195 6.2244 -2.4953 0.2387 0 8
7.9183 6.3526 -2.4953 0.2387 0 8
7.8151 6.4792 -2.4953 0.2387 0 8
7.7099 6.6040 -2.4953 0.2387 0 8
7.6027 6.7272 -2.4953 0.2387 0 8
7.4935 6.8486 -2.4953 0.2387 0 8
7.3823 6.9683 -2.4953 0.2387 0 8
7.2693 7.0861 -2.4953 0.2387 0 8
7.1544 7.2021 -2.4953 0.2387 0 8
7.0376 7.3163 -2.4953 0.2387 0 8
6.9190 7.4285 -2.4953 0.2387 0 8
6.7986 7.5389 -2.4953 0.2387 0 8
6.6765 7.6473 -2.4953 0.2387 0 8
6.5526 7.7537 -2.4953 0.2387 0 8
6.4270 7.8581 -2.4953 0.2387 0 8
6.2998 7.9604 -2.4953 0.2387 0 8
6.1709 8.0607 -2.4953 0.2387 0 8
6.0405 8.1589 -2.4953 0.2387 0 8
5.9084 8.2551 -2.4953 0.2387 0 8
5.7749 8.3490 -2.4953 0.2387 0 8
5.6399 8.4408 -2.4953 0.2387 0 8
9.3930 -2.7932 -2.4953 0.2468 0 8
9.4368 -2.6417 -2.4953 0.2468 0 8
9.4780 -2.4896 -2.4953 0.2468 0 8
9.5168 -2.3368 -2.4953 0.2468 0 8
9.5532 -2.1834 -2.4953 0.2468 0 8
9.5871 -2.0295 -2.4953 0.2468 0 8
9.6185 -1.8750 -2.4953 0.2468 0 8
9.6474 -1.7201 -2.4953 0.2468 0 8
9.6738 -1.5646 -2.4953 0.2468 0 8
9.6977 -1.4088 -2.4953 0.2468 0 8
9.7191 -1.2527 -2.4953 0.2468 0 8
9.7380 -1.0962 -2.4953 0.2468 0 8
7.8467 -0.7557 -2.0073 0.4003 25 10
7.6818 -0.6152 -1.9623 0.7639 25 10
7.6126 -0.4866 -1.9424 0.8553 25 10
7.5810 -0.3623 -1.9326 0.9182 25 10
7.5637 -0.2396 -1.9269 0.9626 25 10
7.5667 -0.1179 -1.9269 0.9240 25 10
7.5700 0.0039 -1.9276 0.9237 25 10
7.5664 0.1256 -1.9269 0.9240 25 10
7.5642 0.2473 -1.9271 0.9625 25 10
7.5829 0.3701 -1.9331 0.9179 25 10
7.6161 0.4946 -1.9434 0.8549 25 10
7.6865 0.6235 -1.9637 0.7634 25 10
7.8621 0.7652 -2.0114 0.3994 25 10
9.7369 1.1061 -2.4953 0.2468 0 8
9.7179 1.2626 -2.4953 0.2468 0 8
9.6963 1.4187 -2.4953 0.2468 0 8
9.6722 1.5745 -2.4953 0.2468 0 8
9.6457 1.7299 -2.4953 0.2468 0 8
9.6166 1.8848 -2.4953 0.2468 0 8
9.5850 2.0393 -2.4953 0.2468 0 8
9.5510 2.1932 -2.4953 0.2468 0 8
9.5145 2.3465 -2.4953 0.2468 0 8
9.4755 2.4993 -2.4953 0.2468 0 8
9.4341 2.6513 -2.4953 0.2468 0 8
9.3902 2.8028 -2.4953 0.2468 0 8
9.3439 2.9534 -2.4953 0.2468 0 8
9.2952 3.1033 -2.4953 0.2468 0 8
9.2441 3.2525 -2.4953 0.2468 0 8
9.1905 3.4007 -2.4953 0.2468 0 8
9.1347 3.5481 -2.4953 0.2468 0 8
9.0764 3.6946 -2.4953 0.2468 0 8
9.0158 3.8401 -2.4953 0.2468 0 8
8.9529 3.9846 -2.4953 0.2468 0 8
8.8876 4.1281 -2.4953 0.2468 0 8
8.8201 4.2706 -2.4953 0.2468 0 8
8.7502 4.4119 -2.4953 0.2468 0 8
8.6781 4.5521 -2.4953 0.2468 0 8
8.6038 4.6911 -2.4953 0.2468 0 8
8.5272 4.8289 -2.4953 0.2468 0 8
8.4484 4.9654 -2.4953 0.2468 0 8
8.3675 5.1007 -2.4953 0.2468 0 8
8.2843 5.2346 -2.4953 0.2468 0 8
8.1991 5.3672 -2.4953 0.2468 0 8
8.1117 5.4984 -2.4953 0.2468 0 8
8.0222 5.6281 -2.4953 0.2468 0 8
7.9306 5.7564 -2.4953 0.2468 0 8
7.8370 5.8833 -2.4953 0.2468 0 8
7.7413 6.0086 -2.4953 0.2468 0 8
7.6437 6.1323 -2.4953 0.2468 0 8
7.5441 6.2545 -2.4953 0.2468 0 8
7.4425 6.3750 -2.4953 0.2468 0 8
7.3390 6.4939 -2.4953 0.2468 0 8
7.2336 6.6111 -2.4953 0.2468 0 8
7.1263 6.7266 -2.4953 0.2468 0 8
7.0172 6.8404 -2.4953 0.2468 0 8
6.9062 6.9523 -2.4953 0.2468 0 8
6.7935 7.0625 -2.4953 0.2468 0 8
6.6790 7.1709 -2.4953 0.2468 0 8
6.5628 7.2774 -2.4953 0.2468 0 8
6.4449 7.3820 -2.4953 0.2468 0 8
6.3253 7.4847 -2.4953 0.2468 0 8
6.2041 7.5855 -2.4953 0.2468 0 8
6.0813 7.6843 -2.4953 0.2468 0 8
5.9569 7.7812 -2.4953 0.2468 0 8
5.8310 7.8760 -2.4953 0.2468 0 8
5.7035 7.9687 -2.4953 0.2468 0 8
5.5746 8.0595 -2.4953 0.2468 0 8
5.4442 8.1481 -2.4953 0.2468 0 8
9.0769 -2.6992 -2.4953 0.2548 0 8
9.1191 -2.5528 -2.4953 0.2548 0 8
9.1590 -2.4058 -2.4953 0.2548 0 8
9.1965 -2.2582 -2.4953 0.2548 0 8
9.2317 -2.1099 -2.4953 0.2548 0 8
9.2644 -1.9612 -2.4953 0.2548 0 8
9.2948 -1.8119 -2.4953 0.2548 0 8
9.3227 -1.6622 -2.4953 0.2548 0 8
9.3482 -1.5120 -2.4953 0.2548 0 8
9.3713 -1.3614 -2.4953 0.2548 0 8
9.3920 -1.2105 -2.4953 0.2548 0 8
9.4103 -1.0593 -2.4953 0.2548 0 8
7.8850 -0.7594 -2.0873 0.5445 25 10
7.7038 -0.6170 -2.0365 0.7221 25 10
7.6261 -0.4875 -2.0136 0.7245 25 10
7.5901 -0.3627 -2.0023 0.8456 25 10
7.5755 -0.2399 -1.9971 0.8886 25 10
7.5792 -0.1181 -1.9974 0.8885 25 10
7.5795 0.0039 -1.9972 0.9289 25 10
7.5789 0.1258 -1.9973 0.8885 25 10
7.5752 0.2477 -1.9971 0.8886 25 10
7.5921 0.3705 -2.0029 0.8453 25 10
7.6309 0.4956 -2.0150 0.7240 25 10
7.7087 0.6253 -2.0379 0.7216 25 10
7.8957 0.7685 -2.0903 0.5437 25 10
9.4092 1.0689 -2.4953 0.2548 0 8
9.3908 1.2201 -2.4953 0.2548 0 8
9.3699 1.3710 -2.4953 0.2548 0 8
9.3467 1.5215 -2.4953 0.2548 0 8
9.3210 1.6717 -2.4953 0.2548 0 8
9.2929 1.8214 -2.4953 0.2548 0 8
9.2624 1.9706 -2.4953 0.2548 0 8
9.2295 2.1193 -2.4953 0.2548 0 8
9.1942 2.2675 -2.4953 0.2548 0 8
9.1566 2.4151 -2.4953 0.2548 0 8
9.1165 2.5621 -2.4953 0.2548 0 8
9.0741 2.7084 -2.4953 0.2548 0 8
9.0294 2.8540 -2.4953 0.2548 0 8
8.9823 2.9989 -2.4953 0.2548 0 8
8.9329 3.1430 -2.4953 0.2548 0 8
8.8812 3.2863 -2.4953 0.2548 0 8
8.8272 3.4287 -2.4953 0.2548 0 8
8.7709 3.5702 -2.4953 0.2548 0 8
8.7123 3.7109 -2.4953 0.2548 0 8
8.6515 3.8505 -2.4953 0.2548 0 8
8.5885 3.9892 -2.4953 0.2548 0 8
8.5232 4.1268 -2.4953 0.2548 0 8
8.4557 4.2634 -2.4953 0.2548 0 8
8.3860 4.3989 -2.4953 0.2548 0 8
8.3142 4.5332 -2.4953 0.2548 0 8
8.2402 4.6663 -2.4953 0.2548 0 8
8.1641 4.7983 -2.4953 0.2548 0 8
8.0858 4.9290 -2.4953 0.2548 0 8
8.0055 5.0584 -2.4953 0.2548 0 8
7.9231 5.1865 -2.4953 0.2548 0 8
7.8386 5.3133 -2.4953 0.2548 0 8
7.7522 5.4387 -2.4953 0.2548 0 8
7.6637 5.5627 -2.4953 0.2548 0 8
7.5732 5.6852 -2.4953 0.2548 0 8
7.4808 5.8063 -2.4953 0.2548 0 8
7.3864 5.9259 -2.4953 0.2548 0 8
7.2901 6.0439 -2.4953 0.2548 0 8
7.1920 6.1604 -2.4953 0.2548 0 8
7.0920 6.2753 -2.4953 0.2548 0 8
6.9901 6.3886 -2.4953 0.2548 0 8
6.8864 6.5002 -2.4953 0.2548 0 8
6.7810 6.6101 -2.4953 0.2548 0 8
6.6738 6.7183 -2.4953 0.2548 0 8
6.5648 6.8248 -2.4953 0.2548 0 8
6.4542 6.9295 -2.4953 0.2548 0 8
6.3419 7.0325 -2.4953 0.2548 0 8
6.2280 7.1336 -2.4953 0.2548 0 8
6.1124 7.2328 -2.4953 0.2548 0 8
5.9953 7.3302 -2.4953 0.2548 0 8
5.8766 7.4257 -2.4953 0.2548 0 8
5.7564 7.5193 -2.4953 0.2548 0 8
5.6347 7.6109 -2.4953 0.2548 0 8
5.5116 7.7005 -2.4953 0.2548 0 8
5.3870 7.7882 -2.4953 0.2548 0 8
5.2610 7.8738 -2.4953 0.2548 0 8
8.7801 -2.6109 -2.4953 0.2628 0 8
8.8209 -2.4693 -2.4953 0.2628 0 8
8.8595 -2.3271 -2.4953 0.2628 0 8
8.8958 -2.1843 -2.4953 0.2628 0 8
8.9298 -2.0410 -2.4953 0.2628 0 8
8.9615 -1.8970 -2.4953 0.2628 0 8
8.9908 -1.7527 -2.4953 0.2628 0 8
9.0178 -1.6078 -2.4953 0.2628 0 8
9.0425 -1.4625 -2.4953 0.2628 0 8
9.0649 -1.3169 -2.4953 0.2628 0 8
9.0849 -1.1709 -2.4953 0.2628 0 8
9.1026 -1.0246 -2.4953 0.2628 0 8
7.8978 -0.7606 -2.1614 0.5424 25 10
7.7269 -0.6189 -2.1116 0.7184 25 10
7.6494 -0.4890 -2.0880 0.7207 25 10
7.6080 -0.3635 -2.0748 0.8417 25 10
7.5914 -0.2404 -2.0690 0.8847 25 10
7.5924 -0.1183 -2.0685 0.9251 25 10
7.5879 0.0039 -2.0670 0.9258 25 10
7.5927 0.1260 -2.0686 0.9251 25 10
7.5912 0.2482 -2.0690 0.8847 25 10
7.6100 0.3714 -2.0755 0.8415 25 10
7.6543 0.4971 -2.0895 0.7202 25 10
7.7318 0.6272 -2.1131 0.7178 25 10
7.9085 0.7697 -2.1645 0.5417 25 10
9.1015 1.0339 -2.4953 0.2628 0 8
9.0837 1.1802 -2.4953 0.2628 0 8
9.0635 1.3261 -2.4953 0.2628 0 8
9.0410 1.4717 -2.4953 0.2628 0 8
9.0162 1.6170 -2.4953 0.2628 0 8
8.9890 1.7618 -2.4953 0.2628 0 8
8.9595 1.9062 -2.4953 0.2628 0 8
8.9277 2.0500 -2.4953 0.2628 0 8
8.8936 2.1934 -2.4953 0.2628 0 8
8.8571 2.3362 -2.4953 0.2628 0 8
8.8184 2.4783 -2.4953 0.2628 0 8
8.7774 2.6198 -2.4953 0.2628 0 8
8.7341 2.7607 -2.4953 0.2628 0 8
8.6886 2.9008 -2.4953 0.2628 0 8
8.6408 3.0402 -2.4953 0.2628 0 8
8.5908 3.1788 -2.4953 0.2628 0 8
8.5385 3.3166 -2.4953 0.2628 0 8
8.4841 3.4535 -2.4953 0.2628 0 8
8.4274 3.5895 -2.4953 0.2628 0 8
8.3686 3.7246 -2.4953 0.2628 0 8
8.3076 3.8587 -2.4953 0.2628 0 8
8.2445 3.9919 -2.4953 0.2628 0 8
8.1792 4.1240 -2.4953 0.2628 0 8
8.1118 4.2550 -2.4953 0.2628 0 8
8.0423 4.3849 -2.4953 0.2628 0 8
7.9707 4.5137 -2.4953 0.2628 0 8
7.8971 4.6414 -2.4953 0.2628 0 8
7.8214 4.7678 -2.4953 0.2628 0 8
7.7437 4.8930 -2.4953 0.2628 0 8
7.6640 5.0169 -2.4953 0.2628 0 8
7.5823 5.1395 -2.4953 0.2628 0 8
7.4987 5.2608 -2.4953 0.2628 0 8
7.4131 5.3808 -2.4953 0.2628 0 8
7.3256 5.4993 -2.4953 0.2628 0 8
7.2362 5.6164 -2.4953 0.2628 0 8
7.1449 5.7321 -2.4953 0.2628 0 8
7.0517 5.8463 -2.4953 0.2628 0 8
6.9568 5.9590 -2.4953 0.2628 0 8
6.8600 6.0701 -2.4953 0.2628 0 8
6.7615 6.1797 -2.4953 0.2628 0 8
6.6612 6.2876 -2.4953 0.2628 0 8
6.5592 6.3940 -2.4953 0.2628 0 8
6.4555 6.4987 -2.4953 0.2628 0 8
6.3502 6.6016 -2.4953 0.2628 0 8
6.2432 6.7029 -2.4953 0.2628 0 8
6.1345 6.8025 -2.4953 0.2628 0 8
6.0243 6.9003 -2.4953 0.2628 0 8
5.9125 6.9963 -2.4953 0.2628 0 8
5.7992 7.0905 -2.4953 0.2628 0 8
5.6844 7.1829 -2.4953 0.2628 0 8
5.5682 7.2734 -2.4953 0.2628 0 8
5.4504 7.3620 -2.4953 0.2628 0 8
5.3313 7.4487 -2.4953 0.2628 0 8
5.2108 7.5335 -2.4953 0.2628 0 8
5.0890 7.6164 -2.4953 0.2628 0 8
8.5008 -2.5279 -2.4953 0.2708 0 8
8.5404 -2.3908 -2.4953 0.2708 0 8
8.5777 -2.2531 -2.4953 0.2708 0 8
8.6129 -2.1149 -2.4953 0.2708 0 8
8.6458 -1.9760 -2.4953 0.2708 0 8
8.6764 -1.8367 -2.4953 0.2708 0 8
8.7049 -1.6969 -2.4953 0.2708 0 8
8.7310 -1.5567 -2.4953 0.2708 0 8
8.7549 -1.4160 -2.4953 0.2708 0 8
8.7766 -1.2750 -2.4953 0.2708 0 8
8.7960 -1.1337 -2.4953 0.2708 0 8
8.8131 -0.9920 -2.4953 0.2708 0 8
8.3332 -0.8025 -2.3555 0.6462 25 10
7.7502 -0.6207 -2.1876 0.7145 25 10
7.6728 -0.4905 -2.1632 0.7226 25 10
7.6292 -0.3646 -2.1490 0.8086 25 10
7.6058 -0.2409 -2.1410 0.9210 25 10
7.6009 -0.1184 -2.1388 0.9220 25 10
7.5964 0.0039 -2.1373 0.9226 25 10
7.6012 0.1262 -2.1389 0.9219 25 10
7.6061 0.2487 -2.1412 0.9210 25 10
7.6316 0.3725 -2.1498 0.8083 25 10
7.6777 0.4986 -2.1647 0.7221 25 10
7.7552 0.6291 -2.1891 0.7140 25 10
8.3334 0.8111 -2.3557 0.6462 25 10
8.8120 1.0010 -2.4953 0.2708 0 8
8.7948 1.1426 -2.4953 0.2708 0 8
8.7753 1.2840 -2.4953 0.2708 0 8
8.7535 1.4249 -2.4953 0.2708 0 8
8.7294 1.5656 -2.4953 0.2708 0 8
8.7031 1.7058 -2.4953 0.2708 0 8
8.6746 1.8455 -2.4953 0.2708 0 8
8.6438 1.9848 -2.4953 0.2708 0 8
8.6107 2.1236 -2.4953 0.2708 0 8
8.5754 2.2619 -2.4953 0.2708 0 8
8.5380 2.3995 -2.4953 0.2708 0 8
8.4982 2.5365 -2.4953 0.2708 0 8
8.4563 2.6729 -2.4953 0.2708 0 8
8.4123 2.8086 -2.4953 0.2708 0 8
8.3660 2.9435 -2.4953 0.2708 0 8
8.3176 3.0777 -2.4953 0.2708 0 8
8.2670 3.2111 -2.4953 0.2708 0 8
8.2143 3.3437 -2.4953 0.2708 0 8
8.1594 3.4754 -2.4953 0.2708 0 8
8.1025 3.6062 -2.4953 0.2708 0 8
8.0434 3.7360 -2.4953 0.2708 0 8
7.9823 3.8649 -2.4953 0.2708 0 8
7.9191 3.9928 -2.4953 0.2708 0 8
7.8538 4.1197 -2.4953 0.2708 0 8
7.7865 4.2455 -2.4953 0.2708 0 8
7.7172 4.3702 -2.4953 0.2708 0 8
7.6459 4.4938 -2.4953 0.2708 0 8
7.5727 4.6162 -2.4953 0.2708 0 8
7.4974 4.7374 -2.4953 0.2708 0 8
7.4203 4.8574 -2.4953 0.2708 0 8
7.3412 4.9761 -2.4953 0.2708 0 8
7.2602 5.0935 -2.4953 0.2708 0 8
7.1773 5.2096 -2.4953 0.2708 0 8
7.0926 5.3244 -2.4953 0.2708 0 8
7.0060 5.4378 -2.4953 0.2708 0 8
6.9176 5.5498 -2.4953 0.2708 0 8
6.8275 5.6604 -2.4953 0.2708 0 8
6.7355 5.7695 -2.4953 0.2708 0 8
6.6419 5.8771 -2.4953 0.2708 0 8
6.5465 5.9831 -2.4953 0.2708 0 8
6.4494 6.0877 -2.4953 0.2708 0 8
6.3506 6.1906 -2.4953 0.2708 0 8
6.2502 6.2920 -2.4953 0.2708 0 8
6.1482 6.3917 -2.4953 0.2708 0 8
6.0446 6.4898 -2.4953 0.2708 0 8
5.9394 6.5861 -2.4953 0.2708 0 8
5.8327 6.6808 -2.4953 0.2708 0 8
5.7245 6.7738 -2.4953 0.2708 0 8
5.6148 6.8650 -2.4953 0.2708 0 8
5.5037 6.9544 -2.4953 0.2708 0 8
5.3911 7.0421 -2.4953 0.2708 0 8
5.2771 7.1279 -2.4953 0.2708 0 8
5.1618 7.2118 -2.4953 0.2708 0 8
5.0451 7.2939 -2.4953 0.2708 0 8
4.9271 7.3741 -2.4953 0.2708 0 8
8.2376 -2.4496 -2.4953 0.2788 0 8
8.2759 -2.3168 -2.4953 0.2788 0 8
8.3121 -2.1834 -2.4953 0.2788 0 8
8.3462 -2.0494 -2.4953 0.2788 0 8
8.3781 -1.9149 -2.4953 0.2788 0 8
8.4078 -1.7798 -2.4953 0.2788 0 8
8.4353 -1.6444 -2.4953 0.2788 0 8
8.4607 -1.5085 -2.4953 0.2788 0 8
8.4839 -1.3722 -2.4953 0.2788 0 8
8.5048 -1.2355 -2.4953 0.2788 0 8
8.5236 -1.0986 -2.4953 0.2788 0 8
8.5402 -0.9613 -2.4953 0.2788 0 8
8.5545 -0.8238 -2.4953 0.2788 0 8
8.5667 -0.6861 -2.4953 0.2788 0 8
8.5766 -0.5482 -2.4953 0.2788 0 8
8.5843 -0.4102 -2.4953 0.2788 0 8
8.5898 -0.2721 -2.4953 0.2788 0 8
8.5931 -0.1339 -2.4953 0.2788 0 8
8.5941 0.0044 -2.4953 0.2788 0 8
8.5929 0.1426 -2.4953 0.2788 0 8
8.5895 0.2808 -2.4953 0.2788 0 8
8.5839 0.4189 -2.4953 0.2788 0 8
8.5760 0.5570 -2.4953 0.2788 0 8
8.4687 0.6870 -2.4669 0.2999 25 10
8.5537 0.8325 -2.4953 0.2788 0 8
8.5392 0.9700 -2.4953 0.2788 0 8
8.5225 1.1073 -2.4953 0.2788 0 8
8.5036 1.2442 -2.4953 0.2788 0 8
8.4825 1.3808 -2.4953 0.2788 0 8
8.4591 1.5171 -2.4953 0.2788 0 8
8.4336 1.6530 -2.4953 0.2788 0 8
8.4060 1.7884 -2.4953 0.2788 0 8
8.3761 1.9234 -2.4953 0.2788 0 8
8.3441 2.0579 -2.4953 0.2788 0 8
8.3099 2.1918 -2.4953 0.2788 0 8
8.2736 2.3252 -2.4953 0.2788 0 8
8.2351 2.4580 -2.4953 0.2788 0 8
8.1945 2.5901 -2.4953 0.2788 0 8
8.1518 2.7216 -2.4953 0.2788 0 8
8.1069 2.8524 -2.4953 0.2788 0 8
8.0600 2.9824 -2.4953 0.2788 0 8
8.0110 3.1117 -2.4953 0.2788 0 8
7.9599 3.2401 -2.4953 0.2788 0 8
7.9068 3.3677 -2.4953 0.2788 0 8
7.8516 3.4945 -2.4953 0.2788 0 8
7.7943 3.6203 -2.4953 0.2788 0 8
7.7351 3.7452 -2.4953 0.2788 0 8
7.6739 3.8692 -2.4953 0.2788 0 8
7.6106 3.9921 -2.4953 0.2788 0 8
7.5454 4.1140 -2.4953 0.2788 0 8
7.4783 4.2349 -2.4953 0.2788 0 8
7.4092 4.3546 -2.4953 0.2788 0 8
7.3382 4.4732 -2.4953 0.2788 0 8
7.2653 4.5907 -2.4953 0.2788 0 8
7.1905 4.7070 -2.4953 0.2788 0 8
7.1139 4.8220 -2.4953 0.2788 0 8
7.0354 4.9358 -2.4953 0.2788 0 8
6.9551 5.0483 -2.4953 0.2788 0 8
6.8730 5.1596 -2.4953 0.2788 0 8
6.7891 5.2694 -2.4953 0.2788 0 8
6.7034 5.3780 -2.4953 0.2788 0 8
6.6161 5.4851 -2.4953 0.2788 0 8
6.5270 5.5908 -2.4953 0.2788 0 8
6.4362 5.6951 -2.4953 0.2788 0 8
6.3438 5.7979 -2.4953 0.2788 0 8
6.2497 5.8992 -2.4953 0.2788 0 8
6.1540 5.9989 -2.4953 0.2788 0 8
6.0567 6.0971 -2.4953 0.2788 0 8
5.9578 6.1938 -2.4953 0.2788 0 8
5.8574 6.2888 -2.4953 0.2788 0 8
5.7555 6.3822 -2.4953 0.2788 0 8
5.6521 6.4740 -2.4953 0.2788 0 8
5.5473 6.5640 -2.4953 0.2788 0 8
5.4409 6.6524 -2.4953 0.2788 0 8
5.3332 6.7391 -2.4953 0.2788 0 8
5.2241 6.8240 -2.4953 0.2788 0 8
5.1137 6.9072 -2.4953 0.2788 0 8
5.0019 6.9885 -2.4953 0.2788 0 8
4.8889 7.0681 -2.4953 0.2788 0 8
4.7746 7.1458 -2.4953 0.2788 0 8
7.9890 -2.3757 -2.4953 0.2868 0 8
8.0262 -2.2469 -2.4953 0.2868 0 8
8.0613 -2.1175 -2.4953 0.2868 0 8
8.0943 -1.9875 -2.4953 0.2868 0 8
8.1253 -1.8571 -2.4953 0.2868 0 8
8.1541 -1.7261 -2.4953 0.2868 0 8
8.1808 -1.5947 -2.4953 0.2868 0 8
8.2054 -1.4630 -2.4953 0.2868 0 8
8.2279 -1.3308 -2.4953 0.2868 0 8
8.2482 -1.1983 -2.4953 0.2868 0 8
8.2664 -1.0654 -2.4953 0.2868 0 8
8.2825 -0.9323 -2.4953 0.2868 0 8
8.2964 -0.7990 -2.4953 0.2868 0 8
8.3082 -0.6654 -2.4953 0.2868 0 8
8.3178 -0.5317 -2.4953 0.2868 0 8
8.3253 -0.3978 -2.4953 0.2868 0 8
8.3306 -0.2639 -2.4953 0.2868 0 8
8.3338 -0.1298 -2.4953 0.2868 0 8
8.3348 0.0042 -2.4953 0.2868 0 8
8.3336 0.1383 -2.4953 0.2868 0 8
8.3303 0.2723 -2.4953 0.2868 0 8
8.3249 0.4063 -2.4953 0.2868 0 8
8.3173 0.5402 -2.4953 0.2868 0 8
8.3075 0.6739 -2.4953 0.2868 0 8
8.2956 0.8074 -2.4953 0.2868 0 8
8.2815 0.9408 -2.4953 0.2868 0 8
8.2653 1.0738 -2.4953 0.2868 0 8
8.2470 1.2067 -2.4953 0.2868 0 8
8.2265 1.3392 -2.4953 0.2868 0 8
8.2039 1.4713 -2.4953 0.2868 0 8
8.1792 1.6031 -2.4953 0.2868 0 8
8.1523 1.7344 -2.4953 0.2868 0 8
8.1234 1.8653 -2.4953 0.2868 0 8
8.0923 1.9958 -2.4953 0.2868 0 8
8.0592 2.1257 -2.4953 0.2868 0 8
8.0239 2.2550 -2.4953 0.2868 0 8
7.9866 2.3838 -2.4953 0.2868 0 8
7.9472 2.5120 -2.4953 0.2868 0 8
7.9058 2.6395 -2.4953 0.2868 0 8
7.8623 2.7663 -2.4953 0.2868 0 8
7.8168 2.8924 -2.4953 0.2868 0 8
7.7693 3.0178 -2.4953 0.2868 0 8
7.7197 3.1424 -2.4953 0.2868 0 8
7.6682 3.2661 -2.4953 0.2868 0 8
7.6147 3.3891 -2.4953 0.2868 0 8
7.5592 3.5111 -2.4953 0.2868 0 8
7.5017 3.6322 -2.4953 0.2868 0 8
7.4423 3.7524 -2.4953 0.2868 0 8
7.3810 3.8717 -2.4953 0.2868 0 8
7.3177 3.9899 -2.4953 0.2868 0 8
7.2526 4.1071 -2.4953 0.2868 0 8
7.1856 4.2232 -2.4953 0.2868 0 8
7.1168 4.3382 -2.4953 0.2868 0 8
7.0461 4.4522 -2.4953 0.2868 0 8
6.9735 4.5649 -2.4953 0.2868 0 8
6.8992 4.6765 -2.4953 0.2868 0 8
6.8231 4.7869 -2.4953 0.2868 0 8
6.7452 4.8960 -2.4953 0.2868 0 8
6.6656 5.0039 -2.4953 0.2868 0 8
6.5842 5.1104 -2.4953 0.2868 0 8
6.5012 5.2157 -2.4953 0.2868 0 8
6.4164 5.3196 -2.4953 0.2868 0 8
6.3300 5.4221 -2.4953 0.2868 0 8
6.2420 5.5232 -2.4953 0.2868 0 8
6.1523 5.6229 -2.4953 0.2868 0 8
6.0611 5.7212 -2.4953 0.2868 0 8
5.9683 5.8179 -2.4953 0.2868 0 8
5.8739 5.9132 -2.4953 0.2868 0 8
5.7781 6.0069 -2.4953 0.2868 0 8
5.6807 6.0990 -2.4953 0.2868 0 8
5.5819 6.1896 -2.4953 0.2868 0 8
5.4816 6.2786 -2.4953 0.2868 0 8
5.3799 6.3660 -2.4953 0.2868 0 8
5.2768 6.4517 -2.4953 0.2868 0 8
5.1723 6.5357 -2.4953 0.2868 0 8
5.0665 6.6181 -2.4953 0.2868 0 8
4.9594 6.6987 -2.4953 0.2868 0 8
4.8510 6.7776 -2.4953 0.2868 0 8
4.7414 6.8548 -2.4953 0.2868 0 8
4.6305 6.9302 -2.4953 0.2868 0 8
7.7539 -2.3058 -2.4953 0.2948 0 8
7.7900 -2.1807 -2.4953 0.2948 0 8
7.8241 -2.0552 -2.4953 0.2948 0 8
7.8561 -1.9290 -2.4953 0.2948 0 8
7.8861 -1.8024 -2.4953 0.2948 0 8
7.9141 -1.6753 -2.4953 0.2948 0 8
7.9400 -1.5478 -2.4953 0.2948 0 8
7.9639 -1.4199 -2.4953 0.2948 0 8
7.9857 -1.2916 -2.4953 0.2948 0 8
8.0054 -1.1630 -2.4953 0.2948 0 8
8.0231 -1.0341 -2.4953 0.2948 0 8
8.0387 -0.9049 -2.4953 0.2948 0 8
8.0522 -0.7755 -2.4953 0.2948 0 8
8.0636 -0.6458 -2.4953 0.2948 0 8
8.0730 -0.5160 -2.4953 0.2948 0 8
8.0803 -0.3861 -2.4953 0.2948 0 8
8.0854 -0.2561 -2.4953 0.2948 0 8
8.0885 -0.1260 -2.4953 0.2948 0 8
8.0895 0.0041 -2.4953 0.2948 0 8
8.0884 0.1342 -2.4953 0.2948 0 8
8.0852 0.2643 -2.4953 0.2948 0 8
8.0799 0.3943 -2.4953 0.2948 0 8
8.0725 0.5243 -2.4953 0.2948 0 8
8.0630 0.6540 -2.4953 0.2948 0 8
8.0514 0.7837 -2.4953 0.2948 0 8
8.0378 0.9131 -2.4953 0.2948 0 8
8.0220 1.0422 -2.4953 0.2948 0 8
8.0042 1.1711 -2.4953 0.2948 0 8
7.9844 1.2997 -2.4953 0.2948 0 8
7.9624 1.4280 -2.4953 0.2948 0 8
7.9384 1.5559 -2.4953 0.2948 0 8
7.9124 1.6834 -2.4953 0.2948 0 8
7.8843 1.8104 -2.4953 0.2948 0 8
7.8541 1.9370 -2.4953 0.2948 0 8
7.8220 2.0631 -2.4953 0.2948 0 8
7.7878 2.1887 -2.4953 0.2948 0 8
7.7516 2.3137 -2.4953 0.2948 0 8
7.7133 2.4380 -2.4953 0.2948 0 8
7.6731 2.5618 -2.4953 0.2948 0 8
7.6309 2.6849 -2.4953 0.2948 0 8
7.5867 2.8073 -2.4953 0.2948 0 8
7.5406 2.9290 -2.4953 0.2948 0 8
7.4925 3.0499 -2.4953 0.2948 0 8
7.4425 3.1700 -2.4953 0.2948 0 8
7.3905 3.2893 -2.4953 0.2948 0 8
7.3367 3.4078 -2.4953 0.2948 0 8
7.2809 3.5253 -2.4953 0.2948 0 8
7.2233 3.6420 -2.4953 0.2948 0 8
7.1637 3.7577 -2.4953 0.2948 0 8
7.1024 3.8725 -2.4953 0.2948 0 8
7.0392 3.9862 -2.4953 0.2948 0 8
6.9741 4.0989 -2.4953 0.2948 0 8
6.9073 4.2106 -2.4953 0.2948 0 8
6.8387 4.3211 -2.4953 0.2948 0 8
6.7683 4.4306 -2.4953 0.2948 0 8
6.6961 4.5389 -2.4953 0.2948 0 8
6.6223 4.6460 -2.4953 0.2948 0 8
6.5467 4.7519 -2.4953 0.2948 0 8
6.4694 4.8566 -2.4953 0.2948 0 8
6.3904 4.9600 -2.4953 0.2948 0 8
6.3098 5.0622 -2.4953 0.2948 0 8
6.2276 5.1630 -2.4953 0.2948 0 8
6.1437 5.2625 -2.4953 0.2948 0 8
6.0583 5.3607 -2.4953 0.2948 0 8
5.9713 5.4574 -2.4953 0.2948 0 8
5.8827 5.5528 -2.4953 0.2948 0 8
5.7926 5.6467 -2.4953 0.2948 0 8
5.7011 5.7391 -2.4953 0.2948 0 8
5.6080 5.8301 -2.4953 0.2948 0 8
5.5135 5.9195 -2.4953 0.2948 0 8
5.4176 6.0075 -2.4953 0.2948 0 8
5.3202 6.0938 -2.4953 0.2948 0 8
5.2215 6.1786 -2.4953 0.2948 0 8
5.1215 6.2618 -2.4953 0.2948 0 8
5.0201 6.3434 -2.4953 0.2948 0 8
4.9174 6.4233 -2.4953 0.2948 0 8
4.8134 6.5016 -2.4953 0.2948 0 8
4.7082 6.5782 -2.4953 0.2948 0 8
4.6018 6.6530 -2.4953 0.2948 0 8
4.4942 6.7262 -2.4953 0.2948 0 8
7.5311 -2.2395 -2.4953 0.3027 0 8
7.5662 -2.1181 -2.4953 0.3027 0 8
7.5992 -1.9961 -2.4953 0.3027 0 8
7.6304 -1.8736 -2.4953 0.3027 0 8
7.6595 -1.7506 -2.4953 0.3027 0 8
7.6867 -1.6272 -2.4953 0.3027 0 8
7.7119 -1.5033 -2.4953 0.3027 0 8
7.7351 -1.3791 -2.4953 0.3027 0 8
7.7562 -1.2545 -2.4953 0.3027 0 8
7.7754 -1.1296 -2.4953 0.3027 0 8
7.7926 -1.0044 -2.4953 0.3027 0 8
7.8077 -0.8789 -2.4953 0.3027 0 8
7.8208 -0.7532 -2.4953 0.3027 0 8
7.8319 -0.6273 -2.4953 0.3027 0 8
7.8410 -0.5012 -2.4953 0.3027 0 8
7.8481 -0.3750 -2.4953 0.3027 0 8
7.8531 -0.2487 -2.4953 0.3027 0 8
7.8561 -0.1224 -2.4953 0.3027 0 8
7.8570 0.0040 -2.4953 0.3027 0 8
7.8559 0.1304 -2.4953 0.3027 0 8
7.8528 0.2567 -2.4953 0.3027 0 8
7.8477 0.3830 -2.4953 0.3027 0 8
7.8405 0.5092 -2.4953 0.3027 0 8
7.8313 0.6353 -2.4953 0.3027 0 8
7.8201 0.7611 -2.4953 0.3027 0 8
7.8068 0.8868 -2.4953 0.3027 0 8
7.7915 1.0123 -2.4953 0.3027 0 8
7.7743 1.1375 -2.4953 0.3027 0 8
7.7550 1.2624 -2.4953 0.3027 0 8
7.7336 1.3870 -2.4953 0.3027 0 8
7.7103 1.5112 -2.4953 0.3027 0 8
7.6850 1.6350 -2.4953 0.3027 0 8
7.6577 1.7584 -2.4953 0.3027 0 8
7.6285 1.8814 -2.4953 0.3027 0 8
7.5972 2.0038 -2.4953 0.3027 0 8
7.5640 2.1258 -2.4953 0.3027 0 8
7.5288 2.2472 -2.4953 0.3027 0 8
7.4917 2.3680 -2.4953 0.3027 0 8
7.4526 2.4882 -2.4953 0.3027 0 8
7.4117 2.6077 -2.4953 0.3027 0 8
7.3687 2.7266 -2.4953 0.3027 0 8
7.3239 2.8448 -2.4953 0.3027 0 8
7.2772 2.9622 -2.4953 0.3027 0 8
7.2286 3.0789 -2.4953 0.3027 0 8
7.1782 3.1948 -2.4953 0.3027 0 8
7.1259 3.3098 -2.4953 0.3027 0 8
7.0717 3.4240 -2.4953 0.3027 0 8
7.0157 3.5373 -2.4953 0.3027 0 8
6.9579 3.6497 -2.4953 0.3027 0 8
6.8983 3.7612 -2.4953 0.3027 0 8
6.8369 3.8717 -2.4953 0.3027 0 8
6.7737 3.9811 -2.4953 0.3027 0 8
6.7088 4.0896 -2.4953 0.3027 0 8
6.6422 4.1970 -2.4953 0.3027 0 8
6.5738 4.3033 -2.4953 0.3027 0 8
6.5037 4.4084 -2.4953 0.3027 0 8
6.4320 4.5125 -2.4953 0.3027 0 8
6.3586 4.6154 -2.4953 0.3027 0 8
6.2835 4.7170 -2.4953 0.3027 0 8
6.2068 4.8175 -2.4953 0.3027 0 8
6.1285 4.9167 -2.4953 0.3027 0 8
6.0486 5.0147 -2.4953 0.3027 0 8
5.9672 5.1113 -2.4953 0.3027 0 8
5.8842 5.2066 -2.4953 0.3027 0 8
5.7997 5.3006 -2.4953 0.3027 0 8
5.7137 5.3932 -2.4953 0.3027 0 8
5.6262 5.4844 -2.4953 0.3027 0 8
5.5372 5.5742 -2.4953 0.3027 0 8
5.4469 5.6626 -2.4953 0.3027 0 8
5.3551 5.7494 -2.4953 0.3027 0 8
5.2619 5.8348 -2.4953 0.3027 0 8
5.1674 5.9187 -2.4953 0.3027 0 8
5.0715 6.0011 -2.4953 0.3027 0 8
4.9743 6.0819 -2.4953 0.3027 0 8
4.8758 6.1611 -2.4953 0.3027 0 8
4.7761 6.2387 -2.4953 0.3027 0 8
4.6751 6.3148 -2.4953 0.3027 0 8
4.5729 6.3891 -2.4953 0.3027 0 8
4.4696 6.4619 -2.4953 0.3027 0 8
4.3651 6.5329 -2.4953 0.3027 0 8
7.3197 -2.1766 -2.4953 0.3106 0 8
7.3537 -2.0586 -2.4953 0.3106 0 8
7.3859 -1.9401 -2.4953 0.3106 0 8
7.4161 -1.8210 -2.4953 0.3106 0 8
7.4445 -1.7015 -2.4953 0.3106 0 8
7.4709 -1.5815 -2.4953 0.3106 0 8
7.4954 -1.4611 -2.4953 0.3106 0 8
7.5179 -1.3404 -2.4953 0.3106 0 8
7.5385 -1.2193 -2.4953 0.3106 0 8
7.5571 -1.0979 -2.4953 0.3106 0 8
7.5738 -0.9762 -2.4953 0.3106 0 8
7.5885 -0.8542 -2.4953 0.3106 0 8
7.6013 -0.7320 -2.4953 0.3106 0 8
7.6121 -0.6097 -2.4953 0.3106 0 8
7.6209 -0.4871 -2.4953 0.3106 0 8
7.6277 -0.3645 -2.4953 0.3106 0 8
7.6326 -0.2418 -2.4953 0.3106 0 8
7.6355 -0.1189 -2.4953 0.3106 0 8
7.6364 0.0039 -2.4953 0.3106 0 8
7.6354 0.1267 -2.4953 0.3106 0 8
7.6324 0.2495 -2.4953 0.3106 0 8
7.6274 0.3723 -2.4953 0.3106 0 8
7.6204 0.4949 -2.4953 0.3106 0 8
7.6114 0.6174 -2.4953 0.3106 0 8
7.6005 0.7398 -2.4953 0.3106 0 8
7.5876 0.8619 -2.4953 0.3106 0 8
7.5728 0.9839 -2.4953 0.3106 0 8
7.5560 1.1056 -2.4953 0.3106 0 8
7.5372 1.2270 -2.4953 0.3106 0 8
7.5165 1.3480 -2.4953 0.3106 0 8
7.4939 1.4688 -2.4953 0.3106 0 8
7.4693 1.5891 -2.4953 0.3106 0 8
7.4427 1.7091 -2.4953 0.3106 0 8
7.4143 1.8286 -2.4953 0.3106 0 8
7.3839 1.9476 -2.4953 0.3106 0 8
7.3516 2.0661 -2.4953 0.3106 0 8
7.3174 2.1841 -2.4953 0.3106 0 8
7.2814 2.3015 -2.4953 0.3106 0 8
7.2434 2.4183 -2.4953 0.3106 0 8
7.2036 2.5345 -2.4953 0.3106 0 8
7.1619 2.6501 -2.4953 0.3106 0 8
7.1183 2.7649 -2.4953 0.3106 0 8
7.0729 2.8791 -2.4953 0.3106 0 8
7.0257 2.9925 -2.4953 0.3106 0 8
6.9766 3.1051 -2.4953 0.3106 0 8
6.9258 3.2169 -2.4953 0.3106 0 8
6.8732 3.3279 -2.4953 0.3106 0 8
6.8187 3.4380 -2.4953 0.3106 0 8
6.7626 3.5473 -2.4953 0.3106 0 8
6.7046 3.6556 -2.4953 0.3106 0 8
6.6449 3.7630 -2.4953 0.3106 0 8
6.5836 3.8694 -2.4953 0.3106 0 8
6.5205 3.9748 -2.4953 0.3106 0 8
6.4557 4.0791 -2.4953 0.3106 0 8
6.3892 4.1824 -2.4953 0.3106 0 8
6.3211 4.2847 -2.4953 0.3106 0 8
6.2514 4.3858 -2.4953 0.3106 0 8
6.1800 4.4858 -2.4953 0.3106 0 8
6.1071 4.5846 -2.4953 0.3106 0 8
6.0326 4.6823 -2.4953 0.3106 0 8
5.9565 4.7787 -2.4953 0.3106 0 8
5.8788 4.8739 -2.4953 0.3106 0 8
5.7997 4.9678 -2.4953 0.3106 0 8
5.7190 5.0605 -2.4953 0.3106 0 8
5.6369 5.1518 -2.4953 0.3106 0 8
5.5533 5.2418 -2.4953 0.3106 0 8
5.4682 5.3304 -2.4953 0.3106 0 8
5.3818 5.4177 -2.4953 0.3106 0 8
5.2939 5.5036 -2.4953 0.3106 0 8
5.2047 5.5880 -2.4953 0.3106 0 8
5.1142 5.6710 -2.4953 0.3106 0 8
5.0223 5.7526 -2.4953 0.3106 0 8
4.9291 5.8326 -2.4953 0.3106 0 8
4.8346 5.9111 -2.4953 0.3106 0 8
4.7389 5.9881 -2.4953 0.3106 0 8
4.6420 6.0636 -2.4953 0.3106 0 8
4.5439 6.1375 -2.4953 0.3106 0 8
4.4446 6.2098 -2.4953 0.3106 0 8
4.3441 6.2805 -2.4953 0.3106 0 8
4.2425 6.3495 -2.4953 0.3106 0 8
7.1187 -2.1169 -2.4953 0.3185 0 8
7.1518 -2.0021 -2.4953 0.3185 0 8
7.1831 -1.8868 -2.4953 0.3185 0 8
7.2125 -1.7710 -2.4953 0.3185 0 8
7.2401 -1.6548 -2.4953 0.3185 0 8
7.2658 -1.5381 -2.4953 0.3185 0 8
7.2896 -1.4210 -2.4953 0.3185 0 8
7.3115 -1.3036 -2.4953 0.3185 0 8
7.3315 -1.1858 -2.4953 0.3185 0 8
7.3496 -1.0677 -2.4953 0.3185 0 8
7.3659 -0.9494 -2.4953 0.3185 0 8
7.3802 -0.8308 -2.4953 0.3185 0 8
7.3926 -0.7119 -2.4953 0.3185 0 8
7.4031 -0.5929 -2.4953 0.3185 0 8
7.4117 -0.4738 -2.4953 0.3185 0 8
7.4183 -0.3545 -2.4953 0.3185 0 8
7.4231 -0.2351 -2.4953 0.3185 0 8
7.4259 -0.1157 -2.4953 0.3185 0 8
7.4268 0.0038 -2.4953 0.3185 0 8
7.4258 0.1232 -2.4953 0.3185 0 8
7.4228 0.2427 -2.4953 0.3185 0 8
7.4180 0.3620 -2.4953 0.3185 0 8
7.4112 0.4813 -2.4953 0.3185 0 8
7.4025 0.6005 -2.4953 0.3185 0 8
7.3919 0.7195 -2.4953 0.3185 0 8
7.3793 0.8383 -2.4953 0.3185 0 8
7.3649 0.9569 -2.4953 0.3185 0 8
7.3486 1.0752 -2.4953 0.3185 0 8
7.3303 1.1933 -2.4953 0.3185 0 8
7.3102 1.3110 -2.4953 0.3185 0 8
7.2881 1.4284 -2.4953 0.3185 0 8
7.2642 1.5455 -2.4953 0.3185 0 8
7.2384 1.6621 -2.4953 0.3185 0 8
7.2107 1.7784 -2.4953 0.3185 0 8
7.1812 1.8941 -2.4953 0.3185 0 8
7.1498 2.0094 -2.4953 0.3185 0 8
7.1166 2.1241 -2.4953 0.3185 0 8
7.0815 2.2383 -2.4953 0.3185 0 8
7.0446 2.3519 -2.4953 0.3185 0 8
7.0058 2.4649 -2.4953 0.3185 0 8
6.9653 2.5773 -2.4953 0.3185 0 8
6.9229 2.6890 -2.4953 0.3185 0 8
6.8787 2.8000 -2.4953 0.3185 0 8
6.8328 2.9103 -2.4953 0.3185 0 8
6.7851 3.0199 -2.4953 0.3185 0 8
6.7357 3.1286 -2.4953 0.3185 0 8
6.6845 3.2365 -2.4953 0.3185 0 8
6.6315 3.3436 -2.4953 0.3185 0 8
6.5769 3.4499 -2.4953 0.3185 0 8
6.5206 3.5552 -2.4953 0.3185 0 8
6.4625 3.6597 -2.4953 0.3185 0 8
6.4028 3.7631 -2.4953 0.3185 0 8
6.3415 3.8656 -2.4953 0.3185 0 8
6.2785 3.9671 -2.4953 0.3185 0 8
6.2138 4.0676 -2.4953 0.3185 0 8
6.1476 4.1670 -2.4953 0.3185 0 8
6.0798 4.2654 -2.4953 0.3185 0 8
6.0104 4.3626 -2.4953 0.3185 0 8
5.9394 4.4588 -2.4953 0.3185 0 8
5.8669 4.5537 -2.4953 0.3185 0 8
5.7929 4.6475 -2.4953 0.3185 0 8
5.7174 4.7401 -2.4953 0.3185 0 8
5.6404 4.8314 -2.4953 0.3185 0 8
5.5620 4.9215 -2.4953 0.3185 0 8
5.4821 5.0104 -2.4953 0.3185 0 8
5.4008 5.0979 -2.4953 0.3185 0 8
5.3181 5.1841 -2.4953 0.3185 0 8
5.2340 5.2690 -2.4953 0.3185 0 8
5.1486 5.3525 -2.4953 0.3185 0 8
5.0618 5.4346 -2.4953 0.3185 0 8
4.9738 5.5153 -2.4953 0.3185 0 8
4.8844 5.5946 -2.4953 0.3185 0 8
4.7938 5.6725 -2.4953 0.3185 0 8
4.7019 5.7489 -2.4953 0.3185 0 8
4.6088 5.8237 -2.4953 0.3185 0 8
4.5146 5.8971 -2.4953 0.3185 0 8
4.4191 5.9690 -2.4953 0.3185 0 8
4.3225 6.0393 -2.4953 0.3185 0 8
4.2248 6.1080 -2.4953 0.3185 0 8
4.1260 6.1752 -2.4953 0.3185 0 8
6.9275 -2.0600 -2.4953 0.3264 0 8
6.9597 -1.9483 -2.4953 0.3264 0 8
6.9902 -1.8361 -2.4953 0.3264 0 8
7.0188 -1.7234 -2.4953 0.3264 0 8
7.0456 -1.6103 -2.4953 0.3264 0 8
7.0706 -1.4968 -2.4953 0.3264 0 8
7.0937 -1.3828 -2.4953 0.3264 0 8
7.1151 -1.2686 -2.4953 0.3264 0 8
7.1346 -1.1539 -2.4953 0.3264 0 8
7.1522 -1.0390 -2.4953 0.3264 0 8
7.1680 -0.9239 -2.4953 0.3264 0 8
7.1819 -0.8084 -2.4953 0.3264 0 8
7.1940 -0.6928 -2.4953 0.3264 0 8
7.2042 -0.5770 -2.4953 0.3264 0 8
7.2126 -0.4610 -2.4953 0.3264 0 8
7.2190 -0.3450 -2.4953 0.3264 0 8
7.2237 -0.2288 -2.4953 0.3264 0 8
7.2264 -0.1126 -2.4953 0.3264 0 8
7.2273 0.0037 -2.4953 0.3264 0 8
7.2263 0.1199 -2.4953 0.3264 0 8
7.2234 0.2362 -2.4953 0.3264 0 8
7.2187 0.3523 -2.4953 0.3264 0 8
7.2121 0.4684 -2.4953 0.3264 0 8
7.2036 0.5843 -2.4953 0.3264 0 8
7.1933 0.7001 -2.4953 0.3264 0 8
7.1811 0.8157 -2.4953 0.3264 0 8
7.1670 0.9312 -2.4953 0.3264 0 8
7.1511 1.0463 -2.4953 0.3264 0 8
7.1334 1.1612 -2.4953 0.3264 0 8
7.1138 1.2758 -2.4953 0.3264 0 8
7.0923 1.3901 -2.4953 0.3264 0 8
7.0691 1.5040 -2.4953 0.3264 0 8
7.0440 1.6175 -2.4953 0.3264 0 8
7.0170 1.7306 -2.4953 0.3264 0 8
6.9883 1.8432 -2.4953 0.3264 0 8
6.9577 1.9554 -2.4953 0.3264 0 8
6.9254 2.0671 -2.4953 0.3264 0 8
6.8912 2.1782 -2.4953 0.3264 0 8
6.8553 2.2888 -2.4953 0.3264 0 8
6.8176 2.3987 -2.4953 0.3264 0 8
6.7781 2.5081 -2.4953 0.3264 0 8
6.7369 2.6168 -2.4953 0.3264 0 8
6.6939 2.7248 -2.4953 0.3264 0 8
6.6493 2.8321 -2.4953 0.3264 0 8
6.6028 2.9387 -2.4953 0.3264 0 8
6.5547 3.0445 -2.4953 0.3264 0 8
6.5049 3.1496 -2.4953 0.3264 0 8
6.4534 3.2538 -2.4953 0.3264 0 8
6.4002 3.3572 -2.4953 0.3264 0 8
6.3454 3.4597 -2.4953 0.3264 0 8
6.2889 3.5613 -2.4953 0.3264 0 8
6.2308 3.6620 -2.4953 0.3264 0 8
6.1711 3.7618 -2.4953 0.3264 0 8
6.1098 3.8606 -2.4953 0.3264 0 8
6.0469 3.9583 -2.4953 0.3264 0 8
5.9824 4.0551 -2.4953 0.3264 0 8
5.9164 4.1508 -2.4953 0.3264 0 8
5.8489 4.2454 -2.4953 0.3264 0 8
5.7799 4.3390 -2.4953 0.3264 0 8
5.7093 4.4314 -2.4953 0.3264 0 8
5.6373 4.5226 -2.4953 0.3264 0 8
5.5638 4.6127 -2.4953 0.3264 0 8
5.4889 4.7016 -2.4953 0.3264 0 8
5.4126 4.7893 -2.4953 0.3264 0 8
5.3348 4.8758 -2.4953 0.3264 0 8
5.2557 4.9609 -2.4953 0.3264 0 8
5.1752 5.0448 -2.4953 0.3264 0 8
5.0934 5.1274 -2.4953 0.3264 0 8
5.0103 5.2087 -2.4953 0.3264 0 8
4.9259 5.2886 -2.4953 0.3264 0 8
4.8401 5.3672 -2.4953 0.3264 0 8
4.7532 5.4443 -2.4953 0.3264 0 8
4.6650 5.5201 -2.4953 0.3264 0 8
4.5756 5.5944 -2.4953 0.3264 0 8
4.4850 5.6673 -2.4953 0.3264 0 8
4.3933 5.7387 -2.4953 0.3264 0 8
4.3004 5.8086 -2.4953 0.3264 0 8
4.2064 5.8770 -2.4953 0.3264 0 8
4.1113 5.9439 -2.4953 0.3264 0 8
4.0152 6.0093 -2.4953 0.3264 0 8
6.7452 -2.0058 -2.4953 0.3342 0 8
6.7766 -1.8971 -2.4953 0.3342 0 8
6.8062 -1.7878 -2.4953 0.3342 0 8
6.8341 -1.6781 -2.4953 0.3342 0 8
6.8602 -1.5679 -2.4953 0.3342 0 8
6.8846 -1.4574 -2.4953 0.3342 0 8
6.9071 -1.3465 -2.4953 0.3342 0 8
6.9279 -1.2352 -2.4953 0.3342 0 8
6.9469 -1.1236 -2.4953 0.3342 0 8
6.9640 -1.0117 -2.4953 0.3342 0 8
6.9794 -0.8995 -2.4953 0.3342 0 8
6.9930 -0.7872 -2.4953 0.3342 0 8
7.0047 -0.6746 -2.4953 0.3342 0 8
7.0147 -0.5618 -2.4953 0.3342 0 8
7.0228 -0.4489 -2.4953 0.3342 0 8
7.0291 -0.3359 -2.4953 0.3342 0 8
7.0336 -0.2228 -2.4953 0.3342 0 8
7.0363 -0.1096 -2.4953 0.3342 0 8
7.0371 0.0036 -2.4953 0.3342 0 8
7.0362 0.1168 -2.4953 0.3342 0 8
7.0334 0.2299 -2.4953 0.3342 0 8
7.0288 0.3430 -2.4953 0.3342 0 8
7.0223 0.4561 -2.4953 0.3342 0 8
7.0141 0.5690 -2.4953 0.3342 0 8
7.0040 0.6817 -2.4953 0.3342 0 8
6.9922 0.7943 -2.4953 0.3342 0 8
6.9785 0.9067 -2.4953 0.3342 0 8
6.9630 1.0188 -2.4953 0.3342 0 8
6.9457 1.1307 -2.4953 0.3342 0 8
6.9266 1.2422 -2.4953 0.3342 0 8
6.9057 1.3535 -2.4953 0.3342 0 8
6.8831 1.4644 -2.4953 0.3342 0 8
6.8586 1.5749 -2.4953 0.3342 0 8
6.8324 1.6850 -2.4953 0.3342 0 8
