ply
format ascii 1.0
element vertex 1335
property float32 x
property float32 y
property float32 z
property float32 CosAngle
property uint32 ObjIdx
property uint32 ObjTag
end_header
46.4475 -90.6968 -2.5412 0.0216 0 8
47.8444 -89.8201 -2.5379 0.0217 0 8
49.2232 -88.9185 -2.5346 0.0217 0 8
50.5837 -87.9930 -2.5312 0.0217 0 8
51.9253 -87.0436 -2.5276 0.0218 0 8
53.2478 -86.0711 -2.5240 0.0218 0 8
54.5506 -85.0758 -2.5203 0.0218 0 8
55.8333 -84.0582 -2.5166 0.0218 0 8
57.0956 -83.0186 -2.5127 0.0219 0 8
58.3369 -81.9576 -2.5088 0.0219 0 8
59.5572 -80.8758 -2.5048 0.0220 0 8
60.7559 -79.7735 -2.5007 0.0220 0 8
61.9327 -78.6514 -2.4965 0.0220 0 8
63.1622 -77.6017 -2.4953 0.0249 0 8
64.4068 -76.5719 -2.4953 0.0249 0 8
65.6346 -75.5221 -2.4953 0.0249 0 8
66.8453 -74.4527 -2.4953 0.0249 0 8
68.0385 -73.3638 -2.4953 0.0249 0 8
69.2140 -72.2558 -2.4953 0.0249 0 8
71.0412 -71.8061 -2.5190 0.7778 0 8
-37.8458 -70.0427 -2.6477 0.0332 0 7
-36.7101 -70.6445 -2.6477 0.0332 0 7
-35.5649 -71.2280 -2.6477 0.0332 0 7
-34.4103 -71.7929 -2.6477 0.0332 0 7
-33.2107 -72.2605 -2.6448 0.0485 0 8
-31.9257 -72.5281 -2.6354 0.9013 0 8
-30.5330 -72.5170 -2.6167 0.9078 0 8
-29.1594 -72.5060 -2.5990 0.9139 0 8
-27.8040 -72.4950 -2.5822 0.9199 0 8
-26.4655 -72.4840 -2.5662 0.9256 0 8
-25.1431 -72.4730 -2.5511 0.9311 0 8
-23.8359 -72.4621 -2.5369 0.9363 0 8
-22.5427 -72.4511 -2.5234 0.9413 0 8
-21.2629 -72.4401 -2.5107 0.9461 0 8
-19.9963 -72.4323 -2.4990 0.7026 0 8
-18.7966 -72.6382 -2.4953 0.0332 0 8
-17.6214 -72.9322 -2.4953 0.0332 0 8
-16.4417 -73.2072 -2.4953 0.0332 0 8
-15.2577 -73.4631 -2.4953 0.0332 0 8
-14.0698 -73.6998 -2.4953 0.0332 0 8
-12.8781 -73.9174 -2.4953 0.0332 0 8
-11.6831 -74.1156 -2.4953 0.0332 0 8
-10.4851 -74.2946 -2.4953 0.0332 0 8
-9.2843 -74.4542 -2.4953 0.0332 0 8
-8.0811 -74.5943 -2.4953 0.0332 0 8
-6.8758 -74.7151 -2.4953 0.0332 0 8
-5.6687 -74.8163 -2.4953 0.0332 0 8
-4.4601 -74.8981 -2.4953 0.0332 0 8
-3.2504 -74.9604 -2.4953 0.0332 0 8
-2.0398 -75.0031 -2.4953 0.0332 0 8
-0.8287 -75.0262 -2.4953 0.0332 0 8
0.3826 -75.0298 -2.4953 0.0332 0 8
1.5939 -75.0139 -2.4953 0.0332 0 8
2.8047 -74.9784 -2.4953 0.0332 0 8
4.0148 -74.9233 -2.4953 0.0332 0 8
5.2238 -74.8487 -2.4953 0.0332 0 8
6.4315 -74.7546 -2.4953 0.0332 0 8
7.6375 -74.6411 -2.4953 0.0332 0 8
8.8415 -74.5080 -2.4953 0.0332 0 8
10.0432 -74.3556 -2.4953 0.0332 0 8
11.2423 -74.1838 -2.4953 0.0332 0 8
12.4384 -73.9926 -2.4953 0.0332 0 8
13.6314 -73.7821 -2.4953 0.0332 0 8
14.8207 -73.5525 -2.4953 0.0332 0 8
16.0062 -73.3036 -2.4953 0.0332 0 8
17.1875 -73.0356 -2.4953 0.0332 0 8
18.3644 -72.7487 -2.4953 0.0332 0 8
19.5365 -72.4427 -2.4953 0.0332 0 8
20.7090 -72.1373 -2.4959 0.7028 0 8
21.9734 -72.1301 -2.5076 0.9460 0 8
23.2518 -72.1282 -2.5203 0.9413 0 8
24.5434 -72.1263 -2.5337 0.9363 0 8
25.8493 -72.1242 -2.5480 0.9310 0 8
27.1702 -72.1219 -2.5631 0.9256 0 8
28.5071 -72.1195 -2.5790 0.9198 0 8
29.8610 -72.1169 -2.5958 0.9139 0 8
31.2331 -72.1142 -2.6135 0.9077 0 8
32.6243 -72.1113 -2.6322 0.9013 0 8
33.9330 -71.8904 -2.6438 0.0485 0 8
35.1408 -71.4382 -2.6477 0.0332 0 7
36.2895 -70.8615 -2.6477 0.0332 0 7
37.4287 -70.2664 -2.6477 0.0332 0 7
38.5583 -69.6530 -2.6477 0.0332 0 6
39.6777 -69.0215 -2.6477 0.0332 0 7
40.7868 -68.3719 -2.6477 0.0332 0 7
41.8853 -67.7045 -2.6477 0.0332 0 7
42.9729 -67.0195 -2.6477 0.0332 0 7
44.0493 -66.3170 -2.6477 0.0332 0 7
45.1141 -65.5972 -2.6477 0.0332 0 7
46.1672 -64.8604 -2.6477 0.0332 0 7
47.2083 -64.1066 -2.6477 0.0332 0 7
48.2371 -63.3361 -2.6477 0.0332 0 7
49.2533 -62.5491 -2.6477 0.0332 0 6
50.2567 -61.7459 -2.6477 0.0332 0 7
51.2470 -60.9265 -2.6477 0.0332 0 7
52.2239 -60.0912 -2.6477 0.0332 0 7
53.1872 -59.2402 -2.6477 0.0332 0 7
54.1366 -58.3739 -2.6477 0.0332 0 7
55.0720 -57.4923 -2.6477 0.0332 0 7
55.9929 -56.5957 -2.6477 0.0332 0 7
-28.5281 -52.7980 -2.4953 0.0415 0 8
-27.6719 -53.2516 -2.4953 0.0415 0 8
-28.4460 -56.9706 -2.6477 0.0415 0 7
-27.5226 -57.4224 -2.6477 0.0415 0 7
-26.5920 -57.8593 -2.6477 0.0415 0 7
-25.6544 -58.2811 -2.6477 0.0415 0 7
-24.7102 -58.6876 -2.6477 0.0415 0 7
-23.7595 -59.0789 -2.6477 0.0415 0 7
-22.8029 -59.4548 -2.6477 0.0415 0 7
-21.8399 -59.8151 -2.6477 0.0415 0 7
-20.8714 -60.1599 -2.6477 0.0415 0 7
-19.8974 -60.4890 -2.6477 0.0415 0 7
-18.9183 -60.8024 -2.6477 0.0415 0 7
-17.9342 -61.0999 -2.6477 0.0415 0 7
-16.9455 -61.3814 -2.6477 0.0415 0 7
-15.9524 -61.6470 -2.6477 0.0415 0 7
-14.9551 -61.8965 -2.6477 0.0415 0 7
-13.9539 -62.1299 -2.6477 0.0415 0 7
-12.9490 -62.3470 -2.6477 0.0415 0 7
-11.9408 -62.5480 -2.6477 0.0415 0 7
-10.9295 -62.7326 -2.6477 0.0415 0 6
-9.9153 -62.9008 -2.6477 0.0415 0 7
-8.8985 -63.0527 -2.6477 0.0415 0 7
-7.8795 -63.1882 -2.6477 0.0415 0 7
-6.8583 -63.3071 -2.6477 0.0415 0 7
-5.8354 -63.4096 -2.6477 0.0415 0 7
-4.8109 -63.4955 -2.6477 0.0415 0 7
-3.7852 -63.5649 -2.6477 0.0415 0 7
-2.7586 -63.6178 -2.6477 0.0415 0 7
-1.7311 -63.6540 -2.6477 0.0415 0 7
-0.7033 -63.6737 -2.6477 0.0415 0 7
0.3247 -63.6767 -2.6477 0.0415 0 7
1.3527 -63.6632 -2.6477 0.0415 0 7
2.3803 -63.6330 -2.6477 0.0415 0 7
3.4073 -63.5863 -2.6477 0.0415 0 7
4.4334 -63.5230 -2.6477 0.0415 0 7
5.4583 -63.4432 -2.6477 0.0415 0 7
6.4818 -63.3468 -2.6477 0.0415 0 7
7.5036 -63.2339 -2.6477 0.0415 0 7
8.5235 -63.1045 -2.6477 0.0415 0 7
9.5412 -62.9587 -2.6477 0.0415 0 7
10.5563 -62.7964 -2.6477 0.0415 0 6
11.5686 -62.6178 -2.6477 0.0415 0 7
12.5781 -62.4229 -2.6477 0.0415 0 7
13.5842 -62.2117 -2.6477 0.0415 0 7
14.5868 -61.9843 -2.6477 0.0415 0 7
15.5856 -61.7408 -2.6477 0.0415 0 7
16.5803 -61.4810 -2.6477 0.0415 0 7
17.5707 -61.2054 -2.6477 0.0415 0 7
18.5565 -60.9138 -2.6477 0.0415 0 7
19.5375 -60.6063 -2.6477 0.0415 0 7
20.5134 -60.2829 -2.6477 0.0415 0 7
21.4839 -59.9439 -2.6477 0.0415 0 7
22.4488 -59.5893 -2.6477 0.0415 0 7
23.4079 -59.2191 -2.6477 0.0415 0 7
24.3608 -58.8335 -2.6477 0.0415 0 7
25.3075 -58.4325 -2.6477 0.0415 0 7
26.2475 -58.0164 -2.6477 0.0415 0 7
27.1807 -57.5851 -2.6477 0.0415 0 7
28.1068 -57.1388 -2.6477 0.0415 0 7
29.0256 -56.6776 -2.6477 0.0415 0 7
28.2137 -52.9666 -2.4953 0.0415 0 8
29.0651 -52.5042 -2.4953 0.0415 0 8
29.9089 -52.0281 -2.4953 0.0415 0 8
30.7450 -51.5385 -2.4953 0.0415 0 8
31.5730 -51.0354 -2.4953 0.0415 0 8
32.3928 -50.5191 -2.4953 0.0415 0 8
33.2042 -49.9895 -2.4953 0.0415 0 8
34.0069 -49.4470 -2.4953 0.0415 0 8
34.8007 -48.8915 -2.4953 0.0415 0 8
35.5855 -48.3233 -2.4953 0.0415 0 8
36.3610 -47.7426 -2.4953 0.0415 0 8
37.1270 -47.1493 -2.4953 0.0415 0 8
37.8833 -46.5438 -2.4953 0.0415 0 22
38.6298 -45.9262 -2.4953 0.0415 0 22
39.3662 -45.2965 -2.4953 0.0415 0 22
40.0923 -44.6551 -2.4953 0.0415 0 8
40.8080 -44.0020 -2.4953 0.0415 0 8
41.5131 -43.3375 -2.4953 0.0415 0 8
42.2073 -42.6617 -2.4953 0.0415 0 8
-23.7673 -43.9871 -2.4953 0.0498 0 8
-23.0541 -44.3650 -2.4953 0.0498 0 8
-22.3349 -44.7314 -2.4953 0.0498 0 8
-21.6098 -45.0862 -2.4953 0.0498 0 22
-20.8791 -45.4292 -2.4953 0.0498 0 22
-20.1430 -45.7603 -2.4953 0.0498 0 22
-19.4016 -46.0795 -2.4953 0.0498 0 22
-18.6552 -46.3868 -2.4953 0.0498 0 22
-17.9039 -46.6819 -2.4953 0.0498 0 22
-17.1479 -46.9648 -2.4953 0.0498 0 22
-16.3875 -47.2356 -2.4953 0.0498 0 22
-15.6228 -47.4939 -2.4953 0.0498 0 8
-14.8540 -47.7400 -2.4953 0.0498 0 8
-14.0814 -47.9736 -2.4953 0.0498 0 8
-13.3051 -48.1947 -2.4953 0.0498 0 8
-12.5253 -48.4031 -2.4953 0.0498 0 8
-11.7422 -48.5990 -2.4953 0.0498 0 8
-10.9561 -48.7823 -2.4953 0.0498 0 8
-10.1671 -48.9528 -2.4953 0.0498 0 8
-9.3755 -49.1106 -2.4953 0.0498 0 8
-8.5814 -49.2555 -2.4953 0.0498 0 8
-7.7851 -49.3876 -2.4953 0.0498 0 8
-6.9868 -49.5069 -2.4953 0.0498 0 8
-6.1867 -49.6132 -2.4953 0.0498 0 8
-5.3849 -49.7066 -2.4953 0.0498 0 8
-4.5817 -49.7871 -2.4953 0.0498 0 8
-3.7774 -49.8546 -2.4953 0.0498 0 8
-2.9720 -49.9091 -2.4953 0.0498 0 8
-2.1659 -49.9505 -2.4953 0.0498 0 8
-1.3592 -49.9790 -2.4953 0.0498 0 8
-0.5522 -49.9944 -2.4953 0.0498 0 8
0.2550 -49.9968 -2.4953 0.0498 0 8
1.0621 -49.9862 -2.4953 0.0498 0 8
1.8689 -49.9625 -2.4953 0.0498 0 8
2.6753 -49.9258 -2.4953 0.0498 0 8
3.4809 -49.8761 -2.4953 0.0498 0 8
4.2857 -49.8135 -2.4953 0.0498 0 8
5.0893 -49.7378 -2.4953 0.0498 0 8
5.8916 -49.6491 -2.4953 0.0498 0 8
6.6924 -49.5476 -2.4953 0.0498 0 8
7.4914 -49.4331 -2.4953 0.0498 0 8
8.2885 -49.3057 -2.4953 0.0498 0 8
9.0834 -49.1654 -2.4953 0.0498 0 8
9.8759 -49.0124 -2.4953 0.0498 0 8
10.6659 -48.8466 -2.4953 0.0498 0 8
11.4531 -48.6680 -2.4953 0.0498 0 8
12.2373 -48.4768 -2.4953 0.0498 0 8
13.0183 -48.2729 -2.4953 0.0498 0 8
13.7959 -48.0564 -2.4953 0.0498 0 8
14.5699 -47.8274 -2.4953 0.0498 0 8
15.3402 -47.5860 -2.4953 0.0498 0 8
16.1064 -47.3321 -2.4953 0.0498 0 8
16.8684 -47.0660 -2.4953 0.0498 0 8
17.6260 -46.7875 -2.4953 0.0498 0 22
18.3791 -46.4968 -2.4953 0.0498 0 22
19.1273 -46.1941 -2.4953 0.0498 0 22
19.8706 -45.8793 -2.4953 0.0498 0 22
20.6087 -45.5525 -2.4953 0.0498 0 22
21.3414 -45.2139 -2.4953 0.0498 0 22
22.0685 -44.8634 -2.4953 0.0498 0 8
22.7899 -44.5013 -2.4953 0.0498 0 8
23.5054 -44.1276 -2.4953 0.0498 0 8
24.2147 -43.7424 -2.4953 0.0498 0 8
24.9178 -43.3457 -2.4953 0.0498 0 8
25.6143 -42.9378 -2.4953 0.0498 0 8
26.3041 -42.5187 -2.4953 0.0498 0 8
26.9871 -42.0885 -2.4953 0.0498 0 8
27.6631 -41.6473 -2.4953 0.0498 0 8
28.3318 -41.1953 -2.4953 0.0498 0 8
28.9932 -40.7326 -2.4953 0.0498 0 8
29.6470 -40.2592 -2.4953 0.0498 0 8
30.2930 -39.7759 -2.4953 0.0498 0 8
30.9313 -39.2811 -2.4953 0.0498 0 8
31.5614 -38.7766 -2.4953 0.0498 0 8
32.1833 -38.2621 -2.4953 0.0498 0 8
32.7968 -37.7375 -2.4953 0.0498 0 8
33.4018 -37.2031 -2.4953 0.0498 0 8
33.9980 -36.6590 -2.4953 0.0498 0 8
34.5855 -36.1046 -2.4953 0.0498 0 8
35.1638 -35.5423 -2.4953 0.0498 0 8
-20.3659 -37.6919 -2.4953 0.0581 0 8
-19.7547 -38.0158 -2.4953 0.0581 0 8
-19.1385 -38.3298 -2.4953 0.0581 0 8
-18.5172 -38.6338 -2.4953 0.0581 0 8
-17.8910 -38.9277 -2.4953 0.0581 0 8
-17.2603 -39.2114 -2.4953 0.0581 0 8
-16.6250 -39.4850 -2.4953 0.0581 0 8
-15.9854 -39.7482 -2.4953 0.0581 0 8
-15.3416 -40.0011 -2.4953 0.0581 0 8
-14.6938 -40.2436 -2.4953 0.0581 0 8
-14.0422 -40.4755 -2.4953 0.0581 0 8
-13.3870 -40.6969 -2.4953 0.0581 0 8
-12.7282 -40.9078 -2.4953 0.0581 0 8
-12.0661 -41.1079 -2.4953 0.0581 0 8
-11.4009 -41.2974 -2.4953 0.0581 0 8
-10.7327 -41.4760 -2.4953 0.0581 0 8
-10.0618 -41.6436 -2.4953 0.0581 0 8
-9.3881 -41.8009 -2.4953 0.0581 0 8
-8.7121 -41.9470 -2.4953 0.0581 0 8
-8.0338 -42.0822 -2.4953 0.0581 0 8
-7.3533 -42.2064 -2.4953 0.0581 0 8
-6.6710 -42.3196 -2.4953 0.0581 0 8
-5.9869 -42.4218 -2.4953 0.0581 0 8
-5.3013 -42.5129 -2.4953 0.0581 0 8
-4.6143 -42.5930 -2.4953 0.0581 0 8
-3.9260 -42.6619 -2.4953 0.0581 0 8
-3.2368 -42.7197 -2.4953 0.0581 0 8
-2.5467 -42.7664 -2.4953 0.0581 0 8
-1.8559 -42.8021 -2.4953 0.0581 0 8
-1.1647 -42.8263 -2.4953 0.0581 0 8
-0.4732 -42.8396 -2.4953 0.0581 0 8
0.2185 -42.8416 -2.4953 0.0581 0 8
0.9101 -42.8325 -2.4953 0.0581 0 8
1.6014 -42.8120 -2.4953 0.0581 0 8
2.2924 -42.7808 -2.4953 0.0581 0 8
2.9828 -42.7382 -2.4953 0.0581 0 8
3.6723 -42.6845 -2.4953 0.0581 0 8
4.3610 -42.6196 -2.4953 0.0581 0 8
5.0484 -42.5437 -2.4953 0.0581 0 8
5.7346 -42.4566 -2.4953 0.0581 0 8
6.4193 -42.3585 -2.4953 0.0581 0 8
7.1023 -42.2494 -2.4953 0.0581 0 8
7.7834 -42.1292 -2.4953 0.0581 0 8
8.4626 -41.9981 -2.4953 0.0581 0 8
9.1395 -41.8560 -2.4953 0.0581 0 8
9.8140 -41.7030 -2.4953 0.0581 0 8
10.4860 -41.5391 -2.4953 0.0581 0 8
11.1552 -41.3644 -2.4953 0.0581 0 8
11.8215 -41.1789 -2.4953 0.0581 0 8
12.4848 -40.9827 -2.4953 0.0581 0 8
13.1448 -40.7758 -2.4953 0.0581 0 8
13.8014 -40.5583 -2.4953 0.0581 0 8
14.4543 -40.3302 -2.4953 0.0581 0 8
15.1035 -40.0916 -2.4953 0.0581 0 8
15.7488 -39.8425 -2.4953 0.0581 0 8
16.3900 -39.5831 -2.4953 0.0581 0 8
17.0268 -39.3133 -2.4953 0.0581 0 8
17.6593 -39.0333 -2.4953 0.0581 0 8
18.2872 -38.7432 -2.4953 0.0581 0 8
18.9102 -38.4429 -2.4953 0.0581 0 8
19.5284 -38.1326 -2.4953 0.0581 0 8
20.1415 -37.8124 -2.4953 0.0581 0 8
20.7493 -37.4823 -2.4953 0.0581 0 8
21.3517 -37.1424 -2.4953 0.0581 0 8
21.9486 -36.7929 -2.4953 0.0581 0 8
22.5397 -36.4337 -2.4953 0.0581 0 8
23.1249 -36.0651 -2.4953 0.0581 0 8
23.7041 -35.6871 -2.4953 0.0581 0 8
24.2772 -35.2997 -2.4953 0.0581 0 8
24.8439 -34.9032 -2.4953 0.0581 0 8
25.4041 -34.4976 -2.4953 0.0581 0 8
25.9577 -34.0830 -2.4953 0.0581 0 8
26.5046 -33.6595 -2.4953 0.0581 0 8
27.0445 -33.2272 -2.4953 0.0581 0 8
27.5774 -32.7863 -2.4953 0.0581 0 8
28.1031 -32.3368 -2.4953 0.0581 0 8
28.6215 -31.8788 -2.4953 0.0581 0 8
29.1325 -31.4126 -2.4953 0.0581 0 8
29.6358 -30.9382 -2.4953 0.0581 0 8
30.1314 -30.4558 -2.4953 0.0581 0 8
-17.8140 -32.9690 -2.4953 0.0664 0 8
-17.2794 -33.2523 -2.4953 0.0664 0 8
-16.7403 -33.5269 -2.4953 0.0664 0 8
-16.1969 -33.7928 -2.4953 0.0664 0 8
-15.6492 -34.0499 -2.4953 0.0664 0 8
-15.0975 -34.2981 -2.4953 0.0664 0 8
-14.5418 -34.5374 -2.4953 0.0664 0 8
-13.9824 -34.7676 -2.4953 0.0664 0 8
-13.4192 -34.9888 -2.4953 0.0664 0 8
-12.8526 -35.2009 -2.4953 0.0664 0 8
-12.2830 -35.4030 -2.4953 0.0664 0 8
-11.7095 -35.5975 -2.4953 0.0664 0 8
-11.1333 -35.7819 -2.4953 0.0664 0 8
-10.5543 -35.9565 -2.4953 0.0664 0 8
-9.9724 -36.1226 -2.4953 0.0664 0 8
-9.3879 -36.2789 -2.4953 0.0664 0 8
-8.8010 -36.4258 -2.4953 0.0664 0 8
-8.2118 -36.5631 -2.4953 0.0664 0 8
-7.6204 -36.6909 -2.4953 0.0664 0 8
-7.0271 -36.8091 -2.4953 0.0664 0 8
-6.4319 -36.9178 -2.4953 0.0664 0 8
-5.8351 -37.0168 -2.4953 0.0664 0 8
-5.2367 -37.1062 -2.4953 0.0664 0 8
-4.6370 -37.1859 -2.4953 0.0664 0 8
-4.0361 -37.2559 -2.4953 0.0664 0 8
-3.4341 -37.3162 -2.4953 0.0664 0 8
-2.8312 -37.3668 -2.4953 0.0664 0 8
-2.2276 -37.4075 -2.4953 0.0664 0 8
-1.6234 -37.4387 -2.4953 0.0664 0 8
-1.0188 -37.4601 -2.4953 0.0664 0 8
-0.4139 -37.4716 -2.4953 0.0664 0 8
0.1911 -37.4734 -2.4953 0.0664 0 8
0.7961 -37.4655 -2.4953 0.0664 0 8
1.4008 -37.4477 -2.4953 0.0664 0 8
2.0052 -37.4202 -2.4953 0.0664 0 8
2.6090 -37.3830 -2.4953 0.0664 0 8
3.2122 -37.3360 -2.4953 0.0664 0 8
3.8145 -37.2793 -2.4953 0.0664 0 8
4.4158 -37.2127 -2.4953 0.0664 0 8
5.0160 -37.1367 -2.4953 0.0664 0 8
5.6149 -37.0509 -2.4953 0.0664 0 8
6.2123 -36.9554 -2.4953 0.0664 0 8
6.8081 -36.8503 -2.4953 0.0664 0 8
7.4022 -36.7356 -2.4953 0.0664 0 8
7.9943 -36.6113 -2.4953 0.0664 0 8
8.5843 -36.4774 -2.4953 0.0664 0 8
9.1720 -36.3341 -2.4953 0.0664 0 8
9.7574 -36.1813 -2.4953 0.0664 0 8
10.3403 -36.0191 -2.4953 0.0664 0 8
10.9204 -35.8474 -2.4953 0.0664 0 8
11.4977 -35.6665 -2.4953 0.0664 0 8
12.0721 -35.4669 -2.4953 0.0665 0 8
12.6431 -35.2767 -2.4953 0.0664 0 8
13.2110 -35.0680 -2.4953 0.0664 0 8
13.7754 -34.8501 -2.4953 0.0664 0 8
14.3362 -34.6232 -2.4953 0.0664 0 8
14.8933 -34.3872 -2.4953 0.0664 0 8
15.4465 -34.1423 -2.4953 0.0664 0 8
15.9957 -33.8885 -2.4953 0.0664 0 8
16.5407 -33.6259 -2.4953 0.0664 0 8
17.0814 -33.3544 -2.4953 0.0664 0 8
17.6177 -33.0743 -2.4953 0.0664 0 8
18.1493 -32.7856 -2.4953 0.0664 0 8
18.6763 -32.4883 -2.4953 0.0664 0 8
19.1983 -32.1826 -2.4953 0.0664 0 8
19.7154 -31.8684 -2.4953 0.0664 0 8
20.2273 -31.5460 -2.4953 0.0664 0 8
20.7339 -31.2153 -2.4953 0.0664 0 8
21.2352 -30.8766 -2.4953 0.0664 0 8
21.7309 -30.5297 -2.4953 0.0664 0 8
22.2209 -30.1749 -2.4953 0.0664 0 8
22.7051 -29.8122 -2.4953 0.0664 0 8
23.1835 -29.4418 -2.4953 0.0664 0 8
23.6557 -29.0637 -2.4953 0.0664 0 8
24.1219 -28.6780 -2.4953 0.0664 0 8
24.5817 -28.2849 -2.4953 0.0664 0 8
25.0352 -27.8843 -2.4953 0.0664 0 8
25.4821 -27.4765 -2.4953 0.0664 0 8
25.9223 -27.0616 -2.4953 0.0664 0 8
26.3558 -26.6395 -2.4953 0.0664 0 8
-15.8285 -29.2943 -2.4953 0.0747 0 8
-15.3535 -29.5460 -2.4953 0.0747 0 8
-14.8745 -29.7900 -2.4953 0.0747 0 8
-14.3916 -30.0263 -2.4953 0.0747 0 8
-13.9050 -30.2547 -2.4953 0.0747 0 8
-13.4147 -30.4753 -2.4953 0.0747 0 8
-12.9210 -30.6879 -2.4953 0.0747 0 8
-12.4239 -30.8925 -2.4953 0.0747 0 8
-11.9235 -31.0890 -2.4953 0.0747 0 8
-11.4200 -31.2778 -2.4953 0.0747 0 8
-10.9137 -31.4577 -2.4953 0.0747 0 8
-10.4044 -31.6298 -2.4953 0.0747 0 8
-9.8924 -31.7937 -2.4953 0.0747 0 8
-9.3778 -31.9492 -2.4953 0.0747 0 8
-8.8608 -32.0965 -2.4953 0.0747 0 8
-8.3415 -32.2353 -2.4953 0.0747 0 8
-7.8200 -32.3658 -2.4953 0.0747 0 8
-7.2965 -32.4878 -2.4953 0.0747 0 8
-6.7711 -32.6014 -2.4953 0.0747 0 8
-6.2439 -32.7064 -2.4953 0.0747 0 8
-5.7150 -32.8030 -2.4953 0.0747 0 8
-5.1847 -32.8910 -2.4953 0.0747 0 8
-4.6531 -32.9704 -2.4953 0.0747 0 8
-4.1202 -33.0412 -2.4953 0.0747 0 8
-3.5862 -33.1034 -2.4953 0.0747 0 8
-3.0513 -33.1570 -2.4953 0.0747 0 8
-2.5156 -33.2021 -2.4953 0.0747 0 8
-1.9793 -33.2382 -2.4953 0.0747 0 8
-1.4424 -33.2658 -2.4953 0.0747 0 8
-0.9052 -33.2848 -2.4953 0.0747 0 8
-0.3678 -33.2951 -2.4953 0.0747 0 8
0.1698 -33.2967 -2.4953 0.0747 0 8
0.7073 -33.2896 -2.4953 0.0747 0 8
1.2447 -33.2738 -2.4953 0.0747 0 8
1.7817 -33.2494 -2.4953 0.0747 0 8
2.3182 -33.2163 -2.4953 0.0747 0 8
2.8541 -33.1745 -2.4953 0.0747 0 8
3.3893 -33.1241 -2.4953 0.0747 0 8
3.9237 -33.0651 -2.4953 0.0747 0 8
4.4570 -32.9975 -2.4953 0.0747 0 8
4.9891 -32.9212 -2.4953 0.0747 0 8
5.5199 -32.8364 -2.4953 0.0747 0 8
6.0493 -32.7430 -2.4953 0.0747 0 8
6.5771 -32.6410 -2.4953 0.0747 0 8
7.1032 -32.5306 -2.4953 0.0747 0 8
7.6275 -32.4117 -2.4953 0.0747 0 8
8.1497 -32.2843 -2.4953 0.0747 0 8
8.6699 -32.1486 -2.4953 0.0747 0 8
9.1877 -32.0044 -2.4953 0.0747 0 8
9.7032 -31.8519 -2.4953 0.0747 0 8
10.2162 -31.6911 -2.4953 0.0747 0 8
10.7265 -31.5221 -2.4953 0.0747 0 8
11.2339 -31.3448 -2.4953 0.0747 0 8
11.7385 -31.1593 -2.4953 0.0747 0 8
12.2400 -30.9658 -2.4953 0.0747 0 8
12.7383 -30.7641 -2.4953 0.0747 0 8
13.2333 -30.5545 -2.4953 0.0747 0 8
13.7249 -30.3369 -2.4953 0.0747 0 8
14.2128 -30.1113 -2.4953 0.0747 0 8
14.6971 -29.8776 -2.4953 0.0747 0 8
15.1775 -29.6368 -2.4953 0.0747 0 8
15.6540 -29.3879 -2.4953 0.0747 0 8
16.1264 -29.1313 -2.4953 0.0747 0 8
16.5946 -28.8672 -2.4953 0.0747 0 8
17.0585 -28.5955 -2.4953 0.0747 0 8
17.5179 -28.3164 -2.4953 0.0747 0 8
17.9728 -28.0299 -2.4953 0.0747 0 8
18.4229 -27.7361 -2.4953 0.0747 0 8
18.8683 -27.4351 -2.4953 0.0747 0 8
19.3088 -27.1269 -2.4953 0.0747 0 8
19.7442 -26.8116 -2.4953 0.0747 0 8
20.1744 -26.4894 -2.4953 0.0747 0 8
20.5994 -26.1597 -2.4953 0.0747 0 8
21.0191 -25.8243 -2.4953 0.0747 0 8
21.4333 -25.4816 -2.4953 0.0747 0 8
21.8419 -25.1322 -2.4953 0.0747 0 8
22.2448 -24.7764 -2.4953 0.0747 0 8
22.6418 -24.4140 -2.4953 0.0747 0 8
23.0330 -24.0453 -2.4953 0.0747 0 8
23.4182 -23.6703 -2.4953 0.0747 0 8
-14.2393 -26.3533 -2.4953 0.0830 0 8
-13.8120 -26.5797 -2.4953 0.0830 0 8
-13.3811 -26.7993 -2.4953 0.0830 0 8
-12.9467 -27.0118 -2.4953 0.0830 0 8
-12.5090 -27.2173 -2.4953 0.0830 0 8
-12.0680 -27.4157 -2.4953 0.0830 0 8
-11.6238 -27.6069 -2.4953 0.0830 0 8
-11.1766 -27.7910 -2.4953 0.0830 0 8
-10.7265 -27.9678 -2.4953 0.0830 0 8
-10.2736 -28.1373 -2.4953 0.0830 0 8
-9.8180 -28.2995 -2.4953 0.0830 0 8
-9.3598 -28.4543 -2.4953 0.0830 0 8
-8.8993 -28.6017 -2.4953 0.0830 0 8
-8.4364 -28.7417 -2.4953 0.0830 0 8
-7.9713 -28.8741 -2.4953 0.0830 0 8
-7.5041 -28.9990 -2.4953 0.0830 0 8
-7.0349 -29.1164 -2.4953 0.0830 0 8
-6.5640 -29.2262 -2.4953 0.0830 0 8
-6.0913 -29.3283 -2.4953 0.0830 0 8
-5.6170 -29.4229 -2.4953 0.0830 0 8
-5.1413 -29.5097 -2.4953 0.0830 0 8
-4.6642 -29.5888 -2.4953 0.0830 0 8
-4.1859 -29.6603 -2.4953 0.0830 0 8
-3.7065 -29.7240 -2.4953 0.0830 0 8
-3.2262 -29.7800 -2.4953 0.0830 0 8
-2.7450 -29.8282 -2.4953 0.0830 0 8
-2.2631 -29.8686 -2.4953 0.0830 0 8
-1.7806 -29.9012 -2.4953 0.0830 0 8
-1.2976 -29.9261 -2.4953 0.0830 0 8
-0.8143 -29.9431 -2.4953 0.0830 0 8
-0.3308 -29.9524 -2.4953 0.0830 0 8
0.1528 -29.9538 -2.4953 0.0830 0 8
0.6363 -29.9475 -2.4953 0.0830 0 8
1.1197 -29.9333 -2.4953 0.0830 0 8
1.6028 -29.9113 -2.4953 0.0830 0 8
2.0855 -29.8815 -2.4953 0.0830 0 8
2.5676 -29.8440 -2.4953 0.0830 0 8
3.0491 -29.7986 -2.4953 0.0830 0 8
3.5298 -29.7455 -2.4953 0.0830 0 8
4.0095 -29.6847 -2.4953 0.0830 0 8
4.4882 -29.6161 -2.4953 0.0830 0 8
4.9657 -29.5398 -2.4953 0.0830 0 8
5.4420 -29.4557 -2.4953 0.0830 0 8
5.9168 -29.3640 -2.4953 0.0830 0 8
6.3901 -29.2647 -2.4953 0.0830 0 8
6.8617 -29.1577 -2.4953 0.0830 0 8
7.3315 -29.0431 -2.4953 0.0830 0 8
7.7995 -28.9210 -2.4953 0.0830 0 8
8.2653 -28.7913 -2.4953 0.0830 0 8
8.7291 -28.6541 -2.4953 0.0830 0 8
9.1905 -28.5095 -2.4953 0.0830 0 8
9.6496 -28.3574 -2.4953 0.0830 0 8
10.1061 -28.1979 -2.4953 0.0830 0 8
10.5600 -28.0311 -2.4953 0.0830 0 8
11.0112 -27.8569 -2.4953 0.0830 0 8
11.4595 -27.6755 -2.4953 0.0830 0 8
11.9048 -27.4869 -2.4953 0.0830 0 8
12.3470 -27.2912 -2.4953 0.0830 0 8
12.7859 -27.0883 -2.4953 0.0830 0 8
13.2216 -26.8783 -2.4953 0.0830 0 8
13.6538 -26.6614 -2.4953 0.0830 0 8
14.0824 -26.4375 -2.4953 0.0830 0 8
14.5074 -26.2073 -2.4953 0.0830 0 8
14.9286 -25.9691 -2.4953 0.0830 0 8
15.3459 -25.7247 -2.4953 0.0830 0 8
15.7592 -25.4736 -2.4953 0.0830 0 8
16.1684 -25.2158 -2.4953 0.0830 0 8
16.5734 -24.9515 -2.4953 0.0830 0 8
16.9740 -24.6807 -2.4953 0.0830 0 8
17.3702 -24.4035 -2.4953 0.0830 0 8
17.7619 -24.1199 -2.4953 0.0830 0 8
18.1490 -23.8300 -2.4953 0.0830 0 8
18.5314 -23.5339 -2.4953 0.0830 0 8
18.9089 -23.2316 -2.4953 0.0830 0 8
19.2815 -22.9234 -2.4953 0.0830 0 8
19.6490 -22.6091 -2.4953 0.0830 0 8
20.0115 -22.2889 -2.4953 0.0830 0 8
20.3687 -21.9629 -2.4953 0.0830 0 8
20.7206 -21.6313 -2.4953 0.0830 0 8
21.0671 -21.2939 -2.4953 0.0830 0 8
-12.9387 -23.9455 -2.4953 0.0913 0 8
-12.5503 -24.1517 -2.4953 0.0913 0 8
-12.1588 -24.3512 -2.4953 0.0913 0 8
-11.7641 -24.5443 -2.4953 0.0913 0 8
-11.3663 -24.7310 -2.4953 0.0913 0 8
-10.9655 -24.9113 -2.4953 0.0913 0 8
-10.5620 -25.0851 -2.4953 0.0913 0 8
-10.1556 -25.2523 -2.4953 0.0913 0 8
-9.7466 -25.4130 -2.4953 0.0913 0 8
-9.3351 -25.5670 -2.4953 0.0913 0 8
-8.9211 -25.7144 -2.4953 0.0913 0 8
-8.5048 -25.8550 -2.4953 0.0913 0 8
-8.0863 -25.9890 -2.4953 0.0913 0 8
-7.6657 -26.1161 -2.4953 0.0913 0 8
-7.2431 -26.2365 -2.4953 0.0913 0 8
-6.8186 -26.3500 -2.4953 0.0913 0 8
-6.3923 -26.4566 -2.4953 0.0913 0 8
-5.9643 -26.5564 -2.4953 0.0913 0 8
-5.5348 -26.6492 -2.4953 0.0913 0 8
-5.1039 -26.7351 -2.4953 0.0913 0 8
-4.6716 -26.8140 -2.4953 0.0913 0 8
-4.2381 -26.8859 -2.4953 0.0913 0 8
-3.8035 -26.9508 -2.4953 0.0913 0 8
-3.3679 -27.0087 -2.4953 0.0913 0 8
-2.9315 -27.0596 -2.4953 0.0913 0 8
-2.4942 -27.1034 -2.4953 0.0913 0 8
-2.0564 -27.1401 -2.4953 0.0913 0 8
-1.6179 -27.1698 -2.4953 0.0913 0 8
-1.1791 -27.1924 -2.4953 0.0913 0 8
-0.7400 -27.2079 -2.4953 0.0913 0 8
-0.3006 -27.2162 -2.4953 0.0913 0 8
0.1388 -27.2176 -2.4953 0.0913 0 8
0.5782 -27.2116 -2.4953 0.0913 0 8
1.0174 -27.1989 -2.4953 0.0913 0 8
1.4564 -27.1789 -2.4953 0.0913 0 8
1.8950 -27.1519 -2.4953 0.0913 0 8
2.3331 -27.1177 -2.4953 0.0913 0 8
2.7705 -27.0765 -2.4953 0.0913 0 8
3.2073 -27.0283 -2.4953 0.0913 0 8
3.6432 -26.9730 -2.4953 0.0913 0 8
4.0782 -26.9106 -2.4953 0.0913 0 8
4.5121 -26.8413 -2.4953 0.0913 0 8
4.9449 -26.7650 -2.4953 0.0913 0 8
5.3763 -26.6816 -2.4953 0.0913 0 8
5.8064 -26.5914 -2.4953 0.0913 0 8
6.2349 -26.4942 -2.4953 0.0913 0 8
6.6618 -26.3901 -2.4953 0.0913 0 8
7.0870 -26.2791 -2.4953 0.0913 0 8
7.5103 -26.1612 -2.4953 0.0913 0 8
7.9317 -26.0366 -2.4953 0.0913 0 8
8.3510 -25.9051 -2.4953 0.0913 0 8
8.7681 -25.7669 -2.4953 0.0913 0 8
9.1829 -25.6220 -2.4953 0.0913 0 8
9.5954 -25.4704 -2.4953 0.0913 0 8
10.0053 -25.3122 -2.4953 0.0913 0 8
10.4126 -25.1474 -2.4953 0.0913 0 8
10.8173 -24.9760 -2.4953 0.0913 0 8
11.2191 -24.7981 -2.4953 0.0913 0 8
11.6179 -24.6138 -2.4953 0.0913 0 8
12.0138 -24.4230 -2.4953 0.0913 0 8
12.4065 -24.2259 -2.4953 0.0913 0 8
12.7960 -24.0224 -2.4953 0.0913 0 8
13.1822 -23.8127 -2.4953 0.0913 0 8
13.5649 -23.5968 -2.4953 0.0913 0 8
13.9441 -23.3747 -2.4953 0.0913 0 8
14.3196 -23.1465 -2.4953 0.0913 0 8
14.6914 -22.9124 -2.4953 0.0913 0 8
15.0594 -22.6722 -2.4953 0.0913 0 8
15.4234 -22.4261 -2.4953 0.0913 0 8
15.7835 -22.1742 -2.4953 0.0913 0 8
16.1394 -21.9165 -2.4953 0.0913 0 8
16.4911 -21.6531 -2.4953 0.0913 0 8
16.8385 -21.3841 -2.4953 0.0913 0 8
17.1816 -21.1094 -2.4953 0.0913 0 8
17.5201 -20.8293 -2.4953 0.0913 0 8
17.8541 -20.5437 -2.4953 0.0913 0 8
18.1834 -20.2528 -2.4953 0.0913 0 8
18.5080 -19.9566 -2.4953 0.0913 0 8
18.8278 -19.6553 -2.4953 0.0913 0 8
19.1427 -19.3487 -2.4953 0.0913 0 8
-11.8541 -21.9388 -2.4953 0.0996 0 8
-11.4983 -22.1273 -2.4953 0.0996 0 8
-11.1396 -22.3100 -2.4953 0.0996 0 8
-10.7780 -22.4870 -2.4953 0.0996 0 8
-10.4136 -22.6580 -2.4953 0.0996 0 8
-10.0464 -22.8232 -2.4953 0.0996 0 8
-9.6767 -22.9824 -2.4953 0.0996 0 8
-9.3044 -23.1356 -2.4953 0.0996 0 8
-8.9296 -23.2828 -2.4953 0.0996 0 8
-8.5526 -23.4239 -2.4953 0.0996 0 8
-8.1733 -23.5590 -2.4953 0.0996 0 8
-7.7919 -23.6878 -2.4953 0.0996 0 8
-7.4085 -23.8106 -2.4953 0.0996 0 8
-7.0232 -23.9271 -2.4953 0.0996 0 8
-6.6360 -24.0374 -2.4953 0.0996 0 8
-6.2470 -24.1413 -2.4953 0.0996 0 8
-5.8565 -24.2390 -2.4953 0.0996 0 8
-5.4644 -24.3304 -2.4953 0.0996 0 8
-5.0709 -24.4155 -2.4953 0.0996 0 8
-4.6761 -24.4941 -2.4953 0.0996 0 8
-4.2800 -24.5664 -2.4953 0.0996 0 8
-3.8829 -24.6323 -2.4953 0.0996 0 8
-3.4847 -24.6918 -2.4953 0.0996 0 8
-3.0856 -24.7449 -2.4953 0.0996 0 8
-2.6858 -24.7914 -2.4953 0.0996 0 8
-2.2852 -24.8316 -2.4953 0.0996 0 8
-1.8840 -24.8652 -2.4953 0.0996 0 8
-1.4823 -24.8924 -2.4953 0.0996 0 8
-1.0803 -24.9131 -2.4953 0.0996 0 8
-0.6779 -24.9273 -2.4953 0.0996 0 8
-0.2754 -24.9350 -2.4953 0.0996 0 8
0.1272 -24.9362 -2.4953 0.0996 0 8
0.5297 -24.9309 -2.4953 0.0996 0 8
0.9321 -24.9191 -2.4953 0.0996 0 8
1.3343 -24.9008 -2.4953 0.0996 0 8
1.7361 -24.8760 -2.4953 0.0996 0 8
2.1375 -24.8447 -2.4953 0.0996 0 8
2.5383 -24.8070 -2.4953 0.0996 0 8
2.9385 -24.7628 -2.4953 0.0996 0 8
3.3379 -24.7121 -2.4953 0.0996 0 8
3.7364 -24.6550 -2.4953 0.0996 0 8
4.1339 -24.5915 -2.4953 0.0996 0 8
4.5304 -24.5215 -2.4953 0.0996 0 8
4.9257 -24.4452 -2.4953 0.0996 0 8
5.3197 -24.3625 -2.4953 0.0996 0 8
5.7123 -24.2734 -2.4953 0.0996 0 8
6.1034 -24.1780 -2.4953 0.0996 0 8
6.4929 -24.0764 -2.4953 0.0996 0 8
6.8808 -23.9684 -2.4953 0.0996 0 8
7.2668 -23.8542 -2.4953 0.0996 0 8
7.6510 -23.7338 -2.4953 0.0996 0 8
8.0331 -23.6072 -2.4953 0.0996 0 8
8.4132 -23.4744 -2.4953 0.0996 0 8
8.7911 -23.3355 -2.4953 0.0996 0 8
9.1667 -23.1905 -2.4953 0.0996 0 8
9.5399 -23.0395 -2.4953 0.0996 0 8
9.9106 -22.8825 -2.4953 0.0996 0 8
10.2787 -22.7196 -2.4953 0.0996 0 8
10.6441 -22.5506 -2.4953 0.0996 0 8
11.0068 -22.3759 -2.4953 0.0996 0 8
11.3666 -22.1953 -2.4953 0.0996 0 8
11.7234 -22.0089 -2.4953 0.0996 0 8
12.0772 -21.8167 -2.4953 0.0996 0 8
12.4278 -21.6189 -2.4953 0.0996 0 8
12.7753 -21.4155 -2.4953 0.0996 0 8
13.1193 -21.2064 -2.4953 0.0996 0 8
13.4600 -20.9919 -2.4953 0.0996 0 8
13.7971 -20.7718 -2.4953 0.0996 0 8
14.1307 -20.5471 -2.4953 0.0996 0 8
14.4605 -20.3156 -2.4953 0.0996 0 8
14.7866 -20.0795 -2.4953 0.0996 0 8
15.1088 -19.8382 -2.4953 0.0996 0 8
15.4271 -19.5917 -2.4953 0.0996 0 8
15.7414 -19.3401 -2.4953 0.0996 0 8
16.0516 -19.0834 -2.4953 0.0996 0 8
16.3576 -18.8218 -2.4953 0.0996 0 8
16.6593 -18.5552 -2.4953 0.0996 0 8
16.9567 -18.2839 -2.4953 0.0996 0 8
17.2496 -18.0077 -2.4953 0.0996 0 8
17.5381 -17.7269 -2.4953 0.0996 0 8
-10.9359 -20.2394 -2.4953 0.1078 0 8
-10.6077 -20.4133 -2.4953 0.1078 0 8
-10.2768 -20.5819 -2.4953 0.1078 0 8
-9.9432 -20.7448 -2.4953 0.1078 0 8
-9.6070 -20.9030 -2.4953 0.1078 0 8
-9.2682 -21.0553 -2.4953 0.1078 0 8
-8.9271 -21.2022 -2.4953 0.1078 0 8
-8.5837 -21.3436 -2.4953 0.1078 0 8
-8.2380 -21.4794 -2.4953 0.1078 0 8
-7.8901 -21.6096 -2.4953 0.1078 0 8
-7.5403 -21.7341 -2.4953 0.1078 0 8
-7.1884 -21.8530 -2.4953 0.1078 0 8
-6.8347 -21.9662 -2.4953 0.1078 0 8
-6.4792 -22.0737 -2.4953 0.1078 0 8
-6.1220 -22.1754 -2.4953 0.1078 0 8
-5.7632 -22.2714 -2.4953 0.1078 0 8
-5.4029 -22.3615 -2.4953 0.1078 0 8
-5.0411 -22.4458 -2.4953 0.1078 0 8
-4.6781 -22.5243 -2.4953 0.1078 0 8
-4.3139 -22.5969 -2.4953 0.1078 0 8
-3.9485 -22.6636 -2.4953 0.1078 0 8
-3.5821 -22.7244 -2.4953 0.1078 0 8
-3.2148 -22.7792 -2.4953 0.1078 0 8
-2.8466 -22.8282 -2.4953 0.1078 0 8
-2.4777 -22.8711 -2.4953 0.1078 0 8
-2.1082 -22.9082 -2.4953 0.1078 0 8
-1.7381 -22.9392 -2.4953 0.1078 0 8
-1.3675 -22.9643 -2.4953 0.1078 0 8
-0.9966 -22.9834 -2.4953 0.1078 0 8
-0.6254 -22.9965 -2.4953 0.1078 0 8
-0.2541 -23.0035 -2.4953 0.1078 0 8
0.1173 -23.0046 -2.4953 0.1078 0 8
0.4887 -22.9998 -2.4953 0.1078 0 8
0.8599 -22.9889 -2.4953 0.1078 0 8
1.2310 -22.9720 -2.4953 0.1078 0 8
1.6016 -22.9491 -2.4953 0.1078 0 8
1.9719 -22.9203 -2.4953 0.1078 0 8
2.3417 -22.8855 -2.4953 0.1078 0 8
2.7109 -22.8447 -2.4953 0.1078 0 8
3.0793 -22.7979 -2.4953 0.1078 0 8
3.4470 -22.7453 -2.4953 0.1078 0 8
3.8137 -22.6866 -2.4953 0.1078 0 8
4.1795 -22.6221 -2.4953 0.1078 0 8
4.5441 -22.5517 -2.4953 0.1078 0 8
4.9076 -22.4754 -2.4953 0.1078 0 8
5.2698 -22.3932 -2.4953 0.1078 0 8
5.6307 -22.3052 -2.4953 0.1078 0 8
5.9900 -22.2114 -2.4953 0.1078 0 8
6.3478 -22.1118 -2.4953 0.1078 0 8
6.7040 -22.0065 -2.4953 0.1078 0 8
7.0584 -21.8954 -2.4953 0.1078 0 8
7.4109 -21.7786 -2.4953 0.1078 0 8
7.7615 -21.6561 -2.4953 0.1078 0 8
8.1101 -21.5280 -2.4953 0.1078 0 8
8.4566 -21.3942 -2.4953 0.1078 0 8
8.8009 -21.2549 -2.4953 0.1078 0 8
9.1429 -21.1101 -2.4953 0.1078 0 8
9.4825 -20.9597 -2.4953 0.1078 0 8
9.8196 -20.8039 -2.4953 0.1078 0 8
10.1542 -20.6427 -2.4953 0.1078 0 8
10.4862 -20.4760 -2.4953 0.1078 0 8
10.8154 -20.3041 -2.4953 0.1078 0 8
11.1417 -20.1268 -2.4953 0.1078 0 8
11.4652 -19.9443 -2.4953 0.1078 0 8
11.7857 -19.7566 -2.4953 0.1078 0 8
12.1031 -19.5638 -2.4953 0.1078 0 8
12.4174 -19.3659 -2.4953 0.1078 0 8
12.7284 -19.1629 -2.4953 0.1078 0 8
13.0361 -18.9549 -2.4953 0.1078 0 8
13.3404 -18.7420 -2.4953 0.1078 0 8
13.6412 -18.5242 -2.4953 0.1078 0 8
13.9385 -18.3015 -2.4953 0.1078 0 8
14.2322 -18.0741 -2.4953 0.1078 0 8
14.5221 -17.8420 -2.4953 0.1078 0 8
14.8082 -17.6052 -2.4953 0.1078 0 8
15.0905 -17.3639 -2.4953 0.1078 0 8
15.3689 -17.1180 -2.4953 0.1078 0 8
15.6432 -16.8676 -2.4953 0.1078 0 8
15.9135 -16.6129 -2.4953 0.1078 0 8
16.1796 -16.3538 -2.4953 0.1078 0 8
-10.1484 -18.7820 -2.4953 0.1161 0 8
-9.8439 -18.9434 -2.4953 0.1161 0 8
-9.5368 -19.0999 -2.4953 0.1161 0 8
-9.2272 -19.2513 -2.4953 0.1161 0 8
-8.9152 -19.3978 -2.4953 0.1161 0 8
-8.6008 -19.5392 -2.4953 0.1161 0 8
-8.2843 -19.6755 -2.4953 0.1161 0 8
-7.9656 -19.8067 -2.4953 0.1161 0 8
-7.6448 -19.9327 -2.4953 0.1161 0 8
-7.3220 -20.0535 -2.4953 0.1161 0 8
-6.9973 -20.1691 -2.4953 0.1161 0 8
-6.6708 -20.2794 -2.4953 0.1161 0 8
-6.3425 -20.3845 -2.4953 0.1161 0 8
-6.0126 -20.4842 -2.4953 0.1161 0 8
-5.6811 -20.5786 -2.4953 0.1161 0 8
-5.3482 -20.6676 -2.4953 0.1161 0 8
-5.0138 -20.7513 -2.4953 0.1161 0 8
-4.6781 -20.8295 -2.4953 0.1161 0 8
-4.3413 -20.9023 -2.4953 0.1161 0 8
-4.0032 -20.9697 -2.4953 0.1161 0 8
-3.6642 -21.0316 -2.4953 0.1161 0 8
-3.3242 -21.0880 -2.4953 0.1161 0 8
-2.9833 -21.1389 -2.4953 0.1161 0 8
-2.6416 -21.1843 -2.4953 0.1161 0 8
-2.2993 -21.2242 -2.4953 0.1161 0 8
-1.9564 -21.2586 -2.4953 0.1161 0 8
-1.6129 -21.2874 -2.4953 0.1161 0 8
-1.2690 -21.3107 -2.4953 0.1161 0 8
-0.9248 -21.3284 -2.4953 0.1161 0 8
-0.5804 -21.3405 -2.4953 0.1161 0 8
-0.2358 -21.3471 -2.4953 0.1161 0 8
0.1089 -21.3481 -2.4953 0.1161 0 8
0.4535 -21.3436 -2.4953 0.1161 0 8
0.7980 -21.3335 -2.4953 0.1161 0 8
1.1423 -21.3178 -2.4953 0.1161 0 8
1.4863 -21.2966 -2.4953 0.1161 0 8
1.8299 -21.2698 -2.4953 0.1161 0 8
2.1731 -21.2375 -2.4953 0.1161 0 8
2.5157 -21.1997 -2.4953 0.1161 0 8
2.8576 -21.1563 -2.4953 0.1161 0 8
3.1988 -21.1074 -2.4953 0.1161 0 8
3.5391 -21.0530 -2.4953 0.1161 0 8
3.8785 -20.9931 -2.4953 0.1161 0 8
4.2169 -20.9278 -2.4953 0.1161 0 8
4.5542 -20.8570 -2.4953 0.1161 0 8
4.8903 -20.7807 -2.4953 0.1161 0 8
5.2252 -20.6991 -2.4953 0.1161 0 8
5.5587 -20.6120 -2.4953 0.1161 0 8
5.8907 -20.5196 -2.4953 0.1161 0 8
6.2212 -20.4218 -2.4953 0.1161 0 8
6.5501 -20.3184 -2.4953 0.1161 0 8
6.8773 -20.2103 -2.4953 0.1161 0 8
7.2026 -20.0967 -2.4953 0.1161 0 8
7.5261 -19.9778 -2.4953 0.1161 0 8
7.8477 -19.8537 -2.4953 0.1161 0 8
8.1672 -19.7244 -2.4953 0.1161 0 8
8.4845 -19.5900 -2.4953 0.1161 0 8
8.7997 -19.4504 -2.4953 0.1161 0 8
9.1125 -19.3058 -2.4953 0.1161 0 8
9.4230 -19.1562 -2.4953 0.1161 0 8
9.7311 -19.0016 -2.4953 0.1161 0 8
10.0366 -18.8420 -2.4953 0.1161 0 8
10.3394 -18.6775 -2.4953 0.1161 0 8
10.6396 -18.5082 -2.4953 0.1161 0 8
10.9370 -18.3340 -2.4953 0.1161 0 8
11.2316 -18.1550 -2.4953 0.1161 0 8
11.5232 -17.9713 -2.4953 0.1161 0 8
11.8119 -17.7830 -2.4953 0.1161 0 8
12.0974 -17.5900 -2.4953 0.1161 0 8
12.3798 -17.3924 -2.4953 0.1161 0 8
12.6590 -17.1903 -2.4953 0.1161 0 8
12.9348 -16.9837 -2.4953 0.1161 0 8
13.2073 -16.7726 -2.4953 0.1161 0 8
13.4764 -16.5572 -2.4953 0.1161 0 8
13.7419 -16.3375 -2.4953 0.1161 0 8
14.0039 -16.1135 -2.4953 0.1161 0 8
14.2622 -15.8853 -2.4953 0.1161 0 8
14.5168 -15.6530 -2.4953 0.1161 0 8
14.7676 -15.4166 -2.4953 0.1161 0 8
15.0146 -15.1762 -2.4953 0.1161 0 8
-9.4655 -17.5181 -2.4953 0.1243 0 8
-9.1814 -17.6686 -2.4953 0.1243 0 8
-8.8950 -17.8146 -2.4953 0.1243 0 8
-8.6062 -17.9558 -2.4953 0.1243 0 8
-8.3152 -18.0924 -2.4953 0.1243 0 8
-8.0221 -18.2243 -2.4953 0.1243 0 8
-7.7268 -18.3515 -2.4953 0.1243 0 8
-7.4295 -18.4738 -2.4953 0.1243 0 8
-7.1303 -18.5913 -2.4953 0.1243 0 8
-6.8293 -18.7040 -2.4953 0.1243 0 8
-6.5264 -18.8118 -2.4953 0.1243 0 8
-6.2219 -18.9148 -2.4953 0.1243 0 8
-5.9157 -19.0127 -2.4953 0.1243 0 8
-5.6080 -19.1058 -2.4953 0.1243 0 8
-5.2988 -19.1938 -2.4953 0.1243 0 8
-4.9883 -19.2768 -2.4953 0.1243 0 8
-4.6764 -19.3549 -2.4953 0.1243 0 8
-4.3633 -19.4278 -2.4953 0.1243 0 8
-4.0491 -19.4957 -2.4953 0.1243 0 8
-3.7339 -19.5586 -2.4953 0.1243 0 8
-3.4176 -19.6163 -2.4953 0.1243 0 8
-3.1005 -19.6689 -2.4953 0.1243 0 8
-2.7825 -19.7164 -2.4953 0.1243 0 8
-2.4639 -19.7588 -2.4953 0.1243 0 8
-2.1446 -19.7960 -2.4953 0.1243 0 8
-1.8247 -19.8280 -2.4953 0.1243 0 8
-1.5044 -19.8549 -2.4953 0.1243 0 8
-1.1836 -19.8766 -2.4953 0.1243 0 8
-0.8626 -19.8931 -2.4953 0.1243 0 8
-0.5413 -19.9044 -2.4953 0.1243 0 8
-0.2199 -19.9106 -2.4953 0.1243 0 8
0.1015 -19.9115 -2.4953 0.1243 0 8
0.4230 -19.9073 -2.4953 0.1243 0 8
0.7443 -19.8979 -2.4953 0.1243 0 8
1.0654 -19.8833 -2.4953 0.1243 0 8
1.3863 -19.8635 -2.4953 0.1243 0 8
1.7068 -19.8385 -2.4953 0.1243 0 8
2.0268 -19.8084 -2.4953 0.1243 0 8
2.3464 -19.7731 -2.4953 0.1243 0 8
2.6653 -19.7326 -2.4953 0.1243 0 8
2.9835 -19.6870 -2.4953 0.1243 0 8
3.3009 -19.6363 -2.4953 0.1243 0 8
3.6175 -19.5804 -2.4953 0.1243 0 8
3.9331 -19.5195 -2.4953 0.1243 0 8
4.2478 -19.4534 -2.4953 0.1243 0 8
4.5613 -19.3823 -2.4953 0.1243 0 8
4.8736 -19.3062 -2.4953 0.1243 0 8
5.1846 -19.2250 -2.4953 0.1243 0 8
5.4943 -19.1388 -2.4953 0.1243 0 8
5.8026 -19.0476 -2.4953 0.1243 0 8
6.1093 -18.9514 -2.4953 0.1243 0 8
6.4145 -18.8503 -2.4953 0.1243 0 8
6.7179 -18.7443 -2.4953 0.1243 0 8
7.0197 -18.6334 -2.4953 0.1243 0 8
7.3196 -18.5176 -2.4953 0.1243 0 8
7.6176 -18.3971 -2.4953 0.1243 0 8
7.9136 -18.2717 -2.4953 0.1243 0 8
8.2075 -18.1416 -2.4953 0.1243 0 8
8.4993 -18.0067 -2.4953 0.1243 0 8
8.7889 -17.8671 -2.4953 0.1243 0 8
9.0762 -17.7229 -2.4953 0.1243 0 8
9.3612 -17.5741 -2.4953 0.1243 0 8
9.6437 -17.4204 -2.4953 0.1243 0 8
9.9236 -17.2627 -2.4953 0.1243 0 8
10.2010 -17.1002 -2.4953 0.1243 0 8
10.4758 -16.9333 -2.4953 0.1243 0 8
10.7478 -16.7620 -2.4953 0.1243 0 8
11.0170 -16.5863 -2.4953 0.1243 0 8
11.2833 -16.4063 -2.4953 0.1243 0 8
11.5467 -16.2220 -2.4953 0.1243 0 8
11.8071 -16.0335 -2.4953 0.1243 0 8
12.0644 -15.8408 -2.4953 0.1243 0 8
12.3186 -15.6439 -2.4953 0.1243 0 8
12.5695 -15.4430 -2.4953 0.1243 0 8
12.8172 -15.2381 -2.4953 0.1243 0 8
13.0615 -15.0292 -2.4953 0.1243 0 8
13.3025 -14.8164 -2.4953 0.1243 0 8
13.5399 -14.5997 -2.4953 0.1243 0 8
13.7738 -14.3792 -2.4953 0.1243 0 8
14.0042 -14.1549 -2.4953 0.1243 0 8
-8.8675 -16.4114 -2.4953 0.1326 0 8
-8.6014 -16.5525 -2.4953 0.1326 0 8
-8.3331 -16.6891 -2.4953 0.1326 0 8
-8.0625 -16.8215 -2.4953 0.1326 0 8
-7.7899 -16.9495 -2.4953 0.1326 0 8
-7.5153 -17.0730 -2.4953 0.1326 0 8
-7.2387 -17.1921 -2.4953 0.1326 0 8
-6.9602 -17.3067 -2.4953 0.1326 0 8
-6.6799 -17.4168 -2.4953 0.1326 0 8
-6.3978 -17.5224 -2.4953 0.1326 0 8
-6.1141 -17.6234 -2.4953 0.1326 0 8
-5.8288 -17.7198 -2.4953 0.1326 0 8
-5.5420 -17.8116 -2.4953 0.1326 0 8
-5.2537 -17.8988 -2.4953 0.1326 0 8
-4.9641 -17.9812 -2.4953 0.1326 0 8
-4.6731 -18.0590 -2.4953 0.1326 0 8
-4.3810 -18.1321 -2.4953 0.1326 0 8
-4.0877 -18.2005 -2.4953 0.1326 0 8
-3.7933 -18.2641 -2.4953 0.1326 0 8
-3.4980 -18.3230 -2.4953 0.1326 0 8
-3.2017 -18.3771 -2.4953 0.1326 0 8
-2.9046 -18.4264 -2.4953 0.1326 0 8
-2.6068 -18.4708 -2.4953 0.1326 0 8
-2.3082 -18.5105 -2.4953 0.1326 0 8
-2.0091 -18.5454 -2.4953 0.1326 0 8
-1.7094 -18.5754 -2.4953 0.1326 0 8
-1.4093 -18.6006 -2.4953 0.1326 0 8
-1.1089 -18.6209 -2.4953 0.1326 0 8
-0.8081 -18.6364 -2.4953 0.1326 0 8
-0.5071 -18.6470 -2.4953 0.1326 0 8
-0.2060 -18.6527 -2.4953 0.1326 0 8
0.0951 -18.6535 -2.4953 0.1326 0 8
0.3963 -18.6497 -2.4953 0.1326 0 8
0.6973 -18.6409 -2.4953 0.1326 0 8
0.9981 -18.6272 -2.4953 0.1326 0 8
1.2987 -18.6086 -2.4953 0.1326 0 8
1.5990 -18.5852 -2.4953 0.1326 0 8
1.8988 -18.5570 -2.4953 0.1326 0 8
2.1981 -18.5239 -2.4953 0.1326 0 8
2.4969 -18.4860 -2.4953 0.1326 0 8
2.7950 -18.4433 -2.4953 0.1326 0 8
3.0924 -18.3958 -2.4953 0.1326 0 8
3.3890 -18.3434 -2.4953 0.1326 0 8
3.6847 -18.2863 -2.4953 0.1326 0 8
3.9794 -18.2245 -2.4953 0.1326 0 8
4.2731 -18.1579 -2.4953 0.1326 0 8
4.5657 -18.0865 -2.4953 0.1326 0 8
4.8571 -18.0105 -2.4953 0.1326 0 8
5.1472 -17.9297 -2.4953 0.1326 0 8
5.4360 -17.8443 -2.4953 0.1326 0 8
5.7234 -17.7542 -2.4953 0.1326 0 8
6.0092 -17.6595 -2.4953 0.1326 0 8
6.2935 -17.5601 -2.4953 0.1326 0 8
6.5762 -17.4562 -2.4953 0.1326 0 8
6.8572 -17.3478 -2.4953 0.1326 0 8
7.1363 -17.2348 -2.4953 0.1326 0 8
7.4136 -17.1174 -2.4953 0.1326 0 8
7.6890 -16.9955 -2.4953 0.1326 0 8
7.9624 -16.8691 -2.4953 0.1326 0 8
8.2337 -16.7384 -2.4953 0.1326 0 8
8.5028 -16.6033 -2.4953 0.1326 0 8
8.7698 -16.4638 -2.4953 0.1326 0 8
9.0344 -16.3201 -2.4953 0.1326 0 8
9.2967 -16.1721 -2.4953 0.1326 0 8
9.5566 -16.0200 -2.4953 0.1326 0 8
9.8140 -15.8636 -2.4953 0.1326 0 8
10.0688 -15.7031 -2.4953 0.1326 0 8
10.3210 -15.5385 -2.4953 0.1326 0 8
10.5705 -15.3698 -2.4953 0.1326 0 8
10.8173 -15.1972 -2.4953 0.1326 0 8
11.0612 -15.0206 -2.4953 0.1326 0 8
11.3022 -14.8400 -2.4953 0.1326 0 8
11.5403 -14.6557 -2.4953 0.1326 0 8
11.7754 -14.4674 -2.4953 0.1326 0 8
12.0075 -14.2754 -2.4953 0.1326 0 8
12.2364 -14.0797 -2.4953 0.1326 0 8
12.4621 -13.8803 -2.4953 0.1326 0 8
12.6845 -13.6773 -2.4953 0.1326 0 8
12.9037 -13.4708 -2.4953 0.1326 0 8
13.1195 -13.2607 -2.4953 0.1326 0 8
-8.3395 -15.4342 -2.4953 0.1408 0 8
-8.0892 -15.5668 -2.4953 0.1408 0 8
-7.8369 -15.6954 -2.4953 0.1408 0 8
-7.5825 -15.8198 -2.4953 0.1408 0 8
-7.3261 -15.9402 -2.4953 0.1408 0 8
-7.0678 -16.0564 -2.4953 0.1408 0 8
-6.8076 -16.1684 -2.4953 0.1408 0 8
-6.5457 -16.2762 -2.4953 0.1408 0 8
-6.2821 -16.3798 -2.4953 0.1408 0 8
-6.0169 -16.4790 -2.4953 0.1408 0 8
-5.7500 -16.5740 -2.4953 0.1408 0 8
-5.4817 -16.6647 -2.4953 0.1408 0 8
-5.2120 -16.7510 -2.4953 0.1408 0 8
-4.9409 -16.8330 -2.4953 0.1408 0 8
-4.6685 -16.9105 -2.4953 0.1408 0 8
-4.3949 -16.9837 -2.4953 0.1408 0 8
-4.1201 -17.0525 -2.4953 0.1408 0 8
-3.8443 -17.1167 -2.4953 0.1408 0 8
-3.5674 -17.1766 -2.4953 0.1408 0 8
-3.2897 -17.2319 -2.4953 0.1408 0 8
-3.0111 -17.2828 -2.4953 0.1408 0 8
-2.7317 -17.3291 -2.4953 0.1408 0 8
-2.4515 -17.3710 -2.4953 0.1408 0 8
-2.1708 -17.4083 -2.4953 0.1408 0 8
-1.8895 -17.4411 -2.4953 0.1408 0 8
-1.6076 -17.4693 -2.4953 0.1408 0 8
-1.3254 -17.4930 -2.4953 0.1408 0 8
-1.0428 -17.5121 -2.4953 0.1408 0 8
-0.7600 -17.5267 -2.4953 0.1408 0 8
-0.4769 -17.5366 -2.4953 0.1408 0 8
-0.1938 -17.5421 -2.4953 0.1408 0 8
0.0895 -17.5428 -2.4953 0.1408 0 8
0.3727 -17.5392 -2.4953 0.1408 0 8
0.6558 -17.5309 -2.4953 0.1408 0 8
0.9387 -17.5180 -2.4953 0.1408 0 8
1.2214 -17.5006 -2.4953 0.1408 0 8
1.5038 -17.4786 -2.4953 0.1408 0 8
1.7857 -17.4520 -2.4953 0.1408 0 8
2.0673 -17.4209 -2.4953 0.1408 0 8
2.3482 -17.3853 -2.4953 0.1408 0 8
2.6286 -17.3451 -2.4953 0.1408 0 8
2.9083 -17.3004 -2.4953 0.1408 0 8
3.1872 -17.2512 -2.4953 0.1408 0 8
3.4653 -17.1975 -2.4953 0.1408 0 8
3.7425 -17.1393 -2.4953 0.1408 0 8
4.0187 -17.0766 -2.4953 0.1408 0 8
4.2938 -17.0095 -2.4953 0.1408 0 8
4.5679 -16.9380 -2.4953 0.1408 0 8
4.8407 -16.8621 -2.4953 0.1408 0 8
5.1123 -16.7817 -2.4953 0.1408 0 8
5.3826 -16.6970 -2.4953 0.1408 0 8
5.6514 -16.6079 -2.4953 0.1408 0 8
5.9188 -16.5145 -2.4953 0.1408 0 8
6.1846 -16.4168 -2.4953 0.1408 0 8
6.4489 -16.3149 -2.4953 0.1408 0 8
6.7114 -16.2086 -2.4953 0.1408 0 8
6.9722 -16.0981 -2.4953 0.1408 0 8
7.2312 -15.9835 -2.4953 0.1408 0 8
7.4883 -15.8647 -2.4953 0.1408 0 8
7.7434 -15.7417 -2.4953 0.1408 0 8
7.9965 -15.6146 -2.4953 0.1408 0 8
8.2476 -15.4835 -2.4953 0.1408 0 8
8.4965 -15.3483 -2.4953 0.1408 0 8
8.7432 -15.2092 -2.4953 0.1408 0 8
8.9875 -15.0660 -2.4953 0.1408 0 8
9.2296 -14.9190 -2.4953 0.1408 0 8
9.4693 -14.7680 -2.4953 0.1408 0 8
9.7064 -14.6132 -2.4953 0.1408 0 8
9.9411 -14.4546 -2.4953 0.1408 0 8
10.1731 -14.2923 -2.4953 0.1408 0 8
10.4025 -14.1262 -2.4953 0.1408 0 8
10.6292 -13.9564 -2.4953 0.1408 0 8
10.8532 -13.7830 -2.4953 0.1408 0 8
11.0743 -13.6060 -2.4953 0.1408 0 8
11.2925 -13.4254 -2.4953 0.1408 0 8
11.5077 -13.2413 -2.4953 0.1408 0 8
11.7200 -13.0538 -2.4953 0.1408 0 8
11.9292 -12.8629 -2.4953 0.1408 0 8
12.1353 -12.6687 -2.4953 0.1408 0 8
12.3383 -12.4711 -2.4953 0.1408 0 8
-7.8698 -14.5649 -2.4953 0.1490 0 8
-7.6336 -14.6900 -2.4953 0.1490 0 8
-7.3955 -14.8114 -2.4953 0.1490 0 8
-7.1554 -14.9288 -2.4953 0.1490 0 8
-6.9134 -15.0424 -2.4953 0.1490 0 8
-6.6697 -15.1520 -2.4953 0.1490 0 8
-6.4242 -15.2577 -2.4953 0.1490 0 8
-6.1771 -15.3595 -2.4953 0.1490 0 8
-5.9283 -15.4572 -2.4953 0.1490 0 8
-5.6780 -15.5509 -2.4953 0.1490 0 8
-5.4262 -15.6405 -2.4953 0.1490 0 8
-5.1730 -15.7261 -2.4953 0.1490 0 8
-4.9184 -15.8075 -2.4953 0.1490 0 8
-4.6626 -15.8849 -2.4953 0.1490 0 8
-4.4055 -15.9581 -2.4953 0.1490 0 8
-4.1473 -16.0271 -2.4953 0.1490 0 8
-3.8881 -16.0920 -2.4953 0.1490 0 8
-3.6278 -16.1527 -2.4953 0.1490 0 8
-3.3665 -16.2091 -2.4953 0.1490 0 8
-3.1044 -16.2614 -2.4953 0.1490 0 8
-2.8415 -16.3094 -2.4953 0.1490 0 8
-2.5778 -16.3531 -2.4953 0.1490 0 8
-2.3135 -16.3926 -2.4953 0.1490 0 8
-2.0485 -16.4278 -2.4953 0.1490 0 8
-1.7830 -16.4587 -2.4953 0.1490 0 8
-1.5171 -16.4854 -2.4953 0.1490 0 8
-1.2508 -16.5077 -2.4953 0.1490 0 8
-0.9841 -16.5258 -2.4953 0.1490 0 8
-0.7172 -16.5395 -2.4953 0.1490 0 8
-0.4501 -16.5489 -2.4953 0.1490 0 8
-0.1828 -16.5540 -2.4953 0.1490 0 8
0.0844 -16.5548 -2.4953 0.1490 0 8
0.3517 -16.5513 -2.4953 0.1490 0 8
0.6188 -16.5435 -2.4953 0.1490 0 8
0.8858 -16.5313 -2.4953 0.1490 0 8
1.1526 -16.5149 -2.4953 0.1490 0 8
1.4191 -16.4941 -2.4953 0.1490 0 8
1.6852 -16.4690 -2.4953 0.1490 0 8
1.9508 -16.4397 -2.4953 0.1490 0 8
2.2160 -16.4061 -2.4953 0.1490 0 8
2.4805 -16.3681 -2.4953 0.1490 0 8
2.7445 -16.3260 -2.4953 0.1490 0 8
3.0077 -16.2795 -2.4953 0.1490 0 8
3.2701 -16.2289 -2.4953 0.1490 0 8
3.5317 -16.1739 -2.4953 0.1490 0 8
3.7923 -16.1148 -2.4953 0.1490 0 8
4.0520 -16.0515 -2.4953 0.1490 0 8
4.3106 -15.9840 -2.4953 0.1490 0 8
4.5681 -15.9123 -2.4953 0.1490 0 8
4.8244 -15.8365 -2.4953 0.1490 0 8
5.0794 -15.7566 -2.4953 0.1490 0 8
5.3331 -15.6725 -2.4953 0.1490 0 8
5.5854 -15.5844 -2.4953 0.1490 0 8
5.8363 -15.4922 -2.4953 0.1490 0 8
6.0856 -15.3959 -2.4953 0.1490 0 8
6.3334 -15.2957 -2.4953 0.1490 0 8
6.5795 -15.1914 -2.4953 0.1490 0 8
6.8239 -15.0832 -2.4953 0.1490 0 8
7.0665 -14.9711 -2.4953 0.1490 0 8
7.3073 -14.8551 -2.4953 0.1490 0 8
7.5461 -14.7352 -2.4953 0.1490 0 8
7.7830 -14.6114 -2.4953 0.1490 0 8
8.0179 -14.4839 -2.4953 0.1490 0 8
8.2507 -14.3525 -2.4953 0.1490 0 8
8.4813 -14.2175 -2.4953 0.1490 0 8
8.7098 -14.0787 -2.4953 0.1490 0 8
8.9359 -13.9362 -2.4953 0.1490 0 8
9.1597 -13.7902 -2.4953 0.1490 0 8
9.3812 -13.6405 -2.4953 0.1490 0 8
9.6002 -13.4873 -2.4953 0.1490 0 8
9.8166 -13.3305 -2.4953 0.1490 0 8
10.0306 -13.1703 -2.4953 0.1490 0 8
10.2419 -13.0067 -2.4953 0.1490 0 8
10.4505 -12.8396 -2.4953 0.1490 0 8
10.6564 -12.6692 -2.4953 0.1490 0 8
10.8596 -12.4955 -2.4953 0.1490 0 8
11.0599 -12.3186 -2.4953 0.1490 0 8
11.2573 -12.1384 -2.4953 0.1490 0 8
11.4518 -11.9551 -2.4953 0.1490 0 8
11.6433 -11.7687 -2.4953 0.1490 0 8
-7.4492 -13.7864 -2.4953 0.1573 0 8
-7.2256 -13.9049 -2.4953 0.1573 0 8
-7.0002 -14.0197 -2.4953 0.1573 0 8
-6.7730 -14.1309 -2.4953 0.1573 0 8
-6.5439 -14.2384 -2.4953 0.1573 0 8
-6.3132 -14.3422 -2.4953 0.1573 0 8
-6.0809 -14.4423 -2.4953 0.1573 0 8
-5.8469 -14.5386 -2.4953 0.1573 0 8
-5.6114 -14.6310 -2.4953 0.1573 0 8
-5.3745 -14.7197 -2.4953 0.1573 0 8
-5.1362 -14.8046 -2.4953 0.1573 0 8
-4.8965 -14.8856 -2.4953 0.1573 0 8
-4.6556 -14.9627 -2.4953 0.1573 0 8
-4.4134 -15.0359 -2.4953 0.1573 0 8
-4.1701 -15.1052 -2.4953 0.1573 0 8
-3.9257 -15.1705 -2.4953 0.1573 0 8
-3.6802 -15.2319 -2.4953 0.1573 0 8
-3.4339 -15.2894 -2.4953 0.1573 0 8
-3.1866 -15.3428 -2.4953 0.1573 0 8
-2.9385 -15.3922 -2.4953 0.1573 0 8
-2.6896 -15.4377 -2.4953 0.1573 0 8
-2.4400 -15.4791 -2.4953 0.1573 0 8
-2.1898 -15.5165 -2.4953 0.1573 0 8
-1.9390 -15.5498 -2.4953 0.1573 0 8
-1.6877 -15.5791 -2.4953 0.1573 0 8
-1.4360 -15.6043 -2.4953 0.1573 0 8
-1.1839 -15.6254 -2.4953 0.1573 0 8
-0.9315 -15.6425 -2.4953 0.1573 0 8
-0.6788 -15.6555 -2.4953 0.1573 0 8
-0.4260 -15.6644 -2.4953 0.1573 0 8
-0.1731 -15.6693 -2.4953 0.1573 0 8
0.0799 -15.6700 -2.4953 0.1573 0 8
0.3329 -15.6667 -2.4953 0.1573 0 8
0.5858 -15.6593 -2.4953 0.1573 0 8
0.8385 -15.6478 -2.4953 0.1573 0 8
1.0910 -15.6322 -2.4953 0.1573 0 8
1.3432 -15.6125 -2.4953 0.1573 0 8
1.5951 -15.5888 -2.4953 0.1573 0 8
1.8466 -15.5610 -2.4953 0.1573 0 8
2.0975 -15.5292 -2.4953 0.1573 0 8
2.3480 -15.4933 -2.4953 0.1573 0 8
2.5978 -15.4534 -2.4953 0.1573 0 8
2.8469 -15.4094 -2.4953 0.1573 0 8
3.0953 -15.3615 -2.4953 0.1573 0 8
3.3429 -15.3095 -2.4953 0.1573 0 8
3.5896 -15.2535 -2.4953 0.1573 0 8
3.8354 -15.1936 -2.4953 0.1573 0 8
4.0802 -15.1297 -2.4953 0.1573 0 8
4.3239 -15.0619 -2.4953 0.1573 0 8
4.5665 -14.9901 -2.4953 0.1573 0 8
4.8079 -14.9144 -2.4953 0.1573 0 8
5.0481 -14.8348 -2.4953 0.1573 0 8
5.2869 -14.7514 -2.4953 0.1573 0 8
5.5244 -14.6642 -2.4953 0.1573 0 8
5.7604 -14.5731 -2.4953 0.1573 0 8
5.9949 -14.4782 -2.4953 0.1573 0 8
6.2278 -14.3795 -2.4953 0.1573 0 8
6.4592 -14.2771 -2.4953 0.1573 0 8
6.6888 -14.1709 -2.4953 0.1573 0 8
6.9167 -14.0611 -2.4953 0.1573 0 8
7.1428 -13.9476 -2.4953 0.1573 0 8
7.3671 -13.8305 -2.4953 0.1573 0 8
7.5894 -13.7097 -2.4953 0.1573 0 8
7.8097 -13.5854 -2.4953 0.1573 0 8
8.0280 -13.4576 -2.4953 0.1573 0 8
8.2443 -13.3262 -2.4953 0.1573 0 8
8.4583 -13.1914 -2.4953 0.1573 0 8
8.6702 -13.0531 -2.4953 0.1573 0 8
8.8798 -12.9114 -2.4953 0.1573 0 8
9.0871 -12.7664 -2.4953 0.1573 0 8
9.2920 -12.6181 -2.4953 0.1573 0 8
9.4945 -12.4664 -2.4953 0.1573 0 8
9.6945 -12.3115 -2.4953 0.1573 0 8
9.8920 -12.1534 -2.4953 0.1573 0 8
10.0869 -11.9921 -2.4953 0.1573 0 8
10.2792 -11.8277 -2.4953 0.1573 0 8
10.4688 -11.6602 -2.4953 0.1573 0 8
10.6557 -11.4897 -2.4953 0.1573 0 8
10.8398 -11.3162 -2.4953 0.1573 0 8
11.0210 -11.1397 -2.4953 0.1573 0 8
-7.0703 -13.0852 -2.4953 0.1655 0 8
-6.8581 -13.1977 -2.4953 0.1655 0 8
-6.6441 -13.3066 -2.4953 0.1655 0 8
-6.4285 -13.4122 -2.4953 0.1655 0 8
-6.2111 -13.5142 -2.4953 0.1655 0 8
-5.9921 -13.6127 -2.4953 0.1655 0 8
-5.7716 -13.7077 -2.4953 0.1655 0 8
-5.5495 -13.7991 -2.4953 0.1655 0 8
-5.3260 -13.8869 -2.4953 0.1655 0 8
-5.1011 -13.9710 -2.4953 0.1655 0 8
-4.8749 -14.0516 -2.4953 0.1655 0 8
-4.6474 -14.1284 -2.4953 0.1655 0 8
-4.4188 -14.2016 -2.4953 0.1655 0 8
-4.1889 -14.2711 -2.4953 0.1655 0 8
-3.9580 -14.3369 -2.4953 0.1655 0 8
-3.7260 -14.3989 -2.4953 0.1655 0 8
-3.4931 -14.4572 -2.4953 0.1655 0 8
-3.2592 -14.5117 -2.4953 0.1655 0 8
-3.0245 -14.5624 -2.4953 0.1655 0 8
-2.7890 -14.6093 -2.4953 0.1655 0 8
-2.5528 -14.6525 -2.4953 0.1655 0 8
-2.3159 -14.6918 -2.4953 0.1655 0 8
-2.0784 -14.7272 -2.4953 0.1655 0 8
-1.8404 -14.7589 -2.4953 0.1655 0 8
-1.6019 -14.7867 -2.4953 0.1655 0 8
-1.3630 -14.8106 -2.4953 0.1655 0 8
-1.1237 -14.8307 -2.4953 0.1655 0 8
-0.8841 -14.8469 -2.4953 0.1655 0 8
-0.6443 -14.8592 -2.4953 0.1655 0 8
-0.4043 -14.8677 -2.4953 0.1655 0 8
-0.1643 -14.8723 -2.4953 0.1655 0 8
0.0758 -14.8730 -2.4953 0.1655 0 8
0.3159 -14.8698 -2.4953 0.1655 0 8
0.5560 -14.8628 -2.4953 0.1655 0 8
0.7958 -14.8519 -2.4953 0.1655 0 8
