ply
format ascii 1.0
element vertex 1330
property float32 x
property float32 y
property float32 z
property float32 CosAngle
property uint32 ObjIdx
property uint32 ObjTag
end_header
-47.9779 -63.5327 -2.6477 0.0332 0 7
-46.9477 -64.2977 -2.6477 0.0332 0 7
-45.9054 -65.0459 -2.6477 0.0332 0 7
-44.8511 -65.7773 -2.6477 0.0332 0 7
-43.7852 -66.4916 -2.6477 0.0332 0 7
-42.7079 -67.1887 -2.6477 0.0332 0 7
-41.6195 -67.8682 -2.6477 0.0332 0 7
-40.5203 -68.5302 -2.6477 0.0332 0 7
-39.4106 -69.1743 -2.6477 0.0332 0 7
-38.2907 -69.8005 -2.6477 0.0332 0 7
-37.1608 -70.4085 -2.6477 0.0332 0 7
-36.0212 -70.9983 -2.6477 0.0332 0 7
-34.8723 -71.5696 -2.6477 0.0332 0 7
-33.7104 -72.1141 -2.6474 0.0485 0 8
-32.4661 -72.4744 -2.6410 0.0486 0 8
-31.0937 -72.5215 -2.6242 0.9052 0 8
-29.7149 -72.5105 -2.6061 0.9115 0 8
-28.3545 -72.4995 -2.5889 0.9175 0 8
-27.0116 -72.4885 -2.5727 0.9233 0 8
-25.6850 -72.4775 -2.5572 0.9289 0 8
-24.3739 -72.4666 -2.5427 0.9342 0 8
-23.0772 -72.4556 -2.5289 0.9393 0 8
-21.7941 -72.4447 -2.5159 0.9441 0 8
-20.5238 -72.4337 -2.5037 0.9487 0 8
-19.2884 -72.5092 -2.4953 0.0332 0 8
-18.1173 -72.8106 -2.4953 0.0332 0 8
-16.9414 -73.0931 -2.4953 0.0332 0 8
-15.7613 -73.3567 -2.4953 0.0332 0 8
-14.5770 -73.6012 -2.4953 0.0332 0 8
-13.3889 -73.8265 -2.4953 0.0332 0 8
-12.1973 -74.0327 -2.4953 0.0332 0 8
-11.0026 -74.2197 -2.4953 0.0332 0 8
-9.8050 -74.3874 -2.4953 0.0332 0 8
-8.6049 -74.5357 -2.4953 0.0332 0 8
-7.4025 -74.6647 -2.4953 0.0332 0 8
-6.1982 -74.7743 -2.4953 0.0332 0 8
-4.9923 -74.8645 -2.4953 0.0332 0 8
-3.7852 -74.9353 -2.4953 0.0332 0 8
-2.5770 -74.9865 -2.4953 0.0332 0 8
-1.3681 -75.0183 -2.4953 0.0332 0 8
-0.1589 -75.0306 -2.4953 0.0332 0 8
1.0503 -75.0234 -2.4953 0.0332 0 8
2.2593 -74.9968 -2.4953 0.0332 0 8
3.4677 -74.9506 -2.4953 0.0332 0 8
4.6751 -74.8850 -2.4953 0.0332 0 8
5.8814 -74.7999 -2.4953 0.0332 0 8
7.0861 -74.6954 -2.4953 0.0332 0 8
8.2890 -74.5715 -2.4953 0.0332 0 8
9.4898 -74.4282 -2.4953 0.0332 0 8
10.6881 -74.2656 -2.4953 0.0332 0 8
11.8836 -74.0837 -2.4953 0.0332 0 8
13.0760 -73.8826 -2.4953 0.0332 0 8
14.2650 -73.6622 -2.4953 0.0332 0 8
15.4504 -73.4228 -2.4953 0.0332 0 8
16.6316 -73.1643 -2.4953 0.0332 0 8
17.8086 -72.8867 -2.4953 0.0332 0 8
18.9810 -72.5902 -2.4953 0.0332 0 8
20.1483 -72.2749 -2.4953 0.0332 0 8
21.3671 -72.1317 -2.5019 0.7012 0 8
22.6371 -72.1291 -2.5141 0.9436 0 8
23.9201 -72.1272 -2.5272 0.9387 0 8
25.2167 -72.1252 -2.5410 0.9336 0 8
26.5279 -72.1230 -2.5557 0.9282 0 8
27.8547 -72.1207 -2.5712 0.9227 0 8
29.1979 -72.1182 -2.5875 0.9168 0 8
30.5587 -72.1156 -2.6048 0.9108 0 8
31.9380 -72.1128 -2.6229 0.9044 0 8
33.3201 -72.0735 -2.6407 0.0486 0 8
34.5603 -71.6992 -2.6470 0.0485 0 8
35.7201 -71.1503 -2.6477 0.0332 0 7
36.8621 -70.5653 -2.6477 0.0332 0 7
37.9946 -69.9621 -2.6477 0.0332 0 7
39.1172 -69.3407 -2.6477 0.0332 0 7
40.2297 -68.7012 -2.6477 0.0332 0 7
41.3317 -68.0439 -2.6477 0.0332 0 7
42.4229 -67.3690 -2.6477 0.0332 0 7
43.5031 -66.6765 -2.6477 0.0332 0 7
44.5721 -65.9668 -2.6477 0.0332 0 7
45.6294 -65.2399 -2.6477 0.0332 0 7
46.6749 -64.4960 -2.6477 0.0332 0 7
47.7083 -63.7354 -2.6477 0.0332 0 7
48.7293 -62.9583 -2.6477 0.0332 0 7
49.7376 -62.1648 -2.6477 0.0332 0 7
50.7330 -61.3551 -2.6477 0.0332 0 7
51.7152 -60.5295 -2.6477 0.0332 0 7
52.6841 -59.6881 -2.6477 0.0332 0 7
53.6392 -58.8313 -2.6477 0.0332 0 7
54.5804 -57.9592 -2.6477 0.0332 0 7
55.5073 -57.0721 -2.6477 0.0332 0 7
53.1724 -52.9369 -2.4953 0.0332 0 8
54.0186 -52.0731 -2.4953 0.0332 0 8
54.8508 -51.1958 -2.4953 0.0332 0 8
55.6688 -50.3051 -2.4953 0.0332 0 8
56.4723 -49.4014 -2.4953 0.0332 0 8
57.2612 -48.4848 -2.4953 0.0332 0 8
58.0351 -47.5557 -2.4953 0.0332 0 8
58.7940 -46.6142 -2.4953 0.0332 0 8
59.5376 -45.6606 -2.4953 0.0332 0 8
60.2658 -44.6951 -2.4953 0.0332 0 8
60.9783 -43.7181 -2.4953 0.0332 0 8
61.6749 -42.7297 -2.4953 0.0332 0 8
62.3555 -41.7302 -2.4953 0.0332 0 8
63.0200 -40.7198 -2.4953 0.0332 0 8
63.6681 -39.6988 -2.4953 0.0332 0 8
64.2996 -38.6676 -2.4953 0.0332 0 8
64.9144 -37.6263 -2.4953 0.0332 0 8
65.5124 -36.5752 -2.4953 0.0332 0 8
66.0933 -35.5147 -2.4953 0.0332 0 8
66.6571 -34.4448 -2.4953 0.0332 0 8
67.2036 -33.3661 -2.4953 0.0332 0 8
67.7326 -32.2786 -2.4953 0.0332 0 8
68.2440 -31.1829 -2.4953 0.0332 0 8
68.7377 -30.0789 -2.4953 0.0332 0 8
69.2136 -28.9673 -2.4953 0.0332 0 8
69.6714 -27.8480 -2.4953 0.0332 0 8
70.1112 -26.7216 -2.4953 0.0332 0 8
70.5327 -25.5882 -2.4953 0.0332 0 8
70.9360 -24.4481 -2.4953 0.0332 0 8
71.3207 -23.3017 -2.4953 0.0332 0 8
71.6870 -22.1493 -2.4953 0.0332 0 8
72.0347 -20.9911 -2.4953 0.0332 0 8
72.3636 -19.8274 -2.4953 0.0332 0 8
72.6738 -18.6586 -2.4953 0.0332 0 8
72.9650 -17.4849 -2.4953 0.0332 0 8
73.2374 -16.3068 -2.4953 0.0332 0 8
73.4906 -15.1243 -2.4953 0.0332 0 8
73.7250 -13.9382 -2.4953 0.0332 0 8
73.9400 -12.7481 -2.4953 0.0332 0 8
74.1358 -11.5547 -2.4953 0.0332 0 8
74.3123 -10.3583 -2.4953 0.0332 0 8
74.4697 -9.1594 -2.4953 0.0332 0 8
74.6076 -7.9579 -2.4953 0.0332 0 8
74.7261 -6.7544 -2.4953 0.0332 0 8
74.8253 -5.5494 -2.4953 0.0332 0 8
74.9050 -4.3427 -2.4953 0.0332 0 8
74.9653 -3.1350 -2.4953 0.0332 0 8
75.0061 -1.9264 -2.4953 0.0332 0 8
75.0274 -0.7173 -2.4953 0.0332 0 8
75.0292 0.4920 -2.4953 0.0332 0 8
75.0115 1.7011 -2.4953 0.0332 0 8
74.9744 2.9098 -2.4953 0.0332 0 8
74.9177 4.1177 -2.4953 0.0332 0 8
74.8416 5.3246 -2.4953 0.0332 0 8
74.7461 6.5301 -2.4953 0.0332 0 8
74.6311 7.7339 -2.4953 0.0332 0 8
78.3410 9.3967 -2.6240 0.0274 0 8
78.8837 10.7541 -2.6477 0.0332 0 7
78.7001 12.0240 -2.6477 0.0332 0 7
78.4961 13.2908 -2.6477 0.0332 0 7
78.2717 14.5542 -2.6477 0.0332 0 7
78.0270 15.8138 -2.6477 0.0332 0 7
77.7620 17.0692 -2.6477 0.0332 0 7
77.4768 18.3202 -2.6477 0.0332 0 7
75.5455 19.1543 -2.5919 0.2449 0 8
72.6440 19.6699 -2.5029 0.0332 0 14
72.3176 20.8381 -2.5029 0.0332 0 14
71.9723 22.0009 -2.5029 0.0332 0 14
75.7506 24.4975 -2.6477 0.0332 0 7
75.3460 25.7151 -2.6477 0.0332 0 7
-54.7087 -32.5851 -2.6477 0.0415 0 7
-54.1764 -33.4626 -2.6477 0.0415 0 7
-53.6301 -34.3314 -2.6477 0.0415 0 7
-53.0698 -35.1913 -2.6477 0.0415 0 7
-52.4958 -36.0420 -2.6477 0.0415 0 7
-51.9081 -36.8833 -2.6477 0.0415 0 7
-51.3069 -37.7151 -2.6477 0.0415 0 7
-50.6924 -38.5371 -2.6477 0.0415 0 7
-50.0648 -39.3490 -2.6477 0.0415 0 7
-49.4241 -40.1508 -2.6477 0.0415 0 7
-48.7706 -40.9421 -2.6477 0.0415 0 7
-48.1044 -41.7228 -2.6477 0.0415 0 7
-47.4258 -42.4927 -2.6477 0.0415 0 7
-46.7348 -43.2515 -2.6477 0.0415 0 6
-46.0317 -43.9990 -2.6477 0.0415 0 7
-45.3166 -44.7352 -2.6477 0.0415 0 7
-44.5897 -45.4598 -2.6477 0.0415 0 7
-43.8513 -46.1724 -2.6477 0.0415 0 7
-43.1015 -46.8731 -2.6477 0.0415 0 7
-42.3404 -47.5617 -2.6477 0.0415 0 7
-41.5684 -48.2379 -2.6477 0.0415 0 6
-40.7856 -48.9016 -2.6477 0.0415 0 6
-39.9921 -49.5526 -2.6477 0.0415 0 7
-36.9327 -47.3017 -2.4953 0.0415 0 8
-36.1655 -47.8907 -2.4953 0.0415 0 8
-35.3890 -48.4674 -2.4953 0.0415 0 8
-34.6034 -49.0314 -2.4953 0.0415 0 8
-33.8086 -49.5827 -2.4953 0.0415 0 8
-33.0052 -50.1212 -2.4953 0.0415 0 8
-32.1931 -50.6466 -2.4953 0.0415 0 8
-31.3727 -51.1588 -2.4953 0.0415 0 8
-30.5441 -51.6578 -2.4953 0.0415 0 8
-29.7076 -52.1433 -2.4953 0.0415 0 8
-28.8634 -52.6154 -2.4953 0.0415 0 8
-28.0117 -53.0738 -2.4953 0.0415 0 8
-27.1526 -53.5183 -2.4953 0.0415 0 8
-27.8921 -57.2439 -2.6477 0.0415 0 7
-26.9659 -57.6860 -2.6477 0.0415 0 7
-26.0327 -58.1131 -2.6477 0.0415 0 7
-25.0927 -58.5251 -2.6477 0.0415 0 7
-24.1463 -58.9219 -2.6477 0.0415 0 7
-23.1935 -59.3034 -2.6477 0.0415 0 7
-22.2348 -59.6695 -2.6477 0.0415 0 7
-21.2702 -60.0201 -2.6477 0.0415 0 7
-20.3002 -60.3551 -2.6477 0.0415 0 7
-19.3249 -60.6744 -2.6477 0.0415 0 7
-18.3445 -60.9779 -2.6477 0.0415 0 7
-17.3594 -61.2657 -2.6477 0.0415 0 7
-16.3698 -61.5375 -2.6477 0.0415 0 7
-15.3759 -61.7933 -2.6477 0.0415 0 7
-14.3780 -62.0331 -2.6477 0.0415 0 7
-13.3763 -62.2568 -2.6477 0.0415 0 7
-12.3713 -62.4642 -2.6477 0.0415 0 7
-11.3630 -62.6555 -2.6477 0.0415 0 7
-10.3518 -62.8305 -2.6477 0.0415 0 7
-9.3378 -62.9892 -2.6477 0.0415 0 6
-8.3214 -63.1315 -2.6477 0.0415 0 7
-7.3029 -63.2574 -2.6477 0.0415 0 7
-6.2824 -63.3669 -2.6477 0.0415 0 7
-5.2604 -63.4599 -2.6477 0.0415 0 7
-4.2369 -63.5364 -2.6477 0.0415 0 7
-3.2124 -63.5965 -2.6477 0.0415 0 7
-2.1870 -63.6400 -2.6477 0.0415 0 7
-1.1611 -63.6670 -2.6477 0.0415 0 7
-0.1349 -63.6774 -2.6477 0.0415 0 7
0.8914 -63.6713 -2.6477 0.0415 0 7
1.9174 -63.6487 -2.6477 0.0415 0 7
2.9429 -63.6095 -2.6477 0.0415 0 7
3.9677 -63.5538 -2.6477 0.0415 0 7
4.9915 -63.4816 -2.6477 0.0415 0 7
6.0139 -63.3929 -2.6477 0.0415 0 7
7.0348 -63.2878 -2.6477 0.0415 0 7
8.0538 -63.1662 -2.6477 0.0415 0 7
9.0708 -63.0282 -2.6477 0.0415 0 7
10.0854 -62.8738 -2.6477 0.0415 0 7
11.0973 -62.7031 -2.6477 0.0415 0 7
12.1065 -62.5161 -2.6477 0.0415 0 6
13.1125 -62.3129 -2.6477 0.0415 0 7
14.1150 -62.0934 -2.6477 0.0415 0 7
15.1139 -61.8579 -2.6477 0.0415 0 7
16.1089 -61.6063 -2.6477 0.0415 0 7
17.0997 -61.3387 -2.6477 0.0415 0 7
18.0860 -61.0551 -2.6477 0.0415 0 7
19.0676 -60.7557 -2.6477 0.0415 0 7
20.0443 -60.4405 -2.6477 0.0415 0 7
21.0158 -60.1096 -2.6477 0.0415 0 7
21.9818 -59.7631 -2.6477 0.0415 0 7
22.9421 -59.4011 -2.6477 0.0415 0 7
23.8964 -59.0236 -2.6477 0.0415 0 7
24.8446 -58.6309 -2.6477 0.0415 0 7
25.7863 -58.2228 -2.6477 0.0415 0 7
26.7213 -57.7997 -2.6477 0.0415 0 7
27.6493 -57.3615 -2.6477 0.0415 0 7
28.5702 -56.9085 -2.6477 0.0415 0 7
29.4836 -56.4406 -2.6477 0.0415 0 7
28.6402 -52.7372 -2.4953 0.0415 0 8
29.4864 -52.2688 -2.4953 0.0415 0 8
30.3250 -51.7867 -2.4953 0.0415 0 8
31.1557 -51.2913 -2.4953 0.0415 0 8
31.9782 -50.7825 -2.4953 0.0415 0 8
32.7925 -50.2605 -2.4953 0.0415 0 8
33.5983 -49.7255 -2.4953 0.0415 0 8
34.3953 -49.1776 -2.4953 0.0415 0 8
35.1834 -48.6169 -2.4953 0.0415 0 8
35.9623 -48.0435 -2.4953 0.0415 0 8
36.7320 -47.4577 -2.4953 0.0415 0 8
37.4920 -46.8596 -2.4953 0.0415 0 22
38.2424 -46.2493 -2.4953 0.0415 0 22
38.9828 -45.6269 -2.4953 0.0415 0 22
39.7131 -44.9927 -2.4953 0.0415 0 8
40.4330 -44.3468 -2.4953 0.0415 0 8
41.1425 -43.6893 -2.4953 0.0415 0 8
41.8412 -43.0207 -2.4953 0.0415 0 8
42.5292 -42.3408 -2.4953 0.0415 0 8
43.2060 -41.6499 -2.4953 0.0415 0 8
43.8716 -40.9482 -2.4953 0.0415 0 8
44.5258 -40.2358 -2.4953 0.0415 0 8
45.1685 -39.5130 -2.4953 0.0415 0 8
45.7995 -38.7800 -2.4953 0.0415 0 8
46.4185 -38.0369 -2.4953 0.0415 0 8
47.0255 -37.2836 -2.4953 0.0415 0 8
47.6203 -36.5210 -2.4953 0.0415 0 8
48.2027 -35.7487 -2.4953 0.0415 0 8
48.7726 -34.9673 -2.4953 0.0415 0 8
49.3298 -34.1767 -2.4953 0.0415 0 8
49.8742 -33.3772 -2.4953 0.0415 0 8
50.4056 -32.5691 -2.4953 0.0415 0 8
50.9240 -31.7525 -2.4953 0.0415 0 8
51.4291 -30.9277 -2.4953 0.0415 0 8
51.9208 -30.0948 -2.4953 0.0415 0 8
52.3991 -29.2541 -2.4953 0.0415 0 8
52.8638 -28.4058 -2.4953 0.0415 0 8
53.3147 -27.5502 -2.4953 0.0415 0 8
53.7518 -26.6874 -2.4953 0.0415 0 8
54.1749 -25.8176 -2.4953 0.0415 0 8
54.5840 -24.9412 -2.4953 0.0415 0 8
54.9788 -24.0582 -2.4953 0.0415 0 8
55.3594 -23.1690 -2.4953 0.0415 0 8
55.7257 -22.2738 -2.4953 0.0415 0 8
56.0774 -21.3728 -2.4953 0.0415 0 8
56.4146 -20.4663 -2.4953 0.0415 0 8
56.7371 -19.5545 -2.4953 0.0415 0 8
57.0448 -18.6375 -2.4953 0.0415 0 8
57.3378 -17.7158 -2.4953 0.0415 0 8
57.6159 -16.7894 -2.4953 0.0415 0 8
57.8790 -15.8587 -2.4953 0.0415 0 8
58.1270 -14.9238 -2.4953 0.0415 0 8
58.3600 -13.9851 -2.4953 0.0415 0 8
58.5778 -13.0427 -2.4953 0.0415 0 8
58.7804 -12.0969 -2.4953 0.0415 0 8
58.9677 -11.1480 -2.4953 0.0415 0 8
59.1397 -10.1962 -2.4953 0.0415 0 8
59.2964 -9.2418 -2.4953 0.0415 0 8
59.4376 -8.2850 -2.4953 0.0415 0 8
59.5634 -7.3260 -2.4953 0.0415 0 8
59.6738 -6.3651 -2.4953 0.0415 0 8
59.7686 -5.4025 -2.4953 0.0415 0 8
59.8479 -4.4386 -2.4953 0.0415 0 8
59.9117 -3.4734 -2.4953 0.0415 0 8
59.9599 -2.5074 -2.4953 0.0415 0 8
59.9925 -1.5408 -2.4953 0.0415 0 8
60.0095 -0.5737 -2.4953 0.0415 0 8
60.0110 0.3935 -2.4953 0.0415 0 8
59.9968 1.3606 -2.4953 0.0415 0 8
59.9671 2.3274 -2.4953 0.0415 0 8
59.9218 3.2935 -2.4953 0.0415 0 8
59.8610 4.2588 -2.4953 0.0415 0 8
59.7845 5.2230 -2.4953 0.0415 0 8
59.6926 6.1858 -2.4953 0.0415 0 8
59.5852 7.1470 -2.4953 0.0415 0 8
59.4622 8.1064 -2.4953 0.0415 0 8
62.9471 9.6173 -2.6477 0.0415 0 7
62.7839 10.6305 -2.6477 0.0415 0 7
62.6045 11.6410 -2.6477 0.0415 0 6
62.4087 12.6484 -2.6477 0.0415 0 7
62.1968 13.6526 -2.6477 0.0415 0 7
61.9687 14.6532 -2.6477 0.0415 0 7
61.7245 15.6500 -2.6477 0.0415 0 7
61.4642 16.6427 -2.6477 0.0415 0 7
61.1880 17.6311 -2.6477 0.0415 0 7
60.8959 18.6150 -2.6477 0.0415 0 6
59.0924 19.1103 -2.5823 0.3073 0 8
56.9690 19.4432 -2.5029 0.0415 0 14
-45.5789 -27.1474 -2.6477 0.0498 0 7
-45.1355 -27.8784 -2.6477 0.0498 0 7
-44.6803 -28.6022 -2.6477 0.0498 0 7
-44.2136 -29.3186 -2.6477 0.0498 0 7
-43.7353 -30.0273 -2.6477 0.0498 0 7
-43.2457 -30.7283 -2.6477 0.0498 0 7
-42.7449 -31.4212 -2.6477 0.0498 0 7
-42.2329 -32.1060 -2.6477 0.0498 0 7
-41.7100 -32.7825 -2.6477 0.0498 0 7
-41.1763 -33.4504 -2.6477 0.0498 0 7
-40.6318 -34.1097 -2.6477 0.0498 0 7
-40.0768 -34.7601 -2.6477 0.0498 0 7
-37.2371 -33.3638 -2.4953 0.0498 0 8
-36.6946 -33.9596 -2.4953 0.0498 0 8
-36.1425 -34.5466 -2.4953 0.0498 0 8
-35.5811 -35.1246 -2.4953 0.0498 0 8
-35.0103 -35.6935 -2.4953 0.0498 0 8
-34.4305 -36.2531 -2.4953 0.0498 0 8
-33.8418 -36.8032 -2.4953 0.0498 0 8
-33.2443 -37.3439 -2.4953 0.0498 0 8
-32.6381 -37.8748 -2.4953 0.0498 0 8
-32.0235 -38.3959 -2.4953 0.0498 0 8
-31.4005 -38.9070 -2.4953 0.0498 0 8
-30.7694 -39.4080 -2.4953 0.0498 0 8
-30.1303 -39.8988 -2.4953 0.0498 0 8
-29.4833 -40.3792 -2.4953 0.0498 0 8
-28.8288 -40.8491 -2.4953 0.0498 0 8
-28.1667 -41.3084 -2.4953 0.0498 0 8
-27.4973 -41.7570 -2.4953 0.0498 0 8
-26.8207 -42.1947 -2.4953 0.0498 0 8
-26.1372 -42.6215 -2.4953 0.0498 0 8
-25.4469 -43.0372 -2.4953 0.0498 0 8
-24.7500 -43.4417 -2.4953 0.0498 0 8
-24.0467 -43.8350 -2.4953 0.0498 0 8
-23.3371 -44.2168 -2.4953 0.0498 0 8
-22.6214 -44.5872 -2.4953 0.0498 0 8
-21.8999 -44.9460 -2.4953 0.0498 0 8
-21.1727 -45.2931 -2.4953 0.0498 0 22
-20.4400 -45.6284 -2.4953 0.0498 0 22
-19.7020 -45.9519 -2.4953 0.0498 0 22
-18.9588 -46.2635 -2.4953 0.0498 0 22
-18.2108 -46.5630 -2.4953 0.0498 0 22
-17.4580 -46.8505 -2.4953 0.0498 0 22
-16.7007 -47.1257 -2.4953 0.0498 0 22
-15.9390 -47.3888 -2.4953 0.0498 0 8
-15.1732 -47.6395 -2.4953 0.0498 0 8
-14.4035 -47.8778 -2.4953 0.0498 0 8
-13.6300 -48.1037 -2.4953 0.0498 0 8
-12.8530 -48.3172 -2.4953 0.0498 0 8
-12.0726 -48.5181 -2.4953 0.0498 0 8
-11.2891 -48.7063 -2.4953 0.0498 0 8
-10.5027 -48.8819 -2.4953 0.0498 0 8
-9.7135 -49.0448 -2.4953 0.0498 0 8
-8.9218 -49.1950 -2.4953 0.0498 0 8
-8.1278 -49.3324 -2.4953 0.0498 0 8
-7.3317 -49.4570 -2.4953 0.0498 0 8
-6.5337 -49.5687 -2.4953 0.0498 0 8
-5.7340 -49.6676 -2.4953 0.0498 0 8
-4.9327 -49.7536 -2.4953 0.0498 0 8
-4.1302 -49.8266 -2.4953 0.0498 0 8
-3.3267 -49.8867 -2.4953 0.0498 0 8
-2.5223 -49.9338 -2.4953 0.0498 0 8
-1.7172 -49.9680 -2.4953 0.0498 0 8
-0.9117 -49.9892 -2.4953 0.0498 0 8
-0.1059 -49.9974 -2.4953 0.0498 0 8
0.6999 -49.9926 -2.4953 0.0498 0 8
1.5055 -49.9748 -2.4953 0.0498 0 8
2.3107 -49.9441 -2.4953 0.0498 0 8
3.1153 -49.9003 -2.4953 0.0498 0 8
3.9191 -49.8436 -2.4953 0.0498 0 8
4.7219 -49.7740 -2.4953 0.0498 0 8
5.5235 -49.6914 -2.4953 0.0498 0 8
6.3236 -49.5960 -2.4953 0.0498 0 8
7.1221 -49.4876 -2.4953 0.0498 0 8
7.9187 -49.3664 -2.4953 0.0498 0 8
8.7133 -49.2324 -2.4953 0.0498 0 8
9.5056 -49.0855 -2.4953 0.0498 0 8
10.2955 -48.9260 -2.4953 0.0498 0 8
11.0827 -48.7537 -2.4953 0.0498 0 8
11.8669 -48.5687 -2.4953 0.0498 0 8
12.6481 -48.3712 -2.4953 0.0498 0 8
13.4261 -48.1611 -2.4953 0.0498 0 8
14.2005 -47.9384 -2.4953 0.0498 0 8
14.9713 -47.7033 -2.4953 0.0498 0 8
15.7381 -47.4559 -2.4953 0.0498 0 8
16.5009 -47.1961 -2.4953 0.0498 0 8
17.2594 -46.9240 -2.4953 0.0498 0 22
18.0133 -46.6398 -2.4953 0.0498 0 22
18.7627 -46.3434 -2.4953 0.0498 0 22
19.5071 -46.0350 -2.4953 0.0498 0 22
20.2465 -45.7146 -2.4953 0.0498 0 22
20.9806 -45.3824 -2.4953 0.0498 0 22
21.7093 -45.0384 -2.4953 0.0498 0 22
22.4323 -44.6826 -2.4953 0.0498 0 8
23.1496 -44.3153 -2.4953 0.0498 0 8
23.8607 -43.9365 -2.4953 0.0498 0 8
24.5658 -43.5462 -2.4953 0.0498 0 8
25.2644 -43.1446 -2.4953 0.0498 0 8
25.9564 -42.7319 -2.4953 0.0498 0 8
26.6418 -42.3080 -2.4953 0.0498 0 8
27.3201 -41.8731 -2.4953 0.0498 0 8
27.9914 -41.4274 -2.4953 0.0498 0 8
28.6555 -40.9709 -2.4953 0.0498 0 8
29.3120 -40.5037 -2.4953 0.0498 0 8
29.9610 -40.0261 -2.4953 0.0498 0 8
30.6022 -39.5380 -2.4953 0.0498 0 8
31.2354 -39.0397 -2.4953 0.0498 0 8
31.8605 -38.5312 -2.4953 0.0498 0 8
32.4774 -38.0127 -2.4953 0.0498 0 8
33.0858 -37.4844 -2.4953 0.0498 0 8
33.6856 -36.9463 -2.4953 0.0498 0 8
34.2767 -36.3986 -2.4953 0.0498 0 8
34.8588 -35.8415 -2.4953 0.0498 0 8
35.4319 -35.2750 -2.4953 0.0498 0 8
35.9958 -34.6994 -2.4953 0.0498 0 8
36.5504 -34.1148 -2.4953 0.0498 0 8
37.0954 -33.5213 -2.4953 0.0498 0 8
37.6309 -32.9191 -2.4953 0.0498 0 8
38.1565 -32.3083 -2.4953 0.0498 0 8
38.6723 -31.6892 -2.4953 0.0498 0 8
39.1780 -31.0618 -2.4953 0.0498 0 8
39.6735 -30.4264 -2.4953 0.0498 0 8
40.1587 -29.7831 -2.4953 0.0498 0 8
40.6334 -29.1320 -2.4953 0.0498 0 8
41.0977 -28.4733 -2.4953 0.0498 0 8
41.5512 -27.8073 -2.4953 0.0498 0 8
41.9940 -27.1340 -2.4953 0.0498 0 8
42.4258 -26.4536 -2.4953 0.0498 0 8
42.8466 -25.7667 -2.4953 0.0498 0 8
43.2563 -25.0726 -2.4953 0.0498 0 8
43.6548 -24.3722 -2.4953 0.0498 0 8
44.0419 -23.6655 -2.4953 0.0498 0 8
44.4176 -22.9526 -2.4953 0.0498 0 8
44.7817 -22.2339 -2.4953 0.0498 0 8
45.1342 -21.5093 -2.4953 0.0498 0 8
45.4750 -20.7791 -2.4953 0.0498 0 8
45.8036 -20.0454 -2.4953 0.0498 0 8
46.1211 -19.3025 -2.4953 0.0498 0 8
46.4262 -18.5568 -2.4953 0.0498 0 8
46.7193 -17.8062 -2.4953 0.0498 0 8
47.0002 -17.0509 -2.4953 0.0498 0 8
47.2688 -16.2912 -2.4953 0.0498 0 8
47.5253 -15.5273 -2.4953 0.0498 0 8
47.7693 -14.7594 -2.4953 0.0498 0 8
48.0010 -13.9876 -2.4953 0.0498 0 8
48.2202 -13.2122 -2.4953 0.0498 0 8
48.4269 -12.4333 -2.4953 0.0498 0 8
48.6209 -11.6512 -2.4953 0.0498 0 8
48.8024 -10.8662 -2.4953 0.0498 0 8
48.9712 -10.0782 -2.4953 0.0498 0 8
49.1273 -9.2877 -2.4953 0.0498 0 8
49.2706 -8.4947 -2.4953 0.0498 0 8
49.4011 -7.6995 -2.4953 0.0498 0 8
49.5187 -6.9024 -2.4953 0.0498 0 8
49.6235 -6.1034 -2.4953 0.0498 0 8
49.7155 -5.3029 -2.4953 0.0498 0 8
49.7945 -4.5009 -2.4953 0.0498 0 8
49.8605 -3.6979 -2.4953 0.0498 0 8
49.9137 -2.8938 -2.4953 0.0498 0 8
49.9538 -2.0890 -2.4953 0.0498 0 8
49.9810 -1.2837 -2.4953 0.0498 0 8
49.9952 -0.4780 -2.4953 0.0498 0 8
49.9964 0.3278 -2.4953 0.0498 0 8
49.9846 1.1335 -2.4953 0.0498 0 8
49.9599 1.9390 -2.4953 0.0498 0 8
49.9221 2.7439 -2.4953 0.0498 0 8
49.8714 3.5481 -2.4953 0.0498 0 8
49.8078 4.3514 -2.4953 0.0498 0 8
49.7312 5.1535 -2.4953 0.0498 0 8
49.6417 5.9543 -2.4953 0.0498 0 8
49.5392 6.7536 -2.4953 0.0498 0 8
49.4240 7.5511 -2.4953 0.0498 0 8
49.2959 8.3467 -2.4953 0.0498 0 8
49.2767 9.1627 -2.5015 0.0498 0 8
51.9940 10.5376 -2.6477 0.0498 0 7
51.8174 11.3742 -2.6477 0.0498 0 7
51.6274 12.2079 -2.6477 0.0498 0 7
51.4239 13.0383 -2.6477 0.0498 0 7
51.2071 13.8654 -2.6477 0.0498 0 7
50.9770 14.6889 -2.6477 0.0498 0 7
50.7337 15.5085 -2.6477 0.0498 0 7
50.4771 16.3241 -2.6477 0.0498 0 7
50.2075 17.1355 -2.6477 0.0498 0 7
-36.8079 -21.9232 -2.4953 0.0581 0 8
-36.4498 -22.5136 -2.4953 0.0581 0 8
-36.0823 -23.0981 -2.4953 0.0581 0 8
-35.7053 -23.6767 -2.4953 0.0581 0 8
-35.3191 -24.2490 -2.4953 0.0581 0 8
-34.9237 -24.8150 -2.4953 0.0581 0 8
-34.5193 -25.3747 -2.4953 0.0581 0 8
-34.1058 -25.9277 -2.4953 0.0581 0 8
-33.6835 -26.4740 -2.4953 0.0581 0 8
-33.2525 -27.0134 -2.4953 0.0581 0 8
-32.8128 -27.5458 -2.4953 0.0581 0 8
-32.3646 -28.0711 -2.4953 0.0581 0 8
-31.9080 -28.5890 -2.4953 0.0581 0 8
-31.4431 -29.0996 -2.4953 0.0581 0 8
-30.9701 -29.6025 -2.4953 0.0581 0 8
-30.4890 -30.0978 -2.4953 0.0581 0 8
-29.9999 -30.5853 -2.4953 0.0581 0 8
-29.5022 -31.0125 -2.4953 0.0582 0 8
-28.9986 -31.5362 -2.4953 0.0581 0 8
-28.4866 -31.9995 -2.4953 0.0581 0 8
-27.9672 -32.4544 -2.4953 0.0581 0 8
-27.4405 -32.9009 -2.4953 0.0581 0 8
-26.9067 -33.3389 -2.4953 0.0581 0 8
-26.3659 -33.7682 -2.4953 0.0581 0 8
-25.8182 -34.1888 -2.4953 0.0581 0 8
-25.2639 -34.6004 -2.4953 0.0581 0 8
-24.7030 -35.0031 -2.4953 0.0581 0 8
-24.1357 -35.3966 -2.4953 0.0581 0 8
-23.5621 -35.7810 -2.4953 0.0581 0 8
-22.9823 -36.1561 -2.4953 0.0581 0 8
-22.3967 -36.5218 -2.4953 0.0581 0 8
-21.8051 -36.8780 -2.4953 0.0581 0 8
-21.2080 -37.2246 -2.4953 0.0581 0 8
-20.6053 -37.5616 -2.4953 0.0581 0 8
-19.9972 -37.8888 -2.4953 0.0581 0 8
-19.3840 -38.2062 -2.4953 0.0581 0 8
-18.7657 -38.5136 -2.4953 0.0581 0 8
-18.1426 -38.8111 -2.4953 0.0581 0 8
-17.5148 -39.0984 -2.4953 0.0581 0 8
-16.8824 -39.3756 -2.4953 0.0581 0 8
-16.2456 -39.6426 -2.4953 0.0581 0 8
-15.6046 -39.8992 -2.4953 0.0581 0 8
-14.9595 -40.1455 -2.4953 0.0581 0 8
-14.3106 -40.3814 -2.4953 0.0581 0 8
-13.6579 -40.6068 -2.4953 0.0581 0 8
-13.0017 -40.8217 -2.4953 0.0581 0 8
-12.3422 -41.0259 -2.4953 0.0581 0 8
-11.6794 -41.2195 -2.4953 0.0581 0 8
-11.0136 -41.4023 -2.4953 0.0581 0 8
-10.3449 -41.5745 -2.4953 0.0581 0 8
-9.6734 -41.7360 -2.4953 0.0581 0 8
-8.9996 -41.8863 -2.4953 0.0581 0 8
-8.3234 -42.0259 -2.4953 0.0581 0 8
-7.6450 -42.1546 -2.4953 0.0581 0 8
-6.9646 -42.2723 -2.4953 0.0581 0 8
-6.2824 -42.3790 -2.4953 0.0581 0 8
-5.5986 -42.4749 -2.4953 0.0581 0 8
-4.9133 -42.5595 -2.4953 0.0581 0 8
-4.2268 -42.6332 -2.4953 0.0581 0 8
-3.5392 -42.6958 -2.4953 0.0581 0 8
-2.8506 -42.7472 -2.4953 0.0581 0 8
-2.1613 -42.7876 -2.4953 0.0581 0 8
-1.4714 -42.8169 -2.4953 0.0581 0 8
-0.7812 -42.8351 -2.4953 0.0581 0 8
-0.0907 -42.8421 -2.4953 0.0581 0 8
0.5997 -42.8380 -2.4953 0.0581 0 8
1.2900 -42.8228 -2.4953 0.0581 0 8
1.9800 -42.7964 -2.4953 0.0581 0 8
2.6695 -42.7589 -2.4953 0.0581 0 8
3.3582 -42.7104 -2.4953 0.0581 0 8
4.0462 -42.6507 -2.4953 0.0581 0 8
4.7330 -42.5799 -2.4953 0.0581 0 8
5.4186 -42.4981 -2.4953 0.0581 0 8
6.1028 -42.4053 -2.4953 0.0581 0 8
6.7855 -42.3014 -2.4953 0.0581 0 8
7.4663 -42.1866 -2.4953 0.0581 0 8
8.1453 -42.0608 -2.4953 0.0581 0 8
8.8221 -41.9240 -2.4953 0.0581 0 8
9.4966 -41.7764 -2.4953 0.0581 0 8
10.1686 -41.6182 -2.4953 0.0581 0 8
10.8380 -41.4486 -2.4953 0.0581 0 8
11.5046 -41.2686 -2.4953 0.0581 0 8
12.1682 -41.0778 -2.4953 0.0581 0 8
12.8287 -40.8764 -2.4953 0.0581 0 8
13.4858 -40.6643 -2.4953 0.0581 0 8
14.1394 -40.4417 -2.4953 0.0581 0 8
14.7893 -40.2086 -2.4953 0.0581 0 8
15.4354 -39.9650 -2.4953 0.0581 0 8
16.0775 -39.7110 -2.4953 0.0581 0 8
16.7154 -39.4468 -2.4953 0.0581 0 8
17.3490 -39.1723 -2.4953 0.0581 0 8
17.9780 -38.8876 -2.4953 0.0581 0 8
18.6024 -38.5928 -2.4953 0.0581 0 8
19.2220 -38.2880 -2.4953 0.0581 0 8
19.8366 -37.9732 -2.4953 0.0581 0 8
20.4460 -37.6486 -2.4953 0.0581 0 8
21.0501 -37.3142 -2.4953 0.0581 0 8
21.6487 -36.9701 -2.4953 0.0581 0 8
22.2417 -36.6164 -2.4953 0.0581 0 8
22.8290 -36.2531 -2.4953 0.0581 0 8
23.4103 -35.8805 -2.4953 0.0581 0 8
23.9855 -35.4986 -2.4953 0.0581 0 8
24.5545 -35.1074 -2.4953 0.0581 0 8
25.1171 -34.7071 -2.4953 0.0581 0 8
25.6732 -34.2978 -2.4953 0.0581 0 8
26.2226 -33.8796 -2.4953 0.0581 0 8
26.7652 -33.4526 -2.4953 0.0581 0 8
27.3009 -33.0169 -2.4953 0.0581 0 8
27.8294 -32.5726 -2.4953 0.0581 0 8
28.3508 -32.1199 -2.4953 0.0581 0 8
28.8648 -31.6588 -2.4953 0.0581 0 8
29.3712 -31.1895 -2.4953 0.0581 0 8
29.8700 -30.7121 -2.4953 0.0581 0 8
30.3612 -30.2267 -2.4953 0.0581 0 8
30.8444 -29.7335 -2.4953 0.0581 0 8
31.3196 -29.2313 -2.4953 0.0581 0 8
31.7866 -28.7240 -2.4953 0.0581 0 8
32.2454 -28.2079 -2.4953 0.0581 0 8
32.6958 -27.6846 -2.4953 0.0581 0 8
33.1378 -27.1540 -2.4953 0.0581 0 8
33.5711 -26.6164 -2.4953 0.0581 0 8
33.9957 -26.0720 -2.4953 0.0581 0 8
34.4114 -25.5207 -2.4953 0.0581 0 8
34.8183 -24.9628 -2.4953 0.0581 0 8
35.2160 -24.3984 -2.4953 0.0581 0 8
35.6047 -23.8277 -2.4953 0.0581 0 8
35.9841 -23.2508 -2.4953 0.0581 0 8
36.3541 -22.6678 -2.4953 0.0581 0 8
36.7147 -22.0790 -2.4953 0.0581 0 8
37.0658 -21.4844 -2.4953 0.0581 0 8
37.4072 -20.8842 -2.4953 0.0581 0 8
37.7389 -20.2787 -2.4953 0.0581 0 8
38.0609 -19.6677 -2.4953 0.0581 0 8
38.3729 -19.0519 -2.4953 0.0581 0 8
38.6750 -18.4309 -2.4953 0.0581 0 8
38.9670 -17.8052 -2.4953 0.0581 0 8
39.2489 -17.1750 -2.4953 0.0581 0 8
39.5206 -16.5402 -2.4953 0.0581 0 8
39.7820 -15.9010 -2.4953 0.0581 0 8
40.0331 -15.2579 -2.4953 0.0581 0 8
40.2738 -14.6107 -2.4953 0.0581 0 8
40.5041 -13.9597 -2.4953 0.0581 0 8
40.7238 -13.3052 -2.4953 0.0581 0 8
40.9329 -12.6471 -2.4953 0.0581 0 8
41.1314 -11.9857 -2.4953 0.0581 0 8
41.3193 -11.3213 -2.4953 0.0581 0 8
41.4964 -10.6539 -2.4953 0.0581 0 8
41.6627 -9.9838 -2.4953 0.0581 0 8
41.8181 -9.3111 -2.4953 0.0581 0 8
41.9628 -8.6359 -2.4953 0.0581 0 8
42.0965 -7.9585 -2.4953 0.0581 0 8
42.2193 -7.2790 -2.4953 0.0581 0 8
42.3311 -6.5976 -2.4953 0.0581 0 8
42.4320 -5.9145 -2.4953 0.0581 0 8
42.5218 -5.2299 -2.4953 0.0581 0 8
42.6005 -4.5439 -2.4953 0.0581 0 8
42.6682 -3.8568 -2.4953 0.0581 0 8
42.7248 -3.1687 -2.4953 0.0581 0 8
42.7704 -2.4797 -2.4953 0.0581 0 8
42.8048 -1.7901 -2.4953 0.0581 0 8
42.8281 -1.1000 -2.4953 0.0581 0 8
42.8402 -0.4095 -2.4953 0.0581 0 8
42.8413 0.2809 -2.4953 0.0581 0 8
42.8312 0.9713 -2.4953 0.0581 0 8
42.8100 1.6615 -2.4953 0.0581 0 8
42.7776 2.3512 -2.4953 0.0581 0 8
42.7342 3.0403 -2.4953 0.0581 0 8
42.6796 3.7286 -2.4953 0.0581 0 8
42.6140 4.4160 -2.4953 0.0581 0 8
42.5373 5.1022 -2.4953 0.0581 0 8
42.4495 5.7871 -2.4953 0.0581 0 8
42.3507 6.4705 -2.4953 0.0581 0 8
42.2410 7.1522 -2.4953 0.0581 0 8
42.1202 7.8320 -2.4953 0.0581 0 8
41.9886 8.5098 -2.4953 0.0581 0 8
44.4017 9.7464 -2.6477 0.0581 0 7
44.2388 10.4608 -2.6477 0.0581 0 7
44.0645 11.1724 -2.6477 0.0581 0 7
43.8787 11.8811 -2.6477 0.0581 0 7
43.6815 12.5867 -2.6477 0.0581 0 7
43.4730 13.2890 -2.6477 0.0581 0 7
43.2532 13.9879 -2.6477 0.0581 0 7
43.0221 14.6832 -2.6477 0.0581 0 7
-32.1958 -19.1762 -2.4953 0.0664 0 8
-31.8825 -19.6926 -2.4953 0.0664 0 8
-31.5610 -20.2038 -2.4953 0.0664 0 8
-31.2313 -20.7095 -2.4953 0.0664 0 8
-30.8935 -21.2105 -2.4953 0.0664 0 8
-30.5477 -21.7056 -2.4953 0.0664 0 8
-30.1939 -22.1951 -2.4953 0.0664 0 8
-29.8322 -22.6789 -2.4953 0.0664 0 8
-29.4629 -23.1567 -2.4953 0.0664 0 8
-29.0858 -23.6285 -2.4953 0.0664 0 8
-28.7013 -24.0942 -2.4953 0.0664 0 8
-28.3092 -24.5537 -2.4953 0.0664 0 8
-27.9098 -25.0067 -2.4953 0.0664 0 8
-27.5032 -25.4533 -2.4953 0.0664 0 8
-27.0894 -25.8932 -2.4953 0.0664 0 8
-26.6686 -26.3264 -2.4953 0.0664 0 8
-26.2408 -26.7528 -2.4953 0.0664 0 8
-25.8063 -27.1722 -2.4953 0.0664 0 8
-25.3650 -27.5846 -2.4953 0.0664 0 8
-24.9171 -27.9898 -2.4953 0.0664 0 8
-24.4628 -28.3878 -2.4953 0.0664 0 8
-24.0021 -28.7783 -2.4953 0.0664 0 8
-23.5352 -29.1614 -2.4953 0.0664 0 8
-23.0621 -29.5369 -2.4953 0.0664 0 8
-22.5831 -29.9048 -2.4953 0.0664 0 8
-22.0982 -30.2649 -2.4953 0.0664 0 8
-21.6076 -30.6170 -2.4953 0.0664 0 8
-21.1114 -30.9613 -2.4953 0.0664 0 8
-20.6096 -31.2975 -2.4953 0.0664 0 8
-20.1026 -31.6256 -2.4953 0.0664 0 8
-19.5903 -31.9455 -2.4953 0.0664 0 8
-19.0729 -32.2571 -2.4953 0.0664 0 8
-18.5505 -32.5603 -2.4953 0.0664 0 8
-18.0234 -32.8550 -2.4953 0.0664 0 8
-17.4915 -33.1412 -2.4953 0.0664 0 8
-16.9551 -33.4188 -2.4953 0.0664 0 8
-16.4143 -33.6877 -2.4953 0.0664 0 8
-15.8693 -33.9479 -2.4953 0.0664 0 8
-15.3201 -34.1992 -2.4953 0.0664 0 8
-14.7670 -34.4417 -2.4953 0.0664 0 8
-14.2100 -34.6752 -2.4953 0.0664 0 8
-13.6493 -34.8997 -2.4953 0.0664 0 8
-13.0850 -35.1152 -2.4953 0.0664 0 8
-12.5174 -35.3215 -2.4953 0.0664 0 8
-11.9466 -35.5186 -2.4953 0.0664 0 8
-11.3726 -35.7064 -2.4953 0.0664 0 8
-10.7956 -35.8852 -2.4953 0.0664 0 8
-10.2159 -36.0545 -2.4953 0.0664 0 8
-9.6335 -36.2146 -2.4953 0.0664 0 8
-9.0486 -36.3650 -2.4953 0.0664 0 8
-8.4614 -36.5061 -2.4953 0.0664 0 8
-7.8719 -36.6378 -2.4953 0.0664 0 8
-7.2804 -36.7599 -2.4953 0.0664 0 8
-6.6870 -36.8724 -2.4953 0.0664 0 8
-6.0919 -36.9754 -2.4953 0.0664 0 8
-5.4952 -37.0688 -2.4953 0.0664 0 8
-4.8971 -37.1525 -2.4953 0.0664 0 8
-4.2977 -37.2267 -2.4953 0.0664 0 8
-3.6972 -37.2911 -2.4953 0.0664 0 8
-3.0957 -37.3458 -2.4953 0.0664 0 8
-2.4934 -37.3909 -2.4953 0.0664 0 8
-1.8905 -37.4262 -2.4953 0.0664 0 8
-1.2871 -37.4518 -2.4953 0.0664 0 8
-0.6833 -37.4677 -2.4953 0.0664 0 8
-0.0794 -37.4738 -2.4953 0.0664 0 8
0.5246 -37.4702 -2.4953 0.0664 0 8
1.1284 -37.4569 -2.4953 0.0664 0 8
1.7319 -37.4339 -2.4953 0.0664 0 8
2.3350 -37.4011 -2.4953 0.0664 0 8
2.9375 -37.3586 -2.4953 0.0664 0 8
3.5392 -37.3064 -2.4953 0.0664 0 8
4.1399 -37.2445 -2.4953 0.0664 0 8
4.7396 -37.1730 -2.4953 0.0664 0 8
5.3381 -37.0917 -2.4953 0.0664 0 8
5.9352 -37.0009 -2.4953 0.0664 0 8
6.5308 -36.9004 -2.4953 0.0664 0 8
7.1246 -36.7905 -2.4953 0.0664 0 8
7.7166 -36.6708 -2.4953 0.0664 0 8
8.3066 -36.5417 -2.4953 0.0664 0 8
8.8945 -36.4030 -2.4953 0.0664 0 8
9.4800 -36.2550 -2.4953 0.0664 0 8
10.0631 -36.0977 -2.4953 0.0664 0 8
10.6435 -35.9306 -2.4953 0.0664 0 8
11.2212 -35.7544 -2.4953 0.0664 0 8
11.7960 -35.5689 -2.4953 0.0664 0 8
12.3677 -35.3742 -2.4953 0.0664 0 8
12.9362 -35.1703 -2.4953 0.0664 0 8
13.5013 -34.9572 -2.4953 0.0664 0 8
14.0629 -34.7351 -2.4953 0.0664 0 8
14.6209 -34.5040 -2.4953 0.0664 0 8
15.1751 -34.2638 -2.4953 0.0664 0 8
15.7253 -34.0148 -2.4953 0.0664 0 8
16.2715 -33.7570 -2.4953 0.0664 0 8
16.8134 -33.4903 -2.4953 0.0664 0 8
17.3510 -33.2150 -2.4953 0.0664 0 8
17.8841 -32.9319 -2.4953 0.0664 0 8
18.4124 -32.6386 -2.4953 0.0664 0 8
18.9361 -32.3376 -2.4953 0.0664 0 8
19.4548 -32.0282 -2.4953 0.0664 0 8
19.9684 -31.7105 -2.4953 0.0664 0 8
20.4769 -31.3846 -2.4953 0.0664 0 8
20.9800 -31.0505 -2.4953 0.0664 0 8
21.4777 -30.7083 -2.4953 0.0664 0 8
21.9698 -30.3582 -2.4953 0.0664 0 8
22.4562 -30.0002 -2.4953 0.0664 0 8
22.9368 -29.6344 -2.4953 0.0664 0 8
23.4114 -29.2609 -2.4953 0.0664 0 8
23.8800 -28.8798 -2.4953 0.0664 0 8
24.3423 -28.4912 -2.4953 0.0664 0 8
24.7983 -28.0951 -2.4953 0.0664 0 8
25.2479 -27.6918 -2.4953 0.0664 0 8
25.6909 -27.2813 -2.4953 0.0664 0 8
26.1272 -26.8638 -2.4953 0.0664 0 8
26.5568 -26.4392 -2.4953 0.0664 0 8
26.9794 -26.0077 -2.4953 0.0664 0 8
27.3951 -25.5696 -2.4953 0.0664 0 8
27.8036 -25.1247 -2.4953 0.0664 0 8
28.2049 -24.6734 -2.4953 0.0664 0 8
28.5989 -24.2156 -2.4953 0.0664 0 8
28.9855 -23.7516 -2.4953 0.0664 0 8
29.3645 -23.2813 -2.4953 0.0664 0 8
29.7359 -22.8050 -2.4953 0.0664 0 8
30.0996 -22.3229 -2.4953 0.0664 0 8
30.4554 -21.8351 -2.4953 0.0664 0 8
30.8033 -21.3412 -2.4953 0.0664 0 8
31.1433 -20.8420 -2.4953 0.0664 0 8
31.4751 -20.3374 -2.4953 0.0664 0 8
31.7988 -19.8275 -2.4953 0.0664 0 8
32.1142 -19.3124 -2.4953 0.0664 0 8
32.4213 -18.7923 -2.4953 0.0664 0 8
32.7200 -18.2674 -2.4953 0.0664 0 8
33.0101 -17.7377 -2.4953 0.0664 0 8
33.2917 -17.2034 -2.4953 0.0664 0 8
33.5646 -16.6646 -2.4953 0.0664 0 8
33.8289 -16.1215 -2.4953 0.0664 0 8
34.0843 -15.5742 -2.4953 0.0664 0 8
34.3308 -15.0228 -2.4953 0.0664 0 8
34.5685 -14.4676 -2.4953 0.0664 0 8
34.7972 -13.9086 -2.4953 0.0664 0 8
35.0168 -13.3460 -2.4953 0.0664 0 8
35.2274 -12.7799 -2.4953 0.0664 0 8
35.4287 -12.2105 -2.4953 0.0664 0 8
35.6209 -11.6380 -2.4953 0.0664 0 8
35.8035 -11.0647 -2.4953 0.0664 0 8
35.9775 -10.4839 -2.4953 0.0664 0 8
36.1418 -9.9027 -2.4953 0.0664 0 8
36.2967 -9.3190 -2.4953 0.0664 0 8
36.4422 -8.7328 -2.4953 0.0664 0 8
36.5782 -8.1444 -2.4953 0.0664 0 8
36.7047 -7.5538 -2.4953 0.0664 0 8
36.8217 -6.9612 -2.4953 0.0664 0 8
36.9291 -6.3669 -2.4953 0.0664 0 8
37.0269 -5.7709 -2.4953 0.0664 0 8
37.1151 -5.1734 -2.4953 0.0664 0 8
37.1936 -4.5746 -2.4953 0.0664 0 8
37.2625 -3.9746 -2.4953 0.0664 0 8
37.3217 -3.3735 -2.4953 0.0664 0 8
37.3713 -2.7716 -2.4953 0.0664 0 8
37.4111 -2.1689 -2.4953 0.0664 0 8
37.4412 -1.5657 -2.4953 0.0664 0 8
37.4616 -0.9621 -2.4953 0.0664 0 8
37.4722 -0.3583 -2.4953 0.0664 0 8
37.4731 0.2457 -2.4953 0.0664 0 8
37.4643 0.8496 -2.4953 0.0664 0 8
37.4457 1.4533 -2.4953 0.0664 0 8
37.4174 2.0566 -2.4953 0.0664 0 8
37.3794 2.6594 -2.4953 0.0664 0 8
37.3317 3.2614 -2.4953 0.0664 0 8
37.2743 3.8627 -2.4953 0.0664 0 8
37.2072 4.4629 -2.4953 0.0664 0 8
37.1304 5.0619 -2.4953 0.0664 0 8
37.0440 5.6597 -2.4953 0.0664 0 8
36.9480 6.2560 -2.4953 0.0664 0 8
36.8424 6.8506 -2.4953 0.0664 0 8
36.7272 7.4435 -2.4953 0.0664 0 8
36.6025 8.0345 -2.4953 0.0664 0 8
38.6956 9.1500 -2.6477 0.0664 0 7
38.5431 9.7724 -2.6477 0.0664 0 7
38.3806 10.3923 -2.6477 0.0664 0 7
38.2081 11.0095 -2.6477 0.0664 0 7
38.0257 11.6239 -2.6477 0.0664 0 7
37.8334 12.2352 -2.6477 0.0664 0 7
37.6313 12.8433 -2.6477 0.0664 0 7
-28.6073 -17.0388 -2.4953 0.0747 0 8
-28.3289 -17.4976 -2.4953 0.0747 0 8
-28.0433 -17.9519 -2.4953 0.0747 0 8
-27.7503 -18.4016 -2.4953 0.0747 0 8
-27.4502 -18.8464 -2.4953 0.0747 0 8
-27.1428 -19.2863 -2.4953 0.0747 0 8
-26.8285 -19.7213 -2.4953 0.0747 0 8
-26.5072 -20.1511 -2.4953 0.0747 0 8
-26.1790 -20.5757 -2.4953 0.0747 0 8
-25.8440 -20.9949 -2.4953 0.0747 0 8
-25.5022 -21.4087 -2.4953 0.0747 0 8
-25.1539 -21.8169 -2.4953 0.0747 0 8
-24.7990 -22.2195 -2.4953 0.0747 0 8
-24.4377 -22.6163 -2.4953 0.0747 0 8
-24.0700 -23.0072 -2.4953 0.0747 0 8
-23.6961 -23.3921 -2.4953 0.0747 0 8
-23.3160 -23.7710 -2.4953 0.0747 0 8
-22.9299 -24.1436 -2.4953 0.0747 0 8
-22.5378 -24.5100 -2.4953 0.0747 0 8
-22.1399 -24.8701 -2.4953 0.0747 0 8
-21.7362 -25.2237 -2.4953 0.0747 0 8
-21.3268 -25.5707 -2.4953 0.0747 0 8
-20.9120 -25.9111 -2.4953 0.0747 0 8
-20.4916 -26.2448 -2.4953 0.0747 0 8
-20.0660 -26.5716 -2.4953 0.0747 0 8
-19.6352 -26.8916 -2.4953 0.0747 0 8
-19.1993 -27.2045 -2.4953 0.0747 0 8
-18.7583 -27.5104 -2.4953 0.0747 0 8
-18.3125 -27.8091 -2.4953 0.0747 0 8
-17.8620 -28.1007 -2.4953 0.0747 0 8
-17.4068 -28.3849 -2.4953 0.0747 0 8
-16.9470 -28.6617 -2.4953 0.0747 0 8
-16.4829 -28.9311 -2.4953 0.0747 0 8
-16.0145 -29.1930 -2.4953 0.0747 0 8
-15.5418 -29.4477 -2.4953 0.0747 0 8
-15.0653 -29.6940 -2.4953 0.0747 0 8
-14.5848 -29.9329 -2.4953 0.0747 0 8
-14.1004 -30.1644 -2.4953 0.0747 0 8
-13.6125 -30.3874 -2.4953 0.0747 0 8
-13.1210 -30.6029 -2.4953 0.0747 0 8
-12.6261 -30.8103 -2.4953 0.0747 0 8
-12.1279 -31.0098 -2.4953 0.0747 0 8
-11.6266 -31.2013 -2.4953 0.0747 0 8
-11.1222 -31.3846 -2.4953 0.0747 0 8
-10.6150 -31.5598 -2.4953 0.0747 0 8
-10.1050 -31.7267 -2.4953 0.0747 0 8
-9.5924 -31.8855 -2.4953 0.0747 0 8
-9.0772 -32.0359 -2.4953 0.0747 0 8
-8.5598 -32.1781 -2.4953 0.0747 0 8
-8.0401 -32.3118 -2.4953 0.0747 0 8
-7.5183 -32.4372 -2.4953 0.0747 0 8
-6.9945 -32.5542 -2.4953 0.0747 0 8
-6.4690 -32.6627 -2.4953 0.0747 0 8
-5.9417 -32.7627 -2.4953 0.0747 0 8
-5.4129 -32.8542 -2.4953 0.0747 0 8
-4.8827 -32.9371 -2.4953 0.0747 0 8
-4.3513 -33.0116 -2.4953 0.0747 0 8
-3.8187 -33.0774 -2.4953 0.0747 0 8
-3.2851 -33.1346 -2.4953 0.0747 0 8
-2.7506 -33.1833 -2.4953 0.0747 0 8
-2.2155 -33.2233 -2.4953 0.0747 0 8
-1.6798 -33.2547 -2.4953 0.0747 0 8
-1.1436 -33.2775 -2.4953 0.0747 0 8
-0.6072 -33.2916 -2.4953 0.0747 0 8
-0.0705 -33.2970 -2.4953 0.0747 0 8
0.4661 -33.2938 -2.4953 0.0747 0 8
1.0026 -33.2820 -2.4953 0.0747 0 8
1.5389 -33.2615 -2.4953 0.0747 0 8
2.0747 -33.2324 -2.4953 0.0747 0 8
2.6100 -33.1946 -2.4953 0.0747 0 8
3.1447 -33.1483 -2.4953 0.0747 0 8
3.6785 -33.0933 -2.4953 0.0747 0 8
4.2114 -33.0297 -2.4953 0.0747 0 8
4.7431 -32.9575 -2.4953 0.0747 0 8
5.2737 -32.8768 -2.4953 0.0747 0 8
5.8029 -32.7876 -2.4953 0.0747 0 8
6.3305 -32.6898 -2.4953 0.0747 0 8
6.8565 -32.5835 -2.4953 0.0747 0 8
7.3808 -32.4688 -2.4953 0.0747 0 8
7.9031 -32.3456 -2.4953 0.0747 0 8
8.4234 -32.2140 -2.4953 0.0747 0 8
8.9414 -32.0741 -2.4953 0.0747 0 8
9.4572 -31.9258 -2.4953 0.0747 0 8
9.9705 -31.7691 -2.4953 0.0747 0 8
10.4812 -31.6044 -2.4953 0.0747 0 8
10.9892 -31.4314 -2.4953 0.0747 0 8
11.4943 -31.2502 -2.4953 0.0747 0 8
11.9965 -31.0609 -2.4953 0.0747 0 8
12.4955 -30.8636 -2.4953 0.0747 0 8
12.9913 -30.6582 -2.4953 0.0747 0 8
13.4837 -30.4448 -2.4953 0.0747 0 8
13.9726 -30.2236 -2.4953 0.0747 0 8
14.4579 -29.9944 -2.4953 0.0747 0 8
14.9394 -29.7575 -2.4953 0.0747 0 8
15.4170 -29.5129 -2.4953 0.0747 0 8
15.8907 -29.2606 -2.4953 0.0747 0 8
16.3602 -29.0007 -2.4953 0.0747 0 8
16.8255 -28.7333 -2.4953 0.0747 0 8
17.2864 -28.4584 -2.4953 0.0747 0 8
17.7428 -28.1761 -2.4953 0.0747 0 8
18.1945 -27.8865 -2.4953 0.0747 0 8
18.6416 -27.5896 -2.4953 0.0747 0 8
19.0838 -27.2856 -2.4953 0.0747 0 8
19.5211 -26.9745 -2.4953 0.0747 0 8
19.9533 -26.6564 -2.4953 0.0747 0 8
20.3803 -26.3314 -2.4953 0.0747 0 8
20.8020 -25.9995 -2.4953 0.0747 0 8
21.2183 -25.6609 -2.4953 0.0747 0 8
21.6291 -25.3156 -2.4953 0.0747 0 8
22.0343 -24.9637 -2.4953 0.0747 0 8
22.4338 -24.6053 -2.4953 0.0747 0 8
22.8274 -24.2406 -2.4953 0.0747 0 8
23.2151 -23.8696 -2.4953 0.0747 0 8
23.5968 -23.4912 -2.4953 0.0747 0 8
23.9723 -23.1089 -2.4953 0.0747 0 8
24.3417 -22.7196 -2.4953 0.0747 0 8
24.7046 -22.3244 -2.4953 0.0747 0 8
25.0612 -21.9233 -2.4953 0.0747 0 8
25.4113 -21.5166 -2.4953 0.0747 0 8
25.7548 -21.1042 -2.4953 0.0747 0 8
26.0916 -20.6864 -2.4953 0.0747 0 8
26.4216 -20.2632 -2.4953 0.0747 0 8
26.7447 -19.8348 -2.4953 0.0747 0 8
27.0609 -19.4012 -2.4953 0.0747 0 8
27.3700 -18.9625 -2.4953 0.0747 0 8
27.6721 -18.5190 -2.4953 0.0747 0 8
27.9670 -18.0706 -2.4953 0.0747 0 8
28.2546 -17.6175 -2.4953 0.0747 0 8
28.5348 -17.1599 -2.4953 0.0747 0 8
28.8077 -16.6979 -2.4953 0.0747 0 8
29.0730 -16.2313 -2.4953 0.0747 0 8
29.3308 -15.7607 -2.4953 0.0747 0 8
29.5810 -15.2859 -2.4953 0.0747 0 8
29.8236 -14.8072 -2.4953 0.0747 0 8
30.0583 -14.3246 -2.4953 0.0747 0 8
30.2853 -13.8383 -2.4953 0.0747 0 8
30.5044 -13.3484 -2.4953 0.0747 0 8
30.7155 -12.8563 -2.4953 0.0747 0 8
30.9187 -12.3584 -2.4953 0.0747 0 8
31.1139 -11.8585 -2.4953 0.0747 0 8
31.3009 -11.3555 -2.4953 0.0747 0 8
31.4799 -10.8496 -2.4953 0.0747 0 8
31.6507 -10.3408 -2.4953 0.0747 0 8
31.8132 -9.8294 -2.4953 0.0747 0 8
31.9675 -9.3154 -2.4953 0.0747 0 8
32.1135 -8.7990 -2.4953 0.0747 0 8
32.2511 -8.2803 -2.4953 0.0747 0 8
32.3804 -7.7594 -2.4953 0.0747 0 8
32.5012 -7.2366 -2.4953 0.0747 0 8
32.6136 -6.7118 -2.4953 0.0747 0 8
32.7176 -6.1854 -2.4953 0.0747 0 8
32.8130 -5.6573 -2.4953 0.0747 0 8
32.8999 -5.1277 -2.4953 0.0747 0 8
32.9783 -4.5968 -2.4953 0.0747 0 8
33.0481 -4.0647 -2.4953 0.0747 0 8
33.1093 -3.5316 -2.4953 0.0747 0 8
33.1619 -2.9975 -2.4953 0.0747 0 8
33.2059 -2.4627 -2.4953 0.0747 0 8
33.2413 -1.9272 -2.4953 0.0747 0 8
33.2680 -1.3912 -2.4953 0.0747 0 8
33.2861 -0.8549 -2.4953 0.0747 0 8
33.2956 -0.3183 -2.4953 0.0747 0 8
33.2964 0.2183 -2.4953 0.0747 0 8
33.2885 0.7549 -2.4953 0.0747 0 8
33.2720 1.2913 -2.4953 0.0747 0 8
33.2469 1.8274 -2.4953 0.0747 0 8
33.2131 2.3629 -2.4953 0.0747 0 8
33.1707 2.8979 -2.4953 0.0747 0 8
33.1197 3.4321 -2.4953 0.0747 0 8
33.0601 3.9654 -2.4953 0.0747 0 8
32.9919 4.4977 -2.4953 0.0747 0 8
32.9151 5.0289 -2.4953 0.0747 0 8
32.8298 5.5587 -2.4953 0.0747 0 8
32.7360 6.0871 -2.4953 0.0747 0 8
32.6336 6.6139 -2.4953 0.0747 0 8
32.5228 7.1389 -2.4953 0.0747 0 8
32.4035 7.6622 -2.4953 0.0747 0 8
32.2758 8.1834 -2.4953 0.0747 0 8
34.1027 9.2340 -2.6477 0.0747 0 7
33.9494 9.7824 -2.6477 0.0747 0 7
33.7874 10.3283 -2.6477 0.0747 0 7
33.6165 10.8715 -2.6477 0.0747 0 7
33.4370 11.4118 -2.6477 0.0747 0 7
-25.7352 -15.3282 -2.4953 0.0830 0 8
-25.4848 -15.7410 -2.4953 0.0830 0 8
-25.2278 -16.1496 -2.4953 0.0830 0 8
-24.9643 -16.5541 -2.4953 0.0830 0 8
-24.6943 -16.9543 -2.4953 0.0830 0 8
-24.4178 -17.3501 -2.4953 0.0830 0 8
-24.1350 -17.7414 -2.4953 0.0830 0 8
-23.8460 -18.1280 -2.4953 0.0830 0 8
-23.5507 -18.5100 -2.4953 0.0830 0 8
-23.2493 -18.8871 -2.4953 0.0830 0 8
-22.9419 -19.2594 -2.4953 0.0830 0 8
-22.6286 -19.6266 -2.4953 0.0830 0 8
-22.3093 -19.9888 -2.4953 0.0830 0 8
-21.9842 -20.3457 -2.4953 0.0830 0 8
-21.6535 -20.6974 -2.4953 0.0830 0 8
-21.3171 -21.0436 -2.4953 0.0830 0 8
-20.9752 -21.3845 -2.4953 0.0830 0 8
-20.6278 -21.7197 -2.4953 0.0830 0 8
-20.2751 -22.0493 -2.4953 0.0830 0 8
-19.9171 -22.3733 -2.4953 0.0830 0 8
-19.5540 -22.6913 -2.4953 0.0830 0 8
-19.1857 -23.0035 -2.4953 0.0830 0 8
-18.8125 -23.3098 -2.4953 0.0830 0 8
-18.4344 -23.6099 -2.4953 0.0830 0 8
-18.0515 -23.9040 -2.4953 0.0830 0 8
-17.6639 -24.1918 -2.4953 0.0830 0 8
-17.2717 -24.4733 -2.4953 0.0830 0 8
-16.8751 -24.7485 -2.4953 0.0830 0 8
-16.4740 -25.0172 -2.4953 0.0830 0 8
-16.0687 -25.2795 -2.4953 0.0830 0 8
-15.6597 -25.5337 -2.4953 0.0830 0 8
-15.2456 -25.7842 -2.4953 0.0830 0 8
-14.8281 -26.0266 -2.4953 0.0830 0 8
-14.4067 -26.2622 -2.4953 0.0830 0 8
-13.9816 -26.4909 -2.4953 0.0830 0 8
-13.5528 -26.7128 -2.4953 0.0830 0 8
-13.1206 -26.9278 -2.4953 0.0830 0 8
-12.6849 -27.1357 -2.4953 0.0830 0 8
-12.2459 -27.3366 -2.4953 0.0830 0 8
-11.8037 -27.5305 -2.4953 0.0830 0 8
-11.3585 -27.7171 -2.4953 0.0830 0 8
-10.9104 -27.8966 -2.4953 0.0830 0 8
-10.4593 -28.0688 -2.4953 0.0830 0 8
-10.0056 -28.2337 -2.4953 0.0830 0 8
-9.5493 -28.3913 -2.4953 0.0830 0 8
-9.0905 -28.5415 -2.4953 0.0830 0 8
-8.6293 -28.6843 -2.4953 0.0830 0 8
-8.1659 -28.8197 -2.4953 0.0830 0 8
-7.7004 -28.9475 -2.4953 0.0830 0 8
-7.2329 -29.0679 -2.4953 0.0830 0 8
-6.7635 -29.1807 -2.4953 0.0830 0 8
-6.2923 -29.2858 -2.4953 0.0830 0 8
-5.8195 -29.3835 -2.4953 0.0830 0 8
-5.3452 -29.4734 -2.4953 0.0830 0 8
-4.8695 -29.5558 -2.4953 0.0830 0 8
-4.3925 -29.6304 -2.4953 0.0830 0 8
-3.9144 -29.6973 -2.4953 0.0830 0 8
-3.4353 -29.7566 -2.4953 0.0830 0 8
-2.9553 -29.8081 -2.4953 0.0830 0 8
-2.4745 -29.8518 -2.4953 0.0830 0 8
-1.9931 -29.8878 -2.4953 0.0830 0 8
-1.5111 -29.9161 -2.4953 0.0830 0 8
-1.0288 -29.9365 -2.4953 0.0830 0 8
-0.5462 -29.9492 -2.4953 0.0830 0 8
-0.0634 -29.9541 -2.4953 0.0830 0 8
0.4193 -29.9513 -2.4953 0.0830 0 8
0.9020 -29.9406 -2.4953 0.0830 0 8
1.3844 -29.9222 -2.4953 0.0830 0 8
1.8664 -29.8960 -2.4953 0.0830 0 8
2.3480 -29.8621 -2.4953 0.0830 0 8
2.8290 -29.8203 -2.4953 0.0830 0 8
3.3092 -29.7709 -2.4953 0.0830 0 8
3.7886 -29.7137 -2.4953 0.0830 0 8
4.2670 -29.6487 -2.4953 0.0830 0 8
4.7442 -29.5761 -2.4953 0.0830 0 8
5.2203 -29.4958 -2.4953 0.0830 0 8
5.6950 -29.4079 -2.4953 0.0830 0 8
6.1682 -29.3123 -2.4953 0.0830 0 8
6.6398 -29.2090 -2.4953 0.0830 0 8
7.1097 -29.0982 -2.4953 0.0830 0 8
7.5777 -28.9799 -2.4953 0.0830 0 8
8.0438 -28.8540 -2.4953 0.0830 0 8
8.5077 -28.7206 -2.4953 0.0830 0 8
8.9695 -28.5798 -2.4953 0.0830 0 8
9.4289 -28.4315 -2.4953 0.0830 0 8
9.8859 -28.2759 -2.4953 0.0830 0 8
10.3403 -28.1129 -2.4953 0.0830 0 8
10.7921 -27.9426 -2.4953 0.0830 0 8
11.2410 -27.7650 -2.4953 0.0830 0 8
11.6870 -27.5802 -2.4953 0.0830 0 8
12.1300 -27.3883 -2.4953 0.0830 0 8
12.5698 -27.1893 -2.4953 0.0830 0 8
13.0064 -26.9831 -2.4953 0.0830 0 8
13.4395 -26.7700 -2.4953 0.0830 0 8
13.8692 -26.5499 -2.4953 0.0830 0 8
14.2953 -26.3230 -2.4953 0.0830 0 8
14.7177 -26.0892 -2.4953 0.0830 0 8
15.1363 -25.8486 -2.4953 0.0830 0 8
15.5509 -25.6013 -2.4953 0.0830 0 8
15.9615 -25.3473 -2.4953 0.0830 0 8
16.3679 -25.0868 -2.4953 0.0830 0 8
16.7701 -24.8197 -2.4953 0.0830 0 8
17.1679 -24.5462 -2.4953 0.0830 0 8
17.5613 -24.2664 -2.4953 0.0830 0 8
17.9501 -23.9802 -2.4953 0.0830 0 8
18.3342 -23.6878 -2.4953 0.0830 0 8
18.7136 -23.3893 -2.4953 0.0830 0 8
19.0881 -23.0846 -2.4953 0.0830 0 8
19.4577 -22.7740 -2.4953 0.0830 0 8
19.8222 -22.4574 -2.4953 0.0830 0 8
20.1815 -22.1351 -2.4953 0.0830 0 8
20.5357 -21.8069 -2.4953 0.0830 0 8
20.8844 -21.4732 -2.4953 0.0830 0 8
21.2278 -21.1338 -2.4953 0.0830 0 8
21.5656 -20.7889 -2.4953 0.0830 0 8
21.8979 -20.4387 -2.4953 0.0830 0 8
22.2244 -20.0831 -2.4953 0.0830 0 8
22.5452 -19.7223 -2.4953 0.0830 0 8
22.8601 -19.3564 -2.4953 0.0830 0 8
23.1691 -18.9854 -2.4953 0.0830 0 8
23.4721 -18.6101 -2.4953 0.0830 0 8
23.7690 -18.2289 -2.4953 0.0830 0 8
24.0596 -17.8434 -2.4953 0.0830 0 8
24.3441 -17.4534 -2.4953 0.0830 0 8
24.6222 -17.0588 -2.4953 0.0830 0 8
24.8939 -16.6597 -2.4953 0.0830 0 8
25.1592 -16.2564 -2.4953 0.0830 0 8
25.4179 -15.8488 -2.4953 0.0830 0 8
25.6700 -15.4371 -2.4953 0.0830 0 8
25.9155 -15.0214 -2.4953 0.0830 0 8
26.1542 -14.6018 -2.4953 0.0830 0 8
26.3862 -14.1784 -2.4953 0.0830 0 8
26.6112 -13.7513 -2.4953 0.0830 0 8
26.8294 -13.3206 -2.4953 0.0830 0 8
27.0406 -12.8865 -2.4953 0.0830 0 8
27.2448 -12.4490 -2.4953 0.0830 0 8
27.4419 -12.0083 -2.4953 0.0830 0 8
27.6318 -11.5645 -2.4953 0.0830 0 8
27.8146 -11.1177 -2.4953 0.0830 0 8
27.9902 -10.6679 -2.4953 0.0830 0 8
28.1585 -10.2155 -2.4953 0.0830 0 8
28.3195 -9.7603 -2.4953 0.0830 0 8
28.4731 -9.3026 -2.4953 0.0830 0 8
28.6193 -8.8426 -2.4953 0.0830 0 8
28.7581 -8.3802 -2.4953 0.0830 0 8
28.8894 -7.9156 -2.4953 0.0830 0 8
29.0132 -7.4490 -2.4953 0.0830 0 8
29.1295 -6.9804 -2.4953 0.0830 0 8
29.2382 -6.5101 -2.4953 0.0830 0 8
29.3394 -6.0380 -2.4953 0.0830 0 8
29.4329 -5.5644 -2.4953 0.0830 0 8
29.5187 -5.0893 -2.4953 0.0830 0 8
29.5969 -4.6129 -2.4953 0.0830 0 8
29.6674 -4.1353 -2.4953 0.0830 0 8
29.7302 -3.6566 -2.4953 0.0830 0 8
29.7853 -3.1770 -2.4953 0.0830 0 8
29.8326 -2.6966 -2.4953 0.0830 0 8
29.8722 -2.2154 -2.4953 0.0830 0 8
29.9040 -1.7337 -2.4953 0.0830 0 8
29.9281 -1.2516 -2.4953 0.0830 0 8
29.9443 -0.7691 -2.4953 0.0830 0 8
29.9529 -0.2864 -2.4953 0.0830 0 8
29.9536 0.1964 -2.4953 0.0830 0 8
29.9465 0.6791 -2.4953 0.0830 0 8
29.9317 1.1617 -2.4953 0.0830 0 8
29.9091 1.6439 -2.4953 0.0830 0 8
29.8787 2.1257 -2.4953 0.0830 0 8
29.8406 2.6070 -2.4953 0.0830 0 8
29.7947 3.0875 -2.4953 0.0830 0 8
29.7410 3.5673 -2.4953 0.0830 0 8
29.6797 4.0462 -2.4953 0.0830 0 8
29.6106 4.5240 -2.4953 0.0830 0 8
29.5339 5.0006 -2.4953 0.0830 0 8
29.4494 5.4760 -2.4953 0.0830 0 8
29.3574 5.9499 -2.4953 0.0830 0 8
29.2577 6.4222 -2.4953 0.0830 0 8
29.1504 6.8929 -2.4953 0.0830 0 8
29.0355 7.3618 -2.4953 0.0830 0 8
28.9131 7.8288 -2.4953 0.0830 0 8
28.7831 8.2938 -2.4953 0.0830 0 8
30.3953 9.2914 -2.6477 0.0830 0 7
30.2416 9.7800 -2.6477 0.0830 0 7
30.0800 10.2661 -2.6477 0.0830 0 7
-23.3843 -13.9280 -2.4953 0.0913 0 8
-23.1568 -14.3030 -2.4953 0.0913 0 8
-22.9233 -14.6744 -2.4953 0.0913 0 8
-22.6838 -15.0419 -2.4953 0.0913 0 8
-22.4385 -15.4055 -2.4953 0.0913 0 8
-22.1873 -15.7652 -2.4953 0.0913 0 8
-21.9303 -16.1207 -2.4953 0.0913 0 8
-21.6676 -16.4720 -2.4953 0.0913 0 8
-21.3994 -16.8191 -2.4953 0.0913 0 8
-21.1255 -17.1618 -2.4953 0.0913 0 8
-20.8462 -17.5000 -2.4953 0.0913 0 8
-20.5614 -17.8337 -2.4953 0.0913 0 8
-20.2713 -18.1628 -2.4953 0.0913 0 8
-19.9760 -18.4871 -2.4953 0.0913 0 8
-19.6755 -18.8067 -2.4953 0.0913 0 8
-19.3698 -19.1213 -2.4953 0.0913 0 8
-19.0591 -19.4310 -2.4953 0.0913 0 8
-18.7435 -19.7356 -2.4953 0.0913 0 8
-18.4230 -20.0352 -2.4953 0.0913 0 8
-18.0977 -20.3295 -2.4953 0.0913 0 8
-17.7677 -20.6185 -2.4953 0.0913 0 8
-17.4331 -20.9022 -2.4953 0.0913 0 8
-17.0940 -21.1804 -2.4953 0.0913 0 8
-16.7504 -21.4532 -2.4953 0.0913 0 8
-16.4025 -21.7203 -2.4953 0.0913 0 8
-16.0503 -21.9819 -2.4953 0.0913 0 8
-15.6940 -22.2377 -2.4953 0.0913 0 8
-15.3335 -22.4877 -2.4953 0.0913 0 8
-14.9691 -22.7319 -2.4953 0.0913 0 8
-14.6008 -22.9702 -2.4953 0.0913 0 8
-14.2287 -23.2025 -2.4953 0.0913 0 8
-13.8529 -23.4288 -2.4953 0.0913 0 8
-13.4736 -23.6491 -2.4953 0.0913 0 8
-13.0907 -23.8631 -2.4953 0.0913 0 8
-12.7044 -24.0710 -2.4953 0.0913 0 8
-12.3148 -24.2726 -2.4953 0.0913 0 8
-11.9220 -24.4679 -2.4953 0.0913 0 8
-11.5261 -24.6569 -2.4953 0.0913 0 8
-11.1272 -24.8395 -2.4953 0.0913 0 8
-10.7255 -25.0156 -2.4953 0.0913 0 8
-10.3209 -25.1852 -2.4953 0.0913 0 8
-9.9137 -25.3482 -2.4953 0.0913 0 8
-9.5039 -25.5047 -2.4953 0.0913 0 8
-9.0916 -25.6546 -2.4953 0.0913 0 8
-8.6770 -25.7978 -2.4953 0.0913 0 8
-8.2601 -25.9343 -2.4953 0.0913 0 8
-7.8411 -26.0640 -2.4953 0.0913 0 8
-7.4200 -26.1870 -2.4953 0.0913 0 8
-6.9970 -26.3032 -2.4953 0.0913 0 8
-6.5722 -26.4125 -2.4953 0.0913 0 8
-6.1456 -26.5150 -2.4953 0.0913 0 8
-5.7175 -26.6106 -2.4953 0.0913 0 8
-5.2879 -26.6993 -2.4953 0.0913 0 8
-4.8569 -26.7811 -2.4953 0.0913 0 8
-4.4247 -26.8559 -2.4953 0.0913 0 8
-3.9913 -26.9237 -2.4953 0.0913 0 8
-3.5568 -26.9845 -2.4953 0.0913 0 8
-3.1215 -27.0383 -2.4953 0.0913 0 8
-2.6853 -27.0851 -2.4953 0.0913 0 8
-2.2484 -27.1249 -2.4953 0.0913 0 8
-1.8110 -27.1576 -2.4953 0.0913 0 8
-1.3731 -27.1833 -2.4953 0.0913 0 8
-0.9348 -27.2019 -2.4953 0.0913 0 8
-0.4963 -27.2134 -2.4953 0.0913 0 8
-0.0577 -27.2178 -2.4953 0.0913 0 8
0.3810 -27.2153 -2.4953 0.0913 0 8
0.8196 -27.2056 -2.4953 0.0913 0 8
1.2579 -27.1888 -2.4953 0.0913 0 8
1.6959 -27.1650 -2.4953 0.0913 0 8
2.1335 -27.1342 -2.4953 0.0913 0 8
2.5705 -27.0963 -2.4953 0.0913 0 8
3.0069 -27.0513 -2.4953 0.0913 0 8
3.4425 -26.9993 -2.4953 0.0913 0 8
