ply
format ascii 1.0
element vertex 1354
property float32 x
property float32 y
property float32 z
property float32 CosAngle
property uint32 ObjIdx
property uint32 ObjTag
end_header
-19.8990 10.8238 -2.6477 0.1161 0 7
-20.0708 10.5018 -2.6477 0.1161 0 7
-20.2374 10.1770 -2.6477 0.1161 0 7
-20.3988 9.8496 -2.6477 0.1161 0 7
-20.5549 9.5196 -2.6477 0.1161 0 7
-20.7056 9.1872 -2.6477 0.1161 0 7
-19.6508 8.3428 -2.4953 0.1161 0 8
-19.7826 8.0251 -2.4953 0.1161 0 8
-19.9094 7.7052 -2.4953 0.1161 0 8
-20.0309 7.3834 -2.4953 0.1161 0 8
-20.1473 7.0597 -2.4953 0.1161 0 8
-20.2585 6.7342 -2.4953 0.1161 0 8
-20.3643 6.4068 -2.4953 0.1161 0 8
-20.4650 6.0779 -2.4953 0.1161 0 8
-20.5602 5.7473 -2.4953 0.1161 0 8
-20.6502 5.4153 -2.4953 0.1161 0 8
-20.7347 5.0818 -2.4953 0.1161 0 8
-20.8139 4.7470 -2.4953 0.1161 0 8
-20.8877 4.4110 -2.4953 0.1161 0 8
-20.9561 4.0739 -2.4953 0.1161 0 8
-21.0190 3.7357 -2.4953 0.1161 0 8
-21.0765 3.3965 -2.4953 0.1161 0 8
-21.1285 3.0564 -2.4953 0.1161 0 8
-21.1750 2.7156 -2.4953 0.1161 0 8
-21.2160 2.3740 -2.4953 0.1161 0 8
-21.2515 2.0318 -2.4953 0.1161 0 8
-21.2815 1.6891 -2.4953 0.1161 0 8
-21.3059 1.3460 -2.4953 0.1161 0 8
-21.3249 1.0025 -2.4953 0.1161 0 8
-21.3382 0.6588 -2.4953 0.1161 0 8
-21.3461 0.3148 -2.4953 0.1161 0 8
-21.3484 -0.0292 -2.4953 0.1161 0 8
-21.3451 -0.3732 -2.4953 0.1161 0 8
-21.3364 -0.7171 -2.4953 0.1161 0 8
-21.3220 -1.0608 -2.4953 0.1161 0 8
-21.3022 -1.4042 -2.4953 0.1161 0 8
-21.2768 -1.7473 -2.4953 0.1161 0 8
-21.2459 -2.0899 -2.4953 0.1161 0 8
-21.2094 -2.4320 -2.4953 0.1161 0 8
-21.1675 -2.7735 -2.4953 0.1161 0 8
-21.1200 -3.1142 -2.4953 0.1161 0 8
-21.0671 -3.4541 -2.4953 0.1161 0 8
-21.0087 -3.7931 -2.4953 0.1161 0 8
-20.9449 -4.1312 -2.4953 0.1161 0 8
-20.8756 -4.4681 -2.4953 0.1161 0 8
-20.8009 -4.8039 -2.4953 0.1161 0 8
-20.7208 -5.1385 -2.4953 0.1161 0 8
-20.6353 -5.4717 -2.4953 0.1161 0 8
-20.5444 -5.8035 -2.4953 0.1161 0 8
-20.4482 -6.1338 -2.4953 0.1161 0 8
-20.3468 -6.4625 -2.4953 0.1161 0 8
-20.2400 -6.7895 -2.4953 0.1161 0 8
-20.1279 -7.1148 -2.4953 0.1161 0 8
-20.0107 -7.4382 -2.4953 0.1161 0 8
-19.8882 -7.7597 -2.4953 0.1161 0 8
-19.7606 -8.0791 -2.4953 0.1161 0 8
-19.6279 -8.3965 -2.4953 0.1161 0 8
-19.4900 -8.7117 -2.4953 0.1161 0 8
-19.3471 -9.0246 -2.4953 0.1161 0 8
-19.1992 -9.3352 -2.4953 0.1161 0 8
-19.0463 -9.6433 -2.4953 0.1161 0 8
-18.8884 -9.9490 -2.4953 0.1161 0 8
-18.7256 -10.2521 -2.4953 0.1161 0 8
-18.5580 -10.5525 -2.4953 0.1161 0 8
-18.3855 -10.8502 -2.4953 0.1161 0 8
-18.2083 -11.1450 -2.4953 0.1161 0 8
-18.0263 -11.4371 -2.4953 0.1161 0 8
-17.8397 -11.7259 -2.4953 0.1161 0 8
-17.6485 -12.0119 -2.4953 0.1161 0 8
-17.4526 -12.2947 -2.4953 0.1161 0 8
-17.2523 -12.5743 -2.4953 0.1161 0 8
-17.0474 -12.8507 -2.4953 0.1161 0 8
-16.8381 -13.1237 -2.4953 0.1161 0 8
-16.6245 -13.3933 -2.4953 0.1161 0 8
-16.4065 -13.6595 -2.4953 0.1161 0 8
-16.1842 -13.9221 -2.4953 0.1161 0 8
-15.9578 -14.1811 -2.4953 0.1161 0 8
-15.7272 -14.4364 -2.4953 0.1161 0 8
8.9766 18.9624 -2.6291 0.9033 0 8
8.6065 18.9649 -2.6099 0.9100 0 8
8.2416 18.9673 -2.5916 0.9164 0 8
7.8817 18.9695 -2.5742 0.9226 0 8
7.5264 18.9716 -2.5577 0.9285 0 8
7.1755 18.9735 -2.5420 0.9342 0 8
6.8288 18.9753 -2.5272 0.9397 0 8
6.4859 18.9769 -2.5132 0.9450 0 8
6.1540 19.0009 -2.5029 0.1243 0 8
5.8470 19.0976 -2.5029 0.1243 0 8
5.5385 19.1893 -2.5029 0.1243 0 14
5.2286 19.2761 -2.5029 0.1243 0 14
4.9173 19.3578 -2.5029 0.1243 0 14
4.6048 19.4345 -2.5029 0.1243 0 14
4.2910 19.5062 -2.5029 0.1243 0 14
3.9761 19.5728 -2.5029 0.1243 0 14
3.6602 19.6343 -2.5029 0.1243 0 14
3.3434 19.6908 -2.5029 0.1243 0 14
3.0256 19.7421 -2.5029 0.1243 0 14
2.7071 19.7883 -2.5029 0.1243 0 14
2.3879 19.8293 -2.5029 0.1243 0 14
2.0681 19.8652 -2.5029 0.1243 0 14
1.7477 19.8960 -2.5029 0.1243 0 14
1.4269 19.9216 -2.5029 0.1243 0 14
1.1057 19.9420 -2.5029 0.1243 0 14
0.7842 19.9572 -2.5029 0.1243 0 14
0.4625 19.9673 -2.5029 0.1243 0 14
0.1407 19.9721 -2.5029 0.1243 0 14
-0.1811 19.9718 -2.5029 0.1243 0 14
-0.5029 19.9663 -2.5029 0.1243 0 14
-0.8246 19.9556 -2.5029 0.1243 0 14
-1.1460 19.9397 -2.5029 0.1243 0 14
-1.4672 19.9186 -2.5029 0.1243 0 14
-1.7880 19.8924 -2.5029 0.1243 0 14
-2.1083 19.8610 -2.5029 0.1243 0 14
-2.4280 19.8245 -2.5029 0.1243 0 14
-2.7472 19.7828 -2.5029 0.1243 0 14
-3.0656 19.7359 -2.5029 0.1243 0 14
-3.3832 19.6840 -2.5029 0.1243 0 14
-3.6999 19.6269 -2.5029 0.1243 0 14
-4.0157 19.5647 -2.5029 0.1243 0 14
-4.3305 19.4975 -2.5029 0.1243 0 14
-4.6441 19.4252 -2.5029 0.1243 0 14
-4.9565 19.3478 -2.5029 0.1243 0 14
-5.2676 19.2654 -2.5029 0.1243 0 14
-5.5774 19.1781 -2.5029 0.1243 0 14
-5.8857 19.0857 -2.5029 0.1243 0 8
-6.1924 18.9884 -2.5029 0.1243 0 8
-6.5167 18.9416 -2.5102 0.7520 0 8
-6.8586 18.9378 -2.5241 0.9409 0 8
-7.2045 18.9342 -2.5387 0.9355 0 8
-7.5544 18.9303 -2.5542 0.9298 0 8
-7.9087 18.9263 -2.5705 0.9239 0 8
-8.2675 18.9221 -2.5877 0.9178 0 8
-8.6313 18.9178 -2.6058 0.9114 0 8
-9.0002 18.9132 -2.6248 0.9048 0 8
-9.3746 18.9085 -2.6448 0.8980 0 8
-9.6886 18.7755 -2.6477 0.1243 0 7
-9.9899 18.6169 -2.6477 0.1243 0 7
-10.2886 18.4535 -2.6477 0.1243 0 6
-10.5846 18.2854 -2.6477 0.1243 0 7
-10.8779 18.1124 -2.6477 0.1243 0 7
-11.1683 17.9348 -2.6477 0.1243 0 7
-11.4559 17.7525 -2.6477 0.1243 0 7
-11.7405 17.5656 -2.6477 0.1243 0 7
-12.0220 17.3741 -2.6477 0.1243 0 7
-12.3004 17.1782 -2.6477 0.1243 0 7
-12.5756 16.9777 -2.6477 0.1243 0 7
-12.8475 16.7729 -2.6477 0.1243 0 7
-13.1161 16.5637 -2.6477 0.1243 0 7
-13.3813 16.3502 -2.6477 0.1243 0 7
-13.6431 16.1325 -2.6477 0.1243 0 7
-13.9012 15.9105 -2.6477 0.1243 0 7
-14.1558 15.6844 -2.6477 0.1243 0 7
-14.4067 15.4543 -2.6477 0.1243 0 7
-14.6539 15.2202 -2.6477 0.1243 0 7
-14.8972 14.9821 -2.6477 0.1243 0 7
-15.1367 14.7400 -2.6477 0.1243 0 7
-15.3722 14.4942 -2.6477 0.1243 0 7
-15.6038 14.2447 -2.6477 0.1243 0 7
-15.8313 13.9914 -2.6477 0.1243 0 7
-16.0547 13.7345 -2.6477 0.1243 0 7
-16.2739 13.4740 -2.6477 0.1243 0 7
-16.4889 13.2100 -2.6477 0.1243 0 7
-16.6997 12.9426 -2.6477 0.1243 0 7
-16.9061 12.6718 -2.6477 0.1243 0 7
-17.1080 12.3977 -2.6477 0.1243 0 7
-17.3056 12.1205 -2.6477 0.1243 0 7
-17.4986 11.8400 -2.6477 0.1243 0 7
-17.6872 11.5565 -2.6477 0.1243 0 7
-17.8711 11.2700 -2.6477 0.1243 0 7
-18.0504 10.9806 -2.6477 0.1243 0 7
-18.2250 10.6883 -2.6477 0.1243 0 7
-18.3948 10.3932 -2.6477 0.1243 0 7
-18.5599 10.0955 -2.6477 0.1243 0 7
-18.7202 9.7951 -2.6477 0.1243 0 7
-18.8756 9.4922 -2.6477 0.1243 0 7
-19.0261 9.1868 -2.6477 0.1243 0 7
-18.0681 8.3679 -2.4953 0.1243 0 8
-18.2006 8.0757 -2.4953 0.1243 0 8
-18.3284 7.7814 -2.4953 0.1243 0 8
-18.4514 7.4850 -2.4953 0.1243 0 8
-18.5696 7.1867 -2.4953 0.1243 0 8
-18.6830 6.8866 -2.4953 0.1243 0 8
-18.7915 6.5846 -2.4953 0.1243 0 8
-18.8952 6.2810 -2.4953 0.1243 0 8
-18.9940 5.9757 -2.4953 0.1243 0 8
-19.0878 5.6689 -2.4953 0.1243 0 8
-19.1767 5.3605 -2.4953 0.1243 0 8
-19.2605 5.0508 -2.4953 0.1243 0 8
-19.3394 4.7398 -2.4953 0.1243 0 8
-19.4133 4.4276 -2.4953 0.1243 0 8
-19.4821 4.1142 -2.4953 0.1243 0 8
-19.5459 3.7997 -2.4953 0.1243 0 8
-19.6046 3.4843 -2.4953 0.1243 0 8
-19.6582 3.1679 -2.4953 0.1243 0 8
-19.7067 2.8507 -2.4953 0.1243 0 8
-19.7500 2.5328 -2.4953 0.1243 0 8
-19.7883 2.2143 -2.4953 0.1243 0 8
-19.8214 1.8951 -2.4953 0.1243 0 8
-19.8494 1.5755 -2.4953 0.1243 0 8
-19.8722 1.2554 -2.4953 0.1243 0 8
-19.8898 0.9350 -2.4953 0.1243 0 8
-19.9023 0.6144 -2.4953 0.1243 0 8
-19.9096 0.2936 -2.4953 0.1243 0 8
-19.9118 -0.0272 -2.4953 0.1243 0 8
-19.9088 -0.3481 -2.4953 0.1243 0 8
-19.9006 -0.6688 -2.4953 0.1243 0 8
-19.8872 -0.9894 -2.4953 0.1243 0 8
-19.8687 -1.3098 -2.4953 0.1243 0 8
-19.8450 -1.6297 -2.4953 0.1243 0 8
-19.8161 -1.9493 -2.4953 0.1243 0 8
-19.7822 -2.2684 -2.4953 0.1243 0 8
-19.7430 -2.5868 -2.4953 0.1243 0 8
-19.6988 -2.9046 -2.4953 0.1243 0 8
-19.6494 -3.2217 -2.4953 0.1243 0 8
-19.5950 -3.5379 -2.4953 0.1243 0 8
-19.5354 -3.8532 -2.4953 0.1243 0 8
-19.4708 -4.1675 -2.4953 0.1243 0 8
-19.4011 -4.4807 -2.4953 0.1243 0 8
-19.3264 -4.7927 -2.4953 0.1243 0 8
-19.2467 -5.1035 -2.4953 0.1243 0 8
-19.1619 -5.4130 -2.4953 0.1243 0 8
-19.0722 -5.7210 -2.4953 0.1243 0 8
-18.9775 -6.0276 -2.4953 0.1243 0 8
-18.8780 -6.3326 -2.4953 0.1243 0 8
-18.7735 -6.6360 -2.4953 0.1243 0 8
-18.6641 -6.9376 -2.4953 0.1243 0 8
-18.5499 -7.2375 -2.4953 0.1243 0 8
-18.4309 -7.5354 -2.4953 0.1243 0 8
-18.3070 -7.8315 -2.4953 0.1243 0 8
-18.1785 -8.1254 -2.4953 0.1243 0 8
-18.0452 -8.4173 -2.4953 0.1243 0 8
-17.9072 -8.7070 -2.4953 0.1243 0 8
-17.7646 -8.9944 -2.4953 0.1243 0 8
-17.6173 -9.2795 -2.4953 0.1243 0 8
-17.4655 -9.5622 -2.4953 0.1243 0 8
-17.3092 -9.8424 -2.4953 0.1243 0 8
-17.1483 -10.1200 -2.4953 0.1243 0 8
-16.9830 -10.3950 -2.4953 0.1243 0 8
-16.8133 -10.6673 -2.4953 0.1243 0 8
-16.6392 -10.9369 -2.4953 0.1243 0 8
-16.4608 -11.2036 -2.4953 0.1243 0 8
-16.2782 -11.4674 -2.4953 0.1243 0 8
-16.0913 -11.7282 -2.4953 0.1243 0 8
-15.9002 -11.9859 -2.4953 0.1243 0 8
-15.7050 -12.2406 -2.4953 0.1243 0 8
-15.5057 -12.4921 -2.4953 0.1243 0 8
-15.3024 -12.7403 -2.4953 0.1243 0 8
-15.0951 -12.9852 -2.4953 0.1243 0 8
-14.8839 -13.2268 -2.4953 0.1243 0 8
-14.6689 -13.4649 -2.4953 0.1243 0 8
8.4689 17.8899 -2.6477 0.1326 0 7
8.1795 18.0240 -2.6477 0.1326 0 7
7.8880 18.1535 -2.6477 0.1326 0 7
7.5945 18.2782 -2.6477 0.1326 0 7
7.2990 18.3982 -2.6477 0.1326 0 6
7.0016 18.5135 -2.6477 0.1326 0 6
6.7023 18.6239 -2.6477 0.1326 0 7
6.4014 18.7295 -2.6477 0.1326 0 7
6.0987 18.8302 -2.6477 0.1326 0 7
5.7945 18.9260 -2.6477 0.1326 0 7
5.4697 18.9509 -2.6385 0.9598 0 8
5.1408 18.9522 -2.6268 0.9640 0 8
4.8146 18.9533 -2.6158 0.9681 0 8
4.4910 18.9543 -2.6056 0.9719 0 8
4.1698 18.9551 -2.5962 0.9754 0 8
3.8508 18.9559 -2.5875 0.9787 0 8
3.5339 18.9565 -2.5794 0.9817 0 8
3.2188 18.9569 -2.5721 0.9845 0 8
2.9054 18.9573 -2.5655 0.9871 0 8
2.5935 18.9575 -2.5595 0.9894 0 8
2.2830 18.9576 -2.5542 0.9914 0 8
1.9736 18.9576 -2.5496 0.9932 0 8
1.6653 18.9575 -2.5457 0.9948 0 8
1.3578 18.9573 -2.5424 0.9961 0 8
1.0511 18.9569 -2.5397 0.9971 0 8
0.7449 18.9564 -2.5377 0.9979 0 8
0.4391 18.9558 -2.5363 0.9984 0 8
0.1336 18.9551 -2.5356 0.9987 0 8
-0.1719 18.9564 -2.5358 0.9969 0 8
-0.4774 18.9549 -2.5363 0.9985 0 8
-0.7832 18.9531 -2.5375 0.9981 0 8
-1.0892 18.9512 -2.5392 0.9974 0 8
-1.3958 18.9497 -2.5417 0.9963 0 8
-1.7031 18.9483 -2.5449 0.9951 0 8
-2.0112 18.9467 -2.5487 0.9936 0 8
-2.3203 18.9451 -2.5532 0.9918 0 8
-2.6306 18.9432 -2.5583 0.9898 0 8
-2.9421 18.9413 -2.5641 0.9876 0 8
-3.2552 18.9392 -2.5706 0.9851 0 8
-3.5699 18.9370 -2.5778 0.9824 0 8
-3.8864 18.9347 -2.5856 0.9794 0 8
-4.2049 18.9322 -2.5942 0.9761 0 8
-4.5256 18.9296 -2.6035 0.9727 0 8
-4.8486 18.9268 -2.6135 0.9689 0 8
-5.1742 18.9239 -2.6243 0.9649 0 8
-5.5026 18.9209 -2.6358 0.9607 0 8
-5.8328 18.9142 -2.6477 0.1326 0 7
-6.1368 18.8178 -2.6477 0.1326 0 7
-6.4392 18.7165 -2.6477 0.1326 0 7
-6.7400 18.6103 -2.6477 0.1326 0 7
-7.0390 18.4993 -2.6477 0.1326 0 7
-7.3362 18.3834 -2.6477 0.1326 0 6
-7.6314 18.2628 -2.6477 0.1326 0 7
-7.9247 18.1375 -2.6477 0.1326 0 7
-8.2160 18.0074 -2.6477 0.1326 0 7
-8.5051 17.8727 -2.6477 0.1326 0 7
-8.7919 17.7333 -2.6477 0.1326 0 7
-9.0766 17.5894 -2.6477 0.1326 0 7
-9.3588 17.4408 -2.6477 0.1326 0 7
-9.6386 17.2878 -2.6477 0.1326 0 7
-9.9160 17.1302 -2.6477 0.1326 0 7
-10.1907 16.9682 -2.6477 0.1326 0 7
-10.4628 16.8018 -2.6477 0.1326 0 7
-10.7322 16.6310 -2.6477 0.1326 0 7
-10.9988 16.4559 -2.6477 0.1326 0 7
-11.2625 16.2765 -2.6477 0.1326 0 7
-11.5233 16.0929 -2.6477 0.1326 0 7
-11.7811 15.9052 -2.6477 0.1326 0 7
-12.0359 15.7133 -2.6477 0.1326 0 7
-12.2875 15.5173 -2.6477 0.1326 0 7
-12.5360 15.3173 -2.6477 0.1326 0 7
-12.7812 15.1133 -2.6477 0.1326 0 7
-13.0230 14.9054 -2.6477 0.1326 0 7
-13.2615 14.6936 -2.6477 0.1326 0 7
-13.4966 14.4780 -2.6477 0.1326 0 7
-13.7281 14.2586 -2.6477 0.1326 0 7
-13.9561 14.0356 -2.6477 0.1326 0 7
-14.1805 13.8089 -2.6477 0.1326 0 7
-14.4011 13.5786 -2.6477 0.1326 0 7
-14.6181 13.3448 -2.6477 0.1326 0 7
-14.8312 13.1075 -2.6477 0.1326 0 7
-15.0405 12.8668 -2.6477 0.1326 0 7
-15.2458 12.6228 -2.6477 0.1326 0 7
-15.4473 12.3755 -2.6477 0.1326 0 7
-15.6447 12.1249 -2.6477 0.1326 0 7
-15.8380 11.8712 -2.6477 0.1326 0 7
-16.0273 11.6145 -2.6477 0.1326 0 7
-16.2123 11.3548 -2.6477 0.1326 0 6
-16.3932 11.0920 -2.6477 0.1326 0 7
-16.5698 10.8265 -2.6477 0.1326 0 7
-16.7421 10.5580 -2.6477 0.1326 0 7
-16.9101 10.2869 -2.6477 0.1326 0 7
-17.0736 10.0131 -2.6477 0.1326 0 7
-17.2328 9.7367 -2.6477 0.1326 0 7
-17.3874 9.4577 -2.6477 0.1326 0 7
-17.5375 9.1763 -2.6477 0.1326 0 7
-16.6653 8.3807 -2.4953 0.1326 0 8
-16.7982 8.1110 -2.4953 0.1326 0 8
-16.9267 7.8393 -2.4953 0.1326 0 8
-17.0508 7.5655 -2.4953 0.1326 0 8
-17.1705 7.2898 -2.4953 0.1326 0 8
-17.2857 7.0122 -2.4953 0.1326 0 8
-17.3965 6.7327 -2.4953 0.1326 0 8
-17.5027 6.4515 -2.4953 0.1326 0 8
-17.6044 6.1687 -2.4953 0.1326 0 8
-17.7015 5.8842 -2.4953 0.1326 0 8
-17.7940 5.5982 -2.4953 0.1326 0 8
-17.8819 5.3107 -2.4953 0.1326 0 8
-17.9652 5.0219 -2.4953 0.1326 0 8
-18.0438 4.7318 -2.4953 0.1326 0 8
-18.1177 4.4404 -2.4953 0.1326 0 8
-18.1869 4.1479 -2.4953 0.1326 0 8
-18.2513 3.8543 -2.4953 0.1326 0 8
-18.3111 3.5597 -2.4953 0.1326 0 8
-18.3661 3.2642 -2.4953 0.1326 0 8
-18.4163 2.9678 -2.4953 0.1326 0 8
-18.4617 2.6707 -2.4953 0.1326 0 8
-18.5024 2.3728 -2.4953 0.1326 0 8
-18.5382 2.0744 -2.4953 0.1326 0 8
-18.5692 1.7754 -2.4953 0.1326 0 8
-18.5954 1.4759 -2.4953 0.1326 0 8
-18.6168 1.1761 -2.4953 0.1326 0 8
-18.6333 0.8760 -2.4953 0.1326 0 8
-18.6450 0.5756 -2.4953 0.1326 0 8
-18.6519 0.2751 -2.4953 0.1326 0 8
-18.6539 -0.0255 -2.4953 0.1326 0 8
-18.6510 -0.3261 -2.4953 0.1326 0 8
-18.6433 -0.6266 -2.4953 0.1326 0 8
-18.6308 -0.9269 -2.4953 0.1326 0 8
-18.6135 -1.2270 -2.4953 0.1326 0 8
-18.5913 -1.5268 -2.4953 0.1326 0 8
-18.5643 -1.8261 -2.4953 0.1326 0 8
-18.5325 -2.1251 -2.4953 0.1326 0 8
-18.4958 -2.4234 -2.4953 0.1326 0 8
-18.4544 -2.7211 -2.4953 0.1326 0 8
-18.4081 -3.0182 -2.4953 0.1326 0 8
-18.3571 -3.3144 -2.4953 0.1326 0 8
-18.3013 -3.6098 -2.4953 0.1326 0 8
-18.2407 -3.9042 -2.4953 0.1326 0 8
-18.1755 -4.1976 -2.4953 0.1326 0 8
-18.1055 -4.4899 -2.4953 0.1326 0 8
-18.0308 -4.7811 -2.4953 0.1326 0 8
-17.9514 -5.0710 -2.4953 0.1326 0 8
-17.8673 -5.3596 -2.4953 0.1326 0 8
-17.7787 -5.6468 -2.4953 0.1326 0 8
-17.6854 -5.9326 -2.4953 0.1326 0 8
-17.5875 -6.2168 -2.4953 0.1326 0 8
-17.4850 -6.4994 -2.4953 0.1326 0 8
-17.3780 -6.7803 -2.4953 0.1326 0 8
-17.2665 -7.0594 -2.4953 0.1326 0 8
-17.1505 -7.3367 -2.4953 0.1326 0 8
-17.0301 -7.6121 -2.4953 0.1326 0 8
-16.9052 -7.8856 -2.4953 0.1326 0 8
-16.7759 -8.1569 -2.4953 0.1326 0 8
-16.6423 -8.4262 -2.4953 0.1326 0 8
-16.5044 -8.6933 -2.4953 0.1326 0 8
-16.3621 -8.9581 -2.4953 0.1326 0 8
-16.2157 -9.2206 -2.4953 0.1326 0 8
-16.0650 -9.4807 -2.4953 0.1326 0 8
-15.9101 -9.7383 -2.4953 0.1326 0 8
-15.7512 -9.9934 -2.4953 0.1326 0 8
-15.5881 -10.2459 -2.4953 0.1326 0 8
-15.4209 -10.4958 -2.4953 0.1326 0 8
-15.2498 -10.7429 -2.4953 0.1326 0 8
-15.0747 -10.9873 -2.4953 0.1326 0 8
-14.8957 -11.2287 -2.4953 0.1326 0 8
-14.7129 -11.4673 -2.4953 0.1326 0 8
-14.5262 -11.7029 -2.4953 0.1326 0 8
-14.3357 -11.9354 -2.4953 0.1326 0 8
-14.1415 -12.1649 -2.4953 0.1326 0 8
-13.9437 -12.3912 -2.4953 0.1326 0 8
-13.7422 -12.6143 -2.4953 0.1326 0 8
7.9646 16.8246 -2.6477 0.1408 0 7
7.6925 16.9508 -2.6477 0.1408 0 7
7.4183 17.0725 -2.6477 0.1408 0 7
7.1423 17.1898 -2.6477 0.1408 0 7
6.8643 17.3027 -2.6477 0.1408 0 7
6.5846 17.4111 -2.6477 0.1408 0 7
6.3032 17.5149 -2.6477 0.1408 0 7
6.0202 17.6142 -2.6477 0.1408 0 7
5.7356 17.7089 -2.6477 0.1408 0 7
5.4495 17.7990 -2.6477 0.1408 0 7
5.1620 17.8845 -2.6477 0.1408 0 7
4.8731 17.9654 -2.6477 0.1408 0 7
4.5830 18.0416 -2.6477 0.1408 0 7
4.2917 18.1131 -2.6477 0.1408 0 7
3.9992 18.1799 -2.6477 0.1408 0 7
3.7058 18.2420 -2.6477 0.1408 0 7
3.4114 18.2993 -2.6477 0.1408 0 7
3.1160 18.3519 -2.6477 0.1408 0 7
2.8199 18.3997 -2.6477 0.1408 0 6
2.5231 18.4428 -2.6477 0.1408 0 6
2.2256 18.4811 -2.6477 0.1408 0 6
1.9275 18.5145 -2.6477 0.1408 0 7
1.6289 18.5432 -2.6477 0.1408 0 7
1.3299 18.5670 -2.6477 0.1408 0 7
1.0305 18.5860 -2.6477 0.1408 0 7
0.7309 18.6002 -2.6477 0.1408 0 7
0.4310 18.6096 -2.6477 0.1408 0 7
0.1311 18.6141 -2.6477 0.1408 0 7
-0.1688 18.6138 -2.6477 0.1408 0 7
-0.4687 18.6087 -2.6477 0.1408 0 7
-0.7685 18.5987 -2.6477 0.1408 0 7
-1.0681 18.5839 -2.6477 0.1408 0 7
-1.3674 18.5643 -2.6477 0.1408 0 7
-1.6664 18.5398 -2.6477 0.1408 0 7
-1.9649 18.5106 -2.6477 0.1408 0 7
-2.2629 18.4765 -2.6477 0.1408 0 6
-2.5604 18.4377 -2.6477 0.1408 0 6
-2.8571 18.3940 -2.6477 0.1408 0 6
-3.1532 18.3456 -2.6477 0.1408 0 7
-3.4484 18.2924 -2.6477 0.1408 0 7
-3.7427 18.2345 -2.6477 0.1408 0 7
-4.0360 18.1718 -2.6477 0.1408 0 7
-4.3283 18.1044 -2.6477 0.1408 0 7
-4.6195 18.0323 -2.6477 0.1408 0 7
-4.9094 17.9555 -2.6477 0.1408 0 7
-5.1981 17.8741 -2.6477 0.1408 0 7
-5.4855 17.7880 -2.6477 0.1408 0 7
-5.7714 17.6973 -2.6477 0.1408 0 7
-6.0558 17.6020 -2.6477 0.1408 0 7
-6.3386 17.5021 -2.6477 0.1408 0 7
-6.6198 17.3977 -2.6477 0.1408 0 7
-6.8993 17.2888 -2.6477 0.1408 0 7
-7.1770 17.1754 -2.6477 0.1408 0 7
-7.4528 17.0575 -2.6477 0.1408 0 7
-7.7267 16.9352 -2.6477 0.1408 0 7
-7.9986 16.8085 -2.6477 0.1408 0 7
-8.2684 16.6774 -2.6477 0.1408 0 7
-8.5361 16.5420 -2.6477 0.1408 0 7
-8.8015 16.4023 -2.6477 0.1408 0 7
-9.0647 16.2583 -2.6477 0.1408 0 7
-9.3255 16.1102 -2.6477 0.1408 0 7
-9.5839 15.9578 -2.6477 0.1408 0 7
-9.8398 15.8013 -2.6477 0.1408 0 7
-10.0931 15.6407 -2.6477 0.1408 0 7
-10.3439 15.4760 -2.6477 0.1408 0 7
-10.5919 15.3073 -2.6477 0.1408 0 7
-10.8371 15.1347 -2.6477 0.1408 0 7
-11.0796 14.9581 -2.6477 0.1408 0 7
-11.3192 14.7776 -2.6477 0.1408 0 7
-11.5559 14.5933 -2.6477 0.1408 0 7
-11.7895 14.4052 -2.6477 0.1408 0 7
-12.0201 14.2134 -2.6477 0.1408 0 7
-12.2476 14.0178 -2.6477 0.1408 0 7
-12.4719 13.8187 -2.6477 0.1408 0 7
-12.6929 13.6159 -2.6477 0.1408 0 7
-12.9107 13.4096 -2.6477 0.1408 0 7
-13.1251 13.1998 -2.6477 0.1408 0 7
-13.3361 12.9866 -2.6477 0.1408 0 7
-13.5436 12.7700 -2.6477 0.1408 0 7
-13.7476 12.5501 -2.6477 0.1408 0 7
-13.9480 12.3270 -2.6477 0.1408 0 7
-14.1449 12.1006 -2.6477 0.1408 0 7
-14.3380 11.8711 -2.6477 0.1408 0 7
-14.5275 11.6385 -2.6477 0.1408 0 7
-14.7131 11.4030 -2.6477 0.1408 0 6
-14.8949 11.1644 -2.6477 0.1408 0 7
-15.0729 10.9229 -2.6477 0.1408 0 7
-15.2470 10.6786 -2.6477 0.1408 0 7
-15.4170 10.4316 -2.6477 0.1408 0 7
-15.5831 10.1818 -2.6477 0.1408 0 7
-15.7452 9.9294 -2.6477 0.1408 0 7
-15.9031 9.6744 -2.6477 0.1408 0 7
-16.0570 9.4168 -2.6477 0.1408 0 7
-16.2066 9.1569 -2.6477 0.1408 0 7
-15.4108 8.3826 -2.4953 0.1408 0 8
-15.5439 8.1332 -2.4953 0.1408 0 8
-15.6729 7.8816 -2.4953 0.1408 0 8
-15.7979 7.6281 -2.4953 0.1408 0 8
-15.9188 7.3725 -2.4953 0.1408 0 8
-16.0355 7.1150 -2.4953 0.1408 0 8
-16.1481 6.8557 -2.4953 0.1408 0 8
-16.2564 6.5946 -2.4953 0.1408 0 8
-16.3606 6.3318 -2.4953 0.1408 0 8
-16.4605 6.0674 -2.4953 0.1408 0 8
-16.5561 5.8013 -2.4953 0.1408 0 8
-16.6475 5.5338 -2.4953 0.1408 0 8
-16.7345 5.2648 -2.4953 0.1408 0 8
-16.8172 4.9945 -2.4953 0.1408 0 8
-16.8954 4.7229 -2.4953 0.1408 0 8
-16.9693 4.4500 -2.4953 0.1408 0 8
-17.0389 4.1760 -2.4953 0.1408 0 8
-17.1039 3.9009 -2.4953 0.1408 0 8
-17.1646 3.6248 -2.4953 0.1408 0 8
-17.2207 3.3477 -2.4953 0.1408 0 8
-17.2725 3.0698 -2.4953 0.1408 0 8
-17.3197 2.7911 -2.4953 0.1408 0 8
-17.3624 2.5116 -2.4953 0.1408 0 8
-17.4006 2.2315 -2.4953 0.1408 0 8
-17.4343 1.9508 -2.4953 0.1408 0 8
-17.4635 1.6697 -2.4953 0.1408 0 8
-17.4881 1.3880 -2.4953 0.1408 0 8
-17.5082 1.1061 -2.4953 0.1408 0 8
-17.5238 0.8238 -2.4953 0.1408 0 8
-17.5348 0.5413 -2.4953 0.1408 0 8
-17.5412 0.2587 -2.4953 0.1408 0 8
-17.5431 -0.0240 -2.4953 0.1408 0 8
-17.5404 -0.3067 -2.4953 0.1408 0 8
-17.5332 -0.5893 -2.4953 0.1408 0 8
-17.5215 -0.8717 -2.4953 0.1408 0 8
-17.5051 -1.1539 -2.4953 0.1408 0 8
-17.4843 -1.4359 -2.4953 0.1408 0 8
-17.4589 -1.7174 -2.4953 0.1408 0 8
-17.4289 -1.9985 -2.4953 0.1408 0 8
-17.3943 -2.2796 -2.4953 0.1408 0 8
-17.3555 -2.5591 -2.4953 0.1408 0 8
-17.3120 -2.8384 -2.4953 0.1408 0 8
-17.2640 -3.1170 -2.4953 0.1408 0 8
-17.2115 -3.3948 -2.4953 0.1408 0 8
-17.1546 -3.6717 -2.4953 0.1408 0 8
-17.0932 -3.9476 -2.4953 0.1408 0 8
-17.0274 -4.2226 -2.4953 0.1408 0 8
-16.9571 -4.4964 -2.4953 0.1408 0 8
-16.8825 -4.7687 -2.4953 0.1408 0 8
-16.8034 -5.0405 -2.4953 0.1408 0 8
-16.7200 -5.3106 -2.4953 0.1408 0 8
-16.6323 -5.5793 -2.4953 0.1408 0 8
-16.5402 -5.8466 -2.4953 0.1408 0 8
-16.4439 -6.1124 -2.4953 0.1408 0 8
-16.3432 -6.3765 -2.4953 0.1408 0 8
-16.2384 -6.6390 -2.4953 0.1408 0 8
-16.1293 -6.8999 -2.4953 0.1408 0 8
-16.0160 -7.1589 -2.4953 0.1408 0 8
-15.8986 -7.4160 -2.4953 0.1408 0 8
-15.7770 -7.6712 -2.4953 0.1408 0 8
-15.6513 -7.9245 -2.4953 0.1408 0 8
-15.5216 -8.1756 -2.4953 0.1408 0 8
-15.3879 -8.4247 -2.4953 0.1408 0 8
-15.2501 -8.6715 -2.4953 0.1408 0 8
-15.1084 -8.9162 -2.4953 0.1408 0 8
-14.9628 -9.1585 -2.4953 0.1408 0 8
-14.8132 -9.3984 -2.4953 0.1408 0 8
-14.6599 -9.6358 -2.4953 0.1408 0 8
-14.5027 -9.8708 -2.4953 0.1408 0 8
-14.3418 -10.1032 -2.4953 0.1408 0 8
-14.1771 -10.3330 -2.4953 0.1408 0 8
-14.0088 -10.5601 -2.4953 0.1408 0 8
-13.8368 -10.7845 -2.4953 0.1408 0 8
-13.6612 -11.0060 -2.4953 0.1408 0 8
-13.4821 -11.2247 -2.4953 0.1408 0 8
-13.2995 -11.4405 -2.4953 0.1408 0 8
-13.1134 -11.6534 -2.4953 0.1408 0 8
-12.9239 -11.8631 -2.4953 0.1408 0 8
7.5160 15.8770 -2.6477 0.1490 0 7
7.2592 15.9960 -2.6477 0.1490 0 7
7.0005 16.1109 -2.6477 0.1490 0 7
6.7400 16.2216 -2.6477 0.1490 0 7
6.4777 16.3282 -2.6477 0.1490 0 7
6.2138 16.4304 -2.6477 0.1490 0 7
5.9482 16.5284 -2.6477 0.1490 0 7
5.6811 16.6221 -2.6477 0.1490 0 7
5.4125 16.7115 -2.6477 0.1490 0 7
5.1425 16.7965 -2.6477 0.1490 0 7
4.8712 16.8772 -2.6477 0.1490 0 7
4.5986 16.9535 -2.6477 0.1490 0 7
4.3249 17.0254 -2.6477 0.1490 0 7
4.0500 17.0929 -2.6477 0.1490 0 7
3.7740 17.1559 -2.6477 0.1490 0 7
3.4971 17.2145 -2.6477 0.1490 0 7
3.2192 17.2686 -2.6477 0.1490 0 7
2.9405 17.3183 -2.6477 0.1490 0 7
2.6611 17.3634 -2.6477 0.1490 0 7
2.3810 17.4040 -2.6477 0.1490 0 7
2.1002 17.4401 -2.6477 0.1490 0 7
1.8189 17.4717 -2.6477 0.1490 0 7
1.5371 17.4988 -2.6477 0.1490 0 7
1.2550 17.5213 -2.6477 0.1490 0 7
0.9725 17.5392 -2.6477 0.1490 0 7
0.6897 17.5526 -2.6477 0.1490 0 7
0.4068 17.5614 -2.6477 0.1490 0 7
0.1238 17.5657 -2.6477 0.1490 0 7
-0.1593 17.5654 -2.6477 0.1490 0 7
-0.4423 17.5606 -2.6477 0.1490 0 7
-0.7252 17.5512 -2.6477 0.1490 0 7
-1.0080 17.5372 -2.6477 0.1490 0 7
-1.2904 17.5187 -2.6477 0.1490 0 7
-1.5725 17.4956 -2.6477 0.1490 0 7
-1.8542 17.4680 -2.6477 0.1490 0 7
-2.1355 17.4359 -2.6477 0.1490 0 7
-2.4162 17.3992 -2.6477 0.1490 0 7
-2.6962 17.3580 -2.6477 0.1490 0 7
-2.9756 17.3123 -2.6477 0.1490 0 7
-3.2541 17.2621 -2.6477 0.1490 0 7
-3.5319 17.2074 -2.6477 0.1490 0 7
-3.8087 17.1483 -2.6477 0.1490 0 7
-4.0845 17.0847 -2.6477 0.1490 0 7
-4.3593 17.0166 -2.6477 0.1490 0 7
-4.6329 16.9442 -2.6477 0.1490 0 7
-4.9054 16.8673 -2.6477 0.1490 0 7
-5.1765 16.7861 -2.6477 0.1490 0 7
-5.4463 16.7005 -2.6477 0.1490 0 7
-5.7147 16.6106 -2.6477 0.1490 0 7
-5.9816 16.5163 -2.6477 0.1490 0 7
-6.2470 16.4178 -2.6477 0.1490 0 7
-6.5107 16.3150 -2.6477 0.1490 0 7
-6.7728 16.2080 -2.6477 0.1490 0 7
-7.0331 16.0968 -2.6477 0.1490 0 7
-7.2915 15.9813 -2.6477 0.1490 0 7
-7.5481 15.8618 -2.6477 0.1490 0 7
-7.8027 15.7381 -2.6477 0.1490 0 7
-8.0553 15.6103 -2.6477 0.1490 0 7
-8.3058 15.4785 -2.6477 0.1490 0 7
-8.5541 15.3426 -2.6477 0.1490 0 7
-8.8003 15.2028 -2.6477 0.1490 0 7
-9.0441 15.0590 -2.6477 0.1490 0 7
-9.2856 14.9113 -2.6477 0.1490 0 7
-9.5246 14.7598 -2.6477 0.1490 0 7
-9.7612 14.6044 -2.6477 0.1490 0 7
-9.9953 14.4452 -2.6477 0.1490 0 7
-10.2268 14.2822 -2.6477 0.1490 0 7
-10.4556 14.1156 -2.6477 0.1490 0 7
-10.6817 13.9453 -2.6477 0.1490 0 7
-10.9050 13.7714 -2.6477 0.1490 0 7
-11.1255 13.5939 -2.6477 0.1490 0 7
-11.3431 13.4128 -2.6477 0.1490 0 7
-11.5577 13.2283 -2.6477 0.1490 0 7
-11.7694 13.0403 -2.6477 0.1490 0 7
-11.9780 12.8490 -2.6477 0.1490 0 7
-12.1835 12.6543 -2.6477 0.1490 0 7
-12.3858 12.4564 -2.6477 0.1490 0 7
-12.5849 12.2552 -2.6477 0.1490 0 7
-12.7808 12.0508 -2.6477 0.1490 0 7
-12.9733 11.8433 -2.6477 0.1490 0 7
-13.1624 11.6327 -2.6477 0.1490 0 7
-13.3482 11.4191 -2.6477 0.1490 0 6
-13.5305 11.2025 -2.6477 0.1490 0 7
-13.7092 10.9830 -2.6477 0.1490 0 7
-13.8844 10.7607 -2.6477 0.1490 0 7
-14.0560 10.5356 -2.6477 0.1490 0 7
-14.2239 10.3077 -2.6477 0.1490 0 7
-14.3882 10.0772 -2.6477 0.1490 0 7
-14.5487 9.8440 -2.6477 0.1490 0 7
-14.7054 9.6083 -2.6477 0.1490 0 7
-14.8584 9.3701 -2.6477 0.1490 0 7
-15.0074 9.1295 -2.6477 0.1490 0 7
-14.2804 8.3749 -2.4953 0.1490 0 8
-14.4135 8.1437 -2.4953 0.1490 0 8
-14.5428 7.9104 -2.4953 0.1490 0 8
-14.6684 7.6751 -2.4953 0.1490 0 8
-14.7902 7.4377 -2.4953 0.1490 0 8
-14.9081 7.1984 -2.4953 0.1490 0 8
-15.0222 6.9572 -2.4953 0.1490 0 8
-15.1323 6.7143 -2.4953 0.1490 0 8
-15.2386 6.4696 -2.4953 0.1490 0 8
-15.3408 6.2232 -2.4953 0.1490 0 8
-15.4391 5.9752 -2.4953 0.1490 0 8
-15.5334 5.7256 -2.4953 0.1490 0 8
-15.6236 5.4746 -2.4953 0.1490 0 8
-15.7098 5.2221 -2.4953 0.1490 0 8
-15.7919 4.9683 -2.4953 0.1490 0 8
-15.8699 4.7132 -2.4953 0.1490 0 8
-15.9438 4.4569 -2.4953 0.1490 0 8
-16.0136 4.1994 -2.4953 0.1490 0 8
-16.0792 3.9408 -2.4953 0.1490 0 8
-16.1406 3.6812 -2.4953 0.1490 0 8
-16.1978 3.4206 -2.4953 0.1490 0 8
-16.2508 3.1592 -2.4953 0.1490 0 8
-16.2996 2.8969 -2.4953 0.1490 0 8
-16.3442 2.6339 -2.4953 0.1490 0 8
-16.3845 2.3702 -2.4953 0.1490 0 8
-16.4206 2.1058 -2.4953 0.1490 0 8
-16.4524 1.8410 -2.4953 0.1490 0 8
-16.4799 1.5756 -2.4953 0.1490 0 8
-16.5031 1.3099 -2.4953 0.1490 0 8
-16.5221 1.0438 -2.4953 0.1490 0 8
-16.5368 0.7774 -2.4953 0.1490 0 8
-16.5472 0.5108 -2.4953 0.1490 0 8
-16.5532 0.2441 -2.4953 0.1490 0 8
-16.5550 -0.0226 -2.4953 0.1490 0 8
-16.5525 -0.2894 -2.4953 0.1490 0 8
-16.5457 -0.5561 -2.4953 0.1490 0 8
-16.5346 -0.8226 -2.4953 0.1490 0 8
-16.5192 -1.0890 -2.4953 0.1490 0 8
-16.4995 -1.3550 -2.4953 0.1490 0 8
-16.4755 -1.6207 -2.4953 0.1490 0 8
-16.4473 -1.8860 -2.4953 0.1490 0 8
-16.4147 -2.1507 -2.4953 0.1490 0 8
-16.3779 -2.4150 -2.4953 0.1490 0 8
-16.3369 -2.6786 -2.4953 0.1490 0 8
-16.2916 -2.9415 -2.4953 0.1490 0 8
-16.2421 -3.2036 -2.4953 0.1490 0 8
-16.1884 -3.4649 -2.4953 0.1490 0 8
-16.1304 -3.7253 -2.4953 0.1490 0 8
-16.0683 -3.9847 -2.4953 0.1490 0 8
-16.0020 -4.2431 -2.4953 0.1490 0 8
-15.9316 -4.5004 -2.4953 0.1490 0 8
-15.8570 -4.7566 -2.4953 0.1490 0 8
-15.7783 -5.0115 -2.4953 0.1490 0 8
-15.6955 -5.2651 -2.4953 0.1490 0 8
-15.6086 -5.5173 -2.4953 0.1490 0 8
-15.5177 -5.7681 -2.4953 0.1490 0 8
-15.4227 -6.0174 -2.4953 0.1490 0 8
-15.3238 -6.2651 -2.4953 0.1490 0 8
-15.2208 -6.5112 -2.4953 0.1490 0 8
-15.1139 -6.7556 -2.4953 0.1490 0 8
-15.0031 -6.9983 -2.4953 0.1490 0 8
-14.8884 -7.2392 -2.4953 0.1490 0 8
-14.7698 -7.4781 -2.4953 0.1490 0 8
-14.6474 -7.7151 -2.4953 0.1490 0 8
-14.5212 -7.9502 -2.4953 0.1490 0 8
-14.3912 -8.1831 -2.4953 0.1490 0 8
-14.2574 -8.4140 -2.4953 0.1490 0 8
-14.1200 -8.6426 -2.4953 0.1490 0 8
-13.9789 -8.8690 -2.4953 0.1490 0 8
-13.8342 -9.0931 -2.4953 0.1490 0 8
-13.6859 -9.3149 -2.4953 0.1490 0 8
-13.5340 -9.5342 -2.4953 0.1490 0 8
-13.3786 -9.7510 -2.4953 0.1490 0 8
-13.2197 -9.9654 -2.4953 0.1490 0 8
-13.0574 -10.1770 -2.4953 0.1490 0 8
-12.8918 -10.3861 -2.4953 0.1490 0 8
-12.7227 -10.5925 -2.4953 0.1490 0 8
-12.5504 -10.7962 -2.4953 0.1490 0 8
-12.3748 -10.9970 -2.4953 0.1490 0 8
-12.1960 -11.1950 -2.4953 0.1490 0 8
7.1143 15.0284 -2.6477 0.1573 0 7
6.8712 15.1411 -2.6477 0.1573 0 7
6.6263 15.2499 -2.6477 0.1573 0 7
6.3798 15.3547 -2.6477 0.1573 0 7
6.1315 15.4555 -2.6477 0.1573 0 7
5.8817 15.5523 -2.6477 0.1573 0 7
5.6303 15.6450 -2.6477 0.1573 0 7
5.3775 15.7337 -2.6477 0.1573 0 7
5.1232 15.8183 -2.6477 0.1573 0 7
4.8677 15.8988 -2.6477 0.1573 0 7
4.6109 15.9752 -2.6477 0.1573 0 7
4.3529 16.0474 -2.6477 0.1573 0 7
4.0937 16.1155 -2.6477 0.1573 0 7
3.8335 16.1793 -2.6477 0.1573 0 7
3.5723 16.2390 -2.6477 0.1573 0 7
3.3102 16.2945 -2.6477 0.1573 0 7
3.0472 16.3457 -2.6477 0.1573 0 7
2.7834 16.3927 -2.6477 0.1573 0 7
2.5189 16.4354 -2.6477 0.1573 0 7
2.2537 16.4738 -2.6477 0.1573 0 7
1.9880 16.5080 -2.6477 0.1573 0 7
1.7217 16.5379 -2.6477 0.1573 0 7
1.4550 16.5635 -2.6477 0.1573 0 7
1.1879 16.5848 -2.6477 0.1573 0 7
0.9205 16.6018 -2.6477 0.1573 0 7
0.6529 16.6145 -2.6477 0.1573 0 7
0.3851 16.6228 -2.6477 0.1573 0 7
0.1172 16.6269 -2.6477 0.1573 0 7
-0.1508 16.6266 -2.6477 0.1573 0 7
-0.4187 16.6220 -2.6477 0.1573 0 7
-0.6865 16.6131 -2.6477 0.1573 0 7
-0.9541 16.5999 -2.6477 0.1573 0 7
-1.2214 16.5824 -2.6477 0.1573 0 7
-1.4885 16.5605 -2.6477 0.1573 0 7
-1.7551 16.5344 -2.6477 0.1573 0 7
-2.0213 16.5040 -2.6477 0.1573 0 7
-2.2870 16.4693 -2.6477 0.1573 0 7
-2.5521 16.4303 -2.6477 0.1573 0 7
-2.8165 16.3870 -2.6477 0.1573 0 7
-3.0802 16.3395 -2.6477 0.1573 0 7
-3.3431 16.2877 -2.6477 0.1573 0 7
-3.6051 16.2318 -2.6477 0.1573 0 7
-3.8662 16.1716 -2.6477 0.1573 0 7
-4.1263 16.1072 -2.6477 0.1573 0 7
-4.3853 16.0386 -2.6477 0.1573 0 7
-4.6432 15.9658 -2.6477 0.1573 0 7
-4.8998 15.8889 -2.6477 0.1573 0 7
-5.1552 15.8079 -2.6477 0.1573 0 7
-5.4093 15.7228 -2.6477 0.1573 0 7
-5.6619 15.6336 -2.6477 0.1573 0 7
-5.9131 15.5403 -2.6477 0.1573 0 7
-6.1628 15.4430 -2.6477 0.1573 0 7
-6.4108 15.3417 -2.6477 0.1573 0 7
-6.6572 15.2364 -2.6477 0.1573 0 7
-6.9018 15.1272 -2.6477 0.1573 0 7
-7.1447 15.0140 -2.6477 0.1573 0 7
-7.3857 14.8969 -2.6477 0.1573 0 6
-7.6248 14.7760 -2.6477 0.1573 0 7
-7.8619 14.6512 -2.6477 0.1573 0 7
-8.0970 14.5226 -2.6477 0.1573 0 7
-8.3299 14.3903 -2.6477 0.1573 0 7
-8.5607 14.2542 -2.6477 0.1573 0 7
-8.7893 14.1144 -2.6477 0.1573 0 7
-9.0156 13.9709 -2.6477 0.1573 0 7
-9.2395 13.8238 -2.6477 0.1573 0 7
-9.4611 13.6731 -2.6477 0.1573 0 7
-9.6802 13.5189 -2.6477 0.1573 0 7
-9.8968 13.3612 -2.6477 0.1573 0 7
-10.1108 13.2000 -2.6477 0.1573 0 7
-10.3222 13.0353 -2.6477 0.1573 0 7
-10.5309 12.8673 -2.6477 0.1573 0 7
-10.7368 12.6959 -2.6477 0.1573 0 7
-10.9400 12.5213 -2.6477 0.1573 0 7
-11.1404 12.3434 -2.6477 0.1573 0 7
-11.3378 12.1623 -2.6477 0.1573 0 7
-11.5323 11.9780 -2.6477 0.1573 0 7
-11.7238 11.7906 -2.6477 0.1573 0 7
-11.9123 11.6002 -2.6477 0.1573 0 7
-12.0977 11.4067 -2.6477 0.1573 0 6
-12.2799 11.2103 -2.6477 0.1573 0 7
-12.4590 11.0110 -2.6477 0.1573 0 7
-12.6348 10.8088 -2.6477 0.1573 0 7
-12.8073 10.6038 -2.6477 0.1573 0 7
-12.9765 10.3960 -2.6477 0.1573 0 7
-13.1423 10.1856 -2.6477 0.1573 0 7
-13.3048 9.9725 -2.6477 0.1573 0 7
-13.4637 9.7568 -2.6477 0.1573 0 7
-13.6192 9.5386 -2.6477 0.1573 0 7
-13.7711 9.3179 -2.6477 0.1573 0 7
-13.9195 9.0948 -2.6477 0.1573 0 7
-13.2547 8.3588 -2.4953 0.1573 0 8
-13.3877 8.1441 -2.4953 0.1573 0 8
-13.5171 7.9273 -2.4953 0.1573 0 8
-13.6431 7.7085 -2.4953 0.1573 0 8
-13.7656 7.4876 -2.4953 0.1573 0 8
-13.8844 7.2649 -2.4953 0.1573 0 8
-13.9997 7.0402 -2.4953 0.1573 0 8
-14.1113 6.8137 -2.4953 0.1573 0 8
-14.2193 6.5854 -2.4953 0.1573 0 8
-14.3236 6.3554 -2.4953 0.1573 0 8
-14.4241 6.1238 -2.4953 0.1573 0 8
-14.5209 5.8906 -2.4953 0.1573 0 8
-14.6139 5.6558 -2.4953 0.1573 0 8
-14.7032 5.4196 -2.4953 0.1573 0 8
-14.7886 5.1820 -2.4953 0.1573 0 8
-14.8702 4.9430 -2.4953 0.1573 0 8
-14.9479 4.7028 -2.4953 0.1573 0 8
-15.0217 4.4613 -2.4953 0.1573 0 8
-15.0917 4.2187 -2.4953 0.1573 0 8
-15.1577 3.9749 -2.4953 0.1573 0 8
-15.2198 3.7302 -2.4953 0.1573 0 8
-15.2779 3.4844 -2.4953 0.1573 0 8
-15.3321 3.2378 -2.4953 0.1573 0 8
-15.3823 2.9903 -2.4953 0.1573 0 8
-15.4284 2.7421 -2.4953 0.1573 0 8
-15.4706 2.4931 -2.4953 0.1573 0 8
-15.5088 2.2435 -2.4953 0.1573 0 8
-15.5429 1.9933 -2.4953 0.1573 0 8
-15.5730 1.7426 -2.4953 0.1573 0 8
-15.5991 1.4914 -2.4953 0.1573 0 8
-15.6211 1.2399 -2.4953 0.1573 0 8
-15.6390 0.9880 -2.4953 0.1573 0 8
-15.6529 0.7359 -2.4953 0.1573 0 8
-15.6628 0.4835 -2.4953 0.1573 0 8
-15.6685 0.2311 -2.4953 0.1573 0 8
-15.6702 -0.0214 -2.4953 0.1573 0 8
-15.6678 -0.2739 -2.4953 0.1573 0 8
-15.6614 -0.5264 -2.4953 0.1573 0 8
-15.6509 -0.7787 -2.4953 0.1573 0 8
-15.6363 -1.0308 -2.4953 0.1573 0 8
-15.6176 -1.2826 -2.4953 0.1573 0 8
-15.5950 -1.5341 -2.4953 0.1573 0 8
-15.5682 -1.7852 -2.4953 0.1573 0 8
-15.5374 -2.0358 -2.4953 0.1573 0 8
-15.5026 -2.2859 -2.4953 0.1573 0 8
-15.4638 -2.5354 -2.4953 0.1573 0 8
-15.4209 -2.7843 -2.4953 0.1573 0 8
-15.3740 -3.0324 -2.4953 0.1573 0 8
-15.3232 -3.2797 -2.4953 0.1573 0 8
-15.2683 -3.5262 -2.4953 0.1573 0 8
-15.2095 -3.7718 -2.4953 0.1573 0 8
-15.1468 -4.0164 -2.4953 0.1573 0 8
-15.0801 -4.2599 -2.4953 0.1573 0 8
-15.0095 -4.5024 -2.4953 0.1573 0 8
-14.9350 -4.7436 -2.4953 0.1573 0 8
-14.8566 -4.9837 -2.4953 0.1573 0 8
-14.7744 -5.2224 -2.4953 0.1573 0 8
-14.6883 -5.4598 -2.4953 0.1573 0 8
-14.5984 -5.6958 -2.4953 0.1573 0 8
-14.5048 -5.9303 -2.4953 0.1573 0 8
-14.4073 -6.1632 -2.4953 0.1573 0 8
-14.3061 -6.3946 -2.4953 0.1573 0 8
-14.2012 -6.6243 -2.4953 0.1573 0 8
-14.0926 -6.8523 -2.4953 0.1573 0 8
-13.9804 -7.0784 -2.4953 0.1573 0 8
-13.8645 -7.3028 -2.4953 0.1573 0 8
-13.7451 -7.5253 -2.4953 0.1573 0 8
-13.6220 -7.7458 -2.4953 0.1573 0 8
-13.4954 -7.9643 -2.4953 0.1573 0 8
-13.3653 -8.1807 -2.4953 0.1573 0 8
-13.2318 -8.3950 -2.4953 0.1573 0 8
-13.0948 -8.6071 -2.4953 0.1573 0 8
-12.9544 -8.8170 -2.4953 0.1573 0 8
-12.8106 -9.0246 -2.4953 0.1573 0 8
-12.6636 -9.2299 -2.4953 0.1573 0 8
-12.5132 -9.4327 -2.4953 0.1573 0 8
-12.3596 -9.6331 -2.4953 0.1573 0 8
-12.2027 -9.8310 -2.4953 0.1573 0 8
-12.0427 -10.0264 -2.4953 0.1573 0 8
-11.8796 -10.2191 -2.4953 0.1573 0 8
-11.7134 -10.4092 -2.4953 0.1573 0 8
-11.5441 -10.5966 -2.4953 0.1573 0 8
6.7524 14.2640 -2.6477 0.1655 0 7
6.5217 14.3710 -2.6477 0.1655 0 7
6.2893 14.4742 -2.6477 0.1655 0 7
6.0553 14.5737 -2.6477 0.1655 0 7
5.8196 14.6694 -2.6477 0.1655 0 7
5.5825 14.7612 -2.6477 0.1655 0 7
5.3439 14.8493 -2.6477 0.1655 0 7
5.1040 14.9334 -2.6477 0.1655 0 7
4.8627 15.0137 -2.6477 0.1655 0 7
4.6201 15.0901 -2.6477 0.1655 0 7
4.3763 15.1626 -2.6477 0.1655 0 7
4.1315 15.2312 -2.6477 0.1655 0 7
3.8855 15.2958 -2.6477 0.1655 0 7
3.6385 15.3564 -2.6477 0.1655 0 7
3.3906 15.4130 -2.6477 0.1655 0 7
3.1418 15.4657 -2.6477 0.1655 0 7
2.8922 15.5143 -2.6477 0.1655 0 7
2.6418 15.5589 -2.6477 0.1655 0 7
2.3907 15.5994 -2.6477 0.1655 0 7
2.1391 15.6359 -2.6477 0.1655 0 7
1.8868 15.6684 -2.6477 0.1655 0 7
1.6341 15.6967 -2.6477 0.1655 0 7
1.3810 15.7210 -2.6477 0.1655 0 7
1.1275 15.7412 -2.6477 0.1655 0 7
0.8737 15.7574 -2.6477 0.1655 0 7
0.6197 15.7694 -2.6477 0.1655 0 7
0.3655 15.7773 -2.6477 0.1655 0 7
0.1112 15.7812 -2.6477 0.1655 0 7
-0.1431 15.7809 -2.6477 0.1655 0 7
-0.3974 15.7766 -2.6477 0.1655 0 7
-0.6516 15.7681 -2.6477 0.1655 0 7
-0.9055 15.7556 -2.6477 0.1655 0 7
-1.1593 15.7389 -2.6477 0.1655 0 7
-1.4128 15.7182 -2.6477 0.1655 0 7
-1.6659 15.6934 -2.6477 0.1655 0 7
-1.9185 15.6645 -2.6477 0.1655 0 7
-2.1707 15.6316 -2.6477 0.1655 0 7
-2.4223 15.5946 -2.6477 0.1655 0 7
-2.6733 15.5535 -2.6477 0.1655 0 7
-2.9236 15.5084 -2.6477 0.1655 0 7
-3.1731 15.4593 -2.6477 0.1655 0 7
-3.4218 15.4062 -2.6477 0.1655 0 7
-3.6696 15.3490 -2.6477 0.1655 0 7
-3.9164 15.2879 -2.6477 0.1655 0 7
-4.1623 15.2228 -2.6477 0.1655 0 7
-4.4070 15.1537 -2.6477 0.1655 0 7
-4.6506 15.0808 -2.6477 0.1655 0 7
-4.8930 15.0039 -2.6477 0.1655 0 7
-5.1342 14.9231 -2.6477 0.1655 0 7
-5.3740 14.8384 -2.6477 0.1655 0 7
-5.6123 14.7499 -2.6477 0.1655 0 7
-5.8493 14.6575 -2.6477 0.1655 0 7
-6.0847 14.5614 -2.6477 0.1655 0 7
-6.3186 14.4615 -2.6477 0.1655 0 7
-6.5508 14.3578 -2.6477 0.1655 0 7
-6.7813 14.2503 -2.6477 0.1655 0 7
-7.0100 14.1392 -2.6477 0.1655 0 7
-7.2370 14.0244 -2.6477 0.1655 0 7
-7.4620 13.9060 -2.6477 0.1655 0 7
-7.6851 13.7839 -2.6477 0.1655 0 7
-7.9062 13.6583 -2.6477 0.1655 0 7
-8.1253 13.5291 -2.6477 0.1655 0 7
-8.3422 13.3965 -2.6477 0.1655 0 7
-8.5570 13.2603 -2.6477 0.1655 0 7
-8.7696 13.1207 -2.6477 0.1655 0 7
-8.9799 12.9777 -2.6477 0.1655 0 7
-9.1878 12.8313 -2.6477 0.1655 0 7
-9.3934 12.6816 -2.6477 0.1655 0 7
-9.5965 12.5286 -2.6477 0.1655 0 7
-9.7971 12.3723 -2.6477 0.1655 0 7
-9.9952 12.2128 -2.6477 0.1655 0 7
-10.1907 12.0502 -2.6477 0.1655 0 7
-10.3836 11.8844 -2.6477 0.1655 0 7
-10.5737 11.7155 -2.6477 0.1655 0 7
-10.7611 11.5437 -2.6477 0.1655 0 7
-10.9457 11.3688 -2.6477 0.1655 0 6
-11.1275 11.1909 -2.6477 0.1655 0 7
-11.3064 11.0101 -2.6477 0.1655 0 7
-11.4824 10.8265 -2.6477 0.1655 0 7
-11.6553 10.6401 -2.6477 0.1655 0 7
-11.8253 10.4509 -2.6477 0.1655 0 7
-11.9921 10.2590 -2.6477 0.1655 0 7
-12.1559 10.0644 -2.6477 0.1655 0 7
-12.3165 9.8672 -2.6477 0.1655 0 7
-12.4739 9.6675 -2.6477 0.1655 0 7
-12.6280 9.4652 -2.6477 0.1655 0 7
-12.7789 9.2605 -2.6477 0.1655 0 7
-12.9265 9.0534 -2.6477 0.1655 0 7
-12.3183 8.3349 -2.4953 0.1655 0 8
-12.4510 8.1353 -2.4953 0.1655 0 8
-12.5805 7.9336 -2.4953 0.1655 0 8
-12.7067 7.7299 -2.4953 0.1655 0 8
-12.8296 7.5241 -2.4953 0.1655 0 8
-12.9492 7.3164 -2.4953 0.1655 0 8
-13.0654 7.1068 -2.4953 0.1655 0 8
-13.1782 6.8953 -2.4953 0.1655 0 8
-13.2876 6.6821 -2.4953 0.1655 0 8
-13.3936 6.4671 -2.4953 0.1655 0 8
-13.4961 6.2505 -2.4953 0.1655 0 8
-13.5950 6.0322 -2.4953 0.1655 0 8
-13.6904 5.8123 -2.4953 0.1655 0 8
-13.7823 5.5910 -2.4953 0.1655 0 8
-13.8706 5.3682 -2.4953 0.1655 0 8
-13.9553 5.1440 -2.4953 0.1655 0 8
-14.0364 4.9184 -2.4953 0.1655 0 8
-14.1138 4.6916 -2.4953 0.1655 0 8
-14.1876 4.4636 -2.4953 0.1655 0 8
-14.2577 4.2344 -2.4953 0.1655 0 8
-14.3241 4.0041 -2.4953 0.1655 0 8
-14.3867 3.7728 -2.4953 0.1655 0 8
-14.4456 3.5404 -2.4953 0.1655 0 8
-14.5008 3.3072 -2.4953 0.1655 0 8
-14.5522 3.0731 -2.4953 0.1655 0 8
-14.5999 2.8382 -2.4953 0.1655 0 8
-14.6437 2.6026 -2.4953 0.1655 0 8
-14.6837 2.3663 -2.4953 0.1655 0 8
-14.7200 2.1294 -2.4953 0.1655 0 8
-14.7524 1.8919 -2.4953 0.1655 0 8
-14.7809 1.6539 -2.4953 0.1655 0 8
-14.8057 1.4155 -2.4953 0.1655 0 8
-14.8266 1.1768 -2.4953 0.1655 0 8
-14.8436 0.9377 -2.4953 0.1655 0 8
-14.8568 0.6984 -2.4953 0.1655 0 8
-14.8661 0.4589 -2.4953 0.1655 0 8
-14.8716 0.2193 -2.4953 0.1655 0 8
-14.8732 -0.0203 -2.4953 0.1655 0 8
-14.8709 -0.2600 -2.4953 0.1655 0 8
-14.8648 -0.4996 -2.4953 0.1655 0 8
-14.8548 -0.7391 -2.4953 0.1655 0 8
-14.8410 -0.9783 -2.4953 0.1655 0 8
-14.8233 -1.2173 -2.4953 0.1655 0 8
-14.8017 -1.4560 -2.4953 0.1655 0 8
-14.7764 -1.6944 -2.4953 0.1655 0 8
-14.7471 -1.9322 -2.4953 0.1655 0 8
-14.7141 -2.1696 -2.4953 0.1655 0 8
-14.6772 -2.4064 -2.4953 0.1655 0 8
-14.6365 -2.6426 -2.4953 0.1655 0 8
-14.5921 -2.8781 -2.4953 0.1655 0 8
-14.5438 -3.1129 -2.4953 0.1655 0 8
-14.4917 -3.3468 -2.4953 0.1655 0 8
-14.4359 -3.5799 -2.4953 0.1655 0 8
-14.3764 -3.8121 -2.4953 0.1655 0 8
-14.3131 -4.0432 -2.4953 0.1655 0 8
-14.2461 -4.2734 -2.4953 0.1655 0 8
-14.1753 -4.5024 -2.4953 0.1655 0 8
-14.1010 -4.7302 -2.4953 0.1655 0 8
-14.0229 -4.9568 -2.4953 0.1655 0 8
-13.9412 -5.1821 -2.4953 0.1655 0 8
-13.8559 -5.4061 -2.4953 0.1655 0 8
-13.7670 -5.6286 -2.4953 0.1655 0 8
-13.6745 -5.8497 -2.4953 0.1655 0 8
-13.5785 -6.0693 -2.4953 0.1655 0 8
-13.4789 -6.2873 -2.4953 0.1655 0 8
-13.3758 -6.5037 -2.4953 0.1655 0 8
-13.2693 -6.7184 -2.4953 0.1655 0 8
-13.1593 -6.9314 -2.4953 0.1655 0 8
-13.0459 -7.1425 -2.4953 0.1655 0 8
-12.9291 -7.3518 -2.4953 0.1655 0 8
-12.8090 -7.5592 -2.4953 0.1655 0 8
-12.6855 -7.7646 -2.4953 0.1655 0 8
-12.5588 -7.9680 -2.4953 0.1655 0 8
-12.4287 -8.1693 -2.4953 0.1655 0 8
-12.2955 -8.3685 -2.4953 0.1655 0 8
-12.1590 -8.5656 -2.4953 0.1655 0 8
-12.0194 -8.7604 -2.4953 0.1655 0 8
-11.8767 -8.9529 -2.4953 0.1655 0 8
-11.7309 -9.1431 -2.4953 0.1655 0 8
-11.5821 -9.3310 -2.4953 0.1655 0 8
-11.4302 -9.5164 -2.4953 0.1655 0 8
-11.2754 -9.6994 -2.4953 0.1655 0 8
-11.1176 -9.8798 -2.4953 0.1655 0 8
-10.9570 -10.0577 -2.4953 0.1655 0 8
6.4247 13.5718 -2.6477 0.1736 0 7
6.2052 13.6736 -2.6477 0.1736 0 7
5.9841 13.7718 -2.6477 0.1736 0 7
5.7614 13.8664 -2.6477 0.1736 0 7
5.5372 13.9574 -2.6477 0.1736 0 7
5.3116 14.0449 -2.6477 0.1736 0 7
5.0846 14.1286 -2.6477 0.1736 0 7
4.8563 14.2087 -2.6477 0.1736 0 7
4.6267 14.2851 -2.6477 0.1736 0 7
4.3959 14.3578 -2.6477 0.1736 0 7
4.1640 14.4268 -2.6477 0.1736 0 7
3.9310 14.4920 -2.6477 0.1736 0 7
3.6969 14.5535 -2.6477 0.1736 0 7
3.4619 14.6112 -2.6477 0.1736 0 7
3.2260 14.6650 -2.6477 0.1736 0 7
2.9893 14.7151 -2.6477 0.1736 0 7
2.7518 14.7614 -2.6477 0.1736 0 7
2.5136 14.8038 -2.6477 0.1736 0 7
2.2747 14.8424 -2.6477 0.1736 0 7
2.0353 14.8771 -2.6477 0.1736 0 7
1.7953 14.9080 -2.6477 0.1736 0 7
1.5548 14.9350 -2.6477 0.1736 0 7
1.3140 14.9581 -2.6477 0.1736 0 7
1.0728 14.9773 -2.6477 0.1736 0 7
0.8313 14.9927 -2.6477 0.1736 0 7
0.5896 15.0041 -2.6477 0.1736 0 7
0.3477 15.0117 -2.6477 0.1736 0 7
0.1058 15.0153 -2.6477 0.1736 0 7
-0.1362 15.0151 -2.6477 0.1736 0 7
-0.3781 15.0109 -2.6477 0.1736 0 7
-0.6199 15.0029 -2.6477 0.1736 0 7
-0.8616 14.9910 -2.6477 0.1736 0 6
-1.1031 14.9751 -2.6477 0.1736 0 6
-1.3442 14.9554 -2.6477 0.1736 0 6
-1.5850 14.9318 -2.6477 0.1736 0 6
-1.8254 14.9043 -2.6477 0.1736 0 7
-2.0654 14.8730 -2.6477 0.1736 0 7
-2.3047 14.8378 -2.6477 0.1736 0 7
-2.5435 14.7987 -2.6477 0.1736 0 7
-2.7817 14.7558 -2.6477 0.1736 0 7
-3.0191 14.7091 -2.6477 0.1736 0 7
-3.2557 14.6585 -2.6477 0.1736 0 7
-3.4915 14.6041 -2.6477 0.1736 0 7
-3.7264 14.5460 -2.6477 0.1736 0 7
-3.9603 14.4840 -2.6477 0.1736 0 7
-4.1931 14.4183 -2.6477 0.1736 0 7
-4.4249 14.3489 -2.6477 0.1736 0 7
-4.6556 14.2757 -2.6477 0.1736 0 7
-4.8850 14.1989 -2.6477 0.1736 0 7
-5.1132 14.1183 -2.6477 0.1736 0 7
-5.3400 14.0341 -2.6477 0.1736 0 7
-5.5654 13.9462 -2.6477 0.1736 0 7
-5.7894 13.8547 -2.6477 0.1736 0 7
-6.0119 13.7596 -2.6477 0.1736 0 7
-6.2329 13.6610 -2.6477 0.1736 0 7
-6.4522 13.5588 -2.6477 0.1736 0 7
-6.6698 13.4530 -2.6477 0.1736 0 7
-6.8857 13.3438 -2.6477 0.1736 0 7
-7.0999 13.2311 -2.6477 0.1736 0 7
-7.3122 13.1150 -2.6477 0.1736 0 7
-7.5225 12.9955 -2.6477 0.1736 0 7
-7.7310 12.8726 -2.6477 0.1736 0 7
-7.9374 12.7463 -2.6477 0.1736 0 7
-8.1417 12.6168 -2.6477 0.1736 0 7
-8.3440 12.4839 -2.6477 0.1736 0 7
-8.5441 12.3479 -2.6477 0.1736 0 7
-8.7419 12.2086 -2.6477 0.1736 0 7
-8.9375 12.0661 -2.6477 0.1736 0 7
-9.1308 11.9206 -2.6477 0.1736 0 7
-9.3217 11.7719 -2.6477 0.1736 0 7
-9.5102 11.6202 -2.6477 0.1736 0 7
-9.6962 11.4654 -2.6477 0.1736 0 6
-9.8797 11.3077 -2.6477 0.1736 0 7
-10.0606 11.1470 -2.6477 0.1736 0 7
-10.2389 10.9834 -2.6477 0.1736 0 7
-10.4146 10.8170 -2.6477 0.1736 0 7
-10.5875 10.6478 -2.6477 0.1736 0 7
-10.7577 10.4758 -2.6477 0.1736 0 7
-10.9251 10.3011 -2.6477 0.1736 0 7
-11.0897 10.1237 -2.6477 0.1736 0 7
-11.2514 9.9437 -2.6477 0.1736 0 7
-11.4101 9.7611 -2.6477 0.1736 0 7
-11.5660 9.5760 -2.6477 0.1736 0 7
-11.7188 9.3884 -2.6477 0.1736 0 7
-11.8685 9.1983 -2.6477 0.1736 0 7
-12.0152 9.0059 -2.6477 0.1736 0 7
-11.4589 8.3039 -2.4953 0.1736 0 8
-11.5912 8.1182 -2.4953 0.1736 0 8
-11.7205 7.9304 -2.4953 0.1736 0 8
-11.8468 7.7405 -2.4953 0.1736 0 8
-11.9700 7.5486 -2.4953 0.1736 0 8
-12.0900 7.3547 -2.4953 0.1736 0 8
-12.2070 7.1590 -2.4953 0.1736 0 8
-12.3208 6.9613 -2.4953 0.1736 0 8
-12.4313 6.7619 -2.4953 0.1736 0 8
-12.5387 6.5607 -2.4953 0.1736 0 8
-12.6428 6.3578 -2.4953 0.1736 0 8
-12.7436 6.1533 -2.4953 0.1736 0 8
-12.8411 5.9471 -2.4953 0.1736 0 8
-12.9353 5.7394 -2.4953 0.1736 0 8
-13.0261 5.5303 -2.4953 0.1736 0 8
-13.1135 5.3196 -2.4953 0.1736 0 8
-13.1975 5.1076 -2.4953 0.1736 0 8
-13.2781 4.8943 -2.4953 0.1736 0 8
-13.3552 4.6797 -2.4953 0.1736 0 8
-13.4289 4.4639 -2.4953 0.1736 0 8
-13.4991 4.2470 -2.4953 0.1736 0 8
-13.5658 4.0289 -2.4953 0.1736 0 8
-13.6289 3.8098 -2.4953 0.1736 0 8
-13.6885 3.5897 -2.4953 0.1736 0 8
-13.7446 3.3686 -2.4953 0.1736 0 8
-13.7971 3.1467 -2.4953 0.1736 0 8
-13.8460 2.9240 -2.4953 0.1736 0 8
-13.8913 2.7005 -2.4953 0.1736 0 8
-13.9330 2.4763 -2.4953 0.1736 0 8
-13.9711 2.2515 -2.4953 0.1736 0 8
-14.0056 2.0260 -2.4953 0.1736 0 8
-14.0364 1.8001 -2.4953 0.1736 0 8
-14.0636 1.5737 -2.4953 0.1736 0 8
-14.0872 1.3469 -2.4953 0.1736 0 8
-14.1070 1.1197 -2.4953 0.1736 0 8
-14.1232 0.8922 -2.4953 0.1736 0 8
-14.1358 0.6645 -2.4953 0.1736 0 8
-14.1446 0.4367 -2.4953 0.1736 0 8
-14.1499 0.2087 -2.4953 0.1736 0 8
-14.1514 -0.0194 -2.4953 0.1736 0 8
-14.1492 -0.2474 -2.4953 0.1736 0 8
-14.1434 -0.4754 -2.4953 0.1736 0 8
-14.1339 -0.7032 -2.4953 0.1736 0 8
-14.1207 -0.9308 -2.4953 0.1736 0 8
-14.1039 -1.1583 -2.4953 0.1736 0 8
-14.0834 -1.3854 -2.4953 0.1736 0 8
-14.0593 -1.6121 -2.4953 0.1736 0 8
-14.0315 -1.8385 -2.4953 0.1736 0 8
-14.0000 -2.0643 -2.4953 0.1736 0 8
-13.9649 -2.2897 -2.4953 0.1736 0 8
-13.9262 -2.5144 -2.4953 0.1736 0 8
-13.8839 -2.7385 -2.4953 0.1736 0 8
-13.8380 -2.9618 -2.4953 0.1736 0 8
-13.7884 -3.1844 -2.4953 0.1736 0 8
-13.7353 -3.4062 -2.4953 0.1736 0 8
-13.6787 -3.6271 -2.4953 0.1736 0 8
-13.6185 -3.8470 -2.4953 0.1736 0 8
-13.5547 -4.0660 -2.4953 0.1736 0 8
-13.4874 -4.2839 -2.4953 0.1736 0 8
-13.4166 -4.5006 -2.4953 0.1736 0 8
-13.3424 -4.7162 -2.4953 0.1736 0 8
-13.2646 -4.9306 -2.4953 0.1736 0 8
-13.1835 -5.1437 -2.4953 0.1736 0 8
-13.0989 -5.3555 -2.4953 0.1736 0 8
-13.0109 -5.5659 -2.4953 0.1736 0 8
-12.9195 -5.7748 -2.4953 0.1736 0 8
-12.8248 -5.9822 -2.4953 0.1736 0 8
-12.7267 -6.1881 -2.4953 0.1736 0 8
-12.6253 -6.3924 -2.4953 0.1736 0 8
-12.5207 -6.5950 -2.4953 0.1736 0 8
-12.4128 -6.7959 -2.4953 0.1736 0 8
-12.3017 -6.9950 -2.4953 0.1736 0 8
-12.1874 -7.1923 -2.4953 0.1736 0 8
-12.0699 -7.3878 -2.4953 0.1736 0 8
-11.9493 -7.5813 -2.4953 0.1736 0 8
-11.8256 -7.7729 -2.4953 0.1736 0 8
-11.6988 -7.9624 -2.4953 0.1736 0 8
-11.5690 -8.1499 -2.4953 0.1736 0 8
-11.4361 -8.3353 -2.4953 0.1736 0 8
-11.3003 -8.5184 -2.4953 0.1736 0 8
-11.1616 -8.6994 -2.4953 0.1736 0 8
-11.0200 -8.8782 -2.4953 0.1736 0 8
-10.8755 -9.0546 -2.4953 0.1736 0 8
-10.7282 -9.2286 -2.4953 0.1736 0 8
-10.5781 -9.4003 -2.4953 0.1736 0 8
-10.4252 -9.5696 -2.4953 0.1736 0 8
6.1266 12.9419 -2.6477 0.1818 0 7
5.9172 13.0389 -2.6477 0.1818 0 7
5.7063 13.1326 -2.6477 0.1818 0 7
5.4940 13.2228 -2.6477 0.1818 0 7
5.2802 13.3096 -2.6477 0.1818 0 7
5.0651 13.3930 -2.6477 0.1818 0 7
4.8486 13.4729 -2.6477 0.1818 0 7
4.6309 13.5492 -2.6477 0.1818 0 7
4.4119 13.6221 -2.6477 0.1818 0 7
4.1919 13.6914 -2.6477 0.1818 0 7
3.9707 13.7572 -2.6477 0.1818 0 7
3.7485 13.8194 -2.6477 0.1818 0 7
3.5253 13.8780 -2.6477 0.1818 0 7
3.3013 13.9330 -2.6477 0.1818 0 7
3.0763 13.9844 -2.6477 0.1818 0 7
2.8506 14.0322 -2.6477 0.1818 0 7
2.6241 14.0763 -2.6477 0.1818 0 7
2.3969 14.1167 -2.6477 0.1818 0 7
2.1691 14.1535 -2.6477 0.1818 0 7
1.9408 14.1866 -2.6477 0.1818 0 7
1.7120 14.2161 -2.6477 0.1818 0 7
1.4827 14.2418 -2.6477 0.1818 0 7
1.2530 14.2638 -2.6477 0.1818 0 7
1.0230 14.2822 -2.6477 0.1818 0 7
0.7927 14.2968 -2.6477 0.1818 0 7
0.5622 14.3077 -2.6477 0.1818 0 7
0.3316 14.3149 -2.6477 0.1818 0 7
0.1009 14.3184 -2.6477 0.1818 0 7
-0.1298 14.3182 -2.6477 0.1818 0 7
-0.3605 14.3142 -2.6477 0.1818 0 7
-0.5912 14.3066 -2.6477 0.1818 0 7
-0.8216 14.2952 -2.6477 0.1818 0 7
-1.0519 14.2801 -2.6477 0.1818 0 7
-1.2818 14.2613 -2.6477 0.1818 0 7
-1.5115 14.2388 -2.6477 0.1818 0 7
-1.7407 14.2126 -2.6477 0.1818 0 7
-1.9695 14.1827 -2.6477 0.1818 0 7
-2.1978 14.1491 -2.6477 0.1818 0 7
-2.4255 14.1118 -2.6477 0.1818 0 7
-2.6526 14.0709 -2.6477 0.1818 0 7
-2.8789 14.0264 -2.6477 0.1818 0 7
-3.1046 13.9781 -2.6477 0.1818 0 7
-3.3294 13.9263 -2.6477 0.1818 0 7
-3.5534 13.8708 -2.6477 0.1818 0 7
-3.7765 13.8118 -2.6477 0.1818 0 7
-3.9985 13.7491 -2.6477 0.1818 0 7
-4.2195 13.6829 -2.6477 0.1818 0 7
-4.4395 13.6132 -2.6477 0.1818 0 7
-4.6583 13.5399 -2.6477 0.1818 0 7
-4.8758 13.4630 -2.6477 0.1818 0 7
-5.0921 13.3827 -2.6477 0.1818 0 7
-5.3071 13.2989 -2.6477 0.1818 0 7
-5.5207 13.2117 -2.6477 0.1818 0 7
-5.7329 13.1210 -2.6477 0.1818 0 7
-5.9436 13.0269 -2.6477 0.1818 0 7
-6.1527 12.9295 -2.6477 0.1818 0 7
-6.3603 12.8286 -2.6477 0.1818 0 7
-6.5662 12.7245 -2.6477 0.1818 0 7
-6.7703 12.6170 -2.6477 0.1818 0 7
-6.9728 12.5063 -2.6477 0.1818 0 7
-7.1734 12.3923 -2.6477 0.1818 0 7
-7.3721 12.2751 -2.6477 0.1818 0 7
-7.5690 12.1547 -2.6477 0.1818 0 7
-7.7639 12.0312 -2.6477 0.1818 0 7
-7.9567 11.9045 -2.6477 0.1818 0 7
-8.1475 11.7748 -2.6477 0.1818 0 7
-8.3362 11.6419 -2.6477 0.1818 0 7
-8.5227 11.5061 -2.6477 0.1818 0 7
-8.7070 11.3673 -2.6477 0.1818 0 6
-8.8890 11.2255 -2.6477 0.1818 0 7
-9.0688 11.0808 -2.6477 0.1818 0 7
-9.2461 10.9332 -2.6477 0.1818 0 7
