ply
format ascii 1.0
element vertex 1378
property float32 x
property float32 y
property float32 z
property float32 CosAngle
property uint32 ObjIdx
property uint32 ObjTag
end_header
11.5492 74.4876 -2.5068 0.9770 0 8
10.3286 74.4887 -2.5009 0.7233 0 8
9.1142 74.4922 -2.4958 0.7248 0 8
7.9165 74.6120 -2.4953 0.0332 0 8
6.7188 74.7294 -2.4953 0.0332 0 8
5.5195 74.8275 -2.4953 0.0332 0 8
4.3187 74.9064 -2.4953 0.0332 0 8
3.1168 74.9660 -2.4953 0.0332 0 8
1.9140 75.0064 -2.4953 0.0332 0 8
0.7108 75.0274 -2.4953 0.0332 0 8
-0.4926 75.0292 -2.4953 0.0332 0 8
-1.6958 75.0116 -2.4953 0.0332 0 8
-2.8986 74.9748 -2.4953 0.0332 0 8
-4.1007 74.9186 -2.4953 0.0332 0 8
-5.3018 74.8432 -2.4953 0.0332 0 8
-6.5014 74.7486 -2.4953 0.0332 0 8
-7.6994 74.6347 -2.4953 0.0332 0 8
62.9634 9.5100 -2.6477 0.0415 0 7
62.8028 10.5186 -2.6477 0.0415 0 7
62.6260 11.5245 -2.6477 0.0415 0 7
62.4331 12.5274 -2.6477 0.0415 0 7
62.2242 13.5271 -2.6477 0.0415 0 7
61.9992 14.5234 -2.6477 0.0415 0 7
61.7583 15.5158 -2.6477 0.0415 0 7
61.5015 16.5043 -2.6477 0.0415 0 7
61.2289 17.4886 -2.6477 0.0415 0 7
60.9406 18.4683 -2.6477 0.0415 0 7
59.5909 19.1080 -2.6020 0.3049 0 8
57.0186 19.2971 -2.5029 0.0415 0 14
56.7018 20.2090 -2.5029 0.0415 0 14
56.3704 21.1158 -2.5029 0.0415 0 14
56.0245 22.0172 -2.5029 0.0415 0 14
58.8841 24.2383 -2.6477 0.0415 0 7
58.4878 25.1796 -2.6477 0.0415 0 7
58.0764 26.1143 -2.6477 0.0415 0 7
57.6501 27.0424 -2.6477 0.0415 0 7
57.2090 27.9635 -2.6477 0.0415 0 7
56.7532 28.8775 -2.6477 0.0415 0 7
56.2827 29.7840 -2.6477 0.0415 0 7
55.7978 30.6828 -2.6477 0.0415 0 7
55.2985 31.5738 -2.6477 0.0415 0 7
54.7850 32.4566 -2.6477 0.0415 0 7
54.1657 33.2747 -2.6432 0.0543 0 8
53.1986 33.8676 -2.6222 0.8570 0 8
52.2166 34.4317 -2.6007 0.9020 0 8
51.3770 35.0731 -2.5865 0.9626 0 8
50.6492 35.7805 -2.5784 0.9796 0 8
50.0356 36.5639 -2.5767 0.9895 0 8
49.5105 37.4129 -2.5803 0.9709 0 8
49.0933 38.3498 -2.5902 0.9504 0 8
48.7844 39.3846 -2.6070 0.8951 0 8
48.6069 40.5460 -2.6319 0.8175 0 8
48.2137 41.5473 -2.6463 0.0542 0 8
47.5652 42.3366 -2.6477 0.0415 0 7
46.8800 43.0940 -2.6477 0.0415 0 7
46.1829 43.8403 -2.6477 0.0415 0 7
45.4739 44.5753 -2.6477 0.0415 0 7
44.7530 45.2989 -2.6477 0.0415 0 7
44.0208 46.0109 -2.6477 0.0415 0 7
43.2772 46.7109 -2.6477 0.0415 0 7
42.5225 47.3990 -2.6477 0.0415 0 7
41.7568 48.0749 -2.6477 0.0415 0 7
40.9804 48.7384 -2.6477 0.0415 0 7
40.1935 49.3894 -2.6477 0.0415 0 7
39.3962 50.0277 -2.6477 0.0415 0 7
38.5888 50.6531 -2.6477 0.0415 0 7
35.6027 48.3219 -2.4956 0.4410 0 8
34.8179 48.8793 -2.4953 0.0415 0 8
34.0295 49.4314 -2.4953 0.0415 0 8
33.2323 49.9708 -2.4953 0.0415 0 8
32.4266 50.4974 -2.4953 0.0415 0 8
31.6125 51.0110 -2.4953 0.0415 0 8
30.7903 51.5114 -2.4953 0.0415 0 8
29.9602 51.9986 -2.4953 0.0415 0 8
29.1224 52.4724 -2.4953 0.0415 0 8
28.2771 52.9328 -2.4953 0.0415 0 8
27.4245 53.3795 -2.4953 0.0415 0 8
26.5649 53.8124 -2.4953 0.0415 0 8
25.6984 54.2316 -2.4953 0.0415 0 8
24.8253 54.6367 -2.4953 0.0415 0 8
23.9459 55.0279 -2.4953 0.0415 0 8
23.0602 55.4048 -2.4953 0.0415 0 8
22.1687 55.7676 -2.4953 0.0415 0 8
21.2714 56.1159 -2.4953 0.0415 0 8
20.3687 56.4499 -2.4953 0.0415 0 8
19.4608 56.7693 -2.4953 0.0415 0 8
18.5478 57.0741 -2.4953 0.0415 0 8
17.6300 57.3642 -2.4953 0.0415 0 8
16.7078 57.6396 -2.4953 0.0415 0 8
15.7812 57.9001 -2.4953 0.0415 0 8
14.8505 58.1458 -2.4953 0.0415 0 8
13.9161 58.3765 -2.4953 0.0415 0 8
12.9780 58.5922 -2.4953 0.0415 0 8
12.0367 58.7928 -2.4953 0.0415 0 8
11.0922 58.9783 -2.4953 0.0415 0 8
10.1448 59.1486 -2.4953 0.0415 0 8
9.1949 59.3037 -2.4953 0.0415 0 8
8.2426 59.4435 -2.4953 0.0415 0 8
7.2882 59.5681 -2.4953 0.0415 0 8
6.3319 59.6773 -2.4953 0.0415 0 8
5.3740 59.7712 -2.4953 0.0415 0 8
4.4146 59.8497 -2.4953 0.0415 0 8
3.4542 59.9128 -2.4953 0.0415 0 8
2.4929 59.9605 -2.4953 0.0415 0 8
1.5309 59.9927 -2.4953 0.0415 0 8
0.5685 60.0096 -2.4953 0.0415 0 8
-0.3940 60.0110 -2.4953 0.0415 0 8
-1.3564 59.9969 -2.4953 0.0415 0 8
-2.3184 59.9675 -2.4953 0.0415 0 8
-3.2799 59.9226 -2.4953 0.0415 0 8
-4.2405 59.8623 -2.4953 0.0415 0 8
-5.2001 59.7866 -2.4953 0.0415 0 8
-6.1583 59.6954 -2.4953 0.0415 0 8
49.4368 7.4670 -2.4953 0.0498 0 8
49.3106 8.2589 -2.4953 0.0498 0 8
49.2936 9.0711 -2.5015 0.0498 0 8
52.0143 10.4369 -2.6477 0.0498 0 7
51.8403 11.2697 -2.6477 0.0498 0 7
51.6528 12.0997 -2.6477 0.0498 0 7
51.4521 12.9266 -2.6477 0.0498 0 7
51.2382 13.7501 -2.6477 0.0498 0 7
51.0111 14.5701 -2.6477 0.0498 0 7
50.7709 15.3863 -2.6477 0.0498 0 7
50.5176 16.1986 -2.6477 0.0498 0 7
50.2513 17.0068 -2.6477 0.0498 0 7
49.9720 17.8105 -2.6477 0.0498 0 7
49.6801 18.6097 -2.6477 0.0498 0 6
48.5433 19.0772 -2.6031 0.3657 0 8
46.3895 19.0951 -2.5037 0.3023 0 8
46.0629 19.8305 -2.5029 0.0498 0 14
45.7389 20.5667 -2.5029 0.0498 0 14
45.4032 21.2976 -2.5029 0.0498 0 14
45.0558 22.0231 -2.5029 0.0498 0 14
47.2823 24.0584 -2.6477 0.0498 0 7
46.8903 24.8137 -2.6477 0.0498 0 7
46.4863 25.5625 -2.6477 0.0498 0 7
46.0704 26.3048 -2.6477 0.0498 0 7
45.6425 27.0403 -2.6477 0.0498 0 7
45.2030 27.7688 -2.6477 0.0498 0 7
44.7518 28.4902 -2.6477 0.0498 0 7
44.2891 29.2043 -2.6477 0.0498 0 7
43.8151 29.9109 -2.6477 0.0498 0 7
43.3297 30.6097 -2.6477 0.0498 0 7
42.8332 31.3007 -2.6477 0.0498 0 7
42.3257 31.9836 -2.6477 0.0498 0 7
41.8073 32.6583 -2.6477 0.0498 0 7
41.2782 33.3246 -2.6477 0.0498 0 7
40.7384 33.9824 -2.6477 0.0498 0 6
40.1881 34.6314 -2.6477 0.0498 0 7
39.6275 35.2715 -2.6477 0.0498 0 6
39.0567 35.9025 -2.6477 0.0498 0 7
38.4759 36.5243 -2.6477 0.0498 0 7
37.8852 37.1366 -2.6477 0.0498 0 7
37.2847 37.7395 -2.6477 0.0498 0 7
36.6747 38.3326 -2.6477 0.0498 0 7
33.9799 36.6758 -2.4953 0.0498 0 8
33.3872 37.2162 -2.4953 0.0498 0 8
32.7861 37.7468 -2.4953 0.0498 0 8
32.1765 38.2678 -2.4953 0.0498 0 8
31.5585 38.7789 -2.4953 0.0498 0 8
30.9326 39.2801 -2.4953 0.0498 0 8
30.2986 39.7711 -2.4953 0.0498 0 8
29.6569 40.2519 -2.4953 0.0498 0 8
29.0075 40.7224 -2.4953 0.0498 0 8
28.3507 41.1824 -2.4953 0.0498 0 8
27.6865 41.6318 -2.4953 0.0498 0 8
27.0153 42.0704 -2.4953 0.0498 0 8
26.3371 42.4983 -2.4953 0.0498 0 8
25.6521 42.9153 -2.4953 0.0498 0 8
24.9605 43.3211 -2.4953 0.0498 0 8
24.2625 43.7159 -2.4953 0.0498 0 8
23.5582 44.0994 -2.4953 0.0498 0 8
22.8479 44.4715 -2.4953 0.0498 0 8
22.1318 44.8323 -2.4953 0.0498 0 8
21.4099 45.1815 -2.4953 0.0498 0 8
20.6825 45.5190 -2.4953 0.0498 0 8
19.9498 45.8449 -2.4953 0.0498 0 8
19.2120 46.1589 -2.4953 0.0498 0 8
18.4692 46.4611 -2.4953 0.0498 0 8
17.7217 46.7514 -2.4953 0.0498 0 8
16.9696 47.0296 -2.4953 0.0498 0 8
16.2132 47.2957 -2.4953 0.0498 0 8
15.4525 47.5496 -2.4953 0.0498 0 8
14.6880 47.7913 -2.4953 0.0498 0 8
13.9196 48.0208 -2.4953 0.0498 0 8
13.1476 48.2378 -2.4953 0.0498 0 8
12.3723 48.4425 -2.4953 0.0498 0 8
11.5938 48.6347 -2.4953 0.0498 0 8
10.8123 48.8144 -2.4953 0.0498 0 8
10.0280 48.9815 -2.4953 0.0498 0 8
9.2411 49.1360 -2.4953 0.0498 0 8
8.4519 49.2779 -2.4953 0.0498 0 8
7.6605 49.4071 -2.4953 0.0498 0 8
6.8671 49.5236 -2.4953 0.0498 0 8
6.0719 49.6274 -2.4953 0.0498 0 8
5.2752 49.7184 -2.4953 0.0498 0 8
4.4772 49.7966 -2.4953 0.0498 0 8
3.6779 49.8620 -2.4953 0.0498 0 8
2.8778 49.9146 -2.4953 0.0498 0 8
2.0769 49.9543 -2.4953 0.0498 0 8
1.2754 49.9812 -2.4953 0.0498 0 8
0.4737 49.9952 -2.4953 0.0498 0 8
-0.3282 49.9964 -2.4953 0.0498 0 8
-1.1300 49.9847 -2.4953 0.0498 0 8
-1.9315 49.9602 -2.4953 0.0498 0 8
-2.7326 49.9227 -2.4953 0.0498 0 8
-3.5329 49.8725 -2.4953 0.0498 0 8
-4.3323 49.8094 -2.4953 0.0498 0 8
-5.1306 49.7335 -2.4953 0.0498 0 8
42.3617 6.3983 -2.4953 0.0581 0 8
42.2536 7.0769 -2.4953 0.0581 0 8
42.1347 7.7537 -2.4953 0.0581 0 8
42.0145 8.4304 -2.4958 0.1781 0 8
44.4212 9.6569 -2.6477 0.0581 0 7
44.2606 10.3681 -2.6477 0.0581 0 7
44.0887 11.0766 -2.6477 0.0581 0 7
43.9053 11.7823 -2.6477 0.0581 0 7
43.7107 12.4849 -2.6477 0.0581 0 7
43.5049 13.1844 -2.6477 0.0581 0 7
43.2878 13.8804 -2.6477 0.0581 0 7
43.0597 14.5729 -2.6477 0.0581 0 7
42.8204 15.2616 -2.6477 0.0581 0 7
42.5701 15.9464 -2.6477 0.0581 0 7
42.3089 16.6271 -2.6477 0.0581 0 7
42.0368 17.3035 -2.6477 0.0581 0 7
41.7539 17.9754 -2.6477 0.0581 0 7
41.4602 18.6428 -2.6477 0.0581 0 7
40.6185 19.0533 -2.6131 0.4250 0 8
39.0029 19.0644 -2.5285 0.4392 0 8
38.3001 19.4881 -2.5029 0.0581 0 14
37.9826 20.0998 -2.5029 0.0581 0 14
37.6553 20.7064 -2.5029 0.0581 0 14
37.3184 21.3077 -2.5029 0.0581 0 14
36.9719 21.9035 -2.5029 0.0581 0 14
36.6158 22.4936 -2.5029 0.0581 0 8
38.3473 24.4129 -2.6477 0.0581 0 7
37.9508 25.0248 -2.6477 0.0581 0 7
37.5446 25.6302 -2.6477 0.0581 0 7
37.1287 26.2291 -2.6477 0.0581 0 7
36.7032 26.8212 -2.6477 0.0581 0 7
36.2684 27.4064 -2.6477 0.0581 0 7
35.8242 27.9845 -2.6477 0.0581 0 7
35.3707 28.5554 -2.6477 0.0581 0 7
34.9082 29.1191 -2.6477 0.0581 0 7
34.4367 29.6752 -2.6477 0.0581 0 7
33.9563 30.2237 -2.6477 0.0581 0 7
33.4672 30.7644 -2.6477 0.0581 0 7
32.9695 31.2972 -2.6477 0.0581 0 7
32.4633 31.8219 -2.6477 0.0581 0 7
31.9488 32.3385 -2.6477 0.0581 0 7
31.4260 32.8467 -2.6477 0.0581 0 7
30.8777 33.3276 -2.6462 0.0645 0 8
29.9262 33.3582 -2.6101 0.5126 0 8
28.7356 33.0835 -2.5523 0.6325 0 8
27.7419 32.9937 -2.5107 0.7386 0 8
27.0421 33.2292 -2.4953 0.0581 0 8
26.5057 33.6586 -2.4953 0.0581 0 8
25.9625 34.0793 -2.4953 0.0581 0 8
25.4126 34.4914 -2.4953 0.0581 0 8
24.8561 34.8945 -2.4953 0.0581 0 8
24.2933 35.2886 -2.4953 0.0581 0 8
23.7242 35.6737 -2.4953 0.0581 0 8
23.1490 36.0496 -2.4953 0.0581 0 8
22.5679 36.4162 -2.4953 0.0581 0 8
21.9809 36.7735 -2.4953 0.0581 0 8
21.3883 37.1213 -2.4953 0.0581 0 8
20.7902 37.4596 -2.4953 0.0581 0 8
20.1867 37.7882 -2.4953 0.0581 0 8
19.5781 38.1071 -2.4953 0.0581 0 8
18.9644 38.4162 -2.4953 0.0581 0 8
18.3458 38.7154 -2.4953 0.0581 0 8
17.7226 39.0046 -2.4953 0.0581 0 8
17.0947 39.2839 -2.4953 0.0581 0 8
16.4625 39.5530 -2.4953 0.0581 0 8
15.8260 39.8119 -2.4953 0.0581 0 8
15.1855 40.0606 -2.4953 0.0581 0 8
14.5410 40.2990 -2.4953 0.0581 0 8
13.8929 40.5270 -2.4953 0.0581 0 8
13.2411 40.7446 -2.4953 0.0581 0 8
12.5859 40.9518 -2.4953 0.0581 0 8
11.9275 41.1483 -2.4953 0.0581 0 8
11.2660 41.3344 -2.4953 0.0581 0 8
10.6017 41.5097 -2.4953 0.0581 0 8
9.9346 41.6744 -2.4953 0.0581 0 8
9.2649 41.8284 -2.4953 0.0581 0 8
8.5929 41.9716 -2.4953 0.0581 0 8
7.9186 42.1040 -2.4953 0.0581 0 8
7.2423 42.2256 -2.4953 0.0581 0 8
6.5642 42.3363 -2.4953 0.0581 0 8
5.8843 42.4361 -2.4953 0.0581 0 8
5.2030 42.5251 -2.4953 0.0581 0 8
4.5203 42.6030 -2.4953 0.0581 0 8
3.8364 42.6701 -2.4953 0.0581 0 8
3.1516 42.7261 -2.4953 0.0581 0 8
2.4659 42.7712 -2.4953 0.0581 0 8
1.7797 42.8052 -2.4953 0.0581 0 8
1.0929 42.8282 -2.4953 0.0581 0 8
0.4059 42.8403 -2.4953 0.0581 0 8
-0.2813 42.8413 -2.4953 0.0581 0 8
-0.9683 42.8312 -2.4953 0.0581 0 8
-1.6551 42.8102 -2.4953 0.0581 0 8
-2.3415 42.7782 -2.4953 0.0581 0 8
-3.0273 42.7351 -2.4953 0.0581 0 8
-3.7123 42.6810 -2.4953 0.0581 0 8
-4.3963 42.6160 -2.4953 0.0581 0 8
37.0536 5.5966 -2.4953 0.0664 0 8
36.9591 6.1902 -2.4953 0.0664 0 8
36.8551 6.7821 -2.4953 0.0664 0 8
36.7416 7.3723 -2.4953 0.0664 0 8
36.6186 7.9607 -2.4953 0.0664 0 8
36.4862 8.5469 -2.4953 0.0664 0 8
38.5642 9.6887 -2.6477 0.0664 0 7
38.4039 10.3059 -2.6477 0.0664 0 7
38.2336 10.9205 -2.6477 0.0664 0 7
38.0536 11.5323 -2.6477 0.0664 0 6
37.8637 12.1411 -2.6477 0.0664 0 7
37.6641 12.7468 -2.6477 0.0664 0 7
37.4548 13.3492 -2.6477 0.0664 0 7
37.2359 13.9482 -2.6477 0.0664 0 7
37.0074 14.5436 -2.6477 0.0664 0 7
36.7694 15.1353 -2.6477 0.0664 0 7
36.5220 15.7231 -2.6477 0.0664 0 7
36.2651 16.3068 -2.6477 0.0664 0 7
35.9989 16.8863 -2.6477 0.0664 0 7
35.7234 17.4615 -2.6477 0.0664 0 7
35.4388 18.0322 -2.6477 0.0664 0 7
35.1450 18.5982 -2.6477 0.0664 0 7
34.6129 19.0334 -2.6302 0.4825 0 8
33.3527 19.0434 -2.5574 0.4962 0 8
32.3392 19.1589 -2.5029 0.0664 0 8
32.0277 19.6751 -2.5029 0.0664 0 14
31.7081 20.1862 -2.5029 0.0664 0 14
31.3802 20.6921 -2.5029 0.0664 0 14
31.0443 21.1928 -2.5029 0.0664 0 14
30.7004 21.6879 -2.5029 0.0664 0 14
30.3487 22.1775 -2.5029 0.0664 0 14
31.7238 23.9722 -2.6477 0.0664 0 7
31.3353 24.4779 -2.6477 0.0664 0 7
30.9386 24.9774 -2.6477 0.0664 0 7
30.5341 25.4703 -2.6477 0.0664 0 7
30.1216 25.9568 -2.6477 0.0664 0 7
29.7015 26.4365 -2.6477 0.0664 0 7
29.2736 26.9095 -2.6477 0.0664 0 7
28.8383 27.3755 -2.6477 0.0664 0 7
28.3956 27.8345 -2.6477 0.0664 0 7
27.9455 28.2864 -2.6477 0.0664 0 7
27.4882 28.7309 -2.6477 0.0664 0 7
27.0239 29.1680 -2.6477 0.0664 0 7
26.5526 29.5977 -2.6477 0.0664 0 7
26.0745 30.0198 -2.6477 0.0664 0 6
25.5897 30.4341 -2.6477 0.0664 0 7
25.0983 30.8406 -2.6477 0.0664 0 7
24.6004 31.2392 -2.6477 0.0664 0 7
24.0963 31.6297 -2.6477 0.0664 0 7
23.5859 32.0121 -2.6477 0.0664 0 7
23.0695 32.3862 -2.6477 0.0664 0 7
22.5166 32.7078 -2.6441 0.0803 0 8
21.9099 32.9455 -2.6346 0.8275 0 8
21.1577 32.9485 -2.6073 0.8362 0 8
20.4206 32.9513 -2.5813 0.8446 0 8
19.6978 32.9539 -2.5564 0.8528 0 8
18.9885 32.9563 -2.5326 0.8608 0 8
18.2921 32.9585 -2.5100 0.8686 0 8
17.6573 33.0532 -2.4953 0.0664 0 8
17.1249 33.3321 -2.4953 0.0664 0 8
16.5881 33.6025 -2.4953 0.0664 0 8
16.0470 33.8642 -2.4953 0.0664 0 8
15.5019 34.1172 -2.4953 0.0664 0 8
14.9527 34.3615 -2.4953 0.0664 0 8
14.3997 34.5969 -2.4953 0.0664 0 8
13.8430 34.8234 -2.4953 0.0664 0 8
13.2827 35.0409 -2.4953 0.0664 0 8
12.7190 35.2494 -2.4953 0.0664 0 8
12.1520 35.4489 -2.4953 0.0664 0 8
11.5819 35.6392 -2.4953 0.0664 0 8
11.0089 35.8204 -2.4953 0.0664 0 8
10.4330 35.9923 -2.4953 0.0664 0 8
9.8544 36.1550 -2.4953 0.0664 0 8
9.2732 36.3084 -2.4953 0.0664 0 8
8.6897 36.4525 -2.4953 0.0664 0 8
8.1040 36.5871 -2.4953 0.0664 0 8
7.5161 36.7124 -2.4953 0.0664 0 8
6.9264 36.8282 -2.4953 0.0664 0 8
6.3348 36.9346 -2.4953 0.0664 0 8
5.7417 37.0314 -2.4953 0.0664 0 8
5.1470 37.1188 -2.4953 0.0664 0 8
4.5510 37.1965 -2.4953 0.0664 0 8
3.9539 37.2647 -2.4953 0.0664 0 8
3.3557 37.3234 -2.4953 0.0664 0 8
2.7567 37.3724 -2.4953 0.0664 0 8
2.1569 37.4118 -2.4953 0.0664 0 8
1.5566 37.4416 -2.4953 0.0664 0 8
0.9560 37.4617 -2.4953 0.0664 0 8
0.3550 37.4722 -2.4953 0.0664 0 8
-0.2460 37.4731 -2.4953 0.0664 0 8
-0.8470 37.4643 -2.4953 0.0664 0 8
-1.4477 37.4459 -2.4953 0.0664 0 8
-2.0481 37.4179 -2.4953 0.0664 0 8
-2.6479 37.3802 -2.4953 0.0664 0 8
-3.2471 37.3330 -2.4953 0.0664 0 8
-3.8455 37.2761 -2.4953 0.0664 0 8
32.9237 4.9728 -2.4953 0.0747 0 8
32.8397 5.5002 -2.4953 0.0747 0 8
32.7472 6.0262 -2.4953 0.0747 0 8
32.6464 6.5506 -2.4953 0.0747 0 8
32.5371 7.0734 -2.4953 0.0747 0 8
32.4195 7.5943 -2.4953 0.0747 0 8
32.2935 8.1133 -2.4953 0.0747 0 8
34.1234 9.1572 -2.6477 0.0747 0 7
33.9721 9.7033 -2.6477 0.0747 0 7
33.8121 10.2469 -2.6477 0.0747 0 7
33.6435 10.7879 -2.6477 0.0747 0 7
33.4661 11.3261 -2.6477 0.0747 0 7
33.2802 11.8614 -2.6477 0.0747 0 7
33.0857 12.3936 -2.6477 0.0747 0 7
32.8826 12.9226 -2.6477 0.0747 0 7
32.6711 13.4483 -2.6477 0.0747 0 7
32.4513 13.9706 -2.6477 0.0747 0 7
32.2230 14.4892 -2.6477 0.0747 0 7
31.9865 15.0042 -2.6477 0.0747 0 7
31.7417 15.5152 -2.6477 0.0747 0 7
31.4888 16.0223 -2.6477 0.0747 0 7
31.2278 16.5253 -2.6477 0.0747 0 7
30.9587 17.0240 -2.6477 0.0747 0 7
30.6817 17.5183 -2.6477 0.0747 0 7
30.3968 18.0082 -2.6477 0.0747 0 7
30.1041 18.4934 -2.6477 0.0747 0 6
29.8036 18.9738 -2.6477 0.0747 0 7
28.8518 19.0249 -2.5899 0.5511 0 8
27.8810 19.0333 -2.5298 0.5642 0 8
27.2786 19.2706 -2.5029 0.0747 0 14
26.9660 19.7056 -2.5029 0.0747 0 14
26.6465 20.1356 -2.5029 0.0747 0 14
26.3202 20.5603 -2.5029 0.0747 0 14
25.9870 20.9798 -2.5029 0.0747 0 14
25.6472 21.3939 -2.5029 0.0747 0 14
25.3008 21.8025 -2.5029 0.0747 0 14
24.9479 22.2055 -2.5029 0.0747 0 14
26.0108 23.9102 -2.6477 0.0747 0 7
25.6240 24.3243 -2.6477 0.0747 0 7
25.2306 24.7321 -2.6477 0.0747 0 7
24.8307 25.1336 -2.6477 0.0747 0 7
24.4244 25.5286 -2.6477 0.0747 0 7
24.0119 25.9170 -2.6477 0.0747 0 7
23.5931 26.2988 -2.6477 0.0747 0 7
23.1683 26.6738 -2.6477 0.0747 0 7
22.7375 27.0419 -2.6477 0.0747 0 7
22.3009 27.4031 -2.6477 0.0747 0 7
21.8585 27.7573 -2.6477 0.0747 0 7
21.4105 28.1043 -2.6477 0.0747 0 7
20.9570 28.4440 -2.6477 0.0747 0 7
20.4981 28.7765 -2.6477 0.0747 0 7
20.0340 29.1015 -2.6477 0.0747 0 7
19.5647 29.4191 -2.6477 0.0747 0 7
19.0903 29.7291 -2.6477 0.0747 0 7
18.6111 30.0315 -2.6477 0.0747 0 6
18.1271 30.3261 -2.6477 0.0747 0 7
17.6383 30.6129 -2.6477 0.0747 0 7
17.1451 30.8919 -2.6477 0.0747 0 7
16.6474 31.1629 -2.6477 0.0747 0 7
16.1455 31.4258 -2.6477 0.0747 0 7
15.6394 31.6807 -2.6477 0.0747 0 7
15.1293 31.9275 -2.6477 0.0747 0 7
14.6153 32.1660 -2.6477 0.0747 0 7
14.0975 32.3963 -2.6477 0.0747 0 7
13.5656 32.5929 -2.6456 0.0903 0 8
13.0263 32.7690 -2.6426 0.0904 0 8
12.4782 32.9186 -2.6382 0.9295 0 8
11.8784 32.9199 -2.6227 0.9350 0 8
11.2854 32.9209 -2.6080 0.9403 0 8
10.6989 32.9219 -2.5942 0.9453 0 8
10.1183 32.9227 -2.5811 0.9501 0 8
9.5434 32.9233 -2.5688 0.9546 0 8
8.9737 32.9239 -2.5573 0.9589 0 8
8.4089 32.9243 -2.5465 0.9630 0 8
7.8487 32.9246 -2.5365 0.9668 0 8
7.2928 32.9248 -2.5272 0.9703 0 8
6.7407 32.9249 -2.5186 0.9737 0 8
6.1922 32.9248 -2.5106 0.9767 0 8
5.6471 32.9246 -2.5034 0.9796 0 8
5.1056 32.9289 -2.4972 0.7493 0 8
4.5733 32.9815 -2.4953 0.0747 0 8
4.0438 33.0506 -2.4953 0.0747 0 8
3.5132 33.1112 -2.4953 0.0747 0 8
2.9817 33.1633 -2.4953 0.0747 0 8
2.4494 33.2069 -2.4953 0.0747 0 8
1.9165 33.2419 -2.4953 0.0747 0 8
1.3832 33.2684 -2.4953 0.0747 0 8
0.8494 33.2863 -2.4953 0.0747 0 8
0.3154 33.2956 -2.4953 0.0747 0 8
-0.2186 33.2964 -2.4953 0.0747 0 8
-0.7526 33.2886 -2.4953 0.0747 0 8
-1.2864 33.2722 -2.4953 0.0747 0 8
-1.8198 33.2473 -2.4953 0.0747 0 8
-2.3528 33.2139 -2.4953 0.0747 0 8
-2.8852 33.1719 -2.4953 0.0747 0 8
-3.4168 33.1213 -2.4953 0.0747 0 8
29.6183 4.4736 -2.4953 0.0830 0 8
29.5427 4.9480 -2.4953 0.0830 0 8
29.4596 5.4212 -2.4953 0.0830 0 8
29.3688 5.8930 -2.4953 0.0830 0 8
29.2705 6.3632 -2.4953 0.0830 0 8
29.1647 6.8319 -2.4953 0.0830 0 8
29.0514 7.2987 -2.4953 0.0830 0 8
28.9306 7.7637 -2.4953 0.0830 0 8
28.8024 8.2267 -2.4953 0.0830 0 8
30.4176 9.2182 -2.6477 0.0830 0 7
30.2658 9.7048 -2.6477 0.0830 0 7
30.1063 10.1890 -2.6477 0.0830 0 7
29.9390 10.6705 -2.6477 0.0830 0 7
29.7640 11.1493 -2.6477 0.0830 0 7
29.5814 11.6252 -2.6477 0.0830 0 7
29.3911 12.0982 -2.6477 0.0830 0 7
29.1933 12.5680 -2.6477 0.0830 0 7
28.9880 13.0346 -2.6477 0.0830 0 7
28.7752 13.4978 -2.6477 0.0830 0 7
28.5550 13.9576 -2.6477 0.0830 0 7
28.3275 14.4138 -2.6477 0.0830 0 7
28.0927 14.8662 -2.6477 0.0830 0 7
27.8506 15.3149 -2.6477 0.0830 0 7
27.6014 15.7596 -2.6477 0.0830 0 7
27.3451 16.2002 -2.6477 0.0830 0 7
27.0818 16.6367 -2.6477 0.0830 0 7
26.8115 17.0689 -2.6477 0.0830 0 7
26.5343 17.4967 -2.6477 0.0830 0 7
26.2502 17.9200 -2.6477 0.0830 0 7
25.9595 18.3387 -2.6477 0.0830 0 7
25.6620 18.7527 -2.6477 0.0830 0 7
25.1541 19.0078 -2.6264 0.6037 0 8
24.3425 19.0154 -2.5732 0.6162 0 8
23.5627 19.0226 -2.5227 0.6285 0 8
23.0723 19.2461 -2.5029 0.0830 0 14
22.7607 19.6136 -2.5029 0.0830 0 14
22.4432 19.9761 -2.5029 0.0830 0 14
22.1199 20.3335 -2.5029 0.0830 0 14
21.7910 20.6857 -2.5029 0.0830 0 14
21.4564 21.0325 -2.5029 0.0830 0 14
21.1163 21.3739 -2.5029 0.0830 0 14
20.7708 21.7098 -2.5029 0.0830 0 14
20.4200 22.0401 -2.5029 0.0830 0 14
20.0639 22.3648 -2.5029 0.0830 0 8
20.8423 23.9959 -2.6477 0.0830 0 7
20.4548 24.3271 -2.6477 0.0830 0 7
20.0620 24.6520 -2.6477 0.0830 0 7
19.6640 24.9706 -2.6477 0.0830 0 7
19.2610 25.2827 -2.6477 0.0830 0 7
18.8530 25.5884 -2.6477 0.0830 0 7
18.4402 25.8875 -2.6477 0.0830 0 7
18.0227 26.1799 -2.6477 0.0830 0 7
17.6005 26.4656 -2.6477 0.0830 0 7
17.1738 26.7444 -2.6477 0.0830 0 7
16.7426 27.0164 -2.6477 0.0830 0 7
16.3072 27.2815 -2.6477 0.0830 0 7
15.8675 27.5395 -2.6477 0.0830 0 7
15.4238 27.7905 -2.6477 0.0830 0 7
14.9761 28.0342 -2.6477 0.0830 0 7
14.5246 28.2708 -2.6477 0.0830 0 7
14.0693 28.5001 -2.6477 0.0830 0 7
13.6104 28.7221 -2.6477 0.0830 0 7
13.1480 28.9367 -2.6477 0.0830 0 7
12.6822 29.1438 -2.6477 0.0830 0 7
12.2132 29.3435 -2.6477 0.0830 0 7
11.7410 29.5356 -2.6477 0.0830 0 7
11.2658 29.7201 -2.6477 0.0830 0 7
10.7877 29.8970 -2.6477 0.0830 0 7
10.3068 30.0661 -2.6477 0.0830 0 7
9.8233 30.2276 -2.6477 0.0830 0 7
9.3372 30.3812 -2.6477 0.0830 0 7
8.8488 30.5271 -2.6477 0.0830 0 7
8.3580 30.6651 -2.6477 0.0830 0 7
7.8651 30.7952 -2.6477 0.0830 0 7
7.3702 30.9173 -2.6477 0.0830 0 7
6.8734 31.0316 -2.6477 0.0830 0 7
6.3749 31.1378 -2.6477 0.0830 0 7
5.8746 31.2361 -2.6477 0.0830 0 7
5.3729 31.3263 -2.6477 0.0830 0 7
4.8698 31.4084 -2.6477 0.0830 0 7
4.3655 31.4825 -2.6477 0.0830 0 7
3.8600 31.5484 -2.6477 0.0830 0 7
3.3535 31.6063 -2.6477 0.0830 0 7
2.8462 31.6560 -2.6477 0.0830 0 7
2.3381 31.6976 -2.6477 0.0830 0 7
1.8294 31.7310 -2.6477 0.0830 0 7
1.3203 31.7563 -2.6477 0.0830 0 7
0.8108 31.7733 -2.6477 0.0830 0 7
0.3011 31.7823 -2.6477 0.0830 0 7
-0.2087 31.7830 -2.6477 0.0830 0 7
-0.7184 31.7756 -2.6477 0.0830 0 7
-1.2279 31.7600 -2.6477 0.0830 0 7
-1.7371 31.7362 -2.6477 0.0830 0 7
-2.2459 31.7042 -2.6477 0.0830 0 7
-2.7541 31.6641 -2.6477 0.0830 0 7
-3.2615 31.6159 -2.6477 0.0830 0 7
26.9127 4.0649 -2.4953 0.0913 0 8
26.8440 4.4960 -2.4953 0.0913 0 8
26.7685 4.9259 -2.4953 0.0913 0 8
26.6860 5.3546 -2.4953 0.0913 0 8
26.5967 5.7819 -2.4953 0.0913 0 8
26.5005 6.2078 -2.4953 0.0913 0 8
26.3976 6.6320 -2.4953 0.0913 0 8
26.2878 7.0545 -2.4953 0.0913 0 8
26.1713 7.4752 -2.4953 0.0913 0 8
26.0480 7.8940 -2.4953 0.0913 0 8
25.9181 8.3107 -2.4953 0.0913 0 8
27.3561 9.2582 -2.6477 0.0913 0 7
27.2041 9.6958 -2.6477 0.0913 0 7
27.0451 10.1308 -2.6477 0.0913 0 7
26.8791 10.5633 -2.6477 0.0913 0 7
26.7062 10.9930 -2.6477 0.0913 0 7
26.5265 11.4199 -2.6477 0.0913 0 7
26.3399 11.8439 -2.6477 0.0913 0 7
26.1466 12.2648 -2.6477 0.0913 0 7
25.9465 12.6826 -2.6477 0.0913 0 7
25.7398 13.0971 -2.6477 0.0913 0 7
25.5264 13.5082 -2.6477 0.0913 0 7
25.3065 13.9159 -2.6477 0.0913 0 7
25.0800 14.3199 -2.6477 0.0913 0 7
24.8472 14.7204 -2.6477 0.0913 0 7
24.6079 15.1170 -2.6477 0.0913 0 7
24.3623 15.5097 -2.6477 0.0913 0 7
24.1104 15.8984 -2.6477 0.0913 0 7
23.8523 16.2830 -2.6477 0.0913 0 7
23.5881 16.6635 -2.6477 0.0913 0 7
23.3178 17.0397 -2.6477 0.0913 0 7
23.0415 17.4114 -2.6477 0.0913 0 7
22.7593 17.7787 -2.6477 0.0913 0 7
22.4712 18.1415 -2.6477 0.0913 0 7
22.1774 18.4995 -2.6477 0.0913 0 6
21.8778 18.8528 -2.6477 0.0913 0 7
21.3448 18.9985 -2.6197 0.6656 0 8
20.6747 19.0050 -2.5745 0.6773 0 8
20.0270 19.0112 -2.5315 0.6888 0 8
19.4964 19.1112 -2.5029 0.0913 0 8
19.1874 19.4214 -2.5029 0.0913 0 14
18.8734 19.7266 -2.5029 0.0913 0 14
18.5546 20.0268 -2.5029 0.0913 0 14
18.2310 20.3218 -2.5029 0.0913 0 14
17.9028 20.6116 -2.5029 0.0913 0 14
17.5699 20.8960 -2.5029 0.0913 0 14
17.2325 21.1752 -2.5029 0.0913 0 14
16.8907 21.4488 -2.5029 0.0913 0 14
16.5445 21.7169 -2.5029 0.0913 0 14
16.1941 21.9795 -2.5029 0.0913 0 14
15.8395 22.2364 -2.5029 0.0913 0 14
16.3763 23.7884 -2.6477 0.0913 0 7
15.9927 24.0479 -2.6477 0.0913 0 7
15.6049 24.3013 -2.6477 0.0913 0 7
15.2132 24.5485 -2.6477 0.0913 0 7
14.8175 24.7893 -2.6477 0.0913 0 7
14.4180 25.0238 -2.6477 0.0913 0 7
14.0148 25.2518 -2.6477 0.0913 0 7
13.6080 25.4733 -2.6477 0.0913 0 7
13.1978 25.6883 -2.6477 0.0913 0 7
12.7841 25.8967 -2.6477 0.0913 0 7
12.3671 26.0984 -2.6477 0.0913 0 7
11.9469 26.2933 -2.6477 0.0913 0 7
11.5237 26.4816 -2.6477 0.0913 0 7
11.0975 26.6630 -2.6477 0.0913 0 7
10.6685 26.8375 -2.6477 0.0913 0 7
10.2367 27.0052 -2.6477 0.0913 0 7
9.8022 27.1659 -2.6477 0.0913 0 7
9.3653 27.3196 -2.6477 0.0913 0 7
8.9259 27.4663 -2.6477 0.0913 0 7
8.4843 27.6059 -2.6477 0.0913 0 7
8.0404 27.7384 -2.6477 0.0913 0 7
7.5945 27.8638 -2.6477 0.0913 0 7
7.1467 27.9820 -2.6477 0.0913 0 7
6.6970 28.0931 -2.6477 0.0913 0 7
6.2455 28.1969 -2.6477 0.0913 0 7
5.7925 28.2934 -2.6477 0.0913 0 7
5.3380 28.3827 -2.6477 0.0913 0 7
4.8821 28.4646 -2.6477 0.0913 0 7
4.4250 28.5393 -2.6477 0.0913 0 7
3.9667 28.6066 -2.6477 0.0913 0 7
3.5074 28.6665 -2.6477 0.0913 0 7
3.0472 28.7191 -2.6477 0.0913 0 7
2.5862 28.7642 -2.6477 0.0913 0 7
2.1245 28.8020 -2.6477 0.0913 0 7
1.6623 28.8324 -2.6477 0.0913 0 7
1.1997 28.8553 -2.6477 0.0913 0 7
0.7367 28.8709 -2.6477 0.0913 0 7
0.2736 28.8790 -2.6477 0.0913 0 7
-0.1896 28.8796 -2.6477 0.0913 0 7
-0.6527 28.8729 -2.6477 0.0913 0 7
-1.1157 28.8587 -2.6477 0.0913 0 7
-1.5784 28.8371 -2.6477 0.0913 0 7
-2.0407 28.8081 -2.6477 0.0913 0 7
-2.5025 28.7716 -2.6477 0.0913 0 7
-2.9636 28.7278 -2.6477 0.0913 0 7
24.6568 3.7242 -2.4953 0.0996 0 8
24.5939 4.1192 -2.4953 0.0996 0 8
24.5247 4.5131 -2.4953 0.0996 0 8
24.4492 4.9058 -2.4953 0.0996 0 8
24.3673 5.2973 -2.4953 0.0996 0 8
24.2793 5.6874 -2.4953 0.0996 0 8
24.1849 6.0761 -2.4953 0.0996 0 8
24.0844 6.4632 -2.4953 0.0996 0 8
23.9776 6.8486 -2.4953 0.0996 0 8
23.8647 7.2323 -2.4953 0.0996 0 8
23.7456 7.6141 -2.4953 0.0996 0 8
23.6204 7.9940 -2.4953 0.0996 0 8
23.5060 8.3777 -2.4971 0.3048 0 8
24.7781 9.2817 -2.6477 0.0996 0 7
24.6261 9.6779 -2.6477 0.0996 0 7
24.4677 10.0716 -2.6477 0.0996 0 7
24.3030 10.4627 -2.6477 0.0996 0 7
24.1321 10.8511 -2.6477 0.0996 0 7
23.9550 11.2368 -2.6477 0.0996 0 7
23.7717 11.6195 -2.6477 0.0996 0 7
23.5823 11.9993 -2.6477 0.0996 0 7
23.3868 12.3759 -2.6477 0.0996 0 7
23.1853 12.7494 -2.6477 0.0996 0 7
22.9778 13.1196 -2.6477 0.0996 0 7
22.7645 13.4865 -2.6477 0.0996 0 7
22.5452 13.8499 -2.6477 0.0996 0 7
22.3202 14.2097 -2.6477 0.0996 0 7
22.0894 14.5658 -2.6477 0.0996 0 7
21.8530 14.9182 -2.6477 0.0996 0 7
21.6109 15.2668 -2.6477 0.0996 0 7
21.3633 15.6114 -2.6477 0.0996 0 7
21.1102 15.9520 -2.6477 0.0996 0 7
20.8516 16.2885 -2.6477 0.0996 0 7
20.5877 16.6208 -2.6477 0.0996 0 7
20.3185 16.9489 -2.6477 0.0996 0 7
20.0440 17.2726 -2.6477 0.0996 0 7
19.7644 17.5918 -2.6477 0.0996 0 7
19.4798 17.9066 -2.6477 0.0996 0 7
19.1901 18.2167 -2.6477 0.0996 0 7
18.8955 18.5221 -2.6477 0.0996 0 6
18.5959 18.8228 -2.6477 0.0996 0 7
18.1666 18.9878 -2.6296 0.7232 0 8
17.5972 18.9934 -2.5909 0.7340 0 8
17.0441 18.9987 -2.5540 0.7446 0 8
16.5062 19.0037 -2.5188 0.7550 0 8
16.0972 19.1445 -2.5029 0.0996 0 8
15.7881 19.4003 -2.5029 0.0996 0 14
15.4749 19.6510 -2.5029 0.0996 0 14
15.1577 19.8966 -2.5029 0.0996 0 14
14.8367 20.1372 -2.5029 0.0996 0 14
14.5118 20.3725 -2.5029 0.0996 0 14
14.1832 20.6027 -2.5029 0.0996 0 14
13.8510 20.8275 -2.5029 0.0996 0 14
13.5152 21.0469 -2.5029 0.0996 0 14
13.1759 21.2610 -2.5029 0.0996 0 14
12.8332 21.4696 -2.5029 0.0996 0 14
12.4872 21.6726 -2.5029 0.0996 0 14
12.1380 21.8701 -2.5029 0.0996 0 14
11.7857 22.0620 -2.5029 0.0996 0 14
11.4303 22.2481 -2.5029 0.0996 0 14
11.0720 22.4286 -2.5029 0.0996 0 8
11.3305 23.9108 -2.6477 0.0996 0 7
10.9455 24.0894 -2.6477 0.0996 0 7
10.5578 24.2619 -2.6477 0.0996 0 7
10.1673 24.4281 -2.6477 0.0996 0 7
9.7742 24.5880 -2.6477 0.0996 0 7
9.3786 24.7416 -2.6477 0.0996 0 7
8.9806 24.8888 -2.6477 0.0996 0 7
8.5803 25.0297 -2.6477 0.0996 0 7
8.1778 25.1641 -2.6477 0.0996 0 7
7.7731 25.2920 -2.6477 0.0996 0 7
7.3665 25.4134 -2.6477 0.0996 0 7
6.9579 25.5283 -2.6477 0.0996 0 7
6.5476 25.6366 -2.6477 0.0996 0 7
6.1356 25.7383 -2.6477 0.0996 0 7
5.7220 25.8334 -2.6477 0.0996 0 7
5.3070 25.9218 -2.6477 0.0996 0 7
4.8906 26.0036 -2.6477 0.0996 0 7
4.4729 26.0787 -2.6477 0.0996 0 7
4.0541 26.1471 -2.6477 0.0996 0 7
3.6342 26.2087 -2.6477 0.0996 0 7
3.2134 26.2637 -2.6477 0.0996 0 7
2.7917 26.3118 -2.6477 0.0996 0 7
2.3694 26.3532 -2.6477 0.0996 0 7
1.9464 26.3878 -2.6477 0.0996 0 7
1.5230 26.4156 -2.6477 0.0996 0 7
1.0991 26.4367 -2.6477 0.0996 0 7
0.6750 26.4509 -2.6477 0.0996 0 7
0.2507 26.4583 -2.6477 0.0996 0 6
-0.1737 26.4589 -2.6477 0.0996 0 6
-0.5980 26.4528 -2.6477 0.0996 0 6
-1.0222 26.4398 -2.6477 0.0996 0 6
-1.4461 26.4200 -2.6477 0.0996 0 6
-1.8697 26.3934 -2.6477 0.0996 0 7
-2.2927 26.3600 -2.6477 0.0996 0 7
-2.7152 26.3198 -2.6477 0.0996 0 7
22.7470 3.4357 -2.4953 0.1078 0 8
22.6889 3.8001 -2.4953 0.1078 0 8
22.6251 4.1635 -2.4953 0.1078 0 8
22.5554 4.5258 -2.4953 0.1078 0 8
22.4799 4.8870 -2.4953 0.1078 0 8
22.3986 5.2469 -2.4953 0.1078 0 8
22.3116 5.6054 -2.4953 0.1078 0 8
22.2188 5.9626 -2.4953 0.1078 0 8
22.1203 6.3181 -2.4953 0.1078 0 8
22.0162 6.6721 -2.4953 0.1078 0 8
21.9063 7.0243 -2.4953 0.1078 0 8
21.7908 7.3748 -2.4953 0.1078 0 8
21.6698 7.7233 -2.4953 0.1078 0 8
21.5431 8.0698 -2.4953 0.1078 0 8
21.4109 8.4143 -2.4953 0.1078 0 8
22.5725 9.2914 -2.6477 0.1078 0 7
22.4206 9.6523 -2.6477 0.1078 0 7
22.2629 10.0106 -2.6477 0.1078 0 7
22.0995 10.3664 -2.6477 0.1078 0 7
21.9304 10.7195 -2.6477 0.1078 0 7
21.7556 11.0698 -2.6477 0.1078 0 7
21.5753 11.4173 -2.6477 0.1078 0 7
21.3894 11.7619 -2.6477 0.1078 0 7
21.1980 12.1034 -2.6477 0.1078 0 7
21.0012 12.4418 -2.6477 0.1078 0 7
20.7989 12.7771 -2.6477 0.1078 0 7
20.5913 13.1090 -2.6477 0.1078 0 7
20.3784 13.4376 -2.6477 0.1078 0 7
20.1603 13.7627 -2.6477 0.1078 0 7
19.9370 14.0842 -2.6477 0.1078 0 7
19.7085 14.4022 -2.6477 0.1078 0 7
19.4750 14.7164 -2.6477 0.1078 0 7
19.2365 15.0268 -2.6477 0.1078 0 7
18.9930 15.3334 -2.6477 0.1078 0 7
18.7446 15.6361 -2.6477 0.1078 0 7
18.4915 15.9347 -2.6477 0.1078 0 7
18.2335 16.2292 -2.6477 0.1078 0 7
17.9709 16.5195 -2.6477 0.1078 0 7
17.7036 16.8056 -2.6477 0.1078 0 7
17.4318 17.0874 -2.6477 0.1078 0 7
17.1555 17.3648 -2.6477 0.1078 0 7
16.8748 17.6377 -2.6477 0.1078 0 7
16.5898 17.9061 -2.6477 0.1078 0 7
16.3005 18.1698 -2.6477 0.1078 0 7
16.0070 18.4289 -2.6477 0.1078 0 6
15.7093 18.6833 -2.6477 0.1078 0 7
15.4077 18.9328 -2.6477 0.1078 0 7
14.9470 18.9806 -2.6205 0.7860 0 8
14.4633 18.9851 -2.5887 0.7956 0 8
13.9910 18.9894 -2.5584 0.8050 0 8
13.5295 18.9935 -2.5294 0.8143 0 8
13.0846 19.0068 -2.5029 0.1078 0 8
12.7781 19.2142 -2.5029 0.1078 0 14
12.4683 19.4167 -2.5029 0.1078 0 14
12.1553 19.6141 -2.5029 0.1078 0 14
11.8391 19.8066 -2.5029 0.1078 0 14
11.5200 19.9939 -2.5029 0.1078 0 14
11.1978 20.1761 -2.5029 0.1078 0 14
10.8728 20.3531 -2.5029 0.1078 0 14
10.5449 20.5248 -2.5029 0.1078 0 14
10.2144 20.6913 -2.5029 0.1078 0 14
9.8812 20.8525 -2.5029 0.1078 0 14
9.5455 21.0083 -2.5029 0.1078 0 14
9.2074 21.1587 -2.5029 0.1078 0 14
8.8669 21.3036 -2.5029 0.1078 0 14
8.5240 21.4431 -2.5029 0.1078 0 14
8.1790 21.5770 -2.5029 0.1078 0 14
7.8319 21.7054 -2.5029 0.1078 0 14
7.4828 21.8283 -2.5029 0.1078 0 14
7.1318 21.9455 -2.5029 0.1078 0 14
6.7789 22.0570 -2.5029 0.1078 0 14
6.4243 22.1629 -2.5029 0.1078 0 14
6.0680 22.2631 -2.5029 0.1078 0 14
5.7102 22.3575 -2.5029 0.1078 0 8
5.6604 23.7446 -2.6477 0.1078 0 7
5.2788 23.8324 -2.6477 0.1078 0 7
4.8959 23.9140 -2.6477 0.1078 0 7
4.5117 23.9894 -2.6477 0.1078 0 7
4.1264 24.0587 -2.6477 0.1078 0 7
3.7400 24.1218 -2.6477 0.1078 0 7
3.3527 24.1787 -2.6477 0.1078 0 7
2.9645 24.2293 -2.6477 0.1078 0 7
2.5755 24.2737 -2.6477 0.1078 0 7
2.1859 24.3119 -2.6477 0.1078 0 7
1.7957 24.3439 -2.6477 0.1078 0 7
1.4050 24.3695 -2.6477 0.1078 0 7
1.0140 24.3889 -2.6477 0.1078 0 7
0.6227 24.4021 -2.6477 0.1078 0 7
0.2313 24.4089 -2.6477 0.1078 0 7
-0.1603 24.4095 -2.6477 0.1078 0 7
-0.5517 24.4038 -2.6477 0.1078 0 7
-0.9430 24.3918 -2.6477 0.1078 0 7
-1.3341 24.3735 -2.6477 0.1078 0 7
-1.7248 24.3490 -2.6477 0.1078 0 7
-2.1151 24.3182 -2.6477 0.1078 0 7
-2.5049 24.2811 -2.6477 0.1078 0 7
21.1090 3.1883 -2.4953 0.1161 0 8
21.0551 3.5265 -2.4953 0.1161 0 8
20.9959 3.8637 -2.4953 0.1161 0 8
20.9312 4.1999 -2.4953 0.1161 0 8
20.8611 4.5351 -2.4953 0.1161 0 8
20.7857 4.8691 -2.4953 0.1161 0 8
20.7050 5.2018 -2.4953 0.1161 0 8
20.6189 5.5332 -2.4953 0.1161 0 8
20.5275 5.8632 -2.4953 0.1161 0 8
20.4308 6.1917 -2.4953 0.1161 0 8
20.3289 6.5185 -2.4953 0.1161 0 8
20.2217 6.8437 -2.4953 0.1161 0 8
20.1094 7.1672 -2.4953 0.1161 0 8
19.9918 7.4887 -2.4953 0.1161 0 8
19.8691 7.8084 -2.4953 0.1161 0 8
19.7414 8.1261 -2.4953 0.1161 0 8
19.6085 8.4416 -2.4953 0.1161 0 8
20.6598 9.2898 -2.6477 0.1161 0 7
20.5081 9.6199 -2.6477 0.1161 0 7
20.3512 9.9476 -2.6477 0.1161 0 7
20.1890 10.2727 -2.6477 0.1161 0 7
20.0217 10.5952 -2.6477 0.1161 0 7
19.8492 10.9149 -2.6477 0.1161 0 7
19.6716 11.2319 -2.6477 0.1161 0 7
19.4889 11.5459 -2.6477 0.1161 0 6
19.3012 11.8570 -2.6477 0.1161 0 7
19.1086 12.1650 -2.6477 0.1161 0 7
18.9110 12.4699 -2.6477 0.1161 0 7
18.7086 12.7716 -2.6477 0.1161 0 7
18.5013 13.0700 -2.6477 0.1161 0 7
18.2893 13.3651 -2.6477 0.1161 0 7
18.0726 13.6567 -2.6477 0.1161 0 7
17.8513 13.9448 -2.6477 0.1161 0 7
17.6253 14.2293 -2.6477 0.1161 0 7
17.3949 14.5101 -2.6477 0.1161 0 7
17.1599 14.7872 -2.6477 0.1161 0 7
16.9205 15.0606 -2.6477 0.1161 0 7
16.6768 15.3300 -2.6477 0.1161 0 7
16.4288 15.5955 -2.6477 0.1161 0 7
16.1766 15.8570 -2.6477 0.1161 0 7
15.9202 16.1144 -2.6477 0.1161 0 7
15.6597 16.3676 -2.6477 0.1161 0 7
15.3952 16.6167 -2.6477 0.1161 0 7
15.1267 16.8614 -2.6477 0.1161 0 7
14.8543 17.1019 -2.6477 0.1161 0 7
14.5781 17.3379 -2.6477 0.1161 0 7
14.2982 17.5695 -2.6477 0.1161 0 7
14.0146 17.7966 -2.6477 0.1161 0 7
13.7273 18.0190 -2.6477 0.1161 0 7
13.4366 18.2369 -2.6477 0.1161 0 7
13.1424 18.4500 -2.6477 0.1161 0 6
12.8448 18.6584 -2.6477 0.1161 0 7
12.5439 18.8620 -2.6477 0.1161 0 7
12.1816 18.9702 -2.6351 0.8415 0 8
11.7585 18.9738 -2.6091 0.8499 0 8
11.3434 18.9773 -2.5842 0.8580 0 8
10.9361 18.9805 -2.5604 0.8660 0 8
10.5360 18.9836 -2.5377 0.8738 0 8
10.1428 18.9866 -2.5160 0.8813 0 8
9.7856 19.0469 -2.5029 0.1161 0 8
9.4789 19.2014 -2.5029 0.1161 0 14
9.1697 19.3509 -2.5029 0.1161 0 14
8.8582 19.4955 -2.5029 0.1161 0 14
8.5444 19.6351 -2.5029 0.1161 0 14
8.2284 19.7696 -2.5029 0.1161 0 14
7.9102 19.8990 -2.5029 0.1161 0 14
7.5901 20.0233 -2.5029 0.1161 0 14
7.2680 20.1425 -2.5029 0.1161 0 14
6.9440 20.2564 -2.5029 0.1161 0 14
6.6182 20.3652 -2.5029 0.1161 0 14
6.2908 20.4687 -2.5029 0.1161 0 14
5.9617 20.5670 -2.5029 0.1161 0 14
5.6310 20.6599 -2.5029 0.1161 0 14
5.2990 20.7476 -2.5029 0.1161 0 14
4.9655 20.8299 -2.5029 0.1161 0 14
4.6308 20.9069 -2.5029 0.1161 0 14
4.2949 20.9785 -2.5029 0.1161 0 14
3.9579 21.0446 -2.5029 0.1161 0 14
3.6199 21.1054 -2.5029 0.1161 0 14
3.2809 21.1608 -2.5029 0.1161 0 14
2.9411 21.2106 -2.5029 0.1161 0 14
2.6006 21.2551 -2.5029 0.1161 0 14
2.2594 21.2941 -2.5029 0.1161 0 14
1.9175 21.3276 -2.5029 0.1161 0 14
1.5752 21.3556 -2.5029 0.1161 0 14
1.2325 21.3781 -2.5029 0.1161 0 14
0.8895 21.3951 -2.5029 0.1161 0 14
0.5463 21.4066 -2.5029 0.1161 0 14
0.2029 21.4126 -2.5029 0.1161 0 14
-0.1406 21.4131 -2.5029 0.1161 0 14
-0.4840 21.4081 -2.5029 0.1161 0 14
-0.8273 21.3976 -2.5029 0.1161 0 14
-1.1703 21.3816 -2.5029 0.1161 0 14
-1.5131 21.3601 -2.5029 0.1161 0 14
-1.8555 21.3331 -2.5029 0.1161 0 14
-2.1974 21.3006 -2.5029 0.1161 0 14
19.6885 2.9738 -2.4953 0.1243 0 8
19.6383 3.2892 -2.4953 0.1243 0 8
19.5830 3.6037 -2.4953 0.1243 0 8
19.5227 3.9173 -2.4953 0.1243 0 8
19.4573 4.2299 -2.4953 0.1243 0 8
19.3870 4.5414 -2.4953 0.1243 0 8
19.3117 4.8518 -2.4953 0.1243 0 8
19.2314 5.1609 -2.4953 0.1243 0 8
19.1461 5.4686 -2.4953 0.1243 0 8
19.0559 5.7750 -2.4953 0.1243 0 8
18.9609 6.0799 -2.4953 0.1243 0 8
18.8609 6.3832 -2.4953 0.1243 0 8
18.7561 6.6849 -2.4953 0.1243 0 8
18.6465 6.9848 -2.4953 0.1243 0 8
18.5321 7.2830 -2.4953 0.1243 0 8
18.4129 7.5792 -2.4953 0.1243 0 8
18.2890 7.8736 -2.4953 0.1243 0 8
18.1603 8.1659 -2.4953 0.1243 0 8
18.0270 8.4561 -2.4953 0.1243 0 8
18.9817 9.2782 -2.6477 0.1243 0 7
18.8304 9.5814 -2.6477 0.1243 0 7
18.6743 9.8822 -2.6477 0.1243 0 7
18.5135 10.1804 -2.6477 0.1243 0 7
18.3478 10.4760 -2.6477 0.1243 0 7
18.1774 10.7690 -2.6477 0.1243 0 7
18.0024 11.0591 -2.6477 0.1243 0 7
17.8227 11.3464 -2.6477 0.1243 0 7
17.6384 11.6308 -2.6477 0.1243 0 7
17.4496 11.9122 -2.6477 0.1243 0 7
17.2563 12.1905 -2.6477 0.1243 0 7
17.0586 12.4657 -2.6477 0.1243 0 7
16.8565 12.7377 -2.6477 0.1243 0 7
16.6500 13.0064 -2.6477 0.1243 0 7
16.4393 13.2717 -2.6477 0.1243 0 7
16.2243 13.5337 -2.6477 0.1243 0 7
16.0052 13.7922 -2.6477 0.1243 0 7
15.7819 14.0471 -2.6477 0.1243 0 7
15.5546 14.2984 -2.6477 0.1243 0 7
15.3233 14.5460 -2.6477 0.1243 0 7
15.0880 14.7899 -2.6477 0.1243 0 7
14.8488 15.0300 -2.6477 0.1243 0 6
14.6059 15.2662 -2.6477 0.1243 0 7
14.3592 15.4985 -2.6477 0.1243 0 7
14.1088 15.7268 -2.6477 0.1243 0 7
13.8547 15.9510 -2.6477 0.1243 0 7
13.5971 16.1712 -2.6477 0.1243 0 7
13.3360 16.3872 -2.6477 0.1243 0 7
13.0715 16.5990 -2.6477 0.1243 0 7
12.8036 16.8066 -2.6477 0.1243 0 7
12.5324 17.0096 -2.6477 0.1243 0 7
12.2580 17.2085 -2.6477 0.1243 0 7
11.9804 17.4028 -2.6477 0.1243 0 7
11.6998 17.5927 -2.6477 0.1243 0 7
11.4161 17.7781 -2.6477 0.1243 0 7
11.1295 17.9589 -2.6477 0.1243 0 7
10.8400 18.1351 -2.6477 0.1243 0 7
10.5478 18.3066 -2.6477 0.1243 0 7
10.2529 18.4735 -2.6477 0.1243 0 6
9.9552 18.6355 -2.6477 0.1243 0 7
9.6551 18.7928 -2.6477 0.1243 0 7
9.3524 18.9452 -2.6477 0.1243 0 7
8.9856 18.9623 -2.6296 0.9031 0 8
8.6171 18.9648 -2.6104 0.9098 0 8
8.2538 18.9672 -2.5922 0.9162 0 8
7.8953 18.9694 -2.5749 0.9223 0 8
7.5415 18.9715 -2.5584 0.9283 0 8
7.1921 18.9734 -2.5428 0.9340 0 8
6.8468 18.9752 -2.5280 0.9395 0 8
6.5053 18.9768 -2.5140 0.9447 0 8
6.1729 18.9947 -2.5029 0.1243 0 8
5.8674 19.0913 -2.5029 0.1243 0 8
5.5605 19.1829 -2.5029 0.1243 0 14
5.2521 19.2697 -2.5029 0.1243 0 14
4.9424 19.3514 -2.5029 0.1243 0 14
4.6314 19.4282 -2.5029 0.1243 0 14
4.3192 19.5000 -2.5029 0.1243 0 14
4.0059 19.5667 -2.5029 0.1243 0 14
3.6916 19.6285 -2.5029 0.1243 0 14
3.3763 19.6852 -2.5029 0.1243 0 14
3.0602 19.7368 -2.5029 0.1243 0 14
2.7432 19.7833 -2.5029 0.1243 0 14
2.4256 19.8248 -2.5029 0.1243 0 14
2.1073 19.8611 -2.5029 0.1243 0 14
1.7885 19.8924 -2.5029 0.1243 0 14
1.4692 19.9185 -2.5029 0.1243 0 14
1.1496 19.9395 -2.5029 0.1243 0 14
0.8297 19.9554 -2.5029 0.1243 0 14
0.5095 19.9661 -2.5029 0.1243 0 14
0.1892 19.9717 -2.5029 0.1243 0 14
-0.1311 19.9722 -2.5029 0.1243 0 14
-0.4514 19.9675 -2.5029 0.1243 0 14
-0.7716 19.9577 -2.5029 0.1243 0 14
-1.0916 19.9428 -2.5029 0.1243 0 14
-1.4113 19.9227 -2.5029 0.1243 0 14
-1.7306 19.8975 -2.5029 0.1243 0 14
-2.0495 19.8672 -2.5029 0.1243 0 14
18.4447 2.7859 -2.4953 0.1326 0 8
18.3976 3.0814 -2.4953 0.1326 0 8
18.3458 3.3760 -2.4953 0.1326 0 8
18.2893 3.6698 -2.4953 0.1326 0 8
18.2281 3.9627 -2.4953 0.1326 0 8
18.1622 4.2545 -2.4953 0.1326 0 8
18.0917 4.5453 -2.4953 0.1326 0 8
18.0164 4.8348 -2.4953 0.1326 0 8
17.9366 5.1232 -2.4953 0.1326 0 8
17.8521 5.4102 -2.4953 0.1326 0 8
17.7630 5.6958 -2.4953 0.1326 0 8
17.6694 5.9799 -2.4953 0.1326 0 8
17.5712 6.2625 -2.4953 0.1326 0 8
17.4685 6.5435 -2.4953 0.1326 0 8
17.3613 6.8229 -2.4953 0.1326 0 8
17.2497 7.1004 -2.4953 0.1326 0 8
17.1336 7.3762 -2.4953 0.1326 0 8
17.0131 7.6500 -2.4953 0.1326 0 8
16.8882 7.9219 -2.4953 0.1326 0 8
16.7590 8.1917 -2.4953 0.1326 0 8
16.6254 8.4595 -2.4953 0.1326 0 8
17.4946 9.2579 -2.6477 0.1326 0 7
17.3439 9.5373 -2.6477 0.1326 0 7
17.1887 9.8142 -2.6477 0.1326 0 7
17.0291 10.0886 -2.6477 0.1326 0 7
16.8651 10.3605 -2.6477 0.1326 0 7
16.6968 10.6296 -2.6477 0.1326 0 7
16.5241 10.8960 -2.6477 0.1326 0 7
16.3473 11.1596 -2.6477 0.1326 0 7
16.1662 11.4204 -2.6477 0.1326 0 6
15.9809 11.6782 -2.6477 0.1326 0 7
15.7916 11.9330 -2.6477 0.1326 0 7
15.5982 12.1847 -2.6477 0.1326 0 7
15.4007 12.4333 -2.6477 0.1326 0 7
15.1994 12.6787 -2.6477 0.1326 0 7
14.9940 12.9208 -2.6477 0.1326 0 7
14.7849 13.1597 -2.6477 0.1326 0 7
14.5719 13.3951 -2.6477 0.1326 0 7
14.3552 13.6271 -2.6477 0.1326 0 7
14.1348 13.8556 -2.6477 0.1326 0 7
13.9108 14.0805 -2.6477 0.1326 0 7
13.6832 14.3018 -2.6477 0.1326 0 7
13.4520 14.5194 -2.6477 0.1326 0 7
13.2175 14.7332 -2.6477 0.1326 0 7
12.9795 14.9433 -2.6477 0.1326 0 6
12.7381 15.1496 -2.6477 0.1326 0 7
12.4935 15.3519 -2.6477 0.1326 0 7
12.2457 15.5503 -2.6477 0.1326 0 7
11.9947 15.7447 -2.6477 0.1326 0 7
11.7407 15.9351 -2.6477 0.1326 0 7
11.4836 16.1213 -2.6477 0.1326 0 7
11.2236 16.3034 -2.6477 0.1326 0 7
10.9606 16.4813 -2.6477 0.1326 0 7
10.6949 16.6550 -2.6477 0.1326 0 7
10.4264 16.8244 -2.6477 0.1326 0 7
10.1552 16.9894 -2.6477 0.1326 0 7
9.8814 17.1501 -2.6477 0.1326 0 7
9.6051 17.3064 -2.6477 0.1326 0 7
9.3263 17.4582 -2.6477 0.1326 0 7
9.0451 17.6055 -2.6477 0.1326 0 7
8.7616 17.7484 -2.6477 0.1326 0 7
8.4758 17.8866 -2.6477 0.1326 0 7
8.1879 18.0202 -2.6477 0.1326 0 7
7.8978 18.1492 -2.6477 0.1326 0 7
7.6057 18.2736 -2.6477 0.1326 0 7
7.3117 18.3932 -2.6477 0.1326 0 6
7.0157 18.5081 -2.6477 0.1326 0 6
6.7180 18.6182 -2.6477 0.1326 0 7
6.4185 18.7236 -2.6477 0.1326 0 7
6.1174 18.8241 -2.6477 0.1326 0 7
5.8147 18.9198 -2.6477 0.1326 0 7
5.4932 18.9508 -2.6393 0.9595 0 8
5.1655 18.9521 -2.6276 0.9637 0 8
4.8407 18.9532 -2.6167 0.9678 0 8
4.5184 18.9542 -2.6065 0.9715 0 8
4.1985 18.9550 -2.5970 0.9751 0 8
3.8808 18.9558 -2.5883 0.9784 0 8
3.5652 18.9564 -2.5802 0.9814 0 8
3.2514 18.9569 -2.5728 0.9843 0 8
2.9393 18.9573 -2.5662 0.9868 0 8
2.6287 18.9575 -2.5602 0.9891 0 8
2.3195 18.9576 -2.5548 0.9912 0 8
2.0115 18.9577 -2.5501 0.9930 0 8
1.7045 18.9575 -2.5461 0.9946 0 8
1.3983 18.9573 -2.5427 0.9959 0 8
1.0930 18.9570 -2.5400 0.9970 0 8
0.7881 18.9565 -2.5379 0.9978 0 8
0.4837 18.9559 -2.5365 0.9984 0 8
0.1796 18.9552 -2.5357 0.9987 0 8
-0.1245 18.9564 -2.5358 0.9970 0 8
-0.4285 18.9552 -2.5362 0.9986 0 8
-0.7328 18.9534 -2.5372 0.9982 0 8
-1.0373 18.9515 -2.5389 0.9976 0 8
-1.3424 18.9500 -2.5412 0.9965 0 8
-1.6481 18.9486 -2.5443 0.9953 0 8
-1.9546 18.9470 -2.5479 0.9939 0 8
17.3464 2.6200 -2.4953 0.1408 0 8
17.3021 2.8979 -2.4953 0.1408 0 8
17.2534 3.1750 -2.4953 0.1408 0 8
17.2003 3.4513 -2.4953 0.1408 0 8
17.1427 3.7267 -2.4953 0.1408 0 8
17.0807 4.0012 -2.4953 0.1408 0 8
17.0144 4.2746 -2.4953 0.1408 0 8
16.9436 4.5469 -2.4953 0.1408 0 8
16.8685 4.8181 -2.4953 0.1408 0 8
16.7891 5.0880 -2.4953 0.1408 0 8
16.7053 5.3566 -2.4953 0.1408 0 8
16.6173 5.6239 -2.4953 0.1408 0 8
16.5249 5.8896 -2.4953 0.1408 0 8
16.4284 6.1539 -2.4953 0.1408 0 8
16.3275 6.4166 -2.4953 0.1408 0 8
16.2225 6.6776 -2.4953 0.1408 0 8
16.1133 6.9370 -2.4953 0.1408 0 8
16.0000 7.1945 -2.4953 0.1408 0 8
15.8826 7.4502 -2.4953 0.1408 0 8
15.7610 7.7039 -2.4953 0.1408 0 8
15.6355 7.9557 -2.4953 0.1408 0 8
15.5059 8.2055 -2.4953 0.1408 0 8
15.3723 8.4531 -2.4953 0.1408 0 8
16.1652 9.2298 -2.6477 0.1408 0 7
16.0151 9.4879 -2.6477 0.1408 0 7
15.8608 9.7435 -2.6477 0.1408 0 7
15.7025 9.9967 -2.6477 0.1408 0 7
15.5402 10.2472 -2.6477 0.1408 0 7
15.3738 10.4951 -2.6477 0.1408 0 7
15.2035 10.7403 -2.6477 0.1408 0 7
15.0293 10.9828 -2.6477 0.1408 0 7
14.8513 11.2224 -2.6477 0.1408 0 7
14.6694 11.4592 -2.6477 0.1408 0 6
14.4837 11.6930 -2.6477 0.1408 0 7
14.2943 11.9237 -2.6477 0.1408 0 7
14.1012 12.1515 -2.6477 0.1408 0 7
13.9045 12.3761 -2.6477 0.1408 0 7
13.7042 12.5975 -2.6477 0.1408 0 7
13.5004 12.8156 -2.6477 0.1408 0 7
13.2932 13.0305 -2.6477 0.1408 0 7
13.0825 13.2420 -2.6477 0.1408 0 7
12.8684 13.4502 -2.6477 0.1408 0 7
12.6510 13.6548 -2.6477 0.1408 0 7
12.4304 13.8559 -2.6477 0.1408 0 7
12.2066 14.0535 -2.6477 0.1408 0 7
11.9796 14.2475 -2.6477 0.1408 0 7
11.7496 14.4378 -2.6477 0.1408 0 7
11.5165 14.6244 -2.6477 0.1408 0 7
11.2805 14.8072 -2.6477 0.1408 0 7
11.0416 14.9862 -2.6477 0.1408 0 7
10.7998 15.1614 -2.6477 0.1408 0 7
10.5552 15.3326 -2.6477 0.1408 0 7
10.3080 15.4999 -2.6477 0.1408 0 7
10.0581 15.6633 -2.6477 0.1408 0 7
9.8056 15.8226 -2.6477 0.1408 0 7
9.5505 15.9778 -2.6477 0.1408 0 7
9.2931 16.1289 -2.6477 0.1408 0 7
9.0332 16.2759 -2.6477 0.1408 0 7
8.7710 16.4187 -2.6477 0.1408 0 7
8.5065 16.5572 -2.6477 0.1408 0 7
8.2399 16.6915 -2.6477 0.1408 0 7
7.9711 16.8215 -2.6477 0.1408 0 7
7.7003 16.9472 -2.6477 0.1408 0 7
7.4275 17.0685 -2.6477 0.1408 0 7
7.1528 17.1855 -2.6477 0.1408 0 7
6.8763 17.2980 -2.6477 0.1408 0 7
6.5980 17.4060 -2.6477 0.1408 0 7
6.3180 17.5096 -2.6477 0.1408 0 7
6.0363 17.6087 -2.6477 0.1408 0 7
5.7531 17.7032 -2.6477 0.1408 0 7
5.4685 17.7932 -2.6477 0.1408 0 7
5.1824 17.8786 -2.6477 0.1408 0 7
4.8950 17.9594 -2.6477 0.1408 0 7
4.6063 18.0356 -2.6477 0.1408 0 7
4.3165 18.1072 -2.6477 0.1408 0 7
4.0255 18.1741 -2.6477 0.1408 0 7
3.7335 18.2363 -2.6477 0.1408 0 7
3.4406 18.2939 -2.6477 0.1408 0 7
3.1467 18.3467 -2.6477 0.1408 0 7
2.8521 18.3948 -2.6477 0.1408 0 6
2.5567 18.4382 -2.6477 0.1408 0 6
2.2606 18.4768 -2.6477 0.1408 0 6
1.9640 18.5107 -2.6477 0.1408 0 7
1.6669 18.5398 -2.6477 0.1408 0 7
1.3693 18.5641 -2.6477 0.1408 0 7
1.0714 18.5837 -2.6477 0.1408 0 7
0.7732 18.5985 -2.6477 0.1408 0 7
0.4748 18.6085 -2.6477 0.1408 0 7
0.1763 18.6137 -2.6477 0.1408 0 7
-0.1222 18.6142 -2.6477 0.1408 0 7
-0.4207 18.6098 -2.6477 0.1408 0 7
-0.7191 18.6007 -2.6477 0.1408 0 7
-1.0174 18.5868 -2.6477 0.1408 0 7
-1.3154 18.5681 -2.6477 0.1408 0 7
-1.6129 18.5446 -2.6477 0.1408 0 7
-1.9102 18.5163 -2.6477 0.1408 0 7
16.3694 2.4724 -2.4953 0.1490 0 8
16.3276 2.7347 -2.4953 0.1490 0 8
16.2817 2.9962 -2.4953 0.1490 0 8
16.2315 3.2569 -2.4953 0.1490 0 8
16.1772 3.5168 -2.4953 0.1490 0 8
16.1187 3.7758 -2.4953 0.1490 0 8
16.0561 4.0338 -2.4953 0.1490 0 8
15.9893 4.2908 -2.4953 0.1490 0 8
15.9184 4.5467 -2.4953 0.1490 0 8
15.8435 4.8014 -2.4953 0.1490 0 8
15.7644 5.0549 -2.4953 0.1490 0 8
15.6813 5.3071 -2.4953 0.1490 0 8
15.5942 5.5579 -2.4953 0.1490 0 8
15.5030 5.8073 -2.4953 0.1490 0 8
15.4079 6.0552 -2.4953 0.1490 0 8
15.3088 6.3015 -2.4953 0.1490 0 8
15.2058 6.5462 -2.4953 0.1490 0 8
15.0988 6.7893 -2.4953 0.1490 0 8
14.9880 7.0306 -2.4953 0.1490 0 8
14.8733 7.2700 -2.4953 0.1490 0 8
14.7548 7.5076 -2.4953 0.1490 0 8
14.6325 7.7433 -2.4953 0.1490 0 8
14.5064 7.9770 -2.4953 0.1490 0 8
14.3766 8.2086 -2.4953 0.1490 0 8
14.2431 8.4381 -2.4953 0.1490 0 8
14.9675 9.1947 -2.6477 0.1490 0 7
14.8181 9.4336 -2.6477 0.1490 0 7
14.6649 9.6701 -2.6477 0.1490 0 7
14.5079 9.9040 -2.6477 0.1490 0 7
14.3472 10.1354 -2.6477 0.1490 0 7
14.1828 10.3642 -2.6477 0.1490 0 7
14.0148 10.5903 -2.6477 0.1490 0 7
13.8431 10.8137 -2.6477 0.1490 0 7
13.6679 11.0344 -2.6477 0.1490 0 7
13.4892 11.2522 -2.6477 0.1490 0 7
13.3070 11.4671 -2.6477 0.1490 0 6
13.1214 11.6790 -2.6477 0.1490 0 7
12.9324 11.8879 -2.6477 0.1490 0 7
12.7400 12.0938 -2.6477 0.1490 0 7
12.5445 12.2966 -2.6477 0.1490 0 7
12.3456 12.4962 -2.6477 0.1490 0 7
12.1436 12.6926 -2.6477 0.1490 0 7
11.9385 12.8857 -2.6477 0.1490 0 7
11.7303 13.0755 -2.6477 0.1490 0 7
11.5191 13.2620 -2.6477 0.1490 0 7
11.3049 13.4450 -2.6477 0.1490 0 7
11.0878 13.6246 -2.6477 0.1490 0 7
10.8679 13.8007 -2.6477 0.1490 0 7
10.6451 13.9732 -2.6477 0.1490 0 7
10.4197 14.1421 -2.6477 0.1490 0 7
10.1915 14.3074 -2.6477 0.1490 0 7
9.9607 14.4690 -2.6477 0.1490 0 7
9.7274 14.6269 -2.6477 0.1490 0 7
9.4916 14.7811 -2.6477 0.1490 0 7
9.2533 14.9314 -2.6477 0.1490 0 7
9.0126 15.0779 -2.6477 0.1490 0 7
8.7696 15.2205 -2.6477 0.1490 0 7
8.5244 15.3592 -2.6477 0.1490 0 7
8.2770 15.4939 -2.6477 0.1490 0 7
8.0274 15.6247 -2.6477 0.1490 0 7
7.7758 15.7514 -2.6477 0.1490 0 7
7.5222 15.8741 -2.6477 0.1490 0 7
7.2666 15.9927 -2.6477 0.1490 0 7
7.0092 16.1072 -2.6477 0.1490 0 7
6.7499 16.2175 -2.6477 0.1490 0 7
6.4890 16.3237 -2.6477 0.1490 0 7
6.2263 16.4256 -2.6477 0.1490 0 7
5.9621 16.5234 -2.6477 0.1490 0 7
5.6963 16.6169 -2.6477 0.1490 0 7
5.4291 16.7061 -2.6477 0.1490 0 7
5.1605 16.7910 -2.6477 0.1490 0 7
4.8905 16.8716 -2.6477 0.1490 0 7
4.6193 16.9479 -2.6477 0.1490 0 7
4.3469 17.0198 -2.6477 0.1490 0 7
4.0734 17.0873 -2.6477 0.1490 0 7
3.7988 17.1505 -2.6477 0.1490 0 7
3.5232 17.2092 -2.6477 0.1490 0 7
3.2468 17.2635 -2.6477 0.1490 0 7
2.9695 17.3133 -2.6477 0.1490 0 7
2.6914 17.3587 -2.6477 0.1490 0 7
2.4127 17.3997 -2.6477 0.1490 0 7
2.1333 17.4361 -2.6477 0.1490 0 7
1.8534 17.4681 -2.6477 0.1490 0 7
1.5730 17.4956 -2.6477 0.1490 0 7
1.2922 17.5185 -2.6477 0.1490 0 7
1.0111 17.5370 -2.6477 0.1490 0 7
0.7297 17.5510 -2.6477 0.1490 0 7
0.4481 17.5604 -2.6477 0.1490 0 7
0.1664 17.5654 -2.6477 0.1490 0 7
-0.1153 17.5658 -2.6477 0.1490 0 7
-0.3970 17.5617 -2.6477 0.1490 0 7
-0.6786 17.5530 -2.6477 0.1490 0 7
-0.9601 17.5399 -2.6477 0.1490 0 7
-1.2412 17.5222 -2.6477 0.1490 0 7
-1.5221 17.5001 -2.6477 0.1490 0 7
-1.8026 17.4734 -2.6477 0.1490 0 7
15.4945 2.3403 -2.4953 0.1573 0 8
15.4549 2.5885 -2.4953 0.1573 0 8
15.4114 2.8360 -2.4953 0.1573 0 8
15.3640 3.0828 -2.4953 0.1573 0 8
15.3126 3.3289 -2.4953 0.1573 0 8
15.2572 3.5740 -2.4953 0.1573 0 8
15.1979 3.8183 -2.4953 0.1573 0 8
15.1347 4.0615 -2.4953 0.1573 0 8
15.0676 4.3037 -2.4953 0.1573 0 8
14.9967 4.5448 -2.4953 0.1573 0 8
14.9219 4.7847 -2.4953 0.1573 0 8
14.8432 5.0235 -2.4953 0.1573 0 8
14.7607 5.2609 -2.4953 0.1573 0 8
14.6745 5.4969 -2.4953 0.1573 0 8
14.5844 5.7316 -2.4953 0.1573 0 8
14.4906 5.9647 -2.4953 0.1573 0 8
14.3931 6.1964 -2.4953 0.1573 0 8
