ply
format ascii 1.0
element vertex 1348
property float32 x
property float32 y
property float32 z
property float32 CosAngle
property uint32 ObjIdx
property uint32 ObjTag
end_header
3.5162 33.1109 -2.4953 0.0747 0 8
2.9824 33.1633 -2.4953 0.0747 0 8
2.4478 33.2070 -2.4953 0.0747 0 8
1.9126 33.2421 -2.4953 0.0747 0 8
1.3768 33.2686 -2.4953 0.0747 0 8
0.8408 33.2865 -2.4953 0.0747 0 8
0.3045 33.2957 -2.4953 0.0747 0 8
-0.2319 33.2963 -2.4953 0.0747 0 8
-0.7682 33.2882 -2.4953 0.0747 0 8
-1.3043 33.2715 -2.4953 0.0747 0 8
-1.8401 33.2462 -2.4953 0.0747 0 8
-2.3753 33.2123 -2.4953 0.0747 0 8
-2.9100 33.1697 -2.4953 0.0747 0 8
-3.4440 33.1185 -2.4953 0.0747 0 8
-3.9770 33.0587 -2.4953 0.0747 0 8
-4.5090 32.9904 -2.4953 0.0747 0 8
-5.0398 32.9135 -2.4953 0.0747 0 8
-5.5809 32.8960 -2.5004 0.7485 0 8
-6.1267 32.8912 -2.5072 0.9781 0 8
-6.6760 32.8883 -2.5149 0.9751 0 8
-7.2288 32.8852 -2.5232 0.9719 0 8
-7.7854 32.8820 -2.5323 0.9684 0 8
-8.3461 32.8786 -2.5421 0.9647 0 8
-8.9113 32.8751 -2.5526 0.9607 0 8
-9.4812 32.8714 -2.5638 0.9565 0 8
-10.0564 32.8676 -2.5758 0.9520 0 8
-10.6370 32.8636 -2.5886 0.9473 0 8
-11.2236 32.8595 -2.6022 0.9424 0 8
-11.8164 32.8552 -2.6165 0.9372 0 8
-12.4160 32.8507 -2.6318 0.9318 0 8
-12.9910 32.7661 -2.6414 0.0904 0 8
-13.5323 32.5892 -2.6444 0.0903 0 8
-14.0720 32.4049 -2.6475 0.0902 0 8
-14.5931 32.1761 -2.6477 0.0747 0 7
-15.1094 31.9369 -2.6477 0.0747 0 7
-15.6220 31.6894 -2.6477 0.0747 0 7
-16.1304 31.4336 -2.6477 0.0747 0 7
-16.6346 31.1697 -2.6477 0.0747 0 7
-17.1345 30.8977 -2.6477 0.0747 0 7
-17.6300 30.6177 -2.6477 0.0747 0 7
-18.1209 30.3297 -2.6477 0.0747 0 7
-18.6071 30.0339 -2.6477 0.0747 0 7
-19.0885 29.7303 -2.6477 0.0747 0 7
-19.5649 29.4189 -2.6477 0.0747 0 7
-20.0363 29.1000 -2.6477 0.0747 0 7
-20.5024 28.7735 -2.6477 0.0747 0 7
-20.9632 28.4395 -2.6477 0.0747 0 7
-21.4186 28.0981 -2.6477 0.0747 0 7
-21.8684 27.7494 -2.6477 0.0747 0 7
-22.3126 27.3936 -2.6477 0.0747 0 7
-22.7510 27.0306 -2.6477 0.0747 0 7
-23.1834 26.6606 -2.6477 0.0747 0 7
-23.6099 26.2837 -2.6477 0.0747 0 7
-24.0302 25.9000 -2.6477 0.0747 0 7
-24.4443 25.5096 -2.6477 0.0747 0 7
-24.8520 25.1125 -2.6477 0.0747 0 7
-25.2533 24.7089 -2.6477 0.0747 0 7
-25.6480 24.2990 -2.6477 0.0747 0 7
-26.0361 23.8827 -2.6477 0.0747 0 7
-24.9729 22.1773 -2.5029 0.0747 0 14
-25.3269 21.7722 -2.5029 0.0747 0 14
-25.6743 21.3614 -2.5029 0.0747 0 14
-26.0151 20.9451 -2.5029 0.0747 0 14
-26.3491 20.5233 -2.5029 0.0747 0 14
-26.6762 20.0962 -2.5029 0.0747 0 14
-26.9965 19.6639 -2.5029 0.0747 0 14
-27.3097 19.2265 -2.5029 0.0747 0 14
-27.7588 18.8813 -2.5158 0.5673 0 8
-28.7229 18.8676 -2.5753 0.5542 0 8
-29.7338 18.8531 -2.6384 0.5410 0 8
-30.1391 18.4362 -2.6477 0.0747 0 7
-30.4322 17.9483 -2.6477 0.0747 0 7
-30.7174 17.4558 -2.6477 0.0747 0 6
-30.9945 16.9587 -2.6477 0.0747 0 7
-31.2637 16.4573 -2.6477 0.0747 0 7
-31.5248 15.9516 -2.6477 0.0747 0 7
-31.7776 15.4417 -2.6477 0.0747 0 7
-32.0222 14.9278 -2.6477 0.0747 0 7
-32.2585 14.4100 -2.6477 0.0747 0 7
-32.4864 13.8885 -2.6477 0.0747 0 7
-32.7060 13.3634 -2.6477 0.0747 0 7
-32.9170 12.8349 -2.6477 0.0747 0 7
-33.1194 12.3030 -2.6477 0.0747 0 7
-33.3133 11.7679 -2.6477 0.0747 0 7
-33.4986 11.2298 -2.6477 0.0747 0 7
-33.6751 10.6887 -2.6477 0.0747 0 7
-33.8430 10.1449 -2.6477 0.0747 0 7
-34.0019 9.5985 -2.6477 0.0747 0 7
-34.1521 9.0495 -2.6477 0.0747 0 7
-34.2935 8.4982 -2.6477 0.0747 0 7
-32.4443 7.4874 -2.4953 0.0747 0 8
-32.5607 6.9638 -2.4953 0.0747 0 8
-32.6687 6.4384 -2.4953 0.0747 0 8
-32.7682 5.9113 -2.4953 0.0747 0 8
-32.8591 5.3827 -2.4953 0.0747 0 8
-32.9416 4.8528 -2.4953 0.0747 0 8
-33.0155 4.3215 -2.4953 0.0747 0 8
-33.0808 3.7892 -2.4953 0.0747 0 8
-33.1375 3.2558 -2.4953 0.0747 0 8
-33.1857 2.7216 -2.4953 0.0747 0 8
-33.2252 2.1866 -2.4953 0.0747 0 8
-33.2561 1.6512 -2.4953 0.0747 0 8
-33.2784 1.1152 -2.4953 0.0747 0 8
-33.2921 0.5791 -2.4953 0.0747 0 8
-33.2971 0.0427 -2.4953 0.0747 0 8
-33.2934 -0.4937 -2.4953 0.0747 0 8
-33.2812 -1.0299 -2.4953 0.0747 0 8
-33.2603 -1.5659 -2.4953 0.0747 0 8
-33.2307 -2.1014 -2.4953 0.0747 0 8
-33.1926 -2.6364 -2.4953 0.0747 0 8
-33.1458 -3.1707 -2.4953 0.0747 0 8
-33.0905 -3.7043 -2.4953 0.0747 0 8
-33.0265 -4.2368 -2.4953 0.0747 0 8
-32.9539 -4.7682 -2.4953 0.0747 0 8
-32.8728 -5.2984 -2.4953 0.0747 0 8
-32.7832 -5.8273 -2.4953 0.0747 0 8
-32.6851 -6.3546 -2.4953 0.0747 0 8
-32.5785 -6.8803 -2.4953 0.0747 0 8
-32.4634 -7.4041 -2.4953 0.0747 0 8
-32.3400 -7.9261 -2.4953 0.0747 0 8
-32.2081 -8.4460 -2.4953 0.0747 0 8
-32.0679 -8.9637 -2.4953 0.0747 0 8
-31.9193 -9.4791 -2.4953 0.0747 0 8
-31.7625 -9.9920 -2.4953 0.0747 0 8
-31.5974 -10.5024 -2.4953 0.0747 0 8
-31.4242 -11.0098 -2.4953 0.0747 0 8
-31.2427 -11.5151 -2.4953 0.0747 0 8
-31.0532 -12.0168 -2.4953 0.0747 0 8
-30.8556 -12.5151 -2.4953 0.0747 0 8
-30.6500 -13.0105 -2.4953 0.0747 0 8
-30.4365 -13.5026 -2.4953 0.0747 0 8
-30.2150 -13.9911 -2.4953 0.0747 0 8
-29.9857 -14.4760 -2.4953 0.0747 0 8
-29.7486 -14.9571 -2.4953 0.0747 0 8
-29.5039 -15.4343 -2.4953 0.0747 0 8
-29.2514 -15.9076 -2.4953 0.0747 0 8
-28.9914 -16.3767 -2.4953 0.0747 0 8
17.2304 26.7080 -2.6477 0.0830 0 7
16.7980 26.9821 -2.6477 0.0830 0 7
16.3611 27.2491 -2.6477 0.0830 0 7
15.9201 27.5092 -2.6477 0.0830 0 7
15.4749 27.7620 -2.6477 0.0830 0 7
15.0257 28.0077 -2.6477 0.0830 0 7
14.5726 28.2461 -2.6477 0.0830 0 7
14.1157 28.4772 -2.6477 0.0830 0 7
13.6552 28.7009 -2.6477 0.0830 0 7
13.1911 28.9171 -2.6477 0.0830 0 7
12.7236 29.1258 -2.6477 0.0830 0 7
12.2528 29.3270 -2.6477 0.0830 0 7
11.7788 29.5206 -2.6477 0.0830 0 7
11.3017 29.7065 -2.6477 0.0830 0 7
10.8218 29.8847 -2.6477 0.0830 0 7
10.3390 30.0551 -2.6477 0.0830 0 7
9.8535 30.2177 -2.6477 0.0830 0 7
9.3655 30.3725 -2.6477 0.0830 0 7
8.8750 30.5195 -2.6477 0.0830 0 7
8.3823 30.6584 -2.6477 0.0830 0 7
7.8873 30.7895 -2.6477 0.0830 0 7
7.3903 30.9125 -2.6477 0.0830 0 7
6.8914 31.0276 -2.6477 0.0830 0 7
6.3907 31.1346 -2.6477 0.0830 0 7
5.8884 31.2335 -2.6477 0.0830 0 7
5.3845 31.3243 -2.6477 0.0830 0 7
4.8792 31.4069 -2.6477 0.0830 0 7
4.3727 31.4815 -2.6477 0.0830 0 7
3.8650 31.5478 -2.6477 0.0830 0 7
3.3564 31.6060 -2.6477 0.0830 0 7
2.8468 31.6559 -2.6477 0.0830 0 7
2.3365 31.6977 -2.6477 0.0830 0 7
1.8256 31.7312 -2.6477 0.0830 0 7
1.3143 31.7565 -2.6477 0.0830 0 7
0.8026 31.7736 -2.6477 0.0830 0 7
0.2906 31.7824 -2.6477 0.0830 0 7
-0.2213 31.7829 -2.6477 0.0830 0 7
-0.7333 31.7752 -2.6477 0.0830 0 7
-1.2450 31.7593 -2.6477 0.0830 0 7
-1.7564 31.7351 -2.6477 0.0830 0 7
-2.2674 31.7027 -2.6477 0.0830 0 7
-2.7778 31.6621 -2.6477 0.0830 0 7
-3.2874 31.6132 -2.6477 0.0830 0 7
-3.7962 31.5562 -2.6477 0.0830 0 7
-4.3040 31.4909 -2.6477 0.0830 0 7
-4.8107 31.4175 -2.6477 0.0830 0 7
-5.3162 31.3359 -2.6477 0.0830 0 7
-5.8203 31.2462 -2.6477 0.0830 0 7
-6.3228 31.1484 -2.6477 0.0830 0 7
-6.8237 31.0425 -2.6477 0.0830 0 7
-7.3229 30.9286 -2.6477 0.0830 0 7
-7.8202 30.8066 -2.6477 0.0830 0 7
-8.3154 30.6767 -2.6477 0.0830 0 7
-8.8084 30.5387 -2.6477 0.0830 0 7
-9.2992 30.3929 -2.6477 0.0830 0 7
-9.7876 30.2391 -2.6477 0.0830 0 7
-10.2734 30.0776 -2.6477 0.0830 0 7
-10.7565 29.9082 -2.6477 0.0830 0 6
-11.2369 29.7310 -2.6477 0.0830 0 7
-11.7144 29.5462 -2.6477 0.0830 0 7
-12.1888 29.3537 -2.6477 0.0830 0 7
-12.6600 29.1535 -2.6477 0.0830 0 7
-13.1280 28.9458 -2.6477 0.0830 0 7
-13.5925 28.7306 -2.6477 0.0830 0 7
-14.0536 28.5079 -2.6477 0.0830 0 7
-14.5110 28.2778 -2.6477 0.0830 0 7
-14.9646 28.0404 -2.6477 0.0830 0 7
-15.4143 27.7957 -2.6477 0.0830 0 7
-15.8600 27.5438 -2.6477 0.0830 0 7
-16.3017 27.2848 -2.6477 0.0830 0 7
-16.7391 27.0186 -2.6477 0.0830 0 7
-17.1721 26.7455 -2.6477 0.0830 0 7
-17.6007 26.4654 -2.6477 0.0830 0 7
-18.0247 26.1785 -2.6477 0.0830 0 7
-18.4441 25.8847 -2.6477 0.0830 0 7
-18.8586 25.5843 -2.6477 0.0830 0 7
-19.2683 25.2772 -2.6477 0.0830 0 7
-19.6730 24.9635 -2.6477 0.0830 0 7
-20.0725 24.6434 -2.6477 0.0830 0 7
-20.4669 24.3169 -2.6477 0.0830 0 7
-20.8559 23.9840 -2.6477 0.0830 0 7
-21.2395 23.6450 -2.6477 0.0830 0 7
-20.4356 22.0257 -2.5029 0.0830 0 14
-20.7877 21.6937 -2.5029 0.0830 0 14
-21.1345 21.3560 -2.5029 0.0830 0 14
-21.4757 21.0128 -2.5029 0.0830 0 14
-21.8114 20.6641 -2.5029 0.0830 0 14
-22.1414 20.3101 -2.5029 0.0830 0 14
-22.4657 19.9508 -2.5029 0.0830 0 14
-22.7842 19.5863 -2.5029 0.0830 0 14
-23.0967 19.2168 -2.5029 0.0830 0 14
-23.4686 18.8948 -2.5099 0.5021 0 8
-24.2431 18.8829 -2.5598 0.6194 0 8
-25.0497 18.8709 -2.6126 0.6069 0 8
-25.6910 18.7130 -2.6477 0.0830 0 7
-25.9891 18.2967 -2.6477 0.0830 0 7
-26.2804 17.8757 -2.6477 0.0830 0 7
-26.5650 17.4501 -2.6477 0.0830 0 7
-26.8426 17.0199 -2.6477 0.0830 0 7
-27.1133 16.5853 -2.6477 0.0830 0 7
-27.3769 16.1464 -2.6477 0.0830 0 7
-27.6335 15.7033 -2.6477 0.0830 0 7
-27.8828 15.2562 -2.6477 0.0830 0 7
-28.1250 14.8050 -2.6477 0.0830 0 7
-28.3598 14.3501 -2.6477 0.0830 0 7
-28.5873 13.8914 -2.6477 0.0830 0 7
-28.8073 13.4291 -2.6477 0.0830 0 7
-29.0199 12.9633 -2.6477 0.0830 0 7
-29.2250 12.4942 -2.6477 0.0830 0 7
-29.4224 12.0218 -2.6477 0.0830 0 7
-29.6122 11.5463 -2.6477 0.0830 0 7
-29.7944 11.0678 -2.6477 0.0830 0 7
-29.9688 10.5865 -2.6477 0.0830 0 7
-30.1355 10.1023 -2.6477 0.0830 0 7
-30.2943 9.6156 -2.6477 0.0830 0 7
-30.4452 9.1264 -2.6477 0.0830 0 7
-28.8276 8.1378 -2.4953 0.0830 0 8
-28.9550 7.6724 -2.4953 0.0830 0 8
-29.0748 7.2049 -2.4953 0.0830 0 8
-29.1871 6.7357 -2.4953 0.0830 0 8
-29.2918 6.2646 -2.4953 0.0830 0 8
-29.3889 5.7920 -2.4953 0.0830 0 8
-29.4784 5.3178 -2.4953 0.0830 0 8
-29.5602 4.8424 -2.4953 0.0830 0 8
-29.6344 4.3656 -2.4953 0.0830 0 8
-29.7009 3.8876 -2.4953 0.0830 0 8
-29.7596 3.4087 -2.4953 0.0830 0 8
-29.8107 2.9289 -2.4953 0.0830 0 8
-29.8540 2.4483 -2.4953 0.0830 0 8
-29.8896 1.9671 -2.4953 0.0830 0 8
-29.9174 1.4854 -2.4953 0.0830 0 8
-29.9374 1.0033 -2.4953 0.0830 0 8
-29.9497 0.5209 -2.4953 0.0830 0 8
-29.9542 0.0384 -2.4953 0.0830 0 8
-29.9509 -0.4441 -2.4953 0.0830 0 8
-29.9399 -0.9265 -2.4953 0.0830 0 8
-29.9211 -1.4086 -2.4953 0.0830 0 8
-29.8945 -1.8904 -2.4953 0.0830 0 8
-29.8602 -2.3717 -2.4953 0.0830 0 8
-29.8181 -2.8524 -2.4953 0.0830 0 8
-29.7683 -3.3324 -2.4953 0.0830 0 8
-29.7107 -3.8114 -2.4953 0.0830 0 8
-29.6455 -4.2895 -2.4953 0.0830 0 8
-29.5725 -4.7665 -2.4953 0.0830 0 8
-29.4919 -5.2422 -2.4953 0.0830 0 8
-29.4037 -5.7166 -2.4953 0.0830 0 8
-29.3078 -6.1895 -2.4953 0.0830 0 8
-29.2043 -6.6608 -2.4953 0.0830 0 8
-29.0932 -7.1304 -2.4953 0.0830 0 8
-28.9745 -7.5981 -2.4953 0.0830 0 8
-28.8484 -8.0638 -2.4953 0.0830 0 8
-28.7148 -8.5274 -2.4953 0.0830 0 8
-28.5737 -8.9889 -2.4953 0.0830 0 8
-28.4252 -9.4480 -2.4953 0.0830 0 8
-28.2693 -9.9046 -2.4953 0.0830 0 8
-28.1061 -10.3587 -2.4953 0.0830 0 8
-27.9356 -10.8101 -2.4953 0.0830 0 8
-27.7578 -11.2587 -2.4953 0.0830 0 8
-27.5729 -11.7043 -2.4953 0.0830 0 8
-27.3808 -12.1470 -2.4953 0.0830 0 8
-27.1815 -12.5865 -2.4953 0.0830 0 8
-26.9753 -13.0226 -2.4953 0.0830 0 8
-26.7620 -13.4555 -2.4953 0.0830 0 8
-26.5418 -13.8848 -2.4953 0.0830 0 8
-26.3147 -14.3106 -2.4953 0.0830 0 8
-26.0808 -14.7326 -2.4953 0.0830 0 8
15.6564 24.2682 -2.6477 0.0913 0 7
15.2635 24.5173 -2.6477 0.0913 0 7
14.8666 24.7599 -2.6477 0.0913 0 7
14.4658 24.9962 -2.6477 0.0913 0 7
14.0613 25.2260 -2.6477 0.0913 0 7
13.6531 25.4492 -2.6477 0.0913 0 7
13.2414 25.6658 -2.6477 0.0913 0 7
12.8262 25.8758 -2.6477 0.0913 0 7
12.4078 26.0790 -2.6477 0.0913 0 7
11.9861 26.2755 -2.6477 0.0913 0 7
11.5613 26.4652 -2.6477 0.0913 0 7
11.1335 26.6480 -2.6477 0.0913 0 7
10.7028 26.8239 -2.6477 0.0913 0 7
10.2693 26.9928 -2.6477 0.0913 0 7
9.8332 27.1547 -2.6477 0.0913 0 7
9.3945 27.3096 -2.6477 0.0913 0 7
8.9534 27.4574 -2.6477 0.0913 0 7
8.5099 27.5980 -2.6477 0.0913 0 7
8.0643 27.7315 -2.6477 0.0913 0 7
7.6165 27.8578 -2.6477 0.0913 0 7
7.1668 27.9769 -2.6477 0.0913 0 7
6.7152 28.0887 -2.6477 0.0913 0 7
6.2619 28.1932 -2.6477 0.0913 0 7
5.8070 28.2904 -2.6477 0.0913 0 7
5.3505 28.3803 -2.6477 0.0913 0 7
4.8927 28.4628 -2.6477 0.0913 0 7
4.4335 28.5379 -2.6477 0.0913 0 7
3.9733 28.6056 -2.6477 0.0913 0 7
3.5120 28.6659 -2.6477 0.0913 0 7
3.0498 28.7188 -2.6477 0.0913 0 7
2.5868 28.7642 -2.6477 0.0913 0 7
2.1231 28.8021 -2.6477 0.0913 0 7
1.6589 28.8326 -2.6477 0.0913 0 7
1.1942 28.8556 -2.6477 0.0913 0 7
0.7293 28.8711 -2.6477 0.0913 0 7
0.2641 28.8791 -2.6477 0.0913 0 7
-0.2011 28.8796 -2.6477 0.0913 0 7
-0.6663 28.8726 -2.6477 0.0913 0 7
-1.1313 28.8581 -2.6477 0.0913 0 7
-1.5960 28.8361 -2.6477 0.0913 0 7
-2.0603 28.8067 -2.6477 0.0913 0 7
-2.5240 28.7698 -2.6477 0.0913 0 7
-2.9871 28.7254 -2.6477 0.0913 0 7
-3.4494 28.6735 -2.6477 0.0913 0 7
-3.9109 28.6142 -2.6477 0.0913 0 7
-4.3713 28.5475 -2.6477 0.0913 0 7
-4.8306 28.4734 -2.6477 0.0913 0 7
-5.2886 28.3919 -2.6477 0.0913 0 7
-5.7452 28.3030 -2.6477 0.0913 0 7
-6.2004 28.2068 -2.6477 0.0913 0 7
-6.6540 28.1033 -2.6477 0.0913 0 7
-7.1058 27.9925 -2.6477 0.0913 0 7
-7.5558 27.8744 -2.6477 0.0913 0 7
-8.0038 27.7490 -2.6477 0.0913 0 7
-8.4497 27.6165 -2.6477 0.0913 0 7
-8.8935 27.4768 -2.6477 0.0913 0 7
-9.3349 27.3300 -2.6477 0.0913 0 7
-9.7739 27.1761 -2.6477 0.0913 0 7
-10.2104 27.0151 -2.6477 0.0913 0 7
-10.6442 26.8472 -2.6477 0.0913 0 7
-11.0753 26.6722 -2.6477 0.0913 0 7
-11.5035 26.4903 -2.6477 0.0913 0 7
-11.9287 26.3016 -2.6477 0.0913 0 7
-12.3509 26.1061 -2.6477 0.0913 0 7
-12.7698 25.9037 -2.6477 0.0913 0 7
-13.1854 25.6947 -2.6477 0.0913 0 7
-13.5976 25.4789 -2.6477 0.0913 0 7
-14.0062 25.2566 -2.6477 0.0913 0 7
-14.4112 25.0277 -2.6477 0.0913 0 7
-14.8125 24.7923 -2.6477 0.0913 0 7
-15.2100 24.5505 -2.6477 0.0913 0 7
-15.6035 24.3023 -2.6477 0.0913 0 7
-15.9929 24.0478 -2.6477 0.0913 0 7
-16.3782 23.7871 -2.6477 0.0913 0 7
-15.8428 22.2340 -2.5029 0.0913 0 8
-16.1989 21.9760 -2.5029 0.0913 0 14
-16.5508 21.7122 -2.5029 0.0913 0 14
-16.8984 21.4428 -2.5029 0.0913 0 14
-17.2416 21.1678 -2.5029 0.0913 0 14
-17.5803 20.8873 -2.5029 0.0913 0 14
-17.9145 20.6014 -2.5029 0.0913 0 14
-18.2440 20.3102 -2.5029 0.0913 0 14
-18.5688 20.0136 -2.5029 0.0913 0 14
-18.8888 19.7120 -2.5029 0.0913 0 14
-19.2038 19.4051 -2.5029 0.0913 0 14
-19.5139 19.0933 -2.5029 0.0913 0 14
-19.9517 18.9023 -2.5197 0.6920 0 8
-20.5961 18.8926 -2.5623 0.6805 0 8
-21.2627 18.8824 -2.6070 0.6688 0 8
-21.9004 18.8266 -2.6477 0.0913 0 7
-22.2008 18.4714 -2.6477 0.0913 0 7
-22.4955 18.1114 -2.6477 0.0913 0 7
-22.7843 17.7467 -2.6477 0.0913 0 7
-23.0672 17.3774 -2.6477 0.0913 0 7
-23.3441 17.0036 -2.6477 0.0913 0 7
-23.6150 16.6253 -2.6477 0.0913 0 7
-23.8797 16.2428 -2.6477 0.0913 0 7
-24.1383 15.8560 -2.6477 0.0913 0 7
-24.3906 15.4651 -2.6477 0.0913 0 7
-24.6365 15.0702 -2.6477 0.0913 0 7
-24.8761 14.6714 -2.6477 0.0913 0 7
-25.1092 14.2688 -2.6477 0.0913 0 7
-25.3358 13.8625 -2.6477 0.0913 0 7
-25.5558 13.4526 -2.6477 0.0913 0 7
-25.7691 13.0392 -2.6477 0.0913 0 7
-25.9758 12.6224 -2.6477 0.0913 0 7
-26.1758 12.2024 -2.6477 0.0913 0 7
-26.3690 11.7791 -2.6477 0.0913 0 7
-26.5553 11.3529 -2.6477 0.0913 0 6
-26.7347 10.9236 -2.6477 0.0913 0 7
-26.9072 10.4916 -2.6477 0.0913 0 7
-27.0727 10.0568 -2.6477 0.0913 0 7
-27.2312 9.6194 -2.6477 0.0913 0 7
-27.3826 9.1795 -2.6477 0.0913 0 7
-25.9611 8.2403 -2.4971 0.2795 0 8
-26.0717 7.8154 -2.4953 0.0913 0 8
-26.1942 7.3944 -2.4953 0.0913 0 8
-26.3099 6.9715 -2.4953 0.0913 0 8
-26.4188 6.5468 -2.4953 0.0913 0 8
-26.5209 6.1204 -2.4953 0.0913 0 8
-26.6160 5.6924 -2.4953 0.0913 0 8
-26.7042 5.2629 -2.4953 0.0913 0 8
-26.7856 4.8321 -2.4953 0.0913 0 8
-26.8599 4.4000 -2.4953 0.0913 0 8
-26.9273 3.9668 -2.4953 0.0913 0 8
-26.9877 3.5325 -2.4953 0.0913 0 8
-27.0411 3.0973 -2.4953 0.0913 0 8
-27.0875 2.6613 -2.4953 0.0913 0 8
-27.1268 2.2247 -2.4953 0.0913 0 8
-27.1592 1.7874 -2.4953 0.0913 0 8
-27.1844 1.3497 -2.4953 0.0913 0 8
-27.2026 0.9116 -2.4953 0.0913 0 8
-27.2138 0.4733 -2.4953 0.0913 0 8
-27.2179 0.0349 -2.4953 0.0913 0 8
-27.2149 -0.4035 -2.4953 0.0913 0 8
-27.2049 -0.8419 -2.4953 0.0913 0 8
-27.1878 -1.2800 -2.4953 0.0913 0 8
-27.1637 -1.7178 -2.4953 0.0913 0 8
-27.1325 -2.1551 -2.4953 0.0913 0 8
-27.0942 -2.5918 -2.4953 0.0913 0 8
-27.0490 -3.0279 -2.4953 0.0913 0 8
-26.9967 -3.4633 -2.4953 0.0913 0 8
-26.9374 -3.8977 -2.4953 0.0913 0 8
-26.8711 -4.3311 -2.4953 0.0913 0 8
-26.7979 -4.7633 -2.4953 0.0913 0 8
-26.7177 -5.1944 -2.4953 0.0913 0 8
-26.6305 -5.6241 -2.4953 0.0913 0 8
-26.5365 -6.0523 -2.4953 0.0913 0 8
-26.4355 -6.4790 -2.4953 0.0913 0 8
-26.3277 -6.9040 -2.4953 0.0913 0 8
-26.2131 -7.3272 -2.4953 0.0913 0 8
-26.0917 -7.7485 -2.4953 0.0913 0 8
-25.9635 -8.1678 -2.4953 0.0913 0 8
-25.8285 -8.5849 -2.4953 0.0913 0 8
-25.6869 -8.9999 -2.4953 0.0913 0 8
-25.5386 -9.4124 -2.4953 0.0913 0 8
-25.3837 -9.8226 -2.4953 0.0913 0 8
-25.2222 -10.2302 -2.4953 0.0913 0 8
-25.0541 -10.6352 -2.4953 0.0913 0 8
-24.8796 -11.0373 -2.4953 0.0913 0 8
-24.6985 -11.4367 -2.4953 0.0913 0 8
-24.5111 -11.8330 -2.4953 0.0913 0 8
-24.3173 -12.2263 -2.4953 0.0913 0 8
-24.1172 -12.6164 -2.4953 0.0913 0 8
-23.9109 -13.0033 -2.4953 0.0913 0 8
-23.6983 -13.3868 -2.4953 0.0913 0 8
13.5597 21.0182 -2.5029 0.0996 0 14
13.2194 21.2339 -2.5029 0.0996 0 14
12.8757 21.4441 -2.5029 0.0996 0 14
12.5286 21.6487 -2.5029 0.0996 0 14
12.1782 21.8477 -2.5029 0.0996 0 14
11.8247 22.0411 -2.5029 0.0996 0 14
11.4681 22.2287 -2.5029 0.0996 0 14
11.1086 22.4105 -2.5029 0.0996 0 8
11.3678 23.8931 -2.6477 0.0996 0 7
10.9814 24.0731 -2.6477 0.0996 0 7
10.5922 24.2469 -2.6477 0.0996 0 7
10.2003 24.4143 -2.6477 0.0996 0 7
9.8057 24.5755 -2.6477 0.0996 0 7
9.4085 24.7303 -2.6477 0.0996 0 7
9.0090 24.8786 -2.6477 0.0996 0 7
8.6071 25.0205 -2.6477 0.0996 0 7
8.2029 25.1559 -2.6477 0.0996 0 7
7.7966 25.2847 -2.6477 0.0996 0 7
7.3883 25.4071 -2.6477 0.0996 0 7
6.9781 25.5228 -2.6477 0.0996 0 7
6.5661 25.6319 -2.6477 0.0996 0 7
6.1524 25.7343 -2.6477 0.0996 0 7
5.7370 25.8300 -2.6477 0.0996 0 7
5.3202 25.9191 -2.6477 0.0996 0 7
4.9020 26.0015 -2.6477 0.0996 0 7
4.4826 26.0770 -2.6477 0.0996 0 7
4.0619 26.1459 -2.6477 0.0996 0 7
3.6402 26.2079 -2.6477 0.0996 0 7
3.2176 26.2631 -2.6477 0.0996 0 7
2.7941 26.3115 -2.6477 0.0996 0 7
2.3699 26.3532 -2.6477 0.0996 0 7
1.9451 26.3879 -2.6477 0.0996 0 7
1.5198 26.4158 -2.6477 0.0996 0 7
1.0941 26.4369 -2.6477 0.0996 0 7
0.6681 26.4511 -2.6477 0.0996 0 7
0.2420 26.4584 -2.6477 0.0996 0 6
-0.1843 26.4589 -2.6477 0.0996 0 6
-0.6104 26.4525 -2.6477 0.0996 0 6
-1.0365 26.4392 -2.6477 0.0996 0 6
-1.4622 26.4190 -2.6477 0.0996 0 6
-1.8877 26.3921 -2.6477 0.0996 0 7
-2.3125 26.3583 -2.6477 0.0996 0 7
-2.7367 26.3176 -2.6477 0.0996 0 7
-3.1603 26.2701 -2.6477 0.0996 0 7
-3.5831 26.2158 -2.6477 0.0996 0 7
-4.0049 26.1547 -2.6477 0.0996 0 7
-4.4257 26.0868 -2.6477 0.0996 0 7
-4.8453 26.0121 -2.6477 0.0996 0 7
-5.2637 25.9307 -2.6477 0.0996 0 7
-5.6807 25.8425 -2.6477 0.0996 0 7
-6.0962 25.7477 -2.6477 0.0996 0 7
-6.5102 25.6461 -2.6477 0.0996 0 7
-6.9224 25.5379 -2.6477 0.0996 0 7
-7.3329 25.4231 -2.6477 0.0996 0 7
-7.7415 25.3017 -2.6477 0.0996 0 7
-8.1480 25.1737 -2.6477 0.0996 0 7
-8.5525 25.0392 -2.6477 0.0996 0 7
-8.9547 24.8982 -2.6477 0.0996 0 7
-9.3546 24.7507 -2.6477 0.0996 0 7
-9.7520 24.5968 -2.6477 0.0996 0 7
-10.1470 24.4365 -2.6477 0.0996 0 7
-10.5393 24.2699 -2.6477 0.0996 0 7
-10.9289 24.0970 -2.6477 0.0996 0 7
-11.3156 23.9178 -2.6477 0.0996 0 7
-11.6994 23.7325 -2.6477 0.0996 0 7
-11.4196 22.2537 -2.5029 0.0996 0 8
-11.7766 22.0668 -2.5029 0.0996 0 14
-12.1305 21.8743 -2.5029 0.0996 0 14
-12.4813 21.6760 -2.5029 0.0996 0 14
-12.8288 21.4721 -2.5029 0.0996 0 14
-13.1731 21.2627 -2.5029 0.0996 0 14
-13.5139 21.0478 -2.5029 0.0996 0 14
-13.8511 20.8273 -2.5029 0.0996 0 14
-14.1848 20.6015 -2.5029 0.0996 0 14
-14.5148 20.3704 -2.5029 0.0996 0 14
-14.8411 20.1339 -2.5029 0.0996 0 14
-15.1635 19.8923 -2.5029 0.0996 0 14
-15.4819 19.6454 -2.5029 0.0996 0 14
-15.7964 19.3935 -2.5029 0.0996 0 14
-16.1067 19.1365 -2.5029 0.0996 0 14
-16.4488 18.9158 -2.5084 0.6026 0 8
-16.9828 18.9062 -2.5430 0.7478 0 8
-17.5336 18.8979 -2.5796 0.7372 0 8
-18.1004 18.8892 -2.6179 0.7264 0 8
-18.6119 18.8070 -2.6477 0.0996 0 7
-18.9124 18.5047 -2.6477 0.0996 0 7
-19.2080 18.1977 -2.6477 0.0996 0 7
-19.4987 17.8860 -2.6477 0.0996 0 7
-19.7843 17.5695 -2.6477 0.0996 0 7
-20.0647 17.2486 -2.6477 0.0996 0 7
-20.3399 16.9231 -2.6477 0.0996 0 7
-20.6099 16.5933 -2.6477 0.0996 0 7
-20.8745 16.2592 -2.6477 0.0996 0 7
-21.1337 15.9208 -2.6477 0.0996 0 7
-21.3874 15.5783 -2.6477 0.0996 0 7
-21.6356 15.2318 -2.6477 0.0996 0 7
-21.8781 14.8813 -2.6477 0.0996 0 6
-22.1150 14.5270 -2.6477 0.0996 0 7
-22.3461 14.1688 -2.6477 0.0996 0 7
-22.5715 13.8071 -2.6477 0.0996 0 7
-22.7909 13.4417 -2.6477 0.0996 0 7
-23.0045 13.0728 -2.6477 0.0996 0 7
-23.2121 12.7006 -2.6477 0.0996 0 7
-23.4137 12.3250 -2.6477 0.0996 0 7
-23.6092 11.9463 -2.6477 0.0996 0 7
-23.7985 11.5644 -2.6477 0.0996 0 7
-23.9817 11.1796 -2.6477 0.0996 0 7
-24.1587 10.7918 -2.6477 0.0996 0 7
-24.3294 10.4013 -2.6477 0.0996 0 7
-24.4938 10.0080 -2.6477 0.0996 0 7
-24.6518 9.6122 -2.6477 0.0996 0 7
-24.8035 9.2138 -2.6477 0.0996 0 7
-23.5126 8.3058 -2.4953 0.0996 0 8
-23.6433 7.9260 -2.4953 0.0996 0 8
-23.7679 7.5441 -2.4953 0.0996 0 8
-23.8864 7.1603 -2.4953 0.0996 0 8
-23.9986 6.7746 -2.4953 0.0996 0 8
-24.1046 6.3872 -2.4953 0.0996 0 8
-24.2044 5.9980 -2.4953 0.0996 0 8
-24.2979 5.6074 -2.4953 0.0996 0 8
-24.3850 5.2153 -2.4953 0.0996 0 8
-24.4659 4.8218 -2.4953 0.0996 0 8
-24.5404 4.4271 -2.4953 0.0996 0 8
-24.6085 4.0312 -2.4953 0.0996 0 8
-24.6703 3.6343 -2.4953 0.0996 0 8
-24.7256 3.2364 -2.4953 0.0996 0 8
-24.7745 2.8377 -2.4953 0.0996 0 8
-24.8170 2.4383 -2.4953 0.0996 0 8
-24.8531 2.0382 -2.4953 0.0996 0 8
-24.8827 1.6376 -2.4953 0.0996 0 8
-24.9058 1.2366 -2.4953 0.0996 0 8
-24.9225 0.8352 -2.4953 0.0996 0 8
-24.9327 0.4337 -2.4953 0.0996 0 8
-24.9365 0.0320 -2.4953 0.0996 0 8
-24.9338 -0.3697 -2.4953 0.0996 0 8
-24.9246 -0.7713 -2.4953 0.0996 0 8
-24.9089 -1.1727 -2.4953 0.0996 0 8
-24.8868 -1.5738 -2.4953 0.0996 0 8
-24.8582 -1.9744 -2.4953 0.0996 0 8
-24.8232 -2.3746 -2.4953 0.0996 0 8
-24.7817 -2.7741 -2.4953 0.0996 0 8
-24.7338 -3.1730 -2.4953 0.0996 0 8
-24.6795 -3.5710 -2.4953 0.0996 0 8
-24.6187 -3.9680 -2.4953 0.0996 0 8
-24.5517 -4.3641 -2.4953 0.0996 0 8
-24.4782 -4.7590 -2.4953 0.0996 0 8
-24.3983 -5.1527 -2.4953 0.0996 0 8
-24.3122 -5.5450 -2.4953 0.0996 0 8
-24.2197 -5.9359 -2.4953 0.0996 0 8
-24.1209 -6.3253 -2.4953 0.0996 0 8
-24.0159 -6.7130 -2.4953 0.0996 0 8
-23.9047 -7.0990 -2.4953 0.0996 0 8
-23.7872 -7.4831 -2.4953 0.0996 0 8
-23.6636 -7.8653 -2.4953 0.0996 0 8
-23.5338 -8.2455 -2.4953 0.0996 0 8
-23.3980 -8.6235 -2.4953 0.0996 0 8
-23.2560 -8.9992 -2.4953 0.0996 0 8
-23.1080 -9.3727 -2.4953 0.0996 0 8
-22.9541 -9.7437 -2.4953 0.0996 0 8
-22.7941 -10.1122 -2.4953 0.0996 0 8
-22.6283 -10.4781 -2.4953 0.0996 0 8
-22.4566 -10.8412 -2.4953 0.0996 0 8
-22.2790 -11.2015 -2.4953 0.0996 0 8
-22.0957 -11.5589 -2.4953 0.0996 0 8
-21.9066 -11.9134 -2.4953 0.0996 0 8
-21.7119 -12.2647 -2.4953 0.0996 0 8
12.5094 19.3902 -2.5029 0.1078 0 14
12.1954 19.5892 -2.5029 0.1078 0 14
11.8783 19.7831 -2.5029 0.1078 0 14
11.5581 19.9719 -2.5029 0.1078 0 14
11.2349 20.1555 -2.5029 0.1078 0 14
10.9088 20.3338 -2.5029 0.1078 0 14
10.5798 20.5069 -2.5029 0.1078 0 14
10.2481 20.6747 -2.5029 0.1078 0 14
9.9138 20.8371 -2.5029 0.1078 0 14
9.5768 20.9940 -2.5029 0.1078 0 14
9.2374 21.1456 -2.5029 0.1078 0 14
8.8956 21.2916 -2.5029 0.1078 0 14
8.5515 21.4322 -2.5029 0.1078 0 14
8.2051 21.5671 -2.5029 0.1078 0 14
7.8567 21.6965 -2.5029 0.1078 0 14
7.5062 21.8202 -2.5029 0.1078 0 14
7.1537 21.9383 -2.5029 0.1078 0 14
6.7994 22.0507 -2.5029 0.1078 0 14
6.4433 22.1574 -2.5029 0.1078 0 14
6.0856 22.2583 -2.5029 0.1078 0 14
5.7263 22.3534 -2.5029 0.1078 0 8
5.6758 23.7410 -2.6477 0.1078 0 7
5.2927 23.8293 -2.6477 0.1078 0 7
4.9081 23.9115 -2.6477 0.1078 0 7
4.5223 23.9874 -2.6477 0.1078 0 7
4.1353 24.0572 -2.6477 0.1078 0 7
3.7473 24.1207 -2.6477 0.1078 0 7
3.3583 24.1779 -2.6477 0.1078 0 7
2.9684 24.2288 -2.6477 0.1078 0 7
2.5777 24.2735 -2.6477 0.1078 0 7
2.1864 24.3119 -2.6477 0.1078 0 7
1.7945 24.3439 -2.6477 0.1078 0 7
1.4021 24.3697 -2.6477 0.1078 0 7
1.0094 24.3891 -2.6477 0.1078 0 7
0.6164 24.4022 -2.6477 0.1078 0 7
0.2232 24.4090 -2.6477 0.1078 0 7
-0.1700 24.4094 -2.6477 0.1078 0 7
-0.5631 24.4035 -2.6477 0.1078 0 7
-0.9562 24.3913 -2.6477 0.1078 0 7
-1.3489 24.3727 -2.6477 0.1078 0 7
-1.7414 24.3478 -2.6477 0.1078 0 7
-2.1333 24.3166 -2.6477 0.1078 0 7
-2.5248 24.2791 -2.6477 0.1078 0 7
-2.9155 24.2353 -2.6477 0.1078 0 7
-3.3055 24.1852 -2.6477 0.1078 0 7
-3.6947 24.1288 -2.6477 0.1078 0 7
-4.0829 24.0661 -2.6477 0.1078 0 7
-4.4700 23.9972 -2.6477 0.1078 0 7
-4.8560 23.9221 -2.6477 0.1078 0 7
-5.2407 23.8408 -2.6477 0.1078 0 7
-5.6240 23.7533 -2.6477 0.1078 0 7
-5.6775 22.3658 -2.5029 0.1078 0 8
-6.0370 22.2715 -2.5029 0.1078 0 8
-6.3950 22.1714 -2.5029 0.1078 0 14
-6.7513 22.0655 -2.5029 0.1078 0 14
-7.1059 21.9539 -2.5029 0.1078 0 14
-7.4586 21.8365 -2.5029 0.1078 0 14
-7.8093 21.7136 -2.5029 0.1078 0 14
-8.1581 21.5850 -2.5029 0.1078 0 14
-8.5047 21.4508 -2.5029 0.1078 0 14
-8.8491 21.3110 -2.5029 0.1078 0 14
-9.1913 21.1657 -2.5029 0.1078 0 14
-9.5310 21.0149 -2.5029 0.1078 0 14
-9.8683 20.8586 -2.5029 0.1078 0 14
-10.2030 20.6970 -2.5029 0.1078 0 14
-10.5351 20.5299 -2.5029 0.1078 0 14
-10.8644 20.3576 -2.5029 0.1078 0 14
-11.1909 20.1799 -2.5029 0.1078 0 14
-11.5145 19.9970 -2.5029 0.1078 0 14
-11.8351 19.8090 -2.5029 0.1078 0 14
-12.1527 19.6157 -2.5029 0.1078 0 14
-12.4671 19.4174 -2.5029 0.1078 0 14
-12.7783 19.2141 -2.5029 0.1078 0 14
-13.0861 19.0058 -2.5029 0.1078 0 8
-13.4815 18.9202 -2.5199 0.8173 0 8
-13.9416 18.9136 -2.5486 0.8081 0 8
-14.4122 18.9067 -2.5786 0.7987 0 8
-14.8942 18.8996 -2.6100 0.7891 0 8
-15.3880 18.8921 -2.6429 0.7793 0 8
-15.7186 18.6755 -2.6477 0.1078 0 7
-16.0175 18.4198 -2.6477 0.1078 0 6
-16.3120 18.1594 -2.6477 0.1078 0 7
-16.6025 17.8943 -2.6477 0.1078 0 7
-16.8885 17.6246 -2.6477 0.1078 0 7
-17.1702 17.3502 -2.6477 0.1078 0 7
-17.4475 17.0714 -2.6477 0.1078 0 7
-17.7202 16.7881 -2.6477 0.1078 0 7
-17.9883 16.5005 -2.6477 0.1078 0 7
-18.2518 16.2086 -2.6477 0.1078 0 7
-18.5105 15.9125 -2.6477 0.1078 0 7
-18.7644 15.6123 -2.6477 0.1078 0 7
-19.0135 15.3080 -2.6477 0.1078 0 7
-19.2576 14.9997 -2.6477 0.1078 0 7
-19.4967 14.6876 -2.6477 0.1078 0 7
-19.7308 14.3716 -2.6477 0.1078 0 7
-19.9597 14.0519 -2.6477 0.1078 0 7
-20.1835 13.7286 -2.6477 0.1078 0 7
-20.4020 13.4017 -2.6477 0.1078 0 7
-20.6152 13.0713 -2.6477 0.1078 0 7
-20.8231 12.7376 -2.6477 0.1078 0 7
-21.0256 12.4005 -2.6477 0.1078 0 7
-21.2226 12.0602 -2.6477 0.1078 0 7
-21.4141 11.7168 -2.6477 0.1078 0 7
-21.6001 11.3703 -2.6477 0.1078 0 6
-21.7804 11.0209 -2.6477 0.1078 0 7
-21.9551 10.6686 -2.6477 0.1078 0 7
-22.1241 10.3136 -2.6477 0.1078 0 7
-22.2874 9.9559 -2.6477 0.1078 0 7
-22.4449 9.5956 -2.6477 0.1078 0 7
-22.5965 9.2328 -2.6477 0.1078 0 7
-21.4333 8.3572 -2.4953 0.1078 0 8
-21.5651 8.0109 -2.4953 0.1078 0 8
-21.6913 7.6625 -2.4953 0.1078 0 8
-21.8120 7.3121 -2.4953 0.1078 0 8
-21.9269 6.9598 -2.4953 0.1078 0 8
-22.0362 6.6057 -2.4953 0.1078 0 8
-22.1397 6.2499 -2.4953 0.1078 0 8
-22.2375 5.8924 -2.4953 0.1078 0 8
-22.3296 5.5334 -2.4953 0.1078 0 8
-22.4158 5.1730 -2.4953 0.1078 0 8
-22.4962 4.8113 -2.4953 0.1078 0 8
-22.5708 4.4483 -2.4953 0.1078 0 8
-22.6395 4.0841 -2.4953 0.1078 0 8
-22.7024 3.7189 -2.4953 0.1078 0 8
-22.7593 3.3528 -2.4953 0.1078 0 8
-22.8104 2.9857 -2.4953 0.1078 0 8
-22.8555 2.6179 -2.4953 0.1078 0 8
-22.8947 2.2494 -2.4953 0.1078 0 8
-22.9280 1.8803 -2.4953 0.1078 0 8
-22.9553 1.5108 -2.4953 0.1078 0 8
-22.9767 1.1408 -2.4953 0.1078 0 8
-22.9921 0.7705 -2.4953 0.1078 0 8
-23.0015 0.4001 -2.4953 0.1078 0 8
-23.0049 0.0295 -2.4953 0.1078 0 8
-23.0024 -0.3411 -2.4953 0.1078 0 8
-22.9939 -0.7115 -2.4953 0.1078 0 8
-22.9795 -1.0818 -2.4953 0.1078 0 8
-22.9591 -1.4519 -2.4953 0.1078 0 8
-22.9327 -1.8215 -2.4953 0.1078 0 8
-22.9004 -2.1907 -2.4953 0.1078 0 8
-22.8622 -2.5593 -2.4953 0.1078 0 8
-22.8180 -2.9272 -2.4953 0.1078 0 8
-22.7679 -3.2944 -2.4953 0.1078 0 8
-22.7118 -3.6607 -2.4953 0.1078 0 8
-22.6499 -4.0260 -2.4953 0.1078 0 8
-22.5821 -4.3904 -2.4953 0.1078 0 8
-22.5085 -4.7536 -2.4953 0.1078 0 8
-22.4290 -5.1155 -2.4953 0.1078 0 8
-22.3437 -5.4761 -2.4953 0.1078 0 8
-22.2526 -5.8354 -2.4953 0.1078 0 8
-22.1557 -6.1930 -2.4953 0.1078 0 8
-22.0530 -6.5491 -2.4953 0.1078 0 8
-21.9447 -6.9035 -2.4953 0.1078 0 8
-21.8306 -7.2561 -2.4953 0.1078 0 8
-21.7109 -7.6068 -2.4953 0.1078 0 8
-21.5856 -7.9555 -2.4953 0.1078 0 8
-21.4546 -8.3022 -2.4953 0.1078 0 8
-21.3181 -8.6467 -2.4953 0.1078 0 8
-21.1761 -8.9890 -2.4953 0.1078 0 8
-21.0285 -9.3289 -2.4953 0.1078 0 8
-20.8755 -9.6664 -2.4953 0.1078 0 8
-20.7171 -10.0014 -2.4953 0.1078 0 8
-20.5533 -10.3339 -2.4953 0.1078 0 8
-20.3842 -10.6636 -2.4953 0.1078 0 8
-20.2098 -10.9906 -2.4953 0.1078 0 8
-20.0301 -11.3147 -2.4953 0.1078 0 8
12.2381 18.9697 -2.6386 0.8403 0 8
11.8121 18.9734 -2.6123 0.8488 0 8
11.3942 18.9769 -2.5872 0.8570 0 8
10.9842 18.9802 -2.5632 0.8651 0 8
10.5815 18.9833 -2.5403 0.8729 0 8
10.1858 18.9862 -2.5184 0.8805 0 8
9.8180 19.0302 -2.5029 0.1161 0 8
9.5102 19.1859 -2.5029 0.1161 0 14
9.1999 19.3366 -2.5029 0.1161 0 14
8.8872 19.4823 -2.5029 0.1161 0 14
8.5722 19.6229 -2.5029 0.1161 0 14
8.2550 19.7584 -2.5029 0.1161 0 14
7.9357 19.8889 -2.5029 0.1161 0 14
7.6143 20.0141 -2.5029 0.1161 0 14
7.2909 20.1342 -2.5029 0.1161 0 14
6.9657 20.2490 -2.5029 0.1161 0 14
6.6386 20.3586 -2.5029 0.1161 0 14
6.3098 20.4629 -2.5029 0.1161 0 14
5.9794 20.5618 -2.5029 0.1161 0 14
5.6474 20.6555 -2.5029 0.1161 0 14
5.3139 20.7438 -2.5029 0.1161 0 14
4.9791 20.8267 -2.5029 0.1161 0 14
4.6430 20.9042 -2.5029 0.1161 0 14
4.3056 20.9763 -2.5029 0.1161 0 14
3.9672 21.0429 -2.5029 0.1161 0 14
3.6277 21.1041 -2.5029 0.1161 0 14
3.2873 21.1598 -2.5029 0.1161 0 14
2.9460 21.2100 -2.5029 0.1161 0 14
2.6040 21.2547 -2.5029 0.1161 0 14
2.2613 21.2939 -2.5029 0.1161 0 14
1.9180 21.3275 -2.5029 0.1161 0 14
1.5742 21.3557 -2.5029 0.1161 0 14
1.2300 21.3782 -2.5029 0.1161 0 14
0.8855 21.3953 -2.5029 0.1161 0 14
0.5407 21.4068 -2.5029 0.1161 0 14
0.1958 21.4127 -2.5029 0.1161 0 14
-0.1491 21.4131 -2.5029 0.1161 0 14
-0.4940 21.4079 -2.5029 0.1161 0 14
-0.8388 21.3972 -2.5029 0.1161 0 14
-1.1834 21.3809 -2.5029 0.1161 0 14
-1.5276 21.3590 -2.5029 0.1161 0 14
-1.8715 21.3317 -2.5029 0.1161 0 14
-2.2148 21.2987 -2.5029 0.1161 0 14
-2.5576 21.2603 -2.5029 0.1161 0 14
-2.8998 21.2164 -2.5029 0.1161 0 14
-3.2411 21.1669 -2.5029 0.1161 0 14
-3.5817 21.1119 -2.5029 0.1161 0 14
-3.9213 21.0515 -2.5029 0.1161 0 14
-4.2599 20.9856 -2.5029 0.1161 0 14
-4.5974 20.9143 -2.5029 0.1161 0 14
-4.9336 20.8375 -2.5029 0.1161 0 14
-5.2687 20.7553 -2.5029 0.1161 0 14
-5.6023 20.6678 -2.5029 0.1161 0 14
-5.9345 20.5748 -2.5029 0.1161 0 14
-6.2652 20.4766 -2.5029 0.1161 0 14
-6.5942 20.3730 -2.5029 0.1161 0 14
-6.9215 20.2641 -2.5029 0.1161 0 14
-7.2470 20.1500 -2.5029 0.1161 0 14
-7.5706 20.0307 -2.5029 0.1161 0 14
-7.8923 19.9061 -2.5029 0.1161 0 14
-8.2119 19.7764 -2.5029 0.1161 0 14
-8.5294 19.6416 -2.5029 0.1161 0 14
-8.8447 19.5016 -2.5029 0.1161 0 14
-9.1577 19.3566 -2.5029 0.1161 0 14
-9.4683 19.2066 -2.5029 0.1161 0 14
-9.7764 19.0516 -2.5029 0.1161 0 8
-10.1044 18.9334 -2.5084 0.7026 0 8
-10.4959 18.9267 -2.5296 0.8765 0 8
-10.8952 18.9214 -2.5520 0.8688 0 8
-11.3016 18.9160 -2.5755 0.8609 0 8
-11.7156 18.9103 -2.6001 0.8528 0 8
-12.1376 18.9043 -2.6258 0.8444 0 8
-12.5440 18.8619 -2.6477 0.1161 0 7
-12.8462 18.6574 -2.6477 0.1161 0 7
-13.1451 18.4481 -2.6477 0.1161 0 6
-13.4406 18.2339 -2.6477 0.1161 0 7
-13.7325 18.0151 -2.6477 0.1161 0 7
-14.0209 17.7915 -2.6477 0.1161 0 7
-14.3057 17.5634 -2.6477 0.1161 0 7
-14.5868 17.3307 -2.6477 0.1161 0 7
-14.8640 17.0934 -2.6477 0.1161 0 7
-15.1374 16.8518 -2.6477 0.1161 0 7
-15.4069 16.6058 -2.6477 0.1161 0 7
-15.6724 16.3554 -2.6477 0.1161 0 7
-15.9338 16.1009 -2.6477 0.1161 0 7
-16.1911 15.8421 -2.6477 0.1161 0 7
-16.4442 15.5793 -2.6477 0.1161 0 7
-16.6930 15.3124 -2.6477 0.1161 0 7
-16.9375 15.0415 -2.6477 0.1161 0 7
-17.1776 14.7667 -2.6477 0.1161 0 7
-17.4132 14.4881 -2.6477 0.1161 0 7
-17.6444 14.2057 -2.6477 0.1161 0 7
-17.8709 13.9196 -2.6477 0.1161 0 7
-18.0928 13.6300 -2.6477 0.1161 0 7
-18.3100 13.3368 -2.6477 0.1161 0 7
-18.5225 13.0401 -2.6477 0.1161 0 7
-18.7301 12.7401 -2.6477 0.1161 0 7
-18.9329 12.4367 -2.6477 0.1161 0 7
-19.1308 12.1301 -2.6477 0.1161 0 7
-19.3237 11.8204 -2.6477 0.1161 0 7
-19.5116 11.5076 -2.6477 0.1161 0 7
-19.6944 11.1918 -2.6477 0.1161 0 7
-19.8721 10.8731 -2.6477 0.1161 0 7
-20.0447 10.5516 -2.6477 0.1161 0 7
-20.2121 10.2273 -2.6477 0.1161 0 7
-20.3742 9.9004 -2.6477 0.1161 0 7
-20.5310 9.5709 -2.6477 0.1161 0 7
-20.6825 9.2390 -2.6477 0.1161 0 7
-19.6298 8.3921 -2.4953 0.1161 0 8
-19.7624 8.0748 -2.4953 0.1161 0 8
-19.8899 7.7554 -2.4953 0.1161 0 8
-20.0122 7.4340 -2.4953 0.1161 0 8
-20.1294 7.1107 -2.4953 0.1161 0 8
-20.2413 6.7855 -2.4953 0.1161 0 8
-20.3480 6.4586 -2.4953 0.1161 0 8
-20.4494 6.1300 -2.4953 0.1161 0 8
-20.5455 5.7998 -2.4953 0.1161 0 8
-20.6362 5.4681 -2.4953 0.1161 0 8
-20.7216 5.1350 -2.4953 0.1161 0 8
-20.8017 4.8005 -2.4953 0.1161 0 8
-20.8763 4.4648 -2.4953 0.1161 0 8
-20.9455 4.1280 -2.4953 0.1161 0 8
-21.0093 3.7900 -2.4953 0.1161 0 8
-21.0676 3.4511 -2.4953 0.1161 0 8
-21.1205 3.1113 -2.4953 0.1161 0 8
-21.1678 2.7707 -2.4953 0.1161 0 8
-21.2097 2.4294 -2.4953 0.1161 0 8
-21.2461 2.0874 -2.4953 0.1161 0 8
-21.2770 1.7449 -2.4953 0.1161 0 8
-21.3023 1.4020 -2.4953 0.1161 0 8
-21.3221 1.0586 -2.4953 0.1161 0 8
-21.3364 0.7150 -2.4953 0.1161 0 8
-21.3452 0.3713 -2.4953 0.1161 0 8
-21.3484 0.0274 -2.4953 0.1161 0 8
-21.3461 -0.3165 -2.4953 0.1161 0 8
-21.3382 -0.6603 -2.4953 0.1161 0 8
-21.3248 -1.0039 -2.4953 0.1161 0 8
-21.3058 -1.3473 -2.4953 0.1161 0 8
-21.2814 -1.6903 -2.4953 0.1161 0 8
-21.2514 -2.0329 -2.4953 0.1161 0 8
-21.2159 -2.3750 -2.4953 0.1161 0 8
-21.1749 -2.7164 -2.4953 0.1161 0 8
-21.1284 -3.0571 -2.4953 0.1161 0 8
-21.0764 -3.3971 -2.4953 0.1161 0 8
-21.0189 -3.7361 -2.4953 0.1161 0 8
-20.9560 -4.0742 -2.4953 0.1161 0 8
-20.8877 -4.4113 -2.4953 0.1161 0 8
-20.8139 -4.7472 -2.4953 0.1161 0 8
-20.7347 -5.0818 -2.4953 0.1161 0 8
-20.6502 -5.4152 -2.4953 0.1161 0 8
-20.5603 -5.7471 -2.4953 0.1161 0 8
-20.4650 -6.0775 -2.4953 0.1161 0 8
-20.3645 -6.4064 -2.4953 0.1161 0 8
-20.2587 -6.7336 -2.4953 0.1161 0 8
-20.1476 -7.0590 -2.4953 0.1161 0 8
-20.0312 -7.3827 -2.4953 0.1161 0 8
-19.9097 -7.7044 -2.4953 0.1161 0 8
-19.7830 -8.0241 -2.4953 0.1161 0 8
-19.6512 -8.3417 -2.4953 0.1161 0 8
-19.5143 -8.6572 -2.4953 0.1161 0 8
-19.3723 -8.9704 -2.4953 0.1161 0 8
-19.2253 -9.2813 -2.4953 0.1161 0 8
-19.0733 -9.5897 -2.4953 0.1161 0 8
-18.9164 -9.8957 -2.4953 0.1161 0 8
-18.7545 -10.1991 -2.4953 0.1161 0 8
-18.5878 -10.4999 -2.4953 0.1161 0 8
11.4538 17.7539 -2.6477 0.1243 0 7
11.1663 17.9361 -2.6477 0.1243 0 7
10.8759 18.1136 -2.6477 0.1243 0 7
10.5827 18.2865 -2.6477 0.1243 0 7
10.2868 18.4545 -2.6477 0.1243 0 6
9.9882 18.6179 -2.6477 0.1243 0 7
9.6870 18.7763 -2.6477 0.1243 0 7
9.3833 18.9299 -2.6477 0.1243 0 7
9.0217 18.9621 -2.6315 0.9025 0 8
8.6511 18.9646 -2.6122 0.9092 0 8
8.2857 18.9670 -2.5938 0.9156 0 8
7.9253 18.9692 -2.5763 0.9218 0 8
7.5696 18.9713 -2.5597 0.9278 0 8
7.2183 18.9733 -2.5439 0.9336 0 8
6.8712 18.9751 -2.5290 0.9391 0 8
6.5280 18.9767 -2.5149 0.9443 0 8
6.1919 18.9886 -2.5029 0.1243 0 8
5.8852 19.0858 -2.5029 0.1243 0 8
5.5770 19.1782 -2.5029 0.1243 0 14
5.2673 19.2655 -2.5029 0.1243 0 14
4.9563 19.3479 -2.5029 0.1243 0 14
4.6440 19.4252 -2.5029 0.1243 0 14
4.3305 19.4975 -2.5029 0.1243 0 14
4.0159 19.5647 -2.5029 0.1243 0 14
3.7002 19.6268 -2.5029 0.1243 0 14
3.3836 19.6839 -2.5029 0.1243 0 14
3.0661 19.7359 -2.5029 0.1243 0 14
2.7478 19.7827 -2.5029 0.1243 0 14
2.4288 19.8244 -2.5029 0.1243 0 14
2.1091 19.8609 -2.5029 0.1243 0 14
1.7889 19.8923 -2.5029 0.1243 0 14
1.4683 19.9186 -2.5029 0.1243 0 14
1.1472 19.9396 -2.5029 0.1243 0 14
0.8259 19.9555 -2.5029 0.1243 0 14
0.5043 19.9662 -2.5029 0.1243 0 14
0.1826 19.9718 -2.5029 0.1243 0 14
-0.1391 19.9721 -2.5029 0.1243 0 14
-0.4608 19.9673 -2.5029 0.1243 0 14
-0.7823 19.9573 -2.5029 0.1243 0 14
-1.1037 19.9421 -2.5029 0.1243 0 14
-1.4248 19.9217 -2.5029 0.1243 0 14
-1.7455 19.8962 -2.5029 0.1243 0 14
-2.0658 19.8655 -2.5029 0.1243 0 14
-2.3855 19.8296 -2.5029 0.1243 0 14
-2.7046 19.7886 -2.5029 0.1243 0 14
-3.0230 19.7425 -2.5029 0.1243 0 14
-3.3407 19.6912 -2.5029 0.1243 0 14
-3.6574 19.6349 -2.5029 0.1243 0 14
-3.9732 19.5734 -2.5029 0.1243 0 14
-4.2880 19.5069 -2.5029 0.1243 0 14
-4.6016 19.4353 -2.5029 0.1243 0 14
-4.9141 19.3586 -2.5029 0.1243 0 14
-5.2253 19.2769 -2.5029 0.1243 0 14
-5.5351 19.1903 -2.5029 0.1243 0 14
-5.8448 19.1027 -2.5034 0.7594 0 8
-6.1504 19.0020 -2.5029 0.1243 0 8
-6.4704 18.9434 -2.5086 0.7525 0 8
-6.8112 18.9383 -2.5221 0.9416 0 8
-7.1564 18.9347 -2.5366 0.9362 0 8
-7.5056 18.9309 -2.5520 0.9306 0 8
-7.8592 18.9269 -2.5682 0.9247 0 8
-8.2173 18.9227 -2.5853 0.9186 0 8
-8.5802 18.9184 -2.6032 0.9123 0 8
-8.9482 18.9139 -2.6221 0.9057 0 8
-9.3217 18.9092 -2.6419 0.8989 0 8
-9.6460 18.7974 -2.6477 0.1243 0 7
-9.9476 18.6396 -2.6477 0.1243 0 7
-10.2465 18.4769 -2.6477 0.1243 0 7
-10.5428 18.3095 -2.6477 0.1243 0 7
-10.8364 18.1373 -2.6477 0.1243 0 7
-11.1271 17.9604 -2.6477 0.1243 0 7
-11.4150 17.7788 -2.6477 0.1243 0 7
-11.6999 17.5926 -2.6477 0.1243 0 7
-11.9818 17.4019 -2.6477 0.1243 0 7
-12.2605 17.2066 -2.6477 0.1243 0 7
-12.5361 17.0069 -2.6477 0.1243 0 7
-12.8084 16.8028 -2.6477 0.1243 0 7
-13.0774 16.5943 -2.6477 0.1243 0 7
-13.3430 16.3815 -2.6477 0.1243 0 7
-13.6052 16.1644 -2.6477 0.1243 0 7
-13.8638 15.9432 -2.6477 0.1243 0 7
-14.1188 15.7178 -2.6477 0.1243 0 7
-14.3701 15.4883 -2.6477 0.1243 0 7
-14.6178 15.2548 -2.6477 0.1243 0 7
-14.8616 15.0174 -2.6477 0.1243 0 7
-15.1016 14.7760 -2.6477 0.1243 0 7
-15.3376 14.5309 -2.6477 0.1243 0 7
-15.5697 14.2819 -2.6477 0.1243 0 7
-15.7977 14.0293 -2.6477 0.1243 0 7
-16.0217 13.7730 -2.6477 0.1243 0 7
-16.2414 13.5131 -2.6477 0.1243 0 7
-16.4570 13.2497 -2.6477 0.1243 0 7
-16.6683 12.9829 -2.6477 0.1243 0 7
-16.8753 12.7128 -2.6477 0.1243 0 7
-17.0779 12.4393 -2.6477 0.1243 0 7
-17.2760 12.1626 -2.6477 0.1243 0 7
-17.4697 11.8827 -2.6477 0.1243 0 7
-17.6588 11.5998 -2.6477 0.1243 0 7
-17.8434 11.3138 -2.6477 0.1243 0 7
-18.0233 11.0249 -2.6477 0.1243 0 7
-18.1986 10.7332 -2.6477 0.1243 0 7
-18.3691 10.4386 -2.6477 0.1243 0 7
-18.5349 10.1414 -2.6477 0.1243 0 7
-18.6958 9.8415 -2.6477 0.1243 0 7
-18.8519 9.5391 -2.6477 0.1243 0 7
-19.0031 9.2342 -2.6477 0.1243 0 7
-19.1494 8.9269 -2.6477 0.1243 0 7
-18.1803 8.1212 -2.4953 0.1243 0 8
-18.3088 7.8273 -2.4953 0.1243 0 8
-18.4325 7.5314 -2.4953 0.1243 0 8
-18.5514 7.2335 -2.4953 0.1243 0 8
-18.6655 6.9338 -2.4953 0.1243 0 8
-18.7748 6.6322 -2.4953 0.1243 0 8
-18.8792 6.3289 -2.4953 0.1243 0 8
-18.9787 6.0240 -2.4953 0.1243 0 8
-19.0733 5.7175 -2.4953 0.1243 0 8
-19.1629 5.4095 -2.4953 0.1243 0 8
-19.2475 5.1001 -2.4953 0.1243 0 8
-19.3272 4.7894 -2.4953 0.1243 0 8
-19.4018 4.4775 -2.4953 0.1243 0 8
-19.4715 4.1644 -2.4953 0.1243 0 8
-19.5360 3.8502 -2.4953 0.1243 0 8
-19.5955 3.5350 -2.4953 0.1243 0 8
-19.6499 3.2189 -2.4953 0.1243 0 8
-19.6992 2.9020 -2.4953 0.1243 0 8
-19.7434 2.5843 -2.4953 0.1243 0 8
-19.7824 2.2659 -2.4953 0.1243 0 8
-19.8164 1.9470 -2.4953 0.1243 0 8
-19.8452 1.6275 -2.4953 0.1243 0 8
-19.8688 1.3076 -2.4953 0.1243 0 8
-19.8873 0.9874 -2.4953 0.1243 0 8
-19.9006 0.6669 -2.4953 0.1243 0 8
-19.9088 0.3463 -2.4953 0.1243 0 8
-19.9118 0.0255 -2.4953 0.1243 0 8
-19.9096 -0.2952 -2.4953 0.1243 0 8
-19.9023 -0.6159 -2.4953 0.1243 0 8
-19.8898 -0.9364 -2.4953 0.1243 0 8
-19.8721 -1.2567 -2.4953 0.1243 0 8
-19.8493 -1.5766 -2.4953 0.1243 0 8
-19.8213 -1.8961 -2.4953 0.1243 0 8
-19.7882 -2.2152 -2.4953 0.1243 0 8
-19.7499 -2.5336 -2.4953 0.1243 0 8
-19.7066 -2.8514 -2.4953 0.1243 0 8
-19.6581 -3.1685 -2.4953 0.1243 0 8
-19.6045 -3.4847 -2.4953 0.1243 0 8
-19.5458 -3.8001 -2.4953 0.1243 0 8
-19.4821 -4.1144 -2.4953 0.1243 0 8
-19.4133 -4.4277 -2.4953 0.1243 0 8
-19.3394 -4.7398 -2.4953 0.1243 0 8
-19.2606 -5.0508 -2.4953 0.1243 0 8
-19.1767 -5.3603 -2.4953 0.1243 0 8
-19.0879 -5.6685 -2.4953 0.1243 0 8
-18.9941 -5.9753 -2.4953 0.1243 0 8
-18.8954 -6.2805 -2.4953 0.1243 0 8
-18.7918 -6.5840 -2.4953 0.1243 0 8
-18.6833 -6.8859 -2.4953 0.1243 0 8
-18.5699 -7.1859 -2.4953 0.1243 0 8
-18.4518 -7.4841 -2.4953 0.1243 0 8
-18.3288 -7.7804 -2.4953 0.1243 0 8
-18.2011 -8.0746 -2.4953 0.1243 0 8
-18.0687 -8.3667 -2.4953 0.1243 0 8
-17.9316 -8.6567 -2.4953 0.1243 0 8
-17.7898 -8.9444 -2.4953 0.1243 0 8
-17.6434 -9.2298 -2.4953 0.1243 0 8
-17.4925 -9.5128 -2.4953 0.1243 0 8
-17.3370 -9.7933 -2.4953 0.1243 0 8
10.7302 16.6323 -2.6477 0.1326 0 7
10.4609 16.8030 -2.6477 0.1326 0 7
10.1888 16.9693 -2.6477 0.1326 0 7
9.9142 17.1312 -2.6477 0.1326 0 7
9.6370 17.2887 -2.6477 0.1326 0 7
9.3572 17.4417 -2.6477 0.1326 0 7
9.0750 17.5902 -2.6477 0.1326 0 7
8.7905 17.7341 -2.6477 0.1326 0 7
8.5037 17.8733 -2.6477 0.1326 0 7
8.2147 18.0080 -2.6477 0.1326 0 7
7.9236 18.1380 -2.6477 0.1326 0 7
7.6304 18.2633 -2.6477 0.1326 0 7
7.3352 18.3838 -2.6477 0.1326 0 7
7.0381 18.4996 -2.6477 0.1326 0 6
6.7392 18.6106 -2.6477 0.1326 0 7
6.4386 18.7167 -2.6477 0.1326 0 7
6.1362 18.8180 -2.6477 0.1326 0 7
5.8323 18.9144 -2.6477 0.1326 0 7
5.5108 18.9507 -2.6400 0.9592 0 8
5.1816 18.9520 -2.6282 0.9635 0 8
4.8552 18.9531 -2.6172 0.9676 0 8
4.5314 18.9541 -2.6069 0.9714 0 8
4.2100 18.9550 -2.5973 0.9750 0 8
3.8909 18.9558 -2.5885 0.9783 0 8
3.5738 18.9564 -2.5804 0.9814 0 8
3.2586 18.9569 -2.5730 0.9842 0 8
2.9451 18.9573 -2.5663 0.9868 0 8
2.6332 18.9575 -2.5602 0.9891 0 8
2.3226 18.9576 -2.5549 0.9912 0 8
2.0132 18.9576 -2.5502 0.9930 0 8
1.7049 18.9575 -2.5461 0.9946 0 8
1.3974 18.9573 -2.5427 0.9959 0 8
1.0907 18.9570 -2.5400 0.9970 0 8
0.7845 18.9565 -2.5379 0.9978 0 8
0.4788 18.9559 -2.5365 0.9984 0 8
0.1733 18.9552 -2.5357 0.9987 0 8
-0.1320 18.9564 -2.5358 0.9970 0 8
-0.4374 18.9551 -2.5362 0.9986 0 8
-0.7430 18.9533 -2.5373 0.9982 0 8
-1.0489 18.9514 -2.5390 0.9975 0 8
-1.3553 18.9499 -2.5413 0.9964 0 8
-1.6624 18.9485 -2.5444 0.9952 0 8
-1.9703 18.9470 -2.5481 0.9938 0 8
-2.2791 18.9453 -2.5525 0.9921 0 8
-2.5891 18.9435 -2.5576 0.9901 0 8
-2.9004 18.9416 -2.5633 0.9879 0 8
-3.2131 18.9395 -2.5697 0.9855 0 8
-3.5275 18.9373 -2.5768 0.9828 0 8
-3.8436 18.9350 -2.5845 0.9798 0 8
-4.1617 18.9326 -2.5930 0.9766 0 8
-4.4820 18.9300 -2.6022 0.9731 0 8
-4.8046 18.9272 -2.6121 0.9694 0 8
-5.1297 18.9243 -2.6228 0.9655 0 8
-5.4576 18.9213 -2.6342 0.9613 0 8
-5.7883 18.9181 -2.6464 0.9569 0 8
-6.0952 18.8313 -2.6477 0.1326 0 7
-6.3977 18.7307 -2.6477 0.1326 0 7
-6.6986 18.6252 -2.6477 0.1326 0 7
-6.9978 18.5149 -2.6477 0.1326 0 7
-7.2951 18.3998 -2.6477 0.1326 0 6
-7.5905 18.2799 -2.6477 0.1326 0 7
-7.8840 18.1552 -2.6477 0.1326 0 7
-8.1754 18.0259 -2.6477 0.1326 0 7
-8.4647 17.8919 -2.6477 0.1326 0 7
-8.7518 17.7532 -2.6477 0.1326 0 7
-9.0366 17.6099 -2.6477 0.1326 0 7
-9.3191 17.4620 -2.6477 0.1326 0 7
-9.5992 17.3097 -2.6477 0.1326 0 7
-9.8768 17.1528 -2.6477 0.1326 0 7
-10.1518 16.9915 -2.6477 0.1326 0 7
-10.4242 16.8258 -2.6477 0.1326 0 7
-10.6939 16.6556 -2.6477 0.1326 0 7
-10.9608 16.4812 -2.6477 0.1326 0 7
-11.2248 16.3025 -2.6477 0.1326 0 7
-11.4860 16.1196 -2.6477 0.1326 0 7
-11.7441 15.9325 -2.6477 0.1326 0 7
-11.9993 15.7413 -2.6477 0.1326 0 7
-12.2513 15.5459 -2.6477 0.1326 0 7
-12.5001 15.3466 -2.6477 0.1326 0 7
-12.7457 15.1432 -2.6477 0.1326 0 7
-12.9879 14.9360 -2.6477 0.1326 0 7
-13.2269 14.7248 -2.6477 0.1326 0 7
-13.4623 14.5098 -2.6477 0.1326 0 7
-13.6943 14.2911 -2.6477 0.1326 0 7
-13.9227 14.0687 -2.6477 0.1326 0 7
-14.1476 13.8426 -2.6477 0.1326 0 7
-14.3687 13.6129 -2.6477 0.1326 0 7
-14.5861 13.3797 -2.6477 0.1326 0 7
-14.7997 13.1430 -2.6477 0.1326 0 7
-15.0095 12.9029 -2.6477 0.1326 0 7
-15.2154 12.6594 -2.6477 0.1326 0 7
-15.4173 12.4127 -2.6477 0.1326 0 7
-15.6153 12.1627 -2.6477 0.1326 0 7
-15.8092 11.9097 -2.6477 0.1326 0 7
-15.9990 11.6534 -2.6477 0.1326 0 7
-16.1846 11.3942 -2.6477 0.1326 0 6
-16.3661 11.1320 -2.6477 0.1326 0 7
-16.5432 10.8670 -2.6477 0.1326 0 7
-16.7162 10.5991 -2.6477 0.1326 0 7
-16.8847 10.3284 -2.6477 0.1326 0 7
-17.0489 10.0551 -2.6477 0.1326 0 7
-17.2087 9.7792 -2.6477 0.1326 0 7
-17.3639 9.5007 -2.6477 0.1326 0 7
-17.5147 9.2198 -2.6477 0.1326 0 7
-17.6610 8.9365 -2.6477 0.1326 0 7
-16.7779 8.1529 -2.4953 0.1326 0 8
-16.9070 7.8816 -2.4953 0.1326 0 8
-17.0318 7.6082 -2.4953 0.1326 0 8
-17.1522 7.3329 -2.4953 0.1326 0 8
-17.2680 7.0556 -2.4953 0.1326 0 8
-17.3795 6.7765 -2.4953 0.1326 0 8
-17.4864 6.4957 -2.4953 0.1326 0 8
-17.5887 6.2132 -2.4953 0.1326 0 8
-17.6865 5.9291 -2.4953 0.1326 0 8
-17.7797 5.6434 -2.4953 0.1326 0 8
-17.8683 5.3563 -2.4953 0.1326 0 8
-17.9523 5.0678 -2.4953 0.1326 0 8
-18.0316 4.7779 -2.4953 0.1326 0 8
-18.1062 4.4869 -2.4953 0.1326 0 8
-18.1761 4.1946 -2.4953 0.1326 0 8
-18.2414 3.9013 -2.4953 0.1326 0 8
-18.3018 3.6070 -2.4953 0.1326 0 8
-18.3576 3.3117 -2.4953 0.1326 0 8
-18.4085 3.0156 -2.4953 0.1326 0 8
-18.4547 2.7186 -2.4953 0.1326 0 8
-18.4961 2.4210 -2.4953 0.1326 0 8
-18.5327 2.1228 -2.4953 0.1326 0 8
-18.5645 1.8240 -2.4953 0.1326 0 8
-18.5915 1.5247 -2.4953 0.1326 0 8
-18.6136 1.2250 -2.4953 0.1326 0 8
-18.6309 0.9250 -2.4953 0.1326 0 8
-18.6434 0.6248 -2.4953 0.1326 0 8
-18.6511 0.3244 -2.4953 0.1326 0 8
-18.6539 0.0239 -2.4953 0.1326 0 8
-18.6518 -0.2766 -2.4953 0.1326 0 8
-18.6450 -0.5770 -2.4953 0.1326 0 8
-18.6332 -0.8772 -2.4953 0.1326 0 8
-18.6167 -1.1773 -2.4953 0.1326 0 8
-18.5953 -1.4770 -2.4953 0.1326 0 8
-18.5691 -1.7763 -2.4953 0.1326 0 8
-18.5381 -2.0752 -2.4953 0.1326 0 8
-18.5023 -2.3736 -2.4953 0.1326 0 8
-18.4616 -2.6713 -2.4953 0.1326 0 8
-18.4162 -2.9683 -2.4953 0.1326 0 8
-18.3660 -3.2646 -2.4953 0.1326 0 8
-18.3110 -3.5600 -2.4953 0.1326 0 8
-18.2513 -3.8545 -2.4953 0.1326 0 8
-18.1869 -4.1480 -2.4953 0.1326 0 8
-18.1177 -4.4404 -2.4953 0.1326 0 8
-18.0438 -4.7317 -2.4953 0.1326 0 8
-17.9653 -5.0217 -2.4953 0.1326 0 8
-17.8820 -5.3104 -2.4953 0.1326 0 8
-17.7942 -5.5978 -2.4953 0.1326 0 8
-17.7017 -5.8837 -2.4953 0.1326 0 8
-17.6046 -6.1681 -2.4953 0.1326 0 8
-17.5030 -6.4508 -2.4953 0.1326 0 8
-17.3968 -6.7319 -2.4953 0.1326 0 8
-17.2861 -7.0113 -2.4953 0.1326 0 8
-17.1709 -7.2888 -2.4953 0.1326 0 8
-17.0513 -7.5645 -2.4953 0.1326 0 8
-16.9272 -7.8382 -2.4953 0.1326 0 8
-16.7988 -8.1098 -2.4953 0.1326 0 8
-16.6660 -8.3794 -2.4953 0.1326 0 8
-16.5288 -8.6467 -2.4953 0.1326 0 8
-16.3874 -8.9118 -2.4953 0.1326 0 8
-16.2417 -9.1747 -2.4953 0.1326 0 8
10.0912 15.6419 -2.6477 0.1408 0 7
9.8380 15.8024 -2.6477 0.1408 0 7
9.5821 15.9589 -2.6477 0.1408 0 7
9.3238 16.1111 -2.6477 0.1408 0 7
9.0631 16.2592 -2.6477 0.1408 0 7
8.8000 16.4031 -2.6477 0.1408 0 7
8.5347 16.5427 -2.6477 0.1408 0 7
8.2671 16.6781 -2.6477 0.1408 0 7
7.9973 16.8091 -2.6477 0.1408 0 7
7.7256 16.9357 -2.6477 0.1408 0 7
7.4517 17.0580 -2.6477 0.1408 0 7
7.1760 17.1758 -2.6477 0.1408 0 7
6.8984 17.2891 -2.6477 0.1408 0 7
6.6190 17.3980 -2.6477 0.1408 0 7
6.3379 17.5024 -2.6477 0.1408 0 7
6.0552 17.6022 -2.6477 0.1408 0 7
5.7708 17.6975 -2.6477 0.1408 0 7
5.4850 17.7881 -2.6477 0.1408 0 7
5.1978 17.8742 -2.6477 0.1408 0 7
4.9092 17.9556 -2.6477 0.1408 0 7
4.6193 18.0323 -2.6477 0.1408 0 7
4.3283 18.1044 -2.6477 0.1408 0 7
4.0361 18.1718 -2.6477 0.1408 0 7
3.7428 18.2344 -2.6477 0.1408 0 7
3.4486 18.2923 -2.6477 0.1408 0 7
3.1535 18.3455 -2.6477 0.1408 0 7
2.8576 18.3939 -2.6477 0.1408 0 6
2.5609 18.4376 -2.6477 0.1408 0 6
2.2636 18.4764 -2.6477 0.1408 0 6
1.9657 18.5105 -2.6477 0.1408 0 7
1.6673 18.5398 -2.6477 0.1408 0 7
1.3684 18.5642 -2.6477 0.1408 0 7
1.0692 18.5838 -2.6477 0.1408 0 7
0.7697 18.5987 -2.6477 0.1408 0 7
0.4700 18.6086 -2.6477 0.1408 0 7
0.1702 18.6138 -2.6477 0.1408 0 7
-0.1296 18.6141 -2.6477 0.1408 0 7
-0.4294 18.6096 -2.6477 0.1408 0 7
-0.7292 18.6003 -2.6477 0.1408 0 7
-1.0287 18.5861 -2.6477 0.1408 0 7
-1.3279 18.5672 -2.6477 0.1408 0 7
-1.6268 18.5434 -2.6477 0.1408 0 7
-1.9253 18.5147 -2.6477 0.1408 0 7
-2.2233 18.4813 -2.6477 0.1408 0 6
-2.5207 18.4431 -2.6477 0.1408 0 6
-2.8175 18.4001 -2.6477 0.1408 0 6
-3.1135 18.3524 -2.6477 0.1408 0 7
-3.4087 18.2998 -2.6477 0.1408 0 7
-3.7031 18.2425 -2.6477 0.1408 0 7
