ply
format ascii 1.0
element vertex 1434
property float32 x
property float32 y
property float32 z
property float32 CosAngle
property uint32 ObjIdx
property uint32 ObjTag
end_header
10.5746 5.3168 -2.4953 0.2063 0 8
10.4876 5.4865 -2.4953 0.2063 0 8
10.3979 5.6547 -2.4953 0.2063 0 8
10.3054 5.8215 -2.4953 0.2063 0 8
10.2103 5.9867 -2.4953 0.2063 0 8
10.1126 6.1504 -2.4953 0.2063 0 8
10.0122 6.3125 -2.4953 0.2063 0 8
9.9092 6.4730 -2.4953 0.2063 0 8
9.8037 6.6318 -2.4953 0.2063 0 8
9.6956 6.7888 -2.4953 0.2063 0 8
9.5850 6.9441 -2.4953 0.2063 0 8
9.4719 7.0976 -2.4953 0.2063 0 8
9.3563 7.2492 -2.4953 0.2063 0 8
9.2383 7.3990 -2.4953 0.2063 0 8
9.1179 7.5469 -2.4953 0.2063 0 8
8.9952 7.6928 -2.4953 0.2063 0 8
8.8701 7.8367 -2.4953 0.2063 0 8
8.7427 7.9785 -2.4953 0.2063 0 8
8.6131 8.1183 -2.4953 0.2063 0 8
8.4812 8.2560 -2.4953 0.2063 0 8
8.3471 8.3915 -2.4953 0.2063 0 8
8.7123 9.0456 -2.6477 0.2063 0 7
8.5655 9.1847 -2.6477 0.2063 0 7
8.4164 9.3215 -2.6477 0.2063 0 7
8.2652 9.4559 -2.6477 0.2063 0 7
8.1118 9.5878 -2.6477 0.2063 0 7
7.9563 9.7172 -2.6477 0.2063 0 7
7.7987 9.8441 -2.6477 0.2063 0 7
7.6392 9.9685 -2.6477 0.2063 0 7
7.4776 10.0902 -2.6477 0.2063 0 7
7.3141 10.2094 -2.6477 0.2063 0 7
7.1487 10.3258 -2.6477 0.2063 0 7
6.9814 10.4397 -2.6477 0.2063 0 7
6.8124 10.5508 -2.6477 0.2063 0 7
6.6415 10.6591 -2.6477 0.2063 0 7
6.4690 10.7647 -2.6477 0.2063 0 7
6.2947 10.8675 -2.6477 0.2063 0 7
6.1189 10.9675 -2.6477 0.2063 0 7
5.9414 11.0647 -2.6477 0.2063 0 7
11.2710 -1.4752 -2.4953 0.2144 0 8
11.2933 -1.2934 -2.4953 0.2144 0 8
7.8976 -0.7759 -1.7420 0.3022 25 10
7.7030 -0.6316 -1.6966 0.8723 25 10
7.6475 -0.5032 -1.6824 0.8797 25 10
7.6104 -0.3778 -1.6727 0.9672 25 10
7.5907 -0.2543 -1.6672 0.9882 25 10
7.5822 -0.1318 -1.6647 0.9970 25 10
7.5753 -0.0096 -1.6629 0.9980 25 10
7.5811 0.1125 -1.6644 0.9972 25 10
7.5887 0.2349 -1.6666 0.9886 25 10
7.6066 0.3582 -1.6716 0.9678 25 10
7.6388 0.4831 -1.6802 0.8809 25 10
7.6941 0.6112 -1.6943 0.8735 25 10
7.8381 0.7499 -1.7284 0.3046 25 10
11.2966 1.2647 -2.4953 0.2144 0 8
11.2748 1.4465 -2.4953 0.2144 0 8
11.2500 1.6279 -2.4953 0.2144 0 8
11.2223 1.8089 -2.4953 0.2144 0 8
11.1917 1.9894 -2.4953 0.2144 0 8
11.1582 2.1695 -2.4953 0.2144 0 8
11.1218 2.3489 -2.4953 0.2144 0 8
11.0825 2.5278 -2.4953 0.2144 0 8
11.0404 2.7060 -2.4953 0.2144 0 8
10.9954 2.8834 -2.4953 0.2144 0 8
10.9475 3.0602 -2.4953 0.2144 0 8
10.8968 3.2361 -2.4953 0.2144 0 8
10.8432 3.4112 -2.4953 0.2144 0 8
10.7869 3.5854 -2.4953 0.2144 0 8
10.7277 3.7587 -2.4953 0.2144 0 8
10.6658 3.9311 -2.4953 0.2144 0 8
10.6011 4.1024 -2.4953 0.2144 0 8
10.5336 4.2726 -2.4953 0.2144 0 8
10.4634 4.4417 -2.4953 0.2144 0 8
10.3905 4.6097 -2.4953 0.2144 0 8
10.3149 4.7764 -2.4953 0.2144 0 8
10.2367 4.9420 -2.4953 0.2144 0 8
10.1557 5.1062 -2.4953 0.2144 0 8
10.0722 5.2692 -2.4953 0.2144 0 8
9.9860 5.4307 -2.4953 0.2144 0 8
9.8972 5.5909 -2.4953 0.2144 0 8
9.8059 5.7496 -2.4953 0.2144 0 8
9.7120 5.9068 -2.4953 0.2144 0 8
9.6156 6.0624 -2.4953 0.2144 0 8
9.5167 6.2165 -2.4953 0.2144 0 8
9.4153 6.3690 -2.4953 0.2144 0 8
9.3115 6.5199 -2.4953 0.2144 0 8
9.2052 6.6690 -2.4953 0.2144 0 8
9.0966 6.8164 -2.4953 0.2144 0 8
8.9857 6.9621 -2.4953 0.2144 0 8
8.8723 7.1059 -2.4953 0.2144 0 8
8.7567 7.2479 -2.4953 0.2144 0 8
8.6388 7.3880 -2.4953 0.2144 0 8
8.5187 7.5262 -2.4953 0.2144 0 8
8.3964 7.6625 -2.4953 0.2144 0 8
8.2719 7.7967 -2.4953 0.2144 0 8
8.1452 7.9289 -2.4953 0.2144 0 8
8.0164 8.0591 -2.4953 0.2144 0 8
7.8856 8.1872 -2.4953 0.2144 0 8
7.7527 8.3132 -2.4953 0.2144 0 8
7.6178 8.4370 -2.4953 0.2144 0 8
7.9377 9.0813 -2.6477 0.2144 0 7
7.7904 9.2080 -2.6477 0.2144 0 7
7.6411 9.3323 -2.6477 0.2144 0 7
7.4898 9.4541 -2.6477 0.2144 0 7
7.3365 9.5736 -2.6477 0.2144 0 7
7.1814 9.6905 -2.6477 0.2144 0 7
7.0243 9.8049 -2.6477 0.2144 0 7
6.8655 9.9168 -2.6477 0.2144 0 7
6.7049 10.0261 -2.6477 0.2144 0 7
6.5425 10.1328 -2.6477 0.2144 0 7
6.3784 10.2369 -2.6477 0.2144 0 7
6.2127 10.3383 -2.6477 0.2144 0 7
6.0454 10.4370 -2.6477 0.2144 0 7
5.8765 10.5330 -2.6477 0.2144 0 7
5.7060 10.6263 -2.6477 0.2144 0 7
10.8400 -1.4188 -2.4953 0.2225 0 8
10.8615 -1.2440 -2.4953 0.2225 0 8
7.8793 -0.7741 -1.8071 0.3024 25 10
7.6805 -0.6298 -1.7589 0.8733 25 10
7.6254 -0.5018 -1.7442 0.8806 25 10
7.5923 -0.3769 -1.7350 0.9677 25 10
7.5739 -0.2538 -1.7297 0.9958 25 10
7.5671 -0.1315 -1.7274 0.9971 25 10
7.5602 -0.0096 -1.7256 0.9982 25 10
7.5660 0.1123 -1.7271 0.9973 25 10
7.5728 0.2344 -1.7293 0.9960 25 10
7.5885 0.3573 -1.7339 0.9683 25 10
7.6167 0.4817 -1.7419 0.8818 25 10
7.6717 0.6094 -1.7565 0.8744 25 10
7.8200 0.7481 -1.7930 0.3047 25 10
10.8646 1.2163 -2.4953 0.2225 0 8
10.8436 1.3912 -2.4953 0.2225 0 8
10.8198 1.5657 -2.4953 0.2225 0 8
10.7932 1.7397 -2.4953 0.2225 0 8
10.7638 1.9134 -2.4953 0.2225 0 8
10.7315 2.0865 -2.4953 0.2225 0 8
10.6965 2.2591 -2.4953 0.2225 0 8
10.6588 2.4311 -2.4953 0.2225 0 8
10.6182 2.6025 -2.4953 0.2225 0 8
10.5749 2.7732 -2.4953 0.2225 0 8
10.5289 2.9432 -2.4953 0.2225 0 8
10.4801 3.1124 -2.4953 0.2225 0 8
10.4286 3.2808 -2.4953 0.2225 0 8
10.3744 3.4483 -2.4953 0.2225 0 8
10.3175 3.6150 -2.4953 0.2225 0 8
10.2579 3.7807 -2.4953 0.2225 0 8
10.1957 3.9455 -2.4953 0.2225 0 8
10.1308 4.1092 -2.4953 0.2225 0 8
10.0633 4.2719 -2.4953 0.2225 0 8
9.9932 4.4334 -2.4953 0.2225 0 8
9.9205 4.5938 -2.4953 0.2225 0 8
9.8452 4.7530 -2.4953 0.2225 0 8
9.7674 4.9110 -2.4953 0.2225 0 8
9.6870 5.0677 -2.4953 0.2225 0 8
9.6041 5.2231 -2.4953 0.2225 0 8
9.5188 5.3771 -2.4953 0.2225 0 8
9.4309 5.5297 -2.4953 0.2225 0 8
9.3406 5.6809 -2.4953 0.2225 0 8
9.2479 5.8306 -2.4953 0.2225 0 8
9.1528 5.9788 -2.4953 0.2225 0 8
9.0553 6.1255 -2.4953 0.2225 0 8
8.9554 6.2706 -2.4953 0.2225 0 8
8.8532 6.4140 -2.4953 0.2225 0 8
8.7488 6.5558 -2.4953 0.2225 0 8
8.6421 6.6959 -2.4953 0.2225 0 8
8.5331 6.8342 -2.4953 0.2225 0 8
8.4219 6.9708 -2.4953 0.2225 0 8
8.3085 7.1055 -2.4953 0.2225 0 8
8.1930 7.2384 -2.4953 0.2225 0 8
8.0753 7.3695 -2.4953 0.2225 0 8
7.9556 7.4986 -2.4953 0.2225 0 8
7.8337 7.6258 -2.4953 0.2225 0 8
7.7099 7.7509 -2.4953 0.2225 0 8
7.5840 7.8741 -2.4953 0.2225 0 8
7.4562 7.9953 -2.4953 0.2225 0 8
7.3265 8.1143 -2.4953 0.2225 0 8
7.1948 8.2313 -2.4953 0.2225 0 8
7.0613 8.3461 -2.4953 0.2225 0 8
6.9259 8.4588 -2.4953 0.2225 0 8
7.2034 9.0926 -2.6477 0.2225 0 7
7.0560 9.2075 -2.6477 0.2225 0 7
6.9068 9.3200 -2.6477 0.2225 0 7
6.7557 9.4300 -2.6477 0.2225 0 7
6.6030 9.5376 -2.6477 0.2225 0 7
6.4485 9.6427 -2.6477 0.2225 0 7
6.2923 9.7453 -2.6477 0.2225 0 7
6.1345 9.8454 -2.6477 0.2225 0 7
5.9751 9.9430 -2.6477 0.2225 0 7
5.8142 10.0379 -2.6477 0.2225 0 7
5.6518 10.1303 -2.6477 0.2225 0 7
5.4878 10.2200 -2.6477 0.2225 0 7
10.4393 -1.3663 -2.4953 0.2306 0 8
10.4600 -1.1980 -2.4953 0.2306 0 8
7.8928 -0.7754 -1.8796 0.4549 25 10
7.6692 -0.6289 -1.8237 0.8514 25 10
7.6138 -0.5010 -1.8084 0.8586 25 10
7.5810 -0.3763 -1.7989 0.9384 25 10
7.5633 -0.2534 -1.7935 0.9666 25 10
7.5560 -0.1314 -1.7911 0.9679 25 10
7.5499 -0.0096 -1.7894 0.9299 25 10
7.5548 0.1121 -1.7907 0.9681 25 10
7.5621 0.2341 -1.7931 0.9668 25 10
7.5769 0.3568 -1.7977 0.9390 25 10
7.6051 0.4810 -1.8060 0.8597 25 10
7.6604 0.6085 -1.8213 0.8525 25 10
7.8356 0.7496 -1.8656 0.2796 25 10
10.4630 1.1714 -2.4953 0.2306 0 8
10.4428 1.3397 -2.4953 0.2306 0 8
10.4199 1.5078 -2.4953 0.2306 0 8
10.3942 1.6754 -2.4953 0.2306 0 8
10.3659 1.8426 -2.4953 0.2306 0 8
10.3349 2.0094 -2.4953 0.2306 0 8
10.3011 2.1756 -2.4953 0.2306 0 8
10.2648 2.3412 -2.4953 0.2306 0 8
10.2257 2.5063 -2.4953 0.2306 0 8
10.1840 2.6707 -2.4953 0.2306 0 8
10.1397 2.8344 -2.4953 0.2306 0 8
10.0927 2.9973 -2.4953 0.2306 0 8
10.0431 3.1595 -2.4953 0.2306 0 8
9.9909 3.3209 -2.4953 0.2306 0 8
9.9361 3.4814 -2.4953 0.2306 0 8
9.8788 3.6410 -2.4953 0.2306 0 8
9.8188 3.7996 -2.4953 0.2306 0 8
9.7564 3.9573 -2.4953 0.2306 0 8
9.6913 4.1139 -2.4953 0.2306 0 8
9.6238 4.2695 -2.4953 0.2306 0 8
9.5538 4.4240 -2.4953 0.2306 0 8
9.4813 4.5773 -2.4953 0.2306 0 8
9.4063 4.7294 -2.4953 0.2306 0 8
9.3289 4.8803 -2.4953 0.2306 0 8
9.2491 5.0300 -2.4953 0.2306 0 8
9.1669 5.1783 -2.4953 0.2306 0 8
9.0823 5.3253 -2.4953 0.2306 0 8
8.9953 5.4709 -2.4953 0.2306 0 8
8.9060 5.6151 -2.4953 0.2306 0 8
8.8144 5.7578 -2.4953 0.2306 0 8
8.7205 5.8991 -2.4953 0.2306 0 8
8.6244 6.0388 -2.4953 0.2306 0 8
8.5260 6.1769 -2.4953 0.2306 0 8
8.4254 6.3134 -2.4953 0.2306 0 8
8.3226 6.4483 -2.4953 0.2306 0 8
8.2177 6.5816 -2.4953 0.2306 0 8
8.1106 6.7131 -2.4953 0.2306 0 8
8.0014 6.8429 -2.4953 0.2306 0 8
7.8901 6.9709 -2.4953 0.2306 0 8
7.7768 7.0970 -2.4953 0.2306 0 8
7.6615 7.2214 -2.4953 0.2306 0 8
7.5442 7.3439 -2.4953 0.2306 0 8
7.4249 7.4644 -2.4953 0.2306 0 8
7.3037 7.5831 -2.4953 0.2306 0 8
7.1806 7.6997 -2.4953 0.2306 0 8
7.0556 7.8144 -2.4953 0.2306 0 8
6.9288 7.9270 -2.4953 0.2306 0 8
6.8003 8.0376 -2.4953 0.2306 0 8
6.6699 8.1461 -2.4953 0.2306 0 8
6.5378 8.2525 -2.4953 0.2306 0 8
6.4040 8.3567 -2.4953 0.2306 0 8
6.2686 8.4588 -2.4953 0.2306 0 8
6.5060 9.0814 -2.6477 0.2306 0 7
6.3589 9.1850 -2.6477 0.2306 0 7
6.2101 9.2863 -2.6477 0.2306 0 7
6.0597 9.3851 -2.6477 0.2306 0 7
5.9078 9.4815 -2.6477 0.2306 0 7
5.7543 9.5754 -2.6477 0.2306 0 7
5.5993 9.6669 -2.6477 0.2306 0 7
5.4428 9.7558 -2.6477 0.2306 0 7
5.2850 9.8422 -2.6477 0.2306 0 7
10.0658 -1.3174 -2.4953 0.2387 0 8
10.0857 -1.1551 -2.4953 0.2387 0 8
7.8782 -0.7740 -1.9458 0.4549 25 10
7.6773 -0.6295 -1.8934 0.7658 25 10
7.6164 -0.5012 -1.8762 0.8566 25 10
7.5820 -0.3764 -1.8659 0.9364 25 10
7.5639 -0.2534 -1.8603 0.9645 25 10
7.5566 -0.1314 -1.8577 0.9659 25 10
7.5598 -0.0096 -1.8582 0.9268 25 10
7.5568 0.1121 -1.8577 0.9271 25 10
7.5628 0.2341 -1.8598 0.9648 25 10
7.5779 0.3568 -1.8647 0.9370 25 10
7.6077 0.4812 -1.8737 0.8577 25 10
7.6655 0.6089 -1.8901 0.7671 25 10
7.8422 0.7503 -1.9364 0.4571 25 10
10.0886 1.1294 -2.4953 0.2387 0 8
10.0691 1.2918 -2.4953 0.2387 0 8
10.0470 1.4538 -2.4953 0.2387 0 8
10.0223 1.6155 -2.4953 0.2387 0 8
9.9950 1.7767 -2.4953 0.2387 0 8
9.9650 1.9375 -2.4953 0.2387 0 8
9.9325 2.0977 -2.4953 0.2387 0 8
9.8975 2.2575 -2.4953 0.2387 0 8
9.8598 2.4166 -2.4953 0.2387 0 8
9.8196 2.5751 -2.4953 0.2387 0 8
9.7768 2.7329 -2.4953 0.2387 0 8
9.7316 2.8901 -2.4953 0.2387 0 8
9.6837 3.0465 -2.4953 0.2387 0 8
9.6334 3.2020 -2.4953 0.2387 0 8
9.5806 3.3568 -2.4953 0.2387 0 8
9.5253 3.5107 -2.4953 0.2387 0 8
9.4675 3.6637 -2.4953 0.2387 0 8
9.4072 3.8157 -2.4953 0.2387 0 8
9.3446 3.9667 -2.4953 0.2387 0 8
9.2794 4.1167 -2.4953 0.2387 0 8
9.2119 4.2657 -2.4953 0.2387 0 8
9.1420 4.4135 -2.4953 0.2387 0 8
9.0697 4.5602 -2.4953 0.2387 0 8
8.9951 4.7057 -2.4953 0.2387 0 8
8.9181 4.8500 -2.4953 0.2387 0 8
8.8389 4.9930 -2.4953 0.2387 0 8
8.7573 5.1347 -2.4953 0.2387 0 8
8.6734 5.2751 -2.4953 0.2387 0 8
8.5873 5.4142 -2.4953 0.2387 0 8
8.4990 5.5518 -2.4953 0.2387 0 8
8.4085 5.6880 -2.4953 0.2387 0 8
8.3158 5.8227 -2.4953 0.2387 0 8
8.2209 5.9559 -2.4953 0.2387 0 8
8.1239 6.0875 -2.4953 0.2387 0 8
8.0248 6.2176 -2.4953 0.2387 0 8
7.9236 6.3461 -2.4953 0.2387 0 8
7.8203 6.4729 -2.4953 0.2387 0 8
7.7151 6.5980 -2.4953 0.2387 0 8
7.6078 6.7214 -2.4953 0.2387 0 8
7.4985 6.8431 -2.4953 0.2387 0 8
7.3873 6.9630 -2.4953 0.2387 0 8
7.2742 7.0811 -2.4953 0.2387 0 8
7.1592 7.1973 -2.4953 0.2387 0 8
7.0423 7.3117 -2.4953 0.2387 0 8
6.9236 7.4242 -2.4953 0.2387 0 8
6.8032 7.5348 -2.4953 0.2387 0 8
6.6809 7.6434 -2.4953 0.2387 0 8
6.5569 7.7500 -2.4953 0.2387 0 8
6.4312 7.8546 -2.4953 0.2387 0 8
6.3039 7.9572 -2.4953 0.2387 0 8
6.1749 8.0577 -2.4953 0.2387 0 8
6.0443 8.1561 -2.4953 0.2387 0 8
5.9121 8.2524 -2.4953 0.2387 0 8
5.7784 8.3466 -2.4953 0.2387 0 8
5.6432 8.4386 -2.4953 0.2387 0 8
5.8429 9.0493 -2.6477 0.2387 0 7
5.6964 9.1422 -2.6477 0.2387 0 7
5.5484 9.2328 -2.6477 0.2387 0 7
5.3989 9.3210 -2.6477 0.2387 0 7
5.2481 9.4067 -2.6477 0.2387 0 7
5.0959 9.4900 -2.6477 0.2387 0 7
9.7167 -1.2717 -2.4953 0.2468 0 8
9.7359 -1.1151 -2.4953 0.2468 0 8
7.8758 -0.7737 -2.0151 0.3987 25 10
7.6906 -0.6306 -1.9648 0.7629 25 10
7.6190 -0.5014 -1.9442 0.8545 25 10
7.5845 -0.3765 -1.9336 0.9177 25 10
7.5646 -0.2534 -1.9273 0.9625 25 10
7.5663 -0.1315 -1.9269 0.9240 25 10
7.5698 -0.0096 -1.9275 0.9237 25 10
7.5668 0.1123 -1.9270 0.9240 25 10
7.5634 0.2341 -1.9268 0.9627 25 10
7.5797 0.3569 -1.9322 0.9184 25 10
7.6103 0.4813 -1.9417 0.8556 25 10
7.6788 0.6100 -1.9614 0.7642 25 10
7.8372 0.7498 -2.0047 0.4008 25 10
9.7387 1.0903 -2.4953 0.2468 0 8
9.7199 1.2470 -2.4953 0.2468 0 8
9.6985 1.4034 -2.4953 0.2468 0 8
9.6747 1.5594 -2.4953 0.2468 0 8
9.6483 1.7151 -2.4953 0.2468 0 8
9.6194 1.8703 -2.4953 0.2468 0 8
9.5880 2.0250 -2.4953 0.2468 0 8
9.5542 2.1792 -2.4953 0.2468 0 8
9.5178 2.3328 -2.4953 0.2468 0 8
9.4790 2.4858 -2.4953 0.2468 0 8
9.4378 2.6382 -2.4953 0.2468 0 8
9.3940 2.7898 -2.4953 0.2468 0 8
9.3479 2.9408 -2.4953 0.2468 0 8
9.2993 3.0910 -2.4953 0.2468 0 8
9.2483 3.2404 -2.4953 0.2468 0 8
9.1949 3.3889 -2.4953 0.2468 0 8
9.1391 3.5366 -2.4953 0.2468 0 8
9.0810 3.6834 -2.4953 0.2468 0 8
9.0205 3.8292 -2.4953 0.2468 0 8
8.9576 3.9740 -2.4953 0.2468 0 8
8.8924 4.1177 -2.4953 0.2468 0 8
8.8249 4.2604 -2.4953 0.2468 0 8
8.7552 4.4020 -2.4953 0.2468 0 8
8.6831 4.5425 -2.4953 0.2468 0 8
8.6088 4.6818 -2.4953 0.2468 0 8
8.5323 4.8198 -2.4953 0.2468 0 8
8.4536 4.9567 -2.4953 0.2468 0 8
8.3726 5.0922 -2.4953 0.2468 0 8
8.2895 5.2264 -2.4953 0.2468 0 8
8.2042 5.3592 -2.4953 0.2468 0 8
8.1169 5.4907 -2.4953 0.2468 0 8
8.0274 5.6207 -2.4953 0.2468 0 8
7.9358 5.7493 -2.4953 0.2468 0 8
7.8421 5.8764 -2.4953 0.2468 0 8
7.7465 6.0019 -2.4953 0.2468 0 8
7.6488 6.1259 -2.4953 0.2468 0 8
7.5491 6.2484 -2.4953 0.2468 0 8
7.4475 6.3692 -2.4953 0.2468 0 8
7.3439 6.4883 -2.4953 0.2468 0 8
7.2384 6.6057 -2.4953 0.2468 0 8
7.1311 6.7215 -2.4953 0.2468 0 8
7.0219 6.8355 -2.4953 0.2468 0 8
6.9109 6.9477 -2.4953 0.2468 0 8
6.7981 7.0581 -2.4953 0.2468 0 8
6.6835 7.1667 -2.4953 0.2468 0 8
6.5672 7.2734 -2.4953 0.2468 0 8
6.4492 7.3783 -2.4953 0.2468 0 8
6.3295 7.4812 -2.4953 0.2468 0 8
6.2082 7.5822 -2.4953 0.2468 0 8
6.0852 7.6812 -2.4953 0.2468 0 8
5.9607 7.7782 -2.4953 0.2468 0 8
5.8346 7.8732 -2.4953 0.2468 0 8
5.7071 7.9662 -2.4953 0.2468 0 8
5.5780 8.0571 -2.4953 0.2468 0 8
5.4475 8.1459 -2.4953 0.2468 0 8
5.3156 8.2326 -2.4953 0.2468 0 8
5.1879 8.3260 -2.4979 0.7551 0 8
5.0476 8.3995 -2.4953 0.2468 0 8
5.2117 8.9977 -2.6477 0.2468 0 7
5.0661 9.0805 -2.6477 0.2468 0 7
4.9191 9.1609 -2.6477 0.2468 0 7
9.3896 -1.2289 -2.4953 0.2548 0 8
9.4082 -1.0775 -2.4953 0.2548 0 8
7.9051 -0.7766 -2.0930 0.5430 25 10
7.7130 -0.6325 -2.0392 0.7211 25 10
7.6350 -0.5024 -2.0162 0.7236 25 10
7.5937 -0.3770 -2.0034 0.8451 25 10
7.5750 -0.2538 -1.9971 0.8886 25 10
7.5787 -0.1317 -1.9973 0.8885 25 10
7.5797 -0.0097 -1.9973 0.9288 25 10
7.5793 0.1124 -1.9974 0.8885 25 10
7.5756 0.2345 -1.9971 0.8886 25 10
7.5887 0.3573 -2.0018 0.8458 25 10
7.6229 0.4821 -2.0126 0.7248 25 10
7.7007 0.6117 -2.0355 0.7224 25 10
7.8784 0.7537 -2.0855 0.5450 25 10
9.4109 1.0536 -2.4953 0.2548 0 8
9.3927 1.2050 -2.4953 0.2548 0 8
9.3721 1.3562 -2.4953 0.2548 0 8
9.3490 1.5070 -2.4953 0.2548 0 8
9.3235 1.6574 -2.4953 0.2548 0 8
9.2956 1.8073 -2.4953 0.2548 0 8
9.2653 1.9568 -2.4953 0.2548 0 8
9.2326 2.1058 -2.4953 0.2548 0 8
9.1975 2.2543 -2.4953 0.2548 0 8
9.1600 2.4021 -2.4953 0.2548 0 8
9.1201 2.5494 -2.4953 0.2548 0 8
9.0778 2.6959 -2.4953 0.2548 0 8
9.0332 2.8418 -2.4953 0.2548 0 8
8.9863 2.9870 -2.4953 0.2548 0 8
8.9370 3.1313 -2.4953 0.2548 0 8
8.8854 3.2749 -2.4953 0.2548 0 8
8.8315 3.4176 -2.4953 0.2548 0 8
8.7753 3.5594 -2.4953 0.2548 0 8
8.7168 3.7003 -2.4953 0.2548 0 8
8.6561 3.8402 -2.4953 0.2548 0 8
8.5931 3.9791 -2.4953 0.2548 0 8
8.5279 4.1170 -2.4953 0.2548 0 8
8.4605 4.2539 -2.4953 0.2548 0 8
8.3909 4.3896 -2.4953 0.2548 0 8
8.3191 4.5242 -2.4953 0.2548 0 8
8.2451 4.6576 -2.4953 0.2548 0 8
8.1690 4.7898 -2.4953 0.2548 0 8
8.0908 4.9208 -2.4953 0.2548 0 8
8.0105 5.0505 -2.4953 0.2548 0 8
7.9281 5.1789 -2.4953 0.2548 0 8
7.8437 5.3059 -2.4953 0.2548 0 8
7.7572 5.4316 -2.4953 0.2548 0 8
7.6687 5.5558 -2.4953 0.2548 0 8
7.5782 5.6786 -2.4953 0.2548 0 8
7.4857 5.7999 -2.4953 0.2548 0 8
7.3913 5.9198 -2.4953 0.2548 0 8
7.2950 6.0381 -2.4953 0.2548 0 8
7.1968 6.1548 -2.4953 0.2548 0 8
7.0967 6.2699 -2.4953 0.2548 0 8
6.9948 6.3834 -2.4953 0.2548 0 8
6.8911 6.4953 -2.4953 0.2548 0 8
6.7856 6.6054 -2.4953 0.2548 0 8
6.6783 6.7139 -2.4953 0.2548 0 8
6.5693 6.8206 -2.4953 0.2548 0 8
6.4586 6.9255 -2.4953 0.2548 0 8
6.3462 7.0286 -2.4953 0.2548 0 8
6.2321 7.1299 -2.4953 0.2548 0 8
6.1165 7.2294 -2.4953 0.2548 0 8
5.9992 7.3270 -2.4953 0.2548 0 8
5.8804 7.4227 -2.4953 0.2548 0 8
5.7601 7.5164 -2.4953 0.2548 0 8
5.6383 7.6082 -2.4953 0.2548 0 8
5.5150 7.6981 -2.4953 0.2548 0 8
5.3903 7.7859 -2.4953 0.2548 0 8
5.2642 7.8717 -2.4953 0.2548 0 8
5.1367 7.9555 -2.4953 0.2548 0 8
5.0079 8.0372 -2.4953 0.2548 0 8
4.8777 8.1168 -2.4953 0.2548 0 8
4.7464 8.1944 -2.4953 0.2548 0 8
4.6138 8.2697 -2.4953 0.2548 0 8
4.4799 8.3430 -2.4953 0.2548 0 8
9.0826 -1.1888 -2.4953 0.2628 0 8
9.1006 -1.0423 -2.4953 0.2628 0 8
7.9180 -0.7779 -2.1673 0.5410 25 10
7.7361 -0.6344 -2.1144 0.7174 25 10
7.6584 -0.5039 -2.0907 0.7197 25 10
7.6119 -0.3779 -2.0761 0.8122 25 10
7.5910 -0.2543 -2.0690 0.8847 25 10
7.5929 -0.1320 -2.0687 0.9250 25 10
7.5881 -0.0097 -2.0671 0.9257 25 10
7.5922 0.1126 -2.0684 0.9252 25 10
7.5916 0.2350 -2.0690 0.8847 25 10
7.6066 0.3582 -2.0744 0.8419 25 10
7.6461 0.4836 -2.0870 0.7210 25 10
7.7238 0.6135 -2.1106 0.7187 25 10
7.8913 0.7550 -2.1595 0.5429 25 10
9.1032 1.0191 -2.4953 0.2628 0 8
9.0856 1.1656 -2.4953 0.2628 0 8
9.0656 1.3118 -2.4953 0.2628 0 8
9.0433 1.4577 -2.4953 0.2628 0 8
9.0187 1.6032 -2.4953 0.2628 0 8
8.9917 1.7482 -2.4953 0.2628 0 8
8.9623 1.8928 -2.4953 0.2628 0 8
8.9307 2.0370 -2.4953 0.2628 0 8
8.8967 2.1806 -2.4953 0.2628 0 8
8.8604 2.3236 -2.4953 0.2628 0 8
8.8219 2.4660 -2.4953 0.2628 0 8
8.7810 2.6078 -2.4953 0.2628 0 8
8.7379 2.7489 -2.4953 0.2628 0 8
8.6924 2.8893 -2.4953 0.2628 0 8
8.6448 3.0289 -2.4953 0.2628 0 8
8.5949 3.1678 -2.4953 0.2628 0 8
8.5427 3.3058 -2.4953 0.2628 0 8
8.4884 3.4430 -2.4953 0.2628 0 8
8.4318 3.5793 -2.4953 0.2628 0 8
8.3731 3.7146 -2.4953 0.2628 0 8
8.3121 3.8490 -2.4953 0.2628 0 8
8.2491 3.9824 -2.4953 0.2628 0 8
8.1838 4.1148 -2.4953 0.2628 0 8
8.1165 4.2461 -2.4953 0.2628 0 8
8.0470 4.3763 -2.4953 0.2628 0 8
7.9755 4.5053 -2.4953 0.2628 0 8
7.9019 4.6332 -2.4953 0.2628 0 8
7.8262 4.7599 -2.4953 0.2628 0 8
7.7485 4.8853 -2.4953 0.2628 0 8
7.6689 5.0095 -2.4953 0.2628 0 8
7.5872 5.1324 -2.4953 0.2628 0 8
7.5035 5.2539 -2.4953 0.2628 0 8
7.4179 5.3741 -2.4953 0.2628 0 8
7.3304 5.4929 -2.4953 0.2628 0 8
7.2409 5.6103 -2.4953 0.2628 0 8
7.1496 5.7262 -2.4953 0.2628 0 8
7.0565 5.8406 -2.4953 0.2628 0 8
6.9615 5.9535 -2.4953 0.2628 0 8
6.8647 6.0649 -2.4953 0.2628 0 8
6.7661 6.1747 -2.4953 0.2628 0 8
6.6657 6.2829 -2.4953 0.2628 0 8
6.5637 6.3894 -2.4953 0.2628 0 8
6.4599 6.4943 -2.4953 0.2628 0 8
6.3545 6.5975 -2.4953 0.2628 0 8
6.2474 6.6990 -2.4953 0.2628 0 8
6.1386 6.7988 -2.4953 0.2628 0 8
6.0283 6.8968 -2.4953 0.2628 0 8
5.9165 6.9930 -2.4953 0.2628 0 8
5.8030 7.0874 -2.4953 0.2628 0 8
5.6881 7.1800 -2.4953 0.2628 0 8
5.5717 7.2706 -2.4953 0.2628 0 8
5.4539 7.3594 -2.4953 0.2628 0 8
5.3346 7.4463 -2.4953 0.2628 0 8
5.2140 7.5313 -2.4953 0.2628 0 8
5.0920 7.6143 -2.4953 0.2628 0 8
4.9687 7.6954 -2.4953 0.2628 0 8
4.8441 7.7744 -2.4953 0.2628 0 8
4.7182 7.8514 -2.4953 0.2628 0 8
4.5912 7.9264 -2.4953 0.2628 0 8
4.4629 7.9993 -2.4953 0.2628 0 8
4.3334 8.0702 -2.4953 0.2628 0 8
8.7937 -1.1510 -2.4953 0.2708 0 8
8.8111 -1.0092 -2.4953 0.2708 0 8
8.3336 -0.8187 -2.3560 0.6461 25 10
7.7644 -0.6367 -2.1919 0.5512 25 10
7.6818 -0.5055 -2.1660 0.7217 25 10
7.6336 -0.3789 -2.1504 0.8081 25 10
7.6063 -0.2548 -2.1413 0.9209 25 10
7.6014 -0.1321 -2.1390 0.9219 25 10
7.5966 -0.0097 -2.1374 0.9226 25 10
7.6007 0.1128 -2.1387 0.9220 25 10
7.6056 0.2354 -2.1409 0.9211 25 10
7.6276 0.3592 -2.1484 0.8088 25 10
7.6696 0.4851 -2.1622 0.7172 25 10
7.7471 0.6154 -2.1866 0.7149 25 10
8.3331 0.7972 -2.3553 0.6463 25 10
8.8137 0.9867 -2.4953 0.2708 0 8
8.7966 1.1285 -2.4953 0.2708 0 8
8.7773 1.2701 -2.4953 0.2708 0 8
8.7557 1.4113 -2.4953 0.2708 0 8
8.7318 1.5522 -2.4953 0.2708 0 8
8.7057 1.6926 -2.4953 0.2708 0 8
8.6773 1.8326 -2.4953 0.2708 0 8
8.6467 1.9722 -2.4953 0.2708 0 8
8.6138 2.1112 -2.4953 0.2708 0 8
8.5786 2.2497 -2.4953 0.2708 0 8
8.5413 2.3876 -2.4953 0.2708 0 8
8.5017 2.5248 -2.4953 0.2708 0 8
8.4600 2.6615 -2.4953 0.2708 0 8
8.4160 2.7974 -2.4953 0.2708 0 8
8.3698 2.9326 -2.4953 0.2708 0 8
8.3215 3.0670 -2.4953 0.2708 0 8
8.2710 3.2007 -2.4953 0.2708 0 8
8.2184 3.3335 -2.4953 0.2708 0 8
8.1636 3.4654 -2.4953 0.2708 0 8
8.1068 3.5965 -2.4953 0.2708 0 8
8.0478 3.7266 -2.4953 0.2708 0 8
7.9867 3.8558 -2.4953 0.2708 0 8
7.9236 3.9839 -2.4953 0.2708 0 8
7.8584 4.1110 -2.4953 0.2708 0 8
7.7911 4.2371 -2.4953 0.2708 0 8
7.7218 4.3620 -2.4953 0.2708 0 8
7.6506 4.4858 -2.4953 0.2708 0 8
7.5773 4.6085 -2.4953 0.2708 0 8
7.5021 4.7300 -2.4953 0.2708 0 8
7.4250 4.8502 -2.4953 0.2708 0 8
7.3459 4.9692 -2.4953 0.2708 0 8
7.2649 5.0868 -2.4953 0.2708 0 8
7.1820 5.2032 -2.4953 0.2708 0 8
7.0972 5.3182 -2.4953 0.2708 0 8
7.0107 5.4318 -2.4953 0.2708 0 8
6.9222 5.5441 -2.4953 0.2708 0 8
6.8320 5.6548 -2.4953 0.2708 0 8
6.7401 5.7642 -2.4953 0.2708 0 8
6.6463 5.8720 -2.4953 0.2708 0 8
6.5509 5.9783 -2.4953 0.2708 0 8
6.4538 6.0830 -2.4953 0.2708 0 8
6.3549 6.1862 -2.4953 0.2708 0 8
6.2545 6.2878 -2.4953 0.2708 0 8
6.1524 6.3877 -2.4953 0.2708 0 8
6.0487 6.4860 -2.4953 0.2708 0 8
5.9434 6.5826 -2.4953 0.2708 0 8
5.8366 6.6774 -2.4953 0.2708 0 8
5.7283 6.7706 -2.4953 0.2708 0 8
5.6185 6.8620 -2.4953 0.2708 0 8
5.5072 6.9516 -2.4953 0.2708 0 8
5.3945 7.0394 -2.4953 0.2708 0 8
5.2804 7.1254 -2.4953 0.2708 0 8
5.1650 7.2095 -2.4953 0.2708 0 8
5.0482 7.2918 -2.4953 0.2708 0 8
4.9301 7.3722 -2.4953 0.2708 0 8
4.8107 7.4506 -2.4953 0.2708 0 8
4.6900 7.5271 -2.4953 0.2708 0 8
4.5682 7.6017 -2.4953 0.2708 0 8
4.4451 7.6743 -2.4953 0.2708 0 8
4.3209 7.7449 -2.4953 0.2708 0 8
4.1956 7.8135 -2.4953 0.2708 0 8
8.5214 -1.1153 -2.4953 0.2788 0 8
8.5383 -0.9779 -2.4953 0.2788 0 8
8.5529 -0.8402 -2.4953 0.2788 0 8
8.4692 -0.6945 -2.4673 0.2999 25 10
8.5756 -0.5643 -2.4953 0.2788 0 8
8.5835 -0.4261 -2.4953 0.2788 0 8
8.5893 -0.2878 -2.4953 0.2788 0 8
8.5928 -0.1494 -2.4953 0.2788 0 8
8.5941 -0.0109 -2.4953 0.2788 0 8
8.5932 0.1275 -2.4953 0.2788 0 8
8.5900 0.2659 -2.4953 0.2788 0 8
8.5846 0.4042 -2.4953 0.2788 0 8
8.5770 0.5425 -2.4953 0.2788 0 8
8.5671 0.6805 -2.4953 0.2788 0 8
8.5550 0.8185 -2.4953 0.2788 0 8
8.5408 0.9562 -2.4953 0.2788 0 8
8.5242 1.0936 -2.4953 0.2788 0 8
8.5055 1.2308 -2.4953 0.2788 0 8
8.4846 1.3676 -2.4953 0.2788 0 8
8.4615 1.5041 -2.4953 0.2788 0 8
8.4361 1.6402 -2.4953 0.2788 0 8
8.4086 1.7759 -2.4953 0.2788 0 8
8.3789 1.9111 -2.4953 0.2788 0 8
8.3471 2.0458 -2.4953 0.2788 0 8
8.3130 2.1800 -2.4953 0.2788 0 8
8.2768 2.3136 -2.4953 0.2788 0 8
8.2385 2.4467 -2.4953 0.2788 0 8
8.1980 2.5791 -2.4953 0.2788 0 8
8.1554 2.7108 -2.4953 0.2788 0 8
8.1107 2.8418 -2.4953 0.2788 0 8
8.0638 2.9721 -2.4953 0.2788 0 8
8.0149 3.1016 -2.4953 0.2788 0 8
7.9639 3.2303 -2.4953 0.2788 0 8
7.9109 3.3581 -2.4953 0.2788 0 8
7.8557 3.4851 -2.4953 0.2788 0 8
7.7986 3.6112 -2.4953 0.2788 0 8
7.7394 3.7364 -2.4953 0.2788 0 8
7.6782 3.8605 -2.4953 0.2788 0 8
7.6150 3.9837 -2.4953 0.2788 0 8
7.5499 4.1059 -2.4953 0.2788 0 8
7.4827 4.2270 -2.4953 0.2788 0 8
7.4137 4.3469 -2.4953 0.2788 0 8
7.3427 4.4658 -2.4953 0.2788 0 8
7.2698 4.5835 -2.4953 0.2788 0 8
7.1950 4.7000 -2.4953 0.2788 0 8
7.1184 4.8153 -2.4953 0.2788 0 8
7.0399 4.9293 -2.4953 0.2788 0 8
6.9596 5.0421 -2.4953 0.2788 0 8
6.8775 5.1535 -2.4953 0.2788 0 8
6.7936 5.2637 -2.4953 0.2788 0 8
6.7079 5.3724 -2.4953 0.2788 0 8
6.6205 5.4798 -2.4953 0.2788 0 8
6.5314 5.5857 -2.4953 0.2788 0 8
6.4405 5.6902 -2.4953 0.2788 0 8
6.3481 5.7932 -2.4953 0.2788 0 8
6.2539 5.8947 -2.4953 0.2788 0 8
6.1582 5.9947 -2.4953 0.2788 0 8
6.0608 6.0931 -2.4953 0.2788 0 8
5.9619 6.1899 -2.4953 0.2788 0 8
5.8614 6.2851 -2.4953 0.2788 0 8
5.7594 6.3787 -2.4953 0.2788 0 8
5.6559 6.4707 -2.4953 0.2788 0 8
5.5509 6.5610 -2.4953 0.2788 0 8
5.4445 6.6495 -2.4953 0.2788 0 8
5.3367 6.7364 -2.4953 0.2788 0 8
5.2275 6.8214 -2.4953 0.2788 0 8
5.1169 6.9048 -2.4953 0.2788 0 8
5.0050 6.9863 -2.4953 0.2788 0 8
4.8919 7.0660 -2.4953 0.2788 0 8
4.7774 7.1439 -2.4953 0.2788 0 8
4.6617 7.2199 -2.4953 0.2788 0 8
4.5448 7.2941 -2.4953 0.2788 0 8
4.4267 7.3663 -2.4953 0.2788 0 8
4.3075 7.4367 -2.4953 0.2788 0 8
4.1872 7.5051 -2.4953 0.2788 0 8
4.0657 7.5716 -2.4953 0.2788 0 8
8.2643 -1.0817 -2.4953 0.2868 0 8
8.2807 -0.9484 -2.4953 0.2868 0 8
8.2949 -0.8149 -2.4953 0.2868 0 8
8.3069 -0.6812 -2.4953 0.2868 0 8
8.3168 -0.5473 -2.4953 0.2868 0 8
8.3245 -0.4132 -2.4953 0.2868 0 8
8.3301 -0.2791 -2.4953 0.2868 0 8
8.3335 -0.1449 -2.4953 0.2868 0 8
8.3348 -0.0106 -2.4953 0.2868 0 8
8.3339 0.1236 -2.4953 0.2868 0 8
8.3308 0.2579 -2.4953 0.2868 0 8
8.3256 0.3920 -2.4953 0.2868 0 8
8.3182 0.5261 -2.4953 0.2868 0 8
8.3086 0.6600 -2.4953 0.2868 0 8
8.2969 0.7938 -2.4953 0.2868 0 8
8.2830 0.9273 -2.4953 0.2868 0 8
8.2670 1.0606 -2.4953 0.2868 0 8
8.2489 1.1936 -2.4953 0.2868 0 8
8.2286 1.3264 -2.4953 0.2868 0 8
8.2061 1.4587 -2.4953 0.2868 0 8
8.1816 1.5907 -2.4953 0.2868 0 8
8.1549 1.7223 -2.4953 0.2868 0 8
8.1261 1.8534 -2.4953 0.2868 0 8
8.0952 1.9841 -2.4953 0.2868 0 8
8.0622 2.1142 -2.4953 0.2868 0 8
8.0271 2.2438 -2.4953 0.2868 0 8
7.9899 2.3728 -2.4953 0.2868 0 8
7.9506 2.5012 -2.4953 0.2868 0 8
7.9093 2.6290 -2.4953 0.2868 0 8
7.8659 2.7560 -2.4953 0.2868 0 8
7.8205 2.8824 -2.4953 0.2868 0 8
7.7731 3.0080 -2.4953 0.2868 0 8
7.7236 3.1328 -2.4953 0.2868 0 8
7.6722 3.2568 -2.4953 0.2868 0 8
7.6187 3.3800 -2.4953 0.2868 0 8
7.5633 3.5022 -2.4953 0.2868 0 8
7.5059 3.6236 -2.4953 0.2868 0 8
7.4465 3.7441 -2.4953 0.2868 0 8
7.3852 3.8635 -2.4953 0.2868 0 8
7.3221 3.9820 -2.4953 0.2868 0 8
7.2570 4.0994 -2.4953 0.2868 0 8
7.1900 4.2158 -2.4953 0.2868 0 8
7.1211 4.3310 -2.4953 0.2868 0 8
7.0505 4.4452 -2.4953 0.2868 0 8
6.9779 4.5582 -2.4953 0.2868 0 8
6.9036 4.6700 -2.4953 0.2868 0 8
6.8275 4.7806 -2.4953 0.2868 0 8
6.7496 4.8899 -2.4953 0.2868 0 8
6.6700 4.9980 -2.4953 0.2868 0 8
6.5886 5.1048 -2.4953 0.2868 0 8
6.5055 5.2103 -2.4953 0.2868 0 8
6.4207 5.3144 -2.4953 0.2868 0 8
6.3343 5.4171 -2.4953 0.2868 0 8
6.2462 5.5185 -2.4953 0.2868 0 8
6.1565 5.6184 -2.4953 0.2868 0 8
6.0652 5.7168 -2.4953 0.2868 0 8
5.9723 5.8138 -2.4953 0.2868 0 8
5.8779 5.9092 -2.4953 0.2868 0 8
5.7820 6.0031 -2.4953 0.2868 0 8
5.6845 6.0955 -2.4953 0.2868 0 8
5.5856 6.1863 -2.4953 0.2868 0 8
5.4852 6.2754 -2.4953 0.2868 0 8
5.3834 6.3630 -2.4953 0.2868 0 8
5.2802 6.4489 -2.4953 0.2868 0 8
5.1757 6.5331 -2.4953 0.2868 0 8
5.0698 6.6156 -2.4953 0.2868 0 8
4.9625 6.6964 -2.4953 0.2868 0 8
4.8540 6.7755 -2.4953 0.2868 0 8
4.7443 6.8528 -2.4953 0.2868 0 8
4.6333 6.9283 -2.4953 0.2868 0 8
4.5211 7.0021 -2.4953 0.2868 0 8
4.4077 7.0740 -2.4953 0.2868 0 8
4.2932 7.1440 -2.4953 0.2868 0 8
4.1775 7.2123 -2.4953 0.2868 0 8
4.0608 7.2786 -2.4953 0.2868 0 8
3.9430 7.3431 -2.4953 0.2868 0 8
8.0211 -1.0498 -2.4953 0.2948 0 8
8.0369 -0.9205 -2.4953 0.2948 0 8
8.0507 -0.7909 -2.4953 0.2948 0 8
8.0624 -0.6611 -2.4953 0.2948 0 8
8.0720 -0.5312 -2.4953 0.2948 0 8
8.0795 -0.4011 -2.4953 0.2948 0 8
8.0849 -0.2709 -2.4953 0.2948 0 8
8.0883 -0.1406 -2.4953 0.2948 0 8
8.0895 -0.0103 -2.4953 0.2948 0 8
8.0886 0.1200 -2.4953 0.2948 0 8
8.0856 0.2503 -2.4953 0.2948 0 8
8.0805 0.3805 -2.4953 0.2948 0 8
8.0733 0.5106 -2.4953 0.2948 0 8
8.0641 0.6406 -2.4953 0.2948 0 8
8.0527 0.7704 -2.4953 0.2948 0 8
8.0392 0.9000 -2.4953 0.2948 0 8
8.0237 1.0294 -2.4953 0.2948 0 8
8.0061 1.1585 -2.4953 0.2948 0 8
7.9864 1.2873 -2.4953 0.2948 0 8
7.9646 1.4158 -2.4953 0.2948 0 8
7.9408 1.5439 -2.4953 0.2948 0 8
7.9149 1.6716 -2.4953 0.2948 0 8
7.8869 1.7989 -2.4953 0.2948 0 8
7.8569 1.9257 -2.4953 0.2948 0 8
7.8249 2.0520 -2.4953 0.2948 0 8
7.7908 2.1778 -2.4953 0.2948 0 8
7.7547 2.3030 -2.4953 0.2948 0 8
7.7166 2.4276 -2.4953 0.2948 0 8
7.6765 2.5516 -2.4953 0.2948 0 8
7.6344 2.6749 -2.4953 0.2948 0 8
7.5903 2.7975 -2.4953 0.2948 0 8
7.5443 2.9194 -2.4953 0.2948 0 8
7.4963 3.0406 -2.4953 0.2948 0 8
7.4463 3.1609 -2.4953 0.2948 0 8
7.3945 3.2805 -2.4953 0.2948 0 8
7.3407 3.3992 -2.4953 0.2948 0 8
7.2849 3.5170 -2.4953 0.2948 0 8
7.2274 3.6339 -2.4953 0.2948 0 8
7.1679 3.7498 -2.4953 0.2948 0 8
7.1065 3.8648 -2.4953 0.2948 0 8
7.0434 3.9788 -2.4953 0.2948 0 8
6.9784 4.0917 -2.4953 0.2948 0 8
6.9116 4.2036 -2.4953 0.2948 0 8
6.8429 4.3144 -2.4953 0.2948 0 8
6.7726 4.4240 -2.4953 0.2948 0 8
6.7004 4.5325 -2.4953 0.2948 0 8
6.6265 4.6399 -2.4953 0.2948 0 8
6.5509 4.7460 -2.4953 0.2948 0 8
6.4736 4.8509 -2.4953 0.2948 0 8
6.3947 4.9546 -2.4953 0.2948 0 8
6.3140 5.0569 -2.4953 0.2948 0 8
6.2317 5.1580 -2.4953 0.2948 0 8
6.1479 5.2577 -2.4953 0.2948 0 8
6.0624 5.3561 -2.4953 0.2948 0 8
5.9753 5.4530 -2.4953 0.2948 0 8
5.8867 5.5485 -2.4953 0.2948 0 8
5.7966 5.6427 -2.4953 0.2948 0 8
5.7049 5.7353 -2.4953 0.2948 0 8
5.6118 5.8264 -2.4953 0.2948 0 8
5.5172 5.9161 -2.4953 0.2948 0 8
5.4212 6.0042 -2.4953 0.2948 0 8
5.3238 6.0907 -2.4953 0.2948 0 8
5.2250 6.1757 -2.4953 0.2948 0 8
5.1248 6.2591 -2.4953 0.2948 0 8
5.0233 6.3408 -2.4953 0.2948 0 8
4.9205 6.4209 -2.4953 0.2948 0 8
4.8165 6.4993 -2.4953 0.2948 0 8
4.7112 6.5761 -2.4953 0.2948 0 8
4.6046 6.6511 -2.4953 0.2948 0 8
4.4969 6.7244 -2.4953 0.2948 0 8
4.3880 6.7960 -2.4953 0.2948 0 8
4.2779 6.8658 -2.4953 0.2948 0 8
4.1668 6.9338 -2.4953 0.2948 0 8
4.0546 7.0000 -2.4953 0.2948 0 8
3.9413 7.0644 -2.4953 0.2948 0 8
3.8270 7.1270 -2.4953 0.2948 0 8
7.7906 -1.0197 -2.4953 0.3027 0 8
7.8060 -0.8940 -2.4953 0.3027 0 8
7.8194 -0.7682 -2.4953 0.3027 0 8
7.8307 -0.6421 -2.4953 0.3027 0 8
7.8401 -0.5159 -2.4953 0.3027 0 8
7.8474 -0.3895 -2.4953 0.3027 0 8
7.8526 -0.2631 -2.4953 0.3027 0 8
7.8558 -0.1366 -2.4953 0.3027 0 8
7.8570 -0.0100 -2.4953 0.3027 0 8
7.8562 0.1166 -2.4953 0.3027 0 8
7.8533 0.2431 -2.4953 0.3027 0 8
7.8483 0.3696 -2.4953 0.3027 0 8
7.8414 0.4959 -2.4953 0.3027 0 8
7.8324 0.6222 -2.4953 0.3027 0 8
7.8213 0.7483 -2.4953 0.3027 0 8
7.8083 0.8741 -2.4953 0.3027 0 8
7.7932 0.9998 -2.4953 0.3027 0 8
7.7760 1.1252 -2.4953 0.3027 0 8
7.7569 1.2503 -2.4953 0.3027 0 8
7.7358 1.3751 -2.4953 0.3027 0 8
7.7126 1.4995 -2.4953 0.3027 0 8
7.6874 1.6236 -2.4953 0.3027 0 8
7.6603 1.7472 -2.4953 0.3027 0 8
7.6312 1.8704 -2.4953 0.3027 0 8
7.6000 1.9930 -2.4953 0.3027 0 8
7.5670 2.1152 -2.4953 0.3027 0 8
7.5319 2.2368 -2.4953 0.3027 0 8
7.4949 2.3579 -2.4953 0.3027 0 8
7.4559 2.4783 -2.4953 0.3027 0 8
7.4151 2.5981 -2.4953 0.3027 0 8
7.3722 2.7172 -2.4953 0.3027 0 8
7.3275 2.8356 -2.4953 0.3027 0 8
7.2809 2.9532 -2.4953 0.3027 0 8
7.2324 3.0701 -2.4953 0.3027 0 8
7.1820 3.1862 -2.4953 0.3027 0 8
7.1297 3.3015 -2.4953 0.3027 0 8
7.0756 3.4159 -2.4953 0.3027 0 8
7.0197 3.5294 -2.4953 0.3027 0 8
6.9619 3.6421 -2.4953 0.3027 0 8
6.9023 3.7537 -2.4953 0.3027 0 8
6.8410 3.8644 -2.4953 0.3027 0 8
6.7778 3.9741 -2.4953 0.3027 0 8
6.7130 4.0828 -2.4953 0.3027 0 8
6.6463 4.1904 -2.4953 0.3027 0 8
6.5780 4.2969 -2.4953 0.3027 0 8
6.5079 4.4023 -2.4953 0.3027 0 8
6.4361 4.5066 -2.4953 0.3027 0 8
6.3627 4.6096 -2.4953 0.3027 0 8
6.2876 4.7115 -2.4953 0.3027 0 8
6.2109 4.8122 -2.4953 0.3027 0 8
6.1326 4.9116 -2.4953 0.3027 0 8
6.0527 5.0098 -2.4953 0.3027 0 8
5.9712 5.1066 -2.4953 0.3027 0 8
5.8882 5.2022 -2.4953 0.3027 0 8
5.8036 5.2963 -2.4953 0.3027 0 8
5.7175 5.3891 -2.4953 0.3027 0 8
5.6300 5.4805 -2.4953 0.3027 0 8
5.5410 5.5705 -2.4953 0.3027 0 8
5.4505 5.6590 -2.4953 0.3027 0 8
5.3587 5.7461 -2.4953 0.3027 0 8
5.2654 5.8317 -2.4953 0.3027 0 8
5.1708 5.9157 -2.4953 0.3027 0 8
5.0748 5.9982 -2.4953 0.3027 0 8
4.9776 6.0792 -2.4953 0.3027 0 8
4.8790 6.1586 -2.4953 0.3027 0 8
4.7792 6.2364 -2.4953 0.3027 0 8
4.6781 6.3126 -2.4953 0.3027 0 8
4.5758 6.3871 -2.4953 0.3027 0 8
4.4723 6.4600 -2.4953 0.3027 0 8
4.3677 6.5312 -2.4953 0.3027 0 8
4.2619 6.6007 -2.4953 0.3027 0 8
4.1550 6.6685 -2.4953 0.3027 0 8
4.0471 6.7345 -2.4953 0.3027 0 8
3.9381 6.7989 -2.4953 0.3027 0 8
3.8280 6.8614 -2.4953 0.3027 0 8
3.7170 6.9222 -2.4953 0.3027 0 8
7.5719 -0.9910 -2.4953 0.3106 0 8
7.5868 -0.8689 -2.4953 0.3106 0 8
7.5999 -0.7466 -2.4953 0.3106 0 8
7.6109 -0.6241 -2.4953 0.3106 0 8
7.6200 -0.5014 -2.4953 0.3106 0 8
7.6271 -0.3786 -2.4953 0.3106 0 8
7.6322 -0.2557 -2.4953 0.3106 0 8
7.6353 -0.1327 -2.4953 0.3106 0 8
7.6364 -0.0097 -2.4953 0.3106 0 8
7.6356 0.1133 -2.4953 0.3106 0 8
7.6328 0.2363 -2.4953 0.3106 0 8
7.6280 0.3592 -2.4953 0.3106 0 8
7.6212 0.4820 -2.4953 0.3106 0 8
7.6125 0.6047 -2.4953 0.3106 0 8
7.6017 0.7273 -2.4953 0.3106 0 8
7.5890 0.8496 -2.4953 0.3106 0 8
7.5744 0.9717 -2.4953 0.3106 0 8
7.5577 1.0936 -2.4953 0.3106 0 8
7.5391 1.2152 -2.4953 0.3106 0 8
7.5186 1.3365 -2.4953 0.3106 0 8
7.4961 1.4574 -2.4953 0.3106 0 8
7.4716 1.5780 -2.4953 0.3106 0 8
7.4452 1.6981 -2.4953 0.3106 0 8
7.4169 1.8179 -2.4953 0.3106 0 8
7.3867 1.9371 -2.4953 0.3106 0 8
7.3545 2.0558 -2.4953 0.3106 0 8
7.3204 2.1740 -2.4953 0.3106 0 8
7.2845 2.2917 -2.4953 0.3106 0 8
7.2466 2.4087 -2.4953 0.3106 0 8
7.2069 2.5251 -2.4953 0.3106 0 8
7.1653 2.6409 -2.4953 0.3106 0 8
7.1218 2.7560 -2.4953 0.3106 0 8
7.0765 2.8703 -2.4953 0.3106 0 8
7.0293 2.9839 -2.4953 0.3106 0 8
6.9803 3.0968 -2.4953 0.3106 0 8
6.9296 3.2088 -2.4953 0.3106 0 8
6.8770 3.3200 -2.4953 0.3106 0 8
6.8226 3.4304 -2.4953 0.3106 0 8
6.7665 3.5398 -2.4953 0.3106 0 8
6.7086 3.6483 -2.4953 0.3106 0 8
6.6489 3.7559 -2.4953 0.3106 0 8
6.5876 3.8625 -2.4953 0.3106 0 8
6.5245 3.9682 -2.4953 0.3106 0 8
6.4597 4.0727 -2.4953 0.3106 0 8
6.3933 4.1763 -2.4953 0.3106 0 8
6.3252 4.2787 -2.4953 0.3106 0 8
6.2554 4.3800 -2.4953 0.3106 0 8
6.1841 4.4802 -2.4953 0.3106 0 8
6.1111 4.5793 -2.4953 0.3106 0 8
6.0365 4.6771 -2.4953 0.3106 0 8
5.9604 4.7737 -2.4953 0.3106 0 8
5.8828 4.8691 -2.4953 0.3106 0 8
5.8036 4.9633 -2.4953 0.3106 0 8
5.7229 5.0561 -2.4953 0.3106 0 8
5.6407 5.1476 -2.4953 0.3106 0 8
5.5570 5.2378 -2.4953 0.3106 0 8
5.4719 5.3266 -2.4953 0.3106 0 8
5.3854 5.4141 -2.4953 0.3106 0 8
5.2975 5.5001 -2.4953 0.3106 0 8
5.2082 5.5848 -2.4953 0.3106 0 8
5.1176 5.6679 -2.4953 0.3106 0 8
5.0256 5.7496 -2.4953 0.3106 0 8
4.9324 5.8298 -2.4953 0.3106 0 8
4.8378 5.9085 -2.4953 0.3106 0 8
4.7420 5.9857 -2.4953 0.3106 0 8
4.6450 6.0613 -2.4953 0.3106 0 8
4.5467 6.1353 -2.4953 0.3106 0 8
4.4473 6.2078 -2.4953 0.3106 0 8
4.3467 6.2786 -2.4953 0.3106 0 8
4.2450 6.3478 -2.4953 0.3106 0 8
4.1422 6.4154 -2.4953 0.3106 0 8
4.0384 6.4813 -2.4953 0.3106 0 8
3.9334 6.5455 -2.4953 0.3106 0 8
3.8275 6.6080 -2.4953 0.3106 0 8
3.7206 6.6688 -2.4953 0.3106 0 8
3.6127 6.7278 -2.4953 0.3106 0 8
7.3640 -0.9638 -2.4953 0.3185 0 8
7.3786 -0.8451 -2.4953 0.3185 0 8
7.3912 -0.7261 -2.4953 0.3185 0 8
7.4020 -0.6070 -2.4953 0.3185 0 8
7.4108 -0.4877 -2.4953 0.3185 0 8
7.4177 -0.3682 -2.4953 0.3185 0 8
7.4226 -0.2487 -2.4953 0.3185 0 8
7.4257 -0.1291 -2.4953 0.3185 0 8
7.4268 -0.0095 -2.4953 0.3185 0 8
7.4260 0.1102 -2.4953 0.3185 0 8
7.4232 0.2298 -2.4953 0.3185 0 8
7.4186 0.3493 -2.4953 0.3185 0 8
7.4120 0.4688 -2.4953 0.3185 0 8
7.4035 0.5881 -2.4953 0.3185 0 8
7.3930 0.7073 -2.4953 0.3185 0 8
7.3807 0.8263 -2.4953 0.3185 0 8
7.3664 0.9451 -2.4953 0.3185 0 8
7.3502 1.0636 -2.4953 0.3185 0 8
7.3322 1.1819 -2.4953 0.3185 0 8
7.3122 1.2998 -2.4953 0.3185 0 8
7.2903 1.4174 -2.4953 0.3185 0 8
7.2665 1.5347 -2.4953 0.3185 0 8
7.2408 1.6515 -2.4953 0.3185 0 8
7.2133 1.7680 -2.4953 0.3185 0 8
7.1839 1.8839 -2.4953 0.3185 0 8
7.1526 1.9994 -2.4953 0.3185 0 8
7.1195 2.1143 -2.4953 0.3185 0 8
7.0845 2.2287 -2.4953 0.3185 0 8
7.0477 2.3426 -2.4953 0.3185 0 8
7.0090 2.4558 -2.4953 0.3185 0 8
6.9686 2.5684 -2.4953 0.3185 0 8
6.9263 2.6803 -2.4953 0.3185 0 8
6.8822 2.7915 -2.4953 0.3185 0 8
6.8363 2.9020 -2.4953 0.3185 0 8
6.7887 3.0118 -2.4953 0.3185 0 8
6.7393 3.1207 -2.4953 0.3185 0 8
6.6882 3.2289 -2.4953 0.3185 0 8
6.6353 3.3362 -2.4953 0.3185 0 8
6.5807 3.4426 -2.4953 0.3185 0 8
6.5244 3.5482 -2.4953 0.3185 0 8
6.4664 3.6528 -2.4953 0.3185 0 8
6.4067 3.7565 -2.4953 0.3185 0 8
6.3454 3.8592 -2.4953 0.3185 0 8
6.2824 3.9609 -2.4953 0.3185 0 8
6.2178 4.0616 -2.4953 0.3185 0 8
6.1515 4.1612 -2.4953 0.3185 0 8
6.0837 4.2598 -2.4953 0.3185 0 8
6.0143 4.3572 -2.4953 0.3185 0 8
5.9433 4.4535 -2.4953 0.3185 0 8
5.8708 4.5487 -2.4953 0.3185 0 8
5.7968 4.6427 -2.4953 0.3185 0 8
5.7213 4.7355 -2.4953 0.3185 0 8
5.6442 4.8270 -2.4953 0.3185 0 8
5.5657 4.9173 -2.4953 0.3185 0 8
5.4858 5.0063 -2.4953 0.3185 0 8
5.4045 5.0940 -2.4953 0.3185 0 8
5.3217 5.1804 -2.4953 0.3185 0 8
5.2376 5.2655 -2.4953 0.3185 0 8
5.1521 5.3492 -2.4953 0.3185 0 8
5.0652 5.4314 -2.4953 0.3185 0 8
4.9771 5.5123 -2.4953 0.3185 0 8
4.8877 5.5918 -2.4953 0.3185 0 8
4.7970 5.6698 -2.4953 0.3185 0 8
4.7050 5.7463 -2.4953 0.3185 0 8
4.6118 5.8214 -2.4953 0.3185 0 8
4.5175 5.8949 -2.4953 0.3185 0 8
4.4219 5.9669 -2.4953 0.3185 0 8
4.3252 6.0374 -2.4953 0.3185 0 8
4.2274 6.1062 -2.4953 0.3185 0 8
4.1285 6.1736 -2.4953 0.3185 0 8
4.0285 6.2393 -2.4953 0.3185 0 8
3.9275 6.3033 -2.4953 0.3185 0 8
3.8255 6.3658 -2.4953 0.3185 0 8
3.7224 6.4266 -2.4953 0.3185 0 8
3.6184 6.4857 -2.4953 0.3185 0 8
3.5135 6.5431 -2.4953 0.3185 0 8
7.1662 -0.9379 -2.4953 0.3264 0 8
7.1803 -0.8224 -2.4953 0.3264 0 8
7.1927 -0.7066 -2.4953 0.3264 0 8
7.2031 -0.5907 -2.4953 0.3264 0 8
7.2117 -0.4746 -2.4953 0.3264 0 8
7.2184 -0.3583 -2.4953 0.3264 0 8
7.2232 -0.2420 -2.4953 0.3264 0 8
7.2262 -0.1256 -2.4953 0.3264 0 8
7.2273 -0.0092 -2.4953 0.3264 0 8
7.2265 0.1072 -2.4953 0.3264 0 8
7.2238 0.2236 -2.4953 0.3264 0 8
7.2193 0.3399 -2.4953 0.3264 0 8
7.2129 0.4562 -2.4953 0.3264 0 8
7.2046 0.5723 -2.4953 0.3264 0 8
7.1944 0.6883 -2.4953 0.3264 0 8
7.1824 0.8041 -2.4953 0.3264 0 8
7.1685 0.9197 -2.4953 0.3264 0 8
7.1528 1.0350 -2.4953 0.3264 0 8
7.1352 1.1501 -2.4953 0.3264 0 8
7.1157 1.2649 -2.4953 0.3264 0 8
7.0944 1.3794 -2.4953 0.3264 0 8
7.0713 1.4934 -2.4953 0.3264 0 8
7.0463 1.6072 -2.4953 0.3264 0 8
7.0195 1.7205 -2.4953 0.3264 0 8
6.9909 1.8333 -2.4953 0.3264 0 8
6.9605 1.9457 -2.4953 0.3264 0 8
6.9282 2.0575 -2.4953 0.3264 0 8
6.8942 2.1689 -2.4953 0.3264 0 8
6.8583 2.2796 -2.4953 0.3264 0 8
6.8207 2.3898 -2.4953 0.3264 0 8
6.7813 2.4994 -2.4953 0.3264 0 8
6.7402 2.6083 -2.4953 0.3264 0 8
6.6973 2.7165 -2.4953 0.3264 0 8
6.6527 2.8240 -2.4953 0.3264 0 8
6.6063 2.9308 -2.4953 0.3264 0 8
6.5583 3.0369 -2.4953 0.3264 0 8
6.5085 3.1421 -2.4953 0.3264 0 8
6.4570 3.2466 -2.4953 0.3264 0 8
6.4039 3.3501 -2.4953 0.3264 0 8
6.3491 3.4529 -2.4953 0.3264 0 8
6.2927 3.5547 -2.4953 0.3264 0 8
6.2346 3.6556 -2.4953 0.3264 0 8
6.1749 3.7555 -2.4953 0.3264 0 8
6.1136 3.8545 -2.4953 0.3264 0 8
6.0507 3.9525 -2.4953 0.3264 0 8
5.9863 4.0495 -2.4953 0.3264 0 8
5.9203 4.1454 -2.4953 0.3264 0 8
5.8527 4.2402 -2.4953 0.3264 0 8
5.7837 4.3339 -2.4953 0.3264 0 8
5.7131 4.4265 -2.4953 0.3264 0 8
5.6411 4.5180 -2.4953 0.3264 0 8
5.5676 4.6082 -2.4953 0.3264 0 8
5.4926 4.6973 -2.4953 0.3264 0 8
5.4162 4.7852 -2.4953 0.3264 0 8
5.3384 4.8718 -2.4953 0.3264 0 8
5.2593 4.9572 -2.4953 0.3264 0 8
5.1787 5.0412 -2.4953 0.3264 0 8
5.0969 5.1240 -2.4953 0.3264 0 8
5.0137 5.2054 -2.4953 0.3264 0 8
4.9292 5.2855 -2.4953 0.3264 0 8
4.8434 5.3642 -2.4953 0.3264 0 8
4.7564 5.4416 -2.4953 0.3264 0 8
4.6681 5.5175 -2.4953 0.3264 0 8
4.5786 5.5920 -2.4953 0.3264 0 8
4.4879 5.6650 -2.4953 0.3264 0 8
4.3961 5.7365 -2.4953 0.3264 0 8
4.3031 5.8066 -2.4953 0.3264 0 8
4.2090 5.8752 -2.4953 0.3264 0 8
4.1138 5.9422 -2.4953 0.3264 0 8
4.0176 6.0077 -2.4953 0.3264 0 8
3.9203 6.0716 -2.4953 0.3264 0 8
3.8220 6.1340 -2.4953 0.3264 0 8
3.7227 6.1948 -2.4953 0.3264 0 8
3.6224 6.2539 -2.4953 0.3264 0 8
3.5212 6.3115 -2.4953 0.3264 0 8
3.4191 6.3674 -2.4953 0.3264 0 8
6.9776 -0.9133 -2.4953 0.3342 0 8
6.9914 -0.8007 -2.4953 0.3342 0 8
7.0034 -0.6880 -2.4953 0.3342 0 8
7.0136 -0.5751 -2.4953 0.3342 0 8
7.0219 -0.4621 -2.4953 0.3342 0 8
7.0285 -0.3489 -2.4953 0.3342 0 8
7.0332 -0.2356 -2.4953 0.3342 0 8
7.0361 -0.1223 -2.4953 0.3342 0 8
7.0371 -0.0090 -2.4953 0.3342 0 8
7.0364 0.1044 -2.4953 0.3342 0 8
7.0338 0.2177 -2.4953 0.3342 0 8
7.0293 0.3310 -2.4953 0.3342 0 8
7.0231 0.4442 -2.4953 0.3342 0 8
7.0150 0.5573 -2.4953 0.3342 0 8
7.0051 0.6702 -2.4953 0.3342 0 8
6.9934 0.7829 -2.4953 0.3342 0 8
6.9799 0.8955 -2.4953 0.3342 0 8
6.9646 1.0078 -2.4953 0.3342 0 8
6.9475 1.1199 -2.4953 0.3342 0 8
6.9285 1.2316 -2.4953 0.3342 0 8
6.9078 1.3431 -2.4953 0.3342 0 8
6.8853 1.4542 -2.4953 0.3342 0 8
6.8609 1.5649 -2.4953 0.3342 0 8
6.8348 1.6752 -2.4953 0.3342 0 8
6.8070 1.7851 -2.4953 0.3342 0 8
6.7773 1.8945 -2.4953 0.3342 0 8
6.7459 2.0034 -2.4953 0.3342 0 8
6.7128 2.1118 -2.4953 0.3342 0 8
6.6779 2.2197 -2.4953 0.3342 0 8
6.6413 2.3269 -2.4953 0.3342 0 8
6.6029 2.4336 -2.4953 0.3342 0 8
6.5629 2.5397 -2.4953 0.3342 0 8
6.5211 2.6451 -2.4953 0.3342 0 8
6.4777 2.7497 -2.4953 0.3342 0 8
6.4325 2.8537 -2.4953 0.3342 0 8
6.3857 2.9570 -2.4953 0.3342 0 8
6.3373 3.0595 -2.4953 0.3342 0 8
6.2872 3.1611 -2.4953 0.3342 0 8
6.2354 3.2620 -2.4953 0.3342 0 8
6.1821 3.3620 -2.4953 0.3342 0 8
6.1271 3.4612 -2.4953 0.3342 0 8
6.0706 3.5594 -2.4953 0.3342 0 8
6.0124 3.6567 -2.4953 0.3342 0 8
5.9528 3.7531 -2.4953 0.3342 0 8
5.8915 3.8485 -2.4953 0.3342 0 8
5.8288 3.9429 -2.4953 0.3342 0 8
5.7645 4.0363 -2.4953 0.3342 0 8
5.6987 4.1286 -2.4953 0.3342 0 8
5.6315 4.2199 -2.4953 0.3342 0 8
5.5628 4.3100 -2.4953 0.3342 0 8
5.4927 4.3991 -2.4953 0.3342 0 8
5.4211 4.4870 -2.4953 0.3342 0 8
5.3481 4.5737 -2.4953 0.3342 0 8
5.2737 4.6593 -2.4953 0.3342 0 8
5.1980 4.7436 -2.4953 0.3342 0 8
5.1209 4.8268 -2.4953 0.3342 0 8
5.0425 4.9086 -2.4953 0.3342 0 8
4.9628 4.9892 -2.4953 0.3342 0 8
4.8818 5.0685 -2.4953 0.3342 0 8
4.7995 5.1465 -2.4953 0.3342 0 8
4.7160 5.2231 -2.4953 0.3342 0 8
4.6312 5.2984 -2.4953 0.3342 0 8
4.5453 5.3723 -2.4953 0.3342 0 8
4.4581 5.4448 -2.4953 0.3342 0 8
4.3699 5.5159 -2.4953 0.3342 0 8
4.2804 5.5856 -2.4953 0.3342 0 8
4.1899 5.6538 -2.4953 0.3342 0 8
4.0983 5.7206 -2.4953 0.3342 0 8
4.0056 5.7859 -2.4953 0.3342 0 8
3.9119 5.8496 -2.4953 0.3342 0 8
3.8172 5.9119 -2.4953 0.3342 0 8
3.7214 5.9726 -2.4953 0.3342 0 8
3.6247 6.0318 -2.4953 0.3342 0 8
3.5271 6.0894 -2.4953 0.3342 0 8
3.4286 6.1454 -2.4953 0.3342 0 8
3.3291 6.1998 -2.4953 0.3342 0 8
6.7977 -0.8897 -2.4953 0.3420 0 8
6.8112 -0.7801 -2.4953 0.3420 0 8
6.8229 -0.6703 -2.4953 0.3420 0 8
6.8328 -0.5603 -2.4953 0.3420 0 8
6.8409 -0.4502 -2.4953 0.3420 0 8
6.8473 -0.3399 -2.4953 0.3420 0 8
6.8519 -0.2296 -2.4953 0.3420 0 8
6.8547 -0.1192 -2.4953 0.3420 0 8
6.8557 -0.0087 -2.4953 0.3420 0 8
6.8549 0.1017 -2.4953 0.3420 0 8
6.8524 0.2121 -2.4953 0.3420 0 8
6.8481 0.3225 -2.4953 0.3420 0 8
6.8420 0.4327 -2.4953 0.3420 0 8
6.8342 0.5429 -2.4953 0.3420 0 8
6.8245 0.6529 -2.4953 0.3420 0 8
6.8131 0.7627 -2.4953 0.3420 0 8
6.8000 0.8724 -2.4953 0.3420 0 8
6.7850 0.9818 -2.4953 0.3420 0 8
6.7683 1.0910 -2.4953 0.3420 0 8
6.7499 1.1999 -2.4953 0.3420 0 8
6.7297 1.3084 -2.4953 0.3420 0 8
6.7077 1.4167 -2.4953 0.3420 0 8
6.6840 1.5245 -2.4953 0.3420 0 8
6.6586 1.6320 -2.4953 0.3420 0 8
6.6315 1.7390 -2.4953 0.3420 0 8
6.6026 1.8456 -2.4953 0.3420 0 8
6.5720 1.9518 -2.4953 0.3420 0 8
6.5397 2.0574 -2.4953 0.3420 0 8
6.5057 2.1624 -2.4953 0.3420 0 8
6.4700 2.2670 -2.4953 0.3420 0 8
6.4327 2.3709 -2.4953 0.3420 0 8
6.3937 2.4742 -2.4953 0.3420 0 8
6.3530 2.5769 -2.4953 0.3420 0 8
6.3107 2.6789 -2.4953 0.3420 0 8
6.2667 2.7802 -2.4953 0.3420 0 8
6.2211 2.8807 -2.4953 0.3420 0 8
6.1739 2.9806 -2.4953 0.3420 0 8
6.1251 3.0796 -2.4953 0.3420 0 8
6.0747 3.1779 -2.4953 0.3420 0 8
6.0227 3.2753 -2.4953 0.3420 0 8
5.9691 3.3719 -2.4953 0.3420 0 8
5.9141 3.4676 -2.4953 0.3420 0 8
5.8574 3.5625 -2.4953 0.3420 0 8
5.7993 3.6564 -2.4953 0.3420 0 8
5.7396 3.7493 -2.4953 0.3420 0 8
5.6785 3.8413 -2.4953 0.3420 0 8
5.6159 3.9322 -2.4953 0.3420 0 8
5.5518 4.0222 -2.4953 0.3420 0 8
5.4863 4.1111 -2.4953 0.3420 0 8
5.4194 4.1989 -2.4953 0.3420 0 8
5.3510 4.2857 -2.4953 0.3420 0 8
5.2813 4.3713 -2.4953 0.3420 0 8
5.2102 4.4558 -2.4953 0.3420 0 8
5.1378 4.5392 -2.4953 0.3420 0 8
5.0640 4.6213 -2.4953 0.3420 0 8
4.9889 4.7023 -2.4953 0.3420 0 8
4.9125 4.7821 -2.4953 0.3420 0 8
4.8348 4.8606 -2.4953 0.3420 0 8
4.7559 4.9378 -2.4953 0.3420 0 8
4.6757 5.0138 -2.4953 0.3420 0 8
4.5944 5.0885 -2.4953 0.3420 0 8
4.5118 5.1618 -2.4953 0.3420 0 8
4.4281 5.2338 -2.4953 0.3420 0 8
4.3432 5.3045 -2.4953 0.3420 0 8
4.2572 5.3737 -2.4953 0.3420 0 8
4.1701 5.4416 -2.4953 0.3420 0 8
4.0819 5.5081 -2.4953 0.3420 0 8
3.9926 5.5731 -2.4953 0.3420 0 8
3.9023 5.6367 -2.4953 0.3420 0 8
3.8110 5.6988 -2.4953 0.3420 0 8
3.7188 5.7595 -2.4953 0.3420 0 8
3.6255 5.8186 -2.4953 0.3420 0 8
3.5313 5.8763 -2.4953 0.3420 0 8
3.4362 5.9324 -2.4953 0.3420 0 8
3.3402 5.9870 -2.4953 0.3420 0 8
3.2433 6.0400 -2.4953 0.3420 0 8
6.6259 -0.8672 -2.4953 0.3498 0 8
6.6390 -0.7604 -2.4953 0.3498 0 8
6.6504 -0.6533 -2.4953 0.3498 0 8
6.6600 -0.5461 -2.4953 0.3498 0 8
6.6679 -0.4388 -2.4953 0.3498 0 8
6.6742 -0.3313 -2.4953 0.3498 0 8
6.6786 -0.2238 -2.4953 0.3498 0 8
6.6814 -0.1161 -2.4953 0.3498 0 8
6.6824 -0.0085 -2.4953 0.3498 0 8
6.6816 0.0991 -2.4953 0.3498 0 8
6.6792 0.2067 -2.4953 0.3498 0 8
6.6750 0.3143 -2.4953 0.3498 0 8
6.6690 0.4218 -2.4953 0.3498 0 8
6.6614 0.5292 -2.4953 0.3498 0 8
6.6520 0.6364 -2.4953 0.3498 0 8
6.6409 0.7435 -2.4953 0.3498 0 8
6.6280 0.8503 -2.4953 0.3498 0 8
6.6135 0.9570 -2.4953 0.3498 0 8
6.5972 1.0634 -2.4953 0.3498 0 8
6.5792 1.1695 -2.4953 0.3498 0 8
6.5595 1.2754 -2.4953 0.3498 0 8
6.5381 1.3808 -2.4953 0.3498 0 8
6.5151 1.4860 -2.4953 0.3498 0 8
6.4903 1.5907 -2.4953 0.3498 0 8
6.4638 1.6951 -2.4953 0.3498 0 8
6.4357 1.7990 -2.4953 0.3498 0 8
6.4058 1.9024 -2.4953 0.3498 0 8
6.3744 2.0053 -2.4953 0.3498 0 8
6.3412 2.1078 -2.4953 0.3498 0 8
6.3065 2.2096 -2.4953 0.3498 0 8
6.2701 2.3109 -2.4953 0.3498 0 8
6.2320 2.4116 -2.4953 0.3498 0 8
6.1924 2.5117 -2.4953 0.3498 0 8
6.1511 2.6111 -2.4953 0.3498 0 8
6.1082 2.7099 -2.4953 0.3498 0 8
6.0638 2.8079 -2.4953 0.3498 0 8
6.0178 2.9052 -2.4953 0.3498 0 8
5.9702 3.0018 -2.4953 0.3498 0 8
5.9211 3.0976 -2.4953 0.3498 0 8
5.8704 3.1925 -2.4953 0.3498 0 8
5.8182 3.2867 -2.4953 0.3498 0 8
5.7645 3.3800 -2.4953 0.3498 0 8
5.7093 3.4724 -2.4953 0.3498 0 8
5.6527 3.5639 -2.4953 0.3498 0 8
5.5945 3.6545 -2.4953 0.3498 0 8
5.5349 3.7441 -2.4953 0.3498 0 8
5.4739 3.8328 -2.4953 0.3498 0 8
5.4115 3.9205 -2.4953 0.3498 0 8
5.3476 4.0071 -2.4953 0.3498 0 8
5.2824 4.0928 -2.4953 0.3498 0 8
5.2158 4.1773 -2.4953 0.3498 0 8
5.1478 4.2608 -2.4953 0.3498 0 8
5.0785 4.3432 -2.4953 0.3498 0 8
5.0079 4.4244 -2.4953 0.3498 0 8
4.9359 4.5045 -2.4953 0.3498 0 8
4.8627 4.5834 -2.4953 0.3498 0 8
4.7883 4.6612 -2.4953 0.3498 0 8
4.7126 4.7377 -2.4953 0.3498 0 8
4.6357 4.8130 -2.4953 0.3498 0 8
4.5575 4.8870 -2.4953 0.3498 0 8
4.4782 4.9598 -2.4953 0.3498 0 8
4.3977 5.0313 -2.4953 0.3498 0 8
4.3161 5.1015 -2.4953 0.3498 0 8
4.2334 5.1703 -2.4953 0.3498 0 8
4.1496 5.2379 -2.4953 0.3498 0 8
4.0646 5.3040 -2.4953 0.3498 0 8
3.9787 5.3688 -2.4953 0.3498 0 8
3.8917 5.4322 -2.4953 0.3498 0 8
3.8037 5.4942 -2.4953 0.3498 0 8
3.7147 5.5547 -2.4953 0.3498 0 8
3.6247 5.6139 -2.4953 0.3498 0 8
3.5338 5.6715 -2.4953 0.3498 0 8
3.4420 5.7277 -2.4953 0.3498 0 8
3.3493 5.7824 -2.4953 0.3498 0 8
3.2557 5.8356 -2.4953 0.3498 0 8
3.1613 5.8873 -2.4953 0.3498 0 8
6.4615 -0.8457 -2.4953 0.3576 0 8
6.4743 -0.7415 -2.4953 0.3576 0 8
6.4854 -0.6371 -2.4953 0.3576 0 8
6.4948 -0.5326 -2.4953 0.3576 0 8
6.5025 -0.4279 -2.4953 0.3576 0 8
6.5086 -0.3231 -2.4953 0.3576 0 8
6.5129 -0.2182 -2.4953 0.3576 0 8
6.5156 -0.1133 -2.4953 0.3576 0 8
6.5166 -0.0083 -2.4953 0.3576 0 8
6.5159 0.0967 -2.4953 0.3576 0 8
6.5135 0.2016 -2.4953 0.3576 0 8
6.5094 0.3065 -2.4953 0.3576 0 8
6.5036 0.4113 -2.4953 0.3576 0 8
6.4961 0.5160 -2.4953 0.3576 0 8
6.4870 0.6206 -2.4953 0.3576 0 8
6.4761 0.7250 -2.4953 0.3576 0 8
6.4636 0.8292 -2.4953 0.3576 0 8
6.4494 0.9332 -2.4953 0.3576 0 8
6.4335 1.0370 -2.4953 0.3576 0 8
6.4160 1.1405 -2.4953 0.3576 0 8
6.3968 1.2437 -2.4953 0.3576 0 8
6.3759 1.3466 -2.4953 0.3576 0 8
6.3534 1.4491 -2.4953 0.3576 0 8
6.3293 1.5513 -2.4953 0.3576 0 8
6.3034 1.6530 -2.4953 0.3576 0 8
6.2760 1.7543 -2.4953 0.3576 0 8
6.2469 1.8552 -2.4953 0.3576 0 8
