ply
format ascii 1.0
element vertex 1373
property float32 x
property float32 y
property float32 z
property float32 CosAngle
property uint32 ObjIdx
property uint32 ObjTag
end_header
21.2210 -2.3287 -2.4953 0.1161 0 8
21.2559 -1.9857 -2.4953 0.1161 0 8
21.2851 -1.6422 -2.4953 0.1161 0 8
3.3595 -19.6263 -2.4953 0.1243 0 8
3.6760 -19.5695 -2.4953 0.1243 0 8
3.9916 -19.5076 -2.4953 0.1243 0 8
4.3061 -19.4406 -2.4953 0.1243 0 8
4.6195 -19.3685 -2.4953 0.1243 0 8
4.9317 -19.2914 -2.4953 0.1243 0 8
5.2426 -19.2092 -2.4953 0.1243 0 8
5.5521 -19.1221 -2.4953 0.1243 0 8
5.8602 -19.0299 -2.4953 0.1243 0 8
6.1667 -18.9328 -2.4953 0.1243 0 8
6.4716 -18.8308 -2.4953 0.1243 0 8
6.7749 -18.7238 -2.4953 0.1243 0 8
7.0764 -18.6119 -2.4953 0.1243 0 8
7.3760 -18.4952 -2.4953 0.1243 0 8
7.6737 -18.3737 -2.4953 0.1243 0 8
7.9694 -18.2474 -2.4953 0.1243 0 8
8.2631 -18.1163 -2.4953 0.1243 0 8
8.5546 -17.9805 -2.4953 0.1243 0 8
8.8438 -17.8400 -2.4953 0.1243 0 8
9.1307 -17.6949 -2.4953 0.1243 0 8
9.4153 -17.5451 -2.4953 0.1243 0 8
9.6974 -17.3908 -2.4953 0.1243 0 8
9.9770 -17.2319 -2.4953 0.1243 0 8
10.2540 -17.0686 -2.4953 0.1243 0 8
10.5283 -16.9007 -2.4953 0.1243 0 8
10.7998 -16.7285 -2.4953 0.1243 0 8
11.0686 -16.5519 -2.4953 0.1243 0 8
11.3344 -16.3710 -2.4953 0.1243 0 8
11.5973 -16.1859 -2.4953 0.1243 0 8
11.8572 -15.9965 -2.4953 0.1243 0 8
12.1140 -15.8029 -2.4953 0.1243 0 8
12.3676 -15.6052 -2.4953 0.1243 0 8
12.6180 -15.4034 -2.4953 0.1243 0 8
12.8651 -15.1977 -2.4953 0.1243 0 8
13.1088 -14.9879 -2.4953 0.1243 0 8
13.3492 -14.7743 -2.4953 0.1243 0 8
13.5860 -14.5568 -2.4953 0.1243 0 8
13.8193 -14.3355 -2.4953 0.1243 0 8
14.0490 -14.1105 -2.4953 0.1243 0 8
14.2751 -13.8817 -2.4953 0.1243 0 8
14.4974 -13.6494 -2.4953 0.1243 0 8
14.7159 -13.4135 -2.4953 0.1243 0 8
14.9306 -13.1741 -2.4953 0.1243 0 8
15.1414 -12.9313 -2.4953 0.1243 0 8
15.3482 -12.6851 -2.4953 0.1243 0 8
15.5511 -12.4356 -2.4953 0.1243 0 8
15.7499 -12.1828 -2.4953 0.1243 0 8
15.9446 -11.9269 -2.4953 0.1243 0 8
16.1351 -11.6678 -2.4953 0.1243 0 8
16.3214 -11.4058 -2.4953 0.1243 0 8
16.5035 -11.1407 -2.4953 0.1243 0 8
16.6812 -10.8727 -2.4953 0.1243 0 8
16.8546 -10.6019 -2.4953 0.1243 0 8
17.0236 -10.3284 -2.4953 0.1243 0 8
17.1882 -10.0521 -2.4953 0.1243 0 8
17.3483 -9.7732 -2.4953 0.1243 0 8
17.5039 -9.4918 -2.4953 0.1243 0 8
17.6549 -9.2079 -2.4953 0.1243 0 8
17.8013 -8.9216 -2.4953 0.1243 0 8
17.9430 -8.6329 -2.4953 0.1243 0 8
18.0801 -8.3420 -2.4953 0.1243 0 8
18.2125 -8.0490 -2.4953 0.1243 0 8
18.3401 -7.7538 -2.4953 0.1243 0 8
18.4629 -7.4566 -2.4953 0.1243 0 8
18.5809 -7.1575 -2.4953 0.1243 0 8
18.6940 -6.8565 -2.4953 0.1243 0 8
18.8023 -6.5537 -2.4953 0.1243 0 8
18.9057 -6.2493 -2.4953 0.1243 0 8
19.0042 -5.9431 -2.4953 0.1243 0 8
19.0977 -5.6355 -2.4953 0.1243 0 8
19.1862 -5.3263 -2.4953 0.1243 0 8
19.2697 -5.0158 -2.4953 0.1243 0 8
19.3482 -4.7040 -2.4953 0.1243 0 8
19.4216 -4.3909 -2.4953 0.1243 0 8
19.4900 -4.0767 -2.4953 0.1243 0 8
19.5533 -3.7614 -2.4953 0.1243 0 8
19.6115 -3.4452 -2.4953 0.1243 0 8
19.6646 -3.1280 -2.4953 0.1243 0 8
19.7125 -2.8100 -2.4953 0.1243 0 8
19.7553 -2.4910 -2.4953 0.1243 0 8
19.7930 -2.1720 -2.4953 0.1243 0 8
19.8255 -1.8521 -2.4953 0.1243 0 8
19.8528 -1.5317 -2.4953 0.1243 0 8
3.1473 -18.3865 -2.4953 0.1326 0 8
3.4438 -18.3333 -2.4953 0.1326 0 8
3.7394 -18.2752 -2.4953 0.1326 0 8
4.0341 -18.2125 -2.4953 0.1326 0 8
4.3276 -18.1449 -2.4953 0.1326 0 8
4.6201 -18.0727 -2.4953 0.1326 0 8
4.9114 -17.9957 -2.4953 0.1326 0 8
5.2013 -17.9141 -2.4953 0.1326 0 8
5.4899 -17.8277 -2.4953 0.1326 0 8
5.7771 -17.7367 -2.4953 0.1326 0 8
6.0628 -17.6412 -2.4953 0.1326 0 8
6.3469 -17.5409 -2.4953 0.1326 0 8
6.6293 -17.4361 -2.4953 0.1326 0 8
6.9100 -17.3268 -2.4953 0.1326 0 8
7.1889 -17.2130 -2.4953 0.1326 0 8
7.4660 -17.0946 -2.4953 0.1326 0 8
7.7411 -16.9718 -2.4953 0.1326 0 8
8.0141 -16.8446 -2.4953 0.1326 0 8
8.2851 -16.7130 -2.4953 0.1326 0 8
8.5539 -16.5770 -2.4953 0.1326 0 8
8.8205 -16.4367 -2.4953 0.1326 0 8
9.0848 -16.2921 -2.4953 0.1326 0 8
9.3467 -16.1433 -2.4953 0.1326 0 8
9.6062 -15.9901 -2.4953 0.1326 0 8
9.8632 -15.8331 -2.4953 0.1326 0 8
10.1176 -15.6717 -2.4953 0.1326 0 8
10.3693 -15.5063 -2.4953 0.1326 0 8
10.6184 -15.3368 -2.4953 0.1326 0 8
10.8647 -15.1633 -2.4953 0.1326 0 8
11.1081 -14.9859 -2.4953 0.1326 0 8
11.3487 -14.8046 -2.4953 0.1326 0 8
11.5863 -14.6194 -2.4953 0.1326 0 8
11.8208 -14.4304 -2.4953 0.1326 0 8
12.0523 -14.2376 -2.4953 0.1326 0 8
12.2807 -14.0411 -2.4953 0.1326 0 8
12.5058 -13.8409 -2.4953 0.1326 0 8
12.7277 -13.6372 -2.4953 0.1326 0 8
12.9463 -13.4299 -2.4953 0.1326 0 8
13.1615 -13.2190 -2.4953 0.1326 0 8
13.3732 -13.0048 -2.4953 0.1326 0 8
13.5815 -12.7871 -2.4953 0.1326 0 8
13.7862 -12.5661 -2.4953 0.1326 0 8
13.9874 -12.3418 -2.4953 0.1326 0 8
14.1848 -12.1144 -2.4953 0.1326 0 8
14.3786 -11.8837 -2.4953 0.1326 0 8
14.5687 -11.6499 -2.4953 0.1326 0 8
14.7549 -11.4132 -2.4953 0.1326 0 8
14.9373 -11.1734 -2.4953 0.1326 0 8
15.1158 -10.9307 -2.4953 0.1326 0 8
15.2903 -10.6852 -2.4953 0.1326 0 8
15.4609 -10.4369 -2.4953 0.1326 0 8
15.6274 -10.1859 -2.4953 0.1326 0 8
15.7899 -9.9322 -2.4953 0.1326 0 8
15.9482 -9.6759 -2.4953 0.1326 0 8
16.1024 -9.4171 -2.4953 0.1326 0 8
16.2523 -9.1558 -2.4953 0.1326 0 8
16.3981 -8.8921 -2.4953 0.1326 0 8
16.5395 -8.6262 -2.4953 0.1326 0 8
16.6767 -8.3582 -2.4953 0.1326 0 8
16.8095 -8.0876 -2.4953 0.1326 0 8
16.9379 -7.8150 -2.4953 0.1326 0 8
17.0619 -7.5405 -2.4953 0.1326 0 8
17.1814 -7.2640 -2.4953 0.1326 0 8
17.2965 -6.9856 -2.4953 0.1326 0 8
17.4070 -6.7053 -2.4953 0.1326 0 8
17.5130 -6.4234 -2.4953 0.1326 0 8
17.6145 -6.1397 -2.4953 0.1326 0 8
17.7114 -5.8545 -2.4953 0.1326 0 8
17.8036 -5.5677 -2.4953 0.1326 0 8
17.8912 -5.2795 -2.4953 0.1326 0 8
17.9741 -4.9898 -2.4953 0.1326 0 8
18.0524 -4.6989 -2.4953 0.1326 0 8
18.1259 -4.4068 -2.4953 0.1326 0 8
18.1947 -4.1135 -2.4953 0.1326 0 8
18.2587 -3.8191 -2.4953 0.1326 0 8
18.3180 -3.5238 -2.4953 0.1326 0 8
18.3725 -3.2275 -2.4953 0.1326 0 8
18.4223 -2.9304 -2.4953 0.1326 0 8
18.4672 -2.6325 -2.4953 0.1326 0 8
18.5073 -2.3339 -2.4953 0.1326 0 8
18.5426 -2.0348 -2.4953 0.1326 0 8
18.5730 -1.7351 -2.4953 0.1326 0 8
18.5986 -1.4349 -2.4953 0.1326 0 8
2.9599 -17.2916 -2.4953 0.1408 0 8
3.2388 -17.2416 -2.4953 0.1408 0 8
3.5168 -17.1870 -2.4953 0.1408 0 8
3.7939 -17.1280 -2.4953 0.1408 0 8
4.0700 -17.0645 -2.4953 0.1408 0 8
4.3450 -16.9965 -2.4953 0.1408 0 8
4.6189 -16.9242 -2.4953 0.1408 0 8
4.8916 -16.8474 -2.4953 0.1408 0 8
5.1630 -16.7662 -2.4953 0.1408 0 8
5.4331 -16.6806 -2.4953 0.1408 0 8
5.7018 -16.5907 -2.4953 0.1408 0 8
5.9690 -16.4964 -2.4953 0.1408 0 8
6.2346 -16.3979 -2.4953 0.1408 0 8
6.4986 -16.2951 -2.4953 0.1408 0 8
6.7609 -16.1880 -2.4953 0.1408 0 8
7.0214 -16.0767 -2.4953 0.1408 0 8
7.2801 -15.9612 -2.4953 0.1408 0 8
7.5369 -15.8416 -2.4953 0.1408 0 8
7.7918 -15.7178 -2.4953 0.1408 0 8
8.0446 -15.5899 -2.4953 0.1408 0 8
8.2953 -15.4580 -2.4953 0.1408 0 8
8.5438 -15.3220 -2.4953 0.1408 0 8
8.7902 -15.1820 -2.4953 0.1408 0 8
9.0342 -15.0381 -2.4953 0.1408 0 8
9.2759 -14.8903 -2.4953 0.1408 0 8
9.5151 -14.7385 -2.4953 0.1408 0 8
9.7519 -14.5829 -2.4953 0.1408 0 8
9.9861 -14.4236 -2.4953 0.1408 0 8
10.2177 -14.2604 -2.4953 0.1408 0 8
10.4467 -14.0936 -2.4953 0.1408 0 8
10.6729 -13.9230 -2.4953 0.1408 0 8
10.8964 -13.7488 -2.4953 0.1408 0 8
11.1170 -13.5711 -2.4953 0.1408 0 8
11.3347 -13.3898 -2.4953 0.1408 0 8
11.5494 -13.2050 -2.4953 0.1408 0 8
11.7612 -13.0168 -2.4953 0.1408 0 8
11.9698 -12.8251 -2.4953 0.1408 0 8
12.1754 -12.6302 -2.4953 0.1408 0 8
12.3778 -12.4319 -2.4953 0.1408 0 8
12.5769 -12.2304 -2.4953 0.1408 0 8
12.7728 -12.0257 -2.4953 0.1408 0 8
12.9653 -11.8179 -2.4953 0.1408 0 8
13.1545 -11.6069 -2.4953 0.1408 0 8
13.3402 -11.3930 -2.4953 0.1408 0 8
13.5224 -11.1761 -2.4953 0.1408 0 8
13.7012 -10.9562 -2.4953 0.1408 0 8
13.8763 -10.7336 -2.4953 0.1408 0 8
14.0478 -10.5081 -2.4953 0.1408 0 8
14.2157 -10.2799 -2.4953 0.1408 0 8
14.3798 -10.0489 -2.4953 0.1408 0 8
14.5402 -9.8154 -2.4953 0.1408 0 8
14.6969 -9.5793 -2.4953 0.1408 0 8
14.8496 -9.3407 -2.4953 0.1408 0 8
14.9985 -9.0997 -2.4953 0.1408 0 8
15.1435 -8.8563 -2.4953 0.1408 0 8
15.2846 -8.6106 -2.4953 0.1408 0 8
15.4216 -8.3627 -2.4953 0.1408 0 8
15.5547 -8.1125 -2.4953 0.1408 0 8
15.6837 -7.8603 -2.4953 0.1408 0 8
15.8086 -7.6060 -2.4953 0.1408 0 8
15.9293 -7.3497 -2.4953 0.1408 0 8
16.0459 -7.0915 -2.4953 0.1408 0 8
16.1584 -6.8314 -2.4953 0.1408 0 8
16.2666 -6.5696 -2.4953 0.1408 0 8
16.3705 -6.3061 -2.4953 0.1408 0 8
16.4702 -6.0409 -2.4953 0.1408 0 8
16.5657 -5.7741 -2.4953 0.1408 0 8
16.6567 -5.5059 -2.4953 0.1408 0 8
16.7435 -5.2362 -2.4953 0.1408 0 8
16.8258 -4.9651 -2.4953 0.1408 0 8
16.9038 -4.6927 -2.4953 0.1408 0 8
16.9774 -4.4191 -2.4953 0.1408 0 8
17.0466 -4.1444 -2.4953 0.1408 0 8
17.1113 -3.8686 -2.4953 0.1408 0 8
17.1715 -3.5917 -2.4953 0.1408 0 8
17.2273 -3.3140 -2.4953 0.1408 0 8
17.2785 -3.0353 -2.4953 0.1408 0 8
17.3253 -2.7559 -2.4953 0.1408 0 8
17.3676 -2.4758 -2.4953 0.1408 0 8
17.4053 -2.1950 -2.4953 0.1408 0 8
17.4384 -1.9136 -2.4953 0.1408 0 8
17.4671 -1.6317 -2.4953 0.1408 0 8
8.7482 -0.6749 -1.2480 0.1004 25 10
2.7932 -16.3177 -2.4953 0.1490 0 8
3.0563 -16.2705 -2.4953 0.1490 0 8
3.3187 -16.2190 -2.4953 0.1490 0 8
3.5802 -16.1633 -2.4953 0.1490 0 8
3.8407 -16.1034 -2.4953 0.1490 0 8
4.1003 -16.0392 -2.4953 0.1490 0 8
4.3588 -15.9709 -2.4953 0.1490 0 8
4.6161 -15.8985 -2.4953 0.1490 0 8
4.8722 -15.8218 -2.4953 0.1490 0 8
5.1271 -15.7411 -2.4953 0.1490 0 8
5.3806 -15.6562 -2.4953 0.1490 0 8
5.6328 -15.5673 -2.4953 0.1490 0 8
5.8834 -15.4743 -2.4953 0.1490 0 8
6.1326 -15.3773 -2.4953 0.1490 0 8
6.3801 -15.2764 -2.4953 0.1490 0 8
6.6259 -15.1712 -2.4953 0.1490 0 8
6.8701 -15.0623 -2.4953 0.1490 0 8
7.1124 -14.9493 -2.4953 0.1490 0 8
7.3529 -14.8325 -2.4953 0.1490 0 8
7.5915 -14.7119 -2.4953 0.1490 0 8
7.8281 -14.5873 -2.4953 0.1490 0 8
8.0626 -14.4590 -2.4953 0.1490 0 8
8.2951 -14.3269 -2.4953 0.1490 0 8
8.5253 -14.1911 -2.4953 0.1490 0 8
8.7534 -14.0516 -2.4953 0.1490 0 8
8.9792 -13.9084 -2.4953 0.1490 0 8
9.2026 -13.7616 -2.4953 0.1490 0 8
9.4236 -13.6112 -2.4953 0.1490 0 8
9.6422 -13.4572 -2.4953 0.1490 0 8
9.8583 -13.2998 -2.4953 0.1490 0 8
10.0718 -13.1388 -2.4953 0.1490 0 8
10.2826 -12.9745 -2.4953 0.1490 0 8
10.4908 -12.8067 -2.4953 0.1490 0 8
10.6963 -12.6356 -2.4953 0.1490 0 8
10.8989 -12.4612 -2.4953 0.1490 0 8
11.0987 -12.2836 -2.4953 0.1490 0 8
11.2957 -12.1028 -2.4953 0.1490 0 8
11.4896 -11.9188 -2.4953 0.1490 0 8
11.6806 -11.7317 -2.4953 0.1490 0 8
11.8685 -11.5415 -2.4953 0.1490 0 8
12.0534 -11.3484 -2.4953 0.1490 0 8
12.2351 -11.1522 -2.4953 0.1490 0 8
12.4136 -10.9532 -2.4953 0.1490 0 8
12.5888 -10.7513 -2.4953 0.1490 0 8
12.7608 -10.5466 -2.4953 0.1490 0 8
12.9295 -10.3392 -2.4953 0.1490 0 8
13.0947 -10.1290 -2.4953 0.1490 0 8
13.2566 -9.9162 -2.4953 0.1490 0 8
13.4150 -9.7009 -2.4953 0.1490 0 8
13.5699 -9.4830 -2.4953 0.1490 0 8
13.7213 -9.2626 -2.4953 0.1490 0 8
13.8691 -9.0398 -2.4953 0.1490 0 8
14.0133 -8.8146 -2.4953 0.1490 0 8
14.1538 -8.5872 -2.4953 0.1490 0 8
14.2906 -8.3575 -2.4953 0.1490 0 8
14.4237 -8.1256 -2.4953 0.1490 0 8
14.5530 -7.8916 -2.4953 0.1490 0 8
14.6786 -7.6556 -2.4953 0.1490 0 8
14.8003 -7.4176 -2.4953 0.1490 0 8
14.9182 -7.1776 -2.4953 0.1490 0 8
15.0321 -6.9357 -2.4953 0.1490 0 8
15.1422 -6.6921 -2.4953 0.1490 0 8
15.2483 -6.4467 -2.4953 0.1490 0 8
15.3504 -6.1996 -2.4953 0.1490 0 8
15.4485 -5.9509 -2.4953 0.1490 0 8
15.5426 -5.7006 -2.4953 0.1490 0 8
15.6326 -5.4489 -2.4953 0.1490 0 8
15.7186 -5.1958 -2.4953 0.1490 0 8
15.8004 -4.9412 -2.4953 0.1490 0 8
15.8782 -4.6854 -2.4953 0.1490 0 8
15.9518 -4.4284 -2.4953 0.1490 0 8
16.0212 -4.1702 -2.4953 0.1490 0 8
16.0864 -3.9110 -2.4953 0.1490 0 8
16.1475 -3.6507 -2.4953 0.1490 0 8
16.2043 -3.3894 -2.4953 0.1490 0 8
16.2570 -3.1273 -2.4953 0.1490 0 8
16.3054 -2.8644 -2.4953 0.1490 0 8
16.3495 -2.6007 -2.4953 0.1490 0 8
16.3894 -2.3363 -2.4953 0.1490 0 8
16.4249 -2.0713 -2.4953 0.1490 0 8
16.4563 -1.8058 -2.4953 0.1490 0 8
16.4833 -1.5398 -2.4953 0.1490 0 8
8.4048 -0.6484 -1.2706 0.3377 25 10
2.6439 -15.4456 -2.4953 0.1573 0 8
2.8930 -15.4009 -2.4953 0.1573 0 8
3.1413 -15.3521 -2.4953 0.1573 0 8
3.3888 -15.2994 -2.4953 0.1573 0 8
3.6354 -15.2427 -2.4953 0.1573 0 8
3.8811 -15.1820 -2.4953 0.1573 0 8
4.1258 -15.1173 -2.4953 0.1573 0 8
4.3694 -15.0487 -2.4953 0.1573 0 8
4.6118 -14.9762 -2.4953 0.1573 0 8
4.8531 -14.8998 -2.4953 0.1573 0 8
5.0931 -14.8195 -2.4953 0.1573 0 8
5.3317 -14.7353 -2.4953 0.1573 0 8
5.5690 -14.6473 -2.4953 0.1573 0 8
5.8048 -14.5554 -2.4953 0.1573 0 8
6.0391 -14.4598 -2.4953 0.1573 0 8
6.2718 -14.3604 -2.4953 0.1573 0 8
6.5029 -14.2572 -2.4953 0.1573 0 8
6.7323 -14.1503 -2.4953 0.1573 0 8
6.9599 -14.0398 -2.4953 0.1573 0 8
7.1857 -13.9256 -2.4953 0.1573 0 8
7.4097 -13.8077 -2.4953 0.1573 0 8
7.6317 -13.6862 -2.4953 0.1573 0 8
7.8517 -13.5612 -2.4953 0.1573 0 8
8.0697 -13.4326 -2.4953 0.1573 0 8
8.2856 -13.3006 -2.4953 0.1573 0 8
8.4993 -13.1650 -2.4953 0.1573 0 8
8.7108 -13.0261 -2.4953 0.1573 0 8
8.9200 -12.8837 -2.4953 0.1573 0 8
9.1269 -12.7380 -2.4953 0.1573 0 8
9.3314 -12.5889 -2.4953 0.1573 0 8
9.5335 -12.4364 -2.4953 0.1573 0 8
9.7331 -12.2810 -2.4953 0.1573 0 8
9.9301 -12.1222 -2.4953 0.1573 0 8
10.1246 -11.9603 -2.4953 0.1573 0 8
10.3164 -11.7952 -2.4953 0.1573 0 8
10.5056 -11.6271 -2.4953 0.1573 0 8
10.6919 -11.4559 -2.4953 0.1573 0 8
10.8755 -11.2818 -2.4953 0.1573 0 8
11.0563 -11.1047 -2.4953 0.1573 0 8
11.2342 -10.9247 -2.4953 0.1573 0 8
11.4092 -10.7418 -2.4953 0.1573 0 8
11.5811 -10.5562 -2.4953 0.1573 0 8
11.7501 -10.3678 -2.4953 0.1573 0 8
11.9160 -10.1767 -2.4953 0.1573 0 8
12.0788 -9.9829 -2.4953 0.1573 0 8
12.2384 -9.7866 -2.4953 0.1573 0 8
12.3949 -9.5876 -2.4953 0.1573 0 8
12.5481 -9.3862 -2.4953 0.1573 0 8
12.6980 -9.1824 -2.4953 0.1573 0 8
12.8447 -8.9761 -2.4953 0.1573 0 8
12.9879 -8.7675 -2.4953 0.1573 0 8
13.1278 -8.5566 -2.4953 0.1573 0 8
13.2643 -8.3435 -2.4953 0.1573 0 8
13.3973 -8.1282 -2.4953 0.1573 0 8
13.5268 -7.9108 -2.4953 0.1573 0 8
13.6528 -7.6913 -2.4953 0.1573 0 8
13.7752 -7.4699 -2.4953 0.1573 0 8
13.8941 -7.2464 -2.4953 0.1573 0 8
14.0093 -7.0211 -2.4953 0.1573 0 8
14.1208 -6.7940 -2.4953 0.1573 0 8
14.2287 -6.5650 -2.4953 0.1573 0 8
14.3329 -6.3344 -2.4953 0.1573 0 8
14.4333 -6.1021 -2.4953 0.1573 0 8
14.5300 -5.8682 -2.4953 0.1573 0 8
14.6228 -5.6328 -2.4953 0.1573 0 8
14.7119 -5.3960 -2.4953 0.1573 0 8
14.7971 -5.1577 -2.4953 0.1573 0 8
14.8785 -4.9181 -2.4953 0.1573 0 8
14.9559 -4.6771 -2.4953 0.1573 0 8
15.0295 -4.4350 -2.4953 0.1573 0 8
15.0992 -4.1917 -2.4953 0.1573 0 8
15.1649 -3.9473 -2.4953 0.1573 0 8
15.2267 -3.7019 -2.4953 0.1573 0 8
15.2845 -3.4556 -2.4953 0.1573 0 8
15.3383 -3.2083 -2.4953 0.1573 0 8
15.3881 -2.9602 -2.4953 0.1573 0 8
15.4339 -2.7113 -2.4953 0.1573 0 8
15.4757 -2.4617 -2.4953 0.1573 0 8
15.5134 -2.2114 -2.4953 0.1573 0 8
15.5471 -1.9606 -2.4953 0.1573 0 8
15.5767 -1.7093 -2.4953 0.1573 0 8
15.6023 -1.4575 -2.4953 0.1573 0 8
8.2643 -0.6376 -1.3199 0.3430 25 10
2.5094 -14.6600 -2.4953 0.1655 0 8
2.7458 -14.6175 -2.4953 0.1655 0 8
2.9815 -14.5713 -2.4953 0.1655 0 8
3.2165 -14.5213 -2.4953 0.1655 0 8
3.4505 -14.4674 -2.4953 0.1655 0 8
3.6837 -14.4098 -2.4953 0.1655 0 8
3.9159 -14.3484 -2.4953 0.1655 0 8
4.1471 -14.2833 -2.4953 0.1655 0 8
4.3773 -14.2145 -2.4953 0.1655 0 8
4.6062 -14.1419 -2.4953 0.1655 0 8
4.8340 -14.0657 -2.4953 0.1655 0 8
5.0605 -13.9858 -2.4953 0.1655 0 8
5.2857 -13.9023 -2.4953 0.1655 0 8
5.5095 -13.8151 -2.4953 0.1655 0 8
5.7319 -13.7243 -2.4953 0.1655 0 8
5.9528 -13.6300 -2.4953 0.1655 0 8
6.1721 -13.5321 -2.4953 0.1655 0 8
6.3899 -13.4306 -2.4953 0.1655 0 8
6.6059 -13.3257 -2.4953 0.1655 0 8
6.8202 -13.2173 -2.4953 0.1655 0 8
7.0328 -13.1054 -2.4953 0.1655 0 8
7.2435 -12.9901 -2.4953 0.1655 0 8
7.4524 -12.8714 -2.4953 0.1655 0 8
7.6592 -12.7494 -2.4953 0.1655 0 8
7.8641 -12.6241 -2.4953 0.1655 0 8
8.0670 -12.4954 -2.4953 0.1655 0 8
8.2677 -12.3635 -2.4953 0.1655 0 8
8.4663 -12.2284 -2.4953 0.1655 0 8
8.6627 -12.0901 -2.4953 0.1655 0 8
8.8568 -11.9486 -2.4953 0.1655 0 8
9.0486 -11.8040 -2.4953 0.1655 0 8
9.2380 -11.6564 -2.4953 0.1655 0 8
9.4250 -11.5057 -2.4953 0.1655 0 8
9.6096 -11.3520 -2.4953 0.1655 0 8
9.7917 -11.1953 -2.4953 0.1655 0 8
9.9712 -11.0357 -2.4953 0.1655 0 8
10.1481 -10.8732 -2.4953 0.1655 0 8
10.3224 -10.7079 -2.4953 0.1655 0 8
10.4940 -10.5399 -2.4953 0.1655 0 8
10.6628 -10.3690 -2.4953 0.1655 0 8
10.8289 -10.1955 -2.4953 0.1655 0 8
10.9921 -10.0193 -2.4953 0.1655 0 8
11.1525 -9.8405 -2.4953 0.1655 0 8
11.3099 -9.6591 -2.4953 0.1655 0 8
11.4644 -9.4752 -2.4953 0.1655 0 8
11.6159 -9.2888 -2.4953 0.1655 0 8
11.7644 -9.1000 -2.4953 0.1655 0 8
11.9099 -8.9088 -2.4953 0.1655 0 8
12.0522 -8.7153 -2.4953 0.1655 0 8
12.1913 -8.5196 -2.4953 0.1655 0 8
12.3273 -8.3216 -2.4953 0.1655 0 8
12.4600 -8.1290 -2.4953 0.1654 0 8
12.5896 -7.9192 -2.4953 0.1655 0 8
12.7159 -7.7148 -2.4953 0.1655 0 8
12.8388 -7.5085 -2.4953 0.1655 0 8
12.9584 -7.3001 -2.4953 0.1655 0 8
13.0746 -7.0899 -2.4953 0.1655 0 8
13.1874 -6.8779 -2.4953 0.1655 0 8
13.2967 -6.6640 -2.4953 0.1655 0 8
13.4026 -6.4484 -2.4953 0.1655 0 8
13.5050 -6.2311 -2.4953 0.1655 0 8
13.6039 -6.0122 -2.4953 0.1655 0 8
13.6992 -5.7918 -2.4953 0.1655 0 8
13.7909 -5.5698 -2.4953 0.1655 0 8
13.8791 -5.3463 -2.4953 0.1655 0 8
13.9636 -5.1215 -2.4953 0.1655 0 8
14.0445 -4.8953 -2.4953 0.1655 0 8
14.1217 -4.6679 -2.4953 0.1655 0 8
14.1952 -4.4393 -2.4953 0.1655 0 8
14.2651 -4.2094 -2.4953 0.1655 0 8
14.3312 -3.9785 -2.4953 0.1655 0 8
14.3936 -3.7466 -2.4953 0.1655 0 8
14.4522 -3.5136 -2.4953 0.1655 0 8
14.5071 -3.2798 -2.4953 0.1655 0 8
14.5581 -3.0451 -2.4953 0.1655 0 8
14.6054 -2.8096 -2.4953 0.1655 0 8
14.6489 -2.5734 -2.4953 0.1655 0 8
14.6885 -2.3365 -2.4953 0.1655 0 8
14.7243 -2.0990 -2.4953 0.1655 0 8
14.7563 -1.8609 -2.4953 0.1655 0 8
14.7844 -1.6224 -2.4953 0.1655 0 8
8.5335 -0.7972 -1.4379 0.1668 25 10
8.1275 -0.6270 -1.3676 0.3602 25 10
2.3876 -13.9485 -2.4953 0.1736 0 8
2.6126 -13.9081 -2.4953 0.1736 0 8
2.8368 -13.8641 -2.4953 0.1736 0 8
3.0604 -13.8165 -2.4953 0.1736 0 8
3.2831 -13.7653 -2.4953 0.1736 0 8
3.5050 -13.7105 -2.4953 0.1736 0 8
3.7259 -13.6521 -2.4953 0.1736 0 8
3.9459 -13.5901 -2.4953 0.1736 0 8
4.1648 -13.5246 -2.4953 0.1736 0 8
4.3827 -13.4556 -2.4953 0.1736 0 8
4.5994 -13.3831 -2.4953 0.1736 0 8
4.8149 -13.3071 -2.4953 0.1736 0 8
5.0292 -13.2276 -2.4953 0.1736 0 8
5.2422 -13.1446 -2.4953 0.1736 0 8
5.4537 -13.0583 -2.4953 0.1736 0 8
5.6639 -12.9685 -2.4953 0.1736 0 8
5.8726 -12.8753 -2.4953 0.1736 0 8
6.0798 -12.7788 -2.4953 0.1736 0 8
6.2853 -12.6790 -2.4953 0.1736 0 8
6.4893 -12.5758 -2.4953 0.1736 0 8
6.6915 -12.4694 -2.4953 0.1736 0 8
6.8920 -12.3597 -2.4953 0.1736 0 8
7.0907 -12.2468 -2.4953 0.1736 0 8
7.2875 -12.1307 -2.4953 0.1736 0 8
7.4825 -12.0114 -2.4953 0.1736 0 8
7.6755 -11.8890 -2.4953 0.1736 0 8
7.8665 -11.7635 -2.4953 0.1736 0 8
8.0554 -11.6349 -2.4953 0.1736 0 8
8.2423 -11.5033 -2.4953 0.1736 0 8
8.4269 -11.3687 -2.4953 0.1736 0 8
8.6094 -11.2312 -2.4953 0.1736 0 8
8.7897 -11.0907 -2.4953 0.1736 0 8
8.9676 -10.9473 -2.4953 0.1736 0 8
9.1433 -10.8010 -2.4953 0.1736 0 8
9.3165 -10.6520 -2.4953 0.1736 0 8
9.4873 -10.5001 -2.4953 0.1736 0 8
9.6556 -10.3456 -2.4953 0.1736 0 8
9.8214 -10.1883 -2.4953 0.1736 0 8
9.9847 -10.0284 -2.4953 0.1736 0 8
10.1453 -9.8658 -2.4953 0.1736 0 8
10.3033 -9.7007 -2.4953 0.1736 0 8
10.4586 -9.5330 -2.4953 0.1736 0 8
10.6112 -9.3629 -2.4953 0.1736 0 8
10.7610 -9.1903 -2.4953 0.1736 0 8
10.9081 -9.0153 -2.4953 0.1736 0 8
11.0522 -8.8380 -2.4953 0.1736 0 8
11.1935 -8.6584 -2.4953 0.1736 0 8
11.3319 -8.4765 -2.4953 0.1736 0 8
11.4673 -8.2924 -2.4953 0.1736 0 8
11.5997 -8.1061 -2.4953 0.1736 0 8
11.7291 -7.9177 -2.4953 0.1736 0 8
11.8554 -7.7273 -2.4953 0.1736 0 8
11.9787 -7.5348 -2.4953 0.1736 0 8
12.0988 -7.3404 -2.4953 0.1736 0 8
12.2157 -7.1441 -2.4953 0.1736 0 8
12.3295 -6.9459 -2.4953 0.1736 0 8
12.4401 -6.7458 -2.4953 0.1736 0 8
12.5474 -6.5441 -2.4953 0.1736 0 8
12.6514 -6.3406 -2.4953 0.1736 0 8
12.7522 -6.1355 -2.4953 0.1736 0 8
12.8496 -5.9287 -2.4953 0.1736 0 8
12.9437 -5.7205 -2.4953 0.1736 0 8
13.0343 -5.5107 -2.4953 0.1736 0 8
13.1216 -5.2995 -2.4953 0.1736 0 8
13.2055 -5.0869 -2.4953 0.1736 0 8
13.2859 -4.8730 -2.4953 0.1736 0 8
13.3629 -4.6578 -2.4953 0.1736 0 8
13.4364 -4.4414 -2.4953 0.1736 0 8
13.5063 -4.2238 -2.4953 0.1736 0 8
13.5728 -4.0051 -2.4953 0.1736 0 8
13.6357 -3.7854 -2.4953 0.1736 0 8
13.6950 -3.5647 -2.4953 0.1736 0 8
13.7508 -3.3431 -2.4953 0.1736 0 8
13.8030 -3.1206 -2.4953 0.1736 0 8
13.8516 -2.8973 -2.4953 0.1736 0 8
13.8966 -2.6732 -2.4953 0.1736 0 8
13.9379 -2.4485 -2.4953 0.1736 0 8
13.9757 -2.2231 -2.4953 0.1736 0 8
14.0098 -1.9971 -2.4953 0.1736 0 8
14.0402 -1.7706 -2.4953 0.1736 0 8
14.0669 -1.5436 -2.4953 0.1736 0 8
8.2418 -0.7699 -1.4596 0.3425 25 10
7.9831 -0.6159 -1.4118 0.3661 25 10
2.2768 -13.3011 -2.4953 0.1818 0 8
2.4913 -13.2626 -2.4953 0.1818 0 8
2.7052 -13.2206 -2.4953 0.1818 0 8
2.9183 -13.1752 -2.4953 0.1818 0 8
3.1307 -13.1264 -2.4953 0.1818 0 8
3.3423 -13.0741 -2.4953 0.1818 0 8
3.5530 -13.0184 -2.4953 0.1818 0 8
3.7627 -12.9594 -2.4953 0.1818 0 8
3.9715 -12.8969 -2.4953 0.1818 0 8
4.1793 -12.8311 -2.4953 0.1818 0 8
4.3859 -12.7619 -2.4953 0.1818 0 8
4.5915 -12.6894 -2.4953 0.1818 0 8
4.7958 -12.6136 -2.4953 0.1818 0 8
4.9989 -12.5346 -2.4953 0.1818 0 8
5.2006 -12.4522 -2.4953 0.1818 0 8
5.4010 -12.3666 -2.4953 0.1818 0 8
5.6000 -12.2778 -2.4953 0.1818 0 8
5.7976 -12.1857 -2.4953 0.1818 0 8
5.9936 -12.0905 -2.4953 0.1818 0 8
6.1881 -11.9921 -2.4953 0.1818 0 8
6.3809 -11.8906 -2.4953 0.1818 0 8
6.5721 -11.7860 -2.4953 0.1818 0 8
6.7616 -11.6784 -2.4953 0.1818 0 8
6.9493 -11.5677 -2.4953 0.1818 0 8
7.1352 -11.4539 -2.4953 0.1818 0 8
7.3192 -11.3372 -2.4953 0.1818 0 8
7.5014 -11.2175 -2.4953 0.1818 0 8
7.6815 -11.0949 -2.4953 0.1818 0 8
7.8597 -10.9694 -2.4953 0.1818 0 8
8.0358 -10.8411 -2.4953 0.1818 0 8
8.2098 -10.7099 -2.4953 0.1818 0 8
8.3817 -10.5759 -2.4953 0.1818 0 8
8.5514 -10.4392 -2.4953 0.1818 0 8
8.7189 -10.2997 -2.4953 0.1818 0 8
8.8841 -10.1576 -2.4953 0.1818 0 8
9.0470 -10.0128 -2.4953 0.1818 0 8
9.2075 -9.8654 -2.4953 0.1818 0 8
9.3656 -9.7154 -2.4953 0.1818 0 8
9.5213 -9.5629 -2.4953 0.1818 0 8
9.6745 -9.4079 -2.4953 0.1818 0 8
9.8251 -9.2504 -2.4953 0.1818 0 8
9.9732 -9.0906 -2.4953 0.1818 0 8
10.1187 -8.9283 -2.4953 0.1818 0 8
10.2616 -8.7638 -2.4953 0.1818 0 8
10.4018 -8.5969 -2.4953 0.1818 0 8
10.5393 -8.4278 -2.4953 0.1818 0 8
10.6740 -8.2565 -2.4953 0.1818 0 8
10.8059 -8.0831 -2.4953 0.1818 0 8
10.9350 -7.9075 -2.4953 0.1818 0 8
11.0613 -7.7299 -2.4953 0.1818 0 8
11.1847 -7.5502 -2.4953 0.1818 0 8
11.3052 -7.3686 -2.4953 0.1818 0 8
11.4227 -7.1851 -2.4953 0.1818 0 8
11.5372 -6.9997 -2.4953 0.1818 0 8
11.6488 -6.8125 -2.4953 0.1818 0 8
11.7573 -6.6235 -2.4953 0.1818 0 8
11.8627 -6.4328 -2.4953 0.1818 0 8
11.9650 -6.2403 -2.4953 0.1818 0 8
12.0642 -6.0463 -2.4953 0.1818 0 8
12.1603 -5.8507 -2.4953 0.1818 0 8
12.2532 -5.6536 -2.4953 0.1818 0 8
12.3429 -5.4549 -2.4953 0.1818 0 8
12.4294 -5.2549 -2.4953 0.1818 0 8
12.5126 -5.0535 -2.4953 0.1818 0 8
12.5926 -4.8508 -2.4953 0.1818 0 8
12.6693 -4.6468 -2.4953 0.1818 0 8
12.7427 -4.4416 -2.4953 0.1818 0 8
12.8127 -4.2352 -2.4953 0.1818 0 8
12.8795 -4.0278 -2.4953 0.1818 0 8
12.9428 -3.8193 -2.4953 0.1818 0 8
13.0028 -3.6097 -2.4953 0.1818 0 8
13.0594 -3.3993 -2.4953 0.1818 0 8
13.1126 -3.1880 -2.4953 0.1818 0 8
13.1624 -2.9758 -2.4953 0.1818 0 8
13.2087 -2.7628 -2.4953 0.1818 0 8
13.2516 -2.5492 -2.4953 0.1818 0 8
13.2910 -2.3348 -2.4953 0.1818 0 8
13.3270 -2.1199 -2.4953 0.1818 0 8
13.3595 -1.9044 -2.4953 0.1818 0 8
13.3885 -1.6884 -2.4953 0.1818 0 8
13.4141 -1.4720 -2.4953 0.1818 0 8
8.0684 -0.7537 -1.4984 0.2684 25 10
7.8434 -0.6051 -1.4546 0.3721 25 10
2.1755 -12.7094 -2.4953 0.1900 0 8
2.3805 -12.6726 -2.4953 0.1900 0 8
2.5848 -12.6325 -2.4953 0.1900 0 8
2.7885 -12.5891 -2.4953 0.1900 0 8
2.9914 -12.5425 -2.4953 0.1900 0 8
3.1936 -12.4925 -2.4953 0.1900 0 8
3.3949 -12.4393 -2.4953 0.1900 0 8
3.5954 -12.3829 -2.4953 0.1900 0 8
3.7949 -12.3232 -2.4953 0.1900 0 8
3.9934 -12.2603 -2.4953 0.1900 0 8
4.1908 -12.1942 -2.4953 0.1900 0 8
4.3872 -12.1249 -2.4953 0.1900 0 8
4.5824 -12.0525 -2.4953 0.1900 0 8
4.7765 -11.9769 -2.4953 0.1900 0 8
4.9693 -11.8982 -2.4953 0.1900 0 8
5.1608 -11.8165 -2.4953 0.1900 0 8
5.3509 -11.7316 -2.4953 0.1900 0 8
5.5397 -11.6436 -2.4953 0.1900 0 8
5.7270 -11.5527 -2.4953 0.1900 0 8
5.9128 -11.4587 -2.4953 0.1900 0 8
6.0971 -11.3617 -2.4953 0.1900 0 8
6.2798 -11.2617 -2.4953 0.1900 0 8
6.4608 -11.1589 -2.4953 0.1900 0 8
6.6402 -11.0531 -2.4953 0.1900 0 8
6.8178 -10.9444 -2.4953 0.1900 0 8
6.9936 -10.8329 -2.4953 0.1900 0 8
7.1677 -10.7185 -2.4953 0.1900 0 8
7.3398 -10.6014 -2.4953 0.1900 0 8
7.5101 -10.4815 -2.4953 0.1900 0 8
7.6783 -10.3588 -2.4953 0.1900 0 8
7.8446 -10.2335 -2.4953 0.1900 0 8
8.0089 -10.1054 -2.4953 0.1900 0 8
8.1710 -9.9748 -2.4953 0.1900 0 8
8.3310 -9.8415 -2.4953 0.1900 0 8
8.4889 -9.7057 -2.4953 0.1900 0 8
8.6445 -9.5674 -2.4953 0.1900 0 8
8.7979 -9.4265 -2.4953 0.1900 0 8
8.9490 -9.2832 -2.4953 0.1900 0 8
9.0977 -9.1375 -2.4953 0.1900 0 8
9.2441 -8.9894 -2.4953 0.1900 0 8
9.3880 -8.8389 -2.4953 0.1900 0 8
9.5296 -8.6862 -2.4953 0.1900 0 8
9.6686 -8.5311 -2.4953 0.1900 0 8
9.8051 -8.3739 -2.4953 0.1900 0 8
9.9390 -8.2145 -2.4953 0.1900 0 8
10.0704 -8.0529 -2.4953 0.1900 0 8
10.1991 -7.8892 -2.4953 0.1900 0 8
10.3252 -7.7235 -2.4953 0.1900 0 8
10.4486 -7.5557 -2.4953 0.1900 0 8
10.5692 -7.3860 -2.4953 0.1900 0 8
10.6871 -7.2144 -2.4953 0.1900 0 8
10.8022 -7.0408 -2.4953 0.1900 0 8
10.9145 -6.8655 -2.4953 0.1900 0 8
11.0240 -6.6883 -2.4953 0.1900 0 8
11.1306 -6.5094 -2.4953 0.1900 0 8
11.2342 -6.3288 -2.4953 0.1900 0 8
11.3350 -6.1466 -2.4953 0.1900 0 8
11.4327 -5.9627 -2.4953 0.1900 0 8
11.5275 -5.7773 -2.4953 0.1900 0 8
11.6193 -5.5904 -2.4953 0.1900 0 8
11.7081 -5.4021 -2.4953 0.1900 0 8
11.7938 -5.2123 -2.4953 0.1900 0 8
11.8765 -5.0211 -2.4953 0.1900 0 8
11.9560 -4.8287 -2.4953 0.1900 0 8
12.0324 -4.6350 -2.4953 0.1900 0 8
12.1057 -4.4401 -2.4953 0.1900 0 8
12.1758 -4.2440 -2.4953 0.1900 0 8
12.2428 -4.0468 -2.4953 0.1900 0 8
12.3065 -3.8486 -2.4953 0.1900 0 8
12.3671 -3.6494 -2.4953 0.1900 0 8
12.4244 -3.4492 -2.4953 0.1900 0 8
12.4785 -3.2481 -2.4953 0.1900 0 8
12.5293 -3.0461 -2.4953 0.1900 0 8
12.5768 -2.8434 -2.4953 0.1900 0 8
12.6211 -2.6399 -2.4953 0.1900 0 8
12.6621 -2.4358 -2.4953 0.1900 0 8
12.6998 -2.2310 -2.4953 0.1900 0 8
12.7342 -2.0256 -2.4953 0.1900 0 8
12.7652 -1.8197 -2.4953 0.1900 0 8
12.7929 -1.6133 -2.4953 0.1900 0 8
12.8173 -1.4065 -2.4953 0.1900 0 8
7.8937 -0.7374 -1.5342 0.3687 25 10
7.7733 -0.5997 -1.5087 0.7077 25 10
2.0826 -12.1664 -2.4953 0.1981 0 8
2.2788 -12.1312 -2.4953 0.1981 0 8
2.4744 -12.0928 -2.4953 0.1981 0 8
2.6694 -12.0513 -2.4953 0.1981 0 8
2.8636 -12.0066 -2.4953 0.1981 0 8
3.0572 -11.9588 -2.4953 0.1981 0 8
3.2499 -11.9079 -2.4953 0.1981 0 8
3.4418 -11.8538 -2.4953 0.1981 0 8
3.6327 -11.7967 -2.4953 0.1981 0 8
3.8228 -11.7365 -2.4953 0.1981 0 8
4.0118 -11.6733 -2.4953 0.1981 0 8
4.1998 -11.6069 -2.4953 0.1981 0 8
4.3867 -11.5376 -2.4953 0.1981 0 8
4.5724 -11.4653 -2.4953 0.1981 0 8
4.7570 -11.3899 -2.4953 0.1981 0 8
4.9403 -11.3116 -2.4953 0.1981 0 8
5.1223 -11.2304 -2.4953 0.1981 0 8
5.3030 -11.1462 -2.4953 0.1981 0 8
5.4823 -11.0591 -2.4953 0.1981 0 8
5.6602 -10.9691 -2.4953 0.1981 0 8
5.8366 -10.8763 -2.4953 0.1981 0 8
6.0115 -10.7806 -2.4953 0.1981 0 8
6.1848 -10.6821 -2.4953 0.1981 0 8
6.3565 -10.5809 -2.4953 0.1981 0 8
6.5265 -10.4768 -2.4953 0.1981 0 8
6.6949 -10.3701 -2.4953 0.1981 0 8
6.8614 -10.2606 -2.4953 0.1981 0 8
7.0262 -10.1485 -2.4953 0.1981 0 8
7.1892 -10.0337 -2.4953 0.1981 0 8
7.3503 -9.9163 -2.4953 0.1981 0 8
7.5095 -9.7963 -2.4953 0.1981 0 8
7.6667 -9.6737 -2.4953 0.1981 0 8
7.8219 -9.5487 -2.4953 0.1981 0 8
7.9751 -9.4211 -2.4953 0.1981 0 8
8.1262 -9.2911 -2.4953 0.1981 0 8
8.2752 -9.1586 -2.4953 0.1981 0 8
8.4220 -9.0238 -2.4953 0.1981 0 8
8.5666 -8.8866 -2.4953 0.1981 0 8
8.7090 -8.7471 -2.4953 0.1981 0 8
8.8492 -8.6053 -2.4953 0.1981 0 8
8.9870 -8.4613 -2.4953 0.1981 0 8
9.1224 -8.3151 -2.4953 0.1981 0 8
9.2555 -8.1667 -2.4953 0.1981 0 8
9.3862 -8.0161 -2.4953 0.1981 0 8
9.5144 -7.8635 -2.4953 0.1981 0 8
9.6402 -7.7088 -2.4953 0.1981 0 8
9.7634 -7.5522 -2.4953 0.1981 0 8
9.8841 -7.3935 -2.4953 0.1981 0 8
10.0022 -7.2329 -2.4953 0.1981 0 8
10.1177 -7.0705 -2.4953 0.1981 0 8
10.2306 -6.9062 -2.4953 0.1981 0 8
10.3408 -6.7400 -2.4953 0.1981 0 8
10.4482 -6.5722 -2.4953 0.1981 0 8
10.5530 -6.4026 -2.4953 0.1981 0 8
10.6550 -6.2313 -2.4953 0.1981 0 8
10.7543 -6.0585 -2.4953 0.1981 0 8
10.8507 -5.8840 -2.4953 0.1981 0 8
10.9443 -5.7080 -2.4953 0.1981 0 8
11.0351 -5.5305 -2.4953 0.1981 0 8
11.1229 -5.3516 -2.4953 0.1981 0 8
11.2079 -5.1713 -2.4953 0.1981 0 8
11.2900 -4.9896 -2.4953 0.1981 0 8
11.3691 -4.8066 -2.4953 0.1981 0 8
11.4452 -4.6224 -2.4953 0.1981 0 8
11.5184 -4.4370 -2.4953 0.1981 0 8
11.5885 -4.2504 -2.4953 0.1981 0 8
11.6556 -4.0627 -2.4953 0.1981 0 8
11.7197 -3.8739 -2.4953 0.1981 0 8
11.7808 -3.6842 -2.4953 0.1981 0 8
11.8387 -3.4934 -2.4953 0.1981 0 8
11.8936 -3.3018 -2.4953 0.1981 0 8
11.9454 -3.1093 -2.4953 0.1981 0 8
11.9940 -2.9160 -2.4953 0.1981 0 8
12.0395 -2.7219 -2.4953 0.1981 0 8
12.0819 -2.5272 -2.4953 0.1981 0 8
12.1212 -2.3317 -2.4953 0.1981 0 8
12.1572 -2.1357 -2.4953 0.1981 0 8
12.1901 -1.9391 -2.4953 0.1981 0 8
12.2199 -1.7419 -2.4953 0.1981 0 8
12.2464 -1.5444 -2.4953 0.1981 0 8
12.2697 -1.3464 -2.4953 0.1981 0 8
7.8432 -0.7327 -1.5925 0.6993 25 10
7.7377 -0.5970 -1.5689 0.7098 25 10
1.9970 -11.6664 -2.4953 0.2063 0 8
2.1851 -11.6326 -2.4953 0.2063 0 8
2.3727 -11.5958 -2.4953 0.2063 0 8
2.5597 -11.5560 -2.4953 0.2063 0 8
2.7459 -11.5131 -2.4953 0.2063 0 8
2.9315 -11.4673 -2.4953 0.2063 0 8
3.1163 -11.4184 -2.4953 0.2063 0 8
3.3003 -11.3666 -2.4953 0.2063 0 8
3.4834 -11.3118 -2.4953 0.2063 0 8
3.6656 -11.2541 -2.4953 0.2063 0 8
3.8469 -11.1935 -2.4953 0.2063 0 8
4.0272 -11.1299 -2.4953 0.2063 0 8
4.2064 -11.0634 -2.4953 0.2063 0 8
4.3845 -10.9940 -2.4953 0.2063 0 8
4.5614 -10.9218 -2.4953 0.2063 0 8
4.7372 -10.8467 -2.4953 0.2063 0 8
4.9118 -10.7688 -2.4953 0.2063 0 8
5.0850 -10.6880 -2.4953 0.2063 0 8
5.2570 -10.6045 -2.4953 0.2063 0 8
5.4275 -10.5183 -2.4953 0.2063 0 8
5.5967 -10.4292 -2.4953 0.2063 0 8
5.7644 -10.3375 -2.4953 0.2063 0 8
5.9306 -10.2431 -2.4953 0.2063 0 8
6.0952 -10.1460 -2.4953 0.2063 0 8
6.2583 -10.0462 -2.4953 0.2063 0 8
6.4197 -9.9438 -2.4953 0.2063 0 8
6.5794 -9.8389 -2.4953 0.2063 0 8
6.7375 -9.7313 -2.4953 0.2063 0 8
6.8937 -9.6213 -2.4953 0.2063 0 8
7.0482 -9.5087 -2.4953 0.2063 0 8
7.2008 -9.3936 -2.4953 0.2063 0 8
7.3516 -9.2761 -2.4953 0.2063 0 8
7.5004 -9.1562 -2.4953 0.2063 0 8
7.6473 -9.0339 -2.4953 0.2063 0 8
7.7922 -8.9092 -2.4953 0.2063 0 8
7.9351 -8.7822 -2.4953 0.2063 0 8
8.0758 -8.6529 -2.4953 0.2063 0 8
8.2145 -8.5214 -2.4953 0.2063 0 8
8.3511 -8.3876 -2.4953 0.2063 0 8
8.4854 -8.2516 -2.4953 0.2063 0 8
8.6176 -8.1135 -2.4953 0.2063 0 8
8.7475 -7.9733 -2.4953 0.2063 0 8
8.8751 -7.8310 -2.4953 0.2063 0 8
9.0004 -7.6867 -2.4953 0.2063 0 8
9.1234 -7.5403 -2.4953 0.2063 0 8
9.2439 -7.3920 -2.4953 0.2063 0 8
9.3621 -7.2417 -2.4953 0.2063 0 8
9.4778 -7.0896 -2.4953 0.2063 0 8
9.5911 -6.9356 -2.4953 0.2063 0 8
9.7018 -6.7798 -2.4953 0.2063 0 8
9.8101 -6.6223 -2.4953 0.2063 0 8
9.9157 -6.4630 -2.4953 0.2063 0 8
10.0188 -6.3020 -2.4953 0.2063 0 8
10.1193 -6.1394 -2.4953 0.2063 0 8
10.2171 -5.9752 -2.4953 0.2063 0 8
10.3122 -5.8094 -2.4953 0.2063 0 8
10.4047 -5.6421 -2.4953 0.2063 0 8
10.4945 -5.4734 -2.4953 0.2063 0 8
10.5815 -5.3032 -2.4953 0.2063 0 8
10.6658 -5.1316 -2.4953 0.2063 0 8
10.7472 -4.9587 -2.4953 0.2063 0 8
10.8259 -4.7845 -2.4953 0.2063 0 8
10.9018 -4.6091 -2.4953 0.2063 0 8
10.9748 -4.4324 -2.4953 0.2063 0 8
11.0449 -4.2546 -2.4953 0.2063 0 8
11.1122 -4.0757 -2.4953 0.2063 0 8
11.1766 -3.8957 -2.4953 0.2063 0 8
11.2380 -3.7147 -2.4953 0.2063 0 8
11.2965 -3.5327 -2.4953 0.2063 0 8
11.3521 -3.3499 -2.4953 0.2063 0 8
11.4047 -3.1661 -2.4953 0.2063 0 8
11.4544 -2.9815 -2.4953 0.2063 0 8
11.5010 -2.7961 -2.4953 0.2063 0 8
11.5447 -2.6101 -2.4953 0.2063 0 8
11.5853 -2.4233 -2.4953 0.2063 0 8
11.6229 -2.2359 -2.4953 0.2063 0 8
11.6575 -2.0479 -2.4953 0.2063 0 8
11.6891 -1.8594 -2.4953 0.2063 0 8
11.7176 -1.6703 -2.4953 0.2063 0 8
11.7430 -1.4809 -2.4953 0.2063 0 8
11.7654 -1.2911 -2.4953 0.2063 0 8
7.8069 -0.7293 -1.6530 0.7014 25 10
7.7087 -0.5947 -1.6300 0.8736 25 10
1.9179 -11.2042 -2.4953 0.2144 0 8
2.0986 -11.1718 -2.4953 0.2144 0 8
2.2787 -11.1364 -2.4953 0.2144 0 8
2.4583 -11.0982 -2.4953 0.2144 0 8
2.6372 -11.0570 -2.4953 0.2144 0 8
2.8154 -11.0130 -2.4953 0.2144 0 8
2.9928 -10.9661 -2.4953 0.2144 0 8
3.1695 -10.9163 -2.4953 0.2144 0 8
3.3454 -10.8637 -2.4953 0.2144 0 8
3.5204 -10.8083 -2.4953 0.2144 0 8
3.6945 -10.7500 -2.4953 0.2144 0 8
3.8676 -10.6890 -2.4953 0.2144 0 8
4.0397 -10.6251 -2.4953 0.2144 0 8
4.2108 -10.5585 -2.4953 0.2144 0 8
4.3807 -10.4891 -2.4953 0.2144 0 8
4.5496 -10.4170 -2.4953 0.2144 0 8
4.7172 -10.3422 -2.4953 0.2144 0 8
4.8836 -10.2646 -2.4953 0.2144 0 8
5.0487 -10.1844 -2.4953 0.2144 0 8
5.2125 -10.1016 -2.4953 0.2144 0 8
5.3750 -10.0161 -2.4953 0.2144 0 8
5.5360 -9.9280 -2.4953 0.2144 0 8
5.6956 -9.8373 -2.4953 0.2144 0 8
5.8537 -9.7440 -2.4953 0.2144 0 8
6.0103 -9.6482 -2.4953 0.2144 0 8
6.1654 -9.5499 -2.4953 0.2144 0 8
6.3188 -9.4491 -2.4953 0.2144 0 8
6.4706 -9.3458 -2.4953 0.2144 0 8
6.6206 -9.2401 -2.4953 0.2144 0 8
6.7690 -9.1320 -2.4953 0.2144 0 8
6.9156 -9.0215 -2.4953 0.2144 0 8
7.0604 -8.9086 -2.4953 0.2144 0 8
7.2033 -8.7935 -2.4953 0.2144 0 8
7.3444 -8.6760 -2.4953 0.2144 0 8
7.4835 -8.5562 -2.4953 0.2144 0 8
7.6207 -8.4343 -2.4953 0.2144 0 8
7.7559 -8.3101 -2.4953 0.2144 0 8
7.8891 -8.1838 -2.4953 0.2144 0 8
8.0202 -8.0553 -2.4953 0.2144 0 8
8.1493 -7.9247 -2.4953 0.2144 0 8
8.2762 -7.7921 -2.4953 0.2144 0 8
8.4009 -7.6574 -2.4953 0.2144 0 8
8.5235 -7.5208 -2.4953 0.2144 0 8
8.6439 -7.3822 -2.4953 0.2144 0 8
8.7619 -7.2416 -2.4953 0.2144 0 8
8.8777 -7.0992 -2.4953 0.2144 0 8
8.9912 -6.9549 -2.4953 0.2144 0 8
9.1024 -6.8088 -2.4953 0.2144 0 8
9.2111 -6.6609 -2.4953 0.2144 0 8
9.3175 -6.5113 -2.4953 0.2144 0 8
9.4214 -6.3602 -2.4953 0.2144 0 8
9.5229 -6.2070 -2.4953 0.2144 0 8
9.6219 -6.0524 -2.4953 0.2144 0 8
9.7184 -5.8962 -2.4953 0.2144 0 8
9.8123 -5.7385 -2.4953 0.2144 0 8
9.9037 -5.5793 -2.4953 0.2144 0 8
9.9925 -5.4186 -2.4953 0.2144 0 8
10.0787 -5.2566 -2.4953 0.2144 0 8
10.1623 -5.0931 -2.4953 0.2144 0 8
10.2432 -4.9283 -2.4953 0.2144 0 8
10.3215 -4.7623 -2.4953 0.2144 0 8
10.3970 -4.5950 -2.4953 0.2144 0 8
10.4699 -4.4265 -2.4953 0.2144 0 8
10.5400 -4.2568 -2.4953 0.2144 0 8
10.6074 -4.0861 -2.4953 0.2144 0 8
10.6720 -3.9142 -2.4953 0.2144 0 8
10.7338 -3.7414 -2.4953 0.2144 0 8
10.7928 -3.5676 -2.4953 0.2144 0 8
10.8490 -3.3928 -2.4953 0.2144 0 8
10.9024 -3.2172 -2.4953 0.2144 0 8
10.9529 -3.0407 -2.4953 0.2144 0 8
11.0006 -2.8634 -2.4953 0.2144 0 8
11.0454 -2.6854 -2.4953 0.2144 0 8
11.0873 -2.5067 -2.4953 0.2144 0 8
11.1264 -2.3273 -2.4953 0.2144 0 8
11.1625 -2.1473 -2.4953 0.2144 0 8
11.1957 -1.9668 -2.4953 0.2144 0 8
11.2260 -1.7857 -2.4953 0.2144 0 8
11.2534 -1.6042 -2.4953 0.2144 0 8
11.2778 -1.4222 -2.4953 0.2144 0 8
11.2993 -1.2399 -2.4953 0.2144 0 8
7.7867 -0.7274 -1.7167 0.3067 25 10
7.6863 -0.5930 -1.6923 0.8746 25 10
1.8445 -10.7758 -2.4953 0.2225 0 8
2.0183 -10.7446 -2.4953 0.2225 0 8
2.1916 -10.7106 -2.4953 0.2225 0 8
2.3643 -10.6738 -2.4953 0.2225 0 8
2.5363 -10.6342 -2.4953 0.2225 0 8
2.7077 -10.5919 -2.4953 0.2225 0 8
2.8784 -10.5468 -2.4953 0.2225 0 8
3.0484 -10.4989 -2.4953 0.2225 0 8
3.2175 -10.4483 -2.4953 0.2225 0 8
3.3858 -10.3950 -2.4953 0.2225 0 8
3.5532 -10.3390 -2.4953 0.2225 0 8
3.7197 -10.2802 -2.4953 0.2225 0 8
3.8853 -10.2188 -2.4953 0.2225 0 8
4.0498 -10.1547 -2.4953 0.2225 0 8
4.2132 -10.0880 -2.4953 0.2225 0 8
4.3756 -10.0187 -2.4953 0.2225 0 8
4.5368 -9.9467 -2.4953 0.2225 0 8
4.6968 -9.8721 -2.4953 0.2225 0 8
4.8557 -9.7950 -2.4953 0.2225 0 8
5.0132 -9.7153 -2.4953 0.2225 0 8
5.1694 -9.6331 -2.4953 0.2225 0 8
5.3243 -9.5484 -2.4953 0.2225 0 8
5.4778 -9.4611 -2.4953 0.2225 0 8
5.6299 -9.3714 -2.4953 0.2225 0 8
5.7805 -9.2793 -2.4953 0.2225 0 8
5.9296 -9.1847 -2.4953 0.2225 0 8
6.0772 -9.0878 -2.4953 0.2225 0 8
6.2231 -8.9885 -2.4953 0.2225 0 8
6.3675 -8.8868 -2.4953 0.2225 0 8
6.5101 -8.7828 -2.4953 0.2225 0 8
6.6511 -8.6765 -2.4953 0.2225 0 8
6.7904 -8.5680 -2.4953 0.2225 0 8
6.9279 -8.4572 -2.4953 0.2225 0 8
7.0635 -8.3442 -2.4953 0.2225 0 8
7.1974 -8.2291 -2.4953 0.2225 0 8
7.3293 -8.1118 -2.4953 0.2225 0 8
7.4594 -7.9924 -2.4953 0.2225 0 8
7.5874 -7.8709 -2.4953 0.2225 0 8
7.7136 -7.7473 -2.4953 0.2225 0 8
7.8377 -7.6217 -2.4953 0.2225 0 8
7.9597 -7.4942 -2.4953 0.2225 0 8
8.0797 -7.3646 -2.4953 0.2225 0 8
8.1976 -7.2332 -2.4953 0.2225 0 8
8.3133 -7.0999 -2.4953 0.2225 0 8
8.4269 -6.9647 -2.4953 0.2225 0 8
8.5383 -6.8277 -2.4953 0.2225 0 8
8.6474 -6.6889 -2.4953 0.2225 0 8
8.7543 -6.5484 -2.4953 0.2225 0 8
8.8589 -6.4062 -2.4953 0.2225 0 8
8.9612 -6.2623 -2.4953 0.2225 0 8
9.0612 -6.1168 -2.4953 0.2225 0 8
9.1588 -5.9696 -2.4953 0.2225 0 8
9.2540 -5.8210 -2.4953 0.2225 0 8
9.3468 -5.6708 -2.4953 0.2225 0 8
9.4371 -5.5191 -2.4953 0.2225 0 8
9.5250 -5.3659 -2.4953 0.2225 0 8
9.6104 -5.2114 -2.4953 0.2225 0 8
9.6933 -5.0556 -2.4953 0.2225 0 8
9.7737 -4.8984 -2.4953 0.2225 0 8
9.8516 -4.7399 -2.4953 0.2225 0 8
9.9268 -4.5802 -2.4953 0.2225 0 8
9.9995 -4.4193 -2.4953 0.2225 0 8
10.0695 -4.2572 -2.4953 0.2225 0 8
10.1370 -4.0940 -2.4953 0.2225 0 8
10.2018 -3.9298 -2.4953 0.2225 0 8
10.2639 -3.7646 -2.4953 0.2225 0 8
10.3234 -3.5983 -2.4953 0.2225 0 8
10.3801 -3.4311 -2.4953 0.2225 0 8
10.4342 -3.2631 -2.4953 0.2225 0 8
10.4855 -3.0941 -2.4953 0.2225 0 8
10.5341 -2.9244 -2.4953 0.2225 0 8
10.5800 -2.7539 -2.4953 0.2225 0 8
10.6231 -2.5827 -2.4953 0.2225 0 8
10.6634 -2.4108 -2.4953 0.2225 0 8
10.7009 -2.2383 -2.4953 0.2225 0 8
10.7357 -2.0652 -2.4953 0.2225 0 8
10.7676 -1.8916 -2.4953 0.2225 0 8
10.7968 -1.7174 -2.4953 0.2225 0 8
10.8231 -1.5428 -2.4953 0.2225 0 8
10.8466 -1.3679 -2.4953 0.2225 0 8
10.8673 -1.1925 -2.4953 0.2225 0 8
7.7689 -0.7258 -1.7809 0.3068 25 10
7.6639 -0.5913 -1.7544 0.8755 25 10
1.7764 -10.3774 -2.4953 0.2306 0 8
1.9437 -10.3474 -2.4953 0.2306 0 8
2.1106 -10.3147 -2.4953 0.2306 0 8
2.2769 -10.2792 -2.4953 0.2306 0 8
2.4426 -10.2411 -2.4953 0.2306 0 8
2.6076 -10.2003 -2.4953 0.2306 0 8
2.7720 -10.1569 -2.4953 0.2306 0 8
2.9357 -10.1108 -2.4953 0.2306 0 8
3.0986 -10.0621 -2.4953 0.2306 0 8
3.2606 -10.0107 -2.4953 0.2306 0 8
3.4219 -9.9568 -2.4953 0.2306 0 8
3.5822 -9.9002 -2.4953 0.2306 0 8
3.7416 -9.8411 -2.4953 0.2306 0 8
3.9001 -9.7794 -2.4953 0.2306 0 8
4.0575 -9.7151 -2.4953 0.2306 0 8
4.2138 -9.6483 -2.4953 0.2306 0 8
4.3691 -9.5790 -2.4953 0.2306 0 8
4.5232 -9.5072 -2.4953 0.2306 0 8
4.6762 -9.4329 -2.4953 0.2306 0 8
4.8279 -9.3562 -2.4953 0.2306 0 8
4.9784 -9.2770 -2.4953 0.2306 0 8
5.1275 -9.1954 -2.4953 0.2306 0 8
5.2753 -9.1114 -2.4953 0.2306 0 8
5.4218 -9.0250 -2.4953 0.2306 0 8
5.5668 -8.9363 -2.4953 0.2306 0 8
5.7104 -8.8452 -2.4953 0.2306 0 8
5.8525 -8.7518 -2.4953 0.2306 0 8
5.9931 -8.6562 -2.4953 0.2306 0 8
6.1321 -8.5583 -2.4953 0.2306 0 8
6.2695 -8.4581 -2.4953 0.2306 0 8
6.4053 -8.3558 -2.4953 0.2306 0 8
6.5394 -8.2513 -2.4953 0.2306 0 8
6.6718 -8.1446 -2.4953 0.2306 0 8
6.8024 -8.0358 -2.4953 0.2306 0 8
6.9313 -7.9249 -2.4953 0.2306 0 8
7.0584 -7.8119 -2.4953 0.2306 0 8
7.1836 -7.6969 -2.4953 0.2306 0 8
7.3070 -7.5799 -2.4953 0.2306 0 8
7.4284 -7.4609 -2.4953 0.2306 0 8
7.5479 -7.3400 -2.4953 0.2306 0 8
7.6655 -7.2171 -2.4953 0.2306 0 8
7.7810 -7.0924 -2.4953 0.2306 0 8
7.8946 -6.9658 -2.4953 0.2306 0 8
8.0060 -6.8374 -2.4953 0.2306 0 8
8.1154 -6.7072 -2.4953 0.2306 0 8
8.2227 -6.5753 -2.4953 0.2306 0 8
8.3278 -6.4417 -2.4953 0.2306 0 8
8.4307 -6.3063 -2.4953 0.2306 0 8
8.5314 -6.1694 -2.4953 0.2306 0 8
8.6300 -6.0308 -2.4953 0.2306 0 8
8.7262 -5.8907 -2.4953 0.2306 0 8
8.8202 -5.7490 -2.4953 0.2306 0 8
8.9119 -5.6058 -2.4953 0.2306 0 8
9.0013 -5.4611 -2.4953 0.2306 0 8
9.0883 -5.3151 -2.4953 0.2306 0 8
9.1729 -5.1676 -2.4953 0.2306 0 8
9.2552 -5.0188 -2.4953 0.2306 0 8
9.3350 -4.8687 -2.4953 0.2306 0 8
9.4124 -4.7173 -2.4953 0.2306 0 8
9.4874 -4.5647 -2.4953 0.2306 0 8
9.5599 -4.4109 -2.4953 0.2306 0 8
9.6298 -4.2559 -2.4953 0.2306 0 8
9.6973 -4.0998 -2.4953 0.2306 0 8
9.7623 -3.9427 -2.4953 0.2306 0 8
9.8247 -3.7845 -2.4953 0.2306 0 8
9.8845 -3.6254 -2.4953 0.2306 0 8
9.9418 -3.4653 -2.4953 0.2306 0 8
9.9964 -3.3043 -2.4953 0.2306 0 8
10.0485 -3.1424 -2.4953 0.2306 0 8
10.0979 -2.9798 -2.4953 0.2306 0 8
10.1447 -2.8163 -2.4953 0.2306 0 8
10.1889 -2.6521 -2.4953 0.2306 0 8
10.2304 -2.4872 -2.4953 0.2306 0 8
10.2692 -2.3217 -2.4953 0.2306 0 8
10.3054 -2.1556 -2.4953 0.2306 0 8
10.3388 -1.9888 -2.4953 0.2306 0 8
10.3696 -1.8216 -2.4953 0.2306 0 8
10.3977 -1.6539 -2.4953 0.2306 0 8
10.4230 -1.4858 -2.4953 0.2306 0 8
10.4456 -1.3173 -2.4953 0.2306 0 8
10.4656 -1.1484 -2.4953 0.2306 0 8
7.7811 -0.7269 -1.8522 0.2816 25 10
7.6525 -0.5904 -1.8191 0.8535 25 10
1.7128 -10.0061 -2.4953 0.2387 0 8
1.8742 -9.9771 -2.4953 0.2387 0 8
2.0350 -9.9456 -2.4953 0.2387 0 8
2.1954 -9.9114 -2.4953 0.2387 0 8
2.3552 -9.8747 -2.4953 0.2387 0 8
2.5143 -9.8353 -2.4953 0.2387 0 8
2.6728 -9.7935 -2.4953 0.2387 0 8
2.8306 -9.7490 -2.4953 0.2387 0 8
2.9877 -9.7020 -2.4953 0.2387 0 8
3.1440 -9.6525 -2.4953 0.2387 0 8
3.2994 -9.6005 -2.4953 0.2387 0 8
3.4540 -9.5460 -2.4953 0.2387 0 8
3.6077 -9.4889 -2.4953 0.2387 0 8
3.7605 -9.4294 -2.4953 0.2387 0 8
3.9123 -9.3675 -2.4953 0.2387 0 8
4.0631 -9.3031 -2.4953 0.2387 0 8
4.2128 -9.2363 -2.4953 0.2387 0 8
4.3614 -9.1670 -2.4953 0.2387 0 8
4.5088 -9.0954 -2.4953 0.2387 0 8
4.6551 -9.0214 -2.4953 0.2387 0 8
4.8002 -8.9450 -2.4953 0.2387 0 8
4.9440 -8.8664 -2.4953 0.2387 0 8
5.0866 -8.7854 -2.4953 0.2387 0 8
5.2278 -8.7021 -2.4953 0.2387 0 8
5.3676 -8.6165 -2.4953 0.2387 0 8
5.5061 -8.5287 -2.4953 0.2387 0 8
5.6431 -8.4387 -2.4953 0.2387 0 8
5.7786 -8.3464 -2.4953 0.2387 0 8
5.9127 -8.2520 -2.4953 0.2387 0 8
6.0452 -8.1555 -2.4953 0.2387 0 8
6.1761 -8.0568 -2.4953 0.2387 0 8
6.3054 -7.9560 -2.4953 0.2387 0 8
6.4330 -7.8531 -2.4953 0.2387 0 8
6.5590 -7.7482 -2.4953 0.2387 0 8
6.6833 -7.6413 -2.4953 0.2387 0 8
6.8058 -7.5324 -2.4953 0.2387 0 8
6.9266 -7.4215 -2.4953 0.2387 0 8
7.0455 -7.3087 -2.4953 0.2387 0 8
7.1626 -7.1939 -2.4953 0.2387 0 8
7.2779 -7.0773 -2.4953 0.2387 0 8
7.3912 -6.9589 -2.4953 0.2387 0 8
7.5026 -6.8386 -2.4953 0.2387 0 8
7.6121 -6.7166 -2.4953 0.2387 0 8
7.7195 -6.5928 -2.4953 0.2387 0 8
7.8250 -6.4672 -2.4953 0.2387 0 8
7.9284 -6.3400 -2.4953 0.2387 0 8
8.0298 -6.2112 -2.4953 0.2387 0 8
8.1290 -6.0807 -2.4953 0.2387 0 8
8.2262 -5.9486 -2.4953 0.2387 0 8
8.3211 -5.8150 -2.4953 0.2387 0 8
8.4140 -5.6799 -2.4953 0.2387 0 8
8.5046 -5.5432 -2.4953 0.2387 0 8
8.5930 -5.4052 -2.4953 0.2387 0 8
8.6792 -5.2657 -2.4953 0.2387 0 8
8.7631 -5.1249 -2.4953 0.2387 0 8
8.8447 -4.9827 -2.4953 0.2387 0 8
8.9240 -4.8392 -2.4953 0.2387 0 8
9.0010 -4.6945 -2.4953 0.2387 0 8
9.0756 -4.5485 -2.4953 0.2387 0 8
9.1479 -4.4013 -2.4953 0.2387 0 8
9.2178 -4.2530 -2.4953 0.2387 0 8
9.2853 -4.1036 -2.4953 0.2387 0 8
9.3503 -3.9531 -2.4953 0.2387 0 8
9.4129 -3.8016 -2.4953 0.2387 0 8
9.4731 -3.6491 -2.4953 0.2387 0 8
9.5308 -3.4957 -2.4953 0.2387 0 8
9.5860 -3.3413 -2.4953 0.2387 0 8
9.6387 -3.1861 -2.4953 0.2387 0 8
9.6889 -3.0300 -2.4953 0.2387 0 8
9.7366 -2.8731 -2.4953 0.2387 0 8
9.7817 -2.7155 -2.4953 0.2387 0 8
9.8243 -2.5572 -2.4953 0.2387 0 8
9.8643 -2.3982 -2.4953 0.2387 0 8
9.9017 -2.2386 -2.4953 0.2387 0 8
9.9366 -2.0784 -2.4953 0.2387 0 8
9.9689 -1.9177 -2.4953 0.2387 0 8
9.9985 -1.7564 -2.4953 0.2387 0 8
10.0256 -1.5948 -2.4953 0.2387 0 8
10.0500 -1.4326 -2.4953 0.2387 0 8
10.0719 -1.2702 -2.4953 0.2387 0 8
8.2727 -0.9078 -2.0456 0.9933 25 10
7.8109 -0.7297 -1.9283 0.4590 25 10
7.6552 -0.5906 -1.8872 0.8515 25 10
1.6534 -9.6591 -2.4953 0.2468 0 8
1.8092 -9.6311 -2.4953 0.2468 0 8
1.9645 -9.6006 -2.4953 0.2468 0 8
2.1192 -9.5677 -2.4953 0.2468 0 8
2.2735 -9.5322 -2.4953 0.2468 0 8
2.4271 -9.4942 -2.4953 0.2468 0 8
2.5801 -9.4538 -2.4953 0.2468 0 8
2.7324 -9.4109 -2.4953 0.2468 0 8
2.8841 -9.3655 -2.4953 0.2468 0 8
3.0349 -9.3177 -2.4953 0.2468 0 8
3.1850 -9.2675 -2.4953 0.2468 0 8
3.3342 -9.2149 -2.4953 0.2468 0 8
3.4826 -9.1598 -2.4953 0.2468 0 8
3.6301 -9.1024 -2.4953 0.2468 0 8
3.7766 -9.0426 -2.4953 0.2468 0 8
3.9221 -8.9804 -2.4953 0.2468 0 8
4.0667 -8.9159 -2.4953 0.2468 0 8
4.2101 -8.8491 -2.4953 0.2468 0 8
4.3525 -8.7799 -2.4953 0.2468 0 8
4.4937 -8.7085 -2.4953 0.2468 0 8
4.6337 -8.6348 -2.4953 0.2468 0 8
4.7726 -8.5588 -2.4953 0.2468 0 8
4.9102 -8.4806 -2.4953 0.2468 0 8
5.0465 -8.4002 -2.4953 0.2468 0 8
5.1815 -8.3177 -2.4953 0.2468 0 8
5.3151 -8.2329 -2.4953 0.2468 0 8
5.4474 -8.1460 -2.4953 0.2468 0 8
5.5782 -8.0570 -2.4953 0.2468 0 8
5.7076 -7.9658 -2.4953 0.2468 0 8
5.8355 -7.8726 -2.4953 0.2468 0 8
5.9619 -7.7774 -2.4953 0.2468 0 8
6.0867 -7.6801 -2.4953 0.2468 0 8
6.2099 -7.5808 -2.4953 0.2468 0 8
6.3315 -7.4795 -2.4953 0.2468 0 8
6.4515 -7.3763 -2.4953 0.2468 0 8
6.5698 -7.2711 -2.4953 0.2468 0 8
6.6863 -7.1641 -2.4953 0.2468 0 8
6.8011 -7.0552 -2.4953 0.2468 0 8
6.9142 -6.9444 -2.4953 0.2468 0 8
7.0254 -6.8319 -2.4953 0.2468 0 8
7.1348 -6.7175 -2.4953 0.2468 0 8
7.2424 -6.6014 -2.4953 0.2468 0 8
7.3481 -6.4836 -2.4953 0.2468 0 8
7.4518 -6.3641 -2.4953 0.2468 0 8
7.5536 -6.2429 -2.4953 0.2468 0 8
7.6534 -6.1201 -2.4953 0.2468 0 8
7.7513 -5.9957 -2.4953 0.2468 0 8
7.8471 -5.8698 -2.4953 0.2468 0 8
7.9408 -5.7423 -2.4953 0.2468 0 8
8.0325 -5.6133 -2.4953 0.2468 0 8
8.1221 -5.4829 -2.4953 0.2468 0 8
8.2096 -5.3510 -2.4953 0.2468 0 8
8.2950 -5.2177 -2.4953 0.2468 0 8
8.3781 -5.0831 -2.4953 0.2468 0 8
8.4591 -4.9471 -2.4953 0.2468 0 8
8.5379 -4.8099 -2.4953 0.2468 0 8
8.6145 -4.6714 -2.4953 0.2468 0 8
8.6888 -4.5316 -2.4953 0.2468 0 8
8.7609 -4.3907 -2.4953 0.2468 0 8
8.8306 -4.2487 -2.4953 0.2468 0 8
8.8981 -4.1055 -2.4953 0.2468 0 8
8.9632 -3.9613 -2.4953 0.2468 0 8
9.0260 -3.8160 -2.4953 0.2468 0 8
9.0865 -3.6698 -2.4953 0.2468 0 8
9.1445 -3.5226 -2.4953 0.2468 0 8
9.2002 -3.3744 -2.4953 0.2468 0 8
9.2535 -3.2254 -2.4953 0.2468 0 8
9.3044 -3.0756 -2.4953 0.2468 0 8
9.3529 -2.9249 -2.4953 0.2468 0 8
9.3989 -2.7735 -2.4953 0.2468 0 8
9.4424 -2.6213 -2.4953 0.2468 0 8
9.4835 -2.4685 -2.4953 0.2468 0 8
9.5222 -2.3150 -2.4953 0.2468 0 8
9.5583 -2.1610 -2.4953 0.2468 0 8
9.5920 -2.0063 -2.4953 0.2468 0 8
9.6231 -1.8512 -2.4953 0.2468 0 8
9.6517 -1.6955 -2.4953 0.2468 0 8
9.6779 -1.5394 -2.4953 0.2468 0 8
9.7015 -1.3830 -2.4953 0.2468 0 8
9.7225 -1.2261 -2.4953 0.2468 0 8
8.2588 -0.9063 -2.1156 0.9929 25 10
7.8037 -0.7290 -1.9957 0.4026 25 10
7.6683 -0.5916 -1.9584 0.7654 25 10
1.5977 -9.3340 -2.4953 0.2548 0 8
1.7483 -9.3069 -2.4953 0.2548 0 8
1.8983 -9.2775 -2.4953 0.2548 0 8
2.0479 -9.2456 -2.4953 0.2548 0 8
2.1969 -9.2113 -2.4953 0.2548 0 8
2.3454 -9.1747 -2.4953 0.2548 0 8
2.4933 -9.1356 -2.4953 0.2548 0 8
2.6405 -9.0941 -2.4953 0.2548 0 8
2.7870 -9.0503 -2.4953 0.2548 0 8
2.9328 -9.0041 -2.4953 0.2548 0 8
3.0778 -8.9556 -2.4953 0.2548 0 8
3.2220 -8.9047 -2.4953 0.2548 0 8
3.3654 -8.8515 -2.4953 0.2548 0 8
3.5079 -8.7960 -2.4953 0.2548 0 8
3.6495 -8.7382 -2.4953 0.2548 0 8
3.7901 -8.6782 -2.4953 0.2548 0 8
3.9298 -8.6158 -2.4953 0.2548 0 8
4.0684 -8.5512 -2.4953 0.2548 0 8
4.2060 -8.4844 -2.4953 0.2548 0 8
4.3424 -8.4154 -2.4953 0.2548 0 8
4.4778 -8.3442 -2.4953 0.2548 0 8
4.6119 -8.2708 -2.4953 0.2548 0 8
4.7449 -8.1952 -2.4953 0.2548 0 8
4.8766 -8.1175 -2.4953 0.2548 0 8
5.0071 -8.0377 -2.4953 0.2548 0 8
5.1362 -7.9558 -2.4953 0.2548 0 8
5.2640 -7.8718 -2.4953 0.2548 0 8
5.3905 -7.7858 -2.4953 0.2548 0 8
5.5155 -7.6977 -2.4953 0.2548 0 8
5.6391 -7.6076 -2.4953 0.2548 0 8
5.7612 -7.5156 -2.4953 0.2548 0 8
5.8818 -7.4216 -2.4953 0.2548 0 8
6.0009 -7.3256 -2.4953 0.2548 0 8
6.1184 -7.2275 -2.4953 0.2548 0 8
6.2343 -7.1280 -2.4953 0.2548 0 8
6.3486 -7.0264 -2.4953 0.2548 0 8
6.4613 -6.9230 -2.4953 0.2548 0 8
6.5722 -6.8177 -2.4953 0.2548 0 8
6.6815 -6.7107 -2.4953 0.2548 0 8
6.7890 -6.6019 -2.4953 0.2548 0 8
6.8947 -6.4914 -2.4953 0.2548 0 8
6.9986 -6.3792 -2.4953 0.2548 0 8
