ply
format ascii 1.0
element vertex 1363
property float32 x
property float32 y
property float32 z
property float32 CosAngle
property uint32 ObjIdx
property uint32 ObjTag
end_header
-18.0489 20.4837 -2.5029 0.0913 0 14
-18.3776 20.1894 -2.5029 0.0913 0 14
-18.7014 19.8898 -2.5029 0.0913 0 14
-19.0203 19.5850 -2.5029 0.0913 0 14
-19.3343 19.2751 -2.5029 0.0913 0 14
-19.6433 18.9602 -2.5029 0.0913 0 8
-20.2231 18.8982 -2.5375 0.6872 0 8
-20.8788 18.8883 -2.5812 0.6755 0 8
-21.5575 18.8779 -2.6270 0.6638 0 8
-22.0317 18.6728 -2.6477 0.0913 0 7
-22.3305 18.3144 -2.6477 0.0913 0 6
-22.6236 17.9512 -2.6477 0.0913 0 7
-22.9107 17.5832 -2.6477 0.0913 0 7
-23.1918 17.2108 -2.6477 0.0913 0 7
-23.4669 16.8338 -2.6477 0.0913 0 7
-23.7358 16.4524 -2.6477 0.0913 0 7
-23.9986 16.0667 -2.6477 0.0913 0 7
-24.2551 15.6768 -2.6477 0.0913 0 7
-24.5052 15.2828 -2.6477 0.0913 0 7
-24.7490 14.8849 -2.6477 0.0913 0 7
-24.9862 14.4830 -2.6477 0.0913 0 7
-25.2170 14.0773 -2.6477 0.0913 0 7
-25.4412 13.6680 -2.6477 0.0913 0 7
1.8379 26.3956 -2.6477 0.0996 0 7
1.4111 26.4219 -2.6477 0.0996 0 7
0.9840 26.4412 -2.6477 0.0996 0 7
0.5566 26.4537 -2.6477 0.0996 0 7
0.1291 26.4592 -2.6477 0.0996 0 6
-0.2985 26.4578 -2.6477 0.0996 0 6
-0.7260 26.4496 -2.6477 0.0996 0 6
-1.1532 26.4344 -2.6477 0.0996 0 6
-1.5802 26.4123 -2.6477 0.0996 0 6
-2.0070 26.3833 -2.6477 0.0996 0 7
-2.4329 26.3474 -2.6477 0.0996 0 7
-2.8583 26.3047 -2.6477 0.0996 0 7
-3.2830 26.2551 -2.6477 0.0996 0 7
-3.7068 26.1986 -2.6477 0.0996 0 7
-4.1296 26.1353 -2.6477 0.0996 0 7
-4.5514 26.0651 -2.6477 0.0996 0 7
-4.9720 25.9882 -2.6477 0.0996 0 7
-5.3913 25.9044 -2.6477 0.0996 0 7
-5.8092 25.8139 -2.6477 0.0996 0 7
-6.2255 25.7167 -2.6477 0.0996 0 7
-6.6403 25.6127 -2.6477 0.0996 0 7
-7.0533 25.5021 -2.6477 0.0996 0 7
-7.4644 25.3848 -2.6477 0.0996 0 7
-7.8736 25.2608 -2.6477 0.0996 0 7
-8.2808 25.1303 -2.6477 0.0996 0 7
-8.6858 24.9933 -2.6477 0.0996 0 7
-9.0885 24.8496 -2.6477 0.0996 0 7
-9.4889 24.6995 -2.6477 0.0996 0 7
-9.8867 24.5430 -2.6477 0.0996 0 7
-10.2820 24.3800 -2.6477 0.0996 0 7
-10.6746 24.2107 -2.6477 0.0996 0 7
-11.0644 24.0350 -2.6477 0.0996 0 7
-11.4514 23.8531 -2.6477 0.0996 0 7
-11.8353 23.6650 -2.6477 0.0996 0 7
-11.5482 22.1872 -2.5029 0.0996 0 14
-11.9052 21.9977 -2.5029 0.0996 0 14
-12.2591 21.8025 -2.5029 0.0996 0 14
-12.6098 21.6015 -2.5029 0.0996 0 14
-12.9572 21.3949 -2.5029 0.0996 0 14
-13.3012 21.1828 -2.5029 0.0996 0 14
-13.6418 20.9651 -2.5029 0.0996 0 14
-13.9788 20.7419 -2.5029 0.0996 0 14
-14.3121 20.5133 -2.5029 0.0996 0 14
-14.6417 20.2794 -2.5029 0.0996 0 14
-14.9675 20.0401 -2.5029 0.0996 0 14
-15.2893 19.7957 -2.5029 0.0996 0 14
-15.6072 19.5460 -2.5029 0.0996 0 14
-15.9210 19.2913 -2.5029 0.0996 0 14
-16.2307 19.0315 -2.5029 0.0996 0 8
-16.6631 18.9109 -2.5221 0.7540 0 8
-17.2065 18.9028 -2.5578 0.7435 0 8
-17.7655 18.8944 -2.5952 0.7328 0 8
-18.3410 18.8855 -2.6343 0.7219 0 8
-18.7384 18.6810 -2.6477 0.0996 0 7
-19.0378 18.3757 -2.6477 0.0996 0 6
-19.3322 18.0657 -2.6477 0.0996 0 7
-19.6216 17.7510 -2.6477 0.0996 0 7
-19.9059 17.4316 -2.6477 0.0996 0 7
-20.1850 17.1077 -2.6477 0.0996 0 7
-20.4588 16.7792 -2.6477 0.0996 0 7
-20.7272 16.4465 -2.6477 0.0996 0 7
-20.9903 16.1094 -2.6477 0.0996 0 7
-21.2479 15.7682 -2.6477 0.0996 0 7
-21.4999 15.4228 -2.6477 0.0996 0 7
-21.7463 15.0733 -2.6477 0.0996 0 7
-21.9870 14.7199 -2.6477 0.0996 0 7
-22.2220 14.3628 -2.6477 0.0996 0 7
-22.4512 14.0018 -2.6477 0.0996 0 7
-22.6745 13.6372 -2.6477 0.0996 0 7
-22.8919 13.2690 -2.6477 0.0996 0 7
-23.1033 12.8974 -2.6477 0.0996 0 7
-23.3087 12.5224 -2.6477 0.0996 0 7
1.6955 24.3510 -2.6477 0.1078 0 7
1.3018 24.3753 -2.6477 0.1078 0 7
0.9078 24.3931 -2.6477 0.1078 0 7
0.5135 24.4046 -2.6477 0.1078 0 7
0.1191 24.4097 -2.6477 0.1078 0 7
-0.2753 24.4084 -2.6477 0.1078 0 7
-0.6697 24.4008 -2.6477 0.1078 0 7
-1.0639 24.3868 -2.6477 0.1078 0 7
-1.4578 24.3664 -2.6477 0.1078 0 7
-1.8514 24.3397 -2.6477 0.1078 0 7
-2.2444 24.3066 -2.6477 0.1078 0 7
-2.6369 24.2672 -2.6477 0.1078 0 7
-3.0287 24.2214 -2.6477 0.1078 0 7
-3.4197 24.1693 -2.6477 0.1078 0 7
-3.8098 24.1109 -2.6477 0.1078 0 7
-4.1989 24.0462 -2.6477 0.1078 0 7
-4.5869 23.9752 -2.6477 0.1078 0 7
-4.9737 23.8979 -2.6477 0.1078 0 7
-5.3592 23.8144 -2.6477 0.1078 0 7
-5.7433 23.7247 -2.6477 0.1078 0 7
-5.7909 22.3367 -2.5029 0.1078 0 8
-6.1527 22.2461 -2.5035 0.7543 0 8
-6.5097 22.1380 -2.5029 0.1078 0 14
-6.8666 22.0299 -2.5029 0.1078 0 14
-7.2216 21.9160 -2.5029 0.1078 0 14
-7.5748 21.7965 -2.5029 0.1078 0 14
-7.9260 21.6712 -2.5029 0.1078 0 14
-8.2752 21.5403 -2.5029 0.1078 0 14
-8.6222 21.4038 -2.5029 0.1078 0 14
-8.9669 21.2617 -2.5029 0.1078 0 14
-9.3093 21.1140 -2.5029 0.1078 0 14
-9.6492 20.9608 -2.5029 0.1078 0 14
-9.9867 20.8022 -2.5029 0.1078 0 14
-10.3215 20.6381 -2.5029 0.1078 0 14
-10.6537 20.4686 -2.5029 0.1078 0 14
-10.9830 20.2938 -2.5029 0.1078 0 14
-11.3095 20.1137 -2.5029 0.1078 0 14
-11.6331 19.9283 -2.5029 0.1078 0 14
-11.9536 19.7377 -2.5029 0.1078 0 14
-12.2709 19.5420 -2.5029 0.1078 0 14
-12.5851 19.3412 -2.5029 0.1078 0 14
-12.8960 19.1353 -2.5029 0.1078 0 14
-13.2072 18.9296 -2.5036 0.6538 0 8
-13.6585 18.9177 -2.5309 0.8138 0 8
-14.1241 18.9110 -2.5602 0.8045 0 8
-14.6006 18.9040 -2.5908 0.7950 0 8
-15.0887 18.8967 -2.6229 0.7852 0 8
-15.5374 18.8265 -2.6477 0.1078 0 7
-15.8396 18.5730 -2.6477 0.1078 0 7
-16.1377 18.3146 -2.6477 0.1078 0 7
-16.4315 18.0514 -2.6477 0.1078 0 7
-16.7210 17.7836 -2.6477 0.1078 0 7
-17.0062 17.5111 -2.6477 0.1078 0 7
-17.2869 17.2340 -2.6477 0.1078 0 7
-17.5632 16.9524 -2.6477 0.1078 0 7
-17.8348 16.6664 -2.6477 0.1078 0 7
-18.1018 16.3760 -2.6477 0.1078 0 7
-18.3640 16.0814 -2.6477 0.1078 0 7
-18.6215 15.7825 -2.6477 0.1078 0 7
-18.8741 15.4796 -2.6477 0.1078 0 7
-19.1218 15.1726 -2.6477 0.1078 0 7
-19.3644 14.8616 -2.6477 0.1078 0 7
-19.6020 14.5468 -2.6477 0.1078 0 7
-19.8345 14.2281 -2.6477 0.1078 0 7
-20.0618 13.9058 -2.6477 0.1078 0 7
-20.2839 13.5798 -2.6477 0.1078 0 7
-20.5007 13.2502 -2.6477 0.1078 0 7
-20.7121 12.9172 -2.6477 0.1078 0 7
-20.9182 12.5809 -2.6477 0.1078 0 7
-21.1187 12.2412 -2.6477 0.1078 0 7
-21.3138 11.8984 -2.6477 0.1078 0 7
-21.5033 11.5524 -2.6477 0.1078 0 7
1.4874 21.3619 -2.5029 0.1161 0 14
1.1420 21.3831 -2.5029 0.1161 0 14
0.7964 21.3988 -2.5029 0.1161 0 14
0.4505 21.4089 -2.5029 0.1161 0 14
0.1045 21.4133 -2.5029 0.1161 0 14
-0.2415 21.4122 -2.5029 0.1161 0 14
-0.5875 21.4055 -2.5029 0.1161 0 14
-0.9333 21.3932 -2.5029 0.1161 0 14
-1.2789 21.3754 -2.5029 0.1161 0 14
-1.6241 21.3519 -2.5029 0.1161 0 14
-1.9689 21.3229 -2.5029 0.1161 0 14
-2.3132 21.2883 -2.5029 0.1161 0 14
-2.6569 21.2481 -2.5029 0.1161 0 14
-2.9999 21.2024 -2.5029 0.1161 0 14
-3.3421 21.1512 -2.5029 0.1161 0 14
-3.6835 21.0944 -2.5029 0.1161 0 14
-4.0238 21.0321 -2.5029 0.1161 0 14
-4.3632 20.9644 -2.5029 0.1161 0 14
-4.7014 20.8911 -2.5029 0.1161 0 14
-5.0383 20.8124 -2.5029 0.1161 0 14
-5.3740 20.7283 -2.5029 0.1161 0 14
-5.7082 20.6388 -2.5029 0.1161 0 14
-6.0409 20.5438 -2.5029 0.1161 0 14
-6.3721 20.4435 -2.5029 0.1161 0 14
-6.7016 20.3379 -2.5029 0.1161 0 14
-7.0294 20.2270 -2.5029 0.1161 0 14
-7.3553 20.1107 -2.5029 0.1161 0 14
-7.6793 19.9893 -2.5029 0.1161 0 14
-8.0013 19.8626 -2.5029 0.1161 0 14
-8.3212 19.7307 -2.5029 0.1161 0 14
-8.6389 19.5936 -2.5029 0.1161 0 14
-8.9544 19.4515 -2.5029 0.1161 0 14
-9.2676 19.3043 -2.5029 0.1161 0 14
-9.5783 19.1520 -2.5029 0.1161 0 14
-9.8865 18.9947 -2.5029 0.1161 0 8
-10.2449 18.9299 -2.5158 0.8813 0 8
-10.6410 18.9248 -2.5377 0.8738 0 8
-11.0441 18.9194 -2.5606 0.8659 0 8
-11.4546 18.9139 -2.5845 0.8579 0 8
-11.8729 18.9081 -2.6096 0.8497 0 8
-12.2994 18.9020 -2.6359 0.8412 0 8
-12.6596 18.7845 -2.6477 0.1161 0 7
-12.9615 18.5775 -2.6477 0.1161 0 7
-13.2600 18.3657 -2.6477 0.1161 0 6
-13.5550 18.1490 -2.6477 0.1161 0 7
-13.8465 17.9276 -2.6477 0.1161 0 7
-14.1344 17.7015 -2.6477 0.1161 0 7
-14.4186 17.4708 -2.6477 0.1161 0 7
-14.6990 17.2356 -2.6477 0.1161 0 7
-14.9756 16.9958 -2.6477 0.1161 0 7
-15.2483 16.7516 -2.6477 0.1161 0 7
-15.5170 16.5030 -2.6477 0.1161 0 7
-15.7816 16.2501 -2.6477 0.1161 0 7
-16.0421 15.9930 -2.6477 0.1161 0 7
-16.2985 15.7317 -2.6477 0.1161 0 7
-16.5505 15.4663 -2.6477 0.1161 0 7
-16.7983 15.1968 -2.6477 0.1161 0 7
-17.0417 14.9234 -2.6477 0.1161 0 7
-17.2806 14.6460 -2.6477 0.1161 0 7
-17.5150 14.3649 -2.6477 0.1161 0 7
-17.7448 14.0800 -2.6477 0.1161 0 7
-17.9700 13.7914 -2.6477 0.1161 0 7
-18.1905 13.4993 -2.6477 0.1161 0 7
-18.4063 13.2036 -2.6477 0.1161 0 7
-18.6172 12.9044 -2.6477 0.1161 0 7
-18.8233 12.6019 -2.6477 0.1161 0 7
-19.0245 12.2961 -2.6477 0.1161 0 7
-19.2207 11.9871 -2.6477 0.1161 0 7
-19.4119 11.6749 -2.6477 0.1161 0 7
-19.5980 11.3598 -2.6477 0.1161 0 6
-19.7790 11.0416 -2.6477 0.1161 0 7
-19.9548 10.7205 -2.6477 0.1161 0 7
1.3873 19.9244 -2.5029 0.1243 0 14
1.0652 19.9442 -2.5029 0.1243 0 14
0.7428 19.9588 -2.5029 0.1243 0 14
0.4202 19.9682 -2.5029 0.1243 0 14
0.0975 19.9724 -2.5029 0.1243 0 14
-0.2253 19.9713 -2.5029 0.1243 0 14
-0.5480 19.9651 -2.5029 0.1243 0 14
-0.8705 19.9536 -2.5029 0.1243 0 14
-1.1928 19.9369 -2.5029 0.1243 0 14
-1.5148 19.9151 -2.5029 0.1243 0 14
-1.8364 19.8880 -2.5029 0.1243 0 14
-2.1576 19.8557 -2.5029 0.1243 0 14
-2.4781 19.8183 -2.5029 0.1243 0 14
-2.7980 19.7756 -2.5029 0.1243 0 14
-3.1172 19.7278 -2.5029 0.1243 0 14
-3.4356 19.6749 -2.5029 0.1243 0 14
-3.7530 19.6168 -2.5029 0.1243 0 14
-4.0695 19.5536 -2.5029 0.1243 0 14
-4.3850 19.4853 -2.5029 0.1243 0 14
-4.6993 19.4119 -2.5029 0.1243 0 14
-5.0123 19.3334 -2.5029 0.1243 0 14
-5.3241 19.2499 -2.5029 0.1243 0 14
-5.6344 19.1614 -2.5029 0.1243 0 14
-5.9433 19.0678 -2.5029 0.1243 0 8
-6.2507 18.9693 -2.5029 0.1243 0 8
-6.5824 18.9407 -2.5128 0.9451 0 8
-6.9261 18.9371 -2.5269 0.9399 0 8
-7.2737 18.9334 -2.5417 0.9344 0 8
-7.6254 18.9295 -2.5574 0.9286 0 8
-7.9816 18.9255 -2.5740 0.9227 0 8
-8.3425 18.9212 -2.5914 0.9165 0 8
-8.7083 18.9168 -2.6097 0.9100 0 8
-9.0794 18.9122 -2.6290 0.9034 0 8
-9.4505 18.8965 -2.6477 0.1243 0 7
-9.7546 18.7413 -2.6477 0.1243 0 7
-10.0562 18.5812 -2.6477 0.1243 0 7
-10.3550 18.4163 -2.6477 0.1243 0 6
-10.6514 18.2466 -2.6477 0.1243 0 7
-10.9448 18.0721 -2.6477 0.1243 0 7
-11.2354 17.8929 -2.6477 0.1243 0 7
-11.5231 17.7090 -2.6477 0.1243 0 7
-11.8077 17.5205 -2.6477 0.1243 0 7
-12.0893 17.3274 -2.6477 0.1243 0 7
-12.3677 17.1298 -2.6477 0.1243 0 7
-12.6429 16.9277 -2.6477 0.1243 0 7
-12.9147 16.7212 -2.6477 0.1243 0 7
-13.1832 16.5103 -2.6477 0.1243 0 7
-13.4483 16.2952 -2.6477 0.1243 0 7
-13.7099 16.0757 -2.6477 0.1243 0 7
-13.9678 15.8521 -2.6477 0.1243 0 7
-14.2222 15.6243 -2.6477 0.1243 0 7
-14.4728 15.3925 -2.6477 0.1243 0 7
-14.7196 15.1566 -2.6477 0.1243 0 7
-14.9627 14.9168 -2.6477 0.1243 0 6
-15.2017 14.6730 -2.6477 0.1243 0 7
-15.4368 14.4255 -2.6477 0.1243 0 7
-15.6679 14.1742 -2.6477 0.1243 0 7
-15.8949 13.9191 -2.6477 0.1243 0 7
-16.1177 13.6605 -2.6477 0.1243 0 7
-16.3363 13.3982 -2.6477 0.1243 0 7
-16.5507 13.1325 -2.6477 0.1243 0 7
-16.7608 12.8634 -2.6477 0.1243 0 7
-16.9664 12.5909 -2.6477 0.1243 0 7
-17.1676 12.3151 -2.6477 0.1243 0 7
-17.3644 12.0360 -2.6477 0.1243 0 7
-17.5566 11.7539 -2.6477 0.1243 0 7
-17.7443 11.4687 -2.6477 0.1243 0 7
-17.9273 11.1804 -2.6477 0.1243 0 7
-18.1056 10.8893 -2.6477 0.1243 0 7
-18.2792 10.5953 -2.6477 0.1243 0 7
-18.4480 10.2986 -2.6477 0.1243 0 7
-18.6120 9.9991 -2.6477 0.1243 0 7
1.3200 18.9572 -2.5420 0.9962 0 8
1.0125 18.9569 -2.5394 0.9972 0 8
0.7055 18.9564 -2.5375 0.9980 0 8
0.3989 18.9557 -2.5362 0.9985 0 8
0.0925 18.9550 -2.5356 0.9987 0 8
-0.2138 18.9563 -2.5359 0.9969 0 8
-0.5202 18.9546 -2.5365 0.9985 0 8
-0.8268 18.9528 -2.5377 0.9980 0 8
-1.1338 18.9509 -2.5395 0.9972 0 8
-1.4414 18.9495 -2.5421 0.9961 0 8
-1.7496 18.9481 -2.5454 0.9949 0 8
-2.0588 18.9465 -2.5493 0.9933 0 8
-2.3689 18.9448 -2.5539 0.9915 0 8
-2.6802 18.9429 -2.5592 0.9895 0 8
-2.9929 18.9410 -2.5651 0.9872 0 8
-3.3071 18.9389 -2.5717 0.9847 0 8
-3.6229 18.9366 -2.5790 0.9819 0 8
-3.9407 18.9343 -2.5871 0.9788 0 8
-4.2604 18.9318 -2.5958 0.9756 0 8
-4.5824 18.9291 -2.6052 0.9720 0 8
-4.9068 18.9263 -2.6154 0.9682 0 8
-5.2338 18.9234 -2.6264 0.9642 0 8
-5.5635 18.9203 -2.6381 0.9599 0 8
-5.8899 18.8965 -2.6477 0.1326 0 7
-6.1945 18.7989 -2.6477 0.1326 0 7
-6.4975 18.6963 -2.6477 0.1326 0 7
-6.7987 18.5889 -2.6477 0.1326 0 7
-7.0982 18.4766 -2.6477 0.1326 0 6
-7.3958 18.3595 -2.6477 0.1326 0 6
-7.6915 18.2376 -2.6477 0.1326 0 7
-7.9852 18.1109 -2.6477 0.1326 0 7
-8.2768 17.9795 -2.6477 0.1326 0 7
-8.5663 17.8435 -2.6477 0.1326 0 7
-8.8535 17.7027 -2.6477 0.1326 0 7
-9.1384 17.5573 -2.6477 0.1326 0 7
-9.4209 17.4074 -2.6477 0.1326 0 7
-9.7009 17.2529 -2.6477 0.1326 0 7
-9.9785 17.0939 -2.6477 0.1326 0 7
-10.2534 16.9304 -2.6477 0.1326 0 7
-10.5256 16.7625 -2.6477 0.1326 0 7
-10.7951 16.5902 -2.6477 0.1326 0 7
-11.0618 16.4136 -2.6477 0.1326 0 7
-11.3255 16.2328 -2.6477 0.1326 0 7
-11.5864 16.0476 -2.6477 0.1326 0 7
-11.8442 15.8583 -2.6477 0.1326 0 7
-12.0988 15.6648 -2.6477 0.1326 0 7
-12.3504 15.4673 -2.6477 0.1326 0 7
-12.5987 15.2657 -2.6477 0.1326 0 7
-12.8437 15.0601 -2.6477 0.1326 0 7
-13.0854 14.8506 -2.6477 0.1326 0 7
-13.3237 14.6372 -2.6477 0.1326 0 7
-13.5585 14.4200 -2.6477 0.1326 0 7
-13.7897 14.1991 -2.6477 0.1326 0 7
-14.0173 13.9744 -2.6477 0.1326 0 7
-14.2413 13.7461 -2.6477 0.1326 0 7
-14.4616 13.5142 -2.6477 0.1326 0 7
-14.6781 13.2787 -2.6477 0.1326 0 7
-14.8907 13.0398 -2.6477 0.1326 0 7
-15.0995 12.7975 -2.6477 0.1326 0 7
-15.3043 12.5518 -2.6477 0.1326 0 7
-15.5051 12.3029 -2.6477 0.1326 0 7
-15.7019 12.0507 -2.6477 0.1326 0 7
-15.8946 11.7954 -2.6477 0.1326 0 7
-16.0831 11.5371 -2.6477 0.1326 0 7
-16.2674 11.2757 -2.6477 0.1326 0 7
-16.4475 11.0113 -2.6477 0.1326 0 7
-16.6233 10.7441 -2.6477 0.1326 0 7
-16.7947 10.4741 -2.6477 0.1326 0 7
-16.9618 10.2014 -2.6477 0.1326 0 7
-17.1244 9.9260 -2.6477 0.1326 0 7
-17.2826 9.6480 -2.6477 0.1326 0 7
-17.4362 9.3674 -2.6477 0.1326 0 7
1.2930 18.5696 -2.6477 0.1408 0 7
0.9928 18.5881 -2.6477 0.1408 0 7
0.6923 18.6017 -2.6477 0.1408 0 7
0.3915 18.6104 -2.6477 0.1408 0 7
0.0908 18.6144 -2.6477 0.1408 0 7
-0.2100 18.6134 -2.6477 0.1408 0 7
-0.5107 18.6076 -2.6477 0.1408 0 7
-0.8113 18.5969 -2.6477 0.1408 0 7
-1.1117 18.5814 -2.6477 0.1408 0 7
-1.4118 18.5610 -2.6477 0.1408 0 7
-1.7115 18.5357 -2.6477 0.1408 0 7
-2.0108 18.5057 -2.6477 0.1408 0 7
-2.3096 18.4707 -2.6477 0.1408 0 6
-2.6077 18.4310 -2.6477 0.1408 0 6
-2.9052 18.3865 -2.6477 0.1408 0 6
-3.2020 18.3371 -2.6477 0.1408 0 7
-3.4979 18.2830 -2.6477 0.1408 0 7
-3.7928 18.2241 -2.6477 0.1408 0 7
-4.0868 18.1604 -2.6477 0.1408 0 7
-4.3797 18.0920 -2.6477 0.1408 0 7
-4.6715 18.0189 -2.6477 0.1408 0 7
-4.9621 17.9410 -2.6477 0.1408 0 7
-5.2513 17.8585 -2.6477 0.1408 0 7
-5.5392 17.7713 -2.6477 0.1408 0 7
-5.8256 17.6795 -2.6477 0.1408 0 7
-6.1106 17.5831 -2.6477 0.1408 0 7
-6.3939 17.4820 -2.6477 0.1408 0 7
-6.6755 17.3764 -2.6477 0.1408 0 7
-6.9554 17.2663 -2.6477 0.1408 0 7
-7.2335 17.1516 -2.6477 0.1408 0 7
-7.5097 17.0325 -2.6477 0.1408 0 7
-7.7840 16.9089 -2.6477 0.1408 0 7
-8.0562 16.7810 -2.6477 0.1408 0 7
-8.3263 16.6486 -2.6477 0.1408 0 7
-8.5942 16.5119 -2.6477 0.1408 0 7
-8.8599 16.3708 -2.6477 0.1408 0 7
-9.1233 16.2255 -2.6477 0.1408 0 7
-9.3843 16.0760 -2.6477 0.1408 0 7
-9.6428 15.9223 -2.6477 0.1408 0 7
-9.8989 15.7644 -2.6477 0.1408 0 7
-10.1523 15.6024 -2.6477 0.1408 0 7
-10.4031 15.4363 -2.6477 0.1408 0 7
-10.6512 15.2662 -2.6477 0.1408 0 7
-10.8964 15.0921 -2.6477 0.1408 0 7
-11.1389 14.9140 -2.6477 0.1408 0 7
-11.3784 14.7321 -2.6477 0.1408 0 7
-11.6150 14.5463 -2.6477 0.1408 0 7
-11.8485 14.3567 -2.6477 0.1408 0 7
-12.0790 14.1634 -2.6477 0.1408 0 7
-12.3063 13.9663 -2.6477 0.1408 0 7
-12.5303 13.7657 -2.6477 0.1408 0 7
-12.7511 13.5614 -2.6477 0.1408 0 7
-12.9686 13.3536 -2.6477 0.1408 0 7
-13.1827 13.1423 -2.6477 0.1408 0 7
-13.3933 12.9276 -2.6477 0.1408 0 7
-13.6005 12.7095 -2.6477 0.1408 0 7
-13.8041 12.4880 -2.6477 0.1408 0 7
-14.0040 12.2633 -2.6477 0.1408 0 7
-14.2004 12.0354 -2.6477 0.1408 0 7
-14.3930 11.8044 -2.6477 0.1408 0 7
-14.5819 11.5703 -2.6477 0.1408 0 7
-14.7669 11.3332 -2.6477 0.1408 0 6
-14.9481 11.0931 -2.6477 0.1408 0 7
-15.1254 10.8501 -2.6477 0.1408 0 7
-15.2988 10.6043 -2.6477 0.1408 0 7
-15.4681 10.3557 -2.6477 0.1408 0 7
-15.6334 10.1044 -2.6477 0.1408 0 7
-15.7947 9.8504 -2.6477 0.1408 0 7
-15.9518 9.5939 -2.6477 0.1408 0 7
-16.1047 9.3349 -2.6477 0.1408 0 7
-16.2535 9.0735 -2.6477 0.1408 0 7
-15.4541 8.3026 -2.4953 0.1408 0 8
1.2202 17.5237 -2.6477 0.1490 0 7
0.9368 17.5411 -2.6477 0.1490 0 7
0.6533 17.5540 -2.6477 0.1490 0 7
0.3695 17.5623 -2.6477 0.1490 0 7
0.0857 17.5659 -2.6477 0.1490 0 7
-0.1981 17.5650 -2.6477 0.1490 0 7
-0.4819 17.5595 -2.6477 0.1490 0 7
-0.7656 17.5494 -2.6477 0.1490 0 7
-1.0491 17.5348 -2.6477 0.1490 0 7
-1.3323 17.5155 -2.6477 0.1490 0 7
-1.6152 17.4917 -2.6477 0.1490 0 7
-1.8976 17.4634 -2.6477 0.1490 0 7
-2.1795 17.4304 -2.6477 0.1490 0 7
-2.4609 17.3929 -2.6477 0.1490 0 7
-2.7416 17.3509 -2.6477 0.1490 0 7
-3.0216 17.3043 -2.6477 0.1490 0 7
-3.3009 17.2532 -2.6477 0.1490 0 7
-3.5792 17.1976 -2.6477 0.1490 0 7
-3.8566 17.1376 -2.6477 0.1490 0 7
-4.1331 17.0730 -2.6477 0.1490 0 7
-4.4084 17.0040 -2.6477 0.1490 0 7
-4.6826 16.9305 -2.6477 0.1490 0 7
-4.9556 16.8527 -2.6477 0.1490 0 7
-5.2272 16.7704 -2.6477 0.1490 0 7
-5.4975 16.6837 -2.6477 0.1490 0 7
-5.7664 16.5927 -2.6477 0.1490 0 7
-6.0338 16.4974 -2.6477 0.1490 0 7
-6.2995 16.3977 -2.6477 0.1490 0 7
-6.5637 16.2938 -2.6477 0.1490 0 7
-6.8261 16.1856 -2.6477 0.1490 0 7
-7.0868 16.0732 -2.6477 0.1490 0 7
-7.3456 15.9566 -2.6477 0.1490 0 7
-7.6024 15.8358 -2.6477 0.1490 0 7
-7.8573 15.7109 -2.6477 0.1490 0 7
-8.1102 15.5819 -2.6477 0.1490 0 7
-8.3609 15.4488 -2.6477 0.1490 0 7
-8.6094 15.3117 -2.6477 0.1490 0 7
-8.8557 15.1705 -2.6477 0.1490 0 7
-9.0997 15.0255 -2.6477 0.1490 0 7
-9.3414 14.8765 -2.6477 0.1490 0 7
-9.5805 14.7236 -2.6477 0.1490 0 7
-9.8171 14.5669 -2.6477 0.1490 0 7
-10.0512 14.4063 -2.6477 0.1490 0 7
-10.2827 14.2420 -2.6477 0.1490 0 7
-10.5115 14.0740 -2.6477 0.1490 0 7
-10.7375 13.9023 -2.6477 0.1490 0 7
-10.9608 13.7270 -2.6477 0.1490 0 7
-11.1812 13.5481 -2.6477 0.1490 0 7
-11.3986 13.3657 -2.6477 0.1490 0 7
-11.6131 13.1797 -2.6477 0.1490 0 7
-11.8246 12.9903 -2.6477 0.1490 0 7
-12.0329 12.7976 -2.6477 0.1490 0 7
-12.2381 12.6015 -2.6477 0.1490 0 7
-12.4402 12.4021 -2.6477 0.1490 0 7
-12.6390 12.1994 -2.6477 0.1490 0 7
-12.8344 11.9936 -2.6477 0.1490 0 7
-13.0266 11.7847 -2.6477 0.1490 0 7
-13.2153 11.5726 -2.6477 0.1490 0 7
-13.4006 11.3576 -2.6477 0.1490 0 6
-13.5823 11.1395 -2.6477 0.1490 0 7
-13.7606 10.9186 -2.6477 0.1490 0 7
-13.9352 10.6948 -2.6477 0.1490 0 7
-14.1062 10.4683 -2.6477 0.1490 0 7
-14.2735 10.2390 -2.6477 0.1490 0 7
-14.4371 10.0070 -2.6477 0.1490 0 7
-14.5969 9.7724 -2.6477 0.1490 0 7
-14.7529 9.5353 -2.6477 0.1490 0 7
-14.9051 9.2956 -2.6477 0.1490 0 7
-15.0533 9.0536 -2.6477 0.1490 0 7
-14.3229 8.3021 -2.4953 0.1490 0 8
-14.4552 8.0696 -2.4953 0.1490 0 8
-14.5837 7.8349 -2.4953 0.1490 0 8
1.1550 16.5871 -2.6477 0.1573 0 7
0.8868 16.6036 -2.6477 0.1573 0 7
0.6184 16.6158 -2.6477 0.1573 0 7
0.3498 16.6236 -2.6477 0.1573 0 7
0.0811 16.6271 -2.6477 0.1573 0 7
-0.1875 16.6262 -2.6477 0.1573 0 7
-0.4562 16.6210 -2.6477 0.1573 0 7
-0.7247 16.6115 -2.6477 0.1573 0 7
-0.9930 16.5976 -2.6477 0.1573 0 7
-1.2611 16.5794 -2.6477 0.1573 0 7
-1.5288 16.5569 -2.6477 0.1573 0 7
-1.7962 16.5300 -2.6477 0.1573 0 7
-2.0630 16.4988 -2.6477 0.1573 0 7
-2.3294 16.4633 -2.6477 0.1573 0 7
-2.5951 16.4235 -2.6477 0.1573 0 7
-2.8601 16.3794 -2.6477 0.1573 0 7
-3.1244 16.3311 -2.6477 0.1573 0 7
-3.3879 16.2785 -2.6477 0.1573 0 7
-3.6505 16.2216 -2.6477 0.1573 0 7
-3.9122 16.1605 -2.6477 0.1573 0 7
-4.1728 16.0952 -2.6477 0.1573 0 7
-4.4323 16.0256 -2.6477 0.1573 0 7
-4.6907 15.9519 -2.6477 0.1573 0 7
-4.9478 15.8741 -2.6477 0.1573 0 7
-5.2037 15.7920 -2.6477 0.1573 0 7
-5.4582 15.7059 -2.6477 0.1573 0 7
-5.7113 15.6156 -2.6477 0.1573 0 7
-5.9628 15.5213 -2.6477 0.1573 0 7
-6.2129 15.4229 -2.6477 0.1573 0 7
-6.4613 15.3205 -2.6477 0.1573 0 7
-6.7080 15.2141 -2.6477 0.1573 0 7
-6.9530 15.1037 -2.6477 0.1573 0 7
-7.1961 14.9894 -2.6477 0.1573 0 7
-7.4374 14.8712 -2.6477 0.1573 0 6
-7.6767 14.7491 -2.6477 0.1573 0 7
-7.9140 14.6231 -2.6477 0.1573 0 7
-8.1493 14.4933 -2.6477 0.1573 0 7
-8.3824 14.3597 -2.6477 0.1573 0 7
-8.6134 14.2224 -2.6477 0.1573 0 7
-8.8421 14.0814 -2.6477 0.1573 0 7
-9.0684 13.9366 -2.6477 0.1573 0 7
-9.2924 13.7883 -2.6477 0.1573 0 7
-9.5140 13.6363 -2.6477 0.1573 0 7
-9.7331 13.4808 -2.6477 0.1573 0 7
-9.9497 13.3218 -2.6477 0.1573 0 7
-10.1637 13.1593 -2.6477 0.1573 0 7
-10.3750 12.9933 -2.6477 0.1573 0 7
-10.5836 12.8240 -2.6477 0.1573 0 7
-10.7894 12.6513 -2.6477 0.1573 0 7
-10.9924 12.4753 -2.6477 0.1573 0 7
-11.1926 12.2960 -2.6477 0.1573 0 7
-11.3898 12.1136 -2.6477 0.1573 0 7
-11.5841 11.9280 -2.6477 0.1573 0 7
-11.7753 11.7392 -2.6477 0.1573 0 7
-11.9634 11.5474 -2.6477 0.1573 0 7
-12.1485 11.3526 -2.6477 0.1573 0 6
-12.3303 11.1548 -2.6477 0.1573 0 7
-12.5090 10.9541 -2.6477 0.1573 0 7
-12.6843 10.7505 -2.6477 0.1573 0 7
-12.8564 10.5442 -2.6477 0.1573 0 7
-13.0251 10.3350 -2.6477 0.1573 0 7
-13.1904 10.1232 -2.6477 0.1573 0 7
-13.3523 9.9088 -2.6477 0.1573 0 7
-13.5106 9.6917 -2.6477 0.1573 0 7
-13.6655 9.4722 -2.6477 0.1573 0 7
-13.8167 9.2501 -2.6477 0.1573 0 7
-13.9644 9.0256 -2.6477 0.1573 0 7
-13.2964 8.2923 -2.4953 0.1573 0 8
-13.4286 8.0764 -2.4953 0.1573 0 8
-13.5574 7.8584 -2.4953 0.1573 0 8
-13.6826 7.6383 -2.4953 0.1573 0 8
-13.8042 7.4162 -2.4953 0.1573 0 8
1.0962 15.7435 -2.6477 0.1655 0 7
0.8417 15.7591 -2.6477 0.1655 0 7
0.5869 15.7707 -2.6477 0.1655 0 7
0.3320 15.7781 -2.6477 0.1655 0 7
0.0770 15.7814 -2.6477 0.1655 0 7
-0.1780 15.7806 -2.6477 0.1655 0 7
-0.4330 15.7756 -2.6477 0.1655 0 7
-0.6878 15.7666 -2.6477 0.1655 0 7
-0.9425 15.7534 -2.6477 0.1655 0 7
-1.1969 15.7361 -2.6477 0.1655 0 7
-1.4511 15.7147 -2.6477 0.1655 0 7
-1.7048 15.6892 -2.6477 0.1655 0 7
-1.9581 15.6596 -2.6477 0.1655 0 7
-2.2109 15.6259 -2.6477 0.1655 0 7
-2.4631 15.5882 -2.6477 0.1655 0 7
-2.7147 15.5463 -2.6477 0.1655 0 7
-2.9655 15.5004 -2.6477 0.1655 0 7
-3.2156 15.4505 -2.6477 0.1655 0 7
-3.4648 15.3965 -2.6477 0.1655 0 7
-3.7132 15.3385 -2.6477 0.1655 0 7
-3.9605 15.2765 -2.6477 0.1655 0 7
-4.2069 15.2105 -2.6477 0.1655 0 7
-4.4521 15.1406 -2.6477 0.1655 0 7
-4.6962 15.0667 -2.6477 0.1655 0 7
-4.9390 14.9888 -2.6477 0.1655 0 7
-5.1806 14.9070 -2.6477 0.1655 0 7
-5.4208 14.8214 -2.6477 0.1655 0 7
-5.6596 14.7319 -2.6477 0.1655 0 7
-5.8969 14.6385 -2.6477 0.1655 0 7
-6.1326 14.5413 -2.6477 0.1655 0 7
-6.3668 14.4403 -2.6477 0.1655 0 7
-6.5993 14.3355 -2.6477 0.1655 0 7
-6.8301 14.2270 -2.6477 0.1655 0 7
-7.0591 14.1148 -2.6477 0.1655 0 7
-7.2862 13.9989 -2.6477 0.1655 0 7
-7.5115 13.8793 -2.6477 0.1655 0 7
-7.7348 13.7561 -2.6477 0.1655 0 7
-7.9561 13.6293 -2.6477 0.1655 0 7
-8.1753 13.4990 -2.6477 0.1655 0 7
-8.3923 13.3651 -2.6477 0.1655 0 7
-8.6072 13.2278 -2.6477 0.1655 0 7
-8.8198 13.0870 -2.6477 0.1655 0 7
-9.0301 12.9428 -2.6477 0.1655 0 7
-9.2381 12.7951 -2.6477 0.1655 0 7
-9.4436 12.6442 -2.6477 0.1655 0 7
-9.6467 12.4900 -2.6477 0.1655 0 7
-9.8473 12.3325 -2.6477 0.1655 0 7
-10.0453 12.1717 -2.6477 0.1655 0 7
-10.2406 12.0078 -2.6477 0.1655 0 7
-10.4333 11.8408 -2.6477 0.1655 0 7
-10.6233 11.6706 -2.6477 0.1655 0 7
-10.8105 11.4974 -2.6477 0.1655 0 7
-10.9949 11.3213 -2.6477 0.1655 0 7
-11.1764 11.1421 -2.6477 0.1655 0 7
-11.3550 10.9601 -2.6477 0.1655 0 7
-11.5306 10.7752 -2.6477 0.1655 0 7
-11.7032 10.5874 -2.6477 0.1655 0 7
-11.8727 10.3969 -2.6477 0.1655 0 7
-12.0392 10.2037 -2.6477 0.1655 0 7
-12.2025 10.0079 -2.6477 0.1655 0 7
-12.3626 9.8094 -2.6477 0.1655 0 7
-12.5195 9.6083 -2.6477 0.1655 0 7
-12.6731 9.4048 -2.6477 0.1655 0 7
-12.8234 9.1988 -2.6477 0.1655 0 7
-12.9704 8.9904 -2.6477 0.1655 0 7
-12.3655 8.2785 -2.4966 0.5066 0 8
-12.4912 8.0735 -2.4953 0.1655 0 8
-12.6201 7.8706 -2.4953 0.1655 0 8
-12.7456 7.6656 -2.4953 0.1655 0 8
-12.8678 7.4587 -2.4953 0.1655 0 8
-12.9866 7.2498 -2.4953 0.1655 0 8
-13.1021 7.0390 -2.4953 0.1655 0 8
1.0430 14.9794 -2.6477 0.1736 0 7
0.8008 14.9943 -2.6477 0.1736 0 7
0.5584 15.0053 -2.6477 0.1736 0 7
0.3159 15.0124 -2.6477 0.1736 0 7
0.0733 15.0155 -2.6477 0.1736 0 7
-0.1694 15.0147 -2.6477 0.1736 0 7
-0.4120 15.0100 -2.6477 0.1736 0 7
-0.6545 15.0014 -2.6477 0.1736 0 7
-0.8968 14.9889 -2.6477 0.1736 0 6
-1.1389 14.9724 -2.6477 0.1736 0 6
-1.3806 14.9521 -2.6477 0.1736 0 6
-1.6221 14.9278 -2.6477 0.1736 0 6
-1.8631 14.8997 -2.6477 0.1736 0 7
-2.1036 14.8676 -2.6477 0.1736 0 7
-2.3436 14.8317 -2.6477 0.1736 0 7
-2.5829 14.7919 -2.6477 0.1736 0 7
-2.8216 14.7482 -2.6477 0.1736 0 7
-3.0595 14.7007 -2.6477 0.1736 0 7
-3.2967 14.6493 -2.6477 0.1736 0 7
-3.5330 14.5941 -2.6477 0.1736 0 7
-3.7683 14.5352 -2.6477 0.1736 0 7
-4.0027 14.4724 -2.6477 0.1736 0 7
-4.2360 14.4058 -2.6477 0.1736 0 7
-4.4683 14.3355 -2.6477 0.1736 0 7
-4.6993 14.2614 -2.6477 0.1736 0 7
-4.9292 14.1836 -2.6477 0.1736 0 7
-5.1577 14.1021 -2.6477 0.1736 0 7
-5.3849 14.0169 -2.6477 0.1736 0 7
-5.6107 13.9281 -2.6477 0.1736 0 7
-5.8350 13.8356 -2.6477 0.1736 0 7
-6.0578 13.7395 -2.6477 0.1736 0 7
-6.2790 13.6398 -2.6477 0.1736 0 7
-6.4986 13.5366 -2.6477 0.1736 0 7
-6.7165 13.4298 -2.6477 0.1736 0 7
-6.9327 13.3195 -2.6477 0.1736 0 7
-7.1470 13.2058 -2.6477 0.1736 0 7
-7.3594 13.0885 -2.6477 0.1736 0 7
-7.5700 12.9679 -2.6477 0.1736 0 7
-7.7785 12.8439 -2.6477 0.1736 0 7
-7.9850 12.7165 -2.6477 0.1736 0 7
-8.1895 12.5858 -2.6477 0.1736 0 7
-8.3918 12.4519 -2.6477 0.1736 0 7
-8.5919 12.3146 -2.6477 0.1736 0 7
-8.7898 12.1742 -2.6477 0.1736 0 7
-8.9853 12.0306 -2.6477 0.1736 0 7
-9.1785 11.8838 -2.6477 0.1736 0 7
-9.3694 11.7340 -2.6477 0.1736 0 7
-9.5578 11.5810 -2.6477 0.1736 0 7
-9.7436 11.4251 -2.6477 0.1736 0 6
-9.9270 11.2661 -2.6477 0.1736 0 7
-10.1078 11.1042 -2.6477 0.1736 0 7
-10.2859 10.9395 -2.6477 0.1736 0 7
-10.4613 10.7718 -2.6477 0.1736 0 7
-10.6340 10.6014 -2.6477 0.1736 0 7
-10.8039 10.4282 -2.6477 0.1736 0 7
-10.9710 10.2522 -2.6477 0.1736 0 7
-11.1352 10.0736 -2.6477 0.1736 0 7
-11.2965 9.8924 -2.6477 0.1736 0 7
-11.4549 9.7085 -2.6477 0.1736 0 7
-11.6103 9.5222 -2.6477 0.1736 0 7
-11.7626 9.3333 -2.6477 0.1736 0 7
-11.9119 9.1420 -2.6477 0.1736 0 7
-12.0581 8.9484 -2.6477 0.1736 0 7
-11.4988 8.2486 -2.4953 0.1736 0 8
-11.6306 8.0617 -2.4953 0.1736 0 8
-11.7593 7.8727 -2.4953 0.1736 0 8
-11.8850 7.6817 -2.4953 0.1736 0 8
-12.0076 7.4886 -2.4953 0.1736 0 8
-12.1270 7.2936 -2.4953 0.1736 0 8
-12.2433 7.0967 -2.4953 0.1736 0 8
-12.3564 6.8979 -2.4953 0.1736 0 8
-12.4662 6.6974 -2.4953 0.1736 0 8
0.9946 14.2842 -2.6477 0.1818 0 7
0.7637 14.2984 -2.6477 0.1818 0 7
0.5325 14.3089 -2.6477 0.1818 0 7
0.3012 14.3156 -2.6477 0.1818 0 7
0.0699 14.3186 -2.6477 0.1818 0 7
-0.1615 14.3179 -2.6477 0.1818 0 7
-0.3929 14.3134 -2.6477 0.1818 0 7
-0.6241 14.3052 -2.6477 0.1818 0 7
-0.8552 14.2932 -2.6477 0.1818 0 7
-1.0860 14.2775 -2.6477 0.1818 0 7
-1.3166 14.2581 -2.6477 0.1818 0 7
-1.5468 14.2350 -2.6477 0.1818 0 7
-1.7766 14.2081 -2.6477 0.1818 0 7
-2.0060 14.1776 -2.6477 0.1818 0 7
-2.2348 14.1433 -2.6477 0.1818 0 7
-2.4630 14.1053 -2.6477 0.1818 0 7
-2.6906 14.0637 -2.6477 0.1818 0 7
-2.9175 14.0184 -2.6477 0.1818 0 7
-3.1437 13.9694 -2.6477 0.1818 0 7
-3.3690 13.9168 -2.6477 0.1818 0 7
-3.5934 13.8605 -2.6477 0.1818 0 7
-3.8169 13.8007 -2.6477 0.1818 0 7
-4.0394 13.7372 -2.6477 0.1818 0 7
-4.2609 13.6701 -2.6477 0.1818 0 7
-4.4812 13.5995 -2.6477 0.1818 0 7
-4.7004 13.5253 -2.6477 0.1818 0 7
-4.9183 13.4476 -2.6477 0.1818 0 7
-5.1350 13.3663 -2.6477 0.1818 0 7
-5.3503 13.2816 -2.6477 0.1818 0 7
-5.5642 13.1934 -2.6477 0.1818 0 7
-5.7767 13.1018 -2.6477 0.1818 0 7
-5.9876 13.0067 -2.6477 0.1818 0 7
-6.1970 12.9083 -2.6477 0.1818 0 7
-6.4048 12.8065 -2.6477 0.1818 0 7
-6.6109 12.7013 -2.6477 0.1818 0 7
-6.8153 12.5928 -2.6477 0.1818 0 7
-7.0178 12.4811 -2.6477 0.1818 0 7
-7.2186 12.3660 -2.6477 0.1818 0 7
-7.4175 12.2478 -2.6477 0.1818 0 7
-7.6144 12.1263 -2.6477 0.1818 0 7
-7.8094 12.0017 -2.6477 0.1818 0 7
-8.0023 11.8739 -2.6477 0.1818 0 7
-8.1931 11.7431 -2.6477 0.1818 0 7
-8.3818 11.6092 -2.6477 0.1818 0 7
-8.5683 11.4722 -2.6477 0.1818 0 7
-8.7525 11.3323 -2.6477 0.1818 0 7
-8.9345 11.1893 -2.6477 0.1818 0 7
-9.1142 11.0435 -2.6477 0.1818 0 7
-9.2914 10.8948 -2.6477 0.1818 0 7
-9.4663 10.7432 -2.6477 0.1818 0 7
-9.6386 10.5889 -2.6477 0.1818 0 7
-9.8085 10.4317 -2.6477 0.1818 0 7
-9.9757 10.2719 -2.6477 0.1818 0 7
-10.1404 10.1093 -2.6477 0.1818 0 7
-10.3025 9.9442 -2.6477 0.1818 0 7
-10.4618 9.7764 -2.6477 0.1818 0 7
-10.6184 9.6061 -2.6477 0.1818 0 7
-10.7722 9.4332 -2.6477 0.1818 0 7
-10.9233 9.2579 -2.6477 0.1818 0 7
-11.0714 9.0802 -2.6477 0.1818 0 7
-10.5711 8.3878 -2.4953 0.1818 0 8
-10.7052 8.2159 -2.4953 0.1818 0 8
-10.8366 8.0419 -2.4953 0.1818 0 8
-10.9651 7.8657 -2.4953 0.1818 0 8
-11.0908 7.6875 -2.4953 0.1818 0 8
-11.2136 7.5073 -2.4953 0.1818 0 8
-11.3334 7.3251 -2.4953 0.1818 0 8
-11.4503 7.1410 -2.4953 0.1818 0 8
-11.5642 6.9551 -2.4953 0.1818 0 8
-11.6751 6.7673 -2.4953 0.1818 0 8
-11.7829 6.5778 -2.4953 0.1818 0 8
-11.8876 6.3865 -2.4953 0.1818 0 8
0.9504 13.6487 -2.6477 0.1900 0 7
0.7297 13.6623 -2.6477 0.1900 0 7
0.5088 13.6723 -2.6477 0.1900 0 7
0.2878 13.6788 -2.6477 0.1900 0 7
0.0668 13.6816 -2.6477 0.1900 0 7
-0.1543 13.6809 -2.6477 0.1900 0 7
-0.3754 13.6766 -2.6477 0.1900 0 7
-0.5963 13.6688 -2.6477 0.1900 0 7
-0.8171 13.6574 -2.6477 0.1900 0 7
-1.0377 13.6424 -2.6477 0.1900 0 7
-1.2580 13.6238 -2.6477 0.1900 0 7
-1.4780 13.6017 -2.6477 0.1900 0 7
-1.6976 13.5761 -2.6477 0.1900 0 7
-1.9167 13.5469 -2.6477 0.1900 0 7
-2.1354 13.5141 -2.6477 0.1900 0 7
-2.3535 13.4778 -2.6477 0.1900 0 7
-2.5709 13.4381 -2.6477 0.1900 0 7
-2.7878 13.3948 -2.6477 0.1900 0 7
-3.0038 13.3480 -2.6477 0.1900 0 7
-3.2191 13.2977 -2.6477 0.1900 0 7
-3.4336 13.2439 -2.6477 0.1900 0 7
-3.6471 13.1867 -2.6477 0.1900 0 7
-3.8597 13.1261 -2.6477 0.1900 0 7
-4.0713 13.0620 -2.6477 0.1900 0 7
-4.2819 12.9945 -2.6477 0.1900 0 7
-4.4913 12.9236 -2.6477 0.1900 0 7
-4.6995 12.8493 -2.6477 0.1900 0 7
-4.9065 12.7717 -2.6477 0.1900 0 7
-5.1123 12.6908 -2.6477 0.1900 0 7
-5.3167 12.6065 -2.6477 0.1900 0 7
-5.5197 12.5190 -2.6477 0.1900 0 7
-5.7212 12.4281 -2.6477 0.1900 0 7
-5.9213 12.3341 -2.6477 0.1900 0 7
-6.1199 12.2368 -2.6477 0.1900 0 7
-6.3168 12.1363 -2.6477 0.1900 0 7
-6.5121 12.0326 -2.6477 0.1900 0 7
-6.7056 11.9258 -2.6477 0.1900 0 7
-6.8975 11.8159 -2.6477 0.1900 0 7
-7.0875 11.7029 -2.6477 0.1900 0 7
-7.2757 11.5869 -2.6477 0.1900 0 7
-7.4620 11.4678 -2.6477 0.1900 0 6
-7.6463 11.3457 -2.6477 0.1900 0 7
-7.8286 11.2207 -2.6477 0.1900 0 7
-8.0089 11.0927 -2.6477 0.1900 0 7
-8.1871 10.9619 -2.6477 0.1900 0 7
-8.3632 10.8281 -2.6477 0.1900 0 7
-8.5371 10.6916 -2.6477 0.1900 0 7
-8.7087 10.5522 -2.6477 0.1900 0 7
-8.8781 10.4101 -2.6477 0.1900 0 7
-9.0451 10.2653 -2.6477 0.1900 0 7
-9.2098 10.1178 -2.6477 0.1900 0 7
-9.3721 9.9677 -2.6477 0.1900 0 7
-9.5320 9.8149 -2.6477 0.1900 0 7
-9.6893 9.6596 -2.6477 0.1900 0 7
-9.8441 9.5018 -2.6477 0.1900 0 7
-9.9964 9.3415 -2.6477 0.1900 0 7
-10.1460 9.1787 -2.6477 0.1900 0 7
-10.2930 9.0136 -2.6477 0.1900 0 7
-9.8366 8.3369 -2.4953 0.1900 0 8
-9.9700 8.1769 -2.4953 0.1900 0 8
-10.1008 8.0147 -2.4953 0.1900 0 8
-10.2290 7.8504 -2.4953 0.1900 0 8
-10.3545 7.6841 -2.4953 0.1900 0 8
-10.4773 7.5158 -2.4953 0.1900 0 8
-10.5974 7.3455 -2.4953 0.1900 0 8
-10.7147 7.1733 -2.4953 0.1900 0 8
-10.8292 6.9993 -2.4953 0.1900 0 8
-10.9409 6.8234 -2.4953 0.1900 0 8
-11.0497 6.6457 -2.4953 0.1900 0 8
-11.1557 6.4663 -2.4953 0.1900 0 8
-11.2587 6.2852 -2.4953 0.1900 0 8
-11.3588 6.1024 -2.4953 0.1900 0 8
0.9098 13.0656 -2.6477 0.1981 0 7
0.6985 13.0786 -2.6477 0.1981 0 7
0.4871 13.0882 -2.6477 0.1981 0 7
0.2755 13.0944 -2.6477 0.1981 0 7
0.0639 13.0971 -2.6477 0.1981 0 7
-0.1477 13.0964 -2.6477 0.1981 0 7
-0.3593 13.0923 -2.6477 0.1981 0 7
-0.5708 13.0848 -2.6477 0.1981 0 7
-0.7822 13.0739 -2.6477 0.1981 0 7
-0.9934 13.0595 -2.6477 0.1981 0 7
-1.2043 13.0418 -2.6477 0.1981 0 7
-1.4148 13.0206 -2.6477 0.1981 0 7
-1.6251 12.9961 -2.6477 0.1981 0 7
-1.8348 12.9681 -2.6477 0.1981 0 7
-2.0441 12.9368 -2.6477 0.1981 0 7
-2.2529 12.9020 -2.6477 0.1981 0 7
-2.4611 12.8640 -2.6477 0.1981 0 7
-2.6687 12.8225 -2.6477 0.1981 0 7
-2.8755 12.7777 -2.6477 0.1981 0 7
-3.0816 12.7296 -2.6477 0.1981 0 7
-3.2869 12.6781 -2.6477 0.1981 0 7
-3.4913 12.6234 -2.6477 0.1981 0 7
-3.6948 12.5653 -2.6477 0.1981 0 7
-3.8974 12.5040 -2.6477 0.1981 0 7
-4.0989 12.4393 -2.6477 0.1981 0 7
-4.2994 12.3715 -2.6477 0.1981 0 7
-4.4987 12.3004 -2.6477 0.1981 0 7
-4.6969 12.2261 -2.6477 0.1981 0 7
-4.8939 12.1486 -2.6477 0.1981 0 7
-5.0895 12.0679 -2.6477 0.1981 0 7
-5.2839 11.9841 -2.6477 0.1981 0 7
-5.4768 11.8972 -2.6477 0.1981 0 7
-5.6684 11.8071 -2.6477 0.1981 0 7
-5.8584 11.7140 -2.6477 0.1981 0 7
-6.0469 11.6178 -2.6477 0.1981 0 7
-6.2339 11.5186 -2.6477 0.1981 0 7
-6.4192 11.4163 -2.6477 0.1981 0 6
-6.6028 11.3111 -2.6477 0.1981 0 7
-6.7847 11.2029 -2.6477 0.1981 0 7
-6.9649 11.0919 -2.6477 0.1981 0 7
-7.1432 10.9779 -2.6477 0.1981 0 7
-7.3196 10.8610 -2.6477 0.1981 0 7
-7.4942 10.7413 -2.6477 0.1981 0 7
-7.6668 10.6188 -2.6477 0.1981 0 7
-7.8374 10.4935 -2.6477 0.1981 0 7
-8.0059 10.3655 -2.6477 0.1981 0 7
-8.1723 10.2348 -2.6477 0.1981 0 7
-8.3366 10.1014 -2.6477 0.1981 0 7
-8.4988 9.9654 -2.6477 0.1981 0 7
-8.6587 9.8268 -2.6477 0.1981 0 7
-8.8164 9.6856 -2.6477 0.1981 0 7
-8.9717 9.5418 -2.6477 0.1981 0 7
-9.1247 9.3956 -2.6477 0.1981 0 7
-9.2754 9.2469 -2.6477 0.1981 0 7
-9.4236 9.0959 -2.6477 0.1981 0 7
-9.5693 8.9424 -2.6477 0.1981 0 7
-9.1602 8.2869 -2.4971 0.6065 0 8
-9.2861 8.1319 -2.4953 0.1981 0 8
-9.4163 7.9807 -2.4953 0.1981 0 8
-9.5440 7.8275 -2.4953 0.1981 0 8
-9.6693 7.6723 -2.4953 0.1981 0 8
-9.7920 7.5151 -2.4953 0.1981 0 8
-9.9122 7.3559 -2.4953 0.1981 0 8
-10.0297 7.1947 -2.4953 0.1981 0 8
-10.1447 7.0317 -2.4953 0.1981 0 8
-10.2570 6.8669 -2.4953 0.1981 0 8
-10.3666 6.7002 -2.4953 0.1981 0 8
-10.4735 6.5319 -2.4953 0.1981 0 8
-10.5777 6.3618 -2.4953 0.1981 0 8
-10.6791 6.1900 -2.4953 0.1981 0 8
-10.7777 6.0166 -2.4953 0.1981 0 8
-10.8735 5.8417 -2.4953 0.1981 0 8
0.8724 12.5286 -2.6477 0.2063 0 7
0.6698 12.5411 -2.6477 0.2063 0 7
0.4671 12.5503 -2.6477 0.2063 0 7
0.2642 12.5562 -2.6477 0.2063 0 7
0.0613 12.5588 -2.6477 0.2063 0 7
-0.1417 12.5581 -2.6477 0.2063 0 7
-0.3446 12.5542 -2.6477 0.2063 0 7
-0.5474 12.5470 -2.6477 0.2063 0 7
-0.7501 12.5365 -2.6477 0.2063 0 7
-0.9525 12.5228 -2.6477 0.2063 0 7
-1.1548 12.5057 -2.6477 0.2063 0 7
-1.3567 12.4854 -2.6477 0.2063 0 7
-1.5583 12.4619 -2.6477 0.2063 0 7
-1.7594 12.4351 -2.6477 0.2063 0 7
-1.9601 12.4050 -2.6477 0.2063 0 7
-2.1603 12.3717 -2.6477 0.2063 0 7
-2.3599 12.3352 -2.6477 0.2063 0 7
-2.5590 12.2955 -2.6477 0.2063 0 7
-2.7573 12.2525 -2.6477 0.2063 0 7
-2.9549 12.2064 -2.6477 0.2063 0 7
-3.1518 12.1570 -2.6477 0.2063 0 7
-3.3478 12.1045 -2.6477 0.2063 0 7
-3.5430 12.0488 -2.6477 0.2063 0 7
-3.7372 11.9900 -2.6477 0.2063 0 7
-3.9305 11.9280 -2.6477 0.2063 0 7
-4.1227 11.8630 -2.6477 0.2063 0 7
-4.3138 11.7948 -2.6477 0.2063 0 7
-4.5039 11.7236 -2.6477 0.2063 0 7
-4.6927 11.6493 -2.6477 0.2063 0 7
-4.8803 11.5719 -2.6477 0.2063 0 7
-5.0667 11.4915 -2.6477 0.2063 0 7
-5.2517 11.4082 -2.6477 0.2063 0 6
-5.4354 11.3218 -2.6477 0.2063 0 7
-5.6176 11.2325 -2.6477 0.2063 0 7
-5.7984 11.1403 -2.6477 0.2063 0 7
-5.9776 11.0451 -2.6477 0.2063 0 7
-6.1553 10.9471 -2.6477 0.2063 0 7
-6.3314 10.8462 -2.6477 0.2063 0 7
-6.5058 10.7425 -2.6477 0.2063 0 7
-6.6786 10.6359 -2.6477 0.2063 0 7
-6.8496 10.5266 -2.6477 0.2063 0 7
-7.0188 10.4146 -2.6477 0.2063 0 7
-7.1862 10.2998 -2.6477 0.2063 0 7
-7.3516 10.1823 -2.6477 0.2063 0 7
-7.5152 10.0622 -2.6477 0.2063 0 7
-7.6768 9.9395 -2.6477 0.2063 0 7
-7.8364 9.8141 -2.6477 0.2063 0 7
-7.9940 9.6862 -2.6477 0.2063 0 7
-8.1495 9.5558 -2.6477 0.2063 0 7
-8.3028 9.4229 -2.6477 0.2063 0 7
-8.4540 9.2875 -2.6477 0.2063 0 7
-8.6030 9.1496 -2.6477 0.2063 0 7
-8.7497 9.0094 -2.6477 0.2063 0 7
-8.3822 8.3565 -2.4953 0.2063 0 8
-8.5161 8.2200 -2.4953 0.2063 0 8
-8.6478 8.0813 -2.4953 0.2063 0 8
-8.7773 7.9405 -2.4953 0.2063 0 8
-8.9044 7.7976 -2.4953 0.2063 0 8
-9.0293 7.6527 -2.4953 0.2063 0 8
-9.1518 7.5058 -2.4953 0.2063 0 8
-9.2718 7.3569 -2.4953 0.2063 0 8
-9.3895 7.2062 -2.4953 0.2063 0 8
-9.5047 7.0535 -2.4953 0.2063 0 8
-9.6175 6.8990 -2.4953 0.2063 0 8
-9.7277 6.7427 -2.4953 0.2063 0 8
-9.8354 6.5846 -2.4953 0.2063 0 8
-9.9405 6.4248 -2.4953 0.2063 0 8
-10.0430 6.2634 -2.4953 0.2063 0 8
-10.1429 6.1003 -2.4953 0.2063 0 8
-10.2402 5.9356 -2.4953 0.2063 0 8
-10.3347 5.7693 -2.4953 0.2063 0 8
-10.4266 5.6016 -2.4953 0.2063 0 8
0.8378 12.0323 -2.6477 0.2144 0 7
0.6433 12.0443 -2.6477 0.2144 0 7
0.4486 12.0531 -2.6477 0.2144 0 7
0.2537 12.0588 -2.6477 0.2144 0 7
0.0589 12.0613 -2.6477 0.2144 0 7
-0.1360 12.0607 -2.6477 0.2144 0 7
-0.3309 12.0569 -2.6477 0.2144 0 7
-0.5257 12.0500 -2.6477 0.2144 0 7
-0.7203 12.0399 -2.6477 0.2144 0 7
-0.9148 12.0267 -2.6477 0.2144 0 7
-1.1090 12.0103 -2.6477 0.2144 0 7
-1.3029 11.9908 -2.6477 0.2144 0 7
-1.4965 11.9682 -2.6477 0.2144 0 7
-1.6897 11.9425 -2.6477 0.2144 0 7
-1.8825 11.9136 -2.6477 0.2144 0 7
-2.0747 11.8816 -2.6477 0.2144 0 7
-2.2665 11.8466 -2.6477 0.2144 0 7
-2.4576 11.8084 -2.6477 0.2144 0 7
-2.6481 11.7671 -2.6477 0.2144 0 7
-2.8379 11.7228 -2.6477 0.2144 0 7
-3.0269 11.6754 -2.6477 0.2144 0 7
-3.2152 11.6250 -2.6477 0.2144 0 7
-3.4026 11.5715 -2.6477 0.2144 0 7
-3.5892 11.5150 -2.6477 0.2144 0 7
-3.7748 11.4555 -2.6477 0.2144 0 6
-3.9594 11.3930 -2.6477 0.2144 0 6
-4.1429 11.3276 -2.6477 0.2144 0 7
-4.3254 11.2591 -2.6477 0.2144 0 7
-4.5068 11.1878 -2.6477 0.2144 0 7
-4.6870 11.1135 -2.6477 0.2144 0 7
-4.8660 11.0363 -2.6477 0.2144 0 7
-5.0437 10.9562 -2.6477 0.2144 0 7
-5.2200 10.8733 -2.6477 0.2144 0 7
-5.3951 10.7875 -2.6477 0.2144 0 7
-5.5687 10.6990 -2.6477 0.2144 0 7
-5.7408 10.6076 -2.6477 0.2144 0 7
-5.9115 10.5134 -2.6477 0.2144 0 7
-6.0806 10.4165 -2.6477 0.2144 0 7
-6.2481 10.3169 -2.6477 0.2144 0 7
-6.4140 10.2146 -2.6477 0.2144 0 7
-6.5782 10.1096 -2.6477 0.2144 0 7
-6.7407 10.0020 -2.6477 0.2144 0 7
-6.9015 9.8918 -2.6477 0.2144 0 7
-7.0604 9.7790 -2.6477 0.2144 0 7
-7.2175 9.6636 -2.6477 0.2144 0 7
-7.3727 9.5457 -2.6477 0.2144 0 7
-7.5260 9.4254 -2.6477 0.2144 0 7
-7.6773 9.3025 -2.6477 0.2144 0 7
-7.8266 9.1772 -2.6477 0.2144 0 7
-7.9739 9.0496 -2.6477 0.2144 0 7
-7.6518 8.4061 -2.4953 0.2144 0 8
-7.7866 8.2814 -2.4953 0.2144 0 8
-7.9194 8.1545 -2.4953 0.2144 0 8
-8.0501 8.0255 -2.4953 0.2144 0 8
-8.1788 7.8943 -2.4953 0.2144 0 8
-8.3052 7.7611 -2.4953 0.2144 0 8
-8.4296 7.6259 -2.4953 0.2144 0 8
-8.5517 7.4887 -2.4953 0.2144 0 8
-8.6716 7.3496 -2.4953 0.2144 0 8
-8.7892 7.2085 -2.4953 0.2144 0 8
-8.9045 7.0655 -2.4953 0.2144 0 8
-9.0176 6.9207 -2.4953 0.2144 0 8
-9.1282 6.7741 -2.4953 0.2144 0 8
-9.2365 6.6257 -2.4953 0.2144 0 8
-9.3423 6.4756 -2.4953 0.2144 0 8
-9.4457 6.3238 -2.4953 0.2144 0 8
-9.5467 6.1703 -2.4953 0.2144 0 8
-9.6452 6.0153 -2.4953 0.2144 0 8
-9.7411 5.8586 -2.4953 0.2144 0 8
-9.8345 5.7005 -2.4953 0.2144 0 8
-9.9253 5.5408 -2.4953 0.2144 0 8
-10.0136 5.3797 -2.4953 0.2144 0 8
0.8058 11.5722 -2.6477 0.2225 0 7
0.6187 11.5837 -2.6477 0.2225 0 7
0.4314 11.5922 -2.6477 0.2225 0 7
0.2440 11.5976 -2.6477 0.2225 0 7
0.0566 11.6001 -2.6477 0.2225 0 7
-0.1308 11.5995 -2.6477 0.2225 0 7
-0.3183 11.5958 -2.6477 0.2225 0 7
-0.5056 11.5892 -2.6477 0.2225 0 7
-0.6928 11.5795 -2.6477 0.2225 0 7
-0.8798 11.5668 -2.6477 0.2225 0 7
-1.0666 11.5511 -2.6477 0.2225 0 7
-1.2531 11.5323 -2.6477 0.2225 0 7
-1.4393 11.5106 -2.6477 0.2225 0 7
-1.6251 11.4858 -2.6477 0.2225 0 6
-1.8105 11.4580 -2.6477 0.2225 0 6
-1.9954 11.4273 -2.6477 0.2225 0 6
-2.1798 11.3936 -2.6477 0.2225 0 6
-2.3636 11.3569 -2.6477 0.2225 0 7
-2.5468 11.3172 -2.6477 0.2225 0 7
-2.7294 11.2745 -2.6477 0.2225 0 7
-2.9112 11.2290 -2.6477 0.2225 0 7
-3.0923 11.1805 -2.6477 0.2225 0 7
-3.2725 11.1290 -2.6477 0.2225 0 7
-3.4519 11.0747 -2.6477 0.2225 0 7
-3.6304 11.0175 -2.6477 0.2225 0 7
-3.8080 10.9574 -2.6477 0.2225 0 7
-3.9845 10.8944 -2.6477 0.2225 0 7
-4.1600 10.8286 -2.6477 0.2225 0 7
-4.3345 10.7600 -2.6477 0.2225 0 7
-4.5078 10.6885 -2.6477 0.2225 0 7
-4.6799 10.6143 -2.6477 0.2225 0 7
-4.8508 10.5373 -2.6477 0.2225 0 7
-5.0204 10.4575 -2.6477 0.2225 0 7
-5.1888 10.3750 -2.6477 0.2225 0 7
-5.3557 10.2898 -2.6477 0.2225 0 7
-5.5213 10.2020 -2.6477 0.2225 0 7
-5.6854 10.1114 -2.6477 0.2225 0 7
-5.8481 10.0182 -2.6477 0.2225 0 7
-6.0092 9.9224 -2.6477 0.2225 0 7
-6.1688 9.8240 -2.6477 0.2225 0 7
-6.3267 9.7231 -2.6477 0.2225 0 7
-6.4830 9.6196 -2.6477 0.2225 0 7
-6.6376 9.5135 -2.6477 0.2225 0 7
-6.7904 9.4050 -2.6477 0.2225 0 7
-6.9415 9.2941 -2.6477 0.2225 0 7
-7.0908 9.1807 -2.6477 0.2225 0 7
-7.2382 9.0649 -2.6477 0.2225 0 7
-6.9587 8.4318 -2.4953 0.2225 0 8
-7.0941 8.3183 -2.4953 0.2225 0 8
-7.2276 8.2026 -2.4953 0.2225 0 8
-7.3592 8.0847 -2.4953 0.2225 0 8
-7.4888 7.9647 -2.4953 0.2225 0 8
-7.6166 7.8427 -2.4953 0.2225 0 8
-7.7423 7.7186 -2.4953 0.2225 0 8
-7.8660 7.5925 -2.4953 0.2225 0 8
-7.9877 7.4644 -2.4953 0.2225 0 8
-8.1072 7.3343 -2.4953 0.2225 0 8
-8.2247 7.2024 -2.4953 0.2225 0 8
-8.3400 7.0685 -2.4953 0.2225 0 8
-8.4531 6.9328 -2.4953 0.2225 0 8
-8.5641 6.7953 -2.4953 0.2225 0 8
-8.6727 6.6561 -2.4953 0.2225 0 8
-8.7792 6.5151 -2.4953 0.2225 0 8
-8.8833 6.3724 -2.4953 0.2225 0 8
-8.9851 6.2280 -2.4953 0.2225 0 8
-9.0846 6.0820 -2.4953 0.2225 0 8
-9.1817 5.9344 -2.4953 0.2225 0 8
-9.2763 5.7852 -2.4953 0.2225 0 8
-9.3686 5.6346 -2.4953 0.2225 0 8
-9.4584 5.4825 -2.4953 0.2225 0 8
-9.5458 5.3289 -2.4953 0.2225 0 8
-9.6307 5.1740 -2.4953 0.2225 0 8
0.7760 11.1444 -2.6477 0.2306 0 7
0.5958 11.1555 -2.6477 0.2306 0 7
0.4155 11.1637 -2.6477 0.2306 0 7
0.2350 11.1689 -2.6477 0.2306 0 7
0.0545 11.1713 -2.6477 0.2306 0 7
-0.1260 11.1707 -2.6477 0.2306 0 7
-0.3065 11.1672 -2.6477 0.2306 0 7
-0.4869 11.1608 -2.6477 0.2306 0 7
-0.6672 11.1515 -2.6477 0.2306 0 7
-0.8473 11.1392 -2.6477 0.2306 0 7
-1.0272 11.1241 -2.6477 0.2306 0 7
-1.2068 11.1060 -2.6477 0.2306 0 7
-1.3861 11.0851 -2.6477 0.2306 0 7
-1.5650 11.0612 -2.6477 0.2306 0 7
-1.7436 11.0345 -2.6477 0.2306 0 7
-1.9216 11.0049 -2.6477 0.2306 0 7
-2.0992 10.9724 -2.6477 0.2306 0 7
-2.2762 10.9370 -2.6477 0.2306 0 7
-2.4527 10.8988 -2.6477 0.2306 0 7
-2.6285 10.8578 -2.6477 0.2306 0 7
-2.8036 10.8139 -2.6477 0.2306 0 7
-2.9779 10.7672 -2.6477 0.2306 0 7
-3.1515 10.7177 -2.6477 0.2306 0 7
-3.3243 10.6653 -2.6477 0.2306 0 7
-3.4962 10.6102 -2.6477 0.2306 0 7
-3.6672 10.5523 -2.6477 0.2306 0 7
-3.8372 10.4917 -2.6477 0.2306 0 7
-4.0063 10.4283 -2.6477 0.2306 0 7
-4.1743 10.3622 -2.6477 0.2306 0 7
-4.3412 10.2934 -2.6477 0.2306 0 7
-4.5069 10.2219 -2.6477 0.2306 0 7
-4.6715 10.1478 -2.6477 0.2306 0 7
-4.8349 10.0710 -2.6477 0.2306 0 7
-4.9970 9.9915 -2.6477 0.2306 0 7
-5.1578 9.9095 -2.6477 0.2306 0 7
-5.3172 9.8248 -2.6477 0.2306 0 7
-5.4753 9.7376 -2.6477 0.2306 0 7
-5.6319 9.6479 -2.6477 0.2306 0 7
-5.7871 9.5556 -2.6477 0.2306 0 7
-5.9407 9.4609 -2.6477 0.2306 0 7
-6.0928 9.3636 -2.6477 0.2306 0 7
-6.2433 9.2640 -2.6477 0.2306 0 7
-6.3922 9.1619 -2.6477 0.2306 0 7
-6.5394 9.0574 -2.6477 0.2306 0 7
-6.6849 8.9505 -2.6477 0.2306 0 7
-6.4356 8.3324 -2.4953 0.2306 0 8
-6.5694 8.2274 -2.4953 0.2306 0 8
-6.7015 8.1201 -2.4953 0.2306 0 8
-6.8318 8.0108 -2.4953 0.2306 0 8
-6.9604 7.8993 -2.4953 0.2306 0 8
-7.0871 7.7858 -2.4953 0.2306 0 8
-7.2120 7.6703 -2.4953 0.2306 0 8
-7.3350 7.5528 -2.4953 0.2306 0 8
-7.4561 7.4333 -2.4953 0.2306 0 8
-7.5752 7.3118 -2.4953 0.2306 0 8
-7.6924 7.1884 -2.4953 0.2306 0 8
-7.8076 7.0632 -2.4953 0.2306 0 8
-7.9207 6.9361 -2.4953 0.2306 0 8
-8.0317 6.8072 -2.4953 0.2306 0 8
-8.1407 6.6766 -2.4953 0.2306 0 8
-8.2475 6.5441 -2.4953 0.2306 0 8
-8.3522 6.4100 -2.4953 0.2306 0 8
-8.4546 6.2742 -2.4953 0.2306 0 8
-8.5549 6.1368 -2.4953 0.2306 0 8
-8.6530 5.9978 -2.4953 0.2306 0 8
-8.7487 5.8572 -2.4953 0.2306 0 8
-8.8422 5.7150 -2.4953 0.2306 0 8
-8.9334 5.5714 -2.4953 0.2306 0 8
-9.0223 5.4263 -2.4953 0.2306 0 8
-9.1088 5.2798 -2.4953 0.2306 0 8
-9.1929 5.1319 -2.4953 0.2306 0 8
-9.2747 4.9827 -2.4953 0.2306 0 8
0.7482 10.7456 -2.6477 0.2387 0 7
0.5745 10.7563 -2.6477 0.2387 0 7
0.4006 10.7642 -2.6477 0.2387 0 7
0.2266 10.7693 -2.6477 0.2387 0 7
0.0526 10.7715 -2.6477 0.2387 0 7
-0.1215 10.7710 -2.6477 0.2387 0 7
-0.2955 10.7676 -2.6477 0.2387 0 7
-0.4695 10.7614 -2.6477 0.2387 0 7
-0.6433 10.7524 -2.6477 0.2387 0 7
-0.8170 10.7406 -2.6477 0.2387 0 7
-0.9904 10.7260 -2.6477 0.2387 0 7
-1.1636 10.7086 -2.6477 0.2387 0 7
-1.3365 10.6884 -2.6477 0.2387 0 7
-1.5090 10.6654 -2.6477 0.2387 0 7
-1.6812 10.6397 -2.6477 0.2387 0 7
-1.8529 10.6111 -2.6477 0.2387 0 7
-2.0241 10.5798 -2.6477 0.2387 0 7
-2.1948 10.5457 -2.6477 0.2387 0 7
-2.3649 10.5088 -2.6477 0.2387 0 7
-2.5344 10.4693 -2.6477 0.2387 0 7
-2.7033 10.4269 -2.6477 0.2387 0 7
-2.8714 10.3819 -2.6477 0.2387 0 7
-3.0388 10.3341 -2.6477 0.2387 0 7
-3.2054 10.2837 -2.6477 0.2387 0 7
-3.3711 10.2305 -2.6477 0.2387 0 7
-3.5360 10.1747 -2.6477 0.2387 0 7
-3.6999 10.1163 -2.6477 0.2387 0 7
-3.8629 10.0552 -2.6477 0.2387 0 7
-4.0249 9.9914 -2.6477 0.2387 0 7
-4.1858 9.9251 -2.6477 0.2387 0 7
-4.3456 9.8562 -2.6477 0.2387 0 7
-4.5043 9.7847 -2.6477 0.2387 0 7
-4.6618 9.7106 -2.6477 0.2387 0 7
-4.8182 9.6340 -2.6477 0.2387 0 7
-4.9732 9.5549 -2.6477 0.2387 0 7
-5.1269 9.4733 -2.6477 0.2387 0 7
-5.2794 9.3892 -2.6477 0.2387 0 7
-5.4304 9.3027 -2.6477 0.2387 0 7
-5.5800 9.2137 -2.6477 0.2387 0 7
-5.7281 9.1223 -2.6477 0.2387 0 7
-5.8748 9.0286 -2.6477 0.2387 0 7
-5.6734 8.4183 -2.4953 0.2387 0 8
-5.8088 8.3255 -2.4953 0.2387 0 8
-5.9425 8.2306 -2.4953 0.2387 0 8
-6.0747 8.1335 -2.4953 0.2387 0 8
-6.2053 8.0343 -2.4953 0.2387 0 8
-6.3343 7.9330 -2.4953 0.2387 0 8
-6.4617 7.8296 -2.4953 0.2387 0 8
-6.5874 7.7241 -2.4953 0.2387 0 8
-6.7113 7.6167 -2.4953 0.2387 0 8
-6.8335 7.5072 -2.4953 0.2387 0 8
-6.9539 7.3958 -2.4953 0.2387 0 8
-7.0725 7.2825 -2.4953 0.2387 0 8
-7.1893 7.1673 -2.4953 0.2387 0 8
-7.3042 7.0502 -2.4953 0.2387 0 8
-7.4171 6.9312 -2.4953 0.2387 0 8
-7.5282 6.8105 -2.4953 0.2387 0 8
-7.6372 6.6879 -2.4953 0.2387 0 8
-7.7443 6.5636 -2.4953 0.2387 0 8
-7.8494 6.4376 -2.4953 0.2387 0 8
-7.9524 6.3100 -2.4953 0.2387 0 8
-8.0533 6.1806 -2.4953 0.2387 0 8
-8.1521 6.0497 -2.4953 0.2387 0 8
-8.2488 5.9172 -2.4953 0.2387 0 8
-8.3433 5.7831 -2.4953 0.2387 0 8
-8.4357 5.6476 -2.4953 0.2387 0 8
-8.5258 5.5105 -2.4953 0.2387 0 8
-8.6138 5.3720 -2.4953 0.2387 0 8
-8.6995 5.2321 -2.4953 0.2387 0 8
-8.7829 5.0909 -2.4953 0.2387 0 8
-8.8640 4.9483 -2.4953 0.2387 0 8
-8.9428 4.8044 -2.4953 0.2387 0 8
0.7223 10.3729 -2.6477 0.2468 0 7
0.5546 10.3833 -2.6477 0.2468 0 7
0.3867 10.3909 -2.6477 0.2468 0 7
0.2187 10.3958 -2.6477 0.2468 0 7
0.0507 10.3979 -2.6477 0.2468 0 7
-0.1173 10.3974 -2.6477 0.2468 0 7
-0.2853 10.3941 -2.6477 0.2468 0 7
-0.4532 10.3882 -2.6477 0.2468 0 7
-0.6210 10.3795 -2.6477 0.2468 0 7
-0.7886 10.3681 -2.6477 0.2468 0 7
-0.9561 10.3540 -2.6477 0.2468 0 7
-1.1233 10.3372 -2.6477 0.2468 0 7
-1.2901 10.3177 -2.6477 0.2468 0 7
-1.4567 10.2955 -2.6477 0.2468 0 7
-1.6229 10.2706 -2.6477 0.2468 0 7
-1.7886 10.2431 -2.6477 0.2468 0 7
-1.9539 10.2128 -2.6477 0.2468 0 7
-2.1187 10.1799 -2.6477 0.2468 0 7
-2.2829 10.1444 -2.6477 0.2468 0 7
-2.4465 10.1061 -2.6477 0.2468 0 7
-2.6095 10.0653 -2.6477 0.2468 0 7
-2.7718 10.0218 -2.6477 0.2468 0 7
-2.9334 9.9757 -2.6477 0.2468 0 7
-3.0942 9.9270 -2.6477 0.2468 0 7
-3.2542 9.8757 -2.6477 0.2468 0 7
-3.4133 9.8218 -2.6477 0.2468 0 7
-3.5716 9.7654 -2.6477 0.2468 0 7
-3.7289 9.7064 -2.6477 0.2468 0 7
-3.8853 9.6449 -2.6477 0.2468 0 7
-4.0406 9.5809 -2.6477 0.2468 0 7
-4.1949 9.5143 -2.6477 0.2468 0 7
-4.3481 9.4453 -2.6477 0.2468 0 7
-4.5002 9.3738 -2.6477 0.2468 0 7
-4.6511 9.2999 -2.6477 0.2468 0 7
-4.8007 9.2235 -2.6477 0.2468 0 7
-4.9491 9.1447 -2.6477 0.2468 0 7
-5.0962 9.0635 -2.6477 0.2468 0 7
-5.2420 8.9800 -2.6477 0.2468 0 7
-5.0764 8.3822 -2.4953 0.2468 0 8
-5.2115 8.2996 -2.4954 0.7558 0 8
-5.3446 8.2138 -2.4953 0.2468 0 8
-5.4766 8.1263 -2.4953 0.2468 0 8
-5.6072 8.0368 -2.4953 0.2468 0 8
-5.7364 7.9451 -2.4953 0.2468 0 8
