ply
format ascii 1.0
element vertex 1307
property float32 x
property float32 y
property float32 z
property float32 CosAngle
property uint32 ObjIdx
property uint32 ObjTag
end_header
-58.4493 -81.7218 -2.5056 0.0219 0 8
-57.2275 -82.7799 -2.5097 0.0218 0 8
-55.9851 -83.8172 -2.5137 0.0218 0 8
-54.7215 -84.8318 -2.5175 0.0218 0 8
-53.4387 -85.8258 -2.5213 0.0217 0 8
-52.1364 -86.7976 -2.5251 0.0217 0 8
-50.8139 -87.7450 -2.5287 0.0217 0 8
-49.4734 -88.6703 -2.5322 0.0217 0 8
-48.1148 -89.5724 -2.5357 0.0216 0 8
-46.7376 -90.4493 -2.5390 0.0216 0 8
-45.3428 -91.3011 -2.5422 0.0216 0 8
-43.9319 -92.1297 -2.5454 0.0215 0 8
-42.5041 -92.9322 -2.5485 0.0215 0 8
-41.0594 -93.7069 -2.5514 0.0215 0 8
-39.6004 -94.4583 -2.5543 0.0215 0 8
-38.1261 -95.1827 -2.5570 0.0214 0 8
-36.6364 -95.8778 -2.5597 0.0214 0 8
-35.1337 -96.5481 -2.5622 0.0214 0 8
-75.0120 -1.6790 -2.4953 0.0332 0 8
-74.9755 -2.8783 -2.4953 0.0332 0 8
-74.9200 -4.0769 -2.4953 0.0332 0 8
-74.8452 -5.2745 -2.4953 0.0332 0 8
-74.7513 -6.4707 -2.4953 0.0332 0 8
-74.6382 -7.6653 -2.4953 0.0332 0 8
-74.5061 -8.8579 -2.4953 0.0332 0 8
-74.3549 -10.0482 -2.4953 0.0332 0 8
-74.1847 -11.2360 -2.4953 0.0332 0 8
-73.9955 -12.4209 -2.4953 0.0332 0 8
-73.7875 -13.6026 -2.4953 0.0332 0 8
-73.5605 -14.7808 -2.4953 0.0332 0 8
-73.3147 -15.9553 -2.4953 0.0332 0 8
-73.0502 -17.1257 -2.4953 0.0332 0 8
-72.7670 -18.2916 -2.4953 0.0332 0 8
-72.4652 -19.4530 -2.4953 0.0332 0 8
-72.1448 -20.6093 -2.4953 0.0332 0 8
-71.8060 -21.7604 -2.4953 0.0332 0 8
-71.4489 -22.9058 -2.4953 0.0332 0 8
-71.0734 -24.0455 -2.4953 0.0332 0 8
-70.6798 -25.1790 -2.4953 0.0332 0 8
-70.2681 -26.3061 -2.4953 0.0332 0 8
-69.8385 -27.4264 -2.4953 0.0332 0 8
-69.3910 -28.5397 -2.4953 0.0332 0 8
-68.9257 -29.6457 -2.4953 0.0332 0 8
-68.4428 -30.7442 -2.4953 0.0332 0 8
-67.9424 -31.8347 -2.4953 0.0332 0 8
-67.4247 -32.9171 -2.4953 0.0332 0 8
-66.8895 -33.9911 -2.4953 0.0332 0 8
-66.3375 -35.0565 -2.4953 0.0332 0 8
-65.7684 -36.1128 -2.4953 0.0332 0 8
-65.1825 -37.1600 -2.4953 0.0332 0 8
-64.5799 -38.1976 -2.4953 0.0332 0 8
-63.9608 -39.2254 -2.4953 0.0332 0 8
-63.3254 -40.2432 -2.4953 0.0332 0 8
-62.6737 -41.2508 -2.4953 0.0332 0 8
-62.0060 -42.2477 -2.4953 0.0332 0 8
-61.3225 -43.2339 -2.4953 0.0332 0 8
-60.6233 -44.2090 -2.4953 0.0332 0 8
-59.9085 -45.1728 -2.4953 0.0332 0 8
-59.1786 -46.1250 -2.4953 0.0332 0 8
-58.4334 -47.0655 -2.4953 0.0332 0 8
-57.6732 -47.9939 -2.4953 0.0332 0 8
-56.8983 -48.9101 -2.4953 0.0332 0 8
-59.4624 -52.7910 -2.6444 0.0319 0 8
-58.6829 -53.8015 -2.6477 0.0332 0 7
-57.8151 -54.7330 -2.6477 0.0332 0 7
-56.9325 -55.6505 -2.6477 0.0332 0 7
-56.0352 -56.5539 -2.6477 0.0332 0 7
-55.1237 -57.4427 -2.6477 0.0332 0 7
-54.1980 -58.3169 -2.6477 0.0332 0 7
-53.2586 -59.1761 -2.6477 0.0332 0 7
-52.3054 -60.0202 -2.6477 0.0332 0 7
-51.3389 -60.8490 -2.6477 0.0332 0 7
-50.3592 -61.6622 -2.6477 0.0332 0 7
-49.3667 -62.4597 -2.6477 0.0332 0 7
-48.3616 -63.2411 -2.6477 0.0332 0 7
-47.3441 -64.0064 -2.6477 0.0332 0 7
-46.3145 -64.7553 -2.6477 0.0332 0 7
-45.2731 -65.4877 -2.6477 0.0332 0 7
-44.2200 -66.2033 -2.6477 0.0332 0 7
-43.1557 -66.9020 -2.6477 0.0332 0 7
-42.0803 -67.5835 -2.6477 0.0332 0 7
-40.9941 -68.2478 -2.6477 0.0332 0 7
-39.8975 -68.8947 -2.6477 0.0332 0 7
-38.7907 -69.5239 -2.6477 0.0332 0 7
-37.6739 -70.1353 -2.6477 0.0332 0 7
-36.5475 -70.7288 -2.6477 0.0332 0 7
-35.4118 -71.3042 -2.6477 0.0332 0 7
-34.2670 -71.8614 -2.6477 0.0332 0 7
-33.0684 -72.3018 -2.6441 0.0486 0 8
-31.7790 -72.5269 -2.6334 0.9020 0 8
-30.4013 -72.5160 -2.6150 0.9084 0 8
-29.0424 -72.5050 -2.5975 0.9145 0 8
-27.7012 -72.4942 -2.5809 0.9203 0 8
-26.3766 -72.4833 -2.5652 0.9260 0 8
-59.9972 -1.3429 -2.4953 0.0415 0 8
-59.9681 -2.3022 -2.4953 0.0415 0 8
-59.9236 -3.2609 -2.4953 0.0415 0 8
-59.8638 -4.2187 -2.4953 0.0415 0 8
-59.7887 -5.1755 -2.4953 0.0415 0 8
-59.6983 -6.1309 -2.4953 0.0415 0 8
-59.5926 -7.0848 -2.4953 0.0415 0 8
-59.4717 -8.0369 -2.4953 0.0415 0 8
-59.3356 -8.9869 -2.4953 0.0415 0 8
-59.1842 -9.9346 -2.4953 0.0415 0 8
-59.0178 -10.8798 -2.4953 0.0415 0 8
-58.8363 -11.8222 -2.4953 0.0415 0 8
-58.6397 -12.7616 -2.4953 0.0415 0 8
-58.4281 -13.6977 -2.4953 0.0415 0 8
-58.2016 -14.6303 -2.4953 0.0415 0 8
-57.9602 -15.5592 -2.4953 0.0415 0 8
-57.7040 -16.4840 -2.4953 0.0415 0 8
-57.4330 -17.4047 -2.4953 0.0415 0 8
-57.1473 -18.3209 -2.4953 0.0415 0 8
-56.8470 -19.2324 -2.4953 0.0415 0 8
-56.5499 -20.1453 -2.4961 0.6968 0 8
-56.5340 -21.1645 -2.5100 0.9302 0 8
-56.5235 -22.1974 -2.5249 0.9247 0 8
-56.5126 -23.2430 -2.5407 0.9189 0 8
-56.5016 -24.3020 -2.5574 0.9130 0 8
-56.4902 -25.3751 -2.5749 0.9067 0 8
-56.4786 -26.4633 -2.5933 0.9003 0 8
-56.4667 -27.5674 -2.6127 0.8936 0 8
-56.4545 -28.6883 -2.6330 0.8867 0 8
-56.2192 -29.7094 -2.6439 0.0566 0 8
-55.8167 -30.6484 -2.6477 0.0415 0 7
-55.3194 -31.5371 -2.6477 0.0415 0 7
-54.8080 -32.4177 -2.6477 0.0415 0 7
-54.2826 -33.2901 -2.6477 0.0415 0 7
-53.7433 -34.1539 -2.6477 0.0415 0 7
-53.1903 -35.0089 -2.6477 0.0415 0 7
-52.6236 -35.8550 -2.6477 0.0415 0 7
-52.0435 -36.6920 -2.6477 0.0415 0 7
-51.4501 -37.5195 -2.6477 0.0415 0 7
-50.8435 -38.3375 -2.6477 0.0415 0 7
-50.2240 -39.1457 -2.6477 0.0415 0 7
-49.5916 -39.9438 -2.6477 0.0415 0 7
-48.9464 -40.7317 -2.6477 0.0415 0 7
-48.2888 -41.5093 -2.6477 0.0415 0 7
-47.6188 -42.2762 -2.6477 0.0415 0 7
-46.9367 -43.0323 -2.6477 0.0415 0 7
-46.2426 -43.7774 -2.6477 0.0415 0 7
-45.5366 -44.5112 -2.6477 0.0415 0 7
-44.8190 -45.2338 -2.6477 0.0415 0 7
-44.0898 -45.9447 -2.6477 0.0415 0 7
-43.3495 -46.6439 -2.6477 0.0415 0 7
-42.5981 -47.3311 -2.6477 0.0415 0 6
-41.8357 -48.0063 -2.6477 0.0415 0 6
-41.0627 -48.6692 -2.6477 0.0415 0 7
-40.2791 -49.3196 -2.6477 0.0415 0 7
-39.4852 -49.9574 -2.6477 0.0415 0 7
-36.4548 -47.6709 -2.4953 0.0415 0 8
-35.6878 -48.2478 -2.4953 0.0415 0 8
-34.9117 -48.8123 -2.4953 0.0415 0 8
-34.1267 -49.3644 -2.4953 0.0415 0 8
-33.3329 -49.9038 -2.4953 0.0415 0 8
-32.5306 -50.4305 -2.4953 0.0415 0 8
-31.7200 -50.9442 -2.4953 0.0415 0 8
-30.9012 -51.4450 -2.4953 0.0415 0 8
-30.0746 -51.9326 -2.4953 0.0415 0 8
-29.2403 -52.4068 -2.4953 0.0415 0 8
-28.3984 -52.8678 -2.4953 0.0415 0 8
-27.5494 -53.3151 -2.4953 0.0415 0 8
-28.3236 -57.0316 -2.6477 0.0415 0 7
-27.4080 -57.4772 -2.6477 0.0415 0 7
-26.4853 -57.9082 -2.6477 0.0415 0 7
-25.5559 -58.3243 -2.6477 0.0415 0 7
-24.6199 -58.7256 -2.6477 0.0415 0 7
-23.6776 -59.1118 -2.6477 0.0415 0 7
-22.7297 -59.4828 -2.6477 0.0415 0 7
-21.7752 -59.8387 -2.6477 0.0415 0 7
-53.0378 -1.1871 -2.6477 0.0498 0 7
-53.0121 -2.0351 -2.6477 0.0498 0 7
-52.9727 -2.8826 -2.6477 0.0498 0 7
-52.9199 -3.7294 -2.6477 0.0498 0 7
-52.8534 -4.5752 -2.6477 0.0498 0 7
-52.7735 -5.4198 -2.6477 0.0498 0 7
-52.6801 -6.2630 -2.6477 0.0498 0 7
-52.5732 -7.1047 -2.6477 0.0498 0 7
-52.4529 -7.9445 -2.6477 0.0498 0 7
-52.3191 -8.7823 -2.6477 0.0498 0 7
-52.1720 -9.6178 -2.6477 0.0498 0 7
-52.0115 -10.4509 -2.6477 0.0498 0 7
-51.8377 -11.2813 -2.6477 0.0498 0 7
-51.6507 -12.1088 -2.6477 0.0498 0 7
-51.4505 -12.9333 -2.6477 0.0498 0 7
-51.2371 -13.7544 -2.6477 0.0498 0 7
-51.0106 -14.5719 -2.6477 0.0498 0 7
-50.7710 -15.3858 -2.6477 0.0498 0 7
-50.5185 -16.1958 -2.6477 0.0498 0 7
-50.2530 -17.0016 -2.6477 0.0498 0 7
-49.9747 -17.8030 -2.6477 0.0498 0 7
-49.6836 -18.5999 -2.6477 0.0498 0 7
-49.3798 -19.3920 -2.6477 0.0498 0 7
-49.0634 -20.1792 -2.6477 0.0498 0 7
-48.7344 -20.9612 -2.6477 0.0498 0 7
-48.3930 -21.7379 -2.6477 0.0498 0 7
-48.0392 -22.5090 -2.6477 0.0498 0 7
-47.6731 -23.2743 -2.6477 0.0498 0 7
-47.2948 -24.0337 -2.6477 0.0498 0 7
-46.9044 -24.7869 -2.6477 0.0498 0 6
-46.5021 -25.5339 -2.6477 0.0498 0 7
-46.0878 -26.2742 -2.6477 0.0498 0 7
-45.6617 -27.0079 -2.6477 0.0498 0 7
-45.2240 -27.7346 -2.6477 0.0498 0 7
-44.7747 -28.4543 -2.6477 0.0498 0 7
-44.3139 -29.1667 -2.6477 0.0498 0 7
-43.8419 -29.8716 -2.6477 0.0498 0 7
-43.3585 -30.5689 -2.6477 0.0498 0 7
-42.8642 -31.2583 -2.6477 0.0498 0 7
-42.3588 -31.9398 -2.6477 0.0498 0 7
-41.8427 -32.6131 -2.6477 0.0498 0 7
-41.3158 -33.2780 -2.6477 0.0498 0 7
-40.7783 -33.9345 -2.6477 0.0498 0 7
-40.2304 -34.5823 -2.6477 0.0498 0 7
-37.3887 -33.1939 -2.4953 0.0498 0 8
-36.8531 -33.7875 -2.4953 0.0498 0 8
-36.3081 -34.3725 -2.4953 0.0498 0 8
-35.7538 -34.9487 -2.4953 0.0498 0 8
-35.1903 -35.5160 -2.4953 0.0498 0 8
-34.6179 -36.0742 -2.4953 0.0498 0 8
-34.0366 -36.6232 -2.4953 0.0498 0 8
-33.4466 -37.1628 -2.4953 0.0498 0 8
-32.8480 -37.6929 -2.4953 0.0498 0 8
-32.2410 -38.2134 -2.4953 0.0498 0 8
-31.6258 -38.7241 -2.4953 0.0498 0 8
-31.0025 -39.2249 -2.4953 0.0498 0 8
-30.3713 -39.7157 -2.4953 0.0498 0 8
-29.7323 -40.1963 -2.4953 0.0498 0 8
-29.0857 -40.6666 -2.4953 0.0498 0 8
-28.4316 -41.1265 -2.4953 0.0498 0 8
-27.7703 -41.5759 -2.4953 0.0498 0 8
-27.1019 -42.0147 -2.4953 0.0498 0 8
-26.4266 -42.4427 -2.4953 0.0498 0 8
-25.7445 -42.8599 -2.4953 0.0498 0 8
-25.0558 -43.2661 -2.4953 0.0498 0 8
-24.3607 -43.6612 -2.4953 0.0498 0 8
-23.6593 -44.0452 -2.4953 0.0498 0 8
-22.9520 -44.4180 -2.4953 0.0498 0 8
-22.2387 -44.7793 -2.4953 0.0498 0 8
-21.5198 -45.1292 -2.4953 0.0498 0 22
-20.7954 -45.4676 -2.4953 0.0498 0 22
-20.0656 -45.7943 -2.4953 0.0498 0 22
-19.3307 -46.1093 -2.4953 0.0498 0 22
-18.5909 -46.4126 -2.4953 0.0498 0 22
-17.8463 -46.7039 -2.4953 0.0498 0 22
-17.0972 -46.9833 -2.4953 0.0498 0 22
-45.4474 -1.0172 -2.6477 0.0581 0 7
-45.4253 -1.7439 -2.6477 0.0581 0 7
-45.3916 -2.4701 -2.6477 0.0581 0 7
-45.3463 -3.1956 -2.6477 0.0581 0 7
-45.2894 -3.9204 -2.6477 0.0581 0 7
-45.2209 -4.6441 -2.6477 0.0581 0 7
-45.1409 -5.3667 -2.6477 0.0581 0 7
-45.0493 -6.0879 -2.6477 0.0581 0 7
-44.9462 -6.8075 -2.6477 0.0581 0 7
-44.8316 -7.5254 -2.6477 0.0581 0 7
-44.7055 -8.2414 -2.6477 0.0581 0 7
-44.5680 -8.9552 -2.6477 0.0581 0 7
-44.4191 -9.6668 -2.6477 0.0581 0 7
-44.2588 -10.3759 -2.6477 0.0581 0 7
-44.0872 -11.0823 -2.6477 0.0581 0 7
-43.9044 -11.7859 -2.6477 0.0581 0 7
-43.7103 -12.4865 -2.6477 0.0581 0 7
-43.5050 -13.1839 -2.6477 0.0581 0 7
-43.2886 -13.8779 -2.6477 0.0581 0 7
-43.0612 -14.5684 -2.6477 0.0581 0 7
-42.8227 -15.2552 -2.6477 0.0581 0 7
-42.5732 -15.9380 -2.6477 0.0581 0 7
-42.3129 -16.6168 -2.6477 0.0581 0 7
-42.0418 -17.2913 -2.6477 0.0581 0 7
-41.7599 -17.9614 -2.6477 0.0581 0 7
-41.4673 -18.6269 -2.6477 0.0581 0 7
-41.1642 -19.2876 -2.6477 0.0581 0 7
-40.8505 -19.9434 -2.6477 0.0581 0 7
-40.5263 -20.5942 -2.6477 0.0581 0 7
-40.1918 -21.2396 -2.6477 0.0581 0 7
-37.5534 -20.6202 -2.4953 0.0581 0 8
-37.2189 -21.2181 -2.4953 0.0581 0 8
-36.8748 -21.8106 -2.4953 0.0581 0 8
-36.5213 -22.3975 -2.4953 0.0581 0 8
-36.1584 -22.9787 -2.4953 0.0581 0 8
-35.7864 -23.5540 -2.4953 0.0581 0 8
-35.4051 -24.1232 -2.4953 0.0581 0 8
-35.0148 -24.6863 -2.4953 0.0581 0 8
-34.6156 -25.2431 -2.4953 0.0581 0 8
-34.2075 -25.7934 -2.4953 0.0581 0 8
-33.7906 -26.3371 -2.4953 0.0581 0 8
-33.3651 -26.8741 -2.4953 0.0581 0 8
-32.9311 -27.4043 -2.4953 0.0581 0 8
-32.4886 -27.9274 -2.4953 0.0581 0 8
-32.0379 -28.4434 -2.4953 0.0581 0 8
-31.5789 -28.9521 -2.4953 0.0581 0 8
-31.1119 -29.4534 -2.4953 0.0581 0 8
-30.6369 -29.9358 -2.4953 0.0582 0 8
-30.1541 -30.4332 -2.4953 0.0581 0 8
-29.6636 -30.9115 -2.4953 0.0581 0 8
-29.1655 -31.3820 -2.4953 0.0581 0 8
-28.6599 -31.8443 -2.4953 0.0581 0 8
-28.1470 -32.2986 -2.4953 0.0581 0 8
-27.6269 -32.7446 -2.4953 0.0581 0 8
-27.0997 -33.1822 -2.4953 0.0581 0 8
-26.5656 -33.6113 -2.4953 0.0581 0 8
-26.0247 -34.0318 -2.4953 0.0581 0 8
-25.4772 -34.4437 -2.4953 0.0581 0 8
-24.9231 -34.8467 -2.4953 0.0581 0 8
-24.3627 -35.2408 -2.4953 0.0581 0 8
-23.7960 -35.6259 -2.4953 0.0581 0 8
-23.2233 -36.0018 -2.4953 0.0581 0 8
-22.6446 -36.3686 -2.4953 0.0581 0 8
-22.0601 -36.7261 -2.4953 0.0581 0 8
-21.4700 -37.0742 -2.4953 0.0581 0 8
-20.8743 -37.4128 -2.4953 0.0581 0 8
-20.2734 -37.7418 -2.4953 0.0581 0 8
-19.6672 -38.0612 -2.4953 0.0581 0 8
-19.0561 -38.3708 -2.4953 0.0581 0 8
-18.4400 -38.6706 -2.4953 0.0581 0 8
-17.8193 -38.9606 -2.4953 0.0581 0 8
-17.1939 -39.2405 -2.4953 0.0581 0 8
-16.5642 -39.5105 -2.4953 0.0581 0 8
-15.9303 -39.7703 -2.4953 0.0581 0 8
-15.2923 -40.0200 -2.4953 0.0581 0 8
-14.6503 -40.2594 -2.4953 0.0581 0 8
-37.4645 -0.8386 -2.4953 0.0664 0 8
-37.4463 -1.4376 -2.4953 0.0664 0 8
-37.4185 -2.0362 -2.4953 0.0664 0 8
-37.3812 -2.6343 -2.4953 0.0664 0 8
-37.3343 -3.2318 -2.4953 0.0664 0 8
-37.2778 -3.8284 -2.4953 0.0664 0 8
-37.2118 -4.4240 -2.4953 0.0664 0 8
-37.1363 -5.0185 -2.4953 0.0664 0 8
-37.0513 -5.6118 -2.4953 0.0664 0 8
-36.9569 -6.2036 -2.4953 0.0664 0 8
-36.8529 -6.7938 -2.4953 0.0664 0 8
-36.7396 -7.3822 -2.4953 0.0664 0 8
-36.6168 -7.9688 -2.4953 0.0664 0 8
-36.4847 -8.5534 -2.4953 0.0664 0 8
-36.3433 -9.1357 -2.4953 0.0664 0 8
-36.1925 -9.7157 -2.4953 0.0664 0 8
-36.0325 -10.2932 -2.4953 0.0664 0 8
-35.8633 -10.8682 -2.4953 0.0664 0 8
-35.6849 -11.4403 -2.4953 0.0664 0 8
-35.4974 -12.0095 -2.4953 0.0664 0 8
-35.3008 -12.5756 -2.4953 0.0664 0 8
-35.0952 -13.1385 -2.4953 0.0664 0 8
-34.8806 -13.6980 -2.4953 0.0664 0 8
-34.6571 -14.2540 -2.4953 0.0664 0 8
-34.4247 -14.8065 -2.4953 0.0664 0 8
-34.1836 -15.3551 -2.4953 0.0664 0 8
-33.9336 -15.8997 -2.4953 0.0664 0 8
-33.6750 -16.4404 -2.4953 0.0664 0 8
-33.4078 -16.9768 -2.4953 0.0664 0 8
-33.1321 -17.5089 -2.4953 0.0664 0 8
-32.8478 -18.0364 -2.4953 0.0664 0 8
-32.5552 -18.5594 -2.4953 0.0664 0 8
-32.2542 -19.0777 -2.4953 0.0664 0 8
-31.9450 -19.5910 -2.4953 0.0664 0 8
-31.6277 -20.0994 -2.4953 0.0664 0 8
-31.3022 -20.6035 -2.4953 0.0664 0 8
-30.9687 -21.1005 -2.4953 0.0664 0 8
-30.6273 -21.5931 -2.4953 0.0664 0 8
-30.2781 -22.0800 -2.4953 0.0664 0 8
-29.9212 -22.5614 -2.4953 0.0664 0 8
-29.5565 -23.0370 -2.4953 0.0664 0 8
-29.1844 -23.5067 -2.4953 0.0664 0 8
-28.8047 -23.9704 -2.4953 0.0664 0 8
-28.4177 -24.4280 -2.4953 0.0664 0 8
-28.0234 -24.8793 -2.4953 0.0664 0 8
-27.6220 -25.3243 -2.4953 0.0664 0 8
-27.2135 -25.7627 -2.4953 0.0664 0 8
-26.7980 -26.1946 -2.4953 0.0664 0 8
-26.3757 -26.6198 -2.4953 0.0664 0 8
-25.9466 -27.0382 -2.4953 0.0664 0 8
-25.5110 -27.4497 -2.4953 0.0664 0 8
-25.0687 -27.8541 -2.4953 0.0664 0 8
-24.6201 -28.2515 -2.4953 0.0664 0 8
-24.1652 -28.6415 -2.4953 0.0664 0 8
-23.7040 -29.0243 -2.4953 0.0664 0 8
-23.2369 -29.3997 -2.4953 0.0664 0 8
-22.7637 -29.7675 -2.4953 0.0664 0 8
-22.2848 -30.1277 -2.4953 0.0664 0 8
-21.8002 -30.4802 -2.4953 0.0664 0 8
-21.3100 -30.8250 -2.4953 0.0664 0 8
-20.8143 -31.1618 -2.4953 0.0664 0 8
-20.3133 -31.4907 -2.4953 0.0664 0 8
-19.8071 -31.8115 -2.4953 0.0664 0 8
-19.2959 -32.1242 -2.4953 0.0664 0 8
-18.7797 -32.4286 -2.4953 0.0664 0 8
-18.2587 -32.7248 -2.4953 0.0664 0 8
-17.7331 -33.0126 -2.4953 0.0664 0 8
-17.2029 -33.2920 -2.4953 0.0664 0 8
-16.6683 -33.5628 -2.4953 0.0664 0 8
-16.1294 -33.8251 -2.4953 0.0664 0 8
-15.5865 -34.0787 -2.4953 0.0664 0 8
-15.0395 -34.3236 -2.4953 0.0664 0 8
-14.4887 -34.5597 -2.4953 0.0664 0 8
-13.9342 -34.7870 -2.4953 0.0664 0 8
-13.3761 -35.0053 -2.4953 0.0664 0 8
-12.8146 -35.2148 -2.4953 0.0664 0 8
-33.2888 -0.7451 -2.4953 0.0747 0 8
-33.2726 -1.2773 -2.4953 0.0747 0 8
-33.2479 -1.8093 -2.4953 0.0747 0 8
-33.2147 -2.3407 -2.4953 0.0747 0 8
-33.1730 -2.8716 -2.4953 0.0747 0 8
-33.1229 -3.4017 -2.4953 0.0747 0 8
-33.0642 -3.9309 -2.4953 0.0747 0 8
-32.9972 -4.4592 -2.4953 0.0747 0 8
-32.9216 -4.9863 -2.4953 0.0747 0 8
-32.8377 -5.5121 -2.4953 0.0747 0 8
-32.7453 -6.0366 -2.4953 0.0747 0 8
-32.6446 -6.5594 -2.4953 0.0747 0 8
-32.5355 -7.0806 -2.4953 0.0747 0 8
-32.4181 -7.6000 -2.4953 0.0747 0 8
-32.2925 -8.1174 -2.4953 0.0747 0 8
-32.1585 -8.6328 -2.4953 0.0747 0 8
-32.0164 -9.1460 -2.4953 0.0747 0 8
-31.8660 -9.6568 -2.4953 0.0747 0 8
-31.7075 -10.1651 -2.4953 0.0747 0 8
-31.5409 -10.6709 -2.4953 0.0747 0 8
-31.3663 -11.1741 -2.4953 0.0747 0 8
-31.1835 -11.6739 -2.4953 0.0747 0 8
-30.9929 -12.1712 -2.4953 0.0747 0 8
-30.7943 -12.6653 -2.4953 0.0747 0 8
-30.5878 -13.1561 -2.4953 0.0747 0 8
-30.3735 -13.6436 -2.4953 0.0747 0 8
-30.1515 -14.1276 -2.4953 0.0747 0 8
-29.9216 -14.6079 -2.4953 0.0747 0 8
-29.6842 -15.0815 -2.4953 0.0747 0 8
-29.4392 -15.5574 -2.4953 0.0747 0 8
-29.1866 -16.0261 -2.4953 0.0747 0 8
-28.9266 -16.4908 -2.4953 0.0747 0 8
-28.6592 -16.9513 -2.4953 0.0747 0 8
-28.3845 -17.4074 -2.4953 0.0747 0 8
-28.1025 -17.8591 -2.4953 0.0747 0 8
-27.8133 -18.3062 -2.4953 0.0747 0 8
-27.5170 -18.7487 -2.4953 0.0747 0 8
-27.2136 -19.1863 -2.4953 0.0747 0 8
-26.9034 -19.6191 -2.4953 0.0747 0 8
-26.5862 -20.0467 -2.4953 0.0747 0 8
-26.2622 -20.4693 -2.4953 0.0747 0 8
-25.9315 -20.8867 -2.4953 0.0747 0 8
-25.5942 -21.2987 -2.4953 0.0747 0 8
-25.2503 -21.7053 -2.4953 0.0747 0 8
-24.9000 -22.1063 -2.4953 0.0747 0 8
-24.5433 -22.5017 -2.4953 0.0747 0 8
-24.1803 -22.8913 -2.4953 0.0747 0 8
-23.8112 -23.2750 -2.4953 0.0747 0 8
-23.4359 -23.6528 -2.4953 0.0747 0 8
-23.0547 -24.0246 -2.4953 0.0747 0 8
-22.6675 -24.3902 -2.4953 0.0747 0 8
-22.2746 -24.7495 -2.4953 0.0747 0 8
-21.8760 -25.1026 -2.4953 0.0747 0 8
-21.4717 -25.4492 -2.4953 0.0747 0 8
-21.0620 -25.7893 -2.4953 0.0747 0 8
-20.6469 -26.1228 -2.4953 0.0747 0 8
-20.2265 -26.4497 -2.4953 0.0747 0 8
-19.8010 -26.7697 -2.4953 0.0747 0 8
-19.3704 -27.0829 -2.4953 0.0747 0 8
-18.9348 -27.3892 -2.4953 0.0747 0 8
-18.4944 -27.6885 -2.4953 0.0747 0 8
-18.0492 -27.9808 -2.4953 0.0747 0 8
-17.5995 -28.2658 -2.4953 0.0747 0 8
-17.1452 -28.5436 -2.4953 0.0747 0 8
-16.6865 -28.8142 -2.4953 0.0747 0 8
-16.2236 -29.0773 -2.4953 0.0747 0 8
-15.7565 -29.3331 -2.4953 0.0747 0 8
-15.2855 -29.5813 -2.4953 0.0747 0 8
-14.8104 -29.8219 -2.4953 0.0747 0 8
-14.3317 -30.0550 -2.4953 0.0747 0 8
-13.8492 -30.2803 -2.4953 0.0747 0 8
-13.3632 -30.4979 -2.4953 0.0747 0 8
-12.8738 -30.7077 -2.4953 0.0747 0 8
-12.3811 -30.9096 -2.4953 0.0747 0 8
-11.8852 -31.1037 -2.4953 0.0747 0 8
-11.3863 -31.2898 -2.4953 0.0747 0 8
-29.9467 -0.6703 -2.4953 0.0830 0 8
-29.9322 -1.1491 -2.4953 0.0830 0 8
-29.9100 -1.6276 -2.4953 0.0830 0 8
-29.8801 -2.1057 -2.4953 0.0830 0 8
-29.8426 -2.5833 -2.4953 0.0830 0 8
-29.7975 -3.0602 -2.4953 0.0830 0 8
-29.7447 -3.5363 -2.4953 0.0830 0 8
-29.6844 -4.0115 -2.4953 0.0830 0 8
-29.6164 -4.4857 -2.4953 0.0830 0 8
-29.5409 -4.9587 -2.4953 0.0830 0 8
-29.4578 -5.4305 -2.4953 0.0830 0 8
-29.3672 -5.9009 -2.4953 0.0830 0 8
-29.2691 -6.3698 -2.4953 0.0830 0 8
-29.1635 -6.8370 -2.4953 0.0830 0 8
-29.0505 -7.3025 -2.4953 0.0830 0 8
-28.9300 -7.7661 -2.4953 0.0830 0 8
-28.8021 -8.2277 -2.4953 0.0830 0 8
-28.6668 -8.6873 -2.4953 0.0830 0 8
-28.5242 -9.1446 -2.4953 0.0830 0 8
-28.3743 -9.5996 -2.4953 0.0830 0 8
-28.2172 -10.0521 -2.4953 0.0830 0 8
-28.0528 -10.5021 -2.4953 0.0830 0 8
-27.8813 -10.9493 -2.4953 0.0830 0 8
-27.7027 -11.3938 -2.4953 0.0830 0 8
-27.5169 -11.8353 -2.4953 0.0830 0 8
-27.3241 -12.2738 -2.4953 0.0830 0 8
-27.1244 -12.7092 -2.4953 0.0830 0 8
-26.9177 -13.1414 -2.4953 0.0830 0 8
-26.7041 -13.5701 -2.4953 0.0830 0 8
-26.4836 -13.9954 -2.4953 0.0830 0 8
-26.2564 -14.4172 -2.4953 0.0830 0 8
-26.0225 -14.8352 -2.4953 0.0830 0 8
-25.7820 -15.2495 -2.4953 0.0830 0 8
-25.5348 -15.6598 -2.4953 0.0830 0 8
-25.2811 -16.0661 -2.4953 0.0830 0 8
-25.0209 -16.4684 -2.4953 0.0830 0 8
-24.7544 -16.8664 -2.4953 0.0830 0 8
-24.4815 -17.2601 -2.4953 0.0830 0 8
-24.2024 -17.6494 -2.4953 0.0830 0 8
-23.9170 -18.0341 -2.4953 0.0830 0 8
-23.6256 -18.4143 -2.4953 0.0830 0 8
-23.3281 -18.7898 -2.4953 0.0830 0 8
-23.0246 -19.1604 -2.4953 0.0830 0 8
-22.7153 -19.5262 -2.4953 0.0830 0 8
-22.4001 -19.8869 -2.4953 0.0830 0 8
-22.0792 -20.2426 -2.4953 0.0830 0 8
-21.7527 -20.5931 -2.4953 0.0830 0 8
-21.4206 -20.9383 -2.4953 0.0830 0 8
-21.0830 -21.2782 -2.4953 0.0830 0 8
-20.7401 -21.6126 -2.4953 0.0830 0 8
-20.3918 -21.9415 -2.4953 0.0830 0 8
-20.0383 -22.2648 -2.4953 0.0830 0 8
-19.6797 -22.5824 -2.4953 0.0830 0 8
-19.3161 -22.8942 -2.4953 0.0830 0 8
-18.9475 -23.2002 -2.4953 0.0830 0 8
-18.5740 -23.5002 -2.4953 0.0830 0 8
-18.1959 -23.7942 -2.4953 0.0830 0 8
-17.8131 -24.0821 -2.4953 0.0830 0 8
-17.4256 -24.3639 -2.4953 0.0830 0 8
-17.0338 -24.6395 -2.4953 0.0830 0 8
-16.6376 -24.9087 -2.4953 0.0830 0 8
-16.2372 -25.1716 -2.4953 0.0830 0 8
-15.8325 -25.4280 -2.4953 0.0830 0 8
-15.4239 -25.6780 -2.4953 0.0830 0 8
-15.0113 -25.9214 -2.4953 0.0830 0 8
-14.5948 -26.1581 -2.4953 0.0830 0 8
-14.1747 -26.3881 -2.4953 0.0830 0 8
-13.7509 -26.6114 -2.4953 0.0830 0 8
-13.3235 -26.8279 -2.4953 0.0830 0 8
-12.8928 -27.0376 -2.4953 0.0830 0 8
-12.4588 -27.2403 -2.4953 0.0830 0 8
-12.0216 -27.4360 -2.4953 0.0830 0 8
-11.5813 -27.6248 -2.4953 0.0830 0 8
-11.1381 -27.8064 -2.4953 0.0830 0 8
-10.6920 -27.9810 -2.4953 0.0830 0 8
-10.2432 -28.1484 -2.4953 0.0830 0 8
-27.2111 -0.6091 -2.4953 0.0913 0 8
-27.1979 -1.0441 -2.4953 0.0913 0 8
-27.1777 -1.4789 -2.4953 0.0913 0 8
-27.1506 -1.9133 -2.4953 0.0913 0 8
-27.1165 -2.3473 -2.4953 0.0913 0 8
-27.0755 -2.7806 -2.4953 0.0913 0 8
-27.0276 -3.2133 -2.4953 0.0913 0 8
-26.9727 -3.6450 -2.4953 0.0913 0 8
-26.9110 -4.0759 -2.4953 0.0913 0 8
-26.8424 -4.5057 -2.4953 0.0913 0 8
-26.7669 -4.9344 -2.4953 0.0913 0 8
-26.6846 -5.3618 -2.4953 0.0913 0 8
-26.5954 -5.7879 -2.4953 0.0913 0 8
-26.4994 -6.2124 -2.4953 0.0913 0 8
-26.3967 -6.6354 -2.4953 0.0913 0 8
-26.2872 -7.0567 -2.4953 0.0913 0 8
-26.1710 -7.4761 -2.4953 0.0913 0 8
-26.0481 -7.8937 -2.4953 0.0913 0 8
-25.9185 -8.3092 -2.4953 0.0913 0 8
-25.7824 -8.7227 -2.4953 0.0913 0 8
-25.6396 -9.1338 -2.4953 0.0913 0 8
-25.4902 -9.5427 -2.4953 0.0913 0 8
-25.3344 -9.9491 -2.4953 0.0913 0 8
-25.1720 -10.3529 -2.4953 0.0913 0 8
-25.0033 -10.7542 -2.4953 0.0913 0 8
-24.8281 -11.1526 -2.4953 0.0913 0 8
-24.6466 -11.5482 -2.4953 0.0913 0 8
-24.4587 -11.9409 -2.4953 0.0913 0 8
-24.2646 -12.3305 -2.4953 0.0913 0 8
-24.0644 -12.7170 -2.4953 0.0913 0 8
-23.8579 -13.1002 -2.4953 0.0913 0 8
-23.6454 -13.4800 -2.4953 0.0913 0 8
-23.4268 -13.8564 -2.4953 0.0913 0 8
-23.2022 -14.2293 -2.4953 0.0913 0 8
-22.9717 -14.5985 -2.4953 0.0913 0 8
-22.7353 -14.9640 -2.4953 0.0913 0 8
-22.4931 -15.3256 -2.4953 0.0913 0 8
-22.2451 -15.6834 -2.4953 0.0913 0 8
-21.9915 -16.0371 -2.4953 0.0913 0 8
-21.7322 -16.3867 -2.4953 0.0913 0 8
-21.4674 -16.7322 -2.4953 0.0913 0 8
-21.1971 -17.0733 -2.4953 0.0913 0 8
-20.9214 -17.4101 -2.4953 0.0913 0 8
-20.6403 -17.7425 -2.4953 0.0913 0 8
-20.3539 -18.0703 -2.4953 0.0913 0 8
-20.0623 -18.3934 -2.4953 0.0913 0 8
-19.7656 -18.7119 -2.4953 0.0913 0 8
-19.4639 -19.0256 -2.4953 0.0913 0 8
-19.1571 -19.3344 -2.4953 0.0913 0 8
-18.8455 -19.6383 -2.4953 0.0913 0 8
-18.5290 -19.9372 -2.4953 0.0913 0 8
-18.2078 -20.2309 -2.4953 0.0913 0 8
-17.8820 -20.5195 -2.4953 0.0913 0 8
-17.5516 -20.8028 -2.4953 0.0913 0 8
-17.2168 -21.0803 -2.4953 0.0913 0 8
-16.8773 -21.3535 -2.4953 0.0913 0 8
-16.5337 -21.6206 -2.4953 0.0913 0 8
-16.1858 -21.8823 -2.4953 0.0913 0 8
-15.8338 -22.1383 -2.4953 0.0913 0 8
-15.4778 -22.3887 -2.4953 0.0913 0 8
-15.1178 -22.6333 -2.4953 0.0913 0 8
-14.7539 -22.8722 -2.4953 0.0913 0 8
-14.3862 -23.1052 -2.4953 0.0913 0 8
-14.0149 -23.3323 -2.4953 0.0913 0 8
-13.6400 -23.5535 -2.4953 0.0913 0 8
-13.2616 -23.7686 -2.4953 0.0913 0 8
-12.8798 -23.9776 -2.4953 0.0913 0 8
-12.4947 -24.1805 -2.4953 0.0913 0 8
-12.1064 -24.3772 -2.4953 0.0913 0 8
-11.7151 -24.5677 -2.4953 0.0913 0 8
-11.3207 -24.7519 -2.4953 0.0913 0 8
-10.9234 -24.9298 -2.4953 0.0913 0 8
-10.5234 -25.1013 -2.4953 0.0913 0 8
-10.1206 -25.2663 -2.4953 0.0913 0 8
-9.7153 -25.4249 -2.4953 0.0913 0 8
-9.3075 -25.5771 -2.4953 0.0913 0 8
-24.9303 -0.5580 -2.4953 0.0996 0 8
-24.9181 -0.9566 -2.4953 0.0996 0 8
-24.8997 -1.3550 -2.4953 0.0996 0 8
-24.8748 -1.7530 -2.4953 0.0996 0 8
-24.8436 -2.1505 -2.4953 0.0996 0 8
-24.8060 -2.5475 -2.4953 0.0996 0 8
-24.7621 -2.9439 -2.4953 0.0996 0 8
-24.7119 -3.3395 -2.4953 0.0996 0 8
-24.6553 -3.7343 -2.4953 0.0996 0 8
-24.5924 -4.1281 -2.4953 0.0996 0 8
-24.5233 -4.5208 -2.4953 0.0996 0 8
-24.4479 -4.9124 -2.4953 0.0996 0 8
-24.3662 -5.3027 -2.4953 0.0996 0 8
-24.2783 -5.6917 -2.4953 0.0996 0 8
-24.1841 -6.0792 -2.4953 0.0996 0 8
-24.0838 -6.4652 -2.4953 0.0996 0 8
-23.9774 -6.8495 -2.4953 0.0996 0 8
-23.8647 -7.2321 -2.4953 0.0996 0 8
-23.7461 -7.6128 -2.4953 0.0996 0 8
-23.6213 -7.9915 -2.4953 0.0996 0 8
-23.4905 -8.3682 -2.4953 0.0996 0 8
-23.3536 -8.7428 -2.4953 0.0996 0 8
-23.2108 -9.1152 -2.4953 0.0996 0 8
-23.0621 -9.4852 -2.4953 0.0996 0 8
-22.9075 -9.8528 -2.4953 0.0996 0 8
-22.7470 -10.2178 -2.4953 0.0996 0 8
-22.5807 -10.5803 -2.4953 0.0996 0 8
-22.4086 -10.9400 -2.4953 0.0996 0 8
-22.2308 -11.2970 -2.4953 0.0996 0 8
-22.0473 -11.6510 -2.4953 0.0996 0 8
-21.8581 -12.0021 -2.4953 0.0996 0 8
-21.6634 -12.3501 -2.4953 0.0996 0 8
-21.4631 -12.6950 -2.4953 0.0996 0 8
-21.2574 -13.0366 -2.4953 0.0996 0 8
-21.0462 -13.3749 -2.4953 0.0996 0 8
-20.8296 -13.7097 -2.4953 0.0996 0 8
-20.6077 -14.0410 -2.4953 0.0996 0 8
-20.3805 -14.3688 -2.4953 0.0996 0 8
-20.1482 -14.6929 -2.4953 0.0996 0 8
-19.9106 -15.0132 -2.4953 0.0996 0 8
-19.6680 -15.3297 -2.4953 0.0996 0 8
-19.4203 -15.6422 -2.4953 0.0996 0 8
-19.1677 -15.9508 -2.4953 0.0996 0 8
-18.9102 -16.2553 -2.4953 0.0996 0 8
-18.6478 -16.5556 -2.4953 0.0996 0 8
-18.3807 -16.8517 -2.4953 0.0996 0 8
-18.1089 -17.1435 -2.4953 0.0996 0 8
-17.8324 -17.4309 -2.4953 0.0996 0 8
-17.5514 -17.7138 -2.4953 0.0996 0 8
-17.2659 -17.9922 -2.4953 0.0996 0 8
-16.9759 -18.2660 -2.4953 0.0996 0 8
-16.6817 -18.5351 -2.4953 0.0996 0 8
-16.3831 -18.7995 -2.4953 0.0996 0 8
-16.0804 -19.0591 -2.4953 0.0996 0 8
-15.7735 -19.3138 -2.4953 0.0996 0 8
-15.4627 -19.5636 -2.4953 0.0996 0 8
-15.1478 -19.8084 -2.4953 0.0996 0 8
-14.8291 -20.0481 -2.4953 0.0996 0 8
-14.5066 -20.2827 -2.4953 0.0996 0 8
-14.1804 -20.5121 -2.4953 0.0996 0 8
-13.8506 -20.7362 -2.4953 0.0996 0 8
-13.5172 -20.9550 -2.4953 0.0996 0 8
-13.1804 -21.1685 -2.4953 0.0996 0 8
-12.8402 -21.3766 -2.4953 0.0996 0 8
-12.4967 -21.5792 -2.4953 0.0996 0 8
-12.1500 -21.7763 -2.4953 0.0996 0 8
-11.8002 -21.9678 -2.4953 0.0996 0 8
-11.4474 -22.1537 -2.4953 0.0996 0 8
-11.0917 -22.3339 -2.4953 0.0996 0 8
-10.7331 -22.5084 -2.4953 0.0996 0 8
-10.3718 -22.6772 -2.4953 0.0996 0 8
-10.0078 -22.8402 -2.4953 0.0996 0 8
-9.6413 -22.9973 -2.4953 0.0996 0 8
-9.2723 -23.1485 -2.4953 0.0996 0 8
-8.9009 -23.2938 -2.4953 0.0996 0 8
-8.5273 -23.4332 -2.4953 0.0996 0 8
-22.9992 -0.5148 -2.4953 0.1078 0 8
-22.9880 -0.8825 -2.4953 0.1078 0 8
-22.9710 -1.2500 -2.4953 0.1078 0 8
-22.9480 -1.6172 -2.4953 0.1078 0 8
-22.9192 -1.9840 -2.4953 0.1078 0 8
-22.8846 -2.3502 -2.4953 0.1078 0 8
-22.8441 -2.7159 -2.4953 0.1078 0 8
-22.7977 -3.0808 -2.4953 0.1078 0 8
-22.7455 -3.4450 -2.4953 0.1078 0 8
-22.6875 -3.8083 -2.4953 0.1078 0 8
-22.6237 -4.1707 -2.4953 0.1078 0 8
-22.5542 -4.5319 -2.4953 0.1078 0 8
-22.4788 -4.8920 -2.4953 0.1078 0 8
-22.3977 -5.2508 -2.4953 0.1078 0 8
-22.3109 -5.6083 -2.4953 0.1078 0 8
-22.2183 -5.9644 -2.4953 0.1078 0 8
-22.1201 -6.3189 -2.4953 0.1078 0 8
-22.0162 -6.6719 -2.4953 0.1078 0 8
-21.9067 -7.0231 -2.4953 0.1078 0 8
-21.7916 -7.3725 -2.4953 0.1078 0 8
-21.6709 -7.7201 -2.4953 0.1078 0 8
-21.5447 -8.0656 -2.4953 0.1078 0 8
-21.4130 -8.4091 -2.4953 0.1078 0 8
-21.2757 -8.7505 -2.4953 0.1078 0 8
-21.1331 -9.0896 -2.4953 0.1078 0 8
-20.9850 -9.4264 -2.4953 0.1078 0 8
-20.8316 -9.7607 -2.4953 0.1078 0 8
-20.6729 -10.0926 -2.4953 0.1078 0 8
-20.5088 -10.4219 -2.4953 0.1078 0 8
-20.3395 -10.7486 -2.4953 0.1078 0 8
-20.1650 -11.0724 -2.4953 0.1078 0 8
-19.9854 -11.3935 -2.4953 0.1078 0 8
-19.8006 -11.7116 -2.4953 0.1078 0 8
-19.6108 -12.0268 -2.4953 0.1078 0 8
-19.4160 -12.3389 -2.4953 0.1078 0 8
-19.2162 -12.6478 -2.4953 0.1078 0 8
-19.0115 -12.9534 -2.4953 0.1078 0 8
-18.8019 -13.2558 -2.4953 0.1078 0 8
-18.5875 -13.5548 -2.4953 0.1078 0 8
-18.3684 -13.8503 -2.4953 0.1078 0 8
-18.1445 -14.1423 -2.4953 0.1078 0 8
-17.9161 -14.4306 -2.4953 0.1078 0 8
-17.6830 -14.7153 -2.4953 0.1078 0 8
-17.4454 -14.9962 -2.4953 0.1078 0 8
-17.2034 -15.2732 -2.4953 0.1078 0 8
-16.9569 -15.5464 -2.4953 0.1078 0 8
-16.7062 -15.8156 -2.4953 0.1078 0 8
-16.4511 -16.0807 -2.4953 0.1078 0 8
-16.1918 -16.3417 -2.4953 0.1078 0 8
-15.9285 -16.5986 -2.4953 0.1078 0 8
-15.6610 -16.8512 -2.4953 0.1078 0 8
-15.3895 -17.0994 -2.4953 0.1078 0 8
-15.1141 -17.3434 -2.4953 0.1078 0 8
-14.8348 -17.5828 -2.4953 0.1078 0 8
-14.5517 -17.8178 -2.4953 0.1078 0 8
-14.2649 -18.0483 -2.4953 0.1078 0 8
-13.9745 -18.2741 -2.4953 0.1078 0 8
-13.6805 -18.4952 -2.4953 0.1078 0 8
-13.3830 -18.7116 -2.4953 0.1078 0 8
-13.0820 -18.9232 -2.4953 0.1078 0 8
-12.7778 -19.1300 -2.4953 0.1078 0 8
-12.4702 -19.3319 -2.4953 0.1078 0 8
-12.1595 -19.5288 -2.4953 0.1078 0 8
-11.8456 -19.7208 -2.4953 0.1078 0 8
-11.5287 -19.9077 -2.4953 0.1078 0 8
-11.2089 -20.0895 -2.4953 0.1078 0 8
-10.8862 -20.2662 -2.4953 0.1078 0 8
-10.5607 -20.4377 -2.4953 0.1078 0 8
-10.2325 -20.6040 -2.4953 0.1078 0 8
-9.9017 -20.7650 -2.4953 0.1078 0 8
-9.5684 -20.9206 -2.4953 0.1078 0 8
-9.2326 -21.0710 -2.4953 0.1078 0 8
-8.8945 -21.2159 -2.4953 0.1078 0 8
-8.5541 -21.3555 -2.4953 0.1078 0 8
-8.2115 -21.4895 -2.4953 0.1078 0 8
-7.8668 -21.6181 -2.4953 0.1078 0 8
-21.3431 -0.4777 -2.4953 0.1161 0 8
-21.3327 -0.8190 -2.4953 0.1161 0 8
-21.3169 -1.1600 -2.4953 0.1161 0 8
-21.2956 -1.5007 -2.4953 0.1161 0 8
-21.2689 -1.8411 -2.4953 0.1161 0 8
-21.2367 -2.1810 -2.4953 0.1161 0 8
-21.1991 -2.5203 -2.4953 0.1161 0 8
-21.1561 -2.8590 -2.4953 0.1161 0 8
-21.1077 -3.1970 -2.4953 0.1161 0 8
-21.0538 -3.5341 -2.4953 0.1161 0 8
-20.9946 -3.8703 -2.4953 0.1161 0 8
-20.9301 -4.2056 -2.4953 0.1161 0 8
-20.8601 -4.5397 -2.4953 0.1161 0 8
-20.7849 -4.8727 -2.4953 0.1161 0 8
-20.7043 -5.2045 -2.4953 0.1161 0 8
-20.6184 -5.5349 -2.4953 0.1161 0 8
-20.5273 -5.8639 -2.4953 0.1161 0 8
-20.4309 -6.1914 -2.4953 0.1161 0 8
-20.3292 -6.5174 -2.4953 0.1161 0 8
-20.2224 -6.8416 -2.4953 0.1161 0 8
-20.1104 -7.1641 -2.4953 0.1161 0 8
-19.9933 -7.4848 -2.4953 0.1161 0 8
-19.8710 -7.8036 -2.4953 0.1161 0 8
-19.7437 -8.1204 -2.4953 0.1161 0 8
-19.6113 -8.4351 -2.4953 0.1161 0 8
-19.4739 -8.7476 -2.4953 0.1161 0 8
-19.3316 -9.0579 -2.4953 0.1161 0 8
-19.1842 -9.3659 -2.4953 0.1161 0 8
-19.0320 -9.6715 -2.4953 0.1161 0 8
-18.8749 -9.9746 -2.4953 0.1161 0 8
-18.7130 -10.2751 -2.4953 0.1161 0 8
-18.5463 -10.5731 -2.4953 0.1161 0 8
-18.3748 -10.8683 -2.4953 0.1161 0 8
-18.1987 -11.1608 -2.4953 0.1161 0 8
-18.0178 -11.4505 -2.4953 0.1161 0 8
-17.8325 -11.7370 -2.4953 0.1161 0 8
-17.6425 -12.0207 -2.4953 0.1161 0 8
-17.4480 -12.3013 -2.4953 0.1161 0 8
-17.2491 -12.5787 -2.4953 0.1161 0 8
-17.0457 -12.8529 -2.4953 0.1161 0 8
-16.8380 -13.1239 -2.4953 0.1161 0 8
-16.6260 -13.3915 -2.4953 0.1161 0 8
-16.4097 -13.6556 -2.4953 0.1161 0 8
-16.1892 -13.9163 -2.4953 0.1161 0 8
-15.9646 -14.1734 -2.4953 0.1161 0 8
-15.7359 -14.4269 -2.4953 0.1161 0 8
-15.5032 -14.6767 -2.4953 0.1161 0 8
-15.2665 -14.9227 -2.4953 0.1161 0 8
-15.0259 -15.1650 -2.4953 0.1161 0 8
-14.7815 -15.4033 -2.4953 0.1161 0 8
-14.5333 -15.6377 -2.4953 0.1161 0 8
-14.2813 -15.8681 -2.4953 0.1161 0 8
-14.0257 -16.0945 -2.4953 0.1161 0 8
-13.7666 -16.3167 -2.4953 0.1161 0 8
-13.5039 -16.5348 -2.4953 0.1161 0 8
-13.2377 -16.7486 -2.4953 0.1161 0 8
-12.9682 -16.9582 -2.4953 0.1161 0 8
-12.6954 -17.1634 -2.4953 0.1161 0 8
-12.4193 -17.3642 -2.4953 0.1161 0 8
-12.1400 -17.5606 -2.4953 0.1161 0 8
-11.8576 -17.7525 -2.4953 0.1161 0 8
-11.5722 -17.9398 -2.4953 0.1161 0 8
-11.2839 -18.1226 -2.4953 0.1161 0 8
-10.9926 -18.3007 -2.4953 0.1161 0 8
-10.6986 -18.4742 -2.4953 0.1161 0 8
-10.4018 -18.6429 -2.4953 0.1161 0 8
-10.1023 -18.8069 -2.4953 0.1161 0 8
-9.8003 -18.9660 -2.4953 0.1161 0 8
-9.4957 -19.1203 -2.4953 0.1161 0 8
-9.1887 -19.2697 -2.4953 0.1161 0 8
-8.8794 -19.4142 -2.4953 0.1161 0 8
-8.5678 -19.5537 -2.4953 0.1161 0 8
-8.2540 -19.6882 -2.4953 0.1161 0 8
-7.9381 -19.8177 -2.4953 0.1161 0 8
-7.6202 -19.9421 -2.4953 0.1161 0 8
-7.3003 -20.0614 -2.4953 0.1161 0 8
-19.9068 -0.4456 -2.4953 0.1243 0 8
-19.8971 -0.7639 -2.4953 0.1243 0 8
-19.8824 -1.0819 -2.4953 0.1243 0 8
-19.8625 -1.3997 -2.4953 0.1243 0 8
-19.8376 -1.7172 -2.4953 0.1243 0 8
-19.8076 -2.0342 -2.4953 0.1243 0 8
-19.7725 -2.3507 -2.4953 0.1243 0 8
-19.7324 -2.6666 -2.4953 0.1243 0 8
-19.6873 -2.9818 -2.4953 0.1243 0 8
-19.6371 -3.2963 -2.4953 0.1243 0 8
-19.5818 -3.6099 -2.4953 0.1243 0 8
-19.5216 -3.9226 -2.4953 0.1243 0 8
-19.4564 -4.2342 -2.4953 0.1243 0 8
-19.3862 -4.5448 -2.4953 0.1243 0 8
-19.3110 -4.8543 -2.4953 0.1243 0 8
-19.2309 -5.1625 -2.4953 0.1243 0 8
-19.1459 -5.4693 -2.4953 0.1243 0 8
-19.0560 -5.7748 -2.4953 0.1243 0 8
-18.9612 -6.0788 -2.4953 0.1243 0 8
-18.8616 -6.3812 -2.4953 0.1243 0 8
-18.7571 -6.6820 -2.4953 0.1243 0 8
-18.6479 -6.9811 -2.4953 0.1243 0 8
-18.5338 -7.2785 -2.4953 0.1243 0 8
-18.4151 -7.5739 -2.4953 0.1243 0 8
-18.2916 -7.8674 -2.4953 0.1243 0 8
-18.1635 -8.1589 -2.4953 0.1243 0 8
-18.0307 -8.4483 -2.4953 0.1243 0 8
-17.8933 -8.7356 -2.4953 0.1243 0 8
-17.7513 -9.0206 -2.4953 0.1243 0 8
-17.6048 -9.3033 -2.4953 0.1243 0 8
-17.4537 -9.5837 -2.4953 0.1243 0 8
-17.2982 -9.8616 -2.4953 0.1243 0 8
-17.1383 -10.1369 -2.4953 0.1243 0 8
-16.9740 -10.4097 -2.4953 0.1243 0 8
-16.8054 -10.6798 -2.4953 0.1243 0 8
-16.6325 -10.9472 -2.4953 0.1243 0 8
-16.4553 -11.2118 -2.4953 0.1243 0 8
-16.2739 -11.4735 -2.4953 0.1243 0 8
-16.0883 -11.7323 -2.4953 0.1243 0 8
-15.8986 -11.9880 -2.4953 0.1243 0 8
-15.7049 -12.2407 -2.4953 0.1243 0 8
-15.5071 -12.4903 -2.4953 0.1243 0 8
-15.3054 -12.7367 -2.4953 0.1243 0 8
-15.0998 -12.9798 -2.4953 0.1243 0 8
-14.8903 -13.2196 -2.4953 0.1243 0 8
-14.6770 -13.4561 -2.4953 0.1243 0 8
-14.4599 -13.6891 -2.4953 0.1243 0 8
-14.2392 -13.9185 -2.4953 0.1243 0 8
-14.0148 -14.1445 -2.4953 0.1243 0 8
-13.7868 -14.3668 -2.4953 0.1243 0 8
-13.5553 -14.5854 -2.4953 0.1243 0 8
-13.3203 -14.8003 -2.4953 0.1243 0 8
-13.0819 -15.0114 -2.4953 0.1243 0 8
-12.8402 -15.2187 -2.4953 0.1243 0 8
-12.5951 -15.4221 -2.4953 0.1243 0 8
-12.3469 -15.6216 -2.4953 0.1243 0 8
-12.0955 -15.8170 -2.4953 0.1243 0 8
-11.8411 -16.0084 -2.4953 0.1243 0 8
-11.5836 -16.1957 -2.4953 0.1243 0 8
-11.3231 -16.3789 -2.4953 0.1243 0 8
-11.0597 -16.5579 -2.4953 0.1243 0 8
-10.7935 -16.7326 -2.4953 0.1243 0 8
-10.5245 -16.9031 -2.4953 0.1243 0 8
-10.2529 -17.0692 -2.4953 0.1243 0 8
-9.9786 -17.2310 -2.4953 0.1243 0 8
-9.7018 -17.3884 -2.4953 0.1243 0 8
-9.4225 -17.5413 -2.4953 0.1243 0 8
-9.1408 -17.6897 -2.4953 0.1243 0 8
-8.8567 -17.8336 -2.4953 0.1243 0 8
-8.5704 -17.9730 -2.4953 0.1243 0 8
-8.2819 -18.1077 -2.4953 0.1243 0 8
-7.9912 -18.2379 -2.4953 0.1243 0 8
-7.6986 -18.3633 -2.4953 0.1243 0 8
-7.4039 -18.4841 -2.4953 0.1243 0 8
-7.1074 -18.6001 -2.4953 0.1243 0 8
-6.8091 -18.7114 -2.4953 0.1243 0 8
-18.6492 -0.4174 -2.4953 0.1326 0 8
-18.6402 -0.7156 -2.4953 0.1326 0 8
-18.6263 -1.0136 -2.4953 0.1326 0 8
-18.6077 -1.3113 -2.4953 0.1326 0 8
-18.5844 -1.6087 -2.4953 0.1326 0 8
-18.5563 -1.9057 -2.4953 0.1326 0 8
-18.5234 -2.2022 -2.4953 0.1326 0 8
-18.4859 -2.4981 -2.4953 0.1326 0 8
-18.4435 -2.7935 -2.4953 0.1326 0 8
-18.3965 -3.0880 -2.4953 0.1326 0 8
-18.3448 -3.3818 -2.4953 0.1326 0 8
-18.2884 -3.6748 -2.4953 0.1326 0 8
-18.2272 -3.9667 -2.4953 0.1326 0 8
-18.1615 -4.2577 -2.4953 0.1326 0 8
-18.0911 -4.5476 -2.4953 0.1326 0 8
-18.0160 -4.8363 -2.4953 0.1326 0 8
-17.9364 -5.1238 -2.4953 0.1326 0 8
-17.8522 -5.4100 -2.4953 0.1326 0 8
-17.7634 -5.6948 -2.4953 0.1326 0 8
-17.6700 -5.9781 -2.4953 0.1326 0 8
-17.5722 -6.2599 -2.4953 0.1326 0 8
-17.4698 -6.5401 -2.4953 0.1326 0 8
-17.3630 -6.8186 -2.4953 0.1326 0 8
-17.2517 -7.0954 -2.4953 0.1326 0 8
-17.1361 -7.3704 -2.4953 0.1326 0 8
-17.0160 -7.6435 -2.4953 0.1326 0 8
-16.8916 -7.9146 -2.4953 0.1326 0 8
-16.7629 -8.1837 -2.4953 0.1326 0 8
-16.6299 -8.4508 -2.4953 0.1326 0 8
-16.4926 -8.7156 -2.4953 0.1326 0 8
-16.3511 -8.9782 -2.4953 0.1326 0 8
-16.2054 -9.2386 -2.4953 0.1326 0 8
-16.0556 -9.4965 -2.4953 0.1326 0 8
-15.9017 -9.7521 -2.4953 0.1326 0 8
-15.7437 -10.0051 -2.4953 0.1326 0 8
-15.5817 -10.2556 -2.4953 0.1326 0 8
-15.4157 -10.5035 -2.4953 0.1326 0 8
-15.2458 -10.7487 -2.4953 0.1326 0 8
-15.0720 -10.9911 -2.4953 0.1326 0 8
-14.8943 -11.2307 -2.4953 0.1326 0 8
-14.7128 -11.4674 -2.4953 0.1326 0 8
-14.5275 -11.7013 -2.4953 0.1326 0 8
-14.3385 -11.9321 -2.4953 0.1326 0 8
-14.1459 -12.1598 -2.4953 0.1326 0 8
-13.9496 -12.3845 -2.4953 0.1326 0 8
-13.7498 -12.6060 -2.4953 0.1326 0 8
-13.5464 -12.8243 -2.4953 0.1326 0 8
-13.3396 -13.0392 -2.4953 0.1326 0 8
-13.1294 -13.2509 -2.4953 0.1326 0 8
-12.9158 -13.4592 -2.4953 0.1326 0 8
-12.6989 -13.6640 -2.4953 0.1326 0 8
-12.4788 -13.8653 -2.4953 0.1326 0 8
-12.2555 -14.0631 -2.4953 0.1326 0 8
-12.0290 -14.2573 -2.4953 0.1326 0 8
-11.7995 -14.4478 -2.4953 0.1326 0 8
-11.5669 -14.6347 -2.4953 0.1326 0 8
-11.3314 -14.8178 -2.4953 0.1326 0 8
-11.0930 -14.9971 -2.4953 0.1326 0 8
-10.8518 -15.1725 -2.4953 0.1326 0 8
-10.6078 -15.3442 -2.4953 0.1326 0 8
-10.3610 -15.5118 -2.4953 0.1326 0 8
-10.1116 -15.6755 -2.4953 0.1326 0 8
-9.8597 -15.8352 -2.4953 0.1326 0 8
-9.6052 -15.9909 -2.4953 0.1326 0 8
-9.3482 -16.1424 -2.4953 0.1326 0 8
-9.0889 -16.2899 -2.4953 0.1326 0 8
-8.8272 -16.4331 -2.4953 0.1326 0 8
-8.5633 -16.5722 -2.4953 0.1326 0 8
-8.2972 -16.7070 -2.4953 0.1326 0 8
-8.0290 -16.8375 -2.4953 0.1326 0 8
-7.7587 -16.9638 -2.4953 0.1326 0 8
-7.4864 -17.0857 -2.4953 0.1326 0 8
-7.2122 -17.2032 -2.4953 0.1326 0 8
-6.9362 -17.3164 -2.4953 0.1326 0 8
-6.6584 -17.4251 -2.4953 0.1326 0 8
-6.3789 -17.5293 -2.4953 0.1326 0 8
-17.5387 -0.3926 -2.4953 0.1408 0 8
-17.5302 -0.6730 -2.4953 0.1408 0 8
-17.5172 -0.9532 -2.4953 0.1408 0 8
-17.4997 -1.2332 -2.4953 0.1408 0 8
-17.4778 -1.5129 -2.4953 0.1408 0 8
-17.4513 -1.7922 -2.4953 0.1408 0 8
-17.4204 -2.0711 -2.4953 0.1408 0 8
-17.3851 -2.3494 -2.4953 0.1408 0 8
-17.3453 -2.6271 -2.4953 0.1408 0 8
-17.3011 -2.9042 -2.4953 0.1408 0 8
-17.2524 -3.1805 -2.4953 0.1408 0 8
-17.1994 -3.4559 -2.4953 0.1408 0 8
-17.1419 -3.7305 -2.4953 0.1408 0 8
-17.0800 -4.0042 -2.4953 0.1408 0 8
-17.0138 -4.2768 -2.4953 0.1408 0 8
-16.9433 -4.5483 -2.4953 0.1408 0 8
-16.8685 -4.8180 -2.4953 0.1408 0 8
-16.7891 -5.0878 -2.4953 0.1408 0 8
-16.7056 -5.3557 -2.4953 0.1408 0 8
-16.6178 -5.6221 -2.4953 0.1408 0 8
-16.5258 -5.8872 -2.4953 0.1408 0 8
-16.4296 -6.1507 -2.4953 0.1408 0 8
-16.3291 -6.4126 -2.4953 0.1408 0 8
-16.2245 -6.6729 -2.4953 0.1408 0 8
-16.1157 -6.9315 -2.4953 0.1408 0 8
-16.0028 -7.1884 -2.4953 0.1408 0 8
-15.8858 -7.4434 -2.4953 0.1408 0 8
-15.7647 -7.6964 -2.4953 0.1408 0 8
-15.6396 -7.9476 -2.4953 0.1408 0 8
-15.5105 -8.1966 -2.4953 0.1408 0 8
-15.3775 -8.4436 -2.4953 0.1408 0 8
-15.2405 -8.6885 -2.4953 0.1408 0 8
-15.0996 -8.9311 -2.4953 0.1408 0 8
-14.9548 -9.1714 -2.4953 0.1408 0 8
-14.8063 -9.4094 -2.4953 0.1408 0 8
-14.6539 -9.6449 -2.4953 0.1408 0 8
-14.4978 -9.8780 -2.4953 0.1408 0 8
-14.3380 -10.1086 -2.4953 0.1408 0 8
-14.1745 -10.3366 -2.4953 0.1408 0 8
-14.0074 -10.5620 -2.4953 0.1408 0 8
-13.8367 -10.7846 -2.4953 0.1408 0 8
-13.6624 -11.0045 -2.4953 0.1408 0 8
-13.4847 -11.2216 -2.4953 0.1408 0 8
-13.3035 -11.4358 -2.4953 0.1408 0 8
-13.1190 -11.6471 -2.4953 0.1408 0 8
-12.9310 -11.8554 -2.4953 0.1408 0 8
-12.7398 -12.0606 -2.4953 0.1408 0 8
-12.5453 -12.2628 -2.4953 0.1408 0 8
-12.3476 -12.4619 -2.4953 0.1408 0 8
-12.1467 -12.6577 -2.4953 0.1408 0 8
-11.9428 -12.8504 -2.4953 0.1408 0 8
-11.7357 -13.0397 -2.4953 0.1408 0 8
-11.5257 -13.2257 -2.4953 0.1408 0 8
-11.3127 -13.4083 -2.4953 0.1408 0 8
-11.0969 -13.5875 -2.4953 0.1408 0 8
-10.8782 -13.7632 -2.4953 0.1408 0 8
-10.6567 -13.9354 -2.4953 0.1408 0 8
-10.4325 -14.1041 -2.4953 0.1408 0 8
-10.2056 -14.2691 -2.4953 0.1408 0 8
-9.9761 -14.4305 -2.4953 0.1408 0 8
-9.7441 -14.5882 -2.4953 0.1408 0 8
-9.5095 -14.7421 -2.4953 0.1408 0 8
-9.2726 -14.8923 -2.4953 0.1408 0 8
-9.0332 -15.0387 -2.4953 0.1408 0 8
-8.7916 -15.1812 -2.4953 0.1408 0 8
-8.5477 -15.3199 -2.4953 0.1408 0 8
-8.3016 -15.4546 -2.4953 0.1408 0 8
-8.0534 -15.5854 -2.4953 0.1408 0 8
-7.8031 -15.7122 -2.4953 0.1408 0 8
-7.5509 -15.8349 -2.4953 0.1408 0 8
-7.2967 -15.9537 -2.4953 0.1408 0 8
-7.0406 -16.0683 -2.4953 0.1408 0 8
-6.7828 -16.1789 -2.4953 0.1408 0 8
-6.5232 -16.2853 -2.4953 0.1408 0 8
-6.2619 -16.3875 -2.4953 0.1408 0 8
-5.9991 -16.4855 -2.4953 0.1408 0 8
-16.5509 -0.3705 -2.4953 0.1490 0 8
-16.5429 -0.6351 -2.4953 0.1490 0 8
-16.5306 -0.8995 -2.4953 0.1490 0 8
-16.5141 -1.1638 -2.4953 0.1490 0 8
-16.4934 -1.4277 -2.4953 0.1490 0 8
-16.4684 -1.6913 -2.4953 0.1490 0 8
-16.4393 -1.9544 -2.4953 0.1490 0 8
-16.4059 -2.2171 -2.4953 0.1490 0 8
-16.3684 -2.4791 -2.4953 0.1490 0 8
-16.3266 -2.7406 -2.4953 0.1490 0 8
-16.2807 -3.0013 -2.4953 0.1490 0 8
-16.2306 -3.2613 -2.4953 0.1490 0 8
-16.1764 -3.5204 -2.4953 0.1490 0 8
-16.1180 -3.7787 -2.4953 0.1490 0 8
-16.0555 -4.0359 -2.4953 0.1490 0 8
-15.9889 -4.2922 -2.4953 0.1490 0 8
-15.9183 -4.5473 -2.4953 0.1490 0 8
-15.8435 -4.8013 -2.4953 0.1490 0 8
-15.7647 -5.0540 -2.4953 0.1490 0 8
-15.6819 -5.3055 -2.4953 0.1490 0 8
-15.5950 -5.5556 -2.4953 0.1490 0 8
-15.5042 -5.8043 -2.4953 0.1490 0 8
-15.4094 -6.0514 -2.4953 0.1490 0 8
-15.3106 -6.2971 -2.4953 0.1490 0 8
-15.2080 -6.5411 -2.4953 0.1490 0 8
-15.1014 -6.7835 -2.4953 0.1490 0 8
-14.9910 -7.0241 -2.4953 0.1490 0 8
-14.8768 -7.2629 -2.4953 0.1490 0 8
-14.7587 -7.4999 -2.4953 0.1490 0 8
-14.6369 -7.7350 -2.4953 0.1490 0 8
-14.5114 -7.9681 -2.4953 0.1490 0 8
-14.3821 -8.1991 -2.4953 0.1490 0 8
-14.2491 -8.4280 -2.4953 0.1490 0 8
-14.1125 -8.6548 -2.4953 0.1490 0 8
-13.9723 -8.8794 -2.4953 0.1490 0 8
-13.8285 -9.1017 -2.4953 0.1490 0 8
-13.6812 -9.3217 -2.4953 0.1490 0 8
-13.5304 -9.5393 -2.4953 0.1490 0 8
-13.3761 -9.7544 -2.4953 0.1490 0 8
-13.2184 -9.9671 -2.4953 0.1490 0 8
-13.0573 -10.1772 -2.4953 0.1490 0 8
-12.8929 -10.3847 -2.4953 0.1490 0 8
-12.7252 -10.5895 -2.4953 0.1490 0 8
-12.5542 -10.7917 -2.4953 0.1490 0 8
-12.3801 -10.9911 -2.4953 0.1490 0 8
-12.2027 -11.1876 -2.4953 0.1490 0 8
-12.0222 -11.3813 -2.4953 0.1490 0 8
-11.8387 -11.5721 -2.4953 0.1490 0 8
-11.6521 -11.7600 -2.4953 0.1490 0 8
-11.4626 -11.9448 -2.4953 0.1490 0 8
-11.2701 -12.1266 -2.4953 0.1490 0 8
-11.0747 -12.3053 -2.4953 0.1490 0 8
-10.8765 -12.4808 -2.4953 0.1490 0 8
-10.6756 -12.6531 -2.4953 0.1490 0 8
-10.4718 -12.8222 -2.4953 0.1490 0 8
-10.2655 -12.9880 -2.4953 0.1490 0 8
-10.0565 -13.1506 -2.4953 0.1490 0 8
-9.8449 -13.3097 -2.4953 0.1490 0 8
-9.6308 -13.4654 -2.4953 0.1490 0 8
-9.4142 -13.6177 -2.4953 0.1490 0 8
-9.1952 -13.7665 -2.4953 0.1490 0 8
-8.9739 -13.9118 -2.4953 0.1490 0 8
-8.7503 -14.0535 -2.4953 0.1490 0 8
-8.5244 -14.1917 -2.4953 0.1490 0 8
-8.2964 -14.3262 -2.4953 0.1490 0 8
-8.0662 -14.4570 -2.4953 0.1490 0 8
-7.8340 -14.5841 -2.4953 0.1490 0 8
-7.5998 -14.7076 -2.4953 0.1490 0 8
-7.3636 -14.8272 -2.4953 0.1490 0 8
-7.1256 -14.9431 -2.4953 0.1490 0 8
-6.8857 -15.0551 -2.4953 0.1490 0 8
-6.6441 -15.1633 -2.4953 0.1490 0 8
-6.4007 -15.2676 -2.4953 0.1490 0 8
-6.1558 -15.3680 -2.4953 0.1490 0 8
-5.9092 -15.4645 -2.4953 0.1490 0 8
-5.6612 -15.5570 -2.4953 0.1490 0 8
-15.6663 -0.3507 -2.4953 0.1573 0 8
-15.6587 -0.6011 -2.4953 0.1573 0 8
-15.6471 -0.8515 -2.4953 0.1573 0 8
-15.6315 -1.1016 -2.4953 0.1573 0 8
-15.6118 -1.3514 -2.4953 0.1573 0 8
-15.5882 -1.6009 -2.4953 0.1573 0 8
-15.5606 -1.8500 -2.4953 0.1573 0 8
-15.5291 -2.0986 -2.4953 0.1573 0 8
-15.4935 -2.3466 -2.4953 0.1573 0 8
-15.4540 -2.5941 -2.4953 0.1573 0 8
-15.4106 -2.8409 -2.4953 0.1573 0 8
-15.3632 -3.0870 -2.4953 0.1573 0 8
-15.3118 -3.3323 -2.4953 0.1573 0 8
-15.2566 -3.5767 -2.4953 0.1573 0 8
-15.1974 -3.8202 -2.4953 0.1573 0 8
-15.1344 -4.0628 -2.4953 0.1573 0 8
-15.0675 -4.3043 -2.4953 0.1573 0 8
-14.9967 -4.5447 -2.4953 0.1573 0 8
-14.9221 -4.7839 -2.4953 0.1573 0 8
-14.8437 -5.0219 -2.4953 0.1573 0 8
-14.7615 -5.2586 -2.4953 0.1573 0 8
-14.6755 -5.4940 -2.4953 0.1573 0 8
-14.5858 -5.7280 -2.4953 0.1573 0 8
-14.4923 -5.9605 -2.4953 0.1573 0 8
-14.3952 -6.1915 -2.4953 0.1573 0 8
-14.2943 -6.4209 -2.4953 0.1573 0 8
-14.1898 -6.6487 -2.4953 0.1573 0 8
-14.0817 -6.8748 -2.4953 0.1573 0 8
-13.9699 -7.0991 -2.4953 0.1573 0 8
-13.8546 -7.3216 -2.4953 0.1573 0 8
-13.7358 -7.5422 -2.4953 0.1573 0 8
-13.6134 -7.7609 -2.4953 0.1573 0 8
-13.4876 -7.9775 -2.4953 0.1573 0 8
-13.3583 -8.1923 -2.4953 0.1573 0 8
-13.2255 -8.4048 -2.4953 0.1573 0 8
-13.0894 -8.6152 -2.4953 0.1573 0 8
-12.9500 -8.8235 -2.4953 0.1573 0 8
-12.8072 -9.0294 -2.4953 0.1573 0 8
-12.6612 -9.2331 -2.4953 0.1573 0 8
-12.5119 -9.4344 -2.4953 0.1573 0 8
-12.3595 -9.6332 -2.4953 0.1573 0 8
-12.2038 -9.8297 -2.4953 0.1573 0 8
-12.0451 -10.0236 -2.4953 0.1573 0 8
-11.8832 -10.2149 -2.4953 0.1573 0 8
-11.7184 -10.4036 -2.4953 0.1573 0 8
-11.5505 -10.5897 -2.4953 0.1573 0 8
-11.3797 -10.7730 -2.4953 0.1573 0 8
-11.2060 -10.9536 -2.4953 0.1573 0 8
-11.0294 -11.1314 -2.4953 0.1573 0 8
-10.8499 -11.3064 -2.4953 0.1573 0 8
-10.6678 -11.4785 -2.4953 0.1573 0 8
-10.4828 -11.6476 -2.4953 0.1573 0 8
-10.2952 -11.8137 -2.4953 0.1573 0 8
-10.1050 -11.9769 -2.4953 0.1573 0 8
-9.9122 -12.1369 -2.4953 0.1573 0 8
-9.7168 -12.2939 -2.4953 0.1573 0 8
-9.5190 -12.4477 -2.4953 0.1573 0 8
-9.3187 -12.5983 -2.4953 0.1573 0 8
-9.1160 -12.7457 -2.4953 0.1573 0 8
-8.9111 -12.8899 -2.4953 0.1573 0 8
-8.7038 -13.0307 -2.4953 0.1573 0 8
-8.4943 -13.1683 -2.4953 0.1573 0 8
-8.2826 -13.3024 -2.4953 0.1573 0 8
-8.0688 -13.4332 -2.4953 0.1573 0 8
-7.8530 -13.5605 -2.4953 0.1573 0 8
-7.6351 -13.6843 -2.4953 0.1573 0 8
-7.4153 -13.8047 -2.4953 0.1573 0 8
-7.1936 -13.9215 -2.4953 0.1573 0 8
-6.9701 -14.0347 -2.4953 0.1573 0 8
-6.7447 -14.1444 -2.4953 0.1573 0 8
-6.5177 -14.2505 -2.4953 0.1573 0 8
-6.2890 -14.3529 -2.4953 0.1573 0 8
-6.0586 -14.4516 -2.4953 0.1573 0 8
-5.8268 -14.5466 -2.4953 0.1573 0 8
-5.5934 -14.6380 -2.4953 0.1573 0 8
-5.3586 -14.7255 -2.4953 0.1573 0 8
-14.8695 -0.3328 -2.4953 0.1655 0 8
-14.8622 -0.5706 -2.4953 0.1655 0 8
-14.8512 -0.8082 -2.4953 0.1655 0 8
-14.8364 -1.0455 -2.4953 0.1655 0 8
-14.8178 -1.2827 -2.4953 0.1655 0 8
-14.7954 -1.5195 -2.4953 0.1655 0 8
-14.7692 -1.7559 -2.4953 0.1655 0 8
-14.7392 -1.9918 -2.4953 0.1655 0 8
-14.7055 -2.2273 -2.4953 0.1655 0 8
-14.6680 -2.4622 -2.4953 0.1655 0 8
-14.6267 -2.6964 -2.4953 0.1655 0 8
-14.5817 -2.9300 -2.4953 0.1655 0 8
-14.5330 -3.1628 -2.4953 0.1655 0 8
-14.4806 -3.3948 -2.4953 0.1655 0 8
-14.4244 -3.6259 -2.4953 0.1655 0 8
-14.3646 -3.8561 -2.4953 0.1655 0 8
-14.3011 -4.0853 -2.4953 0.1655 0 8
-14.2339 -4.3135 -2.4953 0.1655 0 8
-14.1632 -4.5406 -2.4953 0.1655 0 8
-14.0887 -4.7665 -2.4953 0.1655 0 8
-14.0107 -4.9912 -2.4953 0.1655 0 8
-13.9291 -5.2146 -2.4953 0.1655 0 8
-13.8439 -5.4371 -2.4953 0.1655 0 8
-13.7552 -5.6574 -2.4953 0.1655 0 8
-13.6630 -5.8766 -2.4953 0.1655 0 8
-13.5673 -6.0943 -2.4953 0.1655 0 8
-13.4681 -6.3105 -2.4953 0.1655 0 8
-13.3654 -6.5251 -2.4953 0.1655 0 8
-13.2594 -6.7380 -2.4953 0.1655 0 8
-13.1499 -6.9492 -2.4953 0.1655 0 8
-13.0371 -7.1586 -2.4953 0.1655 0 8
-12.9210 -7.3661 -2.4953 0.1655 0 8
-12.8015 -7.5718 -2.4953 0.1655 0 8
-12.6788 -7.7756 -2.4953 0.1655 0 8
-12.5528 -7.9773 -2.4953 0.1655 0 8
-12.4237 -8.1770 -2.4953 0.1655 0 8
-12.2913 -8.3747 -2.4953 0.1655 0 8
-12.1558 -8.5702 -2.4953 0.1655 0 8
-12.0172 -8.7635 -2.4953 0.1655 0 8
-11.8755 -8.9545 -2.4953 0.1655 0 8
-11.7308 -9.1433 -2.4953 0.1655 0 8
-11.5831 -9.3297 -2.4953 0.1655 0 8
-11.4324 -9.5137 -2.4953 0.1655 0 8
-11.2788 -9.6953 -2.4953 0.1655 0 8
-11.1223 -9.8745 -2.4953 0.1655 0 8
-10.9630 -10.0511 -2.4953 0.1655 0 8
-10.8009 -10.2251 -2.4953 0.1655 0 8
-10.6360 -10.3965 -2.4953 0.1655 0 8
-10.4684 -10.5653 -2.4953 0.1655 0 8
-10.2981 -10.7313 -2.4953 0.1655 0 8
-10.1252 -10.8946 -2.4953 0.1655 0 8
-9.9496 -11.0551 -2.4953 0.1655 0 8
-9.7716 -11.2128 -2.4953 0.1655 0 8
-9.5910 -11.3677 -2.4953 0.1655 0 8
-9.4080 -11.5196 -2.4953 0.1655 0 8
-9.2226 -11.6686 -2.4953 0.1655 0 8
-9.0348 -11.8146 -2.4953 0.1655 0 8
-8.8447 -11.9575 -2.4953 0.1655 0 8
-8.6524 -12.0974 -2.4953 0.1655 0 8
-8.4578 -12.2343 -2.4953 0.1655 0 8
-8.2611 -12.3680 -2.4953 0.1655 0 8
-8.0622 -12.4985 -2.4953 0.1655 0 8
-7.8613 -12.6258 -2.4953 0.1655 0 8
-7.6584 -12.7499 -2.4953 0.1655 0 8
-7.4536 -12.8707 -2.4953 0.1655 0 8
-7.2468 -12.9883 -2.4953 0.1655 0 8
-7.0382 -13.1025 -2.4953 0.1655 0 8
-6.8277 -13.2134 -2.4953 0.1655 0 8
-6.6155 -13.3209 -2.4953 0.1655 0 8
-6.4017 -13.4250 -2.4953 0.1655 0 8
-6.1862 -13.5256 -2.4953 0.1655 0 8
-5.9691 -13.6228 -2.4953 0.1655 0 8
-5.7505 -13.7165 -2.4953 0.1655 0 8
