ply
format ascii 1.0
element vertex 1402
property float32 x
property float32 y
property float32 z
property float32 CosAngle
property uint32 ObjIdx
property uint32 ObjTag
end_header
0.5115 18.9560 -2.5366 0.9983 0 8
0.2074 18.9553 -2.5357 0.9987 0 8
-0.0965 18.9565 -2.5358 0.9970 0 8
-0.4005 18.9553 -2.5362 0.9986 0 8
-0.7046 18.9536 -2.5371 0.9982 0 8
-1.0091 18.9517 -2.5387 0.9976 0 8
-1.3140 18.9501 -2.5410 0.9966 0 8
-1.6196 18.9487 -2.5439 0.9954 0 8
-1.9259 18.9472 -2.5476 0.9940 0 8
-2.2332 18.9455 -2.5518 0.9924 0 8
-2.5416 18.9438 -2.5568 0.9904 0 8
-2.8512 18.9419 -2.5623 0.9883 0 8
-3.1622 18.9399 -2.5686 0.9859 0 8
-3.4749 18.9377 -2.5755 0.9832 0 8
-3.7892 18.9354 -2.5832 0.9803 0 8
-4.1055 18.9330 -2.5915 0.9772 0 8
-4.4239 18.9304 -2.6005 0.9738 0 8
-4.7446 18.9277 -2.6102 0.9702 0 8
-5.0677 18.9249 -2.6207 0.9663 0 8
-5.3935 18.9219 -2.6319 0.9621 0 8
-5.7222 18.9188 -2.6439 0.9578 0 8
-6.0333 18.8512 -2.6477 0.1326 0 7
-6.3348 18.7521 -2.6477 0.1326 0 7
-6.6346 18.6481 -2.6477 0.1326 0 7
-6.9328 18.5393 -2.6477 0.1326 0 7
-7.2292 18.4258 -2.6477 0.1326 0 6
-7.5236 18.3075 -2.6477 0.1326 0 7
-7.8162 18.1845 -2.6477 0.1326 0 7
-8.1068 18.0569 -2.6477 0.1326 0 7
-8.3952 17.9245 -2.6477 0.1326 0 7
13.3095 13.0138 -2.6477 0.1408 0 7
13.0992 13.2255 -2.6477 0.1408 0 7
12.8854 13.4339 -2.6477 0.1408 0 7
12.6684 13.6387 -2.6477 0.1408 0 7
12.4481 13.8401 -2.6477 0.1408 0 7
12.2246 14.0379 -2.6477 0.1408 0 7
11.9979 14.2321 -2.6477 0.1408 0 7
11.7682 14.4227 -2.6477 0.1408 0 7
11.5354 14.6095 -2.6477 0.1408 0 7
11.2997 14.7926 -2.6477 0.1408 0 7
11.0610 14.9718 -2.6477 0.1408 0 7
10.8196 15.1473 -2.6477 0.1408 0 7
10.5753 15.3188 -2.6477 0.1408 0 7
10.3283 15.4864 -2.6477 0.1408 0 7
10.0787 15.6500 -2.6477 0.1408 0 7
9.8265 15.8096 -2.6477 0.1408 0 7
9.5717 15.9651 -2.6477 0.1408 0 7
9.3145 16.1165 -2.6477 0.1408 0 7
9.0549 16.2638 -2.6477 0.1408 0 7
8.7930 16.4069 -2.6477 0.1408 0 7
8.5288 16.5458 -2.6477 0.1408 0 7
8.2624 16.6804 -2.6477 0.1408 0 7
7.9939 16.8107 -2.6477 0.1408 0 7
7.7233 16.9367 -2.6477 0.1408 0 7
7.4507 17.0584 -2.6477 0.1408 0 7
7.1763 17.1757 -2.6477 0.1408 0 7
6.9000 17.2885 -2.6477 0.1408 0 7
6.6219 17.3969 -2.6477 0.1408 0 7
6.3421 17.5009 -2.6477 0.1408 0 7
6.0607 17.6003 -2.6477 0.1408 0 7
5.7777 17.6952 -2.6477 0.1408 0 7
5.4932 17.7856 -2.6477 0.1408 0 7
5.2074 17.8714 -2.6477 0.1408 0 7
4.9201 17.9526 -2.6477 0.1408 0 7
4.6317 18.0292 -2.6477 0.1408 0 7
4.3420 18.1011 -2.6477 0.1408 0 7
4.0512 18.1684 -2.6477 0.1408 0 7
3.7594 18.2310 -2.6477 0.1408 0 7
3.4666 18.2889 -2.6477 0.1408 0 7
3.1729 18.3422 -2.6477 0.1408 0 7
2.8784 18.3907 -2.6477 0.1408 0 6
2.5831 18.4345 -2.6477 0.1408 0 6
2.2872 18.4735 -2.6477 0.1408 0 6
1.9907 18.5078 -2.6477 0.1408 0 7
1.6937 18.5374 -2.6477 0.1408 0 7
1.3963 18.5621 -2.6477 0.1408 0 7
1.0985 18.5821 -2.6477 0.1408 0 7
0.8004 18.5974 -2.6477 0.1408 0 7
0.5021 18.6078 -2.6477 0.1408 0 7
0.2037 18.6135 -2.6477 0.1408 0 7
-0.0948 18.6143 -2.6477 0.1408 0 7
-0.3932 18.6104 -2.6477 0.1408 0 7
-0.6916 18.6017 -2.6477 0.1408 0 7
-0.9897 18.5882 -2.6477 0.1408 0 7
-1.2876 18.5700 -2.6477 0.1408 0 7
-1.5852 18.5470 -2.6477 0.1408 0 7
-1.8824 18.5192 -2.6477 0.1408 0 7
-2.1791 18.4866 -2.6477 0.1408 0 6
-2.4752 18.4493 -2.6477 0.1408 0 6
-2.7707 18.4072 -2.6477 0.1408 0 6
-3.0655 18.3604 -2.6477 0.1408 0 7
-3.3595 18.3089 -2.6477 0.1408 0 7
-3.6526 18.2527 -2.6477 0.1408 0 7
-3.9448 18.1918 -2.6477 0.1408 0 7
-4.2360 18.1262 -2.6477 0.1408 0 7
-4.5261 18.0560 -2.6477 0.1408 0 7
-4.8150 17.9811 -2.6477 0.1408 0 7
-5.1027 17.9015 -2.6477 0.1408 0 7
-5.3891 17.8174 -2.6477 0.1408 0 7
-5.6740 17.7287 -2.6477 0.1408 0 7
-5.9576 17.6355 -2.6477 0.1408 0 7
-6.2396 17.5377 -2.6477 0.1408 0 7
-6.5200 17.4354 -2.6477 0.1408 0 7
-6.7987 17.3286 -2.6477 0.1408 0 7
-7.0756 17.2174 -2.6477 0.1408 0 7
-7.3508 17.1017 -2.6477 0.1408 0 7
-7.6240 16.9817 -2.6477 0.1408 0 7
-7.8954 16.8572 -2.6477 0.1408 0 7
12.5599 12.2808 -2.6477 0.1490 0 7
12.3614 12.4806 -2.6477 0.1490 0 7
12.1597 12.6772 -2.6477 0.1490 0 7
11.9548 12.8705 -2.6477 0.1490 0 7
11.7469 13.0606 -2.6477 0.1490 0 7
11.5360 13.2472 -2.6477 0.1490 0 7
11.3221 13.4305 -2.6477 0.1490 0 7
11.1053 13.6103 -2.6477 0.1490 0 7
10.8857 13.7866 -2.6477 0.1490 0 7
10.6632 13.9594 -2.6477 0.1490 0 7
10.4380 14.1286 -2.6477 0.1490 0 7
10.2102 14.2941 -2.6477 0.1490 0 7
9.9797 14.4560 -2.6477 0.1490 0 7
9.7466 14.6141 -2.6477 0.1490 0 7
9.5110 14.7685 -2.6477 0.1490 0 7
9.2730 14.9191 -2.6477 0.1490 0 7
9.0326 15.0659 -2.6477 0.1490 0 7
8.7899 15.2088 -2.6477 0.1490 0 7
8.5449 15.3478 -2.6477 0.1490 0 7
8.2977 15.4828 -2.6477 0.1490 0 7
8.0484 15.6139 -2.6477 0.1490 0 7
7.7970 15.7409 -2.6477 0.1490 0 7
7.5436 15.8639 -2.6477 0.1490 0 7
7.2883 15.9828 -2.6477 0.1490 0 7
7.0311 16.0976 -2.6477 0.1490 0 7
6.7721 16.2083 -2.6477 0.1490 0 7
6.5113 16.3148 -2.6477 0.1490 0 7
6.2489 16.4171 -2.6477 0.1490 0 7
5.9849 16.5152 -2.6477 0.1490 0 7
5.7193 16.6090 -2.6477 0.1490 0 7
5.4523 16.6986 -2.6477 0.1490 0 7
5.1838 16.7838 -2.6477 0.1490 0 7
4.9141 16.8648 -2.6477 0.1490 0 7
4.6430 16.9414 -2.6477 0.1490 0 7
4.3708 17.0137 -2.6477 0.1490 0 7
4.0974 17.0816 -2.6477 0.1490 0 7
3.8230 17.1451 -2.6477 0.1490 0 7
3.5476 17.2042 -2.6477 0.1490 0 7
3.2713 17.2588 -2.6477 0.1490 0 7
2.9942 17.3091 -2.6477 0.1490 0 7
2.7163 17.3549 -2.6477 0.1490 0 7
2.4377 17.3962 -2.6477 0.1490 0 7
2.1584 17.4330 -2.6477 0.1490 0 7
1.8786 17.4654 -2.6477 0.1490 0 7
1.5983 17.4933 -2.6477 0.1490 0 7
1.3176 17.5167 -2.6477 0.1490 0 7
1.0366 17.5355 -2.6477 0.1490 0 7
0.7553 17.5499 -2.6477 0.1490 0 7
0.4738 17.5598 -2.6477 0.1490 0 7
0.1922 17.5651 -2.6477 0.1490 0 7
-0.0894 17.5659 -2.6477 0.1490 0 7
-0.3711 17.5622 -2.6477 0.1490 0 7
-0.6526 17.5540 -2.6477 0.1490 0 7
-0.9340 17.5413 -2.6477 0.1490 0 7
-1.2151 17.5241 -2.6477 0.1490 0 7
-1.4959 17.5023 -2.6477 0.1490 0 7
-1.7764 17.4761 -2.6477 0.1490 0 7
-2.0564 17.4454 -2.6477 0.1490 0 7
-2.3358 17.4102 -2.6477 0.1490 0 7
-2.6147 17.3705 -2.6477 0.1490 0 7
-2.8928 17.3263 -2.6477 0.1490 0 7
-3.1703 17.2777 -2.6477 0.1490 0 7
-3.4469 17.2246 -2.6477 0.1490 0 7
-3.7226 17.1672 -2.6477 0.1490 0 7
-3.9974 17.1053 -2.6477 0.1490 0 7
-4.2712 17.0390 -2.6477 0.1490 0 7
-4.5438 16.9683 -2.6477 0.1490 0 7
-4.8153 16.8933 -2.6477 0.1490 0 7
-5.0855 16.8139 -2.6477 0.1490 0 7
-5.3545 16.7302 -2.6477 0.1490 0 7
-5.6220 16.6422 -2.6477 0.1490 0 7
-5.8881 16.5499 -2.6477 0.1490 0 7
-6.1527 16.4534 -2.6477 0.1490 0 7
-6.4158 16.3526 -2.6477 0.1490 0 7
-6.6771 16.2476 -2.6477 0.1490 0 7
-6.9368 16.1385 -2.6477 0.1490 0 7
-7.1946 16.0252 -2.6477 0.1490 0 7
-7.4507 15.9078 -2.6477 0.1490 0 7
11.8886 11.6244 -2.6477 0.1573 0 7
11.7007 11.8136 -2.6477 0.1573 0 7
11.5098 11.9997 -2.6477 0.1573 0 7
11.3159 12.1827 -2.6477 0.1573 0 7
11.1191 12.3625 -2.6477 0.1573 0 7
10.9195 12.5392 -2.6477 0.1573 0 7
10.7170 12.7127 -2.6477 0.1573 0 7
10.5118 12.8829 -2.6477 0.1573 0 7
10.3039 13.0498 -2.6477 0.1573 0 7
10.0933 13.2133 -2.6477 0.1573 0 7
9.8802 13.3735 -2.6477 0.1573 0 7
9.6645 13.5301 -2.6477 0.1573 0 7
9.4463 13.6834 -2.6477 0.1573 0 7
9.2257 13.8331 -2.6477 0.1573 0 7
9.0027 13.9792 -2.6477 0.1573 0 7
8.7774 14.1218 -2.6477 0.1573 0 7
8.5498 14.2607 -2.6477 0.1573 0 7
8.3201 14.3959 -2.6477 0.1573 0 7
8.0882 14.5275 -2.6477 0.1573 0 7
7.8542 14.6553 -2.6477 0.1573 0 7
7.6182 14.7794 -2.6477 0.1573 0 7
7.3802 14.8996 -2.6477 0.1573 0 6
7.1404 15.0160 -2.6477 0.1573 0 6
6.8988 15.1286 -2.6477 0.1573 0 7
6.6553 15.2372 -2.6477 0.1573 0 7
6.4101 15.3420 -2.6477 0.1573 0 7
6.1633 15.4428 -2.6477 0.1573 0 7
5.9149 15.5396 -2.6477 0.1573 0 7
5.6650 15.6325 -2.6477 0.1573 0 7
5.4136 15.7213 -2.6477 0.1573 0 7
5.1609 15.8061 -2.6477 0.1573 0 7
4.9068 15.8868 -2.6477 0.1573 0 7
4.6514 15.9634 -2.6477 0.1573 0 7
4.3949 16.0360 -2.6477 0.1573 0 7
4.1372 16.1044 -2.6477 0.1573 0 7
3.8784 16.1686 -2.6477 0.1573 0 7
3.6187 16.2287 -2.6477 0.1573 0 7
3.3580 16.2847 -2.6477 0.1573 0 7
3.0965 16.3364 -2.6477 0.1573 0 7
2.8341 16.3840 -2.6477 0.1573 0 7
2.5711 16.4273 -2.6477 0.1573 0 7
2.3074 16.4664 -2.6477 0.1573 0 7
2.0431 16.5013 -2.6477 0.1573 0 7
1.7782 16.5319 -2.6477 0.1573 0 7
1.5129 16.5583 -2.6477 0.1573 0 7
1.2472 16.5805 -2.6477 0.1573 0 7
0.9812 16.5983 -2.6477 0.1573 0 7
0.7150 16.6119 -2.6477 0.1573 0 7
0.4485 16.6212 -2.6477 0.1573 0 7
0.1820 16.6263 -2.6477 0.1573 0 7
-0.0847 16.6271 -2.6477 0.1573 0 7
-0.3512 16.6236 -2.6477 0.1573 0 7
-0.6177 16.6158 -2.6477 0.1573 0 7
-0.8841 16.6038 -2.6477 0.1573 0 7
-1.1502 16.5875 -2.6477 0.1573 0 7
-1.4160 16.5669 -2.6477 0.1573 0 7
-1.6814 16.5421 -2.6477 0.1573 0 7
-1.9464 16.5130 -2.6477 0.1573 0 7
-2.2110 16.4796 -2.6477 0.1573 0 7
-2.4749 16.4421 -2.6477 0.1573 0 7
-2.7382 16.4003 -2.6477 0.1573 0 7
-3.0008 16.3543 -2.6477 0.1573 0 7
-3.2627 16.3040 -2.6477 0.1573 0 7
-3.5237 16.2496 -2.6477 0.1573 0 7
-3.7838 16.1910 -2.6477 0.1573 0 7
-4.0429 16.1283 -2.6477 0.1573 0 7
-4.3009 16.0614 -2.6477 0.1573 0 7
-4.5579 15.9904 -2.6477 0.1573 0 7
-4.8137 15.9152 -2.6477 0.1573 0 7
-5.0683 15.8360 -2.6477 0.1573 0 7
-5.3215 15.7527 -2.6477 0.1573 0 7
-5.5734 15.6654 -2.6477 0.1573 0 7
-5.8239 15.5740 -2.6477 0.1573 0 7
-6.0729 15.4786 -2.6477 0.1573 0 7
-6.3202 15.3792 -2.6477 0.1573 0 7
-6.5660 15.2759 -2.6477 0.1573 0 7
-6.8101 15.1687 -2.6477 0.1573 0 7
-7.0524 15.0576 -2.6477 0.1573 0 7
11.2839 11.0332 -2.6477 0.1655 0 7
11.1056 11.2127 -2.6477 0.1655 0 7
10.9244 11.3893 -2.6477 0.1655 0 7
10.7403 11.5630 -2.6477 0.1655 0 7
10.5536 11.7337 -2.6477 0.1655 0 7
10.3641 11.9014 -2.6477 0.1655 0 7
10.1719 12.0661 -2.6477 0.1655 0 7
9.9771 12.2276 -2.6477 0.1655 0 7
9.7798 12.3860 -2.6477 0.1655 0 7
9.5799 12.5412 -2.6477 0.1655 0 7
9.3776 12.6932 -2.6477 0.1655 0 7
9.1729 12.8420 -2.6477 0.1655 0 7
8.9658 12.9874 -2.6477 0.1655 0 7
8.7564 13.1295 -2.6477 0.1655 0 7
8.5448 13.2682 -2.6477 0.1655 0 7
8.3309 13.4035 -2.6477 0.1655 0 7
8.1150 13.5353 -2.6477 0.1655 0 7
7.8969 13.6637 -2.6477 0.1655 0 7
7.6768 13.7886 -2.6477 0.1655 0 7
7.4547 13.9099 -2.6477 0.1655 0 7
7.2307 14.0276 -2.6477 0.1655 0 7
7.0049 14.1418 -2.6477 0.1655 0 7
6.7773 14.2523 -2.6477 0.1655 0 7
6.5479 14.3591 -2.6477 0.1655 0 7
6.3168 14.4622 -2.6477 0.1655 0 7
6.0841 14.5617 -2.6477 0.1655 0 7
5.8498 14.6573 -2.6477 0.1655 0 7
5.6141 14.7492 -2.6477 0.1655 0 7
5.3769 14.8374 -2.6477 0.1655 0 7
5.1382 14.9217 -2.6477 0.1655 0 7
4.8984 15.0021 -2.6477 0.1655 0 7
4.6572 15.0787 -2.6477 0.1655 0 7
4.4148 15.1515 -2.6477 0.1655 0 7
4.1713 15.2203 -2.6477 0.1655 0 7
3.9268 15.2852 -2.6477 0.1655 0 7
3.6812 15.3462 -2.6477 0.1655 0 7
3.4346 15.4033 -2.6477 0.1655 0 7
3.1872 15.4564 -2.6477 0.1655 0 7
2.9390 15.5055 -2.6477 0.1655 0 7
2.6900 15.5506 -2.6477 0.1655 0 7
2.4403 15.5918 -2.6477 0.1655 0 7
2.1900 15.6289 -2.6477 0.1655 0 7
1.9391 15.6620 -2.6477 0.1655 0 7
1.6878 15.6911 -2.6477 0.1655 0 7
1.4360 15.7161 -2.6477 0.1655 0 7
1.1838 15.7371 -2.6477 0.1655 0 7
0.9313 15.7541 -2.6477 0.1655 0 7
0.6786 15.7670 -2.6477 0.1655 0 7
0.4257 15.7758 -2.6477 0.1655 0 7
0.1727 15.7806 -2.6477 0.1655 0 7
-0.0804 15.7814 -2.6477 0.1655 0 7
-0.3334 15.7781 -2.6477 0.1655 0 7
-0.5863 15.7707 -2.6477 0.1655 0 7
-0.8391 15.7593 -2.6477 0.1655 0 7
-1.0917 15.7438 -2.6477 0.1655 0 7
-1.3440 15.7242 -2.6477 0.1655 0 7
-1.5959 15.7007 -2.6477 0.1655 0 7
-1.8474 15.6731 -2.6477 0.1655 0 7
-2.0985 15.6414 -2.6477 0.1655 0 7
-2.3490 15.6058 -2.6477 0.1655 0 7
-2.5989 15.5661 -2.6477 0.1655 0 7
-2.8482 15.5224 -2.6477 0.1655 0 7
-3.0967 15.4748 -2.6477 0.1655 0 7
-3.3444 15.4231 -2.6477 0.1655 0 7
-3.5913 15.3675 -2.6477 0.1655 0 7
-3.8372 15.3080 -2.6477 0.1655 0 7
-4.0822 15.2445 -2.6477 0.1655 0 7
-4.3261 15.1771 -2.6477 0.1655 0 7
-4.5689 15.1057 -2.6477 0.1655 0 7
-4.8105 15.0305 -2.6477 0.1655 0 7
-5.0509 14.9515 -2.6477 0.1655 0 7
-5.2900 14.8686 -2.6477 0.1655 0 7
-5.5277 14.7818 -2.6477 0.1655 0 7
-5.7640 14.6913 -2.6477 0.1655 0 7
-5.9988 14.5970 -2.6477 0.1655 0 7
-6.2320 14.4990 -2.6477 0.1655 0 7
-6.4637 14.3972 -2.6477 0.1655 0 7
-6.6937 14.2917 -2.6477 0.1655 0 7
10.7363 10.4977 -2.6477 0.1736 0 7
10.5666 10.6685 -2.6477 0.1736 0 7
10.3942 10.8366 -2.6477 0.1736 0 7
10.2191 11.0019 -2.6477 0.1736 0 7
10.0414 11.1643 -2.6477 0.1736 0 7
9.8611 11.3239 -2.6477 0.1736 0 7
9.6783 11.4805 -2.6477 0.1736 0 6
9.4929 11.6342 -2.6477 0.1736 0 7
9.3052 11.7849 -2.6477 0.1736 0 7
9.1150 11.9326 -2.6477 0.1736 0 7
8.9225 12.0772 -2.6477 0.1736 0 7
8.7277 12.2187 -2.6477 0.1736 0 7
8.5307 12.3571 -2.6477 0.1736 0 7
8.3315 12.4923 -2.6477 0.1736 0 7
8.1301 12.6243 -2.6477 0.1736 0 7
7.9266 12.7530 -2.6477 0.1736 0 7
7.7211 12.8785 -2.6477 0.1736 0 7
7.5137 13.0006 -2.6477 0.1736 0 7
7.3042 13.1194 -2.6477 0.1736 0 7
7.0930 13.2348 -2.6477 0.1736 0 7
6.8798 13.3469 -2.6477 0.1736 0 7
6.6649 13.4555 -2.6477 0.1736 0 7
6.4484 13.5606 -2.6477 0.1736 0 7
6.2301 13.6622 -2.6477 0.1736 0 7
6.0102 13.7604 -2.6477 0.1736 0 7
5.7888 13.8550 -2.6477 0.1736 0 7
5.5659 13.9460 -2.6477 0.1736 0 7
5.3416 14.0335 -2.6477 0.1736 0 7
5.1159 14.1173 -2.6477 0.1736 0 7
4.8889 14.1975 -2.6477 0.1736 0 7
4.6606 14.2741 -2.6477 0.1736 0 7
4.4312 14.3470 -2.6477 0.1736 0 7
4.2006 14.4162 -2.6477 0.1736 0 7
3.9689 14.4817 -2.6477 0.1736 0 7
3.7362 14.5434 -2.6477 0.1736 0 7
3.5025 14.6015 -2.6477 0.1736 0 7
3.2680 14.6558 -2.6477 0.1736 0 7
3.0325 14.7063 -2.6477 0.1736 0 7
2.7964 14.7530 -2.6477 0.1736 0 7
2.5594 14.7960 -2.6477 0.1736 0 7
2.3219 14.8351 -2.6477 0.1736 0 7
2.0837 14.8704 -2.6477 0.1736 0 7
1.8450 14.9019 -2.6477 0.1736 0 7
1.6058 14.9296 -2.6477 0.1736 0 7
1.3663 14.9534 -2.6477 0.1736 0 7
1.1263 14.9734 -2.6477 0.1736 0 7
0.8861 14.9895 -2.6477 0.1736 0 7
0.6457 15.0018 -2.6477 0.1736 0 7
0.4050 15.0102 -2.6477 0.1736 0 7
0.1643 15.0148 -2.6477 0.1736 0 7
-0.0765 15.0155 -2.6477 0.1736 0 7
-0.3172 15.0123 -2.6477 0.1736 0 7
-0.5579 15.0053 -2.6477 0.1736 0 7
-0.7984 14.9945 -2.6477 0.1736 0 7
-1.0387 14.9797 -2.6477 0.1736 0 6
-1.2787 14.9611 -2.6477 0.1736 0 6
-1.5184 14.9387 -2.6477 0.1736 0 6
-1.7578 14.9124 -2.6477 0.1736 0 7
-1.9967 14.8823 -2.6477 0.1736 0 7
-2.2350 14.8484 -2.6477 0.1736 0 7
-2.4728 14.8107 -2.6477 0.1736 0 7
-2.7100 14.7691 -2.6477 0.1736 0 7
-2.9464 14.7238 -2.6477 0.1736 0 7
-3.1821 14.6746 -2.6477 0.1736 0 7
-3.4170 14.6217 -2.6477 0.1736 0 7
-3.6510 14.5651 -2.6477 0.1736 0 7
-3.8841 14.5047 -2.6477 0.1736 0 7
-4.1161 14.4405 -2.6477 0.1736 0 7
-4.3472 14.3727 -2.6477 0.1736 0 7
-4.5770 14.3011 -2.6477 0.1736 0 7
-4.8058 14.2259 -2.6477 0.1736 0 7
-5.0332 14.1470 -2.6477 0.1736 0 7
-5.2594 14.0645 -2.6477 0.1736 0 7
-5.4842 13.9783 -2.6477 0.1736 0 7
-5.7077 13.8886 -2.6477 0.1736 0 7
-5.9296 13.7953 -2.6477 0.1736 0 7
-6.1500 13.6985 -2.6477 0.1736 0 7
-6.3689 13.5981 -2.6477 0.1736 0 7
10.2380 10.0105 -2.6477 0.1818 0 7
10.0762 10.1734 -2.6477 0.1818 0 7
9.9118 10.3336 -2.6477 0.1818 0 7
9.7448 10.4912 -2.6477 0.1818 0 7
9.5753 10.6461 -2.6477 0.1818 0 7
9.4034 10.7983 -2.6477 0.1818 0 7
9.2291 10.9477 -2.6477 0.1818 0 7
9.0523 11.0942 -2.6477 0.1818 0 7
8.8733 11.2380 -2.6477 0.1818 0 7
8.6920 11.3788 -2.6477 0.1818 0 7
8.5084 11.5167 -2.6477 0.1818 0 7
8.3227 11.6516 -2.6477 0.1818 0 7
8.1348 11.7836 -2.6477 0.1818 0 7
7.9448 11.9125 -2.6477 0.1818 0 7
7.7528 12.0383 -2.6477 0.1818 0 7
7.5587 12.1611 -2.6477 0.1818 0 7
7.3628 12.2807 -2.6477 0.1818 0 7
7.1649 12.3972 -2.6477 0.1818 0 7
6.9652 12.5105 -2.6477 0.1818 0 7
6.7637 12.6206 -2.6477 0.1818 0 7
6.5605 12.7274 -2.6477 0.1818 0 7
6.3556 12.8310 -2.6477 0.1818 0 7
6.1491 12.9312 -2.6477 0.1818 0 7
5.9409 13.0281 -2.6477 0.1818 0 7
5.7313 13.1217 -2.6477 0.1818 0 7
5.5202 13.2119 -2.6477 0.1818 0 7
5.3076 13.2987 -2.6477 0.1818 0 7
5.0937 13.3821 -2.6477 0.1818 0 7
4.8785 13.4621 -2.6477 0.1818 0 7
4.6620 13.5386 -2.6477 0.1818 0 7
4.4443 13.6116 -2.6477 0.1818 0 7
4.2255 13.6811 -2.6477 0.1818 0 7
4.0056 13.7471 -2.6477 0.1818 0 7
3.7847 13.8095 -2.6477 0.1818 0 7
3.5628 13.8684 -2.6477 0.1818 0 7
3.3400 13.9238 -2.6477 0.1818 0 7
3.1163 13.9755 -2.6477 0.1818 0 7
2.8918 14.0237 -2.6477 0.1818 0 7
2.6666 14.0683 -2.6477 0.1818 0 7
2.4407 14.1092 -2.6477 0.1818 0 7
2.2141 14.1465 -2.6477 0.1818 0 7
1.9870 14.1802 -2.6477 0.1818 0 7
1.7594 14.2103 -2.6477 0.1818 0 7
1.5313 14.2366 -2.6477 0.1818 0 7
1.3029 14.2594 -2.6477 0.1818 0 7
1.0741 14.2784 -2.6477 0.1818 0 7
0.8450 14.2938 -2.6477 0.1818 0 7
0.6157 14.3055 -2.6477 0.1818 0 7
0.3862 14.3136 -2.6477 0.1818 0 7
0.1567 14.3179 -2.6477 0.1818 0 7
-0.0729 14.3186 -2.6477 0.1818 0 7
-0.3025 14.3156 -2.6477 0.1818 0 7
-0.5320 14.3089 -2.6477 0.1818 0 7
-0.7613 14.2985 -2.6477 0.1818 0 7
-0.9905 14.2845 -2.6477 0.1818 0 7
-1.2194 14.2667 -2.6477 0.1818 0 7
-1.4480 14.2454 -2.6477 0.1818 0 7
-1.6762 14.2203 -2.6477 0.1818 0 7
-1.9040 14.1916 -2.6477 0.1818 0 7
-2.1313 14.1593 -2.6477 0.1818 0 7
-2.3581 14.1233 -2.6477 0.1818 0 7
-2.5842 14.0836 -2.6477 0.1818 0 7
-2.8097 14.0404 -2.6477 0.1818 0 7
-3.0344 13.9935 -2.6477 0.1818 0 7
-3.2584 13.9431 -2.6477 0.1818 0 7
-3.4816 13.8891 -2.6477 0.1818 0 7
-3.7038 13.8314 -2.6477 0.1818 0 7
-3.9251 13.7703 -2.6477 0.1818 0 7
-4.1454 13.7056 -2.6477 0.1818 0 7
-4.3646 13.6373 -2.6477 0.1818 0 7
-4.5827 13.5656 -2.6477 0.1818 0 7
-4.7996 13.4904 -2.6477 0.1818 0 7
-5.0153 13.4117 -2.6477 0.1818 0 7
-5.2297 13.3296 -2.6477 0.1818 0 7
-5.4427 13.2440 -2.6477 0.1818 0 7
-5.6544 13.1550 -2.6477 0.1818 0 7
-5.8646 13.0627 -2.6477 0.1818 0 7
-6.0733 12.9670 -2.6477 0.1818 0 7
9.7826 9.5652 -2.6477 0.1900 0 7
9.6279 9.7208 -2.6477 0.1900 0 7
9.4708 9.8739 -2.6477 0.1900 0 7
9.3113 10.0245 -2.6477 0.1900 0 7
9.1494 10.1725 -2.6477 0.1900 0 7
8.9851 10.3179 -2.6477 0.1900 0 7
8.8185 10.4607 -2.6477 0.1900 0 7
8.6496 10.6007 -2.6477 0.1900 0 7
8.4786 10.7380 -2.6477 0.1900 0 7
8.3053 10.8726 -2.6477 0.1900 0 7
8.1299 11.0044 -2.6477 0.1900 0 7
7.9524 11.1333 -2.6477 0.1900 0 7
7.7729 11.2594 -2.6477 0.1900 0 7
7.5914 11.3826 -2.6477 0.1900 0 7
7.4079 11.5028 -2.6477 0.1900 0 6
7.2225 11.6201 -2.6477 0.1900 0 7
7.0352 11.7344 -2.6477 0.1900 0 7
6.8462 11.8457 -2.6477 0.1900 0 7
6.6554 11.9540 -2.6477 0.1900 0 7
6.4629 12.0591 -2.6477 0.1900 0 7
6.2687 12.1612 -2.6477 0.1900 0 7
6.0729 12.2602 -2.6477 0.1900 0 7
5.8755 12.3560 -2.6477 0.1900 0 7
5.6767 12.4486 -2.6477 0.1900 0 7
5.4763 12.5380 -2.6477 0.1900 0 7
5.2746 12.6242 -2.6477 0.1900 0 7
5.0715 12.7071 -2.6477 0.1900 0 7
4.8671 12.7868 -2.6477 0.1900 0 7
4.6615 12.8632 -2.6477 0.1900 0 7
4.4546 12.9363 -2.6477 0.1900 0 7
4.2466 13.0061 -2.6477 0.1900 0 7
4.0375 13.0725 -2.6477 0.1900 0 7
3.8274 13.1355 -2.6477 0.1900 0 7
3.6163 13.1952 -2.6477 0.1900 0 7
3.4043 13.2515 -2.6477 0.1900 0 7
3.1914 13.3044 -2.6477 0.1900 0 7
2.9776 13.3538 -2.6477 0.1900 0 7
2.7632 13.3999 -2.6477 0.1900 0 7
2.5479 13.4424 -2.6477 0.1900 0 7
2.3321 13.4816 -2.6477 0.1900 0 7
2.1156 13.5172 -2.6477 0.1900 0 7
1.8986 13.5494 -2.6477 0.1900 0 7
1.6811 13.5781 -2.6477 0.1900 0 7
1.4632 13.6033 -2.6477 0.1900 0 7
1.2449 13.6250 -2.6477 0.1900 0 7
1.0263 13.6432 -2.6477 0.1900 0 7
0.8074 13.6579 -2.6477 0.1900 0 7
0.5883 13.6691 -2.6477 0.1900 0 7
0.3691 13.6768 -2.6477 0.1900 0 7
0.1497 13.6810 -2.6477 0.1900 0 7
-0.0697 13.6816 -2.6477 0.1900 0 7
-0.2890 13.6787 -2.6477 0.1900 0 7
-0.5083 13.6723 -2.6477 0.1900 0 7
-0.7275 13.6624 -2.6477 0.1900 0 7
-0.9464 13.6490 -2.6477 0.1900 0 7
-1.1651 13.6321 -2.6477 0.1900 0 7
-1.3836 13.6116 -2.6477 0.1900 0 7
-1.6016 13.5877 -2.6477 0.1900 0 7
-1.8193 13.5603 -2.6477 0.1900 0 7
-2.0365 13.5294 -2.6477 0.1900 0 7
-2.2532 13.4950 -2.6477 0.1900 0 7
-2.4692 13.4571 -2.6477 0.1900 0 7
-2.6847 13.4158 -2.6477 0.1900 0 7
-2.8995 13.3710 -2.6477 0.1900 0 7
-3.1135 13.3228 -2.6477 0.1900 0 7
-3.3267 13.2712 -2.6477 0.1900 0 7
-3.5390 13.2161 -2.6477 0.1900 0 7
-3.7505 13.1577 -2.6477 0.1900 0 7
-3.9610 13.0959 -2.6477 0.1900 0 7
-4.1704 13.0307 -2.6477 0.1900 0 7
-4.3788 12.9621 -2.6477 0.1900 0 7
-4.5861 12.8903 -2.6477 0.1900 0 7
-4.7922 12.8151 -2.6477 0.1900 0 7
-4.9970 12.7366 -2.6477 0.1900 0 7
-5.2006 12.6548 -2.6477 0.1900 0 7
-5.4029 12.5698 -2.6477 0.1900 0 7
-5.6037 12.4816 -2.6477 0.1900 0 7
-5.8031 12.3901 -2.6477 0.1900 0 7
9.3646 9.1565 -2.6477 0.1981 0 7
9.2166 9.3055 -2.6477 0.1981 0 7
9.0662 9.4521 -2.6477 0.1981 0 7
8.9135 9.5962 -2.6477 0.1981 0 7
8.7585 9.7379 -2.6477 0.1981 0 7
8.6012 9.8771 -2.6477 0.1981 0 7
8.4418 10.0138 -2.6477 0.1981 0 7
8.2801 10.1478 -2.6477 0.1981 0 7
8.1163 10.2793 -2.6477 0.1981 0 7
7.9505 10.4081 -2.6477 0.1981 0 7
7.7826 10.5342 -2.6477 0.1981 0 7
7.6127 10.6577 -2.6477 0.1981 0 7
7.4408 10.7783 -2.6477 0.1981 0 7
7.2670 10.8963 -2.6477 0.1981 0 7
7.0914 11.0114 -2.6477 0.1981 0 7
6.9139 11.1237 -2.6477 0.1981 0 7
6.7347 11.2331 -2.6477 0.1981 0 7
6.5537 11.3396 -2.6477 0.1981 0 7
6.3711 11.4433 -2.6477 0.1981 0 6
6.1868 11.5439 -2.6477 0.1981 0 7
6.0009 11.6417 -2.6477 0.1981 0 7
5.8134 11.7364 -2.6477 0.1981 0 7
5.6245 11.8281 -2.6477 0.1981 0 7
5.4341 11.9167 -2.6477 0.1981 0 7
5.2424 12.0023 -2.6477 0.1981 0 7
5.0492 12.0849 -2.6477 0.1981 0 7
4.8548 12.1643 -2.6477 0.1981 0 7
4.6592 12.2405 -2.6477 0.1981 0 7
4.4623 12.3137 -2.6477 0.1981 0 7
4.2643 12.3836 -2.6477 0.1981 0 7
4.0652 12.4504 -2.6477 0.1981 0 7
3.8651 12.5140 -2.6477 0.1981 0 7
3.6639 12.5743 -2.6477 0.1981 0 7
3.4618 12.6315 -2.6477 0.1981 0 7
3.2589 12.6854 -2.6477 0.1981 0 7
3.0550 12.7360 -2.6477 0.1981 0 7
2.8504 12.7833 -2.6477 0.1981 0 7
2.6451 12.8274 -2.6477 0.1981 0 7
2.4391 12.8681 -2.6477 0.1981 0 7
2.2324 12.9056 -2.6477 0.1981 0 7
2.0252 12.9397 -2.6477 0.1981 0 7
1.8175 12.9706 -2.6477 0.1981 0 7
1.6093 12.9980 -2.6477 0.1981 0 7
1.4007 13.0222 -2.6477 0.1981 0 7
1.1917 13.0429 -2.6477 0.1981 0 7
0.9824 13.0604 -2.6477 0.1981 0 7
0.7729 13.0744 -2.6477 0.1981 0 7
0.5632 13.0852 -2.6477 0.1981 0 7
0.3533 13.0925 -2.6477 0.1981 0 7
0.1433 13.0965 -2.6477 0.1981 0 7
-0.0667 13.0971 -2.6477 0.1981 0 7
-0.2767 13.0943 -2.6477 0.1981 0 7
-0.4866 13.0882 -2.6477 0.1981 0 7
-0.6964 13.0787 -2.6477 0.1981 0 7
-0.9060 13.0659 -2.6477 0.1981 0 7
-1.1154 13.0497 -2.6477 0.1981 0 7
-1.3245 13.0301 -2.6477 0.1981 0 7
-1.5332 13.0072 -2.6477 0.1981 0 7
-1.7416 12.9810 -2.6477 0.1981 0 7
-1.9495 12.9514 -2.6477 0.1981 0 7
-2.1569 12.9184 -2.6477 0.1981 0 7
-2.3637 12.8822 -2.6477 0.1981 0 7
-2.5700 12.8426 -2.6477 0.1981 0 7
-2.7756 12.7998 -2.6477 0.1981 0 7
-2.9805 12.7536 -2.6477 0.1981 0 7
-3.1846 12.7042 -2.6477 0.1981 0 7
-3.3878 12.6515 -2.6477 0.1981 0 7
-3.5903 12.5956 -2.6477 0.1981 0 7
-3.7918 12.5364 -2.6477 0.1981 0 7
-3.9923 12.4740 -2.6477 0.1981 0 7
-4.1918 12.4084 -2.6477 0.1981 0 7
-4.3902 12.3396 -2.6477 0.1981 0 7
-4.5875 12.2676 -2.6477 0.1981 0 7
-4.7836 12.1925 -2.6477 0.1981 0 7
-4.9784 12.1142 -2.6477 0.1981 0 7
-5.1720 12.0328 -2.6477 0.1981 0 7
-5.3643 11.9483 -2.6477 0.1981 0 7
-5.5552 11.8608 -2.6477 0.1981 0 7
8.4628 8.2748 -2.4953 0.2063 0 8
8.3291 8.4094 -2.4953 0.2063 0 8
8.6936 9.0636 -2.6477 0.2063 0 7
8.5471 9.2018 -2.6477 0.2063 0 7
8.3985 9.3377 -2.6477 0.2063 0 7
8.2477 9.4711 -2.6477 0.2063 0 7
8.0948 9.6022 -2.6477 0.2063 0 7
7.9398 9.7307 -2.6477 0.2063 0 7
7.7827 9.8568 -2.6477 0.2063 0 7
7.6237 9.9803 -2.6477 0.2063 0 7
7.4627 10.1012 -2.6477 0.2063 0 7
7.2998 10.2196 -2.6477 0.2063 0 7
7.1350 10.3353 -2.6477 0.2063 0 7
6.9683 10.4484 -2.6477 0.2063 0 7
6.7999 10.5588 -2.6477 0.2063 0 7
6.6297 10.6665 -2.6477 0.2063 0 7
6.4579 10.7714 -2.6477 0.2063 0 7
6.2843 10.8735 -2.6477 0.2063 0 7
6.1092 10.9729 -2.6477 0.2063 0 7
5.9325 11.0695 -2.6477 0.2063 0 7
5.7542 11.1632 -2.6477 0.2063 0 7
5.5745 11.2540 -2.6477 0.2063 0 7
5.3933 11.3419 -2.6477 0.2063 0 7
5.2107 11.4269 -2.6477 0.2063 0 6
5.0269 11.5090 -2.6477 0.2063 0 6
4.8417 11.5881 -2.6477 0.2063 0 7
4.6553 11.6643 -2.6477 0.2063 0 7
4.4677 11.7374 -2.6477 0.2063 0 7
4.2789 11.8075 -2.6477 0.2063 0 7
4.0890 11.8746 -2.6477 0.2063 0 7
3.8981 11.9387 -2.6477 0.2063 0 7
3.7062 11.9996 -2.6477 0.2063 0 7
3.5133 12.0575 -2.6477 0.2063 0 7
3.3195 12.1123 -2.6477 0.2063 0 7
3.1249 12.1640 -2.6477 0.2063 0 7
2.9295 12.2125 -2.6477 0.2063 0 7
2.7333 12.2579 -2.6477 0.2063 0 7
2.5364 12.3001 -2.6477 0.2063 0 7
2.3388 12.3392 -2.6477 0.2063 0 7
2.1407 12.3751 -2.6477 0.2063 0 7
1.9420 12.4079 -2.6477 0.2063 0 7
1.7428 12.4374 -2.6477 0.2063 0 7
1.5432 12.4638 -2.6477 0.2063 0 7
1.3431 12.4869 -2.6477 0.2063 0 7
1.1427 12.5068 -2.6477 0.2063 0 7
0.9421 12.5236 -2.6477 0.2063 0 7
0.7411 12.5370 -2.6477 0.2063 0 7
0.5400 12.5473 -2.6477 0.2063 0 7
0.3388 12.5544 -2.6477 0.2063 0 7
0.1374 12.5582 -2.6477 0.2063 0 7
-0.0639 12.5588 -2.6477 0.2063 0 7
-0.2653 12.5561 -2.6477 0.2063 0 7
-0.4666 12.5503 -2.6477 0.2063 0 7
-0.6678 12.5412 -2.6477 0.2063 0 7
-0.8688 12.5288 -2.6477 0.2063 0 7
-1.0695 12.5133 -2.6477 0.2063 0 7
-1.2700 12.4946 -2.6477 0.2063 0 7
-1.4702 12.4726 -2.6477 0.2063 0 7
-1.6700 12.4474 -2.6477 0.2063 0 7
-1.8694 12.4190 -2.6477 0.2063 0 7
-2.0682 12.3875 -2.6477 0.2063 0 7
-2.2666 12.3527 -2.6477 0.2063 0 7
-2.4644 12.3148 -2.6477 0.2063 0 7
-2.6615 12.2737 -2.6477 0.2063 0 7
-2.8579 12.2294 -2.6477 0.2063 0 7
-3.0537 12.1820 -2.6477 0.2063 0 7
-3.2486 12.1315 -2.6477 0.2063 0 7
-3.4427 12.0779 -2.6477 0.2063 0 7
-3.6359 12.0211 -2.6477 0.2063 0 7
-3.8282 11.9613 -2.6477 0.2063 0 7
-4.0195 11.8983 -2.6477 0.2063 0 7
-4.2097 11.8324 -2.6477 0.2063 0 7
-4.3989 11.7634 -2.6477 0.2063 0 7
-4.5869 11.6913 -2.6477 0.2063 0 7
-4.7738 11.6163 -2.6477 0.2063 0 7
-4.9594 11.5382 -2.6477 0.2063 0 7
-5.1438 11.4572 -2.6477 0.2063 0 6
-5.3269 11.3733 -2.6477 0.2063 0 6
8.1276 7.9470 -2.4953 0.2144 0 8
7.9991 8.0763 -2.4953 0.2144 0 8
7.8686 8.2035 -2.4953 0.2144 0 8
7.7411 8.3341 -2.4969 0.6564 0 8
7.6015 8.4516 -2.4953 0.2144 0 8
7.9210 9.0959 -2.6477 0.2144 0 7
7.7741 9.2218 -2.6477 0.2144 0 7
7.6252 9.3452 -2.6477 0.2144 0 7
7.4744 9.4663 -2.6477 0.2144 0 7
7.3217 9.5849 -2.6477 0.2144 0 7
7.1671 9.7011 -2.6477 0.2144 0 7
7.0106 9.8148 -2.6477 0.2144 0 7
6.8523 9.9259 -2.6477 0.2144 0 7
6.6923 10.0345 -2.6477 0.2144 0 7
6.5305 10.1405 -2.6477 0.2144 0 7
6.3671 10.2439 -2.6477 0.2144 0 7
6.2020 10.3447 -2.6477 0.2144 0 7
6.0354 10.4428 -2.6477 0.2144 0 7
5.8672 10.5382 -2.6477 0.2144 0 7
5.6974 10.6309 -2.6477 0.2144 0 7
5.5263 10.7209 -2.6477 0.2144 0 7
5.3537 10.8082 -2.6477 0.2144 0 7
5.1797 10.8926 -2.6477 0.2144 0 7
5.0044 10.9743 -2.6477 0.2144 0 7
4.8278 11.0531 -2.6477 0.2144 0 7
4.6499 11.1291 -2.6477 0.2144 0 7
4.4709 11.2022 -2.6477 0.2144 0 7
4.2907 11.2724 -2.6477 0.2144 0 7
4.1094 11.3398 -2.6477 0.2144 0 7
3.9269 11.4042 -2.6477 0.2144 0 6
3.7438 11.4657 -2.6477 0.2144 0 6
3.5594 11.5243 -2.6477 0.2144 0 7
3.3741 11.5798 -2.6477 0.2144 0 7
3.1880 11.6325 -2.6477 0.2144 0 7
3.0011 11.6821 -2.6477 0.2144 0 7
2.8134 11.7287 -2.6477 0.2144 0 7
2.6250 11.7723 -2.6477 0.2144 0 7
2.4359 11.8129 -2.6477 0.2144 0 7
2.2462 11.8504 -2.6477 0.2144 0 7
2.0559 11.8849 -2.6477 0.2144 0 7
1.8651 11.9163 -2.6477 0.2144 0 7
1.6738 11.9447 -2.6477 0.2144 0 7
1.4820 11.9700 -2.6477 0.2144 0 7
1.2899 11.9922 -2.6477 0.2144 0 7
1.0975 12.0114 -2.6477 0.2144 0 7
0.9047 12.0274 -2.6477 0.2144 0 7
0.7118 12.0404 -2.6477 0.2144 0 7
0.5186 12.0503 -2.6477 0.2144 0 7
0.3253 12.0570 -2.6477 0.2144 0 7
0.1320 12.0607 -2.6477 0.2144 0 7
-0.0614 12.0613 -2.6477 0.2144 0 7
-0.2548 12.0587 -2.6477 0.2144 0 7
-0.4481 12.0531 -2.6477 0.2144 0 7
-0.6413 12.0444 -2.6477 0.2144 0 7
-0.8343 12.0325 -2.6477 0.2144 0 7
-1.0272 12.0176 -2.6477 0.2144 0 7
-1.2197 11.9996 -2.6477 0.2144 0 7
-1.4120 11.9785 -2.6477 0.2144 0 7
-1.6038 11.9543 -2.6477 0.2144 0 7
-1.7953 11.9271 -2.6477 0.2144 0 7
-1.9863 11.8967 -2.6477 0.2144 0 7
-2.1768 11.8634 -2.6477 0.2144 0 7
-2.3667 11.8269 -2.6477 0.2144 0 7
-2.5561 11.7875 -2.6477 0.2144 0 7
-2.7447 11.7450 -2.6477 0.2144 0 7
-2.9327 11.6994 -2.6477 0.2144 0 7
-3.1199 11.6509 -2.6477 0.2144 0 7
-3.3063 11.5994 -2.6477 0.2144 0 7
-3.4919 11.5449 -2.6477 0.2144 0 7
-3.6765 11.4874 -2.6477 0.2144 0 7
-3.8602 11.4270 -2.6477 0.2144 0 6
-4.0430 11.3636 -2.6477 0.2144 0 6
-4.2246 11.2974 -2.6477 0.2144 0 7
-4.4052 11.2282 -2.6477 0.2144 0 7
-4.5847 11.1561 -2.6477 0.2144 0 7
-4.7630 11.0811 -2.6477 0.2144 0 7
-4.9400 11.0034 -2.6477 0.2144 0 7
-5.1158 10.9227 -2.6477 0.2144 0 7
7.8168 7.6431 -2.4953 0.2225 0 8
7.6932 7.7675 -2.4953 0.2225 0 8
7.5677 7.8898 -2.4953 0.2225 0 8
7.4402 8.0101 -2.4953 0.2225 0 8
7.3109 8.1284 -2.4953 0.2225 0 8
7.1796 8.2446 -2.4953 0.2225 0 8
7.0465 8.3586 -2.4953 0.2225 0 8
6.9115 8.4706 -2.4953 0.2225 0 8
7.1886 9.1043 -2.6477 0.2225 0 7
7.0417 9.2184 -2.6477 0.2225 0 7
6.8930 9.3301 -2.6477 0.2225 0 7
6.7425 9.4395 -2.6477 0.2225 0 7
6.5903 9.5464 -2.6477 0.2225 0 7
6.4364 9.6508 -2.6477 0.2225 0 7
6.2808 9.7527 -2.6477 0.2225 0 7
6.1236 9.8522 -2.6477 0.2225 0 7
5.9649 9.9491 -2.6477 0.2225 0 7
5.8046 10.0435 -2.6477 0.2225 0 7
5.6428 10.1353 -2.6477 0.2225 0 7
5.4796 10.2244 -2.6477 0.2225 0 7
5.3149 10.3110 -2.6477 0.2225 0 7
5.1489 10.3949 -2.6477 0.2225 0 7
4.9816 10.4761 -2.6477 0.2225 0 7
4.8130 10.5546 -2.6477 0.2225 0 7
4.6431 10.6304 -2.6477 0.2225 0 7
4.4721 10.7035 -2.6477 0.2225 0 7
4.2999 10.7738 -2.6477 0.2225 0 7
4.1266 10.8414 -2.6477 0.2225 0 7
3.9523 10.9062 -2.6477 0.2225 0 7
3.7769 10.9681 -2.6477 0.2225 0 7
3.6005 11.0273 -2.6477 0.2225 0 7
3.4233 11.0836 -2.6477 0.2225 0 7
3.2451 11.1371 -2.6477 0.2225 0 7
3.0661 11.1877 -2.6477 0.2225 0 7
2.8863 11.2354 -2.6477 0.2225 0 7
2.7058 11.2802 -2.6477 0.2225 0 7
2.5246 11.3222 -2.6477 0.2225 0 7
2.3428 11.3612 -2.6477 0.2225 0 7
2.1603 11.3973 -2.6477 0.2225 0 6
1.9772 11.4305 -2.6477 0.2225 0 6
1.7937 11.4607 -2.6477 0.2225 0 6
1.6098 11.4880 -2.6477 0.2225 0 6
1.4254 11.5123 -2.6477 0.2225 0 7
1.2406 11.5337 -2.6477 0.2225 0 7
1.0555 11.5521 -2.6477 0.2225 0 7
0.8701 11.5675 -2.6477 0.2225 0 7
0.6846 11.5800 -2.6477 0.2225 0 7
0.4988 11.5895 -2.6477 0.2225 0 7
0.3129 11.5960 -2.6477 0.2225 0 7
0.1269 11.5995 -2.6477 0.2225 0 7
-0.0591 11.6001 -2.6477 0.2225 0 7
-0.2450 11.5976 -2.6477 0.2225 0 7
-0.4310 11.5922 -2.6477 0.2225 0 7
-0.6168 11.5838 -2.6477 0.2225 0 7
-0.8024 11.5724 -2.6477 0.2225 0 7
-0.9879 11.5581 -2.6477 0.2225 0 7
-1.1731 11.5407 -2.6477 0.2225 0 7
-1.3580 11.5205 -2.6477 0.2225 0 7
-1.5425 11.4972 -2.6477 0.2225 0 7
-1.7266 11.4710 -2.6477 0.2225 0 6
-1.9103 11.4418 -2.6477 0.2225 0 6
-2.0936 11.4097 -2.6477 0.2225 0 6
-2.2762 11.3747 -2.6477 0.2225 0 6
-2.4583 11.3367 -2.6477 0.2225 0 7
-2.6398 11.2959 -2.6477 0.2225 0 7
-2.8205 11.2521 -2.6477 0.2225 0 7
-3.0006 11.2054 -2.6477 0.2225 0 7
-3.1799 11.1559 -2.6477 0.2225 0 7
-3.3583 11.1034 -2.6477 0.2225 0 7
-3.5359 11.0482 -2.6477 0.2225 0 7
-3.7126 10.9901 -2.6477 0.2225 0 7
-3.8884 10.9291 -2.6477 0.2225 0 7
-4.0631 10.8654 -2.6477 0.2225 0 7
-4.2368 10.7988 -2.6477 0.2225 0 7
-4.4094 10.7295 -2.6477 0.2225 0 7
-4.5809 10.6574 -2.6477 0.2225 0 7
-4.7511 10.5826 -2.6477 0.2225 0 7
-4.9202 10.5051 -2.6477 0.2225 0 7
7.5279 7.3606 -2.4953 0.2306 0 8
7.4089 7.4803 -2.4953 0.2306 0 8
7.2880 7.5982 -2.4953 0.2306 0 8
7.1652 7.7140 -2.4953 0.2306 0 8
7.0406 7.8279 -2.4953 0.2306 0 8
6.9142 7.9398 -2.4953 0.2306 0 8
6.7860 8.0497 -2.4953 0.2306 0 8
6.6561 8.1574 -2.4953 0.2306 0 8
6.5244 8.2631 -2.4953 0.2306 0 8
6.3911 8.3667 -2.4953 0.2306 0 8
6.2561 8.4681 -2.4953 0.2306 0 8
6.4933 9.0905 -2.6477 0.2306 0 7
6.3467 9.1935 -2.6477 0.2306 0 7
6.1985 9.2940 -2.6477 0.2306 0 7
6.0487 9.3922 -2.6477 0.2306 0 7
5.8973 9.4880 -2.6477 0.2306 0 7
5.7444 9.5813 -2.6477 0.2306 0 7
5.5900 9.6722 -2.6477 0.2306 0 7
5.4342 9.7606 -2.6477 0.2306 0 7
5.2770 9.8465 -2.6477 0.2306 0 7
5.1185 9.9298 -2.6477 0.2306 0 7
4.9586 10.0106 -2.6477 0.2306 0 7
4.7975 10.0888 -2.6477 0.2306 0 7
4.6351 10.1645 -2.6477 0.2306 0 7
4.4715 10.2375 -2.6477 0.2306 0 7
4.3068 10.3079 -2.6477 0.2306 0 7
4.1410 10.3756 -2.6477 0.2306 0 7
3.9741 10.4406 -2.6477 0.2306 0 7
3.8062 10.5030 -2.6477 0.2306 0 7
3.6373 10.5627 -2.6477 0.2306 0 7
3.4674 10.6197 -2.6477 0.2306 0 7
3.2967 10.6739 -2.6477 0.2306 0 7
3.1252 10.7254 -2.6477 0.2306 0 7
2.9528 10.7741 -2.6477 0.2306 0 7
2.7797 10.8201 -2.6477 0.2306 0 7
2.6058 10.8632 -2.6477 0.2306 0 7
2.4313 10.9036 -2.6477 0.2306 0 7
2.2562 10.9412 -2.6477 0.2306 0 7
2.0804 10.9760 -2.6477 0.2306 0 7
1.9042 11.0079 -2.6477 0.2306 0 7
1.7274 11.0370 -2.6477 0.2306 0 7
1.5503 11.0633 -2.6477 0.2306 0 7
1.3727 11.0868 -2.6477 0.2306 0 7
1.1947 11.1073 -2.6477 0.2306 0 7
1.0165 11.1251 -2.6477 0.2306 0 7
0.8380 11.1399 -2.6477 0.2306 0 7
0.6593 11.1519 -2.6477 0.2306 0 7
0.4804 11.1611 -2.6477 0.2306 0 7
0.3013 11.1673 -2.6477 0.2306 0 7
0.1222 11.1707 -2.6477 0.2306 0 7
-0.0569 11.1713 -2.6477 0.2306 0 7
-0.2360 11.1689 -2.6477 0.2306 0 7
-0.4150 11.1637 -2.6477 0.2306 0 7
-0.5940 11.1556 -2.6477 0.2306 0 7
-0.7728 11.1446 -2.6477 0.2306 0 7
-0.9514 11.1308 -2.6477 0.2306 0 7
-1.1297 11.1141 -2.6477 0.2306 0 7
-1.3078 11.0946 -2.6477 0.2306 0 7
-1.4855 11.0722 -2.6477 0.2306 0 7
-1.6628 11.0470 -2.6477 0.2306 0 7
-1.8397 11.0189 -2.6477 0.2306 0 7
-2.0162 10.9880 -2.6477 0.2306 0 7
-2.1921 10.9542 -2.6477 0.2306 0 7
-2.3675 10.9177 -2.6477 0.2306 0 7
-2.5422 10.8783 -2.6477 0.2306 0 7
-2.7163 10.8361 -2.6477 0.2306 0 7
-2.8897 10.7912 -2.6477 0.2306 0 7
-3.0623 10.7435 -2.6477 0.2306 0 7
-3.2342 10.6930 -2.6477 0.2306 0 7
-3.4052 10.6398 -2.6477 0.2306 0 7
-3.5754 10.5838 -2.6477 0.2306 0 7
-3.7446 10.5251 -2.6477 0.2306 0 7
-3.9129 10.4637 -2.6477 0.2306 0 7
-4.0802 10.3996 -2.6477 0.2306 0 7
-4.2464 10.3329 -2.6477 0.2306 0 7
-4.4115 10.2635 -2.6477 0.2306 0 7
-4.5755 10.1914 -2.6477 0.2306 0 7
-4.7383 10.1167 -2.6477 0.2306 0 7
7.2585 7.0972 -2.4953 0.2387 0 8
7.1437 7.2127 -2.4953 0.2387 0 8
7.0272 7.3263 -2.4953 0.2387 0 8
6.9088 7.4380 -2.4953 0.2387 0 8
6.7887 7.5478 -2.4953 0.2387 0 8
6.6668 7.6557 -2.4953 0.2387 0 8
6.5432 7.7616 -2.4953 0.2387 0 8
6.4179 7.8655 -2.4953 0.2387 0 8
6.2909 7.9674 -2.4953 0.2387 0 8
6.1624 8.0673 -2.4953 0.2387 0 8
6.0322 8.1650 -2.4953 0.2387 0 8
5.9005 8.2607 -2.4953 0.2387 0 8
5.7673 8.3543 -2.4953 0.2387 0 8
5.6327 8.4457 -2.4953 0.2387 0 8
5.8322 9.0561 -2.6477 0.2387 0 7
5.6863 9.1485 -2.6477 0.2387 0 7
5.5388 9.2385 -2.6477 0.2387 0 7
5.3900 9.3261 -2.6477 0.2387 0 7
5.2398 9.4113 -2.6477 0.2387 0 7
5.0882 9.4941 -2.6477 0.2387 0 7
4.9353 9.5745 -2.6477 0.2387 0 7
4.7812 9.6524 -2.6477 0.2387 0 7
4.6258 9.7278 -2.6477 0.2387 0 7
4.4692 9.8007 -2.6477 0.2387 0 7
4.3115 9.8711 -2.6477 0.2387 0 7
4.1527 9.9390 -2.6477 0.2387 0 7
3.9928 10.0043 -2.6477 0.2387 0 7
3.8319 10.0670 -2.6477 0.2387 0 7
3.6700 10.1272 -2.6477 0.2387 0 7
3.5071 10.1847 -2.6477 0.2387 0 7
3.3434 10.2397 -2.6477 0.2387 0 7
3.1788 10.2919 -2.6477 0.2387 0 7
3.0133 10.3416 -2.6477 0.2387 0 7
2.8471 10.3886 -2.6477 0.2387 0 7
2.6802 10.4329 -2.6477 0.2387 0 7
2.5126 10.4745 -2.6477 0.2387 0 7
2.3443 10.5135 -2.6477 0.2387 0 7
2.1754 10.5497 -2.6477 0.2387 0 7
2.0060 10.5832 -2.6477 0.2387 0 7
1.8360 10.6140 -2.6477 0.2387 0 7
1.6656 10.6421 -2.6477 0.2387 0 7
1.4948 10.6674 -2.6477 0.2387 0 7
1.3236 10.6900 -2.6477 0.2387 0 7
1.1520 10.7099 -2.6477 0.2387 0 7
0.9801 10.7270 -2.6477 0.2387 0 7
0.8080 10.7413 -2.6477 0.2387 0 7
0.6357 10.7529 -2.6477 0.2387 0 7
0.4632 10.7617 -2.6477 0.2387 0 7
0.2906 10.7677 -2.6477 0.2387 0 7
0.1179 10.7710 -2.6477 0.2387 0 7
-0.0548 10.7715 -2.6477 0.2387 0 7
-0.2275 10.7693 -2.6477 0.2387 0 7
-0.4002 10.7642 -2.6477 0.2387 0 7
-0.5727 10.7564 -2.6477 0.2387 0 7
-0.7451 10.7459 -2.6477 0.2387 0 7
-0.9173 10.7325 -2.6477 0.2387 0 7
-1.0893 10.7164 -2.6477 0.2387 0 7
-1.2610 10.6976 -2.6477 0.2387 0 7
-1.4323 10.6760 -2.6477 0.2387 0 7
-1.6033 10.6517 -2.6477 0.2387 0 7
-1.7739 10.6246 -2.6477 0.2387 0 7
-1.9440 10.5948 -2.6477 0.2387 0 7
-2.1137 10.5622 -2.6477 0.2387 0 7
-2.2827 10.5270 -2.6477 0.2387 0 7
-2.4512 10.4890 -2.6477 0.2387 0 7
-2.6191 10.4484 -2.6477 0.2387 0 7
-2.7863 10.4051 -2.6477 0.2387 0 7
-2.9528 10.3590 -2.6477 0.2387 0 7
-3.1185 10.3104 -2.6477 0.2387 0 7
-3.2834 10.2590 -2.6477 0.2387 0 7
-3.4475 10.2051 -2.6477 0.2387 0 7
-3.6106 10.1485 -2.6477 0.2387 0 7
-3.7729 10.0893 -2.6477 0.2387 0 7
-3.9342 10.0275 -2.6477 0.2387 0 7
-4.0944 9.9631 -2.6477 0.2387 0 7
-4.2537 9.8962 -2.6477 0.2387 0 7
-4.4118 9.8267 -2.6477 0.2387 0 7
-4.5688 9.7547 -2.6477 0.2387 0 7
7.0067 6.8510 -2.4953 0.2468 0 8
6.8960 6.9625 -2.4953 0.2468 0 8
6.7835 7.0722 -2.4953 0.2468 0 8
6.6692 7.1800 -2.4953 0.2468 0 8
6.5532 7.2860 -2.4953 0.2468 0 8
6.4355 7.3902 -2.4953 0.2468 0 8
6.3162 7.4924 -2.4953 0.2468 0 8
6.1953 7.5927 -2.4953 0.2468 0 8
6.0727 7.6911 -2.4953 0.2468 0 8
5.9486 7.7875 -2.4953 0.2468 0 8
5.8230 7.8818 -2.4953 0.2468 0 8
5.6959 7.9742 -2.4953 0.2468 0 8
5.5673 8.0645 -2.4953 0.2468 0 8
5.4373 8.1527 -2.4953 0.2468 0 8
5.3059 8.2389 -2.4953 0.2468 0 8
5.1758 8.3273 -2.4966 0.7555 0 8
5.0390 8.4047 -2.4953 0.2468 0 8
5.2031 9.0027 -2.6477 0.2468 0 7
5.0580 9.0849 -2.6477 0.2468 0 7
4.9117 9.1649 -2.6477 0.2468 0 7
4.7641 9.2424 -2.6477 0.2468 0 7
4.6153 9.3176 -2.6477 0.2468 0 7
4.4654 9.3904 -2.6477 0.2468 0 7
4.3142 9.4608 -2.6477 0.2468 0 7
4.1620 9.5288 -2.6477 0.2468 0 7
4.0086 9.5943 -2.6477 0.2468 0 7
3.8543 9.6573 -2.6477 0.2468 0 7
3.6990 9.7179 -2.6477 0.2468 0 7
3.5427 9.7759 -2.6477 0.2468 0 7
3.3855 9.8315 -2.6477 0.2468 0 7
3.2274 9.8845 -2.6477 0.2468 0 7
3.0685 9.9350 -2.6477 0.2468 0 7
2.9088 9.9829 -2.6477 0.2468 0 7
2.7484 10.0283 -2.6477 0.2468 0 7
2.5872 10.0710 -2.6477 0.2468 0 7
2.4254 10.1112 -2.6477 0.2468 0 7
2.2630 10.1488 -2.6477 0.2468 0 7
2.1000 10.1838 -2.6477 0.2468 0 7
1.9364 10.2162 -2.6477 0.2468 0 7
1.7724 10.2459 -2.6477 0.2468 0 7
1.6079 10.2730 -2.6477 0.2468 0 7
1.4429 10.2975 -2.6477 0.2468 0 7
1.2776 10.3193 -2.6477 0.2468 0 7
1.1120 10.3384 -2.6477 0.2468 0 7
0.9461 10.3549 -2.6477 0.2468 0 7
0.7800 10.3688 -2.6477 0.2468 0 7
0.6136 10.3799 -2.6477 0.2468 0 7
0.4471 10.3884 -2.6477 0.2468 0 7
0.2805 10.3943 -2.6477 0.2468 0 7
0.1138 10.3974 -2.6477 0.2468 0 7
-0.0529 10.3979 -2.6477 0.2468 0 7
-0.2197 10.3957 -2.6477 0.2468 0 7
-0.3863 10.3909 -2.6477 0.2468 0 7
-0.5529 10.3833 -2.6477 0.2468 0 7
-0.7193 10.3731 -2.6477 0.2468 0 7
-0.8855 10.3603 -2.6477 0.2468 0 7
-1.0515 10.3448 -2.6477 0.2468 0 7
-1.2172 10.3266 -2.6477 0.2468 0 7
-1.3827 10.3057 -2.6477 0.2468 0 7
-1.5477 10.2822 -2.6477 0.2468 0 7
-1.7124 10.2561 -2.6477 0.2468 0 7
-1.8766 10.2273 -2.6477 0.2468 0 7
-2.0403 10.1959 -2.6477 0.2468 0 7
-2.2036 10.1619 -2.6477 0.2468 0 7
-2.3662 10.1252 -2.6477 0.2468 0 7
-2.5283 10.0860 -2.6477 0.2468 0 7
-2.6896 10.0442 -2.6477 0.2468 0 7
-2.8503 9.9998 -2.6477 0.2468 0 7
-3.0103 9.9528 -2.6477 0.2468 0 7
-3.1695 9.9032 -2.6477 0.2468 0 7
-3.3279 9.8511 -2.6477 0.2468 0 7
-3.4854 9.7965 -2.6477 0.2468 0 7
-3.6420 9.7394 -2.6477 0.2468 0 7
-3.7977 9.6797 -2.6477 0.2468 0 7
-3.9524 9.6176 -2.6477 0.2468 0 7
-4.1061 9.5530 -2.6477 0.2468 0 7
-4.2588 9.4859 -2.6477 0.2468 0 7
-4.4103 9.4164 -2.6477 0.2468 0 7
6.7709 6.6204 -2.4953 0.2548 0 8
6.6639 6.7282 -2.4953 0.2548 0 8
6.5551 6.8341 -2.4953 0.2548 0 8
6.4447 6.9384 -2.4953 0.2548 0 8
6.3326 7.0408 -2.4953 0.2548 0 8
6.2189 7.1414 -2.4953 0.2548 0 8
6.1036 7.2402 -2.4953 0.2548 0 8
5.9868 7.3372 -2.4953 0.2548 0 8
5.8683 7.4322 -2.4953 0.2548 0 8
5.7484 7.5254 -2.4953 0.2548 0 8
5.6270 7.6166 -2.4953 0.2548 0 8
5.5042 7.7058 -2.4953 0.2548 0 8
5.3799 7.7931 -2.4953 0.2548 0 8
5.2543 7.8783 -2.4953 0.2548 0 8
5.1273 7.9616 -2.4953 0.2548 0 8
4.9990 8.0427 -2.4953 0.2548 0 8
4.8694 8.1219 -2.4953 0.2548 0 8
4.7385 8.1989 -2.4953 0.2548 0 8
4.6065 8.2738 -2.4953 0.2548 0 8
4.4732 8.3466 -2.4953 0.2548 0 8
4.3388 8.4173 -2.4953 0.2548 0 8
4.4600 9.0040 -2.6477 0.2548 0 7
4.3151 9.0744 -2.6477 0.2548 0 7
4.1690 9.1424 -2.6477 0.2548 0 7
4.0219 9.2081 -2.6477 0.2548 0 7
3.8737 9.2714 -2.6477 0.2548 0 7
3.7246 9.3323 -2.6477 0.2548 0 7
3.5745 9.3908 -2.6477 0.2548 0 7
3.4234 9.4469 -2.6477 0.2548 0 7
3.2715 9.5006 -2.6477 0.2548 0 7
3.1188 9.5518 -2.6477 0.2548 0 7
2.9652 9.6006 -2.6477 0.2548 0 7
2.8109 9.6469 -2.6477 0.2548 0 7
2.6559 9.6907 -2.6477 0.2548 0 7
2.5002 9.7321 -2.6477 0.2548 0 7
2.3438 9.7709 -2.6477 0.2548 0 7
2.1868 9.8072 -2.6477 0.2548 0 7
2.0293 9.8410 -2.6477 0.2548 0 7
1.8712 9.8723 -2.6477 0.2548 0 7
1.7127 9.9010 -2.6477 0.2548 0 7
1.5537 9.9272 -2.6477 0.2548 0 7
1.3944 9.9509 -2.6477 0.2548 0 7
1.2346 9.9719 -2.6477 0.2548 0 7
1.0746 9.9905 -2.6477 0.2548 0 7
0.9143 10.0064 -2.6477 0.2548 0 7
0.7537 10.0198 -2.6477 0.2548 0 7
0.5930 10.0306 -2.6477 0.2548 0 7
0.4321 10.0388 -2.6477 0.2548 0 7
0.2710 10.0444 -2.6477 0.2548 0 7
0.1100 10.0475 -2.6477 0.2548 0 7
-0.0512 10.0479 -2.6477 0.2548 0 7
-0.2123 10.0458 -2.6477 0.2548 0 7
-0.3733 10.0411 -2.6477 0.2548 0 7
-0.5343 10.0339 -2.6477 0.2548 0 7
-0.6951 10.0240 -2.6477 0.2548 0 7
-0.8557 10.0116 -2.6477 0.2548 0 7
-1.0161 9.9966 -2.6477 0.2548 0 7
-1.1763 9.9790 -2.6477 0.2548 0 7
-1.3361 9.9589 -2.6477 0.2548 0 7
-1.4956 9.9361 -2.6477 0.2548 0 7
-1.6547 9.9109 -2.6477 0.2548 0 7
-1.8134 9.8831 -2.6477 0.2548 0 7
-1.9717 9.8527 -2.6477 0.2548 0 7
-2.1294 9.8199 -2.6477 0.2548 0 7
-2.2866 9.7845 -2.6477 0.2548 0 7
-2.4432 9.7465 -2.6477 0.2548 0 7
-2.5991 9.7061 -2.6477 0.2548 0 7
-2.7544 9.6632 -2.6477 0.2548 0 7
-2.9090 9.6178 -2.6477 0.2548 0 7
-3.0628 9.5699 -2.6477 0.2548 0 7
-3.2159 9.5196 -2.6477 0.2548 0 7
-3.3681 9.4668 -2.6477 0.2548 0 7
-3.5195 9.4116 -2.6477 0.2548 0 7
-3.6699 9.3539 -2.6477 0.2548 0 7
-3.8194 9.2939 -2.6477 0.2548 0 7
-3.9679 9.2314 -2.6477 0.2548 0 7
-4.1154 9.1666 -2.6477 0.2548 0 7
-4.2619 9.0995 -2.6477 0.2548 0 7
6.5495 6.4040 -2.4953 0.2628 0 8
6.4460 6.5082 -2.4953 0.2628 0 8
6.3408 6.6107 -2.4953 0.2628 0 8
6.2340 6.7115 -2.4953 0.2628 0 8
6.1256 6.8106 -2.4953 0.2628 0 8
6.0156 6.9079 -2.4953 0.2628 0 8
5.9040 7.0035 -2.4953 0.2628 0 8
5.7910 7.0972 -2.4953 0.2628 0 8
5.6764 7.1892 -2.4953 0.2628 0 8
5.5605 7.2793 -2.4953 0.2628 0 8
5.4430 7.3675 -2.4953 0.2628 0 8
5.3242 7.4538 -2.4953 0.2628 0 8
5.2040 7.5382 -2.4953 0.2628 0 8
5.0825 7.6207 -2.4953 0.2628 0 8
4.9596 7.7012 -2.4953 0.2628 0 8
4.8355 7.7797 -2.4953 0.2628 0 8
4.7101 7.8563 -2.4953 0.2628 0 8
4.5836 7.9308 -2.4953 0.2628 0 8
4.4558 8.0033 -2.4953 0.2628 0 8
4.3269 8.0737 -2.4953 0.2628 0 8
4.1969 8.1420 -2.4953 0.2628 0 8
4.0658 8.2083 -2.4953 0.2628 0 8
3.9337 8.2724 -2.4953 0.2628 0 8
3.8006 8.3344 -2.4953 0.2628 0 8
3.6664 8.3943 -2.4953 0.2628 0 8
3.5314 8.4520 -2.4953 0.2628 0 8
3.6028 9.0271 -2.6477 0.2628 0 7
3.4576 9.0837 -2.6477 0.2628 0 7
3.3115 9.1380 -2.6477 0.2628 0 7
3.1645 9.1899 -2.6477 0.2628 0 7
3.0168 9.2395 -2.6477 0.2628 0 7
2.8683 9.2866 -2.6477 0.2628 0 7
2.7190 9.3314 -2.6477 0.2628 0 7
2.5690 9.3738 -2.6477 0.2628 0 7
2.4184 9.4138 -2.6477 0.2628 0 7
2.2671 9.4514 -2.6477 0.2628 0 7
2.1153 9.4865 -2.6477 0.2628 0 7
1.9629 9.5192 -2.6477 0.2628 0 7
1.8101 9.5495 -2.6477 0.2628 0 7
1.6567 9.5773 -2.6477 0.2628 0 7
1.5029 9.6026 -2.6477 0.2628 0 7
1.3488 9.6255 -2.6477 0.2628 0 7
1.1943 9.6458 -2.6477 0.2628 0 7
1.0394 9.6638 -2.6477 0.2628 0 7
0.8844 9.6792 -2.6477 0.2628 0 7
0.7291 9.6921 -2.6477 0.2628 0 7
0.5736 9.7026 -2.6477 0.2628 0 7
0.4179 9.7105 -2.6477 0.2628 0 7
0.2622 9.7160 -2.6477 0.2628 0 7
0.1064 9.7189 -2.6477 0.2628 0 7
-0.0495 9.7194 -2.6477 0.2628 0 7
-0.2053 9.7173 -2.6477 0.2628 0 7
-0.3611 9.7128 -2.6477 0.2628 0 7
-0.5168 9.7058 -2.6477 0.2628 0 7
-0.6723 9.6962 -2.6477 0.2628 0 7
-0.8277 9.6842 -2.6477 0.2628 0 7
-0.9829 9.6697 -2.6477 0.2628 0 7
-1.1378 9.6527 -2.6477 0.2628 0 7
-1.2924 9.6332 -2.6477 0.2628 0 7
-1.4467 9.6112 -2.6477 0.2628 0 7
-1.6006 9.5868 -2.6477 0.2628 0 7
-1.7541 9.5599 -2.6477 0.2628 0 7
-1.9072 9.5305 -2.6477 0.2628 0 7
-2.0598 9.4987 -2.6477 0.2628 0 7
-2.2118 9.4645 -2.6477 0.2628 0 7
-2.3633 9.4278 -2.6477 0.2628 0 7
-2.5141 9.3887 -2.6477 0.2628 0 7
-2.6643 9.3472 -2.6477 0.2628 0 7
-2.8139 9.3033 -2.6477 0.2628 0 7
-2.9627 9.2570 -2.6477 0.2628 0 7
-3.1107 9.2083 -2.6477 0.2628 0 7
-3.2580 9.1572 -2.6477 0.2628 0 7
-3.4044 9.1038 -2.6477 0.2628 0 7
-3.5499 9.0480 -2.6477 0.2628 0 7
-3.6945 8.9900 -2.6477 0.2628 0 7
-3.6172 8.4156 -2.4953 0.2628 0 8
-3.7517 8.3565 -2.4953 0.2628 0 8
-3.8881 8.3015 -2.4971 0.8045 0 8
6.3412 6.2003 -2.4953 0.2708 0 8
6.2410 6.3012 -2.4953 0.2708 0 8
6.1391 6.4004 -2.4953 0.2708 0 8
6.0357 6.4980 -2.4953 0.2708 0 8
5.9307 6.5940 -2.4953 0.2708 0 8
5.8243 6.6882 -2.4953 0.2708 0 8
5.7163 6.7807 -2.4953 0.2708 0 8
5.6068 6.8715 -2.4953 0.2708 0 8
5.4959 6.9605 -2.4953 0.2708 0 8
5.3836 7.0478 -2.4953 0.2708 0 8
5.2699 7.1332 -2.4953 0.2708 0 8
5.1549 7.2168 -2.4953 0.2708 0 8
5.0385 7.2985 -2.4953 0.2708 0 8
4.9208 7.3783 -2.4953 0.2708 0 8
4.8019 7.4563 -2.4953 0.2708 0 8
4.6817 7.5323 -2.4953 0.2708 0 8
4.5603 7.6064 -2.4953 0.2708 0 8
4.4378 7.6786 -2.4953 0.2708 0 8
4.3141 7.7487 -2.4953 0.2708 0 8
4.1893 7.8169 -2.4953 0.2708 0 8
4.0634 7.8831 -2.4953 0.2708 0 8
3.9365 7.9472 -2.4953 0.2708 0 8
3.8086 8.0093 -2.4953 0.2708 0 8
3.6797 8.0693 -2.4953 0.2708 0 8
3.5498 8.1273 -2.4953 0.2708 0 8
3.4191 8.1832 -2.4953 0.2708 0 8
3.2874 8.2369 -2.4953 0.2708 0 8
3.1549 8.2886 -2.4953 0.2708 0 8
3.0216 8.3381 -2.4953 0.2708 0 8
2.8875 8.3855 -2.4953 0.2708 0 8
2.7527 8.4307 -2.4953 0.2708 0 8
2.7770 8.9913 -2.6477 0.2708 0 7
2.6325 9.0347 -2.6477 0.2708 0 7
2.4873 9.0757 -2.6477 0.2708 0 7
2.3415 9.1144 -2.6477 0.2708 0 7
2.1950 9.1508 -2.6477 0.2708 0 7
2.0480 9.1848 -2.6477 0.2708 0 7
1.9005 9.2165 -2.6477 0.2708 0 7
1.7525 9.2458 -2.6477 0.2708 0 7
1.6040 9.2727 -2.6477 0.2708 0 7
1.4551 9.2972 -2.6477 0.2708 0 7
1.3059 9.3193 -2.6477 0.2708 0 7
1.1563 9.3391 -2.6477 0.2708 0 7
1.0064 9.3564 -2.6477 0.2708 0 7
0.8562 9.3713 -2.6477 0.2708 0 7
0.7059 9.3839 -2.6477 0.2708 0 7
0.5553 9.3940 -2.6477 0.2708 0 7
0.4046 9.4017 -2.6477 0.2708 0 7
0.2538 9.4070 -2.6477 0.2708 0 7
0.1030 9.4098 -2.6477 0.2708 0 7
-0.0479 9.4103 -2.6477 0.2708 0 7
-0.1988 9.4083 -2.6477 0.2708 0 7
-0.3496 9.4039 -2.6477 0.2708 0 7
-0.5003 9.3971 -2.6477 0.2708 0 7
-0.6510 9.3878 -2.6477 0.2708 0 7
-0.8014 9.3762 -2.6477 0.2708 0 7
-0.9516 9.3621 -2.6477 0.2708 0 7
-1.1016 9.3457 -2.6477 0.2708 0 7
-1.2513 9.3268 -2.6477 0.2708 0 7
-1.4007 9.3056 -2.6477 0.2708 0 7
-1.5497 9.2819 -2.6477 0.2708 0 7
-1.6984 9.2559 -2.6477 0.2708 0 7
-1.8465 9.2274 -2.6477 0.2708 0 7
-1.9943 9.1966 -2.6477 0.2708 0 7
-2.1415 9.1635 -2.6477 0.2708 0 7
-2.2881 9.1280 -2.6477 0.2708 0 7
-2.4342 9.0901 -2.6477 0.2708 0 7
-2.5796 9.0499 -2.6477 0.2708 0 7
-2.7244 9.0074 -2.6477 0.2708 0 7
-2.8684 8.9626 -2.6477 0.2708 0 7
-2.8384 8.4022 -2.4953 0.2708 0 8
-2.9728 8.3556 -2.4953 0.2708 0 8
-3.1064 8.3069 -2.4953 0.2708 0 8
-3.2392 8.2560 -2.4953 0.2708 0 8
-3.3711 8.2030 -2.4953 0.2708 0 8
-3.5022 8.1479 -2.4953 0.2708 0 8
-3.6324 8.0907 -2.4953 0.2708 0 8
-3.7617 8.0314 -2.4953 0.2708 0 8
6.1448 6.0083 -2.4953 0.2788 0 8
6.0477 6.1061 -2.4953 0.2788 0 8
5.9490 6.2022 -2.4953 0.2788 0 8
5.8488 6.2968 -2.4953 0.2788 0 8
5.7471 6.3898 -2.4953 0.2788 0 8
5.6439 6.4811 -2.4953 0.2788 0 8
5.5393 6.5708 -2.4953 0.2788 0 8
5.4332 6.6588 -2.4953 0.2788 0 8
5.3257 6.7450 -2.4953 0.2788 0 8
5.2169 6.8295 -2.4953 0.2788 0 8
5.1067 6.9123 -2.4953 0.2788 0 8
4.9952 6.9933 -2.4953 0.2788 0 8
4.8825 7.0725 -2.4953 0.2788 0 8
4.7685 7.1499 -2.4953 0.2788 0 8
4.6532 7.2254 -2.4953 0.2788 0 8
4.5368 7.2991 -2.4953 0.2788 0 8
4.4191 7.3709 -2.4953 0.2788 0 8
4.3004 7.4408 -2.4953 0.2788 0 8
4.1805 7.5088 -2.4953 0.2788 0 8
4.0596 7.5749 -2.4953 0.2788 0 8
3.9376 7.6390 -2.4953 0.2788 0 8
3.8146 7.7011 -2.4953 0.2788 0 8
3.6907 7.7613 -2.4953 0.2788 0 8
3.5657 7.8195 -2.4953 0.2788 0 8
3.4399 7.8756 -2.4953 0.2788 0 8
3.3132 7.9298 -2.4953 0.2788 0 8
3.1856 7.9819 -2.4953 0.2788 0 8
3.0572 8.0319 -2.4953 0.2788 0 8
2.9281 8.0799 -2.4953 0.2788 0 8
2.7981 8.1258 -2.4953 0.2788 0 8
2.6675 8.1697 -2.4953 0.2788 0 8
2.5362 8.2114 -2.4953 0.2788 0 8
2.4042 8.2510 -2.4953 0.2788 0 8
2.2716 8.2885 -2.4953 0.2788 0 8
2.1386 8.3248 -2.4956 0.2792 0 8
2.0050 8.3587 -2.4958 0.2792 0 8
1.8709 8.3904 -2.4959 0.2791 0 8
1.7362 8.4198 -2.4961 0.3395 0 8
1.6009 8.4461 -2.4960 0.2461 0 8
1.5543 8.9856 -2.6477 0.2788 0 7
1.4101 9.0093 -2.6477 0.2788 0 7
1.2654 9.0308 -2.6477 0.2788 0 7
1.1205 9.0499 -2.6477 0.2788 0 7
0.9752 9.0667 -2.6477 0.2788 0 7
0.8297 9.0812 -2.6477 0.2788 0 7
0.6840 9.0933 -2.6477 0.2788 0 7
