ply
format ascii 1.0
element vertex 1319
property float32 x
property float32 y
property float32 z
property float32 CosAngle
property uint32 ObjIdx
property uint32 ObjTag
end_header
-92.4255 -52.2425 -2.6477 0.0249 0 7
-91.5724 -53.7238 -2.6477 0.0249 0 7
-90.6955 -55.1913 -2.6477 0.0249 0 7
-89.7952 -56.6445 -2.6477 0.0249 0 7
-88.8714 -58.0829 -2.6477 0.0249 0 7
-87.9247 -59.5062 -2.6477 0.0249 0 7
-86.9552 -60.9142 -2.6477 0.0249 0 7
-85.9631 -62.3064 -2.6477 0.0249 0 7
-84.9488 -63.6823 -2.6477 0.0249 0 7
-83.9124 -65.0419 -2.6477 0.0249 0 7
-82.8544 -66.3845 -2.6477 0.0249 0 7
-81.7748 -67.7099 -2.6477 0.0249 0 7
-80.6739 -69.0179 -2.6477 0.0249 0 7
-79.5522 -70.3079 -2.6477 0.0249 0 7
-78.4098 -71.5796 -2.6477 0.0249 0 7
-76.9065 -72.5116 -2.6360 0.7729 0 8
-74.7261 -72.7638 -2.6011 0.7484 0 8
-72.5033 -72.9104 -2.5643 0.7227 0 8
-70.2409 -72.9475 -2.5254 0.7055 0 8
-68.2320 -73.1839 -2.4953 0.0249 0 8
-67.0449 -74.2730 -2.4953 0.0249 0 8
-65.8403 -75.3429 -2.4953 0.0249 0 8
-64.6187 -76.3933 -2.4953 0.0249 0 8
-63.3802 -77.4237 -2.4953 0.0249 0 8
-62.1254 -78.4342 -2.4953 0.0249 0 8
-60.8975 -79.4805 -2.4970 0.0219 0 8
-59.7112 -80.5873 -2.5013 0.0219 0 8
-58.5033 -81.6742 -2.5054 0.0219 0 8
-57.2739 -82.7404 -2.5095 0.0218 0 8
-56.0237 -83.7855 -2.5135 0.0218 0 8
-54.7521 -84.8077 -2.5174 0.0218 0 8
-75.0843 26.4694 -2.6477 0.0332 0 7
-75.5008 25.2570 -2.6477 0.0332 0 7
-75.8976 24.0382 -2.6477 0.0332 0 7
-72.1040 21.5655 -2.5029 0.0332 0 14
-72.4419 20.4018 -2.5029 0.0332 0 14
-72.7610 19.2328 -2.5029 0.0332 0 14
-75.7887 18.7329 -2.5963 0.2445 0 8
-77.5850 17.8564 -2.6477 0.0332 0 7
-77.8624 16.6050 -2.6477 0.0332 0 7
-78.1197 15.3491 -2.6477 0.0332 0 7
-78.3567 14.0894 -2.6477 0.0332 0 7
-78.5734 12.8259 -2.6477 0.0332 0 7
-78.7697 11.5591 -2.6477 0.0332 0 7
-78.9456 10.2893 -2.6477 0.0332 0 7
-79.1011 9.0169 -2.6477 0.0332 0 7
-74.6752 7.2964 -2.4953 0.0332 0 8
-74.7830 6.0932 -2.4953 0.0332 0 8
-74.8714 4.8883 -2.4953 0.0332 0 8
-74.9404 3.6822 -2.4953 0.0332 0 8
-74.9900 2.4750 -2.4953 0.0332 0 8
-75.0201 1.2673 -2.4953 0.0332 0 8
-75.0308 0.0592 -2.4953 0.0332 0 8
-75.0220 -1.1488 -2.4953 0.0332 0 8
-74.9938 -2.3567 -2.4953 0.0332 0 8
-74.9461 -3.5639 -2.4953 0.0332 0 8
-74.8790 -4.7701 -2.4953 0.0332 0 8
-74.7925 -5.9751 -2.4953 0.0332 0 8
-74.6866 -7.1786 -2.4953 0.0332 0 8
-74.5613 -8.3802 -2.4953 0.0332 0 8
-74.4167 -9.5796 -2.4953 0.0332 0 8
-74.2528 -10.7766 -2.4953 0.0332 0 8
-74.0697 -11.9707 -2.4953 0.0332 0 8
-73.8674 -13.1618 -2.4953 0.0332 0 8
-73.6459 -14.3494 -2.4953 0.0332 0 8
-73.4053 -15.5333 -2.4953 0.0332 0 8
-73.1457 -16.7132 -2.4953 0.0332 0 8
-72.8671 -17.8888 -2.4953 0.0332 0 8
-72.5696 -19.0597 -2.4953 0.0332 0 8
-72.2533 -20.2257 -2.4953 0.0332 0 8
-71.9183 -21.3863 -2.4953 0.0332 0 8
-71.5646 -22.5416 -2.4953 0.0332 0 8
-71.1924 -23.6909 -2.4953 0.0332 0 8
-70.8017 -24.8341 -2.4953 0.0332 0 8
-70.3927 -25.9709 -2.4953 0.0332 0 8
-69.9654 -27.1009 -2.4953 0.0332 0 8
-69.5200 -28.2239 -2.4953 0.0332 0 8
-69.0566 -29.3396 -2.4953 0.0332 0 8
-68.5752 -30.4477 -2.4953 0.0332 0 8
-68.0761 -31.5478 -2.4953 0.0332 0 8
-67.5593 -32.6399 -2.4953 0.0332 0 8
-67.0249 -33.7234 -2.4953 0.0332 0 8
-66.4734 -34.7982 -2.4953 0.0332 0 8
-65.9044 -35.8640 -2.4953 0.0332 0 8
-65.3184 -36.9205 -2.4953 0.0332 0 8
-64.7155 -37.9674 -2.4953 0.0332 0 8
-64.0958 -39.0045 -2.4953 0.0332 0 8
-63.4595 -40.0314 -2.4953 0.0332 0 8
-62.8067 -41.0480 -2.4953 0.0332 0 8
-62.1377 -42.0539 -2.4953 0.0332 0 8
-61.4525 -43.0489 -2.4953 0.0332 0 8
-60.7514 -44.0328 -2.4953 0.0332 0 8
-60.0346 -45.0052 -2.4953 0.0332 0 8
-59.3021 -45.9661 -2.4953 0.0332 0 8
-58.5544 -46.9149 -2.4953 0.0332 0 8
-57.7915 -47.8516 -2.4953 0.0332 0 8
-57.0134 -48.7759 -2.4953 0.0332 0 8
-59.5100 -52.5947 -2.6413 0.0319 0 8
-58.7978 -53.6759 -2.6477 0.0332 0 7
-57.9259 -54.6157 -2.6477 0.0332 0 6
-57.0391 -55.5412 -2.6477 0.0332 0 7
-56.1373 -56.4525 -2.6477 0.0332 0 7
-55.2212 -57.3490 -2.6477 0.0332 0 7
-54.2906 -58.2307 -2.6477 0.0332 0 7
-53.3460 -59.0973 -2.6477 0.0332 0 7
-52.3875 -59.9486 -2.6477 0.0332 0 7
-51.4155 -60.7843 -2.6477 0.0332 0 7
-50.4302 -61.6042 -2.6477 0.0332 0 7
-49.4317 -62.4083 -2.6477 0.0332 0 7
-48.4204 -63.1961 -2.6477 0.0332 0 7
-47.3967 -63.9675 -2.6477 0.0332 0 7
-46.3607 -64.7223 -2.6477 0.0332 0 7
-45.3125 -65.4604 -2.6477 0.0332 0 7
-44.2527 -66.1815 -2.6477 0.0332 0 7
-43.1813 -66.8854 -2.6477 0.0332 0 7
-60.0550 21.1712 -2.6477 0.0415 0 7
-60.3882 20.2015 -2.6477 0.0415 0 7
-60.7056 19.2266 -2.6477 0.0415 0 7
-61.0073 18.2466 -2.6477 0.0415 0 7
-61.2932 17.2620 -2.6477 0.0415 0 7
-61.5632 16.2729 -2.6477 0.0415 0 7
-61.8172 15.2795 -2.6477 0.0415 0 7
-62.0552 14.2822 -2.6477 0.0415 0 7
-62.2771 13.2812 -2.6477 0.0415 0 7
-62.4829 12.2768 -2.6477 0.0415 0 7
-62.6725 11.2692 -2.6477 0.0415 0 7
-62.8458 10.2586 -2.6477 0.0415 0 7
-63.0028 9.2454 -2.6477 0.0415 0 7
-63.1106 8.2255 -2.6463 0.0444 0 8
-61.2548 6.9825 -2.5634 0.4154 0 8
-59.7346 5.8366 -2.4956 0.4531 0 8
-59.8141 4.8735 -2.4953 0.0415 0 8
-59.8848 3.9098 -2.4953 0.0415 0 8
-59.9399 2.9451 -2.4953 0.0415 0 8
-59.9796 1.9796 -2.4953 0.0415 0 8
-60.0037 1.0136 -2.4953 0.0415 0 8
-60.0123 0.0474 -2.4953 0.0415 0 8
-60.0052 -0.9189 -2.4953 0.0415 0 8
-59.9827 -1.8849 -2.4953 0.0415 0 8
-59.9445 -2.8505 -2.4953 0.0415 0 8
-59.8909 -3.8153 -2.4953 0.0415 0 8
-59.8217 -4.7791 -2.4953 0.0415 0 8
-59.7370 -5.7417 -2.4953 0.0415 0 8
-59.6368 -6.7028 -2.4953 0.0415 0 8
-59.5211 -7.6621 -2.4953 0.0415 0 8
-59.3900 -8.6195 -2.4953 0.0415 0 8
-59.2436 -9.5746 -2.4953 0.0415 0 8
-59.0817 -10.5272 -2.4953 0.0415 0 8
-58.9046 -11.4772 -2.4953 0.0415 0 8
-58.7121 -12.4241 -2.4953 0.0415 0 8
-58.5045 -13.3678 -2.4953 0.0415 0 8
-58.2817 -14.3081 -2.4953 0.0415 0 8
-58.0437 -15.2446 -2.4953 0.0415 0 8
-57.7907 -16.1772 -2.4953 0.0415 0 8
-57.5228 -17.1056 -2.4953 0.0415 0 8
-57.2399 -18.0295 -2.4953 0.0415 0 8
-56.9422 -18.9488 -2.4953 0.0415 0 8
-56.6297 -19.8632 -2.4953 0.0415 0 8
-56.5371 -20.8590 -2.5057 0.9318 0 8
-56.5266 -21.8954 -2.5205 0.9263 0 8
-56.5157 -22.9444 -2.5362 0.9206 0 8
-56.5047 -24.0067 -2.5527 0.9146 0 8
-56.4933 -25.0832 -2.5701 0.9085 0 8
-56.4817 -26.1747 -2.5884 0.9020 0 8
-56.4698 -27.2822 -2.6076 0.8954 0 8
-56.4575 -28.4064 -2.6279 0.8885 0 8
-56.3042 -29.4748 -2.6425 0.0566 0 8
-55.9322 -30.4372 -2.6477 0.0415 0 7
-55.4348 -31.3339 -2.6477 0.0415 0 7
-54.9231 -32.2224 -2.6477 0.0415 0 7
-54.3972 -33.1025 -2.6477 0.0415 0 7
-53.8571 -33.9741 -2.6477 0.0415 0 7
-53.3031 -34.8368 -2.6477 0.0415 0 7
-52.7353 -35.6905 -2.6477 0.0415 0 7
-52.1538 -36.5350 -2.6477 0.0415 0 7
-51.5588 -37.3700 -2.6477 0.0415 0 7
-50.9505 -38.1953 -2.6477 0.0415 0 7
-50.3288 -39.0107 -2.6477 0.0415 0 7
-49.6943 -39.8160 -2.6477 0.0415 0 7
-49.0467 -40.6109 -2.6477 0.0415 0 7
-48.3865 -41.3954 -2.6477 0.0415 0 7
-47.7137 -42.1691 -2.6477 0.0415 0 7
-47.0285 -42.9319 -2.6477 0.0415 0 6
-46.3312 -43.6835 -2.6477 0.0415 0 7
-45.6219 -44.4238 -2.6477 0.0415 0 7
-44.9007 -45.1527 -2.6477 0.0415 0 6
-44.1678 -45.8698 -2.6477 0.0415 0 7
-43.4235 -46.5750 -2.6477 0.0415 0 7
-42.6680 -47.2681 -2.6477 0.0415 0 6
-41.9014 -47.9489 -2.6477 0.0415 0 7
-41.1239 -48.6174 -2.6477 0.0415 0 7
-40.3358 -49.2732 -2.6477 0.0415 0 7
-39.5372 -49.9163 -2.6477 0.0415 0 7
-36.4992 -47.6370 -2.4953 0.0415 0 8
-35.7274 -48.2184 -2.4953 0.0415 0 8
-34.9465 -48.7874 -2.4953 0.0415 0 8
-34.1564 -49.3438 -2.4953 0.0415 0 8
-33.3575 -49.8874 -2.4953 0.0415 0 8
-32.5499 -50.4180 -2.4953 0.0415 0 8
-50.0331 17.6382 -2.6477 0.0498 0 7
-50.3107 16.8303 -2.6477 0.0498 0 7
-50.5751 16.0181 -2.6477 0.0498 0 7
-50.8265 15.2017 -2.6477 0.0498 0 7
-51.0646 14.3813 -2.6477 0.0498 0 7
-51.2896 13.5573 -2.6477 0.0498 0 7
-51.5012 12.7297 -2.6477 0.0498 0 7
-51.6995 11.8988 -2.6477 0.0498 0 7
-51.8844 11.0649 -2.6477 0.0498 0 7
-52.0558 10.2280 -2.6477 0.0498 0 7
-52.2137 9.3886 -2.6477 0.0498 0 7
-52.3581 8.5466 -2.6477 0.0498 0 7
-52.4889 7.7025 -2.6477 0.0498 0 7
-52.6062 6.8564 -2.6477 0.0498 0 7
-52.7097 6.0085 -2.6477 0.0498 0 7
-52.7996 5.1590 -2.6477 0.0498 0 7
-52.8759 4.3082 -2.6477 0.0498 0 7
-52.9384 3.4563 -2.6477 0.0498 0 6
-52.9872 2.6035 -2.6477 0.0498 0 6
-53.0222 1.7500 -2.6477 0.0498 0 6
-53.0435 0.8961 -2.6477 0.0498 0 7
-53.0511 0.0419 -2.6477 0.0498 0 7
-53.0449 -0.8123 -2.6477 0.0498 0 7
-53.0249 -1.6663 -2.6477 0.0498 0 7
-52.9912 -2.5199 -2.6477 0.0498 0 7
-52.9438 -3.3727 -2.6477 0.0498 0 7
-52.8826 -4.2248 -2.6477 0.0498 0 7
-52.8077 -5.0757 -2.6477 0.0498 0 7
-52.7192 -5.9253 -2.6477 0.0498 0 7
-52.6169 -6.7733 -2.6477 0.0498 0 7
-52.5011 -7.6196 -2.6477 0.0498 0 7
-52.3716 -8.4639 -2.6477 0.0498 0 7
-52.2285 -9.3061 -2.6477 0.0498 0 7
-52.0719 -10.1458 -2.6477 0.0498 0 7
-51.9018 -10.9829 -2.6477 0.0498 0 7
-51.7182 -11.8172 -2.6477 0.0498 0 7
-51.5212 -12.6484 -2.6477 0.0498 0 7
-51.3109 -13.4763 -2.6477 0.0498 0 7
-51.0873 -14.3007 -2.6477 0.0498 0 7
-50.8504 -15.1214 -2.6477 0.0498 0 7
-50.6003 -15.9382 -2.6477 0.0498 0 7
-50.3372 -16.7508 -2.6477 0.0498 0 7
-50.0609 -17.5592 -2.6477 0.0498 0 7
-49.7717 -18.3629 -2.6477 0.0498 0 7
-49.4696 -19.1619 -2.6477 0.0498 0 7
-49.1548 -19.9559 -2.6477 0.0498 0 7
-48.8270 -20.7448 -2.6477 0.0498 0 7
-48.4866 -21.5283 -2.6477 0.0498 0 7
-48.1337 -22.3061 -2.6477 0.0498 0 7
-47.7683 -23.0783 -2.6477 0.0498 0 7
-47.3906 -23.8444 -2.6477 0.0498 0 7
-47.0005 -24.6043 -2.6477 0.0498 0 7
-46.5982 -25.3579 -2.6477 0.0498 0 7
-46.1839 -26.1049 -2.6477 0.0498 0 7
-45.7576 -26.8451 -2.6477 0.0498 0 7
-45.3194 -27.5784 -2.6477 0.0498 0 7
-44.8695 -28.3045 -2.6477 0.0498 0 7
-44.4080 -29.0233 -2.6477 0.0498 0 7
-43.9349 -29.7345 -2.6477 0.0498 0 7
-43.4505 -30.4381 -2.6477 0.0498 0 6
-42.9547 -31.1337 -2.6477 0.0498 0 7
-42.4479 -31.8213 -2.6477 0.0498 0 7
-41.9300 -32.5007 -2.6477 0.0498 0 7
-41.4013 -33.1715 -2.6477 0.0498 0 7
-40.8619 -33.8338 -2.6477 0.0498 0 7
-40.3118 -34.4874 -2.6477 0.0498 0 7
-37.4632 -33.1098 -2.4953 0.0498 0 8
-36.9252 -33.7087 -2.4953 0.0498 0 8
-36.3777 -34.2989 -2.4953 0.0498 0 8
-35.8207 -34.8801 -2.4953 0.0498 0 8
-35.2545 -35.4524 -2.4953 0.0498 0 8
-34.6791 -36.0154 -2.4953 0.0498 0 8
-34.0947 -36.5691 -2.4953 0.0498 0 8
-33.5015 -37.1133 -2.4953 0.0498 0 8
-32.8996 -37.6479 -2.4953 0.0498 0 8
-32.2891 -38.1728 -2.4953 0.0498 0 8
-31.6703 -38.6877 -2.4953 0.0498 0 8
-31.0433 -39.1926 -2.4953 0.0498 0 8
-30.4082 -39.6874 -2.4953 0.0498 0 8
-29.7653 -40.1718 -2.4953 0.0498 0 8
-29.1147 -40.6458 -2.4953 0.0498 0 8
-28.4564 -41.1094 -2.4953 0.0498 0 8
-27.7908 -41.5622 -2.4953 0.0498 0 8
-27.1180 -42.0043 -2.4953 0.0498 0 8
-42.8727 15.1139 -2.6477 0.0581 0 6
-43.1105 14.4216 -2.6477 0.0581 0 7
-43.3371 13.7257 -2.6477 0.0581 0 7
-43.5525 13.0261 -2.6477 0.0581 0 7
-43.7566 12.3232 -2.6477 0.0581 0 7
-43.9494 11.6171 -2.6477 0.0581 0 6
-44.1307 10.9079 -2.6477 0.0581 0 7
-44.3006 10.1959 -2.6477 0.0581 0 7
-44.4590 9.4814 -2.6477 0.0581 0 7
-44.6059 8.7643 -2.6477 0.0581 0 7
-44.7413 8.0450 -2.6477 0.0581 0 7
-44.8650 7.3235 -2.6477 0.0581 0 7
-44.9771 6.6002 -2.6477 0.0581 0 7
-45.0775 5.8751 -2.6477 0.0581 0 7
-45.1663 5.1486 -2.6477 0.0581 0 7
-45.2433 4.4207 -2.6477 0.0581 0 7
-45.3086 3.6917 -2.6477 0.0581 0 7
-45.3622 2.9617 -2.6477 0.0581 0 7
-45.4040 2.2309 -2.6477 0.0581 0 7
-45.4340 1.4995 -2.6477 0.0581 0 7
-45.4523 0.7678 -2.6477 0.0581 0 7
-45.4588 0.0359 -2.6477 0.0581 0 7
-45.4535 -0.6960 -2.6477 0.0581 0 7
-45.4364 -1.4278 -2.6477 0.0581 0 7
-45.4075 -2.1592 -2.6477 0.0581 0 7
-45.3668 -2.8900 -2.6477 0.0581 0 7
-45.3144 -3.6201 -2.6477 0.0581 0 7
-45.2503 -4.3493 -2.6477 0.0581 0 7
-45.1744 -5.0773 -2.6477 0.0581 0 7
-45.0868 -5.8040 -2.6477 0.0581 0 7
-44.9875 -6.5292 -2.6477 0.0581 0 7
-44.8765 -7.2527 -2.6477 0.0581 0 7
-44.7539 -7.9743 -2.6477 0.0581 0 7
-44.6197 -8.6938 -2.6477 0.0581 0 7
-44.4740 -9.4111 -2.6477 0.0581 0 7
-44.3167 -10.1260 -2.6477 0.0581 0 7
-44.1479 -10.8382 -2.6477 0.0581 0 7
-43.9676 -11.5476 -2.6477 0.0581 0 7
-43.7760 -12.2541 -2.6477 0.0581 0 7
-43.5730 -12.9572 -2.6477 0.0581 0 6
-43.3588 -13.6572 -2.6477 0.0581 0 7
-43.1333 -14.3536 -2.6477 0.0581 0 7
-42.8965 -15.0462 -2.6477 0.0581 0 7
-42.6487 -15.7349 -2.6477 0.0581 0 7
-42.3898 -16.4196 -2.6477 0.0581 0 7
-42.1200 -17.1000 -2.6477 0.0581 0 7
-41.8392 -17.7759 -2.6477 0.0581 0 7
-41.5476 -18.4473 -2.6477 0.0581 0 7
-41.2452 -19.1138 -2.6477 0.0581 0 7
-40.9321 -19.7754 -2.6477 0.0581 0 7
-40.6083 -20.4319 -2.6477 0.0581 0 7
-40.2741 -21.0831 -2.6477 0.0581 0 7
-39.9294 -21.7288 -2.6477 0.0581 0 7
-37.2965 -21.0814 -2.4953 0.0581 0 8
-36.9522 -21.6792 -2.4953 0.0581 0 8
-36.5984 -22.2713 -2.4953 0.0581 0 8
-36.2350 -22.8577 -2.4953 0.0581 0 8
-35.8623 -23.4382 -2.4953 0.0581 0 8
-35.4803 -24.0125 -2.4953 0.0581 0 8
-35.0890 -24.5807 -2.4953 0.0581 0 8
-34.6887 -25.1425 -2.4953 0.0581 0 8
-34.2794 -25.6978 -2.4953 0.0581 0 8
-33.8612 -26.2464 -2.4953 0.0581 0 8
-33.4342 -26.7881 -2.4953 0.0581 0 8
-32.9986 -27.3230 -2.4953 0.0581 0 8
-32.5544 -27.8508 -2.4953 0.0581 0 8
-32.1017 -28.3713 -2.4953 0.0581 0 8
-31.6407 -28.8846 -2.4953 0.0581 0 8
-31.1716 -29.3903 -2.4953 0.0581 0 8
-30.6943 -29.8883 -2.4953 0.0581 0 8
-30.2091 -30.3787 -2.4953 0.0581 0 8
-29.7161 -30.8611 -2.4953 0.0581 0 8
-29.2153 -31.3356 -2.4953 0.0581 0 8
-28.7070 -31.8019 -2.4953 0.0581 0 8
-28.1912 -32.2600 -2.4953 0.0581 0 8
-27.6681 -32.7097 -2.4953 0.0581 0 8
-27.1379 -33.1510 -2.4953 0.0581 0 8
-26.6006 -33.5836 -2.4953 0.0581 0 8
-26.0564 -34.0076 -2.4953 0.0581 0 8
-25.5055 -34.4227 -2.4953 0.0581 0 8
-24.9480 -34.8289 -2.4953 0.0581 0 8
-24.3839 -35.2261 -2.4953 0.0581 0 8
-23.8136 -35.6141 -2.4953 0.0581 0 8
-23.2371 -35.9929 -2.4953 0.0581 0 8
-37.5006 13.2201 -2.6477 0.0664 0 7
-37.7086 12.6146 -2.6477 0.0664 0 7
-37.9068 12.0058 -2.6477 0.0664 0 7
-38.0952 11.3939 -2.6477 0.0664 0 7
-38.2738 10.7790 -2.6477 0.0664 0 7
-38.4423 10.1614 -2.6477 0.0664 0 7
-38.6010 9.5411 -2.6477 0.0664 0 7
-38.7496 8.9184 -2.6477 0.0664 0 7
-38.8882 8.2933 -2.6477 0.0664 0 7
-39.0167 7.6661 -2.6477 0.0664 0 7
-39.1350 7.0369 -2.6477 0.0664 0 7
-39.2433 6.4058 -2.6477 0.0664 0 7
-39.3413 5.7732 -2.6477 0.0664 0 7
-39.4292 5.1390 -2.6477 0.0664 0 7
-39.5068 4.5034 -2.6477 0.0664 0 7
-39.5742 3.8668 -2.6477 0.0664 0 6
-39.6313 3.2291 -2.6477 0.0664 0 6
-39.6782 2.5906 -2.6477 0.0664 0 6
-37.4288 1.8390 -2.4953 0.0664 0 8
-37.4535 1.2361 -2.4953 0.0664 0 8
-37.4686 0.6330 -2.4953 0.0664 0 8
-37.4739 0.0296 -2.4953 0.0664 0 8
-37.4695 -0.5738 -2.4953 0.0664 0 8
-37.4554 -1.1770 -2.4953 0.0664 0 8
-37.4316 -1.7800 -2.4953 0.0664 0 8
-37.3981 -2.3824 -2.4953 0.0664 0 8
-37.3549 -2.9843 -2.4953 0.0664 0 8
-37.3020 -3.5853 -2.4953 0.0664 0 8
-37.2394 -4.1855 -2.4953 0.0664 0 8
-37.1672 -4.7845 -2.4953 0.0664 0 8
-37.0854 -5.3823 -2.4953 0.0664 0 8
-36.9939 -5.9787 -2.4953 0.0664 0 8
-36.8928 -6.5736 -2.4953 0.0664 0 8
-36.7822 -7.1668 -2.4953 0.0664 0 8
-36.6621 -7.7581 -2.4953 0.0664 0 8
-36.5324 -8.3474 -2.4953 0.0664 0 8
-36.3932 -8.9345 -2.4953 0.0664 0 8
-36.2447 -9.5193 -2.4953 0.0664 0 8
-36.0867 -10.1016 -2.4953 0.0664 0 8
-35.9194 -10.6814 -2.4953 0.0664 0 8
-35.7427 -11.2583 -2.4953 0.0664 0 8
-35.5568 -11.8323 -2.4953 0.0664 0 8
-35.3617 -12.4033 -2.4953 0.0664 0 8
-35.1574 -12.9711 -2.4953 0.0664 0 8
-34.9440 -13.5355 -2.4953 0.0664 0 8
-34.7216 -14.0963 -2.4953 0.0664 0 8
-34.4901 -14.6535 -2.4953 0.0664 0 8
-34.2497 -15.2070 -2.4953 0.0664 0 8
-34.0004 -15.7565 -2.4953 0.0664 0 8
-33.7423 -16.3019 -2.4953 0.0664 0 8
-33.4754 -16.8430 -2.4953 0.0664 0 8
-33.1999 -17.3798 -2.4953 0.0664 0 8
-32.9158 -17.9122 -2.4953 0.0664 0 8
-32.6231 -18.4398 -2.4953 0.0664 0 8
-32.3220 -18.9627 -2.4953 0.0664 0 8
-32.0124 -19.4807 -2.4953 0.0664 0 8
-31.6947 -19.9935 -2.4953 0.0664 0 8
-31.3686 -20.5017 -2.4953 0.0664 0 8
-31.0345 -21.0036 -2.4953 0.0664 0 8
-30.6923 -21.5007 -2.4953 0.0664 0 8
-30.3421 -21.9921 -2.4953 0.0664 0 8
-29.9841 -22.4777 -2.4953 0.0664 0 8
-29.6183 -22.9576 -2.4953 0.0664 0 8
-29.2448 -23.4315 -2.4953 0.0664 0 8
-28.8637 -23.8993 -2.4953 0.0664 0 8
-28.4752 -24.3610 -2.4953 0.0664 0 8
-28.0792 -24.8163 -2.4953 0.0664 0 8
-27.6760 -25.2652 -2.4953 0.0664 0 8
-27.2657 -25.7075 -2.4953 0.0664 0 8
-26.8482 -26.1432 -2.4953 0.0664 0 8
-26.4238 -26.5721 -2.4953 0.0664 0 8
-25.9925 -26.9941 -2.4953 0.0664 0 8
-25.5545 -27.4091 -2.4953 0.0664 0 8
-25.1099 -27.8170 -2.4953 0.0664 0 8
-24.6588 -28.2177 -2.4953 0.0664 0 8
-24.2012 -28.6111 -2.4953 0.0664 0 8
-23.7374 -28.9970 -2.4953 0.0664 0 8
-23.2674 -29.3755 -2.4953 0.0664 0 8
-22.7915 -29.7463 -2.4953 0.0664 0 8
-22.3096 -30.1094 -2.4953 0.0664 0 8
-21.8219 -30.4647 -2.4953 0.0664 0 8
-21.3285 -30.8121 -2.4953 0.0664 0 8
-20.8297 -31.1515 -2.4953 0.0664 0 8
-20.3254 -31.4829 -2.4953 0.0664 0 8
-33.3208 11.7466 -2.6477 0.0747 0 7
-33.5057 11.2086 -2.6477 0.0747 0 7
-33.6818 10.6677 -2.6477 0.0747 0 7
-33.8492 10.1239 -2.6477 0.0747 0 7
-34.0079 9.5776 -2.6477 0.0747 0 7
-34.1576 9.0288 -2.6477 0.0747 0 7
-34.2985 8.4777 -2.6477 0.0747 0 7
-32.4488 7.4682 -2.4953 0.0747 0 8
-32.5648 6.9447 -2.4953 0.0747 0 8
-32.6724 6.4195 -2.4953 0.0747 0 8
-32.7715 5.8927 -2.4953 0.0747 0 8
-32.8622 5.3642 -2.4953 0.0747 0 8
-32.9443 4.8344 -2.4953 0.0747 0 8
-33.0178 4.3034 -2.4953 0.0747 0 8
-33.0828 3.7711 -2.4953 0.0747 0 8
-33.1393 3.2380 -2.4953 0.0747 0 8
-33.1871 2.7040 -2.4953 0.0747 0 8
-33.2264 2.1693 -2.4953 0.0747 0 8
-33.2570 1.6341 -2.4953 0.0747 0 8
-33.2790 1.0984 -2.4953 0.0747 0 8
-33.2923 0.5624 -2.4953 0.0747 0 8
-33.2971 0.0263 -2.4953 0.0747 0 8
-33.2932 -0.5098 -2.4953 0.0747 0 8
-33.2807 -1.0458 -2.4953 0.0747 0 8
-33.2595 -1.5816 -2.4953 0.0747 0 8
-33.2297 -2.1169 -2.4953 0.0747 0 8
-33.1913 -2.6516 -2.4953 0.0747 0 8
-33.1444 -3.1857 -2.4953 0.0747 0 8
-33.0888 -3.7189 -2.4953 0.0747 0 8
-33.0246 -4.2512 -2.4953 0.0747 0 8
-32.9519 -4.7824 -2.4953 0.0747 0 8
-32.8706 -5.3123 -2.4953 0.0747 0 8
-32.7808 -5.8409 -2.4953 0.0747 0 8
-32.6825 -6.3680 -2.4953 0.0747 0 8
-32.5757 -6.8934 -2.4953 0.0747 0 8
-32.4605 -7.4170 -2.4953 0.0747 0 8
-32.3369 -7.9387 -2.4953 0.0747 0 8
-32.2049 -8.4583 -2.4953 0.0747 0 8
-32.0645 -8.9757 -2.4953 0.0747 0 8
-31.9158 -9.4908 -2.4953 0.0747 0 8
-31.7589 -10.0035 -2.4953 0.0747 0 8
-31.5937 -10.5135 -2.4953 0.0747 0 8
-31.4203 -11.0210 -2.4953 0.0747 0 8
-31.2388 -11.5251 -2.4953 0.0747 0 8
-31.0492 -12.0261 -2.4953 0.0747 0 8
-30.8515 -12.5252 -2.4953 0.0747 0 8
-30.6459 -13.0203 -2.4953 0.0747 0 8
-30.4322 -13.5120 -2.4953 0.0747 0 8
-30.2108 -14.0003 -2.4953 0.0747 0 8
-29.9814 -14.4849 -2.4953 0.0747 0 8
-29.7443 -14.9657 -2.4953 0.0747 0 8
-29.4995 -15.4427 -2.4953 0.0747 0 8
-29.2470 -15.9157 -2.4953 0.0747 0 8
-28.9870 -16.3845 -2.4953 0.0747 0 8
-28.7194 -16.8491 -2.4953 0.0747 0 8
-28.4444 -17.3094 -2.4953 0.0747 0 8
-28.1620 -17.7651 -2.4953 0.0747 0 8
-27.8723 -18.2162 -2.4953 0.0747 0 8
-27.5754 -18.6626 -2.4953 0.0747 0 8
-27.2713 -19.1042 -2.4953 0.0747 0 8
-26.9602 -19.5408 -2.4953 0.0747 0 8
-26.6421 -19.9724 -2.4953 0.0747 0 8
-26.3170 -20.3988 -2.4953 0.0747 0 8
-25.9852 -20.8198 -2.4953 0.0747 0 8
-25.6466 -21.2355 -2.4953 0.0747 0 8
-25.3014 -21.6457 -2.4953 0.0747 0 8
-24.9496 -22.0503 -2.4953 0.0747 0 8
-24.5913 -22.4492 -2.4953 0.0747 0 8
-24.2267 -22.8422 -2.4953 0.0747 0 8
-23.8557 -23.2293 -2.4953 0.0747 0 8
-23.4786 -23.6104 -2.4953 0.0747 0 8
-23.0954 -23.9854 -2.4953 0.0747 0 8
-22.7062 -24.3541 -2.4953 0.0747 0 8
-22.3112 -24.7165 -2.4953 0.0747 0 8
-21.9103 -25.0726 -2.4953 0.0747 0 8
-21.5038 -25.4221 -2.4953 0.0747 0 8
-21.0917 -25.7651 -2.4953 0.0747 0 8
-20.6741 -26.1013 -2.4953 0.0747 0 8
-20.2511 -26.4308 -2.4953 0.0747 0 8
-19.8230 -26.7534 -2.4953 0.0747 0 8
-19.3896 -27.0691 -2.4953 0.0747 0 8
-18.9513 -27.3778 -2.4953 0.0747 0 8
-18.5080 -27.6794 -2.4953 0.0747 0 8
-18.0600 -27.9738 -2.4953 0.0747 0 8
-29.9756 10.5674 -2.6477 0.0830 0 7
-30.1418 10.0833 -2.6477 0.0830 0 7
-30.3003 9.5967 -2.6477 0.0830 0 7
-30.4509 9.1075 -2.6477 0.0830 0 7
-28.8326 8.1201 -2.4953 0.0830 0 8
-28.9596 7.6548 -2.4953 0.0830 0 8
-29.0791 7.1875 -2.4953 0.0830 0 8
-29.1911 6.7184 -2.4953 0.0830 0 8
-29.2954 6.2475 -2.4953 0.0830 0 8
-29.3922 5.7750 -2.4953 0.0830 0 8
-29.4814 5.3010 -2.4953 0.0830 0 8
-29.5629 4.8257 -2.4953 0.0830 0 8
-29.6368 4.3491 -2.4953 0.0830 0 8
-29.7030 3.8713 -2.4953 0.0830 0 8
-29.7615 3.3926 -2.4953 0.0830 0 8
-29.8122 2.9129 -2.4953 0.0830 0 8
-29.8553 2.4325 -2.4953 0.0830 0 8
-29.8906 1.9515 -2.4953 0.0830 0 8
-29.9181 1.4700 -2.4953 0.0830 0 8
-29.9379 0.9881 -2.4953 0.0830 0 8
-29.9499 0.5059 -2.4953 0.0830 0 8
-29.9542 0.0236 -2.4953 0.0830 0 8
-29.9507 -0.4586 -2.4953 0.0830 0 8
-29.9394 -0.9408 -2.4953 0.0830 0 8
-29.9204 -1.4228 -2.4953 0.0830 0 8
-29.8936 -1.9043 -2.4953 0.0830 0 8
-29.8591 -2.3854 -2.4953 0.0830 0 8
-29.8168 -2.8659 -2.4953 0.0830 0 8
-29.7668 -3.3456 -2.4953 0.0830 0 8
-29.7091 -3.8244 -2.4953 0.0830 0 8
-29.6436 -4.3023 -2.4953 0.0830 0 8
-29.5705 -4.7790 -2.4953 0.0830 0 8
-29.4897 -5.2545 -2.4953 0.0830 0 8
-29.4013 -5.7286 -2.4953 0.0830 0 8
-29.3053 -6.2013 -2.4953 0.0830 0 8
-29.2016 -6.6723 -2.4953 0.0830 0 8
-29.0904 -7.1417 -2.4953 0.0830 0 8
-28.9716 -7.6091 -2.4953 0.0830 0 8
-28.8454 -8.0746 -2.4953 0.0830 0 8
-28.7116 -8.5380 -2.4953 0.0830 0 8
-28.5704 -8.9992 -2.4953 0.0830 0 8
-28.4218 -9.4580 -2.4953 0.0830 0 8
-28.2659 -9.9144 -2.4953 0.0830 0 8
-28.1026 -10.3682 -2.4953 0.0830 0 8
-27.9320 -10.8194 -2.4953 0.0830 0 8
-27.7542 -11.2677 -2.4953 0.0830 0 8
-27.5692 -11.7131 -2.4953 0.0830 0 8
-27.3770 -12.1555 -2.4953 0.0830 0 8
-27.1777 -12.5947 -2.4953 0.0830 0 8
-26.9714 -13.0307 -2.4953 0.0830 0 8
-26.7581 -13.4632 -2.4953 0.0830 0 8
-26.5379 -13.8923 -2.4953 0.0830 0 8
-26.3107 -14.3178 -2.4953 0.0830 0 8
-26.0768 -14.7396 -2.4953 0.0830 0 8
-25.8361 -15.1575 -2.4953 0.0830 0 8
-25.5887 -15.5716 -2.4953 0.0830 0 8
-25.3347 -15.9816 -2.4953 0.0830 0 8
-25.0740 -16.3874 -2.4953 0.0830 0 8
-24.8070 -16.7890 -2.4953 0.0830 0 8
-24.5334 -17.1862 -2.4953 0.0830 0 8
-24.2535 -17.5790 -2.4953 0.0830 0 8
-23.9673 -17.9672 -2.4953 0.0830 0 8
-23.6749 -18.3508 -2.4953 0.0830 0 8
-23.3764 -18.7296 -2.4953 0.0830 0 8
-23.0718 -19.1036 -2.4953 0.0830 0 8
-22.7612 -19.4726 -2.4953 0.0830 0 8
-22.4447 -19.8366 -2.4953 0.0830 0 8
-22.1224 -20.1954 -2.4953 0.0830 0 8
-21.7944 -20.5489 -2.4953 0.0830 0 8
-21.4607 -20.8972 -2.4953 0.0830 0 8
-21.1215 -21.2400 -2.4953 0.0830 0 8
-20.7768 -21.5773 -2.4953 0.0830 0 8
-20.4266 -21.9091 -2.4953 0.0830 0 8
-20.0712 -22.2351 -2.4953 0.0830 0 8
-19.7106 -22.5554 -2.4953 0.0830 0 8
-19.3449 -22.8698 -2.4953 0.0830 0 8
-18.9742 -23.1784 -2.4953 0.0830 0 8
-18.5985 -23.4809 -2.4953 0.0830 0 8
-18.2180 -23.7773 -2.4953 0.0830 0 8
-17.8328 -24.0675 -2.4953 0.0830 0 8
-17.4430 -24.3515 -2.4953 0.0830 0 8
-17.0487 -24.6292 -2.4953 0.0830 0 8
-16.6499 -24.9005 -2.4953 0.0830 0 8
-16.2468 -25.1654 -2.4953 0.0830 0 8
-27.2373 9.6020 -2.6477 0.0913 0 7
-27.3884 9.1622 -2.6477 0.0913 0 7
-25.9476 8.2181 -2.4953 0.0913 0 8
-26.0766 7.7992 -2.4953 0.0913 0 8
-26.1988 7.3784 -2.4953 0.0913 0 8
-26.3142 6.9556 -2.4953 0.0913 0 8
-26.4227 6.5310 -2.4953 0.0913 0 8
-26.5245 6.1047 -2.4953 0.0913 0 8
-26.6193 5.6768 -2.4953 0.0913 0 8
-26.7073 5.2475 -2.4953 0.0913 0 8
-26.7883 4.8168 -2.4953 0.0913 0 8
-26.8624 4.3849 -2.4953 0.0913 0 8
-26.9295 3.9518 -2.4953 0.0913 0 8
-26.9896 3.5177 -2.4953 0.0913 0 8
-27.0428 3.0827 -2.4953 0.0913 0 8
-27.0889 2.6468 -2.4953 0.0913 0 8
-27.1280 2.2103 -2.4953 0.0913 0 8
-27.1601 1.7733 -2.4953 0.0913 0 8
-27.1851 1.3357 -2.4953 0.0913 0 8
-27.2031 0.8978 -2.4953 0.0913 0 8
-27.2140 0.4597 -2.4953 0.0913 0 8
-27.2179 0.0215 -2.4953 0.0913 0 8
-27.2147 -0.4167 -2.4953 0.0913 0 8
-27.2045 -0.8549 -2.4953 0.0913 0 8
-27.1872 -1.2928 -2.4953 0.0913 0 8
-27.1629 -1.7304 -2.4953 0.0913 0 8
-27.1315 -2.1675 -2.4953 0.0913 0 8
-27.0931 -2.6041 -2.4953 0.0913 0 8
-27.0476 -3.0400 -2.4953 0.0913 0 8
-26.9952 -3.4751 -2.4953 0.0913 0 8
-26.9357 -3.9093 -2.4953 0.0913 0 8
-26.8693 -4.3424 -2.4953 0.0913 0 8
-26.7959 -4.7745 -2.4953 0.0913 0 8
-26.7155 -5.2053 -2.4953 0.0913 0 8
-26.6282 -5.6348 -2.4953 0.0913 0 8
-26.5341 -6.0628 -2.4953 0.0913 0 8
-26.4330 -6.4893 -2.4953 0.0913 0 8
-26.3251 -6.9140 -2.4953 0.0913 0 8
-26.2104 -7.3370 -2.4953 0.0913 0 8
-26.0888 -7.7580 -2.4953 0.0913 0 8
-25.9605 -8.1771 -2.4953 0.0913 0 8
-25.8255 -8.5940 -2.4953 0.0913 0 8
-25.6838 -9.0087 -2.4953 0.0913 0 8
-25.5354 -9.4211 -2.4953 0.0913 0 8
-25.3804 -9.8310 -2.4953 0.0913 0 8
-25.2188 -10.2384 -2.4953 0.0913 0 8
-25.0507 -10.6431 -2.4953 0.0913 0 8
-24.8761 -11.0451 -2.4953 0.0913 0 8
-24.6951 -11.4442 -2.4953 0.0913 0 8
-24.5076 -11.8403 -2.4953 0.0913 0 8
-24.3138 -12.2334 -2.4953 0.0913 0 8
-24.1136 -12.6233 -2.4953 0.0913 0 8
-23.9073 -13.0099 -2.4953 0.0913 0 8
-23.6947 -13.3931 -2.4953 0.0913 0 8
-23.4760 -13.7729 -2.4953 0.0913 0 8
-23.2512 -14.1491 -2.4953 0.0913 0 8
-23.0204 -14.5217 -2.4953 0.0913 0 8
-22.7835 -14.8904 -2.4953 0.0913 0 8
-22.5409 -15.2553 -2.4953 0.0913 0 8
-22.2923 -15.6163 -2.4953 0.0913 0 8
-22.0380 -15.9732 -2.4953 0.0913 0 8
-21.7779 -16.3259 -2.4953 0.0913 0 8
-21.5122 -16.6745 -2.4953 0.0913 0 8
-21.2410 -17.0187 -2.4953 0.0913 0 8
-20.9642 -17.3585 -2.4953 0.0913 0 8
-20.6820 -17.6938 -2.4953 0.0913 0 8
-20.3944 -18.0245 -2.4953 0.0913 0 8
-20.1016 -18.3505 -2.4953 0.0913 0 8
-19.8035 -18.6718 -2.4953 0.0913 0 8
-19.5003 -18.9882 -2.4953 0.0913 0 8
-19.1920 -19.2998 -2.4953 0.0913 0 8
-18.8788 -19.6063 -2.4953 0.0913 0 8
-18.5607 -19.9077 -2.4953 0.0913 0 8
-18.2377 -20.2039 -2.4953 0.0913 0 8
-17.9101 -20.4950 -2.4953 0.0913 0 8
-17.5777 -20.7807 -2.4953 0.0913 0 8
-17.2409 -21.0610 -2.4953 0.0913 0 8
-16.8995 -21.3359 -2.4953 0.0913 0 8
-16.5538 -21.6052 -2.4953 0.0913 0 8
-16.2038 -21.8690 -2.4953 0.0913 0 8
-15.8496 -22.1270 -2.4953 0.0913 0 8
-15.4913 -22.3794 -2.4953 0.0913 0 8
-15.1289 -22.6259 -2.4953 0.0913 0 8
-14.7627 -22.8665 -2.4953 0.0913 0 8
-23.5179 8.2908 -2.4953 0.0996 0 8
-23.6484 7.9110 -2.4953 0.0996 0 8
-23.7727 7.5292 -2.4953 0.0996 0 8
-23.8908 7.1455 -2.4953 0.0996 0 8
-24.0028 6.7599 -2.4953 0.0996 0 8
-24.1085 6.3726 -2.4953 0.0996 0 8
-24.2080 5.9836 -2.4953 0.0996 0 8
-24.3012 5.5930 -2.4953 0.0996 0 8
-24.3881 5.2010 -2.4953 0.0996 0 8
-24.4687 4.8077 -2.4953 0.0996 0 8
-24.5429 4.4131 -2.4953 0.0996 0 8
-24.6107 4.0173 -2.4953 0.0996 0 8
-24.6723 3.6206 -2.4953 0.0996 0 8
-24.7274 3.2228 -2.4953 0.0996 0 8
-24.7761 2.8243 -2.4953 0.0996 0 8
-24.8183 2.4250 -2.4953 0.0996 0 8
-24.8541 2.0251 -2.4953 0.0996 0 8
-24.8835 1.6246 -2.4953 0.0996 0 8
-24.9065 1.2238 -2.4953 0.0996 0 8
-24.9229 0.8226 -2.4953 0.0996 0 8
-24.9329 0.4212 -2.4953 0.0996 0 8
-24.9365 0.0197 -2.4953 0.0996 0 8
-24.9336 -0.3818 -2.4953 0.0996 0 8
-24.9242 -0.7832 -2.4953 0.0996 0 8
-24.9084 -1.1845 -2.4953 0.0996 0 8
-24.8861 -1.5853 -2.4953 0.0996 0 8
-24.8573 -1.9858 -2.4953 0.0996 0 8
-24.8221 -2.3858 -2.4953 0.0996 0 8
-24.7805 -2.7852 -2.4953 0.0996 0 8
-24.7324 -3.1838 -2.4953 0.0996 0 8
-24.6780 -3.5816 -2.4953 0.0996 0 8
-24.6171 -3.9784 -2.4953 0.0996 0 8
-24.5498 -4.3743 -2.4953 0.0996 0 8
-24.4762 -4.7690 -2.4953 0.0996 0 8
-24.3963 -5.1625 -2.4953 0.0996 0 8
-24.3100 -5.5546 -2.4953 0.0996 0 8
-24.2174 -5.9453 -2.4953 0.0996 0 8
-24.1185 -6.3345 -2.4953 0.0996 0 8
-24.0134 -6.7220 -2.4953 0.0996 0 8
-23.9021 -7.1078 -2.4953 0.0996 0 8
-23.7845 -7.4917 -2.4953 0.0996 0 8
-23.6608 -7.8737 -2.4953 0.0996 0 8
-23.5309 -8.2536 -2.4953 0.0996 0 8
-23.3950 -8.6314 -2.4953 0.0996 0 8
-23.2530 -9.0070 -2.4953 0.0996 0 8
-23.1050 -9.3802 -2.4953 0.0996 0 8
-22.9510 -9.7510 -2.4953 0.0996 0 8
-22.7910 -10.1193 -2.4953 0.0996 0 8
-22.6251 -10.4849 -2.4953 0.0996 0 8
-22.4534 -10.8479 -2.4953 0.0996 0 8
-22.2758 -11.2080 -2.4953 0.0996 0 8
-22.0924 -11.5652 -2.4953 0.0996 0 8
-21.9034 -11.9194 -2.4953 0.0996 0 8
-21.7086 -12.2705 -2.4953 0.0996 0 8
-21.5082 -12.6185 -2.4953 0.0996 0 8
-21.3023 -12.9631 -2.4953 0.0996 0 8
-21.0908 -13.3044 -2.4953 0.0996 0 8
-20.8738 -13.6423 -2.4953 0.0996 0 8
-20.6515 -13.9766 -2.4953 0.0996 0 8
-20.4237 -14.3073 -2.4953 0.0996 0 8
-20.1907 -14.6343 -2.4953 0.0996 0 8
-19.9525 -14.9575 -2.4953 0.0996 0 8
-19.7091 -15.2768 -2.4953 0.0996 0 8
-19.4606 -15.5922 -2.4953 0.0996 0 8
-19.2070 -15.9035 -2.4953 0.0996 0 8
-18.9484 -16.2107 -2.4953 0.0996 0 8
-18.6850 -16.5137 -2.4953 0.0996 0 8
-18.4166 -16.8124 -2.4953 0.0996 0 8
-18.1436 -17.1067 -2.4953 0.0996 0 8
-17.8658 -17.3966 -2.4953 0.0996 0 8
-17.5833 -17.6820 -2.4953 0.0996 0 8
-17.2964 -17.9629 -2.4953 0.0996 0 8
-17.0049 -18.2390 -2.4953 0.0996 0 8
-16.7091 -18.5104 -2.4953 0.0996 0 8
-16.4088 -18.7771 -2.4953 0.0996 0 8
-16.1044 -19.0388 -2.4953 0.0996 0 8
-15.7957 -19.2957 -2.4953 0.0996 0 8
-15.4830 -19.5475 -2.4953 0.0996 0 8
-15.1663 -19.7943 -2.4953 0.0996 0 8
-14.8456 -20.0359 -2.4953 0.0996 0 8
-14.5211 -20.2723 -2.4953 0.0996 0 8
-14.1928 -20.5035 -2.4953 0.0996 0 8
-13.8608 -20.7294 -2.4953 0.0996 0 8
-13.5253 -20.9498 -2.4953 0.0996 0 8
-21.6963 7.6486 -2.4953 0.1078 0 8
-21.8166 7.2982 -2.4953 0.1078 0 8
-21.9313 6.9460 -2.4953 0.1078 0 8
-22.0403 6.5920 -2.4953 0.1078 0 8
-22.1435 6.2363 -2.4953 0.1078 0 8
-22.2411 5.8789 -2.4953 0.1078 0 8
-22.3329 5.5201 -2.4953 0.1078 0 8
-22.4188 5.1598 -2.4953 0.1078 0 8
-22.4990 4.7981 -2.4953 0.1078 0 8
-22.5734 4.4353 -2.4953 0.1078 0 8
-22.6418 4.0712 -2.4953 0.1078 0 8
-22.7045 3.7061 -2.4953 0.1078 0 8
-22.7612 3.3401 -2.4953 0.1078 0 8
-22.8120 2.9732 -2.4953 0.1078 0 8
-22.8569 2.6055 -2.4953 0.1078 0 8
-22.8959 2.2371 -2.4953 0.1078 0 8
-22.9290 1.8682 -2.4953 0.1078 0 8
-22.9561 1.4988 -2.4953 0.1078 0 8
-22.9772 1.1290 -2.4953 0.1078 0 8
-22.9924 0.7589 -2.4953 0.1078 0 8
-23.0017 0.3886 -2.4953 0.1078 0 8
-23.0050 0.0182 -2.4953 0.1078 0 8
-23.0023 -0.3522 -2.4953 0.1078 0 8
-22.9936 -0.7226 -2.4953 0.1078 0 8
-22.9790 -1.0927 -2.4953 0.1078 0 8
-22.9584 -1.4625 -2.4953 0.1078 0 8
-22.9319 -1.8320 -2.4953 0.1078 0 8
-22.8994 -2.2010 -2.4953 0.1078 0 8
-22.8610 -2.5694 -2.4953 0.1078 0 8
-22.8167 -2.9372 -2.4953 0.1078 0 8
-22.7664 -3.3042 -2.4953 0.1078 0 8
-22.7103 -3.6703 -2.4953 0.1078 0 8
-22.6482 -4.0355 -2.4953 0.1078 0 8
-22.5803 -4.3996 -2.4953 0.1078 0 8
-22.5066 -4.7626 -2.4953 0.1078 0 8
-22.4270 -5.1244 -2.4953 0.1078 0 8
-22.3415 -5.4848 -2.4953 0.1078 0 8
-22.2503 -5.8438 -2.4953 0.1078 0 8
-22.1534 -6.2013 -2.4953 0.1078 0 8
-22.0506 -6.5572 -2.4953 0.1078 0 8
-21.9422 -6.9114 -2.4953 0.1078 0 8
-21.8281 -7.2638 -2.4953 0.1078 0 8
-21.7083 -7.6143 -2.4953 0.1078 0 8
-21.5829 -7.9629 -2.4953 0.1078 0 8
-21.4519 -8.3093 -2.4953 0.1078 0 8
-21.3153 -8.6536 -2.4953 0.1078 0 8
-21.1732 -8.9957 -2.4953 0.1078 0 8
-21.0256 -9.3355 -2.4953 0.1078 0 8
-20.8726 -9.6728 -2.4953 0.1078 0 8
-20.7141 -10.0076 -2.4953 0.1078 0 8
-20.5503 -10.3398 -2.4953 0.1078 0 8
-20.3812 -10.6694 -2.4953 0.1078 0 8
-20.2068 -10.9961 -2.4953 0.1078 0 8
-20.0271 -11.3201 -2.4953 0.1078 0 8
-19.8422 -11.6411 -2.4953 0.1078 0 8
-19.6522 -11.9590 -2.4953 0.1078 0 8
-19.4571 -12.2739 -2.4953 0.1078 0 8
-19.2570 -12.5856 -2.4953 0.1078 0 8
-19.0518 -12.8940 -2.4953 0.1078 0 8
-18.8418 -13.1991 -2.4953 0.1078 0 8
-18.6268 -13.5008 -2.4953 0.1078 0 8
-18.4070 -13.7989 -2.4953 0.1078 0 8
-18.1824 -14.0935 -2.4953 0.1078 0 8
-17.9532 -14.3844 -2.4953 0.1078 0 8
-17.7192 -14.6716 -2.4953 0.1078 0 8
-17.4807 -14.9550 -2.4953 0.1078 0 8
-17.2376 -15.2346 -2.4953 0.1078 0 8
-16.9901 -15.5101 -2.4953 0.1078 0 8
-16.7382 -15.7817 -2.4953 0.1078 0 8
-16.4819 -16.0491 -2.4953 0.1078 0 8
-16.2214 -16.3124 -2.4953 0.1078 0 8
-15.9566 -16.5715 -2.4953 0.1078 0 8
-15.6877 -16.8263 -2.4953 0.1078 0 8
-15.4148 -17.0767 -2.4953 0.1078 0 8
-15.1378 -17.3226 -2.4953 0.1078 0 8
-14.8570 -17.5641 -2.4953 0.1078 0 8
-14.5722 -17.8011 -2.4953 0.1078 0 8
-14.2837 -18.0334 -2.4953 0.1078 0 8
-13.9915 -18.2610 -2.4953 0.1078 0 8
-13.6957 -18.4839 -2.4953 0.1078 0 8
-13.3963 -18.7021 -2.4953 0.1078 0 8
-13.0934 -18.9153 -2.4953 0.1078 0 8
-12.7872 -19.1237 -2.4953 0.1078 0 8
-12.4776 -19.3271 -2.4953 0.1078 0 8
-20.1339 7.0978 -2.4953 0.1161 0 8
-20.2456 6.7727 -2.4953 0.1161 0 8
-20.3520 6.4459 -2.4953 0.1161 0 8
-20.4532 6.1173 -2.4953 0.1161 0 8
-20.5490 5.7872 -2.4953 0.1161 0 8
-20.6395 5.4556 -2.4953 0.1161 0 8
-20.7247 5.1226 -2.4953 0.1161 0 8
-20.8045 4.7882 -2.4953 0.1161 0 8
-20.8789 4.4526 -2.4953 0.1161 0 8
-20.9479 4.1159 -2.4953 0.1161 0 8
-21.0114 3.7781 -2.4953 0.1161 0 8
-21.0695 3.4393 -2.4953 0.1161 0 8
-21.1222 3.0996 -2.4953 0.1161 0 8
-21.1694 2.7591 -2.4953 0.1161 0 8
-21.2110 2.4179 -2.4953 0.1161 0 8
-21.2472 2.0760 -2.4953 0.1161 0 8
-21.2779 1.7337 -2.4953 0.1161 0 8
-21.3030 1.3909 -2.4953 0.1161 0 8
-21.3227 1.0477 -2.4953 0.1161 0 8
-21.3368 0.7042 -2.4953 0.1161 0 8
-21.3454 0.3606 -2.4953 0.1161 0 8
-21.3484 0.0169 -2.4953 0.1161 0 8
-21.3459 -0.3269 -2.4953 0.1161 0 8
-21.3379 -0.6705 -2.4953 0.1161 0 8
-21.3243 -1.0140 -2.4953 0.1161 0 8
-21.3052 -1.3572 -2.4953 0.1161 0 8
-21.2806 -1.7001 -2.4953 0.1161 0 8
-21.2505 -2.0425 -2.4953 0.1161 0 8
-21.2148 -2.3844 -2.4953 0.1161 0 8
-21.1737 -2.7257 -2.4953 0.1161 0 8
-21.1271 -3.0662 -2.4953 0.1161 0 8
-21.0749 -3.4060 -2.4953 0.1161 0 8
-21.0174 -3.7449 -2.4953 0.1161 0 8
-20.9544 -4.0828 -2.4953 0.1161 0 8
-20.8859 -4.4197 -2.4953 0.1161 0 8
-20.8120 -4.7554 -2.4953 0.1161 0 8
-20.7328 -5.0899 -2.4953 0.1161 0 8
-20.6481 -5.4230 -2.4953 0.1161 0 8
-20.5581 -5.7548 -2.4953 0.1161 0 8
-20.4628 -6.0850 -2.4953 0.1161 0 8
-20.3622 -6.4137 -2.4953 0.1161 0 8
-20.2563 -6.7407 -2.4953 0.1161 0 8
-20.1451 -7.0660 -2.4953 0.1161 0 8
-20.0287 -7.3895 -2.4953 0.1161 0 8
-19.9072 -7.7110 -2.4953 0.1161 0 8
-19.7804 -8.0305 -2.4953 0.1161 0 8
-19.6486 -8.3479 -2.4953 0.1161 0 8
-19.5116 -8.6632 -2.4953 0.1161 0 8
-19.3696 -8.9763 -2.4953 0.1161 0 8
-19.2226 -9.2870 -2.4953 0.1161 0 8
-19.0705 -9.5953 -2.4953 0.1161 0 8
-18.9136 -9.9011 -2.4953 0.1161 0 8
-18.7517 -10.2043 -2.4953 0.1161 0 8
-18.5850 -10.5049 -2.4953 0.1161 0 8
-18.4134 -10.8028 -2.4953 0.1161 0 8
-18.2371 -11.0979 -2.4953 0.1161 0 8
-18.0560 -11.3901 -2.4953 0.1161 0 8
-17.8703 -11.6793 -2.4953 0.1161 0 8
-17.6799 -11.9655 -2.4953 0.1161 0 8
-17.4850 -12.2487 -2.4953 0.1161 0 8
-17.2855 -12.5286 -2.4953 0.1161 0 8
-17.0815 -12.8053 -2.4953 0.1161 0 8
-16.8731 -13.0786 -2.4953 0.1161 0 8
-16.6604 -13.3486 -2.4953 0.1161 0 8
-16.4433 -13.6151 -2.4953 0.1161 0 8
-16.2219 -13.8781 -2.4953 0.1161 0 8
-15.9964 -14.1375 -2.4953 0.1161 0 8
-15.7667 -14.3933 -2.4953 0.1161 0 8
-15.5329 -14.6453 -2.4953 0.1161 0 8
-15.2951 -14.8934 -2.4953 0.1161 0 8
-15.0533 -15.1378 -2.4953 0.1161 0 8
-14.8076 -15.3782 -2.4953 0.1161 0 8
-14.5581 -15.6146 -2.4953 0.1161 0 8
-14.3048 -15.8470 -2.4953 0.1161 0 8
-14.0478 -16.0753 -2.4953 0.1161 0 8
-13.7871 -16.2994 -2.4953 0.1161 0 8
-13.5229 -16.5192 -2.4953 0.1161 0 8
-13.2552 -16.7348 -2.4953 0.1161 0 8
-12.9840 -16.9461 -2.4953 0.1161 0 8
-12.7095 -17.1529 -2.4953 0.1161 0 8
-12.4317 -17.3553 -2.4953 0.1161 0 8
-12.1506 -17.5533 -2.4953 0.1161 0 8
-11.8664 -17.7466 -2.4953 0.1161 0 8
-11.5791 -17.9354 -2.4953 0.1161 0 8
-18.7791 6.6202 -2.4953 0.1243 0 8
-18.8832 6.3169 -2.4953 0.1243 0 8
-18.9825 6.0121 -2.4953 0.1243 0 8
-19.0768 5.7057 -2.4953 0.1243 0 8
-19.1662 5.3978 -2.4953 0.1243 0 8
-19.2506 5.0885 -2.4953 0.1243 0 8
-19.3301 4.7779 -2.4953 0.1243 0 8
-19.4045 4.4660 -2.4953 0.1243 0 8
-19.4739 4.1530 -2.4953 0.1243 0 8
-19.5382 3.8389 -2.4953 0.1243 0 8
-19.5975 3.5238 -2.4953 0.1243 0 8
-19.6517 3.2078 -2.4953 0.1243 0 8
-19.7008 2.8910 -2.4953 0.1243 0 8
-19.7448 2.5734 -2.4953 0.1243 0 8
-19.7837 2.2552 -2.4953 0.1243 0 8
-19.8174 1.9363 -2.4953 0.1243 0 8
-19.8460 1.6170 -2.4953 0.1243 0 8
-19.8695 1.2973 -2.4953 0.1243 0 8
-19.8878 0.9772 -2.4953 0.1243 0 8
-19.9010 0.6568 -2.4953 0.1243 0 8
-19.9090 0.3363 -2.4953 0.1243 0 8
-19.9118 0.0157 -2.4953 0.1243 0 8
-19.9095 -0.3049 -2.4953 0.1243 0 8
-19.9020 -0.6254 -2.4953 0.1243 0 8
-19.8893 -0.9458 -2.4953 0.1243 0 8
-19.8715 -1.2659 -2.4953 0.1243 0 8
-19.8486 -1.5857 -2.4953 0.1243 0 8
-19.8205 -1.9051 -2.4953 0.1243 0 8
-19.7872 -2.2239 -2.4953 0.1243 0 8
-19.7488 -2.5422 -2.4953 0.1243 0 8
-19.7053 -2.8599 -2.4953 0.1243 0 8
-19.6567 -3.1768 -2.4953 0.1243 0 8
-19.6030 -3.4929 -2.4953 0.1243 0 8
-19.5443 -3.8081 -2.4953 0.1243 0 8
-19.4804 -4.1223 -2.4953 0.1243 0 8
-19.4115 -4.4354 -2.4953 0.1243 0 8
-19.3376 -4.7474 -2.4953 0.1243 0 8
-19.2586 -5.0581 -2.4953 0.1243 0 8
-19.1747 -5.3675 -2.4953 0.1243 0 8
-19.0858 -5.6755 -2.4953 0.1243 0 8
-18.9919 -5.9821 -2.4953 0.1243 0 8
-18.8932 -6.2871 -2.4953 0.1243 0 8
-18.7895 -6.5905 -2.4953 0.1243 0 8
-18.6809 -6.8922 -2.4953 0.1243 0 8
-18.5675 -7.1921 -2.4953 0.1243 0 8
-18.4493 -7.4901 -2.4953 0.1243 0 8
-18.3263 -7.7862 -2.4953 0.1243 0 8
-18.1986 -8.0802 -2.4953 0.1243 0 8
-18.0661 -8.3722 -2.4953 0.1243 0 8
-17.9290 -8.6620 -2.4953 0.1243 0 8
-17.7872 -8.9496 -2.4953 0.1243 0 8
-17.6408 -9.2348 -2.4953 0.1243 0 8
-17.4898 -9.5176 -2.4953 0.1243 0 8
-17.3343 -9.7980 -2.4953 0.1243 0 8
-17.1743 -10.0758 -2.4953 0.1243 0 8
-17.0098 -10.3511 -2.4953 0.1243 0 8
-16.8410 -10.6236 -2.4953 0.1243 0 8
-16.6677 -10.8934 -2.4953 0.1243 0 8
-16.4902 -11.1603 -2.4953 0.1243 0 8
-16.3084 -11.4244 -2.4953 0.1243 0 8
-16.1223 -11.6855 -2.4953 0.1243 0 8
-15.9321 -11.9436 -2.4953 0.1243 0 8
-15.7377 -12.1985 -2.4953 0.1243 0 8
-15.5393 -12.4503 -2.4953 0.1243 0 8
-15.3368 -12.6989 -2.4953 0.1243 0 8
-15.1303 -12.9442 -2.4953 0.1243 0 8
-14.9199 -13.1862 -2.4953 0.1243 0 8
-14.7057 -13.4247 -2.4953 0.1243 0 8
-14.4876 -13.6597 -2.4953 0.1243 0 8
-14.2658 -13.8912 -2.4953 0.1243 0 8
-14.0403 -14.1191 -2.4953 0.1243 0 8
-13.8112 -14.3433 -2.4953 0.1243 0 8
-13.5784 -14.5639 -2.4953 0.1243 0 8
-13.3422 -14.7806 -2.4953 0.1243 0 8
-13.1025 -14.9935 -2.4953 0.1243 0 8
-12.8593 -15.2025 -2.4953 0.1243 0 8
-12.6129 -15.4076 -2.4953 0.1243 0 8
-12.3632 -15.6087 -2.4953 0.1243 0 8
-12.1103 -15.8057 -2.4953 0.1243 0 8
-11.8542 -15.9987 -2.4953 0.1243 0 8
-11.5951 -16.1875 -2.4953 0.1243 0 8
-11.3329 -16.3720 -2.4953 0.1243 0 8
-11.0679 -16.5524 -2.4953 0.1243 0 8
-10.7999 -16.7285 -2.4953 0.1243 0 8
-17.5927 6.2020 -2.4953 0.1326 0 8
-17.6903 5.9179 -2.4953 0.1326 0 8
-17.7833 5.6323 -2.4953 0.1326 0 8
-17.8717 5.3452 -2.4953 0.1326 0 8
-17.9554 5.0568 -2.4953 0.1326 0 8
-18.0345 4.7670 -2.4953 0.1326 0 8
-18.1089 4.4760 -2.4953 0.1326 0 8
-18.1786 4.1839 -2.4953 0.1326 0 8
-18.2436 3.8907 -2.4953 0.1326 0 8
-18.3039 3.5964 -2.4953 0.1326 0 8
-18.3594 3.3012 -2.4953 0.1326 0 8
-18.4102 3.0052 -2.4953 0.1326 0 8
-18.4562 2.7084 -2.4953 0.1326 0 8
-18.4974 2.4108 -2.4953 0.1326 0 8
-18.5338 2.1127 -2.4953 0.1326 0 8
-18.5655 1.8140 -2.4953 0.1326 0 8
-18.5923 1.5149 -2.4953 0.1326 0 8
-18.6142 1.2153 -2.4953 0.1326 0 8
-18.6314 0.9154 -2.4953 0.1326 0 8
-18.6437 0.6153 -2.4953 0.1326 0 8
-18.6512 0.3151 -2.4953 0.1326 0 8
-18.6539 0.0147 -2.4953 0.1326 0 8
-18.6517 -0.2856 -2.4953 0.1326 0 8
-18.6447 -0.5859 -2.4953 0.1326 0 8
-18.6328 -0.8860 -2.4953 0.1326 0 8
-18.6162 -1.1859 -2.4953 0.1326 0 8
-18.5946 -1.4855 -2.4953 0.1326 0 8
-18.5683 -1.7847 -2.4953 0.1326 0 8
-18.5372 -2.0835 -2.4953 0.1326 0 8
-18.5012 -2.3816 -2.4953 0.1326 0 8
-18.4605 -2.6792 -2.4953 0.1326 0 8
-18.4149 -2.9761 -2.4953 0.1326 0 8
-18.3646 -3.2722 -2.4953 0.1326 0 8
-18.3096 -3.5675 -2.4953 0.1326 0 8
-18.2498 -3.8618 -2.4953 0.1326 0 8
-18.1852 -4.1552 -2.4953 0.1326 0 8
-18.1160 -4.4474 -2.4953 0.1326 0 8
-18.0420 -4.7385 -2.4953 0.1326 0 8
-17.9634 -5.0284 -2.4953 0.1326 0 8
-17.8801 -5.3170 -2.4953 0.1326 0 8
-17.7921 -5.6042 -2.4953 0.1326 0 8
-17.6996 -5.8899 -2.4953 0.1326 0 8
-17.6025 -6.1742 -2.4953 0.1326 0 8
-17.5008 -6.4568 -2.4953 0.1326 0 8
-17.3946 -6.7377 -2.4953 0.1326 0 8
-17.2838 -7.0169 -2.4953 0.1326 0 8
-17.1686 -7.2943 -2.4953 0.1326 0 8
-17.0489 -7.5698 -2.4953 0.1326 0 8
-16.9248 -7.8433 -2.4953 0.1326 0 8
-16.7964 -8.1148 -2.4953 0.1326 0 8
-16.6635 -8.3842 -2.4953 0.1326 0 8
-16.5264 -8.6514 -2.4953 0.1326 0 8
-16.3849 -8.9164 -2.4953 0.1326 0 8
-16.2392 -9.1790 -2.4953 0.1326 0 8
-16.0893 -9.4393 -2.4953 0.1326 0 8
-15.9353 -9.6972 -2.4953 0.1326 0 8
-15.7771 -9.9525 -2.4953 0.1326 0 8
-15.6148 -10.2052 -2.4953 0.1326 0 8
-15.4485 -10.4553 -2.4953 0.1326 0 8
-15.2781 -10.7027 -2.4953 0.1326 0 8
-15.1038 -10.9473 -2.4953 0.1326 0 8
-14.9256 -11.1890 -2.4953 0.1326 0 8
-14.7435 -11.4279 -2.4953 0.1326 0 8
-14.5576 -11.6638 -2.4953 0.1326 0 8
-14.3679 -11.8967 -2.4953 0.1326 0 8
-14.1745 -12.1265 -2.4953 0.1326 0 8
-13.9774 -12.3531 -2.4953 0.1326 0 8
-13.7767 -12.5766 -2.4953 0.1326 0 8
-13.5724 -12.7968 -2.4953 0.1326 0 8
-13.3646 -13.0136 -2.4953 0.1326 0 8
-13.1533 -13.2272 -2.4953 0.1326 0 8
-12.9387 -13.4372 -2.4953 0.1326 0 8
-12.7206 -13.6441 -2.4953 0.1326 0 8
-12.4993 -13.8468 -2.4953 0.1326 0 8
-12.2747 -14.0463 -2.4953 0.1326 0 8
-12.0470 -14.2421 -2.4953 0.1326 0 8
-11.8161 -14.4343 -2.4953 0.1326 0 8
-11.5822 -14.6226 -2.4953 0.1326 0 8
-11.3452 -14.8072 -2.4953 0.1326 0 8
-11.1053 -14.9880 -2.4953 0.1326 0 8
-10.8626 -15.1648 -2.4953 0.1326 0 8
-10.6170 -15.3378 -2.4953 0.1326 0 8
-10.3687 -15.5067 -2.4953 0.1326 0 8
-10.1176 -15.6716 -2.4953 0.1326 0 8
-16.5451 5.8326 -2.4953 0.1408 0 8
-16.6369 5.5655 -2.4953 0.1408 0 8
-16.7244 5.2969 -2.4953 0.1408 0 8
-16.8075 5.0269 -2.4953 0.1408 0 8
-16.8862 4.7557 -2.4953 0.1408 0 8
-16.9606 4.4832 -2.4953 0.1408 0 8
-17.0306 4.2095 -2.4953 0.1408 0 8
-17.0962 3.9348 -2.4953 0.1408 0 8
-17.1573 3.6590 -2.4953 0.1408 0 8
-17.2140 3.3822 -2.4953 0.1408 0 8
-17.2662 3.1046 -2.4953 0.1408 0 8
-17.3140 2.8262 -2.4953 0.1408 0 8
-17.3572 2.5471 -2.4953 0.1408 0 8
-17.3960 2.2673 -2.4953 0.1408 0 8
-17.4302 1.9869 -2.4953 0.1408 0 8
-17.4600 1.7060 -2.4953 0.1408 0 8
-17.4852 1.4247 -2.4953 0.1408 0 8
-17.5059 1.1429 -2.4953 0.1408 0 8
-17.5220 0.8609 -2.4953 0.1408 0 8
-17.5336 0.5787 -2.4953 0.1408 0 8
-17.5406 0.2963 -2.4953 0.1408 0 8
-17.5431 0.0139 -2.4953 0.1408 0 8
-17.5411 -0.2686 -2.4953 0.1408 0 8
-17.5345 -0.5510 -2.4953 0.1408 0 8
-17.5233 -0.8333 -2.4953 0.1408 0 8
-17.5076 -1.1153 -2.4953 0.1408 0 8
-17.4874 -1.3971 -2.4953 0.1408 0 8
-17.4626 -1.6784 -2.4953 0.1408 0 8
-17.4334 -1.9594 -2.4953 0.1408 0 8
-17.3995 -2.2402 -2.4953 0.1408 0 8
-17.3612 -2.5197 -2.4953 0.1408 0 8
-17.3184 -2.7989 -2.4953 0.1408 0 8
-17.2711 -3.0774 -2.4953 0.1408 0 8
-17.2193 -3.3551 -2.4953 0.1408 0 8
-17.1631 -3.6319 -2.4953 0.1408 0 8
-17.1024 -3.9078 -2.4953 0.1408 0 8
-17.0372 -4.1826 -2.4953 0.1408 0 8
-16.9677 -4.4564 -2.4953 0.1408 0 8
-16.8938 -4.7287 -2.4953 0.1408 0 8
-16.8154 -5.0004 -2.4953 0.1408 0 8
-16.7327 -5.2705 -2.4953 0.1408 0 8
-16.6457 -5.5392 -2.4953 0.1408 0 8
-16.5543 -5.8065 -2.4953 0.1408 0 8
-16.4587 -6.0723 -2.4953 0.1408 0 8
-16.3588 -6.3365 -2.4953 0.1408 0 8
-16.2546 -6.5991 -2.4953 0.1408 0 8
-16.1463 -6.8599 -2.4953 0.1408 0 8
-16.0337 -7.1190 -2.4953 0.1408 0 8
-15.9170 -7.3763 -2.4953 0.1408 0 8
-15.7962 -7.6316 -2.4953 0.1408 0 8
-15.6713 -7.8849 -2.4953 0.1408 0 8
-15.5423 -8.1362 -2.4953 0.1408 0 8
-15.4093 -8.3854 -2.4953 0.1408 0 8
-15.2723 -8.6325 -2.4953 0.1408 0 8
-15.1313 -8.8772 -2.4953 0.1408 0 8
-14.9864 -9.1197 -2.4953 0.1408 0 8
-14.8376 -9.3598 -2.4953 0.1408 0 8
-14.6850 -9.5975 -2.4953 0.1408 0 8
-14.5286 -9.8327 -2.4953 0.1408 0 8
-14.3683 -10.0654 -2.4953 0.1408 0 8
-14.2044 -10.2954 -2.4953 0.1408 0 8
-14.0368 -10.5228 -2.4953 0.1408 0 8
-13.8656 -10.7474 -2.4953 0.1408 0 8
-13.6907 -10.9693 -2.4953 0.1408 0 8
-13.5123 -11.1883 -2.4953 0.1408 0 8
-13.3304 -11.4044 -2.4953 0.1408 0 8
-13.1451 -11.6176 -2.4953 0.1408 0 8
-12.9563 -11.8277 -2.4953 0.1408 0 8
-12.7642 -12.0348 -2.4953 0.1408 0 8
-12.5688 -12.2387 -2.4953 0.1408 0 8
-12.3701 -12.4395 -2.4953 0.1408 0 8
-12.1682 -12.6371 -2.4953 0.1408 0 8
-11.9632 -12.8314 -2.4953 0.1408 0 8
-11.7550 -13.0223 -2.4953 0.1408 0 8
-11.5438 -13.2099 -2.4953 0.1408 0 8
-11.3296 -13.3941 -2.4953 0.1408 0 8
-11.1125 -13.5747 -2.4953 0.1408 0 8
-10.8925 -13.7519 -2.4953 0.1408 0 8
-10.6696 -13.9255 -2.4953 0.1408 0 8
-10.4441 -14.0955 -2.4953 0.1408 0 8
-10.2158 -14.2618 -2.4953 0.1408 0 8
-9.9848 -14.4245 -2.4953 0.1408 0 8
-9.7513 -14.5834 -2.4953 0.1408 0 8
-9.5152 -14.7385 -2.4953 0.1408 0 8
-15.6133 5.5041 -2.4953 0.1490 0 8
-15.6999 5.2520 -2.4953 0.1490 0 8
-15.7824 4.9986 -2.4953 0.1490 0 8
-15.8608 4.7438 -2.4953 0.1490 0 8
-15.9351 4.4878 -2.4953 0.1490 0 8
-16.0053 4.2307 -2.4953 0.1490 0 8
-16.0714 3.9724 -2.4953 0.1490 0 8
-16.1333 3.7131 -2.4953 0.1490 0 8
-16.1910 3.4529 -2.4953 0.1490 0 8
-16.2444 3.1917 -2.4953 0.1490 0 8
-16.2937 2.9298 -2.4953 0.1490 0 8
-16.3388 2.6670 -2.4953 0.1490 0 8
-16.3796 2.4036 -2.4953 0.1490 0 8
-16.4162 2.1396 -2.4953 0.1490 0 8
-16.4485 1.8750 -2.4953 0.1490 0 8
-16.4766 1.6099 -2.4953 0.1490 0 8
-16.5004 1.3444 -2.4953 0.1490 0 8
-16.5199 1.0786 -2.4953 0.1490 0 8
-16.5351 0.8124 -2.4953 0.1490 0 8
-16.5460 0.5461 -2.4953 0.1490 0 8
-16.5527 0.2796 -2.4953 0.1490 0 8
-16.5550 0.0131 -2.4953 0.1490 0 8
-16.5531 -0.2535 -2.4953 0.1490 0 8
-16.5469 -0.5200 -2.4953 0.1490 0 8
-16.5364 -0.7863 -2.4953 0.1490 0 8
-16.5215 -1.0525 -2.4953 0.1490 0 8
-16.5025 -1.3184 -2.4953 0.1490 0 8
-16.4791 -1.5839 -2.4953 0.1490 0 8
-16.4515 -1.8490 -2.4953 0.1490 0 8
-16.4196 -2.1137 -2.4953 0.1490 0 8
-16.3834 -2.3778 -2.4953 0.1490 0 8
-16.3430 -2.6413 -2.4953 0.1490 0 8
-16.2983 -2.9041 -2.4953 0.1490 0 8
-16.2495 -3.1661 -2.4953 0.1490 0 8
-16.1964 -3.4273 -2.4953 0.1490 0 8
-16.1391 -3.6877 -2.4953 0.1490 0 8
-16.0776 -3.9470 -2.4953 0.1490 0 8
-16.0120 -4.2054 -2.4953 0.1490 0 8
-15.9422 -4.4627 -2.4953 0.1490 0 8
-15.8683 -4.7188 -2.4953 0.1490 0 8
-15.7903 -4.9736 -2.4953 0.1490 0 8
-15.7081 -5.2272 -2.4953 0.1490 0 8
-15.6219 -5.4795 -2.4953 0.1490 0 8
-15.5317 -5.7303 -2.4953 0.1490 0 8
-15.4374 -5.9796 -2.4953 0.1490 0 8
-15.3391 -6.2274 -2.4953 0.1490 0 8
-15.2369 -6.4736 -2.4953 0.1490 0 8
-15.1307 -6.7181 -2.4953 0.1490 0 8
-15.0205 -6.9608 -2.4953 0.1490 0 8
-14.9065 -7.2018 -2.4953 0.1490 0 8
-14.7886 -7.4408 -2.4953 0.1490 0 8
-14.6669 -7.6780 -2.4953 0.1490 0 8
-14.5414 -7.9131 -2.4953 0.1490 0 8
-14.4121 -8.1463 -2.4953 0.1490 0 8
-14.2790 -8.3772 -2.4953 0.1490 0 8
-14.1423 -8.6061 -2.4953 0.1490 0 8
-14.0019 -8.8327 -2.4953 0.1490 0 8
-13.8579 -9.0570 -2.4953 0.1490 0 8
-13.7103 -9.2789 -2.4953 0.1490 0 8
-13.5591 -9.4985 -2.4953 0.1490 0 8
-13.4044 -9.7155 -2.4953 0.1490 0 8
-13.2462 -9.9301 -2.4953 0.1490 0 8
-13.0846 -10.1421 -2.4953 0.1490 0 8
-12.9196 -10.3515 -2.4953 0.1490 0 8
-12.7513 -10.5581 -2.4953 0.1490 0 8
-12.5796 -10.7621 -2.4953 0.1490 0 8
-12.4047 -10.9632 -2.4953 0.1490 0 8
-12.2266 -11.1615 -2.4953 0.1490 0 8
-12.0453 -11.3569 -2.4953 0.1490 0 8
-11.8609 -11.5494 -2.4953 0.1490 0 8
-11.6734 -11.7389 -2.4953 0.1490 0 8
-11.4829 -11.9253 -2.4953 0.1490 0 8
-11.2894 -12.1087 -2.4953 0.1490 0 8
-11.0929 -12.2889 -2.4953 0.1490 0 8
-10.8936 -12.4659 -2.4953 0.1490 0 8
-10.6915 -12.6397 -2.4953 0.1490 0 8
-10.4866 -12.8102 -2.4953 0.1490 0 8
-10.2790 -12.9774 -2.4953 0.1490 0 8
-10.0687 -13.1412 -2.4953 0.1490 0 8
-9.8558 -13.3016 -2.4953 0.1490 0 8
-9.6404 -13.4585 -2.4953 0.1490 0 8
-9.4224 -13.6120 -2.4953 0.1490 0 8
-9.2020 -13.7620 -2.4953 0.1490 0 8
-8.9793 -13.9083 -2.4953 0.1490 0 8
-14.7788 5.2100 -2.4953 0.1573 0 8
-14.8607 4.9713 -2.4953 0.1573 0 8
-14.9389 4.7314 -2.4953 0.1573 0 8
-15.0131 4.4903 -2.4953 0.1573 0 8
-15.0835 4.2479 -2.4953 0.1573 0 8
-15.1499 4.0045 -2.4953 0.1573 0 8
-15.2124 3.7601 -2.4953 0.1573 0 8
-15.2710 3.5147 -2.4953 0.1573 0 8
-15.3256 3.2683 -2.4953 0.1573 0 8
-15.3762 3.0212 -2.4953 0.1573 0 8
-15.4229 2.7732 -2.4953 0.1573 0 8
-15.4655 2.5245 -2.4953 0.1573 0 8
-15.5042 2.2752 -2.4953 0.1573 0 8
-15.5388 2.0252 -2.4953 0.1573 0 8
-15.5694 1.7748 -2.4953 0.1573 0 8
-15.5959 1.5239 -2.4953 0.1573 0 8
-15.6185 1.2726 -2.4953 0.1573 0 8
-15.6369 1.0209 -2.4953 0.1573 0 8
-15.6513 0.7690 -2.4953 0.1573 0 8
-15.6617 0.5169 -2.4953 0.1573 0 8
-15.6680 0.2647 -2.4953 0.1573 0 8
-15.6702 0.0124 -2.4953 0.1573 0 8
-15.6684 -0.2399 -2.4953 0.1573 0 8
-15.6625 -0.4922 -2.4953 0.1573 0 8
-15.6525 -0.7443 -2.4953 0.1573 0 8
-15.6385 -0.9962 -2.4953 0.1573 0 8
-15.6205 -1.2479 -2.4953 0.1573 0 8
-15.5983 -1.4992 -2.4953 0.1573 0 8
