ply
format ascii 1.0
element vertex 1438
property float32 x
property float32 y
property float32 z
property float32 CosAngle
property uint32 ObjIdx
property uint32 ObjTag
end_header
9.1755 -2.3423 -2.4953 0.2548 0 8
9.2118 -2.1950 -2.4953 0.2548 0 8
9.2458 -2.0471 -2.4953 0.2548 0 8
9.2774 -1.8987 -2.4953 0.2548 0 8
9.3066 -1.7498 -2.4953 0.2548 0 8
9.3335 -1.6005 -2.4953 0.2548 0 8
9.3579 -1.4508 -2.4953 0.2548 0 8
9.3800 -1.3006 -2.4953 0.2548 0 8
9.3996 -1.1502 -2.4953 0.2548 0 8
8.1194 -0.8618 -2.1515 0.1938 25 10
7.7964 -0.7014 -2.0627 0.4022 25 10
7.6735 -0.5665 -2.0275 0.7195 25 10
7.6096 -0.4394 -2.0085 0.8430 25 10
7.5781 -0.3158 -1.9986 0.8472 25 10
7.5768 -0.1942 -1.9972 0.8886 25 10
7.5806 -0.0728 -1.9976 0.8884 25 10
7.5812 0.0486 -1.9977 0.9286 25 10
7.5776 0.1700 -1.9972 0.8885 25 10
7.5739 0.2914 -1.9972 0.8885 25 10
7.6033 0.4146 -2.0064 0.8438 25 10
7.6581 0.5408 -2.0229 0.7211 25 10
7.7491 0.6721 -2.0495 0.4048 25 10
7.9826 0.8214 -2.1145 0.1532 25 10
9.4032 1.1202 -2.4953 0.2548 0 8
9.3841 1.2707 -2.4953 0.2548 0 8
9.3625 1.4208 -2.4953 0.2548 0 8
9.3385 1.5707 -2.4953 0.2548 0 8
9.3122 1.7201 -2.4953 0.2548 0 8
9.2834 1.8690 -2.4953 0.2548 0 8
9.2523 2.0175 -2.4953 0.2548 0 8
9.2188 2.1655 -2.4953 0.2548 0 8
9.1829 2.3129 -2.4953 0.2548 0 8
9.1447 2.4597 -2.4953 0.2548 0 8
9.1041 2.6059 -2.4953 0.2548 0 8
9.0612 2.7515 -2.4953 0.2548 0 8
9.0159 2.8963 -2.4953 0.2548 0 8
8.9684 3.0403 -2.4953 0.2548 0 8
8.9185 3.1836 -2.4953 0.2548 0 8
8.8664 3.3261 -2.4953 0.2548 0 8
8.8119 3.4677 -2.4953 0.2548 0 8
8.7553 3.6085 -2.4953 0.2548 0 8
8.6963 3.7483 -2.4953 0.2548 0 8
8.6351 3.8871 -2.4953 0.2548 0 8
8.5718 4.0250 -2.4953 0.2548 0 8
8.5062 4.1618 -2.4953 0.2548 0 8
8.4384 4.2975 -2.4953 0.2548 0 8
8.3685 4.4322 -2.4953 0.2548 0 8
8.2964 4.5657 -2.4953 0.2548 0 8
8.2222 4.6980 -2.4953 0.2548 0 8
8.1459 4.8291 -2.4953 0.2548 0 8
8.0674 4.9590 -2.4953 0.2548 0 8
7.9870 5.0876 -2.4953 0.2548 0 8
7.9044 5.2149 -2.4953 0.2548 0 8
7.8199 5.3409 -2.4953 0.2548 0 8
7.7333 5.4655 -2.4953 0.2548 0 8
7.6447 5.5887 -2.4953 0.2548 0 8
7.5542 5.7104 -2.4953 0.2548 0 8
7.4618 5.8307 -2.4953 0.2548 0 8
7.3674 5.9495 -2.4953 0.2548 0 8
7.2711 6.0668 -2.4953 0.2548 0 8
7.1730 6.1825 -2.4953 0.2548 0 8
7.0730 6.2966 -2.4953 0.2548 0 8
6.9712 6.4091 -2.4953 0.2548 0 8
6.8677 6.5200 -2.4953 0.2548 0 8
6.7623 6.6292 -2.4953 0.2548 0 8
6.6553 6.7367 -2.4953 0.2548 0 8
6.5465 6.8425 -2.4953 0.2548 0 8
6.4360 6.9464 -2.4953 0.2548 0 8
6.3239 7.0487 -2.4953 0.2548 0 8
6.2102 7.1491 -2.4953 0.2548 0 8
6.0948 7.2477 -2.4953 0.2548 0 8
5.9779 7.3444 -2.4953 0.2548 0 8
5.8595 7.4392 -2.4953 0.2548 0 8
5.7396 7.5321 -2.4953 0.2548 0 8
5.6181 7.6231 -2.4953 0.2548 0 8
5.4953 7.7121 -2.4953 0.2548 0 8
5.3710 7.7992 -2.4953 0.2548 0 8
5.2454 7.8842 -2.4953 0.2548 0 8
5.1184 7.9673 -2.4953 0.2548 0 8
4.9901 8.0482 -2.4953 0.2548 0 8
4.8605 8.1272 -2.4953 0.2548 0 8
4.7297 8.2040 -2.4953 0.2548 0 8
4.5976 8.2787 -2.4953 0.2548 0 8
4.4644 8.3513 -2.4953 0.2548 0 8
4.3301 8.4218 -2.4953 0.2548 0 8
4.4508 9.0086 -2.6477 0.2548 0 7
4.3059 9.0787 -2.6477 0.2548 0 7
4.1599 9.1466 -2.6477 0.2548 0 7
4.0128 9.2120 -2.6477 0.2548 0 7
3.8647 9.2751 -2.6477 0.2548 0 7
3.7156 9.3359 -2.6477 0.2548 0 7
3.5655 9.3942 -2.6477 0.2548 0 7
3.4146 9.4501 -2.6477 0.2548 0 7
3.2627 9.5036 -2.6477 0.2548 0 7
3.1101 9.5547 -2.6477 0.2548 0 7
2.9566 9.6032 -2.6477 0.2548 0 7
2.8024 9.6494 -2.6477 0.2548 0 7
2.6474 9.6930 -2.6477 0.2548 0 7
2.4918 9.7342 -2.6477 0.2548 0 7
2.3355 9.7729 -2.6477 0.2548 0 7
2.1786 9.8090 -2.6477 0.2548 0 7
2.0212 9.8427 -2.6477 0.2548 0 7
1.8632 9.8738 -2.6477 0.2548 0 7
1.7048 9.9024 -2.6477 0.2548 0 7
1.5460 9.9284 -2.6477 0.2548 0 7
1.3867 9.9519 -2.6477 0.2548 0 7
1.2271 9.9729 -2.6477 0.2548 0 7
1.0671 9.9913 -2.6477 0.2548 0 7
0.9069 10.0071 -2.6477 0.2548 0 7
0.7465 10.0203 -2.6477 0.2548 0 7
0.5859 10.0310 -2.6477 0.2548 0 7
0.4251 10.0391 -2.6477 0.2548 0 7
0.2642 10.0446 -2.6477 0.2548 0 7
0.1032 10.0475 -2.6477 0.2548 0 7
8.7121 -2.8294 -2.4953 0.2628 0 8
8.7563 -2.6895 -2.4953 0.2628 0 8
8.7983 -2.5488 -2.4953 0.2628 0 8
8.8380 -2.4076 -2.4953 0.2628 0 8
8.8754 -2.2657 -2.4953 0.2628 0 8
8.9106 -2.1232 -2.4953 0.2628 0 8
8.9435 -1.9801 -2.4953 0.2628 0 8
8.9740 -1.8366 -2.4953 0.2628 0 8
9.0023 -1.6926 -2.4953 0.2628 0 8
9.0283 -1.5482 -2.4953 0.2628 0 8
9.0519 -1.4033 -2.4953 0.2628 0 8
9.0732 -1.2581 -2.4953 0.2628 0 8
9.0922 -1.1126 -2.4953 0.2628 0 8
8.1487 -0.8649 -2.2322 0.1927 25 10
7.8325 -0.7046 -2.1422 0.5473 25 10
7.6969 -0.5683 -2.1024 0.7215 25 10
7.6309 -0.4406 -2.0822 0.8099 25 10
7.5960 -0.3166 -2.0710 0.8433 25 10
7.5928 -0.1947 -2.0690 0.8847 25 10
7.5906 -0.0729 -2.0678 0.9254 25 10
7.5897 0.0487 -2.0675 0.9255 25 10
7.5936 0.1704 -2.0691 0.8847 25 10
7.5899 0.2920 -2.0691 0.8847 25 10
7.6234 0.4157 -2.0798 0.8108 25 10
7.6816 0.5424 -2.0977 0.7173 25 10
7.7929 0.6759 -2.1308 0.4016 25 10
8.0267 0.8260 -2.1981 0.1957 25 10
9.0957 1.0835 -2.4953 0.2628 0 8
9.0772 1.2291 -2.4953 0.2628 0 8
9.0564 1.3744 -2.4953 0.2628 0 8
9.0332 1.5193 -2.4953 0.2628 0 8
9.0077 1.6638 -2.4953 0.2628 0 8
8.9799 1.8079 -2.4953 0.2628 0 8
8.9497 1.9516 -2.4953 0.2628 0 8
8.9173 2.0947 -2.4953 0.2628 0 8
8.8826 2.2373 -2.4953 0.2628 0 8
8.8456 2.3793 -2.4953 0.2628 0 8
8.8064 2.5207 -2.4953 0.2628 0 8
8.7649 2.6615 -2.4953 0.2628 0 8
8.7211 2.8016 -2.4953 0.2628 0 8
8.6751 2.9409 -2.4953 0.2628 0 8
8.6269 3.0795 -2.4953 0.2628 0 8
8.5764 3.2173 -2.4953 0.2628 0 8
8.5238 3.3543 -2.4953 0.2628 0 8
8.4690 3.4905 -2.4953 0.2628 0 8
8.4119 3.6257 -2.4953 0.2628 0 8
8.3528 3.7600 -2.4953 0.2628 0 8
8.2915 3.8933 -2.4953 0.2628 0 8
8.2280 4.0257 -2.4953 0.2628 0 8
8.1625 4.1570 -2.4953 0.2628 0 8
8.0948 4.2872 -2.4953 0.2628 0 8
8.0251 4.4164 -2.4953 0.2628 0 8
7.9533 4.5444 -2.4953 0.2628 0 8
7.8795 4.6712 -2.4953 0.2628 0 8
7.8036 4.7968 -2.4953 0.2628 0 8
7.7258 4.9212 -2.4953 0.2628 0 8
7.6460 5.0444 -2.4953 0.2628 0 8
7.5642 5.1662 -2.4953 0.2628 0 8
7.4804 5.2868 -2.4953 0.2628 0 8
7.3948 5.4059 -2.4953 0.2628 0 8
7.3072 5.5237 -2.4953 0.2628 0 8
7.2178 5.6401 -2.4953 0.2628 0 8
7.1265 5.7550 -2.4953 0.2628 0 8
7.0334 5.8684 -2.4953 0.2628 0 8
6.9384 5.9803 -2.4953 0.2628 0 8
6.8417 6.0907 -2.4953 0.2628 0 8
6.7433 6.1996 -2.4953 0.2628 0 8
6.6431 6.3068 -2.4953 0.2628 0 8
6.5412 6.4124 -2.4953 0.2628 0 8
6.4376 6.5164 -2.4953 0.2628 0 8
6.3324 6.6187 -2.4953 0.2628 0 8
6.2256 6.7193 -2.4953 0.2628 0 8
6.1171 6.8182 -2.4953 0.2628 0 8
6.0071 6.9153 -2.4953 0.2628 0 8
5.8955 7.0107 -2.4953 0.2628 0 8
5.7824 7.1042 -2.4953 0.2628 0 8
5.6679 7.1959 -2.4953 0.2628 0 8
5.5519 7.2858 -2.4953 0.2628 0 8
5.4344 7.3738 -2.4953 0.2628 0 8
5.3156 7.4600 -2.4953 0.2628 0 8
5.1954 7.5442 -2.4953 0.2628 0 8
5.0739 7.6264 -2.4953 0.2628 0 8
4.9510 7.7067 -2.4953 0.2628 0 8
4.8269 7.7851 -2.4953 0.2628 0 8
4.7016 7.8614 -2.4953 0.2628 0 8
4.5750 7.9357 -2.4953 0.2628 0 8
4.4473 8.0080 -2.4953 0.2628 0 8
4.3184 8.0782 -2.4953 0.2628 0 8
4.1885 8.1464 -2.4953 0.2628 0 8
4.0574 8.2124 -2.4953 0.2628 0 8
3.9253 8.2764 -2.4953 0.2628 0 8
3.7922 8.3382 -2.4953 0.2628 0 8
3.6581 8.3979 -2.4953 0.2628 0 8
3.5231 8.4554 -2.4953 0.2628 0 8
3.5941 9.0306 -2.6477 0.2628 0 7
3.4489 9.0870 -2.6477 0.2628 0 7
3.3029 9.1411 -2.6477 0.2628 0 7
3.1560 9.1928 -2.6477 0.2628 0 7
3.0084 9.2422 -2.6477 0.2628 0 7
2.8599 9.2892 -2.6477 0.2628 0 7
2.7107 9.3338 -2.6477 0.2628 0 7
2.5608 9.3761 -2.6477 0.2628 0 7
2.4103 9.4159 -2.6477 0.2628 0 7
2.2591 9.4533 -2.6477 0.2628 0 7
2.1074 9.4883 -2.6477 0.2628 0 7
1.9551 9.5208 -2.6477 0.2628 0 7
1.8023 9.5509 -2.6477 0.2628 0 7
1.6491 9.5786 -2.6477 0.2628 0 7
1.4954 9.6038 -2.6477 0.2628 0 7
1.3413 9.6265 -2.6477 0.2628 0 7
1.1869 9.6468 -2.6477 0.2628 0 7
1.0322 9.6645 -2.6477 0.2628 0 7
0.8773 9.6798 -2.6477 0.2628 0 7
0.7221 9.6926 -2.6477 0.2628 0 7
0.5667 9.7030 -2.6477 0.2628 0 7
0.4112 9.7108 -2.6477 0.2628 0 7
0.2555 9.7161 -2.6477 0.2628 0 7
0.0999 9.7190 -2.6477 0.2628 0 7
8.4350 -2.7394 -2.4953 0.2708 0 8
8.4778 -2.6039 -2.4953 0.2708 0 8
8.5185 -2.4678 -2.4953 0.2708 0 8
8.5569 -2.3310 -2.4953 0.2708 0 8
8.5932 -2.1936 -2.4953 0.2708 0 8
8.6272 -2.0556 -2.4953 0.2708 0 8
8.6590 -1.9172 -2.4953 0.2708 0 8
8.6886 -1.7782 -2.4953 0.2708 0 8
8.7160 -1.6388 -2.4953 0.2708 0 8
8.7411 -1.4989 -2.4953 0.2708 0 8
8.7640 -1.3587 -2.4953 0.2708 0 8
8.7847 -1.2181 -2.4953 0.2708 0 8
8.8031 -1.0772 -2.4953 0.2708 0 8
8.3352 -0.8847 -2.3583 0.6455 25 10
8.3321 -0.7495 -2.3538 0.6467 25 10
7.7201 -0.5700 -2.1780 0.7177 25 10
7.6528 -0.4419 -2.1568 0.8057 25 10
7.6149 -0.3174 -2.1444 0.8104 25 10
7.6039 -0.1949 -2.1401 0.9214 25 10
7.5991 -0.0730 -2.1382 0.9222 25 10
7.5981 0.0487 -2.1378 0.9224 25 10
7.6030 0.1706 -2.1397 0.9216 25 10
7.6077 0.2927 -2.1421 0.8402 25 10
7.6452 0.4169 -2.1542 0.8066 25 10
7.7047 0.5441 -2.1732 0.7193 25 10
8.3316 0.7227 -2.3529 0.6469 25 10
8.3345 0.8577 -2.3573 0.6457 25 10
8.8065 1.0491 -2.4953 0.2708 0 8
8.7885 1.1900 -2.4953 0.2708 0 8
8.7683 1.3307 -2.4953 0.2708 0 8
8.7459 1.4710 -2.4953 0.2708 0 8
8.7212 1.6109 -2.4953 0.2708 0 8
8.6943 1.7504 -2.4953 0.2708 0 8
8.6651 1.8895 -2.4953 0.2708 0 8
8.6337 2.0281 -2.4953 0.2708 0 8
8.6001 2.1661 -2.4953 0.2708 0 8
8.5643 2.3036 -2.4953 0.2708 0 8
8.5263 2.4405 -2.4953 0.2708 0 8
8.4861 2.5768 -2.4953 0.2708 0 8
8.4437 2.7125 -2.4953 0.2708 0 8
8.3992 2.8474 -2.4953 0.2708 0 8
8.3525 2.9816 -2.4953 0.2708 0 8
8.3037 3.1150 -2.4953 0.2708 0 8
8.2527 3.2477 -2.4953 0.2708 0 8
8.1996 3.3794 -2.4953 0.2708 0 8
8.1444 3.5104 -2.4953 0.2708 0 8
8.0871 3.6404 -2.4953 0.2708 0 8
8.0278 3.7695 -2.4953 0.2708 0 8
7.9663 3.8976 -2.4953 0.2708 0 8
7.9029 4.0248 -2.4953 0.2708 0 8
7.8374 4.1509 -2.4953 0.2708 0 8
7.7699 4.2759 -2.4953 0.2708 0 8
7.7004 4.3998 -2.4953 0.2708 0 8
7.6289 4.5226 -2.4953 0.2708 0 8
7.5555 4.6443 -2.4953 0.2708 0 8
7.4801 4.7647 -2.4953 0.2708 0 8
7.4028 4.8840 -2.4953 0.2708 0 8
7.3236 5.0019 -2.4953 0.2708 0 8
7.2425 5.1186 -2.4953 0.2708 0 8
7.1596 5.2340 -2.4953 0.2708 0 8
7.0748 5.3480 -2.4953 0.2708 0 8
6.9882 5.4607 -2.4953 0.2708 0 8
6.8998 5.5719 -2.4953 0.2708 0 8
6.8097 5.6818 -2.4953 0.2708 0 8
6.7178 5.7901 -2.4953 0.2708 0 8
6.6241 5.8970 -2.4953 0.2708 0 8
6.5288 6.0024 -2.4953 0.2708 0 8
6.4318 6.1062 -2.4953 0.2708 0 8
6.3332 6.2085 -2.4953 0.2708 0 8
6.2329 6.3091 -2.4953 0.2708 0 8
6.1310 6.4082 -2.4953 0.2708 0 8
6.0276 6.5056 -2.4953 0.2708 0 8
5.9226 6.6013 -2.4953 0.2708 0 8
5.8160 6.6954 -2.4953 0.2708 0 8
5.7080 6.7877 -2.4953 0.2708 0 8
5.5985 6.8783 -2.4953 0.2708 0 8
5.4876 6.9671 -2.4953 0.2708 0 8
5.3753 7.0541 -2.4953 0.2708 0 8
5.2616 7.1393 -2.4953 0.2708 0 8
5.1465 7.2227 -2.4953 0.2708 0 8
5.0302 7.3042 -2.4953 0.2708 0 8
4.9125 7.3839 -2.4953 0.2708 0 8
4.7936 7.4616 -2.4953 0.2708 0 8
4.6734 7.5375 -2.4953 0.2708 0 8
4.5521 7.6114 -2.4953 0.2708 0 8
4.4295 7.6833 -2.4953 0.2708 0 8
4.3059 7.7533 -2.4953 0.2708 0 8
4.1811 7.8213 -2.4953 0.2708 0 8
4.0552 7.8873 -2.4953 0.2708 0 8
3.9284 7.9512 -2.4953 0.2708 0 8
3.8005 8.0132 -2.4953 0.2708 0 8
3.6716 8.0730 -2.4953 0.2708 0 8
3.5418 8.1308 -2.4953 0.2708 0 8
3.4111 8.1865 -2.4953 0.2708 0 8
3.2795 8.2401 -2.4953 0.2708 0 8
3.1470 8.2916 -2.4953 0.2708 0 8
3.0138 8.3409 -2.4953 0.2708 0 8
2.8798 8.3881 -2.4953 0.2708 0 8
2.7450 8.4332 -2.4953 0.2708 0 8
2.7690 8.9938 -2.6477 0.2708 0 7
2.6245 9.0370 -2.6477 0.2708 0 7
2.4794 9.0779 -2.6477 0.2708 0 7
2.3336 9.1164 -2.6477 0.2708 0 7
2.1873 9.1527 -2.6477 0.2708 0 7
2.0404 9.1865 -2.6477 0.2708 0 7
1.8929 9.2180 -2.6477 0.2708 0 7
1.7450 9.2472 -2.6477 0.2708 0 7
1.5966 9.2739 -2.6477 0.2708 0 7
1.4478 9.2983 -2.6477 0.2708 0 7
1.2987 9.3203 -2.6477 0.2708 0 7
1.1492 9.3399 -2.6477 0.2708 0 7
0.9994 9.3572 -2.6477 0.2708 0 7
0.8494 9.3720 -2.6477 0.2708 0 7
0.6991 9.3844 -2.6477 0.2708 0 7
0.5487 9.3944 -2.6477 0.2708 0 7
0.3981 9.4020 -2.6477 0.2708 0 7
0.2474 9.4071 -2.6477 0.2708 0 7
0.0967 9.4099 -2.6477 0.2708 0 7
8.1738 -2.6546 -2.4953 0.2788 0 8
8.2153 -2.5233 -2.4953 0.2788 0 8
8.2547 -2.3914 -2.4953 0.2788 0 8
8.2920 -2.2588 -2.4953 0.2788 0 8
8.3271 -2.1257 -2.4953 0.2788 0 8
8.3601 -1.9920 -2.4953 0.2788 0 8
8.3909 -1.8578 -2.4953 0.2788 0 8
8.4196 -1.7231 -2.4953 0.2788 0 8
8.4461 -1.5880 -2.4953 0.2788 0 8
8.4705 -1.4525 -2.4953 0.2788 0 8
8.4927 -1.3166 -2.4953 0.2788 0 8
8.5127 -1.1804 -2.4953 0.2788 0 8
8.5305 -1.0438 -2.4953 0.2788 0 8
8.5461 -0.9070 -2.4953 0.2788 0 8
8.4737 -0.7623 -2.4702 0.2996 25 10
8.5708 -0.6328 -2.4953 0.2788 0 8
8.5798 -0.4954 -2.4953 0.2788 0 8
8.5867 -0.3579 -2.4953 0.2788 0 8
8.5913 -0.2202 -2.4953 0.2788 0 8
8.5937 -0.0826 -2.4953 0.2788 0 8
8.5939 0.0551 -2.4953 0.2788 0 8
8.5919 0.1928 -2.4953 0.2788 0 8
8.5878 0.3304 -2.4953 0.2788 0 8
8.5814 0.4680 -2.4953 0.2788 0 8
8.5728 0.6054 -2.4953 0.2788 0 8
8.4718 0.7348 -2.4690 0.2997 25 10
8.5490 0.8797 -2.4953 0.2788 0 8
8.5338 1.0166 -2.4953 0.2788 0 8
8.5164 1.1532 -2.4953 0.2788 0 8
8.4968 1.2895 -2.4953 0.2788 0 8
8.4751 1.4254 -2.4953 0.2788 0 8
8.4511 1.5610 -2.4953 0.2788 0 8
8.4251 1.6962 -2.4953 0.2788 0 8
8.3968 1.8310 -2.4953 0.2788 0 8
8.3664 1.9653 -2.4953 0.2788 0 8
8.3338 2.0991 -2.4953 0.2788 0 8
8.2991 2.2323 -2.4953 0.2788 0 8
8.2623 2.3650 -2.4953 0.2788 0 8
8.2233 2.4970 -2.4953 0.2788 0 8
8.1823 2.6285 -2.4953 0.2788 0 8
8.1391 2.7592 -2.4953 0.2788 0 8
8.0939 2.8893 -2.4953 0.2788 0 8
8.0465 3.0186 -2.4953 0.2788 0 8
7.9972 3.1471 -2.4953 0.2788 0 8
7.9457 3.2748 -2.4953 0.2788 0 8
7.8922 3.4017 -2.4953 0.2788 0 8
7.8367 3.5277 -2.4953 0.2788 0 8
7.7792 3.6528 -2.4953 0.2788 0 8
7.7197 3.7770 -2.4953 0.2788 0 8
7.6582 3.9001 -2.4953 0.2788 0 8
7.5947 4.0223 -2.4953 0.2788 0 8
7.5293 4.1435 -2.4953 0.2788 0 8
7.4619 4.2636 -2.4953 0.2788 0 8
7.3927 4.3826 -2.4953 0.2788 0 8
7.3215 4.5005 -2.4953 0.2788 0 8
7.2485 4.6172 -2.4953 0.2788 0 8
7.1736 4.7327 -2.4953 0.2788 0 8
7.0968 4.8471 -2.4953 0.2788 0 8
7.0183 4.9601 -2.4953 0.2788 0 8
6.9379 5.0719 -2.4953 0.2788 0 8
6.8557 5.1824 -2.4953 0.2788 0 8
6.7718 5.2916 -2.4953 0.2788 0 8
6.6862 5.3994 -2.4953 0.2788 0 8
6.5988 5.5058 -2.4953 0.2788 0 8
6.5098 5.6109 -2.4953 0.2788 0 8
6.4190 5.7144 -2.4953 0.2788 0 8
6.3267 5.8165 -2.4953 0.2788 0 8
6.2327 5.9171 -2.4953 0.2788 0 8
6.1371 6.0162 -2.4953 0.2788 0 8
6.0399 6.1138 -2.4953 0.2788 0 8
5.9412 6.2098 -2.4953 0.2788 0 8
5.8409 6.3042 -2.4953 0.2788 0 8
5.7392 6.3969 -2.4953 0.2788 0 8
5.6359 6.4881 -2.4953 0.2788 0 8
5.5313 6.5775 -2.4953 0.2788 0 8
5.4252 6.6653 -2.4953 0.2788 0 8
5.3177 6.7514 -2.4953 0.2788 0 8
5.2089 6.8357 -2.4953 0.2788 0 8
5.0987 6.9183 -2.4953 0.2788 0 8
4.9872 6.9991 -2.4953 0.2788 0 8
4.8744 7.0781 -2.4953 0.2788 0 8
4.7604 7.1552 -2.4953 0.2788 0 8
4.6451 7.2306 -2.4953 0.2788 0 8
4.5287 7.3041 -2.4953 0.2788 0 8
4.4111 7.3757 -2.4953 0.2788 0 8
4.2924 7.4454 -2.4953 0.2788 0 8
4.1725 7.5132 -2.4953 0.2788 0 8
4.0516 7.5791 -2.4953 0.2788 0 8
3.9297 7.6431 -2.4953 0.2788 0 8
3.8067 7.7050 -2.4953 0.2788 0 8
3.6828 7.7650 -2.4953 0.2788 0 8
3.5579 7.8230 -2.4953 0.2788 0 8
3.4321 7.8790 -2.4953 0.2788 0 8
3.3055 7.9330 -2.4953 0.2788 0 8
3.1779 7.9849 -2.4953 0.2788 0 8
3.0496 8.0348 -2.4953 0.2788 0 8
2.9205 8.0827 -2.4953 0.2788 0 8
2.7906 8.1284 -2.4953 0.2788 0 8
2.6600 8.1721 -2.4953 0.2788 0 8
2.5288 8.2136 -2.4953 0.2788 0 8
2.3969 8.2531 -2.4953 0.2788 0 8
2.2643 8.2905 -2.4953 0.2788 0 8
2.1315 8.3267 -2.4956 0.2792 0 8
1.9979 8.3604 -2.4958 0.2792 0 8
1.8639 8.3920 -2.4960 0.2791 0 8
1.7292 8.4209 -2.4960 0.3395 0 8
1.5941 8.4476 -2.4960 0.2461 0 8
1.5472 8.9868 -2.6477 0.2788 0 7
1.4030 9.0104 -2.6477 0.2788 0 7
1.2585 9.0317 -2.6477 0.2788 0 7
1.1136 9.0507 -2.6477 0.2788 0 7
0.9685 9.0674 -2.6477 0.2788 0 7
0.8231 9.0818 -2.6477 0.2788 0 7
0.6775 9.0938 -2.6477 0.2788 0 7
0.5317 9.1035 -2.6477 0.2788 0 7
0.3858 9.1108 -2.6477 0.2788 0 7
0.2398 9.1158 -2.6477 0.2788 0 7
0.0937 9.1185 -2.6477 0.2788 0 7
7.9272 -2.5745 -2.4953 0.2868 0 8
7.9674 -2.4472 -2.4953 0.2868 0 8
8.0056 -2.3192 -2.4953 0.2868 0 8
8.0417 -2.1907 -2.4953 0.2868 0 8
8.0758 -2.0615 -2.4953 0.2868 0 8
8.1078 -1.9319 -2.4953 0.2868 0 8
8.1377 -1.8017 -2.4953 0.2868 0 8
8.1655 -1.6711 -2.4953 0.2868 0 8
8.1913 -1.5401 -2.4953 0.2868 0 8
8.2149 -1.4087 -2.4953 0.2868 0 8
8.2364 -1.2769 -2.4953 0.2868 0 8
8.2558 -1.1448 -2.4953 0.2868 0 8
8.2731 -1.0123 -2.4953 0.2868 0 8
8.2882 -0.8797 -2.4953 0.2868 0 8
8.3013 -0.7468 -2.4953 0.2868 0 8
8.3122 -0.6137 -2.4953 0.2868 0 8
8.3209 -0.4804 -2.4953 0.2868 0 8
8.3276 -0.3471 -2.4953 0.2868 0 8
8.3320 -0.2136 -2.4953 0.2868 0 8
8.3344 -0.0801 -2.4953 0.2868 0 8
8.3346 0.0534 -2.4953 0.2868 0 8
8.3327 0.1870 -2.4953 0.2868 0 8
8.3286 0.3204 -2.4953 0.2868 0 8
8.3224 0.4538 -2.4953 0.2868 0 8
8.3141 0.5871 -2.4953 0.2868 0 8
8.3036 0.7202 -2.4953 0.2868 0 8
8.2910 0.8532 -2.4953 0.2868 0 8
8.2763 0.9859 -2.4953 0.2868 0 8
8.2594 1.1184 -2.4953 0.2868 0 8
8.2404 1.2506 -2.4953 0.2868 0 8
8.2193 1.3824 -2.4953 0.2868 0 8
8.1961 1.5139 -2.4953 0.2868 0 8
8.1708 1.6450 -2.4953 0.2868 0 8
8.1434 1.7757 -2.4953 0.2868 0 8
8.1139 1.9060 -2.4953 0.2868 0 8
8.0824 2.0357 -2.4953 0.2868 0 8
8.0487 2.1649 -2.4953 0.2868 0 8
8.0130 2.2936 -2.4953 0.2868 0 8
7.9752 2.4217 -2.4953 0.2868 0 8
7.9354 2.5492 -2.4953 0.2868 0 8
7.8935 2.6760 -2.4953 0.2868 0 8
7.8496 2.8021 -2.4953 0.2868 0 8
7.8037 2.9275 -2.4953 0.2868 0 8
7.7558 3.0521 -2.4953 0.2868 0 8
7.7060 3.1760 -2.4953 0.2868 0 8
7.6541 3.2990 -2.4953 0.2868 0 8
7.6002 3.4212 -2.4953 0.2868 0 8
7.5445 3.5426 -2.4953 0.2868 0 8
7.4867 3.6630 -2.4953 0.2868 0 8
7.4271 3.7825 -2.4953 0.2868 0 8
7.3655 3.9010 -2.4953 0.2868 0 8
7.3021 4.0185 -2.4953 0.2868 0 8
7.2368 4.1349 -2.4953 0.2868 0 8
7.1696 4.2504 -2.4953 0.2868 0 8
7.1006 4.3647 -2.4953 0.2868 0 8
7.0297 4.4779 -2.4953 0.2868 0 8
6.9571 4.5899 -2.4953 0.2868 0 8
6.8827 4.7008 -2.4953 0.2868 0 8
6.8065 4.8105 -2.4953 0.2868 0 8
6.7285 4.9189 -2.4953 0.2868 0 8
6.6489 5.0261 -2.4953 0.2868 0 8
6.5675 5.1319 -2.4953 0.2868 0 8
6.4844 5.2365 -2.4953 0.2868 0 8
6.3997 5.3397 -2.4953 0.2868 0 8
6.3133 5.4416 -2.4953 0.2868 0 8
6.2253 5.5420 -2.4953 0.2868 0 8
6.1358 5.6410 -2.4953 0.2868 0 8
6.0446 5.7386 -2.4953 0.2868 0 8
5.9519 5.8347 -2.4953 0.2868 0 8
5.8576 5.9293 -2.4953 0.2868 0 8
5.7619 6.0224 -2.4953 0.2868 0 8
5.6647 6.1139 -2.4953 0.2868 0 8
5.5660 6.2039 -2.4953 0.2868 0 8
5.4659 6.2923 -2.4953 0.2868 0 8
5.3644 6.3790 -2.4953 0.2868 0 8
5.2615 6.4642 -2.4953 0.2868 0 8
5.1572 6.5476 -2.4953 0.2868 0 8
5.0517 6.6294 -2.4953 0.2868 0 8
4.9448 6.7095 -2.4953 0.2868 0 8
4.8367 6.7879 -2.4953 0.2868 0 8
4.7273 6.8645 -2.4953 0.2868 0 8
4.6167 6.9393 -2.4953 0.2868 0 8
4.5050 7.0124 -2.4953 0.2868 0 8
4.3921 7.0837 -2.4953 0.2868 0 8
4.2780 7.1531 -2.4953 0.2868 0 8
4.1628 7.2208 -2.4953 0.2868 0 8
4.0466 7.2865 -2.4953 0.2868 0 8
3.9294 7.3504 -2.4953 0.2868 0 8
3.8111 7.4124 -2.4953 0.2868 0 8
3.6919 7.4725 -2.4953 0.2868 0 8
3.5717 7.5307 -2.4953 0.2868 0 8
3.4506 7.5870 -2.4953 0.2868 0 8
3.3286 7.6413 -2.4953 0.2868 0 8
3.2057 7.6936 -2.4953 0.2868 0 8
3.0820 7.7440 -2.4953 0.2868 0 8
2.9576 7.7924 -2.4953 0.2868 0 8
2.8324 7.8388 -2.4953 0.2868 0 8
2.7064 7.8831 -2.4953 0.2868 0 8
2.5798 7.9255 -2.4953 0.2868 0 8
2.4525 7.9658 -2.4953 0.2868 0 8
2.3245 8.0041 -2.4953 0.2868 0 8
2.1960 8.0403 -2.4953 0.2868 0 8
2.0669 8.0744 -2.4953 0.2868 0 8
1.9373 8.1065 -2.4953 0.2868 0 8
1.8072 8.1365 -2.4953 0.2868 0 8
1.6766 8.1644 -2.4953 0.2868 0 8
1.5455 8.1902 -2.4953 0.2868 0 8
1.4141 8.2139 -2.4953 0.2868 0 8
1.2824 8.2355 -2.4953 0.2868 0 8
1.1502 8.2550 -2.4953 0.2868 0 8
1.0178 8.2724 -2.4953 0.2868 0 8
0.8852 8.2876 -2.4953 0.2868 0 8
0.7523 8.3008 -2.4953 0.2868 0 8
0.6198 8.3200 -2.4978 0.2869 0 8
0.4865 8.3295 -2.4980 0.2869 0 8
0.3530 8.3356 -2.4978 0.3490 0 8
0.2193 8.3383 -2.4972 0.3491 0 8
0.0857 8.3393 -2.4968 0.3491 0 8
7.6939 -2.4987 -2.4953 0.2948 0 8
7.7329 -2.3751 -2.4953 0.2948 0 8
7.7700 -2.2510 -2.4953 0.2948 0 8
7.8051 -2.1262 -2.4953 0.2948 0 8
7.8381 -2.0009 -2.4953 0.2948 0 8
7.8692 -1.8750 -2.4953 0.2948 0 8
7.8982 -1.7487 -2.4953 0.2948 0 8
7.9252 -1.6220 -2.4953 0.2948 0 8
7.9502 -1.4948 -2.4953 0.2948 0 8
7.9731 -1.3672 -2.4953 0.2948 0 8
7.9940 -1.2393 -2.4953 0.2948 0 8
8.0128 -1.1111 -2.4953 0.2948 0 8
8.0296 -0.9826 -2.4953 0.2948 0 8
8.0443 -0.8538 -2.4953 0.2948 0 8
8.0569 -0.7248 -2.4953 0.2948 0 8
8.0675 -0.5956 -2.4953 0.2948 0 8
8.0760 -0.4663 -2.4953 0.2948 0 8
8.0825 -0.3368 -2.4953 0.2948 0 8
8.0868 -0.2073 -2.4953 0.2948 0 8
8.0891 -0.0777 -2.4953 0.2948 0 8
8.0893 0.0519 -2.4953 0.2948 0 8
8.0874 0.1815 -2.4953 0.2948 0 8
8.0835 0.3110 -2.4953 0.2948 0 8
8.0775 0.4405 -2.4953 0.2948 0 8
8.0694 0.5698 -2.4953 0.2948 0 8
8.0592 0.6990 -2.4953 0.2948 0 8
8.0470 0.8281 -2.4953 0.2948 0 8
8.0327 0.9569 -2.4953 0.2948 0 8
8.0163 1.0855 -2.4953 0.2948 0 8
7.9979 1.2137 -2.4953 0.2948 0 8
7.9774 1.3417 -2.4953 0.2948 0 8
7.9549 1.4694 -2.4953 0.2948 0 8
7.9303 1.5966 -2.4953 0.2948 0 8
7.9037 1.7235 -2.4953 0.2948 0 8
7.8751 1.8499 -2.4953 0.2948 0 8
7.8445 1.9758 -2.4953 0.2948 0 8
7.8118 2.1012 -2.4953 0.2948 0 8
7.7771 2.2261 -2.4953 0.2948 0 8
7.7405 2.3504 -2.4953 0.2948 0 8
7.7018 2.4741 -2.4953 0.2948 0 8
7.6612 2.5972 -2.4953 0.2948 0 8
7.6186 2.7196 -2.4953 0.2948 0 8
7.5741 2.8413 -2.4953 0.2948 0 8
7.5276 2.9623 -2.4953 0.2948 0 8
7.4791 3.0825 -2.4953 0.2948 0 8
7.4288 3.2019 -2.4953 0.2948 0 8
7.3766 3.3206 -2.4953 0.2948 0 8
7.3224 3.4383 -2.4953 0.2948 0 8
7.2664 3.5552 -2.4953 0.2948 0 8
7.2085 3.6711 -2.4953 0.2948 0 8
7.1487 3.7862 -2.4953 0.2948 0 8
7.0872 3.9002 -2.4953 0.2948 0 8
7.0238 4.0132 -2.4953 0.2948 0 8
6.9586 4.1253 -2.4953 0.2948 0 8
6.8916 4.2362 -2.4953 0.2948 0 8
6.8228 4.3461 -2.4953 0.2948 0 8
6.7523 4.4548 -2.4953 0.2948 0 8
6.6801 4.5624 -2.4953 0.2948 0 8
6.6061 4.6689 -2.4953 0.2948 0 8
6.5305 4.7741 -2.4953 0.2948 0 8
6.4532 4.8781 -2.4953 0.2948 0 8
6.3742 4.9809 -2.4953 0.2948 0 8
6.2936 5.0824 -2.4953 0.2948 0 8
6.2113 5.1825 -2.4953 0.2948 0 8
6.1275 5.2814 -2.4953 0.2948 0 8
6.0421 5.3789 -2.4953 0.2948 0 8
5.9552 5.4750 -2.4953 0.2948 0 8
5.8667 5.5697 -2.4953 0.2948 0 8
5.7767 5.6630 -2.4953 0.2948 0 8
5.6852 5.7548 -2.4953 0.2948 0 8
5.5923 5.8451 -2.4953 0.2948 0 8
5.4979 5.9340 -2.4953 0.2948 0 8
5.4022 6.0213 -2.4953 0.2948 0 8
5.3050 6.1071 -2.4953 0.2948 0 8
5.2065 6.1913 -2.4953 0.2948 0 8
5.1066 6.2739 -2.4953 0.2948 0 8
5.0055 6.3549 -2.4953 0.2948 0 8
4.9030 6.4343 -2.4953 0.2948 0 8
4.7993 6.5120 -2.4953 0.2948 0 8
4.6943 6.5881 -2.4953 0.2948 0 8
4.5882 6.6624 -2.4953 0.2948 0 8
4.4809 6.7351 -2.4953 0.2948 0 8
4.3724 6.8060 -2.4953 0.2948 0 8
4.2628 6.8752 -2.4953 0.2948 0 8
4.1521 6.9426 -2.4953 0.2948 0 8
4.0403 7.0082 -2.4953 0.2948 0 8
3.9275 7.0721 -2.4953 0.2948 0 8
3.8137 7.1341 -2.4953 0.2948 0 8
3.6989 7.1943 -2.4953 0.2948 0 8
3.5832 7.2526 -2.4953 0.2948 0 8
3.4665 7.3091 -2.4953 0.2948 0 8
3.3490 7.3637 -2.4953 0.2948 0 8
3.2306 7.4164 -2.4953 0.2948 0 8
3.1114 7.4672 -2.4953 0.2948 0 8
2.9913 7.5161 -2.4953 0.2948 0 8
2.8705 7.5630 -2.4953 0.2948 0 8
2.7490 7.6081 -2.4953 0.2948 0 8
2.6268 7.6511 -2.4953 0.2948 0 8
2.5038 7.6922 -2.4953 0.2948 0 8
2.3803 7.7314 -2.4953 0.2948 0 8
2.2561 7.7685 -2.4953 0.2948 0 8
2.1314 7.8036 -2.4953 0.2948 0 8
2.0061 7.8368 -2.4953 0.2948 0 8
1.8803 7.8679 -2.4953 0.2948 0 8
1.7540 7.8970 -2.4953 0.2948 0 8
1.6272 7.9241 -2.4953 0.2948 0 8
1.5001 7.9492 -2.4953 0.2948 0 8
1.3725 7.9722 -2.4953 0.2948 0 8
1.2446 7.9932 -2.4953 0.2948 0 8
1.1164 8.0121 -2.4953 0.2948 0 8
0.9879 8.0289 -2.4953 0.2948 0 8
0.8591 8.0437 -2.4953 0.2948 0 8
0.7301 8.0565 -2.4953 0.2948 0 8
0.6010 8.0671 -2.4953 0.2948 0 8
0.4717 8.0757 -2.4953 0.2948 0 8
0.3422 8.0822 -2.4953 0.2948 0 8
0.2127 8.0867 -2.4953 0.2948 0 8
0.0831 8.0890 -2.4953 0.2948 0 8
7.4728 -2.4269 -2.4953 0.3027 0 8
7.5107 -2.3069 -2.4953 0.3027 0 8
7.5467 -2.1863 -2.4953 0.3027 0 8
7.5808 -2.0651 -2.4953 0.3027 0 8
7.6129 -1.9434 -2.4953 0.3027 0 8
7.6431 -1.8212 -2.4953 0.3027 0 8
7.6713 -1.6985 -2.4953 0.3027 0 8
7.6975 -1.5753 -2.4953 0.3027 0 8
7.7217 -1.4518 -2.4953 0.3027 0 8
7.7440 -1.3279 -2.4953 0.3027 0 8
7.7643 -1.2037 -2.4953 0.3027 0 8
7.7826 -1.0791 -2.4953 0.3027 0 8
7.7989 -0.9543 -2.4953 0.3027 0 8
7.8131 -0.8292 -2.4953 0.3027 0 8
7.8254 -0.7040 -2.4953 0.3027 0 8
7.8357 -0.5785 -2.4953 0.3027 0 8
7.8440 -0.4529 -2.4953 0.3027 0 8
7.8502 -0.3272 -2.4953 0.3027 0 8
7.8544 -0.2014 -2.4953 0.3027 0 8
7.8567 -0.0755 -2.4953 0.3027 0 8
7.8569 0.0504 -2.4953 0.3027 0 8
7.8551 0.1763 -2.4953 0.3027 0 8
7.8512 0.3021 -2.4953 0.3027 0 8
7.8454 0.4278 -2.4953 0.3027 0 8
7.8375 0.5535 -2.4953 0.3027 0 8
7.8276 0.6790 -2.4953 0.3027 0 8
7.8158 0.8043 -2.4953 0.3027 0 8
7.8019 0.9294 -2.4953 0.3027 0 8
7.7860 1.0543 -2.4953 0.3027 0 8
7.7681 1.1789 -2.4953 0.3027 0 8
7.7482 1.3032 -2.4953 0.3027 0 8
7.7263 1.4271 -2.4953 0.3027 0 8
7.7025 1.5507 -2.4953 0.3027 0 8
7.6766 1.6739 -2.4953 0.3027 0 8
7.6488 1.7967 -2.4953 0.3027 0 8
7.6191 1.9190 -2.4953 0.3027 0 8
7.5873 2.0408 -2.4953 0.3027 0 8
7.5537 2.1621 -2.4953 0.3027 0 8
7.5181 2.2829 -2.4953 0.3027 0 8
7.4805 2.4030 -2.4953 0.3027 0 8
7.4411 2.5226 -2.4953 0.3027 0 8
7.3997 2.6415 -2.4953 0.3027 0 8
7.3564 2.7597 -2.4953 0.3027 0 8
7.3113 2.8772 -2.4953 0.3027 0 8
7.2642 2.9939 -2.4953 0.3027 0 8
7.2153 3.1099 -2.4953 0.3027 0 8
7.1646 3.2251 -2.4953 0.3027 0 8
7.1120 3.3395 -2.4953 0.3027 0 8
7.0576 3.4530 -2.4953 0.3027 0 8
7.0014 3.5656 -2.4953 0.3027 0 8
6.9433 3.6774 -2.4953 0.3027 0 8
6.8835 3.7881 -2.4953 0.3027 0 8
6.8220 3.8979 -2.4953 0.3027 0 8
6.7586 4.0067 -2.4953 0.3027 0 8
6.6936 4.1145 -2.4953 0.3027 0 8
6.6268 4.2212 -2.4953 0.3027 0 8
6.5583 4.3268 -2.4953 0.3027 0 8
6.4882 4.4313 -2.4953 0.3027 0 8
6.4163 4.5347 -2.4953 0.3027 0 8
6.3429 4.6369 -2.4953 0.3027 0 8
6.2677 4.7380 -2.4953 0.3027 0 8
6.1910 4.8378 -2.4953 0.3027 0 8
6.1127 4.9363 -2.4953 0.3027 0 8
6.0329 5.0336 -2.4953 0.3027 0 8
5.9514 5.1296 -2.4953 0.3027 0 8
5.8685 5.2243 -2.4953 0.3027 0 8
5.7840 5.3177 -2.4953 0.3027 0 8
5.6981 5.4097 -2.4953 0.3027 0 8
5.6107 5.5003 -2.4953 0.3027 0 8
5.5219 5.5894 -2.4953 0.3027 0 8
5.4316 5.6772 -2.4953 0.3027 0 8
5.3400 5.7635 -2.4953 0.3027 0 8
5.2469 5.8483 -2.4953 0.3027 0 8
5.1526 5.9316 -2.4953 0.3027 0 8
5.0569 6.0134 -2.4953 0.3027 0 8
4.9599 6.0936 -2.4953 0.3027 0 8
4.8616 6.1723 -2.4953 0.3027 0 8
4.7621 6.2494 -2.4953 0.3027 0 8
4.6614 6.3249 -2.4953 0.3027 0 8
4.5595 6.3988 -2.4953 0.3027 0 8
4.4564 6.4710 -2.4953 0.3027 0 8
4.3521 6.5416 -2.4953 0.3027 0 8
4.2467 6.6105 -2.4953 0.3027 0 8
4.1403 6.6776 -2.4953 0.3027 0 8
4.0328 6.7431 -2.4953 0.3027 0 8
3.9242 6.8069 -2.4953 0.3027 0 8
3.8147 6.8689 -2.4953 0.3027 0 8
3.7041 6.9291 -2.4953 0.3027 0 8
3.5926 6.9875 -2.4953 0.3027 0 8
3.4802 7.0442 -2.4953 0.3027 0 8
3.3669 7.0991 -2.4953 0.3027 0 8
3.2528 7.1521 -2.4953 0.3027 0 8
3.1378 7.2033 -2.4953 0.3027 0 8
3.0220 7.2526 -2.4953 0.3027 0 8
2.9054 7.3001 -2.4953 0.3027 0 8
2.7881 7.3457 -2.4953 0.3027 0 8
2.6700 7.3894 -2.4953 0.3027 0 8
2.5513 7.4313 -2.4953 0.3027 0 8
2.4319 7.4712 -2.4953 0.3027 0 8
2.3119 7.5092 -2.4953 0.3027 0 8
2.1913 7.5453 -2.4953 0.3027 0 8
2.0701 7.5794 -2.4953 0.3027 0 8
1.9484 7.6116 -2.4953 0.3027 0 8
1.8262 7.6418 -2.4953 0.3027 0 8
1.7036 7.6701 -2.4953 0.3027 0 8
1.5805 7.6964 -2.4953 0.3027 0 8
1.4570 7.7208 -2.4953 0.3027 0 8
1.3331 7.7431 -2.4953 0.3027 0 8
1.2089 7.7635 -2.4953 0.3027 0 8
1.0843 7.7818 -2.4953 0.3027 0 8
0.9595 7.7982 -2.4953 0.3027 0 8
0.8344 7.8126 -2.4953 0.3027 0 8
0.7092 7.8250 -2.4953 0.3027 0 8
0.5837 7.8353 -2.4953 0.3027 0 8
0.4581 7.8437 -2.4953 0.3027 0 8
0.3324 7.8500 -2.4953 0.3027 0 8
0.2066 7.8543 -2.4953 0.3027 0 8
0.0807 7.8566 -2.4953 0.3027 0 8
7.2630 -2.3588 -2.4953 0.3106 0 8
7.2999 -2.2421 -2.4953 0.3106 0 8
7.3349 -2.1249 -2.4953 0.3106 0 8
7.3680 -2.0071 -2.4953 0.3106 0 8
7.3992 -1.8888 -2.4953 0.3106 0 8
7.4285 -1.7700 -2.4953 0.3106 0 8
7.4559 -1.6508 -2.4953 0.3106 0 8
7.4814 -1.5311 -2.4953 0.3106 0 8
7.5049 -1.4111 -2.4953 0.3106 0 8
7.5266 -1.2906 -2.4953 0.3106 0 8
7.5463 -1.1699 -2.4953 0.3106 0 8
7.5641 -1.0488 -2.4953 0.3106 0 8
7.5799 -0.9275 -2.4953 0.3106 0 8
7.5938 -0.8060 -2.4953 0.3106 0 8
7.6057 -0.6842 -2.4953 0.3106 0 8
7.6157 -0.5623 -2.4953 0.3106 0 8
7.6237 -0.4402 -2.4953 0.3106 0 8
7.6298 -0.3180 -2.4953 0.3106 0 8
7.6339 -0.1957 -2.4953 0.3106 0 8
7.6361 -0.0734 -2.4953 0.3106 0 8
7.6363 0.0490 -2.4953 0.3106 0 8
7.6345 0.1713 -2.4953 0.3106 0 8
7.6308 0.2936 -2.4953 0.3106 0 8
7.6251 0.4158 -2.4953 0.3106 0 8
7.6175 0.5379 -2.4953 0.3106 0 8
7.6079 0.6599 -2.4953 0.3106 0 8
7.5963 0.7817 -2.4953 0.3106 0 8
7.5828 0.9033 -2.4953 0.3106 0 8
7.5674 1.0247 -2.4953 0.3106 0 8
7.5500 1.1458 -2.4953 0.3106 0 8
7.5307 1.2666 -2.4953 0.3106 0 8
7.5094 1.3871 -2.4953 0.3106 0 8
7.4862 1.5072 -2.4953 0.3106 0 8
7.4611 1.6269 -2.4953 0.3106 0 8
7.4341 1.7463 -2.4953 0.3106 0 8
7.4052 1.8652 -2.4953 0.3106 0 8
7.3743 1.9836 -2.4953 0.3106 0 8
7.3416 2.1014 -2.4953 0.3106 0 8
7.3070 2.2188 -2.4953 0.3106 0 8
7.2705 2.3356 -2.4953 0.3106 0 8
7.2322 2.4518 -2.4953 0.3106 0 8
7.1920 2.5673 -2.4953 0.3106 0 8
7.1499 2.6822 -2.4953 0.3106 0 8
7.1060 2.7964 -2.4953 0.3106 0 8
7.0603 2.9099 -2.4953 0.3106 0 8
7.0128 3.0226 -2.4953 0.3106 0 8
6.9634 3.1346 -2.4953 0.3106 0 8
6.9123 3.2458 -2.4953 0.3106 0 8
6.8594 3.3561 -2.4953 0.3106 0 8
6.8048 3.4655 -2.4953 0.3106 0 8
6.7484 3.5741 -2.4953 0.3106 0 8
6.6903 3.6818 -2.4953 0.3106 0 8
6.6304 3.7885 -2.4953 0.3106 0 8
6.5689 3.8942 -2.4953 0.3106 0 8
6.5056 3.9990 -2.4953 0.3106 0 8
6.4407 4.1027 -2.4953 0.3106 0 8
6.3742 4.2054 -2.4953 0.3106 0 8
6.3060 4.3069 -2.4953 0.3106 0 8
6.2362 4.4074 -2.4953 0.3106 0 8
6.1648 4.5067 -2.4953 0.3106 0 8
6.0918 4.6049 -2.4953 0.3106 0 8
6.0172 4.7019 -2.4953 0.3106 0 8
5.9411 4.7977 -2.4953 0.3106 0 8
5.8635 4.8923 -2.4953 0.3106 0 8
5.7844 4.9856 -2.4953 0.3106 0 8
5.7037 5.0777 -2.4953 0.3106 0 8
5.6217 5.1684 -2.4953 0.3106 0 8
5.5381 5.2578 -2.4953 0.3106 0 8
5.4532 5.3458 -2.4953 0.3106 0 8
5.3668 5.4325 -2.4953 0.3106 0 8
5.2791 5.5178 -2.4953 0.3106 0 8
5.1900 5.6017 -2.4953 0.3106 0 8
5.0996 5.6841 -2.4953 0.3106 0 8
5.0079 5.7651 -2.4953 0.3106 0 8
4.9149 5.8446 -2.4953 0.3106 0 8
4.8206 5.9226 -2.4953 0.3106 0 8
4.7251 5.9990 -2.4953 0.3106 0 8
4.6284 6.0740 -2.4953 0.3106 0 8
4.5305 6.1473 -2.4953 0.3106 0 8
4.4314 6.2191 -2.4953 0.3106 0 8
4.3312 6.2893 -2.4953 0.3106 0 8
4.2299 6.3579 -2.4953 0.3106 0 8
4.1275 6.4249 -2.4953 0.3106 0 8
4.0241 6.4902 -2.4953 0.3106 0 8
3.9196 6.5538 -2.4953 0.3106 0 8
3.8141 6.6158 -2.4953 0.3106 0 8
3.7076 6.6760 -2.4953 0.3106 0 8
3.6001 6.7346 -2.4953 0.3106 0 8
3.4918 6.7914 -2.4953 0.3106 0 8
3.3825 6.8464 -2.4953 0.3106 0 8
3.2724 6.8997 -2.4953 0.3106 0 8
3.1614 6.9513 -2.4953 0.3106 0 8
3.0497 7.0011 -2.4953 0.3106 0 8
2.9371 7.0490 -2.4953 0.3106 0 8
2.8238 7.0952 -2.4953 0.3106 0 8
2.7098 7.1395 -2.4953 0.3106 0 8
2.5950 7.1820 -2.4953 0.3106 0 8
2.4797 7.2226 -2.4953 0.3106 0 8
2.3636 7.2614 -2.4953 0.3106 0 8
2.2470 7.2984 -2.4953 0.3106 0 8
2.1298 7.3334 -2.4953 0.3106 0 8
2.0120 7.3666 -2.4953 0.3106 0 8
1.8937 7.3979 -2.4953 0.3106 0 8
1.7750 7.4273 -2.4953 0.3106 0 8
1.6557 7.4548 -2.4953 0.3106 0 8
1.5361 7.4804 -2.4953 0.3106 0 8
1.4161 7.5040 -2.4953 0.3106 0 8
1.2956 7.5257 -2.4953 0.3106 0 8
1.1749 7.5455 -2.4953 0.3106 0 8
1.0539 7.5634 -2.4953 0.3106 0 8
0.9326 7.5793 -2.4953 0.3106 0 8
0.8110 7.5933 -2.4953 0.3106 0 8
0.6893 7.6053 -2.4953 0.3106 0 8
0.5673 7.6153 -2.4953 0.3106 0 8
0.4452 7.6235 -2.4953 0.3106 0 8
0.3231 7.6296 -2.4953 0.3106 0 8
0.2008 7.6338 -2.4953 0.3106 0 8
0.0785 7.6360 -2.4953 0.3106 0 8
7.0636 -2.2940 -2.4953 0.3185 0 8
7.0995 -2.1806 -2.4953 0.3185 0 8
7.1335 -2.0666 -2.4953 0.3185 0 8
7.1657 -1.9520 -2.4953 0.3185 0 8
7.1960 -1.8370 -2.4953 0.3185 0 8
7.2245 -1.7214 -2.4953 0.3185 0 8
7.2512 -1.6055 -2.4953 0.3185 0 8
7.2760 -1.4891 -2.4953 0.3185 0 8
7.2989 -1.3723 -2.4953 0.3185 0 8
7.3200 -1.2552 -2.4953 0.3185 0 8
7.3391 -1.1378 -2.4953 0.3185 0 8
7.3564 -1.0201 -2.4953 0.3185 0 8
7.3718 -0.9021 -2.4953 0.3185 0 8
7.3853 -0.7838 -2.4953 0.3185 0 8
7.3969 -0.6654 -2.4953 0.3185 0 8
7.4066 -0.5468 -2.4953 0.3185 0 8
7.4145 -0.4281 -2.4953 0.3185 0 8
7.4204 -0.3093 -2.4953 0.3185 0 8
7.4244 -0.1903 -2.4953 0.3185 0 8
7.4265 -0.0714 -2.4953 0.3185 0 8
7.4266 0.0476 -2.4953 0.3185 0 8
7.4249 0.1666 -2.4953 0.3185 0 8
7.4213 0.2855 -2.4953 0.3185 0 8
7.4158 0.4044 -2.4953 0.3185 0 8
7.4083 0.5232 -2.4953 0.3185 0 8
7.3990 0.6418 -2.4953 0.3185 0 8
7.3878 0.7602 -2.4953 0.3185 0 8
7.3747 0.8785 -2.4953 0.3185 0 8
7.3596 0.9965 -2.4953 0.3185 0 8
7.3427 1.1143 -2.4953 0.3185 0 8
7.3239 1.2318 -2.4953 0.3185 0 8
7.3033 1.3490 -2.4953 0.3185 0 8
7.2807 1.4658 -2.4953 0.3185 0 8
7.2563 1.5823 -2.4953 0.3185 0 8
7.2300 1.6983 -2.4953 0.3185 0 8
7.2019 1.8139 -2.4953 0.3185 0 8
7.1719 1.9291 -2.4953 0.3185 0 8
7.1401 2.0438 -2.4953 0.3185 0 8
7.1064 2.1579 -2.4953 0.3185 0 8
7.0709 2.2715 -2.4953 0.3185 0 8
7.0336 2.3844 -2.4953 0.3185 0 8
6.9945 2.4968 -2.4953 0.3185 0 8
6.9536 2.6086 -2.4953 0.3185 0 8
6.9109 2.7196 -2.4953 0.3185 0 8
6.8665 2.8300 -2.4953 0.3185 0 8
6.8202 2.9396 -2.4953 0.3185 0 8
6.7723 3.0485 -2.4953 0.3185 0 8
6.7226 3.1566 -2.4953 0.3185 0 8
6.6711 3.2639 -2.4953 0.3185 0 8
6.6180 3.3704 -2.4953 0.3185 0 8
6.5631 3.4760 -2.4953 0.3185 0 8
6.5066 3.5807 -2.4953 0.3185 0 8
6.4484 3.6845 -2.4953 0.3185 0 8
6.3885 3.7873 -2.4953 0.3185 0 8
6.3270 3.8892 -2.4953 0.3185 0 8
6.2639 3.9901 -2.4953 0.3185 0 8
6.1992 4.0899 -2.4953 0.3185 0 8
6.1329 4.1887 -2.4953 0.3185 0 8
6.0650 4.2864 -2.4953 0.3185 0 8
5.9955 4.3830 -2.4953 0.3185 0 8
5.9245 4.4785 -2.4953 0.3185 0 8
5.8520 4.5729 -2.4953 0.3185 0 8
5.7780 4.6660 -2.4953 0.3185 0 8
5.7025 4.7580 -2.4953 0.3185 0 8
5.6256 4.8488 -2.4953 0.3185 0 8
5.5472 4.9383 -2.4953 0.3185 0 8
5.4673 5.0265 -2.4953 0.3185 0 8
5.3861 5.1134 -2.4953 0.3185 0 8
5.3035 5.1991 -2.4953 0.3185 0 8
5.2195 5.2834 -2.4953 0.3185 0 8
5.1342 5.3663 -2.4953 0.3185 0 8
5.0476 5.4479 -2.4953 0.3185 0 8
4.9596 5.5281 -2.4953 0.3185 0 8
4.8704 5.6068 -2.4953 0.3185 0 8
4.7800 5.6841 -2.4953 0.3185 0 8
4.6883 5.7600 -2.4953 0.3185 0 8
4.5954 5.8343 -2.4953 0.3185 0 8
4.5014 5.9072 -2.4953 0.3185 0 8
4.4061 5.9786 -2.4953 0.3185 0 8
4.3098 6.0484 -2.4953 0.3185 0 8
4.2123 6.1167 -2.4953 0.3185 0 8
4.1138 6.1834 -2.4953 0.3185 0 8
4.0142 6.2485 -2.4953 0.3185 0 8
3.9136 6.3120 -2.4953 0.3185 0 8
3.8120 6.3739 -2.4953 0.3185 0 8
3.7094 6.4341 -2.4953 0.3185 0 8
3.6058 6.4927 -2.4953 0.3185 0 8
3.5013 6.5497 -2.4953 0.3185 0 8
3.3959 6.6049 -2.4953 0.3185 0 8
3.2897 6.6585 -2.4953 0.3185 0 8
3.1826 6.7103 -2.4953 0.3185 0 8
3.0747 6.7605 -2.4953 0.3185 0 8
2.9660 6.8088 -2.4953 0.3185 0 8
2.8565 6.8555 -2.4953 0.3185 0 8
2.7463 6.9004 -2.4953 0.3185 0 8
2.6354 6.9435 -2.4953 0.3185 0 8
2.5238 6.9848 -2.4953 0.3185 0 8
2.4116 7.0244 -2.4953 0.3185 0 8
2.2987 7.0621 -2.4953 0.3185 0 8
2.1853 7.0980 -2.4953 0.3185 0 8
2.0713 7.1321 -2.4953 0.3185 0 8
1.9568 7.1644 -2.4953 0.3185 0 8
1.8417 7.1948 -2.4953 0.3185 0 8
1.7262 7.2234 -2.4953 0.3185 0 8
1.6103 7.2501 -2.4953 0.3185 0 8
1.4939 7.2750 -2.4953 0.3185 0 8
1.3772 7.2980 -2.4953 0.3185 0 8
1.2601 7.3191 -2.4953 0.3185 0 8
1.1427 7.3384 -2.4953 0.3185 0 8
1.0249 7.3557 -2.4953 0.3185 0 8
0.9070 7.3712 -2.4953 0.3185 0 8
0.7888 7.3848 -2.4953 0.3185 0 8
0.6703 7.3965 -2.4953 0.3185 0 8
0.5517 7.4063 -2.4953 0.3185 0 8
0.4330 7.4142 -2.4953 0.3185 0 8
0.3142 7.4202 -2.4953 0.3185 0 8
0.1953 7.4242 -2.4953 0.3185 0 8
0.0763 7.4264 -2.4953 0.3185 0 8
6.8739 -2.2324 -2.4953 0.3264 0 8
6.9087 -2.1220 -2.4953 0.3264 0 8
6.9418 -2.0110 -2.4953 0.3264 0 8
6.9732 -1.8996 -2.4953 0.3264 0 8
7.0027 -1.7876 -2.4953 0.3264 0 8
7.0305 -1.6752 -2.4953 0.3264 0 8
7.0564 -1.5623 -2.4953 0.3264 0 8
7.0805 -1.4491 -2.4953 0.3264 0 8
7.1028 -1.3355 -2.4953 0.3264 0 8
7.1233 -1.2215 -2.4953 0.3264 0 8
7.1420 -1.1072 -2.4953 0.3264 0 8
7.1588 -0.9926 -2.4953 0.3264 0 8
7.1738 -0.8778 -2.4953 0.3264 0 8
7.1869 -0.7628 -2.4953 0.3264 0 8
7.1982 -0.6475 -2.4953 0.3264 0 8
7.2077 -0.5321 -2.4953 0.3264 0 8
7.2153 -0.4166 -2.4953 0.3264 0 8
7.2210 -0.3009 -2.4953 0.3264 0 8
7.2249 -0.1852 -2.4953 0.3264 0 8
7.2269 -0.0694 -2.4953 0.3264 0 8
7.2271 0.0463 -2.4953 0.3264 0 8
7.2255 0.1621 -2.4953 0.3264 0 8
7.2219 0.2779 -2.4953 0.3264 0 8
7.2166 0.3935 -2.4953 0.3264 0 8
7.2093 0.5091 -2.4953 0.3264 0 8
7.2002 0.6245 -2.4953 0.3264 0 8
7.1893 0.7398 -2.4953 0.3264 0 8
7.1765 0.8549 -2.4953 0.3264 0 8
7.1619 0.9698 -2.4953 0.3264 0 8
7.1455 1.0844 -2.4953 0.3264 0 8
7.1272 1.1987 -2.4953 0.3264 0 8
7.1071 1.3128 -2.4953 0.3264 0 8
7.0851 1.4264 -2.4953 0.3264 0 8
7.0613 1.5398 -2.4953 0.3264 0 8
7.0358 1.6527 -2.4953 0.3264 0 8
7.0084 1.7652 -2.4953 0.3264 0 8
6.9792 1.8773 -2.4953 0.3264 0 8
6.9482 1.9888 -2.4953 0.3264 0 8
6.9155 2.0999 -2.4953 0.3264 0 8
6.8810 2.2104 -2.4953 0.3264 0 8
6.8447 2.3204 -2.4953 0.3264 0 8
6.8066 2.4297 -2.4953 0.3264 0 8
6.7668 2.5385 -2.4953 0.3264 0 8
6.7253 2.6466 -2.4953 0.3264 0 8
6.6820 2.7540 -2.4953 0.3264 0 8
6.6370 2.8607 -2.4953 0.3264 0 8
6.5903 2.9666 -2.4953 0.3264 0 8
6.5420 3.0718 -2.4953 0.3264 0 8
6.4919 3.1763 -2.4953 0.3264 0 8
6.4402 3.2799 -2.4953 0.3264 0 8
6.3868 3.3826 -2.4953 0.3264 0 8
6.3318 3.4845 -2.4953 0.3264 0 8
6.2752 3.5855 -2.4953 0.3264 0 8
6.2169 3.6856 -2.4953 0.3264 0 8
6.1571 3.7847 -2.4953 0.3264 0 8
6.0956 3.8829 -2.4953 0.3264 0 8
6.0327 3.9800 -2.4953 0.3264 0 8
5.9681 4.0762 -2.4953 0.3264 0 8
5.9020 4.1713 -2.4953 0.3264 0 8
5.8345 4.2653 -2.4953 0.3264 0 8
5.7654 4.3582 -2.4953 0.3264 0 8
5.6948 4.4500 -2.4953 0.3264 0 8
5.6228 4.5407 -2.4953 0.3264 0 8
5.5493 4.6302 -2.4953 0.3264 0 8
5.4744 4.7185 -2.4953 0.3264 0 8
5.3981 4.8056 -2.4953 0.3264 0 8
5.3204 4.8915 -2.4953 0.3264 0 8
5.2414 4.9761 -2.4953 0.3264 0 8
5.1610 5.0594 -2.4953 0.3264 0 8
5.0793 5.1414 -2.4953 0.3264 0 8
4.9963 5.2222 -2.4953 0.3264 0 8
4.9120 5.3015 -2.4953 0.3264 0 8
4.8264 5.3795 -2.4953 0.3264 0 8
4.7396 5.4562 -2.4953 0.3264 0 8
4.6516 5.5314 -2.4953 0.3264 0 8
4.5623 5.6052 -2.4953 0.3264 0 8
4.4720 5.6776 -2.4953 0.3264 0 8
4.3804 5.7485 -2.4953 0.3264 0 8
4.2878 5.8180 -2.4953 0.3264 0 8
4.1940 5.8859 -2.4953 0.3264 0 8
4.0992 5.9523 -2.4953 0.3264 0 8
4.0033 6.0172 -2.4953 0.3264 0 8
3.9064 6.0806 -2.4953 0.3264 0 8
3.8084 6.1424 -2.4953 0.3264 0 8
3.7095 6.2026 -2.4953 0.3264 0 8
3.6097 6.2613 -2.4953 0.3264 0 8
3.5089 6.3183 -2.4953 0.3264 0 8
3.4072 6.3737 -2.4953 0.3264 0 8
3.3047 6.4275 -2.4953 0.3264 0 8
3.2013 6.4796 -2.4953 0.3264 0 8
3.0971 6.5301 -2.4953 0.3264 0 8
2.9921 6.5788 -2.4953 0.3264 0 8
2.8863 6.6259 -2.4953 0.3264 0 8
2.7797 6.6713 -2.4953 0.3264 0 8
2.6725 6.7150 -2.4953 0.3264 0 8
2.5646 6.7570 -2.4953 0.3264 0 8
2.4560 6.7972 -2.4953 0.3264 0 8
2.3468 6.8356 -2.4953 0.3264 0 8
2.2370 6.8724 -2.4953 0.3264 0 8
2.1266 6.9073 -2.4953 0.3264 0 8
2.0157 6.9405 -2.4953 0.3264 0 8
1.9042 6.9719 -2.4953 0.3264 0 8
1.7923 7.0015 -2.4953 0.3264 0 8
1.6799 7.0293 -2.4953 0.3264 0 8
1.5670 7.0554 -2.4953 0.3264 0 8
1.4538 7.0795 -2.4953 0.3264 0 8
1.3402 7.1019 -2.4953 0.3264 0 8
1.2262 7.1225 -2.4953 0.3264 0 8
1.1120 7.1412 -2.4953 0.3264 0 8
0.9974 7.1581 -2.4953 0.3264 0 8
0.8826 7.1732 -2.4953 0.3264 0 8
0.7676 7.1864 -2.4953 0.3264 0 8
0.6523 7.1978 -2.4953 0.3264 0 8
0.5369 7.2073 -2.4953 0.3264 0 8
0.4214 7.2150 -2.4953 0.3264 0 8
0.3057 7.2208 -2.4953 0.3264 0 8
0.1900 7.2248 -2.4953 0.3264 0 8
0.0742 7.2269 -2.4953 0.3264 0 8
6.6930 -2.1737 -2.4953 0.3342 0 8
6.7270 -2.0662 -2.4953 0.3342 0 8
6.7592 -1.9581 -2.4953 0.3342 0 8
6.7897 -1.8496 -2.4953 0.3342 0 8
6.8185 -1.7406 -2.4953 0.3342 0 8
6.8455 -1.6311 -2.4953 0.3342 0 8
6.8707 -1.5212 -2.4953 0.3342 0 8
6.8942 -1.4110 -2.4953 0.3342 0 8
6.9160 -1.3003 -2.4953 0.3342 0 8
6.9359 -1.1894 -2.4953 0.3342 0 8
6.9541 -1.0781 -2.4953 0.3342 0 8
6.9704 -0.9665 -2.4953 0.3342 0 8
6.9850 -0.8547 -2.4953 0.3342 0 8
6.9978 -0.7427 -2.4953 0.3342 0 8
7.0088 -0.6305 -2.4953 0.3342 0 8
7.0180 -0.5181 -2.4953 0.3342 0 8
7.0254 -0.4056 -2.4953 0.3342 0 8
7.0310 -0.2930 -2.4953 0.3342 0 8
7.0348 -0.1803 -2.4953 0.3342 0 8
7.0368 -0.0676 -2.4953 0.3342 0 8
7.0370 0.0451 -2.4953 0.3342 0 8
7.0354 0.1579 -2.4953 0.3342 0 8
7.0319 0.2706 -2.4953 0.3342 0 8
7.0267 0.3832 -2.4953 0.3342 0 8
7.0197 0.4957 -2.4953 0.3342 0 8
7.0108 0.6081 -2.4953 0.3342 0 8
7.0002 0.7203 -2.4953 0.3342 0 8
6.9877 0.8324 -2.4953 0.3342 0 8
6.9735 0.9443 -2.4953 0.3342 0 8
6.9575 1.0559 -2.4953 0.3342 0 8
6.9397 1.1672 -2.4953 0.3342 0 8
6.9201 1.2782 -2.4953 0.3342 0 8
6.8987 1.3889 -2.4953 0.3342 0 8
6.8756 1.4993 -2.4953 0.3342 0 8
6.8507 1.6092 -2.4953 0.3342 0 8
6.8240 1.7188 -2.4953 0.3342 0 8
6.7956 1.8279 -2.4953 0.3342 0 8
6.7654 1.9365 -2.4953 0.3342 0 8
6.7335 2.0447 -2.4953 0.3342 0 8
6.6999 2.1523 -2.4953 0.3342 0 8
6.6646 2.2593 -2.4953 0.3342 0 8
6.6275 2.3658 -2.4953 0.3342 0 8
6.5888 2.4717 -2.4953 0.3342 0 8
6.5483 2.5769 -2.4953 0.3342 0 8
6.5062 2.6815 -2.4953 0.3342 0 8
6.4624 2.7854 -2.4953 0.3342 0 8
6.4170 2.8886 -2.4953 0.3342 0 8
6.3699 2.9910 -2.4953 0.3342 0 8
6.3211 3.0927 -2.4953 0.3342 0 8
6.2708 3.1936 -2.4953 0.3342 0 8
6.2188 3.2936 -2.4953 0.3342 0 8
6.1652 3.3928 -2.4953 0.3342 0 8
6.1101 3.4912 -2.4953 0.3342 0 8
6.0534 3.5886 -2.4953 0.3342 0 8
5.9951 3.6851 -2.4953 0.3342 0 8
5.9353 3.7807 -2.4953 0.3342 0 8
5.8739 3.8753 -2.4953 0.3342 0 8
5.8111 3.9689 -2.4953 0.3342 0 8
5.7468 4.0615 -2.4953 0.3342 0 8
5.6810 4.1531 -2.4953 0.3342 0 8
5.6137 4.2435 -2.4953 0.3342 0 8
5.5450 4.3329 -2.4953 0.3342 0 8
5.4749 4.4212 -2.4953 0.3342 0 8
5.4033 4.5084 -2.4953 0.3342 0 8
5.3304 4.5944 -2.4953 0.3342 0 8
5.2561 4.6792 -2.4953 0.3342 0 8
5.1805 4.7628 -2.4953 0.3342 0 8
5.1035 4.8452 -2.4953 0.3342 0 8
5.0252 4.9263 -2.4953 0.3342 0 8
4.9457 5.0062 -2.4953 0.3342 0 8
4.8648 5.0848 -2.4953 0.3342 0 8
4.7827 5.1620 -2.4953 0.3342 0 8
4.6994 5.2380 -2.4953 0.3342 0 8
4.6149 5.3126 -2.4953 0.3342 0 8
4.5292 5.3859 -2.4953 0.3342 0 8
4.4423 5.4578 -2.4953 0.3342 0 8
4.3543 5.5282 -2.4953 0.3342 0 8
4.2652 5.5973 -2.4953 0.3342 0 8
4.1750 5.6649 -2.4953 0.3342 0 8
4.0837 5.7311 -2.4953 0.3342 0 8
3.9913 5.7957 -2.4953 0.3342 0 8
3.8980 5.8589 -2.4953 0.3342 0 8
3.8036 5.9206 -2.4953 0.3342 0 8
3.7083 5.9808 -2.4953 0.3342 0 8
3.6120 6.0395 -2.4953 0.3342 0 8
3.5147 6.0965 -2.4953 0.3342 0 8
3.4166 6.1521 -2.4953 0.3342 0 8
3.3176 6.2060 -2.4953 0.3342 0 8
3.2177 6.2584 -2.4953 0.3342 0 8
3.1171 6.3091 -2.4953 0.3342 0 8
3.0156 6.3583 -2.4953 0.3342 0 8
2.9133 6.4058 -2.4953 0.3342 0 8
2.8103 6.4516 -2.4953 0.3342 0 8
2.7066 6.4958 -2.4953 0.3342 0 8
2.6022 6.5383 -2.4953 0.3342 0 8
2.4971 6.5792 -2.4953 0.3342 0 8
2.3914 6.6183 -2.4953 0.3342 0 8
2.2850 6.6558 -2.4953 0.3342 0 8
2.1781 6.6916 -2.4953 0.3342 0 8
2.0706 6.7256 -2.4953 0.3342 0 8
1.9626 6.7579 -2.4953 0.3342 0 8
1.8541 6.7885 -2.4953 0.3342 0 8
1.7451 6.8173 -2.4953 0.3342 0 8
1.6357 6.8444 -2.4953 0.3342 0 8
1.5258 6.8697 -2.4953 0.3342 0 8
1.4155 6.8933 -2.4953 0.3342 0 8
1.3049 6.9151 -2.4953 0.3342 0 8
1.1940 6.9351 -2.4953 0.3342 0 8
1.0827 6.9533 -2.4953 0.3342 0 8
0.9712 6.9698 -2.4953 0.3342 0 8
0.8594 6.9845 -2.4953 0.3342 0 8
0.7474 6.9973 -2.4953 0.3342 0 8
0.6352 7.0084 -2.4953 0.3342 0 8
0.5228 7.0177 -2.4953 0.3342 0 8
0.4103 7.0252 -2.4953 0.3342 0 8
0.2977 7.0308 -2.4953 0.3342 0 8
0.1850 7.0347 -2.4953 0.3342 0 8
0.0723 7.0368 -2.4953 0.3342 0 8
6.5204 -2.1176 -2.4953 0.3420 0 8
6.5535 -2.0129 -2.4953 0.3420 0 8
6.5849 -1.9076 -2.4953 0.3420 0 8
6.6147 -1.8019 -2.4953 0.3420 0 8
6.6427 -1.6957 -2.4953 0.3420 0 8
6.6690 -1.5891 -2.4953 0.3420 0 8
6.6936 -1.4820 -2.4953 0.3420 0 8
6.7165 -1.3746 -2.4953 0.3420 0 8
6.7376 -1.2668 -2.4953 0.3420 0 8
6.7571 -1.1587 -2.4953 0.3420 0 8
6.7748 -1.0503 -2.4953 0.3420 0 8
6.7907 -0.9416 -2.4953 0.3420 0 8
6.8049 -0.8327 -2.4953 0.3420 0 8
6.8174 -0.7236 -2.4953 0.3420 0 8
6.8281 -0.6143 -2.4953 0.3420 0 8
6.8371 -0.5048 -2.4953 0.3420 0 8
6.8443 -0.3952 -2.4953 0.3420 0 8
6.8498 -0.2855 -2.4953 0.3420 0 8
6.8535 -0.1757 -2.4953 0.3420 0 8
6.8554 -0.0659 -2.4953 0.3420 0 8
6.8556 0.0440 -2.4953 0.3420 0 8
6.8540 0.1538 -2.4953 0.3420 0 8
6.8506 0.2636 -2.4953 0.3420 0 8
6.8455 0.3733 -2.4953 0.3420 0 8
6.8387 0.4829 -2.4953 0.3420 0 8
6.8301 0.5924 -2.4953 0.3420 0 8
6.8197 0.7018 -2.4953 0.3420 0 8
6.8076 0.8109 -2.4953 0.3420 0 8
6.7937 0.9199 -2.4953 0.3420 0 8
6.7781 1.0286 -2.4953 0.3420 0 8
6.7607 1.1371 -2.4953 0.3420 0 8
6.7417 1.2453 -2.4953 0.3420 0 8
6.7208 1.3531 -2.4953 0.3420 0 8
6.6983 1.4606 -2.4953 0.3420 0 8
6.6740 1.5677 -2.4953 0.3420 0 8
6.6481 1.6745 -2.4953 0.3420 0 8
6.6204 1.7808 -2.4953 0.3420 0 8
6.5910 1.8866 -2.4953 0.3420 0 8
6.5599 1.9919 -2.4953 0.3420 0 8
6.5272 2.0968 -2.4953 0.3420 0 8
6.4928 2.2011 -2.4953 0.3420 0 8
6.4567 2.3048 -2.4953 0.3420 0 8
6.4189 2.4080 -2.4953 0.3420 0 8
6.3795 2.5105 -2.4953 0.3420 0 8
6.3385 2.6124 -2.4953 0.3420 0 8
6.2958 2.7136 -2.4953 0.3420 0 8
6.2515 2.8141 -2.4953 0.3420 0 8
6.2056 2.9139 -2.4953 0.3420 0 8
6.1581 3.0130 -2.4953 0.3420 0 8
6.1091 3.1112 -2.4953 0.3420 0 8
6.0585 3.2087 -2.4953 0.3420 0 8
6.0063 3.3054 -2.4953 0.3420 0 8
5.9525 3.4012 -2.4953 0.3420 0 8
5.8973 3.4961 -2.4953 0.3420 0 8
5.8405 3.5901 -2.4953 0.3420 0 8
5.7822 3.6832 -2.4953 0.3420 0 8
5.7225 3.7754 -2.4953 0.3420 0 8
5.6613 3.8666 -2.4953 0.3420 0 8
5.5986 3.9568 -2.4953 0.3420 0 8
5.5345 4.0460 -2.4953 0.3420 0 8
5.4690 4.1341 -2.4953 0.3420 0 8
5.4020 4.2212 -2.4953 0.3420 0 8
5.3337 4.3072 -2.4953 0.3420 0 8
5.2640 4.3921 -2.4953 0.3420 0 8
5.1930 4.4759 -2.4953 0.3420 0 8
5.1206 4.5585 -2.4953 0.3420 0 8
5.0469 4.6400 -2.4953 0.3420 0 8
4.9719 4.7202 -2.4953 0.3420 0 8
4.8957 4.7993 -2.4953 0.3420 0 8
4.8181 4.8771 -2.4953 0.3420 0 8
4.7394 4.9537 -2.4953 0.3420 0 8
4.6594 5.0290 -2.4953 0.3420 0 8
4.5783 5.1030 -2.4953 0.3420 0 8
4.4959 5.1757 -2.4953 0.3420 0 8
4.4124 5.2470 -2.4953 0.3420 0 8
4.3278 5.3170 -2.4953 0.3420 0 8
4.2420 5.3857 -2.4953 0.3420 0 8
4.1552 5.4530 -2.4953 0.3420 0 8
4.0673 5.5188 -2.4953 0.3420 0 8
3.9784 5.5833 -2.4953 0.3420 0 8
3.8884 5.6463 -2.4953 0.3420 0 8
3.7975 5.7079 -2.4953 0.3420 0 8
3.7055 5.7680 -2.4953 0.3420 0 8
3.6126 5.8266 -2.4953 0.3420 0 8
3.5188 5.8837 -2.4953 0.3420 0 8
3.4241 5.9394 -2.4953 0.3420 0 8
3.3285 5.9935 -2.4953 0.3420 0 8
3.2321 6.0460 -2.4953 0.3420 0 8
3.1348 6.0970 -2.4953 0.3420 0 8
3.0367 6.1465 -2.4953 0.3420 0 8
2.9378 6.1943 -2.4953 0.3420 0 8
2.8382 6.2406 -2.4953 0.3420 0 8
2.7379 6.2853 -2.4953 0.3420 0 8
2.6368 6.3283 -2.4953 0.3420 0 8
2.5351 6.3698 -2.4953 0.3420 0 8
2.4327 6.4096 -2.4953 0.3420 0 8
2.3297 6.4477 -2.4953 0.3420 0 8
2.2261 6.4842 -2.4953 0.3420 0 8
2.1220 6.5190 -2.4953 0.3420 0 8
2.0173 6.5522 -2.4953 0.3420 0 8
1.9120 6.5837 -2.4953 0.3420 0 8
1.8063 6.6135 -2.4953 0.3420 0 8
1.7001 6.6416 -2.4953 0.3420 0 8
1.5935 6.6679 -2.4953 0.3420 0 8
1.4865 6.6926 -2.4953 0.3420 0 8
1.3790 6.7156 -2.4953 0.3420 0 8
1.2713 6.7368 -2.4953 0.3420 0 8
1.1632 6.7563 -2.4953 0.3420 0 8
1.0548 6.7741 -2.4953 0.3420 0 8
0.9461 6.7901 -2.4953 0.3420 0 8
0.8372 6.8044 -2.4953 0.3420 0 8
0.7281 6.8169 -2.4953 0.3420 0 8
0.6188 6.8277 -2.4953 0.3420 0 8
0.5093 6.8368 -2.4953 0.3420 0 8
0.3997 6.8440 -2.4953 0.3420 0 8
0.2900 6.8496 -2.4953 0.3420 0 8
0.1802 6.8533 -2.4953 0.3420 0 8
0.0704 6.8553 -2.4953 0.3420 0 8
6.3556 -2.0641 -2.4953 0.3498 0 8
6.3878 -1.9620 -2.4953 0.3498 0 8
6.4185 -1.8594 -2.4953 0.3498 0 8
6.4474 -1.7563 -2.4953 0.3498 0 8
6.4747 -1.6528 -2.4953 0.3498 0 8
6.5004 -1.5489 -2.4953 0.3498 0 8
6.5244 -1.4445 -2.4953 0.3498 0 8
6.5467 -1.3398 -2.4953 0.3498 0 8
6.5673 -1.2348 -2.4953 0.3498 0 8
6.5862 -1.1294 -2.4953 0.3498 0 8
6.6035 -1.0237 -2.4953 0.3498 0 8
6.6190 -0.9178 -2.4953 0.3498 0 8
6.6329 -0.8116 -2.4953 0.3498 0 8
6.6450 -0.7053 -2.4953 0.3498 0 8
6.6555 -0.5987 -2.4953 0.3498 0 8
6.6642 -0.4920 -2.4953 0.3498 0 8
6.6713 -0.3852 -2.4953 0.3498 0 8
6.6766 -0.2783 -2.4953 0.3498 0 8
6.6802 -0.1713 -2.4953 0.3498 0 8
6.6821 -0.0642 -2.4953 0.3498 0 8
6.6822 0.0429 -2.4953 0.3498 0 8
6.6807 0.1499 -2.4953 0.3498 0 8
6.6774 0.2569 -2.4953 0.3498 0 8
6.6725 0.3639 -2.4953 0.3498 0 8
6.6658 0.4707 -2.4953 0.3498 0 8
6.6574 0.5774 -2.4953 0.3498 0 8
