ply
format ascii 1.0
element vertex 1347
property float32 x
property float32 y
property float32 z
property float32 CosAngle
property uint32 ObjIdx
property uint32 ObjTag
end_header
-45.4028 -2.2558 -2.6477 0.0581 0 7
-45.3605 -2.9879 -2.6477 0.0581 0 7
-45.3064 -3.7192 -2.6477 0.0581 0 7
-45.2405 -4.4496 -2.6477 0.0581 0 7
-45.1629 -5.1788 -2.6477 0.0581 0 7
-45.0734 -5.9066 -2.6477 0.0581 0 7
-44.9723 -6.6329 -2.6477 0.0581 0 7
-44.8594 -7.3575 -2.6477 0.0581 0 7
-44.7349 -8.0802 -2.6477 0.0581 0 7
-44.5988 -8.8007 -2.6477 0.0581 0 7
-44.4510 -9.5190 -2.6477 0.0581 0 7
-44.2917 -10.2348 -2.6477 0.0581 0 7
-44.1208 -10.9480 -2.6477 0.0581 0 7
-43.9384 -11.6582 -2.6477 0.0581 0 7
-43.7447 -12.3655 -2.6477 0.0581 0 7
-43.5395 -13.0695 -2.6477 0.0581 0 7
-43.3230 -13.7702 -2.6477 0.0581 0 7
-43.0953 -14.4672 -2.6477 0.0581 0 7
-42.8563 -15.1605 -2.6477 0.0581 0 7
-42.6062 -15.8498 -2.6477 0.0581 0 7
-42.3450 -16.5350 -2.6477 0.0581 0 7
-42.0727 -17.2159 -2.6477 0.0581 0 7
-41.7895 -17.8924 -2.6477 0.0581 0 7
17.1941 33.2965 -2.4953 0.0664 0 8
16.6548 33.5695 -2.4953 0.0664 0 8
16.1111 33.8338 -2.4953 0.0664 0 8
15.5632 34.0893 -2.4953 0.0664 0 8
15.0113 34.3359 -2.4953 0.0664 0 8
14.4555 34.5736 -2.4953 0.0664 0 8
13.8959 34.8023 -2.4953 0.0664 0 8
13.3327 35.0219 -2.4953 0.0664 0 8
12.7660 35.2324 -2.4953 0.0664 0 8
12.1960 35.4337 -2.4953 0.0664 0 8
11.6229 35.6259 -2.4953 0.0664 0 8
11.0467 35.8087 -2.4953 0.0664 0 8
10.4676 35.9823 -2.4953 0.0664 0 8
9.8858 36.1464 -2.4953 0.0664 0 8
9.3015 36.3012 -2.4953 0.0664 0 8
8.7147 36.4465 -2.4953 0.0664 0 8
8.1256 36.5823 -2.4953 0.0664 0 8
7.5345 36.7087 -2.4953 0.0664 0 8
6.9413 36.8254 -2.4953 0.0664 0 8
6.3464 36.9326 -2.4953 0.0664 0 8
5.7498 37.0302 -2.4953 0.0664 0 8
5.1517 37.1181 -2.4953 0.0664 0 8
4.5523 37.1964 -2.4953 0.0664 0 8
3.9517 37.2650 -2.4953 0.0664 0 8
3.3501 37.3239 -2.4953 0.0664 0 8
2.7476 37.3730 -2.4953 0.0664 0 8
2.1443 37.4125 -2.4953 0.0664 0 8
1.5406 37.4422 -2.4953 0.0664 0 8
0.9364 37.4622 -2.4953 0.0664 0 8
0.3320 37.4724 -2.4953 0.0664 0 8
-0.2725 37.4729 -2.4953 0.0664 0 8
-0.8770 37.4636 -2.4953 0.0664 0 8
-1.4812 37.4446 -2.4953 0.0664 0 8
-2.0850 37.4159 -2.4953 0.0664 0 8
-2.6883 37.3774 -2.4953 0.0664 0 8
-3.2909 37.3291 -2.4953 0.0664 0 8
-3.8926 37.2712 -2.4953 0.0664 0 8
-4.4933 37.2035 -2.4953 0.0664 0 8
-5.0929 37.1262 -2.4953 0.0664 0 8
-5.6911 37.0392 -2.4953 0.0664 0 8
-6.2878 36.9426 -2.4953 0.0664 0 8
-6.8829 36.8364 -2.4953 0.0664 0 8
-7.4762 36.7205 -2.4953 0.0664 0 8
-8.0676 36.5952 -2.4953 0.0664 0 8
-8.6569 36.4603 -2.4953 0.0664 0 8
-9.2439 36.3159 -2.4953 0.0664 0 8
-9.8285 36.1621 -2.4953 0.0664 0 8
-10.4105 35.9988 -2.4953 0.0664 0 8
-10.9899 35.8262 -2.4953 0.0664 0 8
-11.5664 35.6443 -2.4953 0.0664 0 8
-12.1398 35.4530 -2.4953 0.0664 0 8
-12.7101 35.2526 -2.4953 0.0664 0 8
-13.2771 35.0430 -2.4953 0.0664 0 8
-13.8407 34.8243 -2.4953 0.0664 0 8
-14.4006 34.5965 -2.4953 0.0664 0 8
-14.9568 34.3597 -2.4953 0.0664 0 8
-15.5091 34.1139 -2.4953 0.0664 0 8
-16.0574 33.8593 -2.4953 0.0664 0 8
-16.6015 33.5959 -2.4953 0.0664 0 8
-17.1413 33.3237 -2.4953 0.0664 0 8
-17.6766 33.0429 -2.4953 0.0664 0 8
-18.2656 32.8582 -2.5033 0.8709 0 8
-18.9622 32.8521 -2.5258 0.8632 0 8
-19.6717 32.8458 -2.5493 0.8552 0 8
-20.3946 32.8392 -2.5740 0.8470 0 8
-21.1317 32.8324 -2.5999 0.8386 0 8
-21.8840 32.8253 -2.6269 0.8299 0 8
-22.5453 32.6631 -2.6427 0.0804 0 8
-23.1124 32.3556 -2.6477 0.0664 0 7
-23.6313 31.9785 -2.6477 0.0664 0 7
-24.1441 31.5932 -2.6477 0.0664 0 7
-24.6506 31.1996 -2.6477 0.0664 0 7
-25.1507 30.7979 -2.6477 0.0664 0 7
-25.6442 30.3882 -2.6477 0.0664 0 7
-26.1311 29.9706 -2.6477 0.0664 0 7
-26.6111 29.5452 -2.6477 0.0664 0 7
-27.0843 29.1120 -2.6477 0.0664 0 7
-27.5503 28.6714 -2.6477 0.0664 0 7
-28.0092 28.2232 -2.6477 0.0664 0 7
-28.4609 27.7677 -2.6477 0.0664 0 7
-28.9051 27.3050 -2.6477 0.0664 0 7
-29.3418 26.8352 -2.6477 0.0664 0 7
-29.7709 26.3584 -2.6477 0.0664 0 6
-30.1922 25.8747 -2.6477 0.0664 0 7
-30.6056 25.3843 -2.6477 0.0664 0 7
-31.0111 24.8873 -2.6477 0.0664 0 7
-31.4085 24.3839 -2.6477 0.0664 0 7
-31.7978 23.8740 -2.6477 0.0664 0 7
-30.4191 22.0808 -2.5029 0.0664 0 14
-30.7714 21.5872 -2.5029 0.0664 0 14
-31.1156 21.0880 -2.5029 0.0664 0 14
-31.4517 20.5833 -2.5029 0.0664 0 14
-31.7796 20.0733 -2.5029 0.0664 0 14
-32.0993 19.5581 -2.5029 0.0664 0 14
-34.2854 20.1390 -2.6477 0.0664 0 7
-34.6058 19.5833 -2.6477 0.0664 0 7
-34.9172 19.0225 -2.6477 0.0664 0 7
-35.2195 18.4568 -2.6477 0.0664 0 7
-35.5127 17.8862 -2.6477 0.0664 0 7
-35.7966 17.3111 -2.6477 0.0664 0 7
-36.0712 16.7314 -2.6477 0.0664 0 7
-36.3364 16.1474 -2.6477 0.0664 0 7
-36.5921 15.5591 -2.6477 0.0664 0 7
-36.8383 14.9668 -2.6477 0.0664 0 6
-37.0750 14.3706 -2.6477 0.0664 0 7
-37.3019 13.7707 -2.6477 0.0664 0 7
-37.5192 13.1672 -2.6477 0.0664 0 7
-37.7267 12.5603 -2.6477 0.0664 0 7
-37.9244 11.9501 -2.6477 0.0664 0 7
-38.1123 11.3368 -2.6477 0.0664 0 7
-38.2902 10.7205 -2.6477 0.0664 0 7
-38.4581 10.1015 -2.6477 0.0664 0 7
-38.6161 9.4798 -2.6477 0.0664 0 7
-38.7640 8.8557 -2.6477 0.0664 0 7
-38.9018 8.2292 -2.6477 0.0664 0 7
-39.0295 7.6006 -2.6477 0.0664 0 7
-39.1470 6.9700 -2.6477 0.0664 0 7
-39.2543 6.3376 -2.6477 0.0664 0 7
-39.3515 5.7036 -2.6477 0.0664 0 7
-39.4383 5.0681 -2.6477 0.0664 0 7
-39.5150 4.4312 -2.6477 0.0664 0 7
-39.5813 3.7932 -2.6477 0.0664 0 6
-39.6373 3.1543 -2.6477 0.0664 0 6
-39.6831 2.5145 -2.6477 0.0664 0 6
-37.4323 1.7661 -2.4953 0.0664 0 8
-37.4559 1.1621 -2.4953 0.0664 0 8
-37.4697 0.5578 -2.4953 0.0664 0 8
-37.4739 -0.0468 -2.4953 0.0664 0 8
-37.4682 -0.6513 -2.4953 0.0664 0 8
-37.4529 -1.2556 -2.4953 0.0664 0 8
-37.4277 -1.8596 -2.4953 0.0664 0 8
-37.3929 -2.4631 -2.4953 0.0664 0 8
-37.3483 -3.0659 -2.4953 0.0664 0 8
-37.2940 -3.6680 -2.4953 0.0664 0 8
-37.2299 -4.2691 -2.4953 0.0664 0 8
-37.1562 -4.8691 -2.4953 0.0664 0 8
-37.0729 -5.4678 -2.4953 0.0664 0 8
-36.9798 -6.0651 -2.4953 0.0664 0 8
-36.8772 -6.6609 -2.4953 0.0664 0 8
-36.7649 -7.2549 -2.4953 0.0664 0 8
-36.6431 -7.8470 -2.4953 0.0664 0 8
-36.5118 -8.4371 -2.4953 0.0664 0 8
-36.3709 -9.0249 -2.4953 0.0664 0 8
-36.2206 -9.6105 -2.4953 0.0664 0 8
-36.0609 -10.1935 -2.4953 0.0664 0 8
-35.8918 -10.7738 -2.4953 0.0664 0 8
-35.7133 -11.3514 -2.4953 0.0664 0 8
-35.5256 -11.9260 -2.4953 0.0664 0 8
-35.3285 -12.4975 -2.4953 0.0664 0 8
-35.1223 -13.0658 -2.4953 0.0664 0 8
-34.9070 -13.6306 -2.4953 0.0664 0 8
-34.6826 -14.1919 -2.4953 0.0664 0 8
-34.4492 -14.7496 -2.4953 0.0664 0 8
16.2108 31.3922 -2.6477 0.0747 0 7
15.7023 31.6496 -2.6477 0.0747 0 7
15.1897 31.8988 -2.6477 0.0747 0 7
14.6731 32.1397 -2.6477 0.0747 0 7
14.1528 32.3722 -2.6477 0.0747 0 7
13.6198 32.5748 -2.6459 0.0903 0 8
13.0775 32.7526 -2.6429 0.0904 0 8
12.5320 32.9185 -2.6396 0.9290 0 8
11.9281 32.9198 -2.6239 0.9346 0 8
11.3311 32.9208 -2.6091 0.9399 0 8
10.7407 32.9218 -2.5951 0.9449 0 8
10.1564 32.9226 -2.5819 0.9498 0 8
9.5777 32.9233 -2.5695 0.9543 0 8
9.0045 32.9239 -2.5579 0.9587 0 8
8.4362 32.9243 -2.5470 0.9628 0 8
7.8726 32.9246 -2.5369 0.9666 0 8
7.3132 32.9248 -2.5275 0.9702 0 8
6.7578 32.9249 -2.5188 0.9736 0 8
6.2061 32.9248 -2.5108 0.9767 0 8
5.6577 32.9246 -2.5035 0.9795 0 8
5.1130 32.9289 -2.4972 0.7492 0 8
4.5775 32.9809 -2.4953 0.0747 0 8
4.0449 33.0505 -2.4953 0.0747 0 8
3.5113 33.1114 -2.4953 0.0747 0 8
2.9767 33.1638 -2.4953 0.0747 0 8
2.4413 33.2075 -2.4953 0.0747 0 8
1.9053 33.2425 -2.4953 0.0747 0 8
1.3689 33.2689 -2.4953 0.0747 0 8
0.8320 33.2867 -2.4953 0.0747 0 8
0.2950 33.2958 -2.4953 0.0747 0 8
-0.2422 33.2962 -2.4953 0.0747 0 8
-0.7792 33.2880 -2.4953 0.0747 0 8
-1.3161 33.2711 -2.4953 0.0747 0 8
-1.8526 33.2455 -2.4953 0.0747 0 8
-2.3887 33.2113 -2.4953 0.0747 0 8
-2.9241 33.1685 -2.4953 0.0747 0 8
-3.4587 33.1170 -2.4953 0.0747 0 8
-3.9925 33.0569 -2.4953 0.0747 0 8
-4.5252 32.9881 -2.4953 0.0747 0 8
-5.0568 32.9109 -2.4953 0.0747 0 8
-5.5990 32.8957 -2.5006 0.7484 0 8
-6.1457 32.8911 -2.5075 0.9780 0 8
-6.6960 32.8881 -2.5152 0.9750 0 8
-7.2497 32.8851 -2.5236 0.9717 0 8
-7.8072 32.8818 -2.5327 0.9682 0 8
-8.3689 32.8785 -2.5425 0.9645 0 8
-8.9351 32.8749 -2.5530 0.9605 0 8
-9.5061 32.8713 -2.5643 0.9563 0 8
-10.0823 32.8674 -2.5764 0.9518 0 8
-10.6640 32.8634 -2.5892 0.9471 0 8
-11.2517 32.8593 -2.6028 0.9421 0 8
-11.8457 32.8549 -2.6173 0.9369 0 8
-12.4464 32.8504 -2.6326 0.9315 0 8
-13.0191 32.7571 -2.6416 0.0904 0 8
-13.5611 32.5796 -2.6446 0.0903 0 8
-14.1014 32.3946 -2.6477 0.0747 0 7
-14.6221 32.1629 -2.6477 0.0747 0 7
-15.1391 31.9229 -2.6477 0.0747 0 7
-15.6521 31.6745 -2.6477 0.0747 0 7
-16.1610 31.4179 -2.6477 0.0747 0 7
-16.6657 31.1531 -2.6477 0.0747 0 7
-17.1660 30.8802 -2.6477 0.0747 0 7
-17.6619 30.5993 -2.6477 0.0747 0 7
-18.1532 30.3104 -2.6477 0.0747 0 7
-18.6398 30.0136 -2.6477 0.0747 0 7
-19.1215 29.7091 -2.6477 0.0747 0 7
-19.5983 29.3967 -2.6477 0.0747 0 7
-20.0699 29.0768 -2.6477 0.0747 0 7
-20.5363 28.7492 -2.6477 0.0747 0 7
-20.9974 28.4143 -2.6477 0.0747 0 7
-21.4530 28.0719 -2.6477 0.0747 0 7
-21.9031 27.7221 -2.6477 0.0747 0 7
-22.3474 27.3652 -2.6477 0.0747 0 7
-22.7859 27.0012 -2.6477 0.0747 0 7
-23.2185 26.6301 -2.6477 0.0747 0 7
-23.6451 26.2521 -2.6477 0.0747 0 7
-24.0655 25.8672 -2.6477 0.0747 0 7
-24.4796 25.4757 -2.6477 0.0747 0 7
-24.8874 25.0775 -2.6477 0.0747 0 7
-25.2886 24.6728 -2.6477 0.0747 0 7
-25.6833 24.2616 -2.6477 0.0747 0 7
-26.0714 23.8442 -2.6477 0.0747 0 7
-25.0061 22.1398 -2.5029 0.0747 0 14
-25.3600 21.7336 -2.5029 0.0747 0 14
-25.7073 21.3217 -2.5029 0.0747 0 14
-26.0479 20.9042 -2.5029 0.0747 0 14
-26.3817 20.4813 -2.5029 0.0747 0 14
-26.7087 20.0531 -2.5029 0.0747 0 14
-27.0286 19.6197 -2.5029 0.0747 0 14
-27.3416 19.1811 -2.5029 0.0747 0 14
-27.8575 18.8799 -2.5219 0.5660 0 8
-28.8277 18.8661 -2.5818 0.5528 0 8
-29.8452 18.8515 -2.6454 0.5395 0 8
-30.1714 18.3834 -2.6477 0.0747 0 6
-30.4640 17.8943 -2.6477 0.0747 0 7
-30.7487 17.4006 -2.6477 0.0747 0 6
-31.0254 16.9023 -2.6477 0.0747 0 7
-31.2940 16.3996 -2.6477 0.0747 0 7
-31.5545 15.8927 -2.6477 0.0747 0 7
-31.8067 15.3816 -2.6477 0.0747 0 7
-32.0507 14.8665 -2.6477 0.0747 0 7
-32.2863 14.3476 -2.6477 0.0747 0 7
-32.5136 13.8249 -2.6477 0.0747 0 7
-32.7323 13.2986 -2.6477 0.0747 0 7
-32.9426 12.7689 -2.6477 0.0747 0 7
-33.1443 12.2358 -2.6477 0.0747 0 7
-33.3374 11.6996 -2.6477 0.0747 0 7
-33.5218 11.1603 -2.6477 0.0747 0 7
-33.6974 10.6181 -2.6477 0.0747 0 7
-33.8644 10.0732 -2.6477 0.0747 0 7
-34.0224 9.5256 -2.6477 0.0747 0 7
-34.1716 8.9756 -2.6477 0.0747 0 7
-34.3120 8.4232 -2.6477 0.0747 0 7
-32.4608 7.4157 -2.4953 0.0747 0 8
-32.5762 6.8911 -2.4953 0.0747 0 8
-32.6831 6.3647 -2.4953 0.0747 0 8
-32.7815 5.8367 -2.4953 0.0747 0 8
-32.8714 5.3071 -2.4953 0.0747 0 8
-32.9528 4.7762 -2.4953 0.0747 0 8
-33.0255 4.2440 -2.4953 0.0747 0 8
-33.0897 3.7107 -2.4953 0.0747 0 8
-33.1452 3.1765 -2.4953 0.0747 0 8
-33.1922 2.6414 -2.4953 0.0747 0 8
-33.2305 2.1056 -2.4953 0.0747 0 8
-33.2601 1.5693 -2.4953 0.0747 0 8
-33.2811 1.0326 -2.4953 0.0747 0 8
-33.2934 0.4956 -2.4953 0.0747 0 8
-33.2971 -0.0416 -2.4953 0.0747 0 8
-33.2921 -0.5787 -2.4953 0.0747 0 8
-33.2784 -1.1156 -2.4953 0.0747 0 8
-33.2561 -1.6523 -2.4953 0.0747 0 8
-33.2251 -2.1885 -2.4953 0.0747 0 8
-33.1855 -2.7242 -2.4953 0.0747 0 8
-33.1372 -3.2592 -2.4953 0.0747 0 8
-33.0804 -3.7933 -2.4953 0.0747 0 8
-33.0149 -4.3264 -2.4953 0.0747 0 8
-32.9407 -4.8584 -2.4953 0.0747 0 8
-32.8581 -5.3891 -2.4953 0.0747 0 8
-32.7669 -5.9185 -2.4953 0.0747 0 8
-32.6671 -6.4463 -2.4953 0.0747 0 8
-32.5589 -6.9724 -2.4953 0.0747 0 8
-32.4423 -7.4967 -2.4953 0.0747 0 8
-32.3171 -8.0190 -2.4953 0.0747 0 8
-32.1835 -8.5393 -2.4953 0.0747 0 8
-32.0416 -9.0573 -2.4953 0.0747 0 8
-31.8913 -9.5730 -2.4953 0.0747 0 8
-31.7327 -10.0862 -2.4953 0.0747 0 8
-31.5659 -10.5967 -2.4953 0.0747 0 8
-31.3908 -11.1036 -2.4953 0.0747 0 8
-31.2076 -11.6096 -2.4953 0.0747 0 8
-31.0163 -12.1112 -2.4953 0.0747 0 8
-30.8169 -12.6101 -2.4953 0.0747 0 8
-30.6095 -13.1056 -2.4953 0.0747 0 8
14.5833 28.2406 -2.6477 0.0830 0 7
14.1258 28.4722 -2.6477 0.0830 0 7
13.6647 28.6963 -2.6477 0.0830 0 7
13.2000 28.9130 -2.6477 0.0830 0 7
12.7319 29.1222 -2.6477 0.0830 0 7
12.2605 29.3238 -2.6477 0.0830 0 7
11.7859 29.5177 -2.6477 0.0830 0 7
11.3082 29.7040 -2.6477 0.0830 0 7
10.8276 29.8825 -2.6477 0.0830 0 7
10.3441 30.0533 -2.6477 0.0830 0 7
9.8580 30.2163 -2.6477 0.0830 0 7
9.3693 30.3713 -2.6477 0.0830 0 7
8.8782 30.5185 -2.6477 0.0830 0 7
8.3847 30.6578 -2.6477 0.0830 0 7
7.8891 30.7890 -2.6477 0.0830 0 7
7.3914 30.9123 -2.6477 0.0830 0 7
6.8918 31.0275 -2.6477 0.0830 0 7
6.3904 31.1346 -2.6477 0.0830 0 7
5.8873 31.2337 -2.6477 0.0830 0 7
5.3827 31.3246 -2.6477 0.0830 0 7
4.8767 31.4073 -2.6477 0.0830 0 7
4.3695 31.4819 -2.6477 0.0830 0 7
3.8611 31.5483 -2.6477 0.0830 0 7
3.3517 31.6065 -2.6477 0.0830 0 7
2.8414 31.6564 -2.6477 0.0830 0 7
2.3304 31.6981 -2.6477 0.0830 0 7
1.8187 31.7316 -2.6477 0.0830 0 7
1.3066 31.7568 -2.6477 0.0830 0 7
0.7942 31.7738 -2.6477 0.0830 0 7
0.2815 31.7824 -2.6477 0.0830 0 7
-0.2312 31.7828 -2.6477 0.0830 0 7
-0.7438 31.7750 -2.6477 0.0830 0 7
-1.2563 31.7589 -2.6477 0.0830 0 7
-1.7684 31.7345 -2.6477 0.0830 0 7
-2.2801 31.7018 -2.6477 0.0830 0 7
-2.7912 31.6609 -2.6477 0.0830 0 7
-3.3015 31.6117 -2.6477 0.0830 0 7
-3.8110 31.5544 -2.6477 0.0830 0 7
-4.3195 31.4888 -2.6477 0.0830 0 7
-4.8269 31.4150 -2.6477 0.0830 0 7
-5.3331 31.3331 -2.6477 0.0830 0 7
-5.8378 31.2430 -2.6477 0.0830 0 7
-6.3410 31.1447 -2.6477 0.0830 0 7
-6.8426 31.0384 -2.6477 0.0830 0 7
-7.3424 30.9240 -2.6477 0.0830 0 7
-7.8403 30.8015 -2.6477 0.0830 0 7
-8.3361 30.6710 -2.6477 0.0830 0 7
-8.8297 30.5326 -2.6477 0.0830 0 7
-9.3211 30.3862 -2.6477 0.0830 0 7
-9.8101 30.2319 -2.6477 0.0830 0 7
-10.2965 30.0697 -2.6477 0.0830 0 7
-10.7802 29.8997 -2.6477 0.0830 0 6
-11.2611 29.7219 -2.6477 0.0830 0 7
-11.7390 29.5364 -2.6477 0.0830 0 7
-12.2140 29.3432 -2.6477 0.0830 0 7
-12.6857 29.1423 -2.6477 0.0830 0 7
-13.1541 28.9339 -2.6477 0.0830 0 7
-13.6192 28.7180 -2.6477 0.0830 0 7
-14.0807 28.4945 -2.6477 0.0830 0 7
-14.5385 28.2637 -2.6477 0.0830 0 7
-14.9925 28.0255 -2.6477 0.0830 0 7
-15.4426 27.7800 -2.6477 0.0830 0 7
-15.8887 27.5273 -2.6477 0.0830 0 7
-16.3307 27.2674 -2.6477 0.0830 0 7
-16.7684 27.0004 -2.6477 0.0830 0 7
-17.2018 26.7264 -2.6477 0.0830 0 7
-17.6307 26.4454 -2.6477 0.0830 0 7
-18.0550 26.1576 -2.6477 0.0830 0 7
-18.4746 25.8630 -2.6477 0.0830 0 7
-18.8894 25.5616 -2.6477 0.0830 0 7
-19.2992 25.2536 -2.6477 0.0830 0 7
-19.7041 24.9390 -2.6477 0.0830 0 7
-20.1038 24.6179 -2.6477 0.0830 0 7
-20.4983 24.2904 -2.6477 0.0830 0 7
-20.8875 23.9565 -2.6477 0.0830 0 7
-20.1081 22.3251 -2.5029 0.0830 0 8
-20.4656 21.9978 -2.5029 0.0830 0 14
-20.8177 21.6648 -2.5029 0.0830 0 14
-21.1645 21.3262 -2.5029 0.0830 0 14
-21.5058 20.9820 -2.5029 0.0830 0 14
-21.8414 20.6324 -2.5029 0.0830 0 14
-22.1714 20.2774 -2.5029 0.0830 0 14
-22.4956 19.9171 -2.5029 0.0830 0 14
-22.8140 19.5516 -2.5029 0.0830 0 14
-23.1264 19.1811 -2.5029 0.0830 0 14
-23.5421 18.8932 -2.5146 0.6305 0 8
-24.3213 18.8817 -2.5649 0.6182 0 8
-25.1325 18.8697 -2.6180 0.6056 0 8
-25.7216 18.6709 -2.6477 0.0830 0 7
-26.0194 18.2535 -2.6477 0.0830 0 7
-26.3105 17.8315 -2.6477 0.0830 0 7
-26.5947 17.4047 -2.6477 0.0830 0 7
-26.8720 16.9735 -2.6477 0.0830 0 7
-27.1423 16.5378 -2.6477 0.0830 0 7
-27.4055 16.0978 -2.6477 0.0830 0 7
-27.6616 15.6536 -2.6477 0.0830 0 7
-27.9106 15.2054 -2.6477 0.0830 0 7
-28.1522 14.7532 -2.6477 0.0830 0 7
-28.3865 14.2971 -2.6477 0.0830 0 7
-28.6135 13.8374 -2.6477 0.0830 0 7
-28.8329 13.3740 -2.6477 0.0830 0 7
-29.0449 12.9072 -2.6477 0.0830 0 7
-29.2494 12.4369 -2.6477 0.0830 0 7
-29.4462 11.9635 -2.6477 0.0830 0 7
-29.6353 11.4870 -2.6477 0.0830 0 7
-29.8167 11.0068 -2.6477 0.0830 0 7
-29.9904 10.5251 -2.6477 0.0830 0 7
-30.1563 10.0399 -2.6477 0.0830 0 7
-30.3144 9.5521 -2.6477 0.0830 0 7
-30.4645 9.0619 -2.6477 0.0830 0 7
-28.8450 8.0760 -2.4953 0.0830 0 8
-28.9715 7.6097 -2.4953 0.0830 0 8
-29.0905 7.1413 -2.4953 0.0830 0 8
-29.2019 6.6712 -2.4953 0.0830 0 8
-29.3057 6.1993 -2.4953 0.0830 0 8
-29.4019 5.7257 -2.4953 0.0830 0 8
-29.4904 5.2507 -2.4953 0.0830 0 8
-29.5713 4.7743 -2.4953 0.0830 0 8
-29.6445 4.2967 -2.4953 0.0830 0 8
-29.7099 3.8179 -2.4953 0.0830 0 8
-29.7676 3.3382 -2.4953 0.0830 0 8
-29.8176 2.8575 -2.4953 0.0830 0 8
-29.8598 2.3762 -2.4953 0.0830 0 8
-29.8943 1.8942 -2.4953 0.0830 0 8
-29.9209 1.4117 -2.4953 0.0830 0 8
-29.9398 0.9289 -2.4953 0.0830 0 8
-29.9509 0.4458 -2.4953 0.0830 0 8
-29.9542 -0.0374 -2.4953 0.0830 0 8
-29.9497 -0.5206 -2.4953 0.0830 0 8
-29.9374 -1.0036 -2.4953 0.0830 0 8
-29.9173 -1.4864 -2.4953 0.0830 0 8
-29.8894 -1.9688 -2.4953 0.0830 0 8
-29.8538 -2.4507 -2.4953 0.0830 0 8
-29.8104 -2.9320 -2.4953 0.0830 0 8
-29.7592 -3.4125 -2.4953 0.0830 0 8
-29.7003 -3.8920 -2.4953 0.0830 0 8
-29.6336 -4.3706 -2.4953 0.0830 0 8
-29.5593 -4.8481 -2.4953 0.0830 0 8
-29.4772 -5.3243 -2.4953 0.0830 0 8
-29.3875 -5.7991 -2.4953 0.0830 0 8
-29.2901 -6.2724 -2.4953 0.0830 0 8
-29.1852 -6.7440 -2.4953 0.0830 0 8
-29.0726 -7.2140 -2.4953 0.0830 0 8
-28.9524 -7.6820 -2.4953 0.0830 0 8
-28.8247 -8.1480 -2.4953 0.0830 0 8
-28.6895 -8.6119 -2.4953 0.0830 0 8
-28.5469 -9.0736 -2.4953 0.0830 0 8
-28.3968 -9.5329 -2.4953 0.0830 0 8
-28.2393 -9.9897 -2.4953 0.0830 0 8
-28.0745 -10.4439 -2.4953 0.0830 0 8
-27.9024 -10.8954 -2.4953 0.0830 0 8
-27.7230 -11.3441 -2.4953 0.0830 0 8
-27.5364 -11.7898 -2.4953 0.0830 0 8
13.2511 25.6608 -2.6477 0.0913 0 7
12.8354 25.8712 -2.6477 0.0913 0 7
12.4164 26.0749 -2.6477 0.0913 0 7
11.9942 26.2718 -2.6477 0.0913 0 7
11.5689 26.4619 -2.6477 0.0913 0 7
11.1405 26.6451 -2.6477 0.0913 0 7
10.7092 26.8213 -2.6477 0.0913 0 7
10.2752 26.9906 -2.6477 0.0913 0 7
9.8385 27.1528 -2.6477 0.0913 0 7
9.3992 27.3080 -2.6477 0.0913 0 7
8.9575 27.4560 -2.6477 0.0913 0 7
8.5134 27.5969 -2.6477 0.0913 0 7
8.0672 27.7307 -2.6477 0.0913 0 7
7.6188 27.8572 -2.6477 0.0913 0 7
7.1684 27.9765 -2.6477 0.0913 0 7
6.7162 28.0885 -2.6477 0.0913 0 7
6.2622 28.1932 -2.6477 0.0913 0 7
5.8066 28.2905 -2.6477 0.0913 0 7
5.3495 28.3805 -2.6477 0.0913 0 7
4.8910 28.4631 -2.6477 0.0913 0 7
4.4313 28.5383 -2.6477 0.0913 0 7
3.9703 28.6060 -2.6477 0.0913 0 7
3.5084 28.6664 -2.6477 0.0913 0 7
3.0455 28.7192 -2.6477 0.0913 0 7
2.5818 28.7646 -2.6477 0.0913 0 7
2.1175 28.8025 -2.6477 0.0913 0 7
1.6526 28.8329 -2.6477 0.0913 0 7
1.1873 28.8558 -2.6477 0.0913 0 7
0.7216 28.8712 -2.6477 0.0913 0 7
0.2558 28.8791 -2.6477 0.0913 0 7
-0.2100 28.8795 -2.6477 0.0913 0 7
-0.6759 28.8724 -2.6477 0.0913 0 7
-1.1415 28.8577 -2.6477 0.0913 0 7
-1.6069 28.8355 -2.6477 0.0913 0 7
-2.0718 28.8059 -2.6477 0.0913 0 7
-2.5362 28.7687 -2.6477 0.0913 0 7
-2.9999 28.7240 -2.6477 0.0913 0 7
-3.4629 28.6719 -2.6477 0.0913 0 7
-3.9250 28.6123 -2.6477 0.0913 0 7
-4.3860 28.5453 -2.6477 0.0913 0 7
-4.8459 28.4708 -2.6477 0.0913 0 7
-5.3045 28.3889 -2.6477 0.0913 0 7
-5.7618 28.2997 -2.6477 0.0913 0 7
-6.2175 28.2030 -2.6477 0.0913 0 7
-6.6716 28.0991 -2.6477 0.0913 0 7
-7.1241 27.9878 -2.6477 0.0913 0 7
-7.5746 27.8693 -2.6477 0.0913 0 7
-8.0232 27.7434 -2.6477 0.0913 0 7
-8.4696 27.6104 -2.6477 0.0913 0 7
-8.9139 27.4702 -2.6477 0.0913 0 7
-9.3559 27.3228 -2.6477 0.0913 0 7
-9.7954 27.1684 -2.6477 0.0913 0 7
-10.2324 27.0068 -2.6477 0.0913 0 7
-10.6667 26.8382 -2.6477 0.0913 0 7
-11.0982 26.6627 -2.6477 0.0913 0 7
-11.5269 26.4802 -2.6477 0.0913 0 7
-11.9525 26.2908 -2.6477 0.0913 0 7
-12.3751 26.0946 -2.6477 0.0913 0 7
-12.7944 25.8916 -2.6477 0.0913 0 7
-13.2104 25.6818 -2.6477 0.0913 0 7
-13.6229 25.4654 -2.6477 0.0913 0 7
-14.0320 25.2423 -2.6477 0.0913 0 7
-14.4373 25.0127 -2.6477 0.0913 0 7
-14.8389 24.7765 -2.6477 0.0913 0 7
-15.2367 24.5339 -2.6477 0.0913 0 7
-15.6304 24.2850 -2.6477 0.0913 0 7
-16.0201 24.0297 -2.6477 0.0913 0 7
-16.4057 23.7681 -2.6477 0.0913 0 7
-15.8718 22.2193 -2.5033 0.6387 0 8
-16.2253 21.9565 -2.5029 0.0913 0 14
-16.5773 21.6919 -2.5029 0.0913 0 14
-16.9251 21.4217 -2.5029 0.0913 0 14
-17.2685 21.1458 -2.5029 0.0913 0 14
-17.6073 20.8646 -2.5029 0.0913 0 14
-17.9416 20.5778 -2.5029 0.0913 0 14
-18.2712 20.2857 -2.5029 0.0913 0 14
-18.5960 19.9883 -2.5029 0.0913 0 14
-18.9160 19.6858 -2.5029 0.0913 0 14
-19.2311 19.3781 -2.5029 0.0913 0 14
-19.5412 19.0653 -2.5029 0.0913 0 14
-20.0090 18.9014 -2.5234 0.6910 0 8
-20.6563 18.8917 -2.5663 0.6795 0 8
-21.3259 18.8815 -2.6113 0.6677 0 8
-21.9291 18.7933 -2.6477 0.0913 0 7
-22.2293 18.4371 -2.6477 0.0913 0 7
-22.5239 18.0761 -2.6477 0.0913 0 7
-22.8125 17.7104 -2.6477 0.0913 0 7
-23.0953 17.3401 -2.6477 0.0913 0 7
-23.3719 16.9653 -2.6477 0.0913 0 7
-23.6426 16.5861 -2.6477 0.0913 0 7
-23.9070 16.2026 -2.6477 0.0913 0 7
-24.1653 15.8148 -2.6477 0.0913 0 7
-24.4173 15.4229 -2.6477 0.0913 0 7
-24.6629 15.0271 -2.6477 0.0913 0 7
-24.9021 14.6273 -2.6477 0.0913 0 7
-25.1348 14.2237 -2.6477 0.0913 0 7
-25.3609 13.8164 -2.6477 0.0913 0 7
-25.5805 13.4055 -2.6477 0.0913 0 7
-25.7934 12.9911 -2.6477 0.0913 0 7
-25.9996 12.5733 -2.6477 0.0913 0 7
-26.1991 12.1523 -2.6477 0.0913 0 7
-26.3917 11.7281 -2.6477 0.0913 0 7
-26.5775 11.3008 -2.6477 0.0913 0 6
-26.7563 10.8707 -2.6477 0.0913 0 7
-26.9282 10.4376 -2.6477 0.0913 0 7
-27.0930 10.0019 -2.6477 0.0913 0 7
-27.2508 9.5636 -2.6477 0.0913 0 7
-27.4016 9.1227 -2.6477 0.0913 0 7
-25.9596 8.1799 -2.4953 0.0913 0 8
-26.0882 7.7601 -2.4953 0.0913 0 8
-26.2100 7.3383 -2.4953 0.0913 0 8
-26.3250 6.9146 -2.4953 0.0913 0 8
-26.4331 6.4890 -2.4953 0.0913 0 8
-26.5343 6.0618 -2.4953 0.0913 0 8
-26.6286 5.6330 -2.4953 0.0913 0 8
-26.7160 5.2027 -2.4953 0.0913 0 8
-26.7965 4.7710 -2.4953 0.0913 0 8
-26.8700 4.3382 -2.4953 0.0913 0 8
-26.9364 3.9042 -2.4953 0.0913 0 8
-26.9959 3.4691 -2.4953 0.0913 0 8
-27.0484 3.0332 -2.4953 0.0913 0 8
-27.0938 2.5965 -2.4953 0.0913 0 8
-27.1321 2.1591 -2.4953 0.0913 0 8
-27.1634 1.7212 -2.4953 0.0913 0 8
-27.1877 1.2828 -2.4953 0.0913 0 8
-27.2048 0.8440 -2.4953 0.0913 0 8
-27.2149 0.4051 -2.4953 0.0913 0 8
-27.2179 -0.0340 -2.4953 0.0913 0 8
-27.2138 -0.4730 -2.4953 0.0913 0 8
-27.2026 -0.9119 -2.4953 0.0913 0 8
-27.1844 -1.3506 -2.4953 0.0913 0 8
-27.1591 -1.7890 -2.4953 0.0913 0 8
-27.1267 -2.2268 -2.4953 0.0913 0 8
-27.0872 -2.6641 -2.4953 0.0913 0 8
-27.0407 -3.1007 -2.4953 0.0913 0 8
-26.9872 -3.5365 -2.4953 0.0913 0 8
-26.9266 -3.9714 -2.4953 0.0913 0 8
-26.8591 -4.4052 -2.4953 0.0913 0 8
-26.7845 -4.8379 -2.4953 0.0913 0 8
-26.7030 -5.2693 -2.4953 0.0913 0 8
-26.6145 -5.6994 -2.4953 0.0913 0 8
-26.5191 -6.1280 -2.4953 0.0913 0 8
-26.4168 -6.5550 -2.4953 0.0913 0 8
-26.3076 -6.9802 -2.4953 0.0913 0 8
-26.1916 -7.4037 -2.4953 0.0913 0 8
-26.0688 -7.8252 -2.4953 0.0913 0 8
-25.9391 -8.2447 -2.4953 0.0913 0 8
-25.8028 -8.6621 -2.4953 0.0913 0 8
-25.6597 -9.0772 -2.4953 0.0913 0 8
-25.5099 -9.4899 -2.4953 0.0913 0 8
-25.3535 -9.9001 -2.4953 0.0913 0 8
-25.1905 -10.3078 -2.4953 0.0913 0 8
-25.0210 -10.7128 -2.4953 0.0913 0 8
11.4765 22.2244 -2.5029 0.0996 0 14
11.1165 22.4066 -2.5029 0.0996 0 8
11.3757 23.8893 -2.6477 0.0996 0 7
10.9888 24.0697 -2.6477 0.0996 0 7
10.5992 24.2438 -2.6477 0.0996 0 7
10.2067 24.4117 -2.6477 0.0996 0 7
9.8116 24.5731 -2.6477 0.0996 0 7
9.4139 24.7282 -2.6477 0.0996 0 7
9.0138 24.8768 -2.6477 0.0996 0 7
8.6114 25.0190 -2.6477 0.0996 0 7
8.2067 25.1547 -2.6477 0.0996 0 7
7.7998 25.2838 -2.6477 0.0996 0 7
7.3910 25.4063 -2.6477 0.0996 0 7
6.9802 25.5222 -2.6477 0.0996 0 7
6.5676 25.6315 -2.6477 0.0996 0 7
6.1532 25.7341 -2.6477 0.0996 0 7
5.7373 25.8300 -2.6477 0.0996 0 7
5.3199 25.9192 -2.6477 0.0996 0 7
4.9011 26.0016 -2.6477 0.0996 0 7
4.4811 26.0773 -2.6477 0.0996 0 7
4.0598 26.1462 -2.6477 0.0996 0 7
3.6375 26.2083 -2.6477 0.0996 0 7
3.2143 26.2635 -2.6477 0.0996 0 7
2.7902 26.3120 -2.6477 0.0996 0 7
2.3654 26.3536 -2.6477 0.0996 0 7
1.9400 26.3883 -2.6477 0.0996 0 7
1.5141 26.4162 -2.6477 0.0996 0 7
1.0878 26.4371 -2.6477 0.0996 0 7
0.6612 26.4513 -2.6477 0.0996 0 7
0.2344 26.4585 -2.6477 0.0996 0 6
-0.1924 26.4588 -2.6477 0.0996 0 6
-0.6192 26.4523 -2.6477 0.0996 0 6
-1.0458 26.4388 -2.6477 0.0996 0 6
-1.4722 26.4185 -2.6477 0.0996 0 6
-1.8982 26.3913 -2.6477 0.0996 0 7
-2.3236 26.3573 -2.6477 0.0996 0 7
-2.7485 26.3164 -2.6477 0.0996 0 7
-3.1726 26.2686 -2.6477 0.0996 0 7
-3.5960 26.2140 -2.6477 0.0996 0 7
-4.0184 26.1526 -2.6477 0.0996 0 7
-4.4397 26.0844 -2.6477 0.0996 0 7
-4.8599 26.0094 -2.6477 0.0996 0 7
-5.2788 25.9276 -2.6477 0.0996 0 7
-5.6964 25.8391 -2.6477 0.0996 0 7
-6.1124 25.7438 -2.6477 0.0996 0 7
-6.5269 25.6419 -2.6477 0.0996 0 7
-6.9397 25.5332 -2.6477 0.0996 0 7
-7.3506 25.4180 -2.6477 0.0996 0 7
-7.7597 25.2961 -2.6477 0.0996 0 7
-8.1668 25.1676 -2.6477 0.0996 0 7
-8.5717 25.0326 -2.6477 0.0996 0 7
-8.9744 24.8911 -2.6477 0.0996 0 7
-9.3747 24.7431 -2.6477 0.0996 0 7
-9.7726 24.5886 -2.6477 0.0996 0 7
-10.1680 24.4278 -2.6477 0.0996 0 7
-10.5607 24.2606 -2.6477 0.0996 0 7
-10.9507 24.0871 -2.6477 0.0996 0 7
-11.3378 23.9073 -2.6477 0.0996 0 7
-11.7220 23.7213 -2.6477 0.0996 0 7
-11.4413 22.2425 -2.5029 0.0996 0 8
-11.7986 22.0551 -2.5029 0.0996 0 14
-12.1528 21.8619 -2.5029 0.0996 0 14
-12.5039 21.6630 -2.5029 0.0996 0 14
-12.8517 21.4585 -2.5029 0.0996 0 14
-13.1962 21.2484 -2.5029 0.0996 0 14
-13.5372 21.0327 -2.5029 0.0996 0 14
-13.8747 20.8116 -2.5029 0.0996 0 14
-14.2086 20.5851 -2.5029 0.0996 0 14
-14.5389 20.3532 -2.5029 0.0996 0 14
-14.8653 20.1160 -2.5029 0.0996 0 14
-15.1878 19.8737 -2.5029 0.0996 0 14
-15.5064 19.6261 -2.5029 0.0996 0 14
-15.8210 19.3734 -2.5029 0.0996 0 14
-16.1315 19.1157 -2.5029 0.0996 0 14
-16.4905 18.9135 -2.5109 0.7574 0 8
-17.0281 18.9055 -2.5460 0.7469 0 8
-17.5809 18.8972 -2.5827 0.7363 0 8
-18.1499 18.8885 -2.6212 0.7255 0 8
-18.6384 18.7808 -2.6477 0.0996 0 7
-18.9389 18.4777 -2.6477 0.0996 0 7
-19.2345 18.1698 -2.6477 0.0996 0 7
-19.5251 17.8571 -2.6477 0.0996 0 7
-19.8106 17.5399 -2.6477 0.0996 0 7
-20.0910 17.2180 -2.6477 0.0996 0 7
-20.3661 16.8917 -2.6477 0.0996 0 7
-20.6359 16.5609 -2.6477 0.0996 0 7
-20.9004 16.2259 -2.6477 0.0996 0 7
-21.1594 15.8867 -2.6477 0.0996 0 7
-21.4129 15.5433 -2.6477 0.0996 0 7
-21.6608 15.1958 -2.6477 0.0996 0 7
-21.9032 14.8445 -2.6477 0.0996 0 6
-22.1397 14.4892 -2.6477 0.0996 0 7
-22.3706 14.1302 -2.6477 0.0996 0 7
-22.5956 13.7675 -2.6477 0.0996 0 7
-22.8147 13.4012 -2.6477 0.0996 0 7
-23.0280 13.0314 -2.6477 0.0996 0 7
-23.2352 12.6583 -2.6477 0.0996 0 7
-23.4364 12.2818 -2.6477 0.0996 0 7
-23.6314 11.9022 -2.6477 0.0996 0 7
-23.8203 11.5194 -2.6477 0.0996 0 7
-24.0031 11.1337 -2.6477 0.0996 0 7
-24.1795 10.7450 -2.6477 0.0996 0 7
-24.3497 10.3536 -2.6477 0.0996 0 7
-24.5136 9.9595 -2.6477 0.0996 0 7
-24.6710 9.5628 -2.6477 0.0996 0 7
-24.8221 9.1635 -2.6477 0.0996 0 7
-23.5296 8.2576 -2.4953 0.0996 0 8
-23.6597 7.8770 -2.4953 0.0996 0 8
-23.7837 7.4943 -2.4953 0.0996 0 8
-23.9015 7.1097 -2.4953 0.0996 0 8
-24.0131 6.7232 -2.4953 0.0996 0 8
-24.1184 6.3350 -2.4953 0.0996 0 8
-24.2175 5.9451 -2.4953 0.0996 0 8
-24.3102 5.5537 -2.4953 0.0996 0 8
-24.3966 5.1608 -2.4953 0.0996 0 8
-24.4767 4.7666 -2.4953 0.0996 0 8
-24.5504 4.3711 -2.4953 0.0996 0 8
-24.6177 3.9745 -2.4953 0.0996 0 8
-24.6786 3.5769 -2.4953 0.0996 0 8
-24.7331 3.1784 -2.4953 0.0996 0 8
-24.7812 2.7790 -2.4953 0.0996 0 8
-24.8228 2.3789 -2.4953 0.0996 0 8
-24.8579 1.9781 -2.4953 0.0996 0 8
-24.8866 1.5769 -2.4953 0.0996 0 8
-24.9088 1.1752 -2.4953 0.0996 0 8
-24.9245 0.7733 -2.4953 0.0996 0 8
-24.9337 0.3711 -2.4953 0.0996 0 8
-24.9365 -0.0311 -2.4953 0.0996 0 8
-24.9327 -0.4334 -2.4953 0.0996 0 8
-24.9225 -0.8355 -2.4953 0.0996 0 8
-24.9058 -1.2374 -2.4953 0.0996 0 8
-24.8826 -1.6390 -2.4953 0.0996 0 8
-24.8529 -2.0402 -2.4953 0.0996 0 8
-24.8167 -2.4408 -2.4953 0.0996 0 8
-24.7742 -2.8408 -2.4953 0.0996 0 8
-24.7251 -3.2401 -2.4953 0.0996 0 8
-24.6696 -3.6385 -2.4953 0.0996 0 8
-24.6077 -4.0360 -2.4953 0.0996 0 8
-24.5394 -4.4324 -2.4953 0.0996 0 8
-24.4647 -4.8277 -2.4953 0.0996 0 8
-24.3837 -5.2217 -2.4953 0.0996 0 8
-24.2963 -5.6143 -2.4953 0.0996 0 8
-24.2025 -6.0055 -2.4953 0.0996 0 8
-24.1025 -6.3952 -2.4953 0.0996 0 8
-23.9962 -6.7831 -2.4953 0.0996 0 8
-23.8837 -7.1693 -2.4953 0.0996 0 8
-23.7649 -7.5536 -2.4953 0.0996 0 8
-23.6400 -7.9360 -2.4953 0.0996 0 8
-23.5089 -8.3163 -2.4953 0.0996 0 8
-23.3717 -8.6944 -2.4953 0.0996 0 8
-23.2284 -9.0703 -2.4953 0.0996 0 8
-23.0791 -9.4438 -2.4953 0.0996 0 8
-22.9237 -9.8149 -2.4953 0.0996 0 8
10.5876 20.5029 -2.5029 0.1078 0 14
10.2555 20.6710 -2.5029 0.1078 0 14
9.9207 20.8338 -2.5029 0.1078 0 14
9.5833 20.9911 -2.5029 0.1078 0 14
9.2435 21.1429 -2.5029 0.1078 0 14
8.9012 21.2893 -2.5029 0.1078 0 14
8.5566 21.4301 -2.5029 0.1078 0 14
8.2098 21.5653 -2.5029 0.1078 0 14
7.8609 21.6950 -2.5029 0.1078 0 14
7.5099 21.8189 -2.5029 0.1078 0 14
7.1570 21.9372 -2.5029 0.1078 0 14
6.8022 22.0498 -2.5029 0.1078 0 14
6.4456 22.1567 -2.5029 0.1078 0 14
6.0874 22.2578 -2.5029 0.1078 0 14
5.7275 22.3531 -2.5029 0.1078 0 8
5.6766 23.7408 -2.6477 0.1078 0 7
5.2929 23.8292 -2.6477 0.1078 0 7
4.9079 23.9115 -2.6477 0.1078 0 7
4.5215 23.9876 -2.6477 0.1078 0 7
4.1340 24.0574 -2.6477 0.1078 0 7
3.7454 24.1209 -2.6477 0.1078 0 7
3.3558 24.1782 -2.6477 0.1078 0 7
2.9653 24.2292 -2.6477 0.1078 0 7
2.5741 24.2739 -2.6477 0.1078 0 7
2.1822 24.3123 -2.6477 0.1078 0 7
1.7897 24.3443 -2.6477 0.1078 0 7
1.3968 24.3700 -2.6477 0.1078 0 7
1.0035 24.3894 -2.6477 0.1078 0 7
0.6099 24.4024 -2.6477 0.1078 0 7
0.2162 24.4090 -2.6477 0.1078 0 7
-0.1775 24.4093 -2.6477 0.1078 0 7
-0.5713 24.4033 -2.6477 0.1078 0 7
-0.9648 24.3909 -2.6477 0.1078 0 7
-1.3582 24.3722 -2.6477 0.1078 0 7
-1.7511 24.3471 -2.6477 0.1078 0 7
-2.1436 24.3157 -2.6477 0.1078 0 7
-2.5356 24.2779 -2.6477 0.1078 0 7
-2.9269 24.2339 -2.6477 0.1078 0 7
-3.3174 24.1835 -2.6477 0.1078 0 7
-3.7071 24.1269 -2.6477 0.1078 0 7
-4.0958 24.0639 -2.6477 0.1078 0 7
-4.4834 23.9947 -2.6477 0.1078 0 7
-4.8699 23.9193 -2.6477 0.1078 0 7
-5.2551 23.8376 -2.6477 0.1078 0 7
-5.6390 23.7497 -2.6477 0.1078 0 7
-5.6921 22.3621 -2.5029 0.1078 0 8
-6.0521 22.2674 -2.5029 0.1078 0 8
-6.4105 22.1669 -2.5029 0.1078 0 14
-6.7672 22.0606 -2.5029 0.1078 0 14
-7.1222 21.9486 -2.5029 0.1078 0 14
-7.4753 21.8308 -2.5029 0.1078 0 14
-7.8265 21.7074 -2.5029 0.1078 0 14
-8.1756 21.5783 -2.5029 0.1078 0 14
-8.5226 21.4436 -2.5029 0.1078 0 14
-8.8674 21.3034 -2.5029 0.1078 0 14
-9.2099 21.1576 -2.5029 0.1078 0 14
-9.5500 21.0062 -2.5029 0.1078 0 14
-9.8876 20.8495 -2.5029 0.1078 0 14
-10.2227 20.6873 -2.5029 0.1078 0 14
-10.5550 20.5197 -2.5029 0.1078 0 14
-10.8847 20.3467 -2.5029 0.1078 0 14
-11.2115 20.1685 -2.5029 0.1078 0 14
-11.5354 19.9850 -2.5029 0.1078 0 14
-11.8562 19.7963 -2.5029 0.1078 0 14
-12.1740 19.6025 -2.5029 0.1078 0 14
-12.4887 19.4036 -2.5029 0.1078 0 14
-12.8000 19.1996 -2.5029 0.1078 0 14
-13.1081 18.9906 -2.5029 0.1078 0 8
-13.5149 18.9197 -2.5220 0.8167 0 8
-13.9763 18.9131 -2.5508 0.8074 0 8
-14.4485 18.9062 -2.5810 0.7980 0 8
-14.9320 18.8990 -2.6125 0.7883 0 8
-15.4275 18.8915 -2.6456 0.7785 0 8
-15.7428 18.6551 -2.6477 0.1078 0 7
-16.0415 18.3987 -2.6477 0.1078 0 6
-16.3364 18.1376 -2.6477 0.1078 0 7
-16.6268 17.8717 -2.6477 0.1078 0 7
-16.9129 17.6011 -2.6477 0.1078 0 7
-17.1947 17.3260 -2.6477 0.1078 0 7
-17.4719 17.0464 -2.6477 0.1078 0 7
-17.7446 16.7624 -2.6477 0.1078 0 7
-18.0127 16.4739 -2.6477 0.1078 0 7
-18.2761 16.1812 -2.6477 0.1078 0 7
-18.5347 15.8843 -2.6477 0.1078 0 7
-18.7886 15.5833 -2.6477 0.1078 0 7
-19.0375 15.2782 -2.6477 0.1078 0 7
-19.2815 14.9691 -2.6477 0.1078 0 7
-19.5204 14.6561 -2.6477 0.1078 0 7
-19.7543 14.3393 -2.6477 0.1078 0 7
-19.9830 14.0188 -2.6477 0.1078 0 7
-20.2066 13.6946 -2.6477 0.1078 0 7
-20.4248 13.3669 -2.6477 0.1078 0 7
-20.6378 13.0357 -2.6477 0.1078 0 7
-20.8454 12.7011 -2.6477 0.1078 0 7
-21.0476 12.3632 -2.6477 0.1078 0 7
-21.2443 12.0220 -2.6477 0.1078 0 7
-21.4354 11.6778 -2.6477 0.1078 0 7
-21.6210 11.3305 -2.6477 0.1078 0 6
-21.8010 10.9802 -2.6477 0.1078 0 7
-21.9753 10.6271 -2.6477 0.1078 0 7
-22.1438 10.2713 -2.6477 0.1078 0 7
-22.3066 9.9127 -2.6477 0.1078 0 7
-22.4636 9.5516 -2.6477 0.1078 0 7
-22.6148 9.1880 -2.6477 0.1078 0 7
-21.4500 8.3142 -2.4953 0.1078 0 8
-21.5813 7.9671 -2.4953 0.1078 0 8
-21.7070 7.6180 -2.4953 0.1078 0 8
-21.8271 7.2668 -2.4953 0.1078 0 8
-21.9415 6.9138 -2.4953 0.1078 0 8
-22.0501 6.5590 -2.4953 0.1078 0 8
-22.1531 6.2024 -2.4953 0.1078 0 8
-22.2502 5.8443 -2.4953 0.1078 0 8
-22.3416 5.4846 -2.4953 0.1078 0 8
-22.4272 5.1235 -2.4953 0.1078 0 8
-22.5069 4.7611 -2.4953 0.1078 0 8
-22.5808 4.3974 -2.4953 0.1078 0 8
-22.6488 4.0326 -2.4953 0.1078 0 8
-22.7109 3.6667 -2.4953 0.1078 0 8
-22.7671 3.2999 -2.4953 0.1078 0 8
-22.8173 2.9322 -2.4953 0.1078 0 8
-22.8617 2.5637 -2.4953 0.1078 0 8
-22.9000 2.1946 -2.4953 0.1078 0 8
-22.9325 1.8249 -2.4953 0.1078 0 8
-22.9589 1.4548 -2.4953 0.1078 0 8
-22.9794 1.0842 -2.4953 0.1078 0 8
-22.9939 0.7134 -2.4953 0.1078 0 8
-23.0024 0.3424 -2.4953 0.1078 0 8
-23.0049 -0.0287 -2.4953 0.1078 0 8
-23.0015 -0.3998 -2.4953 0.1078 0 8
-22.9920 -0.7708 -2.4953 0.1078 0 8
-22.9766 -1.1416 -2.4953 0.1078 0 8
-22.9552 -1.5121 -2.4953 0.1078 0 8
-22.9278 -1.8821 -2.4953 0.1078 0 8
-22.8945 -2.2518 -2.4953 0.1078 0 8
-22.8552 -2.6208 -2.4953 0.1078 0 8
-22.8099 -2.9891 -2.4953 0.1078 0 8
-22.7588 -3.3567 -2.4953 0.1078 0 8
-22.7017 -3.7233 -2.4953 0.1078 0 8
-22.6386 -4.0891 -2.4953 0.1078 0 8
-22.5697 -4.4537 -2.4953 0.1078 0 8
-22.4949 -4.8172 -2.4953 0.1078 0 8
-22.4143 -5.1794 -2.4953 0.1078 0 8
-22.3278 -5.5403 -2.4953 0.1078 0 8
-22.2356 -5.8998 -2.4953 0.1078 0 8
-22.1375 -6.2577 -2.4953 0.1078 0 8
-22.0337 -6.6140 -2.4953 0.1078 0 8
-21.9241 -6.9685 -2.4953 0.1078 0 8
-21.8089 -7.3213 -2.4953 0.1078 0 8
-21.6879 -7.6721 -2.4953 0.1078 0 8
-21.5613 -8.0210 -2.4953 0.1078 0 8
-21.4292 -8.3677 -2.4953 0.1078 0 8
-21.2914 -8.7123 -2.4953 0.1078 0 8
-21.1481 -9.0546 -2.4953 0.1078 0 8
9.8252 19.0265 -2.5029 0.1161 0 8
9.5170 19.1825 -2.5029 0.1161 0 14
9.2063 19.3335 -2.5029 0.1161 0 14
8.8932 19.4795 -2.5029 0.1161 0 14
8.5779 19.6205 -2.5029 0.1161 0 14
8.2602 19.7563 -2.5029 0.1161 0 14
7.9405 19.8869 -2.5029 0.1161 0 14
7.6187 20.0124 -2.5029 0.1161 0 14
7.2949 20.1327 -2.5029 0.1161 0 14
6.9691 20.2478 -2.5029 0.1161 0 14
6.6416 20.3576 -2.5029 0.1161 0 14
6.3124 20.4621 -2.5029 0.1161 0 14
5.9815 20.5612 -2.5029 0.1161 0 14
5.6490 20.6550 -2.5029 0.1161 0 14
5.3151 20.7435 -2.5029 0.1161 0 14
4.9798 20.8265 -2.5029 0.1161 0 14
4.6432 20.9041 -2.5029 0.1161 0 14
4.3054 20.9763 -2.5029 0.1161 0 14
3.9665 21.0430 -2.5029 0.1161 0 14
3.6265 21.1043 -2.5029 0.1161 0 14
3.2856 21.1600 -2.5029 0.1161 0 14
2.9438 21.2103 -2.5029 0.1161 0 14
2.6013 21.2550 -2.5029 0.1161 0 14
2.2581 21.2942 -2.5029 0.1161 0 14
1.9143 21.3279 -2.5029 0.1161 0 14
1.5700 21.3560 -2.5029 0.1161 0 14
1.2253 21.3785 -2.5029 0.1161 0 14
0.8803 21.3955 -2.5029 0.1161 0 14
0.5351 21.4069 -2.5029 0.1161 0 14
0.1897 21.4128 -2.5029 0.1161 0 14
-0.1557 21.4130 -2.5029 0.1161 0 14
-0.5011 21.4077 -2.5029 0.1161 0 14
-0.8464 21.3969 -2.5029 0.1161 0 14
-1.1914 21.3804 -2.5029 0.1161 0 14
-1.5362 21.3584 -2.5029 0.1161 0 14
-1.8805 21.3309 -2.5029 0.1161 0 14
-2.2243 21.2978 -2.5029 0.1161 0 14
-2.5676 21.2591 -2.5029 0.1161 0 14
-2.9102 21.2149 -2.5029 0.1161 0 14
-3.2520 21.1652 -2.5029 0.1161 0 14
-3.5930 21.1100 -2.5029 0.1161 0 14
-3.9331 21.0493 -2.5029 0.1161 0 14
-4.2721 20.9831 -2.5029 0.1161 0 14
-4.6101 20.9115 -2.5029 0.1161 0 14
-4.9468 20.8344 -2.5029 0.1161 0 14
-5.2822 20.7519 -2.5029 0.1161 0 14
-5.6163 20.6640 -2.5029 0.1161 0 14
-5.9489 20.5707 -2.5029 0.1161 0 14
-6.2799 20.4720 -2.5029 0.1161 0 14
-6.6093 20.3681 -2.5029 0.1161 0 14
-6.9370 20.2588 -2.5029 0.1161 0 14
-7.2629 20.1443 -2.5029 0.1161 0 14
-7.5869 20.0245 -2.5029 0.1161 0 14
-7.9089 19.8995 -2.5029 0.1161 0 14
-8.2289 19.7693 -2.5029 0.1161 0 14
-8.5467 19.6340 -2.5029 0.1161 0 14
-8.8623 19.4936 -2.5029 0.1161 0 14
-9.1756 19.3481 -2.5029 0.1161 0 14
-9.4865 19.1976 -2.5029 0.1161 0 14
-9.7950 19.0421 -2.5029 0.1161 0 8
-10.1279 18.9322 -2.5096 0.7023 0 8
-10.5210 18.9264 -2.5310 0.8761 0 8
-10.9213 18.9211 -2.5535 0.8683 0 8
-11.3287 18.9156 -2.5771 0.8604 0 8
-11.7439 18.9099 -2.6018 0.8522 0 8
-12.1670 18.9039 -2.6276 0.8438 0 8
-12.5654 18.8477 -2.6477 0.1161 0 7
-12.8678 18.6426 -2.6477 0.1161 0 7
-13.1669 18.4326 -2.6477 0.1161 0 6
-13.4625 18.2178 -2.6477 0.1161 0 7
-13.7546 17.9983 -2.6477 0.1161 0 7
-14.0431 17.7740 -2.6477 0.1161 0 7
-14.3280 17.5452 -2.6477 0.1161 0 7
-14.6092 17.3118 -2.6477 0.1161 0 7
-14.8865 17.0739 -2.6477 0.1161 0 7
-15.1600 16.8315 -2.6477 0.1161 0 7
-15.4295 16.5848 -2.6477 0.1161 0 7
-15.6951 16.3337 -2.6477 0.1161 0 7
-15.9565 16.0784 -2.6477 0.1161 0 7
-16.2138 15.8189 -2.6477 0.1161 0 7
-16.4668 15.5553 -2.6477 0.1161 0 7
-16.7156 15.2877 -2.6477 0.1161 0 7
-16.9601 15.0160 -2.6477 0.1161 0 7
-17.2001 14.7405 -2.6477 0.1161 0 7
-17.4356 14.4611 -2.6477 0.1161 0 7
-17.6666 14.1780 -2.6477 0.1161 0 7
-17.8930 13.8912 -2.6477 0.1161 0 7
-18.1148 13.6007 -2.6477 0.1161 0 7
-18.3318 13.3068 -2.6477 0.1161 0 7
-18.5441 13.0093 -2.6477 0.1161 0 7
-18.7515 12.7085 -2.6477 0.1161 0 7
-18.9541 12.4044 -2.6477 0.1161 0 7
-19.1517 12.0970 -2.6477 0.1161 0 7
-19.3443 11.7865 -2.6477 0.1161 0 7
-19.5320 11.4729 -2.6477 0.1161 0 7
-19.7145 11.1564 -2.6477 0.1161 0 7
-19.8919 10.8369 -2.6477 0.1161 0 7
-20.0641 10.5146 -2.6477 0.1161 0 7
-20.2311 10.1896 -2.6477 0.1161 0 7
-20.3928 9.8619 -2.6477 0.1161 0 7
-20.5493 9.5317 -2.6477 0.1161 0 7
-20.7003 9.1989 -2.6477 0.1161 0 7
-19.6462 8.3536 -2.4953 0.1161 0 8
-19.7783 8.0356 -2.4953 0.1161 0 8
-19.9054 7.7155 -2.4953 0.1161 0 8
-20.0273 7.3934 -2.4953 0.1161 0 8
-20.1439 7.0694 -2.4953 0.1161 0 8
-20.2553 6.7436 -2.4953 0.1161 0 8
-20.3615 6.4159 -2.4953 0.1161 0 8
-20.4623 6.0867 -2.4953 0.1161 0 8
-20.5578 5.7558 -2.4953 0.1161 0 8
-20.6480 5.4234 -2.4953 0.1161 0 8
-20.7328 5.0897 -2.4953 0.1161 0 8
-20.8122 4.7546 -2.4953 0.1161 0 8
-20.8862 4.4182 -2.4953 0.1161 0 8
-20.9548 4.0807 -2.4953 0.1161 0 8
-21.0179 3.7422 -2.4953 0.1161 0 8
-21.0755 3.4027 -2.4953 0.1161 0 8
-21.1276 3.0622 -2.4953 0.1161 0 8
-21.1743 2.7210 -2.4953 0.1161 0 8
-21.2154 2.3791 -2.4953 0.1161 0 8
-21.2510 2.0366 -2.4953 0.1161 0 8
-21.2811 1.6935 -2.4953 0.1161 0 8
-21.3057 1.3500 -2.4953 0.1161 0 8
-21.3247 1.0061 -2.4953 0.1161 0 8
-21.3381 0.6620 -2.4953 0.1161 0 8
-21.3460 0.3177 -2.4953 0.1161 0 8
-21.3484 -0.0266 -2.4953 0.1161 0 8
-21.3452 -0.3710 -2.4953 0.1161 0 8
-21.3364 -0.7153 -2.4953 0.1161 0 8
-21.3221 -1.0594 -2.4953 0.1161 0 8
-21.3022 -1.4032 -2.4953 0.1161 0 8
-21.2768 -1.7466 -2.4953 0.1161 0 8
-21.2459 -2.0896 -2.4953 0.1161 0 8
-21.2094 -2.4321 -2.4953 0.1161 0 8
-21.1674 -2.7739 -2.4953 0.1161 0 8
-21.1199 -3.1149 -2.4953 0.1161 0 8
-21.0670 -3.4552 -2.4953 0.1161 0 8
-21.0085 -3.7946 -2.4953 0.1161 0 8
-20.9445 -4.1330 -2.4953 0.1161 0 8
-20.8751 -4.4703 -2.4953 0.1161 0 8
-20.8003 -4.8065 -2.4953 0.1161 0 8
-20.7200 -5.1414 -2.4953 0.1161 0 8
-20.6344 -5.4750 -2.4953 0.1161 0 8
-20.5434 -5.8071 -2.4953 0.1161 0 8
-20.4471 -6.1377 -2.4953 0.1161 0 8
-20.3454 -6.4668 -2.4953 0.1161 0 8
-20.2384 -6.7941 -2.4953 0.1161 0 8
-20.1262 -7.1197 -2.4953 0.1161 0 8
-20.0087 -7.4434 -2.4953 0.1161 0 8
-19.8861 -7.7652 -2.4953 0.1161 0 8
-19.7582 -8.0850 -2.4953 0.1161 0 8
-19.6252 -8.4026 -2.4953 0.1161 0 8
9.6941 18.7727 -2.6477 0.1243 0 7
9.3900 18.9266 -2.6477 0.1243 0 7
9.0294 18.9620 -2.6319 0.9024 0 8
8.6581 18.9646 -2.6125 0.9090 0 8
8.2922 18.9670 -2.5941 0.9155 0 8
7.9312 18.9692 -2.5766 0.9217 0 8
7.5749 18.9713 -2.5599 0.9277 0 8
7.2230 18.9732 -2.5441 0.9335 0 8
6.8754 18.9750 -2.5292 0.9390 0 8
6.5316 18.9767 -2.5150 0.9443 0 8
6.1947 18.9876 -2.5029 0.1243 0 8
5.8876 19.0851 -2.5029 0.1243 0 8
5.5790 19.1776 -2.5029 0.1243 0 14
5.2689 19.2651 -2.5029 0.1243 0 14
4.9574 19.3476 -2.5029 0.1243 0 14
4.6447 19.4250 -2.5029 0.1243 0 14
4.3307 19.4974 -2.5029 0.1243 0 14
4.0157 19.5647 -2.5029 0.1243 0 14
3.6995 19.6270 -2.5029 0.1243 0 14
3.3825 19.6841 -2.5029 0.1243 0 14
3.0645 19.7361 -2.5029 0.1243 0 14
2.7457 19.7830 -2.5029 0.1243 0 14
2.4263 19.8247 -2.5029 0.1243 0 14
2.1062 19.8612 -2.5029 0.1243 0 14
1.7855 19.8926 -2.5029 0.1243 0 14
1.4644 19.9188 -2.5029 0.1243 0 14
1.1429 19.9399 -2.5029 0.1243 0 14
0.8211 19.9557 -2.5029 0.1243 0 14
0.4991 19.9664 -2.5029 0.1243 0 14
0.1769 19.9718 -2.5029 0.1243 0 14
-0.1453 19.9721 -2.5029 0.1243 0 14
-0.4674 19.9671 -2.5029 0.1243 0 14
-0.7894 19.9570 -2.5029 0.1243 0 14
-1.1113 19.9417 -2.5029 0.1243 0 14
-1.4328 19.9211 -2.5029 0.1243 0 14
-1.7540 19.8954 -2.5029 0.1243 0 14
-2.0747 19.8646 -2.5029 0.1243 0 14
-2.3948 19.8285 -2.5029 0.1243 0 14
-2.7144 19.7873 -2.5029 0.1243 0 14
-3.0332 19.7409 -2.5029 0.1243 0 14
-3.3512 19.6894 -2.5029 0.1243 0 14
-3.6684 19.6328 -2.5029 0.1243 0 14
-3.9846 19.5711 -2.5029 0.1243 0 14
-4.2998 19.5043 -2.5029 0.1243 0 14
-4.6139 19.4324 -2.5029 0.1243 0 14
-4.9268 19.3554 -2.5029 0.1243 0 14
-5.2383 19.2734 -2.5029 0.1243 0 14
-5.5485 19.1864 -2.5029 0.1243 0 14
-5.8597 19.1021 -2.5039 0.7592 0 8
-6.1646 18.9974 -2.5029 0.1243 0 8
-6.4864 18.9427 -2.5091 0.7523 0 8
-6.8281 18.9382 -2.5228 0.9414 0 8
-7.1739 18.9345 -2.5374 0.9360 0 8
-7.5239 18.9307 -2.5528 0.9303 0 8
-7.8781 18.9267 -2.5691 0.9244 0 8
-8.2370 18.9225 -2.5862 0.9183 0 8
-8.6007 18.9181 -2.6043 0.9119 0 8
-8.9696 18.9136 -2.6232 0.9053 0 8
-9.3439 18.9089 -2.6431 0.8985 0 8
-9.6643 18.7880 -2.6477 0.1243 0 7
-9.9661 18.6297 -2.6477 0.1243 0 7
-10.2654 18.4665 -2.6477 0.1243 0 6
-10.5619 18.2985 -2.6477 0.1243 0 7
-10.8557 18.1257 -2.6477 0.1243 0 7
-11.1467 17.9483 -2.6477 0.1243 0 7
-11.4347 17.7662 -2.6477 0.1243 0 7
-11.7198 17.5794 -2.6477 0.1243 0 7
-12.0019 17.3880 -2.6477 0.1243 0 7
-12.2808 17.1922 -2.6477 0.1243 0 7
-12.5565 16.9918 -2.6477 0.1243 0 7
-12.8290 16.7871 -2.6477 0.1243 0 7
-13.0981 16.5779 -2.6477 0.1243 0 7
-13.3638 16.3645 -2.6477 0.1243 0 7
-13.6261 16.1468 -2.6477 0.1243 0 7
-13.8848 15.9249 -2.6477 0.1243 0 7
-14.1398 15.6988 -2.6477 0.1243 0 7
-14.3912 15.4687 -2.6477 0.1243 0 7
-14.6389 15.2346 -2.6477 0.1243 0 7
-14.8827 14.9964 -2.6477 0.1243 0 7
-15.1227 14.7544 -2.6477 0.1243 0 7
-15.3587 14.5086 -2.6477 0.1243 0 7
-15.5908 14.2589 -2.6477 0.1243 0 7
-15.8188 14.0056 -2.6477 0.1243 0 7
-16.0426 13.7486 -2.6477 0.1243 0 7
-16.2623 13.4880 -2.6477 0.1243 0 7
-16.4778 13.2239 -2.6477 0.1243 0 7
-16.6889 12.9564 -2.6477 0.1243 0 7
-16.8958 12.6855 -2.6477 0.1243 0 7
-17.0982 12.4113 -2.6477 0.1243 0 7
-17.2962 12.1339 -2.6477 0.1243 0 7
-17.4897 11.8533 -2.6477 0.1243 0 7
-17.6786 11.5696 -2.6477 0.1243 0 7
-17.8629 11.2830 -2.6477 0.1243 0 7
-18.0426 10.9933 -2.6477 0.1243 0 7
-18.2176 10.7009 -2.6477 0.1243 0 7
-18.3878 10.4056 -2.6477 0.1243 0 7
-18.5533 10.1076 -2.6477 0.1243 0 7
-18.7139 9.8070 -2.6477 0.1243 0 7
-18.8697 9.5039 -2.6477 0.1243 0 7
-19.0205 9.1983 -2.6477 0.1243 0 7
-18.0632 8.3785 -2.4953 0.1243 0 8
-18.1960 8.0861 -2.4953 0.1243 0 8
-18.3241 7.7915 -2.4953 0.1243 0 8
-18.4474 7.4949 -2.4953 0.1243 0 8
-18.5659 7.1963 -2.4953 0.1243 0 8
-18.6796 6.8959 -2.4953 0.1243 0 8
-18.7884 6.5937 -2.4953 0.1243 0 8
-18.8923 6.2898 -2.4953 0.1243 0 8
-18.9913 5.9842 -2.4953 0.1243 0 8
-19.0853 5.6771 -2.4953 0.1243 0 8
-19.1744 5.3685 -2.4953 0.1243 0 8
-19.2585 5.0585 -2.4953 0.1243 0 8
-19.3376 4.7472 -2.4953 0.1243 0 8
-19.4117 4.4346 -2.4953 0.1243 0 8
-19.4807 4.1209 -2.4953 0.1243 0 8
-19.5446 3.8061 -2.4953 0.1243 0 8
-19.6035 3.4903 -2.4953 0.1243 0 8
-19.6572 3.1737 -2.4953 0.1243 0 8
-19.7059 2.8562 -2.4953 0.1243 0 8
-19.7494 2.5379 -2.4953 0.1243 0 8
-19.7878 2.2190 -2.4953 0.1243 0 8
-19.8210 1.8995 -2.4953 0.1243 0 8
-19.8490 1.5795 -2.4953 0.1243 0 8
-19.8719 1.2592 -2.4953 0.1243 0 8
-19.8897 0.9384 -2.4953 0.1243 0 8
-19.9022 0.6175 -2.4953 0.1243 0 8
-19.9096 0.2964 -2.4953 0.1243 0 8
-19.9118 -0.0249 -2.4953 0.1243 0 8
-19.9088 -0.3461 -2.4953 0.1243 0 8
-19.9006 -0.6671 -2.4953 0.1243 0 8
-19.8873 -0.9881 -2.4953 0.1243 0 8
-19.8687 -1.3088 -2.4953 0.1243 0 8
-19.8450 -1.6291 -2.4953 0.1243 0 8
-19.8162 -1.9490 -2.4953 0.1243 0 8
-19.7822 -2.2684 -2.4953 0.1243 0 8
-19.7430 -2.5872 -2.4953 0.1243 0 8
-19.6987 -2.9053 -2.4953 0.1243 0 8
-19.6493 -3.2227 -2.4953 0.1243 0 8
-19.5947 -3.5393 -2.4953 0.1243 0 8
-19.5351 -3.8549 -2.4953 0.1243 0 8
-19.4704 -4.1695 -2.4953 0.1243 0 8
-19.4006 -4.4830 -2.4953 0.1243 0 8
-19.3257 -4.7954 -2.4953 0.1243 0 8
-19.2459 -5.1065 -2.4953 0.1243 0 8
-19.1610 -5.4163 -2.4953 0.1243 0 8
-19.0711 -5.7247 -2.4953 0.1243 0 8
-18.9763 -6.0316 -2.4953 0.1243 0 8
-18.8765 -6.3369 -2.4953 0.1243 0 8
-18.7719 -6.6406 -2.4953 0.1243 0 8
-18.6623 -6.9425 -2.4953 0.1243 0 8
-18.5479 -7.2426 -2.4953 0.1243 0 8
-18.4286 -7.5409 -2.4953 0.1243 0 8
-18.3046 -7.8372 -2.4953 0.1243 0 8
9.0817 17.5867 -2.6477 0.1326 0 7
8.7968 17.7309 -2.6477 0.1326 0 7
8.5096 17.8705 -2.6477 0.1326 0 7
8.2203 18.0055 -2.6477 0.1326 0 7
7.9288 18.1357 -2.6477 0.1326 0 7
7.6352 18.2613 -2.6477 0.1326 0 7
7.3396 18.3821 -2.6477 0.1326 0 7
7.0421 18.4981 -2.6477 0.1326 0 6
6.7428 18.6092 -2.6477 0.1326 0 7
6.4418 18.7156 -2.6477 0.1326 0 7
6.1390 18.8171 -2.6477 0.1326 0 7
5.8347 18.9136 -2.6477 0.1326 0 7
5.5130 18.9507 -2.6401 0.9592 0 8
5.1833 18.9520 -2.6283 0.9635 0 8
4.8564 18.9531 -2.6172 0.9676 0 8
4.5321 18.9541 -2.6069 0.9714 0 8
4.2103 18.9550 -2.5973 0.9750 0 8
3.8907 18.9558 -2.5885 0.9783 0 8
3.5731 18.9564 -2.5804 0.9814 0 8
3.2575 18.9569 -2.5730 0.9842 0 8
2.9436 18.9573 -2.5662 0.9868 0 8
2.6312 18.9575 -2.5602 0.9891 0 8
2.3202 18.9576 -2.5548 0.9912 0 8
2.0103 18.9576 -2.5501 0.9930 0 8
1.7016 18.9575 -2.5461 0.9946 0 8
1.3937 18.9573 -2.5427 0.9959 0 8
1.0865 18.9570 -2.5400 0.9970 0 8
0.7800 18.9565 -2.5379 0.9978 0 8
0.4738 18.9559 -2.5365 0.9984 0 8
0.1679 18.9552 -2.5357 0.9987 0 8
-0.1379 18.9564 -2.5358 0.9970 0 8
-0.4437 18.9551 -2.5363 0.9986 0 8
-0.7497 18.9533 -2.5373 0.9982 0 8
-1.0561 18.9514 -2.5390 0.9975 0 8
-1.3629 18.9499 -2.5414 0.9964 0 8
-1.6705 18.9485 -2.5445 0.9952 0 8
-1.9788 18.9469 -2.5483 0.9937 0 8
-2.2881 18.9452 -2.5527 0.9920 0 8
-2.5986 18.9434 -2.5577 0.9901 0 8
-2.9104 18.9415 -2.5635 0.9878 0 8
-3.2236 18.9394 -2.5699 0.9854 0 8
-3.5385 18.9373 -2.5770 0.9827 0 8
-3.8551 18.9349 -2.5848 0.9797 0 8
-4.1738 18.9325 -2.5933 0.9765 0 8
-4.4946 18.9299 -2.6026 0.9730 0 8
-4.8177 18.9271 -2.6126 0.9693 0 8
-5.1434 18.9242 -2.6233 0.9653 0 8
-5.4718 18.9212 -2.6347 0.9611 0 8
-5.8032 18.9180 -2.6470 0.9567 0 8
-6.1092 18.8268 -2.6477 0.1326 0 7
-6.4121 18.7258 -2.6477 0.1326 0 7
-6.7133 18.6199 -2.6477 0.1326 0 7
-7.0128 18.5092 -2.6477 0.1326 0 7
-7.3104 18.3937 -2.6477 0.1326 0 6
-7.6062 18.2734 -2.6477 0.1326 0 7
-7.9000 18.1483 -2.6477 0.1326 0 7
-8.1917 18.0185 -2.6477 0.1326 0 7
-8.4813 17.8840 -2.6477 0.1326 0 7
-8.7687 17.7449 -2.6477 0.1326 0 7
-9.0538 17.6011 -2.6477 0.1326 0 7
-9.3365 17.4528 -2.6477 0.1326 0 7
-9.6168 17.2999 -2.6477 0.1326 0 7
-9.8947 17.1425 -2.6477 0.1326 0 7
-10.1699 16.9807 -2.6477 0.1326 0 7
-10.4425 16.8144 -2.6477 0.1326 0 7
-10.7124 16.6438 -2.6477 0.1326 0 7
-10.9795 16.4688 -2.6477 0.1326 0 7
-11.2437 16.2896 -2.6477 0.1326 0 7
-11.5050 16.1061 -2.6477 0.1326 0 7
-11.7633 15.9184 -2.6477 0.1326 0 7
-12.0185 15.7266 -2.6477 0.1326 0 7
-12.2706 15.5306 -2.6477 0.1326 0 7
-12.5196 15.3307 -2.6477 0.1326 0 7
-12.7653 15.1268 -2.6477 0.1326 0 7
-13.0076 14.9189 -2.6477 0.1326 0 7
-13.2466 14.7071 -2.6477 0.1326 0 7
-13.4821 14.4915 -2.6477 0.1326 0 7
-13.7141 14.2721 -2.6477 0.1326 0 7
-13.9425 14.0490 -2.6477 0.1326 0 7
-14.1673 13.8223 -2.6477 0.1326 0 7
-14.3885 13.5920 -2.6477 0.1326 0 7
-14.6058 13.3581 -2.6477 0.1326 0 7
-14.8194 13.1208 -2.6477 0.1326 0 7
-15.0291 12.8800 -2.6477 0.1326 0 7
-15.2350 12.6359 -2.6477 0.1326 0 7
-15.4368 12.3885 -2.6477 0.1326 0 7
-15.6346 12.1379 -2.6477 0.1326 0 7
-15.8284 11.8841 -2.6477 0.1326 0 7
-16.0180 11.6272 -2.6477 0.1326 0 7
-16.2035 11.3673 -2.6477 0.1326 0 6
-16.3848 11.1045 -2.6477 0.1326 0 7
-16.5618 10.8387 -2.6477 0.1326 0 7
-16.7344 10.5702 -2.6477 0.1326 0 7
-16.9028 10.2988 -2.6477 0.1326 0 7
-17.0667 10.0248 -2.6477 0.1326 0 7
-17.2262 9.7482 -2.6477 0.1326 0 7
-17.3812 9.4691 -2.6477 0.1326 0 7
-17.5317 9.1875 -2.6477 0.1326 0 7
-16.6601 8.3910 -2.4953 0.1326 0 8
-16.7933 8.1212 -2.4953 0.1326 0 8
