ply
format ascii 1.0
element vertex 1342
property float32 x
property float32 y
property float32 z
property float32 CosAngle
property uint32 ObjIdx
property uint32 ObjTag
end_header
-37.2440 13.9267 -2.6477 0.0664 0 7
-37.4643 13.3227 -2.6477 0.0664 0 7
-37.6748 12.7153 -2.6477 0.0664 0 7
-37.8754 12.1045 -2.6477 0.0664 0 7
-38.0662 11.4906 -2.6477 0.0664 0 7
-38.2470 10.8736 -2.6477 0.0664 0 7
-38.4178 10.2539 -2.6477 0.0664 0 7
-38.5786 9.6314 -2.6477 0.0664 0 7
-38.7292 9.0064 -2.6477 0.0664 0 7
-38.8698 8.3791 -2.6477 0.0664 0 7
-39.0002 7.7495 -2.6477 0.0664 0 7
-39.1204 7.1180 -2.6477 0.0664 0 7
-39.2303 6.4845 -2.6477 0.0664 0 7
-39.3300 5.8494 -2.6477 0.0664 0 7
-39.4195 5.2128 -2.6477 0.0664 0 7
-39.4986 4.5748 -2.6477 0.0664 0 7
-39.5674 3.9356 -2.6477 0.0664 0 6
-39.6259 3.2954 -2.6477 0.0664 0 6
-39.6740 2.6543 -2.6477 0.0664 0 6
-39.7117 2.0125 -2.6477 0.0664 0 6
-37.4517 1.2913 -2.4953 0.0664 0 8
-37.4676 0.6856 -2.4953 0.0664 0 8
-37.4738 0.0798 -2.4953 0.0664 0 8
-37.4702 -0.5261 -2.4953 0.0664 0 8
-37.4568 -1.1319 -2.4953 0.0664 0 8
-37.4411 -1.7377 -2.4958 0.7517 0 8
-37.4006 -2.3423 -2.4953 0.0664 0 8
-37.3579 -2.9467 -2.4953 0.0664 0 8
-37.3053 -3.5503 -2.4953 0.0664 0 8
-37.2431 -4.1530 -2.4953 0.0664 0 8
-37.1711 -4.7546 -2.4953 0.0664 0 8
-37.0893 -5.3549 -2.4953 0.0664 0 8
-36.9979 -5.9539 -2.4953 0.0664 0 8
-36.8968 -6.5513 -2.4953 0.0664 0 8
-36.7861 -7.1469 -2.4953 0.0664 0 8
-36.6657 -7.7408 -2.4953 0.0664 0 8
-36.5358 -8.3325 -2.4953 0.0664 0 8
-36.3963 -8.9222 -2.4953 0.0664 0 8
-36.2473 -9.5094 -2.4953 0.0664 0 8
-36.0888 -10.0942 -2.4953 0.0664 0 8
-35.9209 -10.6764 -2.4953 0.0664 0 8
-35.7436 -11.2557 -2.4953 0.0664 0 8
-35.5569 -11.8322 -2.4953 0.0664 0 8
-35.3610 -12.4055 -2.4953 0.0664 0 8
-35.1558 -12.9756 -2.4953 0.0664 0 8
-34.9414 -13.5422 -2.4953 0.0664 0 8
-16.9866 30.9793 -2.6477 0.0747 0 7
-17.4852 30.7006 -2.6477 0.0747 0 7
-17.9793 30.4139 -2.6477 0.0747 0 7
-18.4687 30.1193 -2.6477 0.0747 0 7
-18.9532 29.8167 -2.6477 0.0747 0 7
-19.4328 29.5064 -2.6477 0.0747 0 7
-19.9073 29.1884 -2.6477 0.0747 0 7
-20.3766 28.8627 -2.6477 0.0747 0 7
-20.8406 28.5295 -2.6477 0.0747 0 7
-21.2991 28.1888 -2.6477 0.0747 0 7
-21.7521 27.8408 -2.6477 0.0747 0 7
-22.1994 27.4854 -2.6477 0.0747 0 7
-22.6408 27.1229 -2.6477 0.0747 0 7
-23.0764 26.7533 -2.6477 0.0747 0 7
-23.5059 26.3767 -2.6477 0.0747 0 6
-23.9293 25.9933 -2.6477 0.0747 0 7
-24.3464 25.6030 -2.6477 0.0747 0 7
-24.7572 25.2060 -2.6477 0.0747 0 7
-25.1615 24.8024 -2.6477 0.0747 0 7
-25.5592 24.3924 -2.6477 0.0747 0 7
-25.9502 23.9760 -2.6477 0.0747 0 7
-24.8944 22.2654 -2.5029 0.0747 0 8
-25.2511 21.8600 -2.5029 0.0747 0 14
-25.6013 21.4488 -2.5029 0.0747 0 14
-25.9447 21.0321 -2.5029 0.0747 0 14
-26.2814 20.6099 -2.5029 0.0747 0 14
-26.6111 20.1823 -2.5029 0.0747 0 14
-26.9340 19.7494 -2.5029 0.0747 0 14
-27.2497 19.3114 -2.5029 0.0747 0 14
-27.5869 18.8878 -2.5055 0.4528 0 8
-28.5403 18.8702 -2.5640 0.5567 0 8
-29.5461 18.8558 -2.6266 0.5434 0 8
-30.0860 18.5228 -2.6477 0.0747 0 7
-30.3815 18.0339 -2.6477 0.0747 0 7
-30.6692 17.5404 -2.6477 0.0747 0 6
-30.9487 17.0422 -2.6477 0.0747 0 6
-31.2202 16.5396 -2.6477 0.0747 0 7
-31.4835 16.0327 -2.6477 0.0747 0 7
-31.7386 15.5216 -2.6477 0.0747 0 7
-31.9854 15.0064 -2.6477 0.0747 0 7
-32.2239 14.4873 -2.6477 0.0747 0 7
-32.4539 13.9644 -2.6477 0.0747 0 7
-32.6754 13.4379 -2.6477 0.0747 0 7
-32.8884 12.9079 -2.6477 0.0747 0 7
-33.0928 12.3744 -2.6477 0.0747 0 7
-33.2885 11.8378 -2.6477 0.0747 0 7
-33.4756 11.2980 -2.6477 0.0747 0 7
-33.6539 10.7553 -2.6477 0.0747 0 7
-33.8234 10.2098 -2.6477 0.0747 0 7
-33.9840 9.6617 -2.6477 0.0747 0 7
-34.1358 9.1110 -2.6477 0.0747 0 7
-34.2786 8.5579 -2.6477 0.0747 0 7
-32.4318 7.5419 -2.4953 0.0747 0 8
-32.5494 7.0166 -2.4953 0.0747 0 8
-32.6586 6.4894 -2.4953 0.0747 0 8
-32.7593 5.9606 -2.4953 0.0747 0 8
-32.8513 5.4301 -2.4953 0.0747 0 8
-32.9348 4.8983 -2.4953 0.0747 0 8
-33.0097 4.3652 -2.4953 0.0747 0 8
-33.0760 3.8309 -2.4953 0.0747 0 8
-33.1336 3.2956 -2.4953 0.0747 0 8
-33.1826 2.7595 -2.4953 0.0747 0 8
-33.2228 2.2227 -2.4953 0.0747 0 8
-33.2544 1.6852 -2.4953 0.0747 0 8
-33.2773 1.1474 -2.4953 0.0747 0 8
-33.2916 0.6092 -2.4953 0.0747 0 8
-33.2971 0.0709 -2.4953 0.0747 0 8
-33.2938 -0.4675 -2.4953 0.0747 0 8
-33.2819 -1.0057 -2.4953 0.0747 0 8
-33.2613 -1.5437 -2.4953 0.0747 0 8
-33.2320 -2.0812 -2.4953 0.0747 0 8
-33.1940 -2.6182 -2.4953 0.0747 0 8
-33.1473 -3.1546 -2.4953 0.0747 0 8
-33.0920 -3.6901 -2.4953 0.0747 0 8
-33.0280 -4.2246 -2.4953 0.0747 0 8
-32.9554 -4.7581 -2.4953 0.0747 0 8
-32.8742 -5.2902 -2.4953 0.0747 0 8
-32.7844 -5.8211 -2.4953 0.0747 0 8
-32.6859 -6.3503 -2.4953 0.0747 0 8
-32.5790 -6.8780 -2.4953 0.0747 0 8
-32.4635 -7.4038 -2.4953 0.0747 0 8
-32.3396 -7.9277 -2.4953 0.0747 0 8
-32.2072 -8.4495 -2.4953 0.0747 0 8
-32.0664 -8.9691 -2.4953 0.0747 0 8
-31.9172 -9.4864 -2.4953 0.0747 0 8
-31.7597 -10.0012 -2.4953 0.0747 0 8
-31.5938 -10.5134 -2.4953 0.0747 0 8
-31.4197 -11.0222 -2.4953 0.0747 0 8
-31.2373 -11.5293 -2.4953 0.0747 0 8
-31.0469 -12.0328 -2.4953 0.0747 0 8
-15.2812 27.8691 -2.6477 0.0830 0 7
-15.7298 27.6184 -2.6477 0.0830 0 7
-16.1742 27.3605 -2.6477 0.0830 0 7
-16.6145 27.0954 -2.6477 0.0830 0 7
-17.0504 26.8233 -2.6477 0.0830 0 7
-17.4818 26.5441 -2.6477 0.0830 0 7
-17.9087 26.2580 -2.6477 0.0830 0 7
-18.3309 25.9650 -2.6477 0.0830 0 7
-18.7483 25.6652 -2.6477 0.0830 0 7
-19.1608 25.3588 -2.6477 0.0830 0 7
-19.5683 25.0457 -2.6477 0.0830 0 7
-19.9706 24.7260 -2.6477 0.0830 0 7
-20.3678 24.3999 -2.6477 0.0830 0 7
-20.7596 24.0674 -2.6477 0.0830 0 7
-21.1460 23.7286 -2.6477 0.0830 0 7
-20.3498 22.1050 -2.5029 0.0830 0 14
-20.7045 21.7731 -2.5029 0.0830 0 14
-21.0538 21.4355 -2.5029 0.0830 0 14
-21.3976 21.0923 -2.5029 0.0830 0 14
-21.7358 20.7436 -2.5029 0.0830 0 14
-22.0684 20.3895 -2.5029 0.0830 0 14
-22.3951 20.0300 -2.5029 0.0830 0 14
-22.7160 19.6653 -2.5029 0.0830 0 14
-23.0310 19.2955 -2.5029 0.0830 0 14
-23.3400 18.9206 -2.5029 0.0830 0 8
-24.0821 18.8853 -2.5494 0.6219 0 8
-24.8852 18.8733 -2.6018 0.6094 0 8
-25.6315 18.7944 -2.6477 0.0830 0 7
-25.9320 18.3775 -2.6477 0.0830 0 6
-26.2258 17.9559 -2.6477 0.0830 0 7
-26.5126 17.5295 -2.6477 0.0830 0 7
-26.7926 17.0986 -2.6477 0.0830 0 7
-27.0655 16.6632 -2.6477 0.0830 0 7
-27.3314 16.2234 -2.6477 0.0830 0 7
-27.5901 15.7794 -2.6477 0.0830 0 7
-27.8416 15.3313 -2.6477 0.0830 0 7
-28.0858 14.8791 -2.6477 0.0830 0 7
-28.3227 14.4231 -2.6477 0.0830 0 7
-28.5522 13.9633 -2.6477 0.0830 0 7
-28.7742 13.4998 -2.6477 0.0830 0 7
-28.9888 13.0328 -2.6477 0.0830 0 7
-29.1957 12.5625 -2.6477 0.0830 0 7
-29.3950 12.0888 -2.6477 0.0830 0 7
-29.5866 11.6120 -2.6477 0.0830 0 7
-29.7704 11.1321 -2.6477 0.0830 0 7
-29.9465 10.6493 -2.6477 0.0830 0 7
-30.1148 10.1638 -2.6477 0.0830 0 7
-30.2752 9.6756 -2.6477 0.0830 0 7
-30.4277 9.1848 -2.6477 0.0830 0 7
-28.8124 8.1914 -2.4953 0.0830 0 8
-28.9411 7.7245 -2.4953 0.0830 0 8
-29.0622 7.2556 -2.4953 0.0830 0 8
-29.1757 6.7848 -2.4953 0.0830 0 8
-29.2816 6.3122 -2.4953 0.0830 0 8
-29.3798 5.8379 -2.4953 0.0830 0 8
-29.4704 5.3621 -2.4953 0.0830 0 8
-29.5532 4.8850 -2.4953 0.0830 0 8
-29.6283 4.4065 -2.4953 0.0830 0 8
-29.6957 3.9269 -2.4953 0.0830 0 8
-29.7553 3.4463 -2.4953 0.0830 0 8
-29.8071 2.9648 -2.4953 0.0830 0 8
-29.8512 2.4825 -2.4953 0.0830 0 8
-29.8874 1.9995 -2.4953 0.0830 0 8
-29.9158 1.5161 -2.4953 0.0830 0 8
-29.9364 1.0322 -2.4953 0.0830 0 8
-29.9492 0.5481 -2.4953 0.0830 0 8
-29.9541 0.0638 -2.4953 0.0830 0 8
-29.9513 -0.4206 -2.4953 0.0830 0 8
-29.9406 -0.9047 -2.4953 0.0830 0 8
-29.9220 -1.3887 -2.4953 0.0830 0 8
-29.8956 -1.8723 -2.4953 0.0830 0 8
-29.8615 -2.3554 -2.4953 0.0830 0 8
-29.8195 -2.8379 -2.4953 0.0830 0 8
-29.7697 -3.3196 -2.4953 0.0830 0 8
-29.7122 -3.8005 -2.4953 0.0830 0 8
-29.6468 -4.2804 -2.4953 0.0830 0 8
-29.5737 -4.7591 -2.4953 0.0830 0 8
-29.4929 -5.2366 -2.4953 0.0830 0 8
-29.4044 -5.7128 -2.4953 0.0830 0 8
-29.3082 -6.1875 -2.4953 0.0830 0 8
-29.2043 -6.6605 -2.4953 0.0830 0 8
-29.0928 -7.1318 -2.4953 0.0830 0 8
-28.9737 -7.6012 -2.4953 0.0830 0 8
-28.8470 -8.0687 -2.4953 0.0830 0 8
-28.7128 -8.5340 -2.4953 0.0830 0 8
-28.5711 -8.9971 -2.4953 0.0830 0 8
-28.4219 -9.4579 -2.4953 0.0830 0 8
-28.2653 -9.9161 -2.4953 0.0830 0 8
-28.1013 -10.3718 -2.4953 0.0830 0 8
-27.9299 -10.8248 -2.4953 0.0830 0 8
-13.8852 25.3233 -2.6477 0.0913 0 7
-14.2929 25.0955 -2.6477 0.0913 0 7
-14.6967 24.8611 -2.6477 0.0913 0 7
-15.0968 24.6203 -2.6477 0.0913 0 7
-15.4928 24.3730 -2.6477 0.0913 0 7
-15.8849 24.1193 -2.6477 0.0913 0 7
-16.2727 23.8593 -2.6477 0.0913 0 7
-15.7456 22.3030 -2.5029 0.0913 0 8
-16.1041 22.0455 -2.5029 0.0913 0 14
-16.4584 21.7823 -2.5029 0.0913 0 14
-16.8084 21.5133 -2.5029 0.0913 0 14
-17.1541 21.2388 -2.5029 0.0913 0 14
-17.4952 20.9586 -2.5029 0.0913 0 14
-17.8318 20.6730 -2.5029 0.0913 0 14
-18.1637 20.3820 -2.5029 0.0913 0 14
-18.4908 20.0857 -2.5029 0.0913 0 14
-18.8131 19.7841 -2.5029 0.0913 0 14
-19.1305 19.4774 -2.5029 0.0913 0 14
-19.4430 19.1655 -2.5029 0.0913 0 14
-19.8088 18.9046 -2.5103 0.5521 0 8
-20.4506 18.8948 -2.5526 0.6831 0 8
-21.1146 18.8847 -2.5970 0.6714 0 8
-21.8021 18.8742 -2.6437 0.6596 0 8
-22.1377 18.5470 -2.6477 0.0913 0 7
-22.4347 18.1867 -2.6477 0.0913 0 7
-22.7258 17.8216 -2.6477 0.0913 0 7
-23.0109 17.4518 -2.6477 0.0913 0 7
-23.2901 17.0775 -2.6477 0.0913 0 7
-23.5631 16.6988 -2.6477 0.0913 0 7
-23.8300 16.3156 -2.6477 0.0913 0 7
-24.0907 15.9282 -2.6477 0.0913 0 7
-24.3451 15.5366 -2.6477 0.0913 0 7
-24.5931 15.1410 -2.6477 0.0913 0 7
-24.8347 14.7414 -2.6477 0.0913 0 7
-25.0698 14.3379 -2.6477 0.0913 0 7
-25.2983 13.9308 -2.6477 0.0913 0 7
-25.5202 13.5199 -2.6477 0.0913 0 7
-25.7355 13.1055 -2.6477 0.0913 0 7
-25.9440 12.6877 -2.6477 0.0913 0 7
-26.1457 12.2666 -2.6477 0.0913 0 7
-26.3406 11.8423 -2.6477 0.0913 0 7
-26.5287 11.4149 -2.6477 0.0913 0 6
-26.7097 10.9845 -2.6477 0.0913 0 7
-26.8838 10.5512 -2.6477 0.0913 0 7
-27.0509 10.1152 -2.6477 0.0913 0 7
-27.2109 9.6765 -2.6477 0.0913 0 7
-27.3638 9.2353 -2.6477 0.0913 0 7
-25.9261 8.2856 -2.4953 0.0913 0 8
-26.0567 7.8654 -2.4953 0.0913 0 8
-26.1804 7.4431 -2.4953 0.0913 0 8
-26.2973 7.0189 -2.4953 0.0913 0 8
-26.4074 6.5928 -2.4953 0.0913 0 8
-26.5105 6.1650 -2.4953 0.0913 0 8
-26.6067 5.7355 -2.4953 0.0913 0 8
-26.6960 5.3046 -2.4953 0.0913 0 8
-26.7783 4.8723 -2.4953 0.0913 0 8
-26.8535 4.4387 -2.4953 0.0913 0 8
-26.9218 4.0040 -2.4953 0.0913 0 8
-26.9830 3.5682 -2.4953 0.0913 0 8
-27.0372 3.1315 -2.4953 0.0913 0 8
-27.0843 2.6939 -2.4953 0.0913 0 8
-27.1243 2.2557 -2.4953 0.0913 0 8
-27.1572 1.8169 -2.4953 0.0913 0 8
-27.1830 1.3776 -2.4953 0.0913 0 8
-27.2018 0.9379 -2.4953 0.0913 0 8
-27.2134 0.4980 -2.4953 0.0913 0 8
-27.2179 0.0579 -2.4953 0.0913 0 8
-27.2152 -0.3821 -2.4953 0.0913 0 8
-27.2055 -0.8221 -2.4953 0.0913 0 8
-27.1887 -1.2618 -2.4953 0.0913 0 8
-27.1647 -1.7013 -2.4953 0.0913 0 8
-27.1336 -2.1402 -2.4953 0.0913 0 8
-27.0955 -2.5786 -2.4953 0.0913 0 8
-27.0503 -3.0164 -2.4953 0.0913 0 8
-26.9980 -3.4533 -2.4953 0.0913 0 8
-26.9386 -3.8894 -2.4953 0.0913 0 8
-26.8722 -4.3244 -2.4953 0.0913 0 8
-26.7988 -4.7583 -2.4953 0.0913 0 8
-26.7183 -5.1909 -2.4953 0.0913 0 8
-26.6309 -5.6222 -2.4953 0.0913 0 8
-26.5365 -6.0521 -2.4953 0.0913 0 8
-26.4352 -6.4803 -2.4953 0.0913 0 8
-26.3270 -6.9068 -2.4953 0.0913 0 8
-26.2119 -7.3316 -2.4953 0.0913 0 8
-26.0899 -7.7544 -2.4953 0.0913 0 8
-25.9611 -8.1752 -2.4953 0.0913 0 8
-25.8256 -8.5939 -2.4953 0.0913 0 8
-25.6832 -9.0103 -2.4953 0.0913 0 8
-25.5342 -9.4244 -2.4953 0.0913 0 8
-25.3785 -9.8360 -2.4953 0.0913 0 8
-12.0258 21.9320 -2.5029 0.0996 0 14
-12.3788 21.7347 -2.5029 0.0996 0 14
-12.7286 21.5318 -2.5029 0.0996 0 14
-13.0750 21.3232 -2.5029 0.0996 0 14
-13.4181 21.1090 -2.5029 0.0996 0 14
-13.7576 20.8893 -2.5029 0.0996 0 14
-14.0935 20.6641 -2.5029 0.0996 0 14
-14.4258 20.4336 -2.5029 0.0996 0 14
-14.7543 20.1976 -2.5029 0.0996 0 14
-15.0789 19.9565 -2.5029 0.0996 0 14
-15.3995 19.7101 -2.5029 0.0996 0 14
-15.7162 19.4585 -2.5029 0.0996 0 14
-16.0287 19.2019 -2.5029 0.0996 0 14
-16.3371 18.9402 -2.5029 0.0996 0 8
-16.8502 18.9082 -2.5343 0.7504 0 8
-17.3992 18.8999 -2.5706 0.7398 0 8
-17.9641 18.8913 -2.6086 0.7290 0 8
-18.5409 18.8770 -2.6477 0.0996 0 7
-18.8437 18.5748 -2.6477 0.0996 0 7
-19.1415 18.2677 -2.6477 0.0996 0 7
-19.4344 17.9558 -2.6477 0.0996 0 7
-19.7221 17.6393 -2.6477 0.0996 0 7
-20.0047 17.3181 -2.6477 0.0996 0 7
-20.2821 16.9924 -2.6477 0.0996 0 7
-20.5542 16.6623 -2.6477 0.0996 0 7
-20.8209 16.3278 -2.6477 0.0996 0 7
-21.0821 15.9890 -2.6477 0.0996 0 7
-21.3379 15.6461 -2.6477 0.0996 0 7
-21.5881 15.2991 -2.6477 0.0996 0 7
-21.8326 14.9480 -2.6477 0.0996 0 7
-22.0714 14.5931 -2.6477 0.0996 0 7
-22.3045 14.2343 -2.6477 0.0996 0 7
-22.5317 13.8719 -2.6477 0.0996 0 7
-22.7530 13.5058 -2.6477 0.0996 0 7
-22.9684 13.1361 -2.6477 0.0996 0 7
-23.1778 12.7631 -2.6477 0.0996 0 7
-23.3811 12.3867 -2.6477 0.0996 0 7
-23.5783 12.0070 -2.6477 0.0996 0 7
-23.7694 11.6243 -2.6477 0.0996 0 7
-23.9542 11.2384 -2.6477 0.0996 0 7
-24.1328 10.8497 -2.6477 0.0996 0 7
-24.3050 10.4581 -2.6477 0.0996 0 7
-24.4709 10.0638 -2.6477 0.0996 0 7
-24.6304 9.6668 -2.6477 0.0996 0 7
-24.7835 9.2673 -2.6477 0.0996 0 7
-23.4951 8.3551 -2.4953 0.0996 0 8
-23.6271 7.9742 -2.4953 0.0996 0 8
-23.7530 7.5911 -2.4953 0.0996 0 8
-23.8726 7.2061 -2.4953 0.0996 0 8
-23.9860 6.8192 -2.4953 0.0996 0 8
-24.0931 6.4305 -2.4953 0.0996 0 8
-24.1939 6.0402 -2.4953 0.0996 0 8
-24.2884 5.6482 -2.4953 0.0996 0 8
-24.3766 5.2548 -2.4953 0.0996 0 8
-24.4583 4.8600 -2.4953 0.0996 0 8
-24.5337 4.4639 -2.4953 0.0996 0 8
-24.6027 4.0667 -2.4953 0.0996 0 8
-24.6652 3.6684 -2.4953 0.0996 0 8
-24.7213 3.2691 -2.4953 0.0996 0 8
-24.7709 2.8690 -2.4953 0.0996 0 8
-24.8141 2.4681 -2.4953 0.0996 0 8
-24.8507 2.0666 -2.4953 0.0996 0 8
-24.8809 1.6646 -2.4953 0.0996 0 8
-24.9045 1.2621 -2.4953 0.0996 0 8
-24.9217 0.8593 -2.4953 0.0996 0 8
-24.9323 0.4562 -2.4953 0.0996 0 8
-24.9364 0.0531 -2.4953 0.0996 0 8
-24.9340 -0.3501 -2.4953 0.0996 0 8
-24.9251 -0.7532 -2.4953 0.0996 0 8
-24.9097 -1.1561 -2.4953 0.0996 0 8
-24.8877 -1.5587 -2.4953 0.0996 0 8
-24.8593 -1.9608 -2.4953 0.0996 0 8
-24.8243 -2.3625 -2.4953 0.0996 0 8
-24.7829 -2.7635 -2.4953 0.0996 0 8
-24.7350 -3.1639 -2.4953 0.0996 0 8
-24.6806 -3.5633 -2.4953 0.0996 0 8
-24.6198 -3.9619 -2.4953 0.0996 0 8
-24.5525 -4.3594 -2.4953 0.0996 0 8
-24.4788 -4.7558 -2.4953 0.0996 0 8
-24.3987 -5.1510 -2.4953 0.0996 0 8
-24.3122 -5.5448 -2.4953 0.0996 0 8
-24.2194 -5.9371 -2.4953 0.0996 0 8
-24.1203 -6.3279 -2.4953 0.0996 0 8
-24.0148 -6.7171 -2.4953 0.0996 0 8
-23.9030 -7.1044 -2.4953 0.0996 0 8
-23.7851 -7.4900 -2.4953 0.0996 0 8
-23.6609 -7.8735 -2.4953 0.0996 0 8
-23.5305 -8.2551 -2.4953 0.0996 0 8
-23.3939 -8.6344 -2.4953 0.0996 0 8
-23.2513 -9.0115 -2.4953 0.0996 0 8
-11.0943 20.2332 -2.5029 0.1078 0 14
-11.4199 20.0512 -2.5029 0.1078 0 14
-11.7426 19.8639 -2.5029 0.1078 0 14
-12.0622 19.6715 -2.5029 0.1078 0 14
-12.3787 19.4739 -2.5029 0.1078 0 14
-12.6919 19.2712 -2.5029 0.1078 0 14
-13.0019 19.0635 -2.5029 0.1078 0 8
-13.3586 18.9219 -2.5123 0.8198 0 8
-13.8176 18.9154 -2.5408 0.8106 0 8
-14.2871 18.9086 -2.5706 0.8012 0 8
-14.7678 18.9015 -2.6017 0.7916 0 8
-15.2603 18.8941 -2.6343 0.7818 0 8
-15.6425 18.7392 -2.6477 0.1078 0 7
-15.9435 18.4839 -2.6477 0.1078 0 7
-16.2402 18.2237 -2.6477 0.1078 0 7
-16.5327 17.9587 -2.6477 0.1078 0 7
-16.8209 17.6891 -2.6477 0.1078 0 7
-17.1047 17.4148 -2.6477 0.1078 0 7
-17.3841 17.1360 -2.6477 0.1078 0 7
-17.6588 16.8527 -2.6477 0.1078 0 7
-17.9290 16.5650 -2.6477 0.1078 0 7
-18.1945 16.2730 -2.6477 0.1078 0 7
-18.4552 15.9767 -2.6477 0.1078 0 7
-18.7111 15.6762 -2.6477 0.1078 0 7
-18.9621 15.3716 -2.6477 0.1078 0 7
-19.2081 15.0631 -2.6477 0.1078 0 7
-19.4492 14.7505 -2.6477 0.1078 0 7
-19.6851 14.4342 -2.6477 0.1078 0 7
-19.9159 14.1140 -2.6477 0.1078 0 7
-20.1415 13.7902 -2.6477 0.1078 0 7
-20.3618 13.4627 -2.6477 0.1078 0 7
-20.5768 13.1318 -2.6477 0.1078 0 7
-20.7864 12.7974 -2.6477 0.1078 0 7
-20.9906 12.4596 -2.6477 0.1078 0 7
-21.1893 12.1186 -2.6477 0.1078 0 7
-21.3825 11.7745 -2.6477 0.1078 0 7
-21.5701 11.4272 -2.6477 0.1078 0 6
-21.7520 11.0770 -2.6477 0.1078 0 7
-21.9282 10.7239 -2.6477 0.1078 0 7
-22.0987 10.3679 -2.6477 0.1078 0 7
-22.2635 10.0093 -2.6477 0.1078 0 7
-22.4224 9.6480 -2.6477 0.1078 0 7
-22.5754 9.2843 -2.6477 0.1078 0 7
-22.7226 8.9180 -2.6477 0.1078 0 7
-21.5478 8.0574 -2.4953 0.1078 0 8
-21.6752 7.7080 -2.4953 0.1078 0 8
-21.7970 7.3565 -2.4953 0.1078 0 8
-21.9131 7.0031 -2.4953 0.1078 0 8
-22.0235 6.6479 -2.4953 0.1078 0 8
-22.1281 6.2910 -2.4953 0.1078 0 8
-22.2269 5.9324 -2.4953 0.1078 0 8
-22.3199 5.5723 -2.4953 0.1078 0 8
-22.4071 5.2107 -2.4953 0.1078 0 8
-22.4884 4.8478 -2.4953 0.1078 0 8
-22.5638 4.4835 -2.4953 0.1078 0 8
-22.6334 4.1182 -2.4953 0.1078 0 8
-22.6970 3.7517 -2.4953 0.1078 0 8
-22.7547 3.3842 -2.4953 0.1078 0 8
-22.8064 3.0159 -2.4953 0.1078 0 8
-22.8522 2.6468 -2.4953 0.1078 0 8
-22.8920 2.2770 -2.4953 0.1078 0 8
-22.9258 1.9065 -2.4953 0.1078 0 8
-22.9536 1.5356 -2.4953 0.1078 0 8
-22.9755 1.1643 -2.4953 0.1078 0 8
-22.9913 0.7927 -2.4953 0.1078 0 8
-23.0011 0.4209 -2.4953 0.1078 0 8
-23.0049 0.0490 -2.4953 0.1078 0 8
-23.0027 -0.3230 -2.4953 0.1078 0 8
-22.9945 -0.6948 -2.4953 0.1078 0 8
-22.9802 -1.0665 -2.4953 0.1078 0 8
-22.9600 -1.4379 -2.4953 0.1078 0 8
-22.9337 -1.8089 -2.4953 0.1078 0 8
-22.9015 -2.1795 -2.4953 0.1078 0 8
-22.8632 -2.5495 -2.4953 0.1078 0 8
-22.8190 -2.9188 -2.4953 0.1078 0 8
-22.7689 -3.2873 -2.4953 0.1078 0 8
-22.7127 -3.6550 -2.4953 0.1078 0 8
-22.6507 -4.0218 -2.4953 0.1078 0 8
-22.5827 -4.3875 -2.4953 0.1078 0 8
-22.5088 -4.7520 -2.4953 0.1078 0 8
-22.4290 -5.1153 -2.4953 0.1078 0 8
-22.3434 -5.4773 -2.4953 0.1078 0 8
-22.2519 -5.8378 -2.4953 0.1078 0 8
-22.1546 -6.1968 -2.4953 0.1078 0 8
-22.0516 -6.5541 -2.4953 0.1078 0 8
-21.9427 -6.9098 -2.4953 0.1078 0 8
-21.8281 -7.2637 -2.4953 0.1078 0 8
-21.7078 -7.6156 -2.4953 0.1078 0 8
-21.5819 -7.9656 -2.4953 0.1078 0 8
-21.4503 -8.3135 -2.4953 0.1078 0 8
-10.3787 18.9282 -2.5231 0.8788 0 8
-10.7774 18.9230 -2.5454 0.8711 0 8
-11.1832 18.9176 -2.5686 0.8632 0 8
-11.5965 18.9119 -2.5930 0.8551 0 8
-12.0177 18.9060 -2.6185 0.8468 0 8
-12.4474 18.8999 -2.6451 0.8383 0 8
-12.7635 18.7141 -2.6477 0.1161 0 7
-13.0644 18.5053 -2.6477 0.1161 0 7
-13.3619 18.2916 -2.6477 0.1161 0 7
-13.6559 18.0732 -2.6477 0.1161 0 7
-13.9463 17.8501 -2.6477 0.1161 0 7
-14.2331 17.6223 -2.6477 0.1161 0 7
-14.5161 17.3898 -2.6477 0.1161 0 7
-14.7954 17.1529 -2.6477 0.1161 0 7
-15.0708 16.9114 -2.6477 0.1161 0 7
-15.3422 16.6656 -2.6477 0.1161 0 7
-15.6097 16.4153 -2.6477 0.1161 0 7
-15.8730 16.1608 -2.6477 0.1161 0 7
-16.1323 15.9021 -2.6477 0.1161 0 7
-16.3872 15.6392 -2.6477 0.1161 0 7
-16.6380 15.3722 -2.6477 0.1161 0 7
-16.8843 15.1012 -2.6477 0.1161 0 7
-17.1262 14.8262 -2.6477 0.1161 0 7
-17.3637 14.5474 -2.6477 0.1161 0 7
-17.5966 14.2647 -2.6477 0.1161 0 7
-17.8250 13.9784 -2.6477 0.1161 0 7
-18.0486 13.6884 -2.6477 0.1161 0 7
-18.2676 13.3948 -2.6477 0.1161 0 7
-18.4818 13.0977 -2.6477 0.1161 0 7
-18.6911 12.7972 -2.6477 0.1161 0 7
-18.8956 12.4933 -2.6477 0.1161 0 7
-19.0951 12.1862 -2.6477 0.1161 0 7
-19.2896 11.8759 -2.6477 0.1161 0 7
-19.4791 11.5624 -2.6477 0.1161 0 7
-19.6635 11.2460 -2.6477 0.1161 0 7
-19.8428 10.9266 -2.6477 0.1161 0 7
-20.0168 10.6044 -2.6477 0.1161 0 7
-20.1856 10.2793 -2.6477 0.1161 0 7
-20.3492 9.9516 -2.6477 0.1161 0 7
-20.5074 9.6213 -2.6477 0.1161 0 7
-20.6603 9.2885 -2.6477 0.1161 0 7
-20.8078 8.9533 -2.6477 0.1161 0 7
-19.7440 8.1198 -2.4953 0.1161 0 8
-19.8727 7.7995 -2.4953 0.1161 0 8
-19.9961 7.4772 -2.4953 0.1161 0 8
-20.1144 7.1529 -2.4953 0.1161 0 8
-20.2274 6.8268 -2.4953 0.1161 0 8
-20.3352 6.4989 -2.4953 0.1161 0 8
-20.4376 6.1692 -2.4953 0.1161 0 8
-20.5346 5.8380 -2.4953 0.1161 0 8
-20.6264 5.5053 -2.4953 0.1161 0 8
-20.7127 5.1711 -2.4953 0.1161 0 8
-20.7936 4.8355 -2.4953 0.1161 0 8
-20.8690 4.4987 -2.4953 0.1161 0 8
-20.9390 4.1607 -2.4953 0.1161 0 8
-21.0036 3.8216 -2.4953 0.1161 0 8
-21.0626 3.4815 -2.4953 0.1161 0 8
-21.1161 3.1405 -2.4953 0.1161 0 8
-21.1641 2.7987 -2.4953 0.1161 0 8
-21.2066 2.4562 -2.4953 0.1161 0 8
-21.2436 2.1130 -2.4953 0.1161 0 8
-21.2750 1.7693 -2.4953 0.1161 0 8
-21.3008 1.4251 -2.4953 0.1161 0 8
-21.3210 1.0805 -2.4953 0.1161 0 8
-21.3357 0.7356 -2.4953 0.1161 0 8
-21.3448 0.3906 -2.4953 0.1161 0 8
-21.3484 0.0454 -2.4953 0.1161 0 8
-21.3463 -0.2997 -2.4953 0.1161 0 8
-21.3387 -0.6448 -2.4953 0.1161 0 8
-21.3254 -0.9897 -2.4953 0.1161 0 8
-21.3067 -1.3344 -2.4953 0.1161 0 8
-21.2823 -1.6787 -2.4953 0.1161 0 8
-21.2524 -2.0226 -2.4953 0.1161 0 8
-21.2169 -2.3659 -2.4953 0.1161 0 8
-21.1759 -2.7086 -2.4953 0.1161 0 8
-21.1293 -3.0506 -2.4953 0.1161 0 8
-21.0772 -3.3918 -2.4953 0.1161 0 8
-21.0197 -3.7322 -2.4953 0.1161 0 8
-20.9566 -4.0715 -2.4953 0.1161 0 8
-20.8880 -4.4098 -2.4953 0.1161 0 8
-20.8140 -4.7469 -2.4953 0.1161 0 8
-20.7345 -5.0828 -2.4953 0.1161 0 8
-20.6496 -5.4174 -2.4953 0.1161 0 8
-20.5593 -5.7505 -2.4953 0.1161 0 8
-20.4637 -6.0822 -2.4953 0.1161 0 8
-20.3627 -6.4122 -2.4953 0.1161 0 8
-20.2563 -6.7406 -2.4953 0.1161 0 8
-20.1447 -7.0672 -2.4953 0.1161 0 8
-20.0278 -7.3920 -2.4953 0.1161 0 8
-19.9057 -7.7148 -2.4953 0.1161 0 8
-10.1580 18.5257 -2.6477 0.1243 0 7
-10.4560 18.3591 -2.6477 0.1243 0 6
-10.7517 18.1876 -2.6477 0.1243 0 7
-11.0443 18.0114 -2.6477 0.1243 0 7
-11.3341 17.8305 -2.6477 0.1243 0 7
-11.6209 17.6449 -2.6477 0.1243 0 7
-11.9046 17.4548 -2.6477 0.1243 0 7
-12.1853 17.2600 -2.6477 0.1243 0 7
-12.4628 17.0607 -2.6477 0.1243 0 7
-12.7369 16.8570 -2.6477 0.1243 0 7
-13.0078 16.6489 -2.6477 0.1243 0 7
-13.2753 16.4364 -2.6477 0.1243 0 7
-13.5393 16.2196 -2.6477 0.1243 0 7
-13.7998 15.9986 -2.6477 0.1243 0 7
-14.0566 15.7734 -2.6477 0.1243 0 7
-14.3098 15.5441 -2.6477 0.1243 0 7
-14.5592 15.3107 -2.6477 0.1243 0 7
-14.8049 15.0733 -2.6477 0.1243 0 7
-15.0467 14.8320 -2.6477 0.1243 0 6
-15.2845 14.5867 -2.6477 0.1243 0 7
-15.5183 14.3377 -2.6477 0.1243 0 7
-15.7481 14.0850 -2.6477 0.1243 0 7
-15.9738 13.8285 -2.6477 0.1243 0 7
-16.1953 13.5684 -2.6477 0.1243 0 7
-16.4125 13.3048 -2.6477 0.1243 0 7
-16.6255 13.0377 -2.6477 0.1243 0 7
-16.8341 12.7672 -2.6477 0.1243 0 7
-17.0383 12.4934 -2.6477 0.1243 0 7
-17.2381 12.2163 -2.6477 0.1243 0 7
-17.4333 11.9360 -2.6477 0.1243 0 7
-17.6240 11.6526 -2.6477 0.1243 0 7
-17.8101 11.3661 -2.6477 0.1243 0 6
-17.9915 11.0767 -2.6477 0.1243 0 7
-18.1683 10.7844 -2.6477 0.1243 0 7
-18.3403 10.4892 -2.6477 0.1243 0 7
-18.5075 10.1913 -2.6477 0.1243 0 7
-18.6698 9.8908 -2.6477 0.1243 0 7
-18.8273 9.5876 -2.6477 0.1243 0 7
-18.9798 9.2820 -2.6477 0.1243 0 7
-19.1274 8.9739 -2.6477 0.1243 0 7
-18.1608 8.1648 -2.4953 0.1243 0 8
-18.2905 7.8701 -2.4953 0.1243 0 8
-18.4153 7.5734 -2.4953 0.1243 0 8
-18.5353 7.2747 -2.4953 0.1243 0 8
-18.6505 6.9740 -2.4953 0.1243 0 8
-18.7609 6.6716 -2.4953 0.1243 0 8
-18.8663 6.3674 -2.4953 0.1243 0 8
-18.9667 6.0615 -2.4953 0.1243 0 8
-19.0623 5.7541 -2.4953 0.1243 0 8
-19.1528 5.4451 -2.4953 0.1243 0 8
-19.2383 5.1348 -2.4953 0.1243 0 8
-19.3188 4.8231 -2.4953 0.1243 0 8
-19.3943 4.5101 -2.4953 0.1243 0 8
-19.4647 4.1959 -2.4953 0.1243 0 8
-19.5300 3.8807 -2.4953 0.1243 0 8
-19.5902 3.5644 -2.4953 0.1243 0 8
-19.6452 3.2472 -2.4953 0.1243 0 8
-19.6952 2.9292 -2.4953 0.1243 0 8
-19.7399 2.6104 -2.4953 0.1243 0 8
-19.7796 2.2909 -2.4953 0.1243 0 8
-19.8140 1.9708 -2.4953 0.1243 0 8
-19.8433 1.6502 -2.4953 0.1243 0 8
-19.8674 1.3292 -2.4953 0.1243 0 8
-19.8863 1.0078 -2.4953 0.1243 0 8
-19.9000 0.6861 -2.4953 0.1243 0 8
-19.9085 0.3643 -2.4953 0.1243 0 8
-19.9117 0.0424 -2.4953 0.1243 0 8
-19.9098 -0.2796 -2.4953 0.1243 0 8
-19.9027 -0.6014 -2.4953 0.1243 0 8
-19.8904 -0.9231 -2.4953 0.1243 0 8
-19.8729 -1.2446 -2.4953 0.1243 0 8
-19.8501 -1.5657 -2.4953 0.1243 0 8
-19.8222 -1.8864 -2.4953 0.1243 0 8
-19.7891 -2.2067 -2.4953 0.1243 0 8
-19.7509 -2.5263 -2.4953 0.1243 0 8
-19.7075 -2.8453 -2.4953 0.1243 0 8
-19.6589 -3.1636 -2.4953 0.1243 0 8
-19.6052 -3.4810 -2.4953 0.1243 0 8
-19.5463 -3.7975 -2.4953 0.1243 0 8
-19.4824 -4.1131 -2.4953 0.1243 0 8
-19.4133 -4.4275 -2.4953 0.1243 0 8
-19.3392 -4.7408 -2.4953 0.1243 0 8
-19.2600 -5.0528 -2.4953 0.1243 0 8
-19.1758 -5.3636 -2.4953 0.1243 0 8
-19.0866 -5.6729 -2.4953 0.1243 0 8
-18.9924 -5.9807 -2.4953 0.1243 0 8
-18.8932 -6.2870 -2.4953 0.1243 0 8
-18.7891 -6.5917 -2.4953 0.1243 0 8
-18.6801 -6.8946 -2.4953 0.1243 0 8
-18.5661 -7.1957 -2.4953 0.1243 0 8
-9.5163 17.3554 -2.6477 0.1326 0 7
-9.7957 17.1993 -2.6477 0.1326 0 7
-10.0724 17.0386 -2.6477 0.1326 0 7
-10.3466 16.8736 -2.6477 0.1326 0 7
-10.6181 16.7041 -2.6477 0.1326 0 7
-10.8867 16.5302 -2.6477 0.1326 0 7
-11.1526 16.3521 -2.6477 0.1326 0 7
-11.4155 16.1696 -2.6477 0.1326 0 7
-11.6754 15.9829 -2.6477 0.1326 0 7
-11.9323 15.7921 -2.6477 0.1326 0 7
-12.1861 15.5971 -2.6477 0.1326 0 7
-12.4367 15.3981 -2.6477 0.1326 0 7
-12.6840 15.1950 -2.6477 0.1326 0 7
-12.9280 14.9879 -2.6477 0.1326 0 7
-13.1686 14.7769 -2.6477 0.1326 0 7
-13.4058 14.5621 -2.6477 0.1326 0 7
-13.6395 14.3434 -2.6477 0.1326 0 7
-13.8696 14.1210 -2.6477 0.1326 0 7
-14.0961 13.8950 -2.6477 0.1326 0 7
-14.3189 13.6652 -2.6477 0.1326 0 7
-14.5380 13.4320 -2.6477 0.1326 0 7
-14.7532 13.1951 -2.6477 0.1326 0 7
-14.9646 12.9549 -2.6477 0.1326 0 7
-15.1721 12.7113 -2.6477 0.1326 0 7
-15.3757 12.4643 -2.6477 0.1326 0 7
-15.5752 12.2141 -2.6477 0.1326 0 7
-15.7706 11.9607 -2.6477 0.1326 0 7
-15.9619 11.7041 -2.6477 0.1326 0 7
-16.1491 11.4445 -2.6477 0.1326 0 6
-16.3320 11.1819 -2.6477 0.1326 0 7
-16.5106 10.9164 -2.6477 0.1326 0 7
-16.6850 10.6481 -2.6477 0.1326 0 7
-16.8549 10.3769 -2.6477 0.1326 0 7
-17.0205 10.1031 -2.6477 0.1326 0 7
-17.1816 9.8266 -2.6477 0.1326 0 7
-17.3383 9.5475 -2.6477 0.1326 0 7
-17.4904 9.2659 -2.6477 0.1326 0 7
-17.6379 8.9819 -2.6477 0.1326 0 7
-16.7573 8.1951 -2.4953 0.1326 0 8
-16.8876 7.9231 -2.4953 0.1326 0 8
-17.0135 7.6490 -2.4953 0.1326 0 8
-17.1350 7.3729 -2.4953 0.1326 0 8
-17.2519 7.0949 -2.4953 0.1326 0 8
-17.3644 6.8151 -2.4953 0.1326 0 8
-17.4723 6.5334 -2.4953 0.1326 0 8
-17.5757 6.2501 -2.4953 0.1326 0 8
-17.6744 5.9651 -2.4953 0.1326 0 8
-17.7685 5.6786 -2.4953 0.1326 0 8
-17.8580 5.3906 -2.4953 0.1326 0 8
-17.9428 5.1012 -2.4953 0.1326 0 8
-18.0230 4.8104 -2.4953 0.1326 0 8
-18.0984 4.5184 -2.4953 0.1326 0 8
-18.1691 4.2252 -2.4953 0.1326 0 8
-18.2350 3.9309 -2.4953 0.1326 0 8
-18.2962 3.6355 -2.4953 0.1326 0 8
-18.3526 3.3393 -2.4953 0.1326 0 8
-18.4042 3.0421 -2.4953 0.1326 0 8
-18.4509 2.7441 -2.4953 0.1326 0 8
-18.4929 2.4455 -2.4953 0.1326 0 8
-18.5300 2.1462 -2.4953 0.1326 0 8
-18.5623 1.8463 -2.4953 0.1326 0 8
-18.5897 1.5459 -2.4953 0.1326 0 8
-18.6123 1.2452 -2.4953 0.1326 0 8
-18.6299 0.9441 -2.4953 0.1326 0 8
-18.6428 0.6428 -2.4953 0.1326 0 8
-18.6508 0.3413 -2.4953 0.1326 0 8
-18.6539 0.0397 -2.4953 0.1326 0 8
-18.6521 -0.2619 -2.4953 0.1326 0 8
-18.6454 -0.5634 -2.4953 0.1326 0 8
-18.6338 -0.8648 -2.4953 0.1326 0 8
-18.6174 -1.1660 -2.4953 0.1326 0 8
-18.5961 -1.4668 -2.4953 0.1326 0 8
-18.5700 -1.7673 -2.4953 0.1326 0 8
-18.5390 -2.0673 -2.4953 0.1326 0 8
-18.5031 -2.3667 -2.4953 0.1326 0 8
-18.4625 -2.6656 -2.4953 0.1326 0 8
-18.4169 -2.9637 -2.4953 0.1326 0 8
-18.3666 -3.2611 -2.4953 0.1326 0 8
-18.3115 -3.5576 -2.4953 0.1326 0 8
-18.2516 -3.8532 -2.4953 0.1326 0 8
-18.1869 -4.1478 -2.4953 0.1326 0 8
-18.1174 -4.4413 -2.4953 0.1326 0 8
-18.0433 -4.7336 -2.4953 0.1326 0 8
-17.9644 -5.0247 -2.4953 0.1326 0 8
-17.8808 -5.3145 -2.4953 0.1326 0 8
-17.7926 -5.6029 -2.4953 0.1326 0 8
-17.6996 -5.8899 -2.4953 0.1326 0 8
-17.6021 -6.1752 -2.4953 0.1326 0 8
-17.5000 -6.4590 -2.4953 0.1326 0 8
-17.3932 -6.7411 -2.4953 0.1326 0 8
-8.9496 16.3220 -2.6477 0.1408 0 7
-9.2124 16.1751 -2.6477 0.1408 0 7
-9.4727 16.0241 -2.6477 0.1408 0 7
-9.7305 15.8688 -2.6477 0.1408 0 7
-9.9858 15.7094 -2.6477 0.1408 0 7
-10.2385 15.5459 -2.6477 0.1408 0 7
-10.4885 15.3784 -2.6477 0.1408 0 7
-10.7358 15.2068 -2.6477 0.1408 0 7
-10.9802 15.0312 -2.6477 0.1408 0 7
-11.2218 14.8517 -2.6477 0.1408 0 7
-11.4604 14.6684 -2.6477 0.1408 0 7
-11.6961 14.4812 -2.6477 0.1408 0 7
-11.9287 14.2902 -2.6477 0.1408 0 7
-12.1582 14.0954 -2.6477 0.1408 0 7
-12.3845 13.8970 -2.6477 0.1408 0 7
-12.6075 13.6950 -2.6477 0.1408 0 7
-12.8273 13.4894 -2.6477 0.1408 0 7
-13.0437 13.2802 -2.6477 0.1408 0 7
-13.2567 13.0676 -2.6477 0.1408 0 7
-13.4663 12.8515 -2.6477 0.1408 0 7
-13.6723 12.6321 -2.6477 0.1408 0 7
-13.8747 12.4094 -2.6477 0.1408 0 7
-14.0735 12.1835 -2.6477 0.1408 0 7
-14.2687 11.9544 -2.6477 0.1408 0 7
-14.4601 11.7221 -2.6477 0.1408 0 7
-14.6477 11.4868 -2.6477 0.1408 0 7
-14.8315 11.2485 -2.6477 0.1408 0 7
-15.0115 11.0072 -2.6477 0.1408 0 7
-15.1875 10.7631 -2.6477 0.1408 0 7
-15.3595 10.5161 -2.6477 0.1408 0 7
-15.5275 10.2664 -2.6477 0.1408 0 7
-15.6915 10.0140 -2.6477 0.1408 0 7
-15.8513 9.7590 -2.6477 0.1408 0 7
-16.0070 9.5015 -2.6477 0.1408 0 7
-16.1585 9.2414 -2.6477 0.1408 0 7
-16.3058 8.9790 -2.6477 0.1408 0 7
-15.5021 8.2126 -2.4953 0.1408 0 8
-15.6328 7.9609 -2.4953 0.1408 0 8
-15.7595 7.7071 -2.4953 0.1408 0 8
-15.8821 7.4513 -2.4953 0.1408 0 8
-16.0004 7.1935 -2.4953 0.1408 0 8
-16.1147 6.9339 -2.4953 0.1408 0 8
-16.2247 6.6725 -2.4953 0.1408 0 8
-16.3304 6.4093 -2.4953 0.1408 0 8
-16.4319 6.1444 -2.4953 0.1408 0 8
-16.5291 5.8779 -2.4953 0.1408 0 8
-16.6220 5.6099 -2.4953 0.1408 0 8
-16.7105 5.3405 -2.4953 0.1408 0 8
-16.7947 5.0696 -2.4953 0.1408 0 8
-16.8744 4.7974 -2.4953 0.1408 0 8
-16.9498 4.5240 -2.4953 0.1408 0 8
-17.0207 4.2493 -2.4953 0.1408 0 8
-17.0872 3.9736 -2.4953 0.1408 0 8
-17.1492 3.6968 -2.4953 0.1408 0 8
-17.2067 3.4191 -2.4953 0.1408 0 8
-17.2598 3.1404 -2.4953 0.1408 0 8
-17.3083 2.8610 -2.4953 0.1408 0 8
-17.3523 2.5807 -2.4953 0.1408 0 8
-17.3917 2.2999 -2.4953 0.1408 0 8
-17.4266 2.0184 -2.4953 0.1408 0 8
-17.4570 1.7364 -2.4953 0.1408 0 8
-17.4828 1.4539 -2.4953 0.1408 0 8
-17.5040 1.1711 -2.4953 0.1408 0 8
-17.5206 0.8879 -2.4953 0.1408 0 8
-17.5327 0.6045 -2.4953 0.1408 0 8
-17.5402 0.3210 -2.4953 0.1408 0 8
-17.5431 0.0373 -2.4953 0.1408 0 8
-17.5414 -0.2463 -2.4953 0.1408 0 8
-17.5351 -0.5299 -2.4953 0.1408 0 8
-17.5243 -0.8133 -2.4953 0.1408 0 8
-17.5088 -1.0965 -2.4953 0.1408 0 8
-17.4888 -1.3795 -2.4953 0.1408 0 8
-17.4642 -1.6620 -2.4953 0.1408 0 8
-17.4351 -1.9442 -2.4953 0.1408 0 8
-17.4014 -2.2258 -2.4953 0.1408 0 8
-17.3631 -2.5069 -2.4953 0.1408 0 8
-17.3203 -2.7873 -2.4953 0.1408 0 8
-17.2730 -3.0669 -2.4953 0.1408 0 8
-17.2211 -3.3458 -2.4953 0.1408 0 8
-17.1648 -3.6238 -2.4953 0.1408 0 8
-17.1039 -3.9008 -2.4953 0.1408 0 8
-17.0386 -4.1768 -2.4953 0.1408 0 8
-16.9689 -4.4518 -2.4953 0.1408 0 8
-16.8946 -4.7258 -2.4953 0.1408 0 8
-16.8161 -4.9981 -2.4953 0.1408 0 8
-16.7331 -5.2693 -2.4953 0.1408 0 8
-16.6457 -5.5391 -2.4953 0.1408 0 8
-16.5540 -5.8075 -2.4953 0.1408 0 8
-16.4579 -6.0744 -2.4953 0.1408 0 8
-16.3575 -6.3397 -2.4953 0.1408 0 8
-8.4456 15.4027 -2.6477 0.1490 0 7
-8.6935 15.2641 -2.6477 0.1490 0 7
-8.9391 15.1215 -2.6477 0.1490 0 7
-9.1825 14.9750 -2.6477 0.1490 0 7
-9.4234 14.8246 -2.6477 0.1490 0 7
-9.6618 14.6703 -2.6477 0.1490 0 7
-9.8977 14.5122 -2.6477 0.1490 0 7
-10.1311 14.3503 -2.6477 0.1490 0 7
-10.3618 14.1846 -2.6477 0.1490 0 7
-10.5897 14.0152 -2.6477 0.1490 0 7
-10.8149 13.8422 -2.6477 0.1490 0 7
-11.0373 13.6655 -2.6477 0.1490 0 7
-11.2568 13.4853 -2.6477 0.1490 0 7
-11.4734 13.3015 -2.6477 0.1490 0 7
-11.6869 13.1143 -2.6477 0.1490 0 7
-11.8974 12.9236 -2.6477 0.1490 0 7
-12.1048 12.7296 -2.6477 0.1490 0 7
-12.3091 12.5322 -2.6477 0.1490 0 7
-12.5101 12.3316 -2.6477 0.1490 0 7
-12.7078 12.1277 -2.6477 0.1490 0 7
-12.9022 11.9207 -2.6477 0.1490 0 7
-13.0933 11.7105 -2.6477 0.1490 0 7
-13.2809 11.4973 -2.6477 0.1490 0 7
-13.4650 11.2811 -2.6477 0.1490 0 7
-13.6457 11.0619 -2.6477 0.1490 0 7
-13.8227 10.8398 -2.6477 0.1490 0 7
-13.9962 10.6149 -2.6477 0.1490 0 7
-14.1660 10.3872 -2.6477 0.1490 0 7
-14.3321 10.1569 -2.6477 0.1490 0 7
-14.4944 9.9238 -2.6477 0.1490 0 7
-14.6529 9.6882 -2.6477 0.1490 0 7
-14.8077 9.4500 -2.6477 0.1490 0 7
-14.9585 9.2094 -2.6477 0.1490 0 7
-15.1054 8.9663 -2.6477 0.1490 0 7
-14.3707 8.2189 -2.4953 0.1490 0 8
-14.5017 7.9855 -2.4953 0.1490 0 8
-14.6290 7.7500 -2.4953 0.1490 0 8
-14.7523 7.5125 -2.4953 0.1490 0 8
-14.8719 7.2730 -2.4953 0.1490 0 8
-14.9875 7.0316 -2.4953 0.1490 0 8
-15.0992 6.7884 -2.4953 0.1490 0 8
-15.2070 6.5434 -2.4953 0.1490 0 8
-15.3108 6.2966 -2.4953 0.1490 0 8
-15.4106 6.0483 -2.4953 0.1490 0 8
-15.5064 5.7983 -2.4953 0.1490 0 8
-15.5981 5.5469 -2.4953 0.1490 0 8
-15.6858 5.2940 -2.4953 0.1490 0 8
-15.7693 5.0397 -2.4953 0.1490 0 8
-15.8487 4.7841 -2.4953 0.1490 0 8
-15.9240 4.5272 -2.4953 0.1490 0 8
-15.9951 4.2692 -2.4953 0.1490 0 8
-16.0620 4.0100 -2.4953 0.1490 0 8
-16.1248 3.7498 -2.4953 0.1490 0 8
-16.1833 3.4886 -2.4953 0.1490 0 8
-16.2376 3.2265 -2.4953 0.1490 0 8
-16.2876 2.9635 -2.4953 0.1490 0 8
-16.3334 2.6998 -2.4953 0.1490 0 8
-16.3749 2.4354 -2.4953 0.1490 0 8
-16.4122 2.1703 -2.4953 0.1490 0 8
-16.4451 1.9047 -2.4953 0.1490 0 8
-16.4737 1.6386 -2.4953 0.1490 0 8
-16.4981 1.3720 -2.4953 0.1490 0 8
-16.5181 1.1051 -2.4953 0.1490 0 8
-16.5338 0.8379 -2.4953 0.1490 0 8
-16.5452 0.5705 -2.4953 0.1490 0 8
-16.5523 0.3029 -2.4953 0.1490 0 8
-16.5550 0.0352 -2.4953 0.1490 0 8
-16.5534 -0.2324 -2.4953 0.1490 0 8
-16.5475 -0.5000 -2.4953 0.1490 0 8
-16.5372 -0.7675 -2.4953 0.1490 0 8
-16.5227 -1.0348 -2.4953 0.1490 0 8
-16.5038 -1.3018 -2.4953 0.1490 0 8
-16.4806 -1.5684 -2.4953 0.1490 0 8
-16.4531 -1.8347 -2.4953 0.1490 0 8
-16.4212 -2.1004 -2.4953 0.1490 0 8
-16.3851 -2.3657 -2.4953 0.1490 0 8
-16.3448 -2.6303 -2.4953 0.1490 0 8
-16.3001 -2.8942 -2.4953 0.1490 0 8
-16.2512 -3.1573 -2.4953 0.1490 0 8
-16.1980 -3.4197 -2.4953 0.1490 0 8
-16.1406 -3.6811 -2.4953 0.1490 0 8
-16.0790 -3.9416 -2.4953 0.1490 0 8
-16.0131 -4.2010 -2.4953 0.1490 0 8
-15.9431 -4.4594 -2.4953 0.1490 0 8
-15.8689 -4.7165 -2.4953 0.1490 0 8
-15.7906 -4.9725 -2.4953 0.1490 0 8
-15.7082 -5.2271 -2.4953 0.1490 0 8
-15.6216 -5.4804 -2.4953 0.1490 0 8
-15.5309 -5.7323 -2.4953 0.1490 0 8
-15.4362 -5.9826 -2.4953 0.1490 0 8
-7.9942 14.5794 -2.6477 0.1573 0 7
-8.2289 14.4483 -2.6477 0.1573 0 7
-8.4614 14.3134 -2.6477 0.1573 0 7
-8.6917 14.1747 -2.6477 0.1573 0 7
-8.9197 14.0323 -2.6477 0.1573 0 7
-9.1454 13.8863 -2.6477 0.1573 0 7
-9.3687 13.7366 -2.6477 0.1573 0 7
-9.5896 13.5833 -2.6477 0.1573 0 7
-9.8080 13.4265 -2.6477 0.1573 0 7
-10.0237 13.2662 -2.6477 0.1573 0 7
-10.2369 13.1024 -2.6477 0.1573 0 7
-10.4474 12.9352 -2.6477 0.1573 0 7
-10.6552 12.7646 -2.6477 0.1573 0 7
-10.8602 12.5906 -2.6477 0.1573 0 7
-11.0623 12.4134 -2.6477 0.1573 0 7
-11.2616 12.2329 -2.6477 0.1573 0 7
-11.4579 12.0492 -2.6477 0.1573 0 7
-11.6512 11.8624 -2.6477 0.1573 0 7
-11.8414 11.6725 -2.6477 0.1573 0 7
-12.0286 11.4795 -2.6477 0.1573 0 7
-12.2126 11.2835 -2.6477 0.1573 0 7
-12.3935 11.0846 -2.6477 0.1573 0 7
-12.5711 10.8828 -2.6477 0.1573 0 7
-12.7454 10.6781 -2.6477 0.1573 0 7
-12.9163 10.4707 -2.6477 0.1573 0 7
-13.0839 10.2605 -2.6477 0.1573 0 7
-13.2481 10.0476 -2.6477 0.1573 0 7
-13.4088 9.8321 -2.6477 0.1573 0 7
-13.5660 9.6140 -2.6477 0.1573 0 7
-13.7197 9.3934 -2.6477 0.1573 0 7
-13.8698 9.1704 -2.6477 0.1573 0 7
-14.0162 8.9449 -2.6477 0.1573 0 7
-13.3440 8.2154 -2.4953 0.1573 0 8
-13.4751 7.9986 -2.4953 0.1573 0 8
-13.6027 7.7797 -2.4953 0.1573 0 8
-13.7267 7.5587 -2.4953 0.1573 0 8
-13.8471 7.3358 -2.4953 0.1573 0 8
-13.9639 7.1110 -2.4953 0.1573 0 8
-14.0770 6.8843 -2.4953 0.1573 0 8
-14.1865 6.6558 -2.4953 0.1573 0 8
-14.2922 6.4255 -2.4953 0.1573 0 8
-14.3943 6.1936 -2.4953 0.1573 0 8
-14.4925 5.9601 -2.4953 0.1573 0 8
-14.5870 5.7250 -2.4953 0.1573 0 8
-14.6776 5.4884 -2.4953 0.1573 0 8
-14.7645 5.2504 -2.4953 0.1573 0 8
-14.8474 5.0110 -2.4953 0.1573 0 8
-14.9265 4.7703 -2.4953 0.1573 0 8
-15.0017 4.5284 -2.4953 0.1573 0 8
-15.0729 4.2852 -2.4953 0.1573 0 8
-15.1402 4.0410 -2.4953 0.1573 0 8
-15.2036 3.7957 -2.4953 0.1573 0 8
-15.2630 3.5494 -2.4953 0.1573 0 8
-15.3183 3.3021 -2.4953 0.1573 0 8
-15.3697 3.0540 -2.4953 0.1573 0 8
-15.4171 2.8052 -2.4953 0.1573 0 8
-15.4604 2.5555 -2.4953 0.1573 0 8
-15.4997 2.3052 -2.4953 0.1573 0 8
-15.5350 2.0543 -2.4953 0.1573 0 8
-15.5662 1.8029 -2.4953 0.1573 0 8
-15.5933 1.5510 -2.4953 0.1573 0 8
-15.6163 1.2987 -2.4953 0.1573 0 8
-15.6353 1.0460 -2.4953 0.1573 0 8
-15.6501 0.7931 -2.4953 0.1573 0 8
-15.6609 0.5400 -2.4953 0.1573 0 8
-15.6676 0.2867 -2.4953 0.1573 0 8
-15.6702 0.0334 -2.4953 0.1573 0 8
-15.6687 -0.2200 -2.4953 0.1573 0 8
-15.6631 -0.4733 -2.4953 0.1573 0 8
-15.6534 -0.7265 -2.4953 0.1573 0 8
-15.6396 -0.9795 -2.4953 0.1573 0 8
-15.6217 -1.2322 -2.4953 0.1573 0 8
-15.5997 -1.4846 -2.4953 0.1573 0 8
-15.5737 -1.7366 -2.4953 0.1573 0 8
-15.5436 -1.9882 -2.4953 0.1573 0 8
-15.5094 -2.2392 -2.4953 0.1573 0 8
-15.4712 -2.4897 -2.4953 0.1573 0 8
-15.4289 -2.7395 -2.4953 0.1573 0 8
-15.3826 -2.9886 -2.4953 0.1573 0 8
-15.3323 -3.2369 -2.4953 0.1573 0 8
-15.2779 -3.4844 -2.4953 0.1573 0 8
-15.2196 -3.7309 -2.4953 0.1573 0 8
-15.1573 -3.9765 -2.4953 0.1573 0 8
-15.0910 -4.2210 -2.4953 0.1573 0 8
-15.0208 -4.4645 -2.4953 0.1573 0 8
-14.9467 -4.7067 -2.4953 0.1573 0 8
-14.8686 -4.9478 -2.4953 0.1573 0 8
-14.7867 -5.1875 -2.4953 0.1573 0 8
-14.7009 -5.4259 -2.4953 0.1573 0 8
-14.6112 -5.6629 -2.4953 0.1573 0 8
-7.5876 13.8379 -2.6477 0.1655 0 7
-7.8103 13.7134 -2.6477 0.1655 0 7
-8.0310 13.5853 -2.6477 0.1655 0 7
-8.2496 13.4537 -2.6477 0.1655 0 7
-8.4660 13.3186 -2.6477 0.1655 0 7
-8.6803 13.1800 -2.6477 0.1655 0 7
-8.8922 13.0379 -2.6477 0.1655 0 7
-9.1018 12.8924 -2.6477 0.1655 0 7
-9.3091 12.7436 -2.6477 0.1655 0 7
-9.5139 12.5914 -2.6477 0.1655 0 7
-9.7162 12.4359 -2.6477 0.1655 0 7
-9.9160 12.2772 -2.6477 0.1655 0 7
-10.1132 12.1153 -2.6477 0.1655 0 7
-10.3078 11.9502 -2.6477 0.1655 0 7
-10.4996 11.7820 -2.6477 0.1655 0 7
-10.6888 11.6107 -2.6477 0.1655 0 7
-10.8751 11.4364 -2.6477 0.1655 0 6
-11.0586 11.2591 -2.6477 0.1655 0 7
-11.2392 11.0788 -2.6477 0.1655 0 7
-11.4168 10.8956 -2.6477 0.1655 0 7
-11.5915 10.7096 -2.6477 0.1655 0 7
-11.7631 10.5208 -2.6477 0.1655 0 7
-11.9317 10.3293 -2.6477 0.1655 0 7
-12.0971 10.1350 -2.6477 0.1655 0 7
-12.2594 9.9381 -2.6477 0.1655 0 7
-12.4185 9.7386 -2.6477 0.1655 0 7
-12.5743 9.5365 -2.6477 0.1655 0 7
-12.7268 9.3320 -2.6477 0.1655 0 7
-12.8760 9.1250 -2.6477 0.1655 0 7
-12.2723 8.4025 -2.4953 0.1655 0 8
-12.4066 8.2029 -2.4953 0.1655 0 8
-12.5376 8.0013 -2.4953 0.1655 0 8
-12.6653 7.7975 -2.4953 0.1655 0 8
-12.7897 7.5917 -2.4953 0.1655 0 8
-12.9108 7.3840 -2.4953 0.1655 0 8
-13.0285 7.1743 -2.4953 0.1655 0 8
-13.1428 6.9627 -2.4953 0.1655 0 8
-13.2536 6.7493 -2.4953 0.1655 0 8
-13.3610 6.5341 -2.4953 0.1655 0 8
-13.4649 6.3173 -2.4953 0.1655 0 8
-13.5653 6.0987 -2.4953 0.1655 0 8
-13.6621 5.8786 -2.4953 0.1655 0 8
-13.7554 5.6570 -2.4953 0.1655 0 8
-13.8450 5.4338 -2.4953 0.1655 0 8
-13.9311 5.2093 -2.4953 0.1655 0 8
-14.0135 4.9834 -2.4953 0.1655 0 8
-14.0922 4.7561 -2.4953 0.1655 0 8
-14.1673 4.5277 -2.4953 0.1655 0 8
-14.2386 4.2980 -2.4953 0.1655 0 8
-14.3063 4.0673 -2.4953 0.1655 0 8
-14.3701 3.8354 -2.4953 0.1655 0 8
-14.4303 3.6026 -2.4953 0.1655 0 8
-14.4866 3.3688 -2.4953 0.1655 0 8
-14.5392 3.1342 -2.4953 0.1655 0 8
-14.5880 2.8987 -2.4953 0.1655 0 8
-14.6329 2.6625 -2.4953 0.1655 0 8
-14.6741 2.4255 -2.4953 0.1655 0 8
-14.7114 2.1880 -2.4953 0.1655 0 8
-14.7448 1.9498 -2.4953 0.1655 0 8
-14.7744 1.7112 -2.4953 0.1655 0 8
-14.8002 1.4721 -2.4953 0.1655 0 8
-14.8220 1.2326 -2.4953 0.1655 0 8
-14.8400 0.9928 -2.4953 0.1655 0 8
-14.8541 0.7528 -2.4953 0.1655 0 8
-14.8644 0.5125 -2.4953 0.1655 0 8
-14.8707 0.2721 -2.4953 0.1655 0 8
-14.8732 0.0317 -2.4953 0.1655 0 8
-14.8717 -0.2088 -2.4953 0.1655 0 8
-14.8664 -0.4492 -2.4953 0.1655 0 8
-14.8572 -0.6895 -2.4953 0.1655 0 8
-14.8441 -0.9296 -2.4953 0.1655 0 8
-14.8271 -1.1695 -2.4953 0.1655 0 8
-14.8063 -1.4091 -2.4953 0.1655 0 8
-14.7816 -1.6483 -2.4953 0.1655 0 8
-14.7530 -1.8871 -2.4953 0.1655 0 8
-14.7206 -2.1253 -2.4953 0.1655 0 8
-14.6843 -2.3631 -2.4953 0.1655 0 8
-14.6441 -2.6002 -2.4953 0.1655 0 8
-14.6002 -2.8366 -2.4953 0.1655 0 8
-14.5524 -3.0723 -2.4953 0.1655 0 8
-14.5008 -3.3071 -2.4953 0.1655 0 8
-14.4455 -3.5412 -2.4953 0.1655 0 8
-14.3863 -3.7742 -2.4953 0.1655 0 8
-14.3234 -4.0063 -2.4953 0.1655 0 8
-14.2568 -4.2374 -2.4953 0.1655 0 8
-14.1864 -4.4673 -2.4953 0.1655 0 8
-14.1123 -4.6961 -2.4953 0.1655 0 8
-14.0346 -4.9237 -2.4953 0.1655 0 8
-13.9531 -5.1499 -2.4953 0.1655 0 8
-13.8680 -5.3748 -2.4953 0.1655 0 8
-7.2193 13.1663 -2.6477 0.1736 0 7
-7.4313 13.0479 -2.6477 0.1736 0 7
-7.6413 12.9260 -2.6477 0.1736 0 7
-7.8492 12.8008 -2.6477 0.1736 0 7
-8.0552 12.6722 -2.6477 0.1736 0 7
-8.2590 12.5403 -2.6477 0.1736 0 7
-8.4607 12.4052 -2.6477 0.1736 0 7
-8.6601 12.2668 -2.6477 0.1736 0 7
-8.8573 12.1251 -2.6477 0.1736 0 7
-9.0522 11.9804 -2.6477 0.1736 0 7
-9.2447 11.8324 -2.6477 0.1736 0 7
-9.4348 11.6814 -2.6477 0.1736 0 7
-9.6224 11.5273 -2.6477 0.1736 0 7
-9.8076 11.3703 -2.6477 0.1736 0 6
-9.9901 11.2102 -2.6477 0.1736 0 7
-10.1700 11.0472 -2.6477 0.1736 0 7
-10.3473 10.8814 -2.6477 0.1736 0 7
-10.5219 10.7127 -2.6477 0.1736 0 7
-10.6937 10.5411 -2.6477 0.1736 0 7
-10.8627 10.3669 -2.6477 0.1736 0 7
-11.0289 10.1899 -2.6477 0.1736 0 7
-11.1922 10.0102 -2.6477 0.1736 0 7
-11.3526 9.8280 -2.6477 0.1736 0 7
-11.5100 9.6431 -2.6477 0.1736 0 7
-11.6644 9.4558 -2.6477 0.1736 0 7
-11.8158 9.2660 -2.6477 0.1736 0 7
-11.9641 9.0737 -2.6477 0.1736 0 7
-11.4122 8.3680 -2.4953 0.1736 0 8
-11.5460 8.1824 -2.4953 0.1736 0 8
-11.6768 7.9947 -2.4953 0.1736 0 8
-11.8045 7.8049 -2.4953 0.1736 0 8
-11.9291 7.6130 -2.4953 0.1736 0 8
-12.0507 7.4191 -2.4953 0.1736 0 8
-12.1690 7.2233 -2.4953 0.1736 0 8
-12.2842 7.0256 -2.4953 0.1736 0 8
-12.3962 6.8261 -2.4953 0.1736 0 8
-12.5050 6.6248 -2.4953 0.1736 0 8
-12.6104 6.4217 -2.4953 0.1736 0 8
-12.7126 6.2170 -2.4953 0.1736 0 8
-12.8115 6.0107 -2.4953 0.1736 0 8
-12.9070 5.8028 -2.4953 0.1736 0 8
-12.9991 5.5933 -2.4953 0.1736 0 8
-13.0878 5.3824 -2.4953 0.1736 0 8
-13.1731 5.1701 -2.4953 0.1736 0 8
-13.2550 4.9565 -2.4953 0.1736 0 8
-13.3334 4.7415 -2.4953 0.1736 0 8
-13.4083 4.5253 -2.4953 0.1736 0 8
-13.4797 4.3079 -2.4953 0.1736 0 8
-13.5476 4.0895 -2.4953 0.1736 0 8
-13.6120 3.8699 -2.4953 0.1736 0 8
-13.6728 3.6493 -2.4953 0.1736 0 8
-13.7300 3.4278 -2.4953 0.1736 0 8
-13.7836 3.2053 -2.4953 0.1736 0 8
-13.8336 2.9821 -2.4953 0.1736 0 8
-13.8800 2.7580 -2.4953 0.1736 0 8
-13.9228 2.5333 -2.4953 0.1736 0 8
-13.9619 2.3078 -2.4953 0.1736 0 8
-13.9974 2.0818 -2.4953 0.1736 0 8
-14.0293 1.8552 -2.4953 0.1736 0 8
-14.0574 1.6282 -2.4953 0.1736 0 8
-14.0819 1.4007 -2.4953 0.1736 0 8
-14.1027 1.1728 -2.4953 0.1736 0 8
-14.1198 0.9446 -2.4953 0.1736 0 8
-14.1333 0.7162 -2.4953 0.1736 0 8
-14.1430 0.4876 -2.4953 0.1736 0 8
-14.1490 0.2589 -2.4953 0.1736 0 8
-14.1514 0.0301 -2.4953 0.1736 0 8
-14.1500 -0.1987 -2.4953 0.1736 0 8
-14.1449 -0.4274 -2.4953 0.1736 0 8
-14.1362 -0.6561 -2.4953 0.1736 0 8
-14.1237 -0.8845 -2.4953 0.1736 0 8
-14.1076 -1.1128 -2.4953 0.1736 0 8
-14.0877 -1.3407 -2.4953 0.1736 0 8
-14.0642 -1.5683 -2.4953 0.1736 0 8
-14.0370 -1.7955 -2.4953 0.1736 0 8
-14.0062 -2.0222 -2.4953 0.1736 0 8
-13.9716 -2.2484 -2.4953 0.1736 0 8
-13.9335 -2.4740 -2.4953 0.1736 0 8
-13.8916 -2.6989 -2.4953 0.1736 0 8
-13.8462 -2.9232 -2.4953 0.1736 0 8
-13.7971 -3.1466 -2.4953 0.1736 0 8
-13.7444 -3.3693 -2.4953 0.1736 0 8
-13.6882 -3.5911 -2.4953 0.1736 0 8
-13.6283 -3.8119 -2.4953 0.1736 0 8
-13.5649 -4.0317 -2.4953 0.1736 0 8
-13.4980 -4.2505 -2.4953 0.1736 0 8
-13.4275 -4.4682 -2.4953 0.1736 0 8
-13.3535 -4.6847 -2.4953 0.1736 0 8
-13.2760 -4.9000 -2.4953 0.1736 0 8
-13.1950 -5.1140 -2.4953 0.1736 0 8
-6.8843 12.5552 -2.6477 0.1818 0 7
-7.0864 12.4423 -2.6477 0.1818 0 7
-7.2866 12.3261 -2.6477 0.1818 0 7
-7.4849 12.2067 -2.6477 0.1818 0 7
-7.6813 12.0841 -2.6477 0.1818 0 7
-7.8757 11.9583 -2.6477 0.1818 0 7
-8.0680 11.8294 -2.6477 0.1818 0 7
-8.2582 11.6974 -2.6477 0.1818 0 7
-8.4462 11.5624 -2.6477 0.1818 0 7
-8.6321 11.4243 -2.6477 0.1818 0 6
-8.8156 11.2832 -2.6477 0.1818 0 7
-8.9969 11.1392 -2.6477 0.1818 0 7
-9.1758 10.9923 -2.6477 0.1818 0 7
-9.3524 10.8425 -2.6477 0.1818 0 7
-9.5264 10.6899 -2.6477 0.1818 0 7
-9.6980 10.5345 -2.6477 0.1818 0 7
-9.8671 10.3763 -2.6477 0.1818 0 7
-10.0335 10.2154 -2.6477 0.1818 0 7
-10.1974 10.0519 -2.6477 0.1818 0 7
-10.3586 9.8857 -2.6477 0.1818 0 7
-10.5170 9.7169 -2.6477 0.1818 0 7
-10.6728 9.5456 -2.6477 0.1818 0 7
-10.8257 9.3718 -2.6477 0.1818 0 7
-10.9758 9.1956 -2.6477 0.1818 0 7
-11.1230 9.0169 -2.6477 0.1818 0 7
-10.6188 8.3273 -2.4953 0.1818 0 8
-10.7521 8.1545 -2.4953 0.1818 0 8
-10.8825 7.9796 -2.4953 0.1818 0 8
-11.0101 7.8026 -2.4953 0.1818 0 8
-11.1348 7.6236 -2.4953 0.1818 0 8
-11.2566 7.4426 -2.4953 0.1818 0 8
-11.3755 7.2596 -2.4953 0.1818 0 8
-11.4913 7.0748 -2.4953 0.1818 0 8
-11.6042 6.8881 -2.4953 0.1818 0 8
-11.7141 6.6995 -2.4953 0.1818 0 8
-11.8209 6.5093 -2.4953 0.1818 0 8
-11.9246 6.3173 -2.4953 0.1818 0 8
-12.0251 6.1237 -2.4953 0.1818 0 8
-12.1226 5.9285 -2.4953 0.1818 0 8
-12.2168 5.7317 -2.4953 0.1818 0 8
-12.3079 5.5334 -2.4953 0.1818 0 8
-12.3958 5.3337 -2.4953 0.1818 0 8
-12.4804 5.1326 -2.4953 0.1818 0 8
-12.5617 4.9302 -2.4953 0.1818 0 8
-12.6398 4.7264 -2.4953 0.1818 0 8
-12.7146 4.5214 -2.4953 0.1818 0 8
-12.7860 4.3153 -2.4953 0.1818 0 8
-12.8541 4.1080 -2.4953 0.1818 0 8
-12.9188 3.8996 -2.4953 0.1818 0 8
-12.9802 3.6903 -2.4953 0.1818 0 8
-13.0382 3.4799 -2.4953 0.1818 0 8
-13.0927 3.2687 -2.4953 0.1818 0 8
-13.1439 3.0566 -2.4953 0.1818 0 8
-13.1916 2.8437 -2.4953 0.1818 0 8
-13.2358 2.6300 -2.4953 0.1818 0 8
-13.2766 2.4157 -2.4953 0.1818 0 8
-13.3139 2.2007 -2.4953 0.1818 0 8
-13.3478 1.9852 -2.4953 0.1818 0 8
-13.3781 1.7691 -2.4953 0.1818 0 8
-13.4050 1.5526 -2.4953 0.1818 0 8
-13.4283 1.3357 -2.4953 0.1818 0 8
-13.4482 1.1184 -2.4953 0.1818 0 8
-13.4645 0.9008 -2.4953 0.1818 0 8
-13.4773 0.6830 -2.4953 0.1818 0 8
-13.4866 0.4650 -2.4953 0.1818 0 8
-13.4923 0.2469 -2.4953 0.1818 0 8
-13.4945 0.0287 -2.4953 0.1818 0 8
-13.4932 -0.1895 -2.4953 0.1818 0 8
-13.4884 -0.4076 -2.4953 0.1818 0 8
-13.4801 -0.6256 -2.4953 0.1818 0 8
-13.4682 -0.8435 -2.4953 0.1818 0 8
-13.4528 -1.0611 -2.4953 0.1818 0 8
-13.4339 -1.2785 -2.4953 0.1818 0 8
-13.4115 -1.4955 -2.4953 0.1818 0 8
-13.3855 -1.7121 -2.4953 0.1818 0 8
-13.3561 -1.9283 -2.4953 0.1818 0 8
-13.3232 -2.1440 -2.4953 0.1818 0 8
-13.2868 -2.3591 -2.4953 0.1818 0 8
-13.2469 -2.5737 -2.4953 0.1818 0 8
-13.2035 -2.7875 -2.4953 0.1818 0 8
-13.1567 -3.0006 -2.4953 0.1818 0 8
-13.1065 -3.2129 -2.4953 0.1818 0 8
-13.0529 -3.4244 -2.4953 0.1818 0 8
-12.9958 -3.6350 -2.4953 0.1818 0 8
-12.9353 -3.8446 -2.4953 0.1818 0 8
-12.8715 -4.0533 -2.4953 0.1818 0 8
-12.8043 -4.2608 -2.4953 0.1818 0 8
-12.7337 -4.4673 -2.4953 0.1818 0 8
-12.6598 -4.6726 -2.4953 0.1818 0 8
-12.5826 -4.8766 -2.4953 0.1818 0 8
-6.5780 11.9967 -2.6477 0.1900 0 7
-6.7711 11.8888 -2.6477 0.1900 0 7
-6.9625 11.7778 -2.6477 0.1900 0 7
-7.1520 11.6636 -2.6477 0.1900 0 7
-7.3396 11.5465 -2.6477 0.1900 0 7
-7.5253 11.4263 -2.6477 0.1900 0 6
-7.7091 11.3032 -2.6477 0.1900 0 7
-7.8908 11.1770 -2.6477 0.1900 0 7
-8.0705 11.0480 -2.6477 0.1900 0 7
-8.2480 10.9161 -2.6477 0.1900 0 7
-8.4235 10.7813 -2.6477 0.1900 0 7
-8.5967 10.6437 -2.6477 0.1900 0 7
-8.7676 10.5033 -2.6477 0.1900 0 7
-8.9363 10.3602 -2.6477 0.1900 0 7
-9.1026 10.2144 -2.6477 0.1900 0 7
-9.2666 10.0659 -2.6477 0.1900 0 7
-9.4281 9.9147 -2.6477 0.1900 0 7
-9.5872 9.7610 -2.6477 0.1900 0 7
-9.7438 9.6047 -2.6477 0.1900 0 7
-9.8978 9.4459 -2.6477 0.1900 0 7
-10.0492 9.2847 -2.6477 0.1900 0 7
-10.1980 9.1210 -2.6477 0.1900 0 7
-10.3441 8.9549 -2.6477 0.1900 0 7
-9.8894 8.2853 -2.4967 0.5816 0 8
-10.0165 8.1199 -2.4953 0.1900 0 8
-10.1464 7.9569 -2.4953 0.1900 0 8
-10.2738 7.7918 -2.4953 0.1900 0 8
-10.3984 7.6247 -2.4953 0.1900 0 8
-10.5203 7.4555 -2.4953 0.1900 0 8
-10.6395 7.2845 -2.4953 0.1900 0 8
-10.7558 7.1115 -2.4953 0.1900 0 8
-10.8694 6.9367 -2.4953 0.1900 0 8
-10.9802 6.7601 -2.4953 0.1900 0 8
-11.0880 6.5816 -2.4953 0.1900 0 8
-11.1930 6.4015 -2.4953 0.1900 0 8
-11.2950 6.2197 -2.4953 0.1900 0 8
