ply
format ascii 1.0
element vertex 1373
property float32 x
property float32 y
property float32 z
property float32 CosAngle
property uint32 ObjIdx
property uint32 ObjTag
end_header
-0.0322 75.0308 -2.4953 0.0332 0 8
-1.2370 75.0206 -2.4953 0.0332 0 8
-2.4415 74.9911 -2.4953 0.0332 0 8
-3.6453 74.9422 -2.4953 0.0332 0 8
-4.8482 74.8740 -2.4953 0.0332 0 8
-6.0499 74.7865 -2.4953 0.0332 0 8
-7.2500 74.6797 -2.4953 0.0332 0 8
-8.4482 74.5536 -2.4953 0.0332 0 8
-9.6520 74.4669 -2.4972 0.7248 0 8
-10.8695 74.4600 -2.5025 0.7233 0 8
-12.0932 74.4570 -2.5086 0.9763 0 8
-13.3232 74.4542 -2.5154 0.9737 0 8
-14.5602 74.4512 -2.5229 0.9708 0 8
-15.8048 74.4481 -2.5311 0.9676 0 8
-17.0578 74.4449 -2.5399 0.9643 0 8
-18.3200 74.4415 -2.5495 0.9606 0 8
-19.5919 74.4379 -2.5599 0.9567 0 8
-20.8746 74.4342 -2.5709 0.9526 0 8
-22.1687 74.4304 -2.5828 0.9483 0 8
-23.4751 74.4264 -2.5954 0.9436 0 8
-24.7945 74.4222 -2.6088 0.9388 0 8
-26.1280 74.4179 -2.6230 0.9337 0 8
49.2677 37.9144 -2.5849 0.9691 0 8
48.9082 38.9040 -2.5985 0.9253 0 8
48.6672 40.0049 -2.6195 0.8586 0 8
48.4403 41.1395 -2.6425 0.0547 0 8
47.8675 41.9945 -2.6477 0.0415 0 7
47.1869 42.7577 -2.6477 0.0415 0 7
46.4943 43.5099 -2.6477 0.0415 0 7
45.7896 44.2509 -2.6477 0.0415 0 7
45.0732 44.9804 -2.6477 0.0415 0 7
44.3451 45.6984 -2.6477 0.0415 0 7
43.6056 46.4046 -2.6477 0.0415 0 7
42.8548 47.0988 -2.6477 0.0415 0 7
42.0930 47.7809 -2.6477 0.0415 0 6
41.3203 48.4506 -2.6477 0.0415 0 7
40.5369 49.1079 -2.6477 0.0415 0 7
39.7432 49.7525 -2.6477 0.0415 0 7
38.9391 50.3843 -2.6477 0.0415 0 7
38.1251 51.0030 -2.6477 0.0415 0 7
35.1541 48.6381 -2.4953 0.0415 0 8
34.3686 49.1963 -2.4953 0.0415 0 8
33.5742 49.7418 -2.4953 0.0415 0 8
32.7711 50.2745 -2.4953 0.0415 0 8
31.9596 50.7942 -2.4953 0.0415 0 8
31.1398 51.3009 -2.4953 0.0415 0 8
30.3121 51.7943 -2.4953 0.0415 0 8
29.4764 52.2744 -2.4953 0.0415 0 8
28.6332 52.7410 -2.4953 0.0415 0 8
27.7826 53.1940 -2.4953 0.0415 0 8
26.9249 53.6332 -2.4953 0.0415 0 8
26.0602 54.0586 -2.4953 0.0415 0 8
25.1888 54.4702 -2.4953 0.0415 0 8
24.3109 54.8676 -2.4953 0.0415 0 8
23.4267 55.2509 -2.4953 0.0415 0 8
22.5365 55.6199 -2.4953 0.0415 0 8
21.6405 55.9747 -2.4953 0.0415 0 8
20.7389 56.3149 -2.4953 0.0415 0 8
19.8319 56.6407 -2.4953 0.0415 0 8
18.9198 56.9518 -2.4953 0.0415 0 8
18.0029 57.2483 -2.4953 0.0415 0 8
17.0813 57.5300 -2.4953 0.0415 0 8
16.1553 57.7969 -2.4953 0.0415 0 8
15.2252 58.0488 -2.4953 0.0415 0 8
14.2911 58.2858 -2.4953 0.0415 0 8
13.3533 58.5078 -2.4953 0.0415 0 8
12.4121 58.7147 -2.4953 0.0415 0 8
11.4677 58.9064 -2.4953 0.0415 0 8
10.5203 59.0830 -2.4953 0.0415 0 8
9.5702 59.2443 -2.4953 0.0415 0 8
8.6176 59.3903 -2.4953 0.0415 0 8
7.6628 59.5210 -2.4953 0.0415 0 8
6.7061 59.6364 -2.4953 0.0415 0 8
5.7476 59.7364 -2.4953 0.0415 0 8
4.7877 59.8210 -2.4953 0.0415 0 8
3.8264 59.8901 -2.4953 0.0415 0 8
2.8643 59.9439 -2.4953 0.0415 0 8
1.9014 59.9821 -2.4953 0.0415 0 8
0.9379 60.0049 -2.4953 0.0415 0 8
-0.0257 60.0123 -2.4953 0.0415 0 8
-0.9894 60.0041 -2.4953 0.0415 0 8
-1.9528 59.9805 -2.4953 0.0415 0 8
-2.9157 59.9414 -2.4953 0.0415 0 8
-3.8778 59.8868 -2.4953 0.0415 0 8
-4.8389 59.8169 -2.4953 0.0415 0 8
-5.7988 59.7314 -2.4953 0.0415 0 8
-6.7572 59.6306 -2.4953 0.0415 0 8
-7.7139 59.5144 -2.4953 0.0415 0 8
-8.6686 59.3829 -2.4953 0.0415 0 8
-9.6210 59.2360 -2.4953 0.0415 0 8
-10.5710 59.0739 -2.4953 0.0415 0 8
-11.5182 58.8965 -2.4953 0.0415 0 8
-12.4625 58.7040 -2.4953 0.0415 0 8
-13.4034 58.4963 -2.4953 0.0415 0 8
-14.3411 58.2735 -2.4953 0.0415 0 8
-15.2749 58.0357 -2.4953 0.0415 0 8
-16.2049 57.7830 -2.4953 0.0415 0 8
-17.1306 57.5153 -2.4953 0.0415 0 8
-18.0520 57.2328 -2.4953 0.0415 0 8
-18.9687 56.9356 -2.4953 0.0415 0 8
-19.8805 56.6237 -2.4953 0.0415 0 8
42.0429 32.3545 -2.6477 0.0498 0 7
41.5180 33.0254 -2.6477 0.0498 0 7
40.9823 33.6879 -2.6477 0.0498 0 7
40.4360 34.3416 -2.6477 0.0498 0 6
39.8794 34.9865 -2.6477 0.0498 0 6
39.3124 35.6223 -2.6477 0.0498 0 7
38.7354 36.2490 -2.6477 0.0498 0 6
38.1483 36.8663 -2.6477 0.0498 0 7
37.5514 37.4741 -2.6477 0.0498 0 7
36.9448 38.0723 -2.6477 0.0498 0 7
36.3287 38.6606 -2.6477 0.0498 0 7
33.6481 36.9804 -2.4953 0.0498 0 8
33.0500 37.5159 -2.4953 0.0498 0 8
32.4433 38.0418 -2.4953 0.0498 0 8
31.8283 38.5578 -2.4953 0.0498 0 8
31.2049 39.0640 -2.4953 0.0498 0 8
30.5737 39.5600 -2.4953 0.0498 0 8
29.9344 40.0459 -2.4953 0.0498 0 8
29.2876 40.5214 -2.4953 0.0498 0 8
28.6332 40.9864 -2.4953 0.0498 0 8
27.9714 41.4409 -2.4953 0.0498 0 8
27.3023 41.8847 -2.4953 0.0498 0 8
26.6262 42.3177 -2.4953 0.0498 0 8
25.9433 42.7398 -2.4953 0.0498 0 8
25.2536 43.1509 -2.4953 0.0498 0 8
24.5574 43.5509 -2.4953 0.0498 0 8
23.8549 43.9396 -2.4953 0.0498 0 8
23.1463 44.3170 -2.4953 0.0498 0 8
22.4317 44.6830 -2.4953 0.0498 0 8
21.7113 45.0374 -2.4953 0.0498 0 8
20.9853 45.3802 -2.4953 0.0498 0 8
20.2539 45.7113 -2.4953 0.0498 0 8
19.5173 46.0307 -2.4953 0.0498 0 8
18.7756 46.3381 -2.4953 0.0498 0 8
18.0291 46.6337 -2.4953 0.0498 0 8
17.2780 46.9171 -2.4953 0.0498 0 8
16.5224 47.1886 -2.4953 0.0498 0 8
15.7625 47.4478 -2.4953 0.0498 0 8
14.9986 47.6948 -2.4953 0.0498 0 8
14.2308 47.9294 -2.4953 0.0498 0 8
13.4593 48.1518 -2.4953 0.0498 0 8
12.6844 48.3617 -2.4953 0.0498 0 8
11.9062 48.5592 -2.4953 0.0498 0 8
11.1249 48.7441 -2.4953 0.0498 0 8
10.3408 48.9164 -2.4953 0.0498 0 8
9.5540 49.0762 -2.4953 0.0498 0 8
8.7647 49.2232 -2.4953 0.0498 0 8
7.9731 49.3577 -2.4953 0.0498 0 8
7.1795 49.4793 -2.4953 0.0498 0 8
6.3841 49.5882 -2.4953 0.0498 0 8
5.5870 49.6843 -2.4953 0.0498 0 8
4.7885 49.7676 -2.4953 0.0498 0 8
3.9887 49.8381 -2.4953 0.0498 0 8
3.1879 49.8957 -2.4953 0.0498 0 8
2.3863 49.9405 -2.4953 0.0498 0 8
1.5841 49.9724 -2.4953 0.0498 0 8
0.7814 49.9914 -2.4953 0.0498 0 8
-0.0214 49.9975 -2.4953 0.0498 0 8
-0.8243 49.9907 -2.4953 0.0498 0 8
-1.6269 49.9710 -2.4953 0.0498 0 8
-2.4291 49.9384 -2.4953 0.0498 0 8
-3.2307 49.8930 -2.4953 0.0498 0 8
-4.0314 49.8347 -2.4953 0.0498 0 8
-4.8311 49.7635 -2.4953 0.0498 0 8
-5.6296 49.6795 -2.4953 0.0498 0 8
-6.4266 49.5827 -2.4953 0.0498 0 8
-7.2220 49.4731 -2.4953 0.0498 0 8
-8.0155 49.3508 -2.4953 0.0498 0 8
-8.8069 49.2157 -2.4953 0.0498 0 8
-9.5960 49.0679 -2.4953 0.0498 0 8
-10.3827 48.9075 -2.4953 0.0498 0 8
-11.1667 48.7345 -2.4953 0.0498 0 8
-11.9478 48.5489 -2.4953 0.0498 0 8
-12.7259 48.3508 -2.4953 0.0498 0 8
-13.5006 48.1402 -2.4953 0.0498 0 8
-14.2719 47.9172 -2.4953 0.0498 0 8
-15.0395 47.6819 -2.4953 0.0498 0 8
-15.8032 47.4342 -2.4953 0.0498 0 8
-16.5628 47.1744 -2.4953 0.0498 0 8
36.0260 27.7241 -2.6477 0.0581 0 7
35.5762 28.2991 -2.6477 0.0581 0 7
35.1172 28.8667 -2.6477 0.0581 0 7
34.6491 29.4269 -2.6477 0.0581 0 7
34.1721 29.9795 -2.6477 0.0581 0 7
33.6863 30.5243 -2.6477 0.0581 0 7
33.1918 31.0613 -2.6477 0.0581 0 7
32.6888 31.5903 -2.6477 0.0581 0 7
32.1773 32.1111 -2.6477 0.0581 0 7
31.6575 32.6237 -2.6477 0.0581 0 7
31.1296 33.1278 -2.6477 0.0581 0 7
30.5113 33.5329 -2.6405 0.0657 0 8
29.2239 33.1729 -2.5749 0.5749 0 8
28.1567 33.0155 -2.5273 0.6882 0 8
27.2732 33.0397 -2.4953 0.0581 0 8
26.7392 33.4734 -2.4953 0.0581 0 8
26.1982 33.8985 -2.4953 0.0581 0 8
25.6505 34.3148 -2.4953 0.0581 0 8
25.0962 34.7222 -2.4953 0.0581 0 8
24.5354 35.1207 -2.4953 0.0581 0 8
23.9683 35.5102 -2.4953 0.0581 0 8
23.3950 35.8905 -2.4953 0.0581 0 8
22.8157 36.2615 -2.4953 0.0581 0 8
22.2304 36.6232 -2.4953 0.0581 0 8
21.6395 36.9755 -2.4953 0.0581 0 8
21.0430 37.3182 -2.4953 0.0581 0 8
20.4410 37.6513 -2.4953 0.0581 0 8
19.8338 37.9747 -2.4953 0.0581 0 8
19.2214 38.2882 -2.4953 0.0581 0 8
18.6041 38.5920 -2.4953 0.0581 0 8
17.9820 38.8857 -2.4953 0.0581 0 8
17.3553 39.1694 -2.4953 0.0581 0 8
16.7241 39.4431 -2.4953 0.0581 0 8
16.0886 39.7065 -2.4953 0.0581 0 8
15.4489 39.9598 -2.4953 0.0581 0 8
14.8053 40.2027 -2.4953 0.0581 0 8
14.1578 40.4352 -2.4953 0.0581 0 8
13.5067 40.6574 -2.4953 0.0581 0 8
12.8521 40.8690 -2.4953 0.0581 0 8
12.1942 41.0701 -2.4953 0.0581 0 8
11.5331 41.2606 -2.4953 0.0581 0 8
10.8691 41.4405 -2.4953 0.0581 0 8
10.2023 41.6097 -2.4953 0.0581 0 8
9.5328 41.7682 -2.4953 0.0581 0 8
8.8609 41.9158 -2.4953 0.0581 0 8
8.1867 42.0527 -2.4953 0.0581 0 8
7.5103 42.1787 -2.4953 0.0581 0 8
6.8321 42.2939 -2.4953 0.0581 0 8
6.1521 42.3982 -2.4953 0.0581 0 8
5.4704 42.4915 -2.4953 0.0581 0 8
4.7874 42.5739 -2.4953 0.0581 0 8
4.1032 42.6452 -2.4953 0.0581 0 8
3.4179 42.7056 -2.4953 0.0581 0 8
2.7316 42.7550 -2.4953 0.0581 0 8
2.0448 42.7934 -2.4953 0.0581 0 8
1.3574 42.8207 -2.4953 0.0581 0 8
0.6696 42.8370 -2.4953 0.0581 0 8
-0.0184 42.8422 -2.4953 0.0581 0 8
-0.7063 42.8364 -2.4953 0.0581 0 8
-1.3941 42.8195 -2.4953 0.0581 0 8
-2.0815 42.7916 -2.4953 0.0581 0 8
-2.7683 42.7526 -2.4953 0.0581 0 8
-3.4545 42.7027 -2.4953 0.0581 0 8
-4.1397 42.6417 -2.4953 0.0581 0 8
-4.8239 42.5697 -2.4953 0.0581 0 8
-5.5069 42.4868 -2.4953 0.0581 0 8
-6.1884 42.3929 -2.4953 0.0581 0 8
-6.8683 42.2880 -2.4953 0.0581 0 8
-7.5465 42.1723 -2.4953 0.0581 0 8
-8.2227 42.0457 -2.4953 0.0581 0 8
-8.8968 41.9082 -2.4953 0.0581 0 8
-9.5686 41.7600 -2.4953 0.0581 0 8
-10.2380 41.6009 -2.4953 0.0581 0 8
-10.9046 41.4312 -2.4953 0.0581 0 8
-11.5685 41.2507 -2.4953 0.0581 0 8
-12.2294 41.0596 -2.4953 0.0581 0 8
-12.8871 40.8580 -2.4953 0.0581 0 8
-13.5415 40.6458 -2.4953 0.0581 0 8
-14.1925 40.4231 -2.4953 0.0581 0 8
31.5118 24.2502 -2.6477 0.0664 0 7
31.1184 24.7531 -2.6477 0.0664 0 7
30.7169 25.2496 -2.6477 0.0664 0 7
30.3075 25.7396 -2.6477 0.0664 0 7
29.8902 26.2229 -2.6477 0.0664 0 7
29.4653 26.6995 -2.6477 0.0664 0 7
29.0328 27.1692 -2.6477 0.0664 0 7
28.5928 27.6319 -2.6477 0.0664 0 7
28.1454 28.0875 -2.6477 0.0664 0 7
27.6907 28.5358 -2.6477 0.0664 0 7
27.2289 28.9767 -2.6477 0.0664 0 7
26.7601 29.4103 -2.6477 0.0664 0 7
26.2844 29.8362 -2.6477 0.0664 0 7
25.8019 30.2544 -2.6477 0.0664 0 7
25.3128 30.6648 -2.6477 0.0664 0 7
24.8171 31.0673 -2.6477 0.0664 0 7
24.3151 31.4618 -2.6477 0.0664 0 7
23.8067 31.8482 -2.6477 0.0664 0 7
23.2922 32.2264 -2.6477 0.0664 0 7
22.7598 32.5792 -2.6463 0.0803 0 8
22.1911 32.8772 -2.6412 0.0804 0 8
21.4764 32.9472 -2.6188 0.8325 0 8
20.7321 32.9501 -2.5922 0.8411 0 8
20.0025 32.9528 -2.5668 0.8494 0 8
19.2867 32.9553 -2.5426 0.8575 0 8
18.5841 32.9576 -2.5194 0.8654 0 8
17.8963 32.9641 -2.4976 0.6660 0 8
17.3485 33.2163 -2.4953 0.0664 0 8
16.8129 33.4906 -2.4953 0.0664 0 8
16.2730 33.7562 -2.4953 0.0664 0 8
15.7288 34.0132 -2.4953 0.0664 0 8
15.1806 34.2614 -2.4953 0.0664 0 8
14.6285 34.5007 -2.4953 0.0664 0 8
14.0726 34.7312 -2.4953 0.0664 0 8
13.5131 34.9527 -2.4953 0.0664 0 8
12.9501 35.1652 -2.4953 0.0664 0 8
12.3838 35.3686 -2.4953 0.0664 0 8
11.8142 35.5629 -2.4953 0.0664 0 8
11.2417 35.7480 -2.4953 0.0664 0 8
10.6662 35.9239 -2.4953 0.0664 0 8
10.0880 36.0905 -2.4953 0.0664 0 8
9.5072 36.2479 -2.4953 0.0664 0 8
8.9239 36.3958 -2.4953 0.0664 0 8
8.3383 36.5345 -2.4953 0.0664 0 8
7.7506 36.6636 -2.4953 0.0664 0 8
7.1608 36.7834 -2.4953 0.0664 0 8
6.5693 36.8936 -2.4953 0.0664 0 8
5.9760 36.9943 -2.4953 0.0664 0 8
5.3812 37.0855 -2.4953 0.0664 0 8
4.7850 37.1672 -2.4953 0.0664 0 8
4.1875 37.2392 -2.4953 0.0664 0 8
3.5890 37.3016 -2.4953 0.0664 0 8
2.9896 37.3545 -2.4953 0.0664 0 8
2.3894 37.3977 -2.4953 0.0664 0 8
1.7886 37.4312 -2.4953 0.0664 0 8
1.1873 37.4551 -2.4953 0.0664 0 8
0.5857 37.4693 -2.4953 0.0664 0 8
-0.0161 37.4739 -2.4953 0.0664 0 8
-0.6178 37.4688 -2.4953 0.0664 0 8
-1.2194 37.4541 -2.4953 0.0664 0 8
-1.8206 37.4296 -2.4953 0.0664 0 8
-2.4214 37.3956 -2.4953 0.0664 0 8
-3.0216 37.3519 -2.4953 0.0664 0 8
-3.6210 37.2985 -2.4953 0.0664 0 8
-4.2195 37.2356 -2.4953 0.0664 0 8
-4.8169 37.1630 -2.4953 0.0664 0 8
-5.4130 37.0809 -2.4953 0.0664 0 8
-6.0077 36.9892 -2.4953 0.0664 0 8
-6.6009 36.8880 -2.4953 0.0664 0 8
-7.1924 36.7772 -2.4953 0.0664 0 8
-7.7820 36.6570 -2.4953 0.0664 0 8
-8.3696 36.5273 -2.4953 0.0664 0 8
-8.9551 36.3882 -2.4953 0.0664 0 8
-9.5382 36.2397 -2.4953 0.0664 0 8
-10.1189 36.0819 -2.4953 0.0664 0 8
-10.6970 35.9147 -2.4953 0.0664 0 8
-11.2723 35.7383 -2.4953 0.0664 0 8
-11.8447 35.5527 -2.4953 0.0664 0 8
-12.4141 35.3579 -2.4953 0.0664 0 8
26.4685 20.3691 -2.5029 0.0747 0 14
26.1380 20.7915 -2.5029 0.0747 0 14
25.8008 21.2085 -2.5029 0.0747 0 14
25.4569 21.6201 -2.5029 0.0747 0 14
25.1064 22.0260 -2.5029 0.0747 0 14
24.7495 22.4264 -2.5029 0.0747 0 8
25.7968 24.1410 -2.6477 0.0747 0 7
25.4058 24.5521 -2.6477 0.0747 0 7
25.0083 24.9569 -2.6477 0.0747 0 7
24.6043 25.3552 -2.6477 0.0747 0 7
24.1940 25.7470 -2.6477 0.0747 0 7
23.7775 26.1322 -2.6477 0.0747 0 7
23.3548 26.5107 -2.6477 0.0747 0 7
22.9261 26.8823 -2.6477 0.0747 0 7
22.4914 27.2469 -2.6477 0.0747 0 7
22.0510 27.6046 -2.6477 0.0747 0 7
21.6049 27.9551 -2.6477 0.0747 0 7
21.1532 28.2984 -2.6477 0.0747 0 7
20.6961 28.6344 -2.6477 0.0747 0 7
20.2337 28.9631 -2.6477 0.0747 0 7
19.7660 29.2843 -2.6477 0.0747 0 7
19.2932 29.5979 -2.6477 0.0747 0 7
18.8154 29.9039 -2.6477 0.0747 0 7
18.3328 30.2021 -2.6477 0.0747 0 7
17.8455 30.4926 -2.6477 0.0747 0 7
17.3535 30.7752 -2.6477 0.0747 0 7
16.8571 31.0499 -2.6477 0.0747 0 7
16.3563 31.3166 -2.6477 0.0747 0 7
15.8514 31.5752 -2.6477 0.0747 0 7
15.3423 31.8257 -2.6477 0.0747 0 7
14.8293 32.0679 -2.6477 0.0747 0 7
14.3124 32.3019 -2.6477 0.0747 0 7
13.7879 32.5181 -2.6469 0.0903 0 8
13.2486 32.6974 -2.6438 0.0904 0 8
12.7077 32.8693 -2.6409 0.0905 0 8
12.1231 32.9194 -2.6289 0.9328 0 8
11.5266 32.9205 -2.6139 0.9381 0 8
10.9368 32.9215 -2.5997 0.9433 0 8
10.3531 32.9224 -2.5863 0.9482 0 8
9.7752 32.9231 -2.5737 0.9528 0 8
9.2028 32.9237 -2.5619 0.9572 0 8
8.6354 32.9242 -2.5508 0.9614 0 8
8.0727 32.9245 -2.5404 0.9653 0 8
7.5145 32.9247 -2.5308 0.9690 0 8
6.9602 32.9249 -2.5219 0.9724 0 8
6.4097 32.9248 -2.5137 0.9755 0 8
5.8626 32.9247 -2.5062 0.9785 0 8
5.3190 32.9272 -2.4995 0.7485 0 8
4.7814 32.9520 -2.4953 0.0747 0 8
4.2516 33.0245 -2.4953 0.0747 0 8
3.7208 33.0886 -2.4953 0.0747 0 8
3.1890 33.1440 -2.4953 0.0747 0 8
2.6564 33.1910 -2.4953 0.0747 0 8
2.1230 33.2293 -2.4953 0.0747 0 8
1.5892 33.2592 -2.4953 0.0747 0 8
1.0549 33.2804 -2.4953 0.0747 0 8
0.5204 33.2930 -2.4953 0.0747 0 8
-0.0143 33.2971 -2.4953 0.0747 0 8
-0.5489 33.2926 -2.4953 0.0747 0 8
-1.0835 33.2795 -2.4953 0.0747 0 8
-1.6177 33.2578 -2.4953 0.0747 0 8
-2.1515 33.2275 -2.4953 0.0747 0 8
-2.6848 33.1887 -2.4953 0.0747 0 8
-3.2174 33.1413 -2.4953 0.0747 0 8
-3.7492 33.0853 -2.4953 0.0747 0 8
-4.2800 33.0209 -2.4953 0.0747 0 8
-4.8096 32.9479 -2.4953 0.0747 0 8
-5.3434 32.8993 -2.4978 0.7493 0 8
-5.8859 32.8925 -2.5041 0.9793 0 8
-6.4321 32.8896 -2.5114 0.9764 0 8
-6.9816 32.8866 -2.5194 0.9733 0 8
-7.5347 32.8834 -2.5281 0.9700 0 8
-8.0918 32.8801 -2.5375 0.9664 0 8
-8.6531 32.8767 -2.5477 0.9625 0 8
-9.2191 32.8731 -2.5585 0.9584 0 8
-9.7900 32.8694 -2.5702 0.9541 0 8
-10.3662 32.8655 -2.5825 0.9495 0 8
-10.9481 32.8614 -2.5957 0.9447 0 8
-11.5361 32.8572 -2.6097 0.9397 0 8
24.7051 19.0121 -2.5969 0.6106 0 8
23.9103 19.0194 -2.5451 0.6230 0 8
23.2105 19.0792 -2.5029 0.0830 0 8
22.9011 19.4495 -2.5029 0.0830 0 14
22.5858 19.8147 -2.5029 0.0830 0 14
22.2647 20.1748 -2.5029 0.0830 0 14
21.9379 20.5298 -2.5029 0.0830 0 14
21.6054 20.8794 -2.5029 0.0830 0 14
21.2674 21.2236 -2.5029 0.0830 0 14
20.9238 21.5624 -2.5029 0.0830 0 14
20.5749 21.8956 -2.5029 0.0830 0 14
20.2207 22.2232 -2.5029 0.0830 0 14
21.0101 23.8491 -2.6477 0.0830 0 7
20.6244 24.1834 -2.6477 0.0830 0 7
20.2334 24.5115 -2.6477 0.0830 0 7
19.8372 24.8332 -2.6477 0.0830 0 7
19.4359 25.1485 -2.6477 0.0830 0 7
19.0296 25.4574 -2.6477 0.0830 0 7
18.6183 25.7597 -2.6477 0.0830 0 7
18.2023 26.0553 -2.6477 0.0830 0 7
17.7816 26.3442 -2.6477 0.0830 0 7
17.3562 26.6264 -2.6477 0.0830 0 7
16.9265 26.9016 -2.6477 0.0830 0 7
16.4923 27.1700 -2.6477 0.0830 0 7
16.0539 27.4313 -2.6477 0.0830 0 7
15.6113 27.6856 -2.6477 0.0830 0 7
15.1647 27.9327 -2.6477 0.0830 0 7
14.7142 28.1726 -2.6477 0.0830 0 7
14.2600 28.4052 -2.6477 0.0830 0 7
13.8020 28.6305 -2.6477 0.0830 0 7
13.3405 28.8485 -2.6477 0.0830 0 7
12.8755 29.0590 -2.6477 0.0830 0 7
12.4073 29.2620 -2.6477 0.0830 0 7
11.9358 29.4574 -2.6477 0.0830 0 7
11.4612 29.6453 -2.6477 0.0830 0 7
10.9837 29.8255 -2.6477 0.0830 0 7
10.5031 29.9980 -2.6477 0.0830 0 6
10.0203 30.1628 -2.6477 0.0830 0 7
9.5347 30.3198 -2.6477 0.0830 0 7
9.0466 30.4690 -2.6477 0.0830 0 7
8.5562 30.6104 -2.6477 0.0830 0 7
8.0636 30.7438 -2.6477 0.0830 0 7
7.5688 30.8693 -2.6477 0.0830 0 7
7.0722 30.9869 -2.6477 0.0830 0 7
6.5737 31.0965 -2.6477 0.0830 0 7
6.0735 31.1980 -2.6477 0.0830 0 7
5.5718 31.2915 -2.6477 0.0830 0 7
5.0686 31.3769 -2.6477 0.0830 0 7
4.5641 31.4543 -2.6477 0.0830 0 7
4.0584 31.5235 -2.6477 0.0830 0 7
3.5517 31.5846 -2.6477 0.0830 0 7
3.0440 31.6376 -2.6477 0.0830 0 7
2.5356 31.6824 -2.6477 0.0830 0 7
2.0266 31.7190 -2.6477 0.0830 0 7
1.5170 31.7475 -2.6477 0.0830 0 7
1.0070 31.7677 -2.6477 0.0830 0 7
0.4967 31.7798 -2.6477 0.0830 0 7
-0.0136 31.7837 -2.6477 0.0830 0 7
-0.5240 31.7794 -2.6477 0.0830 0 7
-1.0342 31.7669 -2.6477 0.0830 0 7
-1.5442 31.7462 -2.6477 0.0830 0 7
-2.0538 31.7173 -2.6477 0.0830 0 7
-2.5628 31.6802 -2.6477 0.0830 0 7
-3.0712 31.6350 -2.6477 0.0830 0 7
-3.5788 31.5816 -2.6477 0.0830 0 7
-4.0854 31.5200 -2.6477 0.0830 0 7
-4.5911 31.4504 -2.6477 0.0830 0 7
-5.0955 31.3726 -2.6477 0.0830 0 7
-5.5986 31.2867 -2.6477 0.0830 0 7
-6.1003 31.1928 -2.6477 0.0830 0 7
-6.6004 31.0908 -2.6477 0.0830 0 7
-7.0987 30.9808 -2.6477 0.0830 0 7
-7.5953 30.8628 -2.6477 0.0830 0 7
-8.0899 30.7369 -2.6477 0.0830 0 7
-8.5824 30.6030 -2.6477 0.0830 0 7
-9.0727 30.4613 -2.6477 0.0830 0 7
-9.5607 30.3116 -2.6477 0.0830 0 7
-10.0462 30.1542 -2.6477 0.0830 0 7
-10.5291 29.9890 -2.6477 0.0830 0 7
22.8876 17.6133 -2.6477 0.0913 0 7
22.6018 17.9786 -2.6477 0.0913 0 7
22.3102 18.3392 -2.6477 0.0913 0 7
22.0128 18.6951 -2.6477 0.0913 0 7
21.6520 18.9955 -2.6406 0.6603 0 8
20.9705 19.0021 -2.5944 0.6721 0 8
20.3123 19.0085 -2.5504 0.6837 0 8
19.6772 19.0159 -2.5087 0.5525 0 8
19.3246 19.2849 -2.5029 0.0913 0 14
19.0124 19.5927 -2.5029 0.0913 0 14
18.6954 19.8954 -2.5029 0.0913 0 14
18.3735 20.1931 -2.5029 0.0913 0 14
18.0469 20.4855 -2.5029 0.0913 0 14
17.7156 20.7727 -2.5029 0.0913 0 14
17.3798 21.0545 -2.5029 0.0913 0 14
17.0394 21.3308 -2.5029 0.0913 0 14
16.6947 21.6017 -2.5029 0.0913 0 14
16.3457 21.8670 -2.5029 0.0913 0 14
15.9925 22.1266 -2.5029 0.0913 0 14
15.6351 22.3806 -2.5029 0.0913 0 8
16.1572 23.9377 -2.6477 0.0913 0 7
15.7707 24.1941 -2.6477 0.0913 0 7
15.3802 24.4442 -2.6477 0.0913 0 7
14.9857 24.6880 -2.6477 0.0913 0 7
14.5874 24.9255 -2.6477 0.0913 0 7
14.1852 25.1565 -2.6477 0.0913 0 7
13.7794 25.3810 -2.6477 0.0913 0 7
13.3701 25.5990 -2.6477 0.0913 0 7
12.9573 25.8104 -2.6477 0.0913 0 7
12.5412 26.0152 -2.6477 0.0913 0 7
12.1218 26.2132 -2.6477 0.0913 0 7
11.6993 26.4044 -2.6477 0.0913 0 7
11.2739 26.5889 -2.6477 0.0913 0 7
10.8454 26.7665 -2.6477 0.0913 0 7
10.4142 26.9372 -2.6477 0.0913 0 7
9.9804 27.1010 -2.6477 0.0913 0 7
9.5439 27.2577 -2.6477 0.0913 0 7
9.1050 27.4075 -2.6477 0.0913 0 7
8.6637 27.5501 -2.6477 0.0913 0 7
8.2202 27.6857 -2.6477 0.0913 0 7
7.7746 27.8141 -2.6477 0.0913 0 7
7.3269 27.9354 -2.6477 0.0913 0 7
6.8774 28.0494 -2.6477 0.0913 0 7
6.4261 28.1562 -2.6477 0.0913 0 7
5.9732 28.2558 -2.6477 0.0913 0 7
5.5187 28.3481 -2.6477 0.0913 0 7
5.0628 28.4330 -2.6477 0.0913 0 7
4.6056 28.5107 -2.6477 0.0913 0 7
4.1471 28.5810 -2.6477 0.0913 0 7
3.6877 28.6439 -2.6477 0.0913 0 7
3.2272 28.6994 -2.6477 0.0913 0 7
2.7660 28.7475 -2.6477 0.0913 0 7
2.3040 28.7882 -2.6477 0.0913 0 7
1.8414 28.8215 -2.6477 0.0913 0 7
1.3784 28.8473 -2.6477 0.0913 0 7
0.9150 28.8658 -2.6477 0.0913 0 7
0.4514 28.8767 -2.6477 0.0913 0 7
-0.0124 28.8803 -2.6477 0.0913 0 7
-0.4761 28.8763 -2.6477 0.0913 0 7
-0.9398 28.8650 -2.6477 0.0913 0 7
-1.4031 28.8462 -2.6477 0.0913 0 7
-1.8661 28.8199 -2.6477 0.0913 0 7
-2.3287 28.7862 -2.6477 0.0913 0 7
-2.7906 28.7451 -2.6477 0.0913 0 7
-3.2519 28.6966 -2.6477 0.0913 0 7
-3.7122 28.6407 -2.6477 0.0913 0 7
-4.1717 28.5774 -2.6477 0.0913 0 7
-4.6300 28.5067 -2.6477 0.0913 0 7
-5.0872 28.4287 -2.6477 0.0913 0 7
-5.5430 28.3433 -2.6477 0.0913 0 7
-5.9974 28.2507 -2.6477 0.0913 0 7
-6.4503 28.1507 -2.6477 0.0913 0 7
-6.9015 28.0435 -2.6477 0.0913 0 7
-7.3509 27.9291 -2.6477 0.0913 0 7
-7.7984 27.8075 -2.6477 0.0913 0 7
-8.2439 27.6786 -2.6477 0.0913 0 7
-8.6873 27.5427 -2.6477 0.0913 0 7
-9.1285 27.3996 -2.6477 0.0913 0 7
-9.5673 27.2495 -2.6477 0.0913 0 7
20.9691 16.1370 -2.6477 0.0996 0 7
20.7073 16.4716 -2.6477 0.0996 0 7
20.4401 16.8020 -2.6477 0.0996 0 7
20.1677 17.1281 -2.6477 0.0996 0 7
19.8900 17.4497 -2.6477 0.0996 0 7
19.6073 17.7668 -2.6477 0.0996 0 7
19.3195 18.0794 -2.6477 0.0996 0 7
19.0267 18.3873 -2.6477 0.0996 0 7
18.7290 18.6904 -2.6477 0.0996 0 7
18.4230 18.9853 -2.6472 0.7184 0 8
17.8455 18.9910 -2.6077 0.7293 0 8
17.2847 18.9964 -2.5700 0.7400 0 8
16.7396 19.0016 -2.5340 0.7505 0 8
16.2307 19.0315 -2.5029 0.0996 0 8
15.9230 19.2896 -2.5029 0.0996 0 14
15.6112 19.5429 -2.5029 0.0996 0 14
15.2954 19.7910 -2.5029 0.0996 0 14
14.9756 20.0341 -2.5029 0.0996 0 14
14.6520 20.2720 -2.5029 0.0996 0 14
14.3246 20.5046 -2.5029 0.0996 0 14
13.9935 20.7320 -2.5029 0.0996 0 14
13.6587 20.9540 -2.5029 0.0996 0 14
13.3205 21.1707 -2.5029 0.0996 0 14
12.9789 21.3818 -2.5029 0.0996 0 14
12.6338 21.5875 -2.5029 0.0996 0 14
12.2856 21.7876 -2.5029 0.0996 0 14
11.9341 21.9820 -2.5029 0.0996 0 14
11.5796 22.1708 -2.5029 0.0996 0 14
11.2221 22.3539 -2.5029 0.0996 0 8
11.4900 23.8346 -2.6477 0.0996 0 7
11.1058 24.0160 -2.6477 0.0996 0 7
10.7187 24.1912 -2.6477 0.0996 0 7
10.3289 24.3602 -2.6477 0.0996 0 7
9.9364 24.5229 -2.6477 0.0996 0 7
9.5413 24.6793 -2.6477 0.0996 0 7
9.1438 24.8293 -2.6477 0.0996 0 7
8.7439 24.9730 -2.6477 0.0996 0 7
8.3418 25.1102 -2.6477 0.0996 0 7
7.9375 25.2409 -2.6477 0.0996 0 7
7.5312 25.3651 -2.6477 0.0996 0 7
7.1229 25.4827 -2.6477 0.0996 0 7
6.7128 25.5938 -2.6477 0.0996 0 7
6.3010 25.6983 -2.6477 0.0996 0 7
5.8875 25.7962 -2.6477 0.0996 0 7
5.4725 25.8874 -2.6477 0.0996 0 7
5.0561 25.9719 -2.6477 0.0996 0 7
4.6384 26.0498 -2.6477 0.0996 0 7
4.2195 26.1209 -2.6477 0.0996 0 7
3.7995 26.1853 -2.6477 0.0996 0 7
3.3786 26.2429 -2.6477 0.0996 0 7
2.9567 26.2938 -2.6477 0.0996 0 7
2.5341 26.3379 -2.6477 0.0996 0 7
2.1109 26.3752 -2.6477 0.0996 0 7
1.6871 26.4057 -2.6477 0.0996 0 7
1.2629 26.4294 -2.6477 0.0996 0 7
0.8383 26.4462 -2.6477 0.0996 0 7
0.4135 26.4563 -2.6477 0.0996 0 7
-0.0113 26.4595 -2.6477 0.0996 0 6
-0.4362 26.4559 -2.6477 0.0996 0 6
-0.8610 26.4455 -2.6477 0.0996 0 6
-1.2855 26.4283 -2.6477 0.0996 0 6
-1.7097 26.4042 -2.6477 0.0996 0 6
-2.1335 26.3734 -2.6477 0.0996 0 7
-2.5567 26.3357 -2.6477 0.0996 0 7
-2.9793 26.2912 -2.6477 0.0996 0 7
-3.4011 26.2400 -2.6477 0.0996 0 7
-3.8220 26.1820 -2.6477 0.0996 0 7
-4.2419 26.1173 -2.6477 0.0996 0 7
-4.6608 26.0458 -2.6477 0.0996 0 7
-5.0784 25.9676 -2.6477 0.0996 0 7
-5.4947 25.8827 -2.6477 0.0996 0 7
-5.9096 25.7911 -2.6477 0.0996 0 7
-6.3230 25.6929 -2.6477 0.0996 0 7
-6.7347 25.5881 -2.6477 0.0996 0 7
-7.1448 25.4766 -2.6477 0.0996 0 7
-7.5529 25.3586 -2.6477 0.0996 0 7
-7.9592 25.2341 -2.6477 0.0996 0 7
-8.3633 25.1030 -2.6477 0.0996 0 7
-8.7653 24.9655 -2.6477 0.0996 0 7
19.3449 14.8870 -2.6477 0.1078 0 7
19.1033 15.1957 -2.6477 0.1078 0 7
18.8569 15.5005 -2.6477 0.1078 0 7
18.6055 15.8013 -2.6477 0.1078 0 7
18.3494 16.0981 -2.6477 0.1078 0 7
18.0885 16.3906 -2.6477 0.1078 0 7
17.8230 16.6790 -2.6477 0.1078 0 7
17.5529 16.9630 -2.6477 0.1078 0 7
17.2782 17.2427 -2.6477 0.1078 0 7
16.9991 17.5179 -2.6477 0.1078 0 7
16.7156 17.7886 -2.6477 0.1078 0 7
16.4279 18.0547 -2.6477 0.1078 0 7
16.1358 18.3162 -2.6477 0.1078 0 7
15.8396 18.5730 -2.6477 0.1078 0 7
15.5393 18.8249 -2.6477 0.1078 0 7
15.1604 18.9785 -2.6347 0.7817 0 8
14.6710 18.9832 -2.6023 0.7914 0 8
14.1933 18.9876 -2.5713 0.8010 0 8
13.7267 18.9918 -2.5417 0.8103 0 8
13.2704 18.9957 -2.5134 0.8194 0 8
12.9095 19.1261 -2.5029 0.1078 0 8
12.6008 19.3310 -2.5029 0.1078 0 14
12.2887 19.5308 -2.5029 0.1078 0 14
11.9735 19.7256 -2.5029 0.1078 0 14
11.6552 19.9153 -2.5029 0.1078 0 14
11.3339 20.0999 -2.5029 0.1078 0 14
11.0097 20.2793 -2.5029 0.1078 0 14
10.6827 20.4535 -2.5029 0.1078 0 14
10.3528 20.6224 -2.5029 0.1078 0 14
10.0204 20.7860 -2.5029 0.1078 0 14
9.6853 20.9442 -2.5029 0.1078 0 14
9.3477 21.0970 -2.5029 0.1078 0 14
9.0078 21.2444 -2.5029 0.1078 0 14
8.6655 21.3863 -2.5029 0.1078 0 14
8.3209 21.5227 -2.5029 0.1078 0 14
7.9743 21.6536 -2.5029 0.1078 0 14
7.6255 21.7788 -2.5029 0.1078 0 14
7.2748 21.8984 -2.5029 0.1078 0 14
6.9223 22.0124 -2.5029 0.1078 0 14
6.5679 22.1208 -2.5029 0.1078 0 14
6.2119 22.2234 -2.5029 0.1078 0 14
5.8542 22.3203 -2.5029 0.1078 0 8
5.4949 22.4114 -2.5029 0.1078 0 8
5.4315 23.7981 -2.6477 0.1078 0 7
5.0486 23.8822 -2.6477 0.1078 0 7
4.6645 23.9602 -2.6477 0.1078 0 7
4.2791 24.0320 -2.6477 0.1078 0 7
3.8927 24.0976 -2.6477 0.1078 0 7
3.5052 24.1570 -2.6477 0.1078 0 7
3.1169 24.2102 -2.6477 0.1078 0 7
2.7277 24.2571 -2.6477 0.1078 0 7
2.3378 24.2978 -2.6477 0.1078 0 7
1.9474 24.3322 -2.6477 0.1078 0 7
1.5564 24.3603 -2.6477 0.1078 0 7
1.1650 24.3822 -2.6477 0.1078 0 7
0.7734 24.3977 -2.6477 0.1078 0 7
0.3815 24.4070 -2.6477 0.1078 0 7
-0.0105 24.4100 -2.6477 0.1078 0 7
-0.4024 24.4067 -2.6477 0.1078 0 7
-0.7943 24.3971 -2.6477 0.1078 0 7
-1.1859 24.3812 -2.6477 0.1078 0 7
-1.5773 24.3590 -2.6477 0.1078 0 7
-1.9682 24.3305 -2.6477 0.1078 0 7
-2.3587 24.2958 -2.6477 0.1078 0 7
-2.7485 24.2548 -2.6477 0.1078 0 7
-3.1376 24.2075 -2.6477 0.1078 0 7
-3.5259 24.1540 -2.6477 0.1078 0 7
-3.9133 24.0943 -2.6477 0.1078 0 7
-4.2997 24.0283 -2.6477 0.1078 0 7
-4.6850 23.9562 -2.6477 0.1078 0 7
-5.0691 23.8779 -2.6477 0.1078 0 7
-5.4519 23.7934 -2.6477 0.1078 0 7
-5.8332 23.7028 -2.6477 0.1078 0 7
-5.8733 22.3152 -2.5029 0.1078 0 8
-6.2309 22.2180 -2.5029 0.1078 0 14
-6.5869 22.1151 -2.5029 0.1078 0 14
-6.9411 22.0065 -2.5029 0.1078 0 14
-7.2936 21.8922 -2.5029 0.1078 0 14
-7.6442 21.7723 -2.5029 0.1078 0 14
17.9519 13.8150 -2.6477 0.1161 0 7
17.7277 14.1015 -2.6477 0.1161 0 7
17.4990 14.3844 -2.6477 0.1161 0 7
17.2658 14.6635 -2.6477 0.1161 0 7
17.0281 14.9389 -2.6477 0.1161 0 7
16.7860 15.2104 -2.6477 0.1161 0 7
16.5396 15.4780 -2.6477 0.1161 0 7
16.2889 15.7415 -2.6477 0.1161 0 7
16.0341 16.0011 -2.6477 0.1161 0 7
15.7750 16.2565 -2.6477 0.1161 0 7
15.5120 16.5077 -2.6477 0.1161 0 7
15.2449 16.7546 -2.6477 0.1161 0 7
14.9739 16.9973 -2.6477 0.1161 0 7
14.6990 17.2355 -2.6477 0.1161 0 7
14.4204 17.4693 -2.6477 0.1161 0 7
14.1380 17.6987 -2.6477 0.1161 0 7
13.8520 17.9234 -2.6477 0.1161 0 7
13.5624 18.1435 -2.6477 0.1161 0 7
13.2693 18.3590 -2.6477 0.1161 0 7
12.9728 18.5697 -2.6477 0.1161 0 7
12.6729 18.7756 -2.6477 0.1161 0 7
12.3645 18.9686 -2.6465 0.8378 0 8
11.9373 18.9723 -2.6200 0.8463 0 8
11.5184 18.9758 -2.5946 0.8546 0 8
11.1074 18.9792 -2.5703 0.8627 0 8
10.7038 18.9824 -2.5471 0.8705 0 8
10.3072 18.9854 -2.5250 0.8781 0 8
9.9198 18.9930 -2.5045 0.7037 0 8
9.6112 19.1451 -2.5039 0.7089 0 8
9.2988 19.2892 -2.5029 0.1161 0 14
8.9879 19.4361 -2.5029 0.1161 0 14
8.6746 19.5779 -2.5029 0.1161 0 14
8.3591 19.7146 -2.5029 0.1161 0 14
8.0415 19.8463 -2.5029 0.1161 0 14
7.7218 19.9729 -2.5029 0.1161 0 14
7.4000 20.0943 -2.5029 0.1161 0 14
7.0764 20.2105 -2.5029 0.1161 0 14
6.7510 20.3216 -2.5029 0.1161 0 14
6.4238 20.4274 -2.5029 0.1161 0 14
6.0950 20.5279 -2.5029 0.1161 0 14
5.7646 20.6231 -2.5029 0.1161 0 14
5.4326 20.7130 -2.5029 0.1161 0 14
5.0993 20.7976 -2.5029 0.1161 0 14
4.7647 20.8768 -2.5029 0.1161 0 14
4.4289 20.9506 -2.5029 0.1161 0 14
4.0919 21.0190 -2.5029 0.1161 0 14
3.7538 21.0820 -2.5029 0.1161 0 14
3.4148 21.1396 -2.5029 0.1161 0 14
3.0749 21.1917 -2.5029 0.1161 0 14
2.7343 21.2383 -2.5029 0.1161 0 14
2.3929 21.2795 -2.5029 0.1161 0 14
2.0509 21.3152 -2.5029 0.1161 0 14
1.7083 21.3453 -2.5029 0.1161 0 14
1.3653 21.3700 -2.5029 0.1161 0 14
1.0220 21.3892 -2.5029 0.1161 0 14
0.6784 21.4028 -2.5029 0.1161 0 14
0.3347 21.4110 -2.5029 0.1161 0 14
-0.0092 21.4136 -2.5029 0.1161 0 14
-0.3530 21.4107 -2.5029 0.1161 0 14
-0.6968 21.4023 -2.5029 0.1161 0 14
-1.0404 21.3883 -2.5029 0.1161 0 14
-1.3837 21.3688 -2.5029 0.1161 0 14
-1.7266 21.3439 -2.5029 0.1161 0 14
-2.0691 21.3134 -2.5029 0.1161 0 14
-2.4111 21.2774 -2.5029 0.1161 0 14
-2.7525 21.2360 -2.5029 0.1161 0 14
-3.0931 21.1890 -2.5029 0.1161 0 14
-3.4330 21.1366 -2.5029 0.1161 0 14
-3.7719 21.0788 -2.5029 0.1161 0 14
-4.1099 21.0155 -2.5029 0.1161 0 14
-4.4469 20.9468 -2.5029 0.1161 0 14
-4.7826 20.8727 -2.5029 0.1161 0 14
-5.1172 20.7932 -2.5029 0.1161 0 14
-5.4504 20.7083 -2.5029 0.1161 0 14
-5.7822 20.6181 -2.5029 0.1161 0 14
-6.1126 20.5226 -2.5029 0.1161 0 14
-6.4413 20.4218 -2.5029 0.1161 0 14
-6.7684 20.3158 -2.5029 0.1161 0 14
-7.0938 20.2045 -2.5029 0.1161 0 14
16.7438 12.8854 -2.6477 0.1243 0 7
16.5348 13.1526 -2.6477 0.1243 0 7
16.3214 13.4164 -2.6477 0.1243 0 7
16.1039 13.6767 -2.6477 0.1243 0 7
15.8822 13.9336 -2.6477 0.1243 0 7
15.6564 14.1868 -2.6477 0.1243 0 7
15.4266 14.4364 -2.6477 0.1243 0 7
15.1928 14.6822 -2.6477 0.1243 0 7
14.9551 14.9243 -2.6477 0.1243 0 6
14.7135 15.1625 -2.6477 0.1243 0 7
14.4681 15.3968 -2.6477 0.1243 0 7
14.2190 15.6272 -2.6477 0.1243 0 7
13.9663 15.8535 -2.6477 0.1243 0 7
13.7099 16.0757 -2.6477 0.1243 0 7
13.4500 16.2938 -2.6477 0.1243 0 7
13.1866 16.5077 -2.6477 0.1243 0 7
12.9198 16.7173 -2.6477 0.1243 0 7
12.6497 16.9226 -2.6477 0.1243 0 7
12.3764 17.1235 -2.6477 0.1243 0 7
12.0998 17.3200 -2.6477 0.1243 0 7
11.8201 17.5121 -2.6477 0.1243 0 7
11.5374 17.6996 -2.6477 0.1243 0 7
11.2517 17.8826 -2.6477 0.1243 0 7
10.9631 18.0610 -2.6477 0.1243 0 7
10.6717 18.2347 -2.6477 0.1243 0 7
10.3775 18.4037 -2.6477 0.1243 0 6
10.0806 18.5680 -2.6477 0.1243 0 7
9.7812 18.7275 -2.6477 0.1243 0 7
9.4792 18.8821 -2.6477 0.1243 0 7
9.1407 18.9612 -2.6378 0.9003 0 8
8.7695 18.9638 -2.6183 0.9071 0 8
8.4036 18.9662 -2.5996 0.9136 0 8
8.0428 18.9685 -2.5819 0.9198 0 8
7.6867 18.9707 -2.5651 0.9259 0 8
7.3351 18.9726 -2.5491 0.9317 0 8
6.9877 18.9745 -2.5339 0.9372 0 8
6.6442 18.9762 -2.5196 0.9426 0 8
6.3056 18.9810 -2.5064 0.7532 0 8
5.9915 19.0527 -2.5029 0.1243 0 8
5.6848 19.1465 -2.5029 0.1243 0 14
5.3766 19.2353 -2.5029 0.1243 0 14
5.0671 19.3191 -2.5029 0.1243 0 14
4.7562 19.3980 -2.5029 0.1243 0 14
4.4441 19.4719 -2.5029 0.1243 0 14
4.1308 19.5407 -2.5029 0.1243 0 14
3.8165 19.6046 -2.5029 0.1243 0 14
3.5012 19.6633 -2.5029 0.1243 0 14
3.1850 19.7170 -2.5029 0.1243 0 14
2.8680 19.7656 -2.5029 0.1243 0 14
2.5503 19.8091 -2.5029 0.1243 0 14
2.2318 19.8475 -2.5029 0.1243 0 14
1.9129 19.8808 -2.5029 0.1243 0 14
1.5934 19.9089 -2.5029 0.1243 0 14
1.2735 19.9320 -2.5029 0.1243 0 14
0.9533 19.9498 -2.5029 0.1243 0 14
0.6328 19.9626 -2.5029 0.1243 0 14
0.3122 19.9702 -2.5029 0.1243 0 14
-0.0086 19.9726 -2.5029 0.1243 0 14
-0.3293 19.9699 -2.5029 0.1243 0 14
-0.6499 19.9620 -2.5029 0.1243 0 14
-0.9704 19.9490 -2.5029 0.1243 0 14
-1.2906 19.9309 -2.5029 0.1243 0 14
-1.6104 19.9076 -2.5029 0.1243 0 14
-1.9299 19.8791 -2.5029 0.1243 0 14
-2.2489 19.8456 -2.5029 0.1243 0 14
-2.5673 19.8069 -2.5029 0.1243 0 14
-2.8850 19.7631 -2.5029 0.1243 0 14
-3.2020 19.7143 -2.5029 0.1243 0 14
-3.5181 19.6603 -2.5029 0.1243 0 14
-3.8334 19.6013 -2.5029 0.1243 0 14
-4.1476 19.5372 -2.5029 0.1243 0 14
-4.4608 19.4681 -2.5029 0.1243 0 14
-4.7728 19.3939 -2.5029 0.1243 0 14
-5.0836 19.3148 -2.5029 0.1243 0 14
-5.3931 19.2307 -2.5029 0.1243 0 14
-5.7012 19.1416 -2.5029 0.1243 0 14
-6.0079 19.0476 -2.5029 0.1243 0 8
-6.3132 18.9494 -2.5030 0.7542 0 8
-6.6498 18.9400 -2.5155 0.9441 0 8
15.6861 12.0713 -2.6477 0.1326 0 7
15.4902 12.3217 -2.6477 0.1326 0 7
15.2903 12.5688 -2.6477 0.1326 0 7
15.0866 12.8127 -2.6477 0.1326 0 7
14.8788 13.0533 -2.6477 0.1326 0 7
14.6673 13.2906 -2.6477 0.1326 0 7
14.4520 13.5244 -2.6477 0.1326 0 7
14.2330 13.7547 -2.6477 0.1326 0 7
14.0103 13.9815 -2.6477 0.1326 0 7
13.7840 14.2046 -2.6477 0.1326 0 7
13.5541 14.4241 -2.6477 0.1326 0 7
13.3207 14.6399 -2.6477 0.1326 0 7
13.0839 14.8519 -2.6477 0.1326 0 7
12.8438 15.0601 -2.6477 0.1326 0 7
12.6003 15.2644 -2.6477 0.1326 0 7
12.3536 15.4648 -2.6477 0.1326 0 7
12.1036 15.6612 -2.6477 0.1326 0 7
11.8506 15.8535 -2.6477 0.1326 0 7
11.5945 16.0418 -2.6477 0.1326 0 7
11.3354 16.2259 -2.6477 0.1326 0 7
11.0734 16.4058 -2.6477 0.1326 0 7
10.8085 16.5815 -2.6477 0.1326 0 7
10.5409 16.7529 -2.6477 0.1326 0 7
10.2705 16.9200 -2.6477 0.1326 0 7
9.9975 17.0827 -2.6477 0.1326 0 7
9.7219 17.2411 -2.6477 0.1326 0 7
9.4438 17.3950 -2.6477 0.1326 0 7
9.1632 17.5444 -2.6477 0.1326 0 7
8.8803 17.6892 -2.6477 0.1326 0 7
8.5951 17.8296 -2.6477 0.1326 0 7
8.3077 17.9653 -2.6477 0.1326 0 7
8.0182 18.0964 -2.6477 0.1326 0 7
7.7266 18.2228 -2.6477 0.1326 0 7
7.4330 18.3445 -2.6477 0.1326 0 7
7.1375 18.4615 -2.6477 0.1326 0 6
6.8401 18.5737 -2.6477 0.1326 0 7
6.5409 18.6812 -2.6477 0.1326 0 7
6.2401 18.7838 -2.6477 0.1326 0 7
5.9377 18.8816 -2.6477 0.1326 0 7
5.6265 18.9503 -2.6443 0.9577 0 8
5.2973 18.9516 -2.6323 0.9620 0 8
4.9710 18.9528 -2.6210 0.9662 0 8
4.6473 18.9538 -2.6105 0.9701 0 8
4.3261 18.9547 -2.6007 0.9737 0 8
4.0071 18.9555 -2.5917 0.9771 0 8
3.6903 18.9562 -2.5833 0.9803 0 8
3.3754 18.9567 -2.5757 0.9832 0 8
3.0623 18.9571 -2.5687 0.9858 0 8
2.7508 18.9574 -2.5624 0.9883 0 8
2.4406 18.9576 -2.5568 0.9904 0 8
2.1318 18.9577 -2.5519 0.9923 0 8
1.8240 18.9576 -2.5476 0.9940 0 8
1.5172 18.9574 -2.5440 0.9954 0 8
1.2112 18.9571 -2.5410 0.9966 0 8
0.9058 18.9567 -2.5387 0.9975 0 8
0.6009 18.9562 -2.5370 0.9982 0 8
0.2963 18.9555 -2.5359 0.9986 0 8
-0.0081 18.9566 -2.5358 0.9970 0 8
-0.3125 18.9558 -2.5360 0.9987 0 8
-0.6171 18.9541 -2.5368 0.9984 0 8
-0.9219 18.9522 -2.5382 0.9978 0 8
-1.2271 18.9505 -2.5403 0.9969 0 8
-1.5329 18.9491 -2.5430 0.9958 0 8
-1.8395 18.9476 -2.5465 0.9944 0 8
-2.1469 18.9460 -2.5506 0.9928 0 8
-2.4554 18.9443 -2.5553 0.9910 0 8
-2.7652 18.9424 -2.5607 0.9889 0 8
-3.0763 18.9404 -2.5668 0.9866 0 8
-3.3889 18.9383 -2.5736 0.9840 0 8
-3.7033 18.9361 -2.5810 0.9811 0 8
-4.0195 18.9337 -2.5891 0.9781 0 8
-4.3378 18.9311 -2.5980 0.9747 0 8
-4.6583 18.9285 -2.6075 0.9712 0 8
-4.9812 18.9257 -2.6178 0.9673 0 8
-5.3068 18.9227 -2.6289 0.9633 0 8
-5.6351 18.9196 -2.6407 0.9590 0 8
-5.9539 18.8765 -2.6477 0.1326 0 7
-6.2562 18.7784 -2.6477 0.1326 0 7
-6.5570 18.6755 -2.6477 0.1326 0 7
14.7520 11.3526 -2.6477 0.1408 0 7
14.5678 11.5880 -2.6477 0.1408 0 7
14.3799 11.8204 -2.6477 0.1408 0 7
14.1882 12.0498 -2.6477 0.1408 0 7
13.9929 12.2761 -2.6477 0.1408 0 7
13.7940 12.4992 -2.6477 0.1408 0 7
13.5915 12.7191 -2.6477 0.1408 0 7
13.3855 12.9357 -2.6477 0.1408 0 7
13.1760 13.1489 -2.6477 0.1408 0 7
12.9632 13.3588 -2.6477 0.1408 0 7
12.7470 13.5653 -2.6477 0.1408 0 7
12.5276 13.7682 -2.6477 0.1408 0 7
12.3049 13.9676 -2.6477 0.1408 0 7
12.0790 14.1634 -2.6477 0.1408 0 7
11.8500 14.3555 -2.6477 0.1408 0 7
11.6179 14.5439 -2.6477 0.1408 0 7
11.3829 14.7286 -2.6477 0.1408 0 7
11.1449 14.9095 -2.6477 0.1408 0 7
10.9041 15.0865 -2.6477 0.1408 0 7
10.6604 15.2597 -2.6477 0.1408 0 7
10.4140 15.4289 -2.6477 0.1408 0 7
10.1649 15.5941 -2.6477 0.1408 0 7
9.9132 15.7553 -2.6477 0.1408 0 7
9.6589 15.9125 -2.6477 0.1408 0 7
9.4022 16.0655 -2.6477 0.1408 0 7
9.1430 16.2144 -2.6477 0.1408 0 7
8.8814 16.3592 -2.6477 0.1408 0 7
8.6176 16.4997 -2.6477 0.1408 0 7
8.3516 16.6359 -2.6477 0.1408 0 7
8.0833 16.7679 -2.6477 0.1408 0 7
7.8130 16.8955 -2.6477 0.1408 0 7
7.5407 17.0188 -2.6477 0.1408 0 7
7.2665 17.1377 -2.6477 0.1408 0 7
6.9904 17.2522 -2.6477 0.1408 0 7
6.7124 17.3622 -2.6477 0.1408 0 7
6.4328 17.4677 -2.6477 0.1408 0 7
6.1514 17.5688 -2.6477 0.1408 0 7
5.8686 17.6653 -2.6477 0.1408 0 7
5.5841 17.7573 -2.6477 0.1408 0 7
5.2983 17.8446 -2.6477 0.1408 0 7
5.0111 17.9274 -2.6477 0.1408 0 7
4.7225 18.0056 -2.6477 0.1408 0 7
4.4328 18.0791 -2.6477 0.1408 0 7
4.1419 18.1479 -2.6477 0.1408 0 7
3.8500 18.2121 -2.6477 0.1408 0 7
3.5570 18.2716 -2.6477 0.1408 0 7
3.2632 18.3263 -2.6477 0.1408 0 7
2.9685 18.3764 -2.6477 0.1408 0 7
2.6730 18.4217 -2.6477 0.1408 0 6
2.3769 18.4622 -2.6477 0.1408 0 6
2.0801 18.4980 -2.6477 0.1408 0 6
1.7828 18.5290 -2.6477 0.1408 0 7
1.4850 18.5553 -2.6477 0.1408 0 7
1.1869 18.5767 -2.6477 0.1408 0 7
0.8884 18.5934 -2.6477 0.1408 0 7
0.5898 18.6052 -2.6477 0.1408 0 7
0.2909 18.6123 -2.6477 0.1408 0 7
-0.0080 18.6146 -2.6477 0.1408 0 7
-0.3069 18.6121 -2.6477 0.1408 0 7
-0.6057 18.6047 -2.6477 0.1408 0 7
-0.9044 18.5926 -2.6477 0.1408 0 7
-1.2028 18.5757 -2.6477 0.1408 0 7
-1.5009 18.5540 -2.6477 0.1408 0 7
-1.7987 18.5275 -2.6477 0.1408 0 7
-2.0960 18.4962 -2.6477 0.1408 0 7
-2.3927 18.4602 -2.6477 0.1408 0 6
-2.6888 18.4194 -2.6477 0.1408 0 6
-2.9842 18.3738 -2.6477 0.1408 0 6
-3.2789 18.3235 -2.6477 0.1408 0 7
-3.5727 18.2685 -2.6477 0.1408 0 7
-3.8656 18.2088 -2.6477 0.1408 0 7
-4.1575 18.1444 -2.6477 0.1408 0 7
-4.4483 18.0753 -2.6477 0.1408 0 7
-4.7380 18.0015 -2.6477 0.1408 0 7
-5.0264 17.9231 -2.6477 0.1408 0 7
-5.3136 17.8401 -2.6477 0.1408 0 7
-5.5994 17.7525 -2.6477 0.1408 0 7
-5.8837 17.6603 -2.6477 0.1408 0 7
-6.1665 17.5635 -2.6477 0.1408 0 7
13.9211 10.7131 -2.6477 0.1490 0 7
13.7473 10.9353 -2.6477 0.1490 0 7
13.5700 11.1546 -2.6477 0.1490 0 7
13.3891 11.3711 -2.6477 0.1490 0 7
13.2048 11.5846 -2.6477 0.1490 0 7
13.0170 11.7952 -2.6477 0.1490 0 7
12.8260 12.0027 -2.6477 0.1490 0 7
12.6316 12.2071 -2.6477 0.1490 0 7
12.4339 12.4083 -2.6477 0.1490 0 7
12.2331 12.6064 -2.6477 0.1490 0 7
12.0291 12.8012 -2.6477 0.1490 0 7
11.8220 12.9927 -2.6477 0.1490 0 7
11.6118 13.1809 -2.6477 0.1490 0 7
11.3986 13.3656 -2.6477 0.1490 0 7
11.1826 13.5470 -2.6477 0.1490 0 7
10.9636 13.7248 -2.6477 0.1490 0 7
10.7418 13.8990 -2.6477 0.1490 0 7
10.5172 14.0697 -2.6477 0.1490 0 7
10.2899 14.2368 -2.6477 0.1490 0 7
10.0600 14.4002 -2.6477 0.1490 0 7
9.8275 14.5599 -2.6477 0.1490 0 7
9.5924 14.7158 -2.6477 0.1490 0 7
9.3549 14.8679 -2.6477 0.1490 0 7
9.1149 15.0162 -2.6477 0.1490 0 7
8.8726 15.1607 -2.6477 0.1490 0 7
8.6280 15.3012 -2.6477 0.1490 0 7
8.3812 15.4378 -2.6477 0.1490 0 7
8.1322 15.5704 -2.6477 0.1490 0 7
7.8812 15.6989 -2.6477 0.1490 0 7
7.6281 15.8235 -2.6477 0.1490 0 7
7.3730 15.9439 -2.6477 0.1490 0 7
7.1160 16.0603 -2.6477 0.1490 0 7
6.8572 16.1724 -2.6477 0.1490 0 7
6.5966 16.2805 -2.6477 0.1490 0 7
6.3344 16.3843 -2.6477 0.1490 0 7
6.0705 16.4839 -2.6477 0.1490 0 7
5.8050 16.5793 -2.6477 0.1490 0 7
5.5380 16.6703 -2.6477 0.1490 0 7
5.2696 16.7571 -2.6477 0.1490 0 7
4.9999 16.8396 -2.6477 0.1490 0 7
4.7288 16.9177 -2.6477 0.1490 0 7
4.4565 16.9914 -2.6477 0.1490 0 7
4.1831 17.0608 -2.6477 0.1490 0 7
3.9086 17.1258 -2.6477 0.1490 0 7
3.6331 17.1863 -2.6477 0.1490 0 7
3.3567 17.2424 -2.6477 0.1490 0 7
3.0794 17.2941 -2.6477 0.1490 0 7
2.8013 17.3413 -2.6477 0.1490 0 7
2.5225 17.3841 -2.6477 0.1490 0 7
2.2430 17.4224 -2.6477 0.1490 0 7
1.9629 17.4561 -2.6477 0.1490 0 7
1.6824 17.4854 -2.6477 0.1490 0 7
1.4014 17.5102 -2.6477 0.1490 0 7
1.1200 17.5304 -2.6477 0.1490 0 7
0.8384 17.5461 -2.6477 0.1490 0 7
0.5565 17.5573 -2.6477 0.1490 0 7
0.2745 17.5640 -2.6477 0.1490 0 7
-0.0075 17.5661 -2.6477 0.1490 0 7
-0.2896 17.5638 -2.6477 0.1490 0 7
-0.5716 17.5568 -2.6477 0.1490 0 7
-0.8534 17.5454 -2.6477 0.1490 0 7
-1.1351 17.5294 -2.6477 0.1490 0 7
-1.4164 17.5089 -2.6477 0.1490 0 7
-1.6974 17.4839 -2.6477 0.1490 0 7
-1.9779 17.4544 -2.6477 0.1490 0 7
-2.2579 17.4204 -2.6477 0.1490 0 7
-2.5374 17.3819 -2.6477 0.1490 0 7
-2.8162 17.3389 -2.6477 0.1490 0 7
-3.0942 17.2915 -2.6477 0.1490 0 7
-3.3715 17.2396 -2.6477 0.1490 0 7
-3.6479 17.1832 -2.6477 0.1490 0 7
-3.9233 17.1224 -2.6477 0.1490 0 7
-4.1978 17.0572 -2.6477 0.1490 0 7
-4.4711 16.9876 -2.6477 0.1490 0 7
-4.7433 16.9136 -2.6477 0.1490 0 7
-5.0143 16.8353 -2.6477 0.1490 0 7
-5.2840 16.7526 -2.6477 0.1490 0 7
-5.5523 16.6656 -2.6477 0.1490 0 7
-5.8192 16.5743 -2.6477 0.1490 0 7
13.1771 10.1406 -2.6477 0.1573 0 7
13.0126 10.3508 -2.6477 0.1573 0 7
12.8447 10.5585 -2.6477 0.1573 0 7
12.6735 10.7634 -2.6477 0.1573 0 7
12.4990 10.9655 -2.6477 0.1573 0 7
12.3213 11.1648 -2.6477 0.1573 0 7
12.1404 11.3612 -2.6477 0.1573 0 7
11.9565 11.5547 -2.6477 0.1573 0 7
11.7694 11.7452 -2.6477 0.1573 0 7
11.5792 11.9326 -2.6477 0.1573 0 7
11.3862 12.1170 -2.6477 0.1573 0 7
11.1901 12.2983 -2.6477 0.1573 0 7
10.9912 12.4764 -2.6477 0.1573 0 7
10.7894 12.6513 -2.6477 0.1573 0 7
10.5849 12.8229 -2.6477 0.1573 0 7
10.3776 12.9912 -2.6477 0.1573 0 7
10.1677 13.1562 -2.6477 0.1573 0 7
9.9551 13.3178 -2.6477 0.1573 0 7
9.7400 13.4759 -2.6477 0.1573 0 7
9.5223 13.6306 -2.6477 0.1573 0 7
9.3022 13.7817 -2.6477 0.1573 0 7
9.0797 13.9293 -2.6477 0.1573 0 7
8.8549 14.0733 -2.6477 0.1573 0 7
8.6278 14.2137 -2.6477 0.1573 0 7
8.3984 14.3504 -2.6477 0.1573 0 7
8.1669 14.4834 -2.6477 0.1573 0 7
7.9333 14.6127 -2.6477 0.1573 0 7
7.6976 14.7382 -2.6477 0.1573 0 7
7.4599 14.8599 -2.6477 0.1573 0 7
7.2203 14.9778 -2.6477 0.1573 0 6
6.9789 15.0918 -2.6477 0.1573 0 7
6.7357 15.2019 -2.6477 0.1573 0 7
6.4907 15.3081 -2.6477 0.1573 0 7
6.2441 15.4103 -2.6477 0.1573 0 7
5.9958 15.5086 -2.6477 0.1573 0 7
5.7460 15.6029 -2.6477 0.1573 0 7
5.4947 15.6931 -2.6477 0.1573 0 7
5.2420 15.7793 -2.6477 0.1573 0 7
4.9880 15.8615 -2.6477 0.1573 0 7
4.7326 15.9395 -2.6477 0.1573 0 7
4.4761 16.0135 -2.6477 0.1573 0 7
4.2184 16.0833 -2.6477 0.1573 0 7
3.9596 16.1490 -2.6477 0.1573 0 7
3.6997 16.2105 -2.6477 0.1573 0 7
3.4390 16.2678 -2.6477 0.1573 0 7
3.1773 16.3209 -2.6477 0.1573 0 7
2.9148 16.3698 -2.6477 0.1573 0 7
2.6516 16.4145 -2.6477 0.1573 0 7
2.3876 16.4550 -2.6477 0.1573 0 7
2.1231 16.4912 -2.6477 0.1573 0 7
1.8580 16.5232 -2.6477 0.1573 0 7
1.5925 16.5509 -2.6477 0.1573 0 7
1.3265 16.5743 -2.6477 0.1573 0 7
1.0602 16.5935 -2.6477 0.1573 0 7
0.7936 16.6083 -2.6477 0.1573 0 7
0.5268 16.6189 -2.6477 0.1573 0 7
0.2599 16.6253 -2.6477 0.1573 0 7
-0.0071 16.6273 -2.6477 0.1573 0 7
-0.2741 16.6250 -2.6477 0.1573 0 7
-0.5410 16.6185 -2.6477 0.1573 0 7
-0.8078 16.6077 -2.6477 0.1573 0 7
-1.0744 16.5925 -2.6477 0.1573 0 7
-1.3407 16.5732 -2.6477 0.1573 0 7
-1.6067 16.5495 -2.6477 0.1573 0 7
-1.8722 16.5215 -2.6477 0.1573 0 7
-2.1373 16.4894 -2.6477 0.1573 0 7
-2.4018 16.4529 -2.6477 0.1573 0 7
-2.6656 16.4122 -2.6477 0.1573 0 7
-2.9288 16.3673 -2.6477 0.1573 0 7
-3.1913 16.3182 -2.6477 0.1573 0 7
-3.4529 16.2648 -2.6477 0.1573 0 7
-3.7136 16.2073 -2.6477 0.1573 0 7
-3.9734 16.1455 -2.6477 0.1573 0 7
-4.2321 16.0797 -2.6477 0.1573 0 7
-4.4898 16.0096 -2.6477 0.1573 0 7
-4.7463 15.9355 -2.6477 0.1573 0 7
-5.0016 15.8572 -2.6477 0.1573 0 7
-5.2556 15.7749 -2.6477 0.1573 0 7
-5.5082 15.6884 -2.6477 0.1573 0 7
12.5069 9.6248 -2.6477 0.1655 0 7
12.3507 9.8244 -2.6477 0.1655 0 7
12.1914 10.0214 -2.6477 0.1655 0 7
12.0289 10.2159 -2.6477 0.1655 0 7
11.8633 10.4077 -2.6477 0.1655 0 7
11.6946 10.5969 -2.6477 0.1655 0 7
11.5229 10.7833 -2.6477 0.1655 0 7
11.3483 10.9669 -2.6477 0.1655 0 7
11.1707 11.1478 -2.6477 0.1655 0 7
10.9903 11.3257 -2.6477 0.1655 0 7
10.8070 11.5007 -2.6477 0.1655 0 6
10.6209 11.6728 -2.6477 0.1655 0 7
10.4321 11.8418 -2.6477 0.1655 0 7
10.2406 12.0078 -2.6477 0.1655 0 7
10.0465 12.1707 -2.6477 0.1655 0 7
9.8498 12.3305 -2.6477 0.1655 0 7
9.6505 12.4870 -2.6477 0.1655 0 7
9.4488 12.6404 -2.6477 0.1655 0 7
9.2446 12.7905 -2.6477 0.1655 0 7
9.0380 12.9373 -2.6477 0.1655 0 7
8.8291 13.0807 -2.6477 0.1655 0 7
8.6179 13.2208 -2.6477 0.1655 0 7
8.4045 13.3575 -2.6477 0.1655 0 7
8.1889 13.4907 -2.6477 0.1655 0 7
7.9712 13.6205 -2.6477 0.1655 0 7
7.7515 13.7467 -2.6477 0.1655 0 7
7.5298 13.8694 -2.6477 0.1655 0 7
7.3061 13.9885 -2.6477 0.1655 0 7
7.0805 14.1041 -2.6477 0.1655 0 7
6.8531 14.2159 -2.6477 0.1655 0 7
6.6240 14.3242 -2.6477 0.1655 0 7
6.3931 14.4287 -2.6477 0.1655 0 7
6.1606 14.5295 -2.6477 0.1655 0 7
5.9265 14.6265 -2.6477 0.1655 0 7
5.6908 14.7198 -2.6477 0.1655 0 7
5.4538 14.8093 -2.6477 0.1655 0 7
5.2152 14.8949 -2.6477 0.1655 0 7
4.9753 14.9768 -2.6477 0.1655 0 7
4.7343 15.0547 -2.6477 0.1655 0 7
4.4919 15.1288 -2.6477 0.1655 0 7
4.2484 15.1990 -2.6477 0.1655 0 7
4.0038 15.2652 -2.6477 0.1655 0 7
3.7582 15.3276 -2.6477 0.1655 0 7
3.5116 15.3859 -2.6477 0.1655 0 7
3.2640 15.4403 -2.6477 0.1655 0 7
3.0157 15.4908 -2.6477 0.1655 0 7
2.7665 15.5372 -2.6477 0.1655 0 7
2.5167 15.5796 -2.6477 0.1655 0 7
2.2662 15.6180 -2.6477 0.1655 0 7
2.0151 15.6524 -2.6477 0.1655 0 7
1.7635 15.6827 -2.6477 0.1655 0 7
1.5115 15.7090 -2.6477 0.1655 0 7
1.2590 15.7313 -2.6477 0.1655 0 7
1.0062 15.7495 -2.6477 0.1655 0 7
0.7532 15.7636 -2.6477 0.1655 0 7
0.5000 15.7737 -2.6477 0.1655 0 7
0.2467 15.7796 -2.6477 0.1655 0 7
-0.0068 15.7816 -2.6477 0.1655 0 7
-0.2602 15.7794 -2.6477 0.1655 0 7
-0.5135 15.7732 -2.6477 0.1655 0 7
-0.7667 15.7629 -2.6477 0.1655 0 7
-1.0198 15.7486 -2.6477 0.1655 0 7
-1.2725 15.7302 -2.6477 0.1655 0 7
-1.5249 15.7077 -2.6477 0.1655 0 7
-1.7770 15.6812 -2.6477 0.1655 0 7
-2.0285 15.6507 -2.6477 0.1655 0 7
-2.2796 15.6161 -2.6477 0.1655 0 7
-2.5301 15.5774 -2.6477 0.1655 0 7
-2.7799 15.5348 -2.6477 0.1655 0 7
-3.0290 15.4882 -2.6477 0.1655 0 7
-3.2773 15.4375 -2.6477 0.1655 0 7
-3.5247 15.3829 -2.6477 0.1655 0 7
-3.7713 15.3243 -2.6477 0.1655 0 7
-4.0169 15.2618 -2.6477 0.1655 0 7
-4.2614 15.1953 -2.6477 0.1655 0 7
-4.5049 15.1249 -2.6477 0.1655 0 7
-4.7472 15.0507 -2.6477 0.1655 0 7
-4.9882 14.9725 -2.6477 0.1655 0 7
-5.2280 14.8905 -2.6477 0.1655 0 7
11.8999 9.1577 -2.6477 0.1736 0 7
11.7513 9.3476 -2.6477 0.1736 0 7
11.5997 9.5351 -2.6477 0.1736 0 7
11.4451 9.7201 -2.6477 0.1736 0 7
11.2875 9.9026 -2.6477 0.1736 0 7
11.1271 10.0826 -2.6477 0.1736 0 7
10.9637 10.2600 -2.6477 0.1736 0 7
10.7976 10.4347 -2.6477 0.1736 0 7
10.6286 10.6068 -2.6477 0.1736 0 7
10.4569 10.7761 -2.6477 0.1736 0 7
10.2825 10.9426 -2.6477 0.1736 0 7
10.1055 11.1063 -2.6477 0.1736 0 7
9.9259 11.2671 -2.6477 0.1736 0 7
9.7437 11.4251 -2.6477 0.1736 0 6
9.5589 11.5800 -2.6477 0.1736 0 7
9.3718 11.7321 -2.6477 0.1736 0 7
9.1822 11.8810 -2.6477 0.1736 0 7
8.9902 12.0269 -2.6477 0.1736 0 7
8.7959 12.1697 -2.6477 0.1736 0 7
8.5994 12.3094 -2.6477 0.1736 0 7
8.4006 12.4459 -2.6477 0.1736 0 7
8.1997 12.5792 -2.6477 0.1736 0 7
7.9966 12.7092 -2.6477 0.1736 0 7
7.7915 12.8360 -2.6477 0.1736 0 7
7.5844 12.9595 -2.6477 0.1736 0 7
7.3753 13.0796 -2.6477 0.1736 0 7
7.1643 13.1963 -2.6477 0.1736 0 7
6.9515 13.3097 -2.6477 0.1736 0 7
6.7369 13.4196 -2.6477 0.1736 0 7
6.5205 13.5260 -2.6477 0.1736 0 7
6.3025 13.6290 -2.6477 0.1736 0 7
6.0828 13.7284 -2.6477 0.1736 0 7
5.8616 13.8243 -2.6477 0.1736 0 7
5.6389 13.9167 -2.6477 0.1736 0 7
5.4147 14.0054 -2.6477 0.1736 0 7
5.1891 14.0906 -2.6477 0.1736 0 7
4.9621 14.1721 -2.6477 0.1736 0 7
4.7339 14.2499 -2.6477 0.1736 0 7
4.5045 14.3241 -2.6477 0.1736 0 7
4.2739 14.3946 -2.6477 0.1736 0 7
4.0422 14.4614 -2.6477 0.1736 0 7
3.8095 14.5244 -2.6477 0.1736 0 7
3.5758 14.5837 -2.6477 0.1736 0 7
3.3411 14.6393 -2.6477 0.1736 0 7
3.1056 14.6910 -2.6477 0.1736 0 7
2.8693 14.7390 -2.6477 0.1736 0 7
2.6323 14.7832 -2.6477 0.1736 0 7
2.3946 14.8235 -2.6477 0.1736 0 7
2.1562 14.8601 -2.6477 0.1736 0 7
1.9173 14.8928 -2.6477 0.1736 0 7
1.6779 14.9216 -2.6477 0.1736 0 7
1.4381 14.9467 -2.6477 0.1736 0 7
1.1979 14.9678 -2.6477 0.1736 0 7
0.9574 14.9851 -2.6477 0.1736 0 7
0.7167 14.9986 -2.6477 0.1736 0 7
0.4757 15.0082 -2.6477 0.1736 0 7
0.2347 15.0139 -2.6477 0.1736 0 7
-0.0064 15.0157 -2.6477 0.1736 0 7
-0.2475 15.0137 -2.6477 0.1736 0 7
-0.4886 15.0077 -2.6477 0.1736 0 7
-0.7295 14.9980 -2.6477 0.1736 0 7
-0.9703 14.9843 -2.6477 0.1736 0 6
-1.2108 14.9668 -2.6477 0.1736 0 6
-1.4509 14.9454 -2.6477 0.1736 0 6
-1.6908 14.9202 -2.6477 0.1736 0 7
-1.9301 14.8911 -2.6477 0.1736 0 7
-2.1690 14.8582 -2.6477 0.1736 0 7
-2.4073 14.8215 -2.6477 0.1736 0 7
-2.6450 14.7809 -2.6477 0.1736 0 7
-2.8820 14.7365 -2.6477 0.1736 0 7
-3.1182 14.6883 -2.6477 0.1736 0 7
-3.3537 14.6364 -2.6477 0.1736 0 7
-3.5883 14.5806 -2.6477 0.1736 0 7
-3.8219 14.5211 -2.6477 0.1736 0 7
-4.0546 14.4579 -2.6477 0.1736 0 7
-4.2863 14.3909 -2.6477 0.1736 0 7
-4.5168 14.3203 -2.6477 0.1736 0 7
-4.7462 14.2459 -2.6477 0.1736 0 7
-4.9743 14.1678 -2.6477 0.1736 0 7
10.6944 8.2300 -2.4953 0.1818 0 8
10.5609 8.4007 -2.4953 0.1818 0 8
11.0613 9.0925 -2.6477 0.1818 0 7
10.9139 9.2690 -2.6477 0.1818 0 7
10.7636 9.4430 -2.6477 0.1818 0 7
10.6106 9.6147 -2.6477 0.1818 0 7
10.4549 9.7838 -2.6477 0.1818 0 7
10.2964 9.9504 -2.6477 0.1818 0 7
