ply
format ascii 1.0
element vertex 1374
property float32 x
property float32 y
property float32 z
property float32 CosAngle
property uint32 ObjIdx
property uint32 ObjTag
end_header
40.6817 91.4138 -2.4953 0.0249 0 8
39.2076 92.0557 -2.4953 0.0249 0 8
37.7234 92.6738 -2.4953 0.0249 0 8
36.2295 93.2680 -2.4953 0.0249 0 8
34.7262 93.8380 -2.4953 0.0249 0 8
33.2139 94.3839 -2.4953 0.0249 0 8
31.6931 94.9054 -2.4953 0.0249 0 8
30.1641 95.4024 -2.4953 0.0249 0 8
28.6273 95.8747 -2.4953 0.0249 0 8
27.0831 96.3223 -2.4953 0.0249 0 8
25.5319 96.7451 -2.4953 0.0249 0 8
23.9740 97.1429 -2.4953 0.0249 0 8
22.4101 97.5155 -2.4953 0.0249 0 8
20.8403 97.8630 -2.4953 0.0249 0 8
19.2652 98.1852 -2.4953 0.0249 0 8
17.6850 98.4821 -2.4953 0.0249 0 8
16.1003 98.7536 -2.4953 0.0249 0 8
14.5115 98.9995 -2.4953 0.0249 0 8
12.9188 99.2199 -2.4953 0.0249 0 8
11.3229 99.4147 -2.4953 0.0249 0 8
9.7240 99.5837 -2.4953 0.0249 0 8
8.1227 99.7272 -2.4953 0.0249 0 8
6.5192 99.8448 -2.4953 0.0249 0 8
4.9141 99.9367 -2.4953 0.0249 0 8
3.3076 100.0027 -2.4953 0.0249 0 8
1.7004 100.0430 -2.4953 0.0249 0 8
0.0926 100.0574 -2.4953 0.0249 0 8
-1.5150 100.0459 -2.4953 0.0249 0 8
-3.1224 100.0087 -2.4953 0.0249 0 8
-4.7289 99.9456 -2.4953 0.0249 0 8
-6.3343 99.8567 -2.4953 0.0249 0 8
-7.9379 99.7420 -2.4953 0.0249 0 8
-9.5396 99.6016 -2.4953 0.0249 0 8
-11.1388 99.4355 -2.4953 0.0249 0 8
-12.7350 99.2437 -2.4953 0.0249 0 8
-14.3281 99.0262 -2.4953 0.0249 0 8
-15.9173 98.7832 -2.4953 0.0249 0 8
-17.5026 98.5147 -2.4953 0.0249 0 8
-19.0832 98.2208 -2.4953 0.0249 0 8
-20.6590 97.9015 -2.4953 0.0249 0 8
-22.2294 97.5569 -2.4953 0.0249 0 8
-23.7941 97.1871 -2.4953 0.0249 0 8
-25.3526 96.7922 -2.4953 0.0249 0 8
-26.9046 96.3723 -2.4953 0.0249 0 8
60.2765 44.6807 -2.4953 0.0332 0 22
59.5508 45.6435 -2.4953 0.0332 0 22
58.8097 46.5944 -2.4953 0.0332 0 22
58.0534 47.5334 -2.4953 0.0332 0 22
57.2822 48.4600 -2.4953 0.0332 0 22
56.4961 49.3742 -2.4953 0.0332 0 22
55.6954 50.2756 -2.4953 0.0332 0 22
54.8804 51.1641 -2.4953 0.0332 0 8
54.0513 52.0392 -2.4953 0.0332 0 8
53.2081 52.9010 -2.4953 0.0332 0 8
52.3512 53.7492 -2.4953 0.0332 0 8
51.4808 54.5834 -2.4953 0.0332 0 8
50.5972 55.4035 -2.4953 0.0332 0 8
49.7003 56.2094 -2.4953 0.0332 0 8
51.7707 60.4821 -2.6477 0.0332 0 7
50.7922 61.3061 -2.6477 0.0332 0 7
49.8006 62.1143 -2.6477 0.0332 0 7
48.7961 62.9065 -2.6477 0.0332 0 7
47.7790 63.6824 -2.6477 0.0332 0 7
46.7496 64.4419 -2.6477 0.0332 0 7
45.7081 65.1847 -2.6477 0.0332 0 7
44.6548 65.9108 -2.6477 0.0332 0 7
43.5900 66.6198 -2.6477 0.0332 0 7
42.5139 67.3116 -2.6477 0.0332 0 7
41.4269 67.9860 -2.6477 0.0332 0 7
40.3291 68.6429 -2.6477 0.0332 0 7
39.2210 69.2820 -2.6477 0.0332 0 7
38.1027 69.9033 -2.6477 0.0332 0 7
36.9745 70.5065 -2.6477 0.0332 0 7
35.8369 71.0915 -2.6477 0.0332 0 7
34.6899 71.6582 -2.6477 0.0332 0 7
33.5340 72.2063 -2.6477 0.0332 0 7
32.3695 72.7358 -2.6477 0.0332 0 7
31.1966 73.2466 -2.6477 0.0332 0 7
30.0156 73.7383 -2.6477 0.0332 0 7
28.8050 74.1545 -2.6457 0.0490 0 8
27.5553 74.4607 -2.6404 0.0491 0 8
26.2112 74.4843 -2.6260 0.9326 0 8
24.8739 74.4852 -2.6116 0.9378 0 8
23.5508 74.4860 -2.5980 0.9427 0 8
22.2410 74.4867 -2.5852 0.9474 0 8
20.9437 74.4873 -2.5733 0.9518 0 8
19.6579 74.4877 -2.5620 0.9559 0 8
18.3830 74.4880 -2.5515 0.9599 0 8
17.1182 74.4882 -2.5418 0.9635 0 8
15.8625 74.4883 -2.5328 0.9670 0 8
14.6155 74.4882 -2.5245 0.9702 0 8
13.3763 74.4881 -2.5168 0.9731 0 8
12.1441 74.4878 -2.5099 0.9758 0 8
10.9185 74.4874 -2.5037 0.9782 0 8
9.6990 74.4906 -2.4982 0.7241 0 8
8.4908 74.5488 -2.4953 0.0332 0 8
7.2918 74.6756 -2.4953 0.0332 0 8
6.0910 74.7832 -2.4953 0.0332 0 8
4.8886 74.8714 -2.4953 0.0332 0 8
3.6849 74.9403 -2.4953 0.0332 0 8
2.4803 74.9898 -2.4953 0.0332 0 8
1.2751 75.0200 -2.4953 0.0332 0 8
0.0695 75.0308 -2.4953 0.0332 0 8
-1.1361 75.0222 -2.4953 0.0332 0 8
-2.3414 74.9943 -2.4953 0.0332 0 8
-3.5461 74.9469 -2.4953 0.0332 0 8
-4.7499 74.8803 -2.4953 0.0332 0 8
-5.9525 74.7943 -2.4953 0.0332 0 8
-7.1535 74.6890 -2.4953 0.0332 0 8
-8.3526 74.5644 -2.4953 0.0332 0 8
-9.5557 74.4674 -2.4968 0.7249 0 8
-10.7737 74.4606 -2.5021 0.7234 0 8
-11.9976 74.4572 -2.5081 0.9765 0 8
-13.2279 74.4544 -2.5149 0.9739 0 8
-14.4651 74.4514 -2.5223 0.9710 0 8
-15.7100 74.4484 -2.5304 0.9679 0 8
-16.9632 74.4451 -2.5393 0.9645 0 8
-18.2254 74.4417 -2.5488 0.9609 0 8
-19.4974 74.4382 -2.5591 0.9570 0 8
-20.7802 74.4345 -2.5701 0.9529 0 8
49.7972 36.9128 -2.5774 0.9833 0 8
49.3216 37.8031 -2.5838 0.9695 0 8
48.9476 38.7808 -2.5966 0.9260 0 8
48.6906 39.8672 -2.6166 0.8595 0 8
48.5009 41.0312 -2.6415 0.0547 0 8
47.9474 41.9032 -2.6477 0.0415 0 7
47.2679 42.6682 -2.6477 0.0415 0 7
46.5762 43.4222 -2.6477 0.0415 0 7
45.8725 44.1649 -2.6477 0.0415 0 7
45.1570 44.8963 -2.6477 0.0415 0 7
44.4297 45.6161 -2.6477 0.0415 0 7
43.6910 46.3241 -2.6477 0.0415 0 7
42.9411 47.0201 -2.6477 0.0415 0 7
42.1800 47.7041 -2.6477 0.0415 0 7
41.4080 48.3757 -2.6477 0.0415 0 7
40.6254 49.0348 -2.6477 0.0415 0 7
39.8322 49.6812 -2.6477 0.0415 0 7
39.0288 50.3148 -2.6477 0.0415 0 7
38.2153 50.9354 -2.6477 0.0415 0 7
35.2397 48.5761 -2.4953 0.0415 0 8
34.4546 49.1360 -2.4953 0.0415 0 8
33.6607 49.6833 -2.4953 0.0415 0 8
32.8580 50.2178 -2.4953 0.0415 0 8
32.0469 50.7392 -2.4953 0.0415 0 8
31.2275 51.2476 -2.4953 0.0415 0 8
30.3999 51.7428 -2.4953 0.0415 0 8
29.5646 52.2245 -2.4953 0.0415 0 8
28.7217 52.6929 -2.4953 0.0415 0 8
27.8713 53.1476 -2.4953 0.0415 0 8
27.0137 53.5885 -2.4953 0.0415 0 8
26.1491 54.0157 -2.4953 0.0415 0 8
25.2778 54.4289 -2.4953 0.0415 0 8
24.4000 54.8280 -2.4953 0.0415 0 8
23.5159 55.2130 -2.4953 0.0415 0 8
22.6257 55.5837 -2.4953 0.0415 0 8
21.7297 55.9401 -2.4953 0.0415 0 8
20.8280 56.2820 -2.4953 0.0415 0 8
19.9210 56.6094 -2.4953 0.0415 0 8
19.0088 56.9222 -2.4953 0.0415 0 8
18.0917 57.2203 -2.4953 0.0415 0 8
17.1700 57.5036 -2.4953 0.0415 0 8
16.2438 57.7721 -2.4953 0.0415 0 8
15.3135 58.0256 -2.4953 0.0415 0 8
14.3791 58.2642 -2.4953 0.0415 0 8
13.4411 58.4877 -2.4953 0.0415 0 8
12.4995 58.6961 -2.4953 0.0415 0 8
11.5548 58.8894 -2.4953 0.0415 0 8
10.6071 59.0674 -2.4953 0.0415 0 8
9.6566 59.2302 -2.4953 0.0415 0 8
8.7037 59.3778 -2.4953 0.0415 0 8
7.7484 59.5099 -2.4953 0.0415 0 8
6.7912 59.6268 -2.4953 0.0415 0 8
5.8323 59.7282 -2.4953 0.0415 0 8
4.8718 59.8142 -2.4953 0.0415 0 8
3.9101 59.8847 -2.4953 0.0415 0 8
2.9473 59.9398 -2.4953 0.0415 0 8
1.9838 59.9795 -2.4953 0.0415 0 8
1.0198 60.0036 -2.4953 0.0415 0 8
0.0556 60.0122 -2.4953 0.0415 0 8
-0.9087 60.0054 -2.4953 0.0415 0 8
-1.8727 59.9830 -2.4953 0.0415 0 8
-2.8363 59.9452 -2.4953 0.0415 0 8
-3.7992 59.8919 -2.4953 0.0415 0 8
-4.7610 59.8231 -2.4953 0.0415 0 8
-5.7216 59.7389 -2.4953 0.0415 0 8
-6.6808 59.6392 -2.4953 0.0415 0 8
-7.6382 59.5242 -2.4953 0.0415 0 8
-8.5936 59.3938 -2.4953 0.0415 0 8
-9.5469 59.2480 -2.4953 0.0415 0 8
-10.4977 59.0870 -2.4953 0.0415 0 8
-11.4457 58.9107 -2.4953 0.0415 0 8
-12.3908 58.7192 -2.4953 0.0415 0 8
-13.3327 58.5125 -2.4953 0.0415 0 8
-14.2712 58.2907 -2.4953 0.0415 0 8
-15.2059 58.0539 -2.4953 0.0415 0 8
-16.1368 57.8020 -2.4953 0.0415 0 8
42.6189 31.5918 -2.6477 0.0498 0 7
42.1058 32.2725 -2.6477 0.0498 0 7
41.5818 32.9449 -2.6477 0.0498 0 7
41.0471 33.6088 -2.6477 0.0498 0 7
40.5018 34.2641 -2.6477 0.0498 0 6
39.9460 34.9104 -2.6477 0.0498 0 7
39.3799 35.5478 -2.6477 0.0498 0 7
38.8036 36.1760 -2.6477 0.0498 0 6
38.2174 36.7947 -2.6477 0.0498 0 7
37.6212 37.4041 -2.6477 0.0498 0 7
37.0153 38.0037 -2.6477 0.0498 0 7
36.3999 38.5936 -2.6477 0.0498 0 7
33.7159 36.9186 -2.4953 0.0498 0 8
33.1183 37.4557 -2.4953 0.0498 0 8
32.5122 37.9829 -2.4953 0.0498 0 8
31.8977 38.5004 -2.4953 0.0498 0 8
31.2749 39.0080 -2.4953 0.0498 0 8
30.6441 39.5055 -2.4953 0.0498 0 8
30.0054 39.9928 -2.4953 0.0498 0 8
29.3589 40.4698 -2.4953 0.0498 0 8
28.7049 40.9362 -2.4953 0.0498 0 8
28.0434 41.3922 -2.4953 0.0498 0 8
27.3747 41.8375 -2.4953 0.0498 0 8
26.6989 42.2719 -2.4953 0.0498 0 8
26.0162 42.6955 -2.4953 0.0498 0 8
25.3268 43.1080 -2.4953 0.0498 0 8
24.6309 43.5094 -2.4953 0.0498 0 8
23.9286 43.8995 -2.4953 0.0498 0 8
23.2201 44.2784 -2.4953 0.0498 0 8
22.5057 44.6457 -2.4953 0.0498 0 8
21.7854 45.0016 -2.4953 0.0498 0 8
21.0595 45.3458 -2.4953 0.0498 0 8
20.3282 45.6784 -2.4953 0.0498 0 8
19.5916 45.9991 -2.4953 0.0498 0 8
18.8499 46.3080 -2.4953 0.0498 0 8
18.1034 46.6049 -2.4953 0.0498 0 8
17.3523 46.8897 -2.4953 0.0498 0 8
16.5966 47.1625 -2.4953 0.0498 0 8
15.8367 47.4231 -2.4953 0.0498 0 8
15.0726 47.6714 -2.4953 0.0498 0 8
14.3047 47.9074 -2.4953 0.0498 0 8
13.5331 48.1311 -2.4953 0.0498 0 8
12.7579 48.3423 -2.4953 0.0498 0 8
11.9795 48.5411 -2.4953 0.0498 0 8
11.1980 48.7273 -2.4953 0.0498 0 8
10.4136 48.9010 -2.4953 0.0498 0 8
9.6266 49.0620 -2.4953 0.0498 0 8
8.8370 49.2103 -2.4953 0.0498 0 8
8.0451 49.3460 -2.4953 0.0498 0 8
7.2512 49.4689 -2.4953 0.0498 0 8
6.4554 49.5790 -2.4953 0.0498 0 8
5.6579 49.6763 -2.4953 0.0498 0 8
4.8590 49.7608 -2.4953 0.0498 0 8
4.0588 49.8325 -2.4953 0.0498 0 8
3.2576 49.8912 -2.4953 0.0498 0 8
2.4555 49.9371 -2.4953 0.0498 0 8
1.6528 49.9701 -2.4953 0.0498 0 8
0.8497 49.9903 -2.4953 0.0498 0 8
0.0463 49.9975 -2.4953 0.0498 0 8
-0.7571 49.9917 -2.4953 0.0498 0 8
-1.5602 49.9731 -2.4953 0.0498 0 8
-2.3630 49.9416 -2.4953 0.0498 0 8
-3.1652 49.8972 -2.4953 0.0498 0 8
-3.9665 49.8399 -2.4953 0.0498 0 8
-4.7668 49.7697 -2.4953 0.0498 0 8
-5.5659 49.6867 -2.4953 0.0498 0 8
-6.3635 49.5909 -2.4953 0.0498 0 8
-7.1596 49.4822 -2.4953 0.0498 0 8
-7.9537 49.3608 -2.4953 0.0498 0 8
-8.7458 49.2266 -2.4953 0.0498 0 8
-9.5357 49.0797 -2.4953 0.0498 0 8
-10.3231 48.9202 -2.4953 0.0498 0 8
-11.1078 48.7480 -2.4953 0.0498 0 8
-11.8896 48.5632 -2.4953 0.0498 0 8
-12.6684 48.3659 -2.4953 0.0498 0 8
-13.4439 48.1561 -2.4953 0.0498 0 8
36.5196 27.0706 -2.6477 0.0581 0 7
36.0799 27.6539 -2.6477 0.0581 0 7
35.6309 28.2301 -2.6477 0.0581 0 7
35.1727 28.7990 -2.6477 0.0581 0 7
34.7055 29.3604 -2.6477 0.0581 0 7
34.2292 29.9143 -2.6477 0.0581 0 7
33.7441 30.4604 -2.6477 0.0581 0 7
33.2503 30.9987 -2.6477 0.0581 0 7
32.7480 31.5289 -2.6477 0.0581 0 7
32.2371 32.0511 -2.6477 0.0581 0 7
31.7179 32.5649 -2.6477 0.0581 0 7
31.1906 33.0703 -2.6477 0.0581 0 7
30.5857 33.4911 -2.6417 0.0657 0 8
29.3591 33.2041 -2.5815 0.5735 0 8
28.2694 33.0263 -2.5320 0.6869 0 8
27.3343 32.9925 -2.4954 0.5834 0 8
26.7991 33.4255 -2.4953 0.0581 0 8
26.2585 33.8518 -2.4953 0.0581 0 8
25.7112 34.2693 -2.4953 0.0581 0 8
25.1573 34.6780 -2.4953 0.0581 0 8
24.5968 35.0778 -2.4953 0.0581 0 8
24.0300 35.4684 -2.4953 0.0581 0 8
23.4570 35.8500 -2.4953 0.0581 0 8
22.8779 36.2223 -2.4953 0.0581 0 8
22.2930 36.5852 -2.4953 0.0581 0 8
21.7022 36.9387 -2.4953 0.0581 0 8
21.1059 37.2826 -2.4953 0.0581 0 8
20.5041 37.6169 -2.4953 0.0581 0 8
19.8970 37.9415 -2.4953 0.0581 0 8
19.2848 38.2563 -2.4953 0.0581 0 8
18.6676 38.5613 -2.4953 0.0581 0 8
18.0456 38.8563 -2.4953 0.0581 0 8
17.4189 39.1412 -2.4953 0.0581 0 8
16.7878 39.4160 -2.4953 0.0581 0 8
16.1523 39.6807 -2.4953 0.0581 0 8
15.5126 39.9351 -2.4953 0.0581 0 8
14.8689 40.1792 -2.4953 0.0581 0 8
14.2214 40.4129 -2.4953 0.0581 0 8
13.5702 40.6362 -2.4953 0.0581 0 8
12.9155 40.8490 -2.4953 0.0581 0 8
12.2575 41.0513 -2.4953 0.0581 0 8
11.5963 41.2429 -2.4953 0.0581 0 8
10.9321 41.4239 -2.4953 0.0581 0 8
10.2651 41.5942 -2.4953 0.0581 0 8
9.5954 41.7538 -2.4953 0.0581 0 8
8.9233 41.9026 -2.4953 0.0581 0 8
8.2489 42.0406 -2.4953 0.0581 0 8
7.5723 42.1677 -2.4953 0.0581 0 8
6.8938 42.2839 -2.4953 0.0581 0 8
6.2135 42.3892 -2.4953 0.0581 0 8
5.5315 42.4836 -2.4953 0.0581 0 8
4.8482 42.5670 -2.4953 0.0581 0 8
4.1636 42.6394 -2.4953 0.0581 0 8
3.4779 42.7008 -2.4953 0.0581 0 8
2.7914 42.7512 -2.4953 0.0581 0 8
2.1041 42.7905 -2.4953 0.0581 0 8
1.4162 42.8188 -2.4953 0.0581 0 8
0.7281 42.8360 -2.4953 0.0581 0 8
0.0397 42.8422 -2.4953 0.0581 0 8
-0.6487 42.8373 -2.4953 0.0581 0 8
-1.3369 42.8213 -2.4953 0.0581 0 8
-2.0248 42.7943 -2.4953 0.0581 0 8
-2.7122 42.7562 -2.4953 0.0581 0 8
-3.3988 42.7071 -2.4953 0.0581 0 8
-4.0846 42.6470 -2.4953 0.0581 0 8
-4.7693 42.5759 -2.4953 0.0581 0 8
-5.4528 42.4938 -2.4953 0.0581 0 8
-6.1349 42.4007 -2.4953 0.0581 0 8
-6.8154 42.2966 -2.4953 0.0581 0 8
-7.4942 42.1816 -2.4953 0.0581 0 8
-8.1710 42.0558 -2.4953 0.0581 0 8
-8.8457 41.9191 -2.4953 0.0581 0 8
-9.5181 41.7715 -2.4953 0.0581 0 8
-10.1880 41.6132 -2.4953 0.0581 0 8
-10.8554 41.4441 -2.4953 0.0581 0 8
-11.5199 41.2643 -2.4953 0.0581 0 8
30.1968 22.3838 -2.5029 0.0664 0 8
31.5590 24.1888 -2.6477 0.0664 0 7
31.1663 24.6928 -2.6477 0.0664 0 7
30.7655 25.1904 -2.6477 0.0664 0 7
30.3567 25.6814 -2.6477 0.0664 0 7
29.9401 26.1659 -2.6477 0.0664 0 7
29.5159 26.6436 -2.6477 0.0664 0 7
29.0839 27.1144 -2.6477 0.0664 0 7
28.6445 27.5782 -2.6477 0.0664 0 7
28.1977 28.0349 -2.6477 0.0664 0 7
27.7436 28.4844 -2.6477 0.0664 0 7
27.2823 28.9265 -2.6477 0.0664 0 7
26.8140 29.3611 -2.6477 0.0664 0 7
26.3388 29.7882 -2.6477 0.0664 0 7
25.8567 30.2076 -2.6477 0.0664 0 7
25.3680 30.6192 -2.6477 0.0664 0 7
24.8727 31.0228 -2.6477 0.0664 0 7
24.3710 31.4185 -2.6477 0.0664 0 7
23.8631 31.8060 -2.6477 0.0664 0 7
23.3489 32.1853 -2.6477 0.0664 0 7
22.8217 32.5462 -2.6468 0.0802 0 8
22.2528 32.8453 -2.6417 0.0804 0 8
21.5575 32.9469 -2.6217 0.8316 0 8
20.8111 32.9498 -2.5950 0.8401 0 8
20.0794 32.9525 -2.5695 0.8485 0 8
19.3618 32.9550 -2.5451 0.8566 0 8
18.6574 32.9574 -2.5218 0.8645 0 8
17.9669 32.9621 -2.4997 0.6656 0 8
17.4039 33.1873 -2.4953 0.0664 0 8
16.8684 33.4627 -2.4953 0.0664 0 8
16.3285 33.7294 -2.4953 0.0664 0 8
15.7844 33.9874 -2.4953 0.0664 0 8
15.2363 34.2367 -2.4953 0.0664 0 8
14.6842 34.4771 -2.4953 0.0664 0 8
14.1283 34.7086 -2.4953 0.0664 0 8
13.5688 34.9311 -2.4953 0.0664 0 8
13.0058 35.1446 -2.4953 0.0664 0 8
12.4394 35.3490 -2.4953 0.0664 0 8
11.8698 35.5444 -2.4953 0.0664 0 8
11.2972 35.7305 -2.4953 0.0664 0 8
10.7216 35.9074 -2.4953 0.0664 0 8
10.1433 36.0750 -2.4953 0.0664 0 8
9.5623 36.2334 -2.4953 0.0664 0 8
8.9789 36.3823 -2.4953 0.0664 0 8
8.3931 36.5219 -2.4953 0.0664 0 8
7.8052 36.6520 -2.4953 0.0664 0 8
7.2153 36.7727 -2.4953 0.0664 0 8
6.6235 36.8839 -2.4953 0.0664 0 8
6.0299 36.9856 -2.4953 0.0664 0 8
5.4349 37.0777 -2.4953 0.0664 0 8
4.8384 37.1602 -2.4953 0.0664 0 8
4.2407 37.2332 -2.4953 0.0664 0 8
3.6419 37.2965 -2.4953 0.0664 0 8
3.0421 37.3502 -2.4953 0.0664 0 8
2.4416 37.3943 -2.4953 0.0664 0 8
1.8404 37.4287 -2.4953 0.0664 0 8
1.2388 37.4534 -2.4953 0.0664 0 8
0.6368 37.4685 -2.4953 0.0664 0 8
0.0347 37.4739 -2.4953 0.0664 0 8
-0.5674 37.4696 -2.4953 0.0664 0 8
-1.1694 37.4557 -2.4953 0.0664 0 8
-1.7711 37.4320 -2.4953 0.0664 0 8
-2.3723 37.3987 -2.4953 0.0664 0 8
-2.9730 37.3558 -2.4953 0.0664 0 8
-3.5728 37.3032 -2.4953 0.0664 0 8
-4.1717 37.2410 -2.4953 0.0664 0 8
-4.7696 37.1691 -2.4953 0.0664 0 8
-5.3662 37.0877 -2.4953 0.0664 0 8
-5.9614 36.9967 -2.4953 0.0664 0 8
-6.5551 36.8961 -2.4953 0.0664 0 8
-7.1471 36.7860 -2.4953 0.0664 0 8
-7.7373 36.6664 -2.4953 0.0664 0 8
-8.3254 36.5374 -2.4953 0.0664 0 8
-8.9114 36.3989 -2.4953 0.0664 0 8
-9.4952 36.2510 -2.4953 0.0664 0 8
-10.0764 36.0938 -2.4953 0.0664 0 8
26.8311 19.8889 -2.5029 0.0747 0 14
26.5081 20.3175 -2.5029 0.0747 0 14
26.1782 20.7408 -2.5029 0.0747 0 14
25.8416 21.1587 -2.5029 0.0747 0 14
25.4982 21.5712 -2.5029 0.0747 0 14
25.1483 21.9782 -2.5029 0.0747 0 14
24.7919 22.3794 -2.5029 0.0747 0 8
25.8423 24.0923 -2.6477 0.0747 0 7
25.4518 24.5044 -2.6477 0.0747 0 7
25.0548 24.9102 -2.6477 0.0747 0 7
24.6513 25.3096 -2.6477 0.0747 0 7
24.2414 25.7024 -2.6477 0.0747 0 7
23.8253 26.0886 -2.6477 0.0747 0 7
23.4031 26.4680 -2.6477 0.0747 0 7
22.9748 26.8407 -2.6477 0.0747 0 7
22.5405 27.2064 -2.6477 0.0747 0 7
22.1004 27.5650 -2.6477 0.0747 0 7
21.6547 27.9166 -2.6477 0.0747 0 7
21.2033 28.2609 -2.6477 0.0747 0 7
20.7465 28.5980 -2.6477 0.0747 0 7
20.2843 28.9276 -2.6477 0.0747 0 7
19.8169 29.2498 -2.6477 0.0747 0 7
19.3443 29.5645 -2.6477 0.0747 0 7
18.8668 29.8715 -2.6477 0.0747 0 7
18.3844 30.1708 -2.6477 0.0747 0 7
17.8972 30.4623 -2.6477 0.0747 0 7
17.4054 30.7459 -2.6477 0.0747 0 7
16.9092 31.0216 -2.6477 0.0747 0 7
16.4085 31.2893 -2.6477 0.0747 0 7
15.9036 31.5489 -2.6477 0.0747 0 7
15.3947 31.8004 -2.6477 0.0747 0 7
14.8817 32.0437 -2.6477 0.0747 0 7
14.3649 32.2786 -2.6477 0.0747 0 7
13.8420 32.4996 -2.6472 0.0902 0 8
13.3025 32.6798 -2.6441 0.0904 0 8
12.7614 32.8526 -2.6412 0.0905 0 8
12.1823 32.9193 -2.6305 0.9322 0 8
11.5848 32.9204 -2.6153 0.9376 0 8
10.9939 32.9214 -2.6010 0.9428 0 8
10.4093 32.9223 -2.5876 0.9477 0 8
9.8305 32.9230 -2.5749 0.9524 0 8
9.2572 32.9236 -2.5630 0.9568 0 8
8.6890 32.9241 -2.5518 0.9610 0 8
8.1255 32.9245 -2.5414 0.9649 0 8
7.5664 32.9247 -2.5317 0.9686 0 8
7.0115 32.9248 -2.5227 0.9721 0 8
6.4603 32.9248 -2.5144 0.9753 0 8
5.9125 32.9247 -2.5068 0.9782 0 8
5.3682 32.9267 -2.5001 0.7484 0 8
4.8291 32.9450 -2.4953 0.0747 0 8
4.2991 33.0184 -2.4953 0.0747 0 8
3.7680 33.0832 -2.4953 0.0747 0 8
3.2360 33.1395 -2.4953 0.0747 0 8
2.7031 33.1872 -2.4953 0.0747 0 8
2.1695 33.2263 -2.4953 0.0747 0 8
1.6353 33.2569 -2.4953 0.0747 0 8
1.1007 33.2789 -2.4953 0.0747 0 8
0.5658 33.2923 -2.4953 0.0747 0 8
0.0308 33.2971 -2.4953 0.0747 0 8
-0.5042 33.2933 -2.4953 0.0747 0 8
-1.0391 33.2809 -2.4953 0.0747 0 8
-1.5737 33.2599 -2.4953 0.0747 0 8
-2.1079 33.2303 -2.4953 0.0747 0 8
-2.6416 33.1921 -2.4953 0.0747 0 8
-3.1746 33.1454 -2.4953 0.0747 0 8
-3.7068 33.0901 -2.4953 0.0747 0 8
-4.2380 33.0263 -2.4953 0.0747 0 8
-4.7680 32.9539 -2.4953 0.0747 0 8
-5.3013 32.8999 -2.4973 0.7494 0 8
-5.8439 32.8927 -2.5036 0.9795 0 8
-6.3901 32.8898 -2.5108 0.9767 0 8
-6.9397 32.8868 -2.5188 0.9736 0 8
-7.4929 32.8837 -2.5275 0.9702 0 8
-8.0500 32.8804 -2.5368 0.9667 0 8
-8.6114 32.8770 -2.5469 0.9628 0 8
-9.1774 32.8734 -2.5577 0.9588 0 8
25.5336 18.9271 -2.6477 0.0830 0 7
24.8037 19.0111 -2.6033 0.6090 0 8
24.0045 19.0186 -2.5512 0.6215 0 8
23.2472 19.0345 -2.5029 0.0830 0 8
22.9383 19.4056 -2.5029 0.0830 0 14
22.6236 19.7716 -2.5029 0.0830 0 14
22.3029 20.1326 -2.5029 0.0830 0 14
21.9766 20.4884 -2.5029 0.0830 0 14
21.6446 20.8388 -2.5029 0.0830 0 14
21.3069 21.1839 -2.5029 0.0830 0 14
20.9638 21.5236 -2.5029 0.0830 0 14
20.6152 21.8576 -2.5029 0.0830 0 14
20.2614 22.1860 -2.5029 0.0830 0 14
21.0535 23.8108 -2.6477 0.0830 0 7
20.6682 24.1460 -2.6477 0.0830 0 7
20.2775 24.4750 -2.6477 0.0830 0 7
19.8817 24.7976 -2.6477 0.0830 0 7
19.4806 25.1139 -2.6477 0.0830 0 7
19.0746 25.4237 -2.6477 0.0830 0 7
18.6636 25.7269 -2.6477 0.0830 0 7
18.2478 26.0234 -2.6477 0.0830 0 7
17.8274 26.3133 -2.6477 0.0830 0 7
17.4023 26.5963 -2.6477 0.0830 0 7
16.9727 26.8725 -2.6477 0.0830 0 7
16.5387 27.1418 -2.6477 0.0830 0 7
16.1004 27.4040 -2.6477 0.0830 0 7
15.6580 27.6592 -2.6477 0.0830 0 7
15.2116 27.9072 -2.6477 0.0830 0 7
14.7612 28.1480 -2.6477 0.0830 0 7
14.3070 28.3816 -2.6477 0.0830 0 7
13.8491 28.6078 -2.6477 0.0830 0 7
13.3877 28.8266 -2.6477 0.0830 0 7
12.9227 29.0380 -2.6477 0.0830 0 7
12.4545 29.2419 -2.6477 0.0830 0 7
11.9830 29.4382 -2.6477 0.0830 0 7
11.5085 29.6270 -2.6477 0.0830 0 7
11.0309 29.8081 -2.6477 0.0830 0 7
10.5505 29.9815 -2.6477 0.0830 0 6
10.0675 30.1471 -2.6477 0.0830 0 7
9.5817 30.3050 -2.6477 0.0830 0 7
9.0936 30.4550 -2.6477 0.0830 0 7
8.6030 30.5972 -2.6477 0.0830 0 7
8.1103 30.7315 -2.6477 0.0830 0 7
7.6155 30.8579 -2.6477 0.0830 0 7
7.1187 30.9762 -2.6477 0.0830 0 7
6.6200 31.0866 -2.6477 0.0830 0 7
6.1197 31.1890 -2.6477 0.0830 0 7
5.6177 31.2833 -2.6477 0.0830 0 7
5.1143 31.3695 -2.6477 0.0830 0 7
4.6096 31.4476 -2.6477 0.0830 0 7
4.1037 31.5176 -2.6477 0.0830 0 7
3.5968 31.5795 -2.6477 0.0830 0 7
3.0889 31.6332 -2.6477 0.0830 0 7
2.5802 31.6788 -2.6477 0.0830 0 7
2.0709 31.7161 -2.6477 0.0830 0 7
1.5610 31.7453 -2.6477 0.0830 0 7
1.0507 31.7663 -2.6477 0.0830 0 7
0.5401 31.7791 -2.6477 0.0830 0 7
0.0294 31.7837 -2.6477 0.0830 0 7
-0.4813 31.7800 -2.6477 0.0830 0 7
-0.9918 31.7682 -2.6477 0.0830 0 7
-1.5022 31.7482 -2.6477 0.0830 0 7
-2.0121 31.7199 -2.6477 0.0830 0 7
-2.5215 31.6835 -2.6477 0.0830 0 7
-3.0303 31.6389 -2.6477 0.0830 0 7
-3.5383 31.5861 -2.6477 0.0830 0 7
-4.0453 31.5252 -2.6477 0.0830 0 7
-4.5514 31.4561 -2.6477 0.0830 0 7
-5.0562 31.3789 -2.6477 0.0830 0 7
-5.5598 31.2936 -2.6477 0.0830 0 7
-6.0619 31.2003 -2.6477 0.0830 0 7
-6.5624 31.0988 -2.6477 0.0830 0 7
-7.0613 30.9894 -2.6477 0.0830 0 7
-7.5583 30.8719 -2.6477 0.0830 0 7
-8.0534 30.7465 -2.6477 0.0830 0 7
-8.5464 30.6131 -2.6477 0.0830 0 7
23.2011 17.1982 -2.6477 0.0913 0 7
22.9218 17.5687 -2.6477 0.0913 0 7
22.6366 17.9348 -2.6477 0.0913 0 7
22.3455 18.2962 -2.6477 0.0913 0 7
22.0486 18.6529 -2.6477 0.0913 0 7
21.7345 18.9947 -2.6463 0.6589 0 8
21.0497 19.0014 -2.5997 0.6707 0 8
20.3884 19.0077 -2.5555 0.6823 0 8
19.7489 19.0138 -2.5133 0.6938 0 8
19.3605 19.2488 -2.5029 0.0913 0 14
19.0487 19.5574 -2.5029 0.0913 0 14
18.7320 19.8609 -2.5029 0.0913 0 14
18.4105 20.1594 -2.5029 0.0913 0 14
18.0842 20.4526 -2.5029 0.0913 0 14
17.7532 20.7405 -2.5029 0.0913 0 14
17.4177 21.0231 -2.5029 0.0913 0 14
17.0776 21.3003 -2.5029 0.0913 0 14
16.7332 21.5719 -2.5029 0.0913 0 14
16.3844 21.8380 -2.5029 0.0913 0 14
16.0314 22.0984 -2.5029 0.0913 0 14
15.6742 22.3532 -2.5029 0.0913 0 8
16.1988 23.9096 -2.6477 0.0913 0 7
15.8126 24.1668 -2.6477 0.0913 0 7
15.4222 24.4177 -2.6477 0.0913 0 7
15.0279 24.6624 -2.6477 0.0913 0 7
14.6297 24.9007 -2.6477 0.0913 0 7
14.2277 25.1325 -2.6477 0.0913 0 7
13.8220 25.3579 -2.6477 0.0913 0 7
13.4128 25.5767 -2.6477 0.0913 0 7
13.0001 25.7889 -2.6477 0.0913 0 7
12.5840 25.9945 -2.6477 0.0913 0 7
12.1647 26.1933 -2.6477 0.0913 0 7
11.7422 26.3854 -2.6477 0.0913 0 7
11.3168 26.5707 -2.6477 0.0913 0 7
10.8884 26.7491 -2.6477 0.0913 0 7
10.4572 26.9206 -2.6477 0.0913 0 7
10.0233 27.0851 -2.6477 0.0913 0 7
9.5868 27.2427 -2.6477 0.0913 0 7
9.1478 27.3932 -2.6477 0.0913 0 7
8.7065 27.5367 -2.6477 0.0913 0 7
8.2629 27.6730 -2.6477 0.0913 0 7
7.8172 27.8022 -2.6477 0.0913 0 7
7.3694 27.9242 -2.6477 0.0913 0 7
6.9198 28.0390 -2.6477 0.0913 0 7
6.4684 28.1466 -2.6477 0.0913 0 7
6.0153 28.2469 -2.6477 0.0913 0 7
5.5606 28.3399 -2.6477 0.0913 0 7
5.1046 28.4256 -2.6477 0.0913 0 7
4.6471 28.5039 -2.6477 0.0913 0 7
4.1885 28.5749 -2.6477 0.0913 0 7
3.7289 28.6385 -2.6477 0.0913 0 7
3.2682 28.6947 -2.6477 0.0913 0 7
2.8067 28.7436 -2.6477 0.0913 0 7
2.3445 28.7849 -2.6477 0.0913 0 7
1.8817 28.8189 -2.6477 0.0913 0 7
1.4184 28.8454 -2.6477 0.0913 0 7
0.9547 28.8645 -2.6477 0.0913 0 7
0.4908 28.8761 -2.6477 0.0913 0 7
0.0267 28.8803 -2.6477 0.0913 0 7
-0.4373 28.8769 -2.6477 0.0913 0 7
-0.9012 28.8662 -2.6477 0.0913 0 7
-1.3649 28.8480 -2.6477 0.0913 0 7
-1.8283 28.8223 -2.6477 0.0913 0 7
-2.2912 28.7892 -2.6477 0.0913 0 7
-2.7535 28.7487 -2.6477 0.0913 0 7
-3.2151 28.7008 -2.6477 0.0913 0 7
-3.6758 28.6454 -2.6477 0.0913 0 7
-4.1356 28.5826 -2.6477 0.0913 0 7
-4.5943 28.5125 -2.6477 0.0913 0 7
-5.0519 28.4350 -2.6477 0.0913 0 7
-5.5081 28.3501 -2.6477 0.0913 0 7
-5.9630 28.2580 -2.6477 0.0913 0 7
-6.4162 28.1585 -2.6477 0.0913 0 7
-6.8678 28.0518 -2.6477 0.0913 0 7
-7.3177 27.9378 -2.6477 0.0913 0 7
-7.7657 27.8166 -2.6477 0.0913 0 7
21.2564 15.7566 -2.6477 0.0996 0 7
21.0005 16.0961 -2.6477 0.0996 0 7
20.7392 16.4315 -2.6477 0.0996 0 7
20.4725 16.7626 -2.6477 0.0996 0 7
20.2005 17.0894 -2.6477 0.0996 0 7
19.9233 17.4118 -2.6477 0.0996 0 7
19.6409 17.7296 -2.6477 0.0996 0 7
19.3535 18.0429 -2.6477 0.0996 0 7
19.0611 18.3516 -2.6477 0.0996 0 7
18.7638 18.6555 -2.6477 0.0996 0 7
18.4616 18.9546 -2.6477 0.0996 0 7
17.9109 18.9904 -2.6121 0.7280 0 8
17.3479 18.9958 -2.5742 0.7388 0 8
16.8007 19.0010 -2.5380 0.7493 0 8
16.2729 19.0111 -2.5041 0.6037 0 8
15.9577 19.2609 -2.5029 0.0996 0 14
15.6462 19.5149 -2.5029 0.0996 0 14
15.3306 19.7638 -2.5029 0.0996 0 14
15.0110 20.0075 -2.5029 0.0996 0 14
14.6876 20.2462 -2.5029 0.0996 0 14
14.3604 20.4795 -2.5029 0.0996 0 14
14.0295 20.7076 -2.5029 0.0996 0 14
13.6950 20.9304 -2.5029 0.0996 0 14
13.3569 21.1477 -2.5029 0.0996 0 14
13.0154 21.3596 -2.5029 0.0996 0 14
12.6705 21.5660 -2.5029 0.0996 0 14
12.3223 21.7668 -2.5029 0.0996 0 14
11.9710 21.9620 -2.5029 0.0996 0 14
11.6165 22.1515 -2.5029 0.0996 0 14
11.2591 22.3353 -2.5029 0.0996 0 8
11.5292 23.8156 -2.6477 0.0996 0 7
11.1450 23.9978 -2.6477 0.0996 0 7
10.7580 24.1738 -2.6477 0.0996 0 7
10.3682 24.3435 -2.6477 0.0996 0 7
9.9757 24.5070 -2.6477 0.0996 0 7
9.5806 24.6641 -2.6477 0.0996 0 7
9.1831 24.8148 -2.6477 0.0996 0 7
8.7832 24.9592 -2.6477 0.0996 0 7
8.3810 25.0971 -2.6477 0.0996 0 7
7.9767 25.2285 -2.6477 0.0996 0 7
7.5703 25.3534 -2.6477 0.0996 0 7
7.1619 25.4718 -2.6477 0.0996 0 7
6.7517 25.5836 -2.6477 0.0996 0 7
6.3398 25.6888 -2.6477 0.0996 0 7
5.9262 25.7873 -2.6477 0.0996 0 7
5.5111 25.8792 -2.6477 0.0996 0 7
5.0945 25.9644 -2.6477 0.0996 0 7
4.6767 26.0429 -2.6477 0.0996 0 7
4.2576 26.1147 -2.6477 0.0996 0 7
3.8375 26.1798 -2.6477 0.0996 0 7
3.4163 26.2380 -2.6477 0.0996 0 7
2.9943 26.2895 -2.6477 0.0996 0 7
2.5715 26.3343 -2.6477 0.0996 0 7
2.1480 26.3722 -2.6477 0.0996 0 7
1.7240 26.4033 -2.6477 0.0996 0 7
1.2995 26.4276 -2.6477 0.0996 0 7
0.8747 26.4451 -2.6477 0.0996 0 7
0.4496 26.4557 -2.6477 0.0996 0 7
0.0245 26.4595 -2.6477 0.0996 0 6
-0.4006 26.4565 -2.6477 0.0996 0 6
-0.8257 26.4466 -2.6477 0.0996 0 6
-1.2505 26.4299 -2.6477 0.0996 0 6
-1.6751 26.4064 -2.6477 0.0996 0 6
-2.0991 26.3761 -2.6477 0.0996 0 7
-2.5227 26.3390 -2.6477 0.0996 0 7
-2.9456 26.2950 -2.6477 0.0996 0 7
-3.3677 26.2443 -2.6477 0.0996 0 7
-3.7890 26.1868 -2.6477 0.0996 0 7
-4.2092 26.1226 -2.6477 0.0996 0 7
-4.6284 26.0516 -2.6477 0.0996 0 7
-5.0464 25.9738 -2.6477 0.0996 0 7
-5.4631 25.8894 -2.6477 0.0996 0 7
-5.8784 25.7983 -2.6477 0.0996 0 7
-6.2922 25.7005 -2.6477 0.0996 0 7
-6.7043 25.5961 -2.6477 0.0996 0 7
-7.1147 25.4850 -2.6477 0.0996 0 7
19.6099 14.5361 -2.6477 0.1078 0 7
19.3738 14.8493 -2.6477 0.1078 0 7
19.1327 15.1587 -2.6477 0.1078 0 7
18.8867 15.4642 -2.6477 0.1078 0 7
18.6358 15.7657 -2.6477 0.1078 0 7
18.3800 16.0631 -2.6477 0.1078 0 7
18.1196 16.3563 -2.6477 0.1078 0 7
17.8544 16.6454 -2.6477 0.1078 0 7
17.5847 16.9301 -2.6477 0.1078 0 7
17.3104 17.2104 -2.6477 0.1078 0 7
17.0316 17.4864 -2.6477 0.1078 0 7
16.7484 17.7578 -2.6477 0.1078 0 7
16.4609 18.0246 -2.6477 0.1078 0 7
16.1692 18.2868 -2.6477 0.1078 0 7
15.8733 18.5442 -2.6477 0.1078 0 7
15.5732 18.7969 -2.6477 0.1078 0 7
15.2157 18.9780 -2.6384 0.7806 0 8
14.7247 18.9827 -2.6058 0.7904 0 8
14.2454 18.9871 -2.5747 0.7999 0 8
13.7773 18.9913 -2.5449 0.8093 0 8
13.3197 18.9953 -2.5164 0.8185 0 8
12.9428 19.1036 -2.5029 0.1078 0 8
12.6342 19.3091 -2.5029 0.1078 0 14
12.3223 19.5097 -2.5029 0.1078 0 14
12.0072 19.7051 -2.5029 0.1078 0 14
11.6890 19.8955 -2.5029 0.1078 0 14
11.3678 20.0808 -2.5029 0.1078 0 14
11.0437 20.2608 -2.5029 0.1078 0 14
10.7167 20.4357 -2.5029 0.1078 0 14
10.3870 20.6052 -2.5029 0.1078 0 14
10.0546 20.7695 -2.5029 0.1078 0 14
9.7195 20.9284 -2.5029 0.1078 0 14
9.3820 21.0818 -2.5029 0.1078 0 14
9.0420 21.2299 -2.5029 0.1078 0 14
8.6998 21.3724 -2.5029 0.1078 0 14
8.3552 21.5094 -2.5029 0.1078 0 14
8.0085 21.6409 -2.5029 0.1078 0 14
7.6598 21.7668 -2.5029 0.1078 0 14
7.3091 21.8871 -2.5029 0.1078 0 14
6.9564 22.0017 -2.5029 0.1078 0 14
6.6020 22.1106 -2.5029 0.1078 0 14
6.2459 22.2138 -2.5029 0.1078 0 14
5.8881 22.3113 -2.5029 0.1078 0 8
5.5288 22.4031 -2.5029 0.1078 0 8
5.4672 23.7899 -2.6477 0.1078 0 7
5.0842 23.8747 -2.6477 0.1078 0 7
4.6999 23.9533 -2.6477 0.1078 0 7
4.3144 24.0257 -2.6477 0.1078 0 7
3.9278 24.0919 -2.6477 0.1078 0 7
3.5402 24.1519 -2.6477 0.1078 0 7
3.1517 24.2057 -2.6477 0.1078 0 7
2.7623 24.2532 -2.6477 0.1078 0 7
2.3723 24.2944 -2.6477 0.1078 0 7
1.9816 24.3294 -2.6477 0.1078 0 7
1.5904 24.3581 -2.6477 0.1078 0 7
1.1988 24.3805 -2.6477 0.1078 0 7
0.8069 24.3967 -2.6477 0.1078 0 7
0.4148 24.4065 -2.6477 0.1078 0 7
0.0226 24.4100 -2.6477 0.1078 0 7
-0.3696 24.4072 -2.6477 0.1078 0 7
-0.7617 24.3981 -2.6477 0.1078 0 7
-1.1537 24.3827 -2.6477 0.1078 0 7
-1.5453 24.3610 -2.6477 0.1078 0 7
-1.9365 24.3331 -2.6477 0.1078 0 7
-2.3273 24.2988 -2.6477 0.1078 0 7
-2.7174 24.2583 -2.6477 0.1078 0 7
-3.1068 24.2115 -2.6477 0.1078 0 7
-3.4955 24.1584 -2.6477 0.1078 0 7
-3.8832 24.0991 -2.6477 0.1078 0 7
-4.2699 24.0336 -2.6477 0.1078 0 7
-4.6555 23.9619 -2.6477 0.1078 0 7
-5.0400 23.8840 -2.6477 0.1078 0 7
-5.4231 23.8000 -2.6477 0.1078 0 7
-5.8048 23.7098 -2.6477 0.1078 0 7
-5.8468 22.3222 -2.5029 0.1078 0 8
-6.2047 22.2254 -2.5029 0.1078 0 14
18.1978 13.4894 -2.6477 0.1161 0 7
17.9788 13.7800 -2.6477 0.1161 0 7
17.7550 14.0671 -2.6477 0.1161 0 7
17.5267 14.3506 -2.6477 0.1161 0 7
17.2938 14.6304 -2.6477 0.1161 0 7
17.0565 14.9064 -2.6477 0.1161 0 7
16.8148 15.1785 -2.6477 0.1161 0 7
16.5687 15.4467 -2.6477 0.1161 0 7
16.3184 15.7110 -2.6477 0.1161 0 7
16.0639 15.9711 -2.6477 0.1161 0 7
15.8052 16.2272 -2.6477 0.1161 0 7
15.5424 16.4791 -2.6477 0.1161 0 7
15.2756 16.7267 -2.6477 0.1161 0 7
15.0049 16.9700 -2.6477 0.1161 0 7
14.7302 17.2089 -2.6477 0.1161 0 7
14.4518 17.4433 -2.6477 0.1161 0 7
14.1697 17.6733 -2.6477 0.1161 0 7
13.8839 17.8987 -2.6477 0.1161 0 7
13.5945 18.1195 -2.6477 0.1161 0 7
13.3016 18.3356 -2.6477 0.1161 0 7
13.0053 18.5469 -2.6477 0.1161 0 7
12.7056 18.7535 -2.6477 0.1161 0 7
12.4026 18.9552 -2.6477 0.1161 0 7
11.9826 18.9719 -2.6228 0.8454 0 8
11.5626 18.9755 -2.5972 0.8537 0 8
11.1505 18.9788 -2.5728 0.8618 0 8
10.7458 18.9820 -2.5495 0.8697 0 8
10.3483 18.9851 -2.5273 0.8774 0 8
9.9592 18.9911 -2.5065 0.7031 0 8
9.6390 19.1215 -2.5029 0.1161 0 8
9.3305 19.2739 -2.5029 0.1161 0 14
9.0196 19.4213 -2.5029 0.1161 0 14
8.7064 19.5637 -2.5029 0.1161 0 14
8.3909 19.7011 -2.5029 0.1161 0 14
8.0733 19.8334 -2.5029 0.1161 0 14
7.7536 19.9606 -2.5029 0.1161 0 14
7.4319 20.0826 -2.5029 0.1161 0 14
7.1082 20.1994 -2.5029 0.1161 0 14
6.7827 20.3110 -2.5029 0.1161 0 14
6.4555 20.4174 -2.5029 0.1161 0 14
6.1266 20.5184 -2.5029 0.1161 0 14
5.7961 20.6142 -2.5029 0.1161 0 14
5.4642 20.7047 -2.5029 0.1161 0 14
5.1308 20.7898 -2.5029 0.1161 0 14
4.7960 20.8696 -2.5029 0.1161 0 14
4.4601 20.9440 -2.5029 0.1161 0 14
4.1230 21.0129 -2.5029 0.1161 0 14
3.7848 21.0765 -2.5029 0.1161 0 14
3.4457 21.1346 -2.5029 0.1161 0 14
3.1056 21.1872 -2.5029 0.1161 0 14
2.7648 21.2344 -2.5029 0.1161 0 14
2.4232 21.2760 -2.5029 0.1161 0 14
2.0811 21.3122 -2.5029 0.1161 0 14
1.7384 21.3429 -2.5029 0.1161 0 14
1.3952 21.3681 -2.5029 0.1161 0 14
1.0517 21.3878 -2.5029 0.1161 0 14
0.7079 21.4019 -2.5029 0.1161 0 14
0.3639 21.4105 -2.5029 0.1161 0 14
0.0198 21.4136 -2.5029 0.1161 0 14
-0.3242 21.4111 -2.5029 0.1161 0 14
-0.6682 21.4032 -2.5029 0.1161 0 14
-1.0121 21.3897 -2.5029 0.1161 0 14
-1.3556 21.3706 -2.5029 0.1161 0 14
-1.6988 21.3461 -2.5029 0.1161 0 14
-2.0416 21.3160 -2.5029 0.1161 0 14
-2.3838 21.2805 -2.5029 0.1161 0 14
-2.7255 21.2394 -2.5029 0.1161 0 14
-3.0664 21.1929 -2.5029 0.1161 0 14
-3.4065 21.1409 -2.5029 0.1161 0 14
-3.7458 21.0834 -2.5029 0.1161 0 14
-4.0841 21.0205 -2.5029 0.1161 0 14
-4.4213 20.9522 -2.5029 0.1161 0 14
-4.7574 20.8784 -2.5029 0.1161 0 14
-5.0922 20.7993 -2.5029 0.1161 0 14
-5.4258 20.7148 -2.5029 0.1161 0 14
-5.7579 20.6249 -2.5029 0.1161 0 14
16.9733 12.5816 -2.6477 0.1243 0 7
16.7689 12.8527 -2.6477 0.1243 0 7
16.5602 13.1205 -2.6477 0.1243 0 7
16.3473 13.3849 -2.6477 0.1243 0 7
16.1301 13.6459 -2.6477 0.1243 0 7
15.9087 13.9033 -2.6477 0.1243 0 7
15.6833 14.1571 -2.6477 0.1243 0 7
15.4538 14.4073 -2.6477 0.1243 0 7
15.2203 14.6537 -2.6477 0.1243 0 7
14.9829 14.8964 -2.6477 0.1243 0 7
14.7416 15.1352 -2.6477 0.1243 0 7
14.4965 15.3701 -2.6477 0.1243 0 7
14.2476 15.6011 -2.6477 0.1243 0 7
13.9951 15.8280 -2.6477 0.1243 0 7
13.7390 16.0508 -2.6477 0.1243 0 7
13.4793 16.2695 -2.6477 0.1243 0 7
13.2162 16.4840 -2.6477 0.1243 0 7
12.9496 16.6942 -2.6477 0.1243 0 7
12.6797 16.9001 -2.6477 0.1243 0 7
12.4065 17.1017 -2.6477 0.1243 0 7
12.1301 17.2988 -2.6477 0.1243 0 7
11.8506 17.4915 -2.6477 0.1243 0 7
11.5680 17.6797 -2.6477 0.1243 0 7
11.2824 17.8633 -2.6477 0.1243 0 7
10.9939 18.0422 -2.6477 0.1243 0 7
10.7026 18.2166 -2.6477 0.1243 0 7
10.4085 18.3862 -2.6477 0.1243 0 7
10.1117 18.5511 -2.6477 0.1243 0 7
9.8124 18.7111 -2.6477 0.1243 0 7
9.5104 18.8664 -2.6477 0.1243 0 7
9.1790 18.9609 -2.6399 0.8996 0 8
8.8071 18.9636 -2.6202 0.9064 0 8
8.4404 18.9660 -2.6015 0.9129 0 8
8.0788 18.9683 -2.5837 0.9192 0 8
7.7220 18.9704 -2.5667 0.9253 0 8
7.3698 18.9724 -2.5506 0.9311 0 8
7.0217 18.9743 -2.5354 0.9367 0 8
6.6777 18.9760 -2.5209 0.9421 0 8
6.3382 18.9799 -2.5076 0.7528 0 8
6.0211 19.0434 -2.5029 0.1243 0 8
5.7143 19.1377 -2.5029 0.1243 0 14
5.4061 19.2270 -2.5029 0.1243 0 14
5.0964 19.3114 -2.5029 0.1243 0 14
4.7855 19.3908 -2.5029 0.1243 0 14
4.4733 19.4652 -2.5029 0.1243 0 14
4.1600 19.5346 -2.5029 0.1243 0 14
3.8455 19.5989 -2.5029 0.1243 0 14
3.5301 19.6582 -2.5029 0.1243 0 14
3.2138 19.7123 -2.5029 0.1243 0 14
2.8967 19.7614 -2.5029 0.1243 0 14
2.5787 19.8054 -2.5029 0.1243 0 14
2.2602 19.8443 -2.5029 0.1243 0 14
1.9410 19.8781 -2.5029 0.1243 0 14
1.6214 19.9067 -2.5029 0.1243 0 14
1.3013 19.9302 -2.5029 0.1243 0 14
0.9809 19.9485 -2.5029 0.1243 0 14
0.6602 19.9617 -2.5029 0.1243 0 14
0.3394 19.9697 -2.5029 0.1243 0 14
0.0185 19.9726 -2.5029 0.1243 0 14
-0.3024 19.9703 -2.5029 0.1243 0 14
-0.6233 19.9629 -2.5029 0.1243 0 14
-0.9440 19.9503 -2.5029 0.1243 0 14
-1.2644 19.9325 -2.5029 0.1243 0 14
-1.5845 19.9096 -2.5029 0.1243 0 14
-1.9042 19.8816 -2.5029 0.1243 0 14
-2.2234 19.8484 -2.5029 0.1243 0 14
-2.5421 19.8102 -2.5029 0.1243 0 14
-2.8600 19.7668 -2.5029 0.1243 0 14
-3.1773 19.7183 -2.5029 0.1243 0 14
-3.4937 19.6647 -2.5029 0.1243 0 14
-3.8092 19.6060 -2.5029 0.1243 0 14
-4.1238 19.5422 -2.5029 0.1243 0 14
-4.4372 19.4735 -2.5029 0.1243 0 14
-4.7496 19.3996 -2.5029 0.1243 0 14
-5.0607 19.3208 -2.5029 0.1243 0 14
-5.3705 19.2370 -2.5029 0.1243 0 14
15.9010 11.7868 -2.6477 0.1326 0 7
15.7095 12.0408 -2.6477 0.1326 0 7
15.5140 12.2917 -2.6477 0.1326 0 7
15.3145 12.5393 -2.6477 0.1326 0 7
15.1111 12.7838 -2.6477 0.1326 0 7
14.9037 13.0249 -2.6477 0.1326 0 7
14.6925 13.2627 -2.6477 0.1326 0 7
14.4775 13.4971 -2.6477 0.1326 0 7
14.2588 13.7280 -2.6477 0.1326 0 7
14.0363 13.9553 -2.6477 0.1326 0 7
13.8103 14.1791 -2.6477 0.1326 0 7
13.5807 14.3991 -2.6477 0.1326 0 7
13.3476 14.6155 -2.6477 0.1326 0 7
13.1110 14.8281 -2.6477 0.1326 0 7
12.8711 15.0368 -2.6477 0.1326 0 7
12.6278 15.2417 -2.6477 0.1326 0 7
12.3812 15.4426 -2.6477 0.1326 0 7
12.1315 15.6396 -2.6477 0.1326 0 7
11.8786 15.8325 -2.6477 0.1326 0 7
11.6227 16.0213 -2.6477 0.1326 0 7
11.3638 16.2060 -2.6477 0.1326 0 7
11.1019 16.3865 -2.6477 0.1326 0 7
10.8372 16.5628 -2.6477 0.1326 0 7
10.5697 16.7348 -2.6477 0.1326 0 7
10.2994 16.9024 -2.6477 0.1326 0 7
10.0265 17.0657 -2.6477 0.1326 0 7
9.7510 17.2246 -2.6477 0.1326 0 7
9.4729 17.3791 -2.6477 0.1326 0 7
9.1925 17.5291 -2.6477 0.1326 0 7
8.9096 17.6745 -2.6477 0.1326 0 7
8.6245 17.8154 -2.6477 0.1326 0 7
8.3371 17.9517 -2.6477 0.1326 0 7
8.0476 18.0833 -2.6477 0.1326 0 7
7.7560 18.2103 -2.6477 0.1326 0 7
7.4624 18.3326 -2.6477 0.1326 0 7
7.1669 18.4501 -2.6477 0.1326 0 6
6.8695 18.5629 -2.6477 0.1326 0 7
6.5703 18.6708 -2.6477 0.1326 0 7
6.2695 18.7740 -2.6477 0.1326 0 7
5.9670 18.8723 -2.6477 0.1326 0 7
5.6583 18.9501 -2.6455 0.9572 0 8
5.3286 18.9515 -2.6334 0.9616 0 8
5.0018 18.9526 -2.6220 0.9658 0 8
4.6776 18.9537 -2.6114 0.9697 0 8
4.3560 18.9546 -2.6016 0.9734 0 8
4.0366 18.9554 -2.5925 0.9768 0 8
3.7194 18.9561 -2.5840 0.9800 0 8
3.4042 18.9567 -2.5763 0.9829 0 8
3.0907 18.9571 -2.5693 0.9856 0 8
2.7788 18.9574 -2.5630 0.9880 0 8
2.4684 18.9576 -2.5573 0.9902 0 8
2.1592 18.9577 -2.5523 0.9922 0 8
1.8511 18.9576 -2.5480 0.9939 0 8
1.5441 18.9574 -2.5443 0.9953 0 8
1.2378 18.9571 -2.5412 0.9965 0 8
0.9321 18.9567 -2.5388 0.9974 0 8
0.6270 18.9562 -2.5371 0.9981 0 8
0.3222 18.9556 -2.5360 0.9986 0 8
0.0176 18.9548 -2.5355 0.9987 0 8
-0.2871 18.9559 -2.5360 0.9987 0 8
-0.5918 18.9542 -2.5367 0.9984 0 8
-0.8967 18.9524 -2.5380 0.9979 0 8
-1.2021 18.9506 -2.5401 0.9970 0 8
-1.5081 18.9492 -2.5428 0.9959 0 8
-1.8148 18.9478 -2.5462 0.9946 0 8
-2.1223 18.9461 -2.5502 0.9930 0 8
-2.4310 18.9444 -2.5549 0.9912 0 8
-2.7408 18.9426 -2.5603 0.9891 0 8
-3.0520 18.9406 -2.5663 0.9868 0 8
-3.3647 18.9385 -2.5730 0.9842 0 8
-3.6791 18.9362 -2.5804 0.9814 0 8
-3.9954 18.9339 -2.5885 0.9783 0 8
-4.3137 18.9313 -2.5973 0.9750 0 8
-4.6343 18.9287 -2.6068 0.9714 0 8
-4.9572 18.9259 -2.6171 0.9676 0 8
-5.2828 18.9230 -2.6281 0.9636 0 8
14.9541 11.0850 -2.6477 0.1408 0 7
14.7741 11.3238 -2.6477 0.1408 0 7
14.5902 11.5597 -2.6477 0.1408 0 7
14.4026 11.7927 -2.6477 0.1408 0 7
14.2113 12.0226 -2.6477 0.1408 0 7
14.0163 12.2494 -2.6477 0.1408 0 7
13.8176 12.4730 -2.6477 0.1408 0 7
13.6154 12.6934 -2.6477 0.1408 0 7
13.4097 12.9105 -2.6477 0.1408 0 7
13.2005 13.1243 -2.6477 0.1408 0 7
12.9879 13.3348 -2.6477 0.1408 0 7
12.7720 13.5417 -2.6477 0.1408 0 7
12.5528 13.7452 -2.6477 0.1408 0 7
12.3303 13.9451 -2.6477 0.1408 0 7
12.1046 14.1414 -2.6477 0.1408 0 7
11.8758 14.3341 -2.6477 0.1408 0 7
11.6440 14.5231 -2.6477 0.1408 0 7
11.4091 14.7083 -2.6477 0.1408 0 7
11.1713 14.8897 -2.6477 0.1408 0 7
10.9306 15.0673 -2.6477 0.1408 0 7
10.6871 15.2410 -2.6477 0.1408 0 7
10.4409 15.4108 -2.6477 0.1408 0 7
10.1919 15.5765 -2.6477 0.1408 0 7
9.9403 15.7383 -2.6477 0.1408 0 7
9.6861 15.8960 -2.6477 0.1408 0 7
9.4294 16.0496 -2.6477 0.1408 0 7
9.1703 16.1990 -2.6477 0.1408 0 7
8.9089 16.3443 -2.6477 0.1408 0 7
8.6451 16.4853 -2.6477 0.1408 0 7
8.3791 16.6221 -2.6477 0.1408 0 7
8.1109 16.7546 -2.6477 0.1408 0 7
7.8407 16.8827 -2.6477 0.1408 0 7
7.5684 17.0065 -2.6477 0.1408 0 7
7.2941 17.1259 -2.6477 0.1408 0 7
7.0180 17.2409 -2.6477 0.1408 0 7
6.7401 17.3515 -2.6477 0.1408 0 7
6.4604 17.4575 -2.6477 0.1408 0 7
6.1791 17.5591 -2.6477 0.1408 0 7
5.8962 17.6561 -2.6477 0.1408 0 7
5.6117 17.7486 -2.6477 0.1408 0 7
5.3258 17.8364 -2.6477 0.1408 0 7
5.0385 17.9197 -2.6477 0.1408 0 7
4.7499 17.9984 -2.6477 0.1408 0 7
4.4601 18.0724 -2.6477 0.1408 0 7
4.1691 18.1417 -2.6477 0.1408 0 7
3.8771 18.2063 -2.6477 0.1408 0 7
3.5841 18.2663 -2.6477 0.1408 0 7
3.2901 18.3215 -2.6477 0.1408 0 7
2.9953 18.3720 -2.6477 0.1408 0 7
2.6997 18.4178 -2.6477 0.1408 0 6
2.4034 18.4588 -2.6477 0.1408 0 6
2.1065 18.4950 -2.6477 0.1408 0 6
1.8091 18.5265 -2.6477 0.1408 0 7
1.5111 18.5531 -2.6477 0.1408 0 7
1.2128 18.5750 -2.6477 0.1408 0 7
0.9142 18.5921 -2.6477 0.1408 0 7
0.6153 18.6044 -2.6477 0.1408 0 7
0.3163 18.6119 -2.6477 0.1408 0 7
0.0172 18.6146 -2.6477 0.1408 0 7
-0.2819 18.6125 -2.6477 0.1408 0 7
-0.5809 18.6055 -2.6477 0.1408 0 7
-0.8798 18.5938 -2.6477 0.1408 0 7
-1.1784 18.5772 -2.6477 0.1408 0 7
-1.4768 18.5559 -2.6477 0.1408 0 7
-1.7747 18.5298 -2.6477 0.1408 0 7
-2.0722 18.4989 -2.6477 0.1408 0 7
-2.3692 18.4632 -2.6477 0.1408 0 6
-2.6656 18.4227 -2.6477 0.1408 0 6
-2.9611 18.3775 -2.6477 0.1408 0 6
-3.2562 18.3276 -2.6477 0.1408 0 7
-3.5502 18.2729 -2.6477 0.1408 0 7
-3.8434 18.2135 -2.6477 0.1408 0 7
-4.1355 18.1494 -2.6477 0.1408 0 7
-4.4266 18.0806 -2.6477 0.1408 0 7
-4.7166 18.0071 -2.6477 0.1408 0 7
-5.0053 17.9290 -2.6477 0.1408 0 7
14.1119 10.4606 -2.6477 0.1490 0 7
13.9420 10.6860 -2.6477 0.1490 0 7
13.7685 10.9086 -2.6477 0.1490 0 7
13.5914 11.1285 -2.6477 0.1490 0 7
13.4108 11.3454 -2.6477 0.1490 0 7
13.2268 11.5594 -2.6477 0.1490 0 7
13.0394 11.7705 -2.6477 0.1490 0 7
12.8486 11.9785 -2.6477 0.1490 0 7
12.6544 12.1834 -2.6477 0.1490 0 7
12.4570 12.3851 -2.6477 0.1490 0 7
12.2564 12.5837 -2.6477 0.1490 0 7
12.0526 12.7790 -2.6477 0.1490 0 7
11.8458 12.9710 -2.6477 0.1490 0 7
11.6358 13.1597 -2.6477 0.1490 0 7
11.4229 13.3450 -2.6477 0.1490 0 7
11.2069 13.5268 -2.6477 0.1490 0 7
10.9882 13.7051 -2.6477 0.1490 0 7
10.7665 13.8799 -2.6477 0.1490 0 7
10.5421 14.0511 -2.6477 0.1490 0 7
10.3150 14.2187 -2.6477 0.1490 0 7
10.0852 14.3826 -2.6477 0.1490 0 7
9.8528 14.5428 -2.6477 0.1490 0 7
9.6178 14.6992 -2.6477 0.1490 0 7
9.3804 14.8518 -2.6477 0.1490 0 7
9.1406 15.0007 -2.6477 0.1490 0 7
8.8983 15.1456 -2.6477 0.1490 0 7
8.6538 15.2866 -2.6477 0.1490 0 7
8.4071 15.4237 -2.6477 0.1490 0 7
8.1582 15.5568 -2.6477 0.1490 0 7
7.9072 15.6859 -2.6477 0.1490 0 7
7.6541 15.8109 -2.6477 0.1490 0 7
7.3991 15.9318 -2.6477 0.1490 0 7
7.1421 16.0487 -2.6477 0.1490 0 7
6.8833 16.1614 -2.6477 0.1490 0 7
6.6227 16.2699 -2.6477 0.1490 0 7
6.3605 16.3742 -2.6477 0.1490 0 7
6.0966 16.4743 -2.6477 0.1490 0 7
5.8311 16.5701 -2.6477 0.1490 0 7
5.5641 16.6617 -2.6477 0.1490 0 7
5.2956 16.7489 -2.6477 0.1490 0 7
5.0258 16.8318 -2.6477 0.1490 0 7
4.7547 16.9104 -2.6477 0.1490 0 7
4.4824 16.9846 -2.6477 0.1490 0 7
4.2089 17.0545 -2.6477 0.1490 0 7
3.9343 17.1199 -2.6477 0.1490 0 7
3.6587 17.1809 -2.6477 0.1490 0 7
3.3822 17.2375 -2.6477 0.1490 0 7
3.1048 17.2896 -2.6477 0.1490 0 7
2.8266 17.3372 -2.6477 0.1490 0 7
2.5476 17.3804 -2.6477 0.1490 0 7
2.2680 17.4191 -2.6477 0.1490 0 7
1.9879 17.4533 -2.6477 0.1490 0 7
1.7072 17.4830 -2.6477 0.1490 0 7
1.4260 17.5082 -2.6477 0.1490 0 7
1.1445 17.5288 -2.6477 0.1490 0 7
0.8627 17.5449 -2.6477 0.1490 0 7
0.5807 17.5565 -2.6477 0.1490 0 7
0.2985 17.5636 -2.6477 0.1490 0 7
0.0163 17.5661 -2.6477 0.1490 0 7
-0.2660 17.5641 -2.6477 0.1490 0 7
-0.5482 17.5576 -2.6477 0.1490 0 7
-0.8302 17.5465 -2.6477 0.1490 0 7
-1.1121 17.5309 -2.6477 0.1490 0 7
-1.3936 17.5108 -2.6477 0.1490 0 7
-1.6748 17.4861 -2.6477 0.1490 0 7
-1.9555 17.4570 -2.6477 0.1490 0 7
-2.2358 17.4233 -2.6477 0.1490 0 7
-2.5154 17.3851 -2.6477 0.1490 0 7
-2.7945 17.3424 -2.6477 0.1490 0 7
-3.0728 17.2953 -2.6477 0.1490 0 7
-3.3503 17.2437 -2.6477 0.1490 0 7
-3.6269 17.1876 -2.6477 0.1490 0 7
-3.9026 17.1271 -2.6477 0.1490 0 7
-4.1773 17.0622 -2.6477 0.1490 0 7
-4.4509 16.9929 -2.6477 0.1490 0 7
-4.7234 16.9192 -2.6477 0.1490 0 7
13.3576 9.9015 -2.6477 0.1573 0 7
13.1968 10.1149 -2.6477 0.1573 0 7
13.0326 10.3256 -2.6477 0.1573 0 7
12.8650 10.5337 -2.6477 0.1573 0 7
12.6941 10.7391 -2.6477 0.1573 0 7
12.5199 10.9416 -2.6477 0.1573 0 7
12.3425 11.1414 -2.6477 0.1573 0 7
12.1618 11.3383 -2.6477 0.1573 0 7
11.9781 11.5322 -2.6477 0.1573 0 7
11.7912 11.7232 -2.6477 0.1573 0 7
11.6014 11.9111 -2.6477 0.1573 0 7
11.4085 12.0960 -2.6477 0.1573 0 7
11.2126 12.2778 -2.6477 0.1573 0 7
11.0139 12.4563 -2.6477 0.1573 0 7
10.8123 12.6317 -2.6477 0.1573 0 7
10.6080 12.8038 -2.6477 0.1573 0 7
10.4009 12.9726 -2.6477 0.1573 0 7
10.1911 13.1381 -2.6477 0.1573 0 7
9.9787 13.3001 -2.6477 0.1573 0 7
9.7637 13.4587 -2.6477 0.1573 0 7
9.5462 13.6139 -2.6477 0.1573 0 7
9.3262 13.7655 -2.6477 0.1573 0 7
9.1038 13.9136 -2.6477 0.1573 0 7
8.8791 14.0581 -2.6477 0.1573 0 7
8.6520 14.1989 -2.6477 0.1573 0 7
8.4228 14.3361 -2.6477 0.1573 0 7
8.1913 14.4696 -2.6477 0.1573 0 7
7.9578 14.5993 -2.6477 0.1573 0 7
7.7221 14.7253 -2.6477 0.1573 0 7
7.4845 14.8475 -2.6477 0.1573 0 7
7.2450 14.9658 -2.6477 0.1573 0 6
7.0036 15.0803 -2.6477 0.1573 0 7
6.7604 15.1909 -2.6477 0.1573 0 7
6.5154 15.2976 -2.6477 0.1573 0 7
6.2688 15.4003 -2.6477 0.1573 0 7
6.0205 15.4990 -2.6477 0.1573 0 7
5.7707 15.5938 -2.6477 0.1573 0 7
5.5194 15.6845 -2.6477 0.1573 0 7
5.2667 15.7711 -2.6477 0.1573 0 7
5.0126 15.8537 -2.6477 0.1573 0 7
4.7572 15.9322 -2.6477 0.1573 0 7
4.5006 16.0066 -2.6477 0.1573 0 7
4.2428 16.0769 -2.6477 0.1573 0 7
3.9839 16.1430 -2.6477 0.1573 0 7
3.7240 16.2049 -2.6477 0.1573 0 7
3.4632 16.2626 -2.6477 0.1573 0 7
3.2014 16.3162 -2.6477 0.1573 0 7
2.9389 16.3655 -2.6477 0.1573 0 7
2.6755 16.4106 -2.6477 0.1573 0 7
2.4115 16.4515 -2.6477 0.1573 0 7
2.1468 16.4881 -2.6477 0.1573 0 7
1.8816 16.5205 -2.6477 0.1573 0 7
1.6159 16.5486 -2.6477 0.1573 0 7
1.3498 16.5724 -2.6477 0.1573 0 7
1.0833 16.5920 -2.6477 0.1573 0 7
0.8166 16.6072 -2.6477 0.1573 0 7
0.5496 16.6182 -2.6477 0.1573 0 7
0.2826 16.6249 -2.6477 0.1573 0 7
0.0154 16.6273 -2.6477 0.1573 0 7
-0.2518 16.6254 -2.6477 0.1573 0 7
-0.5189 16.6192 -2.6477 0.1573 0 7
-0.7858 16.6087 -2.6477 0.1573 0 7
-1.0526 16.5939 -2.6477 0.1573 0 7
-1.3191 16.5749 -2.6477 0.1573 0 7
-1.5853 16.5515 -2.6477 0.1573 0 7
-1.8510 16.5239 -2.6477 0.1573 0 7
-2.1163 16.4921 -2.6477 0.1573 0 7
-2.3810 16.4559 -2.6477 0.1573 0 7
-2.6451 16.4155 -2.6477 0.1573 0 7
-2.9085 16.3709 -2.6477 0.1573 0 7
-3.1712 16.3221 -2.6477 0.1573 0 7
-3.4331 16.2690 -2.6477 0.1573 0 7
-3.6940 16.2117 -2.6477 0.1573 0 7
-3.9540 16.1503 -2.6477 0.1573 0 7
-4.2130 16.0847 -2.6477 0.1573 0 7
-4.4709 16.0149 -2.6477 0.1573 0 7
12.6782 9.3979 -2.6477 0.1655 0 7
12.5256 9.6004 -2.6477 0.1655 0 7
12.3697 9.8004 -2.6477 0.1655 0 7
12.2106 9.9979 -2.6477 0.1655 0 7
12.0484 10.1928 -2.6477 0.1655 0 7
11.8831 10.3851 -2.6477 0.1655 0 7
11.7147 10.5747 -2.6477 0.1655 0 7
11.5433 10.7616 -2.6477 0.1655 0 7
11.3689 10.9457 -2.6477 0.1655 0 7
11.1915 11.1269 -2.6477 0.1655 0 7
11.0113 11.3053 -2.6477 0.1655 0 7
10.8282 11.4808 -2.6477 0.1655 0 6
10.6423 11.6533 -2.6477 0.1655 0 7
10.4537 11.8228 -2.6477 0.1655 0 7
10.2624 11.9892 -2.6477 0.1655 0 7
10.0684 12.1526 -2.6477 0.1655 0 7
9.8719 12.3128 -2.6477 0.1655 0 7
9.6727 12.4698 -2.6477 0.1655 0 7
9.4711 12.6236 -2.6477 0.1655 0 7
9.2671 12.7742 -2.6477 0.1655 0 7
9.0606 12.9214 -2.6477 0.1655 0 7
8.8518 13.0653 -2.6477 0.1655 0 7
8.6407 13.2059 -2.6477 0.1655 0 7
8.4274 13.3430 -2.6477 0.1655 0 7
8.2120 13.4767 -2.6477 0.1655 0 7
7.9944 13.6069 -2.6477 0.1655 0 7
7.7747 13.7336 -2.6477 0.1655 0 7
7.5530 13.8568 -2.6477 0.1655 0 7
7.3294 13.9763 -2.6477 0.1655 0 7
7.1039 14.0923 -2.6477 0.1655 0 7
6.8765 14.2046 -2.6477 0.1655 0 7
6.6474 14.3133 -2.6477 0.1655 0 7
6.4165 14.4183 -2.6477 0.1655 0 7
6.1840 14.5195 -2.6477 0.1655 0 7
5.9499 14.6170 -2.6477 0.1655 0 7
5.7143 14.7107 -2.6477 0.1655 0 7
5.4772 14.8006 -2.6477 0.1655 0 7
5.2387 14.8867 -2.6477 0.1655 0 7
4.9989 14.9690 -2.6477 0.1655 0 7
4.7576 15.0474 -2.6477 0.1655 0 7
4.5152 15.1219 -2.6477 0.1655 0 7
4.2717 15.1925 -2.6477 0.1655 0 7
4.0270 15.2591 -2.6477 0.1655 0 7
3.7813 15.3219 -2.6477 0.1655 0 7
3.5346 15.3807 -2.6477 0.1655 0 7
3.2870 15.4355 -2.6477 0.1655 0 7
3.0386 15.4863 -2.6477 0.1655 0 7
2.7894 15.5331 -2.6477 0.1655 0 7
2.5394 15.5759 -2.6477 0.1655 0 7
2.2888 15.6147 -2.6477 0.1655 0 7
2.0376 15.6495 -2.6477 0.1655 0 7
1.7859 15.6802 -2.6477 0.1655 0 7
1.5337 15.7069 -2.6477 0.1655 0 7
1.2811 15.7295 -2.6477 0.1655 0 7
1.0282 15.7480 -2.6477 0.1655 0 7
0.7751 15.7625 -2.6477 0.1655 0 7
0.5217 15.7730 -2.6477 0.1655 0 7
0.2682 15.7793 -2.6477 0.1655 0 7
0.0146 15.7816 -2.6477 0.1655 0 7
-0.2390 15.7798 -2.6477 0.1655 0 7
-0.4925 15.7739 -2.6477 0.1655 0 7
-0.7459 15.7639 -2.6477 0.1655 0 7
-0.9991 15.7499 -2.6477 0.1655 0 7
-1.2520 15.7318 -2.6477 0.1655 0 7
-1.5046 15.7097 -2.6477 0.1655 0 7
-1.7569 15.6835 -2.6477 0.1655 0 7
-2.0086 15.6532 -2.6477 0.1655 0 7
-2.2599 15.6189 -2.6477 0.1655 0 7
-2.5106 15.5806 -2.6477 0.1655 0 7
-2.7606 15.5382 -2.6477 0.1655 0 7
-3.0099 15.4919 -2.6477 0.1655 0 7
-3.2584 15.4415 -2.6477 0.1655 0 7
-3.5061 15.3872 -2.6477 0.1655 0 7
-3.7529 15.3289 -2.6477 0.1655 0 7
-3.9987 15.2666 -2.6477 0.1655 0 7
-4.2435 15.2003 -2.6477 0.1655 0 7
11.3686 8.4271 -2.4953 0.1736 0 8
11.9177 9.1345 -2.6477 0.1736 0 7
11.7694 9.3248 -2.6477 0.1736 0 7
11.6181 9.5127 -2.6477 0.1736 0 7
11.4637 9.6982 -2.6477 0.1736 0 7
11.3064 9.8811 -2.6477 0.1736 0 7
11.1462 10.0615 -2.6477 0.1736 0 7
10.9831 10.2393 -2.6477 0.1736 0 7
10.8171 10.4145 -2.6477 0.1736 0 7
10.6484 10.5869 -2.6477 0.1736 0 7
10.4769 10.7567 -2.6477 0.1736 0 7
10.3027 10.9236 -2.6477 0.1736 0 7
10.1259 11.0877 -2.6477 0.1736 0 7
9.9464 11.2490 -2.6477 0.1736 0 7
9.7644 11.4074 -2.6477 0.1736 0 6
9.5798 11.5628 -2.6477 0.1736 0 7
9.3928 11.7152 -2.6477 0.1736 0 7
9.2033 11.8647 -2.6477 0.1736 0 7
9.0115 12.0110 -2.6477 0.1736 0 7
8.8173 12.1542 -2.6477 0.1736 0 7
8.6209 12.2944 -2.6477 0.1736 0 7
8.4222 12.4313 -2.6477 0.1736 0 7
8.2214 12.5650 -2.6477 0.1736 0 7
8.0185 12.6955 -2.6477 0.1736 0 7
7.8134 12.8227 -2.6477 0.1736 0 7
7.6064 12.9466 -2.6477 0.1736 0 7
7.3974 13.0671 -2.6477 0.1736 0 7
7.1865 13.1843 -2.6477 0.1736 0 7
6.9737 13.2981 -2.6477 0.1736 0 7
6.7591 13.4084 -2.6477 0.1736 0 7
6.5428 13.5153 -2.6477 0.1736 0 7
6.3248 13.6187 -2.6477 0.1736 0 7
6.1051 13.7185 -2.6477 0.1736 0 7
5.8839 13.8149 -2.6477 0.1736 0 7
5.6612 13.9076 -2.6477 0.1736 0 7
5.4370 13.9968 -2.6477 0.1736 0 7
5.2114 14.0823 -2.6477 0.1736 0 7
4.9844 14.1643 -2.6477 0.1736 0 7
