ply
format ascii 1.0
element vertex 1344
property float32 x
property float32 y
property float32 z
property float32 CosAngle
property uint32 ObjIdx
property uint32 ObjTag
end_header
-31.7552 38.6181 -2.4953 0.0498 0 8
-32.3710 38.1034 -2.4953 0.0498 0 8
-32.9783 37.5790 -2.4953 0.0498 0 8
-33.5773 37.0448 -2.4953 0.0498 0 8
-34.1675 36.5011 -2.4953 0.0498 0 8
-34.7490 35.9479 -2.4953 0.0498 0 8
-37.4788 37.5468 -2.6477 0.0498 0 6
-38.0766 36.9404 -2.6477 0.0498 0 7
-38.6646 36.3245 -2.6477 0.0498 0 6
-39.2426 35.6992 -2.6477 0.0498 0 7
-39.8106 35.0648 -2.6477 0.0498 0 7
-40.3683 34.4212 -2.6477 0.0498 0 7
-40.9156 33.7689 -2.6477 0.0498 0 7
-41.4523 33.1078 -2.6477 0.0498 0 7
-41.9784 32.4382 -2.6477 0.0498 0 7
-42.4936 31.7603 -2.6477 0.0498 0 7
-42.9979 31.0741 -2.6477 0.0498 0 7
-43.4911 30.3800 -2.6477 0.0498 0 7
-43.9731 29.6780 -2.6477 0.0498 0 7
-44.4438 28.9684 -2.6477 0.0498 0 7
-44.9030 28.2514 -2.6477 0.0498 0 7
-45.3507 27.5270 -2.6477 0.0498 0 7
-45.7867 26.7955 -2.6477 0.0498 0 7
-46.2108 26.0572 -2.6477 0.0498 0 7
-46.6231 25.3121 -2.6477 0.0498 0 7
-47.0234 24.5605 -2.6477 0.0498 0 6
-47.4115 23.8026 -2.6477 0.0498 0 7
-47.7875 23.0386 -2.6477 0.0498 0 6
-48.1511 22.2686 -2.6477 0.0498 0 7
-48.5023 21.4928 -2.6477 0.0498 0 7
-48.8410 20.7116 -2.6477 0.0498 0 7
-49.1672 19.9250 -2.6477 0.0498 0 7
-49.4807 19.1333 -2.6477 0.0498 0 6
-49.7814 18.3367 -2.6477 0.0498 0 7
-50.0693 17.5353 -2.6477 0.0498 0 7
-50.3443 16.7294 -2.6477 0.0498 0 7
-50.6063 15.9192 -2.6477 0.0498 0 7
-50.8553 15.1049 -2.6477 0.0498 0 6
-51.0912 14.2867 -2.6477 0.0498 0 7
-51.3139 13.4648 -2.6477 0.0498 0 7
-51.5234 12.6395 -2.6477 0.0498 0 7
-51.7197 11.8109 -2.6477 0.0498 0 7
-51.9026 10.9792 -2.6477 0.0498 0 7
-3.3486 42.7111 -2.4953 0.0581 0 8
-4.0337 42.6519 -2.4953 0.0581 0 8
-4.7177 42.5816 -2.4953 0.0581 0 8
-5.4006 42.5004 -2.4953 0.0581 0 8
-6.0820 42.4083 -2.4953 0.0581 0 8
-6.7619 42.3052 -2.4953 0.0581 0 8
-7.4401 42.1912 -2.4953 0.0581 0 8
-8.1163 42.0664 -2.4953 0.0581 0 8
-8.7905 41.9307 -2.4953 0.0581 0 8
-9.4623 41.7842 -2.4953 0.0581 0 8
-10.1318 41.6269 -2.4953 0.0581 0 8
-10.7986 41.4589 -2.4953 0.0581 0 8
-11.4626 41.2803 -2.4953 0.0581 0 8
-12.1237 41.0910 -2.4953 0.0581 0 8
-12.7817 40.8911 -2.4953 0.0581 0 8
-13.4364 40.6807 -2.4953 0.0581 0 8
-14.0876 40.4598 -2.4953 0.0581 0 8
-14.7352 40.2284 -2.4953 0.0581 0 8
-15.3789 39.9868 -2.4953 0.0581 0 8
-16.0188 39.7348 -2.4953 0.0581 0 8
-16.6545 39.4725 -2.4953 0.0581 0 8
-17.2859 39.2001 -2.4953 0.0581 0 8
-17.9128 38.9176 -2.4953 0.0581 0 8
-18.5352 38.6251 -2.4953 0.0581 0 8
-19.1527 38.3226 -2.4953 0.0581 0 8
-19.7654 38.0103 -2.4953 0.0581 0 8
-20.3729 37.6882 -2.4953 0.0581 0 8
-20.9752 37.3563 -2.4953 0.0581 0 8
-21.5721 37.0148 -2.4953 0.0581 0 8
-22.1634 36.6638 -2.4953 0.0581 0 8
-22.7490 36.3034 -2.4953 0.0581 0 8
-23.3288 35.9335 -2.4953 0.0581 0 8
-23.9025 35.5545 -2.4953 0.0581 0 8
-24.4701 35.1663 -2.4953 0.0581 0 8
-25.0314 34.7690 -2.4953 0.0581 0 8
-25.5862 34.3627 -2.4953 0.0581 0 8
-26.1345 33.9476 -2.4953 0.0581 0 8
-26.6760 33.5238 -2.4953 0.0581 0 8
-27.2106 33.0913 -2.4953 0.0581 0 8
-27.8913 32.8304 -2.5090 0.7604 0 8
-28.8034 32.8215 -2.5434 0.7502 0 8
-29.7484 32.8204 -2.5800 0.7173 0 8
-30.8119 32.9162 -2.6260 0.6080 0 8
-31.5834 32.6731 -2.6467 0.0673 0 8
-32.1151 32.1733 -2.6477 0.0581 0 7
-32.6274 31.6537 -2.6477 0.0581 0 7
-33.1312 31.1260 -2.6477 0.0581 0 7
-33.6265 30.5902 -2.6477 0.0581 0 7
-34.1132 30.0465 -2.6477 0.0581 0 7
-34.5910 29.4951 -2.6477 0.0581 0 7
-35.0600 28.9361 -2.6477 0.0581 0 7
-35.5199 28.3696 -2.6477 0.0581 0 7
-35.9707 27.7959 -2.6477 0.0581 0 7
-36.4122 27.2150 -2.6477 0.0581 0 7
-36.8443 26.6270 -2.6477 0.0581 0 6
-37.2669 26.0322 -2.6477 0.0581 0 7
-37.6800 25.4307 -2.6477 0.0581 0 7
-38.0833 24.8226 -2.6477 0.0581 0 7
-38.4768 24.2082 -2.6477 0.0581 0 7
-38.8604 23.5875 -2.6477 0.0581 0 7
-39.2340 22.9608 -2.6477 0.0581 0 7
-39.5975 22.3281 -2.6477 0.0581 0 7
-39.9508 21.6896 -2.6477 0.0581 0 7
-40.2937 21.0456 -2.6477 0.0581 0 6
-40.6263 20.3961 -2.6477 0.0581 0 7
-40.9485 19.7414 -2.6477 0.0581 0 6
-41.2600 19.0817 -2.6477 0.0581 0 6
-41.5610 18.4169 -2.6477 0.0581 0 7
-41.8513 17.7475 -2.6477 0.0581 0 7
-42.1307 17.0735 -2.6477 0.0581 0 6
-42.3993 16.3951 -2.6477 0.0581 0 7
-42.6570 15.7124 -2.6477 0.0581 0 7
-42.9037 15.0258 -2.6477 0.0581 0 7
-43.1394 14.3352 -2.6477 0.0581 0 7
-43.3639 13.6410 -2.6477 0.0581 0 7
-43.5772 12.9432 -2.6477 0.0581 0 7
-43.7794 12.2421 -2.6477 0.0581 0 7
-43.9702 11.5378 -2.6477 0.0581 0 7
-44.1497 10.8306 -2.6477 0.0581 0 7
-44.3179 10.1206 -2.6477 0.0581 0 7
-44.4746 9.4080 -2.6477 0.0581 0 7
-2.9290 37.3593 -2.4953 0.0664 0 8
-3.5282 37.3074 -2.4953 0.0664 0 8
-4.1266 37.2460 -2.4953 0.0664 0 8
-4.7239 37.1750 -2.4953 0.0664 0 8
-5.3199 37.0944 -2.4953 0.0664 0 8
-5.9146 37.0042 -2.4953 0.0664 0 8
-6.5078 36.9045 -2.4953 0.0664 0 8
-7.0993 36.7953 -2.4953 0.0664 0 8
-7.6890 36.6766 -2.4953 0.0664 0 8
-8.2767 36.5485 -2.4953 0.0664 0 8
-8.8622 36.4109 -2.4953 0.0664 0 8
-9.4455 36.2640 -2.4953 0.0664 0 8
-10.0263 36.1077 -2.4953 0.0664 0 8
-10.6046 35.9421 -2.4953 0.0664 0 8
-11.1801 35.7673 -2.4953 0.0664 0 8
-11.7528 35.5832 -2.4953 0.0664 0 8
-12.3224 35.3900 -2.4953 0.0664 0 8
-12.8888 35.1877 -2.4953 0.0664 0 8
-13.4519 34.9763 -2.4953 0.0664 0 8
-14.0116 34.7559 -2.4953 0.0664 0 8
-14.5676 34.5265 -2.4953 0.0664 0 8
-15.1199 34.2882 -2.4953 0.0664 0 8
-15.6683 34.0411 -2.4953 0.0664 0 8
-16.2126 33.7853 -2.4953 0.0664 0 8
-16.7528 33.5207 -2.4953 0.0664 0 8
-17.2887 33.2475 -2.4953 0.0664 0 8
-17.8201 32.9657 -2.4953 0.0664 0 8
-18.4487 32.8566 -2.5091 0.8689 0 8
-19.1451 32.8505 -2.5318 0.8611 0 8
-19.8544 32.8441 -2.5555 0.8531 0 8
-20.5772 32.8375 -2.5804 0.8449 0 8
-21.3143 32.8306 -2.6064 0.8365 0 8
-22.0665 32.8235 -2.6336 0.8278 0 8
-22.6790 32.5922 -2.6439 0.0803 0 8
-23.2321 32.2697 -2.6477 0.0664 0 7
-23.7471 31.8927 -2.6477 0.0664 0 7
-24.2559 31.5074 -2.6477 0.0664 0 7
-24.7585 31.1141 -2.6477 0.0664 0 7
-25.2547 30.7127 -2.6477 0.0664 0 7
-25.7444 30.3034 -2.6477 0.0664 0 7
-26.2275 29.8862 -2.6477 0.0664 0 6
-26.7038 29.4614 -2.6477 0.0664 0 7
-27.1732 29.0290 -2.6477 0.0664 0 7
-27.6356 28.5891 -2.6477 0.0664 0 7
-28.0910 28.1419 -2.6477 0.0664 0 7
-28.5390 27.6874 -2.6477 0.0664 0 7
-28.9797 27.2258 -2.6477 0.0664 0 7
-29.4130 26.7571 -2.6477 0.0664 0 7
-29.8387 26.2816 -2.6477 0.0664 0 7
-30.2567 25.7993 -2.6477 0.0664 0 7
-30.6669 25.3103 -2.6477 0.0664 0 7
-31.0692 24.8148 -2.6477 0.0664 0 7
-31.4634 24.3130 -2.6477 0.0664 0 7
-31.8496 23.8048 -2.6477 0.0664 0 7
-30.4653 22.0170 -2.5029 0.0664 0 14
-30.8148 21.5252 -2.5029 0.0664 0 14
-31.1563 21.0278 -2.5029 0.0664 0 14
-31.4898 20.5250 -2.5029 0.0664 0 14
-31.8152 20.0170 -2.5029 0.0664 0 14
-32.1323 19.5037 -2.5029 0.0664 0 14
-34.3178 20.0837 -2.6477 0.0664 0 7
-34.6358 19.5303 -2.6477 0.0664 0 7
-34.9448 18.9718 -2.6477 0.0664 0 7
-35.2448 18.4085 -2.6477 0.0664 0 7
-35.5357 17.8404 -2.6477 0.0664 0 7
-35.8175 17.2678 -2.6477 0.0664 0 7
-36.0900 16.6907 -2.6477 0.0664 0 7
-36.3533 16.1092 -2.6477 0.0664 0 7
-36.6071 15.5237 -2.6477 0.0664 0 7
-36.8516 14.9341 -2.6477 0.0664 0 6
-37.0865 14.3407 -2.6477 0.0664 0 7
-37.3119 13.7436 -2.6477 0.0664 0 7
-37.5277 13.1430 -2.6477 0.0664 0 6
-37.7338 12.5389 -2.6477 0.0664 0 7
-37.9302 11.9317 -2.6477 0.0664 0 7
-38.1169 11.3214 -2.6477 0.0664 0 7
-38.2937 10.7081 -2.6477 0.0664 0 7
-38.4606 10.0921 -2.6477 0.0664 0 7
-38.6176 9.4735 -2.6477 0.0664 0 7
-38.7647 8.8524 -2.6477 0.0664 0 7
-38.9018 8.2291 -2.6477 0.0664 0 7
-2.6025 33.1952 -2.4953 0.0747 0 8
-3.1350 33.1492 -2.4953 0.0747 0 8
-3.6666 33.0946 -2.4953 0.0747 0 8
-4.1974 33.0315 -2.4953 0.0747 0 8
-4.7270 32.9598 -2.4953 0.0747 0 8
-5.2587 32.9005 -2.4968 0.7496 0 8
-5.8004 32.8929 -2.5030 0.9797 0 8
-6.3458 32.8900 -2.5102 0.9769 0 8
-6.8945 32.8871 -2.5181 0.9738 0 8
-7.4468 32.8839 -2.5267 0.9705 0 8
-8.0030 32.8807 -2.5360 0.9670 0 8
-8.5634 32.8773 -2.5460 0.9632 0 8
-9.1283 32.8737 -2.5568 0.9591 0 8
-9.6982 32.8700 -2.5682 0.9548 0 8
-10.2733 32.8661 -2.5805 0.9503 0 8
-10.8540 32.8621 -2.5935 0.9455 0 8
-11.4407 32.8579 -2.6074 0.9405 0 8
-12.0338 32.8535 -2.6220 0.9353 0 8
-12.6337 32.8490 -2.6375 0.9298 0 8
-13.1843 32.7039 -2.6425 0.0904 0 8
-13.7231 32.5250 -2.6455 0.0903 0 8
-14.2552 32.3272 -2.6477 0.0747 0 7
-14.7722 32.0943 -2.6477 0.0747 0 7
-15.2854 31.8531 -2.6477 0.0747 0 7
-15.7947 31.6036 -2.6477 0.0747 0 7
-16.2999 31.3460 -2.6477 0.0747 0 7
-16.8010 31.0804 -2.6477 0.0747 0 7
-17.2976 30.8067 -2.6477 0.0747 0 7
-17.7899 30.5251 -2.6477 0.0747 0 7
-18.2776 30.2356 -2.6477 0.0747 0 7
-18.7605 29.9384 -2.6477 0.0747 0 6
-19.2386 29.6334 -2.6477 0.0747 0 7
-19.7117 29.3208 -2.6477 0.0747 0 7
-20.1798 29.0006 -2.6477 0.0747 0 7
-20.6427 28.6730 -2.6477 0.0747 0 7
-21.1002 28.3380 -2.6477 0.0747 0 7
-21.5524 27.9956 -2.6477 0.0747 0 7
-21.9989 27.6461 -2.6477 0.0747 0 7
-22.4398 27.2895 -2.6477 0.0747 0 7
-22.8750 26.9258 -2.6477 0.0747 0 7
-23.3042 26.5552 -2.6477 0.0747 0 7
-23.7274 26.1777 -2.6477 0.0747 0 7
-24.1445 25.7935 -2.6477 0.0747 0 7
-24.5554 25.4026 -2.6477 0.0747 0 7
-24.9600 25.0052 -2.6477 0.0747 0 7
-25.3581 24.6014 -2.6477 0.0747 0 7
-25.7497 24.1912 -2.6477 0.0747 0 7
-26.1346 23.7748 -2.6477 0.0747 0 7
-25.0631 22.0753 -2.5029 0.0747 0 14
-25.4142 21.6702 -2.5029 0.0747 0 14
-25.7587 21.2595 -2.5029 0.0747 0 14
-26.0967 20.8433 -2.5029 0.0747 0 14
-26.4278 20.4218 -2.5029 0.0747 0 14
-26.7522 19.9950 -2.5029 0.0747 0 14
-27.0697 19.5630 -2.5029 0.0747 0 14
-27.3802 19.1260 -2.5029 0.0747 0 14
-27.9714 18.8783 -2.5289 0.5644 0 8
-28.9421 18.8644 -2.5890 0.5513 0 8
-29.9043 18.8147 -2.6477 0.0747 0 7
-30.2024 18.3323 -2.6477 0.0747 0 6
-30.4928 17.8452 -2.6477 0.0747 0 7
-30.7753 17.3535 -2.6477 0.0747 0 6
-31.0499 16.8572 -2.6477 0.0747 0 7
-31.3164 16.3567 -2.6477 0.0747 0 7
-31.5749 15.8520 -2.6477 0.0747 0 7
-31.8253 15.3431 -2.6477 0.0747 0 7
-32.0675 14.8303 -2.6477 0.0747 0 7
-32.3014 14.3137 -2.6477 0.0747 0 7
-32.5269 13.7934 -2.6477 0.0747 0 7
-32.7441 13.2696 -2.6477 0.0747 0 7
-32.9529 12.7423 -2.6477 0.0747 0 7
-33.1532 12.2118 -2.6477 0.0747 0 7
-33.3449 11.6781 -2.6477 0.0747 0 7
-33.5281 11.1414 -2.6477 0.0747 0 7
-33.7026 10.6018 -2.6477 0.0747 0 7
-33.8684 10.0595 -2.6477 0.0747 0 7
-34.0255 9.5146 -2.6477 0.0747 0 7
-34.1738 8.9672 -2.6477 0.0747 0 7
-34.3133 8.4176 -2.6477 0.0747 0 7
-32.4614 7.4130 -2.4953 0.0747 0 8
-32.5762 6.8910 -2.4953 0.0747 0 8
-2.4842 31.6865 -2.6477 0.0830 0 7
-2.9925 31.6425 -2.6477 0.0830 0 7
-3.5000 31.5904 -2.6477 0.0830 0 7
-4.0066 31.5301 -2.6477 0.0830 0 7
-4.5121 31.4618 -2.6477 0.0830 0 7
-5.0165 31.3853 -2.6477 0.0830 0 7
-5.5196 31.3007 -2.6477 0.0830 0 7
-6.0213 31.2081 -2.6477 0.0830 0 7
-6.5215 31.1074 -2.6477 0.0830 0 7
-7.0199 30.9988 -2.6477 0.0830 0 7
-7.5166 30.8821 -2.6477 0.0830 0 7
-8.0112 30.7575 -2.6477 0.0830 0 7
-8.5039 30.6249 -2.6477 0.0830 0 7
-8.9943 30.4845 -2.6477 0.0830 0 7
-9.4825 30.3362 -2.6477 0.0830 0 7
-9.9682 30.1801 -2.6477 0.0830 0 7
-10.4513 30.0162 -2.6477 0.0830 0 7
-10.9317 29.8446 -2.6477 0.0830 0 6
-11.4093 29.6653 -2.6477 0.0830 0 7
-11.8840 29.4784 -2.6477 0.0830 0 7
-12.3556 29.2838 -2.6477 0.0830 0 7
-12.8240 29.0817 -2.6477 0.0830 0 7
-13.2892 28.8722 -2.6477 0.0830 0 7
-13.7508 28.6552 -2.6477 0.0830 0 7
-14.2090 28.4307 -2.6477 0.0830 0 7
-14.6635 28.1990 -2.6477 0.0830 0 7
-15.1142 27.9600 -2.6477 0.0830 0 7
-15.5610 27.7138 -2.6477 0.0830 0 7
-16.0039 27.4605 -2.6477 0.0830 0 7
-16.4426 27.2001 -2.6477 0.0830 0 7
-16.8770 26.9327 -2.6477 0.0830 0 7
-17.3071 26.6583 -2.6477 0.0830 0 7
-17.7328 26.3771 -2.6477 0.0830 0 7
-18.1539 26.0891 -2.6477 0.0830 0 7
-18.5703 25.7943 -2.6477 0.0830 0 7
-18.9819 25.4930 -2.6477 0.0830 0 7
-19.3886 25.1850 -2.6477 0.0830 0 7
-19.7903 24.8706 -2.6477 0.0830 0 7
-20.1870 24.5497 -2.6477 0.0830 0 7
-20.5784 24.2226 -2.6477 0.0830 0 7
-20.9645 23.8891 -2.6477 0.0830 0 7
-20.1781 22.2618 -2.5029 0.0830 0 8
-20.5328 21.9351 -2.5029 0.0830 0 14
-20.8822 21.6027 -2.5029 0.0830 0 14
-21.2263 21.2648 -2.5029 0.0830 0 14
-21.5648 20.9213 -2.5029 0.0830 0 14
-21.8978 20.5725 -2.5029 0.0830 0 14
-22.2252 20.2184 -2.5029 0.0830 0 14
-22.5469 19.8591 -2.5029 0.0830 0 14
-22.8627 19.4946 -2.5029 0.0830 0 14
-23.1727 19.1251 -2.5029 0.0830 0 14
-23.6530 18.8916 -2.5217 0.6288 0 8
-24.4328 18.8801 -2.5722 0.6164 0 8
-25.2444 18.8680 -2.6254 0.6039 0 8
-25.7607 18.6170 -2.6477 0.0830 0 7
-26.0562 18.2011 -2.6477 0.0830 0 7
-26.3449 17.7806 -2.6477 0.0830 0 7
-26.6269 17.3554 -2.6477 0.0830 0 7
-26.9020 16.9258 -2.6477 0.0830 0 7
-27.1702 16.4918 -2.6477 0.0830 0 7
-27.4315 16.0536 -2.6477 0.0830 0 7
-27.6856 15.6112 -2.6477 0.0830 0 7
-27.9326 15.1649 -2.6477 0.0830 0 7
-28.1724 14.7146 -2.6477 0.0830 0 7
-28.4050 14.2605 -2.6477 0.0830 0 7
-28.6302 13.8027 -2.6477 0.0830 0 7
-28.8480 13.3413 -2.6477 0.0830 0 7
-29.0585 12.8767 -2.6477 0.0830 0 7
-29.2614 12.4086 -2.6477 0.0830 0 7
-29.4568 11.9374 -2.6477 0.0830 0 7
-29.6446 11.4631 -2.6477 0.0830 0 7
-29.8247 10.9854 -2.6477 0.0830 0 7
-29.9972 10.5058 -2.6477 0.0830 0 7
-30.1620 10.0228 -2.6477 0.0830 0 7
-30.3190 9.5374 -2.6477 0.0830 0 7
-30.4682 9.0496 -2.6477 0.0830 0 7
-28.8476 8.0667 -2.4953 0.0830 0 8
-28.9734 7.6026 -2.4953 0.0830 0 8
-29.0917 7.1366 -2.4953 0.0830 0 8
-29.2024 6.6688 -2.4953 0.0830 0 8
-29.3057 6.1991 -2.4953 0.0830 0 8
-2.2573 28.7919 -2.6477 0.0913 0 7
-2.7191 28.7520 -2.6477 0.0913 0 7
-3.1803 28.7046 -2.6477 0.0913 0 7
-3.6406 28.6499 -2.6477 0.0913 0 7
-4.1000 28.5878 -2.6477 0.0913 0 7
-4.5583 28.5183 -2.6477 0.0913 0 7
-5.0154 28.4414 -2.6477 0.0913 0 7
-5.4713 28.3573 -2.6477 0.0913 0 7
-5.9257 28.2658 -2.6477 0.0913 0 7
-6.3786 28.1670 -2.6477 0.0913 0 7
-6.8299 28.0610 -2.6477 0.0913 0 7
-7.2794 27.9478 -2.6477 0.0913 0 7
-7.7271 27.8274 -2.6477 0.0913 0 7
-8.1727 27.6998 -2.6477 0.0913 0 7
-8.6163 27.5650 -2.6477 0.0913 0 7
-9.0576 27.4232 -2.6477 0.0913 0 7
-9.4966 27.2743 -2.6477 0.0913 0 7
-9.9331 27.1183 -2.6477 0.0913 0 7
-10.3671 26.9554 -2.6477 0.0913 0 7
-10.7984 26.7855 -2.6477 0.0913 0 7
-11.2269 26.6088 -2.6477 0.0913 0 7
-11.6525 26.4251 -2.6477 0.0913 0 7
-12.0752 26.2347 -2.6477 0.0913 0 7
-12.4947 26.0375 -2.6477 0.0913 0 7
-12.9110 25.8336 -2.6477 0.0913 0 7
-13.3240 25.6231 -2.6477 0.0913 0 7
-13.7335 25.4059 -2.6477 0.0913 0 7
-14.1395 25.1822 -2.6477 0.0913 0 7
-14.5419 24.9520 -2.6477 0.0913 0 7
-14.9405 24.7154 -2.6477 0.0913 0 7
-15.3353 24.4724 -2.6477 0.0913 0 7
-15.7261 24.2231 -2.6477 0.0913 0 7
-16.1129 23.9676 -2.6477 0.0913 0 7
-16.4955 23.7059 -2.6477 0.0913 0 7
-15.9512 22.1564 -2.5029 0.0913 0 14
-16.3047 21.8975 -2.5029 0.0913 0 14
-16.6541 21.6330 -2.5029 0.0913 0 14
-16.9992 21.3629 -2.5029 0.0913 0 14
-17.3399 21.0873 -2.5029 0.0913 0 14
-17.6761 20.8063 -2.5029 0.0913 0 14
-18.0078 20.5199 -2.5029 0.0913 0 14
-18.3348 20.2282 -2.5029 0.0913 0 14
-18.6571 19.9313 -2.5029 0.0913 0 14
-18.9746 19.6293 -2.5029 0.0913 0 14
-19.2872 19.3222 -2.5029 0.0913 0 14
-19.5949 19.0102 -2.5029 0.0913 0 8
-20.1174 18.8998 -2.5305 0.6891 0 8
-20.7650 18.8900 -2.5735 0.6775 0 8
-21.4351 18.8798 -2.6187 0.6659 0 8
-21.9759 18.7384 -2.6477 0.0913 0 7
-22.2738 18.3833 -2.6477 0.0913 0 6
-22.5660 18.0234 -2.6477 0.0913 0 7
-22.8524 17.6589 -2.6477 0.0913 0 7
-23.1329 17.2898 -2.6477 0.0913 0 7
-23.4074 16.9163 -2.6477 0.0913 0 7
-23.6759 16.5384 -2.6477 0.0913 0 7
-23.9383 16.1563 -2.6477 0.0913 0 7
-24.1946 15.7700 -2.6477 0.0913 0 7
-24.4446 15.3796 -2.6477 0.0913 0 7
-24.6883 14.9853 -2.6477 0.0913 0 7
-24.9256 14.5871 -2.6477 0.0913 0 7
-25.1565 14.1852 -2.6477 0.0913 0 7
-25.3810 13.7796 -2.6477 0.0913 0 7
-25.5989 13.3704 -2.6477 0.0913 0 7
-25.8102 12.9578 -2.6477 0.0913 0 7
-26.0148 12.5419 -2.6477 0.0913 0 7
-26.2128 12.1227 -2.6477 0.0913 0 7
-26.4040 11.7004 -2.6477 0.0913 0 7
-26.5884 11.2751 -2.6477 0.0913 0 7
-26.7659 10.8469 -2.6477 0.0913 0 7
-26.9366 10.4159 -2.6477 0.0913 0 7
-27.1003 9.9822 -2.6477 0.0913 0 7
-27.2570 9.5460 -2.6477 0.0913 0 7
-27.4067 9.1072 -2.6477 0.0913 0 7
-25.9636 8.1674 -2.4953 0.0913 0 8
-26.0914 7.7496 -2.4953 0.0913 0 8
-26.2124 7.3298 -2.4953 0.0913 0 8
-26.3266 6.9081 -2.4953 0.0913 0 8
-26.4341 6.4847 -2.4953 0.0913 0 8
-26.5348 6.0596 -2.4953 0.0913 0 8
-26.6287 5.6329 -2.4953 0.0913 0 8
-2.0682 26.3786 -2.6477 0.0996 0 7
-2.4912 26.3419 -2.6477 0.0996 0 7
-2.9137 26.2986 -2.6477 0.0996 0 7
-3.3354 26.2484 -2.6477 0.0996 0 7
-3.7563 26.1915 -2.6477 0.0996 0 7
-4.1762 26.1279 -2.6477 0.0996 0 7
-4.5950 26.0575 -2.6477 0.0996 0 7
-5.0127 25.9804 -2.6477 0.0996 0 7
-5.4290 25.8966 -2.6477 0.0996 0 7
-5.8440 25.8061 -2.6477 0.0996 0 7
-6.2574 25.7090 -2.6477 0.0996 0 7
-6.6693 25.6052 -2.6477 0.0996 0 7
-7.0794 25.4949 -2.6477 0.0996 0 7
-7.4877 25.3780 -2.6477 0.0996 0 7
-7.8940 25.2545 -2.6477 0.0996 0 7
-8.2984 25.1245 -2.6477 0.0996 0 7
-8.7006 24.9881 -2.6477 0.0996 0 7
-9.1005 24.8453 -2.6477 0.0996 0 7
-9.4981 24.6960 -2.6477 0.0996 0 7
-9.8933 24.5404 -2.6477 0.0996 0 7
-10.2859 24.3784 -2.6477 0.0996 0 7
-10.6758 24.2102 -2.6477 0.0996 0 7
-11.0630 24.0357 -2.6477 0.0996 0 7
-11.4474 23.8550 -2.6477 0.0996 0 7
-11.8288 23.6682 -2.6477 0.0996 0 7
-11.5397 22.1916 -2.5029 0.0996 0 14
-11.8944 22.0036 -2.5029 0.0996 0 14
-12.2460 21.8098 -2.5029 0.0996 0 14
-12.5945 21.6105 -2.5029 0.0996 0 14
-12.9397 21.4055 -2.5029 0.0996 0 14
-13.2816 21.1951 -2.5029 0.0996 0 14
-13.6201 20.9792 -2.5029 0.0996 0 14
-13.9551 20.7579 -2.5029 0.0996 0 14
-14.2865 20.5312 -2.5029 0.0996 0 14
-14.6141 20.2993 -2.5029 0.0996 0 14
-14.9381 20.0621 -2.5029 0.0996 0 14
-15.2582 19.8197 -2.5029 0.0996 0 14
-15.5743 19.5723 -2.5029 0.0996 0 14
-15.8864 19.3198 -2.5029 0.0996 0 14
-16.2036 19.0730 -2.5043 0.6079 0 8
-16.5967 18.9119 -2.5178 0.7553 0 8
-17.1345 18.9039 -2.5530 0.7449 0 8
-17.6876 18.8955 -2.5899 0.7343 0 8
-18.2569 18.8868 -2.6285 0.7235 0 8
-18.6927 18.7266 -2.6477 0.0996 0 7
-18.9910 18.4242 -2.6477 0.0996 0 6
-19.2842 18.1170 -2.6477 0.0996 0 7
-19.5725 17.8052 -2.6477 0.0996 0 7
-19.8557 17.4887 -2.6477 0.0996 0 7
-20.1339 17.1678 -2.6477 0.0996 0 7
-20.4068 16.8424 -2.6477 0.0996 0 7
-20.6745 16.5127 -2.6477 0.0996 0 7
-20.9369 16.1787 -2.6477 0.0996 0 7
-21.1939 15.8406 -2.6477 0.0996 0 7
-21.4454 15.4984 -2.6477 0.0996 0 7
-21.6914 15.1522 -2.6477 0.0996 0 7
-21.9318 14.8021 -2.6477 0.0996 0 7
-22.1666 14.4482 -2.6477 0.0996 0 7
-22.3956 14.0905 -2.6477 0.0996 0 7
-22.6189 13.7292 -2.6477 0.0996 0 7
-22.8363 13.3644 -2.6477 0.0996 0 7
-23.0479 12.9962 -2.6477 0.0996 0 7
-23.2535 12.6245 -2.6477 0.0996 0 7
-23.4532 12.2497 -2.6477 0.0996 0 7
-23.6468 11.8717 -2.6477 0.0996 0 7
-23.8342 11.4906 -2.6477 0.0996 0 7
-24.0156 11.1066 -2.6477 0.0996 0 7
-24.1908 10.7197 -2.6477 0.0996 0 7
-24.3597 10.3300 -2.6477 0.0996 0 7
-24.5224 9.9377 -2.6477 0.0996 0 7
-24.6787 9.5428 -2.6477 0.0996 0 7
-24.8287 9.1455 -2.6477 0.0996 0 7
-23.5488 8.2473 -2.4967 0.3048 0 8
-23.6642 7.8636 -2.4953 0.0996 0 8
-23.7873 7.4828 -2.4953 0.0996 0 8
-23.9044 7.1000 -2.4953 0.0996 0 8
-24.0153 6.7154 -2.4953 0.0996 0 8
-24.1199 6.3291 -2.4953 0.0996 0 8
-24.2184 5.9411 -2.4953 0.0996 0 8
-24.3107 5.5517 -2.4953 0.0996 0 8
-24.3966 5.1608 -2.4953 0.0996 0 8
-1.9079 24.3353 -2.6477 0.1078 0 7
-2.2983 24.3016 -2.6477 0.1078 0 7
-2.6880 24.2615 -2.6477 0.1078 0 7
-3.0771 24.2153 -2.6477 0.1078 0 7
-3.4653 24.1628 -2.6477 0.1078 0 7
-3.8527 24.1040 -2.6477 0.1078 0 7
-4.2391 24.0391 -2.6477 0.1078 0 7
-4.6244 23.9680 -2.6477 0.1078 0 7
-5.0085 23.8906 -2.6477 0.1078 0 7
-5.3913 23.8072 -2.6477 0.1078 0 7
-5.7727 23.7176 -2.6477 0.1078 0 7
-5.8162 22.3302 -2.5029 0.1078 0 8
-6.1771 22.2454 -2.5042 0.7541 0 8
-6.5300 22.1320 -2.5029 0.1078 0 14
-6.8843 22.0243 -2.5029 0.1078 0 14
-7.2370 21.9110 -2.5029 0.1078 0 14
-7.5877 21.7920 -2.5029 0.1078 0 14
-7.9365 21.6674 -2.5029 0.1078 0 14
-8.2832 21.5372 -2.5029 0.1078 0 14
-8.6279 21.4015 -2.5029 0.1078 0 14
-8.9703 21.2603 -2.5029 0.1078 0 14
-9.3103 21.1136 -2.5029 0.1078 0 14
-9.6480 20.9614 -2.5029 0.1078 0 14
-9.9832 20.8039 -2.5029 0.1078 0 14
-10.3158 20.6409 -2.5029 0.1078 0 14
-10.6458 20.4727 -2.5029 0.1078 0 14
-10.9730 20.2992 -2.5029 0.1078 0 14
-11.2974 20.1205 -2.5029 0.1078 0 14
-11.6189 19.9365 -2.5029 0.1078 0 14
-11.9374 19.7475 -2.5029 0.1078 0 14
-12.2528 19.5533 -2.5029 0.1078 0 14
-12.5651 19.3541 -2.5029 0.1078 0 14
-12.8741 19.1500 -2.5029 0.1078 0 14
-13.1798 18.9409 -2.5029 0.1078 0 8
-13.6199 18.9182 -2.5285 0.8146 0 8
-14.0814 18.9116 -2.5575 0.8053 0 8
-14.5537 18.9046 -2.5878 0.7959 0 8
-15.0373 18.8974 -2.6195 0.7863 0 8
-15.5037 18.8543 -2.6477 0.1078 0 7
-15.8043 18.6030 -2.6477 0.1078 0 7
-16.1008 18.3469 -2.6477 0.1078 0 6
-16.3933 18.0862 -2.6477 0.1078 0 7
-16.6814 17.8207 -2.6477 0.1078 0 7
-16.9653 17.5507 -2.6477 0.1078 0 7
-17.2448 17.2761 -2.6477 0.1078 0 7
-17.5199 16.9971 -2.6477 0.1078 0 7
-17.7905 16.7137 -2.6477 0.1078 0 7
-18.0564 16.4260 -2.6477 0.1078 0 7
-18.3177 16.1341 -2.6477 0.1078 0 7
-18.5743 15.8380 -2.6477 0.1078 0 7
-18.8262 15.5378 -2.6477 0.1078 0 7
-19.0731 15.2336 -2.6477 0.1078 0 7
-19.3152 14.9255 -2.6477 0.1078 0 7
-19.5522 14.6136 -2.6477 0.1078 0 7
-19.7843 14.2979 -2.6477 0.1078 0 7
-20.0112 13.9785 -2.6477 0.1078 0 7
-20.2330 13.6555 -2.6477 0.1078 0 7
-20.4496 13.3290 -2.6477 0.1078 0 7
-20.6609 12.9991 -2.6477 0.1078 0 7
-20.8669 12.6658 -2.6477 0.1078 0 7
-21.0675 12.3292 -2.6477 0.1078 0 7
-21.2626 11.9895 -2.6477 0.1078 0 7
-21.4523 11.6467 -2.6477 0.1078 0 7
-21.6365 11.3009 -2.6477 0.1078 0 7
-21.8151 10.9521 -2.6477 0.1078 0 7
-21.9881 10.6006 -2.6477 0.1078 0 7
-22.1554 10.2463 -2.6477 0.1078 0 7
-22.3170 9.8893 -2.6477 0.1078 0 7
-22.4729 9.5299 -2.6477 0.1078 0 7
-22.6229 9.1680 -2.6477 0.1078 0 7
-21.4567 8.2969 -2.4953 0.1078 0 8
-21.5871 7.9515 -2.4953 0.1078 0 8
-21.7119 7.6040 -2.4953 0.1078 0 8
-21.8312 7.2545 -2.4953 0.1078 0 8
-21.9448 6.9032 -2.4953 0.1078 0 8
-22.0528 6.5501 -2.4953 0.1078 0 8
-22.1551 6.1952 -2.4953 0.1078 0 8
-22.2516 5.8389 -2.4953 0.1078 0 8
-22.3425 5.4809 -2.4953 0.1078 0 8
-22.4276 5.1216 -2.4953 0.1078 0 8
-22.5069 4.7610 -2.4953 0.1078 0 8
-1.6737 21.3481 -2.5029 0.1161 0 14
-2.0161 21.3185 -2.5029 0.1161 0 14
-2.3580 21.2834 -2.5029 0.1161 0 14
-2.6994 21.2428 -2.5029 0.1161 0 14
-3.0400 21.1967 -2.5029 0.1161 0 14
-3.3798 21.1452 -2.5029 0.1161 0 14
-3.7187 21.0882 -2.5029 0.1161 0 14
-4.0567 21.0258 -2.5029 0.1161 0 14
-4.3937 20.9580 -2.5029 0.1161 0 14
-4.7295 20.8848 -2.5029 0.1161 0 14
-5.0641 20.8062 -2.5029 0.1161 0 14
-5.3974 20.7222 -2.5029 0.1161 0 14
-5.7293 20.6329 -2.5029 0.1161 0 14
-6.0597 20.5383 -2.5029 0.1161 0 14
-6.3886 20.4384 -2.5029 0.1161 0 14
-6.7158 20.3332 -2.5029 0.1161 0 14
-7.0413 20.2228 -2.5029 0.1161 0 14
-7.3650 20.1072 -2.5029 0.1161 0 14
-7.6868 19.9864 -2.5029 0.1161 0 14
-8.0066 19.8604 -2.5029 0.1161 0 14
-8.3243 19.7294 -2.5029 0.1161 0 14
-8.6399 19.5932 -2.5029 0.1161 0 14
-8.9533 19.4520 -2.5029 0.1161 0 14
-9.2643 19.3058 -2.5029 0.1161 0 14
-9.5730 19.1546 -2.5029 0.1161 0 14
-9.8792 18.9985 -2.5029 0.1161 0 8
-10.2330 18.9301 -2.5152 0.8816 0 8
-10.6262 18.9250 -2.5369 0.8740 0 8
-11.0263 18.9197 -2.5595 0.8663 0 8
-11.4337 18.9142 -2.5833 0.8583 0 8
-11.8487 18.9084 -2.6081 0.8502 0 8
-12.2718 18.9024 -2.6342 0.8418 0 8
-12.6382 18.7990 -2.6477 0.1161 0 7
-12.9383 18.5937 -2.6477 0.1161 0 7
-13.2350 18.3837 -2.6477 0.1161 0 6
-13.5284 18.1689 -2.6477 0.1161 0 7
-13.8183 17.9494 -2.6477 0.1161 0 7
-14.1046 17.7253 -2.6477 0.1161 0 7
-14.3873 17.4966 -2.6477 0.1161 0 7
-14.6663 17.2634 -2.6477 0.1161 0 7
-14.9415 17.0258 -2.6477 0.1161 0 7
-15.2128 16.7838 -2.6477 0.1161 0 7
-15.4802 16.5375 -2.6477 0.1161 0 7
-15.7437 16.2869 -2.6477 0.1161 0 7
-16.0031 16.0321 -2.6477 0.1161 0 7
-16.2583 15.7732 -2.6477 0.1161 0 7
-16.5094 15.5102 -2.6477 0.1161 0 7
-16.7562 15.2432 -2.6477 0.1161 0 7
-16.9987 14.9723 -2.6477 0.1161 0 7
-17.2368 14.6975 -2.6477 0.1161 0 7
-17.4705 14.4190 -2.6477 0.1161 0 7
-17.6997 14.1367 -2.6477 0.1161 0 7
-17.9243 13.8508 -2.6477 0.1161 0 7
-18.1443 13.5613 -2.6477 0.1161 0 7
-18.3596 13.2683 -2.6477 0.1161 0 7
-18.5702 12.9719 -2.6477 0.1161 0 7
-18.7761 12.6722 -2.6477 0.1161 0 7
-18.9770 12.3692 -2.6477 0.1161 0 7
-19.1731 12.0630 -2.6477 0.1161 0 7
-19.3643 11.7537 -2.6477 0.1161 0 7
-19.5504 11.4414 -2.6477 0.1161 0 6
-19.7315 11.1262 -2.6477 0.1161 0 7
-19.9076 10.8080 -2.6477 0.1161 0 7
-20.0785 10.4871 -2.6477 0.1161 0 7
-20.2442 10.1635 -2.6477 0.1161 0 7
-20.4048 9.8372 -2.6477 0.1161 0 7
-20.5600 9.5085 -2.6477 0.1161 0 7
-20.7100 9.1772 -2.6477 0.1161 0 7
-19.6542 8.3346 -2.4953 0.1161 0 8
-19.7855 8.0181 -2.4953 0.1161 0 8
-19.9116 7.6995 -2.4953 0.1161 0 8
-20.0326 7.3789 -2.4953 0.1161 0 8
-20.1485 7.0564 -2.4953 0.1161 0 8
-20.2591 6.7321 -2.4953 0.1161 0 8
-20.3646 6.4061 -2.4953 0.1161 0 8
-20.4648 6.0784 -2.4953 0.1161 0 8
-20.5597 5.7491 -2.4953 0.1161 0 8
-20.6493 5.4184 -2.4953 0.1161 0 8
-20.7336 5.0863 -2.4953 0.1161 0 8
-20.8126 4.7528 -2.4953 0.1161 0 8
-20.8862 4.4182 -2.4953 0.1161 0 8
-1.5611 19.9115 -2.5029 0.1243 0 14
-1.8805 19.8839 -2.5029 0.1243 0 14
-2.1994 19.8511 -2.5029 0.1243 0 14
-2.5177 19.8133 -2.5029 0.1243 0 14
-2.8354 19.7703 -2.5029 0.1243 0 14
-3.1523 19.7223 -2.5029 0.1243 0 14
-3.4685 19.6691 -2.5029 0.1243 0 14
-3.7837 19.6109 -2.5029 0.1243 0 14
-4.0980 19.5477 -2.5029 0.1243 0 14
-4.4113 19.4794 -2.5029 0.1243 0 14
-4.7233 19.4061 -2.5029 0.1243 0 14
-5.0342 19.3277 -2.5029 0.1243 0 14
-5.3438 19.2444 -2.5029 0.1243 0 14
-5.6520 19.1562 -2.5029 0.1243 0 14
-5.9587 19.0630 -2.5029 0.1243 0 8
-6.2639 18.9649 -2.5029 0.1243 0 8
-6.5949 18.9406 -2.5133 0.9449 0 8
-6.9364 18.9370 -2.5273 0.9397 0 8
-7.2818 18.9333 -2.5421 0.9342 0 8
-7.6313 18.9295 -2.5577 0.9285 0 8
-7.9851 18.9254 -2.5741 0.9226 0 8
-8.3436 18.9212 -2.5914 0.9164 0 8
-8.7070 18.9168 -2.6096 0.9100 0 8
-9.0755 18.9123 -2.6288 0.9034 0 8
-9.4453 18.8991 -2.6477 0.1243 0 7
-9.7474 18.7450 -2.6477 0.1243 0 7
-10.0471 18.5862 -2.6477 0.1243 0 7
-10.3440 18.4225 -2.6477 0.1243 0 6
-10.6384 18.2541 -2.6477 0.1243 0 7
-10.9301 18.0810 -2.6477 0.1243 0 7
-11.2188 17.9033 -2.6477 0.1243 0 7
-11.5048 17.7209 -2.6477 0.1243 0 7
-11.7877 17.5339 -2.6477 0.1243 0 7
-12.0676 17.3425 -2.6477 0.1243 0 7
-12.3444 17.1466 -2.6477 0.1243 0 7
-12.6180 16.9462 -2.6477 0.1243 0 7
-12.8884 16.7415 -2.6477 0.1243 0 7
-13.1554 16.5325 -2.6477 0.1243 0 7
-13.4191 16.3192 -2.6477 0.1243 0 7
-13.6793 16.1017 -2.6477 0.1243 0 7
-13.9360 15.8801 -2.6477 0.1243 0 7
-14.1891 15.6544 -2.6477 0.1243 0 7
-14.4385 15.4246 -2.6477 0.1243 0 7
-14.6842 15.1909 -2.6477 0.1243 0 7
-14.9261 14.9532 -2.6477 0.1243 0 6
-15.1642 14.7117 -2.6477 0.1243 0 7
-15.3984 14.4664 -2.6477 0.1243 0 7
-15.6286 14.2174 -2.6477 0.1243 0 7
-15.8548 13.9647 -2.6477 0.1243 0 7
-16.0769 13.7085 -2.6477 0.1243 0 7
-16.2949 13.4487 -2.6477 0.1243 0 7
-16.5086 13.1854 -2.6477 0.1243 0 7
-16.7181 12.9187 -2.6477 0.1243 0 7
-16.9233 12.6487 -2.6477 0.1243 0 7
-17.1242 12.3755 -2.6477 0.1243 0 7
-17.3206 12.0990 -2.6477 0.1243 0 7
-17.5125 11.8195 -2.6477 0.1243 0 7
-17.7000 11.5368 -2.6477 0.1243 0 7
-17.8829 11.2513 -2.6477 0.1243 0 7
-18.0612 10.9628 -2.6477 0.1243 0 7
-18.2348 10.6715 -2.6477 0.1243 0 7
-18.4037 10.3774 -2.6477 0.1243 0 7
-18.5679 10.0807 -2.6477 0.1243 0 7
-18.7273 9.7814 -2.6477 0.1243 0 7
-18.8819 9.4795 -2.6477 0.1243 0 7
-19.0317 9.1752 -2.6477 0.1243 0 7
-18.0727 8.3581 -2.4953 0.1243 0 8
-18.2045 8.0670 -2.4953 0.1243 0 8
-18.3316 7.7737 -2.4953 0.1243 0 8
-18.4540 7.4785 -2.4953 0.1243 0 8
-18.5717 7.1813 -2.4953 0.1243 0 8
-18.6846 6.8823 -2.4953 0.1243 0 8
-18.7926 6.5816 -2.4953 0.1243 0 8
-18.8958 6.2791 -2.4953 0.1243 0 8
-18.9942 5.9750 -2.4953 0.1243 0 8
-19.0876 5.6694 -2.4953 0.1243 0 8
-19.1762 5.3623 -2.4953 0.1243 0 8
-19.2598 5.0538 -2.4953 0.1243 0 8
-19.3384 4.7440 -2.4953 0.1243 0 8
-19.4121 4.4330 -2.4953 0.1243 0 8
-19.4807 4.1209 -2.4953 0.1243 0 8
-1.4856 18.9493 -2.5426 0.9960 0 8
-1.7919 18.9479 -2.5459 0.9947 0 8
-2.0991 18.9463 -2.5499 0.9931 0 8
-2.4073 18.9446 -2.5545 0.9913 0 8
-2.7167 18.9427 -2.5598 0.9893 0 8
-3.0274 18.9407 -2.5658 0.9870 0 8
-3.3397 18.9386 -2.5725 0.9844 0 8
-3.6536 18.9364 -2.5798 0.9816 0 8
-3.9694 18.9341 -2.5878 0.9786 0 8
-4.2872 18.9316 -2.5965 0.9753 0 8
-4.6072 18.9289 -2.6060 0.9717 0 8
-4.9296 18.9261 -2.6162 0.9680 0 8
-5.2546 18.9232 -2.6271 0.9639 0 8
-5.5823 18.9201 -2.6387 0.9597 0 8
-5.9052 18.8918 -2.6477 0.1326 0 7
-6.2076 18.7945 -2.6477 0.1326 0 7
-6.5085 18.6925 -2.6477 0.1326 0 7
-6.8077 18.5856 -2.6477 0.1326 0 7
-7.1051 18.4740 -2.6477 0.1326 0 6
-7.4007 18.3575 -2.6477 0.1326 0 6
-7.6944 18.2364 -2.6477 0.1326 0 7
-7.9861 18.1106 -2.6477 0.1326 0 7
-8.2758 17.9800 -2.6477 0.1326 0 7
-8.5633 17.8449 -2.6477 0.1326 0 7
-8.8486 17.7051 -2.6477 0.1326 0 7
-9.1316 17.5608 -2.6477 0.1326 0 7
-9.4123 17.4120 -2.6477 0.1326 0 7
-9.6906 17.2587 -2.6477 0.1326 0 7
-9.9664 17.1009 -2.6477 0.1326 0 7
-10.2396 16.9387 -2.6477 0.1326 0 7
-10.5101 16.7722 -2.6477 0.1326 0 7
-10.7780 16.6014 -2.6477 0.1326 0 7
-11.0430 16.4262 -2.6477 0.1326 0 7
-11.3053 16.2469 -2.6477 0.1326 0 7
-11.5646 16.0633 -2.6477 0.1326 0 7
-11.8209 15.8756 -2.6477 0.1326 0 7
-12.0742 15.6839 -2.6477 0.1326 0 7
-12.3244 15.4881 -2.6477 0.1326 0 7
-12.5714 15.2883 -2.6477 0.1326 0 7
-12.8151 15.0845 -2.6477 0.1326 0 7
-13.0556 14.8769 -2.6477 0.1326 0 7
-13.2927 14.6654 -2.6477 0.1326 0 7
-13.5264 14.4502 -2.6477 0.1326 0 7
-13.7566 14.2312 -2.6477 0.1326 0 7
-13.9832 14.0086 -2.6477 0.1326 0 7
-14.2062 13.7823 -2.6477 0.1326 0 7
-14.4256 13.5525 -2.6477 0.1326 0 7
-14.6413 13.3192 -2.6477 0.1326 0 7
-14.8532 13.0825 -2.6477 0.1326 0 7
-15.0613 12.8424 -2.6477 0.1326 0 7
-15.2655 12.5991 -2.6477 0.1326 0 7
-15.4657 12.3524 -2.6477 0.1326 0 7
-15.6620 12.1026 -2.6477 0.1326 0 7
-15.8542 11.8496 -2.6477 0.1326 0 7
-16.0424 11.5937 -2.6477 0.1326 0 7
-16.2264 11.3347 -2.6477 0.1326 0 6
-16.4062 11.0728 -2.6477 0.1326 0 7
-16.5818 10.8080 -2.6477 0.1326 0 7
-16.7531 10.5405 -2.6477 0.1326 0 7
-16.9202 10.2702 -2.6477 0.1326 0 7
-17.0828 9.9973 -2.6477 0.1326 0 7
-17.2411 9.7218 -2.6477 0.1326 0 7
-17.3949 9.4439 -2.6477 0.1326 0 7
-17.5443 9.1635 -2.6477 0.1326 0 7
-16.6709 8.3695 -2.4953 0.1326 0 8
-16.8031 8.1008 -2.4953 0.1326 0 8
-16.9309 7.8301 -2.4953 0.1326 0 8
-17.0544 7.5573 -2.4953 0.1326 0 8
-17.1735 7.2826 -2.4953 0.1326 0 8
-17.2882 7.0061 -2.4953 0.1326 0 8
-17.3984 6.7277 -2.4953 0.1326 0 8
-17.5042 6.4476 -2.4953 0.1326 0 8
-17.6054 6.1658 -2.4953 0.1326 0 8
-17.7021 5.8824 -2.4953 0.1326 0 8
-17.7943 5.5975 -2.4953 0.1326 0 8
-17.8818 5.3112 -2.4953 0.1326 0 8
-17.9647 5.0235 -2.4953 0.1326 0 8
-18.0431 4.7345 -2.4953 0.1326 0 8
-18.1167 4.4443 -2.4953 0.1326 0 8
-18.1857 4.1530 -2.4953 0.1326 0 8
-18.2500 3.8605 -2.4953 0.1326 0 8
-1.4549 18.5576 -2.6477 0.1408 0 7
-1.7526 18.5319 -2.6477 0.1408 0 7
-2.0498 18.5014 -2.6477 0.1408 0 7
-2.3465 18.4661 -2.6477 0.1408 0 6
-2.6426 18.4260 -2.6477 0.1408 0 6
-2.9379 18.3813 -2.6477 0.1408 0 6
-3.2327 18.3317 -2.6477 0.1408 0 7
-3.5265 18.2775 -2.6477 0.1408 0 7
-3.8194 18.2185 -2.6477 0.1408 0 7
-4.1113 18.1549 -2.6477 0.1408 0 7
-4.4022 18.0866 -2.6477 0.1408 0 7
-4.6919 18.0136 -2.6477 0.1408 0 7
-4.9804 17.9359 -2.6477 0.1408 0 7
-5.2677 17.8537 -2.6477 0.1408 0 7
-5.5535 17.7668 -2.6477 0.1408 0 7
-5.8380 17.6754 -2.6477 0.1408 0 7
-6.1209 17.5794 -2.6477 0.1408 0 7
-6.4023 17.4789 -2.6477 0.1408 0 7
-6.6820 17.3739 -2.6477 0.1408 0 7
-6.9600 17.2644 -2.6477 0.1408 0 7
-7.2362 17.1505 -2.6477 0.1408 0 7
-7.5106 17.0321 -2.6477 0.1408 0 7
-7.7830 16.9094 -2.6477 0.1408 0 7
-8.0534 16.7823 -2.6477 0.1408 0 7
-8.3217 16.6509 -2.6477 0.1408 0 7
-8.5879 16.5152 -2.6477 0.1408 0 7
-8.8519 16.3752 -2.6477 0.1408 0 7
-9.1135 16.2310 -2.6477 0.1408 0 7
-9.3729 16.0826 -2.6477 0.1408 0 7
-9.6298 15.9301 -2.6477 0.1408 0 7
-9.8843 15.7735 -2.6477 0.1408 0 7
-10.1362 15.6128 -2.6477 0.1408 0 7
-10.3855 15.4481 -2.6477 0.1408 0 7
-10.6321 15.2795 -2.6477 0.1408 0 7
-10.8759 15.1068 -2.6477 0.1408 0 7
-11.1170 14.9303 -2.6477 0.1408 0 7
-11.3552 14.7500 -2.6477 0.1408 0 7
-11.5905 14.5658 -2.6477 0.1408 0 7
-11.8228 14.3779 -2.6477 0.1408 0 7
-12.0520 14.1863 -2.6477 0.1408 0 7
-12.2782 13.9910 -2.6477 0.1408 0 7
-12.5012 13.7921 -2.6477 0.1408 0 7
-12.7209 13.5897 -2.6477 0.1408 0 7
-12.9374 13.3838 -2.6477 0.1408 0 7
-13.1506 13.1744 -2.6477 0.1408 0 7
-13.3603 12.9616 -2.6477 0.1408 0 7
-13.5666 12.7455 -2.6477 0.1408 0 7
-13.7695 12.5261 -2.6477 0.1408 0 7
-13.9687 12.3035 -2.6477 0.1408 0 7
-14.1644 12.0777 -2.6477 0.1408 0 7
-14.3565 11.8488 -2.6477 0.1408 0 7
-14.5448 11.6169 -2.6477 0.1408 0 7
-14.7294 11.3819 -2.6477 0.1408 0 6
-14.9102 11.1441 -2.6477 0.1408 0 7
-15.0871 10.9033 -2.6477 0.1408 0 7
-15.2602 10.6597 -2.6477 0.1408 0 7
-15.4293 10.4134 -2.6477 0.1408 0 7
-15.5944 10.1644 -2.6477 0.1408 0 7
-15.7556 9.9128 -2.6477 0.1408 0 7
-15.9127 9.6587 -2.6477 0.1408 0 7
-16.0656 9.4020 -2.6477 0.1408 0 7
-16.2145 9.1430 -2.6477 0.1408 0 7
-15.4175 8.3703 -2.4953 0.1408 0 8
-15.5499 8.1218 -2.4953 0.1408 0 8
-15.6782 7.8711 -2.4953 0.1408 0 8
-15.8025 7.6185 -2.4953 0.1408 0 8
-15.9228 7.3639 -2.4953 0.1408 0 8
-16.0389 7.1073 -2.4953 0.1408 0 8
-16.1509 6.8490 -2.4953 0.1408 0 8
-16.2588 6.5889 -2.4953 0.1408 0 8
-16.3624 6.3271 -2.4953 0.1408 0 8
-16.4619 6.0636 -2.4953 0.1408 0 8
-16.5571 5.7986 -2.4953 0.1408 0 8
-16.6480 5.5321 -2.4953 0.1408 0 8
-16.7347 5.2642 -2.4953 0.1408 0 8
-16.8170 4.9949 -2.4953 0.1408 0 8
-16.8950 4.7244 -2.4953 0.1408 0 8
-16.9687 4.4526 -2.4953 0.1408 0 8
-17.0380 4.1797 -2.4953 0.1408 0 8
-17.1028 3.9057 -2.4953 0.1408 0 8
-17.1633 3.6306 -2.4953 0.1408 0 8
-1.3730 17.5124 -2.6477 0.1490 0 7
-1.6539 17.4881 -2.6477 0.1490 0 7
-1.9344 17.4593 -2.6477 0.1490 0 7
-2.2143 17.4260 -2.6477 0.1490 0 7
-2.4938 17.3882 -2.6477 0.1490 0 7
-2.7725 17.3460 -2.6477 0.1490 0 7
-3.0506 17.2992 -2.6477 0.1490 0 7
-3.3279 17.2480 -2.6477 0.1490 0 7
-3.6043 17.1924 -2.6477 0.1490 0 7
-3.8797 17.1323 -2.6477 0.1490 0 7
-4.1542 17.0679 -2.6477 0.1490 0 7
-4.4276 16.9990 -2.6477 0.1490 0 7
-4.6999 16.9257 -2.6477 0.1490 0 7
-4.9710 16.8481 -2.6477 0.1490 0 7
-5.2407 16.7662 -2.6477 0.1490 0 7
-5.5092 16.6799 -2.6477 0.1490 0 7
-5.7762 16.5893 -2.6477 0.1490 0 7
-6.0417 16.4945 -2.6477 0.1490 0 7
-6.3057 16.3954 -2.6477 0.1490 0 7
-6.5680 16.2920 -2.6477 0.1490 0 7
-6.8287 16.1845 -2.6477 0.1490 0 7
-7.0876 16.0728 -2.6477 0.1490 0 7
-7.3446 15.9570 -2.6477 0.1490 0 7
-7.5998 15.8371 -2.6477 0.1490 0 7
-7.8530 15.7130 -2.6477 0.1490 0 7
-8.1042 15.5850 -2.6477 0.1490 0 7
-8.3533 15.4529 -2.6477 0.1490 0 7
-8.6002 15.3168 -2.6477 0.1490 0 7
-8.8450 15.1768 -2.6477 0.1490 0 7
-9.0874 15.0329 -2.6477 0.1490 0 7
-9.3276 14.8851 -2.6477 0.1490 0 7
-9.5653 14.7335 -2.6477 0.1490 0 7
-9.8005 14.5780 -2.6477 0.1490 0 7
-10.0332 14.4189 -2.6477 0.1490 0 7
-10.2634 14.2560 -2.6477 0.1490 0 7
-10.4909 14.0894 -2.6477 0.1490 0 7
-10.7157 13.9192 -2.6477 0.1490 0 7
-10.9377 13.7454 -2.6477 0.1490 0 7
-11.1569 13.5681 -2.6477 0.1490 0 7
-11.3732 13.3873 -2.6477 0.1490 0 7
-11.5866 13.2030 -2.6477 0.1490 0 7
-11.7971 13.0153 -2.6477 0.1490 0 7
-12.0044 12.8243 -2.6477 0.1490 0 7
-12.2087 12.6300 -2.6477 0.1490 0 7
-12.4099 12.4324 -2.6477 0.1490 0 7
-12.6078 12.2316 -2.6477 0.1490 0 7
-12.8025 12.0277 -2.6477 0.1490 0 7
-12.9939 11.8206 -2.6477 0.1490 0 7
-13.1820 11.6105 -2.6477 0.1490 0 7
-13.3667 11.3975 -2.6477 0.1490 0 6
-13.5479 11.1815 -2.6477 0.1490 0 7
-13.7256 10.9626 -2.6477 0.1490 0 7
-13.8998 10.7409 -2.6477 0.1490 0 7
-14.0704 10.5164 -2.6477 0.1490 0 7
-14.2373 10.2892 -2.6477 0.1490 0 7
-14.4007 10.0593 -2.6477 0.1490 0 7
-14.5603 9.8269 -2.6477 0.1490 0 7
-14.7161 9.5919 -2.6477 0.1490 0 7
-14.8682 9.3545 -2.6477 0.1490 0 7
-15.0164 9.1147 -2.6477 0.1490 0 7
-14.2881 8.3618 -2.4953 0.1490 0 8
-14.4205 8.1314 -2.4953 0.1490 0 8
-14.5491 7.8989 -2.4953 0.1490 0 8
-14.6740 7.6643 -2.4953 0.1490 0 8
-14.7952 7.4278 -2.4953 0.1490 0 8
-14.9125 7.1894 -2.4953 0.1490 0 8
-15.0260 6.9491 -2.4953 0.1490 0 8
-15.1356 6.7070 -2.4953 0.1490 0 8
-15.2413 6.4632 -2.4953 0.1490 0 8
-15.3430 6.2178 -2.4953 0.1490 0 8
-15.4408 5.9707 -2.4953 0.1490 0 8
-15.5347 5.7221 -2.4953 0.1490 0 8
-15.6245 5.4720 -2.4953 0.1490 0 8
-15.7104 5.2205 -2.4953 0.1490 0 8
-15.7921 4.9677 -2.4953 0.1490 0 8
-15.8698 4.7136 -2.4953 0.1490 0 8
-15.9434 4.4583 -2.4953 0.1490 0 8
-16.0129 4.2018 -2.4953 0.1490 0 8
-16.0783 3.9443 -2.4953 0.1490 0 8
-16.1395 3.6857 -2.4953 0.1490 0 8
-16.1966 3.4262 -2.4953 0.1490 0 8
-1.2996 16.5764 -2.6477 0.1573 0 7
-1.5655 16.5534 -2.6477 0.1573 0 7
-1.8310 16.5262 -2.6477 0.1573 0 7
-2.0960 16.4947 -2.6477 0.1573 0 7
-2.3605 16.4589 -2.6477 0.1573 0 7
-2.6243 16.4189 -2.6477 0.1573 0 7
-2.8875 16.3746 -2.6477 0.1573 0 7
-3.1500 16.3262 -2.6477 0.1573 0 7
-3.4116 16.2735 -2.6477 0.1573 0 7
-3.6724 16.2167 -2.6477 0.1573 0 7
-3.9322 16.1556 -2.6477 0.1573 0 7
-4.1910 16.0904 -2.6477 0.1573 0 7
-4.4487 16.0211 -2.6477 0.1573 0 7
-4.7053 15.9476 -2.6477 0.1573 0 7
-4.9606 15.8701 -2.6477 0.1573 0 7
-5.2147 15.7884 -2.6477 0.1573 0 7
-5.4675 15.7027 -2.6477 0.1573 0 7
-5.7188 15.6129 -2.6477 0.1573 0 7
-5.9687 15.5191 -2.6477 0.1573 0 7
-6.2170 15.4213 -2.6477 0.1573 0 7
-6.4637 15.3195 -2.6477 0.1573 0 7
-6.7087 15.2138 -2.6477 0.1573 0 7
-6.9521 15.1042 -2.6477 0.1573 0 7
-7.1936 14.9906 -2.6477 0.1573 0 7
-7.4333 14.8732 -2.6477 0.1573 0 6
-7.6710 14.7520 -2.6477 0.1573 0 7
-7.9068 14.6270 -2.6477 0.1573 0 7
-8.1406 14.4982 -2.6477 0.1573 0 7
-8.3722 14.3657 -2.6477 0.1573 0 7
-8.6018 14.2294 -2.6477 0.1573 0 7
-8.8290 14.0895 -2.6477 0.1573 0 7
-9.0540 13.9460 -2.6477 0.1573 0 7
-9.2767 13.7989 -2.6477 0.1573 0 7
-9.4970 13.6482 -2.6477 0.1573 0 7
-9.7148 13.4940 -2.6477 0.1573 0 7
-9.9302 13.3364 -2.6477 0.1573 0 7
-10.1429 13.1753 -2.6477 0.1573 0 7
-10.3531 13.0108 -2.6477 0.1573 0 7
-10.5606 12.8429 -2.6477 0.1573 0 7
-10.7654 12.6718 -2.6477 0.1573 0 7
-10.9674 12.4973 -2.6477 0.1573 0 7
-11.1666 12.3197 -2.6477 0.1573 0 7
-11.3628 12.1389 -2.6477 0.1573 0 7
-11.5562 11.9549 -2.6477 0.1573 0 7
-11.7466 11.7679 -2.6477 0.1573 0 7
-11.9340 11.5779 -2.6477 0.1573 0 7
-12.1183 11.3848 -2.6477 0.1573 0 6
-12.2994 11.1889 -2.6477 0.1573 0 7
-12.4774 10.9900 -2.6477 0.1573 0 7
-12.6522 10.7883 -2.6477 0.1573 0 7
-12.8238 10.5838 -2.6477 0.1573 0 7
-12.9920 10.3767 -2.6477 0.1573 0 7
-13.1569 10.1668 -2.6477 0.1573 0 7
-13.3183 9.9543 -2.6477 0.1573 0 7
-13.4764 9.7393 -2.6477 0.1573 0 7
-13.6310 9.5217 -2.6477 0.1573 0 7
-13.7821 9.3017 -2.6477 0.1573 0 7
-13.9296 9.0793 -2.6477 0.1573 0 7
-13.2634 8.3449 -2.4953 0.1573 0 8
-13.3957 8.1309 -2.4953 0.1573 0 8
-13.5245 7.9149 -2.4953 0.1573 0 8
-13.6497 7.6968 -2.4953 0.1573 0 8
-13.7715 7.4767 -2.4953 0.1573 0 8
-13.8898 7.2547 -2.4953 0.1573 0 8
-14.0044 7.0308 -2.4953 0.1573 0 8
-14.1155 6.8051 -2.4953 0.1573 0 8
-14.2229 6.5777 -2.4953 0.1573 0 8
-14.3266 6.3486 -2.4953 0.1573 0 8
-14.4267 6.1178 -2.4953 0.1573 0 8
-14.5230 5.8854 -2.4953 0.1573 0 8
-14.6156 5.6516 -2.4953 0.1573 0 8
-14.7044 5.4163 -2.4953 0.1573 0 8
-14.7895 5.1796 -2.4953 0.1573 0 8
-14.8707 4.9415 -2.4953 0.1573 0 8
-14.9481 4.7022 -2.4953 0.1573 0 8
-15.0216 4.4617 -2.4953 0.1573 0 8
-15.0913 4.2200 -2.4953 0.1573 0 8
-15.1571 3.9772 -2.4953 0.1573 0 8
-15.2190 3.7334 -2.4953 0.1573 0 8
-15.2769 3.4887 -2.4953 0.1573 0 8
-15.3310 3.2430 -2.4953 0.1573 0 8
-1.2335 15.7333 -2.6477 0.1655 0 7
-1.4859 15.7115 -2.6477 0.1655 0 7
-1.7379 15.6856 -2.6477 0.1655 0 7
-1.9894 15.6557 -2.6477 0.1655 0 7
-2.2404 15.6217 -2.6477 0.1655 0 7
-2.4909 15.5838 -2.6477 0.1655 0 7
-2.7407 15.5418 -2.6477 0.1655 0 7
-2.9898 15.4958 -2.6477 0.1655 0 7
-3.2381 15.4458 -2.6477 0.1655 0 7
-3.4856 15.3918 -2.6477 0.1655 0 7
-3.7322 15.3339 -2.6477 0.1655 0 7
-3.9778 15.2720 -2.6477 0.1655 0 7
-4.2224 15.2062 -2.6477 0.1655 0 7
-4.4660 15.1365 -2.6477 0.1655 0 7
-4.7083 15.0629 -2.6477 0.1655 0 7
-4.9495 14.9853 -2.6477 0.1655 0 7
-5.1894 14.9040 -2.6477 0.1655 0 7
-5.4279 14.8188 -2.6477 0.1655 0 7
-5.6651 14.7297 -2.6477 0.1655 0 7
-5.9008 14.6369 -2.6477 0.1655 0 7
-6.1349 14.5403 -2.6477 0.1655 0 7
-6.3675 14.4400 -2.6477 0.1655 0 7
-6.5985 14.3359 -2.6477 0.1655 0 7
-6.8277 14.2282 -2.6477 0.1655 0 7
-7.0552 14.1167 -2.6477 0.1655 0 7
-7.2809 14.0017 -2.6477 0.1655 0 7
-7.5047 13.8830 -2.6477 0.1655 0 7
-7.7265 13.7608 -2.6477 0.1655 0 7
-7.9464 13.6350 -2.6477 0.1655 0 7
-8.1642 13.5057 -2.6477 0.1655 0 7
-8.3800 13.3729 -2.6477 0.1655 0 7
-8.5935 13.2367 -2.6477 0.1655 0 7
-8.8049 13.0970 -2.6477 0.1655 0 7
-9.0139 12.9540 -2.6477 0.1655 0 7
-9.2207 12.8077 -2.6477 0.1655 0 7
-9.4251 12.6580 -2.6477 0.1655 0 7
-9.6270 12.5051 -2.6477 0.1655 0 7
-9.8265 12.3490 -2.6477 0.1655 0 7
-10.0235 12.1897 -2.6477 0.1655 0 7
-10.2178 12.0272 -2.6477 0.1655 0 7
-10.4095 11.8617 -2.6477 0.1655 0 7
-10.5986 11.6931 -2.6477 0.1655 0 7
-10.7849 11.5215 -2.6477 0.1655 0 7
-10.9684 11.3469 -2.6477 0.1655 0 6
-11.1491 11.1694 -2.6477 0.1655 0 7
-11.3270 10.9890 -2.6477 0.1655 0 7
-11.5019 10.8058 -2.6477 0.1655 0 7
-11.6738 10.6197 -2.6477 0.1655 0 7
-11.8428 10.4310 -2.6477 0.1655 0 7
-12.0087 10.2396 -2.6477 0.1655 0 7
-12.1715 10.0455 -2.6477 0.1655 0 7
-12.3312 9.8489 -2.6477 0.1655 0 7
-12.4877 9.6497 -2.6477 0.1655 0 7
-12.6409 9.4480 -2.6477 0.1655 0 7
-12.7910 9.2439 -2.6477 0.1655 0 7
-12.9377 9.0374 -2.6477 0.1655 0 7
-12.3281 8.3204 -2.4953 0.1655 0 8
-12.4601 8.1215 -2.4953 0.1655 0 8
-12.5888 7.9204 -2.4953 0.1655 0 8
-12.7143 7.7174 -2.4953 0.1655 0 8
-12.8366 7.5123 -2.4953 0.1655 0 8
-12.9555 7.3053 -2.4953 0.1655 0 8
-13.0711 7.0964 -2.4953 0.1655 0 8
-13.1833 6.8857 -2.4953 0.1655 0 8
-13.2921 6.6732 -2.4953 0.1655 0 8
-13.3975 6.4590 -2.4953 0.1655 0 8
-13.4994 6.2431 -2.4953 0.1655 0 8
-13.5979 6.0256 -2.4953 0.1655 0 8
-13.6929 5.8066 -2.4953 0.1655 0 8
-13.7843 5.5861 -2.4953 0.1655 0 8
-13.8722 5.3641 -2.4953 0.1655 0 8
-13.9565 5.1408 -2.4953 0.1655 0 8
-14.0372 4.9161 -2.4953 0.1655 0 8
-14.1143 4.6902 -2.4953 0.1655 0 8
-14.1878 4.4630 -2.4953 0.1655 0 8
-14.2576 4.2347 -2.4953 0.1655 0 8
-14.3237 4.0054 -2.4953 0.1655 0 8
-14.3862 3.7749 -2.4953 0.1655 0 8
-14.4449 3.5435 -2.4953 0.1655 0 8
-14.4999 3.3112 -2.4953 0.1655 0 8
-14.5512 3.0781 -2.4953 0.1655 0 8
-1.1736 14.9698 -2.6477 0.1736 0 6
-1.4138 14.9490 -2.6477 0.1736 0 6
-1.6535 14.9244 -2.6477 0.1736 0 6
-1.8928 14.8959 -2.6477 0.1736 0 7
-2.1317 14.8636 -2.6477 0.1736 0 7
-2.3700 14.8275 -2.6477 0.1736 0 7
-2.6077 14.7875 -2.6477 0.1736 0 7
-2.8447 14.7438 -2.6477 0.1736 0 7
-3.0810 14.6962 -2.6477 0.1736 0 7
-3.3164 14.6449 -2.6477 0.1736 0 7
-3.5511 14.5897 -2.6477 0.1736 0 7
-3.7848 14.5309 -2.6477 0.1736 0 7
-4.0175 14.4683 -2.6477 0.1736 0 7
-4.2492 14.4019 -2.6477 0.1736 0 7
-4.4798 14.3319 -2.6477 0.1736 0 7
-4.7093 14.2581 -2.6477 0.1736 0 7
-4.9375 14.1807 -2.6477 0.1736 0 7
-5.1645 14.0996 -2.6477 0.1736 0 7
-5.3901 14.0149 -2.6477 0.1736 0 7
-5.6144 13.9266 -2.6477 0.1736 0 7
-5.8372 13.8347 -2.6477 0.1736 0 7
-6.0585 13.7392 -2.6477 0.1736 0 7
-6.2782 13.6402 -2.6477 0.1736 0 7
-6.4964 13.5377 -2.6477 0.1736 0 7
-6.7128 13.4316 -2.6477 0.1736 0 7
-6.9275 13.3222 -2.6477 0.1736 0 7
-7.1405 13.2093 -2.6477 0.1736 0 7
-7.3516 13.0930 -2.6477 0.1736 0 7
-7.5608 12.9733 -2.6477 0.1736 0 7
-7.7680 12.8502 -2.6477 0.1736 0 7
-7.9733 12.7239 -2.6477 0.1736 0 7
-8.1765 12.5943 -2.6477 0.1736 0 7
-8.3776 12.4614 -2.6477 0.1736 0 7
-8.5765 12.3254 -2.6477 0.1736 0 7
-8.7732 12.1861 -2.6477 0.1736 0 7
-8.9677 12.0437 -2.6477 0.1736 0 7
-9.1598 11.8983 -2.6477 0.1736 0 7
-9.3496 11.7497 -2.6477 0.1736 0 7
-9.5370 11.5981 -2.6477 0.1736 0 7
-9.7219 11.4436 -2.6477 0.1736 0 6
-9.9044 11.2860 -2.6477 0.1736 0 7
-10.0842 11.1256 -2.6477 0.1736 0 7
-10.2615 10.9623 -2.6477 0.1736 0 7
-10.4361 10.7962 -2.6477 0.1736 0 7
-10.6081 10.6273 -2.6477 0.1736 0 7
-10.7773 10.4557 -2.6477 0.1736 0 7
-10.9437 10.2814 -2.6477 0.1736 0 7
-11.1073 10.1044 -2.6477 0.1736 0 7
-11.2681 9.9248 -2.6477 0.1736 0 7
-11.4259 9.7427 -2.6477 0.1736 0 7
-11.5808 9.5580 -2.6477 0.1736 0 7
-11.7327 9.3709 -2.6477 0.1736 0 7
-11.8816 9.1814 -2.6477 0.1736 0 7
-12.0275 8.9895 -2.6477 0.1736 0 7
-11.4697 8.2890 -2.4953 0.1736 0 8
-11.6013 8.1039 -2.4953 0.1736 0 8
-11.7298 7.9166 -2.4953 0.1736 0 8
-11.8554 7.7273 -2.4953 0.1736 0 8
-11.9779 7.5361 -2.4953 0.1736 0 8
-12.0973 7.3428 -2.4953 0.1736 0 8
-12.2136 7.1477 -2.4953 0.1736 0 8
-12.3267 6.9508 -2.4953 0.1736 0 8
-12.4367 6.7520 -2.4953 0.1736 0 8
-12.5435 6.5515 -2.4953 0.1736 0 8
-12.6470 6.3494 -2.4953 0.1736 0 8
-12.7473 6.1455 -2.4953 0.1736 0 8
-12.8443 5.9401 -2.4953 0.1736 0 8
-12.9380 5.7332 -2.4953 0.1736 0 8
-13.0283 5.5248 -2.4953 0.1736 0 8
-13.1154 5.3150 -2.4953 0.1736 0 8
-13.1990 5.1038 -2.4953 0.1736 0 8
-13.2792 4.8913 -2.4953 0.1736 0 8
-13.3560 4.6775 -2.4953 0.1736 0 8
-13.4293 4.4626 -2.4953 0.1736 0 8
-13.4992 4.2464 -2.4953 0.1736 0 8
-13.5657 4.0292 -2.4953 0.1736 0 8
-13.6286 3.8110 -2.4953 0.1736 0 8
-13.6880 3.5917 -2.4953 0.1736 0 8
-13.7439 3.3716 -2.4953 0.1736 0 8
-13.7962 3.1505 -2.4953 0.1736 0 8
-13.8450 2.9287 -2.4953 0.1736 0 8
-1.1192 14.2750 -2.6477 0.1818 0 7
-1.3481 14.2552 -2.6477 0.1818 0 7
-1.5768 14.2317 -2.6477 0.1818 0 7
-1.8050 14.2045 -2.6477 0.1818 0 7
-2.0327 14.1737 -2.6477 0.1818 0 7
-2.2600 14.1393 -2.6477 0.1818 0 7
-2.4866 14.1012 -2.6477 0.1818 0 7
-2.7126 14.0595 -2.6477 0.1818 0 7
-2.9380 14.0141 -2.6477 0.1818 0 7
-3.1625 13.9652 -2.6477 0.1818 0 7
-3.3863 13.9126 -2.6477 0.1818 0 7
-3.6091 13.8565 -2.6477 0.1818 0 7
-3.8311 13.7967 -2.6477 0.1818 0 7
-4.0520 13.7335 -2.6477 0.1818 0 7
-4.2719 13.6667 -2.6477 0.1818 0 7
-4.4907 13.5963 -2.6477 0.1818 0 7
-4.7084 13.5225 -2.6477 0.1818 0 7
-4.9248 13.4452 -2.6477 0.1818 0 7
-5.1400 13.3644 -2.6477 0.1818 0 7
-5.3538 13.2802 -2.6477 0.1818 0 7
-5.5663 13.1926 -2.6477 0.1818 0 7
-5.7773 13.1015 -2.6477 0.1818 0 7
-5.9869 13.0071 -2.6477 0.1818 0 7
-6.1948 12.9093 -2.6477 0.1818 0 7
-6.4013 12.8082 -2.6477 0.1818 0 7
-6.6060 12.7038 -2.6477 0.1818 0 7
-6.8091 12.5962 -2.6477 0.1818 0 7
-7.0104 12.4853 -2.6477 0.1818 0 7
-7.2098 12.3711 -2.6477 0.1818 0 7
-7.4075 12.2538 -2.6477 0.1818 0 7
-7.6032 12.1334 -2.6477 0.1818 0 7
-7.7970 12.0098 -2.6477 0.1818 0 7
-7.9887 11.8831 -2.6477 0.1818 0 7
-8.1784 11.7533 -2.6477 0.1818 0 7
-8.3660 11.6205 -2.6477 0.1818 0 7
-8.5515 11.4848 -2.6477 0.1818 0 7
-8.7347 11.3460 -2.6477 0.1818 0 7
-8.9157 11.2044 -2.6477 0.1818 0 7
-9.0944 11.0598 -2.6477 0.1818 0 7
-9.2707 10.9124 -2.6477 0.1818 0 7
-9.4447 10.7622 -2.6477 0.1818 0 7
-9.6162 10.6092 -2.6477 0.1818 0 7
-9.7852 10.4535 -2.6477 0.1818 0 7
-9.9518 10.2951 -2.6477 0.1818 0 7
-10.1157 10.1341 -2.6477 0.1818 0 7
-10.2771 9.9704 -2.6477 0.1818 0 7
-10.4358 9.8042 -2.6477 0.1818 0 7
-10.5918 9.6354 -2.6477 0.1818 0 7
-10.7451 9.4642 -2.6477 0.1818 0 7
-10.8956 9.2905 -2.6477 0.1818 0 7
-11.0433 9.1144 -2.6477 0.1818 0 7
-10.5442 8.4216 -2.4953 0.1818 0 8
-10.6780 8.2513 -2.4953 0.1818 0 8
-10.8091 8.0788 -2.4953 0.1818 0 8
-10.9373 7.9043 -2.4953 0.1818 0 8
-11.0628 7.7277 -2.4953 0.1818 0 8
-11.1854 7.5492 -2.4953 0.1818 0 8
-11.3051 7.3687 -2.4953 0.1818 0 8
-11.4219 7.1863 -2.4953 0.1818 0 8
-11.5358 7.0020 -2.4953 0.1818 0 8
-11.6467 6.8160 -2.4953 0.1818 0 8
-11.7546 6.6281 -2.4953 0.1818 0 8
-11.8595 6.4386 -2.4953 0.1818 0 8
-11.9613 6.2474 -2.4953 0.1818 0 8
-12.0600 6.0547 -2.4953 0.1818 0 8
-12.1557 5.8603 -2.4953 0.1818 0 8
-12.2482 5.6644 -2.4953 0.1818 0 8
-12.3375 5.4671 -2.4953 0.1818 0 8
-12.4237 5.2684 -2.4953 0.1818 0 8
-12.5066 5.0683 -2.4953 0.1818 0 8
-12.5864 4.8669 -2.4953 0.1818 0 8
-12.6629 4.6643 -2.4953 0.1818 0 8
-12.7361 4.4604 -2.4953 0.1818 0 8
-12.8060 4.2554 -2.4953 0.1818 0 8
-12.8727 4.0494 -2.4953 0.1818 0 8
-12.9360 3.8422 -2.4953 0.1818 0 8
-12.9960 3.6341 -2.4953 0.1818 0 8
-13.0527 3.4250 -2.4953 0.1818 0 8
-13.1060 3.2151 -2.4953 0.1818 0 8
-13.1559 3.0043 -2.4953 0.1818 0 8
-13.2024 2.7928 -2.4953 0.1818 0 8
-1.0694 13.6399 -2.6477 0.1900 0 7
-1.2882 13.6210 -2.6477 0.1900 0 7
-1.5066 13.5986 -2.6477 0.1900 0 7
-1.7247 13.5726 -2.6477 0.1900 0 7
-1.9423 13.5432 -2.6477 0.1900 0 7
