ply
format ascii 1.0
element vertex 1362
property float32 x
property float32 y
property float32 z
property float32 CosAngle
property uint32 ObjIdx
property uint32 ObjTag
end_header
-11.8489 22.0281 -2.5029 0.0996 0 14
-12.2009 21.8351 -2.5029 0.0996 0 14
-12.5498 21.6364 -2.5029 0.0996 0 14
-12.8955 21.4322 -2.5029 0.0996 0 14
-13.2379 21.2224 -2.5029 0.0996 0 14
-13.5768 21.0072 -2.5029 0.0996 0 14
-13.9122 20.7866 -2.5029 0.0996 0 14
-14.2441 20.5606 -2.5029 0.0996 0 14
-14.5722 20.3294 -2.5029 0.0996 0 14
-14.8967 20.0929 -2.5029 0.0996 0 14
-15.2172 19.8512 -2.5029 0.0996 0 14
-15.5339 19.6044 -2.5029 0.0996 0 14
-15.8466 19.3525 -2.5029 0.0996 0 14
-16.1551 19.0957 -2.5029 0.0996 0 14
-16.5287 18.9129 -2.5134 0.7566 0 8
-17.0646 18.9050 -2.5484 0.7462 0 8
-17.6156 18.8966 -2.5851 0.7356 0 8
-18.1828 18.8880 -2.6235 0.7249 0 8
-18.6541 18.7651 -2.6477 0.0996 0 7
-18.9529 18.4633 -2.6477 0.0996 0 7
-19.2468 18.1567 -2.6477 0.0996 0 7
-19.5357 17.8455 -2.6477 0.0996 0 7
-19.8197 17.5296 -2.6477 0.0996 0 7
-20.0985 17.2092 -2.6477 0.0996 0 7
-20.3721 16.8844 -2.6477 0.0996 0 7
-20.6405 16.5552 -2.6477 0.0996 0 7
-20.9036 16.2218 -2.6477 0.0996 0 7
-21.1612 15.8842 -2.6477 0.0996 0 7
-21.4135 15.5425 -2.6477 0.0996 0 7
-21.6602 15.1968 -2.6477 0.0996 0 7
-21.9013 14.8472 -2.6477 0.0996 0 6
-22.1368 14.4937 -2.6477 0.0996 0 7
-22.3666 14.1366 -2.6477 0.0996 0 7
-22.5906 13.7757 -2.6477 0.0996 0 7
-22.8088 13.4114 -2.6477 0.0996 0 7
-23.0211 13.0435 -2.6477 0.0996 0 7
-23.2275 12.6724 -2.6477 0.0996 0 7
-23.4279 12.2979 -2.6477 0.0996 0 7
-23.6223 11.9203 -2.6477 0.0996 0 7
-23.8106 11.5396 -2.6477 0.0996 0 7
-23.9927 11.1559 -2.6477 0.0996 0 7
-24.1687 10.7694 -2.6477 0.0996 0 7
-24.3384 10.3801 -2.6477 0.0996 0 7
-24.5019 9.9881 -2.6477 0.0996 0 7
-24.6591 9.5935 -2.6477 0.0996 0 7
-24.8099 9.1965 -2.6477 0.0996 0 7
0.4916 24.4050 -2.6477 0.1078 0 7
0.0998 24.4098 -2.6477 0.1078 0 7
-0.2920 24.4083 -2.6477 0.1078 0 7
-0.6837 24.4004 -2.6477 0.1078 0 7
-1.0753 24.3863 -2.6477 0.1078 0 7
-1.4666 24.3659 -2.6477 0.1078 0 7
-1.8575 24.3392 -2.6477 0.1078 0 7
-2.2479 24.3063 -2.6477 0.1078 0 7
-2.6378 24.2671 -2.6477 0.1078 0 7
-3.0269 24.2216 -2.6477 0.1078 0 7
-3.4153 24.1699 -2.6477 0.1078 0 7
-3.8028 24.1120 -2.6477 0.1078 0 7
-4.1893 24.0478 -2.6477 0.1078 0 7
-4.5748 23.9775 -2.6477 0.1078 0 7
-4.9591 23.9010 -2.6477 0.1078 0 7
-5.3420 23.8183 -2.6477 0.1078 0 7
-5.7237 23.7295 -2.6477 0.1078 0 7
-5.7700 22.3422 -2.5029 0.1078 0 8
-6.1279 22.2468 -2.5029 0.7545 0 8
-6.4842 22.1454 -2.5029 0.1078 0 14
-6.8388 22.0385 -2.5029 0.1078 0 14
-7.1916 21.9259 -2.5029 0.1078 0 14
-7.5426 21.8077 -2.5029 0.1078 0 14
-7.8917 21.6838 -2.5029 0.1078 0 14
-8.2387 21.5543 -2.5029 0.1078 0 14
-8.5836 21.4193 -2.5029 0.1078 0 14
-8.9263 21.2788 -2.5029 0.1078 0 14
-9.2667 21.1328 -2.5029 0.1078 0 14
-9.6047 20.9813 -2.5029 0.1078 0 14
-9.9402 20.8244 -2.5029 0.1078 0 14
-10.2732 20.6622 -2.5029 0.1078 0 14
-10.6035 20.4947 -2.5029 0.1078 0 14
-10.9311 20.3218 -2.5029 0.1078 0 14
-11.2559 20.1438 -2.5029 0.1078 0 14
-11.5777 19.9605 -2.5029 0.1078 0 14
-11.8966 19.7721 -2.5029 0.1078 0 14
-12.2125 19.5786 -2.5029 0.1078 0 14
-12.5251 19.3800 -2.5029 0.1078 0 14
-12.8346 19.1765 -2.5029 0.1078 0 14
-13.1407 18.9680 -2.5029 0.1078 0 8
-13.5613 18.9191 -2.5248 0.8157 0 8
-14.0215 18.9124 -2.5537 0.8065 0 8
-14.4924 18.9056 -2.5838 0.7971 0 8
-14.9745 18.8984 -2.6153 0.7875 0 8
-15.4648 18.8862 -2.6477 0.1078 0 7
-15.7659 18.6356 -2.6477 0.1078 0 7
-16.0630 18.3801 -2.6477 0.1078 0 6
-16.3559 18.1199 -2.6477 0.1078 0 7
-16.6447 17.8551 -2.6477 0.1078 0 7
-16.9291 17.5856 -2.6477 0.1078 0 7
-17.2092 17.3116 -2.6477 0.1078 0 7
-17.4848 17.0332 -2.6477 0.1078 0 7
-17.7560 16.7503 -2.6477 0.1078 0 7
-18.0225 16.4632 -2.6477 0.1078 0 7
-18.2845 16.1718 -2.6477 0.1078 0 7
-18.5417 15.8762 -2.6477 0.1078 0 7
-18.7941 15.5766 -2.6477 0.1078 0 7
-19.0417 15.2729 -2.6477 0.1078 0 7
-19.2844 14.9653 -2.6477 0.1078 0 7
-19.5221 14.6538 -2.6477 0.1078 0 7
-19.7548 14.3386 -2.6477 0.1078 0 7
-19.9824 14.0197 -2.6477 0.1078 0 7
-20.2049 13.6971 -2.6477 0.1078 0 7
-20.4221 13.3711 -2.6477 0.1078 0 7
-20.6341 13.0416 -2.6477 0.1078 0 7
-20.8408 12.7087 -2.6477 0.1078 0 7
-21.0421 12.3725 -2.6477 0.1078 0 7
-21.2379 12.0332 -2.6477 0.1078 0 7
-21.4283 11.6908 -2.6477 0.1078 0 7
-21.6132 11.3453 -2.6477 0.1078 0 6
-21.7925 10.9970 -2.6477 0.1078 0 7
-21.9662 10.6458 -2.6477 0.1078 0 7
-22.1343 10.2918 -2.6477 0.1078 0 7
-22.2966 9.9352 -2.6477 0.1078 0 7
-22.4532 9.5760 -2.6477 0.1078 0 7
-22.6040 9.2144 -2.6477 0.1078 0 7
-21.4396 8.3410 -2.4953 0.1078 0 8
-21.5707 7.9958 -2.4953 0.1078 0 8
0.4312 21.4093 -2.5029 0.1161 0 14
0.0875 21.4134 -2.5029 0.1161 0 14
-0.2562 21.4121 -2.5029 0.1161 0 14
-0.5998 21.4052 -2.5029 0.1161 0 14
-0.9433 21.3928 -2.5029 0.1161 0 14
-1.2866 21.3749 -2.5029 0.1161 0 14
-1.6295 21.3515 -2.5029 0.1161 0 14
-1.9720 21.3226 -2.5029 0.1161 0 14
-2.3140 21.2882 -2.5029 0.1161 0 14
-2.6554 21.2483 -2.5029 0.1161 0 14
-2.9961 21.2030 -2.5029 0.1161 0 14
-3.3360 21.1521 -2.5029 0.1161 0 14
-3.6751 21.0959 -2.5029 0.1161 0 14
-4.0132 21.0342 -2.5029 0.1161 0 14
-4.3503 20.9670 -2.5029 0.1161 0 14
-4.6863 20.8945 -2.5029 0.1161 0 14
-5.0211 20.8166 -2.5029 0.1161 0 14
-5.3545 20.7333 -2.5029 0.1161 0 14
-5.6866 20.6447 -2.5029 0.1161 0 14
-6.0173 20.5508 -2.5029 0.1161 0 14
-6.3463 20.4516 -2.5029 0.1161 0 14
-6.6738 20.3471 -2.5029 0.1161 0 14
-6.9995 20.2373 -2.5029 0.1161 0 14
-7.3234 20.1224 -2.5029 0.1161 0 14
-7.6455 20.0022 -2.5029 0.1161 0 14
-7.9655 19.8769 -2.5029 0.1161 0 14
-8.2835 19.7465 -2.5029 0.1161 0 14
-8.5994 19.6110 -2.5029 0.1161 0 14
-8.9131 19.4705 -2.5029 0.1161 0 14
-9.2244 19.3249 -2.5029 0.1161 0 14
-9.5334 19.1744 -2.5029 0.1161 0 14
-9.8400 19.0189 -2.5029 0.1161 0 8
-10.1828 18.9307 -2.5125 0.8825 0 8
-10.5752 18.9257 -2.5340 0.8750 0 8
-10.9744 18.9204 -2.5566 0.8673 0 8
-11.3809 18.9149 -2.5802 0.8594 0 8
-11.7949 18.9091 -2.6049 0.8512 0 8
-12.2170 18.9032 -2.6307 0.8428 0 8
-12.5993 18.8250 -2.6477 0.1161 0 7
-12.8999 18.6204 -2.6477 0.1161 0 7
-13.1972 18.4109 -2.6477 0.1161 0 6
-13.4909 18.1967 -2.6477 0.1161 0 7
-13.7812 17.9778 -2.6477 0.1161 0 7
-14.0680 17.7543 -2.6477 0.1161 0 7
-14.3512 17.5263 -2.6477 0.1161 0 7
-14.6306 17.2936 -2.6477 0.1161 0 7
-14.9063 17.0566 -2.6477 0.1161 0 7
-15.1782 16.8151 -2.6477 0.1161 0 7
-15.4461 16.5693 -2.6477 0.1161 0 7
-15.7101 16.3193 -2.6477 0.1161 0 7
-15.9700 16.0650 -2.6477 0.1161 0 7
-16.2258 15.8066 -2.6477 0.1161 0 7
-16.4774 15.5442 -2.6477 0.1161 0 7
-16.7248 15.2777 -2.6477 0.1161 0 7
-16.9678 15.0073 -2.6477 0.1161 0 7
-17.2065 14.7330 -2.6477 0.1161 0 7
-17.4408 14.4549 -2.6477 0.1161 0 7
-17.6705 14.1731 -2.6477 0.1161 0 7
-17.8958 13.8877 -2.6477 0.1161 0 7
-18.1164 13.5986 -2.6477 0.1161 0 7
-18.3323 13.3061 -2.6477 0.1161 0 7
-18.5435 13.0101 -2.6477 0.1161 0 7
-18.7499 12.7108 -2.6477 0.1161 0 7
-18.9515 12.4082 -2.6477 0.1161 0 7
-19.1483 12.1025 -2.6477 0.1161 0 7
-19.3400 11.7936 -2.6477 0.1161 0 7
-19.5268 11.4816 -2.6477 0.1161 0 7
-19.7086 11.1667 -2.6477 0.1161 0 7
-19.8853 10.8489 -2.6477 0.1161 0 7
-20.0569 10.5284 -2.6477 0.1161 0 7
-20.2233 10.2051 -2.6477 0.1161 0 7
-20.3845 9.8792 -2.6477 0.1161 0 7
-20.5404 9.5507 -2.6477 0.1161 0 7
-20.6911 9.2198 -2.6477 0.1161 0 7
-19.6371 8.3750 -2.4953 0.1161 0 8
-19.7689 8.0587 -2.4953 0.1161 0 8
-19.8957 7.7404 -2.4953 0.1161 0 8
-20.0174 7.4200 -2.4953 0.1161 0 8
0.4022 19.9686 -2.5029 0.1243 0 14
0.0817 19.9724 -2.5029 0.1243 0 14
-0.2389 19.9712 -2.5029 0.1243 0 14
-0.5595 19.9648 -2.5029 0.1243 0 14
-0.8798 19.9532 -2.5029 0.1243 0 14
-1.2000 19.9365 -2.5029 0.1243 0 14
-1.5198 19.9147 -2.5029 0.1243 0 14
-1.8393 19.8877 -2.5029 0.1243 0 14
-2.1582 19.8556 -2.5029 0.1243 0 14
-2.4767 19.8184 -2.5029 0.1243 0 14
-2.7944 19.7761 -2.5029 0.1243 0 14
-3.1115 19.7287 -2.5029 0.1243 0 14
-3.4278 19.6763 -2.5029 0.1243 0 14
-3.7432 19.6187 -2.5029 0.1243 0 14
-4.0576 19.5561 -2.5029 0.1243 0 14
-4.3709 19.4885 -2.5029 0.1243 0 14
-4.6832 19.4158 -2.5029 0.1243 0 14
-4.9942 19.3381 -2.5029 0.1243 0 14
-5.3039 19.2555 -2.5029 0.1243 0 14
-5.6123 19.1679 -2.5029 0.1243 0 14
-5.9193 19.0753 -2.5029 0.1243 0 8
-6.2247 18.9778 -2.5029 0.1243 0 8
-6.5511 18.9410 -2.5116 0.9456 0 8
-6.8922 18.9375 -2.5255 0.9404 0 8
-7.2371 18.9338 -2.5401 0.9350 0 8
-7.5860 18.9300 -2.5556 0.9293 0 8
-7.9393 18.9260 -2.5720 0.9234 0 8
-8.2972 18.9218 -2.5892 0.9172 0 8
-8.6599 18.9174 -2.6072 0.9109 0 8
-9.0278 18.9129 -2.6263 0.9043 0 8
-9.4011 18.9081 -2.6462 0.8975 0 8
-9.7087 18.7651 -2.6477 0.1243 0 7
-10.0087 18.6069 -2.6477 0.1243 0 7
-10.3059 18.4438 -2.6477 0.1243 0 6
-10.6007 18.2760 -2.6477 0.1243 0 7
-10.8927 18.1035 -2.6477 0.1243 0 7
-11.1819 17.9264 -2.6477 0.1243 0 7
-11.4682 17.7446 -2.6477 0.1243 0 7
-11.7515 17.5582 -2.6477 0.1243 0 7
-12.0318 17.3673 -2.6477 0.1243 0 7
-12.3090 17.1720 -2.6477 0.1243 0 7
-12.5830 16.9722 -2.6477 0.1243 0 7
-12.8538 16.7681 -2.6477 0.1243 0 7
-13.1213 16.5596 -2.6477 0.1243 0 7
-13.3854 16.3469 -2.6477 0.1243 0 7
-13.6461 16.1299 -2.6477 0.1243 0 7
-13.9032 15.9088 -2.6477 0.1243 0 7
-14.1568 15.6836 -2.6477 0.1243 0 7
-14.4067 15.4543 -2.6477 0.1243 0 7
-14.6529 15.2211 -2.6477 0.1243 0 7
-14.8953 14.9840 -2.6477 0.1243 0 7
-15.1339 14.7429 -2.6477 0.1243 0 7
-15.3686 14.4981 -2.6477 0.1243 0 7
-15.5993 14.2496 -2.6477 0.1243 0 7
-15.8260 13.9974 -2.6477 0.1243 0 7
-16.0486 13.7415 -2.6477 0.1243 0 7
-16.2671 13.4822 -2.6477 0.1243 0 7
-16.4814 13.2193 -2.6477 0.1243 0 7
-16.6915 12.9531 -2.6477 0.1243 0 7
-16.8973 12.6835 -2.6477 0.1243 0 7
-17.0986 12.4107 -2.6477 0.1243 0 7
-17.2956 12.1346 -2.6477 0.1243 0 7
-17.4882 11.8555 -2.6477 0.1243 0 7
-17.6762 11.5733 -2.6477 0.1243 0 7
-17.8597 11.2880 -2.6477 0.1243 0 7
-18.0386 10.9999 -2.6477 0.1243 0 7
-18.2128 10.7090 -2.6477 0.1243 0 7
-18.3824 10.4153 -2.6477 0.1243 0 7
-18.5472 10.1189 -2.6477 0.1243 0 7
-18.7072 9.8199 -2.6477 0.1243 0 7
-18.8624 9.5183 -2.6477 0.1243 0 7
-19.0127 9.2144 -2.6477 0.1243 0 7
-18.0554 8.3953 -2.4953 0.1243 0 8
-18.1879 8.1044 -2.4953 0.1243 0 8
-18.3156 7.8114 -2.4953 0.1243 0 8
-18.4386 7.5164 -2.4953 0.1243 0 8
-18.5569 7.2195 -2.4953 0.1243 0 8
-18.6704 6.9207 -2.4953 0.1243 0 8
0.3818 18.9557 -2.5362 0.9985 0 8
0.0775 18.9550 -2.5356 0.9987 0 8
-0.2268 18.9563 -2.5359 0.9969 0 8
-0.5311 18.9546 -2.5365 0.9985 0 8
-0.8357 18.9528 -2.5377 0.9980 0 8
-1.1407 18.9508 -2.5396 0.9971 0 8
-1.4462 18.9495 -2.5422 0.9961 0 8
-1.7524 18.9481 -2.5454 0.9948 0 8
-2.0594 18.9465 -2.5493 0.9933 0 8
-2.3675 18.9448 -2.5539 0.9916 0 8
-2.6767 18.9430 -2.5591 0.9895 0 8
-2.9873 18.9410 -2.5650 0.9873 0 8
-3.2993 18.9389 -2.5716 0.9847 0 8
-3.6130 18.9367 -2.5788 0.9820 0 8
-3.9286 18.9344 -2.5867 0.9790 0 8
-4.2461 18.9319 -2.5954 0.9757 0 8
-4.5658 18.9293 -2.6047 0.9722 0 8
-4.8879 18.9265 -2.6148 0.9685 0 8
-5.2125 18.9236 -2.6256 0.9645 0 8
-5.5399 18.9205 -2.6372 0.9602 0 8
-5.8661 18.9039 -2.6477 0.1326 0 7
-6.1687 18.8073 -2.6477 0.1326 0 7
-6.4698 18.7059 -2.6477 0.1326 0 7
-6.7692 18.5997 -2.6477 0.1326 0 7
-7.0669 18.4886 -2.6477 0.1326 0 7
-7.3627 18.3728 -2.6477 0.1326 0 6
-7.6567 18.2523 -2.6477 0.1326 0 7
-7.9487 18.1270 -2.6477 0.1326 0 7
-8.2386 17.9971 -2.6477 0.1326 0 7
-8.5264 17.8625 -2.6477 0.1326 0 7
-8.8120 17.7234 -2.6477 0.1326 0 7
-9.0953 17.5797 -2.6477 0.1326 0 7
-9.3763 17.4314 -2.6477 0.1326 0 7
-9.6549 17.2787 -2.6477 0.1326 0 7
-9.9310 17.1215 -2.6477 0.1326 0 7
-10.2046 16.9599 -2.6477 0.1326 0 7
-10.4755 16.7939 -2.6477 0.1326 0 7
-10.7437 16.6236 -2.6477 0.1326 0 7
-11.0091 16.4490 -2.6477 0.1326 0 7
-11.2717 16.2702 -2.6477 0.1326 0 7
-11.5314 16.0872 -2.6477 0.1326 0 7
-11.7881 15.9000 -2.6477 0.1326 0 7
-12.0418 15.7087 -2.6477 0.1326 0 7
-12.2924 15.5134 -2.6477 0.1326 0 7
-12.5398 15.3142 -2.6477 0.1326 0 7
-12.7840 15.1109 -2.6477 0.1326 0 7
-13.0249 14.9038 -2.6477 0.1326 0 7
-13.2624 14.6928 -2.6477 0.1326 0 7
-13.4966 14.4780 -2.6477 0.1326 0 7
-13.7272 14.2595 -2.6477 0.1326 0 7
-13.9543 14.0374 -2.6477 0.1326 0 7
-14.1778 13.8116 -2.6477 0.1326 0 7
-14.3977 13.5822 -2.6477 0.1326 0 7
-14.6138 13.3494 -2.6477 0.1326 0 7
-14.8262 13.1131 -2.6477 0.1326 0 7
-15.0348 12.8734 -2.6477 0.1326 0 7
-15.2395 12.6305 -2.6477 0.1326 0 7
-15.4402 12.3842 -2.6477 0.1326 0 7
-15.6370 12.1348 -2.6477 0.1326 0 7
-15.8298 11.8823 -2.6477 0.1326 0 7
-16.0185 11.6266 -2.6477 0.1326 0 7
-16.2030 11.3680 -2.6477 0.1326 0 6
-16.3834 11.1065 -2.6477 0.1326 0 7
-16.5595 10.8421 -2.6477 0.1326 0 7
-16.7314 10.5749 -2.6477 0.1326 0 7
-16.8990 10.3050 -2.6477 0.1326 0 7
-17.0622 10.0324 -2.6477 0.1326 0 7
-17.2211 9.7573 -2.6477 0.1326 0 7
-17.3755 9.4796 -2.6477 0.1326 0 7
-17.5254 9.1995 -2.6477 0.1326 0 7
-16.6537 8.4038 -2.4953 0.1326 0 8
-16.7864 8.1354 -2.4953 0.1326 0 8
-16.9148 7.8649 -2.4953 0.1326 0 8
-17.0389 7.5924 -2.4953 0.1326 0 8
-17.1585 7.3179 -2.4953 0.1326 0 8
-17.2738 7.0416 -2.4953 0.1326 0 8
-17.3846 6.7634 -2.4953 0.1326 0 8
-17.4909 6.4835 -2.4953 0.1326 0 8
0.3748 18.6108 -2.6477 0.1408 0 7
0.0761 18.6144 -2.6477 0.1408 0 7
-0.2227 18.6133 -2.6477 0.1408 0 7
-0.5214 18.6073 -2.6477 0.1408 0 7
-0.8200 18.5965 -2.6477 0.1408 0 7
-1.1184 18.5810 -2.6477 0.1408 0 7
-1.4165 18.5606 -2.6477 0.1408 0 7
-1.7142 18.5355 -2.6477 0.1408 0 7
-2.0115 18.5056 -2.6477 0.1408 0 7
-2.3083 18.4709 -2.6477 0.1408 0 6
-2.6045 18.4315 -2.6477 0.1408 0 6
-2.8999 18.3873 -2.6477 0.1408 0 6
-3.1947 18.3384 -2.6477 0.1408 0 7
-3.4886 18.2847 -2.6477 0.1408 0 7
-3.7817 18.2264 -2.6477 0.1408 0 7
-4.0737 18.1634 -2.6477 0.1408 0 7
-4.3647 18.0956 -2.6477 0.1408 0 7
-4.6546 18.0232 -2.6477 0.1408 0 7
-4.9433 17.9462 -2.6477 0.1408 0 7
-5.2307 17.8646 -2.6477 0.1408 0 7
-5.5168 17.7783 -2.6477 0.1408 0 7
-5.8014 17.6875 -2.6477 0.1408 0 7
-6.0846 17.5921 -2.6477 0.1408 0 7
-6.3662 17.4921 -2.6477 0.1408 0 7
-6.6461 17.3877 -2.6477 0.1408 0 7
-6.9243 17.2788 -2.6477 0.1408 0 7
-7.2008 17.1654 -2.6477 0.1408 0 7
-7.4754 17.0476 -2.6477 0.1408 0 7
-7.7480 16.9254 -2.6477 0.1408 0 7
-8.0187 16.7989 -2.6477 0.1408 0 7
-8.2873 16.6680 -2.6477 0.1408 0 7
-8.5538 16.5329 -2.6477 0.1408 0 7
-8.8180 16.3934 -2.6477 0.1408 0 7
-9.0800 16.2498 -2.6477 0.1408 0 7
-9.3397 16.1020 -2.6477 0.1408 0 7
-9.5969 15.9500 -2.6477 0.1408 0 7
-9.8517 15.7939 -2.6477 0.1408 0 7
-10.1039 15.6337 -2.6477 0.1408 0 7
-10.3536 15.4695 -2.6477 0.1408 0 7
-10.6005 15.3014 -2.6477 0.1408 0 7
-10.8448 15.1292 -2.6477 0.1408 0 7
-11.0862 14.9532 -2.6477 0.1408 0 7
-11.3248 14.7734 -2.6477 0.1408 0 7
-11.5604 14.5897 -2.6477 0.1408 0 7
-11.7931 14.4023 -2.6477 0.1408 0 7
-12.0228 14.2111 -2.6477 0.1408 0 7
-12.2493 14.0163 -2.6477 0.1408 0 7
-12.4727 13.8179 -2.6477 0.1408 0 7
-12.6929 13.6159 -2.6477 0.1408 0 7
-12.9098 13.4104 -2.6477 0.1408 0 7
-13.1234 13.2015 -2.6477 0.1408 0 7
-13.3336 12.9891 -2.6477 0.1408 0 7
-13.5404 12.7735 -2.6477 0.1408 0 7
-13.7436 12.5545 -2.6477 0.1408 0 7
-13.9434 12.3323 -2.6477 0.1408 0 7
-14.1395 12.1069 -2.6477 0.1408 0 7
-14.3320 11.8784 -2.6477 0.1408 0 7
-14.5208 11.6468 -2.6477 0.1408 0 7
-14.7059 11.4122 -2.6477 0.1408 0 6
-14.8872 11.1747 -2.6477 0.1408 0 7
-15.0646 10.9343 -2.6477 0.1408 0 7
-15.2382 10.6911 -2.6477 0.1408 0 7
-15.4078 10.4452 -2.6477 0.1408 0 7
-15.5735 10.1965 -2.6477 0.1408 0 7
-15.7351 9.9452 -2.6477 0.1408 0 7
-15.8927 9.6914 -2.6477 0.1408 0 7
-16.0463 9.4351 -2.6477 0.1408 0 7
-16.1956 9.1763 -2.6477 0.1408 0 7
-15.4003 8.4020 -2.4953 0.1408 0 8
-15.5331 8.1537 -2.4953 0.1408 0 8
-15.6620 7.9034 -2.4953 0.1408 0 8
-15.7868 7.6510 -2.4953 0.1408 0 8
-15.9076 7.3966 -2.4953 0.1408 0 8
-16.0243 7.1403 -2.4953 0.1408 0 8
-16.1368 6.8822 -2.4953 0.1408 0 8
-16.2452 6.6223 -2.4953 0.1408 0 8
-16.3494 6.3607 -2.4953 0.1408 0 8
-16.4494 6.0974 -2.4953 0.1408 0 8
0.3537 17.5626 -2.6477 0.1490 0 7
0.0718 17.5660 -2.6477 0.1490 0 7
-0.2101 17.5649 -2.6477 0.1490 0 7
-0.4920 17.5592 -2.6477 0.1490 0 7
-0.7738 17.5491 -2.6477 0.1490 0 7
-1.0554 17.5344 -2.6477 0.1490 0 7
-1.3367 17.5152 -2.6477 0.1490 0 7
-1.6177 17.4915 -2.6477 0.1490 0 7
-1.8982 17.4633 -2.6477 0.1490 0 7
-2.1783 17.4306 -2.6477 0.1490 0 7
-2.4578 17.3934 -2.6477 0.1490 0 7
-2.7366 17.3517 -2.6477 0.1490 0 7
-3.0148 17.3055 -2.6477 0.1490 0 7
-3.2921 17.2549 -2.6477 0.1490 0 7
-3.5687 17.1998 -2.6477 0.1490 0 7
-3.8443 17.1403 -2.6477 0.1490 0 7
-4.1189 17.0764 -2.6477 0.1490 0 7
-4.3925 17.0081 -2.6477 0.1490 0 7
-4.6649 16.9354 -2.6477 0.1490 0 7
-4.9361 16.8584 -2.6477 0.1490 0 7
-5.2061 16.7770 -2.6477 0.1490 0 7
-5.4747 16.6912 -2.6477 0.1490 0 7
-5.7419 16.6012 -2.6477 0.1490 0 7
-6.0076 16.5069 -2.6477 0.1490 0 7
-6.2718 16.4084 -2.6477 0.1490 0 7
-6.5343 16.3056 -2.6477 0.1490 0 7
-6.7952 16.1986 -2.6477 0.1490 0 7
-7.0543 16.0875 -2.6477 0.1490 0 7
-7.3116 15.9721 -2.6477 0.1490 0 7
-7.5671 15.8527 -2.6477 0.1490 0 7
-7.8205 15.7292 -2.6477 0.1490 0 7
-8.0720 15.6017 -2.6477 0.1490 0 7
-8.3214 15.4701 -2.6477 0.1490 0 7
-8.5686 15.3346 -2.6477 0.1490 0 7
-8.8136 15.1950 -2.6477 0.1490 0 7
-9.0564 15.0516 -2.6477 0.1490 0 7
-9.2969 14.9043 -2.6477 0.1490 0 7
-9.5348 14.7532 -2.6477 0.1490 0 7
-9.7704 14.5982 -2.6477 0.1490 0 7
-10.0035 14.4395 -2.6477 0.1490 0 7
-10.2339 14.2771 -2.6477 0.1490 0 7
-10.4618 14.1110 -2.6477 0.1490 0 7
-10.6869 13.9413 -2.6477 0.1490 0 7
-10.9093 13.7680 -2.6477 0.1490 0 7
-11.1289 13.5911 -2.6477 0.1490 0 7
-11.3456 13.4107 -2.6477 0.1490 0 7
-11.5594 13.2269 -2.6477 0.1490 0 7
-11.7702 13.0396 -2.6477 0.1490 0 7
-11.9780 12.8490 -2.6477 0.1490 0 7
-12.1827 12.6551 -2.6477 0.1490 0 7
-12.3842 12.4579 -2.6477 0.1490 0 7
-12.5826 12.2576 -2.6477 0.1490 0 7
-12.7777 12.0540 -2.6477 0.1490 0 7
-12.9695 11.8474 -2.6477 0.1490 0 7
-13.1580 11.6377 -2.6477 0.1490 0 7
-13.3432 11.4250 -2.6477 0.1490 0 6
-13.5248 11.2093 -2.6477 0.1490 0 7
-13.7030 10.9908 -2.6477 0.1490 0 7
-13.8776 10.7695 -2.6477 0.1490 0 7
-14.0487 10.5453 -2.6477 0.1490 0 7
-14.2161 10.3185 -2.6477 0.1490 0 7
-14.3799 10.0890 -2.6477 0.1490 0 7
-14.5400 9.8569 -2.6477 0.1490 0 7
-14.6963 9.6222 -2.6477 0.1490 0 7
-14.8489 9.3851 -2.6477 0.1490 0 7
-14.9976 9.1455 -2.6477 0.1490 0 7
-14.2709 8.3911 -2.4953 0.1490 0 8
-14.4037 8.1610 -2.4953 0.1490 0 8
-14.5329 7.9288 -2.4953 0.1490 0 8
-14.6582 7.6945 -2.4953 0.1490 0 8
-14.7799 7.4582 -2.4953 0.1490 0 8
-14.8977 7.2200 -2.4953 0.1490 0 8
-15.0116 6.9800 -2.4953 0.1490 0 8
-15.1217 6.7381 -2.4953 0.1490 0 8
-15.2279 6.4945 -2.4953 0.1490 0 8
-15.3302 6.2493 -2.4953 0.1490 0 8
-15.4286 6.0024 -2.4953 0.1490 0 8
-15.5229 5.7540 -2.4953 0.1490 0 8
0.3348 16.6239 -2.6477 0.1573 0 7
0.0680 16.6271 -2.6477 0.1573 0 7
-0.1989 16.6261 -2.6477 0.1573 0 7
-0.4657 16.6208 -2.6477 0.1573 0 7
-0.7325 16.6111 -2.6477 0.1573 0 7
-0.9990 16.5972 -2.6477 0.1573 0 7
-1.2653 16.5791 -2.6477 0.1573 0 7
-1.5312 16.5566 -2.6477 0.1573 0 7
-1.7968 16.5299 -2.6477 0.1573 0 7
-2.0618 16.4990 -2.6477 0.1573 0 7
-2.3264 16.4637 -2.6477 0.1573 0 7
-2.5903 16.4243 -2.6477 0.1573 0 7
-2.8536 16.3806 -2.6477 0.1573 0 7
-3.1162 16.3327 -2.6477 0.1573 0 7
-3.3779 16.2805 -2.6477 0.1573 0 7
-3.6388 16.2242 -2.6477 0.1573 0 7
-3.8988 16.1637 -2.6477 0.1573 0 7
-4.1577 16.0991 -2.6477 0.1573 0 7
-4.4156 16.0303 -2.6477 0.1573 0 7
-4.6723 15.9573 -2.6477 0.1573 0 7
-4.9278 15.8803 -2.6477 0.1573 0 7
-5.1821 15.7991 -2.6477 0.1573 0 7
-5.4350 15.7139 -2.6477 0.1573 0 7
-5.6865 15.6247 -2.6477 0.1573 0 7
-5.9366 15.5314 -2.6477 0.1573 0 7
-6.1851 15.4341 -2.6477 0.1573 0 7
-6.4320 15.3328 -2.6477 0.1573 0 7
-6.6773 15.2276 -2.6477 0.1573 0 7
-6.9208 15.1185 -2.6477 0.1573 0 7
-7.1626 15.0055 -2.6477 0.1573 0 7
-7.4025 14.8886 -2.6477 0.1573 0 6
-7.6406 14.7678 -2.6477 0.1573 0 7
-7.8766 14.6433 -2.6477 0.1573 0 7
-8.1106 14.5150 -2.6477 0.1573 0 7
-8.3426 14.3829 -2.6477 0.1573 0 7
-8.5724 14.2472 -2.6477 0.1573 0 7
-8.7999 14.1077 -2.6477 0.1573 0 7
-9.0252 13.9647 -2.6477 0.1573 0 7
-9.2482 13.8180 -2.6477 0.1573 0 7
-9.4688 13.6678 -2.6477 0.1573 0 7
-9.6870 13.5140 -2.6477 0.1573 0 7
-9.9026 13.3568 -2.6477 0.1573 0 7
-10.1157 13.1962 -2.6477 0.1573 0 7
-10.3262 13.0321 -2.6477 0.1573 0 7
-10.5341 12.8647 -2.6477 0.1573 0 7
-10.7392 12.6939 -2.6477 0.1573 0 7
-10.9416 12.5199 -2.6477 0.1573 0 7
-11.1411 12.3427 -2.6477 0.1573 0 7
-11.3378 12.1623 -2.6477 0.1573 0 7
-11.5316 11.9787 -2.6477 0.1573 0 7
-11.7223 11.7921 -2.6477 0.1573 0 7
-11.9101 11.6024 -2.6477 0.1573 0 7
-12.0949 11.4098 -2.6477 0.1573 0 6
-12.2764 11.2142 -2.6477 0.1573 0 7
-12.4548 11.0157 -2.6477 0.1573 0 7
-12.6300 10.8144 -2.6477 0.1573 0 7
-12.8019 10.6102 -2.6477 0.1573 0 7
-12.9706 10.4034 -2.6477 0.1573 0 7
-13.1359 10.1939 -2.6477 0.1573 0 7
-13.2978 9.9817 -2.6477 0.1573 0 7
-13.4563 9.7670 -2.6477 0.1573 0 7
-13.6114 9.5497 -2.6477 0.1573 0 7
-13.7629 9.3300 -2.6477 0.1573 0 7
-13.9109 9.1079 -2.6477 0.1573 0 7
-13.2462 8.3722 -2.4953 0.1573 0 8
-13.3789 8.1585 -2.4953 0.1573 0 8
-13.5081 7.9427 -2.4953 0.1573 0 8
-13.6339 7.7248 -2.4953 0.1573 0 8
-13.7561 7.5050 -2.4953 0.1573 0 8
-13.8748 7.2832 -2.4953 0.1573 0 8
-13.9899 7.0596 -2.4953 0.1573 0 8
-14.1014 6.8341 -2.4953 0.1573 0 8
-14.2093 6.6069 -2.4953 0.1573 0 8
-14.3135 6.3780 -2.4953 0.1573 0 8
-14.4141 6.1474 -2.4953 0.1573 0 8
-14.5109 5.9153 -2.4953 0.1573 0 8
-14.6039 5.6816 -2.4953 0.1573 0 8
-14.6933 5.4465 -2.4953 0.1573 0 8
0.3178 15.7784 -2.6477 0.1655 0 7
0.0645 15.7814 -2.6477 0.1655 0 7
-0.1888 15.7804 -2.6477 0.1655 0 7
-0.4421 15.7754 -2.6477 0.1655 0 7
-0.6952 15.7662 -2.6477 0.1655 0 7
-0.9482 15.7531 -2.6477 0.1655 0 7
-1.2009 15.7358 -2.6477 0.1655 0 7
-1.4533 15.7145 -2.6477 0.1655 0 7
-1.7054 15.6892 -2.6477 0.1655 0 7
-1.9570 15.6598 -2.6477 0.1655 0 7
-2.2081 15.6263 -2.6477 0.1655 0 7
-2.4586 15.5889 -2.6477 0.1655 0 7
-2.7085 15.5474 -2.6477 0.1655 0 7
-2.9577 15.5019 -2.6477 0.1655 0 7
-3.2061 15.4525 -2.6477 0.1655 0 7
-3.4537 15.3990 -2.6477 0.1655 0 7
-3.7005 15.3416 -2.6477 0.1655 0 7
-3.9462 15.2802 -2.6477 0.1655 0 7
-4.1910 15.2149 -2.6477 0.1655 0 7
-4.4346 15.1457 -2.6477 0.1655 0 7
-4.6772 15.0726 -2.6477 0.1655 0 7
-4.9185 14.9955 -2.6477 0.1655 0 7
-5.1585 14.9147 -2.6477 0.1655 0 7
-5.3973 14.8300 -2.6477 0.1655 0 7
-5.6346 14.7414 -2.6477 0.1655 0 7
-5.8705 14.6491 -2.6477 0.1655 0 7
-6.1049 14.5530 -2.6477 0.1655 0 7
-6.3377 14.4531 -2.6477 0.1655 0 7
-6.5688 14.3495 -2.6477 0.1655 0 7
-6.7983 14.2422 -2.6477 0.1655 0 7
-7.0260 14.1313 -2.6477 0.1655 0 7
-7.2519 14.0167 -2.6477 0.1655 0 7
-7.4760 13.8985 -2.6477 0.1655 0 7
-7.6981 13.7767 -2.6477 0.1655 0 7
-7.9182 13.6514 -2.6477 0.1655 0 7
-8.1363 13.5225 -2.6477 0.1655 0 7
-8.3523 13.3902 -2.6477 0.1655 0 7
-8.5662 13.2544 -2.6477 0.1655 0 7
-8.7778 13.1152 -2.6477 0.1655 0 7
-8.9872 12.9726 -2.6477 0.1655 0 7
-9.1943 12.8267 -2.6477 0.1655 0 7
-9.3990 12.6775 -2.6477 0.1655 0 7
-9.6012 12.5250 -2.6477 0.1655 0 7
-9.8010 12.3692 -2.6477 0.1655 0 7
-9.9983 12.2103 -2.6477 0.1655 0 7
-10.1930 12.0483 -2.6477 0.1655 0 7
-10.3851 11.8831 -2.6477 0.1655 0 7
-10.5745 11.7149 -2.6477 0.1655 0 7
-10.7611 11.5437 -2.6477 0.1655 0 7
-10.9450 11.3695 -2.6477 0.1655 0 6
-11.1261 11.1923 -2.6477 0.1655 0 7
-11.3043 11.0123 -2.6477 0.1655 0 7
-11.4796 10.8294 -2.6477 0.1655 0 7
-11.6520 10.6438 -2.6477 0.1655 0 7
-11.8213 10.4554 -2.6477 0.1655 0 7
-11.9876 10.2643 -2.6477 0.1655 0 7
-12.1508 10.0706 -2.6477 0.1655 0 7
-12.3109 9.8742 -2.6477 0.1655 0 7
-12.4678 9.6754 -2.6477 0.1655 0 7
-12.6215 9.4740 -2.6477 0.1655 0 7
-12.7719 9.2702 -2.6477 0.1655 0 7
-12.9190 9.0640 -2.6477 0.1655 0 7
-12.3110 8.3458 -2.4953 0.1655 0 8
-12.4433 8.1471 -2.4953 0.1655 0 8
-12.5725 7.9463 -2.4953 0.1655 0 8
-12.6984 7.7435 -2.4953 0.1655 0 8
-12.8211 7.5387 -2.4953 0.1655 0 8
-12.9404 7.3319 -2.4953 0.1655 0 8
-13.0564 7.1233 -2.4953 0.1655 0 8
-13.1691 6.9128 -2.4953 0.1655 0 8
-13.2784 6.7005 -2.4953 0.1655 0 8
-13.3842 6.4865 -2.4953 0.1655 0 8
-13.4866 6.2709 -2.4953 0.1655 0 8
-13.5855 6.0536 -2.4953 0.1655 0 8
-13.6809 5.8348 -2.4953 0.1655 0 8
-13.7728 5.6144 -2.4953 0.1655 0 8
-13.8611 5.3926 -2.4953 0.1655 0 8
-13.9459 5.1695 -2.4953 0.1655 0 8
0.3024 15.0127 -2.6477 0.1736 0 7
0.0614 15.0156 -2.6477 0.1736 0 7
-0.1796 15.0146 -2.6477 0.1736 0 7
-0.4206 15.0098 -2.6477 0.1736 0 7
-0.6615 15.0011 -2.6477 0.1736 0 7
-0.9022 14.9886 -2.6477 0.1736 0 6
-1.1426 14.9722 -2.6477 0.1736 0 6
-1.3828 14.9519 -2.6477 0.1736 0 6
-1.6226 14.9278 -2.6477 0.1736 0 6
-1.8620 14.8998 -2.6477 0.1736 0 7
-2.1009 14.8680 -2.6477 0.1736 0 7
-2.3393 14.8324 -2.6477 0.1736 0 7
-2.5770 14.7929 -2.6477 0.1736 0 7
-2.8142 14.7496 -2.6477 0.1736 0 7
-3.0505 14.7026 -2.6477 0.1736 0 7
-3.2861 14.6517 -2.6477 0.1736 0 7
-3.5209 14.5971 -2.6477 0.1736 0 7
-3.7547 14.5387 -2.6477 0.1736 0 7
-3.9876 14.4765 -2.6477 0.1736 0 7
-4.2194 14.4107 -2.6477 0.1736 0 7
-4.4502 14.3411 -2.6477 0.1736 0 7
-4.6798 14.2678 -2.6477 0.1736 0 7
-4.9082 14.1909 -2.6477 0.1736 0 7
-5.1353 14.1103 -2.6477 0.1736 0 7
-5.3612 14.0260 -2.6477 0.1736 0 7
-5.5856 13.9382 -2.6477 0.1736 0 7
-5.8086 13.8467 -2.6477 0.1736 0 7
-6.0301 13.7517 -2.6477 0.1736 0 7
-6.2500 13.6531 -2.6477 0.1736 0 7
-6.4684 13.5511 -2.6477 0.1736 0 7
-6.6851 13.4455 -2.6477 0.1736 0 7
-6.9000 13.3365 -2.6477 0.1736 0 7
-7.1132 13.2240 -2.6477 0.1736 0 7
-7.3245 13.1081 -2.6477 0.1736 0 7
-7.5340 12.9889 -2.6477 0.1736 0 7
-7.7415 12.8663 -2.6477 0.1736 0 7
-7.9470 12.7403 -2.6477 0.1736 0 7
-8.1505 12.6111 -2.6477 0.1736 0 7
-8.3518 12.4787 -2.6477 0.1736 0 7
-8.5510 12.3430 -2.6477 0.1736 0 7
-8.7481 12.2042 -2.6477 0.1736 0 7
-8.9428 12.0622 -2.6477 0.1736 0 7
-9.1353 11.9171 -2.6477 0.1736 0 7
-9.3254 11.7690 -2.6477 0.1736 0 7
-9.5131 11.6178 -2.6477 0.1736 0 7
-9.6983 11.4636 -2.6477 0.1736 0 6
-9.8811 11.3064 -2.6477 0.1736 0 7
-10.0613 11.1464 -2.6477 0.1736 0 7
-10.2389 10.9835 -2.6477 0.1736 0 7
-10.4138 10.8177 -2.6477 0.1736 0 7
-10.5861 10.6492 -2.6477 0.1736 0 7
-10.7557 10.4779 -2.6477 0.1736 0 7
-10.9225 10.3039 -2.6477 0.1736 0 7
-11.0865 10.1272 -2.6477 0.1736 0 7
-11.2476 9.9480 -2.6477 0.1736 0 7
-11.4058 9.7662 -2.6477 0.1736 0 7
-11.5611 9.5818 -2.6477 0.1736 0 7
-11.7134 9.3950 -2.6477 0.1736 0 7
-11.8627 9.2058 -2.6477 0.1736 0 7
-12.0089 9.0142 -2.6477 0.1736 0 7
-11.4526 8.3126 -2.4953 0.1736 0 8
-11.5846 8.1277 -2.4953 0.1736 0 8
-11.7135 7.9407 -2.4953 0.1736 0 8
-11.8395 7.7517 -2.4953 0.1736 0 8
-11.9624 7.5607 -2.4953 0.1736 0 8
-12.0822 7.3677 -2.4953 0.1736 0 8
-12.1989 7.1728 -2.4953 0.1736 0 8
-12.3124 6.9761 -2.4953 0.1736 0 8
-12.4228 6.7776 -2.4953 0.1736 0 8
-12.5300 6.5773 -2.4953 0.1736 0 8
-12.6340 6.3753 -2.4953 0.1736 0 8
-12.7347 6.1717 -2.4953 0.1736 0 8
-12.8321 5.9665 -2.4953 0.1736 0 8
-12.9262 5.7598 -2.4953 0.1736 0 8
-13.0170 5.5516 -2.4953 0.1736 0 8
-13.1044 5.3419 -2.4953 0.1736 0 8
-13.1885 5.1309 -2.4953 0.1736 0 8
-13.2691 4.9186 -2.4953 0.1736 0 8
0.2884 14.3159 -2.6477 0.1818 0 7
0.0585 14.3186 -2.6477 0.1818 0 7
-0.1713 14.3177 -2.6477 0.1818 0 7
-0.4011 14.3131 -2.6477 0.1818 0 7
-0.6308 14.3049 -2.6477 0.1818 0 7
-0.8603 14.2929 -2.6477 0.1818 0 7
-1.0896 14.2772 -2.6477 0.1818 0 7
-1.3186 14.2579 -2.6477 0.1818 0 7
-1.5473 14.2349 -2.6477 0.1818 0 7
-1.7756 14.2082 -2.6477 0.1818 0 7
-2.0034 14.1779 -2.6477 0.1818 0 7
-2.2307 14.1439 -2.6477 0.1818 0 7
-2.4574 14.1063 -2.6477 0.1818 0 7
-2.6835 14.0651 -2.6477 0.1818 0 7
-2.9089 14.0202 -2.6477 0.1818 0 7
-3.1336 13.9717 -2.6477 0.1818 0 7
-3.3575 13.9196 -2.6477 0.1818 0 7
-3.5804 13.8639 -2.6477 0.1818 0 7
-3.8025 13.8046 -2.6477 0.1818 0 7
-4.0236 13.7418 -2.6477 0.1818 0 7
-4.2436 13.6755 -2.6477 0.1818 0 7
-4.4626 13.6056 -2.6477 0.1818 0 7
-4.6804 13.5322 -2.6477 0.1818 0 7
-4.8970 13.4554 -2.6477 0.1818 0 7
-5.1123 13.3750 -2.6477 0.1818 0 7
-5.3264 13.2912 -2.6477 0.1818 0 7
-5.5390 13.2040 -2.6477 0.1818 0 7
-5.7502 13.1134 -2.6477 0.1818 0 7
-5.9600 13.0194 -2.6477 0.1818 0 7
-6.1682 12.9221 -2.6477 0.1818 0 7
-6.3748 12.8214 -2.6477 0.1818 0 7
-6.5797 12.7175 -2.6477 0.1818 0 7
-6.7830 12.6102 -2.6477 0.1818 0 7
-6.9846 12.4997 -2.6477 0.1818 0 7
-7.1843 12.3860 -2.6477 0.1818 0 7
-7.3822 12.2691 -2.6477 0.1818 0 7
-7.5781 12.1490 -2.6477 0.1818 0 7
-7.7722 12.0258 -2.6477 0.1818 0 7
-7.9642 11.8995 -2.6477 0.1818 0 7
-8.1542 11.7702 -2.6477 0.1818 0 7
-8.3420 11.6378 -2.6477 0.1818 0 7
-8.5277 11.5024 -2.6477 0.1818 0 7
-8.7113 11.3640 -2.6477 0.1818 0 6
-8.8925 11.2227 -2.6477 0.1818 0 7
-9.0715 11.0785 -2.6477 0.1818 0 7
-9.2482 10.9315 -2.6477 0.1818 0 7
-9.4225 10.7817 -2.6477 0.1818 0 7
-9.5943 10.6290 -2.6477 0.1818 0 7
-9.7637 10.4737 -2.6477 0.1818 0 7
-9.9305 10.3156 -2.6477 0.1818 0 7
-10.0948 10.1549 -2.6477 0.1818 0 7
-10.2565 9.9916 -2.6477 0.1818 0 7
-10.4156 9.8256 -2.6477 0.1818 0 7
-10.5719 9.6572 -2.6477 0.1818 0 7
-10.7256 9.4863 -2.6477 0.1818 0 7
-10.8764 9.3129 -2.6477 0.1818 0 7
-11.0245 9.1371 -2.6477 0.1818 0 7
-11.1698 8.9590 -2.6477 0.1818 0 7
-10.6610 8.2733 -2.4953 0.1818 0 8
-10.7924 8.1011 -2.4953 0.1818 0 8
-10.9210 7.9268 -2.4953 0.1818 0 8
-11.0469 7.7505 -2.4953 0.1818 0 8
-11.1698 7.5722 -2.4953 0.1818 0 8
-11.2899 7.3919 -2.4953 0.1818 0 8
-11.4071 7.2098 -2.4953 0.1818 0 8
-11.5214 7.0257 -2.4953 0.1818 0 8
-11.6327 6.8399 -2.4953 0.1818 0 8
-11.7410 6.6523 -2.4953 0.1818 0 8
-11.8462 6.4630 -2.4953 0.1818 0 8
-11.9484 6.2720 -2.4953 0.1818 0 8
-12.0476 6.0794 -2.4953 0.1818 0 8
-12.1436 5.8853 -2.4953 0.1818 0 8
-12.2365 5.6896 -2.4953 0.1818 0 8
-12.3262 5.4925 -2.4953 0.1818 0 8
-12.4128 5.2939 -2.4953 0.1818 0 8
-12.4962 5.0940 -2.4953 0.1818 0 8
-12.5763 4.8928 -2.4953 0.1818 0 8
-12.6532 4.6903 -2.4953 0.1818 0 8
0.2755 13.6790 -2.6477 0.1900 0 7
0.0559 13.6817 -2.6477 0.1900 0 7
-0.1637 13.6808 -2.6477 0.1900 0 7
-0.3832 13.6764 -2.6477 0.1900 0 7
-0.6027 13.6685 -2.6477 0.1900 0 7
-0.8220 13.6571 -2.6477 0.1900 0 7
-1.0411 13.6421 -2.6477 0.1900 0 7
-1.2600 13.6236 -2.6477 0.1900 0 7
-1.4785 13.6017 -2.6477 0.1900 0 7
-1.6966 13.5762 -2.6477 0.1900 0 7
-1.9143 13.5472 -2.6477 0.1900 0 7
-2.1315 13.5147 -2.6477 0.1900 0 7
-2.3481 13.4788 -2.6477 0.1900 0 7
-2.5642 13.4394 -2.6477 0.1900 0 7
-2.7795 13.3965 -2.6477 0.1900 0 7
-2.9942 13.3501 -2.6477 0.1900 0 7
-3.2081 13.3003 -2.6477 0.1900 0 7
-3.4212 13.2471 -2.6477 0.1900 0 7
-3.6334 13.1905 -2.6477 0.1900 0 7
-3.8446 13.1305 -2.6477 0.1900 0 7
-4.0549 13.0671 -2.6477 0.1900 0 7
-4.2641 13.0003 -2.6477 0.1900 0 7
-4.4722 12.9302 -2.6477 0.1900 0 7
-4.6791 12.8568 -2.6477 0.1900 0 7
-4.8849 12.7800 -2.6477 0.1900 0 7
-5.0894 12.7000 -2.6477 0.1900 0 7
-5.2926 12.6166 -2.6477 0.1900 0 7
-5.4944 12.5301 -2.6477 0.1900 0 7
-5.6948 12.4403 -2.6477 0.1900 0 7
-5.8938 12.3473 -2.6477 0.1900 0 7
-6.0912 12.2511 -2.6477 0.1900 0 7
-6.2870 12.1517 -2.6477 0.1900 0 7
-6.4813 12.0492 -2.6477 0.1900 0 7
-6.6738 11.9437 -2.6477 0.1900 0 7
-6.8647 11.8350 -2.6477 0.1900 0 7
-7.0538 11.7233 -2.6477 0.1900 0 7
-7.2410 11.6086 -2.6477 0.1900 0 7
-7.4264 11.4908 -2.6477 0.1900 0 7
-7.6099 11.3702 -2.6477 0.1900 0 6
-7.7914 11.2466 -2.6477 0.1900 0 7
-7.9709 11.1200 -2.6477 0.1900 0 7
-8.1484 10.9907 -2.6477 0.1900 0 7
-8.3237 10.8585 -2.6477 0.1900 0 7
-8.4970 10.7235 -2.6477 0.1900 0 7
-8.6680 10.5857 -2.6477 0.1900 0 7
-8.8368 10.4452 -2.6477 0.1900 0 7
-9.0033 10.3020 -2.6477 0.1900 0 7
-9.1675 10.1562 -2.6477 0.1900 0 7
-9.3293 10.0077 -2.6477 0.1900 0 7
-9.4888 9.8567 -2.6477 0.1900 0 7
-9.6457 9.7032 -2.6477 0.1900 0 7
-9.8002 9.5471 -2.6477 0.1900 0 7
-9.9522 9.3885 -2.6477 0.1900 0 7
-10.1016 9.2276 -2.6477 0.1900 0 7
-10.2484 9.0643 -2.6477 0.1900 0 7
-9.7944 8.3864 -2.4953 0.1900 0 8
-9.9277 8.2281 -2.4953 0.1900 0 8
-10.0585 8.0677 -2.4953 0.1900 0 8
-10.1867 7.9052 -2.4953 0.1900 0 8
-10.3123 7.7407 -2.4953 0.1900 0 8
-10.4352 7.5742 -2.4953 0.1900 0 8
-10.5554 7.4057 -2.4953 0.1900 0 8
-10.6729 7.2353 -2.4953 0.1900 0 8
-10.7877 7.0631 -2.4953 0.1900 0 8
-10.8997 6.8890 -2.4953 0.1900 0 8
-11.0089 6.7132 -2.4953 0.1900 0 8
-11.1152 6.5356 -2.4953 0.1900 0 8
-11.2187 6.3564 -2.4953 0.1900 0 8
-11.3192 6.1755 -2.4953 0.1900 0 8
-11.4169 5.9930 -2.4953 0.1900 0 8
-11.5116 5.8090 -2.4953 0.1900 0 8
-11.6034 5.6235 -2.4953 0.1900 0 8
-11.6921 5.4365 -2.4953 0.1900 0 8
-11.7779 5.2481 -2.4953 0.1900 0 8
-11.8606 5.0584 -2.4953 0.1900 0 8
-11.9403 4.8674 -2.4953 0.1900 0 8
-12.0169 4.6751 -2.4953 0.1900 0 8
-12.0904 4.4816 -2.4953 0.1900 0 8
0.2638 13.0946 -2.6477 0.1981 0 7
0.0535 13.0972 -2.6477 0.1981 0 7
-0.1567 13.0963 -2.6477 0.1981 0 7
-0.3669 13.0921 -2.6477 0.1981 0 7
-0.5770 13.0846 -2.6477 0.1981 0 7
-0.7869 13.0736 -2.6477 0.1981 0 7
-0.9966 13.0593 -2.6477 0.1981 0 7
-1.2061 13.0416 -2.6477 0.1981 0 7
-1.4153 13.0206 -2.6477 0.1981 0 7
-1.6241 12.9962 -2.6477 0.1981 0 7
-1.8325 12.9684 -2.6477 0.1981 0 7
-2.0404 12.9374 -2.6477 0.1981 0 7
-2.2478 12.9029 -2.6477 0.1981 0 7
-2.4546 12.8652 -2.6477 0.1981 0 7
-2.6608 12.8241 -2.6477 0.1981 0 7
-2.8663 12.7798 -2.6477 0.1981 0 7
-3.0710 12.7321 -2.6477 0.1981 0 7
-3.2750 12.6812 -2.6477 0.1981 0 7
-3.4781 12.6270 -2.6477 0.1981 0 7
-3.6804 12.5695 -2.6477 0.1981 0 7
-3.8816 12.5089 -2.6477 0.1981 0 7
-4.0819 12.4449 -2.6477 0.1981 0 7
-4.2811 12.3778 -2.6477 0.1981 0 7
-4.4792 12.3075 -2.6477 0.1981 0 7
-4.6762 12.2340 -2.6477 0.1981 0 7
-4.8720 12.1574 -2.6477 0.1981 0 7
-5.0665 12.0776 -2.6477 0.1981 0 7
-5.2597 11.9948 -2.6477 0.1981 0 7
-5.4515 11.9088 -2.6477 0.1981 0 7
-5.6420 11.8198 -2.6477 0.1981 0 7
-5.8310 11.7277 -2.6477 0.1981 0 7
-6.0184 11.6326 -2.6477 0.1981 0 7
-6.2044 11.5345 -2.6477 0.1981 0 7
-6.3888 11.4334 -2.6477 0.1981 0 6
-6.5714 11.3294 -2.6477 0.1981 0 7
-6.7524 11.2224 -2.6477 0.1981 0 7
-6.9317 11.1126 -2.6477 0.1981 0 7
-7.1091 10.9999 -2.6477 0.1981 0 7
-7.2848 10.8844 -2.6477 0.1981 0 7
-7.4586 10.7661 -2.6477 0.1981 0 7
-7.6304 10.6450 -2.6477 0.1981 0 7
-7.8003 10.5211 -2.6477 0.1981 0 7
-7.9681 10.3946 -2.6477 0.1981 0 7
-8.1340 10.2653 -2.6477 0.1981 0 7
-8.2977 10.1335 -2.6477 0.1981 0 7
-8.4592 9.9990 -2.6477 0.1981 0 7
-8.6187 9.8619 -2.6477 0.1981 0 7
-8.7758 9.7223 -2.6477 0.1981 0 7
-8.9308 9.5802 -2.6477 0.1981 0 7
-9.0834 9.4356 -2.6477 0.1981 0 7
-9.2336 9.2886 -2.6477 0.1981 0 7
-9.3815 9.1392 -2.6477 0.1981 0 7
-9.5270 8.9874 -2.6477 0.1981 0 7
-9.1135 8.3249 -2.4953 0.1981 0 8
-9.2459 8.1776 -2.4953 0.1981 0 8
-9.3760 8.0281 -2.4953 0.1981 0 8
-9.5036 7.8766 -2.4953 0.1981 0 8
-9.6288 7.7230 -2.4953 0.1981 0 8
-9.7515 7.5675 -2.4953 0.1981 0 8
-9.8717 7.4100 -2.4953 0.1981 0 8
-9.9894 7.2506 -2.4953 0.1981 0 8
-10.1045 7.0893 -2.4953 0.1981 0 8
-10.2170 6.9262 -2.4953 0.1981 0 8
-10.3268 6.7613 -2.4953 0.1981 0 8
-10.4340 6.5947 -2.4953 0.1981 0 8
-10.5385 6.4264 -2.4953 0.1981 0 8
-10.6403 6.2564 -2.4953 0.1981 0 8
-10.7394 6.0848 -2.4953 0.1981 0 8
-10.8357 5.9117 -2.4953 0.1981 0 8
-10.9291 5.7370 -2.4953 0.1981 0 8
-11.0198 5.5608 -2.4953 0.1981 0 8
-11.1077 5.3832 -2.4953 0.1981 0 8
-11.1926 5.2043 -2.4953 0.1981 0 8
-11.2747 5.0239 -2.4953 0.1981 0 8
-11.3539 4.8423 -2.4953 0.1981 0 8
-11.4302 4.6595 -2.4953 0.1981 0 8
-11.5035 4.4754 -2.4953 0.1981 0 8
-11.5738 4.2902 -2.4953 0.1981 0 8
0.2529 12.5564 -2.6477 0.2063 0 7
0.0513 12.5588 -2.6477 0.2063 0 7
-0.1502 12.5580 -2.6477 0.2063 0 7
-0.3518 12.5540 -2.6477 0.2063 0 7
-0.5532 12.5467 -2.6477 0.2063 0 7
-0.7546 12.5362 -2.6477 0.2063 0 7
-0.9557 12.5225 -2.6477 0.2063 0 7
-1.1565 12.5056 -2.6477 0.2063 0 7
-1.3571 12.4854 -2.6477 0.2063 0 7
-1.5573 12.4620 -2.6477 0.2063 0 7
-1.7572 12.4354 -2.6477 0.2063 0 7
-1.9565 12.4056 -2.6477 0.2063 0 7
-2.1554 12.3726 -2.6477 0.2063 0 7
-2.3537 12.3364 -2.6477 0.2063 0 7
-2.5514 12.2970 -2.6477 0.2063 0 7
-2.7485 12.2545 -2.6477 0.2063 0 7
-2.9448 12.2088 -2.6477 0.2063 0 7
-3.1404 12.1600 -2.6477 0.2063 0 7
-3.3352 12.1080 -2.6477 0.2063 0 7
-3.5291 12.0529 -2.6477 0.2063 0 7
-3.7221 11.9947 -2.6477 0.2063 0 7
-3.9141 11.9334 -2.6477 0.2063 0 7
-4.1052 11.8691 -2.6477 0.2063 0 7
-4.2951 11.8016 -2.6477 0.2063 0 7
-4.4840 11.7312 -2.6477 0.2063 0 7
-4.6717 11.6577 -2.6477 0.2063 0 7
-4.8582 11.5812 -2.6477 0.2063 0 7
-5.0435 11.5017 -2.6477 0.2063 0 7
-5.2275 11.4193 -2.6477 0.2063 0 6
-5.4101 11.3339 -2.6477 0.2063 0 7
-5.5913 11.2456 -2.6477 0.2063 0 7
-5.7711 11.1544 -2.6477 0.2063 0 7
-5.9494 11.0604 -2.6477 0.2063 0 7
-6.1261 10.9635 -2.6477 0.2063 0 7
-6.3013 10.8637 -2.6477 0.2063 0 7
-6.4749 10.7612 -2.6477 0.2063 0 7
-6.6468 10.6559 -2.6477 0.2063 0 7
-6.8169 10.5478 -2.6477 0.2063 0 7
-6.9854 10.4370 -2.6477 0.2063 0 7
-7.1520 10.3236 -2.6477 0.2063 0 7
-7.3168 10.2074 -2.6477 0.2063 0 7
-7.4797 10.0887 -2.6477 0.2063 0 7
-7.6406 9.9673 -2.6477 0.2063 0 7
-7.7996 9.8434 -2.6477 0.2063 0 7
-7.9566 9.7170 -2.6477 0.2063 0 7
-8.1116 9.5880 -2.6477 0.2063 0 7
-8.2644 9.4566 -2.6477 0.2063 0 7
-8.4151 9.3227 -2.6477 0.2063 0 7
-8.5637 9.1864 -2.6477 0.2063 0 7
-8.7100 9.0478 -2.6477 0.2063 0 7
-8.3444 8.3941 -2.4953 0.2063 0 8
-8.4781 8.2591 -2.4953 0.2063 0 8
-8.6096 8.1220 -2.4953 0.2063 0 8
-8.7389 7.9827 -2.4953 0.2063 0 8
-8.8659 7.8415 -2.4953 0.2063 0 8
-8.9906 7.6981 -2.4953 0.2063 0 8
-9.1130 7.5528 -2.4953 0.2063 0 8
-9.2330 7.4056 -2.4953 0.2063 0 8
-9.3507 7.2564 -2.4953 0.2063 0 8
-9.4660 7.1054 -2.4953 0.2063 0 8
-9.5788 6.9526 -2.4953 0.2063 0 8
-9.6892 6.7979 -2.4953 0.2063 0 8
-9.7970 6.6415 -2.4953 0.2063 0 8
-9.9024 6.4834 -2.4953 0.2063 0 8
-10.0052 6.3237 -2.4953 0.2063 0 8
-10.1054 6.1623 -2.4953 0.2063 0 8
-10.2030 5.9993 -2.4953 0.2063 0 8
-10.2980 5.8347 -2.4953 0.2063 0 8
-10.3903 5.6687 -2.4953 0.2063 0 8
-10.4799 5.5012 -2.4953 0.2063 0 8
-10.5669 5.3323 -2.4953 0.2063 0 8
-10.6511 5.1620 -2.4953 0.2063 0 8
-10.7326 4.9903 -2.4953 0.2063 0 8
-10.8113 4.8174 -2.4953 0.2063 0 8
-10.8872 4.6433 -2.4953 0.2063 0 8
-10.9604 4.4679 -2.4953 0.2063 0 8
-11.0307 4.2914 -2.4953 0.2063 0 8
-11.0981 4.1138 -2.4953 0.2063 0 8
0.2429 12.0590 -2.6477 0.2144 0 7
0.0493 12.0613 -2.6477 0.2144 0 7
-0.1443 12.0606 -2.6477 0.2144 0 7
-0.3379 12.0567 -2.6477 0.2144 0 7
-0.5313 12.0497 -2.6477 0.2144 0 7
-0.7247 12.0396 -2.6477 0.2144 0 7
-0.9178 12.0264 -2.6477 0.2144 0 7
-1.1107 12.0102 -2.6477 0.2144 0 7
-1.3034 11.9908 -2.6477 0.2144 0 7
-1.4957 11.9683 -2.6477 0.2144 0 7
-1.6876 11.9428 -2.6477 0.2144 0 7
-1.8790 11.9142 -2.6477 0.2144 0 7
-2.0700 11.8825 -2.6477 0.2144 0 7
-2.2605 11.8477 -2.6477 0.2144 0 7
-2.4504 11.8099 -2.6477 0.2144 0 7
-2.6396 11.7690 -2.6477 0.2144 0 7
-2.8282 11.7252 -2.6477 0.2144 0 7
-3.0160 11.6782 -2.6477 0.2144 0 7
-3.2030 11.6283 -2.6477 0.2144 0 7
-3.3893 11.5754 -2.6477 0.2144 0 7
-3.5746 11.5195 -2.6477 0.2144 0 7
-3.7591 11.4607 -2.6477 0.2144 0 6
-3.9425 11.3989 -2.6477 0.2144 0 6
-4.1250 11.3341 -2.6477 0.2144 0 7
-4.3064 11.2665 -2.6477 0.2144 0 7
-4.4867 11.1959 -2.6477 0.2144 0 7
-4.6658 11.1224 -2.6477 0.2144 0 7
-4.8437 11.0461 -2.6477 0.2144 0 7
-5.0204 10.9669 -2.6477 0.2144 0 7
-5.1958 10.8849 -2.6477 0.2144 0 7
-5.3698 10.8001 -2.6477 0.2144 0 7
-5.5425 10.7126 -2.6477 0.2144 0 7
-5.7137 10.6222 -2.6477 0.2144 0 7
-5.8834 10.5291 -2.6477 0.2144 0 7
-6.0517 10.4334 -2.6477 0.2144 0 7
-6.2184 10.3349 -2.6477 0.2144 0 7
-6.3835 10.2337 -2.6477 0.2144 0 7
-6.5469 10.1300 -2.6477 0.2144 0 7
-6.7086 10.0236 -2.6477 0.2144 0 7
-6.8687 9.9146 -2.6477 0.2144 0 7
-7.0269 9.8031 -2.6477 0.2144 0 7
-7.1834 9.6890 -2.6477 0.2144 0 7
-7.3379 9.5725 -2.6477 0.2144 0 7
-7.4906 9.4535 -2.6477 0.2144 0 7
-7.6414 9.3320 -2.6477 0.2144 0 7
-7.7902 9.2082 -2.6477 0.2144 0 7
-7.9370 9.0819 -2.6477 0.2144 0 7
-8.0818 8.9534 -2.6477 0.2144 0 7
-7.7510 8.3147 -2.4953 0.2144 0 8
-7.8835 8.1892 -2.4953 0.2144 0 8
-8.0139 8.0616 -2.4953 0.2144 0 8
-8.1423 7.9319 -2.4953 0.2144 0 8
-8.2685 7.8002 -2.4953 0.2144 0 8
-8.3927 7.6665 -2.4953 0.2144 0 8
-8.5146 7.5308 -2.4953 0.2144 0 8
-8.6344 7.3932 -2.4953 0.2144 0 8
-8.7520 7.2536 -2.4953 0.2144 0 8
-8.8673 7.1122 -2.4953 0.2144 0 8
-8.9803 6.9690 -2.4953 0.2144 0 8
-9.0910 6.8239 -2.4953 0.2144 0 8
-9.1994 6.6772 -2.4953 0.2144 0 8
-9.3053 6.5286 -2.4953 0.2144 0 8
-9.4089 6.3784 -2.4953 0.2144 0 8
-9.5101 6.2266 -2.4953 0.2144 0 8
-9.6088 6.0732 -2.4953 0.2144 0 8
-9.7050 5.9181 -2.4953 0.2144 0 8
-9.7988 5.7616 -2.4953 0.2144 0 8
-9.8900 5.6036 -2.4953 0.2144 0 8
-9.9787 5.4441 -2.4953 0.2144 0 8
-10.0648 5.2833 -2.4953 0.2144 0 8
-10.1483 5.1210 -2.4953 0.2144 0 8
-10.2292 4.9575 -2.4953 0.2144 0 8
-10.3074 4.7927 -2.4953 0.2144 0 8
-10.3830 4.6266 -2.4953 0.2144 0 8
-10.4559 4.4593 -2.4953 0.2144 0 8
-10.5262 4.2909 -2.4953 0.2144 0 8
-10.5937 4.1214 -2.4953 0.2144 0 8
-10.6585 3.9509 -2.4953 0.2144 0 8
0.2336 11.5979 -2.6477 0.2225 0 7
0.0474 11.6001 -2.6477 0.2225 0 7
-0.1388 11.5994 -2.6477 0.2225 0 7
-0.3249 11.5957 -2.6477 0.2225 0 7
-0.5110 11.5889 -2.6477 0.2225 0 7
-0.6970 11.5792 -2.6477 0.2225 0 7
-0.8827 11.5666 -2.6477 0.2225 0 7
-1.0683 11.5509 -2.6477 0.2225 0 7
-1.2535 11.5323 -2.6477 0.2225 0 7
-1.4385 11.5107 -2.6477 0.2225 0 7
-1.6230 11.4861 -2.6477 0.2225 0 6
-1.8071 11.4586 -2.6477 0.2225 0 6
-1.9909 11.4281 -2.6477 0.2225 0 6
-2.1740 11.3947 -2.6477 0.2225 0 6
-2.3567 11.3583 -2.6477 0.2225 0 7
-2.5387 11.3190 -2.6477 0.2225 0 7
-2.7200 11.2768 -2.6477 0.2225 0 7
-2.9007 11.2317 -2.6477 0.2225 0 7
-3.0806 11.1837 -2.6477 0.2225 0 7
-3.2597 11.1328 -2.6477 0.2225 0 7
-3.4379 11.0790 -2.6477 0.2225 0 7
-3.6153 11.0224 -2.6477 0.2225 0 7
-3.7918 10.9630 -2.6477 0.2225 0 7
-3.9673 10.9007 -2.6477 0.2225 0 7
-4.1417 10.8356 -2.6477 0.2225 0 7
-4.3151 10.7678 -2.6477 0.2225 0 7
-4.4874 10.6971 -2.6477 0.2225 0 7
-4.6585 10.6237 -2.6477 0.2225 0 7
-4.8284 10.5476 -2.6477 0.2225 0 7
-4.9971 10.4687 -2.6477 0.2225 0 7
-5.1645 10.3872 -2.6477 0.2225 0 7
-5.3305 10.3029 -2.6477 0.2225 0 7
-5.4952 10.2160 -2.6477 0.2225 0 7
-5.6585 10.1265 -2.6477 0.2225 0 7
-5.8203 10.0344 -2.6477 0.2225 0 7
-5.9806 9.9397 -2.6477 0.2225 0 7
-6.1394 9.8424 -2.6477 0.2225 0 7
-6.2966 9.7426 -2.6477 0.2225 0 7
-6.4521 9.6403 -2.6477 0.2225 0 7
-6.6060 9.5355 -2.6477 0.2225 0 7
-6.7582 9.4282 -2.6477 0.2225 0 7
-6.9087 9.3185 -2.6477 0.2225 0 7
-7.0573 9.2064 -2.6477 0.2225 0 7
-7.2042 9.0920 -2.6477 0.2225 0 7
-7.3492 8.9752 -2.6477 0.2225 0 7
-7.0611 8.3463 -2.4953 0.2225 0 8
-7.1941 8.2319 -2.4953 0.2225 0 8
-7.3253 8.1154 -2.4953 0.2225 0 8
-7.4546 7.9967 -2.4953 0.2225 0 8
-7.5820 7.8761 -2.4953 0.2225 0 8
-7.7075 7.7534 -2.4953 0.2225 0 8
-7.8309 7.6286 -2.4953 0.2225 0 8
-7.9524 7.5020 -2.4953 0.2225 0 8
-8.0717 7.3734 -2.4953 0.2225 0 8
-8.1891 7.2429 -2.4953 0.2225 0 8
-8.3043 7.1105 -2.4953 0.2225 0 8
-8.4173 6.9763 -2.4953 0.2225 0 8
-8.5282 6.8403 -2.4953 0.2225 0 8
-8.6369 6.7025 -2.4953 0.2225 0 8
-8.7434 6.5630 -2.4953 0.2225 0 8
-8.8476 6.4218 -2.4953 0.2225 0 8
-8.9495 6.2790 -2.4953 0.2225 0 8
-9.0491 6.1345 -2.4953 0.2225 0 8
-9.1464 5.9885 -2.4953 0.2225 0 8
-9.2414 5.8409 -2.4953 0.2225 0 8
-9.3339 5.6918 -2.4953 0.2225 0 8
-9.4241 5.5413 -2.4953 0.2225 0 8
-9.5118 5.3893 -2.4953 0.2225 0 8
-9.5971 5.2359 -2.4953 0.2225 0 8
-9.6799 5.0812 -2.4953 0.2225 0 8
-9.7602 4.9252 -2.4953 0.2225 0 8
-9.8380 4.7679 -2.4953 0.2225 0 8
-9.9133 4.6094 -2.4953 0.2225 0 8
-9.9860 4.4497 -2.4953 0.2225 0 8
-10.0561 4.2888 -2.4953 0.2225 0 8
-10.1237 4.1269 -2.4953 0.2225 0 8
-10.1886 3.9638 -2.4953 0.2225 0 8
-10.2509 3.7998 -2.4953 0.2225 0 8
0.2250 11.1691 -2.6477 0.2306 0 7
0.0457 11.1713 -2.6477 0.2306 0 7
-0.1336 11.1706 -2.6477 0.2306 0 7
-0.3129 11.1670 -2.6477 0.2306 0 7
-0.4921 11.1606 -2.6477 0.2306 0 7
-0.6712 11.1512 -2.6477 0.2306 0 7
-0.8501 11.1390 -2.6477 0.2306 0 7
-1.0288 11.1239 -2.6477 0.2306 0 7
-1.2072 11.1060 -2.6477 0.2306 0 7
-1.3853 11.0852 -2.6477 0.2306 0 7
-1.5630 11.0615 -2.6477 0.2306 0 7
-1.7404 11.0350 -2.6477 0.2306 0 7
-1.9173 11.0057 -2.6477 0.2306 0 7
-2.0937 10.9735 -2.6477 0.2306 0 7
-2.2695 10.9384 -2.6477 0.2306 0 7
-2.4448 10.9006 -2.6477 0.2306 0 7
-2.6195 10.8600 -2.6477 0.2306 0 7
-2.7934 10.8165 -2.6477 0.2306 0 7
-2.9667 10.7703 -2.6477 0.2306 0 7
-3.1392 10.7213 -2.6477 0.2306 0 7
-3.3109 10.6695 -2.6477 0.2306 0 7
-3.4817 10.6150 -2.6477 0.2306 0 7
-3.6516 10.5577 -2.6477 0.2306 0 7
-3.8206 10.4978 -2.6477 0.2306 0 7
-3.9886 10.4351 -2.6477 0.2306 0 7
-4.1556 10.3697 -2.6477 0.2306 0 7
-4.3215 10.3017 -2.6477 0.2306 0 7
-4.4863 10.2310 -2.6477 0.2306 0 7
-4.6499 10.1577 -2.6477 0.2306 0 7
-4.8124 10.0817 -2.6477 0.2306 0 7
-4.9736 10.0032 -2.6477 0.2306 0 7
-5.1335 9.9221 -2.6477 0.2306 0 7
-5.2921 9.8384 -2.6477 0.2306 0 7
-5.4493 9.7522 -2.6477 0.2306 0 7
-5.6051 9.6635 -2.6477 0.2306 0 7
-5.7595 9.5723 -2.6477 0.2306 0 7
-5.9124 9.4786 -2.6477 0.2306 0 7
-6.0638 9.3825 -2.6477 0.2306 0 7
-6.2136 9.2839 -2.6477 0.2306 0 7
-6.3618 9.1830 -2.6477 0.2306 0 7
-6.5084 9.0797 -2.6477 0.2306 0 7
-6.6533 8.9741 -2.6477 0.2306 0 7
-6.4053 8.3558 -2.4953 0.2306 0 8
-6.5386 8.2519 -2.4953 0.2306 0 8
-6.6702 8.1459 -2.4953 0.2306 0 8
-6.8001 8.0378 -2.4953 0.2306 0 8
-6.9282 7.9276 -2.4953 0.2306 0 8
-7.0546 7.8154 -2.4953 0.2306 0 8
-7.1791 7.7011 -2.4953 0.2306 0 8
-7.3018 7.5849 -2.4953 0.2306 0 8
-7.4226 7.4667 -2.4953 0.2306 0 8
-7.5415 7.3466 -2.4953 0.2306 0 8
-7.6584 7.2247 -2.4953 0.2306 0 8
-7.7734 7.1008 -2.4953 0.2306 0 8
-7.8863 6.9751 -2.4953 0.2306 0 8
-7.9973 6.8476 -2.4953 0.2306 0 8
-8.1062 6.7184 -2.4953 0.2306 0 8
-8.2130 6.5874 -2.4953 0.2306 0 8
-8.3176 6.4547 -2.4953 0.2306 0 8
-8.4202 6.3204 -2.4953 0.2306 0 8
-8.5205 6.1844 -2.4953 0.2306 0 8
-8.6187 6.0469 -2.4953 0.2306 0 8
-8.7146 5.9078 -2.4953 0.2306 0 8
-8.8083 5.7671 -2.4953 0.2306 0 8
-8.8998 5.6250 -2.4953 0.2306 0 8
-8.9889 5.4814 -2.4953 0.2306 0 8
-9.0757 5.3365 -2.4953 0.2306 0 8
-9.1602 5.1901 -2.4953 0.2306 0 8
-9.2423 5.0424 -2.4953 0.2306 0 8
-9.3221 4.8934 -2.4953 0.2306 0 8
-9.3994 4.7431 -2.4953 0.2306 0 8
-9.4744 4.5917 -2.4953 0.2306 0 8
-9.5468 4.4390 -2.4953 0.2306 0 8
-9.6168 4.2852 -2.4953 0.2306 0 8
-9.6844 4.1303 -2.4953 0.2306 0 8
-9.7494 3.9743 -2.4953 0.2306 0 8
-9.8120 3.8173 -2.4953 0.2306 0 8
-9.8720 3.6593 -2.4953 0.2306 0 8
0.2169 10.7695 -2.6477 0.2387 0 7
0.0440 10.7716 -2.6477 0.2387 0 7
-0.1289 10.7709 -2.6477 0.2387 0 7
-0.3017 10.7674 -2.6477 0.2387 0 7
-0.4745 10.7612 -2.6477 0.2387 0 7
-0.6472 10.7522 -2.6477 0.2387 0 7
-0.8197 10.7404 -2.6477 0.2387 0 7
-0.9920 10.7259 -2.6477 0.2387 0 7
-1.1640 10.7086 -2.6477 0.2387 0 7
-1.3357 10.6885 -2.6477 0.2387 0 7
-1.5071 10.6657 -2.6477 0.2387 0 7
-1.6781 10.6401 -2.6477 0.2387 0 7
-1.8487 10.6118 -2.6477 0.2387 0 7
-2.0188 10.5808 -2.6477 0.2387 0 7
-2.1883 10.5470 -2.6477 0.2387 0 7
-2.3573 10.5105 -2.6477 0.2387 0 7
-2.5257 10.4714 -2.6477 0.2387 0 7
-2.6935 10.4295 -2.6477 0.2387 0 7
-2.8605 10.3849 -2.6477 0.2387 0 7
-3.0269 10.3376 -2.6477 0.2387 0 7
-3.1924 10.2877 -2.6477 0.2387 0 7
-3.3571 10.2352 -2.6477 0.2387 0 7
-3.5209 10.1800 -2.6477 0.2387 0 7
-3.6839 10.1221 -2.6477 0.2387 0 7
-3.8459 10.0617 -2.6477 0.2387 0 7
-4.0069 9.9987 -2.6477 0.2387 0 7
-4.1669 9.9331 -2.6477 0.2387 0 7
-4.3257 9.8649 -2.6477 0.2387 0 7
-4.4835 9.7942 -2.6477 0.2387 0 7
-4.6402 9.7210 -2.6477 0.2387 0 7
-4.7956 9.6453 -2.6477 0.2387 0 7
-4.9498 9.5670 -2.6477 0.2387 0 7
-5.1027 9.4864 -2.6477 0.2387 0 7
-5.2543 9.4032 -2.6477 0.2387 0 7
-5.4046 9.3177 -2.6477 0.2387 0 7
-5.5534 9.2297 -2.6477 0.2387 0 7
-5.7009 9.1394 -2.6477 0.2387 0 7
-5.8468 9.0467 -2.6477 0.2387 0 7
-5.9913 8.9517 -2.6477 0.2387 0 7
-5.7811 8.3447 -2.4953 0.2387 0 8
-5.9143 8.2509 -2.4953 0.2387 0 8
-6.0460 8.1549 -2.4953 0.2387 0 8
-6.1761 8.0568 -2.4953 0.2387 0 8
-6.3046 7.9566 -2.4953 0.2387 0 8
-6.4315 7.8544 -2.4953 0.2387 0 8
-6.5567 7.7502 -2.4953 0.2387 0 8
-6.6803 7.6439 -2.4953 0.2387 0 8
-6.8021 7.5357 -2.4953 0.2387 0 8
-6.9222 7.4256 -2.4953 0.2387 0 8
-7.0405 7.3135 -2.4953 0.2387 0 8
-7.1570 7.1996 -2.4953 0.2387 0 8
-7.2716 7.0838 -2.4953 0.2387 0 8
-7.3844 6.9661 -2.4953 0.2387 0 8
-7.4952 6.8467 -2.4953 0.2387 0 8
-7.6041 6.7255 -2.4953 0.2387 0 8
-7.7111 6.6026 -2.4953 0.2387 0 8
-7.8161 6.4780 -2.4953 0.2387 0 8
-7.9191 6.3517 -2.4953 0.2387 0 8
-8.0200 6.2238 -2.4953 0.2387 0 8
-8.1189 6.0942 -2.4953 0.2387 0 8
-8.2156 5.9631 -2.4953 0.2387 0 8
-8.3103 5.8305 -2.4953 0.2387 0 8
-8.4028 5.6964 -2.4953 0.2387 0 8
-8.4932 5.5608 -2.4953 0.2387 0 8
-8.5813 5.4237 -2.4953 0.2387 0 8
-8.6673 5.2853 -2.4953 0.2387 0 8
-8.7510 5.1455 -2.4953 0.2387 0 8
-8.8324 5.0044 -2.4953 0.2387 0 8
