ply
format ascii 1.0
element vertex 1335
property float32 x
property float32 y
property float32 z
property float32 CosAngle
property uint32 ObjIdx
property uint32 ObjTag
end_header
-38.9813 23.3871 -2.6477 0.0581 0 6
-39.3531 22.7561 -2.6477 0.0581 0 7
-39.7146 22.1191 -2.6477 0.0581 0 7
-40.0658 21.4764 -2.6477 0.0581 0 7
-40.4066 20.8281 -2.6477 0.0581 0 7
-40.7369 20.1744 -2.6477 0.0581 0 7
-41.0567 19.5155 -2.6477 0.0581 0 6
-41.3658 18.8514 -2.6477 0.0581 0 7
-41.6641 18.1825 -2.6477 0.0581 0 7
-41.9516 17.5089 -2.6477 0.0581 0 7
-42.2283 16.8308 -2.6477 0.0581 0 7
-42.4940 16.1482 -2.6477 0.0581 0 7
-42.7486 15.4615 -2.6477 0.0581 0 7
-42.9922 14.7707 -2.6477 0.0581 0 6
-43.2245 14.0762 -2.6477 0.0581 0 7
-43.4457 13.3780 -2.6477 0.0581 0 7
-43.6556 12.6763 -2.6477 0.0581 0 7
-43.8542 11.9713 -2.6477 0.0581 0 7
-44.0414 11.2632 -2.6477 0.0581 0 7
-44.2171 10.5522 -2.6477 0.0581 0 7
-44.3814 9.8385 -2.6477 0.0581 0 7
-44.5341 9.1221 -2.6477 0.0581 0 7
-44.6753 8.4035 -2.6477 0.0581 0 7
-44.8049 7.6826 -2.6477 0.0581 0 7
-44.9229 6.9597 -2.6477 0.0581 0 7
-45.0292 6.2351 -2.6477 0.0581 0 7
-45.1238 5.5088 -2.6477 0.0581 0 7
-45.2067 4.7811 -2.6477 0.0581 0 7
-45.2778 4.0521 -2.6477 0.0581 0 7
-45.3372 3.3221 -2.6477 0.0581 0 7
-45.3849 2.5913 -2.6477 0.0581 0 7
-45.4207 1.8597 -2.6477 0.0581 0 7
-45.4448 1.1277 -2.6477 0.0581 0 7
-45.4571 0.3954 -2.6477 0.0581 0 7
-45.4575 -0.3370 -2.6477 0.0581 0 7
-45.4462 -1.0694 -2.6477 0.0581 0 7
-45.4231 -1.8014 -2.6477 0.0581 0 7
-45.3882 -2.5330 -2.6477 0.0581 0 7
-45.3415 -3.2639 -2.6477 0.0581 0 7
-45.2830 -3.9940 -2.6477 0.0581 0 7
-45.2128 -4.7231 -2.6477 0.0581 0 7
-45.1308 -5.4509 -2.6477 0.0581 0 7
-45.0371 -6.1773 -2.6477 0.0581 0 7
-44.9318 -6.9021 -2.6477 0.0581 0 7
-44.8147 -7.6251 -2.6477 0.0581 0 7
-44.6861 -8.3461 -2.6477 0.0581 0 7
-44.5458 -9.0650 -2.6477 0.0581 0 7
-44.3940 -9.7815 -2.6477 0.0581 0 7
-44.2306 -10.4954 -2.6477 0.0581 0 7
-44.0558 -11.2067 -2.6477 0.0581 0 7
-43.8695 -11.9150 -2.6477 0.0581 0 7
-43.6719 -12.6202 -2.6477 0.0581 0 7
-43.4629 -13.3222 -2.6477 0.0581 0 7
-43.2426 -14.0208 -2.6477 0.0581 0 7
-43.0111 -14.7156 -2.6477 0.0581 0 7
-42.7684 -15.4066 -2.6477 0.0581 0 7
-42.5147 -16.0937 -2.6477 0.0581 0 7
-42.2498 -16.7765 -2.6477 0.0581 0 7
-41.9741 -17.4551 -2.6477 0.0581 0 7
-41.6874 -18.1290 -2.6477 0.0581 0 7
-41.3899 -18.7983 -2.6477 0.0581 0 7
-41.0817 -19.4627 -2.6477 0.0581 0 7
-40.7628 -20.1220 -2.6477 0.0581 0 7
-40.4333 -20.7762 -2.6477 0.0581 0 7
-40.0933 -21.4249 -2.6477 0.0581 0 6
-37.4553 -20.7979 -2.4953 0.0581 0 8
-37.1154 -21.3986 -2.4953 0.0581 0 8
-12.9803 35.1540 -2.4953 0.0664 0 8
-13.5449 34.9403 -2.4953 0.0664 0 8
-14.1061 34.7176 -2.4953 0.0664 0 8
-14.6636 34.4858 -2.4953 0.0664 0 8
-15.2173 34.2451 -2.4953 0.0664 0 8
-15.7671 33.9955 -2.4953 0.0664 0 8
-16.3127 33.7370 -2.4953 0.0664 0 8
-16.8542 33.4698 -2.4953 0.0664 0 8
-17.3912 33.1940 -2.4953 0.0664 0 8
-17.9237 32.9094 -2.4953 0.0664 0 8
-18.5868 32.8554 -2.5136 0.8674 0 8
-19.2885 32.8492 -2.5365 0.8595 0 8
-20.0032 32.8428 -2.5606 0.8514 0 8
-20.7317 32.8361 -2.5858 0.8431 0 8
-21.4747 32.8291 -2.6121 0.8346 0 8
-22.2332 32.8219 -2.6397 0.8259 0 8
-22.8051 32.5250 -2.6451 0.0803 0 8
-23.3492 32.1851 -2.6477 0.0664 0 7
-23.8647 31.8048 -2.6477 0.0664 0 7
-24.3740 31.4162 -2.6477 0.0664 0 7
-24.8770 31.0194 -2.6477 0.0664 0 7
-25.3735 30.6146 -2.6477 0.0664 0 7
-25.8635 30.2018 -2.6477 0.0664 0 7
-26.3467 29.7812 -2.6477 0.0664 0 7
-26.8231 29.3529 -2.6477 0.0664 0 7
-27.2925 28.9169 -2.6477 0.0664 0 7
-27.7548 28.4734 -2.6477 0.0664 0 7
-28.2100 28.0226 -2.6477 0.0664 0 7
-28.6578 27.5644 -2.6477 0.0664 0 7
-29.0982 27.0992 -2.6477 0.0664 0 7
-29.5310 26.6269 -2.6477 0.0664 0 7
-29.9561 26.1476 -2.6477 0.0664 0 7
-30.3735 25.6616 -2.6477 0.0664 0 7
-30.7830 25.1689 -2.6477 0.0664 0 7
-31.1845 24.6697 -2.6477 0.0664 0 7
-31.5779 24.1640 -2.6477 0.0664 0 7
-31.9631 23.6522 -2.6477 0.0664 0 7
-30.5716 21.8691 -2.5029 0.0664 0 14
-30.9200 21.3738 -2.5029 0.0664 0 14
-31.2603 20.8729 -2.5029 0.0664 0 14
-31.5926 20.3665 -2.5029 0.0664 0 14
-31.9166 19.8548 -2.5029 0.0664 0 14
-34.0968 20.4566 -2.6477 0.0664 0 7
-34.4220 19.9047 -2.6477 0.0664 0 7
-34.7382 19.3475 -2.6477 0.0664 0 7
-35.0454 18.7853 -2.6477 0.0664 0 7
-35.3435 18.2182 -2.6477 0.0664 0 7
-35.6324 17.6464 -2.6477 0.0664 0 7
-35.9121 17.0701 -2.6477 0.0664 0 7
-36.1825 16.4893 -2.6477 0.0664 0 7
-36.4434 15.9042 -2.6477 0.0664 0 7
-36.6949 15.3150 -2.6477 0.0664 0 7
-36.9369 14.7218 -2.6477 0.0664 0 6
-37.1693 14.1248 -2.6477 0.0664 0 7
-37.3921 13.5241 -2.6477 0.0664 0 7
-37.6051 12.9199 -2.6477 0.0664 0 7
-37.8084 12.3124 -2.6477 0.0664 0 7
-38.0018 11.7017 -2.6477 0.0664 0 6
-38.1854 11.0879 -2.6477 0.0664 0 7
-38.3591 10.4713 -2.6477 0.0664 0 7
-38.5228 9.8519 -2.6477 0.0664 0 7
-38.6765 9.2300 -2.6477 0.0664 0 7
-38.8202 8.6057 -2.6477 0.0664 0 7
-38.9538 7.9791 -2.6477 0.0664 0 7
-39.0773 7.3505 -2.6477 0.0664 0 7
-39.1907 6.7199 -2.6477 0.0664 0 7
-39.2939 6.0877 -2.6477 0.0664 0 7
-39.3868 5.4538 -2.6477 0.0664 0 7
-39.4696 4.8185 -2.6477 0.0664 0 7
-39.5421 4.1820 -2.6477 0.0664 0 6
-39.6044 3.5444 -2.6477 0.0664 0 6
-39.6563 2.9059 -2.6477 0.0664 0 6
-39.6980 2.2666 -2.6477 0.0664 0 6
-37.4425 1.5331 -2.4953 0.0664 0 8
-37.4624 0.9296 -2.4953 0.0664 0 8
-37.4725 0.3260 -2.4953 0.0664 0 8
-37.4729 -0.2778 -2.4953 0.0664 0 8
-37.4635 -0.8815 -2.4953 0.0664 0 8
-37.4445 -1.4850 -2.4953 0.0664 0 8
-37.4157 -2.0881 -2.4953 0.0664 0 8
-37.3772 -2.6906 -2.4953 0.0664 0 8
-37.3290 -3.2925 -2.4953 0.0664 0 8
-37.2711 -3.8934 -2.4953 0.0664 0 8
-37.2035 -4.4934 -2.4953 0.0664 0 8
-37.1263 -5.0922 -2.4953 0.0664 0 8
-37.0395 -5.6897 -2.4953 0.0664 0 8
-36.9430 -6.2857 -2.4953 0.0664 0 8
-36.8369 -6.8801 -2.4953 0.0664 0 8
-36.7213 -7.4727 -2.4953 0.0664 0 8
-36.5961 -8.0633 -2.4953 0.0664 0 8
-36.4615 -8.6519 -2.4953 0.0664 0 8
-36.3173 -9.2382 -2.4953 0.0664 0 8
-36.1638 -9.8221 -2.4953 0.0664 0 8
-36.0009 -10.4035 -2.4953 0.0664 0 8
-35.8286 -10.9821 -2.4953 0.0664 0 8
-35.6470 -11.5580 -2.4953 0.0664 0 8
-35.4561 -12.1308 -2.4953 0.0664 0 8
-35.2561 -12.7004 -2.4953 0.0664 0 8
-35.0469 -13.2668 -2.4953 0.0664 0 8
-34.8286 -13.8297 -2.4953 0.0664 0 8
-34.6013 -14.3891 -2.4953 0.0664 0 8
-34.3650 -14.9446 -2.4953 0.0664 0 8
-34.1197 -15.4964 -2.4953 0.0664 0 8
-33.8656 -16.0441 -2.4953 0.0664 0 8
-33.6028 -16.5876 -2.4953 0.0664 0 8
-33.3311 -17.1268 -2.4953 0.0664 0 8
-33.0509 -17.6616 -2.4953 0.0664 0 8
-32.7620 -18.1918 -2.4953 0.0664 0 8
-32.4647 -18.7173 -2.4953 0.0664 0 8
-12.1306 32.8528 -2.6244 0.9344 0 8
-12.7336 32.8474 -2.6401 0.0905 0 8
-13.2758 32.6740 -2.6430 0.0904 0 8
-13.8164 32.4932 -2.6460 0.0903 0 8
-14.3470 32.2866 -2.6477 0.0747 0 7
-14.8654 32.0513 -2.6477 0.0747 0 7
-15.3798 31.8076 -2.6477 0.0747 0 7
-15.8903 31.5557 -2.6477 0.0747 0 7
-16.3966 31.2956 -2.6477 0.0747 0 7
-16.8987 31.0273 -2.6477 0.0747 0 7
-17.3964 30.7511 -2.6477 0.0747 0 7
-17.8896 30.4668 -2.6477 0.0747 0 7
-18.3781 30.1746 -2.6477 0.0747 0 7
-18.8619 29.8746 -2.6477 0.0747 0 6
-19.3407 29.5668 -2.6477 0.0747 0 7
-19.8146 29.2514 -2.6477 0.0747 0 7
-20.2833 28.9284 -2.6477 0.0747 0 7
-20.7467 28.5978 -2.6477 0.0747 0 7
-21.2047 28.2599 -2.6477 0.0747 0 7
-21.6573 27.9145 -2.6477 0.0747 0 7
-22.1042 27.5620 -2.6477 0.0747 0 7
-22.5454 27.2023 -2.6477 0.0747 0 7
-22.9807 26.8356 -2.6477 0.0747 0 7
-23.4101 26.4618 -2.6477 0.0747 0 7
-23.8334 26.0812 -2.6477 0.0747 0 7
-24.2505 25.6939 -2.6477 0.0747 0 7
-24.6613 25.2998 -2.6477 0.0747 0 7
-25.0657 24.8992 -2.6477 0.0747 0 7
-25.4636 24.4921 -2.6477 0.0747 0 7
-25.8549 24.0787 -2.6477 0.0747 0 7
-26.2395 23.6591 -2.6477 0.0747 0 7
-25.1618 21.9628 -2.5029 0.0747 0 14
-25.5123 21.5545 -2.5029 0.0747 0 14
-25.8563 21.1407 -2.5029 0.0747 0 14
-26.1936 20.7214 -2.5029 0.0747 0 14
-26.5240 20.2967 -2.5029 0.0747 0 14
-26.8476 19.8667 -2.5029 0.0747 0 14
-27.1642 19.4316 -2.5029 0.0747 0 14
-27.4737 18.9915 -2.5029 0.0747 0 8
-28.2669 18.8741 -2.5471 0.5604 0 8
-29.2557 18.8600 -2.6085 0.5472 0 8
-29.9996 18.6623 -2.6477 0.0747 0 7
-30.2964 18.1766 -2.6477 0.0747 0 7
-30.5853 17.6861 -2.6477 0.0747 0 7
-30.8663 17.1910 -2.6477 0.0747 0 6
-31.1393 16.6915 -2.6477 0.0747 0 7
-31.4042 16.1876 -2.6477 0.0747 0 7
-31.6609 15.6796 -2.6477 0.0747 0 7
-31.9094 15.1675 -2.6477 0.0747 0 7
-32.1496 14.6514 -2.6477 0.0747 0 7
-32.3815 14.1315 -2.6477 0.0747 0 7
-32.6050 13.6080 -2.6477 0.0747 0 7
-32.8200 13.0809 -2.6477 0.0747 0 7
-33.0265 12.5505 -2.6477 0.0747 0 7
-33.2244 12.0167 -2.6477 0.0747 0 7
-33.4137 11.4799 -2.6477 0.0747 0 7
-33.5943 10.9401 -2.6477 0.0747 0 7
-33.7662 10.3974 -2.6477 0.0747 0 7
-33.9293 9.8520 -2.6477 0.0747 0 7
-34.0836 9.3042 -2.6477 0.0747 0 7
-34.2291 8.7538 -2.6477 0.0747 0 7
-32.3876 7.7292 -2.4953 0.0747 0 8
-32.5079 7.2063 -2.4953 0.0747 0 8
-32.6198 6.6816 -2.4953 0.0747 0 8
-32.7232 6.1552 -2.4953 0.0747 0 8
-32.8181 5.6272 -2.4953 0.0747 0 8
-32.9045 5.0978 -2.4953 0.0747 0 8
-32.9824 4.5670 -2.4953 0.0747 0 8
-33.0517 4.0350 -2.4953 0.0747 0 8
-33.1124 3.5020 -2.4953 0.0747 0 8
-33.1646 2.9681 -2.4953 0.0747 0 8
-33.2081 2.4333 -2.4953 0.0747 0 8
-33.2430 1.8980 -2.4953 0.0747 0 8
-33.2693 1.3622 -2.4953 0.0747 0 8
-33.2869 0.8260 -2.4953 0.0747 0 8
-33.2958 0.2896 -2.4953 0.0747 0 8
-33.2962 -0.2469 -2.4953 0.0747 0 8
-33.2879 -0.7833 -2.4953 0.0747 0 8
-33.2709 -1.3195 -2.4953 0.0747 0 8
-33.2454 -1.8553 -2.4953 0.0747 0 8
-33.2112 -2.3907 -2.4953 0.0747 0 8
-33.1683 -2.9255 -2.4953 0.0747 0 8
-33.1169 -3.4595 -2.4953 0.0747 0 8
-33.0569 -3.9926 -2.4953 0.0747 0 8
-32.9882 -4.5247 -2.4953 0.0747 0 8
-32.9111 -5.0555 -2.4953 0.0747 0 8
-32.8253 -5.5851 -2.4953 0.0747 0 8
-32.7311 -6.1133 -2.4953 0.0747 0 8
-32.6284 -6.6398 -2.4953 0.0747 0 8
-32.5172 -7.1646 -2.4953 0.0747 0 8
-32.3975 -7.6876 -2.4953 0.0747 0 8
-32.2694 -8.2086 -2.4953 0.0747 0 8
-32.1330 -8.7274 -2.4953 0.0747 0 8
-31.9882 -9.2439 -2.4953 0.0747 0 8
-31.8351 -9.7581 -2.4953 0.0747 0 8
-31.6738 -10.2697 -2.4953 0.0747 0 8
-31.5042 -10.7787 -2.4953 0.0747 0 8
-31.3265 -11.2855 -2.4953 0.0747 0 8
-31.1406 -11.7878 -2.4953 0.0747 0 8
-30.9466 -12.2883 -2.4953 0.0747 0 8
-30.7446 -12.7853 -2.4953 0.0747 0 8
-30.5347 -13.2789 -2.4953 0.0747 0 8
-30.3168 -13.7692 -2.4953 0.0747 0 8
-30.0910 -14.2558 -2.4953 0.0747 0 8
-29.8574 -14.7387 -2.4953 0.0747 0 8
-29.6161 -15.2179 -2.4953 0.0747 0 8
-29.3671 -15.6931 -2.4953 0.0747 0 8
-29.1104 -16.1642 -2.4953 0.0747 0 8
-28.8462 -16.6311 -2.4953 0.0747 0 8
-11.0093 29.8161 -2.6477 0.0830 0 7
-11.4882 29.6348 -2.6477 0.0830 0 7
-11.9642 29.4459 -2.6477 0.0830 0 7
-12.4370 29.2493 -2.6477 0.0830 0 7
-12.9067 29.0452 -2.6477 0.0830 0 7
-13.3729 28.8335 -2.6477 0.0830 0 7
-13.8357 28.6142 -2.6477 0.0830 0 7
-14.2949 28.3876 -2.6477 0.0830 0 7
-14.7505 28.1536 -2.6477 0.0830 0 7
-15.2021 27.9123 -2.6477 0.0830 0 7
-15.6499 27.6638 -2.6477 0.0830 0 7
-16.0935 27.4080 -2.6477 0.0830 0 7
-16.5330 27.1452 -2.6477 0.0830 0 7
-16.9682 26.8753 -2.6477 0.0830 0 7
-17.3990 26.5985 -2.6477 0.0830 0 7
-17.8253 26.3147 -2.6477 0.0830 0 7
-18.2469 26.0241 -2.6477 0.0830 0 7
-18.6638 25.7267 -2.6477 0.0830 0 7
-19.0759 25.4227 -2.6477 0.0830 0 7
-19.4830 25.1121 -2.6477 0.0830 0 7
-19.8850 24.7949 -2.6477 0.0830 0 7
-20.2819 24.4713 -2.6477 0.0830 0 7
-20.6736 24.1414 -2.6477 0.0830 0 7
-21.0598 23.8052 -2.6477 0.0830 0 7
-20.2682 22.1798 -2.5029 0.0830 0 14
-20.6229 21.8504 -2.5029 0.0830 0 14
-20.9723 21.5153 -2.5029 0.0830 0 14
-21.3162 21.1746 -2.5029 0.0830 0 14
-21.6546 20.8284 -2.5029 0.0830 0 14
-21.9873 20.4768 -2.5029 0.0830 0 14
-22.3144 20.1200 -2.5029 0.0830 0 14
-22.6356 19.7578 -2.5029 0.0830 0 14
-22.9510 19.3906 -2.5029 0.0830 0 14
-23.2605 19.0183 -2.5029 0.0830 0 8
-23.8764 18.8883 -2.5361 0.6252 0 8
-24.6682 18.8766 -2.5875 0.6128 0 8
-25.4928 18.8642 -2.6418 0.6002 0 8
-25.8506 18.4919 -2.6477 0.0830 0 7
-26.1451 18.0731 -2.6477 0.0830 0 7
-26.4329 17.6495 -2.6477 0.0830 0 7
-26.7138 17.2213 -2.6477 0.0830 0 7
-26.9878 16.7887 -2.6477 0.0830 0 7
-27.2548 16.3517 -2.6477 0.0830 0 7
-27.5147 15.9105 -2.6477 0.0830 0 7
-27.7675 15.4651 -2.6477 0.0830 0 7
-28.0130 15.0158 -2.6477 0.0830 0 7
-28.2513 14.5625 -2.6477 0.0830 0 7
-28.4823 14.1054 -2.6477 0.0830 0 7
-28.7058 13.6447 -2.6477 0.0830 0 7
-28.9219 13.1805 -2.6477 0.0830 0 7
-29.1305 12.7128 -2.6477 0.0830 0 7
-29.3316 12.2418 -2.6477 0.0830 0 7
-29.5250 11.7677 -2.6477 0.0830 0 7
-29.7107 11.2904 -2.6477 0.0830 0 6
-29.8888 10.8103 -2.6477 0.0830 0 7
-30.0591 10.3274 -2.6477 0.0830 0 7
-30.2216 9.8417 -2.6477 0.0830 0 7
-30.3762 9.3536 -2.6477 0.0830 0 7
-28.7661 8.3528 -2.4953 0.0830 0 8
-28.8969 7.8883 -2.4953 0.0830 0 8
-29.0202 7.4217 -2.4953 0.0830 0 8
-29.1360 6.9532 -2.4953 0.0830 0 8
-29.2443 6.4829 -2.4953 0.0830 0 8
-29.3449 6.0109 -2.4953 0.0830 0 8
-29.4380 5.5373 -2.4953 0.0830 0 8
-29.5233 5.0623 -2.4953 0.0830 0 8
-29.6011 4.5860 -2.4953 0.0830 0 8
-29.6711 4.1085 -2.4953 0.0830 0 8
-29.7335 3.6299 -2.4953 0.0830 0 8
-29.7881 3.1504 -2.4953 0.0830 0 8
-29.8350 2.6701 -2.4953 0.0830 0 8
-29.8741 2.1891 -2.4953 0.0830 0 8
-29.9055 1.7075 -2.4953 0.0830 0 8
-29.9291 1.2254 -2.4953 0.0830 0 8
-29.9450 0.7431 -2.4953 0.0830 0 8
-29.9531 0.2605 -2.4953 0.0830 0 8
-29.9534 -0.2221 -2.4953 0.0830 0 8
-29.9459 -0.7047 -2.4953 0.0830 0 8
-29.9307 -1.1870 -2.4953 0.0830 0 8
-29.9077 -1.6691 -2.4953 0.0830 0 8
-29.8769 -2.1507 -2.4953 0.0830 0 8
-29.8384 -2.6318 -2.4953 0.0830 0 8
-29.7921 -3.1122 -2.4953 0.0830 0 8
-29.7381 -3.5918 -2.4953 0.0830 0 8
-29.6764 -4.0704 -2.4953 0.0830 0 8
-29.6069 -4.5480 -2.4953 0.0830 0 8
-29.5298 -5.0244 -2.4953 0.0830 0 8
-29.4450 -5.4995 -2.4953 0.0830 0 8
-29.3526 -5.9732 -2.4953 0.0830 0 8
-29.2526 -6.4453 -2.4953 0.0830 0 8
-29.1449 -6.9158 -2.4953 0.0830 0 8
-29.0297 -7.3845 -2.4953 0.0830 0 8
-28.9070 -7.8512 -2.4953 0.0830 0 8
-28.7768 -8.3159 -2.4953 0.0830 0 8
-28.6390 -8.7784 -2.4953 0.0830 0 8
-28.4939 -9.2387 -2.4953 0.0830 0 8
-28.3413 -9.6966 -2.4953 0.0830 0 8
-28.1814 -10.1519 -2.4953 0.0830 0 8
-28.0142 -10.6046 -2.4953 0.0830 0 8
-27.8397 -11.0546 -2.4953 0.0830 0 8
-27.6580 -11.5017 -2.4953 0.0830 0 8
-27.4691 -11.9458 -2.4953 0.0830 0 8
-27.2731 -12.3868 -2.4953 0.0830 0 8
-27.0700 -12.8246 -2.4953 0.0830 0 8
-26.8599 -13.2590 -2.4953 0.0830 0 8
-26.6428 -13.6901 -2.4953 0.0830 0 8
-26.4187 -14.1176 -2.4953 0.0830 0 8
-26.1879 -14.5414 -2.4953 0.0830 0 8
-25.9502 -14.9614 -2.4953 0.0830 0 8
-10.0036 27.0924 -2.6477 0.0913 0 7
-10.4388 26.9277 -2.6477 0.0913 0 7
-10.8713 26.7560 -2.6477 0.0913 0 7
-11.3009 26.5774 -2.6477 0.0913 0 7
-11.7276 26.3919 -2.6477 0.0913 0 7
-12.1513 26.1995 -2.6477 0.0913 0 7
-12.5719 26.0003 -2.6477 0.0913 0 7
-12.9891 25.7944 -2.6477 0.0913 0 7
-13.4030 25.5818 -2.6477 0.0913 0 7
-13.8134 25.3626 -2.6477 0.0913 0 7
-14.2202 25.1367 -2.6477 0.0913 0 7
-14.6234 24.9043 -2.6477 0.0913 0 7
-15.0227 24.6655 -2.6477 0.0913 0 7
-15.4182 24.4203 -2.6477 0.0913 0 7
-15.8096 24.1687 -2.6477 0.0913 0 7
-16.1969 23.9109 -2.6477 0.0913 0 7
-15.6734 22.3537 -2.5029 0.0913 0 8
-16.0316 22.0983 -2.5029 0.0913 0 14
-16.3855 21.8372 -2.5029 0.0913 0 14
-16.7352 21.5703 -2.5029 0.0913 0 14
-17.0805 21.2979 -2.5029 0.0913 0 14
-17.4214 21.0200 -2.5029 0.0913 0 14
-17.7578 20.7366 -2.5029 0.0913 0 14
-18.0896 20.4478 -2.5029 0.0913 0 14
-18.4167 20.1537 -2.5029 0.0913 0 14
-18.7390 19.8543 -2.5029 0.0913 0 14
-19.0565 19.5499 -2.5029 0.0913 0 14
-19.3690 19.2403 -2.5029 0.0913 0 14
-19.6764 18.9258 -2.5029 0.0913 0 8
-20.2912 18.8972 -2.5420 0.6859 0 8
-20.9472 18.8873 -2.5858 0.6743 0 8
-21.6264 18.8769 -2.6317 0.6626 0 8
-22.0608 18.6384 -2.6477 0.0913 0 7
-22.3582 18.2806 -2.6477 0.0913 0 7
-22.6498 17.9180 -2.6477 0.0913 0 7
-22.9356 17.5507 -2.6477 0.0913 0 7
-23.2154 17.1790 -2.6477 0.0913 0 7
-23.4891 16.8027 -2.6477 0.0913 0 7
-23.7568 16.4221 -2.6477 0.0913 0 7
-24.0183 16.0372 -2.6477 0.0913 0 7
-24.2735 15.6482 -2.6477 0.0913 0 7
-24.5225 15.2551 -2.6477 0.0913 0 7
-24.7651 14.8580 -2.6477 0.0913 0 7
-25.0012 14.4571 -2.6477 0.0913 0 7
-25.2309 14.0524 -2.6477 0.0913 0 7
-25.4540 13.6441 -2.6477 0.0913 0 7
-25.6706 13.2322 -2.6477 0.0913 0 7
-25.8804 12.8169 -2.6477 0.0913 0 7
-26.0836 12.3983 -2.6477 0.0913 0 7
-26.2799 11.9764 -2.6477 0.0913 0 7
-26.4695 11.5515 -2.6477 0.0913 0 7
-26.6521 11.1235 -2.6477 0.0913 0 7
-26.8279 10.6927 -2.6477 0.0913 0 7
-26.9967 10.2591 -2.6477 0.0913 0 7
-27.1585 9.8228 -2.6477 0.0913 0 7
-27.3132 9.3840 -2.6477 0.0913 0 7
-27.4608 8.9427 -2.6477 0.0913 0 7
-26.0126 8.0099 -2.4953 0.0913 0 8
-26.1383 7.5898 -2.4953 0.0913 0 8
-26.2572 7.1677 -2.4953 0.0913 0 8
-26.3692 6.7437 -2.4953 0.0913 0 8
-26.4745 6.3180 -2.4953 0.0913 0 8
-26.5728 5.8907 -2.4953 0.0913 0 8
-26.6643 5.4618 -2.4953 0.0913 0 8
-26.7488 5.0315 -2.4953 0.0913 0 8
-26.8264 4.5999 -2.4953 0.0913 0 8
-26.8970 4.1670 -2.4953 0.0913 0 8
-26.9607 3.7332 -2.4953 0.0913 0 8
-27.0173 3.2983 -2.4953 0.0913 0 8
-27.0670 2.8626 -2.4953 0.0913 0 8
-27.1096 2.4262 -2.4953 0.0913 0 8
-27.1451 1.9891 -2.4953 0.0913 0 8
-27.1737 1.5515 -2.4953 0.0913 0 8
-27.1951 1.1135 -2.4953 0.0913 0 8
-27.2095 0.6752 -2.4953 0.0913 0 8
-27.2169 0.2367 -2.4953 0.0913 0 8
-27.2172 -0.2018 -2.4953 0.0913 0 8
-27.2104 -0.6403 -2.4953 0.0913 0 8
-27.1965 -1.0786 -2.4953 0.0913 0 8
-27.1756 -1.5166 -2.4953 0.0913 0 8
-27.1477 -1.9542 -2.4953 0.0913 0 8
-27.1127 -2.3914 -2.4953 0.0913 0 8
-27.0706 -2.8279 -2.4953 0.0913 0 8
-27.0215 -3.2636 -2.4953 0.0913 0 8
-26.9655 -3.6986 -2.4953 0.0913 0 8
-26.9024 -4.1325 -2.4953 0.0913 0 8
-26.8323 -4.5654 -2.4953 0.0913 0 8
-26.7552 -4.9971 -2.4953 0.0913 0 8
-26.6713 -5.4275 -2.4953 0.0913 0 8
-26.5804 -5.8565 -2.4953 0.0913 0 8
-26.4826 -6.2840 -2.4953 0.0913 0 8
-26.3779 -6.7099 -2.4953 0.0913 0 8
-26.2663 -7.1340 -2.4953 0.0913 0 8
-26.1480 -7.5562 -2.4953 0.0913 0 8
-26.0229 -7.9765 -2.4953 0.0913 0 8
-25.8910 -8.3948 -2.4953 0.0913 0 8
-25.7524 -8.8108 -2.4953 0.0913 0 8
-25.6071 -9.2245 -2.4953 0.0913 0 8
-25.4551 -9.6359 -2.4953 0.0913 0 8
-25.2966 -10.0448 -2.4953 0.0913 0 8
-25.1315 -10.4510 -2.4953 0.0913 0 8
-24.9598 -10.8545 -2.4953 0.0913 0 8
-24.7817 -11.2553 -2.4953 0.0913 0 8
-24.5972 -11.6531 -2.4953 0.0913 0 8
-24.4062 -12.0478 -2.4953 0.0913 0 8
-24.2090 -12.4395 -2.4953 0.0913 0 8
-24.0054 -12.8279 -2.4953 0.0913 0 8
-23.7956 -13.2130 -2.4953 0.0913 0 8
-23.5796 -13.5947 -2.4953 0.0913 0 8
-9.1651 24.8215 -2.6477 0.0996 0 7
-9.5638 24.6706 -2.6477 0.0996 0 7
-9.9600 24.5133 -2.6477 0.0996 0 7
-10.3537 24.3497 -2.6477 0.0996 0 7
-10.7446 24.1797 -2.6477 0.0996 0 7
-11.1328 24.0035 -2.6477 0.0996 0 7
-11.5181 23.8210 -2.6477 0.0996 0 7
-11.2496 22.3401 -2.5029 0.0996 0 8
-11.6081 22.1559 -2.5029 0.0996 0 14
-11.9635 21.9660 -2.5029 0.0996 0 14
-12.3159 21.7704 -2.5029 0.0996 0 14
-12.6650 21.5692 -2.5029 0.0996 0 14
-13.0109 21.3623 -2.5029 0.0996 0 14
-13.3534 21.1499 -2.5029 0.0996 0 14
-13.6924 20.9321 -2.5029 0.0996 0 14
-14.0279 20.7087 -2.5029 0.0996 0 14
-14.3597 20.4800 -2.5029 0.0996 0 14
-14.6878 20.2460 -2.5029 0.0996 0 14
-15.0121 20.0068 -2.5029 0.0996 0 14
-15.3324 19.7623 -2.5029 0.0996 0 14
-15.6488 19.5127 -2.5029 0.0996 0 14
-15.9612 19.2581 -2.5029 0.0996 0 14
-16.2694 18.9984 -2.5029 0.0996 0 8
-16.7292 18.9100 -2.5264 0.7527 0 8
-17.2728 18.9018 -2.5622 0.7422 0 8
-17.8320 18.8933 -2.5996 0.7315 0 8
-18.4079 18.8845 -2.6389 0.7206 0 8
-18.7719 18.6472 -2.6477 0.0996 0 7
-19.0699 18.3424 -2.6477 0.0996 0 6
-19.3630 18.0327 -2.6477 0.0996 0 7
-19.6510 17.7185 -2.6477 0.0996 0 7
-19.9339 17.3996 -2.6477 0.0996 0 7
-20.2116 17.0762 -2.6477 0.0996 0 7
-20.4841 16.7483 -2.6477 0.0996 0 7
-20.7513 16.4161 -2.6477 0.0996 0 7
-21.0131 16.0796 -2.6477 0.0996 0 7
-21.2694 15.7390 -2.6477 0.0996 0 7
-21.5203 15.3943 -2.6477 0.0996 0 7
-21.7655 15.0456 -2.6477 0.0996 0 7
-22.0050 14.6930 -2.6477 0.0996 0 7
-22.2389 14.3365 -2.6477 0.0996 0 7
-22.4670 13.9764 -2.6477 0.0996 0 7
-22.6893 13.6126 -2.6477 0.0996 0 7
-22.9056 13.2453 -2.6477 0.0996 0 7
-23.1161 12.8745 -2.6477 0.0996 0 7
-23.3205 12.5004 -2.6477 0.0996 0 7
-23.5189 12.1231 -2.6477 0.0996 0 7
-23.7111 11.7426 -2.6477 0.0996 0 7
-23.8972 11.3590 -2.6477 0.0996 0 6
-24.0771 10.9726 -2.6477 0.0996 0 7
-24.2508 10.5832 -2.6477 0.0996 0 7
-24.4182 10.1911 -2.6477 0.0996 0 7
-24.5792 9.7964 -2.6477 0.0996 0 7
-24.7338 9.3992 -2.6477 0.0996 0 7
-24.8820 8.9994 -2.6477 0.0996 0 7
-23.5834 8.1025 -2.4953 0.0996 0 8
-23.7109 7.7215 -2.4953 0.0996 0 8
-23.8322 7.3385 -2.4953 0.0996 0 8
-23.9474 6.9536 -2.4953 0.0996 0 8
-24.0563 6.5669 -2.4953 0.0996 0 8
-24.1590 6.1785 -2.4953 0.0996 0 8
-24.2554 5.7884 -2.4953 0.0996 0 8
-24.3455 5.3969 -2.4953 0.0996 0 8
-24.4293 5.0040 -2.4953 0.0996 0 8
-24.5067 4.6097 -2.4953 0.0996 0 8
-24.5778 4.2143 -2.4953 0.0996 0 8
-24.6425 3.8178 -2.4953 0.0996 0 8
-24.7008 3.4203 -2.4953 0.0996 0 8
-24.7527 3.0219 -2.4953 0.0996 0 8
-24.7982 2.6227 -2.4953 0.0996 0 8
-24.8372 2.2228 -2.4953 0.0996 0 8
-24.8698 1.8224 -2.4953 0.0996 0 8
-24.8960 1.4214 -2.4953 0.0996 0 8
-24.9156 1.0202 -2.4953 0.0996 0 8
-24.9288 0.6186 -2.4953 0.0996 0 8
-24.9355 0.2169 -2.4953 0.0996 0 8
-24.9358 -0.1849 -2.4953 0.0996 0 8
-24.9296 -0.5866 -2.4953 0.0996 0 8
-24.9169 -0.9882 -2.4953 0.0996 0 8
-24.8978 -1.3895 -2.4953 0.0996 0 8
-24.8721 -1.7904 -2.4953 0.0996 0 8
-24.8401 -2.1909 -2.4953 0.0996 0 8
-24.8015 -2.5908 -2.4953 0.0996 0 8
-24.7566 -2.9901 -2.4953 0.0996 0 8
-24.7052 -3.3886 -2.4953 0.0996 0 8
-24.6474 -3.7861 -2.4953 0.0996 0 8
-24.5832 -4.1827 -2.4953 0.0996 0 8
-24.5126 -4.5783 -2.4953 0.0996 0 8
-24.4357 -4.9726 -2.4953 0.0996 0 8
-24.3524 -5.3656 -2.4953 0.0996 0 8
-24.2628 -5.7573 -2.4953 0.0996 0 8
-24.1669 -6.1475 -2.4953 0.0996 0 8
-24.0647 -6.5360 -2.4953 0.0996 0 8
-23.9563 -6.9229 -2.4953 0.0996 0 8
-23.8416 -7.3079 -2.4953 0.0996 0 8
-23.7208 -7.6911 -2.4953 0.0996 0 8
-23.5938 -8.0723 -2.4953 0.0996 0 8
-23.4607 -8.4513 -2.4953 0.0996 0 8
-23.3215 -8.8282 -2.4953 0.0996 0 8
-23.1762 -9.2028 -2.4953 0.0996 0 8
-23.0250 -9.5750 -2.4953 0.0996 0 8
-22.8677 -9.9447 -2.4953 0.0996 0 8
-22.7045 -10.3119 -2.4953 0.0996 0 8
-22.5354 -10.6763 -2.4953 0.0996 0 8
-22.3605 -11.0380 -2.4953 0.0996 0 8
-22.1798 -11.3968 -2.4953 0.0996 0 8
-21.9933 -11.7527 -2.4953 0.0996 0 8
-21.8010 -12.1055 -2.4953 0.0996 0 8
-21.6032 -12.4552 -2.4953 0.0996 0 8
-7.9928 21.6467 -2.5029 0.1078 0 14
-8.3405 21.5151 -2.5029 0.1078 0 14
-8.6861 21.3780 -2.5029 0.1078 0 14
-9.0294 21.2352 -2.5029 0.1078 0 14
-9.3703 21.0870 -2.5029 0.1078 0 14
-9.7088 20.9333 -2.5029 0.1078 0 14
-10.0449 20.7742 -2.5029 0.1078 0 14
-10.3782 20.6096 -2.5029 0.1078 0 14
-10.7090 20.4398 -2.5029 0.1078 0 14
-11.0369 20.2646 -2.5029 0.1078 0 14
-11.3619 20.0841 -2.5029 0.1078 0 14
-11.6840 19.8985 -2.5029 0.1078 0 14
-12.0031 19.7076 -2.5029 0.1078 0 14
-12.3191 19.5117 -2.5029 0.1078 0 14
-12.6318 19.3107 -2.5029 0.1078 0 14
-12.9413 19.1047 -2.5029 0.1078 0 14
-13.2700 18.9259 -2.5072 0.6530 0 8
-13.7234 18.9167 -2.5349 0.8125 0 8
-14.1891 18.9100 -2.5643 0.8032 0 8
-14.6657 18.9030 -2.5951 0.7937 0 8
-15.1540 18.8957 -2.6272 0.7839 0 8
-15.5766 18.7941 -2.6477 0.1078 0 7
-15.8774 18.5407 -2.6477 0.1078 0 7
-16.1740 18.2825 -2.6477 0.1078 0 7
-16.4665 18.0195 -2.6477 0.1078 0 7
-16.7547 17.7519 -2.6477 0.1078 0 7
-17.0385 17.4796 -2.6477 0.1078 0 7
-17.3179 17.2029 -2.6477 0.1078 0 7
-17.5928 16.9216 -2.6477 0.1078 0 7
-17.8631 16.6360 -2.6477 0.1078 0 7
-18.1289 16.3460 -2.6477 0.1078 0 7
-18.3899 16.0518 -2.6477 0.1078 0 7
-18.6461 15.7535 -2.6477 0.1078 0 7
-18.8975 15.4510 -2.6477 0.1078 0 7
-19.1440 15.1445 -2.6477 0.1078 0 7
-19.3855 14.8341 -2.6477 0.1078 0 7
-19.6219 14.5199 -2.6477 0.1078 0 7
-19.8533 14.2019 -2.6477 0.1078 0 7
-20.0796 13.8802 -2.6477 0.1078 0 7
-20.3006 13.5549 -2.6477 0.1078 0 7
-20.5163 13.2261 -2.6477 0.1078 0 7
-20.7267 12.8938 -2.6477 0.1078 0 7
-20.9318 12.5582 -2.6477 0.1078 0 7
-21.1314 12.2193 -2.6477 0.1078 0 7
-21.3255 11.8773 -2.6477 0.1078 0 7
-21.5141 11.5322 -2.6477 0.1078 0 7
-21.6971 11.1840 -2.6477 0.1078 0 7
-21.8745 10.8330 -2.6477 0.1078 0 7
-22.0462 10.4792 -2.6477 0.1078 0 7
-22.2122 10.1226 -2.6477 0.1078 0 7
-22.3724 9.7635 -2.6477 0.1078 0 7
-22.5268 9.4018 -2.6477 0.1078 0 7
-22.6753 9.0376 -2.6477 0.1078 0 7
-21.5046 8.1720 -2.4953 0.1078 0 8
-21.6334 7.8245 -2.4953 0.1078 0 8
-21.7567 7.4749 -2.4953 0.1078 0 8
-21.8743 7.1234 -2.4953 0.1078 0 8
-21.9862 6.7701 -2.4953 0.1078 0 8
-22.0924 6.4150 -2.4953 0.1078 0 8
-22.1929 6.0582 -2.4953 0.1078 0 8
-22.2876 5.6999 -2.4953 0.1078 0 8
-22.3766 5.3401 -2.4953 0.1078 0 8
-22.4597 4.9789 -2.4953 0.1078 0 8
-22.5370 4.6164 -2.4953 0.1078 0 8
-22.6085 4.2527 -2.4953 0.1078 0 8
-22.6740 3.8879 -2.4953 0.1078 0 8
-22.7337 3.5221 -2.4953 0.1078 0 8
-22.7875 3.1553 -2.4953 0.1078 0 8
-22.8354 2.7878 -2.4953 0.1078 0 8
-22.8774 2.4195 -2.4953 0.1078 0 8
-22.9134 2.0506 -2.4953 0.1078 0 8
-22.9434 1.6812 -2.4953 0.1078 0 8
-22.9676 1.3113 -2.4953 0.1078 0 8
-22.9857 0.9411 -2.4953 0.1078 0 8
-22.9979 0.5707 -2.4953 0.1078 0 8
-23.0041 0.2001 -2.4953 0.1078 0 8
-23.0043 -0.1706 -2.4953 0.1078 0 8
-22.9986 -0.5412 -2.4953 0.1078 0 8
-22.9869 -0.9116 -2.4953 0.1078 0 8
-22.9692 -1.2819 -2.4953 0.1078 0 8
-22.9456 -1.6518 -2.4953 0.1078 0 8
-22.9160 -2.0212 -2.4953 0.1078 0 8
-22.8805 -2.3902 -2.4953 0.1078 0 8
-22.8390 -2.7585 -2.4953 0.1078 0 8
-22.7916 -3.1261 -2.4953 0.1078 0 8
-22.7382 -3.4929 -2.4953 0.1078 0 8
-22.6790 -3.8588 -2.4953 0.1078 0 8
-22.6139 -4.2236 -2.4953 0.1078 0 8
-22.5429 -4.5874 -2.4953 0.1078 0 8
-22.4661 -4.9500 -2.4953 0.1078 0 8
-22.3834 -5.3113 -2.4953 0.1078 0 8
-22.2949 -5.6713 -2.4953 0.1078 0 8
-22.2007 -6.0297 -2.4953 0.1078 0 8
-22.1007 -6.3866 -2.4953 0.1078 0 8
-21.9949 -6.7419 -2.4953 0.1078 0 8
-21.8834 -7.0954 -2.4953 0.1078 0 8
-21.7663 -7.4470 -2.4953 0.1078 0 8
-21.6435 -7.7967 -2.4953 0.1078 0 8
-21.5150 -8.1444 -2.4953 0.1078 0 8
-21.3810 -8.4900 -2.4953 0.1078 0 8
-21.2415 -8.8333 -2.4953 0.1078 0 8
-21.0964 -9.1744 -2.4953 0.1078 0 8
-20.9458 -9.5131 -2.4953 0.1078 0 8
-20.7899 -9.8493 -2.4953 0.1078 0 8
-20.6285 -10.1830 -2.4953 0.1078 0 8
-20.4617 -10.5140 -2.4953 0.1078 0 8
-20.2897 -10.8423 -2.4953 0.1078 0 8
-20.1124 -11.1678 -2.4953 0.1078 0 8
-19.9298 -11.4904 -2.4953 0.1078 0 8
-7.4173 20.0880 -2.5029 0.1161 0 14
-7.7399 19.9659 -2.5029 0.1161 0 14
-8.0606 19.8386 -2.5029 0.1161 0 14
-8.3792 19.7061 -2.5029 0.1161 0 14
-8.6956 19.5686 -2.5029 0.1161 0 14
-9.0097 19.4259 -2.5029 0.1161 0 14
-9.3215 19.2782 -2.5029 0.1161 0 14
-9.6309 19.1256 -2.5029 0.1161 0 14
-9.9378 18.9679 -2.5029 0.1161 0 8
-10.3095 18.9291 -2.5194 0.8801 0 8
-10.7056 18.9240 -2.5413 0.8725 0 8
-11.1087 18.9186 -2.5643 0.8647 0 8
-11.5191 18.9130 -2.5884 0.8567 0 8
-11.9374 18.9071 -2.6135 0.8484 0 8
-12.3639 18.9011 -2.6399 0.8399 0 8
-12.7041 18.7545 -2.6477 0.1161 0 7
-13.0046 18.5474 -2.6477 0.1161 0 7
-13.3017 18.3355 -2.6477 0.1161 0 6
-13.5954 18.1188 -2.6477 0.1161 0 7
-13.8856 17.8974 -2.6477 0.1161 0 7
-14.1721 17.6714 -2.6477 0.1161 0 7
-14.4550 17.4407 -2.6477 0.1161 0 7
-14.7341 17.2056 -2.6477 0.1161 0 7
-15.0094 16.9660 -2.6477 0.1161 0 7
-15.2808 16.7219 -2.6477 0.1161 0 7
-15.5482 16.4736 -2.6477 0.1161 0 7
-15.8116 16.2210 -2.6477 0.1161 0 7
-16.0709 15.9641 -2.6477 0.1161 0 7
-16.3260 15.7031 -2.6477 0.1161 0 7
-16.5768 15.4380 -2.6477 0.1161 0 7
-16.8234 15.1690 -2.6477 0.1161 0 7
-17.0656 14.8960 -2.6477 0.1161 0 7
-17.3034 14.6191 -2.6477 0.1161 0 7
-17.5367 14.3384 -2.6477 0.1161 0 7
-17.7654 14.0540 -2.6477 0.1161 0 7
-17.9895 13.7659 -2.6477 0.1161 0 7
-18.2090 13.4743 -2.6477 0.1161 0 7
-18.4237 13.1792 -2.6477 0.1161 0 7
-18.6336 12.8807 -2.6477 0.1161 0 7
-18.8388 12.5788 -2.6477 0.1161 0 7
-19.0390 12.2737 -2.6477 0.1161 0 7
-19.2342 11.9653 -2.6477 0.1161 0 7
-19.4245 11.6539 -2.6477 0.1161 0 7
-19.6098 11.3394 -2.6477 0.1161 0 6
-19.7899 11.0220 -2.6477 0.1161 0 7
-19.9649 10.7017 -2.6477 0.1161 0 7
-20.1347 10.3787 -2.6477 0.1161 0 7
-20.2993 10.0529 -2.6477 0.1161 0 7
-20.4587 9.7246 -2.6477 0.1161 0 7
-20.6127 9.3937 -2.6477 0.1161 0 7
-20.7614 9.0604 -2.6477 0.1161 0 7
-19.7014 8.2225 -2.4953 0.1161 0 8
-19.8313 7.9041 -2.4953 0.1161 0 8
-19.9561 7.5835 -2.4953 0.1161 0 8
-20.0756 7.2610 -2.4953 0.1161 0 8
-20.1900 6.9367 -2.4953 0.1161 0 8
-20.2992 6.6105 -2.4953 0.1161 0 8
-20.4030 6.2826 -2.4953 0.1161 0 8
-20.5016 5.9530 -2.4953 0.1161 0 8
-20.5948 5.6220 -2.4953 0.1161 0 8
-20.6827 5.2894 -2.4953 0.1161 0 8
-20.7653 4.9555 -2.4953 0.1161 0 8
-20.8424 4.6203 -2.4953 0.1161 0 8
-20.9142 4.2839 -2.4953 0.1161 0 8
-20.9805 3.9464 -2.4953 0.1161 0 8
-21.0413 3.6079 -2.4953 0.1161 0 8
-21.0967 3.2684 -2.4953 0.1161 0 8
-21.1466 2.9281 -2.4953 0.1161 0 8
-21.1911 2.5870 -2.4953 0.1161 0 8
-21.2300 2.2453 -2.4953 0.1161 0 8
-21.2634 1.9030 -2.4953 0.1161 0 8
-21.2913 1.5601 -2.4953 0.1161 0 8
-21.3137 1.2169 -2.4953 0.1161 0 8
-21.3305 0.8734 -2.4953 0.1161 0 8
-21.3419 0.5296 -2.4953 0.1161 0 8
-21.3476 0.1857 -2.4953 0.1161 0 8
-21.3478 -0.1583 -2.4953 0.1161 0 8
-21.3425 -0.5022 -2.4953 0.1161 0 8
-21.3316 -0.8460 -2.4953 0.1161 0 8
-21.3152 -1.1896 -2.4953 0.1161 0 8
-21.2933 -1.5328 -2.4953 0.1161 0 8
-21.2659 -1.8757 -2.4953 0.1161 0 8
-21.2329 -2.2180 -2.4953 0.1161 0 8
-21.1944 -2.5598 -2.4953 0.1161 0 8
-21.1504 -2.9010 -2.4953 0.1161 0 8
-21.1009 -3.2414 -2.4953 0.1161 0 8
-21.0459 -3.5809 -2.4953 0.1161 0 8
-20.9855 -3.9195 -2.4953 0.1161 0 8
-20.9196 -4.2571 -2.4953 0.1161 0 8
-20.8483 -4.5936 -2.4953 0.1161 0 8
-20.7716 -4.9289 -2.4953 0.1161 0 8
-20.6895 -5.2629 -2.4953 0.1161 0 8
-20.6020 -5.5955 -2.4953 0.1161 0 8
-20.5092 -5.9267 -2.4953 0.1161 0 8
-20.4111 -6.2564 -2.4953 0.1161 0 8
-20.3076 -6.5844 -2.4953 0.1161 0 8
-20.1989 -6.9107 -2.4953 0.1161 0 8
-20.0849 -7.2353 -2.4953 0.1161 0 8
-19.9658 -7.5579 -2.4953 0.1161 0 8
-19.8414 -7.8786 -2.4953 0.1161 0 8
-19.7119 -8.1973 -2.4953 0.1161 0 8
-19.5773 -8.5138 -2.4953 0.1161 0 8
-19.4376 -8.8281 -2.4953 0.1161 0 8
-19.2928 -9.1401 -2.4953 0.1161 0 8
-19.1431 -9.4497 -2.4953 0.1161 0 8
-18.9883 -9.7569 -2.4953 0.1161 0 8
-18.8287 -10.0616 -2.4953 0.1161 0 8
-18.6641 -10.3636 -2.4953 0.1161 0 8
-18.4947 -10.6630 -2.4953 0.1161 0 8
-6.9921 18.9364 -2.5296 0.9388 0 8
-7.3394 18.9327 -2.5446 0.9333 0 8
-7.6910 18.9288 -2.5604 0.9275 0 8
-8.0469 18.9247 -2.5771 0.9216 0 8
-8.4076 18.9205 -2.5946 0.9153 0 8
-8.7732 18.9160 -2.6130 0.9089 0 8
-9.1442 18.9114 -2.6324 0.9022 0 8
-9.5024 18.8704 -2.6477 0.1243 0 7
-9.8052 18.7149 -2.6477 0.1243 0 7
-10.1055 18.5545 -2.6477 0.1243 0 7
-10.4031 18.3892 -2.6477 0.1243 0 6
-10.6980 18.2193 -2.6477 0.1243 0 7
-10.9902 18.0445 -2.6477 0.1243 0 7
-11.2795 17.8651 -2.6477 0.1243 0 7
-11.5658 17.6811 -2.6477 0.1243 0 7
-11.8492 17.4924 -2.6477 0.1243 0 7
-12.1295 17.2993 -2.6477 0.1243 0 7
-12.4066 17.1016 -2.6477 0.1243 0 7
-12.6805 16.8995 -2.6477 0.1243 0 7
-12.9511 16.6930 -2.6477 0.1243 0 7
-13.2184 16.4822 -2.6477 0.1243 0 7
-13.4822 16.2671 -2.6477 0.1243 0 7
-13.7426 16.0478 -2.6477 0.1243 0 7
-13.9993 15.8243 -2.6477 0.1243 0 7
-14.2525 15.5967 -2.6477 0.1243 0 7
-14.5019 15.3650 -2.6477 0.1243 0 7
-14.7476 15.1294 -2.6477 0.1243 0 7
-14.9894 14.8898 -2.6477 0.1243 0 6
-15.2273 14.6464 -2.6477 0.1243 0 7
-15.4613 14.3992 -2.6477 0.1243 0 7
-15.6913 14.1482 -2.6477 0.1243 0 7
-15.9172 13.8936 -2.6477 0.1243 0 7
-16.1390 13.6353 -2.6477 0.1243 0 7
-16.3566 13.3735 -2.6477 0.1243 0 7
-16.5699 13.1083 -2.6477 0.1243 0 7
-16.7790 12.8396 -2.6477 0.1243 0 7
-16.9836 12.5676 -2.6477 0.1243 0 7
-17.1839 12.2924 -2.6477 0.1243 0 7
-17.3797 12.0139 -2.6477 0.1243 0 7
-17.5710 11.7324 -2.6477 0.1243 0 7
-17.7578 11.4477 -2.6477 0.1243 0 7
-17.9399 11.1601 -2.6477 0.1243 0 7
-18.1174 10.8697 -2.6477 0.1243 0 7
-18.2901 10.5764 -2.6477 0.1243 0 7
-18.4582 10.2803 -2.6477 0.1243 0 7
-18.6214 9.9816 -2.6477 0.1243 0 7
-18.7798 9.6803 -2.6477 0.1243 0 7
-18.9333 9.3765 -2.6477 0.1243 0 7
-19.0819 9.0702 -2.6477 0.1243 0 7
-18.1300 8.2623 -2.4968 0.3807 0 8
-18.2497 7.9643 -2.4953 0.1243 0 8
-18.3756 7.6692 -2.4953 0.1243 0 8
-18.4968 7.3722 -2.4953 0.1243 0 8
-18.6131 7.0732 -2.4953 0.1243 0 8
-18.7247 6.7724 -2.4953 0.1243 0 8
-18.8314 6.4699 -2.4953 0.1243 0 8
-18.9332 6.1656 -2.4953 0.1243 0 8
-19.0300 5.8598 -2.4953 0.1243 0 8
-19.1220 5.5524 -2.4953 0.1243 0 8
-19.2089 5.2437 -2.4953 0.1243 0 8
-19.2909 4.9335 -2.4953 0.1243 0 8
-19.3679 4.6221 -2.4953 0.1243 0 8
-19.4399 4.3094 -2.4953 0.1243 0 8
-19.5068 3.9957 -2.4953 0.1243 0 8
-19.5686 3.6809 -2.4953 0.1243 0 8
-19.6254 3.3651 -2.4953 0.1243 0 8
-19.6770 3.0485 -2.4953 0.1243 0 8
-19.7236 2.7311 -2.4953 0.1243 0 8
-19.7651 2.4130 -2.4953 0.1243 0 8
-19.8014 2.0942 -2.4953 0.1243 0 8
-19.8325 1.7749 -2.4953 0.1243 0 8
-19.8586 1.4552 -2.4953 0.1243 0 8
-19.8794 1.1350 -2.4953 0.1243 0 8
-19.8951 0.8146 -2.4953 0.1243 0 8
-19.9057 0.4940 -2.4953 0.1243 0 8
-19.9110 0.1732 -2.4953 0.1243 0 8
-19.9112 -0.1476 -2.4953 0.1243 0 8
-19.9063 -0.4684 -2.4953 0.1243 0 8
-19.8962 -0.7891 -2.4953 0.1243 0 8
-19.8809 -1.1095 -2.4953 0.1243 0 8
-19.8604 -1.4297 -2.4953 0.1243 0 8
-19.8348 -1.7494 -2.4953 0.1243 0 8
-19.8040 -2.0688 -2.4953 0.1243 0 8
-19.7681 -2.3876 -2.4953 0.1243 0 8
-19.7271 -2.7058 -2.4953 0.1243 0 8
-19.6809 -3.0232 -2.4953 0.1243 0 8
-19.6297 -3.3399 -2.4953 0.1243 0 8
-19.5733 -3.6558 -2.4953 0.1243 0 8
-19.5119 -3.9706 -2.4953 0.1243 0 8
-19.4454 -4.2845 -2.4953 0.1243 0 8
-19.3738 -4.5972 -2.4953 0.1243 0 8
-19.2972 -4.9087 -2.4953 0.1243 0 8
-19.2157 -5.2190 -2.4953 0.1243 0 8
-19.1291 -5.5279 -2.4953 0.1243 0 8
-19.0375 -5.8354 -2.4953 0.1243 0 8
-18.9410 -6.1413 -2.4953 0.1243 0 8
-18.8397 -6.4457 -2.4953 0.1243 0 8
-18.7334 -6.7484 -2.4953 0.1243 0 8
-18.6222 -7.0493 -2.4953 0.1243 0 8
-18.5062 -7.3484 -2.4953 0.1243 0 8
-18.3854 -7.6456 -2.4953 0.1243 0 8
-18.2599 -7.9409 -2.4953 0.1243 0 8
-18.1295 -8.2340 -2.4953 0.1243 0 8
-17.9945 -8.5250 -2.4953 0.1243 0 8
-17.8549 -8.8138 -2.4953 0.1243 0 8
-17.7105 -9.1004 -2.4953 0.1243 0 8
-17.5616 -9.3845 -2.4953 0.1243 0 8
-17.4081 -9.6662 -2.4953 0.1243 0 8
-17.2501 -9.9455 -2.4953 0.1243 0 8
-6.8560 18.5679 -2.6477 0.1326 0 7
-7.1542 18.4550 -2.6477 0.1326 0 6
-7.4507 18.3373 -2.6477 0.1326 0 7
-7.7451 18.2149 -2.6477 0.1326 0 7
-8.0376 18.0878 -2.6477 0.1326 0 7
-8.3279 17.9559 -2.6477 0.1326 0 7
-8.6162 17.8194 -2.6477 0.1326 0 7
-8.9021 17.6783 -2.6477 0.1326 0 7
-9.1858 17.5326 -2.6477 0.1326 0 7
-9.4671 17.3823 -2.6477 0.1326 0 7
-9.7459 17.2275 -2.6477 0.1326 0 7
-10.0222 17.0683 -2.6477 0.1326 0 7
-10.2959 16.9046 -2.6477 0.1326 0 7
-10.5669 16.7365 -2.6477 0.1326 0 7
-10.8352 16.5641 -2.6477 0.1326 0 7
-11.1006 16.3874 -2.6477 0.1326 0 7
-11.3632 16.2064 -2.6477 0.1326 0 7
-11.6228 16.0212 -2.6477 0.1326 0 7
-11.8794 15.8319 -2.6477 0.1326 0 7
-12.1330 15.6385 -2.6477 0.1326 0 7
-12.3833 15.4409 -2.6477 0.1326 0 7
-12.6305 15.2394 -2.6477 0.1326 0 7
-12.8744 15.0340 -2.6477 0.1326 0 7
-13.1149 14.8246 -2.6477 0.1326 0 7
-13.3521 14.6114 -2.6477 0.1326 0 7
-13.5858 14.3944 -2.6477 0.1326 0 7
-13.8159 14.1736 -2.6477 0.1326 0 7
-14.0425 13.9492 -2.6477 0.1326 0 7
-14.2654 13.7211 -2.6477 0.1326 0 7
-14.4846 13.4895 -2.6477 0.1326 0 7
-14.7000 13.2544 -2.6477 0.1326 0 7
-14.9117 13.0158 -2.6477 0.1326 0 7
-15.1194 12.7739 -2.6477 0.1326 0 7
-15.3233 12.5287 -2.6477 0.1326 0 7
-15.5231 12.2801 -2.6477 0.1326 0 7
-15.7190 12.0285 -2.6477 0.1326 0 7
-15.9107 11.7737 -2.6477 0.1326 0 7
-16.0983 11.5158 -2.6477 0.1326 0 7
-16.2818 11.2549 -2.6477 0.1326 0 7
-16.4610 10.9912 -2.6477 0.1326 0 7
-16.6359 10.7245 -2.6477 0.1326 0 7
-16.8066 10.4551 -2.6477 0.1326 0 7
-16.9728 10.1830 -2.6477 0.1326 0 7
-17.1347 9.9082 -2.6477 0.1326 0 7
-17.2921 9.6309 -2.6477 0.1326 0 7
-17.4450 9.3510 -2.6477 0.1326 0 7
-17.5934 9.0687 -2.6477 0.1326 0 7
-16.7163 8.2785 -2.4953 0.1326 0 8
-16.8475 8.0081 -2.4953 0.1326 0 8
-16.9743 7.7356 -2.4953 0.1326 0 8
-17.0967 7.4612 -2.4953 0.1326 0 8
-17.2147 7.1847 -2.4953 0.1326 0 8
-17.3283 6.9065 -2.4953 0.1326 0 8
-17.4373 6.6264 -2.4953 0.1326 0 8
-17.5418 6.3446 -2.4953 0.1326 0 8
-17.6417 6.0611 -2.4953 0.1326 0 8
-17.7371 5.7761 -2.4953 0.1326 0 8
-17.8278 5.4896 -2.4953 0.1326 0 8
-17.9140 5.2017 -2.4953 0.1326 0 8
-17.9954 4.9124 -2.4953 0.1326 0 8
-18.0722 4.6218 -2.4953 0.1326 0 8
-18.1444 4.3301 -2.4953 0.1326 0 8
-18.2118 4.0372 -2.4953 0.1326 0 8
-18.2745 3.7432 -2.4953 0.1326 0 8
-18.3324 3.4483 -2.4953 0.1326 0 8
-18.3856 3.1525 -2.4953 0.1326 0 8
-18.4340 2.8559 -2.4953 0.1326 0 8
-18.4776 2.5585 -2.4953 0.1326 0 8
-18.5164 2.2605 -2.4953 0.1326 0 8
-18.5504 1.9619 -2.4953 0.1326 0 8
-18.5796 1.6628 -2.4953 0.1326 0 8
-18.6040 1.3632 -2.4953 0.1326 0 8
-18.6235 1.0633 -2.4953 0.1326 0 8
-18.6383 0.7631 -2.4953 0.1326 0 8
-18.6482 0.4628 -2.4953 0.1326 0 8
-18.6531 0.1623 -2.4953 0.1326 0 8
-18.6534 -0.1383 -2.4953 0.1326 0 8
-18.6487 -0.4388 -2.4953 0.1326 0 8
-18.6392 -0.7392 -2.4953 0.1326 0 8
-18.6249 -1.0394 -2.4953 0.1326 0 8
-18.6057 -1.3394 -2.4953 0.1326 0 8
-18.5818 -1.6389 -2.4953 0.1326 0 8
-18.5529 -1.9381 -2.4953 0.1326 0 8
-18.5193 -2.2368 -2.4953 0.1326 0 8
-18.4809 -2.5348 -2.4953 0.1326 0 8
-18.4376 -2.8322 -2.4953 0.1326 0 8
-18.3896 -3.1289 -2.4953 0.1326 0 8
-18.3368 -3.4248 -2.4953 0.1326 0 8
-18.2792 -3.7198 -2.4953 0.1326 0 8
-18.2169 -4.0138 -2.4953 0.1326 0 8
-18.1499 -4.3068 -2.4953 0.1326 0 8
-18.0782 -4.5986 -2.4953 0.1326 0 8
-18.0017 -4.8893 -2.4953 0.1326 0 8
-17.9206 -5.1787 -2.4953 0.1326 0 8
-17.8349 -5.4667 -2.4953 0.1326 0 8
-17.7445 -5.7534 -2.4953 0.1326 0 8
-17.6495 -6.0385 -2.4953 0.1326 0 8
-17.5499 -6.3221 -2.4953 0.1326 0 8
-17.4458 -6.6040 -2.4953 0.1326 0 8
-17.3371 -6.8842 -2.4953 0.1326 0 8
-17.2239 -7.1626 -2.4953 0.1326 0 8
-17.1063 -7.4392 -2.4953 0.1326 0 8
-16.9842 -7.7138 -2.4953 0.1326 0 8
-16.8578 -7.9865 -2.4953 0.1326 0 8
-16.7269 -8.2570 -2.4953 0.1326 0 8
-16.5917 -8.5255 -2.4953 0.1326 0 8
-16.4522 -8.7917 -2.4953 0.1326 0 8
-16.3084 -9.0556 -2.4953 0.1326 0 8
-16.1604 -9.3172 -2.4953 0.1326 0 8
-6.4477 17.4622 -2.6477 0.1408 0 7
-6.7282 17.3561 -2.6477 0.1408 0 7
-7.0070 17.2454 -2.6477 0.1408 0 7
-7.2839 17.1303 -2.6477 0.1408 0 7
-7.5590 17.0107 -2.6477 0.1408 0 7
-7.8320 16.8867 -2.6477 0.1408 0 7
-8.1031 16.7584 -2.6477 0.1408 0 7
-8.3720 16.6256 -2.6477 0.1408 0 7
-8.6388 16.4886 -2.6477 0.1408 0 7
-8.9034 16.3473 -2.6477 0.1408 0 7
-9.1656 16.2017 -2.6477 0.1408 0 7
-9.4254 16.0519 -2.6477 0.1408 0 7
-9.6828 15.8980 -2.6477 0.1408 0 7
-9.9377 15.7399 -2.6477 0.1408 0 7
-10.1900 15.5778 -2.6477 0.1408 0 7
-10.4396 15.4116 -2.6477 0.1408 0 7
-10.6866 15.2414 -2.6477 0.1408 0 7
-10.9307 15.0672 -2.6477 0.1408 0 7
-11.1721 14.8892 -2.6477 0.1408 0 7
-11.4105 14.7072 -2.6477 0.1408 0 7
-11.6460 14.5215 -2.6477 0.1408 0 7
-11.8784 14.3320 -2.6477 0.1408 0 7
-12.1078 14.1388 -2.6477 0.1408 0 7
-12.3340 13.9418 -2.6477 0.1408 0 7
-12.5570 13.7413 -2.6477 0.1408 0 7
-12.7768 13.5372 -2.6477 0.1408 0 7
-12.9932 13.3296 -2.6477 0.1408 0 7
-13.2063 13.1186 -2.6477 0.1408 0 7
-13.4159 12.9041 -2.6477 0.1408 0 7
-13.6221 12.6863 -2.6477 0.1408 0 7
-13.8247 12.4652 -2.6477 0.1408 0 7
-14.0237 12.2408 -2.6477 0.1408 0 7
-14.2191 12.0133 -2.6477 0.1408 0 7
-14.4108 11.7826 -2.6477 0.1408 0 7
-14.5988 11.5489 -2.6477 0.1408 0 7
-14.7830 11.3122 -2.6477 0.1408 0 7
-14.9633 11.0726 -2.6477 0.1408 0 7
-15.1398 10.8301 -2.6477 0.1408 0 7
-15.3123 10.5848 -2.6477 0.1408 0 7
-15.4808 10.3367 -2.6477 0.1408 0 7
-15.6453 10.0859 -2.6477 0.1408 0 7
-15.8058 9.8326 -2.6477 0.1408 0 7
-15.9622 9.5766 -2.6477 0.1408 0 7
-16.1144 9.3182 -2.6477 0.1408 0 7
-16.2624 9.0574 -2.6477 0.1408 0 7
-15.4619 8.2880 -2.4953 0.1408 0 8
-15.5934 8.0378 -2.4953 0.1408 0 8
-15.7209 7.7855 -2.4953 0.1408 0 8
-15.8443 7.5312 -2.4953 0.1408 0 8
-15.9636 7.2750 -2.4953 0.1408 0 8
-16.0787 7.0169 -2.4953 0.1408 0 8
-16.1897 6.7569 -2.4953 0.1408 0 8
-16.2964 6.4952 -2.4953 0.1408 0 8
-16.3990 6.2318 -2.4953 0.1408 0 8
-16.4972 5.9668 -2.4953 0.1408 0 8
-16.5912 5.7002 -2.4953 0.1408 0 8
-16.6809 5.4322 -2.4953 0.1408 0 8
-16.7663 5.1627 -2.4953 0.1408 0 8
-16.8473 4.8919 -2.4953 0.1408 0 8
-16.9239 4.6199 -2.4953 0.1408 0 8
-16.9961 4.3466 -2.4953 0.1408 0 8
-17.0639 4.0722 -2.4953 0.1408 0 8
-17.1273 3.7968 -2.4953 0.1408 0 8
-17.1863 3.5203 -2.4953 0.1408 0 8
-17.2408 3.2430 -2.4953 0.1408 0 8
-17.2908 2.9648 -2.4953 0.1408 0 8
-17.3363 2.6858 -2.4953 0.1408 0 8
-17.3773 2.4062 -2.4953 0.1408 0 8
-17.4138 2.1259 -2.4953 0.1408 0 8
-17.4458 1.8451 -2.4953 0.1408 0 8
-17.4733 1.5638 -2.4953 0.1408 0 8
-17.4962 1.2821 -2.4953 0.1408 0 8
-17.5146 1.0000 -2.4953 0.1408 0 8
-17.5284 0.7177 -2.4953 0.1408 0 8
-17.5377 0.4352 -2.4953 0.1408 0 8
-17.5425 0.1526 -2.4953 0.1408 0 8
-17.5426 -0.1301 -2.4953 0.1408 0 8
-17.5383 -0.4127 -2.4953 0.1408 0 8
-17.5293 -0.6952 -2.4953 0.1408 0 8
-17.5159 -0.9775 -2.4953 0.1408 0 8
-17.4978 -1.2596 -2.4953 0.1408 0 8
-17.4753 -1.5413 -2.4953 0.1408 0 8
-17.4482 -1.8227 -2.4953 0.1408 0 8
-17.4165 -2.1036 -2.4953 0.1408 0 8
-17.3804 -2.3839 -2.4953 0.1408 0 8
-17.3397 -2.6636 -2.4953 0.1408 0 8
-17.2946 -2.9426 -2.4953 0.1408 0 8
-17.2449 -3.2209 -2.4953 0.1408 0 8
-17.1908 -3.4983 -2.4953 0.1408 0 8
-17.1322 -3.7748 -2.4953 0.1408 0 8
-17.0692 -4.0503 -2.4953 0.1408 0 8
-17.0017 -4.3248 -2.4953 0.1408 0 8
-16.9298 -4.5982 -2.4953 0.1408 0 8
-16.8535 -4.8703 -2.4953 0.1408 0 8
-16.7729 -5.1412 -2.4953 0.1408 0 8
-16.6879 -5.4108 -2.4953 0.1408 0 8
-16.5985 -5.6789 -2.4953 0.1408 0 8
-16.5049 -5.9456 -2.4953 0.1408 0 8
-16.4069 -6.2108 -2.4953 0.1408 0 8
-16.3048 -6.4743 -2.4953 0.1408 0 8
-16.1983 -6.7361 -2.4953 0.1408 0 8
-16.0877 -6.9962 -2.4953 0.1408 0 8
-15.9729 -7.2545 -2.4953 0.1408 0 8
-15.8539 -7.5109 -2.4953 0.1408 0 8
-15.7309 -7.7654 -2.4953 0.1408 0 8
-15.6037 -8.0178 -2.4953 0.1408 0 8
-15.4725 -8.2682 -2.4953 0.1408 0 8
-15.3373 -8.5164 -2.4953 0.1408 0 8
-15.1981 -8.7624 -2.4953 0.1408 0 8
-6.0846 16.4787 -2.6477 0.1490 0 7
-6.3493 16.3785 -2.6477 0.1490 0 7
-6.6123 16.2741 -2.6477 0.1490 0 7
-6.8737 16.1655 -2.6477 0.1490 0 7
-7.1332 16.0526 -2.6477 0.1490 0 7
-7.3909 15.9356 -2.6477 0.1490 0 7
-7.6467 15.8145 -2.6477 0.1490 0 7
-7.9005 15.6892 -2.6477 0.1490 0 7
-8.1523 15.5599 -2.6477 0.1490 0 7
-8.4019 15.4265 -2.6477 0.1490 0 7
-8.6493 15.2892 -2.6477 0.1490 0 7
-8.8945 15.1478 -2.6477 0.1490 0 7
-9.1374 15.0026 -2.6477 0.1490 0 7
-9.3780 14.8534 -2.6477 0.1490 0 7
-9.6160 14.7004 -2.6477 0.1490 0 7
-9.8516 14.5435 -2.6477 0.1490 0 7
-10.0847 14.3829 -2.6477 0.1490 0 7
-10.3151 14.2186 -2.6477 0.1490 0 7
-10.5428 14.0506 -2.6477 0.1490 0 7
-10.7678 13.8789 -2.6477 0.1490 0 7
-10.9900 13.7036 -2.6477 0.1490 0 7
-11.2094 13.5248 -2.6477 0.1490 0 7
-11.4258 13.3424 -2.6477 0.1490 0 7
-11.6393 13.1566 -2.6477 0.1490 0 7
-11.8498 12.9674 -2.6477 0.1490 0 7
-12.0571 12.7748 -2.6477 0.1490 0 7
-12.2614 12.5789 -2.6477 0.1490 0 7
-12.4625 12.3797 -2.6477 0.1490 0 7
-12.6603 12.1773 -2.6477 0.1490 0 7
-12.8548 11.9717 -2.6477 0.1490 0 7
-13.0460 11.7631 -2.6477 0.1490 0 7
-13.2339 11.5514 -2.6477 0.1490 0 7
-13.4183 11.3366 -2.6477 0.1490 0 6
-13.5992 11.1190 -2.6477 0.1490 0 7
-13.7766 10.8984 -2.6477 0.1490 0 7
-13.9503 10.6751 -2.6477 0.1490 0 7
-14.1205 10.4489 -2.6477 0.1490 0 7
-14.2870 10.2201 -2.6477 0.1490 0 7
-14.4498 9.9886 -2.6477 0.1490 0 7
-14.6089 9.7545 -2.6477 0.1490 0 7
-14.7641 9.5179 -2.6477 0.1490 0 7
-14.9156 9.2788 -2.6477 0.1490 0 7
-15.0631 9.0372 -2.6477 0.1490 0 7
-14.3315 8.2872 -2.4953 0.1490 0 8
-14.4631 8.0553 -2.4953 0.1490 0 8
-14.5910 7.8212 -2.4953 0.1490 0 8
-14.7151 7.5851 -2.4953 0.1490 0 8
-14.8354 7.3470 -2.4953 0.1490 0 8
-14.9519 7.1071 -2.4953 0.1490 0 8
-15.0644 6.8653 -2.4953 0.1490 0 8
-15.1731 6.6217 -2.4953 0.1490 0 8
-15.2778 6.3763 -2.4953 0.1490 0 8
-15.3786 6.1294 -2.4953 0.1490 0 8
-15.4753 5.8808 -2.4953 0.1490 0 8
-15.5681 5.6307 -2.4953 0.1490 0 8
-15.6567 5.3792 -2.4953 0.1490 0 8
-15.7414 5.1262 -2.4953 0.1490 0 8
-15.8219 4.8720 -2.4953 0.1490 0 8
-15.8984 4.6164 -2.4953 0.1490 0 8
-15.9707 4.3597 -2.4953 0.1490 0 8
-16.0388 4.1018 -2.4953 0.1490 0 8
-16.1028 3.8429 -2.4953 0.1490 0 8
-16.1627 3.5829 -2.4953 0.1490 0 8
-16.2183 3.3221 -2.4953 0.1490 0 8
-16.2697 3.0603 -2.4953 0.1490 0 8
-16.3169 2.7978 -2.4953 0.1490 0 8
-16.3599 2.5346 -2.4953 0.1490 0 8
-16.3986 2.2707 -2.4953 0.1490 0 8
-16.4330 2.0062 -2.4953 0.1490 0 8
-16.4632 1.7412 -2.4953 0.1490 0 8
-16.4891 1.4757 -2.4953 0.1490 0 8
-16.5108 1.2098 -2.4953 0.1490 0 8
-16.5281 0.9437 -2.4953 0.1490 0 8
-16.5412 0.6773 -2.4953 0.1490 0 8
-16.5499 0.4107 -2.4953 0.1490 0 8
-16.5544 0.1440 -2.4953 0.1490 0 8
-16.5546 -0.1227 -2.4953 0.1490 0 8
-16.5505 -0.3894 -2.4953 0.1490 0 8
-16.5420 -0.6560 -2.4953 0.1490 0 8
-16.5293 -0.9225 -2.4953 0.1490 0 8
-16.5123 -1.1887 -2.4953 0.1490 0 8
-16.4910 -1.4545 -2.4953 0.1490 0 8
-16.4654 -1.7200 -2.4953 0.1490 0 8
-16.4356 -1.9851 -2.4953 0.1490 0 8
-16.4015 -2.2496 -2.4953 0.1490 0 8
-16.3631 -2.5136 -2.4953 0.1490 0 8
-16.3205 -2.7769 -2.4953 0.1490 0 8
-16.2736 -3.0395 -2.4953 0.1490 0 8
-16.2225 -3.3012 -2.4953 0.1490 0 8
-16.1673 -3.5622 -2.4953 0.1490 0 8
-16.1078 -3.8222 -2.4953 0.1490 0 8
-16.0441 -4.0812 -2.4953 0.1490 0 8
-15.9763 -4.3392 -2.4953 0.1490 0 8
-15.9043 -4.5960 -2.4953 0.1490 0 8
-15.8282 -4.8516 -2.4953 0.1490 0 8
-15.7479 -5.1060 -2.4953 0.1490 0 8
-15.6636 -5.3591 -2.4953 0.1490 0 8
-15.5753 -5.6107 -2.4953 0.1490 0 8
-15.4828 -5.8609 -2.4953 0.1490 0 8
-15.3864 -6.1096 -2.4953 0.1490 0 8
-15.2860 -6.3567 -2.4953 0.1490 0 8
-15.1816 -6.6022 -2.4953 0.1490 0 8
-15.0732 -6.8459 -2.4953 0.1490 0 8
-14.9610 -7.0879 -2.4953 0.1490 0 8
-14.8449 -7.3280 -2.4953 0.1490 0 8
-14.7249 -7.5662 -2.4953 0.1490 0 8
-14.6010 -7.8025 -2.4953 0.1490 0 8
-14.4735 -8.0367 -2.4953 0.1490 0 8
-14.3421 -8.2688 -2.4953 0.1490 0 8
-5.7594 15.5980 -2.6477 0.1573 0 7
-6.0099 15.5031 -2.6477 0.1573 0 7
-6.2589 15.4043 -2.6477 0.1573 0 7
-6.5063 15.3015 -2.6477 0.1573 0 7
-6.7520 15.1947 -2.6477 0.1573 0 7
-6.9959 15.0839 -2.6477 0.1573 0 7
-7.2380 14.9692 -2.6477 0.1573 0 6
-7.4782 14.8507 -2.6477 0.1573 0 6
-7.7165 14.7283 -2.6477 0.1573 0 7
-7.9528 14.6020 -2.6477 0.1573 0 7
-8.1870 14.4720 -2.6477 0.1573 0 7
-8.4192 14.3382 -2.6477 0.1573 0 7
-8.6491 14.2007 -2.6477 0.1573 0 7
-8.8767 14.0595 -2.6477 0.1573 0 7
-9.1021 13.9147 -2.6477 0.1573 0 7
-9.3251 13.7662 -2.6477 0.1573 0 7
-9.5457 13.6142 -2.6477 0.1573 0 7
-9.7638 13.4587 -2.6477 0.1573 0 7
-9.9793 13.2996 -2.6477 0.1573 0 7
-10.1923 13.1371 -2.6477 0.1573 0 7
-10.4026 12.9712 -2.6477 0.1573 0 7
-10.6103 12.8019 -2.6477 0.1573 0 7
-10.8152 12.6293 -2.6477 0.1573 0 7
-11.0172 12.4534 -2.6477 0.1573 0 7
-11.2164 12.2743 -2.6477 0.1573 0 7
-11.4127 12.0920 -2.6477 0.1573 0 7
-11.6061 11.9066 -2.6477 0.1573 0 7
-11.7964 11.7180 -2.6477 0.1573 0 7
-11.9836 11.5265 -2.6477 0.1573 0 7
-12.1678 11.3319 -2.6477 0.1573 0 7
-12.3488 11.1344 -2.6477 0.1573 0 7
-12.5266 10.9340 -2.6477 0.1573 0 7
-12.7011 10.7307 -2.6477 0.1573 0 7
-12.8723 10.5247 -2.6477 0.1573 0 7
-13.0402 10.3160 -2.6477 0.1573 0 7
-13.2047 10.1045 -2.6477 0.1573 0 7
-13.3658 9.8905 -2.6477 0.1573 0 7
-13.5234 9.6739 -2.6477 0.1573 0 7
-13.6775 9.4547 -2.6477 0.1573 0 7
-13.8281 9.2331 -2.6477 0.1573 0 7
-13.9750 9.0092 -2.6477 0.1573 0 7
-13.3057 8.2773 -2.4953 0.1573 0 8
-13.4374 8.0618 -2.4953 0.1573 0 8
-13.5655 7.8443 -2.4953 0.1573 0 8
-13.6901 7.6247 -2.4953 0.1573 0 8
-13.8112 7.4032 -2.4953 0.1573 0 8
-13.9287 7.1797 -2.4953 0.1573 0 8
-14.0425 6.9544 -2.4953 0.1573 0 8
-14.1528 6.7272 -2.4953 0.1573 0 8
-14.2593 6.4983 -2.4953 0.1573 0 8
-14.3621 6.2677 -2.4953 0.1573 0 8
-14.4613 6.0355 -2.4953 0.1573 0 8
-14.5566 5.8018 -2.4953 0.1573 0 8
-14.6482 5.5665 -2.4953 0.1573 0 8
-14.7360 5.3298 -2.4953 0.1573 0 8
-14.8199 5.0917 -2.4953 0.1573 0 8
-14.9001 4.8522 -2.4953 0.1573 0 8
-14.9763 4.6116 -2.4953 0.1573 0 8
-15.0486 4.3697 -2.4953 0.1573 0 8
-15.1171 4.1267 -2.4953 0.1573 0 8
-15.1816 3.8826 -2.4953 0.1573 0 8
-15.2422 3.6375 -2.4953 0.1573 0 8
-15.2988 3.3914 -2.4953 0.1573 0 8
-15.3515 3.1445 -2.4953 0.1573 0 8
-15.4001 2.8968 -2.4953 0.1573 0 8
-15.4448 2.6483 -2.4953 0.1573 0 8
-15.4855 2.3991 -2.4953 0.1573 0 8
-15.5221 2.1493 -2.4953 0.1573 0 8
-15.5547 1.8990 -2.4953 0.1573 0 8
