ply
format ascii 1.0
element vertex 1337
property float32 x
property float32 y
property float32 z
property float32 CosAngle
property uint32 ObjIdx
property uint32 ObjTag
end_header
40.8885 -93.8462 -2.5529 0.0215 0 8
42.3528 -93.0673 -2.5500 0.0216 0 8
43.8007 -92.2617 -2.5470 0.0216 0 8
45.2322 -91.4307 -2.5439 0.0216 0 8
46.6465 -90.5741 -2.5407 0.0216 0 8
48.0432 -89.6923 -2.5375 0.0217 0 8
49.4217 -88.7857 -2.5341 0.0217 0 8
50.7818 -87.8552 -2.5306 0.0217 0 8
52.1229 -86.9007 -2.5271 0.0218 0 8
53.4446 -85.9231 -2.5235 0.0218 0 8
54.7466 -84.9227 -2.5198 0.0218 0 8
56.0284 -83.9000 -2.5160 0.0219 0 8
57.2896 -82.8553 -2.5121 0.0219 0 8
58.5297 -81.7892 -2.5082 0.0219 0 8
59.7487 -80.7023 -2.5041 0.0220 0 8
60.9460 -79.5951 -2.5000 0.0220 0 8
62.1213 -78.4679 -2.4959 0.0220 0 8
63.3670 -77.4346 -2.4953 0.0249 0 8
64.6109 -76.3997 -2.4953 0.0249 0 8
65.8380 -75.3449 -2.4953 0.0249 0 8
67.0478 -74.2704 -2.4953 0.0249 0 8
68.2400 -73.1764 -2.4953 0.0249 0 8
69.4144 -72.0633 -2.4953 0.0249 0 8
71.3989 -71.7639 -2.5246 0.7761 0 8
73.4314 -71.4575 -2.5552 0.7969 0 8
75.4381 -71.0716 -2.5847 0.8192 0 8
77.4110 -70.6026 -2.6128 0.8293 0 8
79.3536 -70.0575 -2.6398 0.8390 0 8
80.7153 -68.9694 -2.6477 0.0249 0 7
81.8201 -67.6551 -2.6477 0.0249 0 7
82.9035 -66.3232 -2.6477 0.0249 0 7
83.9652 -64.9739 -2.6477 0.0249 0 7
85.0049 -63.6075 -2.6477 0.0249 0 7
86.0224 -62.2246 -2.6477 0.0249 0 7
87.0173 -60.8254 -2.6477 0.0249 0 7
87.9895 -59.4103 -2.6477 0.0249 0 7
-25.0676 -72.4724 -2.5503 0.9314 0 8
-23.7590 -72.4614 -2.5361 0.9366 0 8
-22.4645 -72.4504 -2.5226 0.9416 0 8
-21.1833 -72.4394 -2.5100 0.9464 0 8
-19.9155 -72.4322 -2.4982 0.7028 0 8
-18.7193 -72.6582 -2.4953 0.0332 0 8
-17.5419 -72.9514 -2.4953 0.0332 0 8
-16.3598 -73.2255 -2.4953 0.0332 0 8
-15.1736 -73.4805 -2.4953 0.0332 0 8
-13.9833 -73.7162 -2.4953 0.0332 0 8
-12.7894 -73.9327 -2.4953 0.0332 0 8
-11.5922 -74.1299 -2.4953 0.0332 0 8
-10.3919 -74.3077 -2.4953 0.0332 0 8
-9.1889 -74.4660 -2.4953 0.0332 0 8
-7.9835 -74.6049 -2.4953 0.0332 0 8
-6.7760 -74.7242 -2.4953 0.0332 0 8
-5.5667 -74.8240 -2.4953 0.0332 0 8
-4.3560 -74.9043 -2.4953 0.0332 0 8
-3.1441 -74.9649 -2.4953 0.0332 0 8
-1.9315 -75.0059 -2.4953 0.0332 0 8
-0.7183 -75.0274 -2.4953 0.0332 0 8
0.4951 -75.0292 -2.4953 0.0332 0 8
1.7084 -75.0114 -2.4953 0.0332 0 8
2.9212 -74.9739 -2.4953 0.0332 0 8
4.1332 -74.9169 -2.4953 0.0332 0 8
5.3441 -74.8402 -2.4953 0.0332 0 8
6.5537 -74.7440 -2.4953 0.0332 0 8
7.7615 -74.6283 -2.4953 0.0332 0 8
8.9674 -74.4930 -2.4953 0.0332 0 8
10.1708 -74.3383 -2.4953 0.0332 0 8
11.3716 -74.1640 -2.4953 0.0332 0 8
12.5695 -73.9704 -2.4953 0.0332 0 8
13.7640 -73.7575 -2.4953 0.0332 0 8
14.9550 -73.5253 -2.4953 0.0332 0 8
16.1420 -73.2738 -2.4953 0.0332 0 8
17.3248 -73.0032 -2.4953 0.0332 0 8
18.5031 -72.7135 -2.4953 0.0332 0 8
19.6765 -72.4048 -2.4953 0.0332 0 8
20.8619 -72.1360 -2.4973 0.7024 0 8
22.1302 -72.1298 -2.5092 0.9454 0 8
23.4123 -72.1280 -2.5219 0.9407 0 8
24.7079 -72.1260 -2.5355 0.9356 0 8
26.0178 -72.1239 -2.5499 0.9303 0 8
27.3429 -72.1216 -2.5651 0.9248 0 8
28.6843 -72.1192 -2.5812 0.9191 0 8
30.0429 -72.1166 -2.5981 0.9131 0 8
31.4197 -72.1138 -2.6160 0.9068 0 8
32.8160 -72.1109 -2.6348 0.9004 0 8
34.1048 -71.8384 -2.6447 0.0485 0 8
35.3022 -71.3585 -2.6477 0.0332 0 7
36.4515 -70.7783 -2.6477 0.0332 0 7
37.5913 -70.1796 -2.6477 0.0332 0 7
38.7213 -69.5625 -2.6477 0.0332 0 7
39.8412 -68.9272 -2.6477 0.0332 0 7
40.9506 -68.2740 -2.6477 0.0332 0 7
42.0493 -67.6028 -2.6477 0.0332 0 7
43.1370 -66.9140 -2.6477 0.0332 0 7
44.2133 -66.2077 -2.6477 0.0332 0 6
45.2783 -65.4840 -2.6477 0.0332 0 7
46.3314 -64.7432 -2.6477 0.0332 0 7
47.3723 -63.9856 -2.6477 0.0332 0 7
48.4008 -63.2111 -2.6477 0.0332 0 7
49.4167 -62.4202 -2.6477 0.0332 0 7
50.4196 -61.6129 -2.6477 0.0332 0 7
51.4094 -60.7895 -2.6477 0.0332 0 7
52.3857 -59.9502 -2.6477 0.0332 0 7
53.3483 -59.0952 -2.6477 0.0332 0 7
54.2970 -58.2247 -2.6477 0.0332 0 7
55.2314 -57.3391 -2.6477 0.0332 0 7
56.1514 -56.4384 -2.6477 0.0332 0 7
53.7726 -52.3271 -2.4953 0.0332 0 8
54.6117 -51.4507 -2.4953 0.0332 0 8
55.4366 -50.5609 -2.4953 0.0332 0 8
56.2470 -49.6578 -2.4953 0.0332 0 8
57.0427 -48.7417 -2.4953 0.0332 0 8
57.8234 -47.8129 -2.4953 0.0332 0 8
58.5891 -46.8715 -2.4953 0.0332 0 8
59.3394 -45.9180 -2.4953 0.0332 0 8
60.0742 -44.9524 -2.4953 0.0332 0 8
60.7932 -43.9750 -2.4953 0.0332 0 8
61.4964 -42.9862 -2.4953 0.0332 0 8
62.1835 -41.9861 -2.4953 0.0332 0 8
-20.8155 -60.1793 -2.6477 0.0415 0 7
-19.8397 -60.5080 -2.6477 0.0415 0 7
-18.8586 -60.8209 -2.6477 0.0415 0 7
-17.8726 -61.1179 -2.6477 0.0415 0 7
-16.8819 -61.3989 -2.6477 0.0415 0 7
-15.8868 -61.6639 -2.6477 0.0415 0 7
-14.8875 -61.9128 -2.6477 0.0415 0 7
-13.8844 -62.1454 -2.6477 0.0415 0 7
-12.8776 -62.3618 -2.6477 0.0415 0 7
-11.8675 -62.5619 -2.6477 0.0415 0 7
-10.8542 -62.7456 -2.6477 0.0415 0 6
-9.8381 -62.9130 -2.6477 0.0415 0 6
-8.8194 -63.0638 -2.6477 0.0415 0 7
-7.7984 -63.1982 -2.6477 0.0415 0 7
-6.7755 -63.3161 -2.6477 0.0415 0 7
-5.7507 -63.4173 -2.6477 0.0415 0 7
-4.7244 -63.5020 -2.6477 0.0415 0 7
-3.6969 -63.5701 -2.6477 0.0415 0 7
-2.6684 -63.6216 -2.6477 0.0415 0 7
-1.6392 -63.6564 -2.6477 0.0415 0 7
-0.6096 -63.6746 -2.6477 0.0415 0 7
0.4202 -63.6762 -2.6477 0.0415 0 7
1.4498 -63.6610 -2.6477 0.0415 0 7
2.4792 -63.6293 -2.6477 0.0415 0 7
3.5078 -63.5809 -2.6477 0.0415 0 7
4.5355 -63.5158 -2.6477 0.0415 0 7
5.5620 -63.4342 -2.6477 0.0415 0 7
6.5871 -63.3359 -2.6477 0.0415 0 7
7.6105 -63.2211 -2.6477 0.0415 0 7
8.6318 -63.0898 -2.6477 0.0415 0 7
9.6509 -62.9420 -2.6477 0.0415 0 7
10.6675 -62.7776 -2.6477 0.0415 0 6
11.6808 -62.5969 -2.6477 0.0415 0 7
12.6921 -62.3998 -2.6477 0.0415 0 7
13.6995 -62.1864 -2.6477 0.0415 0 7
14.7033 -61.9568 -2.6477 0.0415 0 7
15.7033 -61.7109 -2.6477 0.0415 0 7
16.6992 -61.4489 -2.6477 0.0415 0 7
17.6907 -61.1708 -2.6477 0.0415 0 7
18.6776 -60.8767 -2.6477 0.0415 0 7
19.6596 -60.5668 -2.6477 0.0415 0 7
20.6365 -60.2409 -2.6477 0.0415 0 7
21.6079 -59.8993 -2.6477 0.0415 0 7
22.5737 -59.5421 -2.6477 0.0415 0 7
23.5336 -59.1692 -2.6477 0.0415 0 7
24.4874 -58.7809 -2.6477 0.0415 0 7
25.4348 -58.3773 -2.6477 0.0415 0 7
26.3755 -57.9583 -2.6477 0.0415 0 7
27.3092 -57.5242 -2.6477 0.0415 0 7
28.2359 -57.0751 -2.6477 0.0415 0 7
29.1552 -56.6110 -2.6477 0.0415 0 7
28.3362 -52.9011 -2.4953 0.0415 0 8
29.1880 -52.4360 -2.4953 0.0415 0 8
30.0321 -51.9571 -2.4953 0.0415 0 8
30.8684 -51.4647 -2.4953 0.0415 0 8
31.6966 -50.9588 -2.4953 0.0415 0 8
32.5165 -50.4395 -2.4953 0.0415 0 8
33.3280 -49.9071 -2.4953 0.0415 0 8
34.1307 -49.3616 -2.4953 0.0415 0 8
34.9244 -48.8032 -2.4953 0.0415 0 8
35.7091 -48.2321 -2.4953 0.0415 0 8
36.4843 -47.6483 -2.4953 0.0415 0 8
37.2501 -47.0521 -2.4953 0.0415 0 8
38.0061 -46.4436 -2.4953 0.0415 0 22
38.7522 -45.8229 -2.4953 0.0415 0 22
39.4882 -45.1902 -2.4953 0.0415 0 22
40.2138 -44.5457 -2.4953 0.0415 0 8
40.9289 -43.8896 -2.4953 0.0415 0 8
41.6333 -43.2220 -2.4953 0.0415 0 8
42.3268 -42.5431 -2.4953 0.0415 0 8
43.0092 -41.8531 -2.4953 0.0415 0 8
43.6804 -41.1521 -2.4953 0.0415 0 8
44.3401 -40.4404 -2.4953 0.0415 0 8
44.9883 -39.7180 -2.4953 0.0415 0 8
45.6247 -38.9854 -2.4953 0.0415 0 8
46.2492 -38.2425 -2.4953 0.0415 0 8
46.8616 -37.4895 -2.4953 0.0415 0 8
47.4615 -36.7281 -2.4953 0.0415 0 8
48.0494 -35.9545 -2.4953 0.0415 0 8
48.6246 -35.1728 -2.4953 0.0415 0 8
49.1870 -34.3819 -2.4953 0.0415 0 8
49.7365 -33.5820 -2.4953 0.0415 0 8
-16.3436 -47.2508 -2.4953 0.0498 0 22
-15.5774 -47.5089 -2.4953 0.0498 0 8
-14.8071 -47.7546 -2.4953 0.0498 0 8
-14.0329 -47.9878 -2.4953 0.0498 0 8
-13.2551 -48.2084 -2.4953 0.0498 0 8
-12.4738 -48.4165 -2.4953 0.0498 0 8
-11.6892 -48.6119 -2.4953 0.0498 0 8
-10.9015 -48.7945 -2.4953 0.0498 0 8
-10.1111 -48.9644 -2.4953 0.0498 0 8
-9.3179 -49.1215 -2.4953 0.0498 0 8
-8.5223 -49.2658 -2.4953 0.0498 0 8
-7.7245 -49.3972 -2.4953 0.0498 0 8
-6.9247 -49.5156 -2.4953 0.0498 0 8
-6.1231 -49.6211 -2.4953 0.0498 0 8
-5.3199 -49.7136 -2.4953 0.0498 0 8
-4.5152 -49.7932 -2.4953 0.0498 0 8
-3.7094 -49.8597 -2.4953 0.0498 0 8
-2.9027 -49.9131 -2.4953 0.0498 0 8
-2.0951 -49.9536 -2.4953 0.0498 0 8
-1.2870 -49.9809 -2.4953 0.0498 0 8
-0.4786 -49.9952 -2.4953 0.0498 0 8
0.3299 -49.9964 -2.4953 0.0498 0 8
1.1384 -49.9845 -2.4953 0.0498 0 8
1.9465 -49.9596 -2.4953 0.0498 0 8
2.7542 -49.9216 -2.4953 0.0498 0 8
3.5611 -49.8705 -2.4953 0.0498 0 8
4.3671 -49.8064 -2.4953 0.0498 0 8
5.1720 -49.7292 -2.4953 0.0498 0 8
5.9755 -49.6391 -2.4953 0.0498 0 8
6.7774 -49.5360 -2.4953 0.0498 0 8
7.5776 -49.4199 -2.4953 0.0498 0 8
8.3758 -49.2909 -2.4953 0.0498 0 8
9.1718 -49.1490 -2.4953 0.0498 0 8
9.9654 -48.9943 -2.4953 0.0498 0 8
10.7564 -48.8267 -2.4953 0.0498 0 8
11.5446 -48.6464 -2.4953 0.0498 0 8
12.3297 -48.4533 -2.4953 0.0498 0 8
13.1116 -48.2476 -2.4953 0.0498 0 8
13.8902 -48.0293 -2.4953 0.0498 0 8
14.6650 -47.7984 -2.4953 0.0498 0 8
15.4361 -47.5550 -2.4953 0.0498 0 8
16.2031 -47.2991 -2.4953 0.0498 0 8
16.9658 -47.0309 -2.4953 0.0498 0 8
17.7242 -46.7504 -2.4953 0.0498 0 22
18.4778 -46.4577 -2.4953 0.0498 0 22
19.2267 -46.1528 -2.4953 0.0498 0 22
19.9705 -45.8359 -2.4953 0.0498 0 22
20.7091 -45.5069 -2.4953 0.0498 0 22
21.4423 -45.1661 -2.4953 0.0498 0 22
22.1699 -44.8134 -2.4953 0.0498 0 8
22.8917 -44.4491 -2.4953 0.0498 0 8
23.6075 -44.0731 -2.4953 0.0498 0 8
24.3171 -43.6855 -2.4953 0.0498 0 8
25.0204 -43.2866 -2.4953 0.0498 0 8
25.7171 -42.8763 -2.4953 0.0498 0 8
26.4071 -42.4548 -2.4953 0.0498 0 8
27.0902 -42.0222 -2.4953 0.0498 0 8
27.7662 -41.5786 -2.4953 0.0498 0 8
28.4350 -41.1242 -2.4953 0.0498 0 8
29.0963 -40.6590 -2.4953 0.0498 0 8
29.7500 -40.1832 -2.4953 0.0498 0 8
30.3959 -39.6971 -2.4953 0.0498 0 8
31.0338 -39.2006 -2.4953 0.0498 0 8
31.6637 -38.6931 -2.4953 0.0498 0 8
32.2853 -38.1760 -2.4953 0.0498 0 8
32.8984 -37.6489 -2.4953 0.0498 0 8
33.5030 -37.1120 -2.4953 0.0498 0 8
34.0987 -36.5654 -2.4953 0.0498 0 8
34.6855 -36.0092 -2.4953 0.0498 0 8
35.2633 -35.4436 -2.4953 0.0498 0 8
35.8319 -34.8687 -2.4953 0.0498 0 8
36.3911 -34.2847 -2.4953 0.0498 0 8
36.9407 -33.6917 -2.4953 0.0498 0 8
37.4807 -33.0899 -2.4953 0.0498 0 8
38.0109 -32.4795 -2.4953 0.0498 0 8
38.5312 -31.8605 -2.4953 0.0498 0 8
39.0414 -31.2333 -2.4953 0.0498 0 8
39.5414 -30.5979 -2.4953 0.0498 0 8
40.0310 -29.9544 -2.4953 0.0498 0 8
40.5101 -29.3032 -2.4953 0.0498 0 8
40.9787 -28.6443 -2.4953 0.0498 0 8
41.4366 -27.9778 -2.4953 0.0498 0 8
-14.0047 -40.4885 -2.4953 0.0581 0 8
-13.3481 -40.7097 -2.4953 0.0581 0 8
-12.6880 -40.9203 -2.4953 0.0581 0 8
-12.0246 -41.1201 -2.4953 0.0581 0 8
-11.3581 -41.3092 -2.4953 0.0581 0 8
-10.6886 -41.4874 -2.4953 0.0581 0 8
-10.0163 -41.6548 -2.4953 0.0581 0 8
-9.3414 -41.8115 -2.4953 0.0581 0 8
-8.6640 -41.9570 -2.4953 0.0581 0 8
-7.9844 -42.0916 -2.4953 0.0581 0 8
-7.3027 -42.2152 -2.4953 0.0581 0 8
-6.6191 -42.3278 -2.4953 0.0581 0 8
-5.9337 -42.4293 -2.4953 0.0581 0 8
-5.2468 -42.5197 -2.4953 0.0581 0 8
-4.5585 -42.5990 -2.4953 0.0581 0 8
-3.8690 -42.6671 -2.4953 0.0581 0 8
-3.1786 -42.7241 -2.4953 0.0581 0 8
-2.4872 -42.7699 -2.4953 0.0581 0 8
-1.7953 -42.8046 -2.4953 0.0581 0 8
-1.1028 -42.8280 -2.4953 0.0581 0 8
-0.4101 -42.8402 -2.4953 0.0581 0 8
0.2827 -42.8412 -2.4953 0.0581 0 8
0.9755 -42.8311 -2.4953 0.0581 0 8
1.6680 -42.8097 -2.4953 0.0581 0 8
2.3600 -42.7771 -2.4953 0.0581 0 8
3.0515 -42.7334 -2.4953 0.0581 0 8
3.7421 -42.6784 -2.4953 0.0581 0 8
4.4318 -42.6123 -2.4953 0.0581 0 8
5.1203 -42.5351 -2.4953 0.0581 0 8
5.8075 -42.4467 -2.4953 0.0581 0 8
6.4932 -42.3473 -2.4953 0.0581 0 8
7.1771 -42.2367 -2.4953 0.0581 0 8
7.8592 -42.1152 -2.4953 0.0581 0 8
8.5392 -41.9826 -2.4953 0.0581 0 8
9.2170 -41.8390 -2.4953 0.0581 0 8
9.8924 -41.6845 -2.4953 0.0581 0 8
10.5652 -41.5190 -2.4953 0.0581 0 8
11.2352 -41.3427 -2.4953 0.0581 0 8
11.9023 -41.1557 -2.4953 0.0581 0 8
12.5663 -40.9578 -2.4953 0.0581 0 8
13.2270 -40.7492 -2.4953 0.0581 0 8
13.8842 -40.5300 -2.4953 0.0581 0 8
14.5378 -40.3002 -2.4953 0.0581 0 8
15.1876 -40.0598 -2.4953 0.0581 0 8
15.8334 -39.8090 -2.4953 0.0581 0 8
16.4751 -39.5477 -2.4953 0.0581 0 8
17.1125 -39.2761 -2.4953 0.0581 0 8
17.7454 -38.9943 -2.4953 0.0581 0 8
18.3736 -38.7022 -2.4953 0.0581 0 8
18.9971 -38.4000 -2.4953 0.0581 0 8
19.6156 -38.0878 -2.4953 0.0581 0 8
20.2290 -37.7656 -2.4953 0.0581 0 8
20.8370 -37.4336 -2.4953 0.0581 0 8
21.4397 -37.0917 -2.4953 0.0581 0 8
22.0367 -36.7401 -2.4953 0.0581 0 8
22.6279 -36.3790 -2.4953 0.0581 0 8
23.2133 -36.0083 -2.4953 0.0581 0 8
23.7925 -35.6282 -2.4953 0.0581 0 8
24.3656 -35.2388 -2.4953 0.0581 0 8
24.9322 -34.8402 -2.4953 0.0581 0 8
25.4924 -34.4324 -2.4953 0.0581 0 8
26.0458 -34.0157 -2.4953 0.0581 0 8
26.5925 -33.5900 -2.4953 0.0581 0 8
27.1322 -33.1556 -2.4953 0.0581 0 8
27.6648 -32.7125 -2.4953 0.0581 0 8
28.1902 -32.2609 -2.4953 0.0581 0 8
28.7082 -31.8008 -2.4953 0.0581 0 8
29.2187 -31.3325 -2.4953 0.0581 0 8
29.7216 -30.8558 -2.4953 0.0581 0 8
30.2167 -30.3709 -2.4953 0.0581 0 8
30.7039 -29.8785 -2.4953 0.0581 0 8
31.1830 -29.3781 -2.4953 0.0581 0 8
31.6540 -28.8700 -2.4953 0.0581 0 8
32.1167 -28.3543 -2.4953 0.0581 0 8
32.5711 -27.8312 -2.4953 0.0581 0 8
33.0169 -27.3005 -2.4953 0.0581 0 8
33.4541 -26.7634 -2.4953 0.0581 0 8
33.8825 -26.2189 -2.4953 0.0581 0 8
34.3020 -25.6676 -2.4953 0.0581 0 8
34.7126 -25.1095 -2.4953 0.0581 0 8
35.1141 -24.5449 -2.4953 0.0581 0 8
35.5064 -23.9738 -2.4953 0.0581 0 8
-12.2500 -35.4146 -2.4953 0.0664 0 8
-11.6755 -35.6086 -2.4953 0.0664 0 8
-11.0982 -35.7928 -2.4953 0.0664 0 8
-10.5180 -35.9669 -2.4953 0.0664 0 8
-9.9349 -36.1330 -2.4953 0.0664 0 8
-9.3493 -36.2889 -2.4953 0.0664 0 8
-8.7612 -36.4353 -2.4953 0.0664 0 8
-8.1709 -36.5723 -2.4953 0.0664 0 8
-7.5784 -36.6996 -2.4953 0.0664 0 8
-6.9839 -36.8174 -2.4953 0.0664 0 8
-6.3876 -36.9255 -2.4953 0.0664 0 8
-5.7897 -37.0240 -2.4953 0.0664 0 8
-5.1902 -37.1127 -2.4953 0.0664 0 8
-4.5893 -37.1918 -2.4953 0.0664 0 8
-3.9873 -37.2612 -2.4953 0.0664 0 8
-3.3842 -37.3208 -2.4953 0.0664 0 8
-2.7803 -37.3706 -2.4953 0.0664 0 8
-2.1756 -37.4108 -2.4953 0.0664 0 8
-1.5703 -37.4410 -2.4953 0.0664 0 8
-0.9647 -37.4615 -2.4953 0.0664 0 8
-0.3587 -37.4722 -2.4953 0.0664 0 8
0.2473 -37.4731 -2.4953 0.0664 0 8
0.8532 -37.4642 -2.4953 0.0664 0 8
1.4590 -37.4455 -2.4953 0.0664 0 8
2.0643 -37.4170 -2.4953 0.0664 0 8
2.6691 -37.3787 -2.4953 0.0664 0 8
3.2732 -37.3307 -2.4953 0.0664 0 8
3.8765 -37.2729 -2.4953 0.0664 0 8
4.4787 -37.2053 -2.4953 0.0664 0 8
5.0798 -37.1280 -2.4953 0.0664 0 8
5.6795 -37.0410 -2.4953 0.0664 0 8
6.2778 -36.9443 -2.4953 0.0664 0 8
6.8744 -36.8380 -2.4953 0.0664 0 8
7.4692 -36.7220 -2.4953 0.0664 0 8
8.0621 -36.5964 -2.4953 0.0664 0 8
8.6528 -36.4612 -2.4953 0.0664 0 8
9.2413 -36.3165 -2.4953 0.0664 0 8
9.8274 -36.1624 -2.4953 0.0664 0 8
10.4109 -35.9987 -2.4953 0.0664 0 8
10.9917 -35.8256 -2.4953 0.0664 0 8
11.5696 -35.6432 -2.4953 0.0664 0 8
12.1444 -35.4515 -2.4953 0.0664 0 8
12.7161 -35.2504 -2.4953 0.0664 0 8
13.2845 -35.0402 -2.4953 0.0664 0 8
13.8494 -34.8208 -2.4953 0.0664 0 8
14.4107 -34.5923 -2.4953 0.0664 0 8
14.9682 -34.3551 -2.4953 0.0664 0 8
15.5218 -34.1082 -2.4953 0.0664 0 8
16.0714 -33.8527 -2.4953 0.0664 0 8
16.6167 -33.5884 -2.4953 0.0664 0 8
17.1577 -33.3153 -2.4953 0.0664 0 8
17.6942 -33.0335 -2.4953 0.0664 0 8
18.2261 -32.7430 -2.4953 0.0664 0 8
18.7532 -32.4440 -2.4953 0.0664 0 8
19.2754 -32.1365 -2.4953 0.0664 0 8
19.7926 -31.8206 -2.4953 0.0664 0 8
20.3046 -31.4963 -2.4953 0.0664 0 8
20.8112 -31.1638 -2.4953 0.0664 0 8
21.3125 -30.8232 -2.4953 0.0664 0 8
21.8081 -30.4746 -2.4953 0.0664 0 8
22.2981 -30.1179 -2.4953 0.0664 0 8
22.7822 -29.7534 -2.4953 0.0664 0 8
23.2604 -29.3811 -2.4953 0.0664 0 8
23.7324 -29.0009 -2.4953 0.0664 0 8
24.1983 -28.6135 -2.4953 0.0664 0 8
24.6579 -28.2185 -2.4953 0.0664 0 8
25.1110 -27.8160 -2.4953 0.0664 0 8
25.5575 -27.4063 -2.4953 0.0664 0 8
25.9974 -26.9895 -2.4953 0.0664 0 8
26.4304 -26.5655 -2.4953 0.0664 0 8
26.8566 -26.1346 -2.4953 0.0664 0 8
27.2757 -25.6969 -2.4953 0.0664 0 8
27.6877 -25.2525 -2.4953 0.0664 0 8
28.0924 -24.8014 -2.4953 0.0664 0 8
28.4898 -24.3439 -2.4953 0.0664 0 8
28.8797 -23.8800 -2.4953 0.0664 0 8
29.2621 -23.4098 -2.4953 0.0664 0 8
29.6369 -22.9336 -2.4953 0.0664 0 8
30.0039 -22.4513 -2.4953 0.0664 0 8
30.3630 -21.9632 -2.4953 0.0664 0 8
30.7142 -21.4693 -2.4953 0.0664 0 8
31.0574 -20.9698 -2.4953 0.0664 0 8
-10.8845 -31.4678 -2.4953 0.0747 0 8
-10.3742 -31.6397 -2.4953 0.0747 0 8
-9.8612 -31.8034 -2.4953 0.0747 0 8
-9.3456 -31.9587 -2.4953 0.0747 0 8
-8.8276 -32.1056 -2.4953 0.0747 0 8
-8.3072 -32.2442 -2.4953 0.0747 0 8
-7.7847 -32.3743 -2.4953 0.0747 0 8
-7.2602 -32.4959 -2.4953 0.0747 0 8
-6.7337 -32.6091 -2.4953 0.0747 0 8
-6.2055 -32.7135 -2.4953 0.0747 0 8
-5.6757 -32.8098 -2.4953 0.0747 0 8
-5.1444 -32.8973 -2.4953 0.0747 0 8
-4.6117 -32.9762 -2.4953 0.0747 0 8
-4.0778 -33.0464 -2.4953 0.0747 0 8
-3.5429 -33.1081 -2.4953 0.0747 0 8
-3.0070 -33.1610 -2.4953 0.0747 0 8
-2.4704 -33.2054 -2.4953 0.0747 0 8
-1.9331 -33.2409 -2.4953 0.0747 0 8
-1.3953 -33.2678 -2.4953 0.0747 0 8
-0.8571 -33.2861 -2.4953 0.0747 0 8
-0.3188 -33.2956 -2.4953 0.0747 0 8
0.2197 -33.2964 -2.4953 0.0747 0 8
0.7581 -33.2885 -2.4953 0.0747 0 8
1.2964 -33.2718 -2.4953 0.0747 0 8
1.8342 -33.2465 -2.4953 0.0747 0 8
2.3716 -33.2125 -2.4953 0.0747 0 8
2.9084 -33.1698 -2.4953 0.0747 0 8
3.4444 -33.1185 -2.4953 0.0747 0 8
3.9795 -33.0584 -2.4953 0.0747 0 8
4.5136 -32.9898 -2.4953 0.0747 0 8
5.0465 -32.9125 -2.4953 0.0747 0 8
5.5781 -32.8265 -2.4953 0.0747 0 8
6.1082 -32.7320 -2.4953 0.0747 0 8
6.6367 -32.6290 -2.4953 0.0747 0 8
7.1635 -32.5174 -2.4953 0.0747 0 8
7.6884 -32.3973 -2.4953 0.0747 0 8
8.2113 -32.2687 -2.4953 0.0747 0 8
8.7320 -32.1317 -2.4953 0.0747 0 8
9.2505 -31.9863 -2.4953 0.0747 0 8
9.7666 -31.8325 -2.4953 0.0747 0 8
10.2800 -31.6704 -2.4953 0.0747 0 8
10.7908 -31.5001 -2.4953 0.0747 0 8
11.2988 -31.3214 -2.4953 0.0747 0 8
11.8038 -31.1346 -2.4953 0.0747 0 8
12.3058 -30.9397 -2.4953 0.0747 0 8
12.8045 -30.7366 -2.4953 0.0747 0 8
13.2999 -30.5256 -2.4953 0.0747 0 8
13.7918 -30.3065 -2.4953 0.0747 0 8
14.2801 -30.0795 -2.4953 0.0747 0 8
14.7646 -29.8453 -2.4953 0.0747 0 8
15.2453 -29.6020 -2.4953 0.0747 0 8
15.7220 -29.3516 -2.4953 0.0747 0 8
16.1946 -29.0935 -2.4953 0.0747 0 8
16.6630 -28.8278 -2.4953 0.0747 0 8
17.1270 -28.5546 -2.4953 0.0747 0 8
17.5865 -28.2739 -2.4953 0.0747 0 8
18.0414 -27.9858 -2.4953 0.0747 0 8
18.4916 -27.6904 -2.4953 0.0747 0 8
18.9370 -27.3877 -2.4953 0.0747 0 8
19.3774 -27.0779 -2.4953 0.0747 0 8
19.8127 -26.7610 -2.4953 0.0747 0 8
20.2429 -26.4371 -2.4953 0.0747 0 8
20.6678 -26.1063 -2.4953 0.0747 0 8
21.0872 -25.7687 -2.4953 0.0747 0 8
21.5012 -25.4243 -2.4953 0.0747 0 8
21.9095 -25.0733 -2.4953 0.0747 0 8
22.3121 -24.7157 -2.4953 0.0747 0 8
22.7089 -24.3516 -2.4953 0.0747 0 8
23.0997 -23.9812 -2.4953 0.0747 0 8
23.4845 -23.6046 -2.4953 0.0747 0 8
23.8632 -23.2217 -2.4953 0.0747 0 8
24.2355 -22.8328 -2.4953 0.0747 0 8
24.6016 -22.4379 -2.4953 0.0747 0 8
24.9612 -22.0371 -2.4953 0.0747 0 8
25.3143 -21.6305 -2.4953 0.0747 0 8
25.6608 -21.2184 -2.4953 0.0747 0 8
26.0006 -20.8006 -2.4953 0.0747 0 8
26.3336 -20.3774 -2.4953 0.0747 0 8
26.6597 -19.9492 -2.4953 0.0747 0 8
26.9788 -19.5152 -2.4953 0.0747 0 8
27.2908 -19.0764 -2.4953 0.0747 0 8
27.5957 -18.6326 -2.4953 0.0747 0 8
-9.7917 -28.3086 -2.4953 0.0830 0 8
-9.3327 -28.4632 -2.4953 0.0830 0 8
-8.8712 -28.6104 -2.4953 0.0830 0 8
-8.4073 -28.7502 -2.4953 0.0830 0 8
-7.9413 -28.8824 -2.4953 0.0830 0 8
-7.4732 -29.0070 -2.4953 0.0830 0 8
-7.0032 -29.1241 -2.4953 0.0830 0 8
-6.5313 -29.2335 -2.4953 0.0830 0 8
-6.0577 -29.3353 -2.4953 0.0830 0 8
-5.5825 -29.4294 -2.4953 0.0830 0 8
-5.1059 -29.5158 -2.4953 0.0830 0 8
-4.6279 -29.5945 -2.4953 0.0830 0 8
-4.1487 -29.6655 -2.4953 0.0830 0 8
-3.6684 -29.7287 -2.4953 0.0830 0 8
-3.1872 -29.7842 -2.4953 0.0830 0 8
-2.7051 -29.8318 -2.4953 0.0830 0 8
-2.2224 -29.8717 -2.4953 0.0830 0 8
-1.7390 -29.9037 -2.4953 0.0830 0 8
-1.2552 -29.9279 -2.4953 0.0830 0 8
-0.7711 -29.9443 -2.4953 0.0830 0 8
-0.2867 -29.9528 -2.4953 0.0830 0 8
0.1977 -29.9536 -2.4953 0.0830 0 8
0.6820 -29.9465 -2.4953 0.0830 0 8
1.1662 -29.9315 -2.4953 0.0830 0 8
1.6501 -29.9087 -2.4953 0.0830 0 8
2.1335 -29.8781 -2.4953 0.0830 0 8
2.6164 -29.8397 -2.4953 0.0830 0 8
3.0986 -29.7935 -2.4953 0.0830 0 8
3.5800 -29.7395 -2.4953 0.0830 0 8
4.0605 -29.6780 -2.4953 0.0830 0 8
4.5399 -29.6082 -2.4953 0.0830 0 8
5.0181 -29.5309 -2.4953 0.0830 0 8
5.4950 -29.4459 -2.4953 0.0830 0 8
5.9704 -29.3532 -2.4953 0.0830 0 8
6.4443 -29.2528 -2.4953 0.0830 0 8
6.9165 -29.1446 -2.4953 0.0830 0 8
7.3869 -29.0291 -2.4953 0.0830 0 8
7.8554 -28.9058 -2.4953 0.0830 0 8
8.3218 -28.7750 -2.4953 0.0830 0 8
8.7860 -28.6367 -2.4953 0.0830 0 8
9.2480 -28.4909 -2.4953 0.0830 0 8
9.7075 -28.3376 -2.4953 0.0830 0 8
10.1645 -28.1769 -2.4953 0.0830 0 8
10.6188 -28.0089 -2.4953 0.0830 0 8
11.0703 -27.8335 -2.4953 0.0830 0 8
11.5190 -27.6508 -2.4953 0.0830 0 8
11.9646 -27.4609 -2.4953 0.0830 0 8
12.4071 -27.2639 -2.4953 0.0830 0 8
12.8464 -27.0597 -2.4953 0.0830 0 8
13.2823 -26.8484 -2.4953 0.0830 0 8
13.7147 -26.6301 -2.4953 0.0830 0 8
14.1436 -26.4048 -2.4953 0.0830 0 8
14.5687 -26.1726 -2.4953 0.0830 0 8
14.9901 -25.9336 -2.4953 0.0830 0 8
15.4075 -25.6878 -2.4953 0.0830 0 8
15.8209 -25.4353 -2.4953 0.0830 0 8
16.2301 -25.1761 -2.4953 0.0830 0 8
16.6352 -24.9104 -2.4953 0.0830 0 8
17.0358 -24.6381 -2.4953 0.0830 0 8
17.4320 -24.3600 -2.4953 0.0830 0 8
17.8236 -24.0743 -2.4953 0.0830 0 8
18.2106 -23.7829 -2.4953 0.0830 0 8
18.5928 -23.4854 -2.4953 0.0830 0 8
18.9702 -23.1816 -2.4953 0.0830 0 8
19.3426 -22.8718 -2.4953 0.0830 0 8
19.7099 -22.5560 -2.4953 0.0830 0 8
20.0721 -22.2343 -2.4953 0.0830 0 8
20.4290 -21.9070 -2.4953 0.0830 0 8
20.7806 -21.5736 -2.4953 0.0830 0 8
21.1268 -21.2348 -2.4953 0.0830 0 8
21.4674 -20.8903 -2.4953 0.0830 0 8
21.8024 -20.5404 -2.4953 0.0830 0 8
22.1317 -20.1852 -2.4953 0.0830 0 8
22.4552 -19.8247 -2.4953 0.0830 0 8
22.7729 -19.4589 -2.4953 0.0830 0 8
23.0846 -19.0881 -2.4953 0.0830 0 8
23.3902 -18.7112 -2.4953 0.0830 0 8
23.6898 -18.3316 -2.4953 0.0830 0 8
23.9832 -17.9461 -2.4953 0.0830 0 8
24.2702 -17.5560 -2.4953 0.0830 0 8
24.5509 -17.1612 -2.4953 0.0830 0 8
24.8252 -16.7619 -2.4953 0.0830 0 8
-8.8973 -25.7226 -2.4953 0.0913 0 8
-8.4801 -25.8631 -2.4953 0.0913 0 8
-8.0608 -25.9969 -2.4953 0.0913 0 8
-7.6393 -26.1238 -2.4953 0.0913 0 8
-7.2159 -26.2440 -2.4953 0.0913 0 8
-6.7905 -26.3572 -2.4953 0.0913 0 8
-6.3634 -26.4636 -2.4953 0.0913 0 8
-5.9347 -26.5630 -2.4953 0.0913 0 8
-5.5043 -26.6555 -2.4953 0.0913 0 8
-5.0725 -26.7411 -2.4953 0.0913 0 8
-4.6394 -26.8196 -2.4953 0.0913 0 8
-4.2051 -26.8911 -2.4953 0.0913 0 8
-3.7697 -26.9556 -2.4953 0.0913 0 8
-3.3333 -27.0130 -2.4953 0.0913 0 8
-2.8961 -27.0634 -2.4953 0.0913 0 8
-2.4580 -27.1067 -2.4953 0.0913 0 8
-2.0194 -27.1429 -2.4953 0.0913 0 8
-1.5802 -27.1720 -2.4953 0.0913 0 8
-1.1406 -27.1940 -2.4953 0.0913 0 8
-0.7006 -27.2089 -2.4953 0.0913 0 8
-0.2606 -27.2167 -2.4953 0.0913 0 8
0.1796 -27.2173 -2.4953 0.0913 0 8
0.6197 -27.2109 -2.4953 0.0913 0 8
1.0597 -27.1973 -2.4953 0.0913 0 8
1.4993 -27.1766 -2.4953 0.0913 0 8
1.9386 -27.1488 -2.4953 0.0913 0 8
2.3774 -27.1139 -2.4953 0.0913 0 8
2.8155 -27.0719 -2.4953 0.0913 0 8
3.2530 -27.0228 -2.4953 0.0913 0 8
3.6895 -26.9667 -2.4953 0.0913 0 8
4.1251 -26.9035 -2.4953 0.0913 0 8
4.5597 -26.8333 -2.4953 0.0913 0 8
4.9930 -26.7560 -2.4953 0.0913 0 8
5.4250 -26.6718 -2.4953 0.0913 0 8
5.8556 -26.5806 -2.4953 0.0913 0 8
6.2847 -26.4824 -2.4953 0.0913 0 8
6.7121 -26.3773 -2.4953 0.0913 0 8
7.1378 -26.2653 -2.4953 0.0913 0 8
7.5616 -26.1465 -2.4953 0.0913 0 8
7.9834 -26.0208 -2.4953 0.0913 0 8
8.4032 -25.8882 -2.4953 0.0913 0 8
8.8207 -25.7490 -2.4953 0.0913 0 8
9.2360 -25.6030 -2.4953 0.0913 0 8
9.6488 -25.4503 -2.4953 0.0913 0 8
10.0591 -25.2909 -2.4953 0.0913 0 8
10.4667 -25.1249 -2.4953 0.0913 0 8
10.8717 -24.9524 -2.4953 0.0913 0 8
11.2738 -24.7733 -2.4953 0.0913 0 8
11.6729 -24.5878 -2.4953 0.0913 0 8
12.0690 -24.3958 -2.4953 0.0913 0 8
12.4619 -24.1974 -2.4953 0.0913 0 8
12.8516 -23.9927 -2.4953 0.0913 0 8
13.2379 -23.7818 -2.4953 0.0913 0 8
13.6207 -23.5646 -2.4953 0.0913 0 8
14.0000 -23.3412 -2.4953 0.0913 0 8
14.3757 -23.1118 -2.4953 0.0913 0 8
14.7475 -22.8763 -2.4953 0.0913 0 8
15.1155 -22.6348 -2.4953 0.0913 0 8
15.4796 -22.3874 -2.4953 0.0913 0 8
15.8396 -22.1342 -2.4953 0.0913 0 8
16.1955 -21.8751 -2.4953 0.0913 0 8
16.5471 -21.6104 -2.4953 0.0913 0 8
16.8944 -21.3400 -2.4953 0.0913 0 8
17.2373 -21.0640 -2.4953 0.0913 0 8
17.5756 -20.7825 -2.4953 0.0913 0 8
17.9094 -20.4955 -2.4953 0.0913 0 8
18.2385 -20.2032 -2.4953 0.0913 0 8
18.5629 -19.9057 -2.4953 0.0913 0 8
18.8823 -19.6029 -2.4953 0.0913 0 8
19.1968 -19.2950 -2.4953 0.0913 0 8
19.5064 -18.9820 -2.4953 0.0913 0 8
19.8108 -18.6641 -2.4953 0.0913 0 8
20.1100 -18.3413 -2.4953 0.0913 0 8
20.4040 -18.0137 -2.4953 0.0913 0 8
20.6926 -17.6814 -2.4953 0.0913 0 8
20.9758 -17.3444 -2.4953 0.0913 0 8
21.2536 -17.0030 -2.4953 0.0913 0 8
21.5258 -16.6570 -2.4953 0.0913 0 8
21.7923 -16.3068 -2.4953 0.0913 0 8
22.0531 -15.9522 -2.4953 0.0913 0 8
22.3082 -15.5935 -2.4953 0.0913 0 8
22.5575 -15.2307 -2.4953 0.0913 0 8
-8.1515 -23.5665 -2.4953 0.0996 0 8
-7.7693 -23.6953 -2.4953 0.0996 0 8
-7.3851 -23.8178 -2.4953 0.0996 0 8
-6.9990 -23.9341 -2.4953 0.0996 0 8
-6.6110 -24.0443 -2.4953 0.0996 0 8
-6.2214 -24.1480 -2.4953 0.0996 0 8
-5.8300 -24.2454 -2.4953 0.0996 0 8
-5.4372 -24.3365 -2.4953 0.0996 0 8
-5.0429 -24.4213 -2.4953 0.0996 0 8
-4.6474 -24.4996 -2.4953 0.0996 0 8
-4.2506 -24.5716 -2.4953 0.0996 0 8
-3.8527 -24.6371 -2.4953 0.0996 0 8
-3.4537 -24.6962 -2.4953 0.0996 0 8
-3.0539 -24.7488 -2.4953 0.0996 0 8
-2.6533 -24.7949 -2.4953 0.0996 0 8
-2.2520 -24.8346 -2.4953 0.0996 0 8
-1.8501 -24.8678 -2.4953 0.0996 0 8
-1.4477 -24.8944 -2.4953 0.0996 0 8
-1.0449 -24.9146 -2.4953 0.0996 0 8
-0.6419 -24.9282 -2.4953 0.0996 0 8
-0.2387 -24.9354 -2.4953 0.0996 0 8
0.1645 -24.9359 -2.4953 0.0996 0 8
0.5678 -24.9300 -2.4953 0.0996 0 8
0.9709 -24.9176 -2.4953 0.0996 0 8
1.3737 -24.8986 -2.4953 0.0996 0 8
1.7761 -24.8732 -2.4953 0.0996 0 8
2.1781 -24.8412 -2.4953 0.0996 0 8
2.5795 -24.8027 -2.4953 0.0996 0 8
2.9803 -24.7577 -2.4953 0.0996 0 8
3.3803 -24.7063 -2.4953 0.0996 0 8
3.7794 -24.6485 -2.4953 0.0996 0 8
4.1775 -24.5841 -2.4953 0.0996 0 8
4.5745 -24.5133 -2.4953 0.0996 0 8
4.9703 -24.4361 -2.4953 0.0996 0 8
5.3648 -24.3526 -2.4953 0.0996 0 8
5.7579 -24.2626 -2.4953 0.0996 0 8
6.1495 -24.1663 -2.4953 0.0996 0 8
6.5395 -24.0638 -2.4953 0.0996 0 8
6.9278 -23.9548 -2.4953 0.0996 0 8
7.3143 -23.8397 -2.4953 0.0996 0 8
7.6988 -23.7183 -2.4953 0.0996 0 8
8.0814 -23.5907 -2.4953 0.0996 0 8
8.4618 -23.4569 -2.4953 0.0996 0 8
8.8400 -23.3170 -2.4953 0.0996 0 8
9.2159 -23.1710 -2.4953 0.0996 0 8
9.5894 -23.0190 -2.4953 0.0996 0 8
9.9604 -22.8609 -2.4953 0.0996 0 8
10.3288 -22.6968 -2.4953 0.0996 0 8
10.6945 -22.5268 -2.4953 0.0996 0 8
11.0574 -22.3509 -2.4953 0.0996 0 8
11.4174 -22.1692 -2.4953 0.0996 0 8
11.7744 -21.9817 -2.4953 0.0996 0 8
12.1283 -21.7884 -2.4953 0.0996 0 8
12.4791 -21.5894 -2.4953 0.0996 0 8
12.8266 -21.3848 -2.4953 0.0996 0 8
13.1707 -21.1746 -2.4953 0.0996 0 8
13.5114 -20.9588 -2.4953 0.0996 0 8
13.8485 -20.7376 -2.4953 0.0996 0 8
14.1821 -20.5109 -2.4953 0.0996 0 8
14.5119 -20.2789 -2.4953 0.0996 0 8
14.8379 -20.0416 -2.4953 0.0996 0 8
15.1601 -19.7990 -2.4953 0.0996 0 8
15.4783 -19.5513 -2.4953 0.0996 0 8
15.7924 -19.2984 -2.4953 0.0996 0 8
16.1024 -19.0405 -2.4953 0.0996 0 8
16.4083 -18.7776 -2.4953 0.0996 0 8
16.7098 -18.5098 -2.4953 0.0996 0 8
17.0069 -18.2372 -2.4953 0.0996 0 8
17.2996 -17.9598 -2.4953 0.0996 0 8
17.5878 -17.6777 -2.4953 0.0996 0 8
17.8713 -17.3909 -2.4953 0.0996 0 8
18.1502 -17.0997 -2.4953 0.0996 0 8
18.4244 -16.8039 -2.4953 0.0996 0 8
18.6937 -16.5038 -2.4953 0.0996 0 8
18.9581 -16.1993 -2.4953 0.0996 0 8
19.2176 -15.8906 -2.4953 0.0996 0 8
19.4721 -15.5778 -2.4953 0.0996 0 8
19.7215 -15.2608 -2.4953 0.0996 0 8
19.9657 -14.9399 -2.4953 0.0996 0 8
20.2046 -14.6147 -2.4953 0.0996 0 8
20.4383 -14.2865 -2.4953 0.0996 0 8
20.6667 -13.9541 -2.4953 0.0996 0 8
-7.5201 -21.7411 -2.4953 0.1078 0 8
-7.1675 -21.8599 -2.4953 0.1078 0 8
-6.8131 -21.9729 -2.4953 0.1078 0 8
-6.4569 -22.0802 -2.4953 0.1078 0 8
-6.0990 -22.1818 -2.4953 0.1078 0 8
-5.7395 -22.2775 -2.4953 0.1078 0 8
-5.3785 -22.3674 -2.4953 0.1078 0 8
-5.0160 -22.4514 -2.4953 0.1078 0 8
-4.6523 -22.5296 -2.4953 0.1078 0 8
-4.2874 -22.6019 -2.4953 0.1078 0 8
-3.9213 -22.6683 -2.4953 0.1078 0 8
-3.5542 -22.7287 -2.4953 0.1078 0 8
-3.1862 -22.7832 -2.4953 0.1078 0 8
-2.8174 -22.8318 -2.4953 0.1078 0 8
-2.4478 -22.8744 -2.4953 0.1078 0 8
-2.0776 -22.9110 -2.4953 0.1078 0 8
-1.7068 -22.9416 -2.4953 0.1078 0 8
-1.3356 -22.9662 -2.4953 0.1078 0 8
-0.9640 -22.9847 -2.4953 0.1078 0 8
-0.5922 -22.9973 -2.4953 0.1078 0 8
-0.2202 -23.0039 -2.4953 0.1078 0 8
0.1518 -23.0044 -2.4953 0.1078 0 8
0.5238 -22.9990 -2.4953 0.1078 0 8
0.8956 -22.9875 -2.4953 0.1078 0 8
1.2673 -22.9700 -2.4953 0.1078 0 8
1.6385 -22.9465 -2.4953 0.1078 0 8
2.0094 -22.9170 -2.4953 0.1078 0 8
2.3797 -22.8815 -2.4953 0.1078 0 8
2.7495 -22.8401 -2.4953 0.1078 0 8
3.1184 -22.7926 -2.4953 0.1078 0 8
3.4866 -22.7392 -2.4953 0.1078 0 8
3.8539 -22.6799 -2.4953 0.1078 0 8
4.2201 -22.6146 -2.4953 0.1078 0 8
4.5853 -22.5434 -2.4953 0.1078 0 8
4.9492 -22.4663 -2.4953 0.1078 0 8
5.3119 -22.3833 -2.4953 0.1078 0 8
5.6732 -22.2945 -2.4953 0.1078 0 8
6.0330 -22.1998 -2.4953 0.1078 0 8
6.3912 -22.0993 -2.4953 0.1078 0 8
6.7477 -21.9931 -2.4953 0.1078 0 8
7.1025 -21.8811 -2.4953 0.1078 0 8
7.4554 -21.7634 -2.4953 0.1078 0 8
7.8064 -21.6400 -2.4953 0.1078 0 8
8.1553 -21.5109 -2.4953 0.1078 0 8
8.5021 -21.3762 -2.4953 0.1078 0 8
8.8466 -21.2359 -2.4953 0.1078 0 8
9.1889 -21.0901 -2.4953 0.1078 0 8
9.5287 -20.9388 -2.4953 0.1078 0 8
9.8661 -20.7819 -2.4953 0.1078 0 8
10.2009 -20.6197 -2.4953 0.1078 0 8
10.5330 -20.4520 -2.4953 0.1078 0 8
10.8623 -20.2790 -2.4953 0.1078 0 8
11.1889 -20.1007 -2.4953 0.1078 0 8
11.5124 -19.9171 -2.4953 0.1078 0 8
11.8330 -19.7283 -2.4953 0.1078 0 8
12.1505 -19.5344 -2.4953 0.1078 0 8
12.4648 -19.3354 -2.4953 0.1078 0 8
12.7759 -19.1313 -2.4953 0.1078 0 8
13.0836 -18.9222 -2.4953 0.1078 0 8
13.3878 -18.7081 -2.4953 0.1078 0 8
13.6886 -18.4892 -2.4953 0.1078 0 8
13.9858 -18.2657 -2.4953 0.1078 0 8
14.2794 -18.0368 -2.4953 0.1078 0 8
14.5692 -17.8036 -2.4953 0.1078 0 8
14.8552 -17.5656 -2.4953 0.1078 0 8
15.1373 -17.3231 -2.4953 0.1078 0 8
15.4155 -17.0761 -2.4953 0.1078 0 8
15.6896 -16.8245 -2.4953 0.1078 0 8
15.9596 -16.5686 -2.4953 0.1078 0 8
16.2254 -16.3084 -2.4953 0.1078 0 8
16.4870 -16.0439 -2.4953 0.1078 0 8
16.7443 -15.7751 -2.4953 0.1078 0 8
16.9973 -15.5029 -2.4953 0.1078 0 8
17.2457 -15.2254 -2.4953 0.1078 0 8
17.4897 -14.9445 -2.4953 0.1078 0 8
17.7291 -14.6598 -2.4953 0.1078 0 8
17.9638 -14.3711 -2.4953 0.1078 0 8
18.1939 -14.0788 -2.4953 0.1078 0 8
18.4192 -13.7827 -2.4953 0.1078 0 8
18.6396 -13.4830 -2.4953 0.1078 0 8
18.8552 -13.1799 -2.4953 0.1078 0 8
19.0659 -12.8732 -2.4953 0.1078 0 8
-6.9786 -20.1756 -2.4953 0.1161 0 8
-6.6514 -20.2858 -2.4953 0.1161 0 8
-6.3225 -20.3907 -2.4953 0.1161 0 8
-5.9919 -20.4903 -2.4953 0.1161 0 8
-5.6598 -20.5845 -2.4953 0.1161 0 8
-5.3262 -20.6733 -2.4953 0.1161 0 8
-4.9912 -20.7567 -2.4953 0.1161 0 8
-4.6548 -20.8347 -2.4953 0.1161 0 8
-4.3173 -20.9073 -2.4953 0.1161 0 8
-3.9787 -20.9744 -2.4953 0.1161 0 8
-3.6390 -21.0360 -2.4953 0.1161 0 8
-3.2983 -21.0921 -2.4953 0.1161 0 8
-2.9568 -21.1426 -2.4953 0.1161 0 8
-2.6145 -21.1877 -2.4953 0.1161 0 8
-2.2715 -21.2272 -2.4953 0.1161 0 8
-1.9280 -21.2612 -2.4953 0.1161 0 8
-1.5839 -21.2896 -2.4953 0.1161 0 8
-1.2394 -21.3124 -2.4953 0.1161 0 8
-0.8946 -21.3297 -2.4953 0.1161 0 8
-0.5496 -21.3413 -2.4953 0.1161 0 8
-0.2044 -21.3474 -2.4953 0.1161 0 8
0.1409 -21.3479 -2.4953 0.1161 0 8
0.4861 -21.3429 -2.4953 0.1161 0 8
0.8312 -21.3322 -2.4953 0.1161 0 8
1.1760 -21.3160 -2.4953 0.1161 0 8
1.5206 -21.2942 -2.4953 0.1161 0 8
1.8647 -21.2668 -2.4953 0.1161 0 8
2.2084 -21.2339 -2.4953 0.1161 0 8
2.5515 -21.1954 -2.4953 0.1161 0 8
2.8939 -21.1513 -2.4953 0.1161 0 8
3.2356 -21.1018 -2.4953 0.1161 0 8
3.5764 -21.0467 -2.4953 0.1161 0 8
3.9163 -20.9861 -2.4953 0.1161 0 8
4.2551 -20.9200 -2.4953 0.1161 0 8
4.5929 -20.8485 -2.4953 0.1161 0 8
4.9294 -20.7715 -2.4953 0.1161 0 8
5.2647 -20.6891 -2.4953 0.1161 0 8
5.5985 -20.6012 -2.4953 0.1161 0 8
5.9310 -20.5080 -2.4953 0.1161 0 8
6.2618 -20.4094 -2.4953 0.1161 0 8
6.5910 -20.3054 -2.4953 0.1161 0 8
6.9185 -20.1962 -2.4953 0.1161 0 8
7.2442 -20.0817 -2.4953 0.1161 0 8
7.5680 -19.9619 -2.4953 0.1161 0 8
7.8898 -19.8369 -2.4953 0.1161 0 8
8.2096 -19.7068 -2.4953 0.1161 0 8
8.5272 -19.5714 -2.4953 0.1161 0 8
8.8426 -19.4310 -2.4953 0.1161 0 8
9.1556 -19.2854 -2.4953 0.1161 0 8
9.4663 -19.1349 -2.4953 0.1161 0 8
9.7745 -18.9793 -2.4953 0.1161 0 8
10.0802 -18.8187 -2.4953 0.1161 0 8
10.3832 -18.6533 -2.4953 0.1161 0 8
10.6834 -18.4829 -2.4953 0.1161 0 8
10.9809 -18.3077 -2.4953 0.1161 0 8
11.2756 -18.1278 -2.4953 0.1161 0 8
11.5672 -17.9431 -2.4953 0.1161 0 8
11.8559 -17.7537 -2.4953 0.1161 0 8
12.1414 -17.5596 -2.4953 0.1161 0 8
12.4238 -17.3610 -2.4953 0.1161 0 8
12.7029 -17.1578 -2.4953 0.1161 0 8
12.9787 -16.9501 -2.4953 0.1161 0 8
13.2511 -16.7380 -2.4953 0.1161 0 8
13.5201 -16.5216 -2.4953 0.1161 0 8
13.7855 -16.3008 -2.4953 0.1161 0 8
14.0473 -16.0757 -2.4953 0.1161 0 8
14.3054 -15.8464 -2.4953 0.1161 0 8
14.5598 -15.6130 -2.4953 0.1161 0 8
14.8104 -15.3755 -2.4953 0.1161 0 8
15.0571 -15.1340 -2.4953 0.1161 0 8
15.2998 -14.8886 -2.4953 0.1161 0 8
15.5386 -14.6392 -2.4953 0.1161 0 8
15.7733 -14.3860 -2.4953 0.1161 0 8
16.0039 -14.1291 -2.4953 0.1161 0 8
16.2303 -13.8684 -2.4953 0.1161 0 8
16.4524 -13.6041 -2.4953 0.1161 0 8
16.6703 -13.3363 -2.4953 0.1161 0 8
16.8837 -13.0648 -2.4953 0.1161 0 8
17.0928 -12.7902 -2.4953 0.1161 0 8
17.2974 -12.5121 -2.4953 0.1161 0 8
17.4975 -12.2308 -2.4953 0.1161 0 8
17.6930 -11.9462 -2.4953 0.1161 0 8
-6.5090 -18.8179 -2.4953 0.1243 0 8
-6.2038 -18.9207 -2.4953 0.1243 0 8
-5.8970 -19.0185 -2.4953 0.1243 0 8
-5.5887 -19.1114 -2.4953 0.1243 0 8
-5.2789 -19.1993 -2.4953 0.1243 0 8
-4.9678 -19.2821 -2.4953 0.1243 0 8
-4.6553 -19.3600 -2.4953 0.1243 0 8
-4.3416 -19.4327 -2.4953 0.1243 0 8
-4.0268 -19.5004 -2.4953 0.1243 0 8
-3.7109 -19.5629 -2.4953 0.1243 0 8
-3.3941 -19.6204 -2.4953 0.1243 0 8
-3.0763 -19.6727 -2.4953 0.1243 0 8
-2.7578 -19.7199 -2.4953 0.1243 0 8
-2.4386 -19.7619 -2.4953 0.1243 0 8
-2.1187 -19.7988 -2.4953 0.1243 0 8
-1.7982 -19.8304 -2.4953 0.1243 0 8
-1.4773 -19.8569 -2.4953 0.1243 0 8
-1.1560 -19.8782 -2.4953 0.1243 0 8
-0.8344 -19.8943 -2.4953 0.1243 0 8
-0.5126 -19.9052 -2.4953 0.1243 0 8
-0.1906 -19.9109 -2.4953 0.1243 0 8
0.1314 -19.9114 -2.4953 0.1243 0 8
0.4534 -19.9066 -2.4953 0.1243 0 8
0.7752 -19.8967 -2.4953 0.1243 0 8
1.0969 -19.8816 -2.4953 0.1243 0 8
1.4182 -19.8612 -2.4953 0.1243 0 8
1.7392 -19.8357 -2.4953 0.1243 0 8
2.0598 -19.8050 -2.4953 0.1243 0 8
2.3798 -19.7691 -2.4953 0.1243 0 8
2.6991 -19.7280 -2.4953 0.1243 0 8
3.0178 -19.6818 -2.4953 0.1243 0 8
3.3357 -19.6304 -2.4953 0.1243 0 8
3.6527 -19.5739 -2.4953 0.1243 0 8
3.9688 -19.5123 -2.4953 0.1243 0 8
4.2838 -19.4455 -2.4953 0.1243 0 8
4.5977 -19.3737 -2.4953 0.1243 0 8
4.9104 -19.2968 -2.4953 0.1243 0 8
5.2218 -19.2149 -2.4953 0.1243 0 8
5.5318 -19.1279 -2.4953 0.1243 0 8
5.8404 -19.0360 -2.4953 0.1243 0 8
6.1475 -18.9391 -2.4953 0.1243 0 8
6.4530 -18.8372 -2.4953 0.1243 0 8
6.7567 -18.7304 -2.4953 0.1243 0 8
7.0587 -18.6186 -2.4953 0.1243 0 8
7.3589 -18.5021 -2.4953 0.1243 0 8
7.6571 -18.3806 -2.4953 0.1243 0 8
7.9534 -18.2544 -2.4953 0.1243 0 8
8.2475 -18.1234 -2.4953 0.1243 0 8
8.5395 -17.9877 -2.4953 0.1243 0 8
8.8293 -17.8472 -2.4953 0.1243 0 8
9.1168 -17.7021 -2.4953 0.1243 0 8
9.4018 -17.5524 -2.4953 0.1243 0 8
9.6844 -17.3980 -2.4953 0.1243 0 8
9.9645 -17.2391 -2.4953 0.1243 0 8
10.2420 -17.0757 -2.4953 0.1243 0 8
10.5168 -16.9079 -2.4953 0.1243 0 8
10.7888 -16.7356 -2.4953 0.1243 0 8
11.0581 -16.5589 -2.4953 0.1243 0 8
11.3244 -16.3780 -2.4953 0.1243 0 8
11.5878 -16.1927 -2.4953 0.1243 0 8
11.8481 -16.0032 -2.4953 0.1243 0 8
12.1053 -15.8095 -2.4953 0.1243 0 8
12.3594 -15.6117 -2.4953 0.1243 0 8
12.6103 -15.4098 -2.4953 0.1243 0 8
12.8578 -15.2038 -2.4953 0.1243 0 8
13.1020 -14.9939 -2.4953 0.1243 0 8
13.3427 -14.7801 -2.4953 0.1243 0 8
13.5800 -14.5624 -2.4953 0.1243 0 8
13.8137 -14.3409 -2.4953 0.1243 0 8
14.0438 -14.1156 -2.4953 0.1243 0 8
14.2703 -13.8867 -2.4953 0.1243 0 8
14.4930 -13.6541 -2.4953 0.1243 0 8
14.7119 -13.4179 -2.4953 0.1243 0 8
14.9269 -13.1783 -2.4953 0.1243 0 8
15.1381 -12.9352 -2.4953 0.1243 0 8
15.3453 -12.6887 -2.4953 0.1243 0 8
15.5485 -12.4388 -2.4953 0.1243 0 8
15.7476 -12.1858 -2.4953 0.1243 0 8
15.9426 -11.9295 -2.4953 0.1243 0 8
16.1334 -11.6702 -2.4953 0.1243 0 8
16.3200 -11.4077 -2.4953 0.1243 0 8
16.5024 -11.1423 -2.4953 0.1243 0 8
-6.0978 -17.6291 -2.4953 0.1326 0 8
-5.8119 -17.7254 -2.4953 0.1326 0 8
-5.5245 -17.8171 -2.4953 0.1326 0 8
-5.2356 -17.9041 -2.4953 0.1326 0 8
-4.9454 -17.9864 -2.4953 0.1326 0 8
-4.6539 -18.0640 -2.4953 0.1326 0 8
-4.3612 -18.1369 -2.4953 0.1326 0 8
-4.0673 -18.2051 -2.4953 0.1326 0 8
-3.7724 -18.2684 -2.4953 0.1326 0 8
-3.4765 -18.3270 -2.4953 0.1326 0 8
-3.1797 -18.3809 -2.4953 0.1326 0 8
-2.8820 -18.4299 -2.4953 0.1326 0 8
-2.5836 -18.4741 -2.4953 0.1326 0 8
-2.2845 -18.5135 -2.4953 0.1326 0 8
-1.9848 -18.5480 -2.4953 0.1326 0 8
-1.6846 -18.5777 -2.4953 0.1326 0 8
-1.3840 -18.6025 -2.4953 0.1326 0 8
-1.0830 -18.6224 -2.4953 0.1326 0 8
-0.7817 -18.6375 -2.4953 0.1326 0 8
-0.4802 -18.6477 -2.4953 0.1326 0 8
-0.1786 -18.6530 -2.4953 0.1326 0 8
0.1231 -18.6535 -2.4953 0.1326 0 8
0.4247 -18.6490 -2.4953 0.1326 0 8
0.7262 -18.6397 -2.4953 0.1326 0 8
1.0276 -18.6256 -2.4953 0.1326 0 8
1.3286 -18.6065 -2.4953 0.1326 0 8
1.6294 -18.5826 -2.4953 0.1326 0 8
1.9296 -18.5538 -2.4953 0.1326 0 8
2.2294 -18.5202 -2.4953 0.1326 0 8
2.5286 -18.4817 -2.4953 0.1326 0 8
2.8272 -18.4384 -2.4953 0.1326 0 8
3.1250 -18.3903 -2.4953 0.1326 0 8
3.4220 -18.3373 -2.4953 0.1326 0 8
3.7180 -18.2796 -2.4953 0.1326 0 8
4.0132 -18.2171 -2.4953 0.1326 0 8
4.3072 -18.1498 -2.4953 0.1326 0 8
4.6002 -18.0778 -2.4953 0.1326 0 8
4.8919 -18.0010 -2.4953 0.1326 0 8
5.1824 -17.9196 -2.4953 0.1326 0 8
5.4715 -17.8334 -2.4953 0.1326 0 8
5.7591 -17.7426 -2.4953 0.1326 0 8
6.0453 -17.6471 -2.4953 0.1326 0 8
6.3299 -17.5471 -2.4953 0.1326 0 8
6.6128 -17.4424 -2.4953 0.1326 0 8
6.8940 -17.3332 -2.4953 0.1326 0 8
7.1734 -17.2195 -2.4953 0.1326 0 8
7.4509 -17.1012 -2.4953 0.1326 0 8
7.7265 -16.9785 -2.4953 0.1326 0 8
8.0001 -16.8513 -2.4953 0.1326 0 8
8.2715 -16.7197 -2.4953 0.1326 0 8
8.5408 -16.5838 -2.4953 0.1326 0 8
8.8079 -16.4435 -2.4953 0.1326 0 8
9.0726 -16.2989 -2.4953 0.1326 0 8
9.3350 -16.1501 -2.4953 0.1326 0 8
9.5950 -15.9970 -2.4953 0.1326 0 8
9.8524 -15.8397 -2.4953 0.1326 0 8
10.1073 -15.6783 -2.4953 0.1326 0 8
10.3595 -15.5128 -2.4953 0.1326 0 8
10.6090 -15.3433 -2.4953 0.1326 0 8
10.8557 -15.1697 -2.4953 0.1326 0 8
11.0996 -14.9922 -2.4953 0.1326 0 8
11.3406 -14.8108 -2.4953 0.1326 0 8
11.5786 -14.6254 -2.4953 0.1326 0 8
11.8136 -14.4363 -2.4953 0.1326 0 8
12.0455 -14.2433 -2.4953 0.1326 0 8
12.2743 -14.0467 -2.4953 0.1326 0 8
12.4998 -13.8463 -2.4953 0.1326 0 8
12.7221 -13.6424 -2.4953 0.1326 0 8
12.9410 -13.4349 -2.4953 0.1326 0 8
13.1566 -13.2239 -2.4953 0.1326 0 8
13.3687 -13.0094 -2.4953 0.1326 0 8
13.5774 -12.7915 -2.4953 0.1326 0 8
13.7825 -12.5703 -2.4953 0.1326 0 8
13.9839 -12.3457 -2.4953 0.1326 0 8
14.1817 -12.1180 -2.4953 0.1326 0 8
14.3758 -11.8871 -2.4953 0.1326 0 8
14.5662 -11.6530 -2.4953 0.1326 0 8
14.7527 -11.4160 -2.4953 0.1326 0 8
14.9354 -11.1759 -2.4953 0.1326 0 8
15.1142 -10.9329 -2.4953 0.1326 0 8
15.2890 -10.6871 -2.4953 0.1326 0 8
15.4598 -10.4384 -2.4953 0.1326 0 8
-5.7347 -16.5793 -2.4953 0.1408 0 8
-5.4658 -16.6699 -2.4953 0.1408 0 8
-5.1955 -16.7561 -2.4953 0.1408 0 8
-4.9239 -16.8380 -2.4953 0.1408 0 8
-4.6510 -16.9154 -2.4953 0.1408 0 8
-4.3768 -16.9884 -2.4953 0.1408 0 8
-4.1015 -17.0569 -2.4953 0.1408 0 8
-3.8251 -17.1210 -2.4953 0.1408 0 8
-3.5478 -17.1806 -2.4953 0.1408 0 8
-3.2695 -17.2358 -2.4953 0.1408 0 8
-2.9903 -17.2864 -2.4953 0.1408 0 8
-2.7104 -17.3325 -2.4953 0.1408 0 8
-2.4297 -17.3740 -2.4953 0.1408 0 8
-2.1485 -17.4111 -2.4953 0.1408 0 8
-1.8666 -17.4435 -2.4953 0.1408 0 8
-1.5843 -17.4714 -2.4953 0.1408 0 8
-1.3016 -17.4948 -2.4953 0.1408 0 8
-1.0185 -17.5135 -2.4953 0.1408 0 8
-0.7351 -17.5277 -2.4953 0.1408 0 8
-0.4516 -17.5373 -2.4953 0.1408 0 8
-0.1679 -17.5423 -2.4953 0.1408 0 8
0.1158 -17.5427 -2.4953 0.1408 0 8
0.3994 -17.5386 -2.4953 0.1408 0 8
0.6830 -17.5298 -2.4953 0.1408 0 8
0.9664 -17.5165 -2.4953 0.1408 0 8
1.2495 -17.4986 -2.4953 0.1408 0 8
1.5323 -17.4761 -2.4953 0.1408 0 8
1.8147 -17.4490 -2.4953 0.1408 0 8
2.0967 -17.4174 -2.4953 0.1408 0 8
2.3781 -17.3812 -2.4953 0.1408 0 8
2.6588 -17.3405 -2.4953 0.1408 0 8
2.9389 -17.2952 -2.4953 0.1408 0 8
3.2182 -17.2454 -2.4953 0.1408 0 8
3.4967 -17.1911 -2.4953 0.1408 0 8
3.7742 -17.1323 -2.4953 0.1408 0 8
4.0508 -17.0691 -2.4953 0.1408 0 8
4.3263 -17.0013 -2.4953 0.1408 0 8
4.6006 -16.9291 -2.4953 0.1408 0 8
4.8738 -16.8525 -2.4953 0.1408 0 8
5.1457 -16.7715 -2.4953 0.1408 0 8
5.4162 -16.6861 -2.4953 0.1408 0 8
5.6853 -16.5963 -2.4953 0.1408 0 8
5.9530 -16.5022 -2.4953 0.1408 0 8
6.2191 -16.4038 -2.4953 0.1408 0 8
6.4835 -16.3011 -2.4953 0.1408 0 8
6.7463 -16.1941 -2.4953 0.1408 0 8
7.0073 -16.0829 -2.4953 0.1408 0 8
7.2664 -15.9675 -2.4953 0.1408 0 8
7.5237 -15.8479 -2.4953 0.1408 0 8
7.7790 -15.7241 -2.4953 0.1408 0 8
8.0322 -15.5963 -2.4953 0.1408 0 8
8.2834 -15.4644 -2.4953 0.1408 0 8
8.5324 -15.3284 -2.4953 0.1408 0 8
8.7792 -15.1884 -2.4953 0.1408 0 8
9.0236 -15.0444 -2.4953 0.1408 0 8
9.2657 -14.8966 -2.4953 0.1408 0 8
9.5054 -14.7448 -2.4953 0.1408 0 8
9.7426 -14.5891 -2.4953 0.1408 0 8
9.9773 -14.4297 -2.4953 0.1408 0 8
10.2093 -14.2664 -2.4953 0.1408 0 8
10.4387 -14.0995 -2.4953 0.1408 0 8
10.6653 -13.9288 -2.4953 0.1408 0 8
10.8892 -13.7545 -2.4953 0.1408 0 8
11.1102 -13.5767 -2.4953 0.1408 0 8
11.3283 -13.3952 -2.4953 0.1408 0 8
11.5434 -13.2103 -2.4953 0.1408 0 8
11.7555 -13.0219 -2.4953 0.1408 0 8
11.9646 -12.8301 -2.4953 0.1408 0 8
12.1705 -12.6349 -2.4953 0.1408 0 8
12.3732 -12.4365 -2.4953 0.1408 0 8
12.5727 -12.2347 -2.4953 0.1408 0 8
12.7689 -12.0298 -2.4953 0.1408 0 8
12.9618 -11.8218 -2.4953 0.1408 0 8
13.1512 -11.6106 -2.4953 0.1408 0 8
13.3373 -11.3964 -2.4953 0.1408 0 8
13.5198 -11.1792 -2.4953 0.1408 0 8
13.6988 -10.9591 -2.4953 0.1408 0 8
13.8743 -10.7362 -2.4953 0.1408 0 8
14.0461 -10.5104 -2.4953 0.1408 0 8
14.2142 -10.2819 -2.4953 0.1408 0 8
14.3786 -10.0507 -2.4953 0.1408 0 8
14.5393 -9.8169 -2.4953 0.1408 0 8
-5.4117 -15.6455 -2.4953 0.1490 0 8
-5.1580 -15.7310 -2.4953 0.1490 0 8
-4.9029 -15.8124 -2.4953 0.1490 0 8
-4.6466 -15.8896 -2.4953 0.1490 0 8
-4.3890 -15.9626 -2.4953 0.1490 0 8
-4.1303 -16.0315 -2.4953 0.1490 0 8
-3.8705 -16.0962 -2.4953 0.1490 0 8
-3.6097 -16.1567 -2.4953 0.1490 0 8
-3.3479 -16.2130 -2.4953 0.1490 0 8
-3.0853 -16.2650 -2.4953 0.1490 0 8
-2.8219 -16.3128 -2.4953 0.1490 0 8
-2.5577 -16.3563 -2.4953 0.1490 0 8
-2.2929 -16.3955 -2.4953 0.1490 0 8
-2.0275 -16.4304 -2.4953 0.1490 0 8
-1.7615 -16.4611 -2.4953 0.1490 0 8
-1.4951 -16.4874 -2.4953 0.1490 0 8
-1.2283 -16.5094 -2.4953 0.1490 0 8
-0.9611 -16.5271 -2.4953 0.1490 0 8
-0.6937 -16.5405 -2.4953 0.1490 0 8
-0.4262 -16.5495 -2.4953 0.1490 0 8
-0.1585 -16.5543 -2.4953 0.1490 0 8
0.1092 -16.5547 -2.4953 0.1490 0 8
0.3769 -16.5507 -2.4953 0.1490 0 8
0.6445 -16.5425 -2.4953 0.1490 0 8
0.9120 -16.5299 -2.4953 0.1490 0 8
1.1791 -16.5130 -2.4953 0.1490 0 8
1.4460 -16.4918 -2.4953 0.1490 0 8
1.7125 -16.4662 -2.4953 0.1490 0 8
1.9786 -16.4364 -2.4953 0.1490 0 8
2.2441 -16.4022 -2.4953 0.1490 0 8
2.5091 -16.3638 -2.4953 0.1490 0 8
2.7734 -16.3211 -2.4953 0.1490 0 8
3.0369 -16.2741 -2.4953 0.1490 0 8
3.2997 -16.2228 -2.4953 0.1490 0 8
3.5616 -16.1674 -2.4953 0.1490 0 8
3.8226 -16.1077 -2.4953 0.1490 0 8
4.0826 -16.0437 -2.4953 0.1490 0 8
4.3415 -15.9756 -2.4953 0.1490 0 8
4.5993 -15.9033 -2.4953 0.1490 0 8
4.8558 -15.8269 -2.4953 0.1490 0 8
5.1111 -15.7463 -2.4953 0.1490 0 8
5.3651 -15.6616 -2.4953 0.1490 0 8
5.6177 -15.5728 -2.4953 0.1490 0 8
5.8688 -15.4799 -2.4953 0.1490 0 8
6.1183 -15.3830 -2.4953 0.1490 0 8
6.3663 -15.2820 -2.4953 0.1490 0 8
6.6126 -15.1771 -2.4953 0.1490 0 8
6.8572 -15.0681 -2.4953 0.1490 0 8
7.0999 -14.9553 -2.4953 0.1490 0 8
7.3408 -14.8385 -2.4953 0.1490 0 8
7.5798 -14.7179 -2.4953 0.1490 0 8
7.8169 -14.5934 -2.4953 0.1490 0 8
8.0518 -14.4650 -2.4953 0.1490 0 8
8.2847 -14.3329 -2.4953 0.1490 0 8
8.5154 -14.1971 -2.4953 0.1490 0 8
8.7439 -14.0575 -2.4953 0.1490 0 8
8.9700 -13.9143 -2.4953 0.1490 0 8
9.1939 -13.7674 -2.4953 0.1490 0 8
9.4153 -13.6169 -2.4953 0.1490 0 8
9.6343 -13.4629 -2.4953 0.1490 0 8
9.8507 -13.3053 -2.4953 0.1490 0 8
10.0646 -13.1443 -2.4953 0.1490 0 8
10.2758 -12.9798 -2.4953 0.1490 0 8
10.4844 -12.8120 -2.4953 0.1490 0 8
10.6902 -12.6407 -2.4953 0.1490 0 8
10.8932 -12.4662 -2.4953 0.1490 0 8
11.0934 -12.2884 -2.4953 0.1490 0 8
11.2907 -12.1074 -2.4953 0.1490 0 8
11.4850 -11.9233 -2.4953 0.1490 0 8
11.6763 -11.7360 -2.4953 0.1490 0 8
11.8646 -11.5456 -2.4953 0.1490 0 8
12.0497 -11.3523 -2.4953 0.1490 0 8
12.2317 -11.1559 -2.4953 0.1490 0 8
12.4105 -10.9567 -2.4953 0.1490 0 8
12.5861 -10.7545 -2.4953 0.1490 0 8
12.7583 -10.5496 -2.4953 0.1490 0 8
12.9273 -10.3419 -2.4953 0.1490 0 8
13.0928 -10.1315 -2.4953 0.1490 0 8
13.2550 -9.9184 -2.4953 0.1490 0 8
13.4136 -9.7028 -2.4953 0.1490 0 8
13.5688 -9.4846 -2.4953 0.1490 0 8
13.7204 -9.2640 -2.4953 0.1490 0 8
-5.1224 -14.8093 -2.4953 0.1573 0 8
-4.8823 -14.8902 -2.4953 0.1573 0 8
-4.6408 -14.9672 -2.4953 0.1573 0 8
-4.3982 -15.0403 -2.4953 0.1573 0 8
-4.1544 -15.1095 -2.4953 0.1573 0 8
-3.9095 -15.1747 -2.4953 0.1573 0 8
-3.6636 -15.2359 -2.4953 0.1573 0 8
-3.4168 -15.2932 -2.4953 0.1573 0 8
-3.1690 -15.3464 -2.4953 0.1573 0 8
-2.9204 -15.3957 -2.4953 0.1573 0 8
-2.6711 -15.4409 -2.4953 0.1573 0 8
-2.4210 -15.4821 -2.4953 0.1573 0 8
-2.1703 -15.5192 -2.4953 0.1573 0 8
-1.9191 -15.5523 -2.4953 0.1573 0 8
-1.6674 -15.5813 -2.4953 0.1573 0 8
-1.4152 -15.6062 -2.4953 0.1573 0 8
-1.1626 -15.6270 -2.4953 0.1573 0 8
-0.9097 -15.6438 -2.4953 0.1573 0 8
-0.6567 -15.6565 -2.4953 0.1573 0 8
-0.4034 -15.6650 -2.4953 0.1573 0 8
-0.1500 -15.6695 -2.4953 0.1573 0 8
0.1034 -15.6699 -2.4953 0.1573 0 8
0.3568 -15.6662 -2.4953 0.1573 0 8
0.6101 -15.6583 -2.4953 0.1573 0 8
0.8632 -15.6464 -2.4953 0.1573 0 8
1.1161 -15.6304 -2.4953 0.1573 0 8
1.3687 -15.6103 -2.4953 0.1573 0 8
1.6210 -15.5862 -2.4953 0.1573 0 8
1.8728 -15.5579 -2.4953 0.1573 0 8
2.1242 -15.5256 -2.4953 0.1573 0 8
2.3750 -15.4892 -2.4953 0.1573 0 8
2.6251 -15.4488 -2.4953 0.1573 0 8
2.8746 -15.4043 -2.4953 0.1573 0 8
3.1234 -15.3558 -2.4953 0.1573 0 8
3.3713 -15.3033 -2.4953 0.1573 0 8
3.6183 -15.2468 -2.4953 0.1573 0 8
3.8644 -15.1863 -2.4953 0.1573 0 8
4.1095 -15.1218 -2.4953 0.1573 0 8
4.3535 -15.0533 -2.4953 0.1573 0 8
4.5963 -14.9810 -2.4953 0.1573 0 8
4.8380 -14.9047 -2.4953 0.1573 0 8
5.0784 -14.8245 -2.4953 0.1573 0 8
5.3174 -14.7404 -2.4953 0.1573 0 8
5.5551 -14.6525 -2.4953 0.1573 0 8
5.7913 -14.5608 -2.4953 0.1573 0 8
6.0260 -14.4652 -2.4953 0.1573 0 8
6.2592 -14.3659 -2.4953 0.1573 0 8
6.4907 -14.2628 -2.4953 0.1573 0 8
6.7205 -14.1560 -2.4953 0.1573 0 8
6.9485 -14.0454 -2.4953 0.1573 0 8
7.1747 -13.9312 -2.4953 0.1573 0 8
7.3991 -13.8134 -2.4953 0.1573 0 8
7.6215 -13.6919 -2.4953 0.1573 0 8
7.8419 -13.5669 -2.4953 0.1573 0 8
8.0603 -13.4383 -2.4953 0.1573 0 8
8.2765 -13.3062 -2.4953 0.1573 0 8
8.4906 -13.1706 -2.4953 0.1573 0 8
8.7025 -13.0316 -2.4953 0.1573 0 8
8.9121 -12.8892 -2.4953 0.1573 0 8
9.1194 -12.7434 -2.4953 0.1573 0 8
9.3242 -12.5942 -2.4953 0.1573 0 8
9.5267 -12.4418 -2.4953 0.1573 0 8
9.7266 -12.2861 -2.4953 0.1573 0 8
9.9240 -12.1272 -2.4953 0.1573 0 8
10.1189 -11.9651 -2.4953 0.1573 0 8
10.3110 -11.7999 -2.4953 0.1573 0 8
10.5005 -11.6316 -2.4953 0.1573 0 8
10.6872 -11.4603 -2.4953 0.1573 0 8
10.8712 -11.2860 -2.4953 0.1573 0 8
11.0522 -11.1087 -2.4953 0.1573 0 8
11.2304 -10.9285 -2.4953 0.1573 0 8
