ply
format ascii 1.0
element vertex 1421
property float32 x
property float32 y
property float32 z
property float32 CosAngle
property uint32 ObjIdx
property uint32 ObjTag
end_header
9.7224 -2.9207 -2.4953 0.2387 0 8
9.7681 -2.7641 -2.4953 0.2387 0 8
9.8112 -2.6068 -2.4953 0.2387 0 8
9.8519 -2.4488 -2.4953 0.2387 0 8
9.8899 -2.2902 -2.4953 0.2387 0 8
9.9255 -2.1310 -2.4953 0.2387 0 8
9.9584 -1.9712 -2.4953 0.2387 0 8
9.9888 -1.8110 -2.4953 0.2387 0 8
10.0166 -1.6502 -2.4953 0.2387 0 8
10.0418 -1.4890 -2.4953 0.2387 0 8
10.0645 -1.3275 -2.4953 0.2387 0 8
10.0845 -1.1656 -2.4953 0.2387 0 8
7.8935 -0.7840 -1.9498 0.4539 25 10
7.6825 -0.6386 -1.8949 0.7652 25 10
7.6203 -0.5103 -1.8773 0.8561 25 10
7.5839 -0.3856 -1.8665 0.9361 25 10
7.5645 -0.2628 -1.8605 0.9644 25 10
7.5572 -0.1410 -1.8579 0.9658 25 10
7.5595 -0.0196 -1.8581 0.9269 25 10
7.5571 0.1019 -1.8577 0.9271 25 10
7.5621 0.2235 -1.8596 0.9649 25 10
7.5756 0.3458 -1.8640 0.9373 25 10
7.6042 0.4697 -1.8727 0.9166 25 10
7.6585 0.5967 -1.8882 0.7679 25 10
7.8204 0.7359 -1.9308 0.4584 25 10
10.0904 1.1134 -2.4953 0.2387 0 8
10.0712 1.2754 -2.4953 0.2387 0 8
10.0494 1.4371 -2.4953 0.2387 0 8
10.0250 1.5984 -2.4953 0.2387 0 8
9.9980 1.7592 -2.4953 0.2387 0 8
9.9685 1.9197 -2.4953 0.2387 0 8
9.9363 2.0796 -2.4953 0.2387 0 8
9.9016 2.2390 -2.4953 0.2387 0 8
9.8644 2.3978 -2.4953 0.2387 0 8
9.8246 2.5560 -2.4953 0.2387 0 8
9.7822 2.7136 -2.4953 0.2387 0 8
9.7374 2.8704 -2.4953 0.2387 0 8
9.6900 3.0265 -2.4953 0.2387 0 8
9.6401 3.1818 -2.4953 0.2387 0 8
9.5877 3.3363 -2.4953 0.2387 0 8
9.5329 3.4899 -2.4953 0.2387 0 8
9.4756 3.6427 -2.4953 0.2387 0 8
9.4158 3.7944 -2.4953 0.2387 0 8
9.3537 3.9453 -2.4953 0.2387 0 8
9.2890 4.0950 -2.4953 0.2387 0 8
9.2220 4.2438 -2.4953 0.2387 0 8
9.1527 4.3914 -2.4953 0.2387 0 8
9.0809 4.5379 -2.4953 0.2387 0 8
9.0068 4.6832 -2.4953 0.2387 0 8
8.9304 4.8274 -2.4953 0.2387 0 8
8.8517 4.9703 -2.4953 0.2387 0 8
8.7707 5.1118 -2.4953 0.2387 0 8
8.6874 5.2521 -2.4953 0.2387 0 8
8.6019 5.3910 -2.4953 0.2387 0 8
8.5142 5.5286 -2.4953 0.2387 0 8
7.6352 -6.1428 -2.4953 0.2468 0 8
7.7330 -6.0193 -2.4953 0.2468 0 8
7.8287 -5.8943 -2.4953 0.2468 0 8
7.9224 -5.7677 -2.4953 0.2468 0 8
8.0140 -5.6397 -2.4953 0.2468 0 8
8.1036 -5.5102 -2.4953 0.2468 0 8
8.1911 -5.3793 -2.4953 0.2468 0 8
8.2765 -5.2470 -2.4953 0.2468 0 8
8.3598 -5.1133 -2.4953 0.2468 0 8
8.4408 -4.9783 -2.4953 0.2468 0 8
8.5197 -4.8420 -2.4953 0.2468 0 8
8.5964 -4.7045 -2.4953 0.2468 0 8
8.6709 -4.5657 -2.4953 0.2468 0 8
8.7432 -4.4258 -2.4953 0.2468 0 8
8.8132 -4.2848 -2.4953 0.2468 0 8
8.8809 -4.1426 -2.4953 0.2468 0 8
8.9463 -3.9994 -2.4953 0.2468 0 8
9.0094 -3.8551 -2.4953 0.2468 0 8
9.0702 -3.7098 -2.4953 0.2468 0 8
9.1286 -3.5636 -2.4953 0.2468 0 8
9.1847 -3.4164 -2.4953 0.2468 0 8
9.2384 -3.2684 -2.4953 0.2468 0 8
9.2898 -3.1195 -2.4953 0.2468 0 8
9.3387 -2.9699 -2.4953 0.2468 0 8
9.3852 -2.8194 -2.4953 0.2468 0 8
9.4293 -2.6683 -2.4953 0.2468 0 8
9.4709 -2.5164 -2.4953 0.2468 0 8
9.5102 -2.3639 -2.4953 0.2468 0 8
9.5469 -2.2108 -2.4953 0.2468 0 8
9.5812 -2.0571 -2.4953 0.2468 0 8
9.6130 -1.9029 -2.4953 0.2468 0 8
9.6424 -1.7481 -2.4953 0.2468 0 8
9.6692 -1.5930 -2.4953 0.2468 0 8
9.6936 -1.4374 -2.4953 0.2468 0 8
9.7154 -1.2815 -2.4953 0.2468 0 8
9.7347 -1.1252 -2.4953 0.2468 0 8
7.8923 -0.7839 -2.0195 0.3978 25 10
7.6958 -0.6397 -1.9664 0.7623 25 10
7.6230 -0.5105 -1.9454 0.8540 25 10
7.5867 -0.3857 -1.9343 0.9174 25 10
7.5651 -0.2628 -1.9275 0.9623 25 10
7.5660 -0.1412 -1.9269 0.9240 25 10
7.5695 -0.0196 -1.9274 0.9237 25 10
7.5671 0.1020 -1.9270 0.9239 25 10
7.5636 0.2236 -1.9268 0.9240 25 10
7.5770 0.3459 -1.9313 0.9188 25 10
7.6074 0.4699 -1.9408 0.9143 25 10
7.6718 0.5978 -1.9594 0.7650 25 10
7.8139 0.7353 -1.9984 0.4020 25 10
9.7404 1.0748 -2.4953 0.2468 0 8
9.7219 1.2312 -2.4953 0.2468 0 8
9.7009 1.3872 -2.4953 0.2468 0 8
9.6773 1.5429 -2.4953 0.2468 0 8
9.6513 1.6982 -2.4953 0.2468 0 8
9.6227 1.8531 -2.4953 0.2468 0 8
9.5917 2.0075 -2.4953 0.2468 0 8
9.5582 2.1613 -2.4953 0.2468 0 8
9.5223 2.3147 -2.4953 0.2468 0 8
9.4838 2.4674 -2.4953 0.2468 0 8
9.4430 2.6194 -2.4953 0.2468 0 8
9.3997 2.7708 -2.4953 0.2468 0 8
9.3539 2.9215 -2.4953 0.2468 0 8
9.3058 3.0714 -2.4953 0.2468 0 8
9.2552 3.2206 -2.4953 0.2468 0 8
9.2023 3.3689 -2.4953 0.2468 0 8
9.1469 3.5163 -2.4953 0.2468 0 8
9.0893 3.6628 -2.4953 0.2468 0 8
9.0292 3.8084 -2.4953 0.2468 0 8
8.9669 3.9530 -2.4953 0.2468 0 8
8.9022 4.0966 -2.4953 0.2468 0 8
8.8352 4.2391 -2.4953 0.2468 0 8
8.7660 4.3805 -2.4953 0.2468 0 8
8.6944 4.5208 -2.4953 0.2468 0 8
8.6207 4.6599 -2.4953 0.2468 0 8
8.5447 4.7979 -2.4953 0.2468 0 8
8.4665 4.9345 -2.4953 0.2468 0 8
8.3861 5.0700 -2.4953 0.2468 0 8
8.3035 5.2041 -2.4953 0.2468 0 8
8.2189 5.3368 -2.4953 0.2468 0 8
7.3783 -5.9361 -2.4953 0.2548 0 8
7.4727 -5.8167 -2.4953 0.2548 0 8
7.5652 -5.6959 -2.4953 0.2548 0 8
7.6557 -5.5736 -2.4953 0.2548 0 8
7.7443 -5.4499 -2.4953 0.2548 0 8
7.8309 -5.3247 -2.4953 0.2548 0 8
7.9154 -5.1982 -2.4953 0.2548 0 8
7.9979 -5.0703 -2.4953 0.2548 0 8
8.0784 -4.9412 -2.4953 0.2548 0 8
8.1567 -4.8107 -2.4953 0.2548 0 8
8.2330 -4.6790 -2.4953 0.2548 0 8
8.3071 -4.5461 -2.4953 0.2548 0 8
8.3791 -4.4121 -2.4953 0.2548 0 8
8.4489 -4.2769 -2.4953 0.2548 0 8
8.5165 -4.1405 -2.4953 0.2548 0 8
8.5820 -4.0032 -2.4953 0.2548 0 8
8.6452 -3.8647 -2.4953 0.2548 0 8
8.7062 -3.7253 -2.4953 0.2548 0 8
8.7649 -3.5849 -2.4953 0.2548 0 8
8.8214 -3.4436 -2.4953 0.2548 0 8
8.8756 -3.3015 -2.4953 0.2548 0 8
8.9275 -3.1584 -2.4953 0.2548 0 8
8.9771 -3.0146 -2.4953 0.2548 0 8
9.0244 -2.8699 -2.4953 0.2548 0 8
9.0693 -2.7245 -2.4953 0.2548 0 8
9.1119 -2.5785 -2.4953 0.2548 0 8
9.1522 -2.4317 -2.4953 0.2548 0 8
9.1901 -2.2843 -2.4953 0.2548 0 8
9.2256 -2.1364 -2.4953 0.2548 0 8
9.2587 -1.9878 -2.4953 0.2548 0 8
9.2895 -1.8388 -2.4953 0.2548 0 8
9.3178 -1.6893 -2.4953 0.2548 0 8
9.3438 -1.5394 -2.4953 0.2548 0 8
9.3673 -1.3890 -2.4953 0.2548 0 8
9.3884 -1.2383 -2.4953 0.2548 0 8
9.4071 -1.0873 -2.4953 0.2548 0 8
7.9165 -0.7863 -2.0963 0.5422 25 10
7.7183 -0.6416 -2.0408 0.7206 25 10
7.6406 -0.5116 -2.0178 0.7230 25 10
7.5960 -0.3862 -2.0041 0.8448 25 10
7.5748 -0.2631 -1.9972 0.8886 25 10
7.5785 -0.1414 -1.9973 0.8885 25 10
7.5801 -0.0196 -1.9974 0.9288 25 10
7.5797 0.1022 -1.9974 0.8884 25 10
7.5759 0.2239 -1.9971 0.8886 25 10
7.5859 0.3463 -2.0010 0.8461 25 10
7.6188 0.4706 -2.0114 0.8128 25 10
7.6933 0.5994 -2.0333 0.7175 25 10
7.8583 0.7395 -2.0798 0.3989 25 10
9.4126 1.0386 -2.4953 0.2548 0 8
9.3947 1.1897 -2.4953 0.2548 0 8
9.3743 1.3405 -2.4953 0.2548 0 8
9.3516 1.4910 -2.4953 0.2548 0 8
9.3264 1.6411 -2.4953 0.2548 0 8
9.2989 1.7907 -2.4953 0.2548 0 8
9.2689 1.9399 -2.4953 0.2548 0 8
9.2365 2.0886 -2.4953 0.2548 0 8
9.2018 2.2367 -2.4953 0.2548 0 8
9.1646 2.3843 -2.4953 0.2548 0 8
9.1251 2.5313 -2.4953 0.2548 0 8
9.0833 2.6776 -2.4953 0.2548 0 8
9.0391 2.8232 -2.4953 0.2548 0 8
8.9926 2.9681 -2.4953 0.2548 0 8
8.9437 3.1122 -2.4953 0.2548 0 8
8.8925 3.2555 -2.4953 0.2548 0 8
8.8391 3.3980 -2.4953 0.2548 0 8
8.7833 3.5396 -2.4953 0.2548 0 8
8.7253 3.6802 -2.4953 0.2548 0 8
8.6651 3.8200 -2.4953 0.2548 0 8
8.6026 3.9587 -2.4953 0.2548 0 8
8.5378 4.0964 -2.4953 0.2548 0 8
8.4709 4.2331 -2.4953 0.2548 0 8
8.4018 4.3687 -2.4953 0.2548 0 8
8.3305 4.5031 -2.4953 0.2548 0 8
8.2571 4.6364 -2.4953 0.2548 0 8
8.1815 4.7685 -2.4953 0.2548 0 8
8.1038 4.8993 -2.4953 0.2548 0 8
8.0241 5.0289 -2.4953 0.2548 0 8
7.9422 5.1572 -2.4953 0.2548 0 8
7.1370 -5.7419 -2.4953 0.2628 0 8
7.2283 -5.6265 -2.4953 0.2628 0 8
7.3178 -5.5096 -2.4953 0.2628 0 8
7.4054 -5.3913 -2.4953 0.2628 0 8
7.4911 -5.2717 -2.4953 0.2628 0 8
7.5748 -5.1506 -2.4953 0.2628 0 8
7.6566 -5.0282 -2.4953 0.2628 0 8
7.7364 -4.9045 -2.4953 0.2628 0 8
7.8142 -4.7796 -2.4953 0.2628 0 8
7.8900 -4.6534 -2.4953 0.2628 0 8
7.9638 -4.5260 -2.4953 0.2628 0 8
8.0355 -4.3975 -2.4953 0.2628 0 8
8.1051 -4.2678 -2.4953 0.2628 0 8
8.1726 -4.1370 -2.4953 0.2628 0 8
8.2380 -4.0051 -2.4953 0.2628 0 8
8.3013 -3.8723 -2.4953 0.2628 0 8
8.3625 -3.7384 -2.4953 0.2628 0 8
8.4215 -3.6035 -2.4953 0.2628 0 8
8.4783 -3.4677 -2.4953 0.2628 0 8
8.5329 -3.3310 -2.4953 0.2628 0 8
8.5853 -3.1935 -2.4953 0.2628 0 8
8.6355 -3.0551 -2.4953 0.2628 0 8
8.6835 -2.9160 -2.4953 0.2628 0 8
8.7293 -2.7761 -2.4953 0.2628 0 8
8.7727 -2.6354 -2.4953 0.2628 0 8
8.8140 -2.4941 -2.4953 0.2628 0 8
8.8529 -2.3522 -2.4953 0.2628 0 8
8.8895 -2.2096 -2.4953 0.2628 0 8
8.9239 -2.0665 -2.4953 0.2628 0 8
8.9560 -1.9228 -2.4953 0.2628 0 8
8.9857 -1.7787 -2.4953 0.2628 0 8
9.0131 -1.6341 -2.4953 0.2628 0 8
9.0382 -1.4890 -2.4953 0.2628 0 8
9.0610 -1.3436 -2.4953 0.2628 0 8
9.0814 -1.1978 -2.4953 0.2628 0 8
9.0995 -1.0517 -2.4953 0.2628 0 8
7.9294 -0.7876 -2.1707 0.5401 25 10
7.7415 -0.6435 -2.1161 0.7168 25 10
7.6640 -0.5132 -2.0924 0.7192 25 10
7.6147 -0.3871 -2.0770 0.8119 25 10
7.5907 -0.2637 -2.0690 0.8847 25 10
7.5933 -0.1417 -2.0688 0.9250 25 10
7.5885 -0.0196 -2.0672 0.9257 25 10
7.5918 0.1024 -2.0682 0.9252 25 10
7.5919 0.2244 -2.0690 0.8847 25 10
7.6038 0.3471 -2.0735 0.8423 25 10
7.6405 0.4719 -2.0853 0.8087 25 10
7.7165 0.6012 -2.1084 0.7194 25 10
7.8751 0.7411 -2.1547 0.5441 25 10
9.1048 1.0047 -2.4953 0.2628 0 8
9.0875 1.1508 -2.4953 0.2628 0 8
9.0678 1.2967 -2.4953 0.2628 0 8
9.0458 1.4422 -2.4953 0.2628 0 8
9.0214 1.5874 -2.4953 0.2628 0 8
8.9948 1.7322 -2.4953 0.2628 0 8
8.9658 1.8765 -2.4953 0.2628 0 8
8.9345 2.0203 -2.4953 0.2628 0 8
8.9009 2.1636 -2.4953 0.2628 0 8
8.8649 2.3063 -2.4953 0.2628 0 8
8.8267 2.4485 -2.4953 0.2628 0 8
8.7863 2.5900 -2.4953 0.2628 0 8
8.7435 2.7309 -2.4953 0.2628 0 8
8.6985 2.8710 -2.4953 0.2628 0 8
8.6512 3.0104 -2.4953 0.2628 0 8
8.6017 3.1490 -2.4953 0.2628 0 8
8.5500 3.2868 -2.4953 0.2628 0 8
8.4961 3.4238 -2.4953 0.2628 0 8
8.4400 3.5599 -2.4953 0.2628 0 8
8.3817 3.6950 -2.4953 0.2628 0 8
8.3213 3.8293 -2.4953 0.2628 0 8
8.2586 3.9625 -2.4953 0.2628 0 8
8.1939 4.0947 -2.4953 0.2628 0 8
8.1271 4.2258 -2.4953 0.2628 0 8
8.0581 4.3558 -2.4953 0.2628 0 8
7.9871 4.4848 -2.4953 0.2628 0 8
7.9140 4.6125 -2.4953 0.2628 0 8
7.8388 4.7391 -2.4953 0.2628 0 8
7.7617 4.8645 -2.4953 0.2628 0 8
7.6825 4.9885 -2.4953 0.2628 0 8
6.9100 -5.5593 -2.4953 0.2708 0 8
6.9984 -5.4476 -2.4953 0.2708 0 8
7.0851 -5.3344 -2.4953 0.2708 0 8
7.1699 -5.2199 -2.4953 0.2708 0 8
7.2528 -5.1040 -2.4953 0.2708 0 8
7.3339 -4.9868 -2.4953 0.2708 0 8
7.4131 -4.8683 -2.4953 0.2708 0 8
7.4904 -4.7486 -2.4953 0.2708 0 8
7.5657 -4.6276 -2.4953 0.2708 0 8
7.6391 -4.5054 -2.4953 0.2708 0 8
7.7105 -4.3821 -2.4953 0.2708 0 8
7.7799 -4.2576 -2.4953 0.2708 0 8
7.8473 -4.1321 -2.4953 0.2708 0 8
7.9127 -4.0054 -2.4953 0.2708 0 8
7.9760 -3.8778 -2.4953 0.2708 0 8
8.0373 -3.7491 -2.4953 0.2708 0 8
8.0965 -3.6195 -2.4953 0.2708 0 8
8.1536 -3.4889 -2.4953 0.2708 0 8
8.2086 -3.3574 -2.4953 0.2708 0 8
8.2615 -3.2251 -2.4953 0.2708 0 8
8.3123 -3.0919 -2.4953 0.2708 0 8
8.3609 -2.9580 -2.4953 0.2708 0 8
8.4073 -2.8232 -2.4953 0.2708 0 8
8.4516 -2.6878 -2.4953 0.2708 0 8
8.4937 -2.5516 -2.4953 0.2708 0 8
8.5336 -2.4148 -2.4953 0.2708 0 8
8.5713 -2.2774 -2.4953 0.2708 0 8
8.6068 -2.1394 -2.4953 0.2708 0 8
8.6401 -2.0008 -2.4953 0.2708 0 8
8.6711 -1.8617 -2.4953 0.2708 0 8
8.6999 -1.7221 -2.4953 0.2708 0 8
8.7265 -1.5821 -2.4953 0.2708 0 8
8.7508 -1.4417 -2.4953 0.2708 0 8
8.7728 -1.3009 -2.4953 0.2708 0 8
8.7926 -1.1597 -2.4953 0.2708 0 8
8.8101 -1.0183 -2.4953 0.2708 0 8
8.3338 -0.8278 -2.3563 0.6460 25 10
8.3310 -0.6925 -2.3521 0.6472 25 10
7.6873 -0.5148 -2.1677 0.7211 25 10
7.6364 -0.3882 -2.1513 0.8077 25 10
7.6067 -0.2643 -2.1415 0.9208 25 10
7.6018 -0.1418 -2.1392 0.9218 25 10
7.5970 -0.0197 -2.1375 0.9225 25 10
7.6003 0.1025 -2.1386 0.9221 25 10
7.6051 0.2248 -2.1407 0.9212 25 10
7.6242 0.3481 -2.1474 0.8092 25 10
7.6625 0.4733 -2.1600 0.7179 25 10
7.7397 0.6031 -2.1842 0.7156 25 10
8.3328 0.7842 -2.3549 0.6464 25 10
8.8152 0.9727 -2.4953 0.2708 0 8
8.7984 1.1142 -2.4953 0.2708 0 8
8.7794 1.2555 -2.4953 0.2708 0 8
8.7581 1.3964 -2.4953 0.2708 0 8
8.7345 1.5369 -2.4953 0.2708 0 8
8.7087 1.6771 -2.4953 0.2708 0 8
8.6806 1.8168 -2.4953 0.2708 0 8
8.6503 1.9560 -2.4953 0.2708 0 8
8.6178 2.0948 -2.4953 0.2708 0 8
8.5830 2.2330 -2.4953 0.2708 0 8
8.5460 2.3706 -2.4953 0.2708 0 8
8.5068 2.5076 -2.4953 0.2708 0 8
8.4654 2.6440 -2.4953 0.2708 0 8
8.4218 2.7797 -2.4953 0.2708 0 8
8.3761 2.9147 -2.4953 0.2708 0 8
8.3282 3.0489 -2.4953 0.2708 0 8
8.2781 3.1823 -2.4953 0.2708 0 8
8.2259 3.3149 -2.4953 0.2708 0 8
8.1716 3.4467 -2.4953 0.2708 0 8
8.1151 3.5775 -2.4953 0.2708 0 8
8.0566 3.7075 -2.4953 0.2708 0 8
7.9960 3.8364 -2.4953 0.2708 0 8
7.9333 3.9644 -2.4953 0.2708 0 8
7.8686 4.0914 -2.4953 0.2708 0 8
7.8018 4.2173 -2.4953 0.2708 0 8
7.7330 4.3421 -2.4953 0.2708 0 8
7.6623 4.4658 -2.4953 0.2708 0 8
7.5895 4.5884 -2.4953 0.2708 0 8
7.5148 4.7097 -2.4953 0.2708 0 8
7.4382 4.8299 -2.4953 0.2708 0 8
6.6960 -5.3872 -2.4953 0.2788 0 8
6.7817 -5.2789 -2.4953 0.2788 0 8
6.8657 -5.1692 -2.4953 0.2788 0 8
6.9479 -5.0583 -2.4953 0.2788 0 8
7.0282 -4.9460 -2.4953 0.2788 0 8
7.1068 -4.8324 -2.4953 0.2788 0 8
7.1835 -4.7176 -2.4953 0.2788 0 8
7.2584 -4.6015 -2.4953 0.2788 0 8
7.3314 -4.4843 -2.4953 0.2788 0 8
7.4025 -4.3659 -2.4953 0.2788 0 8
7.4717 -4.2464 -2.4953 0.2788 0 8
7.5390 -4.1258 -2.4953 0.2788 0 8
7.6043 -4.0041 -2.4953 0.2788 0 8
7.6677 -3.8814 -2.4953 0.2788 0 8
7.7291 -3.7577 -2.4953 0.2788 0 8
7.7885 -3.6330 -2.4953 0.2788 0 8
7.8458 -3.5074 -2.4953 0.2788 0 8
7.9012 -3.3809 -2.4953 0.2788 0 8
7.9545 -3.2535 -2.4953 0.2788 0 8
8.0057 -3.1252 -2.4953 0.2788 0 8
8.0549 -2.9962 -2.4953 0.2788 0 8
8.1020 -2.8664 -2.4953 0.2788 0 8
8.1470 -2.7358 -2.4953 0.2788 0 8
8.1899 -2.6046 -2.4953 0.2788 0 8
8.2307 -2.4726 -2.4953 0.2788 0 8
8.2694 -2.3400 -2.4953 0.2788 0 8
8.3059 -2.2069 -2.4953 0.2788 0 8
8.3403 -2.0731 -2.4953 0.2788 0 8
8.3726 -1.9388 -2.4953 0.2788 0 8
8.4026 -1.8040 -2.4953 0.2788 0 8
8.4305 -1.6688 -2.4953 0.2788 0 8
8.4563 -1.5331 -2.4953 0.2788 0 8
8.4798 -1.3970 -2.4953 0.2788 0 8
8.5012 -1.2606 -2.4953 0.2788 0 8
8.5203 -1.1238 -2.4953 0.2788 0 8
8.5373 -0.9868 -2.4953 0.2788 0 8
8.5520 -0.8495 -2.4953 0.2788 0 8
8.4698 -0.7040 -2.4677 0.2999 25 10
8.5749 -0.5742 -2.4953 0.2788 0 8
8.5830 -0.4364 -2.4953 0.2788 0 8
8.5889 -0.2984 -2.4953 0.2788 0 8
8.5926 -0.1603 -2.4953 0.2788 0 8
8.5941 -0.0222 -2.4953 0.2788 0 8
8.5933 0.1159 -2.4953 0.2788 0 8
8.5904 0.2539 -2.4953 0.2788 0 8
8.5852 0.3919 -2.4953 0.2788 0 8
8.5778 0.5298 -2.4953 0.2788 0 8
8.5681 0.6676 -2.4953 0.2788 0 8
8.5563 0.8052 -2.4953 0.2788 0 8
8.5423 0.9426 -2.4953 0.2788 0 8
8.5260 1.0797 -2.4953 0.2788 0 8
8.5076 1.2166 -2.4953 0.2788 0 8
8.4869 1.3531 -2.4953 0.2788 0 8
8.4641 1.4893 -2.4953 0.2788 0 8
8.4391 1.6251 -2.4953 0.2788 0 8
8.4118 1.7605 -2.4953 0.2788 0 8
8.3825 1.8955 -2.4953 0.2788 0 8
8.3509 2.0299 -2.4953 0.2788 0 8
8.3172 2.1639 -2.4953 0.2788 0 8
8.2814 2.2972 -2.4953 0.2788 0 8
8.2434 2.4300 -2.4953 0.2788 0 8
8.2033 2.5621 -2.4953 0.2788 0 8
8.1611 2.6936 -2.4953 0.2788 0 8
8.1167 2.8244 -2.4953 0.2788 0 8
8.0703 2.9545 -2.4953 0.2788 0 8
8.0218 3.0838 -2.4953 0.2788 0 8
7.9712 3.2123 -2.4953 0.2788 0 8
7.9186 3.3399 -2.4953 0.2788 0 8
7.8639 3.4668 -2.4953 0.2788 0 8
7.8071 3.5927 -2.4953 0.2788 0 8
7.7484 3.7177 -2.4953 0.2788 0 8
7.6877 3.8417 -2.4953 0.2788 0 8
7.6249 3.9647 -2.4953 0.2788 0 8
7.5602 4.0867 -2.4953 0.2788 0 8
7.4936 4.2077 -2.4953 0.2788 0 8
7.4250 4.3276 -2.4953 0.2788 0 8
7.3545 4.4463 -2.4953 0.2788 0 8
7.2821 4.5639 -2.4953 0.2788 0 8
7.2079 4.6803 -2.4953 0.2788 0 8
6.4940 -5.2246 -2.4953 0.2868 0 8
6.5771 -5.1196 -2.4953 0.2868 0 8
6.6585 -5.0133 -2.4953 0.2868 0 8
6.7382 -4.9056 -2.4953 0.2868 0 8
6.8162 -4.7967 -2.4953 0.2868 0 8
6.8924 -4.6866 -2.4953 0.2868 0 8
6.9668 -4.5752 -2.4953 0.2868 0 8
7.0394 -4.4627 -2.4953 0.2868 0 8
7.1102 -4.3490 -2.4953 0.2868 0 8
7.1792 -4.2342 -2.4953 0.2868 0 8
7.2463 -4.1183 -2.4953 0.2868 0 8
7.3115 -4.0013 -2.4953 0.2868 0 8
7.3749 -3.8833 -2.4953 0.2868 0 8
7.4363 -3.7643 -2.4953 0.2868 0 8
7.4958 -3.6443 -2.4953 0.2868 0 8
7.5534 -3.5234 -2.4953 0.2868 0 8
7.6091 -3.4016 -2.4953 0.2868 0 8
7.6628 -3.2789 -2.4953 0.2868 0 8
7.7144 -3.1553 -2.4953 0.2868 0 8
7.7642 -3.0309 -2.4953 0.2868 0 8
7.8119 -2.9058 -2.4953 0.2868 0 8
7.8575 -2.7799 -2.4953 0.2868 0 8
7.9012 -2.6533 -2.4953 0.2868 0 8
7.9428 -2.5260 -2.4953 0.2868 0 8
7.9824 -2.3980 -2.4953 0.2868 0 8
8.0199 -2.2694 -2.4953 0.2868 0 8
8.0553 -2.1403 -2.4953 0.2868 0 8
8.0887 -2.0106 -2.4953 0.2868 0 8
8.1199 -1.8803 -2.4953 0.2868 0 8
8.1491 -1.7496 -2.4953 0.2868 0 8
8.1761 -1.6184 -2.4953 0.2868 0 8
8.2011 -1.4868 -2.4953 0.2868 0 8
8.2239 -1.3549 -2.4953 0.2868 0 8
8.2446 -1.2225 -2.4953 0.2868 0 8
8.2632 -1.0899 -2.4953 0.2868 0 8
8.2797 -0.9570 -2.4953 0.2868 0 8
8.2940 -0.8238 -2.4953 0.2868 0 8
8.3061 -0.6904 -2.4953 0.2868 0 8
8.3162 -0.5569 -2.4953 0.2868 0 8
8.3240 -0.4232 -2.4953 0.2868 0 8
8.3298 -0.2894 -2.4953 0.2868 0 8
8.3333 -0.1555 -2.4953 0.2868 0 8
8.3348 -0.0216 -2.4953 0.2868 0 8
8.3340 0.1124 -2.4953 0.2868 0 8
8.3311 0.2463 -2.4953 0.2868 0 8
8.3261 0.3801 -2.4953 0.2868 0 8
8.3189 0.5139 -2.4953 0.2868 0 8
8.3096 0.6475 -2.4953 0.2868 0 8
8.2981 0.7809 -2.4953 0.2868 0 8
8.2845 0.9141 -2.4953 0.2868 0 8
8.2687 1.0471 -2.4953 0.2868 0 8
8.2509 1.1799 -2.4953 0.2868 0 8
8.2308 1.3123 -2.4953 0.2868 0 8
8.2087 1.4444 -2.4953 0.2868 0 8
8.1844 1.5761 -2.4953 0.2868 0 8
8.1580 1.7074 -2.4953 0.2868 0 8
8.1295 1.8383 -2.4953 0.2868 0 8
8.0989 1.9687 -2.4953 0.2868 0 8
8.0663 2.0986 -2.4953 0.2868 0 8
8.0315 2.2279 -2.4953 0.2868 0 8
7.9947 2.3567 -2.4953 0.2868 0 8
7.9558 2.4848 -2.4953 0.2868 0 8
7.9148 2.6123 -2.4953 0.2868 0 8
7.8718 2.7392 -2.4953 0.2868 0 8
7.8268 2.8653 -2.4953 0.2868 0 8
7.7797 2.9907 -2.4953 0.2868 0 8
7.7307 3.1153 -2.4953 0.2868 0 8
7.6796 3.2392 -2.4953 0.2868 0 8
7.6266 3.3621 -2.4953 0.2868 0 8
7.5716 3.4843 -2.4953 0.2868 0 8
7.5146 3.6055 -2.4953 0.2868 0 8
7.4557 3.7258 -2.4953 0.2868 0 8
7.3949 3.8451 -2.4953 0.2868 0 8
7.3321 3.9634 -2.4953 0.2868 0 8
7.2675 4.0807 -2.4953 0.2868 0 8
7.2010 4.1970 -2.4953 0.2868 0 8
7.1326 4.3121 -2.4953 0.2868 0 8
7.0624 4.4262 -2.4953 0.2868 0 8
6.9904 4.5391 -2.4953 0.2868 0 8
6.3029 -5.0709 -2.4953 0.2948 0 8
6.3835 -4.9689 -2.4953 0.2948 0 8
6.4625 -4.8657 -2.4953 0.2948 0 8
6.5399 -4.7612 -2.4953 0.2948 0 8
6.6156 -4.6555 -2.4953 0.2948 0 8
6.6895 -4.5486 -2.4953 0.2948 0 8
6.7617 -4.4406 -2.4953 0.2948 0 8
6.8322 -4.3313 -2.4953 0.2948 0 8
6.9009 -4.2210 -2.4953 0.2948 0 8
6.9679 -4.1096 -2.4953 0.2948 0 8
7.0330 -3.9971 -2.4953 0.2948 0 8
7.0963 -3.8835 -2.4953 0.2948 0 8
7.1578 -3.7690 -2.4953 0.2948 0 8
7.2174 -3.6535 -2.4953 0.2948 0 8
7.2752 -3.5370 -2.4953 0.2948 0 8
7.3311 -3.4197 -2.4953 0.2948 0 8
7.3851 -3.3014 -2.4953 0.2948 0 8
7.4372 -3.1823 -2.4953 0.2948 0 8
7.4874 -3.0624 -2.4953 0.2948 0 8
7.5356 -2.9417 -2.4953 0.2948 0 8
7.5819 -2.8203 -2.4953 0.2948 0 8
7.6263 -2.6981 -2.4953 0.2948 0 8
7.6686 -2.5752 -2.4953 0.2948 0 8
7.7090 -2.4516 -2.4953 0.2948 0 8
7.7474 -2.3274 -2.4953 0.2948 0 8
7.7838 -2.2026 -2.4953 0.2948 0 8
7.8182 -2.0773 -2.4953 0.2948 0 8
7.8506 -1.9514 -2.4953 0.2948 0 8
7.8809 -1.8250 -2.4953 0.2948 0 8
7.9092 -1.6981 -2.4953 0.2948 0 8
7.9355 -1.5708 -2.4953 0.2948 0 8
7.9597 -1.4431 -2.4953 0.2948 0 8
7.9819 -1.3150 -2.4953 0.2948 0 8
8.0020 -1.1866 -2.4953 0.2948 0 8
8.0200 -1.0578 -2.4953 0.2948 0 8
8.0360 -0.9288 -2.4953 0.2948 0 8
8.0499 -0.7996 -2.4953 0.2948 0 8
8.0617 -0.6701 -2.4953 0.2948 0 8
8.0714 -0.5405 -2.4953 0.2948 0 8
8.0790 -0.4107 -2.4953 0.2948 0 8
8.0846 -0.2809 -2.4953 0.2948 0 8
8.0881 -0.1509 -2.4953 0.2948 0 8
8.0894 -0.0209 -2.4953 0.2948 0 8
8.0887 0.1091 -2.4953 0.2948 0 8
8.0859 0.2390 -2.4953 0.2948 0 8
8.0811 0.3689 -2.4953 0.2948 0 8
8.0741 0.4987 -2.4953 0.2948 0 8
8.0650 0.6284 -2.4953 0.2948 0 8
8.0539 0.7579 -2.4953 0.2948 0 8
8.0407 0.8872 -2.4953 0.2948 0 8
8.0254 1.0163 -2.4953 0.2948 0 8
8.0080 1.1451 -2.4953 0.2948 0 8
7.9886 1.2737 -2.4953 0.2948 0 8
7.9671 1.4019 -2.4953 0.2948 0 8
7.9435 1.5297 -2.4953 0.2948 0 8
7.9179 1.6572 -2.4953 0.2948 0 8
7.8903 1.7842 -2.4953 0.2948 0 8
7.8606 1.9107 -2.4953 0.2948 0 8
7.8289 2.0368 -2.4953 0.2948 0 8
7.7951 2.1623 -2.4953 0.2948 0 8
7.7594 2.2873 -2.4953 0.2948 0 8
7.7216 2.4117 -2.4953 0.2948 0 8
7.6819 2.5355 -2.4953 0.2948 0 8
7.6401 2.6586 -2.4953 0.2948 0 8
7.5964 2.7810 -2.4953 0.2948 0 8
7.5508 2.9027 -2.4953 0.2948 0 8
7.5031 3.0237 -2.4953 0.2948 0 8
7.4536 3.1438 -2.4953 0.2948 0 8
7.4021 3.2632 -2.4953 0.2948 0 8
7.3487 3.3817 -2.4953 0.2948 0 8
7.2934 3.4994 -2.4953 0.2948 0 8
7.2363 3.6161 -2.4953 0.2948 0 8
7.1772 3.7319 -2.4953 0.2948 0 8
7.1163 3.8468 -2.4953 0.2948 0 8
7.0536 3.9606 -2.4953 0.2948 0 8
6.9890 4.0734 -2.4953 0.2948 0 8
6.9227 4.1852 -2.4953 0.2948 0 8
6.8545 4.2959 -2.4953 0.2948 0 8
6.7846 4.4055 -2.4953 0.2948 0 8
6.1217 -4.9251 -2.4953 0.3027 0 8
6.2001 -4.8261 -2.4953 0.3027 0 8
6.2768 -4.7259 -2.4953 0.3027 0 8
6.3520 -4.6244 -2.4953 0.3027 0 8
6.4255 -4.5218 -2.4953 0.3027 0 8
6.4973 -4.4179 -2.4953 0.3027 0 8
6.5674 -4.3130 -2.4953 0.3027 0 8
6.6359 -4.2069 -2.4953 0.3027 0 8
6.7026 -4.0997 -2.4953 0.3027 0 8
6.7677 -3.9915 -2.4953 0.3027 0 8
6.8309 -3.8822 -2.4953 0.3027 0 8
6.8924 -3.7719 -2.4953 0.3027 0 8
6.9521 -3.6607 -2.4953 0.3027 0 8
7.0101 -3.5485 -2.4953 0.3027 0 8
7.0662 -3.4354 -2.4953 0.3027 0 8
7.1205 -3.3214 -2.4953 0.3027 0 8
7.1729 -3.2066 -2.4953 0.3027 0 8
7.2235 -3.0909 -2.4953 0.3027 0 8
7.2723 -2.9744 -2.4953 0.3027 0 8
7.3191 -2.8572 -2.4953 0.3027 0 8
7.3641 -2.7392 -2.4953 0.3027 0 8
7.4071 -2.6205 -2.4953 0.3027 0 8
7.4483 -2.5012 -2.4953 0.3027 0 8
7.4875 -2.3812 -2.4953 0.3027 0 8
7.5248 -2.2605 -2.4953 0.3027 0 8
7.5602 -2.1393 -2.4953 0.3027 0 8
7.5936 -2.0176 -2.4953 0.3027 0 8
7.6250 -1.8953 -2.4953 0.3027 0 8
7.6545 -1.7725 -2.4953 0.3027 0 8
7.6820 -1.6493 -2.4953 0.3027 0 8
7.7075 -1.5257 -2.4953 0.3027 0 8
7.7310 -1.4016 -2.4953 0.3027 0 8
7.7525 -1.2772 -2.4953 0.3027 0 8
7.7720 -1.1525 -2.4953 0.3027 0 8
7.7896 -1.0274 -2.4953 0.3027 0 8
7.8051 -0.9021 -2.4953 0.3027 0 8
7.8186 -0.7766 -2.4953 0.3027 0 8
7.8300 -0.6509 -2.4953 0.3027 0 8
7.8395 -0.5250 -2.4953 0.3027 0 8
7.8469 -0.3989 -2.4953 0.3027 0 8
7.8523 -0.2728 -2.4953 0.3027 0 8
7.8557 -0.1466 -2.4953 0.3027 0 8
7.8570 -0.0203 -2.4953 0.3027 0 8
7.8563 0.1059 -2.4953 0.3027 0 8
7.8536 0.2322 -2.4953 0.3027 0 8
7.8489 0.3583 -2.4953 0.3027 0 8
7.8421 0.4844 -2.4953 0.3027 0 8
7.8333 0.6103 -2.4953 0.3027 0 8
7.8225 0.7361 -2.4953 0.3027 0 8
7.8096 0.8617 -2.4953 0.3027 0 8
7.7948 0.9871 -2.4953 0.3027 0 8
7.7779 1.1122 -2.4953 0.3027 0 8
7.7590 1.2371 -2.4953 0.3027 0 8
7.7381 1.3616 -2.4953 0.3027 0 8
7.7153 1.4858 -2.4953 0.3027 0 8
7.6904 1.6095 -2.4953 0.3027 0 8
7.6635 1.7329 -2.4953 0.3027 0 8
7.6347 1.8558 -2.4953 0.3027 0 8
7.6039 1.9783 -2.4953 0.3027 0 8
7.5711 2.1002 -2.4953 0.3027 0 8
7.5364 2.2216 -2.4953 0.3027 0 8
7.4997 2.3424 -2.4953 0.3027 0 8
7.4611 2.4626 -2.4953 0.3027 0 8
7.4206 2.5822 -2.4953 0.3027 0 8
7.3781 2.7011 -2.4953 0.3027 0 8
7.3338 2.8193 -2.4953 0.3027 0 8
7.2875 2.9368 -2.4953 0.3027 0 8
7.2394 3.0535 -2.4953 0.3027 0 8
7.1894 3.1694 -2.4953 0.3027 0 8
7.1376 3.2845 -2.4953 0.3027 0 8
7.0839 3.3988 -2.4953 0.3027 0 8
7.0283 3.5122 -2.4953 0.3027 0 8
6.9710 3.6247 -2.4953 0.3027 0 8
6.9118 3.7362 -2.4953 0.3027 0 8
6.8509 3.8468 -2.4953 0.3027 0 8
6.7882 3.9564 -2.4953 0.3027 0 8
6.7238 4.0650 -2.4953 0.3027 0 8
6.6576 4.1725 -2.4953 0.3027 0 8
6.5897 4.2789 -2.4953 0.3027 0 8
5.9499 -4.7869 -2.4953 0.3106 0 8
6.0260 -4.6907 -2.4953 0.3106 0 8
6.1006 -4.5932 -2.4953 0.3106 0 8
6.1736 -4.4946 -2.4953 0.3106 0 8
6.2451 -4.3948 -2.4953 0.3106 0 8
6.3149 -4.2939 -2.4953 0.3106 0 8
6.3831 -4.1919 -2.4953 0.3106 0 8
6.4496 -4.0888 -2.4953 0.3106 0 8
6.5145 -3.9846 -2.4953 0.3106 0 8
6.5776 -3.8794 -2.4953 0.3106 0 8
6.6391 -3.7732 -2.4953 0.3106 0 8
6.6989 -3.6660 -2.4953 0.3106 0 8
6.7570 -3.5579 -2.4953 0.3106 0 8
6.8133 -3.4489 -2.4953 0.3106 0 8
6.8678 -3.3390 -2.4953 0.3106 0 8
6.9206 -3.2282 -2.4953 0.3106 0 8
6.9715 -3.1166 -2.4953 0.3106 0 8
7.0207 -3.0041 -2.4953 0.3106 0 8
7.0681 -2.8909 -2.4953 0.3106 0 8
7.1136 -2.7770 -2.4953 0.3106 0 8
7.1573 -2.6623 -2.4953 0.3106 0 8
7.1992 -2.5470 -2.4953 0.3106 0 8
7.2392 -2.4310 -2.4953 0.3106 0 8
7.2773 -2.3143 -2.4953 0.3106 0 8
7.3136 -2.1971 -2.4953 0.3106 0 8
7.3479 -2.0793 -2.4953 0.3106 0 8
7.3804 -1.9609 -2.4953 0.3106 0 8
7.4109 -1.8421 -2.4953 0.3106 0 8
7.4396 -1.7228 -2.4953 0.3106 0 8
7.4663 -1.6030 -2.4953 0.3106 0 8
7.4911 -1.4828 -2.4953 0.3106 0 8
7.5140 -1.3623 -2.4953 0.3106 0 8
7.5349 -1.2414 -2.4953 0.3106 0 8
7.5538 -1.1201 -2.4953 0.3106 0 8
7.5709 -0.9986 -2.4953 0.3106 0 8
7.5859 -0.8768 -2.4953 0.3106 0 8
7.5990 -0.7548 -2.4953 0.3106 0 8
7.6102 -0.6326 -2.4953 0.3106 0 8
7.6194 -0.5102 -2.4953 0.3106 0 8
7.6266 -0.3877 -2.4953 0.3106 0 8
7.6318 -0.2651 -2.4953 0.3106 0 8
7.6351 -0.1425 -2.4953 0.3106 0 8
7.6364 -0.0198 -2.4953 0.3106 0 8
7.6357 0.1030 -2.4953 0.3106 0 8
7.6331 0.2256 -2.4953 0.3106 0 8
7.6285 0.3483 -2.4953 0.3106 0 8
7.6219 0.4708 -2.4953 0.3106 0 8
7.6134 0.5932 -2.4953 0.3106 0 8
7.6029 0.7155 -2.4953 0.3106 0 8
7.5904 0.8375 -2.4953 0.3106 0 8
7.5759 0.9594 -2.4953 0.3106 0 8
7.5595 1.0810 -2.4953 0.3106 0 8
7.5412 1.2023 -2.4953 0.3106 0 8
7.5209 1.3234 -2.4953 0.3106 0 8
7.4987 1.4440 -2.4953 0.3106 0 8
7.4745 1.5644 -2.4953 0.3106 0 8
7.4484 1.6843 -2.4953 0.3106 0 8
7.4204 1.8037 -2.4953 0.3106 0 8
7.3904 1.9227 -2.4953 0.3106 0 8
7.3586 2.0412 -2.4953 0.3106 0 8
7.3248 2.1592 -2.4953 0.3106 0 8
7.2892 2.2766 -2.4953 0.3106 0 8
7.2517 2.3935 -2.4953 0.3106 0 8
7.2123 2.5097 -2.4953 0.3106 0 8
7.1710 2.6253 -2.4953 0.3106 0 8
7.1279 2.7401 -2.4953 0.3106 0 8
7.0829 2.8543 -2.4953 0.3106 0 8
7.0362 2.9678 -2.4953 0.3106 0 8
6.9876 3.0804 -2.4953 0.3106 0 8
6.9372 3.1923 -2.4953 0.3106 0 8
6.8850 3.3034 -2.4953 0.3106 0 8
6.8310 3.4136 -2.4953 0.3106 0 8
6.7753 3.5229 -2.4953 0.3106 0 8
6.7178 3.6313 -2.4953 0.3106 0 8
6.6586 3.7388 -2.4953 0.3106 0 8
6.5976 3.8453 -2.4953 0.3106 0 8
6.5350 3.9508 -2.4953 0.3106 0 8
6.4707 4.0553 -2.4953 0.3106 0 8
6.4047 4.1588 -2.4953 0.3106 0 8
5.7865 -4.6555 -2.4953 0.3185 0 8
5.8606 -4.5619 -2.4953 0.3185 0 8
5.9331 -4.4671 -2.4953 0.3185 0 8
6.0042 -4.3712 -2.4953 0.3185 0 8
6.0736 -4.2742 -2.4953 0.3185 0 8
6.1415 -4.1760 -2.4953 0.3185 0 8
6.2078 -4.0768 -2.4953 0.3185 0 8
6.2725 -3.9765 -2.4953 0.3185 0 8
6.3356 -3.8752 -2.4953 0.3185 0 8
6.3971 -3.7729 -2.4953 0.3185 0 8
6.4569 -3.6696 -2.4953 0.3185 0 8
6.5150 -3.5654 -2.4953 0.3185 0 8
6.5715 -3.4602 -2.4953 0.3185 0 8
6.6262 -3.3542 -2.4953 0.3185 0 8
6.6792 -3.2473 -2.4953 0.3185 0 8
6.7306 -3.1396 -2.4953 0.3185 0 8
6.7801 -3.0310 -2.4953 0.3185 0 8
6.8280 -2.9217 -2.4953 0.3185 0 8
6.8740 -2.8116 -2.4953 0.3185 0 8
6.9183 -2.7007 -2.4953 0.3185 0 8
6.9608 -2.5892 -2.4953 0.3185 0 8
7.0015 -2.4770 -2.4953 0.3185 0 8
7.0404 -2.3642 -2.4953 0.3185 0 8
7.0775 -2.2508 -2.4953 0.3185 0 8
7.1128 -2.1368 -2.4953 0.3185 0 8
7.1462 -2.0222 -2.4953 0.3185 0 8
7.1778 -1.9071 -2.4953 0.3185 0 8
7.2075 -1.7915 -2.4953 0.3185 0 8
7.2353 -1.6755 -2.4953 0.3185 0 8
7.2613 -1.5590 -2.4953 0.3185 0 8
7.2854 -1.4421 -2.4953 0.3185 0 8
7.3077 -1.3249 -2.4953 0.3185 0 8
7.3280 -1.2073 -2.4953 0.3185 0 8
7.3465 -1.0894 -2.4953 0.3185 0 8
7.3630 -0.9712 -2.4953 0.3185 0 8
7.3777 -0.8527 -2.4953 0.3185 0 8
7.3904 -0.7341 -2.4953 0.3185 0 8
7.4013 -0.6152 -2.4953 0.3185 0 8
7.4102 -0.4962 -2.4953 0.3185 0 8
7.4172 -0.3771 -2.4953 0.3185 0 8
7.4223 -0.2578 -2.4953 0.3185 0 8
7.4255 -0.1385 -2.4953 0.3185 0 8
7.4268 -0.0192 -2.4953 0.3185 0 8
7.4261 0.1001 -2.4953 0.3185 0 8
7.4236 0.2194 -2.4953 0.3185 0 8
7.4191 0.3387 -2.4953 0.3185 0 8
7.4127 0.4579 -2.4953 0.3185 0 8
7.4044 0.5769 -2.4953 0.3185 0 8
7.3941 0.6958 -2.4953 0.3185 0 8
7.3820 0.8146 -2.4953 0.3185 0 8
7.3680 0.9331 -2.4953 0.3185 0 8
7.3520 1.0513 -2.4953 0.3185 0 8
7.3342 1.1693 -2.4953 0.3185 0 8
7.3144 1.2870 -2.4953 0.3185 0 8
7.2928 1.4044 -2.4953 0.3185 0 8
7.2693 1.5214 -2.4953 0.3185 0 8
7.2439 1.6380 -2.4953 0.3185 0 8
7.2167 1.7542 -2.4953 0.3185 0 8
7.1875 1.8699 -2.4953 0.3185 0 8
7.1566 1.9852 -2.4953 0.3185 0 8
7.1237 2.0999 -2.4953 0.3185 0 8
7.0891 2.2141 -2.4953 0.3185 0 8
7.0526 2.3278 -2.4953 0.3185 0 8
7.0143 2.4408 -2.4953 0.3185 0 8
6.9741 2.5532 -2.4953 0.3185 0 8
6.9322 2.6649 -2.4953 0.3185 0 8
6.8885 2.7760 -2.4953 0.3185 0 8
6.8430 2.8863 -2.4953 0.3185 0 8
6.7957 2.9959 -2.4953 0.3185 0 8
6.7467 3.1047 -2.4953 0.3185 0 8
6.6960 3.2127 -2.4953 0.3185 0 8
6.6435 3.3199 -2.4953 0.3185 0 8
6.5893 3.4262 -2.4953 0.3185 0 8
6.5334 3.5316 -2.4953 0.3185 0 8
6.4758 3.6362 -2.4953 0.3185 0 8
6.4165 3.7398 -2.4953 0.3185 0 8
6.3556 3.8424 -2.4953 0.3185 0 8
6.2930 3.9440 -2.4953 0.3185 0 8
6.2288 4.0446 -2.4953 0.3185 0 8
5.6311 -4.5304 -2.4953 0.3264 0 8
5.7032 -4.4393 -2.4953 0.3264 0 8
5.7737 -4.3471 -2.4953 0.3264 0 8
5.8429 -4.2538 -2.4953 0.3264 0 8
5.9105 -4.1593 -2.4953 0.3264 0 8
5.9765 -4.0638 -2.4953 0.3264 0 8
6.0411 -3.9673 -2.4953 0.3264 0 8
6.1040 -3.8697 -2.4953 0.3264 0 8
6.1654 -3.7711 -2.4953 0.3264 0 8
6.2252 -3.6715 -2.4953 0.3264 0 8
6.2834 -3.5710 -2.4953 0.3264 0 8
6.3400 -3.4696 -2.4953 0.3264 0 8
6.3949 -3.3673 -2.4953 0.3264 0 8
6.4482 -3.2641 -2.4953 0.3264 0 8
6.4998 -3.1601 -2.4953 0.3264 0 8
6.5497 -3.0552 -2.4953 0.3264 0 8
6.5980 -2.9496 -2.4953 0.3264 0 8
6.6445 -2.8432 -2.4953 0.3264 0 8
6.6894 -2.7360 -2.4953 0.3264 0 8
6.7325 -2.6282 -2.4953 0.3264 0 8
6.7738 -2.5197 -2.4953 0.3264 0 8
6.8134 -2.4105 -2.4953 0.3264 0 8
6.8513 -2.3007 -2.4953 0.3264 0 8
6.8874 -2.1903 -2.4953 0.3264 0 8
6.9217 -2.0794 -2.4953 0.3264 0 8
6.9542 -1.9679 -2.4953 0.3264 0 8
6.9849 -1.8559 -2.4953 0.3264 0 8
7.0138 -1.7434 -2.4953 0.3264 0 8
7.0410 -1.6305 -2.4953 0.3264 0 8
7.0662 -1.5171 -2.4953 0.3264 0 8
7.0897 -1.4034 -2.4953 0.3264 0 8
7.1113 -1.2893 -2.4953 0.3264 0 8
7.1311 -1.1748 -2.4953 0.3264 0 8
7.1491 -1.0601 -2.4953 0.3264 0 8
7.1652 -0.9451 -2.4953 0.3264 0 8
7.1795 -0.8298 -2.4953 0.3264 0 8
7.1919 -0.7144 -2.4953 0.3264 0 8
7.2024 -0.5987 -2.4953 0.3264 0 8
7.2111 -0.4829 -2.4953 0.3264 0 8
7.2180 -0.3670 -2.4953 0.3264 0 8
7.2229 -0.2509 -2.4953 0.3264 0 8
7.2260 -0.1348 -2.4953 0.3264 0 8
7.2273 -0.0187 -2.4953 0.3264 0 8
7.2266 0.0974 -2.4953 0.3264 0 8
7.2241 0.2135 -2.4953 0.3264 0 8
7.2198 0.3296 -2.4953 0.3264 0 8
7.2135 0.4456 -2.4953 0.3264 0 8
7.2054 0.5614 -2.4953 0.3264 0 8
7.1955 0.6771 -2.4953 0.3264 0 8
7.1837 0.7927 -2.4953 0.3264 0 8
7.1700 0.9080 -2.4953 0.3264 0 8
7.1545 1.0231 -2.4953 0.3264 0 8
7.1371 1.1379 -2.4953 0.3264 0 8
7.1179 1.2525 -2.4953 0.3264 0 8
7.0969 1.3667 -2.4953 0.3264 0 8
7.0740 1.4805 -2.4953 0.3264 0 8
7.0493 1.5940 -2.4953 0.3264 0 8
7.0228 1.7071 -2.4953 0.3264 0 8
6.9944 1.8197 -2.4953 0.3264 0 8
6.9643 1.9319 -2.4953 0.3264 0 8
6.9324 2.0435 -2.4953 0.3264 0 8
6.8986 2.1547 -2.4953 0.3264 0 8
6.8631 2.2652 -2.4953 0.3264 0 8
6.8258 2.3752 -2.4953 0.3264 0 8
6.7868 2.4846 -2.4953 0.3264 0 8
6.7460 2.5933 -2.4953 0.3264 0 8
6.7034 2.7014 -2.4953 0.3264 0 8
6.6592 2.8088 -2.4953 0.3264 0 8
6.6132 2.9154 -2.4953 0.3264 0 8
6.5655 3.0213 -2.4953 0.3264 0 8
6.5161 3.1264 -2.4953 0.3264 0 8
6.4650 3.2307 -2.4953 0.3264 0 8
6.4122 3.3342 -2.4953 0.3264 0 8
6.3578 3.4368 -2.4953 0.3264 0 8
6.3018 3.5385 -2.4953 0.3264 0 8
6.2441 3.6393 -2.4953 0.3264 0 8
6.1848 3.7392 -2.4953 0.3264 0 8
6.1240 3.8381 -2.4953 0.3264 0 8
6.0615 3.9360 -2.4953 0.3264 0 8
5.4829 -4.4112 -2.4953 0.3342 0 8
5.5531 -4.3225 -2.4953 0.3342 0 8
5.6218 -4.2327 -2.4953 0.3342 0 8
5.6891 -4.1419 -2.4953 0.3342 0 8
5.7550 -4.0499 -2.4953 0.3342 0 8
5.8193 -3.9569 -2.4953 0.3342 0 8
5.8821 -3.8629 -2.4953 0.3342 0 8
5.9434 -3.7679 -2.4953 0.3342 0 8
6.0032 -3.6717 -2.4953 0.3342 0 8
6.0614 -3.5750 -2.4953 0.3342 0 8
6.1181 -3.4771 -2.4953 0.3342 0 8
6.1732 -3.3783 -2.4953 0.3342 0 8
6.2267 -3.2787 -2.4953 0.3342 0 8
6.2785 -3.1782 -2.4953 0.3342 0 8
6.3288 -3.0769 -2.4953 0.3342 0 8
6.3774 -2.9748 -2.4953 0.3342 0 8
6.4244 -2.8720 -2.4953 0.3342 0 8
6.4697 -2.7684 -2.4953 0.3342 0 8
6.5134 -2.6640 -2.4953 0.3342 0 8
6.5553 -2.5590 -2.4953 0.3342 0 8
6.5956 -2.4534 -2.4953 0.3342 0 8
6.6342 -2.3471 -2.4953 0.3342 0 8
6.6710 -2.2402 -2.4953 0.3342 0 8
6.7062 -2.1327 -2.4953 0.3342 0 8
6.7396 -2.0247 -2.4953 0.3342 0 8
6.7712 -1.9161 -2.4953 0.3342 0 8
6.8012 -1.8070 -2.4953 0.3342 0 8
6.8293 -1.6975 -2.4953 0.3342 0 8
6.8557 -1.5876 -2.4953 0.3342 0 8
6.8803 -1.4772 -2.4953 0.3342 0 8
6.9032 -1.3665 -2.4953 0.3342 0 8
6.9243 -1.2554 -2.4953 0.3342 0 8
6.9435 -1.1439 -2.4953 0.3342 0 8
6.9610 -1.0322 -2.4953 0.3342 0 8
6.9767 -0.9202 -2.4953 0.3342 0 8
6.9906 -0.8080 -2.4953 0.3342 0 8
7.0027 -0.6956 -2.4953 0.3342 0 8
7.0129 -0.5829 -2.4953 0.3342 0 8
7.0214 -0.4702 -2.4953 0.3342 0 8
7.0281 -0.3573 -2.4953 0.3342 0 8
7.0329 -0.2443 -2.4953 0.3342 0 8
7.0359 -0.1313 -2.4953 0.3342 0 8
7.0371 -0.0182 -2.4953 0.3342 0 8
7.0365 0.0949 -2.4953 0.3342 0 8
7.0341 0.2079 -2.4953 0.3342 0 8
7.0298 0.3209 -2.4953 0.3342 0 8
7.0237 0.4338 -2.4953 0.3342 0 8
7.0159 0.5467 -2.4953 0.3342 0 8
7.0062 0.6593 -2.4953 0.3342 0 8
6.9947 0.7718 -2.4953 0.3342 0 8
6.9814 0.8841 -2.4953 0.3342 0 8
6.9663 0.9962 -2.4953 0.3342 0 8
6.9494 1.1080 -2.4953 0.3342 0 8
6.9307 1.2195 -2.4953 0.3342 0 8
6.9102 1.3307 -2.4953 0.3342 0 8
6.8879 1.4416 -2.4953 0.3342 0 8
6.8638 1.5521 -2.4953 0.3342 0 8
6.8380 1.6622 -2.4953 0.3342 0 8
6.8104 1.7718 -2.4953 0.3342 0 8
6.7811 1.8810 -2.4953 0.3342 0 8
6.7500 1.9898 -2.4953 0.3342 0 8
6.7171 2.0980 -2.4953 0.3342 0 8
6.6825 2.2056 -2.4953 0.3342 0 8
6.6462 2.3127 -2.4953 0.3342 0 8
6.6082 2.4192 -2.4953 0.3342 0 8
6.5685 2.5251 -2.4953 0.3342 0 8
6.5271 2.6303 -2.4953 0.3342 0 8
6.4840 2.7349 -2.4953 0.3342 0 8
6.4392 2.8387 -2.4953 0.3342 0 8
6.3927 2.9418 -2.4953 0.3342 0 8
6.3446 3.0441 -2.4953 0.3342 0 8
6.2949 3.1457 -2.4953 0.3342 0 8
6.2435 3.2464 -2.4953 0.3342 0 8
6.1906 3.3463 -2.4953 0.3342 0 8
6.1360 3.4454 -2.4953 0.3342 0 8
6.0799 3.5435 -2.4953 0.3342 0 8
6.0221 3.6408 -2.4953 0.3342 0 8
5.9628 3.7371 -2.4953 0.3342 0 8
5.9020 3.8324 -2.4953 0.3342 0 8
5.3416 -4.2975 -2.4953 0.3420 0 8
5.4099 -4.2111 -2.4953 0.3420 0 8
5.4769 -4.1236 -2.4953 0.3420 0 8
5.5425 -4.0351 -2.4953 0.3420 0 8
5.6066 -3.9455 -2.4953 0.3420 0 8
5.6693 -3.8549 -2.4953 0.3420 0 8
5.7305 -3.7633 -2.4953 0.3420 0 8
5.7902 -3.6707 -2.4953 0.3420 0 8
5.8484 -3.5772 -2.4953 0.3420 0 8
5.9052 -3.4828 -2.4953 0.3420 0 8
5.9604 -3.3874 -2.4953 0.3420 0 8
6.0140 -3.2912 -2.4953 0.3420 0 8
6.0661 -3.1942 -2.4953 0.3420 0 8
6.1167 -3.0963 -2.4953 0.3420 0 8
6.1656 -2.9976 -2.4953 0.3420 0 8
6.2130 -2.8981 -2.4953 0.3420 0 8
6.2588 -2.7979 -2.4953 0.3420 0 8
6.3029 -2.6970 -2.4953 0.3420 0 8
6.3455 -2.5954 -2.4953 0.3420 0 8
6.3863 -2.4931 -2.4953 0.3420 0 8
6.4256 -2.3901 -2.4953 0.3420 0 8
6.4631 -2.2866 -2.4953 0.3420 0 8
6.4991 -2.1824 -2.4953 0.3420 0 8
6.5333 -2.0777 -2.4953 0.3420 0 8
6.5658 -1.9725 -2.4953 0.3420 0 8
6.5967 -1.8667 -2.4953 0.3420 0 8
6.6258 -1.7605 -2.4953 0.3420 0 8
6.6532 -1.6538 -2.4953 0.3420 0 8
6.6790 -1.5466 -2.4953 0.3420 0 8
6.7030 -1.4391 -2.4953 0.3420 0 8
6.7252 -1.3312 -2.4953 0.3420 0 8
6.7457 -1.2230 -2.4953 0.3420 0 8
6.7645 -1.1144 -2.4953 0.3420 0 8
6.7815 -1.0056 -2.4953 0.3420 0 8
6.7968 -0.8965 -2.4953 0.3420 0 8
6.8104 -0.7872 -2.4953 0.3420 0 8
6.8221 -0.6776 -2.4953 0.3420 0 8
6.8321 -0.5679 -2.4953 0.3420 0 8
6.8404 -0.4581 -2.4953 0.3420 0 8
6.8469 -0.3481 -2.4953 0.3420 0 8
6.8516 -0.2380 -2.4953 0.3420 0 8
6.8545 -0.1279 -2.4953 0.3420 0 8
6.8557 -0.0177 -2.4953 0.3420 0 8
6.8551 0.0924 -2.4953 0.3420 0 8
6.8527 0.2026 -2.4953 0.3420 0 8
6.8486 0.3127 -2.4953 0.3420 0 8
6.8427 0.4227 -2.4953 0.3420 0 8
6.8350 0.5326 -2.4953 0.3420 0 8
6.8255 0.6423 -2.4953 0.3420 0 8
6.8143 0.7519 -2.4953 0.3420 0 8
6.8014 0.8613 -2.4953 0.3420 0 8
6.7867 0.9705 -2.4953 0.3420 0 8
6.7702 1.0794 -2.4953 0.3420 0 8
6.7520 1.1881 -2.4953 0.3420 0 8
6.7320 1.2964 -2.4953 0.3420 0 8
6.7103 1.4044 -2.4953 0.3420 0 8
6.6869 1.5121 -2.4953 0.3420 0 8
6.6617 1.6193 -2.4953 0.3420 0 8
6.6348 1.7262 -2.4953 0.3420 0 8
6.6062 1.8325 -2.4953 0.3420 0 8
6.5759 1.9385 -2.4953 0.3420 0 8
6.5439 2.0439 -2.4953 0.3420 0 8
6.5103 2.1488 -2.4953 0.3420 0 8
6.4749 2.2531 -2.4953 0.3420 0 8
6.4378 2.3568 -2.4953 0.3420 0 8
6.3991 2.4600 -2.4953 0.3420 0 8
6.3588 2.5625 -2.4953 0.3420 0 8
6.3168 2.6643 -2.4953 0.3420 0 8
6.2732 2.7655 -2.4953 0.3420 0 8
6.2279 2.8659 -2.4953 0.3420 0 8
6.1811 2.9657 -2.4953 0.3420 0 8
6.1326 3.0646 -2.4953 0.3420 0 8
6.0826 3.1627 -2.4953 0.3420 0 8
6.0310 3.2601 -2.4953 0.3420 0 8
5.9778 3.3566 -2.4953 0.3420 0 8
5.9231 3.4522 -2.4953 0.3420 0 8
5.8669 3.5469 -2.4953 0.3420 0 8
5.8091 3.6407 -2.4953 0.3420 0 8
5.7499 3.7336 -2.4953 0.3420 0 8
5.2065 -4.1888 -2.4953 0.3498 0 8
5.2732 -4.1046 -2.4953 0.3498 0 8
5.3384 -4.0194 -2.4953 0.3498 0 8
5.4023 -3.9331 -2.4953 0.3498 0 8
5.4648 -3.8457 -2.4953 0.3498 0 8
5.5259 -3.7574 -2.4953 0.3498 0 8
5.5856 -3.6682 -2.4953 0.3498 0 8
5.6438 -3.5779 -2.4953 0.3498 0 8
5.7006 -3.4868 -2.4953 0.3498 0 8
5.7559 -3.3947 -2.4953 0.3498 0 8
5.8097 -3.3018 -2.4953 0.3498 0 8
5.8620 -3.2080 -2.4953 0.3498 0 8
5.9128 -3.1134 -2.4953 0.3498 0 8
5.9620 -3.0180 -2.4953 0.3498 0 8
6.0098 -2.9218 -2.4953 0.3498 0 8
6.0559 -2.8249 -2.4953 0.3498 0 8
6.1005 -2.7272 -2.4953 0.3498 0 8
6.1436 -2.6288 -2.4953 0.3498 0 8
6.1850 -2.5297 -2.4953 0.3498 0 8
6.2249 -2.4300 -2.4953 0.3498 0 8
6.2631 -2.3297 -2.4953 0.3498 0 8
6.2997 -2.2288 -2.4953 0.3498 0 8
6.3347 -2.1272 -2.4953 0.3498 0 8
6.3681 -2.0252 -2.4953 0.3498 0 8
6.3998 -1.9226 -2.4953 0.3498 0 8
6.4299 -1.8195 -2.4953 0.3498 0 8
6.4583 -1.7159 -2.4953 0.3498 0 8
6.4850 -1.6120 -2.4953 0.3498 0 8
6.5101 -1.5075 -2.4953 0.3498 0 8
6.5335 -1.4027 -2.4953 0.3498 0 8
6.5552 -1.2976 -2.4953 0.3498 0 8
6.5752 -1.1921 -2.4953 0.3498 0 8
6.5935 -1.0863 -2.4953 0.3498 0 8
6.6101 -0.9802 -2.4953 0.3498 0 8
6.6250 -0.8738 -2.4953 0.3498 0 8
6.6382 -0.7673 -2.4953 0.3498 0 8
6.6496 -0.6605 -2.4953 0.3498 0 8
6.6594 -0.5536 -2.4953 0.3498 0 8
6.6674 -0.4465 -2.4953 0.3498 0 8
6.6737 -0.3393 -2.4953 0.3498 0 8
6.6783 -0.2320 -2.4953 0.3498 0 8
6.6812 -0.1247 -2.4953 0.3498 0 8
6.6823 -0.0173 -2.4953 0.3498 0 8
6.6818 0.0901 -2.4953 0.3498 0 8
6.6795 0.1974 -2.4953 0.3498 0 8
6.6754 0.3048 -2.4953 0.3498 0 8
6.6697 0.4120 -2.4953 0.3498 0 8
6.6622 0.5191 -2.4953 0.3498 0 8
6.6530 0.6261 -2.4953 0.3498 0 8
6.6421 0.7329 -2.4953 0.3498 0 8
6.6294 0.8395 -2.4953 0.3498 0 8
6.6151 0.9460 -2.4953 0.3498 0 8
6.5990 1.0521 -2.4953 0.3498 0 8
6.5813 1.1580 -2.4953 0.3498 0 8
6.5618 1.2636 -2.4953 0.3498 0 8
6.5407 1.3689 -2.4953 0.3498 0 8
6.5178 1.4738 -2.4953 0.3498 0 8
6.4933 1.5784 -2.4953 0.3498 0 8
6.4671 1.6825 -2.4953 0.3498 0 8
6.4392 1.7862 -2.4953 0.3498 0 8
6.4097 1.8894 -2.4953 0.3498 0 8
6.3785 1.9922 -2.4953 0.3498 0 8
6.3457 2.0944 -2.4953 0.3498 0 8
6.3112 2.1961 -2.4953 0.3498 0 8
6.2751 2.2973 -2.4953 0.3498 0 8
6.2374 2.3978 -2.4953 0.3498 0 8
6.1980 2.4977 -2.4953 0.3498 0 8
6.1571 2.5970 -2.4953 0.3498 0 8
6.1146 2.6956 -2.4953 0.3498 0 8
6.0705 2.7935 -2.4953 0.3498 0 8
6.0248 2.8907 -2.4953 0.3498 0 8
5.9776 2.9871 -2.4953 0.3498 0 8
5.9288 3.0828 -2.4953 0.3498 0 8
5.8785 3.1776 -2.4953 0.3498 0 8
5.8267 3.2717 -2.4953 0.3498 0 8
5.7733 3.3649 -2.4953 0.3498 0 8
5.7185 3.4572 -2.4953 0.3498 0 8
5.6622 3.5487 -2.4953 0.3498 0 8
5.6045 3.6392 -2.4953 0.3498 0 8
5.0774 -4.0849 -2.4953 0.3576 0 8
5.1423 -4.0028 -2.4953 0.3576 0 8
5.2060 -3.9196 -2.4953 0.3576 0 8
5.2683 -3.8355 -2.4953 0.3576 0 8
5.3293 -3.7503 -2.4953 0.3576 0 8
5.3888 -3.6642 -2.4953 0.3576 0 8
5.4470 -3.5772 -2.4953 0.3576 0 8
5.5038 -3.4892 -2.4953 0.3576 0 8
5.5591 -3.4003 -2.4953 0.3576 0 8
5.6131 -3.3105 -2.4953 0.3576 0 8
5.6655 -3.2199 -2.4953 0.3576 0 8
5.7165 -3.1284 -2.4953 0.3576 0 8
5.7661 -3.0362 -2.4953 0.3576 0 8
5.8141 -2.9431 -2.4953 0.3576 0 8
5.8607 -2.8493 -2.4953 0.3576 0 8
5.9057 -2.7548 -2.4953 0.3576 0 8
5.9492 -2.6595 -2.4953 0.3576 0 8
5.9912 -2.5636 -2.4953 0.3576 0 8
6.0316 -2.4670 -2.4953 0.3576 0 8
6.0704 -2.3697 -2.4953 0.3576 0 8
6.1077 -2.2719 -2.4953 0.3576 0 8
6.1434 -2.1735 -2.4953 0.3576 0 8
6.1776 -2.0745 -2.4953 0.3576 0 8
6.2101 -1.9749 -2.4953 0.3576 0 8
6.2410 -1.8749 -2.4953 0.3576 0 8
6.2704 -1.7744 -2.4953 0.3576 0 8
6.2981 -1.6734 -2.4953 0.3576 0 8
6.3241 -1.5720 -2.4953 0.3576 0 8
6.3486 -1.4701 -2.4953 0.3576 0 8
6.3714 -1.3679 -2.4953 0.3576 0 8
6.3926 -1.2654 -2.4953 0.3576 0 8
6.4121 -1.1625 -2.4953 0.3576 0 8
6.4299 -1.0593 -2.4953 0.3576 0 8
6.4461 -0.9559 -2.4953 0.3576 0 8
6.4606 -0.8522 -2.4953 0.3576 0 8
6.4735 -0.7482 -2.4953 0.3576 0 8
6.4847 -0.6441 -2.4953 0.3576 0 8
6.4942 -0.5398 -2.4953 0.3576 0 8
6.5020 -0.4354 -2.4953 0.3576 0 8
6.5082 -0.3309 -2.4953 0.3576 0 8
6.5127 -0.2262 -2.4953 0.3576 0 8
6.5155 -0.1216 -2.4953 0.3576 0 8
6.5166 -0.0169 -2.4953 0.3576 0 8
6.5160 0.0879 -2.4953 0.3576 0 8
6.5137 0.1925 -2.4953 0.3576 0 8
6.5098 0.2972 -2.4953 0.3576 0 8
6.5042 0.4018 -2.4953 0.3576 0 8
6.4969 0.5062 -2.4953 0.3576 0 8
6.4879 0.6105 -2.4953 0.3576 0 8
6.4773 0.7147 -2.4953 0.3576 0 8
6.4650 0.8187 -2.4953 0.3576 0 8
6.4510 0.9225 -2.4953 0.3576 0 8
6.4353 1.0260 -2.4953 0.3576 0 8
6.4180 1.1293 -2.4953 0.3576 0 8
6.3990 1.2323 -2.4953 0.3576 0 8
6.3784 1.3350 -2.4953 0.3576 0 8
6.3561 1.4373 -2.4953 0.3576 0 8
6.3322 1.5392 -2.4953 0.3576 0 8
6.3066 1.6408 -2.4953 0.3576 0 8
6.2795 1.7419 -2.4953 0.3576 0 8
6.2507 1.8426 -2.4953 0.3576 0 8
6.2203 1.9428 -2.4953 0.3576 0 8
6.1882 2.0425 -2.4953 0.3576 0 8
6.1546 2.1416 -2.4953 0.3576 0 8
6.1194 2.2403 -2.4953 0.3576 0 8
6.0826 2.3383 -2.4953 0.3576 0 8
6.0443 2.4357 -2.4953 0.3576 0 8
6.0043 2.5326 -2.4953 0.3576 0 8
5.9629 2.6287 -2.4953 0.3576 0 8
5.9199 2.7242 -2.4953 0.3576 0 8
5.8753 2.8190 -2.4953 0.3576 0 8
5.8293 2.9130 -2.4953 0.3576 0 8
5.7817 3.0063 -2.4953 0.3576 0 8
5.7326 3.0988 -2.4953 0.3576 0 8
5.6821 3.1905 -2.4953 0.3576 0 8
5.6301 3.2814 -2.4953 0.3576 0 8
5.5767 3.3715 -2.4953 0.3576 0 8
5.5218 3.4606 -2.4953 0.3576 0 8
5.4654 3.5489 -2.4953 0.3576 0 8
4.9537 -3.9854 -2.4953 0.3653 0 8
5.0171 -3.9053 -2.4953 0.3653 0 8
5.0792 -3.8242 -2.4953 0.3653 0 8
5.1400 -3.7420 -2.4953 0.3653 0 8
5.1994 -3.6590 -2.4953 0.3653 0 8
5.2576 -3.5750 -2.4953 0.3653 0 8
5.3143 -3.4900 -2.4953 0.3653 0 8
5.3697 -3.4042 -2.4953 0.3653 0 8
5.4237 -3.3174 -2.4953 0.3653 0 8
5.4763 -3.2299 -2.4953 0.3653 0 8
5.5275 -3.1414 -2.4953 0.3653 0 8
5.5773 -3.0522 -2.4953 0.3653 0 8
5.6256 -2.9622 -2.4953 0.3653 0 8
5.6725 -2.8714 -2.4953 0.3653 0 8
5.7179 -2.7799 -2.4953 0.3653 0 8
5.7618 -2.6877 -2.4953 0.3653 0 8
5.8043 -2.5947 -2.4953 0.3653 0 8
5.8452 -2.5011 -2.4953 0.3653 0 8
5.8846 -2.4069 -2.4953 0.3653 0 8
5.9226 -2.3120 -2.4953 0.3653 0 8
5.9589 -2.2166 -2.4953 0.3653 0 8
5.9938 -2.1205 -2.4953 0.3653 0 8
6.0271 -2.0239 -2.4953 0.3653 0 8
6.0588 -1.9268 -2.4953 0.3653 0 8
6.0890 -1.8292 -2.4953 0.3653 0 8
6.1176 -1.7311 -2.4953 0.3653 0 8
6.1447 -1.6326 -2.4953 0.3653 0 8
6.1701 -1.5337 -2.4953 0.3653 0 8
6.1939 -1.4343 -2.4953 0.3653 0 8
6.2162 -1.3346 -2.4953 0.3653 0 8
6.2368 -1.2346 -2.4953 0.3653 0 8
6.2559 -1.1342 -2.4953 0.3653 0 8
6.2733 -1.0335 -2.4953 0.3653 0 8
6.2891 -0.9326 -2.4953 0.3653 0 8
6.3033 -0.8314 -2.4953 0.3653 0 8
6.3158 -0.7300 -2.4953 0.3653 0 8
6.3267 -0.6284 -2.4953 0.3653 0 8
6.3360 -0.5267 -2.4953 0.3653 0 8
6.3436 -0.4248 -2.4953 0.3653 0 8
6.3496 -0.3228 -2.4953 0.3653 0 8
6.3540 -0.2207 -2.4953 0.3653 0 8
6.3567 -0.1186 -2.4953 0.3653 0 8
6.3578 -0.0164 -2.4953 0.3653 0 8
6.3573 0.0857 -2.4953 0.3653 0 8
6.3551 0.1879 -2.4953 0.3653 0 8
6.3512 0.2900 -2.4953 0.3653 0 8
6.3458 0.3920 -2.4953 0.3653 0 8
6.3386 0.4939 -2.4953 0.3653 0 8
6.3299 0.5957 -2.4953 0.3653 0 8
6.3195 0.6973 -2.4953 0.3653 0 8
6.3075 0.7988 -2.4953 0.3653 0 8
6.2938 0.9000 -2.4953 0.3653 0 8
6.2785 1.0010 -2.4953 0.3653 0 8
6.2617 1.1018 -2.4953 0.3653 0 8
6.2431 1.2023 -2.4953 0.3653 0 8
6.2230 1.3024 -2.4953 0.3653 0 8
6.2013 1.4023 -2.4953 0.3653 0 8
6.1779 1.5017 -2.4953 0.3653 0 8
6.1530 1.6008 -2.4953 0.3653 0 8
6.1265 1.6995 -2.4953 0.3653 0 8
6.0984 1.7977 -2.4953 0.3653 0 8
6.0687 1.8955 -2.4953 0.3653 0 8
6.0375 1.9927 -2.4953 0.3653 0 8
6.0047 2.0895 -2.4953 0.3653 0 8
5.9703 2.1857 -2.4953 0.3653 0 8
5.9344 2.2813 -2.4953 0.3653 0 8
5.8970 2.3764 -2.4953 0.3653 0 8
5.8581 2.4709 -2.4953 0.3653 0 8
5.8176 2.5647 -2.4953 0.3653 0 8
5.7757 2.6578 -2.4953 0.3653 0 8
5.7322 2.7503 -2.4953 0.3653 0 8
5.6873 2.8420 -2.4953 0.3653 0 8
5.6409 2.9331 -2.4953 0.3653 0 8
5.5930 3.0233 -2.4953 0.3653 0 8
5.5437 3.1128 -2.4953 0.3653 0 8
5.4930 3.2015 -2.4953 0.3653 0 8
5.4408 3.2893 -2.4953 0.3653 0 8
5.3873 3.3763 -2.4953 0.3653 0 8
5.3323 3.4625 -2.4953 0.3653 0 8
4.8351 -3.8900 -2.4953 0.3731 0 8
4.8970 -3.8118 -2.4953 0.3731 0 8
4.9576 -3.7326 -2.4953 0.3731 0 8
5.0170 -3.6525 -2.4953 0.3731 0 8
5.0750 -3.5714 -2.4953 0.3731 0 8
5.1317 -3.4894 -2.4953 0.3731 0 8
5.1871 -3.4065 -2.4953 0.3731 0 8
5.2412 -3.3227 -2.4953 0.3731 0 8
5.2939 -3.2381 -2.4953 0.3731 0 8
5.3453 -3.1526 -2.4953 0.3731 0 8
5.3952 -3.0663 -2.4953 0.3731 0 8
5.4438 -2.9792 -2.4953 0.3731 0 8
5.4910 -2.8913 -2.4953 0.3731 0 8
5.5367 -2.8027 -2.4953 0.3731 0 8
5.5811 -2.7134 -2.4953 0.3731 0 8
5.6239 -2.6234 -2.4953 0.3731 0 8
5.6654 -2.5326 -2.4953 0.3731 0 8
5.7053 -2.4413 -2.4953 0.3731 0 8
5.7438 -2.3493 -2.4953 0.3731 0 8
5.7808 -2.2567 -2.4953 0.3731 0 8
5.8163 -2.1635 -2.4953 0.3731 0 8
5.8504 -2.0698 -2.4953 0.3731 0 8
5.8829 -1.9755 -2.4953 0.3731 0 8
5.9138 -1.8807 -2.4953 0.3731 0 8
5.9433 -1.7854 -2.4953 0.3731 0 8
5.9712 -1.6897 -2.4953 0.3731 0 8
5.9976 -1.5935 -2.4953 0.3731 0 8
6.0224 -1.4970 -2.4953 0.3731 0 8
6.0457 -1.4000 -2.4953 0.3731 0 8
6.0674 -1.3027 -2.4953 0.3731 0 8
6.0876 -1.2050 -2.4953 0.3731 0 8
6.1062 -1.1070 -2.4953 0.3731 0 8
6.1232 -1.0088 -2.4953 0.3731 0 8
6.1386 -0.9103 -2.4953 0.3731 0 8
6.1524 -0.8115 -2.4953 0.3731 0 8
6.1647 -0.7125 -2.4953 0.3731 0 8
6.1753 -0.6134 -2.4953 0.3731 0 8
6.1844 -0.5141 -2.4953 0.3731 0 8
6.1918 -0.4146 -2.4953 0.3731 0 8
6.1977 -0.3151 -2.4953 0.3731 0 8
6.2020 -0.2155 -2.4953 0.3731 0 8
6.2046 -0.1158 -2.4953 0.3731 0 8
6.2057 -0.0161 -2.4953 0.3731 0 8
6.2051 0.0837 -2.4953 0.3731 0 8
6.2030 0.1834 -2.4953 0.3731 0 8
6.1992 0.2830 -2.4953 0.3731 0 8
6.1939 0.3826 -2.4953 0.3731 0 8
6.1869 0.4821 -2.4953 0.3731 0 8
6.1784 0.5814 -2.4953 0.3731 0 8
6.1683 0.6806 -2.4953 0.3731 0 8
6.1565 0.7797 -2.4953 0.3731 0 8
6.1432 0.8785 -2.4953 0.3731 0 8
6.1283 0.9771 -2.4953 0.3731 0 8
6.1118 1.0754 -2.4953 0.3731 0 8
6.0937 1.1735 -2.4953 0.3731 0 8
6.0741 1.2713 -2.4953 0.3731 0 8
6.0529 1.3687 -2.4953 0.3731 0 8
6.0301 1.4658 -2.4953 0.3731 0 8
6.0058 1.5625 -2.4953 0.3731 0 8
5.9799 1.6588 -2.4953 0.3731 0 8
5.9525 1.7547 -2.4953 0.3731 0 8
5.9235 1.8501 -2.4953 0.3731 0 8
5.8930 1.9450 -2.4953 0.3731 0 8
5.8610 2.0395 -2.4953 0.3731 0 8
5.8275 2.1334 -2.4953 0.3731 0 8
5.7924 2.2268 -2.4953 0.3731 0 8
5.7559 2.3195 -2.4953 0.3731 0 8
5.7179 2.4117 -2.4953 0.3731 0 8
5.6784 2.5033 -2.4953 0.3731 0 8
5.6374 2.5942 -2.4953 0.3731 0 8
5.5950 2.6845 -2.4953 0.3731 0 8
5.5512 2.7740 -2.4953 0.3731 0 8
5.5059 2.8629 -2.4953 0.3731 0 8
5.4592 2.9510 -2.4953 0.3731 0 8
5.4110 3.0383 -2.4953 0.3731 0 8
5.3615 3.1249 -2.4953 0.3731 0 8
5.3106 3.2106 -2.4953 0.3731 0 8
5.2583 3.2955 -2.4953 0.3731 0 8
5.2047 3.3796 -2.4953 0.3731 0 8
4.7214 -3.7985 -2.4953 0.3808 0 8
4.7818 -3.7221 -2.4953 0.3808 0 8
4.8410 -3.6448 -2.4953 0.3808 0 8
4.8989 -3.5666 -2.4953 0.3808 0 8
4.9556 -3.4874 -2.4953 0.3808 0 8
5.0110 -3.4073 -2.4953 0.3808 0 8
5.0651 -3.3264 -2.4953 0.3808 0 8
5.1179 -3.2445 -2.4953 0.3808 0 8
5.1694 -3.1619 -2.4953 0.3808 0 8
5.2195 -3.0784 -2.4953 0.3808 0 8
5.2683 -2.9941 -2.4953 0.3808 0 8
5.3157 -2.9091 -2.4953 0.3808 0 8
5.3618 -2.8233 -2.4953 0.3808 0 8
5.4065 -2.7368 -2.4953 0.3808 0 8
5.4498 -2.6495 -2.4953 0.3808 0 8
5.4916 -2.5616 -2.4953 0.3808 0 8
5.5321 -2.4731 -2.4953 0.3808 0 8
5.5711 -2.3838 -2.4953 0.3808 0 8
5.6087 -2.2940 -2.4953 0.3808 0 8
5.6448 -2.2036 -2.4953 0.3808 0 8
5.6795 -2.1126 -2.4953 0.3808 0 8
5.7127 -2.0211 -2.4953 0.3808 0 8
5.7445 -1.9290 -2.4953 0.3808 0 8
