ply
format ascii 1.0
element vertex 1396
property float32 x
property float32 y
property float32 z
property float32 CosAngle
property uint32 ObjIdx
property uint32 ObjTag
end_header
17.0784 -7.5031 -2.4953 0.1326 0 8
17.1962 -7.2291 -2.4953 0.1326 0 8
17.3095 -6.9532 -2.4953 0.1326 0 8
17.4185 -6.6756 -2.4953 0.1326 0 8
17.5230 -6.3962 -2.4953 0.1326 0 8
17.6230 -6.1152 -2.4953 0.1326 0 8
17.7186 -5.8327 -2.4953 0.1326 0 8
17.8095 -5.5486 -2.4953 0.1326 0 8
17.8960 -5.2632 -2.4953 0.1326 0 8
17.9779 -4.9763 -2.4953 0.1326 0 8
18.0551 -4.6883 -2.4953 0.1326 0 8
18.1278 -4.3990 -2.4953 0.1326 0 8
18.1958 -4.1086 -2.4953 0.1326 0 8
18.2592 -3.8171 -2.4953 0.1326 0 8
18.3178 -3.5247 -2.4953 0.1326 0 8
18.3719 -3.2313 -2.4953 0.1326 0 8
18.4212 -2.9372 -2.4953 0.1326 0 8
18.4658 -2.6423 -2.4953 0.1326 0 8
18.5057 -2.3467 -2.4953 0.1326 0 8
18.5409 -2.0505 -2.4953 0.1326 0 8
18.5712 -1.7538 -2.4953 0.1326 0 8
18.5969 -1.4566 -2.4953 0.1326 0 8
8.6236 -0.5369 -1.1558 0.4022 25 10
8.5846 -0.3968 -1.1496 0.4044 25 10
8.5503 -0.2583 -1.1443 0.4238 25 10
8.5327 -0.1212 -1.1415 0.4228 25 10
8.5188 0.0152 -1.1395 0.4236 25 10
8.5366 0.1517 -1.1421 0.4226 25 10
8.5556 0.2889 -1.1451 0.4185 25 10
8.5933 0.4279 -1.1509 0.4039 25 10
8.6459 0.5692 -1.1590 0.3037 25 10
18.5916 1.5229 -2.4953 0.1326 0 8
18.5649 1.8199 -2.4953 0.1326 0 8
18.5334 2.1165 -2.4953 0.1326 0 8
18.4972 2.4126 -2.4953 0.1326 0 8
18.4563 2.7080 -2.4953 0.1326 0 8
18.4106 3.0028 -2.4953 0.1326 0 8
18.3603 3.2968 -2.4953 0.1326 0 8
18.3052 3.5899 -2.4953 0.1326 0 8
18.2454 3.8821 -2.4953 0.1326 0 8
18.1810 4.1734 -2.4953 0.1326 0 8
18.1120 4.4635 -2.4953 0.1326 0 8
18.0383 4.7525 -2.4953 0.1326 0 8
17.9600 5.0403 -2.4953 0.1326 0 8
17.8771 5.3269 -2.4953 0.1326 0 8
17.7897 5.6120 -2.4953 0.1326 0 8
17.6977 5.8957 -2.4953 0.1326 0 8
17.6011 6.1779 -2.4953 0.1326 0 8
17.5001 6.4586 -2.4953 0.1326 0 8
17.3946 6.7376 -2.4953 0.1326 0 8
17.2847 7.0148 -2.4953 0.1326 0 8
17.1703 7.2903 -2.4953 0.1326 0 8
17.0516 7.5639 -2.4953 0.1326 0 8
16.9284 7.8355 -2.4953 0.1326 0 8
16.8010 8.1052 -2.4953 0.1326 0 8
16.6692 8.3728 -2.4953 0.1326 0 8
17.5430 9.1659 -2.6477 0.1326 0 7
17.3942 9.4452 -2.6477 0.1326 0 7
17.2410 9.7221 -2.6477 0.1326 0 7
17.0833 9.9965 -2.6477 0.1326 0 7
16.9213 10.2684 -2.6477 0.1326 0 7
16.7550 10.5376 -2.6477 0.1326 0 7
16.5843 10.8042 -2.6477 0.1326 0 7
16.4095 11.0679 -2.6477 0.1326 0 7
16.2304 11.3289 -2.6477 0.1326 0 7
16.0472 11.5870 -2.6477 0.1326 0 7
15.8599 11.8421 -2.6477 0.1326 0 7
15.6685 12.0941 -2.6477 0.1326 0 7
15.4731 12.3431 -2.6477 0.1326 0 7
15.2738 12.5889 -2.6477 0.1326 0 7
15.0706 12.8315 -2.6477 0.1326 0 7
14.8635 13.0708 -2.6477 0.1326 0 7
14.6526 13.3068 -2.6477 0.1326 0 7
14.4380 13.5394 -2.6477 0.1326 0 7
14.2196 13.7685 -2.6477 0.1326 0 7
13.9977 13.9941 -2.6477 0.1326 0 7
13.7721 14.2161 -2.6477 0.1326 0 7
13.5431 14.4345 -2.6477 0.1326 0 7
13.3105 14.6492 -2.6477 0.1326 0 7
16.0614 -7.0563 -2.4953 0.1408 0 8
16.1722 -6.7986 -2.4953 0.1408 0 8
16.2788 -6.5392 -2.4953 0.1408 0 8
16.3813 -6.2781 -2.4953 0.1408 0 8
16.4796 -6.0153 -2.4953 0.1408 0 8
16.5737 -5.7511 -2.4953 0.1408 0 8
16.6635 -5.4854 -2.4953 0.1408 0 8
16.7491 -5.2182 -2.4953 0.1408 0 8
16.8304 -4.9498 -2.4953 0.1408 0 8
16.9074 -4.6800 -2.4953 0.1408 0 8
16.9800 -4.4091 -2.4953 0.1408 0 8
17.0483 -4.1370 -2.4953 0.1408 0 8
17.1123 -3.8639 -2.4953 0.1408 0 8
17.1719 -3.5898 -2.4953 0.1408 0 8
17.2271 -3.3148 -2.4953 0.1408 0 8
17.2779 -3.0389 -2.4953 0.1408 0 8
17.3243 -2.7623 -2.4953 0.1408 0 8
17.3662 -2.4849 -2.4953 0.1408 0 8
17.4038 -2.2070 -2.4953 0.1408 0 8
17.4368 -1.9284 -2.4953 0.1408 0 8
17.4654 -1.6494 -2.4953 0.1408 0 8
8.8364 -0.6921 -1.2607 0.0994 25 10
8.4559 -0.5264 -1.2051 0.4097 25 10
8.4223 -0.3893 -1.1992 0.4245 25 10
8.3921 -0.2535 -1.1942 0.4313 25 10
8.3748 -0.1190 -1.1913 0.4323 25 10
8.3610 0.0149 -1.1892 0.4311 25 10
8.3787 0.1489 -1.1920 0.4321 25 10
8.3961 0.2836 -1.1949 0.4260 25 10
8.4298 0.4197 -1.2005 0.4240 25 10
8.4686 0.5575 -1.2071 0.3879 25 10
17.4846 1.4322 -2.4953 0.1408 0 8
17.4594 1.7116 -2.4953 0.1408 0 8
17.4298 1.9905 -2.4953 0.1408 0 8
17.3958 2.2689 -2.4953 0.1408 0 8
17.3573 2.5468 -2.4953 0.1408 0 8
17.3143 2.8240 -2.4953 0.1408 0 8
17.2670 3.1005 -2.4953 0.1408 0 8
17.2152 3.3761 -2.4953 0.1408 0 8
17.1590 3.6510 -2.4953 0.1408 0 8
17.0984 3.9248 -2.4953 0.1408 0 8
17.0335 4.1977 -2.4953 0.1408 0 8
16.9642 4.4695 -2.4953 0.1408 0 8
16.8906 4.7402 -2.4953 0.1408 0 8
16.8126 5.0097 -2.4953 0.1408 0 8
16.7304 5.2778 -2.4953 0.1408 0 8
16.6439 5.5447 -2.4953 0.1408 0 8
16.5531 5.8101 -2.4953 0.1408 0 8
16.4581 6.0740 -2.4953 0.1408 0 8
16.3588 6.3364 -2.4953 0.1408 0 8
16.2554 6.5971 -2.4953 0.1408 0 8
16.1479 6.8562 -2.4953 0.1408 0 8
16.0362 7.1135 -2.4953 0.1408 0 8
15.9204 7.3690 -2.4953 0.1408 0 8
15.8006 7.6226 -2.4953 0.1408 0 8
15.6767 7.8742 -2.4953 0.1408 0 8
15.5487 8.1239 -2.4953 0.1408 0 8
15.4169 8.3715 -2.4953 0.1408 0 8
16.2143 9.1432 -2.6477 0.1408 0 7
16.0661 9.4013 -2.6477 0.1408 0 7
15.9137 9.6569 -2.6477 0.1408 0 7
15.7573 9.9101 -2.6477 0.1408 0 7
15.5968 10.1608 -2.6477 0.1408 0 7
15.4324 10.4089 -2.6477 0.1408 0 7
15.2640 10.6543 -2.6477 0.1408 0 7
15.0917 10.8970 -2.6477 0.1408 0 7
14.9155 11.1369 -2.6477 0.1408 0 7
14.7355 11.3740 -2.6477 0.1408 0 7
14.5518 11.6081 -2.6477 0.1408 0 7
14.3643 11.8393 -2.6477 0.1408 0 7
14.1732 12.0675 -2.6477 0.1408 0 7
13.9784 12.2925 -2.6477 0.1408 0 7
13.7801 12.5145 -2.6477 0.1408 0 7
13.5782 12.7332 -2.6477 0.1408 0 7
13.3729 12.9487 -2.6477 0.1408 0 7
13.1642 13.1608 -2.6477 0.1408 0 7
12.9521 13.3696 -2.6477 0.1408 0 7
12.7366 13.5750 -2.6477 0.1408 0 7
12.5180 13.7769 -2.6477 0.1408 0 7
15.1568 -6.6589 -2.4953 0.1490 0 8
15.2613 -6.4157 -2.4953 0.1490 0 8
15.3620 -6.1709 -2.4953 0.1490 0 8
15.4587 -5.9245 -2.4953 0.1490 0 8
15.5514 -5.6765 -2.4953 0.1490 0 8
15.6402 -5.4272 -2.4953 0.1490 0 8
15.7250 -5.1764 -2.4953 0.1490 0 8
15.8057 -4.9243 -2.4953 0.1490 0 8
15.8824 -4.6710 -2.4953 0.1490 0 8
15.9551 -4.4164 -2.4953 0.1490 0 8
16.0236 -4.1608 -2.4953 0.1490 0 8
16.0881 -3.9040 -2.4953 0.1490 0 8
16.1485 -3.6463 -2.4953 0.1490 0 8
16.2047 -3.3876 -2.4953 0.1490 0 8
16.2568 -3.1281 -2.4953 0.1490 0 8
16.3048 -2.8678 -2.4953 0.1490 0 8
16.3485 -2.6067 -2.4953 0.1490 0 8
16.3881 -2.3450 -2.4953 0.1490 0 8
16.4235 -2.0827 -2.4953 0.1490 0 8
16.4547 -1.8198 -2.4953 0.1490 0 8
16.4817 -1.5565 -2.4953 0.1490 0 8
8.4306 -0.6603 -1.2746 0.0869 25 10
8.3251 -0.5183 -1.2572 0.5116 25 10
8.2893 -0.3831 -1.2507 0.5142 25 10
8.2581 -0.2495 -1.2453 0.5204 25 10
8.2435 -0.1171 -1.2426 0.5141 25 10
8.2326 0.0147 -1.2409 0.5149 25 10
8.2466 0.1466 -1.2432 0.5139 25 10
8.2614 0.2790 -1.2459 0.5201 25 10
8.2973 0.4131 -1.2522 0.5137 25 10
8.3332 0.5486 -1.2587 0.4899 25 10
8.5875 0.7034 -1.2987 0.1664 25 10
16.4761 1.6152 -2.4953 0.1490 0 8
16.4481 1.8784 -2.4953 0.1490 0 8
16.4160 2.1411 -2.4953 0.1490 0 8
16.3797 2.4033 -2.4953 0.1490 0 8
16.3391 2.6649 -2.4953 0.1490 0 8
16.2944 2.9258 -2.4953 0.1490 0 8
16.2456 3.1860 -2.4953 0.1490 0 8
16.1926 3.4453 -2.4953 0.1490 0 8
16.1354 3.7038 -2.4953 0.1490 0 8
16.0741 3.9613 -2.4953 0.1490 0 8
16.0087 4.2178 -2.4953 0.1490 0 8
15.9392 4.4732 -2.4953 0.1490 0 8
15.8657 4.7275 -2.4953 0.1490 0 8
15.7881 4.9806 -2.4953 0.1490 0 8
15.7064 5.2324 -2.4953 0.1490 0 8
15.6207 5.4828 -2.4953 0.1490 0 8
15.5311 5.7319 -2.4953 0.1490 0 8
15.4375 5.9795 -2.4953 0.1490 0 8
15.3399 6.2255 -2.4953 0.1490 0 8
15.2384 6.4700 -2.4953 0.1490 0 8
15.1330 6.7128 -2.4953 0.1490 0 8
15.0237 6.9539 -2.4953 0.1490 0 8
14.9106 7.1933 -2.4953 0.1490 0 8
14.7937 7.4307 -2.4953 0.1490 0 8
14.6730 7.6663 -2.4953 0.1490 0 8
14.5485 7.9000 -2.4953 0.1490 0 8
14.4204 8.1316 -2.4953 0.1490 0 8
14.2885 8.3611 -2.4953 0.1490 0 8
15.0174 9.1130 -2.6477 0.1490 0 7
14.8698 9.3520 -2.6477 0.1490 0 7
14.7183 9.5885 -2.6477 0.1490 0 7
14.5631 9.8226 -2.6477 0.1490 0 7
14.4042 10.0542 -2.6477 0.1490 0 7
14.2416 10.2832 -2.6477 0.1490 0 7
14.0754 10.5096 -2.6477 0.1490 0 7
13.9056 10.7333 -2.6477 0.1490 0 7
13.7322 10.9543 -2.6477 0.1490 0 7
13.5553 11.1725 -2.6477 0.1490 0 7
13.3749 11.3878 -2.6477 0.1490 0 7
13.1911 11.6002 -2.6477 0.1490 0 7
13.0039 11.8096 -2.6477 0.1490 0 7
12.8135 12.0160 -2.6477 0.1490 0 7
12.6197 12.2193 -2.6477 0.1490 0 7
12.4227 12.4196 -2.6477 0.1490 0 7
12.2225 12.6166 -2.6477 0.1490 0 7
12.0193 12.8104 -2.6477 0.1490 0 7
11.8129 13.0009 -2.6477 0.1490 0 7
14.3467 -6.3030 -2.4953 0.1573 0 8
14.4457 -6.0728 -2.4953 0.1573 0 8
14.5409 -5.8411 -2.4953 0.1573 0 8
14.6324 -5.6078 -2.4953 0.1573 0 8
14.7202 -5.3731 -2.4953 0.1573 0 8
14.8043 -5.1371 -2.4953 0.1573 0 8
14.8845 -4.8997 -2.4953 0.1573 0 8
14.9609 -4.6611 -2.4953 0.1573 0 8
15.0336 -4.4213 -2.4953 0.1573 0 8
15.1023 -4.1804 -2.4953 0.1573 0 8
15.1672 -3.9384 -2.4953 0.1573 0 8
15.2283 -3.6954 -2.4953 0.1573 0 8
15.2854 -3.4514 -2.4953 0.1573 0 8
15.3386 -3.2066 -2.4953 0.1573 0 8
15.3879 -2.9609 -2.4953 0.1573 0 8
15.4333 -2.7145 -2.4953 0.1573 0 8
15.4747 -2.4674 -2.4953 0.1573 0 8
15.5122 -2.2196 -2.4953 0.1573 0 8
15.5457 -1.9713 -2.4953 0.1573 0 8
15.5753 -1.7225 -2.4953 0.1573 0 8
15.6008 -1.4733 -2.4953 0.1573 0 8
8.2828 -0.6488 -1.3230 0.3422 25 10
8.2024 -0.5107 -1.3087 0.5186 25 10
8.1659 -0.3774 -1.3017 0.5132 25 10
8.1372 -0.2458 -1.2963 0.5274 25 10
8.1222 -0.1154 -1.2935 0.5286 25 10
8.1103 0.0144 -1.2915 0.5219 25 10
8.1256 0.1444 -1.2941 0.5283 25 10
8.1404 0.2749 -1.2970 0.5271 25 10
8.1742 0.4070 -1.3032 0.5126 25 10
8.2101 0.5405 -1.3102 0.5180 25 10
8.3398 0.6831 -1.3324 0.3397 25 10
15.5955 1.5288 -2.4953 0.1573 0 8
15.5690 1.7780 -2.4953 0.1573 0 8
15.5386 2.0267 -2.4953 0.1573 0 8
15.5042 2.2749 -2.4953 0.1573 0 8
15.4659 2.5225 -2.4953 0.1573 0 8
15.4236 2.7695 -2.4953 0.1573 0 8
15.3773 3.0157 -2.4953 0.1573 0 8
15.3271 3.2612 -2.4953 0.1573 0 8
15.2730 3.5058 -2.4953 0.1573 0 8
15.2150 3.7496 -2.4953 0.1573 0 8
15.1531 3.9924 -2.4953 0.1573 0 8
15.0873 4.2341 -2.4953 0.1573 0 8
15.0177 4.4748 -2.4953 0.1573 0 8
14.9442 4.7144 -2.4953 0.1573 0 8
14.8670 4.9527 -2.4953 0.1573 0 8
14.7859 5.1898 -2.4953 0.1573 0 8
14.7010 5.4255 -2.4953 0.1573 0 8
14.6124 5.6599 -2.4953 0.1573 0 8
14.5200 5.8928 -2.4953 0.1573 0 8
14.4239 6.1242 -2.4953 0.1573 0 8
14.3242 6.3540 -2.4953 0.1573 0 8
14.2207 6.5823 -2.4953 0.1573 0 8
14.1137 6.8088 -2.4953 0.1573 0 8
14.0030 7.0336 -2.4953 0.1573 0 8
13.8888 7.2566 -2.4953 0.1573 0 8
13.7710 7.4777 -2.4953 0.1573 0 8
13.6496 7.6970 -2.4953 0.1573 0 8
13.5248 7.9142 -2.4953 0.1573 0 8
13.3966 8.1295 -2.4953 0.1573 0 8
13.2752 8.3491 -2.4972 0.4813 0 8
13.9317 9.0761 -2.6477 0.1573 0 7
13.7848 9.2976 -2.6477 0.1573 0 7
13.6344 9.5169 -2.6477 0.1573 0 7
13.4805 9.7336 -2.6477 0.1573 0 7
13.3231 9.9479 -2.6477 0.1573 0 7
13.1624 10.1597 -2.6477 0.1573 0 7
12.9982 10.3688 -2.6477 0.1573 0 7
12.8308 10.5753 -2.6477 0.1573 0 7
12.6601 10.7791 -2.6477 0.1573 0 7
12.4861 10.9802 -2.6477 0.1573 0 7
12.3089 11.1784 -2.6477 0.1573 0 7
12.1286 11.3738 -2.6477 0.1573 0 7
11.9452 11.5663 -2.6477 0.1573 0 7
11.7588 11.7558 -2.6477 0.1573 0 7
11.5693 11.9423 -2.6477 0.1573 0 7
11.3769 12.1257 -2.6477 0.1573 0 7
11.1815 12.3061 -2.6477 0.1573 0 7
13.6170 -5.9824 -2.4953 0.1655 0 8
13.7109 -5.7639 -2.4953 0.1655 0 8
13.8013 -5.5440 -2.4953 0.1655 0 8
13.8882 -5.3226 -2.4953 0.1655 0 8
13.9715 -5.0998 -2.4953 0.1655 0 8
14.0513 -4.8758 -2.4953 0.1655 0 8
14.1274 -4.6505 -2.4953 0.1655 0 8
14.2000 -4.4240 -2.4953 0.1655 0 8
14.2689 -4.1964 -2.4953 0.1655 0 8
14.3342 -3.9678 -2.4953 0.1655 0 8
14.3958 -3.7381 -2.4953 0.1655 0 8
14.4537 -3.5074 -2.4953 0.1655 0 8
14.5079 -3.2759 -2.4953 0.1655 0 8
14.5585 -3.0435 -2.4953 0.1655 0 8
14.6053 -2.8103 -2.4953 0.1655 0 8
14.6483 -2.5764 -2.4953 0.1655 0 8
14.6877 -2.3419 -2.4953 0.1655 0 8
14.7232 -2.1068 -2.4953 0.1655 0 8
14.7550 -1.8711 -2.4953 0.1655 0 8
14.7831 -1.6349 -2.4953 0.1655 0 8
8.6481 -0.8167 -1.4574 0.0217 25 10
8.1460 -0.6380 -1.3708 0.3475 25 10
8.0477 -0.5010 -1.3528 0.3504 25 10
8.0019 -0.3699 -1.3439 0.3527 25 10
7.9611 -0.2405 -1.3362 0.3447 25 10
7.9418 -0.1129 -1.3325 0.3457 25 10
7.9334 0.0141 -1.3310 0.3630 25 10
7.9462 0.1412 -1.3333 0.3454 25 10
7.9653 0.2690 -1.3371 0.3445 25 10
8.0121 0.3989 -1.3459 0.3522 25 10
8.0579 0.5305 -1.3548 0.3499 25 10
8.2010 0.6718 -1.3805 0.3450 25 10
14.8022 1.4511 -2.4953 0.1655 0 8
14.7771 1.6876 -2.4953 0.1655 0 8
14.7483 1.9236 -2.4953 0.1655 0 8
14.7156 2.1592 -2.4953 0.1655 0 8
14.6792 2.3942 -2.4953 0.1655 0 8
14.6391 2.6286 -2.4953 0.1655 0 8
14.5952 2.8623 -2.4953 0.1655 0 8
14.5475 3.0953 -2.4953 0.1655 0 8
14.4962 3.3275 -2.4953 0.1655 0 8
14.4411 3.5589 -2.4953 0.1655 0 8
14.3824 3.7893 -2.4953 0.1655 0 8
14.3199 4.0188 -2.4953 0.1655 0 8
14.2539 4.2472 -2.4953 0.1655 0 8
14.1841 4.4746 -2.4953 0.1655 0 8
14.1108 4.7008 -2.4953 0.1655 0 8
14.0338 4.9258 -2.4953 0.1655 0 8
13.9533 5.1496 -2.4953 0.1655 0 8
13.8691 5.3720 -2.4953 0.1655 0 8
13.7815 5.5931 -2.4953 0.1655 0 8
13.6903 5.8127 -2.4953 0.1655 0 8
13.5956 6.0309 -2.4953 0.1655 0 8
13.4974 6.2475 -2.4953 0.1655 0 8
13.3958 6.4625 -2.4953 0.1655 0 8
13.2908 6.6758 -2.4953 0.1655 0 8
13.1823 6.8875 -2.4953 0.1655 0 8
13.0705 7.0974 -2.4953 0.1655 0 8
12.9554 7.3055 -2.4953 0.1655 0 8
12.8369 7.5117 -2.4953 0.1655 0 8
12.7152 7.7160 -2.4953 0.1655 0 8
12.5902 7.9183 -2.4953 0.1655 0 8
12.4620 8.1186 -2.4953 0.1655 0 8
12.3306 8.3168 -2.4953 0.1655 0 8
12.9409 9.0328 -2.6477 0.1655 0 7
12.7948 9.2386 -2.6477 0.1655 0 7
12.6455 9.4419 -2.6477 0.1655 0 7
12.4929 9.6429 -2.6477 0.1655 0 7
12.3371 9.8414 -2.6477 0.1655 0 7
12.1782 10.0374 -2.6477 0.1655 0 7
12.0161 10.2309 -2.6477 0.1655 0 7
11.8510 10.4217 -2.6477 0.1655 0 7
11.6829 10.6099 -2.6477 0.1655 0 7
11.5117 10.7953 -2.6477 0.1655 0 7
11.3377 10.9780 -2.6477 0.1655 0 7
11.1607 11.1578 -2.6477 0.1655 0 7
10.9808 11.3349 -2.6477 0.1655 0 7
10.7982 11.5090 -2.6477 0.1655 0 6
10.6128 11.6802 -2.6477 0.1655 0 7
12.9562 -5.6921 -2.4953 0.1736 0 8
13.0455 -5.4842 -2.4953 0.1736 0 8
13.1315 -5.2749 -2.4953 0.1736 0 8
13.2142 -5.0643 -2.4953 0.1736 0 8
13.2935 -4.8523 -2.4953 0.1736 0 8
13.3694 -4.6392 -2.4953 0.1736 0 8
13.4418 -4.4248 -2.4953 0.1736 0 8
13.5109 -4.2093 -2.4953 0.1736 0 8
13.5764 -3.9928 -2.4953 0.1736 0 8
13.6385 -3.7752 -2.4953 0.1736 0 8
13.6972 -3.5567 -2.4953 0.1736 0 8
13.7523 -3.3372 -2.4953 0.1736 0 8
13.8039 -3.1169 -2.4953 0.1736 0 8
13.8519 -2.8958 -2.4953 0.1736 0 8
13.8965 -2.6739 -2.4953 0.1736 0 8
13.9374 -2.4514 -2.4953 0.1736 0 8
13.9749 -2.2282 -2.4953 0.1736 0 8
14.0087 -2.0045 -2.4953 0.1736 0 8
14.0390 -1.7803 -2.4953 0.1736 0 8
14.0656 -1.5556 -2.4953 0.1736 0 8
8.2577 -0.7798 -1.4625 0.3418 25 10
7.9973 -0.6264 -1.4145 0.3655 25 10
7.8640 -0.4896 -1.3893 0.3581 25 10
7.8122 -0.3611 -1.3790 0.3423 25 10
7.7744 -0.2348 -1.3715 0.3525 25 10
7.7646 -0.1103 -1.3692 0.3703 25 10
7.7569 0.0138 -1.3678 0.3707 25 10
7.7667 0.1380 -1.3697 0.3702 25 10
7.7784 0.2627 -1.3723 0.3522 25 10
7.8248 0.3896 -1.3814 0.3417 25 10
7.8737 0.5184 -1.3913 0.3576 25 10
8.0406 0.6586 -1.4225 0.3634 25 10
8.3979 0.8233 -1.4879 0.0867 25 10
14.0600 1.6057 -2.4953 0.1736 0 8
14.0325 1.8303 -2.4953 0.1736 0 8
14.0015 2.0544 -2.4953 0.1736 0 8
13.9668 2.2780 -2.4953 0.1736 0 8
13.9286 2.5010 -2.4953 0.1736 0 8
13.8868 2.7234 -2.4953 0.1736 0 8
13.8415 2.9451 -2.4953 0.1736 0 8
13.7927 3.1660 -2.4953 0.1736 0 8
13.7403 3.3862 -2.4953 0.1736 0 8
13.6844 3.6054 -2.4953 0.1736 0 8
13.6250 3.8238 -2.4953 0.1736 0 8
13.5621 4.0411 -2.4953 0.1736 0 8
13.4958 4.2574 -2.4953 0.1736 0 8
13.4260 4.4727 -2.4953 0.1736 0 8
13.3528 4.6868 -2.4953 0.1736 0 8
13.2761 4.8997 -2.4953 0.1736 0 8
13.1961 5.1113 -2.4953 0.1736 0 8
13.1127 5.3216 -2.4953 0.1736 0 8
13.0259 5.5306 -2.4953 0.1736 0 8
12.9358 5.7382 -2.4953 0.1736 0 8
12.8424 5.9443 -2.4953 0.1736 0 8
12.7457 6.1489 -2.4953 0.1736 0 8
12.6458 6.3519 -2.4953 0.1736 0 8
12.5426 6.5532 -2.4953 0.1736 0 8
12.4362 6.7529 -2.4953 0.1736 0 8
12.3267 6.9509 -2.4953 0.1736 0 8
12.2139 7.1471 -2.4953 0.1736 0 8
12.0981 7.3415 -2.4953 0.1736 0 8
11.9792 7.5340 -2.4953 0.1736 0 8
11.8572 7.7246 -2.4953 0.1736 0 8
11.7322 7.9132 -2.4953 0.1736 0 8
11.6041 8.0997 -2.4953 0.1736 0 8
11.4731 8.2842 -2.4953 0.1736 0 8
11.3392 8.4666 -2.4953 0.1736 0 8
11.8866 9.1750 -2.6477 0.1736 0 7
11.7384 9.3638 -2.6477 0.1736 0 7
11.5872 9.5503 -2.6477 0.1736 0 7
11.4330 9.7344 -2.6477 0.1736 0 7
11.2759 9.9159 -2.6477 0.1736 0 7
11.1159 10.0950 -2.6477 0.1736 0 7
10.9531 10.2714 -2.6477 0.1736 0 7
10.7874 10.4452 -2.6477 0.1736 0 7
10.6190 10.6164 -2.6477 0.1736 0 7
10.4479 10.7848 -2.6477 0.1736 0 7
10.2742 10.9505 -2.6477 0.1736 0 7
10.0978 11.1133 -2.6477 0.1736 0 7
12.3548 -5.4279 -2.4953 0.1818 0 8
12.4400 -5.2297 -2.4953 0.1818 0 8
12.5221 -5.0301 -2.4953 0.1818 0 8
12.6009 -4.8292 -2.4953 0.1818 0 8
12.6765 -4.6271 -2.4953 0.1818 0 8
12.7488 -4.4239 -2.4953 0.1818 0 8
12.8179 -4.2195 -2.4953 0.1818 0 8
12.8838 -4.0140 -2.4953 0.1818 0 8
12.9463 -3.8075 -2.4953 0.1818 0 8
13.0055 -3.6000 -2.4953 0.1818 0 8
13.0614 -3.3916 -2.4953 0.1818 0 8
13.1140 -3.1823 -2.4953 0.1818 0 8
13.1632 -2.9722 -2.4953 0.1818 0 8
13.2090 -2.7614 -2.4953 0.1818 0 8
13.2515 -2.5498 -2.4953 0.1818 0 8
13.2906 -2.3376 -2.4953 0.1818 0 8
13.3262 -2.1248 -2.4953 0.1818 0 8
13.3585 -1.9115 -2.4953 0.1818 0 8
13.3874 -1.6976 -2.4953 0.1818 0 8
13.4128 -1.4834 -2.4953 0.1818 0 8
8.0878 -0.7638 -1.5022 0.2677 25 10
7.8571 -0.6154 -1.4573 0.3714 25 10
7.7265 -0.4810 -1.4315 0.9135 25 10
7.6844 -0.3552 -1.4224 0.9193 25 10
7.6592 -0.2314 -1.4169 0.9861 25 10
7.6461 -0.1086 -1.4140 0.9881 25 10
7.6360 0.0136 -1.4120 0.9968 25 10
7.6490 0.1359 -1.4146 0.9877 25 10
7.6621 0.2588 -1.4176 0.9856 25 10
7.6937 0.3831 -1.4244 0.9181 25 10
7.7367 0.5093 -1.4337 0.8754 25 10
7.8989 0.6470 -1.4655 0.3694 25 10
8.1572 0.7997 -1.5156 0.2654 25 10
13.4074 1.5311 -2.4953 0.1818 0 8
13.3812 1.7453 -2.4953 0.1818 0 8
13.3516 1.9590 -2.4953 0.1818 0 8
13.3186 2.1723 -2.4953 0.1818 0 8
13.2822 2.3849 -2.4953 0.1818 0 8
13.2423 2.5970 -2.4953 0.1818 0 8
13.1991 2.8084 -2.4953 0.1818 0 8
13.1525 3.0191 -2.4953 0.1818 0 8
13.1026 3.2290 -2.4953 0.1818 0 8
13.0493 3.4381 -2.4953 0.1818 0 8
12.9926 3.6463 -2.4953 0.1818 0 8
12.9327 3.8536 -2.4953 0.1818 0 8
12.8694 4.0598 -2.4953 0.1818 0 8
12.8028 4.2651 -2.4953 0.1818 0 8
12.7330 4.4692 -2.4953 0.1818 0 8
12.6599 4.6723 -2.4953 0.1818 0 8
12.5836 4.8741 -2.4953 0.1818 0 8
12.5041 5.0746 -2.4953 0.1818 0 8
12.4213 5.2739 -2.4953 0.1818 0 8
12.3354 5.4719 -2.4953 0.1818 0 8
12.2463 5.6684 -2.4953 0.1818 0 8
12.1541 5.8635 -2.4953 0.1818 0 8
12.0588 6.0571 -2.4953 0.1818 0 8
11.9605 6.2491 -2.4953 0.1818 0 8
11.8590 6.4395 -2.4953 0.1818 0 8
11.7545 6.6283 -2.4953 0.1818 0 8
11.6471 6.8154 -2.4953 0.1818 0 8
11.5366 7.0008 -2.4953 0.1818 0 8
11.4232 7.1843 -2.4953 0.1818 0 8
11.3068 7.3661 -2.4953 0.1818 0 8
11.1876 7.5459 -2.4953 0.1818 0 8
11.0655 7.7238 -2.4953 0.1818 0 8
10.9406 7.8997 -2.4953 0.1818 0 8
10.8129 8.0737 -2.4953 0.1818 0 8
10.6825 8.2455 -2.4953 0.1818 0 8
10.5493 8.4153 -2.4953 0.1818 0 8
11.0494 9.1071 -2.6477 0.1818 0 7
10.9023 9.2826 -2.6477 0.1818 0 7
10.7525 9.4557 -2.6477 0.1818 0 7
10.6000 9.6264 -2.6477 0.1818 0 7
10.4447 9.7947 -2.6477 0.1818 0 7
10.2868 9.9604 -2.6477 0.1818 0 7
10.1262 10.1236 -2.6477 0.1818 0 7
9.9630 10.2842 -2.6477 0.1818 0 7
9.7973 10.4422 -2.6477 0.1818 0 7
9.6291 10.5975 -2.6477 0.1818 0 7
11.8052 -5.1864 -2.4953 0.1900 0 8
11.8866 -4.9970 -2.4953 0.1900 0 8
11.9650 -4.8063 -2.4953 0.1900 0 8
12.0403 -4.6144 -2.4953 0.1900 0 8
12.1126 -4.4213 -2.4953 0.1900 0 8
12.1817 -4.2271 -2.4953 0.1900 0 8
12.2477 -4.0318 -2.4953 0.1900 0 8
12.3106 -3.8354 -2.4953 0.1900 0 8
12.3704 -3.6381 -2.4953 0.1900 0 8
12.4270 -3.4398 -2.4953 0.1900 0 8
12.4804 -3.2407 -2.4953 0.1900 0 8
12.5306 -3.0407 -2.4953 0.1900 0 8
12.5776 -2.8400 -2.4953 0.1900 0 8
12.6214 -2.6385 -2.4953 0.1900 0 8
12.6620 -2.4364 -2.4953 0.1900 0 8
12.6993 -2.2336 -2.4953 0.1900 0 8
12.7334 -2.0303 -2.4953 0.1900 0 8
12.7642 -1.8264 -2.4953 0.1900 0 8
12.7918 -1.6221 -2.4953 0.1900 0 8
12.8161 -1.4174 -2.4953 0.1900 0 8
7.9070 -0.7467 -1.5369 0.2734 25 10
7.7809 -0.6094 -1.5104 0.7070 25 10
7.7038 -0.4796 -1.4937 0.9148 25 10
7.6620 -0.3541 -1.4843 0.9206 25 10
7.6414 -0.2308 -1.4794 0.9868 25 10
7.6283 -0.1084 -1.4764 0.9889 25 10
7.6209 0.0136 -1.4748 0.9972 25 10
7.6312 0.1356 -1.4770 0.9884 25 10
7.6443 0.2582 -1.4801 0.9863 25 10
7.6712 0.3820 -1.4864 0.9193 25 10
7.7144 0.5079 -1.4961 0.8766 25 10
7.8042 0.6393 -1.5153 0.7047 25 10
7.9921 0.7835 -1.5540 0.1878 25 10
12.8110 1.4630 -2.4953 0.1900 0 8
12.7860 1.6677 -2.4953 0.1900 0 8
12.7577 1.8719 -2.4953 0.1900 0 8
12.7261 2.0756 -2.4953 0.1900 0 8
12.6913 2.2788 -2.4953 0.1900 0 8
12.6532 2.4815 -2.4953 0.1900 0 8
12.6119 2.6835 -2.4953 0.1900 0 8
12.5674 2.8848 -2.4953 0.1900 0 8
12.5197 3.0853 -2.4953 0.1900 0 8
12.4688 3.2851 -2.4953 0.1900 0 8
12.4146 3.4841 -2.4953 0.1900 0 8
12.3573 3.6821 -2.4953 0.1900 0 8
12.2969 3.8792 -2.4953 0.1900 0 8
12.2333 4.0754 -2.4953 0.1900 0 8
12.1666 4.2704 -2.4953 0.1900 0 8
12.0967 4.4644 -2.4953 0.1900 0 8
12.0238 4.6572 -2.4953 0.1900 0 8
11.9478 4.8489 -2.4953 0.1900 0 8
11.8688 5.0393 -2.4953 0.1900 0 8
11.7867 5.2284 -2.4953 0.1900 0 8
11.7016 5.4162 -2.4953 0.1900 0 8
11.6135 5.6026 -2.4953 0.1900 0 8
11.5224 5.7876 -2.4953 0.1900 0 8
11.4284 5.9711 -2.4953 0.1900 0 8
11.3315 6.1531 -2.4953 0.1900 0 8
11.2316 6.3335 -2.4953 0.1900 0 8
11.1289 6.5122 -2.4953 0.1900 0 8
11.0234 6.6893 -2.4953 0.1900 0 8
10.9150 6.8647 -2.4953 0.1900 0 8
10.8039 7.0384 -2.4953 0.1900 0 8
10.6899 7.2102 -2.4953 0.1900 0 8
10.5733 7.3802 -2.4953 0.1900 0 8
10.4539 7.5483 -2.4953 0.1900 0 8
10.3319 7.7145 -2.4953 0.1900 0 8
10.2072 7.8787 -2.4953 0.1900 0 8
10.0800 8.0409 -2.4953 0.1900 0 8
9.9501 8.2010 -2.4953 0.1900 0 8
9.8177 8.3591 -2.4953 0.1900 0 8
10.2742 9.0351 -2.6477 0.1900 0 7
10.1284 9.1982 -2.6477 0.1900 0 7
9.9801 9.3589 -2.6477 0.1900 0 7
9.8291 9.5173 -2.6477 0.1900 0 7
9.6757 9.6733 -2.6477 0.1900 0 7
9.5198 9.8267 -2.6477 0.1900 0 7
9.3615 9.9777 -2.6477 0.1900 0 7
9.2007 10.1261 -2.6477 0.1900 0 7
11.3009 -4.9648 -2.4953 0.1981 0 8
11.3788 -4.7835 -2.4953 0.1981 0 8
11.4538 -4.6010 -2.4953 0.1981 0 8
11.5259 -4.4173 -2.4953 0.1981 0 8
11.5951 -4.2324 -2.4953 0.1981 0 8
11.6613 -4.0465 -2.4953 0.1981 0 8
11.7245 -3.8595 -2.4953 0.1981 0 8
11.7847 -3.6716 -2.4953 0.1981 0 8
11.8419 -3.4827 -2.4953 0.1981 0 8
11.8961 -3.2929 -2.4953 0.1981 0 8
11.9472 -3.1023 -2.4953 0.1981 0 8
11.9953 -2.9108 -2.4953 0.1981 0 8
12.0403 -2.7187 -2.4953 0.1981 0 8
12.0822 -2.5258 -2.4953 0.1981 0 8
12.1210 -2.3323 -2.4953 0.1981 0 8
12.1568 -2.1382 -2.4953 0.1981 0 8
12.1894 -1.9436 -2.4953 0.1981 0 8
12.2189 -1.7484 -2.4953 0.1981 0 8
12.2453 -1.5528 -2.4953 0.1981 0 8
12.2686 -1.3568 -2.4953 0.1981 0 8
7.8499 -0.7413 -1.5940 0.6987 25 10
7.7452 -0.6067 -1.5705 0.7091 25 10
7.6812 -0.4782 -1.5558 0.9160 25 10
7.6414 -0.3532 -1.5464 0.9668 25 10
7.6236 -0.2303 -1.5418 0.9875 25 10
7.6111 -0.1082 -1.5388 0.9967 25 10
7.6057 0.0135 -1.5375 0.9975 25 10
7.6135 0.1353 -1.5393 0.9891 25 10
7.6265 0.2576 -1.5426 0.9870 25 10
7.6488 0.3808 -1.5482 0.9205 25 10
7.6921 0.5064 -1.5584 0.8777 25 10
7.7683 0.6363 -1.5757 0.7068 25 10
7.9508 0.7794 -1.6150 0.1884 25 10
12.2637 1.4005 -2.4953 0.1981 0 8
12.2397 1.5964 -2.4953 0.1981 0 8
12.2126 1.7919 -2.4953 0.1981 0 8
12.1824 1.9870 -2.4953 0.1981 0 8
12.1491 2.1815 -2.4953 0.1981 0 8
12.1127 2.3755 -2.4953 0.1981 0 8
12.0731 2.5688 -2.4953 0.1981 0 8
12.0305 2.7615 -2.4953 0.1981 0 8
11.9848 2.9535 -2.4953 0.1981 0 8
11.9361 3.1448 -2.4953 0.1981 0 8
11.8843 3.3352 -2.4953 0.1981 0 8
11.8294 3.5248 -2.4953 0.1981 0 8
11.7715 3.7135 -2.4953 0.1981 0 8
11.7107 3.9012 -2.4953 0.1981 0 8
11.6468 4.0880 -2.4953 0.1981 0 8
11.5799 4.2737 -2.4953 0.1981 0 8
11.5101 4.4583 -2.4953 0.1981 0 8
11.4374 4.6417 -2.4953 0.1981 0 8
11.3617 4.8240 -2.4953 0.1981 0 8
11.2831 5.0051 -2.4953 0.1981 0 8
11.2016 5.1848 -2.4953 0.1981 0 8
11.1173 5.3633 -2.4953 0.1981 0 8
11.0301 5.5403 -2.4953 0.1981 0 8
10.9401 5.7160 -2.4953 0.1981 0 8
10.8473 5.8902 -2.4953 0.1981 0 8
10.7518 6.0629 -2.4953 0.1981 0 8
10.6535 6.2340 -2.4953 0.1981 0 8
10.5524 6.4035 -2.4953 0.1981 0 8
10.4487 6.5715 -2.4953 0.1981 0 8
10.3423 6.7377 -2.4953 0.1981 0 8
10.2332 6.9022 -2.4953 0.1981 0 8
10.1216 7.0649 -2.4953 0.1981 0 8
10.0073 7.2258 -2.4953 0.1981 0 8
9.8905 7.3849 -2.4953 0.1981 0 8
9.7712 7.5421 -2.4953 0.1981 0 8
9.6493 7.6974 -2.4953 0.1981 0 8
9.5250 7.8507 -2.4953 0.1981 0 8
9.3983 8.0020 -2.4953 0.1981 0 8
9.2691 8.1512 -2.4953 0.1981 0 8
9.1376 8.2984 -2.4953 0.1981 0 8
9.0038 8.4434 -2.4953 0.1981 0 8
9.4092 9.1107 -2.6477 0.1981 0 7
9.2623 9.2600 -2.6477 0.1981 0 7
9.1131 9.4069 -2.6477 0.1981 0 7
8.9615 9.5514 -2.6477 0.1981 0 7
8.8077 9.6935 -2.6477 0.1981 0 7
10.8364 -4.7608 -2.4953 0.2063 0 8
10.9111 -4.5869 -2.4953 0.2063 0 8
10.9830 -4.4119 -2.4953 0.2063 0 8
11.0522 -4.2357 -2.4953 0.2063 0 8
11.1185 -4.0584 -2.4953 0.2063 0 8
11.1820 -3.8802 -2.4953 0.2063 0 8
11.2426 -3.7009 -2.4953 0.2063 0 8
11.3003 -3.5206 -2.4953 0.2063 0 8
11.3552 -3.3395 -2.4953 0.2063 0 8
11.4071 -3.1575 -2.4953 0.2063 0 8
11.4561 -2.9747 -2.4953 0.2063 0 8
11.5022 -2.7912 -2.4953 0.2063 0 8
11.5454 -2.6069 -2.4953 0.2063 0 8
11.5856 -2.4220 -2.4953 0.2063 0 8
11.6228 -2.2364 -2.4953 0.2063 0 8
11.6571 -2.0503 -2.4953 0.2063 0 8
11.6884 -1.8637 -2.4953 0.2063 0 8
11.7167 -1.6765 -2.4953 0.2063 0 8
11.7420 -1.4890 -2.4953 0.2063 0 8
11.7643 -1.3011 -2.4953 0.2063 0 8
7.8277 -0.7392 -1.6576 0.3056 25 10
7.7128 -0.6041 -1.6310 0.8730 25 10
7.6586 -0.4768 -1.6177 0.9171 25 10
7.6233 -0.3524 -1.6089 0.9675 25 10
7.6058 -0.2298 -1.6042 0.9881 25 10
7.5960 -0.1079 -1.6015 0.9970 25 10
7.5906 0.0135 -1.6003 0.9978 25 10
7.5975 0.1350 -1.6020 0.9967 25 10
7.6087 0.2570 -1.6050 0.9876 25 10
7.6287 0.3798 -1.6103 0.9666 25 10
7.6698 0.5049 -1.6204 0.8787 25 10
7.7326 0.6334 -1.6357 0.7088 25 10
7.9110 0.7755 -1.6758 0.3022 25 10
11.7596 1.3430 -2.4953 0.2063 0 8
11.7366 1.5308 -2.4953 0.2063 0 8
11.7107 1.7183 -2.4953 0.2063 0 8
11.6817 1.9053 -2.4953 0.2063 0 8
11.6497 2.0918 -2.4953 0.2063 0 8
11.6148 2.2778 -2.4953 0.2063 0 8
11.5769 2.4632 -2.4953 0.2063 0 8
11.5360 2.6480 -2.4953 0.2063 0 8
11.4922 2.8321 -2.4953 0.2063 0 8
11.4455 3.0155 -2.4953 0.2063 0 8
11.3958 3.1981 -2.4953 0.2063 0 8
11.3432 3.3799 -2.4953 0.2063 0 8
11.2877 3.5609 -2.4953 0.2063 0 8
11.2293 3.7409 -2.4953 0.2063 0 8
11.1681 3.9200 -2.4953 0.2063 0 8
11.1040 4.0980 -2.4953 0.2063 0 8
11.0370 4.2750 -2.4953 0.2063 0 8
10.9673 4.4510 -2.4953 0.2063 0 8
10.8947 4.6257 -2.4953 0.2063 0 8
10.8193 4.7993 -2.4953 0.2063 0 8
10.7412 4.9717 -2.4953 0.2063 0 8
10.6604 5.1428 -2.4953 0.2063 0 8
10.5768 5.3126 -2.4953 0.2063 0 8
10.4905 5.4811 -2.4953 0.2063 0 8
10.4015 5.6481 -2.4953 0.2063 0 8
10.3099 5.8137 -2.4953 0.2063 0 8
10.2156 5.9778 -2.4953 0.2063 0 8
10.1187 6.1403 -2.4953 0.2063 0 8
10.0192 6.3013 -2.4953 0.2063 0 8
9.9172 6.4607 -2.4953 0.2063 0 8
9.8126 6.6185 -2.4953 0.2063 0 8
9.7056 6.7745 -2.4953 0.2063 0 8
9.5960 6.9288 -2.4953 0.2063 0 8
9.4840 7.0814 -2.4953 0.2063 0 8
9.3695 7.2321 -2.4953 0.2063 0 8
9.2527 7.3810 -2.4953 0.2063 0 8
9.1335 7.5280 -2.4953 0.2063 0 8
9.0120 7.6731 -2.4953 0.2063 0 8
8.8881 7.8162 -2.4953 0.2063 0 8
8.7620 7.9573 -2.4953 0.2063 0 8
8.6337 8.0964 -2.4953 0.2063 0 8
8.5031 8.2334 -2.4953 0.2063 0 8
8.3704 8.3683 -2.4953 0.2063 0 8
8.7385 9.0203 -2.6477 0.2063 0 7
8.5932 9.1588 -2.6477 0.2063 0 7
8.4457 9.2950 -2.6477 0.2063 0 7
10.4071 -4.5722 -2.4953 0.2144 0 8
10.4789 -4.4052 -2.4953 0.2144 0 8
10.5480 -4.2371 -2.4953 0.2144 0 8
10.6144 -4.0679 -2.4953 0.2144 0 8
10.6780 -3.8977 -2.4953 0.2144 0 8
10.7390 -3.7264 -2.4953 0.2144 0 8
10.7972 -3.5543 -2.4953 0.2144 0 8
10.8527 -3.3812 -2.4953 0.2144 0 8
10.9053 -3.2072 -2.4953 0.2144 0 8
10.9552 -3.0324 -2.4953 0.2144 0 8
11.0023 -2.8569 -2.4953 0.2144 0 8
11.0466 -2.6806 -2.4953 0.2144 0 8
11.0880 -2.5037 -2.4953 0.2144 0 8
11.1266 -2.3260 -2.4953 0.2144 0 8
11.1624 -2.1478 -2.4953 0.2144 0 8
11.1953 -1.9691 -2.4953 0.2144 0 8
11.2254 -1.7898 -2.4953 0.2144 0 8
11.2526 -1.6101 -2.4953 0.2144 0 8
11.2769 -1.4300 -2.4953 0.2144 0 8
11.2983 -1.2495 -2.4953 0.2144 0 8
7.8098 -0.7375 -1.7220 0.3057 25 10
7.6903 -0.6024 -1.6933 0.8740 25 10
7.6361 -0.4754 -1.6795 0.9182 25 10
7.6053 -0.3515 -1.6713 0.9680 25 10
7.5881 -0.2292 -1.6665 0.9887 25 10
7.5809 -0.1077 -1.6643 0.9972 25 10
7.5755 0.0135 -1.6630 0.9980 25 10
7.5824 0.1348 -1.6647 0.9969 25 10
7.5909 0.2564 -1.6673 0.9882 25 10
7.6106 0.3789 -1.6727 0.9672 25 10
7.6476 0.5035 -1.6824 0.8797 25 10
7.7026 0.6309 -1.6965 0.8724 25 10
7.8927 0.7737 -1.7409 0.3024 25 10
11.2938 1.2898 -2.4953 0.2144 0 8
11.2717 1.4702 -2.4953 0.2144 0 8
11.2467 1.6502 -2.4953 0.2144 0 8
11.2189 1.8298 -2.4953 0.2144 0 8
11.1882 2.0090 -2.4953 0.2144 0 8
11.1547 2.1876 -2.4953 0.2144 0 8
11.1183 2.3657 -2.4953 0.2144 0 8
11.0790 2.5431 -2.4953 0.2144 0 8
11.0370 2.7199 -2.4953 0.2144 0 8
10.9921 2.8961 -2.4953 0.2144 0 8
10.9443 3.0714 -2.4953 0.2144 0 8
10.8938 3.2460 -2.4953 0.2144 0 8
10.8405 3.4198 -2.4953 0.2144 0 8
10.7845 3.5927 -2.4953 0.2144 0 8
10.7257 3.7647 -2.4953 0.2144 0 8
10.6641 3.9357 -2.4953 0.2144 0 8
10.5998 4.1057 -2.4953 0.2144 0 8
10.5328 4.2746 -2.4953 0.2144 0 8
10.4631 4.4425 -2.4953 0.2144 0 8
10.3907 4.6092 -2.4953 0.2144 0 8
10.3157 4.7748 -2.4953 0.2144 0 8
10.2381 4.9391 -2.4953 0.2144 0 8
10.1578 5.1022 -2.4953 0.2144 0 8
10.0749 5.2639 -2.4953 0.2144 0 8
9.9894 5.4243 -2.4953 0.2144 0 8
9.9014 5.5834 -2.4953 0.2144 0 8
9.8109 5.7410 -2.4953 0.2144 0 8
9.7179 5.8971 -2.4953 0.2144 0 8
9.6223 6.0517 -2.4953 0.2144 0 8
9.5243 6.2048 -2.4953 0.2144 0 8
9.4239 6.3563 -2.4953 0.2144 0 8
9.3211 6.5062 -2.4953 0.2144 0 8
9.2159 6.6544 -2.4953 0.2144 0 8
9.1083 6.8009 -2.4953 0.2144 0 8
8.9984 6.9456 -2.4953 0.2144 0 8
8.8862 7.0886 -2.4953 0.2144 0 8
8.7717 7.2298 -2.4953 0.2144 0 8
8.6550 7.3691 -2.4953 0.2144 0 8
8.5360 7.5065 -2.4953 0.2144 0 8
8.4149 7.6421 -2.4953 0.2144 0 8
8.2917 7.7756 -2.4953 0.2144 0 8
8.1663 7.9072 -2.4953 0.2144 0 8
8.0388 8.0368 -2.4953 0.2144 0 8
7.9093 8.1643 -2.4953 0.2144 0 8
7.7777 8.2897 -2.4953 0.2144 0 8
7.6442 8.4130 -2.4953 0.2144 0 8
10.0091 -4.3974 -2.4953 0.2225 0 8
10.0782 -4.2368 -2.4953 0.2225 0 8
10.1446 -4.0751 -2.4953 0.2225 0 8
10.2085 -3.9124 -2.4953 0.2225 0 8
10.2697 -3.7486 -2.4953 0.2225 0 8
10.3284 -3.5839 -2.4953 0.2225 0 8
10.3843 -3.4184 -2.4953 0.2225 0 8
10.4377 -3.2519 -2.4953 0.2225 0 8
10.4883 -3.0846 -2.4953 0.2225 0 8
10.5363 -2.9165 -2.4953 0.2225 0 8
10.5816 -2.7477 -2.4953 0.2225 0 8
10.6242 -2.5781 -2.4953 0.2225 0 8
10.6640 -2.4079 -2.4953 0.2225 0 8
10.7012 -2.2371 -2.4953 0.2225 0 8
10.7356 -2.0657 -2.4953 0.2225 0 8
10.7672 -1.8938 -2.4953 0.2225 0 8
10.7961 -1.7214 -2.4953 0.2225 0 8
10.8223 -1.5486 -2.4953 0.2225 0 8
10.8456 -1.3753 -2.4953 0.2225 0 8
10.8663 -1.2017 -2.4953 0.2225 0 8
7.7919 -0.7358 -1.7864 0.3059 25 10
7.6679 -0.6006 -1.7555 0.8750 25 10
7.6137 -0.4740 -1.7411 0.9192 25 10
7.5872 -0.3507 -1.7336 0.9685 25 10
7.5725 -0.2287 -1.7292 0.9961 25 10
7.5658 -0.1075 -1.7270 0.9973 25 10
7.5605 0.0135 -1.7256 0.9981 25 10
7.5673 0.1345 -1.7275 0.9971 25 10
7.5740 0.2558 -1.7297 0.9958 25 10
7.5925 0.3780 -1.7351 0.9677 25 10
7.6255 0.5020 -1.7442 0.8806 25 10
7.6801 0.6291 -1.7588 0.8733 25 10
7.8744 0.7719 -1.8059 0.3025 25 10
10.8619 1.2404 -2.4953 0.2225 0 8
10.8407 1.4139 -2.4953 0.2225 0 8
10.8167 1.5871 -2.4953 0.2225 0 8
10.7899 1.7598 -2.4953 0.2225 0 8
10.7604 1.9321 -2.4953 0.2225 0 8
10.7281 2.1039 -2.4953 0.2225 0 8
10.6931 2.2752 -2.4953 0.2225 0 8
10.6554 2.4459 -2.4953 0.2225 0 8
10.6149 2.6159 -2.4953 0.2225 0 8
10.5717 2.7853 -2.4953 0.2225 0 8
10.5258 2.9540 -2.4953 0.2225 0 8
10.4773 3.1219 -2.4953 0.2225 0 8
10.4260 3.2890 -2.4953 0.2225 0 8
10.3721 3.4553 -2.4953 0.2225 0 8
10.3155 3.6207 -2.4953 0.2225 0 8
10.2563 3.7852 -2.4953 0.2225 0 8
10.1945 3.9487 -2.4953 0.2225 0 8
10.1300 4.1112 -2.4953 0.2225 0 8
10.0630 4.2726 -2.4953 0.2225 0 8
9.9934 4.4330 -2.4953 0.2225 0 8
9.9213 4.5922 -2.4953 0.2225 0 8
9.8466 4.7502 -2.4953 0.2225 0 8
9.7694 4.9071 -2.4953 0.2225 0 8
9.6896 5.0626 -2.4953 0.2225 0 8
9.6075 5.2169 -2.4953 0.2225 0 8
9.5228 5.3699 -2.4953 0.2225 0 8
9.4357 5.5214 -2.4953 0.2225 0 8
9.3463 5.6716 -2.4953 0.2225 0 8
9.2544 5.8203 -2.4953 0.2225 0 8
9.1601 5.9675 -2.4953 0.2225 0 8
9.0635 6.1132 -2.4953 0.2225 0 8
8.9647 6.2574 -2.4953 0.2225 0 8
8.8635 6.3999 -2.4953 0.2225 0 8
8.7600 6.5408 -2.4953 0.2225 0 8
8.6543 6.6800 -2.4953 0.2225 0 8
8.5464 6.8175 -2.4953 0.2225 0 8
8.4363 6.9533 -2.4953 0.2225 0 8
8.3240 7.0873 -2.4953 0.2225 0 8
8.2096 7.2195 -2.4953 0.2225 0 8
8.0932 7.3498 -2.4953 0.2225 0 8
7.9746 7.4783 -2.4953 0.2225 0 8
7.8540 7.6049 -2.4953 0.2225 0 8
7.7314 7.7295 -2.4953 0.2225 0 8
7.6068 7.8521 -2.4953 0.2225 0 8
7.4803 7.9727 -2.4953 0.2225 0 8
7.3519 8.0913 -2.4953 0.2225 0 8
9.6392 -4.2348 -2.4953 0.2306 0 8
9.7056 -4.0801 -2.4953 0.2306 0 8
9.7696 -3.9244 -2.4953 0.2306 0 8
9.8311 -3.7677 -2.4953 0.2306 0 8
9.8901 -3.6101 -2.4953 0.2306 0 8
9.9466 -3.4515 -2.4953 0.2306 0 8
10.0005 -3.2920 -2.4953 0.2306 0 8
10.0518 -3.1317 -2.4953 0.2306 0 8
10.1006 -2.9706 -2.4953 0.2306 0 8
10.1468 -2.8087 -2.4953 0.2306 0 8
10.1904 -2.6461 -2.4953 0.2306 0 8
10.2314 -2.4828 -2.4953 0.2306 0 8
10.2698 -2.3189 -2.4953 0.2306 0 8
10.3056 -2.1544 -2.4953 0.2306 0 8
10.3387 -1.9894 -2.4953 0.2306 0 8
10.3692 -1.8238 -2.4953 0.2306 0 8
10.3970 -1.6578 -2.4953 0.2306 0 8
10.4222 -1.4913 -2.4953 0.2306 0 8
10.4447 -1.3245 -2.4953 0.2306 0 8
10.4646 -1.1573 -2.4953 0.2306 0 8
7.8056 -0.7371 -1.8582 0.2807 25 10
7.6566 -0.5997 -1.8202 0.8530 25 10
7.6020 -0.4733 -1.8052 0.9187 25 10
7.5755 -0.3501 -1.7973 0.9392 25 10
7.5618 -0.2284 -1.7930 0.9669 25 10
7.5545 -0.1073 -1.7906 0.9681 25 10
7.5498 0.0134 -1.7893 0.9299 25 10
7.5562 0.1343 -1.7911 0.9679 25 10
7.5634 0.2554 -1.7936 0.9665 25 10
7.5812 0.3775 -1.7990 0.9383 25 10
7.6139 0.5013 -1.8084 0.8586 25 10
7.6689 0.6282 -1.8237 0.8514 25 10
7.8899 0.7735 -1.8789 0.4551 25 10
10.4604 1.1946 -2.4953 0.2306 0 8
10.4400 1.3617 -2.4953 0.2306 0 8
10.4168 1.5284 -2.4953 0.2306 0 8
10.3911 1.6948 -2.4953 0.2306 0 8
10.3626 1.8607 -2.4953 0.2306 0 8
10.3316 2.0262 -2.4953 0.2306 0 8
10.2979 2.1911 -2.4953 0.2306 0 8
10.2615 2.3555 -2.4953 0.2306 0 8
10.2225 2.5192 -2.4953 0.2306 0 8
10.1809 2.6824 -2.4953 0.2306 0 8
10.1368 2.8448 -2.4953 0.2306 0 8
10.0900 3.0065 -2.4953 0.2306 0 8
10.0406 3.1675 -2.4953 0.2306 0 8
9.9887 3.3276 -2.4953 0.2306 0 8
9.9342 3.4869 -2.4953 0.2306 0 8
9.8772 3.6453 -2.4953 0.2306 0 8
9.8176 3.8027 -2.4953 0.2306 0 8
9.7556 3.9592 -2.4953 0.2306 0 8
9.6910 4.1147 -2.4953 0.2306 0 8
9.6240 4.2691 -2.4953 0.2306 0 8
9.5545 4.4224 -2.4953 0.2306 0 8
9.4826 4.5746 -2.4953 0.2306 0 8
9.4082 4.7257 -2.4953 0.2306 0 8
9.3315 4.8755 -2.4953 0.2306 0 8
9.2523 5.0241 -2.4953 0.2306 0 8
9.1708 5.1714 -2.4953 0.2306 0 8
9.0870 5.3173 -2.4953 0.2306 0 8
9.0008 5.4619 -2.4953 0.2306 0 8
8.9123 5.6052 -2.4953 0.2306 0 8
8.8215 5.7469 -2.4953 0.2306 0 8
8.7285 5.8873 -2.4953 0.2306 0 8
8.6333 6.0261 -2.4953 0.2306 0 8
8.5358 6.1633 -2.4953 0.2306 0 8
8.4362 6.2990 -2.4953 0.2306 0 8
8.3344 6.4331 -2.4953 0.2306 0 8
8.2305 6.5655 -2.4953 0.2306 0 8
8.1244 6.6963 -2.4953 0.2306 0 8
8.0163 6.8253 -2.4953 0.2306 0 8
7.9062 6.9526 -2.4953 0.2306 0 8
7.7940 7.0782 -2.4953 0.2306 0 8
7.6798 7.2019 -2.4953 0.2306 0 8
7.5637 7.3237 -2.4953 0.2306 0 8
7.4456 7.4437 -2.4953 0.2306 0 8
7.3257 7.5618 -2.4953 0.2306 0 8
7.2038 7.6780 -2.4953 0.2306 0 8
7.0801 7.7922 -2.4953 0.2306 0 8
9.2942 -4.0833 -2.4953 0.2387 0 8
9.3583 -3.9341 -2.4953 0.2387 0 8
9.4200 -3.7840 -2.4953 0.2387 0 8
9.4793 -3.6329 -2.4953 0.2387 0 8
9.5362 -3.4809 -2.4953 0.2387 0 8
9.5906 -3.3280 -2.4953 0.2387 0 8
9.6426 -3.1742 -2.4953 0.2387 0 8
9.6921 -3.0196 -2.4953 0.2387 0 8
9.7392 -2.8643 -2.4953 0.2387 0 8
9.7837 -2.7082 -2.4953 0.2387 0 8
9.8258 -2.5514 -2.4953 0.2387 0 8
9.8653 -2.3940 -2.4953 0.2387 0 8
9.9023 -2.2359 -2.4953 0.2387 0 8
9.9368 -2.0773 -2.4953 0.2387 0 8
9.9688 -1.9182 -2.4953 0.2387 0 8
9.9982 -1.7585 -2.4953 0.2387 0 8
10.0250 -1.5984 -2.4953 0.2387 0 8
10.0493 -1.4380 -2.4953 0.2387 0 8
10.0710 -1.2771 -2.4953 0.2387 0 8
10.0901 -1.1159 -2.4953 0.2387 0 8
7.8250 -0.7390 -1.9319 0.4581 25 10
7.6604 -0.6000 -1.8887 0.7677 25 10
7.6051 -0.4735 -1.8730 0.9165 25 10
7.5765 -0.3502 -1.8643 0.9372 25 10
7.5624 -0.2284 -1.8597 0.9648 25 10
7.5570 -0.1074 -1.8577 0.9271 25 10
7.5597 0.0135 -1.8582 0.9268 25 10
7.5568 0.1343 -1.8578 0.9658 25 10
7.5640 0.2555 -1.8603 0.9645 25 10
7.5822 0.3775 -1.8660 0.9363 25 10
7.6165 0.5014 -1.8762 0.8566 25 10
7.6769 0.6288 -1.8933 0.7659 25 10
7.8752 0.7720 -1.9450 0.4550 25 10
10.0861 1.1518 -2.4953 0.2387 0 8
10.0664 1.3130 -2.4953 0.2387 0 8
10.0441 1.4737 -2.4953 0.2387 0 8
10.0192 1.6341 -2.4953 0.2387 0 8
9.9918 1.7941 -2.4953 0.2387 0 8
9.9619 1.9537 -2.4953 0.2387 0 8
9.9294 2.1127 -2.4953 0.2387 0 8
9.8943 2.2712 -2.4953 0.2387 0 8
9.8567 2.4291 -2.4953 0.2387 0 8
9.8166 2.5864 -2.4953 0.2387 0 8
9.7740 2.7430 -2.4953 0.2387 0 8
9.7289 2.8989 -2.4953 0.2387 0 8
9.6813 3.0541 -2.4953 0.2387 0 8
9.6313 3.2085 -2.4953 0.2387 0 8
9.5787 3.3621 -2.4953 0.2387 0 8
9.5237 3.5148 -2.4953 0.2387 0 8
9.4663 3.6666 -2.4953 0.2387 0 8
9.4065 3.8175 -2.4953 0.2387 0 8
9.3443 3.9674 -2.4953 0.2387 0 8
9.2796 4.1163 -2.4953 0.2387 0 8
9.2126 4.2642 -2.4953 0.2387 0 8
9.1433 4.4109 -2.4953 0.2387 0 8
9.0716 4.5566 -2.4953 0.2387 0 8
8.9976 4.7010 -2.4953 0.2387 0 8
8.9212 4.8443 -2.4953 0.2387 0 8
8.8426 4.9863 -2.4953 0.2387 0 8
8.7618 5.1271 -2.4953 0.2387 0 8
8.6787 5.2665 -2.4953 0.2387 0 8
8.5934 5.4046 -2.4953 0.2387 0 8
8.5059 5.5413 -2.4953 0.2387 0 8
8.4162 5.6766 -2.4953 0.2387 0 8
8.3243 5.8104 -2.4953 0.2387 0 8
8.2304 5.9428 -2.4953 0.2387 0 8
8.1343 6.0736 -2.4953 0.2387 0 8
8.0362 6.2029 -2.4953 0.2387 0 8
7.9360 6.3306 -2.4953 0.2387 0 8
7.8337 6.4567 -2.4953 0.2387 0 8
7.7295 6.5811 -2.4953 0.2387 0 8
7.6233 6.7039 -2.4953 0.2387 0 8
7.5151 6.8249 -2.4953 0.2387 0 8
7.4050 6.9442 -2.4953 0.2387 0 8
7.2930 7.0617 -2.4953 0.2387 0 8
7.1792 7.1774 -2.4953 0.2387 0 8
7.0635 7.2913 -2.4953 0.2387 0 8
6.9460 7.4033 -2.4953 0.2387 0 8
6.8268 7.5134 -2.4953 0.2387 0 8
8.9719 -3.9416 -2.4953 0.2468 0 8
9.0337 -3.7977 -2.4953 0.2468 0 8
9.0933 -3.6528 -2.4953 0.2468 0 8
9.1506 -3.5069 -2.4953 0.2468 0 8
9.2055 -3.3602 -2.4953 0.2468 0 8
9.2580 -3.2125 -2.4953 0.2468 0 8
9.3082 -3.0641 -2.4953 0.2468 0 8
9.3560 -2.9148 -2.4953 0.2468 0 8
9.4014 -2.7649 -2.4953 0.2468 0 8
9.4444 -2.6142 -2.4953 0.2468 0 8
9.4850 -2.4629 -2.4953 0.2468 0 8
9.5232 -2.3109 -2.4953 0.2468 0 8
9.5589 -2.1584 -2.4953 0.2468 0 8
9.5922 -2.0053 -2.4953 0.2468 0 8
9.6230 -1.8516 -2.4953 0.2468 0 8
9.6514 -1.6975 -2.4953 0.2468 0 8
9.6773 -1.5430 -2.4953 0.2468 0 8
9.7007 -1.3881 -2.4953 0.2468 0 8
9.7217 -1.2328 -2.4953 0.2468 0 8
9.7402 -1.0772 -2.4953 0.2468 0 8
7.8188 -0.7384 -1.9998 0.4018 25 10
7.6737 -0.6011 -1.9599 0.7648 25 10
7.6083 -0.4737 -1.9411 0.9142 25 10
7.5780 -0.3503 -1.9317 0.9186 25 10
7.5635 -0.2285 -1.9268 0.9240 25 10
7.5670 -0.1075 -1.9270 0.9239 25 10
7.5697 0.0135 -1.9275 0.9237 25 10
7.5662 0.1345 -1.9269 0.9240 25 10
7.5647 0.2555 -1.9273 0.9624 25 10
7.5847 0.3777 -1.9337 0.9177 25 10
7.6191 0.5016 -1.9443 0.8545 25 10
7.6902 0.6299 -1.9647 0.7629 25 10
7.8727 0.7718 -2.0142 0.3989 25 10
9.7363 1.1119 -2.4953 0.2468 0 8
9.7172 1.2674 -2.4953 0.2468 0 8
9.6957 1.4226 -2.4953 0.2468 0 8
9.6717 1.5775 -2.4953 0.2468 0 8
9.6453 1.7319 -2.4953 0.2468 0 8
9.6164 1.8859 -2.4953 0.2468 0 8
9.5850 2.0394 -2.4953 0.2468 0 8
9.5511 2.1924 -2.4953 0.2468 0 8
9.5149 2.3448 -2.4953 0.2468 0 8
9.4762 2.4967 -2.4953 0.2468 0 8
9.4350 2.6479 -2.4953 0.2468 0 8
9.3915 2.7984 -2.4953 0.2468 0 8
9.3455 2.9482 -2.4953 0.2468 0 8
9.2972 3.0972 -2.4953 0.2468 0 8
9.2465 3.2455 -2.4953 0.2468 0 8
9.1934 3.3929 -2.4953 0.2468 0 8
9.1380 3.5395 -2.4953 0.2468 0 8
9.0802 3.6851 -2.4953 0.2468 0 8
9.0202 3.8298 -2.4953 0.2468 0 8
8.9578 3.9736 -2.4953 0.2468 0 8
8.8931 4.1163 -2.4953 0.2468 0 8
8.8261 4.2580 -2.4953 0.2468 0 8
8.7569 4.3985 -2.4953 0.2468 0 8
8.6855 4.5380 -2.4953 0.2468 0 8
8.6118 4.6763 -2.4953 0.2468 0 8
8.5360 4.8134 -2.4953 0.2468 0 8
8.4579 4.9492 -2.4953 0.2468 0 8
8.3777 5.0838 -2.4953 0.2468 0 8
8.2953 5.2171 -2.4953 0.2468 0 8
8.2109 5.3491 -2.4953 0.2468 0 8
8.1243 5.4797 -2.4953 0.2468 0 8
8.0356 5.6089 -2.4953 0.2468 0 8
7.9449 5.7367 -2.4953 0.2468 0 8
7.8522 5.8630 -2.4953 0.2468 0 8
7.7574 5.9878 -2.4953 0.2468 0 8
7.6607 6.1110 -2.4953 0.2468 0 8
7.5620 6.2327 -2.4953 0.2468 0 8
7.4614 6.3528 -2.4953 0.2468 0 8
7.3589 6.4713 -2.4953 0.2468 0 8
7.2544 6.5882 -2.4953 0.2468 0 8
7.1482 6.7033 -2.4953 0.2468 0 8
7.0401 6.8168 -2.4953 0.2468 0 8
6.9302 6.9284 -2.4953 0.2468 0 8
6.8185 7.0384 -2.4953 0.2468 0 8
6.7051 7.1465 -2.4953 0.2468 0 8
6.5900 7.2528 -2.4953 0.2468 0 8
8.6699 -3.8090 -2.4953 0.2548 0 8
8.7297 -3.6699 -2.4953 0.2548 0 8
8.7873 -3.5298 -2.4953 0.2548 0 8
8.8426 -3.3889 -2.4953 0.2548 0 8
8.8956 -3.2471 -2.4953 0.2548 0 8
8.9464 -3.1044 -2.4953 0.2548 0 8
8.9949 -2.9610 -2.4953 0.2548 0 8
9.0411 -2.8168 -2.4953 0.2548 0 8
9.0850 -2.6719 -2.4953 0.2548 0 8
9.1265 -2.5263 -2.4953 0.2548 0 8
9.1657 -2.3800 -2.4953 0.2548 0 8
9.2026 -2.2332 -2.4953 0.2548 0 8
9.2372 -2.0857 -2.4953 0.2548 0 8
9.2693 -1.9378 -2.4953 0.2548 0 8
9.2991 -1.7893 -2.4953 0.2548 0 8
9.3265 -1.6403 -2.4953 0.2548 0 8
9.3516 -1.4911 -2.4953 0.2548 0 8
9.3742 -1.3414 -2.4953 0.2548 0 8
9.3945 -1.1913 -2.4953 0.2548 0 8
9.4123 -1.0409 -2.4953 0.2548 0 8
7.8633 -0.7426 -2.0812 0.3986 25 10
7.6953 -0.6027 -2.0339 0.7172 25 10
7.6199 -0.4744 -2.0117 0.8126 25 10
7.5870 -0.3507 -2.0013 0.8460 25 10
7.5758 -0.2288 -1.9971 0.8886 25 10
7.5795 -0.1077 -1.9974 0.8884 25 10
7.5799 0.0135 -1.9973 0.9288 25 10
7.5787 0.1347 -1.9973 0.8885 25 10
7.5750 0.2558 -1.9971 0.8886 25 10
7.5940 0.3781 -2.0035 0.8451 25 10
7.6352 0.5027 -2.0162 0.7235 25 10
7.7125 0.6317 -2.0391 0.7212 25 10
7.9029 0.7747 -2.0924 0.5432 25 10
9.4086 1.0745 -2.4953 0.2548 0 8
9.3902 1.2248 -2.4953 0.2548 0 8
9.3694 1.3747 -2.4953 0.2548 0 8
9.3462 1.5244 -2.4953 0.2548 0 8
9.3206 1.6736 -2.4953 0.2548 0 8
9.2927 1.8224 -2.4953 0.2548 0 8
9.2624 1.9708 -2.4953 0.2548 0 8
9.2297 2.1186 -2.4953 0.2548 0 8
9.1946 2.2659 -2.4953 0.2548 0 8
9.1572 2.4126 -2.4953 0.2548 0 8
9.1175 2.5587 -2.4953 0.2548 0 8
9.0754 2.7042 -2.4953 0.2548 0 8
9.0310 2.8490 -2.4953 0.2548 0 8
8.9843 2.9930 -2.4953 0.2548 0 8
8.9353 3.1363 -2.4953 0.2548 0 8
8.8840 3.2787 -2.4953 0.2548 0 8
8.8304 3.4203 -2.4953 0.2548 0 8
8.7746 3.5611 -2.4953 0.2548 0 8
8.7166 3.7009 -2.4953 0.2548 0 8
8.6563 3.8398 -2.4953 0.2548 0 8
8.5938 3.9777 -2.4953 0.2548 0 8
8.5291 4.1146 -2.4953 0.2548 0 8
8.4622 4.2505 -2.4953 0.2548 0 8
8.3932 4.3852 -2.4953 0.2548 0 8
8.3220 4.5189 -2.4953 0.2548 0 8
8.2486 4.6514 -2.4953 0.2548 0 8
8.1732 4.7827 -2.4953 0.2548 0 8
8.0957 4.9127 -2.4953 0.2548 0 8
8.0161 5.0415 -2.4953 0.2548 0 8
7.9345 5.1691 -2.4953 0.2548 0 8
7.8508 5.2953 -2.4953 0.2548 0 8
7.7652 5.4201 -2.4953 0.2548 0 8
7.6775 5.5436 -2.4953 0.2548 0 8
7.5879 5.6656 -2.4953 0.2548 0 8
7.4963 5.7862 -2.4953 0.2548 0 8
7.4029 5.9053 -2.4953 0.2548 0 8
7.3075 6.0230 -2.4953 0.2548 0 8
7.2103 6.1390 -2.4953 0.2548 0 8
7.1112 6.2535 -2.4953 0.2548 0 8
7.0103 6.3664 -2.4953 0.2548 0 8
6.9076 6.4777 -2.4953 0.2548 0 8
6.8031 6.5873 -2.4953 0.2548 0 8
6.6969 6.6952 -2.4953 0.2548 0 8
6.5890 6.8015 -2.4953 0.2548 0 8
6.4794 6.9060 -2.4953 0.2548 0 8
6.3682 7.0087 -2.4953 0.2548 0 8
8.3864 -3.6844 -2.4953 0.2628 0 8
8.4442 -3.5499 -2.4953 0.2628 0 8
8.4999 -3.4144 -2.4953 0.2628 0 8
8.5534 -3.2781 -2.4953 0.2628 0 8
8.6047 -3.1409 -2.4953 0.2628 0 8
8.6538 -3.0029 -2.4953 0.2628 0 8
8.7008 -2.8641 -2.4953 0.2628 0 8
8.7454 -2.7247 -2.4953 0.2628 0 8
8.7879 -2.5845 -2.4953 0.2628 0 8
8.8281 -2.4436 -2.4953 0.2628 0 8
8.8660 -2.3022 -2.4953 0.2628 0 8
8.9017 -2.1601 -2.4953 0.2628 0 8
8.9351 -2.0175 -2.4953 0.2628 0 8
8.9662 -1.8744 -2.4953 0.2628 0 8
8.9950 -1.7308 -2.4953 0.2628 0 8
9.0216 -1.5868 -2.4953 0.2628 0 8
9.0458 -1.4423 -2.4953 0.2628 0 8
9.0677 -1.2975 -2.4953 0.2628 0 8
9.0873 -1.1523 -2.4953 0.2628 0 8
9.1045 -1.0069 -2.4953 0.2628 0 8
7.8785 -0.7440 -2.1557 0.5439 25 10
7.7184 -0.6046 -2.1090 0.7192 25 10
7.6416 -0.4758 -2.0857 0.8085 25 10
7.6049 -0.3515 -2.0738 0.8421 25 10
7.5918 -0.2293 -2.0690 0.8847 25 10
7.5920 -0.1079 -2.0683 0.9252 25 10
7.5883 0.0135 -2.0671 0.9257 25 10
7.5931 0.1349 -2.0687 0.9250 25 10
7.5910 0.2564 -2.0690 0.8847 25 10
7.6122 0.3790 -2.0762 0.8122 25 10
7.6585 0.5042 -2.0908 0.7197 25 10
7.7357 0.6336 -2.1143 0.7174 25 10
7.9158 0.7760 -2.1667 0.5411 25 10
9.1009 1.0393 -2.4953 0.2628 0 8
9.0831 1.1847 -2.4953 0.2628 0 8
9.0630 1.3298 -2.4953 0.2628 0 8
9.0406 1.4745 -2.4953 0.2628 0 8
9.0159 1.6189 -2.4953 0.2628 0 8
8.9888 1.7628 -2.4953 0.2628 0 8
8.9595 1.9063 -2.4953 0.2628 0 8
8.9279 2.0493 -2.4953 0.2628 0 8
8.8939 2.1918 -2.4953 0.2628 0 8
8.8578 2.3338 -2.4953 0.2628 0 8
8.8193 2.4751 -2.4953 0.2628 0 8
8.7786 2.6158 -2.4953 0.2628 0 8
8.7357 2.7558 -2.4953 0.2628 0 8
8.6905 2.8951 -2.4953 0.2628 0 8
8.6431 3.0337 -2.4953 0.2628 0 8
8.5935 3.1715 -2.4953 0.2628 0 8
8.5417 3.3085 -2.4953 0.2628 0 8
8.4877 3.4446 -2.4953 0.2628 0 8
8.4315 3.5799 -2.4953 0.2628 0 8
8.3732 3.7143 -2.4953 0.2628 0 8
8.3128 3.8477 -2.4953 0.2628 0 8
8.2502 3.9801 -2.4953 0.2628 0 8
8.1855 4.1115 -2.4953 0.2628 0 8
8.1187 4.2418 -2.4953 0.2628 0 8
8.0498 4.3711 -2.4953 0.2628 0 8
7.9789 4.4993 -2.4953 0.2628 0 8
7.9060 4.6263 -2.4953 0.2628 0 8
7.8310 4.7521 -2.4953 0.2628 0 8
7.7540 4.8767 -2.4953 0.2628 0 8
7.6750 5.0000 -2.4953 0.2628 0 8
7.5941 5.1221 -2.4953 0.2628 0 8
7.5112 5.2429 -2.4953 0.2628 0 8
7.4264 5.3623 -2.4953 0.2628 0 8
7.3398 5.4804 -2.4953 0.2628 0 8
7.2512 5.5970 -2.4953 0.2628 0 8
7.1608 5.7122 -2.4953 0.2628 0 8
7.0685 5.8260 -2.4953 0.2628 0 8
6.9745 5.9383 -2.4953 0.2628 0 8
6.8786 6.0490 -2.4953 0.2628 0 8
6.7810 6.1582 -2.4953 0.2628 0 8
6.6817 6.2659 -2.4953 0.2628 0 8
6.5807 6.3719 -2.4953 0.2628 0 8
6.4780 6.4763 -2.4953 0.2628 0 8
6.3736 6.5791 -2.4953 0.2628 0 8
6.2676 6.6801 -2.4953 0.2628 0 8
6.1600 6.7795 -2.4953 0.2628 0 8
8.1197 -3.5672 -2.4953 0.2708 0 8
8.1757 -3.4370 -2.4953 0.2708 0 8
8.2296 -3.3058 -2.4953 0.2708 0 8
8.2814 -3.1738 -2.4953 0.2708 0 8
8.3311 -3.0410 -2.4953 0.2708 0 8
8.3786 -2.9074 -2.4953 0.2708 0 8
8.4240 -2.7731 -2.4953 0.2708 0 8
8.4673 -2.6380 -2.4953 0.2708 0 8
8.5084 -2.5023 -2.4953 0.2708 0 8
8.5473 -2.3659 -2.4953 0.2708 0 8
8.5840 -2.2290 -2.4953 0.2708 0 8
8.6186 -2.0914 -2.4953 0.2708 0 8
8.6509 -1.9534 -2.4953 0.2708 0 8
8.6811 -1.8148 -2.4953 0.2708 0 8
8.7090 -1.6758 -2.4953 0.2708 0 8
8.7346 -1.5363 -2.4953 0.2708 0 8
8.7581 -1.3964 -2.4953 0.2708 0 8
8.7793 -1.2562 -2.4953 0.2708 0 8
8.7983 -1.1157 -2.4953 0.2708 0 8
8.8150 -0.9749 -2.4953 0.2708 0 8
8.3329 -0.7869 -2.3549 0.6464 25 10
7.7417 -0.6064 -2.1848 0.7154 25 10
7.6649 -0.4772 -2.1607 0.7176 25 10
7.6255 -0.3525 -2.1478 0.8091 25 10
7.6053 -0.2297 -2.1408 0.9211 25 10
7.6005 -0.1080 -2.1387 0.9220 25 10
7.5968 0.0135 -2.1374 0.9226 25 10
7.6016 0.1351 -2.1391 0.9218 25 10
7.6064 0.2569 -2.1413 0.9209 25 10
7.6340 0.3801 -2.1505 0.8080 25 10
7.6819 0.5057 -2.1660 0.7216 25 10
7.7635 0.6359 -2.1916 0.5513 25 10
8.3336 0.8169 -2.3559 0.6461 25 10
8.8114 1.0063 -2.4953 0.2708 0 8
8.7942 1.1470 -2.4953 0.2708 0 8
8.7748 1.2875 -2.4953 0.2708 0 8
8.7531 1.4276 -2.4953 0.2708 0 8
8.7291 1.5674 -2.4953 0.2708 0 8
8.7029 1.7068 -2.4953 0.2708 0 8
8.6745 1.8457 -2.4953 0.2708 0 8
8.6439 1.9842 -2.4953 0.2708 0 8
8.6111 2.1221 -2.4953 0.2708 0 8
8.5761 2.2595 -2.4953 0.2708 0 8
8.5388 2.3964 -2.4953 0.2708 0 8
8.4994 2.5326 -2.4953 0.2708 0 8
8.4578 2.6682 -2.4953 0.2708 0 8
8.4141 2.8030 -2.4953 0.2708 0 8
8.3682 2.9372 -2.4953 0.2708 0 8
8.3202 3.0706 -2.4953 0.2708 0 8
8.2700 3.2033 -2.4953 0.2708 0 8
8.2177 3.3351 -2.4953 0.2708 0 8
8.1634 3.4661 -2.4953 0.2708 0 8
8.1069 3.5961 -2.4953 0.2708 0 8
