ply
format ascii 1.0
element vertex 1378
property float32 x
property float32 y
property float32 z
property float32 CosAngle
property uint32 ObjIdx
property uint32 ObjTag
end_header
38.4100 24.3141 -2.6477 0.0581 0 7
38.0126 24.9309 -2.6477 0.0581 0 7
37.6052 25.5411 -2.6477 0.0581 0 7
37.1881 26.1447 -2.6477 0.0581 0 7
36.7613 26.7415 -2.6477 0.0581 0 7
36.3249 27.3313 -2.6477 0.0581 0 7
35.8791 27.9140 -2.6477 0.0581 0 7
35.4239 28.4894 -2.6477 0.0581 0 7
34.9595 29.0575 -2.6477 0.0581 0 7
34.4860 29.6179 -2.6477 0.0581 0 7
34.0034 30.1706 -2.6477 0.0581 0 7
33.5121 30.7155 -2.6477 0.0581 0 7
33.0120 31.2524 -2.6477 0.0581 0 7
33.9627 -15.8376 -2.4953 0.0664 0 8
34.2138 -15.2874 -2.4953 0.0664 0 8
34.4561 -14.7333 -2.4953 0.0664 0 8
34.6894 -14.1752 -2.4953 0.0664 0 8
34.9137 -13.6135 -2.4953 0.0664 0 8
35.1289 -13.0483 -2.4953 0.0664 0 8
35.3349 -12.4796 -2.4953 0.0664 0 8
35.5317 -11.9077 -2.4953 0.0664 0 8
35.7192 -11.3327 -2.4953 0.0664 0 8
35.8975 -10.7547 -2.4953 0.0664 0 8
36.0664 -10.1740 -2.4953 0.0664 0 8
36.2259 -9.5905 -2.4953 0.0664 0 8
36.3759 -9.0046 -2.4953 0.0664 0 8
36.5165 -8.4164 -2.4953 0.0664 0 8
36.6476 -7.8259 -2.4953 0.0664 0 8
36.7692 -7.2334 -2.4953 0.0664 0 8
36.8811 -6.6391 -2.4953 0.0664 0 8
36.9835 -6.0429 -2.4953 0.0664 0 8
37.0762 -5.4453 -2.4953 0.0664 0 8
37.1592 -4.8462 -2.4953 0.0664 0 8
37.2326 -4.2458 -2.4953 0.0664 0 8
37.2963 -3.6443 -2.4953 0.0664 0 8
37.3502 -3.0419 -2.4953 0.0664 0 8
37.3945 -2.4387 -2.4953 0.0664 0 8
37.4290 -1.8349 -2.4953 0.0664 0 8
37.4537 -1.2305 -2.4953 0.0664 0 8
37.4687 -0.6259 -2.4953 0.0664 0 8
37.4739 -0.0211 -2.4953 0.0664 0 8
37.4694 0.5837 -2.4953 0.0664 0 8
37.4551 1.1884 -2.4953 0.0664 0 8
37.4310 1.7927 -2.4953 0.0664 0 8
37.3972 2.3966 -2.4953 0.0664 0 8
37.3536 2.9999 -2.4953 0.0664 0 8
37.3004 3.6023 -2.4953 0.0664 0 8
37.2373 4.2039 -2.4953 0.0664 0 8
37.1647 4.8043 -2.4953 0.0664 0 8
37.0823 5.4035 -2.4953 0.0664 0 8
36.9902 6.0013 -2.4953 0.0664 0 8
36.8886 6.5975 -2.4953 0.0664 0 8
36.7773 7.1920 -2.4953 0.0664 0 8
36.6564 7.7847 -2.4953 0.0664 0 8
36.5260 8.3753 -2.4953 0.0664 0 8
38.6084 9.5111 -2.6477 0.0664 0 7
38.4498 10.1330 -2.6477 0.0664 0 7
38.2813 10.7523 -2.6477 0.0664 0 7
38.1028 11.3688 -2.6477 0.0664 0 7
37.9143 11.9822 -2.6477 0.0664 0 7
37.7160 12.5925 -2.6477 0.0664 0 7
37.5079 13.1996 -2.6477 0.0664 0 7
37.2899 13.8032 -2.6477 0.0664 0 7
37.0623 14.4032 -2.6477 0.0664 0 7
36.8250 14.9995 -2.6477 0.0664 0 6
36.5781 15.5919 -2.6477 0.0664 0 7
36.3217 16.1802 -2.6477 0.0664 0 7
36.0558 16.7644 -2.6477 0.0664 0 7
35.7806 17.3441 -2.6477 0.0664 0 7
35.4960 17.9193 -2.6477 0.0664 0 7
35.2022 18.4899 -2.6477 0.0664 0 6
34.8550 19.0315 -2.6443 0.4799 0 8
33.5737 19.0417 -2.5701 0.4937 0 8
32.3922 19.0690 -2.5029 0.0664 0 8
32.0802 19.5893 -2.5029 0.0664 0 14
31.7599 20.1045 -2.5029 0.0664 0 14
31.4313 20.6145 -2.5029 0.0664 0 14
31.0945 21.1191 -2.5029 0.0664 0 14
30.7496 21.6182 -2.5029 0.0664 0 14
30.3967 22.1116 -2.5029 0.0664 0 14
31.7733 23.9066 -2.6477 0.0664 0 7
31.3833 24.4163 -2.6477 0.0664 0 7
30.9852 24.9196 -2.6477 0.0664 0 7
30.5789 25.4165 -2.6477 0.0664 0 7
30.1648 25.9067 -2.6477 0.0664 0 7
29.7427 26.3902 -2.6477 0.0664 0 7
29.3129 26.8668 -2.6477 0.0664 0 7
28.8755 27.3363 -2.6477 0.0664 0 7
30.1772 -14.0724 -2.4953 0.0747 0 8
30.4004 -13.5835 -2.4953 0.0747 0 8
30.6157 -13.0911 -2.4953 0.0747 0 8
30.8230 -12.5953 -2.4953 0.0747 0 8
31.0222 -12.0962 -2.4953 0.0747 0 8
31.2134 -11.5939 -2.4953 0.0747 0 8
31.3965 -11.0886 -2.4953 0.0747 0 8
31.5713 -10.5805 -2.4953 0.0747 0 8
31.7380 -10.0696 -2.4953 0.0747 0 8
31.8964 -9.5560 -2.4953 0.0747 0 8
32.0465 -9.0400 -2.4953 0.0747 0 8
32.1882 -8.5216 -2.4953 0.0747 0 8
32.3215 -8.0010 -2.4953 0.0747 0 8
32.4464 -7.4783 -2.4953 0.0747 0 8
32.5629 -6.9537 -2.4953 0.0747 0 8
32.6709 -6.4272 -2.4953 0.0747 0 8
32.7704 -5.8991 -2.4953 0.0747 0 8
32.8613 -5.3694 -2.4953 0.0747 0 8
32.9437 -4.8383 -2.4953 0.0747 0 8
33.0175 -4.3060 -2.4953 0.0747 0 8
33.0827 -3.7726 -2.4953 0.0747 0 8
33.1393 -3.2381 -2.4953 0.0747 0 8
33.1872 -2.7029 -2.4953 0.0747 0 8
33.2265 -2.1669 -2.4953 0.0747 0 8
33.2572 -1.6303 -2.4953 0.0747 0 8
33.2791 -1.0934 -2.4953 0.0747 0 8
33.2925 -0.5561 -2.4953 0.0747 0 8
33.2971 -0.0187 -2.4953 0.0747 0 8
33.2931 0.5187 -2.4953 0.0747 0 8
33.2803 1.0559 -2.4953 0.0747 0 8
33.2590 1.5929 -2.4953 0.0747 0 8
33.2289 2.1295 -2.4953 0.0747 0 8
33.1902 2.6655 -2.4953 0.0747 0 8
33.1429 3.2008 -2.4953 0.0747 0 8
33.0869 3.7353 -2.4953 0.0747 0 8
33.0223 4.2688 -2.4953 0.0747 0 8
32.9491 4.8013 -2.4953 0.0747 0 8
32.8673 5.3324 -2.4953 0.0747 0 8
32.7770 5.8622 -2.4953 0.0747 0 8
32.6781 6.3904 -2.4953 0.0747 0 8
32.5707 6.9170 -2.4953 0.0747 0 8
32.4548 7.4418 -2.4953 0.0747 0 8
32.3305 7.9646 -2.4953 0.0747 0 8
32.1978 8.4854 -2.4953 0.0747 0 8
34.0145 9.5538 -2.6477 0.0747 0 7
33.8559 10.1015 -2.6477 0.0747 0 7
33.6884 10.6467 -2.6477 0.0747 0 7
33.5122 11.1890 -2.6477 0.0747 0 7
33.3273 11.7284 -2.6477 0.0747 0 7
33.1336 12.2647 -2.6477 0.0747 0 7
32.9314 12.7979 -2.6477 0.0747 0 7
32.7205 13.3277 -2.6477 0.0747 0 7
32.5012 13.8541 -2.6477 0.0747 0 7
32.2733 14.3768 -2.6477 0.0747 0 7
32.0371 14.8958 -2.6477 0.0747 0 7
31.7925 15.4109 -2.6477 0.0747 0 7
31.5396 15.9220 -2.6477 0.0747 0 7
31.2786 16.4290 -2.6477 0.0747 0 7
31.0093 16.9317 -2.6477 0.0747 0 7
30.7320 17.4300 -2.6477 0.0747 0 7
30.4467 17.9237 -2.6477 0.0747 0 7
30.1535 18.4127 -2.6477 0.0747 0 7
29.8524 18.8970 -2.6477 0.0747 0 7
29.0055 19.0235 -2.5995 0.5491 0 8
28.0217 19.0321 -2.5385 0.5623 0 8
27.3223 19.2086 -2.5029 0.0747 0 14
27.0087 19.6471 -2.5029 0.0747 0 14
26.6881 20.0804 -2.5029 0.0747 0 14
26.3605 20.5086 -2.5029 0.0747 0 14
26.0261 20.9313 -2.5029 0.0747 0 14
25.6849 21.3487 -2.5029 0.0747 0 14
25.3370 21.7604 -2.5029 0.0747 0 14
24.9825 22.1665 -2.5029 0.0747 0 14
26.0457 23.8722 -2.6477 0.0747 0 7
25.6570 24.2894 -2.6477 0.0747 0 7
27.1476 -12.6596 -2.4953 0.0830 0 8
27.3483 -12.2198 -2.4953 0.0830 0 8
27.5420 -11.7768 -2.4953 0.0830 0 8
27.7285 -11.3308 -2.4953 0.0830 0 8
27.9077 -10.8818 -2.4953 0.0830 0 8
28.0797 -10.4299 -2.4953 0.0830 0 8
28.2444 -9.9754 -2.4953 0.0830 0 8
28.4017 -9.5182 -2.4953 0.0830 0 8
28.5516 -9.0586 -2.4953 0.0830 0 8
28.6941 -8.5966 -2.4953 0.0830 0 8
28.8291 -8.1324 -2.4953 0.0830 0 8
28.9566 -7.6661 -2.4953 0.0830 0 8
29.0766 -7.1977 -2.4953 0.0830 0 8
29.1890 -6.7275 -2.4953 0.0830 0 8
29.2937 -6.2555 -2.4953 0.0830 0 8
29.3909 -5.7819 -2.4953 0.0830 0 8
29.4804 -5.3068 -2.4953 0.0830 0 8
29.5622 -4.8303 -2.4953 0.0830 0 8
29.6363 -4.3526 -2.4953 0.0830 0 8
29.7027 -3.8737 -2.4953 0.0830 0 8
29.7613 -3.3938 -2.4953 0.0830 0 8
29.8122 -2.9130 -2.4953 0.0830 0 8
29.8554 -2.4315 -2.4953 0.0830 0 8
29.8907 -1.9493 -2.4953 0.0830 0 8
29.9183 -1.4667 -2.4953 0.0830 0 8
29.9381 -0.9836 -2.4953 0.0830 0 8
29.9500 -0.5003 -2.4953 0.0830 0 8
29.9542 -0.0169 -2.4953 0.0830 0 8
29.9506 0.4666 -2.4953 0.0830 0 8
29.9391 0.9499 -2.4953 0.0830 0 8
29.9199 1.4330 -2.4953 0.0830 0 8
29.8929 1.9157 -2.4953 0.0830 0 8
29.8581 2.3979 -2.4953 0.0830 0 8
29.8155 2.8795 -2.4953 0.0830 0 8
29.7651 3.3603 -2.4953 0.0830 0 8
29.7070 3.8403 -2.4953 0.0830 0 8
29.6412 4.3192 -2.4953 0.0830 0 8
29.5676 4.7971 -2.4953 0.0830 0 8
29.4863 5.2736 -2.4953 0.0830 0 8
29.3974 5.7488 -2.4953 0.0830 0 8
29.3008 6.2225 -2.4953 0.0830 0 8
29.1965 6.6946 -2.4953 0.0830 0 8
29.0847 7.1650 -2.4953 0.0830 0 8
28.9652 7.6335 -2.4953 0.0830 0 8
28.8383 8.0999 -2.4953 0.0830 0 8
30.4569 9.0874 -2.6477 0.0830 0 7
30.3063 9.5778 -2.6477 0.0830 0 7
30.1477 10.0656 -2.6477 0.0830 0 7
29.9814 10.5509 -2.6477 0.0830 0 7
29.8072 11.0334 -2.6477 0.0830 0 7
29.6252 11.5130 -2.6477 0.0830 0 6
29.4355 11.9897 -2.6477 0.0830 0 7
29.2382 12.4632 -2.6477 0.0830 0 7
29.0332 12.9334 -2.6477 0.0830 0 7
28.8207 13.4003 -2.6477 0.0830 0 7
28.6007 13.8638 -2.6477 0.0830 0 7
28.3732 14.3235 -2.6477 0.0830 0 7
28.1383 14.7796 -2.6477 0.0830 0 7
27.8961 15.2318 -2.6477 0.0830 0 7
27.6467 15.6801 -2.6477 0.0830 0 7
27.3900 16.1242 -2.6477 0.0830 0 7
27.1262 16.5642 -2.6477 0.0830 0 7
26.8553 16.9998 -2.6477 0.0830 0 7
26.5775 17.4311 -2.6477 0.0830 0 7
26.2927 17.8577 -2.6477 0.0830 0 7
26.0010 18.2797 -2.6477 0.0830 0 7
25.7026 18.6970 -2.6477 0.0830 0 7
25.2612 19.0068 -2.6335 0.6021 0 8
24.4402 19.0145 -2.5795 0.6147 0 8
23.6518 19.0218 -2.5284 0.6271 0 8
23.1062 19.2053 -2.5029 0.0830 0 14
22.7933 19.5758 -2.5029 0.0830 0 14
22.4743 19.9411 -2.5029 0.0830 0 14
22.1496 20.3012 -2.5029 0.0830 0 14
21.8191 20.6560 -2.5029 0.0830 0 14
24.6676 -11.5031 -2.4953 0.0913 0 8
24.8501 -11.1035 -2.4953 0.0913 0 8
25.0261 -10.7010 -2.4953 0.0913 0 8
25.1955 -10.2957 -2.4953 0.0913 0 8
25.3584 -9.8877 -2.4953 0.0913 0 8
25.5147 -9.4772 -2.4953 0.0913 0 8
25.6643 -9.0642 -2.4953 0.0913 0 8
25.8072 -8.6488 -2.4953 0.0913 0 8
25.9435 -8.2311 -2.4953 0.0913 0 8
26.0729 -7.8113 -2.4953 0.0913 0 8
26.1956 -7.3895 -2.4953 0.0913 0 8
26.3115 -6.9658 -2.4953 0.0913 0 8
26.4205 -6.5402 -2.4953 0.0913 0 8
26.5226 -6.1130 -2.4953 0.0913 0 8
26.6178 -5.6841 -2.4953 0.0913 0 8
26.7060 -5.2538 -2.4953 0.0913 0 8
26.7874 -4.8221 -2.4953 0.0913 0 8
26.8617 -4.3891 -2.4953 0.0913 0 8
26.9290 -3.9550 -2.4953 0.0913 0 8
26.9894 -3.5199 -2.4953 0.0913 0 8
27.0427 -3.0838 -2.4953 0.0913 0 8
27.0889 -2.6469 -2.4953 0.0913 0 8
27.1281 -2.2094 -2.4953 0.0913 0 8
27.1602 -1.7713 -2.4953 0.0913 0 8
27.1853 -1.3327 -2.4953 0.0913 0 8
27.2032 -0.8938 -2.4953 0.0913 0 8
27.2141 -0.4546 -2.4953 0.0913 0 8
27.2179 -0.0153 -2.4953 0.0913 0 8
27.2146 0.4240 -2.4953 0.0913 0 8
27.2042 0.8631 -2.4953 0.0913 0 8
27.1868 1.3021 -2.4953 0.0913 0 8
27.1622 1.7407 -2.4953 0.0913 0 8
27.1306 2.1788 -2.4953 0.0913 0 8
27.0919 2.6164 -2.4953 0.0913 0 8
27.0461 3.0533 -2.4953 0.0913 0 8
26.9933 3.4894 -2.4953 0.0913 0 8
26.9335 3.9247 -2.4953 0.0913 0 8
26.8666 4.3588 -2.4953 0.0913 0 8
26.7928 4.7919 -2.4953 0.0913 0 8
26.7119 5.2237 -2.4953 0.0913 0 8
26.6242 5.6541 -2.4953 0.0913 0 8
26.5294 6.0831 -2.4953 0.0913 0 8
26.4278 6.5105 -2.4953 0.0913 0 8
26.3193 6.9361 -2.4953 0.0913 0 8
26.2039 7.3600 -2.4953 0.0913 0 8
26.0817 7.7820 -2.4953 0.0913 0 8
25.9527 8.2019 -2.4953 0.0913 0 8
27.3937 9.1462 -2.6477 0.0913 0 7
27.2426 9.5871 -2.6477 0.0913 0 7
27.0843 10.0255 -2.6477 0.0913 0 7
26.9190 10.4613 -2.6477 0.0913 0 7
26.7466 10.8944 -2.6477 0.0913 0 7
26.5673 11.3247 -2.6477 0.0913 0 7
26.3811 11.7520 -2.6477 0.0913 0 7
26.1880 12.1762 -2.6477 0.0913 0 7
25.9880 12.5973 -2.6477 0.0913 0 7
25.7813 13.0151 -2.6477 0.0913 0 7
25.5679 13.4295 -2.6477 0.0913 0 7
25.3478 13.8404 -2.6477 0.0913 0 7
25.1212 14.2477 -2.6477 0.0913 0 7
24.8879 14.6513 -2.6477 0.0913 0 7
24.6482 15.0511 -2.6477 0.0913 0 7
24.4021 15.4469 -2.6477 0.0913 0 7
24.1496 15.8387 -2.6477 0.0913 0 7
23.8908 16.2264 -2.6477 0.0913 0 7
23.6259 16.6099 -2.6477 0.0913 0 7
23.3547 16.9890 -2.6477 0.0913 0 7
23.0775 17.3638 -2.6477 0.0913 0 7
22.7942 17.7340 -2.6477 0.0913 0 7
22.5050 18.0995 -2.6477 0.0913 0 7
22.2101 18.4604 -2.6477 0.0913 0 6
21.9091 18.8164 -2.6477 0.0913 0 7
21.4113 18.9978 -2.6242 0.6645 0 8
20.7347 19.0044 -2.5786 0.6762 0 8
20.0810 19.0106 -2.5351 0.6878 0 8
22.6000 -10.5389 -2.4953 0.0996 0 8
22.7671 -10.1728 -2.4953 0.0996 0 8
22.9284 -9.8040 -2.4953 0.0996 0 8
23.0836 -9.4327 -2.4953 0.0996 0 8
23.2328 -9.0589 -2.4953 0.0996 0 8
23.3760 -8.6828 -2.4953 0.0996 0 8
23.5131 -8.3044 -2.4953 0.0996 0 8
23.6441 -7.9238 -2.4953 0.0996 0 8
23.7689 -7.5412 -2.4953 0.0996 0 8
23.8875 -7.1566 -2.4953 0.0996 0 8
23.9999 -6.7701 -2.4953 0.0996 0 8
24.1060 -6.3819 -2.4953 0.0996 0 8
24.2059 -5.9920 -2.4953 0.0996 0 8
24.2994 -5.6006 -2.4953 0.0996 0 8
24.3867 -5.2077 -2.4953 0.0996 0 8
24.4675 -4.8134 -2.4953 0.0996 0 8
24.5420 -4.4179 -2.4953 0.0996 0 8
24.6101 -4.0212 -2.4953 0.0996 0 8
24.6718 -3.6235 -2.4953 0.0996 0 8
24.7271 -3.2248 -2.4953 0.0996 0 8
24.7759 -2.8253 -2.4953 0.0996 0 8
24.8183 -2.4251 -2.4953 0.0996 0 8
24.8542 -2.0242 -2.4953 0.0996 0 8
24.8836 -1.6228 -2.4953 0.0996 0 8
24.9066 -1.2210 -2.4953 0.0996 0 8
24.9231 -0.8188 -2.4953 0.0996 0 8
24.9330 -0.4165 -2.4953 0.0996 0 8
9.9950 -0.0056 -1.0002 0.0250 25 10
24.9335 0.3884 -2.4953 0.0996 0 8
24.9240 0.7908 -2.4953 0.0996 0 8
24.9079 1.1929 -2.4953 0.0996 0 8
24.8855 1.5948 -2.4953 0.0996 0 8
24.8565 1.9962 -2.4953 0.0996 0 8
24.8210 2.3971 -2.4953 0.0996 0 8
24.7791 2.7974 -2.4953 0.0996 0 8
24.7307 3.1970 -2.4953 0.0996 0 8
24.6759 3.5957 -2.4953 0.0996 0 8
24.6147 3.9935 -2.4953 0.0996 0 8
24.5470 4.3902 -2.4953 0.0996 0 8
24.4729 4.7858 -2.4953 0.0996 0 8
24.3925 5.1802 -2.4953 0.0996 0 8
24.3057 5.5732 -2.4953 0.0996 0 8
24.2126 5.9648 -2.4953 0.0996 0 8
24.1132 6.3548 -2.4953 0.0996 0 8
24.0075 6.7431 -2.4953 0.0996 0 8
23.8955 7.1297 -2.4953 0.0996 0 8
23.7774 7.5144 -2.4953 0.0996 0 8
23.6530 7.8972 -2.4953 0.0996 0 8
23.5224 8.2779 -2.4953 0.0996 0 8
24.8141 9.1852 -2.6477 0.0996 0 7
24.6626 9.5844 -2.6477 0.0996 0 7
24.5047 9.9812 -2.6477 0.0996 0 7
24.3404 10.3754 -2.6477 0.0996 0 7
24.1698 10.7669 -2.6477 0.0996 0 7
23.9929 11.1556 -2.6477 0.0996 0 7
23.8097 11.5414 -2.6477 0.0996 0 6
23.6203 11.9242 -2.6477 0.0996 0 7
23.4248 12.3038 -2.6477 0.0996 0 7
23.2232 12.6803 -2.6477 0.0996 0 7
23.0155 13.0535 -2.6477 0.0996 0 7
22.8018 13.4232 -2.6477 0.0996 0 7
22.5822 13.7895 -2.6477 0.0996 0 7
22.3567 14.1522 -2.6477 0.0996 0 7
22.1254 14.5111 -2.6477 0.0996 0 7
21.8883 14.8663 -2.6477 0.0996 0 7
21.6455 15.2177 -2.6477 0.0996 0 7
21.3971 15.5650 -2.6477 0.0996 0 7
21.1431 15.9083 -2.6477 0.0996 0 7
20.8836 16.2475 -2.6477 0.0996 0 7
20.6187 16.5824 -2.6477 0.0996 0 7
20.3483 16.9130 -2.6477 0.0996 0 7
20.0727 17.2392 -2.6477 0.0996 0 7
19.7919 17.5610 -2.6477 0.0996 0 7
19.5059 17.8781 -2.6477 0.0996 0 7
19.2148 18.1906 -2.6477 0.0996 0 7
20.8494 -9.7226 -2.4953 0.1078 0 8
21.0036 -9.3848 -2.4953 0.1078 0 8
21.1524 -9.0446 -2.4953 0.1078 0 8
21.2956 -8.7021 -2.4953 0.1078 0 8
21.4333 -8.3572 -2.4953 0.1078 0 8
21.5653 -8.0102 -2.4953 0.1078 0 8
21.6918 -7.6611 -2.4953 0.1078 0 8
21.8126 -7.3101 -2.4953 0.1078 0 8
21.9278 -6.9571 -2.4953 0.1078 0 8
22.0372 -6.6023 -2.4953 0.1078 0 8
22.1409 -6.2457 -2.4953 0.1078 0 8
22.2388 -5.8876 -2.4953 0.1078 0 8
22.3309 -5.5279 -2.4953 0.1078 0 8
22.4172 -5.1668 -2.4953 0.1078 0 8
22.4977 -4.8043 -2.4953 0.1078 0 8
22.5723 -4.4405 -2.4953 0.1078 0 8
22.6410 -4.0757 -2.4953 0.1078 0 8
22.7039 -3.7097 -2.4953 0.1078 0 8
22.7608 -3.3428 -2.4953 0.1078 0 8
22.8118 -2.9750 -2.4953 0.1078 0 8
22.8568 -2.6065 -2.4953 0.1078 0 8
22.8959 -2.2372 -2.4953 0.1078 0 8
22.9290 -1.8674 -2.4953 0.1078 0 8
22.9562 -1.4971 -2.4953 0.1078 0 8
9.4991 -0.4657 -1.0316 0.1403 25 10
9.3732 -0.3080 -1.0172 0.1470 25 10
9.2895 -0.1552 -1.0077 0.1526 25 10
9.2340 -0.0052 -1.0016 0.1572 25 10
9.2859 0.1447 -1.0073 0.1527 25 10
9.3643 0.2971 -1.0162 0.1472 25 10
9.4907 0.4545 -1.0306 0.1404 25 10
22.9579 1.4713 -2.4953 0.1078 0 8
22.9311 1.8416 -2.4953 0.1078 0 8
22.8984 2.2115 -2.4953 0.1078 0 8
22.8597 2.5807 -2.4953 0.1078 0 8
22.8151 2.9493 -2.4953 0.1078 0 8
22.7645 3.3172 -2.4953 0.1078 0 8
22.7080 3.6842 -2.4953 0.1078 0 8
22.6456 4.0502 -2.4953 0.1078 0 8
22.5773 4.4151 -2.4953 0.1078 0 8
22.5031 4.7789 -2.4953 0.1078 0 8
22.4230 5.1415 -2.4953 0.1078 0 8
22.3371 5.5027 -2.4953 0.1078 0 8
22.2454 5.8625 -2.4953 0.1078 0 8
22.1479 6.2208 -2.4953 0.1078 0 8
22.0446 6.5774 -2.4953 0.1078 0 8
21.9356 6.9324 -2.4953 0.1078 0 8
21.8208 7.2855 -2.4953 0.1078 0 8
21.7004 7.6367 -2.4953 0.1078 0 8
21.5743 7.9860 -2.4953 0.1078 0 8
21.4426 8.3331 -2.4953 0.1078 0 8
22.6066 9.2081 -2.6477 0.1078 0 7
22.4550 9.5718 -2.6477 0.1078 0 7
22.2976 9.9329 -2.6477 0.1078 0 7
22.1344 10.2915 -2.6477 0.1078 0 7
21.9654 10.6474 -2.6477 0.1078 0 7
21.7907 11.0005 -2.6477 0.1078 0 7
21.6104 11.3508 -2.6477 0.1078 0 7
21.4243 11.6981 -2.6477 0.1078 0 7
21.2327 12.0424 -2.6477 0.1078 0 7
21.0356 12.3835 -2.6477 0.1078 0 7
20.8330 12.7214 -2.6477 0.1078 0 7
20.6250 13.0559 -2.6477 0.1078 0 7
20.4116 13.3871 -2.6477 0.1078 0 7
20.1929 13.7148 -2.6477 0.1078 0 7
19.9689 14.0389 -2.6477 0.1078 0 7
19.7397 14.3594 -2.6477 0.1078 0 7
19.5054 14.6761 -2.6477 0.1078 0 7
19.2660 14.9890 -2.6477 0.1078 0 7
19.0216 15.2980 -2.6477 0.1078 0 7
18.7722 15.6030 -2.6477 0.1078 0 7
18.5179 15.9039 -2.6477 0.1078 0 7
18.2588 16.2007 -2.6477 0.1078 0 7
17.9950 16.4933 -2.6477 0.1078 0 7
17.7264 16.7816 -2.6477 0.1078 0 7
19.3481 -9.0225 -2.4953 0.1161 0 8
19.4912 -8.7091 -2.4953 0.1161 0 8
19.6292 -8.3933 -2.4953 0.1161 0 8
19.7621 -8.0754 -2.4953 0.1161 0 8
19.8899 -7.7554 -2.4953 0.1161 0 8
20.0125 -7.4334 -2.4953 0.1161 0 8
20.1298 -7.1095 -2.4953 0.1161 0 8
20.2419 -6.7837 -2.4953 0.1161 0 8
20.3488 -6.4561 -2.4953 0.1161 0 8
20.4503 -6.1268 -2.4953 0.1161 0 8
20.5466 -5.7960 -2.4953 0.1161 0 8
20.6374 -5.4636 -2.4953 0.1161 0 8
20.7229 -5.1298 -2.4953 0.1161 0 8
20.8030 -4.7947 -2.4953 0.1161 0 8
20.8777 -4.4583 -2.4953 0.1161 0 8
20.9469 -4.1208 -2.4953 0.1161 0 8
21.0107 -3.7822 -2.4953 0.1161 0 8
21.0690 -3.4426 -2.4953 0.1161 0 8
21.1218 -3.1021 -2.4953 0.1161 0 8
21.1691 -2.7608 -2.4953 0.1161 0 8
21.2109 -2.4188 -2.4953 0.1161 0 8
21.2472 -2.0761 -2.4953 0.1161 0 8
21.2779 -1.7329 -2.4953 0.1161 0 8
9.2100 -0.6006 -1.0788 0.1134 25 10
9.0329 -0.4428 -1.0571 0.3113 25 10
8.9809 -0.2951 -1.0503 0.3133 25 10
8.9494 -0.1495 -1.0462 0.3179 25 10
8.9276 -0.0050 -1.0435 0.3187 25 10
8.9479 0.1394 -1.0460 0.3179 25 10
8.9773 0.2848 -1.0498 0.3134 25 10
9.0292 0.4324 -1.0566 0.3114 25 10
9.1800 0.5883 -1.0752 0.1202 25 10
21.2799 1.7090 -2.4953 0.1161 0 8
21.2495 2.0522 -2.4953 0.1161 0 8
21.2136 2.3949 -2.4953 0.1161 0 8
21.1722 2.7370 -2.4953 0.1161 0 8
21.1253 3.0783 -2.4953 0.1161 0 8
21.0729 3.4189 -2.4953 0.1161 0 8
21.0149 3.7585 -2.4953 0.1161 0 8
20.9515 4.0972 -2.4953 0.1161 0 8
20.8827 4.4348 -2.4953 0.1161 0 8
20.8084 4.7713 -2.4953 0.1161 0 8
20.7287 5.1065 -2.4953 0.1161 0 8
20.6436 5.4404 -2.4953 0.1161 0 8
20.5531 5.7728 -2.4953 0.1161 0 8
20.4572 6.1038 -2.4953 0.1161 0 8
20.3560 6.4332 -2.4953 0.1161 0 8
20.2496 6.7609 -2.4953 0.1161 0 8
20.1378 7.0868 -2.4953 0.1161 0 8
20.0208 7.4109 -2.4953 0.1161 0 8
19.8986 7.7331 -2.4953 0.1161 0 8
19.7712 8.0532 -2.4953 0.1161 0 8
19.6387 8.3712 -2.4953 0.1161 0 8
20.6920 9.2177 -2.6477 0.1161 0 7
20.5406 9.5504 -2.6477 0.1161 0 7
20.3837 9.8807 -2.6477 0.1161 0 7
20.2216 10.2084 -2.6477 0.1161 0 7
20.0542 10.5334 -2.6477 0.1161 0 7
19.8816 10.8557 -2.6477 0.1161 0 7
19.7038 11.1752 -2.6477 0.1161 0 7
19.5209 11.4918 -2.6477 0.1161 0 6
19.3329 11.8053 -2.6477 0.1161 0 7
19.1398 12.1158 -2.6477 0.1161 0 7
18.9418 12.4231 -2.6477 0.1161 0 7
18.7388 12.7272 -2.6477 0.1161 0 7
18.5310 13.0280 -2.6477 0.1161 0 7
18.3183 13.3254 -2.6477 0.1161 0 7
18.1008 13.6193 -2.6477 0.1161 0 7
17.8787 13.9096 -2.6477 0.1161 0 7
17.6518 14.1964 -2.6477 0.1161 0 7
17.4204 14.4794 -2.6477 0.1161 0 7
17.1845 14.7587 -2.6477 0.1161 0 7
16.9440 15.0341 -2.6477 0.1161 0 7
16.6992 15.3056 -2.6477 0.1161 0 7
16.4500 15.5732 -2.6477 0.1161 0 7
18.0461 -8.4153 -2.4953 0.1243 0 8
18.1796 -8.1230 -2.4953 0.1243 0 8
18.3083 -7.8285 -2.4953 0.1243 0 8
18.4323 -7.5320 -2.4953 0.1243 0 8
18.5514 -7.2336 -2.4953 0.1243 0 8
18.6657 -6.9332 -2.4953 0.1243 0 8
18.7752 -6.6311 -2.4953 0.1243 0 8
18.8798 -6.3272 -2.4953 0.1243 0 8
18.9794 -6.0216 -2.4953 0.1243 0 8
19.0742 -5.7145 -2.4953 0.1243 0 8
19.1639 -5.4059 -2.4953 0.1243 0 8
19.2487 -5.0959 -2.4953 0.1243 0 8
19.3284 -4.7846 -2.4953 0.1243 0 8
19.4031 -4.4720 -2.4953 0.1243 0 8
19.4727 -4.1583 -2.4953 0.1243 0 8
19.5373 -3.8435 -2.4953 0.1243 0 8
19.5968 -3.5277 -2.4953 0.1243 0 8
19.6512 -3.2109 -2.4953 0.1243 0 8
19.7005 -2.8933 -2.4953 0.1243 0 8
19.7446 -2.5750 -2.4953 0.1243 0 8
19.7836 -2.2560 -2.4953 0.1243 0 8
19.8174 -1.9364 -2.4953 0.1243 0 8
19.8461 -1.6163 -2.4953 0.1243 0 8
8.8738 -0.5787 -1.1144 0.2741 25 10
8.8030 -0.4315 -1.1045 0.3197 25 10
8.7535 -0.2876 -1.0976 0.3211 25 10
8.7268 -0.1458 -1.0938 0.3293 25 10
8.7041 -0.0049 -1.0908 0.3265 25 10
8.7252 0.1359 -1.0935 0.3293 25 10
8.7501 0.2776 -1.0971 0.3213 25 10
8.7995 0.4214 -1.1040 0.3198 25 10
8.8648 0.5681 -1.1132 0.2966 25 10
19.8479 1.5940 -2.4953 0.1243 0 8
19.8196 1.9141 -2.4953 0.1243 0 8
19.7861 2.2337 -2.4953 0.1243 0 8
19.7475 2.5528 -2.4953 0.1243 0 8
19.7037 2.8712 -2.4953 0.1243 0 8
19.6548 3.1888 -2.4953 0.1243 0 8
19.6008 3.5056 -2.4953 0.1243 0 8
19.5416 3.8215 -2.4953 0.1243 0 8
19.4774 4.1364 -2.4953 0.1243 0 8
19.4081 4.4502 -2.4953 0.1243 0 8
19.3338 4.7629 -2.4953 0.1243 0 8
19.2544 5.0743 -2.4953 0.1243 0 8
19.1700 5.3844 -2.4953 0.1243 0 8
19.0806 5.6931 -2.4953 0.1243 0 8
18.9862 6.0003 -2.4953 0.1243 0 8
18.8869 6.3059 -2.4953 0.1243 0 8
18.7827 6.6099 -2.4953 0.1243 0 8
18.6735 6.9122 -2.4953 0.1243 0 8
18.5596 7.2127 -2.4953 0.1243 0 8
18.4407 7.5113 -2.4953 0.1243 0 8
18.3171 7.8079 -2.4953 0.1243 0 8
18.1887 8.1025 -2.4953 0.1243 0 8
18.0556 8.3950 -2.4953 0.1243 0 8
19.0120 9.2158 -2.6477 0.1243 0 7
18.8608 9.5214 -2.6477 0.1243 0 7
18.7047 9.8246 -2.6477 0.1243 0 7
18.5437 10.1252 -2.6477 0.1243 0 7
18.3779 10.4232 -2.6477 0.1243 0 7
18.2073 10.7184 -2.6477 0.1243 0 7
18.0319 11.0109 -2.6477 0.1243 0 7
17.8518 11.3005 -2.6477 0.1243 0 7
17.6671 11.5871 -2.6477 0.1243 0 7
17.4778 11.8708 -2.6477 0.1243 0 7
17.2839 12.1513 -2.6477 0.1243 0 7
17.0856 12.4287 -2.6477 0.1243 0 7
16.8828 12.7028 -2.6477 0.1243 0 7
16.6756 12.9736 -2.6477 0.1243 0 7
16.4640 13.2411 -2.6477 0.1243 0 7
16.2481 13.5051 -2.6477 0.1243 0 7
16.0281 13.7655 -2.6477 0.1243 0 7
15.8038 14.0224 -2.6477 0.1243 0 7
15.5754 14.2757 -2.6477 0.1243 0 7
15.3430 14.5252 -2.6477 0.1243 0 7
16.9060 -7.8837 -2.4953 0.1326 0 8
17.0311 -7.6098 -2.4953 0.1326 0 8
17.1517 -7.3340 -2.4953 0.1326 0 8
17.2678 -7.0562 -2.4953 0.1326 0 8
17.3794 -6.7766 -2.4953 0.1326 0 8
17.4865 -6.4952 -2.4953 0.1326 0 8
17.5891 -6.2121 -2.4953 0.1326 0 8
17.6871 -5.9275 -2.4953 0.1326 0 8
17.7804 -5.6412 -2.4953 0.1326 0 8
17.8692 -5.3535 -2.4953 0.1326 0 8
17.9532 -5.0644 -2.4953 0.1326 0 8
18.0327 -4.7740 -2.4953 0.1326 0 8
18.1073 -4.4824 -2.4953 0.1326 0 8
18.1773 -4.1895 -2.4953 0.1326 0 8
18.2426 -3.8956 -2.4953 0.1326 0 8
18.3030 -3.6007 -2.4953 0.1326 0 8
18.3588 -3.3048 -2.4953 0.1326 0 8
18.4097 -3.0081 -2.4953 0.1326 0 8
18.4559 -2.7106 -2.4953 0.1326 0 8
18.4972 -2.4123 -2.4953 0.1326 0 8
18.5338 -2.1135 -2.4953 0.1326 0 8
18.5655 -1.8141 -2.4953 0.1326 0 8
18.5923 -1.5142 -2.4953 0.1326 0 8
8.6416 -0.5636 -1.1584 0.3039 25 10
8.5914 -0.4212 -1.1506 0.4040 25 10
8.5536 -0.2810 -1.1448 0.4187 25 10
8.5354 -0.1426 -1.1419 0.4227 25 10
8.5174 -0.0048 -1.1393 0.4236 25 10
8.5342 0.1330 -1.1417 0.4228 25 10
8.5520 0.2713 -1.1445 0.4237 25 10
8.5887 0.4113 -1.1502 0.4042 25 10
8.6338 0.5533 -1.1573 0.3603 25 10
18.5940 1.4933 -2.4953 0.1326 0 8
18.5675 1.7932 -2.4953 0.1326 0 8
18.5361 2.0926 -2.4953 0.1326 0 8
18.4999 2.3915 -2.4953 0.1326 0 8
18.4589 2.6898 -2.4953 0.1326 0 8
18.4131 2.9874 -2.4953 0.1326 0 8
18.3625 3.2841 -2.4953 0.1326 0 8
18.3071 3.5801 -2.4953 0.1326 0 8
18.2469 3.8751 -2.4953 0.1326 0 8
18.1820 4.1691 -2.4953 0.1326 0 8
18.1124 4.4620 -2.4953 0.1326 0 8
18.0380 4.7537 -2.4953 0.1326 0 8
17.9589 5.0442 -2.4953 0.1326 0 8
17.8752 5.3334 -2.4953 0.1326 0 8
17.7868 5.6212 -2.4953 0.1326 0 8
17.6937 5.9075 -2.4953 0.1326 0 8
17.5961 6.1923 -2.4953 0.1326 0 8
17.4938 6.4755 -2.4953 0.1326 0 8
17.3870 6.7570 -2.4953 0.1326 0 8
17.2757 7.0367 -2.4953 0.1326 0 8
17.1599 7.3147 -2.4953 0.1326 0 8
17.0397 7.5907 -2.4953 0.1326 0 8
16.9149 7.8647 -2.4953 0.1326 0 8
16.7858 8.1367 -2.4953 0.1326 0 8
16.6523 8.4065 -2.4953 0.1326 0 8
17.5230 9.2039 -2.6477 0.1326 0 7
17.3722 9.4856 -2.6477 0.1326 0 7
17.2169 9.7647 -2.6477 0.1326 0 7
17.0570 10.0413 -2.6477 0.1326 0 7
16.8927 10.3153 -2.6477 0.1326 0 7
16.7240 10.5866 -2.6477 0.1326 0 7
16.5510 10.8551 -2.6477 0.1326 0 7
16.3737 11.1208 -2.6477 0.1326 0 7
16.1920 11.3836 -2.6477 0.1326 0 7
16.0062 11.6435 -2.6477 0.1326 0 7
15.8162 11.9003 -2.6477 0.1326 0 7
15.6221 12.1540 -2.6477 0.1326 0 7
15.4239 12.4046 -2.6477 0.1326 0 7
15.2217 12.6519 -2.6477 0.1326 0 7
15.0155 12.8959 -2.6477 0.1326 0 7
14.8054 13.1366 -2.6477 0.1326 0 7
14.5915 13.3738 -2.6477 0.1326 0 7
14.3737 13.6076 -2.6477 0.1326 0 7
15.8994 -7.4143 -2.4953 0.1408 0 8
16.0170 -7.1567 -2.4953 0.1408 0 8
16.1304 -6.8973 -2.4953 0.1408 0 8
16.2396 -6.6360 -2.4953 0.1408 0 8
16.3446 -6.3731 -2.4953 0.1408 0 8
16.4453 -6.1084 -2.4953 0.1408 0 8
16.5417 -5.8418 -2.4953 0.1408 0 8
16.6339 -5.5745 -2.4953 0.1408 0 8
16.7217 -5.3053 -2.4953 0.1408 0 8
16.8051 -5.0347 -2.4953 0.1408 0 8
16.8842 -4.7629 -2.4953 0.1408 0 8
16.9589 -4.4897 -2.4953 0.1408 0 8
17.0291 -4.2155 -2.4953 0.1408 0 8
17.0949 -3.9401 -2.4953 0.1408 0 8
17.1563 -3.6636 -2.4953 0.1408 0 8
17.2132 -3.3863 -2.4953 0.1408 0 8
17.2656 -3.1080 -2.4953 0.1408 0 8
17.3135 -2.8290 -2.4953 0.1408 0 8
17.3569 -2.5492 -2.4953 0.1408 0 8
17.3958 -2.2687 -2.4953 0.1408 0 8
17.4302 -1.9876 -2.4953 0.1408 0 8
17.4600 -1.7061 -2.4953 0.1408 0 8
17.4852 -1.4241 -2.4953 0.1408 0 8
8.4654 -0.5521 -1.2066 0.3881 25 10
8.4282 -0.4132 -1.2002 0.4241 25 10
8.3950 -0.2758 -1.1947 0.4311 25 10
8.3776 -0.1399 -1.1918 0.4322 25 10
8.3597 -0.0047 -1.1890 0.4311 25 10
8.3763 0.1305 -1.1916 0.4322 25 10
8.3938 0.2663 -1.1945 0.4312 25 10
8.4258 0.4035 -1.1998 0.4243 25 10
8.4601 0.5422 -1.2058 0.4095 25 10
8.9891 0.7219 -1.2827 0.0977 25 10
17.4619 1.6864 -2.4953 0.1408 0 8
17.4324 1.9680 -2.4953 0.1408 0 8
17.3984 2.2491 -2.4953 0.1408 0 8
17.3598 2.5296 -2.4953 0.1408 0 8
17.3167 2.8095 -2.4953 0.1408 0 8
17.2691 3.0886 -2.4953 0.1408 0 8
17.2170 3.3669 -2.4953 0.1408 0 8
17.1604 3.6443 -2.4953 0.1408 0 8
17.0994 3.9208 -2.4953 0.1408 0 8
17.0339 4.1963 -2.4953 0.1408 0 8
16.9639 4.4706 -2.4953 0.1408 0 8
16.8896 4.7439 -2.4953 0.1408 0 8
16.8108 5.0158 -2.4953 0.1408 0 8
16.7277 5.2865 -2.4953 0.1408 0 8
16.6402 5.5558 -2.4953 0.1408 0 8
16.5483 5.8236 -2.4953 0.1408 0 8
16.4522 6.0899 -2.4953 0.1408 0 8
16.3517 6.3547 -2.4953 0.1408 0 8
16.2471 6.6177 -2.4953 0.1408 0 8
16.1381 6.8791 -2.4953 0.1408 0 8
16.0250 7.1387 -2.4953 0.1408 0 8
15.9077 7.3964 -2.4953 0.1408 0 8
15.7863 7.6521 -2.4953 0.1408 0 8
15.6607 7.9059 -2.4953 0.1408 0 8
15.5311 8.1577 -2.4953 0.1408 0 8
15.3974 8.4073 -2.4953 0.1408 0 8
16.1917 9.1833 -2.6477 0.1408 0 7
16.0414 9.4434 -2.6477 0.1408 0 7
15.8869 9.7011 -2.6477 0.1408 0 7
15.7282 9.9562 -2.6477 0.1408 0 7
15.5655 10.2088 -2.6477 0.1408 0 7
15.3987 10.4586 -2.6477 0.1408 0 7
15.2279 10.7058 -2.6477 0.1408 0 7
15.0531 10.9502 -2.6477 0.1408 0 7
14.8744 11.1917 -2.6477 0.1408 0 7
14.6918 11.4303 -2.6477 0.1408 0 6
14.5055 11.6659 -2.6477 0.1408 0 7
14.3153 11.8985 -2.6477 0.1408 0 7
14.1214 12.1280 -2.6477 0.1408 0 7
13.9238 12.3544 -2.6477 0.1408 0 7
13.7226 12.5775 -2.6477 0.1408 0 7
13.5178 12.7973 -2.6477 0.1408 0 7
15.0039 -6.9967 -2.4953 0.1490 0 8
15.1148 -6.7536 -2.4953 0.1490 0 8
15.2219 -6.5088 -2.4953 0.1490 0 8
15.3249 -6.2623 -2.4953 0.1490 0 8
15.4240 -6.0141 -2.4953 0.1490 0 8
15.5190 -5.7644 -2.4953 0.1490 0 8
15.6101 -5.5132 -2.4953 0.1490 0 8
15.6970 -5.2605 -2.4953 0.1490 0 8
15.7799 -5.0065 -2.4953 0.1490 0 8
15.8586 -4.7512 -2.4953 0.1490 0 8
15.9332 -4.4946 -2.4953 0.1490 0 8
16.0037 -4.2369 -2.4953 0.1490 0 8
16.0700 -3.9780 -2.4953 0.1490 0 8
16.1321 -3.7181 -2.4953 0.1490 0 8
16.1900 -3.4573 -2.4953 0.1490 0 8
16.2437 -3.1955 -2.4953 0.1490 0 8
16.2932 -2.9330 -2.4953 0.1490 0 8
16.3384 -2.6696 -2.4953 0.1490 0 8
16.3793 -2.4056 -2.4953 0.1490 0 8
16.4160 -2.1409 -2.4953 0.1490 0 8
16.4484 -1.8757 -2.4953 0.1490 0 8
16.4766 -1.6100 -2.4953 0.1490 0 8
8.5688 -0.6979 -1.2958 0.1667 25 10
8.3317 -0.5434 -1.2585 0.5111 25 10
8.2956 -0.4067 -1.2519 0.5138 25 10
8.2606 -0.2714 -1.2458 0.5202 25 10
8.2456 -0.1377 -1.2430 0.5140 25 10
8.2316 -0.0046 -1.2407 0.5149 25 10
8.2447 0.1284 -1.2428 0.5140 25 10
8.2595 0.2621 -1.2455 0.5202 25 10
8.2930 0.3972 -1.2514 0.5140 25 10
8.3291 0.5338 -1.2580 0.5113 25 10
8.5238 0.6845 -1.2889 0.1676 25 10
16.4784 1.5914 -2.4953 0.1490 0 8
16.4505 1.8572 -2.4953 0.1490 0 8
16.4184 2.1224 -2.4953 0.1490 0 8
16.3820 2.3871 -2.4953 0.1490 0 8
16.3414 2.6512 -2.4953 0.1490 0 8
16.2964 2.9146 -2.4953 0.1490 0 8
16.2473 3.1773 -2.4953 0.1490 0 8
16.1939 3.4391 -2.4953 0.1490 0 8
16.1363 3.7000 -2.4953 0.1490 0 8
16.0745 3.9599 -2.4953 0.1490 0 8
16.0085 4.2188 -2.4953 0.1490 0 8
15.9383 4.4767 -2.4953 0.1490 0 8
15.8640 4.7333 -2.4953 0.1490 0 8
15.7855 4.9887 -2.4953 0.1490 0 8
15.7029 5.2429 -2.4953 0.1490 0 8
15.6163 5.4956 -2.4953 0.1490 0 8
15.5255 5.7469 -2.4953 0.1490 0 8
15.4308 5.9967 -2.4953 0.1490 0 8
15.3320 6.2450 -2.4953 0.1490 0 8
15.2292 6.4916 -2.4953 0.1490 0 8
15.1224 6.7366 -2.4953 0.1490 0 8
15.0117 6.9798 -2.4953 0.1490 0 8
14.8971 7.2212 -2.4953 0.1490 0 8
14.7786 7.4606 -2.4953 0.1490 0 8
14.6563 7.6982 -2.4953 0.1490 0 8
14.5301 7.9337 -2.4953 0.1490 0 8
14.4002 8.1672 -2.4953 0.1490 0 8
14.2665 8.3986 -2.4953 0.1490 0 8
14.9920 9.1547 -2.6477 0.1490 0 7
14.8423 9.3954 -2.6477 0.1490 0 7
14.6888 9.6338 -2.6477 0.1490 0 7
14.5314 9.8696 -2.6477 0.1490 0 7
14.3702 10.1028 -2.6477 0.1490 0 7
14.2053 10.3334 -2.6477 0.1490 0 7
14.0366 10.5613 -2.6477 0.1490 0 7
13.8644 10.7865 -2.6477 0.1490 0 7
13.6885 11.0089 -2.6477 0.1490 0 7
13.5090 11.2284 -2.6477 0.1490 0 7
13.3260 11.4449 -2.6477 0.1490 0 6
13.1396 11.6585 -2.6477 0.1490 0 7
12.9497 11.8691 -2.6477 0.1490 0 7
12.7565 12.0765 -2.6477 0.1490 0 7
14.2020 -6.6227 -2.4953 0.1573 0 8
14.3070 -6.3927 -2.4953 0.1573 0 8
14.4083 -6.1609 -2.4953 0.1573 0 8
14.5059 -5.9276 -2.4953 0.1573 0 8
14.5996 -5.6927 -2.4953 0.1573 0 8
14.6896 -5.4563 -2.4953 0.1573 0 8
14.7758 -5.2185 -2.4953 0.1573 0 8
14.8581 -4.9794 -2.4953 0.1573 0 8
14.9365 -4.7389 -2.4953 0.1573 0 8
15.0110 -4.4972 -2.4953 0.1573 0 8
15.0816 -4.2544 -2.4953 0.1573 0 8
15.1483 -4.0104 -2.4953 0.1573 0 8
15.2111 -3.7654 -2.4953 0.1573 0 8
15.2699 -3.5194 -2.4953 0.1573 0 8
15.3247 -3.2725 -2.4953 0.1573 0 8
15.3755 -3.0248 -2.4953 0.1573 0 8
15.4223 -2.7762 -2.4953 0.1573 0 8
15.4651 -2.5269 -2.4953 0.1573 0 8
15.5039 -2.2770 -2.4953 0.1573 0 8
15.5386 -2.0265 -2.4953 0.1573 0 8
15.5693 -1.7754 -2.4953 0.1573 0 8
15.5959 -1.5239 -2.4953 0.1573 0 8
8.3323 -0.6786 -1.3312 0.3401 25 10
8.2088 -0.5353 -1.3099 0.5181 25 10
8.1724 -0.4006 -1.3029 0.5127 25 10
8.1396 -0.2674 -1.2968 0.5272 25 10
8.1246 -0.1357 -1.2939 0.5284 25 10
8.1093 -0.0046 -1.2913 0.5220 25 10
8.1235 0.1266 -1.2937 0.5285 25 10
8.1386 0.2582 -1.2966 0.5273 25 10
8.1698 0.3913 -1.3024 0.5129 25 10
8.2064 0.5259 -1.3094 0.5183 25 10
8.3142 0.6677 -1.3282 0.3408 25 10
15.5977 1.5064 -2.4953 0.1573 0 8
15.5713 1.7579 -2.4953 0.1573 0 8
15.5409 2.0090 -2.4953 0.1573 0 8
15.5065 2.2596 -2.4953 0.1573 0 8
15.4680 2.5095 -2.4953 0.1573 0 8
15.4255 2.7588 -2.4953 0.1573 0 8
15.3789 3.0074 -2.4953 0.1573 0 8
15.3284 3.2553 -2.4953 0.1573 0 8
15.2738 3.5022 -2.4953 0.1573 0 8
15.2153 3.7483 -2.4953 0.1573 0 8
15.1529 3.9934 -2.4953 0.1573 0 8
15.0864 4.2374 -2.4953 0.1573 0 8
15.0161 4.4803 -2.4953 0.1573 0 8
14.9418 4.7221 -2.4953 0.1573 0 8
14.8636 4.9626 -2.4953 0.1573 0 8
14.7816 5.2019 -2.4953 0.1573 0 8
14.6957 5.4398 -2.4953 0.1573 0 8
14.6060 5.6762 -2.4953 0.1573 0 8
14.5125 5.9112 -2.4953 0.1573 0 8
14.4152 6.1447 -2.4953 0.1573 0 8
14.3142 6.3765 -2.4953 0.1573 0 8
14.2094 6.6067 -2.4953 0.1573 0 8
14.1009 6.8352 -2.4953 0.1573 0 8
13.9888 7.0619 -2.4953 0.1573 0 8
13.8730 7.2867 -2.4953 0.1573 0 8
13.7536 7.5097 -2.4953 0.1573 0 8
13.6306 7.7307 -2.4953 0.1573 0 8
13.5040 7.9497 -2.4953 0.1573 0 8
13.3739 8.1666 -2.4953 0.1573 0 8
13.2404 8.3814 -2.4953 0.1573 0 8
13.9037 9.1189 -2.6477 0.1573 0 7
13.7547 9.3421 -2.6477 0.1573 0 7
13.6022 9.5629 -2.6477 0.1573 0 7
13.4460 9.7811 -2.6477 0.1573 0 7
13.2864 9.9969 -2.6477 0.1573 0 7
13.1234 10.2100 -2.6477 0.1573 0 7
12.9569 10.4205 -2.6477 0.1573 0 7
12.7870 10.6282 -2.6477 0.1573 0 7
12.6138 10.8332 -2.6477 0.1573 0 7
12.4373 11.0354 -2.6477 0.1573 0 7
12.2576 11.2347 -2.6477 0.1573 0 7
12.0746 11.4311 -2.6477 0.1573 0 6
13.4796 -6.2859 -2.4953 0.1655 0 8
13.5793 -6.0675 -2.4953 0.1655 0 8
13.6754 -5.8475 -2.4953 0.1655 0 8
13.7680 -5.6261 -2.4953 0.1655 0 8
13.8570 -5.4031 -2.4953 0.1655 0 8
13.9424 -5.1788 -2.4953 0.1655 0 8
14.0242 -4.9531 -2.4953 0.1655 0 8
14.1023 -4.7261 -2.4953 0.1655 0 8
14.1768 -4.4979 -2.4953 0.1655 0 8
14.2475 -4.2685 -2.4953 0.1655 0 8
14.3145 -4.0380 -2.4953 0.1655 0 8
14.3779 -3.8064 -2.4953 0.1655 0 8
14.4374 -3.5739 -2.4953 0.1655 0 8
14.4932 -3.3404 -2.4953 0.1655 0 8
14.5452 -3.1061 -2.4953 0.1655 0 8
14.5935 -2.8709 -2.4953 0.1655 0 8
14.6379 -2.6350 -2.4953 0.1655 0 8
14.6785 -2.3984 -2.4953 0.1655 0 8
14.7153 -2.1612 -2.4953 0.1655 0 8
14.7483 -1.9234 -2.4953 0.1655 0 8
14.7774 -1.6851 -2.4953 0.1655 0 8
14.8027 -1.4464 -2.4953 0.1655 0 8
8.1938 -0.6673 -1.3792 0.3453 25 10
8.0561 -0.5254 -1.3544 0.3500 25 10
8.0099 -0.3927 -1.3454 0.3523 25 10
7.9642 -0.2617 -1.3369 0.3445 25 10
7.9449 -0.1327 -1.3331 0.3455 25 10
7.9325 -0.0045 -1.3308 0.3630 25 10
7.9435 0.1237 -1.3328 0.3456 25 10
7.9629 0.2526 -1.3366 0.3446 25 10
8.0067 0.3835 -1.3448 0.3525 25 10
8.0529 0.5161 -1.3538 0.3502 25 10
8.1763 0.6566 -1.3762 0.3461 25 10
14.8043 1.4298 -2.4953 0.1655 0 8
14.7793 1.6685 -2.4953 0.1655 0 8
14.7504 1.9068 -2.4953 0.1655 0 8
14.7178 2.1446 -2.4953 0.1655 0 8
14.6812 2.3819 -2.4953 0.1655 0 8
14.6409 2.6185 -2.4953 0.1655 0 8
14.5967 2.8545 -2.4953 0.1655 0 8
14.5487 3.0897 -2.4953 0.1655 0 8
14.4970 3.3241 -2.4953 0.1655 0 8
14.4414 3.5576 -2.4953 0.1655 0 8
14.3821 3.7902 -2.4953 0.1655 0 8
14.3191 4.0219 -2.4953 0.1655 0 8
14.2523 4.2524 -2.4953 0.1655 0 8
14.1818 4.4819 -2.4953 0.1655 0 8
14.1076 4.7102 -2.4953 0.1655 0 8
14.0298 4.9373 -2.4953 0.1655 0 8
13.9483 5.1631 -2.4953 0.1655 0 8
13.8631 5.3875 -2.4953 0.1655 0 8
13.7744 5.6106 -2.4953 0.1655 0 8
13.6820 5.8321 -2.4953 0.1655 0 8
13.5861 6.0522 -2.4953 0.1655 0 8
13.4867 6.2707 -2.4953 0.1655 0 8
13.3837 6.4875 -2.4953 0.1655 0 8
13.2773 6.7027 -2.4953 0.1655 0 8
13.1673 6.9161 -2.4953 0.1655 0 8
13.0540 7.1277 -2.4953 0.1655 0 8
12.9373 7.3375 -2.4953 0.1655 0 8
12.8172 7.5453 -2.4953 0.1655 0 8
12.6937 7.7512 -2.4953 0.1655 0 8
12.5670 7.9551 -2.4953 0.1655 0 8
12.4369 8.1569 -2.4953 0.1655 0 8
12.3036 8.3565 -2.4953 0.1655 0 8
12.9103 9.0765 -2.6477 0.1655 0 7
12.7621 9.2836 -2.6477 0.1655 0 7
12.6106 9.4884 -2.6477 0.1655 0 7
12.4559 9.6907 -2.6477 0.1655 0 7
12.2978 9.8905 -2.6477 0.1655 0 7
12.1366 10.0877 -2.6477 0.1655 0 7
11.9722 10.2822 -2.6477 0.1655 0 7
11.8047 10.4741 -2.6477 0.1655 0 7
11.6341 10.6633 -2.6477 0.1655 0 7
11.4605 10.8496 -2.6477 0.1655 0 7
12.8254 -5.9808 -2.4953 0.1736 0 8
12.9203 -5.7730 -2.4953 0.1736 0 8
13.0118 -5.5638 -2.4953 0.1736 0 8
13.0999 -5.3530 -2.4953 0.1736 0 8
13.1846 -5.1409 -2.4953 0.1736 0 8
13.2658 -4.9275 -2.4953 0.1736 0 8
13.3436 -4.7127 -2.4953 0.1736 0 8
13.4179 -4.4967 -2.4953 0.1736 0 8
13.4888 -4.2796 -2.4953 0.1736 0 8
13.5561 -4.0613 -2.4953 0.1736 0 8
13.6199 -3.8420 -2.4953 0.1736 0 8
13.6801 -3.6217 -2.4953 0.1736 0 8
13.7368 -3.4004 -2.4953 0.1736 0 8
13.7899 -3.1783 -2.4953 0.1736 0 8
13.8394 -2.9553 -2.4953 0.1736 0 8
13.8853 -2.7316 -2.4953 0.1736 0 8
13.9275 -2.5071 -2.4953 0.1736 0 8
13.9662 -2.2820 -2.4953 0.1736 0 8
14.0012 -2.0563 -2.4953 0.1736 0 8
14.0326 -1.8301 -2.4953 0.1736 0 8
14.0603 -1.6034 -2.4953 0.1736 0 8
8.3745 -0.8183 -1.4837 0.0869 25 10
8.0349 -0.6544 -1.4215 0.3637 25 10
7.8720 -0.5134 -1.3910 0.3577 25 10
7.8221 -0.3835 -1.3809 0.3419 25 10
7.7773 -0.2555 -1.3721 0.3523 25 10
7.7661 -0.1297 -1.3696 0.3702 25 10
7.7561 -0.0044 -1.3676 0.3707 25 10
7.7654 0.1210 -1.3694 0.3702 25 10
7.7761 0.2467 -1.3718 0.3524 25 10
7.8181 0.3744 -1.3801 0.3421 25 10
7.8690 0.5043 -1.3904 0.3578 25 10
8.0212 0.6442 -1.4189 0.3643 25 10
8.2918 0.8008 -1.4689 0.0878 25 10
14.0621 1.5875 -2.4953 0.1736 0 8
14.0346 1.8143 -2.4953 0.1736 0 8
14.0035 2.0406 -2.4953 0.1736 0 8
13.9687 2.2663 -2.4953 0.1736 0 8
13.9303 2.4914 -2.4953 0.1736 0 8
13.8883 2.7159 -2.4953 0.1736 0 8
13.8427 2.9397 -2.4953 0.1736 0 8
13.7934 3.1628 -2.4953 0.1736 0 8
13.7406 3.3850 -2.4953 0.1736 0 8
13.6842 3.6063 -2.4953 0.1736 0 8
13.6242 3.8267 -2.4953 0.1736 0 8
13.5606 4.0461 -2.4953 0.1736 0 8
13.4936 4.2644 -2.4953 0.1736 0 8
13.4230 4.4816 -2.4953 0.1736 0 8
13.3489 4.6977 -2.4953 0.1736 0 8
13.2714 4.9125 -2.4953 0.1736 0 8
13.1903 5.1261 -2.4953 0.1736 0 8
13.1059 5.3383 -2.4953 0.1736 0 8
13.0180 5.5491 -2.4953 0.1736 0 8
12.9268 5.7585 -2.4953 0.1736 0 8
12.8322 5.9664 -2.4953 0.1736 0 8
12.7342 6.1727 -2.4953 0.1736 0 8
12.6329 6.3774 -2.4953 0.1736 0 8
12.5283 6.5805 -2.4953 0.1736 0 8
12.4205 6.7818 -2.4953 0.1736 0 8
12.3094 6.9814 -2.4953 0.1736 0 8
12.1951 7.1792 -2.4953 0.1736 0 8
12.0777 7.3751 -2.4953 0.1736 0 8
11.9571 7.5690 -2.4953 0.1736 0 8
11.8334 7.7610 -2.4953 0.1736 0 8
11.7066 7.9510 -2.4953 0.1736 0 8
11.5767 8.1389 -2.4953 0.1736 0 8
11.4438 8.3247 -2.4953 0.1736 0 8
11.9986 9.0279 -2.6477 0.1736 0 7
11.8514 9.2204 -2.6477 0.1736 0 7
11.7010 9.4105 -2.6477 0.1736 0 7
11.5476 9.5981 -2.6477 0.1736 0 7
11.3912 9.7832 -2.6477 0.1736 0 7
11.2318 9.9658 -2.6477 0.1736 0 7
11.0695 10.1458 -2.6477 0.1736 0 7
10.9043 10.3231 -2.6477 0.1736 0 7
12.2302 -5.7032 -2.4953 0.1818 0 8
12.3206 -5.5051 -2.4953 0.1818 0 8
12.4079 -5.3055 -2.4953 0.1818 0 8
12.4919 -5.1046 -2.4953 0.1818 0 8
12.5726 -4.9023 -2.4953 0.1818 0 8
12.6501 -4.6988 -2.4953 0.1818 0 8
12.7243 -4.4940 -2.4953 0.1818 0 8
12.7952 -4.2880 -2.4953 0.1818 0 8
12.8627 -4.0810 -2.4953 0.1818 0 8
12.9269 -3.8728 -2.4953 0.1818 0 8
12.9877 -3.6637 -2.4953 0.1818 0 8
13.0452 -3.4536 -2.4953 0.1818 0 8
13.0992 -3.2426 -2.4953 0.1818 0 8
13.1498 -3.0308 -2.4953 0.1818 0 8
13.1970 -2.8182 -2.4953 0.1818 0 8
13.2408 -2.6048 -2.4953 0.1818 0 8
13.2811 -2.3908 -2.4953 0.1818 0 8
13.3180 -2.1761 -2.4953 0.1818 0 8
13.3513 -1.9609 -2.4953 0.1818 0 8
13.3813 -1.7451 -2.4953 0.1818 0 8
13.4077 -1.5289 -2.4953 0.1818 0 8
8.1511 -0.7965 -1.5144 0.2656 25 10
7.8934 -0.6429 -1.4644 0.3696 25 10
7.7346 -0.5044 -1.4332 0.8757 25 10
7.6917 -0.3771 -1.4240 0.9183 25 10
7.6613 -0.2517 -1.4174 0.9857 25 10
7.6481 -0.1278 -1.4144 0.9878 25 10
7.6355 -0.0043 -1.4119 0.9968 25 10
7.6472 0.1191 -1.4142 0.9880 25 10
7.6604 0.2430 -1.4172 0.9859 25 10
7.6888 0.3682 -1.4234 0.9188 25 10
7.7313 0.4955 -1.4325 0.9129 25 10
7.8801 0.6329 -1.4618 0.3703 25 10
8.1290 0.7851 -1.5101 0.2663 25 10
13.4094 1.5138 -2.4953 0.1818 0 8
13.3832 1.7301 -2.4953 0.1818 0 8
13.3535 1.9458 -2.4953 0.1818 0 8
13.3204 2.1611 -2.4953 0.1818 0 8
13.2838 2.3758 -2.4953 0.1818 0 8
13.2437 2.5899 -2.4953 0.1818 0 8
13.2002 2.8033 -2.4953 0.1818 0 8
13.1532 3.0160 -2.4953 0.1818 0 8
13.1028 3.2279 -2.4953 0.1818 0 8
13.0490 3.4389 -2.4953 0.1818 0 8
12.9918 3.6491 -2.4953 0.1818 0 8
12.9312 3.8583 -2.4953 0.1818 0 8
12.8673 4.0665 -2.4953 0.1818 0 8
12.8000 4.2736 -2.4953 0.1818 0 8
12.7293 4.4797 -2.4953 0.1818 0 8
12.6554 4.6845 -2.4953 0.1818 0 8
12.5781 4.8882 -2.4953 0.1818 0 8
12.4976 5.0905 -2.4953 0.1818 0 8
12.4138 5.2916 -2.4953 0.1818 0 8
12.3268 5.4912 -2.4953 0.1818 0 8
12.2366 5.6895 -2.4953 0.1818 0 8
12.1432 5.8862 -2.4953 0.1818 0 8
12.0466 6.0814 -2.4953 0.1818 0 8
11.9469 6.2751 -2.4953 0.1818 0 8
11.8440 6.4671 -2.4953 0.1818 0 8
11.7381 6.6574 -2.4953 0.1818 0 8
11.6291 6.8460 -2.4953 0.1818 0 8
11.5171 7.0327 -2.4953 0.1818 0 8
11.4021 7.2177 -2.4953 0.1818 0 8
11.2841 7.4008 -2.4953 0.1818 0 8
11.1632 7.5820 -2.4953 0.1818 0 8
11.0394 7.7611 -2.4953 0.1818 0 8
10.9127 7.9383 -2.4953 0.1818 0 8
10.7832 8.1134 -2.4953 0.1818 0 8
10.6508 8.2864 -2.4953 0.1818 0 8
10.5157 8.4572 -2.4953 0.1818 0 8
11.0117 9.1526 -2.6477 0.1818 0 7
10.8625 9.3291 -2.6477 0.1818 0 7
10.7105 9.5033 -2.6477 0.1818 0 7
10.5557 9.6749 -2.6477 0.1818 0 7
10.3982 9.8440 -2.6477 0.1818 0 7
11.6861 -5.4495 -2.4953 0.1900 0 8
11.7725 -5.2602 -2.4953 0.1900 0 8
11.8559 -5.0695 -2.4953 0.1900 0 8
11.9362 -4.8775 -2.4953 0.1900 0 8
12.0133 -4.6842 -2.4953 0.1900 0 8
12.0874 -4.4897 -2.4953 0.1900 0 8
12.1582 -4.2941 -2.4953 0.1900 0 8
12.2260 -4.0973 -2.4953 0.1900 0 8
12.2905 -3.8994 -2.4953 0.1900 0 8
12.3518 -3.7006 -2.4953 0.1900 0 8
12.4100 -3.5007 -2.4953 0.1900 0 8
12.4648 -3.3000 -2.4953 0.1900 0 8
12.5165 -3.0984 -2.4953 0.1900 0 8
12.5648 -2.8960 -2.4953 0.1900 0 8
12.6100 -2.6928 -2.4953 0.1900 0 8
12.6518 -2.4889 -2.4953 0.1900 0 8
12.6903 -2.2844 -2.4953 0.1900 0 8
12.7255 -2.0793 -2.4953 0.1900 0 8
12.7574 -1.8736 -2.4953 0.1900 0 8
12.7860 -1.6675 -2.4953 0.1900 0 8
12.8112 -1.4609 -2.4953 0.1900 0 8
7.9795 -0.7797 -1.5515 0.1881 25 10
7.8011 -0.6353 -1.5147 0.7050 25 10
7.7122 -0.5030 -1.4956 0.8769 25 10
7.6692 -0.3760 -1.4859 0.9196 25 10
7.6435 -0.2511 -1.4800 0.9865 25 10
7.6304 -0.1275 -1.4768 0.9886 25 10
7.6203 -0.0043 -1.4747 0.9973 25 10
7.6294 0.1189 -1.4766 0.9887 25 10
7.6426 0.2425 -1.4797 0.9866 25 10
7.6663 0.3672 -1.4853 0.9200 25 10
7.7086 0.4940 -1.4948 0.9141 25 10
7.7938 0.6259 -1.5131 0.7057 25 10
7.9463 0.7674 -1.5449 0.2720 25 10
12.8129 1.4465 -2.4953 0.1900 0 8
12.7879 1.6531 -2.4953 0.1900 0 8
12.7595 1.8593 -2.4953 0.1900 0 8
12.7278 2.0650 -2.4953 0.1900 0 8
12.6929 2.2701 -2.4953 0.1900 0 8
12.6546 2.4747 -2.4953 0.1900 0 8
12.6130 2.6786 -2.4953 0.1900 0 8
12.5681 2.8818 -2.4953 0.1900 0 8
12.5199 3.0843 -2.4953 0.1900 0 8
12.4685 3.2859 -2.4953 0.1900 0 8
12.4139 3.4867 -2.4953 0.1900 0 8
12.3560 3.6866 -2.4953 0.1900 0 8
12.2949 3.8856 -2.4953 0.1900 0 8
12.2306 4.0835 -2.4953 0.1900 0 8
12.1631 4.2804 -2.4953 0.1900 0 8
12.0924 4.4761 -2.4953 0.1900 0 8
12.0186 4.6707 -2.4953 0.1900 0 8
11.9416 4.8641 -2.4953 0.1900 0 8
11.8616 5.0562 -2.4953 0.1900 0 8
11.7784 5.2469 -2.4953 0.1900 0 8
11.6922 5.4364 -2.4953 0.1900 0 8
11.6030 5.6244 -2.4953 0.1900 0 8
11.5107 5.8109 -2.4953 0.1900 0 8
11.4154 5.9959 -2.4953 0.1900 0 8
11.3171 6.1794 -2.4953 0.1900 0 8
11.2159 6.3612 -2.4953 0.1900 0 8
11.1118 6.5414 -2.4953 0.1900 0 8
11.0048 6.7199 -2.4953 0.1900 0 8
10.8949 6.8966 -2.4953 0.1900 0 8
10.7822 7.0716 -2.4953 0.1900 0 8
10.6666 7.2447 -2.4953 0.1900 0 8
10.5483 7.4159 -2.4953 0.1900 0 8
10.4272 7.5852 -2.4953 0.1900 0 8
10.3035 7.7525 -2.4953 0.1900 0 8
10.1770 7.9177 -2.4953 0.1900 0 8
10.0479 8.0810 -2.4953 0.1900 0 8
9.9162 8.2421 -2.4953 0.1900 0 8
9.7818 8.4010 -2.4953 0.1900 0 8
10.2341 9.0805 -2.6477 0.1900 0 7
10.0862 9.2445 -2.6477 0.1900 0 7
9.9357 9.4061 -2.6477 0.1900 0 7
11.1868 -5.2167 -2.4953 0.1981 0 8
11.2696 -5.0355 -2.4953 0.1981 0 8
11.3494 -4.8529 -2.4953 0.1981 0 8
11.4262 -4.6691 -2.4953 0.1981 0 8
11.5001 -4.4841 -2.4953 0.1981 0 8
11.5710 -4.2979 -2.4953 0.1981 0 8
11.6388 -4.1106 -2.4953 0.1981 0 8
11.7036 -3.9222 -2.4953 0.1981 0 8
11.7654 -3.7328 -2.4953 0.1981 0 8
11.8241 -3.5425 -2.4953 0.1981 0 8
11.8798 -3.3512 -2.4953 0.1981 0 8
11.9323 -3.1590 -2.4953 0.1981 0 8
11.9817 -2.9660 -2.4953 0.1981 0 8
12.0281 -2.7722 -2.4953 0.1981 0 8
12.0712 -2.5778 -2.4953 0.1981 0 8
12.1113 -2.3826 -2.4953 0.1981 0 8
12.1481 -2.1868 -2.4953 0.1981 0 8
12.1818 -1.9905 -2.4953 0.1981 0 8
12.2124 -1.7936 -2.4953 0.1981 0 8
12.2397 -1.5963 -2.4953 0.1981 0 8
12.2639 -1.3985 -2.4953 0.1981 0 8
7.9383 -0.7757 -1.6124 0.1887 25 10
7.7653 -0.6324 -1.5750 0.7071 25 10
7.6899 -0.5015 -1.5579 0.8780 25 10
7.6468 -0.3749 -1.5477 0.9208 25 10
7.6257 -0.2505 -1.5424 0.9871 25 10
7.6126 -0.1272 -1.5391 0.9892 25 10
7.6052 -0.0043 -1.5374 0.9976 25 10
7.6117 0.1186 -1.5389 0.9894 25 10
7.6248 0.2419 -1.5422 0.9873 25 10
7.6440 0.3661 -1.5470 0.9665 25 10
7.6861 0.4926 -1.5570 0.8785 25 10
7.7580 0.6230 -1.5734 0.7078 25 10
7.8953 0.7625 -1.6035 0.3034 25 10
12.2655 1.3847 -2.4953 0.1981 0 8
12.2415 1.5825 -2.4953 0.1981 0 8
12.2144 1.7798 -2.4953 0.1981 0 8
12.1841 1.9767 -2.4953 0.1981 0 8
12.1506 2.1731 -2.4953 0.1981 0 8
12.1139 2.3690 -2.4953 0.1981 0 8
12.0741 2.5642 -2.4953 0.1981 0 8
12.0312 2.7587 -2.4953 0.1981 0 8
11.9851 2.9525 -2.4953 0.1981 0 8
11.9359 3.1456 -2.4953 0.1981 0 8
11.8835 3.3378 -2.4953 0.1981 0 8
11.8281 3.5291 -2.4953 0.1981 0 8
11.7696 3.7196 -2.4953 0.1981 0 8
11.7081 3.9091 -2.4953 0.1981 0 8
11.6434 4.0975 -2.4953 0.1981 0 8
11.5758 4.2849 -2.4953 0.1981 0 8
11.5051 4.4712 -2.4953 0.1981 0 8
11.4315 4.6563 -2.4953 0.1981 0 8
11.3548 4.8402 -2.4953 0.1981 0 8
11.2752 5.0228 -2.4953 0.1981 0 8
11.1927 5.2041 -2.4953 0.1981 0 8
11.1073 5.3841 -2.4953 0.1981 0 8
11.0189 5.5626 -2.4953 0.1981 0 8
10.9277 5.7398 -2.4953 0.1981 0 8
10.8336 5.9154 -2.4953 0.1981 0 8
10.7368 6.0895 -2.4953 0.1981 0 8
10.6371 6.2619 -2.4953 0.1981 0 8
10.5346 6.4328 -2.4953 0.1981 0 8
10.4294 6.6020 -2.4953 0.1981 0 8
10.3215 6.7695 -2.4953 0.1981 0 8
10.2109 6.9352 -2.4953 0.1981 0 8
10.0977 7.0991 -2.4953 0.1981 0 8
9.9818 7.2611 -2.4953 0.1981 0 8
9.8633 7.4213 -2.4953 0.1981 0 8
9.7422 7.5795 -2.4953 0.1981 0 8
9.6186 7.7357 -2.4953 0.1981 0 8
9.4925 7.8900 -2.4953 0.1981 0 8
9.3639 8.0421 -2.4953 0.1981 0 8
9.2329 8.1922 -2.4953 0.1981 0 8
9.0995 8.3402 -2.4953 0.1981 0 8
9.5112 9.0042 -2.6477 0.1981 0 7
10.7270 -5.0023 -2.4953 0.2063 0 8
10.8064 -4.8285 -2.4953 0.2063 0 8
10.8829 -4.6535 -2.4953 0.2063 0 8
10.9566 -4.4772 -2.4953 0.2063 0 8
11.0274 -4.2998 -2.4953 0.2063 0 8
11.0954 -4.1213 -2.4953 0.2063 0 8
11.1604 -3.9417 -2.4953 0.2063 0 8
11.2226 -3.7610 -2.4953 0.2063 0 8
11.2818 -3.5794 -2.4953 0.2063 0 8
11.3381 -3.3969 -2.4953 0.2063 0 8
11.3915 -3.2134 -2.4953 0.2063 0 8
11.4419 -3.0292 -2.4953 0.2063 0 8
11.4893 -2.8441 -2.4953 0.2063 0 8
11.5337 -2.6583 -2.4953 0.2063 0 8
11.5751 -2.4718 -2.4953 0.2063 0 8
11.6134 -2.2847 -2.4953 0.2063 0 8
11.6488 -2.0969 -2.4953 0.2063 0 8
11.6811 -1.9086 -2.4953 0.2063 0 8
11.7104 -1.7199 -2.4953 0.2063 0 8
11.7367 -1.5307 -2.4953 0.2063 0 8
11.7598 -1.3410 -2.4953 0.2063 0 8
7.9036 -0.7723 -1.6742 0.3025 25 10
7.7296 -0.6295 -1.6350 0.7091 25 10
7.6677 -0.5001 -1.6199 0.8790 25 10
7.6276 -0.3739 -1.6100 0.9668 25 10
7.6080 -0.2500 -1.6048 0.9878 25 10
7.5971 -0.1269 -1.6018 0.9968 25 10
7.5901 -0.0043 -1.6001 0.9979 25 10
7.5966 0.1183 -1.6017 0.9969 25 10
7.6070 0.2414 -1.6045 0.9879 25 10
7.6259 0.3652 -1.6095 0.9671 25 10
7.6638 0.4911 -1.6190 0.8795 25 10
7.7224 0.6202 -1.6333 0.7098 25 10
7.8771 0.7607 -1.6684 0.3036 25 10
11.7613 1.3278 -2.4953 0.2063 0 8
11.7384 1.5174 -2.4953 0.2063 0 8
11.7123 1.7067 -2.4953 0.2063 0 8
11.6833 1.8955 -2.4953 0.2063 0 8
11.6512 2.0838 -2.4953 0.2063 0 8
11.6160 2.2716 -2.4953 0.2063 0 8
11.5778 2.4588 -2.4953 0.2063 0 8
11.5366 2.6453 -2.4953 0.2063 0 8
11.4925 2.8312 -2.4953 0.2063 0 8
11.4453 3.0163 -2.4953 0.2063 0 8
11.3951 3.2006 -2.4953 0.2063 0 8
11.3420 3.3841 -2.4953 0.2063 0 8
11.2859 3.5667 -2.4953 0.2063 0 8
11.2268 3.7484 -2.4953 0.2063 0 8
11.1649 3.9291 -2.4953 0.2063 0 8
11.1000 4.1088 -2.4953 0.2063 0 8
11.0322 4.2874 -2.4953 0.2063 0 8
10.9616 4.4649 -2.4953 0.2063 0 8
10.8881 4.6412 -2.4953 0.2063 0 8
10.8118 4.8163 -2.4953 0.2063 0 8
10.7326 4.9902 -2.4953 0.2063 0 8
10.6507 5.1628 -2.4953 0.2063 0 8
10.5660 5.3340 -2.4953 0.2063 0 8
10.4785 5.5038 -2.4953 0.2063 0 8
10.3883 5.6722 -2.4953 0.2063 0 8
10.2954 5.8392 -2.4953 0.2063 0 8
10.1999 6.0046 -2.4953 0.2063 0 8
10.1016 6.1684 -2.4953 0.2063 0 8
10.0007 6.3306 -2.4953 0.2063 0 8
9.8973 6.4912 -2.4953 0.2063 0 8
9.7912 6.6501 -2.4953 0.2063 0 8
9.6826 6.8073 -2.4953 0.2063 0 8
9.5715 6.9626 -2.4953 0.2063 0 8
9.4579 7.1162 -2.4953 0.2063 0 8
9.3418 7.2679 -2.4953 0.2063 0 8
9.2233 7.4178 -2.4953 0.2063 0 8
9.1024 7.5657 -2.4953 0.2063 0 8
8.9791 7.7116 -2.4953 0.2063 0 8
8.8534 7.8555 -2.4953 0.2063 0 8
8.7255 7.9974 -2.4953 0.2063 0 8
8.5953 8.1371 -2.4953 0.2063 0 8
10.3021 -4.8041 -2.4953 0.2144 0 8
10.3783 -4.6372 -2.4953 0.2144 0 8
10.4518 -4.4691 -2.4953 0.2144 0 8
10.5225 -4.2999 -2.4953 0.2144 0 8
10.5906 -4.1295 -2.4953 0.2144 0 8
10.6558 -3.9580 -2.4953 0.2144 0 8
10.7183 -3.7855 -2.4953 0.2144 0 8
10.7780 -3.6120 -2.4953 0.2144 0 8
10.8349 -3.4376 -2.4953 0.2144 0 8
10.8890 -3.2623 -2.4953 0.2144 0 8
10.9402 -3.0861 -2.4953 0.2144 0 8
10.9886 -2.9092 -2.4953 0.2144 0 8
11.0341 -2.7314 -2.4953 0.2144 0 8
11.0768 -2.5530 -2.4953 0.2144 0 8
11.1165 -2.3739 -2.4953 0.2144 0 8
