ply
format ascii 1.0
element vertex 1405
property float32 x
property float32 y
property float32 z
property float32 CosAngle
property uint32 ObjIdx
property uint32 ObjTag
end_header
9.0891 -6.0752 -2.4953 0.2225 0 8
9.1856 -5.9283 -2.4953 0.2225 0 8
9.2797 -5.7799 -2.4953 0.2225 0 8
9.3714 -5.6300 -2.4953 0.2225 0 8
9.4607 -5.4786 -2.4953 0.2225 0 8
9.5475 -5.3259 -2.4953 0.2225 0 8
9.6319 -5.1717 -2.4953 0.2225 0 8
9.7137 -5.0162 -2.4953 0.2225 0 8
9.7931 -4.8595 -2.4953 0.2225 0 8
9.8700 -4.7014 -2.4953 0.2225 0 8
9.9443 -4.5422 -2.4953 0.2225 0 8
10.0160 -4.3817 -2.4953 0.2225 0 8
10.0851 -4.2202 -2.4953 0.2225 0 8
10.1516 -4.0575 -2.4953 0.2225 0 8
10.2156 -3.8939 -2.4953 0.2225 0 8
10.2768 -3.7292 -2.4953 0.2225 0 8
10.3354 -3.5635 -2.4953 0.2225 0 8
10.3914 -3.3969 -2.4953 0.2225 0 8
10.4446 -3.2294 -2.4953 0.2225 0 8
10.4952 -3.0612 -2.4953 0.2225 0 8
10.5430 -2.8921 -2.4953 0.2225 0 8
10.5882 -2.7222 -2.4953 0.2225 0 8
10.6305 -2.5517 -2.4953 0.2225 0 8
10.6702 -2.3805 -2.4953 0.2225 0 8
10.7071 -2.2087 -2.4953 0.2225 0 8
10.7412 -2.0363 -2.4953 0.2225 0 8
10.7725 -1.8634 -2.4953 0.2225 0 8
10.8011 -1.6900 -2.4953 0.2225 0 8
10.8269 -1.5162 -2.4953 0.2225 0 8
10.8498 -1.3420 -2.4953 0.2225 0 8
8.1961 -0.8802 -1.8815 0.1856 25 10
7.7203 -0.7038 -1.7694 0.7068 25 10
7.6565 -0.5741 -1.7524 0.8765 25 10
7.6061 -0.4475 -1.7390 0.9655 25 10
7.5819 -0.3239 -1.7321 0.9694 25 10
7.5710 -0.2016 -1.7286 0.9964 25 10
7.5642 -0.0797 -1.7266 0.9976 25 10
7.5621 0.0418 -1.7260 0.9979 25 10
7.5689 0.1636 -1.7280 0.9968 25 10
7.5763 0.2856 -1.7305 0.9881 25 10
7.5986 0.4088 -1.7368 0.9667 25 10
7.6394 0.5343 -1.7479 0.8788 25 10
7.6945 0.6626 -1.7627 0.8714 25 10
7.9949 0.8181 -1.8343 0.1922 25 10
10.8564 1.2876 -2.4953 0.2225 0 8
10.8343 1.4619 -2.4953 0.2225 0 8
10.8094 1.6359 -2.4953 0.2225 0 8
10.7817 1.8094 -2.4953 0.2225 0 8
10.7512 1.9825 -2.4953 0.2225 0 8
10.7180 2.1550 -2.4953 0.2225 0 8
10.6820 2.3270 -2.4953 0.2225 0 8
10.6432 2.4984 -2.4953 0.2225 0 8
10.6017 2.6691 -2.4953 0.2225 0 8
10.5574 2.8392 -2.4953 0.2225 0 8
10.5104 3.0085 -2.4953 0.2225 0 8
10.4607 3.1771 -2.4953 0.2225 0 8
10.4083 3.3448 -2.4953 0.2225 0 8
1.0252 -10.4783 -2.4953 0.2306 0 8
1.1935 -10.4605 -2.4953 0.2306 0 8
1.3615 -10.4400 -2.4953 0.2306 0 8
1.5291 -10.4167 -2.4953 0.2306 0 8
1.6963 -10.3908 -2.4953 0.2306 0 8
1.8631 -10.3622 -2.4953 0.2306 0 8
2.0294 -10.3309 -2.4953 0.2306 0 8
2.1952 -10.2970 -2.4953 0.2306 0 8
2.3604 -10.2604 -2.4953 0.2306 0 8
2.5250 -10.2211 -2.4953 0.2306 0 8
2.6890 -10.1792 -2.4953 0.2306 0 8
2.8523 -10.1347 -2.4953 0.2306 0 8
3.0148 -10.0875 -2.4953 0.2306 0 8
3.1765 -10.0377 -2.4953 0.2306 0 8
3.3375 -9.9854 -2.4953 0.2306 0 8
3.4975 -9.9305 -2.4953 0.2306 0 8
3.6567 -9.8730 -2.4953 0.2306 0 8
3.8149 -9.8129 -2.4953 0.2306 0 8
3.9722 -9.7503 -2.4953 0.2306 0 8
4.1284 -9.6852 -2.4953 0.2306 0 8
4.2835 -9.6176 -2.4953 0.2306 0 8
4.4375 -9.5475 -2.4953 0.2306 0 8
4.5904 -9.4750 -2.4953 0.2306 0 8
4.7421 -9.4000 -2.4953 0.2306 0 8
4.8926 -9.3225 -2.4953 0.2306 0 8
5.0418 -9.2427 -2.4953 0.2306 0 8
5.1897 -9.1604 -2.4953 0.2306 0 8
5.3363 -9.0758 -2.4953 0.2306 0 8
5.4815 -8.9889 -2.4953 0.2306 0 8
5.6252 -8.8996 -2.4953 0.2306 0 8
5.7676 -8.8081 -2.4953 0.2306 0 8
5.9084 -8.7142 -2.4953 0.2306 0 8
6.0477 -8.6181 -2.4953 0.2306 0 8
6.1854 -8.5198 -2.4953 0.2306 0 8
6.3216 -8.4193 -2.4953 0.2306 0 8
6.4561 -8.3166 -2.4953 0.2306 0 8
6.5889 -8.2118 -2.4953 0.2306 0 8
6.7201 -8.1048 -2.4953 0.2306 0 8
6.8495 -7.9957 -2.4953 0.2306 0 8
6.9771 -7.8846 -2.4953 0.2306 0 8
7.1029 -7.7714 -2.4953 0.2306 0 8
7.2269 -7.6563 -2.4953 0.2306 0 8
7.3490 -7.5391 -2.4953 0.2306 0 8
7.4693 -7.4200 -2.4953 0.2306 0 8
7.5876 -7.2990 -2.4953 0.2306 0 8
7.7039 -7.1761 -2.4953 0.2306 0 8
7.8183 -7.0514 -2.4953 0.2306 0 8
7.9306 -6.9248 -2.4953 0.2306 0 8
8.0409 -6.7964 -2.4953 0.2306 0 8
8.1491 -6.6663 -2.4953 0.2306 0 8
8.2552 -6.5344 -2.4953 0.2306 0 8
8.3591 -6.4009 -2.4953 0.2306 0 8
8.4609 -6.2657 -2.4953 0.2306 0 8
8.5605 -6.1289 -2.4953 0.2306 0 8
8.6580 -5.9905 -2.4953 0.2306 0 8
8.7531 -5.8506 -2.4953 0.2306 0 8
8.8460 -5.7092 -2.4953 0.2306 0 8
8.9366 -5.5662 -2.4953 0.2306 0 8
9.0250 -5.4219 -2.4953 0.2306 0 8
9.1109 -5.2761 -2.4953 0.2306 0 8
9.1946 -5.1290 -2.4953 0.2306 0 8
9.2758 -4.9805 -2.4953 0.2306 0 8
9.3547 -4.8308 -2.4953 0.2306 0 8
9.4311 -4.6798 -2.4953 0.2306 0 8
9.5051 -4.5276 -2.4953 0.2306 0 8
9.5767 -4.3743 -2.4953 0.2306 0 8
9.6457 -4.2198 -2.4953 0.2306 0 8
9.7123 -4.0642 -2.4953 0.2306 0 8
9.7764 -3.9076 -2.4953 0.2306 0 8
9.8379 -3.7499 -2.4953 0.2306 0 8
9.8969 -3.5913 -2.4953 0.2306 0 8
9.9534 -3.4318 -2.4953 0.2306 0 8
10.0073 -3.2713 -2.4953 0.2306 0 8
10.0585 -3.1101 -2.4953 0.2306 0 8
10.1072 -2.9480 -2.4953 0.2306 0 8
10.1533 -2.7852 -2.4953 0.2306 0 8
10.1968 -2.6216 -2.4953 0.2306 0 8
10.2376 -2.4574 -2.4953 0.2306 0 8
10.2758 -2.2925 -2.4953 0.2306 0 8
10.3113 -2.1270 -2.4953 0.2306 0 8
10.3441 -1.9610 -2.4953 0.2306 0 8
10.3743 -1.7945 -2.4953 0.2306 0 8
10.4018 -1.6275 -2.4953 0.2306 0 8
10.4266 -1.4601 -2.4953 0.2306 0 8
10.4488 -1.2923 -2.4953 0.2306 0 8
8.1556 -0.8759 -1.9440 0.1861 25 10
7.7272 -0.7044 -1.8390 0.2836 25 10
7.6451 -0.5732 -1.8170 0.8545 25 10
7.5956 -0.4469 -1.8033 0.9361 25 10
7.5699 -0.3234 -1.7957 0.9400 25 10
7.5602 -0.2013 -1.7924 0.9672 25 10
7.5529 -0.0796 -1.7902 0.9684 25 10
7.5506 0.0418 -1.7896 0.9687 25 10
7.5579 0.1633 -1.7917 0.9676 25 10
7.5652 0.2852 -1.7943 0.9662 25 10
7.5876 0.4083 -1.8009 0.9373 25 10
7.6279 0.5335 -1.8123 0.8568 25 10
7.6834 0.6616 -1.8277 0.8495 25 10
7.9562 0.8142 -1.8955 0.1919 25 10
10.4551 1.2400 -2.4953 0.2306 0 8
10.4338 1.4079 -2.4953 0.2306 0 8
10.4098 1.5754 -2.4953 0.2306 0 8
10.3832 1.7425 -2.4953 0.2306 0 8
10.3538 1.9092 -2.4953 0.2306 0 8
10.3218 2.0754 -2.4953 0.2306 0 8
10.2871 2.2410 -2.4953 0.2306 0 8
10.2498 2.4060 -2.4953 0.2306 0 8
10.2098 2.5705 -2.4953 0.2306 0 8
10.1671 2.7343 -2.4953 0.2306 0 8
10.1219 2.8973 -2.4953 0.2306 0 8
10.0740 3.0596 -2.4953 0.2306 0 8
10.0235 3.2212 -2.4953 0.2306 0 8
0.9885 -10.1034 -2.4953 0.2387 0 8
1.1508 -10.0862 -2.4953 0.2387 0 8
1.3127 -10.0664 -2.4953 0.2387 0 8
1.4744 -10.0440 -2.4953 0.2387 0 8
1.6356 -10.0190 -2.4953 0.2387 0 8
1.7964 -9.9914 -2.4953 0.2387 0 8
1.9568 -9.9613 -2.4953 0.2387 0 8
2.1167 -9.9285 -2.4953 0.2387 0 8
2.2760 -9.8932 -2.4953 0.2387 0 8
2.4347 -9.8554 -2.4953 0.2387 0 8
2.5928 -9.8149 -2.4953 0.2387 0 8
2.7502 -9.7720 -2.4953 0.2387 0 8
2.9069 -9.7265 -2.4953 0.2387 0 8
3.0629 -9.6786 -2.4953 0.2387 0 8
3.2181 -9.6281 -2.4953 0.2387 0 8
3.3724 -9.5751 -2.4953 0.2387 0 8
3.5259 -9.5197 -2.4953 0.2387 0 8
3.6784 -9.4618 -2.4953 0.2387 0 8
3.8300 -9.4014 -2.4953 0.2387 0 8
3.9806 -9.3386 -2.4953 0.2387 0 8
4.1302 -9.2735 -2.4953 0.2387 0 8
4.2787 -9.2059 -2.4953 0.2387 0 8
4.4262 -9.1359 -2.4953 0.2387 0 8
4.5724 -9.0636 -2.4953 0.2387 0 8
4.7175 -8.9889 -2.4953 0.2387 0 8
4.8614 -8.9119 -2.4953 0.2387 0 8
5.0040 -8.8326 -2.4953 0.2387 0 8
5.1453 -8.7511 -2.4953 0.2387 0 8
5.2853 -8.6672 -2.4953 0.2387 0 8
5.4240 -8.5812 -2.4953 0.2387 0 8
5.5612 -8.4929 -2.4953 0.2387 0 8
5.6970 -8.4024 -2.4953 0.2387 0 8
5.8313 -8.3097 -2.4953 0.2387 0 8
5.9641 -8.2149 -2.4953 0.2387 0 8
6.0954 -8.1180 -2.4953 0.2387 0 8
6.2251 -8.0190 -2.4953 0.2387 0 8
6.3531 -7.9179 -2.4953 0.2387 0 8
6.4796 -7.8148 -2.4953 0.2387 0 8
6.6044 -7.7096 -2.4953 0.2387 0 8
6.7274 -7.6025 -2.4953 0.2387 0 8
6.8488 -7.4933 -2.4953 0.2387 0 8
6.9683 -7.3823 -2.4953 0.2387 0 8
7.0861 -7.2693 -2.4953 0.2387 0 8
7.2020 -7.1545 -2.4953 0.2387 0 8
7.3161 -7.0378 -2.4953 0.2387 0 8
7.4282 -6.9193 -2.4953 0.2387 0 8
7.5385 -6.7990 -2.4953 0.2387 0 8
7.6468 -6.6770 -2.4953 0.2387 0 8
7.7531 -6.5532 -2.4953 0.2387 0 8
7.8575 -6.4277 -2.4953 0.2387 0 8
7.9598 -6.3006 -2.4953 0.2387 0 8
8.0600 -6.1719 -2.4953 0.2387 0 8
8.1582 -6.0415 -2.4953 0.2387 0 8
8.2542 -5.9096 -2.4953 0.2387 0 8
8.3481 -5.7762 -2.4953 0.2387 0 8
8.4399 -5.6413 -2.4953 0.2387 0 8
8.5295 -5.5049 -2.4953 0.2387 0 8
8.6169 -5.3671 -2.4953 0.2387 0 8
8.7020 -5.2279 -2.4953 0.2387 0 8
8.7849 -5.0873 -2.4953 0.2387 0 8
8.8656 -4.9455 -2.4953 0.2387 0 8
8.9439 -4.8023 -2.4953 0.2387 0 8
9.0199 -4.6579 -2.4953 0.2387 0 8
9.0936 -4.5124 -2.4953 0.2387 0 8
9.1650 -4.3656 -2.4953 0.2387 0 8
9.2340 -4.2177 -2.4953 0.2387 0 8
9.3006 -4.0688 -2.4953 0.2387 0 8
9.3648 -3.9188 -2.4953 0.2387 0 8
9.4266 -3.7677 -2.4953 0.2387 0 8
9.4859 -3.6157 -2.4953 0.2387 0 8
9.5428 -3.4628 -2.4953 0.2387 0 8
9.5972 -3.3090 -2.4953 0.2387 0 8
9.6492 -3.1543 -2.4953 0.2387 0 8
9.6986 -2.9988 -2.4953 0.2387 0 8
9.7456 -2.8425 -2.4953 0.2387 0 8
9.7900 -2.6855 -2.4953 0.2387 0 8
9.8319 -2.5278 -2.4953 0.2387 0 8
9.8712 -2.3694 -2.4953 0.2387 0 8
9.9081 -2.2105 -2.4953 0.2387 0 8
9.9423 -2.0509 -2.4953 0.2387 0 8
9.9740 -1.8909 -2.4953 0.2387 0 8
10.0031 -1.7303 -2.4953 0.2387 0 8
10.0296 -1.5693 -2.4953 0.2387 0 8
10.0535 -1.4079 -2.4953 0.2387 0 8
10.0749 -1.2461 -2.4953 0.2387 0 8
8.1156 -0.8716 -2.0063 0.1876 25 10
7.7657 -0.7079 -1.9167 0.2816 25 10
7.6477 -0.5734 -1.8851 0.8525 25 10
7.5987 -0.4470 -1.8710 0.9174 25 10
7.5709 -0.3234 -1.8626 0.9380 25 10
7.5608 -0.2013 -1.8591 0.9651 25 10
7.5578 -0.0797 -1.8578 0.9270 25 10
7.5589 0.0418 -1.8580 0.9269 25 10
7.5585 0.1633 -1.8583 0.9655 25 10
7.5658 0.2852 -1.8610 0.9642 25 10
7.5892 0.4083 -1.8681 0.9189 25 10
7.6305 0.5337 -1.8802 0.8547 25 10
7.6963 0.6628 -1.8988 0.7637 25 10
7.9361 0.8121 -1.9609 0.4514 25 10
10.0810 1.1956 -2.4953 0.2387 0 8
10.0605 1.3575 -2.4953 0.2387 0 8
10.0373 1.5190 -2.4953 0.2387 0 8
10.0116 1.6802 -2.4953 0.2387 0 8
9.9833 1.8409 -2.4953 0.2387 0 8
9.9525 2.0011 -2.4953 0.2387 0 8
9.9190 2.1608 -2.4953 0.2387 0 8
9.8830 2.3199 -2.4953 0.2387 0 8
9.8444 2.4785 -2.4953 0.2387 0 8
9.8033 2.6364 -2.4953 0.2387 0 8
9.7597 2.7936 -2.4953 0.2387 0 8
9.7135 2.9502 -2.4953 0.2387 0 8
9.6648 3.1059 -2.4953 0.2387 0 8
0.9542 -9.7530 -2.4953 0.2468 0 8
1.1109 -9.7364 -2.4953 0.2468 0 8
1.2672 -9.7173 -2.4953 0.2468 0 8
1.4232 -9.6956 -2.4953 0.2468 0 8
1.5789 -9.6715 -2.4953 0.2468 0 8
1.7341 -9.6449 -2.4953 0.2468 0 8
1.8889 -9.6158 -2.4953 0.2468 0 8
2.0432 -9.5842 -2.4953 0.2468 0 8
2.1970 -9.5501 -2.4953 0.2468 0 8
2.3502 -9.5135 -2.4953 0.2468 0 8
2.5029 -9.4745 -2.4953 0.2468 0 8
2.6548 -9.4331 -2.4953 0.2468 0 8
2.8061 -9.3892 -2.4953 0.2468 0 8
2.9566 -9.3429 -2.4953 0.2468 0 8
3.1064 -9.2941 -2.4953 0.2468 0 8
3.2554 -9.2430 -2.4953 0.2468 0 8
3.4036 -9.1895 -2.4953 0.2468 0 8
3.5508 -9.1336 -2.4953 0.2468 0 8
3.6972 -9.0753 -2.4953 0.2468 0 8
3.8426 -9.0148 -2.4953 0.2468 0 8
3.9870 -8.9518 -2.4953 0.2468 0 8
4.1303 -8.8866 -2.4953 0.2468 0 8
4.2726 -8.8190 -2.4953 0.2468 0 8
4.4138 -8.7492 -2.4953 0.2468 0 8
4.5539 -8.6772 -2.4953 0.2468 0 8
4.6928 -8.6028 -2.4953 0.2468 0 8
4.8304 -8.5263 -2.4953 0.2468 0 8
4.9669 -8.4476 -2.4953 0.2468 0 8
5.1020 -8.3666 -2.4953 0.2468 0 8
5.2358 -8.2835 -2.4953 0.2468 0 8
5.3683 -8.1983 -2.4953 0.2468 0 8
5.4994 -8.1110 -2.4953 0.2468 0 8
5.6290 -8.0215 -2.4953 0.2468 0 8
5.7572 -7.9300 -2.4953 0.2468 0 8
5.8840 -7.8365 -2.4953 0.2468 0 8
6.0092 -7.7409 -2.4953 0.2468 0 8
6.1328 -7.6432 -2.4953 0.2468 0 8
6.2549 -7.5437 -2.4953 0.2468 0 8
6.3753 -7.4422 -2.4953 0.2468 0 8
6.4941 -7.3388 -2.4953 0.2468 0 8
6.6112 -7.2334 -2.4953 0.2468 0 8
6.7266 -7.1263 -2.4953 0.2468 0 8
6.8403 -7.0172 -2.4953 0.2468 0 8
6.9522 -6.9064 -2.4953 0.2468 0 8
7.0623 -6.7937 -2.4953 0.2468 0 8
7.1706 -6.6793 -2.4953 0.2468 0 8
7.2770 -6.5632 -2.4953 0.2468 0 8
7.3816 -6.4454 -2.4953 0.2468 0 8
7.4842 -6.3259 -2.4953 0.2468 0 8
7.5849 -6.2048 -2.4953 0.2468 0 8
7.6837 -6.0821 -2.4953 0.2468 0 8
7.7805 -5.9578 -2.4953 0.2468 0 8
7.8752 -5.8320 -2.4953 0.2468 0 8
7.9679 -5.7047 -2.4953 0.2468 0 8
8.0586 -5.5758 -2.4953 0.2468 0 8
8.1472 -5.4456 -2.4953 0.2468 0 8
8.2337 -5.3139 -2.4953 0.2468 0 8
8.3180 -5.1809 -2.4953 0.2468 0 8
8.4002 -5.0465 -2.4953 0.2468 0 8
8.4802 -4.9109 -2.4953 0.2468 0 8
8.5581 -4.7739 -2.4953 0.2468 0 8
8.6337 -4.6358 -2.4953 0.2468 0 8
8.7071 -4.4964 -2.4953 0.2468 0 8
8.7782 -4.3559 -2.4953 0.2468 0 8
8.8471 -4.2142 -2.4953 0.2468 0 8
8.9137 -4.0715 -2.4953 0.2468 0 8
8.9780 -3.9277 -2.4953 0.2468 0 8
9.0400 -3.7828 -2.4953 0.2468 0 8
9.0996 -3.6371 -2.4953 0.2468 0 8
9.1569 -3.4903 -2.4953 0.2468 0 8
9.2118 -3.3427 -2.4953 0.2468 0 8
9.2643 -3.1942 -2.4953 0.2468 0 8
9.3145 -3.0449 -2.4953 0.2468 0 8
9.3622 -2.8948 -2.4953 0.2468 0 8
9.4075 -2.7439 -2.4953 0.2468 0 8
9.4504 -2.5924 -2.4953 0.2468 0 8
9.4909 -2.4401 -2.4953 0.2468 0 8
9.5289 -2.2873 -2.4953 0.2468 0 8
9.5644 -2.1338 -2.4953 0.2468 0 8
9.5975 -1.9798 -2.4953 0.2468 0 8
9.6281 -1.8253 -2.4953 0.2468 0 8
9.6561 -1.6703 -2.4953 0.2468 0 8
9.6817 -1.5149 -2.4953 0.2468 0 8
9.7048 -1.3591 -2.4953 0.2468 0 8
9.7254 -1.2029 -2.4953 0.2468 0 8
8.1383 -0.8740 -2.0842 0.1938 25 10
7.7704 -0.7084 -1.9868 0.4044 25 10
7.6583 -0.5742 -1.9555 0.7665 25 10
7.6018 -0.4472 -1.9390 0.9152 25 10
7.5719 -0.3234 -1.9298 0.9359 25 10
7.5643 -0.2014 -1.9268 0.9240 25 10
7.5678 -0.0798 -1.9271 0.9239 25 10
7.5689 0.0419 -1.9273 0.9238 25 10
7.5653 0.1635 -1.9268 0.9240 25 10
7.5665 0.2852 -1.9280 0.9621 25 10
7.5923 0.4085 -1.9360 0.9166 25 10
7.6353 0.5340 -1.9489 0.7691 25 10
7.7097 0.6639 -1.9704 0.7607 25 10
7.9350 0.8120 -2.0310 0.5419 25 10
9.7313 1.1541 -2.4953 0.2468 0 8
9.7115 1.3104 -2.4953 0.2468 0 8
9.6892 1.4663 -2.4953 0.2468 0 8
9.6644 1.6219 -2.4953 0.2468 0 8
9.6371 1.7770 -2.4953 0.2468 0 8
9.6073 1.9317 -2.4953 0.2468 0 8
9.5750 2.0859 -2.4953 0.2468 0 8
9.5402 2.2395 -2.4953 0.2468 0 8
9.5030 2.3925 -2.4953 0.2468 0 8
9.4633 2.5450 -2.4953 0.2468 0 8
9.4212 2.6968 -2.4953 0.2468 0 8
9.3766 2.8478 -2.4953 0.2468 0 8
9.3296 2.9982 -2.4953 0.2468 0 8
0.9221 -9.4247 -2.4953 0.2548 0 8
1.0735 -9.4087 -2.4953 0.2548 0 8
1.2246 -9.3902 -2.4953 0.2548 0 8
1.3753 -9.3693 -2.4953 0.2548 0 8
1.5257 -9.3460 -2.4953 0.2548 0 8
1.6758 -9.3203 -2.4953 0.2548 0 8
1.8254 -9.2921 -2.4953 0.2548 0 8
1.9745 -9.2616 -2.4953 0.2548 0 8
2.1231 -9.2286 -2.4953 0.2548 0 8
2.2711 -9.1933 -2.4953 0.2548 0 8
2.4186 -9.1556 -2.4953 0.2548 0 8
2.5655 -9.1156 -2.4953 0.2548 0 8
2.7116 -9.0732 -2.4953 0.2548 0 8
2.8571 -9.0284 -2.4953 0.2548 0 8
3.0019 -8.9813 -2.4953 0.2548 0 8
3.1458 -8.9319 -2.4953 0.2548 0 8
3.2890 -8.8802 -2.4953 0.2548 0 8
3.4313 -8.8262 -2.4953 0.2548 0 8
3.5727 -8.7699 -2.4953 0.2548 0 8
3.7132 -8.7113 -2.4953 0.2548 0 8
3.8528 -8.6505 -2.4953 0.2548 0 8
3.9913 -8.5875 -2.4953 0.2548 0 8
4.1288 -8.5222 -2.4953 0.2548 0 8
4.2653 -8.4548 -2.4953 0.2548 0 8
4.4006 -8.3851 -2.4953 0.2548 0 8
4.5348 -8.3133 -2.4953 0.2548 0 8
4.6679 -8.2393 -2.4953 0.2548 0 8
4.7997 -8.1632 -2.4953 0.2548 0 8
4.9303 -8.0850 -2.4953 0.2548 0 8
5.0596 -8.0047 -2.4953 0.2548 0 8
5.1876 -7.9224 -2.4953 0.2548 0 8
5.3143 -7.8380 -2.4953 0.2548 0 8
5.4396 -7.7515 -2.4953 0.2548 0 8
5.5635 -7.6631 -2.4953 0.2548 0 8
5.6859 -7.5727 -2.4953 0.2548 0 8
5.8069 -7.4803 -2.4953 0.2548 0 8
5.9264 -7.3860 -2.4953 0.2548 0 8
6.0443 -7.2898 -2.4953 0.2548 0 8
6.1607 -7.1917 -2.4953 0.2548 0 8
6.2755 -7.0918 -2.4953 0.2548 0 8
6.3887 -6.9900 -2.4953 0.2548 0 8
6.5002 -6.8864 -2.4953 0.2548 0 8
6.6101 -6.7810 -2.4953 0.2548 0 8
6.7182 -6.6739 -2.4953 0.2548 0 8
6.8246 -6.5651 -2.4953 0.2548 0 8
6.9293 -6.4545 -2.4953 0.2548 0 8
7.0321 -6.3423 -2.4953 0.2548 0 8
7.1331 -6.2285 -2.4953 0.2548 0 8
7.2323 -6.1130 -2.4953 0.2548 0 8
7.3296 -5.9960 -2.4953 0.2548 0 8
7.4251 -5.8774 -2.4953 0.2548 0 8
7.5186 -5.7573 -2.4953 0.2548 0 8
7.6102 -5.6357 -2.4953 0.2548 0 8
7.6998 -5.5126 -2.4953 0.2548 0 8
7.7874 -5.3882 -2.4953 0.2548 0 8
7.8730 -5.2623 -2.4953 0.2548 0 8
7.9565 -5.1351 -2.4953 0.2548 0 8
8.0380 -5.0065 -2.4953 0.2548 0 8
8.1175 -4.8767 -2.4953 0.2548 0 8
8.1948 -4.7456 -2.4953 0.2548 0 8
8.2700 -4.6133 -2.4953 0.2548 0 8
8.3431 -4.4797 -2.4953 0.2548 0 8
8.4140 -4.3450 -2.4953 0.2548 0 8
8.4828 -4.2092 -2.4953 0.2548 0 8
8.5493 -4.0724 -2.4953 0.2548 0 8
8.6137 -3.9344 -2.4953 0.2548 0 8
8.6758 -3.7955 -2.4953 0.2548 0 8
8.7357 -3.6555 -2.4953 0.2548 0 8
8.7933 -3.5146 -2.4953 0.2548 0 8
8.8487 -3.3728 -2.4953 0.2548 0 8
8.9018 -3.2302 -2.4953 0.2548 0 8
8.9525 -3.0867 -2.4953 0.2548 0 8
9.0010 -2.9424 -2.4953 0.2548 0 8
9.0471 -2.7973 -2.4953 0.2548 0 8
9.0909 -2.6516 -2.4953 0.2548 0 8
9.1324 -2.5051 -2.4953 0.2548 0 8
9.1714 -2.3580 -2.4953 0.2548 0 8
9.2082 -2.2103 -2.4953 0.2548 0 8
9.2425 -2.0620 -2.4953 0.2548 0 8
9.2744 -1.9132 -2.4953 0.2548 0 8
9.3040 -1.7638 -2.4953 0.2548 0 8
9.3311 -1.6141 -2.4953 0.2548 0 8
9.3559 -1.4639 -2.4953 0.2548 0 8
9.3782 -1.3133 -2.4953 0.2548 0 8
9.3981 -1.1624 -2.4953 0.2548 0 8
8.1677 -0.8772 -2.1646 0.1927 25 10
7.8143 -0.7124 -2.0676 0.4012 25 10
7.6791 -0.5758 -2.0291 0.7189 25 10
7.6119 -0.4478 -2.0092 0.8137 25 10
7.5802 -0.3238 -1.9992 0.8469 25 10
7.5766 -0.2017 -1.9971 0.8886 25 10
7.5804 -0.0799 -1.9975 0.8884 25 10
7.5810 0.0419 -1.9976 0.9287 25 10
7.5778 0.1637 -1.9972 0.8885 25 10
7.5741 0.2855 -1.9972 0.8885 25 10
7.6019 0.4090 -2.0060 0.8440 25 10
7.6548 0.5354 -2.0220 0.7215 25 10
7.7399 0.6665 -2.0470 0.4053 25 10
7.9553 0.8141 -2.1072 0.1538 25 10
9.4038 1.1153 -2.4953 0.2548 0 8
9.3847 1.2663 -2.4953 0.2548 0 8
9.3631 1.4170 -2.4953 0.2548 0 8
9.3391 1.5673 -2.4953 0.2548 0 8
9.3127 1.7172 -2.4953 0.2548 0 8
9.2839 1.8667 -2.4953 0.2548 0 8
9.2527 2.0156 -2.4953 0.2548 0 8
9.2191 2.1641 -2.4953 0.2548 0 8
9.1831 2.3120 -2.4953 0.2548 0 8
9.1448 2.4593 -2.4953 0.2548 0 8
9.1041 2.6060 -2.4953 0.2548 0 8
9.0610 2.7520 -2.4953 0.2548 0 8
9.0156 2.8973 -2.4953 0.2548 0 8
0.8919 -9.1165 -2.4953 0.2628 0 8
1.0384 -9.1010 -2.4953 0.2628 0 8
1.1845 -9.0831 -2.4953 0.2628 0 8
1.3304 -9.0629 -2.4953 0.2628 0 8
1.4759 -9.0404 -2.4953 0.2628 0 8
1.6210 -9.0155 -2.4953 0.2628 0 8
1.7657 -8.9883 -2.4953 0.2628 0 8
1.9099 -8.9587 -2.4953 0.2628 0 8
2.0537 -8.9269 -2.4953 0.2628 0 8
2.1969 -8.8927 -2.4953 0.2628 0 8
2.3395 -8.8562 -2.4953 0.2628 0 8
2.4816 -8.8175 -2.4953 0.2628 0 8
2.6230 -8.7765 -2.4953 0.2628 0 8
2.7637 -8.7332 -2.4953 0.2628 0 8
2.9037 -8.6876 -2.4953 0.2628 0 8
3.0430 -8.6398 -2.4953 0.2628 0 8
3.1815 -8.5898 -2.4953 0.2628 0 8
3.3191 -8.5376 -2.4953 0.2628 0 8
3.4559 -8.4831 -2.4953 0.2628 0 8
3.5918 -8.4265 -2.4953 0.2628 0 8
3.7268 -8.3676 -2.4953 0.2628 0 8
3.8608 -8.3067 -2.4953 0.2628 0 8
3.9938 -8.2435 -2.4953 0.2628 0 8
4.1258 -8.1783 -2.4953 0.2628 0 8
4.2567 -8.1109 -2.4953 0.2628 0 8
4.3865 -8.0414 -2.4953 0.2628 0 8
4.5152 -7.9699 -2.4953 0.2628 0 8
4.6427 -7.8963 -2.4953 0.2628 0 8
4.7691 -7.8206 -2.4953 0.2628 0 8
4.8942 -7.7430 -2.4953 0.2628 0 8
5.0180 -7.6633 -2.4953 0.2628 0 8
5.1405 -7.5817 -2.4953 0.2628 0 8
5.2617 -7.4981 -2.4953 0.2628 0 8
5.3815 -7.4125 -2.4953 0.2628 0 8
5.5000 -7.3251 -2.4953 0.2628 0 8
5.6170 -7.2357 -2.4953 0.2628 0 8
5.7326 -7.1445 -2.4953 0.2628 0 8
5.8467 -7.0514 -2.4953 0.2628 0 8
5.9593 -6.9566 -2.4953 0.2628 0 8
6.0703 -6.8599 -2.4953 0.2628 0 8
6.1798 -6.7614 -2.4953 0.2628 0 8
6.2877 -6.6612 -2.4953 0.2628 0 8
6.3939 -6.5593 -2.4953 0.2628 0 8
6.4985 -6.4557 -2.4953 0.2628 0 8
6.6014 -6.3504 -2.4953 0.2628 0 8
6.7027 -6.2435 -2.4953 0.2628 0 8
6.8021 -6.1349 -2.4953 0.2628 0 8
6.8999 -6.0248 -2.4953 0.2628 0 8
6.9958 -5.9131 -2.4953 0.2628 0 8
7.0900 -5.7999 -2.4953 0.2628 0 8
7.1823 -5.6852 -2.4953 0.2628 0 8
7.2727 -5.5690 -2.4953 0.2628 0 8
7.3613 -5.4514 -2.4953 0.2628 0 8
7.4480 -5.3324 -2.4953 0.2628 0 8
7.5327 -5.2120 -2.4953 0.2628 0 8
7.6155 -5.0902 -2.4953 0.2628 0 8
7.6963 -4.9672 -2.4953 0.2628 0 8
7.7752 -4.8428 -2.4953 0.2628 0 8
7.8520 -4.7172 -2.4953 0.2628 0 8
7.9268 -4.5904 -2.4953 0.2628 0 8
7.9996 -4.4624 -2.4953 0.2628 0 8
8.0703 -4.3332 -2.4953 0.2628 0 8
8.1389 -4.2030 -2.4953 0.2628 0 8
8.2054 -4.0716 -2.4953 0.2628 0 8
8.2698 -3.9392 -2.4953 0.2628 0 8
8.3320 -3.8058 -2.4953 0.2628 0 8
8.3921 -3.6713 -2.4953 0.2628 0 8
8.4500 -3.5360 -2.4953 0.2628 0 8
8.5058 -3.3997 -2.4953 0.2628 0 8
8.5593 -3.2626 -2.4953 0.2628 0 8
8.6107 -3.1246 -2.4953 0.2628 0 8
8.6598 -2.9858 -2.4953 0.2628 0 8
8.7066 -2.8462 -2.4953 0.2628 0 8
8.7513 -2.7059 -2.4953 0.2628 0 8
8.7936 -2.5649 -2.4953 0.2628 0 8
8.8337 -2.4232 -2.4953 0.2628 0 8
8.8715 -2.2809 -2.4953 0.2628 0 8
8.9070 -2.1380 -2.4953 0.2628 0 8
8.9403 -1.9946 -2.4953 0.2628 0 8
8.9712 -1.8506 -2.4953 0.2628 0 8
8.9997 -1.7062 -2.4953 0.2628 0 8
9.0260 -1.5613 -2.4953 0.2628 0 8
9.0499 -1.4160 -2.4953 0.2628 0 8
9.0715 -1.2704 -2.4953 0.2628 0 8
9.0908 -1.1244 -2.4953 0.2628 0 8
8.2792 -0.8892 -2.2683 0.8896 25 10
7.8448 -0.7152 -2.1458 0.5464 25 10
7.7024 -0.5775 -2.1041 0.7209 25 10
7.6335 -0.4491 -2.0830 0.8095 25 10
7.5980 -0.3246 -2.0716 0.8430 25 10
7.5926 -0.2021 -2.0690 0.8847 25 10
7.5909 -0.0800 -2.0679 0.9254 25 10
7.5894 0.0420 -2.0674 0.9256 25 10
7.5938 0.1641 -2.0691 0.8847 25 10
7.5901 0.2861 -2.0691 0.8847 25 10
7.6217 0.4101 -2.0792 0.8110 25 10
7.6783 0.5370 -2.0967 0.7177 25 10
7.7837 0.6703 -2.1282 0.4021 25 10
8.0054 0.8192 -2.1921 0.1962 25 10
9.0963 1.0788 -2.4953 0.2628 0 8
9.0778 1.2249 -2.4953 0.2628 0 8
9.0569 1.3706 -2.4953 0.2628 0 8
9.0337 1.5160 -2.4953 0.2628 0 8
9.0082 1.6611 -2.4953 0.2628 0 8
8.9803 1.8056 -2.4953 0.2628 0 8
8.9501 1.9497 -2.4953 0.2628 0 8
8.9176 2.0933 -2.4953 0.2628 0 8
8.8828 2.2364 -2.4953 0.2628 0 8
8.8457 2.3789 -2.4953 0.2628 0 8
8.8064 2.5208 -2.4953 0.2628 0 8
8.7647 2.6620 -2.4953 0.2628 0 8
8.7208 2.8025 -2.4953 0.2628 0 8
0.8636 -8.8266 -2.4953 0.2708 0 8
1.0053 -8.8116 -2.4953 0.2708 0 8
1.1468 -8.7943 -2.4953 0.2708 0 8
1.2880 -8.7747 -2.4953 0.2708 0 8
1.4289 -8.7529 -2.4953 0.2708 0 8
1.5694 -8.7288 -2.4953 0.2708 0 8
1.7095 -8.7024 -2.4953 0.2708 0 8
1.8492 -8.6738 -2.4953 0.2708 0 8
1.9883 -8.6430 -2.4953 0.2708 0 8
2.1270 -8.6099 -2.4953 0.2708 0 8
2.2651 -8.5746 -2.4953 0.2708 0 8
2.4026 -8.5371 -2.4953 0.2708 0 8
2.5396 -8.4973 -2.4953 0.2708 0 8
2.6758 -8.4554 -2.4953 0.2708 0 8
2.8114 -8.4113 -2.4953 0.2708 0 8
2.9462 -8.3651 -2.4953 0.2708 0 8
3.0803 -8.3166 -2.4953 0.2708 0 8
3.2136 -8.2660 -2.4953 0.2708 0 8
3.3460 -8.2133 -2.4953 0.2708 0 8
3.4776 -8.1585 -2.4953 0.2708 0 8
3.6083 -8.1015 -2.4953 0.2708 0 8
3.7380 -8.0425 -2.4953 0.2708 0 8
3.8668 -7.9814 -2.4953 0.2708 0 8
3.9946 -7.9182 -2.4953 0.2708 0 8
4.1213 -7.8529 -2.4953 0.2708 0 8
4.2470 -7.7857 -2.4953 0.2708 0 8
4.3716 -7.7164 -2.4953 0.2708 0 8
4.4951 -7.6452 -2.4953 0.2708 0 8
4.6174 -7.5719 -2.4953 0.2708 0 8
4.7385 -7.4967 -2.4953 0.2708 0 8
4.8584 -7.4196 -2.4953 0.2708 0 8
4.9770 -7.3405 -2.4953 0.2708 0 8
5.0944 -7.2596 -2.4953 0.2708 0 8
5.2104 -7.1768 -2.4953 0.2708 0 8
5.3251 -7.0921 -2.4953 0.2708 0 8
5.4384 -7.0056 -2.4953 0.2708 0 8
5.5503 -6.9173 -2.4953 0.2708 0 8
5.6607 -6.8272 -2.4953 0.2708 0 8
5.7697 -6.7353 -2.4953 0.2708 0 8
5.8772 -6.6417 -2.4953 0.2708 0 8
5.9832 -6.5464 -2.4953 0.2708 0 8
6.0877 -6.4494 -2.4953 0.2708 0 8
6.1906 -6.3507 -2.4953 0.2708 0 8
6.2918 -6.2503 -2.4953 0.2708 0 8
6.3915 -6.1484 -2.4953 0.2708 0 8
6.4895 -6.0449 -2.4953 0.2708 0 8
6.5858 -5.9398 -2.4953 0.2708 0 8
6.6804 -5.8332 -2.4953 0.2708 0 8
6.7733 -5.7250 -2.4953 0.2708 0 8
6.8645 -5.6154 -2.4953 0.2708 0 8
6.9538 -5.5044 -2.4953 0.2708 0 8
7.0414 -5.3919 -2.4953 0.2708 0 8
7.1272 -5.2780 -2.4953 0.2708 0 8
7.2111 -5.1628 -2.4953 0.2708 0 8
7.2931 -5.0462 -2.4953 0.2708 0 8
7.3733 -4.9283 -2.4953 0.2708 0 8
7.4516 -4.8092 -2.4953 0.2708 0 8
7.5279 -4.6888 -2.4953 0.2708 0 8
7.6023 -4.5672 -2.4953 0.2708 0 8
7.6747 -4.4444 -2.4953 0.2708 0 8
7.7452 -4.3205 -2.4953 0.2708 0 8
7.8136 -4.1954 -2.4953 0.2708 0 8
7.8800 -4.0693 -2.4953 0.2708 0 8
7.9444 -3.9421 -2.4953 0.2708 0 8
8.0068 -3.8139 -2.4953 0.2708 0 8
8.0670 -3.6847 -2.4953 0.2708 0 8
8.1252 -3.5546 -2.4953 0.2708 0 8
8.1813 -3.4235 -2.4953 0.2708 0 8
8.2353 -3.2916 -2.4953 0.2708 0 8
8.2871 -3.1588 -2.4953 0.2708 0 8
8.3368 -3.0252 -2.4953 0.2708 0 8
8.3844 -2.8908 -2.4953 0.2708 0 8
8.4297 -2.7557 -2.4953 0.2708 0 8
8.4729 -2.6198 -2.4953 0.2708 0 8
8.5140 -2.4833 -2.4953 0.2708 0 8
8.5528 -2.3461 -2.4953 0.2708 0 8
8.5894 -2.2083 -2.4953 0.2708 0 8
8.6238 -2.0700 -2.4953 0.2708 0 8
8.6559 -1.9311 -2.4953 0.2708 0 8
8.6858 -1.7917 -2.4953 0.2708 0 8
8.7135 -1.6519 -2.4953 0.2708 0 8
8.7389 -1.5116 -2.4953 0.2708 0 8
8.7621 -1.3710 -2.4953 0.2708 0 8
8.7830 -1.2300 -2.4953 0.2708 0 8
8.8017 -1.0886 -2.4953 0.2708 0 8
8.3354 -0.8952 -2.3587 0.6453 25 10
8.3323 -0.7596 -2.3541 0.6466 25 10
7.7256 -0.5792 -2.1797 0.7171 25 10
7.6554 -0.4504 -2.1576 0.8054 25 10
7.6173 -0.3254 -2.1451 0.8101 25 10
7.6042 -0.2024 -2.1403 0.9213 25 10
7.5994 -0.0801 -2.1383 0.9222 25 10
7.5979 0.0420 -2.1377 0.9224 25 10
7.6027 0.1643 -2.1396 0.9216 25 10
7.6062 0.2867 -2.1416 0.8808 25 10
7.6435 0.4113 -2.1536 0.8069 25 10
7.7015 0.5386 -2.1721 0.7196 25 10
8.3315 0.7174 -2.3528 0.6470 25 10
8.3344 0.8529 -2.3572 0.6458 25 10
8.8070 1.0445 -2.4953 0.2708 0 8
8.7891 1.1859 -2.4953 0.2708 0 8
8.7689 1.3271 -2.4953 0.2708 0 8
8.7464 1.4678 -2.4953 0.2708 0 8
8.7217 1.6082 -2.4953 0.2708 0 8
8.6947 1.7482 -2.4953 0.2708 0 8
8.6655 1.8877 -2.4953 0.2708 0 8
8.6340 2.0268 -2.4953 0.2708 0 8
8.6003 2.1653 -2.4953 0.2708 0 8
8.5644 2.3032 -2.4953 0.2708 0 8
8.5263 2.4406 -2.4953 0.2708 0 8
8.4860 2.5773 -2.4953 0.2708 0 8
8.4434 2.7134 -2.4953 0.2708 0 8
0.8368 -8.5533 -2.4953 0.2788 0 8
0.9742 -8.5387 -2.4953 0.2788 0 8
1.1113 -8.5220 -2.4953 0.2788 0 8
1.2482 -8.5030 -2.4953 0.2788 0 8
1.3847 -8.4818 -2.4953 0.2788 0 8
1.5208 -8.4585 -2.4953 0.2788 0 8
1.6566 -8.4329 -2.4953 0.2788 0 8
1.7919 -8.4052 -2.4953 0.2788 0 8
1.9268 -8.3753 -2.4953 0.2788 0 8
2.0611 -8.3433 -2.4953 0.2788 0 8
2.1950 -8.3091 -2.4953 0.2788 0 8
2.3283 -8.2727 -2.4953 0.2788 0 8
2.4609 -8.2342 -2.4953 0.2788 0 8
2.5930 -8.1936 -2.4953 0.2788 0 8
2.7243 -8.1509 -2.4953 0.2788 0 8
2.8550 -8.1060 -2.4953 0.2788 0 8
2.9849 -8.0591 -2.4953 0.2788 0 8
3.1140 -8.0101 -2.4953 0.2788 0 8
3.2424 -7.9590 -2.4953 0.2788 0 8
3.3699 -7.9059 -2.4953 0.2788 0 8
3.4965 -7.8507 -2.4953 0.2788 0 8
3.6223 -7.7935 -2.4953 0.2788 0 8
3.7471 -7.7342 -2.4953 0.2788 0 8
3.8709 -7.6730 -2.4953 0.2788 0 8
3.9937 -7.6098 -2.4953 0.2788 0 8
4.1155 -7.5446 -2.4953 0.2788 0 8
4.2363 -7.4775 -2.4953 0.2788 0 8
4.3559 -7.4084 -2.4953 0.2788 0 8
4.4744 -7.3375 -2.4953 0.2788 0 8
4.5918 -7.2646 -2.4953 0.2788 0 8
4.7079 -7.1899 -2.4953 0.2788 0 8
4.8229 -7.1132 -2.4953 0.2788 0 8
4.9366 -7.0348 -2.4953 0.2788 0 8
5.0490 -6.9546 -2.4953 0.2788 0 8
5.1602 -6.8725 -2.4953 0.2788 0 8
5.2700 -6.7887 -2.4953 0.2788 0 8
5.3784 -6.7031 -2.4953 0.2788 0 8
5.4855 -6.6158 -2.4953 0.2788 0 8
5.5911 -6.5268 -2.4953 0.2788 0 8
5.6953 -6.4360 -2.4953 0.2788 0 8
5.7980 -6.3437 -2.4953 0.2788 0 8
5.8992 -6.2497 -2.4953 0.2788 0 8
5.9989 -6.1540 -2.4953 0.2788 0 8
6.0970 -6.0568 -2.4953 0.2788 0 8
6.1936 -5.9580 -2.4953 0.2788 0 8
6.2885 -5.8577 -2.4953 0.2788 0 8
6.3819 -5.7559 -2.4953 0.2788 0 8
6.4736 -5.6526 -2.4953 0.2788 0 8
6.5636 -5.5478 -2.4953 0.2788 0 8
6.6519 -5.4416 -2.4953 0.2788 0 8
6.7385 -5.3339 -2.4953 0.2788 0 8
6.8234 -5.2249 -2.4953 0.2788 0 8
6.9065 -5.1146 -2.4953 0.2788 0 8
6.9878 -5.0029 -2.4953 0.2788 0 8
7.0673 -4.8900 -2.4953 0.2788 0 8
7.1450 -4.7757 -2.4953 0.2788 0 8
7.2208 -4.6603 -2.4953 0.2788 0 8
7.2948 -4.5436 -2.4953 0.2788 0 8
7.3669 -4.4258 -2.4953 0.2788 0 8
7.4371 -4.3068 -2.4953 0.2788 0 8
7.5054 -4.1867 -2.4953 0.2788 0 8
7.5717 -4.0655 -2.4953 0.2788 0 8
7.6360 -3.9433 -2.4953 0.2788 0 8
7.6984 -3.8200 -2.4953 0.2788 0 8
7.7588 -3.6958 -2.4953 0.2788 0 8
7.8172 -3.5706 -2.4953 0.2788 0 8
7.8736 -3.4445 -2.4953 0.2788 0 8
7.9280 -3.3175 -2.4953 0.2788 0 8
7.9803 -3.1897 -2.4953 0.2788 0 8
8.0305 -3.0610 -2.4953 0.2788 0 8
8.0787 -2.9315 -2.4953 0.2788 0 8
8.1247 -2.8013 -2.4953 0.2788 0 8
8.1687 -2.6703 -2.4953 0.2788 0 8
8.2106 -2.5387 -2.4953 0.2788 0 8
8.2503 -2.4064 -2.4953 0.2788 0 8
8.2879 -2.2735 -2.4953 0.2788 0 8
8.3234 -2.1400 -2.4953 0.2788 0 8
8.3567 -2.0059 -2.4953 0.2788 0 8
8.3879 -1.8713 -2.4953 0.2788 0 8
8.4169 -1.7363 -2.4953 0.2788 0 8
8.4437 -1.6008 -2.4953 0.2788 0 8
8.4684 -1.4648 -2.4953 0.2788 0 8
8.4908 -1.3285 -2.4953 0.2788 0 8
8.5111 -1.1919 -2.4953 0.2788 0 8
8.5291 -1.0549 -2.4953 0.2788 0 8
8.5450 -0.9177 -2.4953 0.2788 0 8
8.4744 -0.7726 -2.4707 0.2995 25 10
8.5701 -0.6426 -2.4953 0.2788 0 8
8.5793 -0.5047 -2.4953 0.2788 0 8
8.5863 -0.3668 -2.4953 0.2788 0 8
8.5911 -0.2287 -2.4953 0.2788 0 8
8.5936 -0.0906 -2.4953 0.2788 0 8
8.5940 0.0475 -2.4953 0.2788 0 8
8.5921 0.1857 -2.4953 0.2788 0 8
8.5880 0.3237 -2.4953 0.2788 0 8
8.5817 0.4617 -2.4953 0.2788 0 8
8.5732 0.5996 -2.4953 0.2788 0 8
8.4715 0.7295 -2.4688 0.2997 25 10
8.5495 0.8749 -2.4953 0.2788 0 8
8.5343 1.0122 -2.4953 0.2788 0 8
8.5169 1.1492 -2.4953 0.2788 0 8
8.4974 1.2860 -2.4953 0.2788 0 8
8.4756 1.4224 -2.4953 0.2788 0 8
8.4516 1.5584 -2.4953 0.2788 0 8
8.4255 1.6941 -2.4953 0.2788 0 8
8.3972 1.8293 -2.4953 0.2788 0 8
8.3667 1.9640 -2.4953 0.2788 0 8
8.3340 2.0982 -2.4953 0.2788 0 8
8.2992 2.2319 -2.4953 0.2788 0 8
8.2623 2.3650 -2.4953 0.2788 0 8
8.2232 2.4975 -2.4953 0.2788 0 8
8.1820 2.6294 -2.4953 0.2788 0 8
0.8116 -8.2952 -2.4953 0.2868 0 8
0.9448 -8.2811 -2.4953 0.2868 0 8
1.0778 -8.2648 -2.4953 0.2868 0 8
1.2105 -8.2464 -2.4953 0.2868 0 8
1.3429 -8.2259 -2.4953 0.2868 0 8
1.4749 -8.2032 -2.4953 0.2868 0 8
1.6066 -8.1785 -2.4953 0.2868 0 8
1.7378 -8.1516 -2.4953 0.2868 0 8
1.8686 -8.1226 -2.4953 0.2868 0 8
1.9990 -8.0915 -2.4953 0.2868 0 8
2.1288 -8.0584 -2.4953 0.2868 0 8
2.2580 -8.0231 -2.4953 0.2868 0 8
2.3867 -7.9858 -2.4953 0.2868 0 8
2.5147 -7.9464 -2.4953 0.2868 0 8
2.6421 -7.9049 -2.4953 0.2868 0 8
2.7688 -7.8614 -2.4953 0.2868 0 8
2.8948 -7.8159 -2.4953 0.2868 0 8
3.0201 -7.7684 -2.4953 0.2868 0 8
3.1445 -7.7188 -2.4953 0.2868 0 8
3.2682 -7.6673 -2.4953 0.2868 0 8
3.3910 -7.6138 -2.4953 0.2868 0 8
3.5130 -7.5583 -2.4953 0.2868 0 8
3.6340 -7.5008 -2.4953 0.2868 0 8
3.7541 -7.4415 -2.4953 0.2868 0 8
3.8732 -7.3802 -2.4953 0.2868 0 8
3.9913 -7.3170 -2.4953 0.2868 0 8
4.1084 -7.2519 -2.4953 0.2868 0 8
4.2245 -7.1849 -2.4953 0.2868 0 8
4.3394 -7.1161 -2.4953 0.2868 0 8
4.4532 -7.0454 -2.4953 0.2868 0 8
4.5659 -6.9729 -2.4953 0.2868 0 8
4.6774 -6.8986 -2.4953 0.2868 0 8
4.7877 -6.8225 -2.4953 0.2868 0 8
4.8967 -6.7447 -2.4953 0.2868 0 8
5.0045 -6.6651 -2.4953 0.2868 0 8
5.1110 -6.5838 -2.4953 0.2868 0 8
5.2161 -6.5008 -2.4953 0.2868 0 8
5.3199 -6.4162 -2.4953 0.2868 0 8
5.4224 -6.3298 -2.4953 0.2868 0 8
5.5234 -6.2418 -2.4953 0.2868 0 8
5.6230 -6.1523 -2.4953 0.2868 0 8
5.7212 -6.0611 -2.4953 0.2868 0 8
5.8179 -5.9683 -2.4953 0.2868 0 8
5.9130 -5.8741 -2.4953 0.2868 0 8
6.0067 -5.7783 -2.4953 0.2868 0 8
6.0988 -5.6810 -2.4953 0.2868 0 8
6.1893 -5.5822 -2.4953 0.2868 0 8
6.2782 -5.4820 -2.4953 0.2868 0 8
6.3655 -5.3804 -2.4953 0.2868 0 8
6.4512 -5.2774 -2.4953 0.2868 0 8
6.5352 -5.1730 -2.4953 0.2868 0 8
6.6175 -5.0673 -2.4953 0.2868 0 8
6.6981 -4.9603 -2.4953 0.2868 0 8
6.7770 -4.8520 -2.4953 0.2868 0 8
6.8541 -4.7424 -2.4953 0.2868 0 8
6.9294 -4.6316 -2.4953 0.2868 0 8
7.0030 -4.5197 -2.4953 0.2868 0 8
7.0747 -4.4065 -2.4953 0.2868 0 8
7.1446 -4.2922 -2.4953 0.2868 0 8
7.2127 -4.1768 -2.4953 0.2868 0 8
7.2789 -4.0604 -2.4953 0.2868 0 8
7.3432 -3.9428 -2.4953 0.2868 0 8
7.4056 -3.8243 -2.4953 0.2868 0 8
7.4661 -3.7048 -2.4953 0.2868 0 8
7.5247 -3.5843 -2.4953 0.2868 0 8
7.5814 -3.4629 -2.4953 0.2868 0 8
7.6360 -3.3406 -2.4953 0.2868 0 8
7.6888 -3.2174 -2.4953 0.2868 0 8
7.7395 -3.0934 -2.4953 0.2868 0 8
7.7882 -2.9686 -2.4953 0.2868 0 8
7.8349 -2.8431 -2.4953 0.2868 0 8
7.8796 -2.7168 -2.4953 0.2868 0 8
7.9222 -2.5898 -2.4953 0.2868 0 8
7.9628 -2.4621 -2.4953 0.2868 0 8
8.0014 -2.3338 -2.4953 0.2868 0 8
8.0379 -2.2049 -2.4953 0.2868 0 8
8.0723 -2.0754 -2.4953 0.2868 0 8
8.1046 -1.9454 -2.4953 0.2868 0 8
8.1348 -1.8149 -2.4953 0.2868 0 8
8.1629 -1.6839 -2.4953 0.2868 0 8
8.1889 -1.5524 -2.4953 0.2868 0 8
8.2128 -1.4206 -2.4953 0.2868 0 8
8.2346 -1.2884 -2.4953 0.2868 0 8
8.2542 -1.1559 -2.4953 0.2868 0 8
8.2718 -1.0231 -2.4953 0.2868 0 8
8.2871 -0.8900 -2.4953 0.2868 0 8
8.3004 -0.7567 -2.4953 0.2868 0 8
8.3115 -0.6232 -2.4953 0.2868 0 8
8.3204 -0.4895 -2.4953 0.2868 0 8
8.3272 -0.3557 -2.4953 0.2868 0 8
8.3318 -0.2218 -2.4953 0.2868 0 8
8.3343 -0.0879 -2.4953 0.2868 0 8
8.3347 0.0461 -2.4953 0.2868 0 8
8.3328 0.1801 -2.4953 0.2868 0 8
8.3289 0.3140 -2.4953 0.2868 0 8
8.3227 0.4478 -2.4953 0.2868 0 8
8.3145 0.5815 -2.4953 0.2868 0 8
8.3041 0.7151 -2.4953 0.2868 0 8
8.2915 0.8485 -2.4953 0.2868 0 8
8.2768 0.9816 -2.4953 0.2868 0 8
8.2599 1.1145 -2.4953 0.2868 0 8
8.2409 1.2472 -2.4953 0.2868 0 8
8.2198 1.3795 -2.4953 0.2868 0 8
8.1966 1.5114 -2.4953 0.2868 0 8
8.1713 1.6430 -2.4953 0.2868 0 8
8.1438 1.7741 -2.4953 0.2868 0 8
8.1142 1.9047 -2.4953 0.2868 0 8
8.0826 2.0349 -2.4953 0.2868 0 8
8.0488 2.1646 -2.4953 0.2868 0 8
8.0130 2.2937 -2.4953 0.2868 0 8
7.9751 2.4222 -2.4953 0.2868 0 8
7.9351 2.5500 -2.4953 0.2868 0 8
0.7877 -8.0510 -2.4953 0.2948 0 8
0.9170 -8.0373 -2.4953 0.2948 0 8
1.0461 -8.0216 -2.4953 0.2948 0 8
1.1749 -8.0037 -2.4953 0.2948 0 8
1.3034 -7.9838 -2.4953 0.2948 0 8
1.4315 -7.9618 -2.4953 0.2948 0 8
1.5593 -7.9378 -2.4953 0.2948 0 8
1.6867 -7.9117 -2.4953 0.2948 0 8
1.8136 -7.8835 -2.4953 0.2948 0 8
1.9401 -7.8534 -2.4953 0.2948 0 8
2.0661 -7.8212 -2.4953 0.2948 0 8
2.1915 -7.7870 -2.4953 0.2948 0 8
2.3164 -7.7507 -2.4953 0.2948 0 8
2.4407 -7.7125 -2.4953 0.2948 0 8
2.5643 -7.6723 -2.4953 0.2948 0 8
2.6873 -7.6301 -2.4953 0.2948 0 8
2.8096 -7.5859 -2.4953 0.2948 0 8
2.9312 -7.5397 -2.4953 0.2948 0 8
3.0520 -7.4917 -2.4953 0.2948 0 8
3.1720 -7.4416 -2.4953 0.2948 0 8
3.2912 -7.3897 -2.4953 0.2948 0 8
3.4096 -7.3358 -2.4953 0.2948 0 8
3.5270 -7.2801 -2.4953 0.2948 0 8
3.6436 -7.2224 -2.4953 0.2948 0 8
3.7592 -7.1629 -2.4953 0.2948 0 8
3.8739 -7.1016 -2.4953 0.2948 0 8
3.9875 -7.0384 -2.4953 0.2948 0 8
4.1001 -6.9734 -2.4953 0.2948 0 8
4.2117 -6.9066 -2.4953 0.2948 0 8
4.3222 -6.8380 -2.4953 0.2948 0 8
4.4315 -6.7677 -2.4953 0.2948 0 8
4.5397 -6.6956 -2.4953 0.2948 0 8
4.6467 -6.6217 -2.4953 0.2948 0 8
4.7526 -6.5462 -2.4953 0.2948 0 8
4.8572 -6.4690 -2.4953 0.2948 0 8
4.9605 -6.3901 -2.4953 0.2948 0 8
5.0626 -6.3095 -2.4953 0.2948 0 8
5.1634 -6.2273 -2.4953 0.2948 0 8
5.2628 -6.1435 -2.4953 0.2948 0 8
5.3608 -6.0581 -2.4953 0.2948 0 8
5.4575 -5.9712 -2.4953 0.2948 0 8
5.5528 -5.8827 -2.4953 0.2948 0 8
5.6466 -5.7927 -2.4953 0.2948 0 8
5.7390 -5.7012 -2.4953 0.2948 0 8
5.8299 -5.6082 -2.4953 0.2948 0 8
5.9193 -5.5138 -2.4953 0.2948 0 8
6.0072 -5.4179 -2.4953 0.2948 0 8
6.0935 -5.3206 -2.4953 0.2948 0 8
6.1782 -5.2220 -2.4953 0.2948 0 8
6.2613 -5.1220 -2.4953 0.2948 0 8
6.3429 -5.0207 -2.4953 0.2948 0 8
6.4227 -4.9181 -2.4953 0.2948 0 8
6.5010 -4.8143 -2.4953 0.2948 0 8
6.5775 -4.7092 -2.4953 0.2948 0 8
6.6523 -4.6028 -2.4953 0.2948 0 8
6.7255 -4.4953 -2.4953 0.2948 0 8
6.7968 -4.3866 -2.4953 0.2948 0 8
6.8665 -4.2768 -2.4953 0.2948 0 8
6.9343 -4.1659 -2.4953 0.2948 0 8
7.0004 -4.0539 -2.4953 0.2948 0 8
7.0646 -3.9409 -2.4953 0.2948 0 8
7.1271 -3.8268 -2.4953 0.2948 0 8
7.1877 -3.7117 -2.4953 0.2948 0 8
7.2464 -3.5957 -2.4953 0.2948 0 8
7.3033 -3.4788 -2.4953 0.2948 0 8
7.3582 -3.3610 -2.4953 0.2948 0 8
7.4113 -3.2423 -2.4953 0.2948 0 8
7.4625 -3.1227 -2.4953 0.2948 0 8
7.5117 -3.0024 -2.4953 0.2948 0 8
7.5590 -2.8812 -2.4953 0.2948 0 8
7.6043 -2.7594 -2.4953 0.2948 0 8
7.6477 -2.6368 -2.4953 0.2948 0 8
7.6891 -2.5135 -2.4953 0.2948 0 8
7.7285 -2.3896 -2.4953 0.2948 0 8
7.7659 -2.2651 -2.4953 0.2948 0 8
7.8013 -2.1400 -2.4953 0.2948 0 8
7.8347 -2.0143 -2.4953 0.2948 0 8
7.8660 -1.8881 -2.4953 0.2948 0 8
7.8954 -1.7614 -2.4953 0.2948 0 8
7.9227 -1.6343 -2.4953 0.2948 0 8
7.9479 -1.5068 -2.4953 0.2948 0 8
7.9711 -1.3788 -2.4953 0.2948 0 8
7.9922 -1.2505 -2.4953 0.2948 0 8
8.0113 -1.1219 -2.4953 0.2948 0 8
8.0283 -0.9930 -2.4953 0.2948 0 8
8.0432 -0.8638 -2.4953 0.2948 0 8
8.0561 -0.7344 -2.4953 0.2948 0 8
8.0668 -0.6048 -2.4953 0.2948 0 8
8.0755 -0.4751 -2.4953 0.2948 0 8
8.0821 -0.3452 -2.4953 0.2948 0 8
8.0866 -0.2153 -2.4953 0.2948 0 8
8.0890 -0.0853 -2.4953 0.2948 0 8
8.0893 0.0447 -2.4953 0.2948 0 8
8.0876 0.1748 -2.4953 0.2948 0 8
8.0837 0.3047 -2.4953 0.2948 0 8
8.0778 0.4346 -2.4953 0.2948 0 8
8.0698 0.5644 -2.4953 0.2948 0 8
8.0596 0.6940 -2.4953 0.2948 0 8
8.0474 0.8235 -2.4953 0.2948 0 8
8.0332 0.9527 -2.4953 0.2948 0 8
8.0168 1.0817 -2.4953 0.2948 0 8
7.9984 1.2105 -2.4953 0.2948 0 8
7.9779 1.3389 -2.4953 0.2948 0 8
7.9554 1.4669 -2.4953 0.2948 0 8
7.9308 1.5946 -2.4953 0.2948 0 8
7.9041 1.7219 -2.4953 0.2948 0 8
7.8754 1.8487 -2.4953 0.2948 0 8
7.8447 1.9750 -2.4953 0.2948 0 8
7.8119 2.1009 -2.4953 0.2948 0 8
7.7771 2.2262 -2.4953 0.2948 0 8
7.7403 2.3509 -2.4953 0.2948 0 8
7.7016 2.4750 -2.4953 0.2948 0 8
0.7651 -7.8197 -2.4953 0.3027 0 8
0.8907 -7.8064 -2.4953 0.3027 0 8
1.0160 -7.7911 -2.4953 0.3027 0 8
1.1411 -7.7737 -2.4953 0.3027 0 8
1.2659 -7.7544 -2.4953 0.3027 0 8
1.3904 -7.7330 -2.4953 0.3027 0 8
1.5145 -7.7097 -2.4953 0.3027 0 8
1.6382 -7.6843 -2.4953 0.3027 0 8
1.7615 -7.6570 -2.4953 0.3027 0 8
1.8844 -7.6277 -2.4953 0.3027 0 8
2.0067 -7.5964 -2.4953 0.3027 0 8
2.1286 -7.5632 -2.4953 0.3027 0 8
2.2499 -7.5280 -2.4953 0.3027 0 8
2.3706 -7.4909 -2.4953 0.3027 0 8
2.4907 -7.4518 -2.4953 0.3027 0 8
2.6101 -7.4108 -2.4953 0.3027 0 8
2.7289 -7.3679 -2.4953 0.3027 0 8
2.8470 -7.3231 -2.4953 0.3027 0 8
2.9643 -7.2764 -2.4953 0.3027 0 8
3.0809 -7.2278 -2.4953 0.3027 0 8
3.1967 -7.1773 -2.4953 0.3027 0 8
3.3116 -7.1250 -2.4953 0.3027 0 8
3.4257 -7.0709 -2.4953 0.3027 0 8
3.5389 -7.0149 -2.4953 0.3027 0 8
3.6512 -6.9571 -2.4953 0.3027 0 8
3.7626 -6.8975 -2.4953 0.3027 0 8
3.8729 -6.8362 -2.4953 0.3027 0 8
3.9823 -6.7730 -2.4953 0.3027 0 8
4.0907 -6.7082 -2.4953 0.3027 0 8
4.1980 -6.6415 -2.4953 0.3027 0 8
4.3042 -6.5732 -2.4953 0.3027 0 8
4.4093 -6.5032 -2.4953 0.3027 0 8
4.5132 -6.4315 -2.4953 0.3027 0 8
4.6160 -6.3581 -2.4953 0.3027 0 8
4.7176 -6.2831 -2.4953 0.3027 0 8
4.8180 -6.2064 -2.4953 0.3027 0 8
4.9171 -6.1282 -2.4953 0.3027 0 8
5.0150 -6.0484 -2.4953 0.3027 0 8
5.1116 -5.9670 -2.4953 0.3027 0 8
5.2068 -5.8841 -2.4953 0.3027 0 8
5.3007 -5.7996 -2.4953 0.3027 0 8
5.3932 -5.7137 -2.4953 0.3027 0 8
5.4844 -5.6262 -2.4953 0.3027 0 8
5.5741 -5.5373 -2.4953 0.3027 0 8
5.6624 -5.4470 -2.4953 0.3027 0 8
5.7492 -5.3553 -2.4953 0.3027 0 8
5.8345 -5.2622 -2.4953 0.3027 0 8
5.9184 -5.1678 -2.4953 0.3027 0 8
6.0007 -5.0720 -2.4953 0.3027 0 8
6.0814 -4.9749 -2.4953 0.3027 0 8
6.1606 -4.8765 -2.4953 0.3027 0 8
6.2382 -4.7768 -2.4953 0.3027 0 8
6.3142 -4.6759 -2.4953 0.3027 0 8
6.3885 -4.5738 -2.4953 0.3027 0 8
6.4612 -4.4706 -2.4953 0.3027 0 8
6.5322 -4.3661 -2.4953 0.3027 0 8
6.6015 -4.2606 -2.4953 0.3027 0 8
6.6692 -4.1539 -2.4953 0.3027 0 8
6.7351 -4.0462 -2.4953 0.3027 0 8
6.7992 -3.9374 -2.4953 0.3027 0 8
6.8616 -3.8276 -2.4953 0.3027 0 8
6.9223 -3.7168 -2.4953 0.3027 0 8
6.9811 -3.6051 -2.4953 0.3027 0 8
7.0382 -3.4924 -2.4953 0.3027 0 8
7.0934 -3.3788 -2.4953 0.3027 0 8
7.1468 -3.2644 -2.4953 0.3027 0 8
7.1983 -3.1491 -2.4953 0.3027 0 8
7.2480 -3.0330 -2.4953 0.3027 0 8
7.2958 -2.9161 -2.4953 0.3027 0 8
7.3418 -2.7985 -2.4953 0.3027 0 8
7.3858 -2.6801 -2.4953 0.3027 0 8
7.4279 -2.5610 -2.4953 0.3027 0 8
7.4681 -2.4413 -2.4953 0.3027 0 8
7.5064 -2.3210 -2.4953 0.3027 0 8
7.5427 -2.2000 -2.4953 0.3027 0 8
7.5771 -2.0785 -2.4953 0.3027 0 8
7.6096 -1.9564 -2.4953 0.3027 0 8
7.6400 -1.8339 -2.4953 0.3027 0 8
7.6685 -1.7108 -2.4953 0.3027 0 8
7.6950 -1.5874 -2.4953 0.3027 0 8
7.7195 -1.4635 -2.4953 0.3027 0 8
7.7421 -1.3392 -2.4953 0.3027 0 8
7.7626 -1.2146 -2.4953 0.3027 0 8
7.7811 -1.0897 -2.4953 0.3027 0 8
7.7976 -0.9644 -2.4953 0.3027 0 8
7.8121 -0.8390 -2.4953 0.3027 0 8
7.8246 -0.7133 -2.4953 0.3027 0 8
7.8350 -0.5875 -2.4953 0.3027 0 8
7.8435 -0.4614 -2.4953 0.3027 0 8
7.8499 -0.3353 -2.4953 0.3027 0 8
7.8542 -0.2091 -2.4953 0.3027 0 8
7.8566 -0.0828 -2.4953 0.3027 0 8
7.8569 0.0435 -2.4953 0.3027 0 8
7.8552 0.1697 -2.4953 0.3027 0 8
7.8515 0.2960 -2.4953 0.3027 0 8
7.8457 0.4221 -2.4953 0.3027 0 8
7.8379 0.5482 -2.4953 0.3027 0 8
7.8281 0.6741 -2.4953 0.3027 0 8
7.8162 0.7998 -2.4953 0.3027 0 8
7.8023 0.9254 -2.4953 0.3027 0 8
7.7865 1.0507 -2.4953 0.3027 0 8
7.7686 1.1757 -2.4953 0.3027 0 8
7.7487 1.3004 -2.4953 0.3027 0 8
7.7268 1.4248 -2.4953 0.3027 0 8
7.7029 1.5488 -2.4953 0.3027 0 8
7.6770 1.6724 -2.4953 0.3027 0 8
7.6491 1.7956 -2.4953 0.3027 0 8
7.6193 1.9183 -2.4953 0.3027 0 8
7.5874 2.0405 -2.4953 0.3027 0 8
7.5537 2.1622 -2.4953 0.3027 0 8
7.5179 2.2833 -2.4953 0.3027 0 8
7.4803 2.4039 -2.4953 0.3027 0 8
0.7436 -7.6002 -2.4953 0.3106 0 8
0.8656 -7.5872 -2.4953 0.3106 0 8
0.9875 -7.5723 -2.4953 0.3106 0 8
1.1091 -7.5555 -2.4953 0.3106 0 8
1.2304 -7.5367 -2.4953 0.3106 0 8
1.3513 -7.5159 -2.4953 0.3106 0 8
1.4720 -7.4932 -2.4953 0.3106 0 8
1.5922 -7.4686 -2.4953 0.3106 0 8
1.7121 -7.4420 -2.4953 0.3106 0 8
1.8315 -7.4136 -2.4953 0.3106 0 8
1.9504 -7.3832 -2.4953 0.3106 0 8
2.0688 -7.3509 -2.4953 0.3106 0 8
2.1867 -7.3167 -2.4953 0.3106 0 8
2.3040 -7.2806 -2.4953 0.3106 0 8
2.4207 -7.2426 -2.4953 0.3106 0 8
2.5368 -7.2028 -2.4953 0.3106 0 8
2.6523 -7.1611 -2.4953 0.3106 0 8
2.7670 -7.1175 -2.4953 0.3106 0 8
2.8811 -7.0721 -2.4953 0.3106 0 8
2.9944 -7.0249 -2.4953 0.3106 0 8
3.1069 -6.9758 -2.4953 0.3106 0 8
3.2186 -6.9250 -2.4953 0.3106 0 8
3.3295 -6.8724 -2.4953 0.3106 0 8
3.4395 -6.8180 -2.4953 0.3106 0 8
3.5487 -6.7618 -2.4953 0.3106 0 8
3.6569 -6.7039 -2.4953 0.3106 0 8
3.7642 -6.6442 -2.4953 0.3106 0 8
3.8705 -6.5829 -2.4953 0.3106 0 8
3.9758 -6.5198 -2.4953 0.3106 0 8
4.0801 -6.4551 -2.4953 0.3106 0 8
4.1833 -6.3887 -2.4953 0.3106 0 8
4.2855 -6.3206 -2.4953 0.3106 0 8
4.3865 -6.2509 -2.4953 0.3106 0 8
4.4864 -6.1796 -2.4953 0.3106 0 8
4.5852 -6.1067 -2.4953 0.3106 0 8
4.6827 -6.0322 -2.4953 0.3106 0 8
4.7791 -5.9561 -2.4953 0.3106 0 8
4.8742 -5.8786 -2.4953 0.3106 0 8
4.9681 -5.7995 -2.4953 0.3106 0 8
5.0606 -5.7189 -2.4953 0.3106 0 8
5.1519 -5.6368 -2.4953 0.3106 0 8
5.2418 -5.5532 -2.4953 0.3106 0 8
5.3304 -5.4683 -2.4953 0.3106 0 8
5.4176 -5.3819 -2.4953 0.3106 0 8
5.5034 -5.2941 -2.4953 0.3106 0 8
5.5878 -5.2050 -2.4953 0.3106 0 8
5.6707 -5.1145 -2.4953 0.3106 0 8
5.7522 -5.0227 -2.4953 0.3106 0 8
5.8322 -4.9296 -2.4953 0.3106 0 8
5.9107 -4.8352 -2.4953 0.3106 0 8
5.9876 -4.7396 -2.4953 0.3106 0 8
6.0630 -4.6427 -2.4953 0.3106 0 8
6.1369 -4.5447 -2.4953 0.3106 0 8
6.2091 -4.4454 -2.4953 0.3106 0 8
6.2798 -4.3451 -2.4953 0.3106 0 8
6.3488 -4.2436 -2.4953 0.3106 0 8
6.4162 -4.1410 -2.4953 0.3106 0 8
6.4819 -4.0373 -2.4953 0.3106 0 8
6.5460 -3.9326 -2.4953 0.3106 0 8
6.6083 -3.8269 -2.4953 0.3106 0 8
6.6690 -3.7202 -2.4953 0.3106 0 8
6.7279 -3.6125 -2.4953 0.3106 0 8
6.7851 -3.5039 -2.4953 0.3106 0 8
6.8406 -3.3944 -2.4953 0.3106 0 8
6.8943 -3.2840 -2.4953 0.3106 0 8
6.9461 -3.1727 -2.4953 0.3106 0 8
6.9962 -3.0607 -2.4953 0.3106 0 8
7.0445 -2.9478 -2.4953 0.3106 0 8
7.0910 -2.8342 -2.4953 0.3106 0 8
7.1356 -2.7199 -2.4953 0.3106 0 8
7.1784 -2.6048 -2.4953 0.3106 0 8
7.2194 -2.4891 -2.4953 0.3106 0 8
7.2585 -2.3728 -2.4953 0.3106 0 8
7.2957 -2.2558 -2.4953 0.3106 0 8
7.3310 -2.1382 -2.4953 0.3106 0 8
7.3644 -2.0201 -2.4953 0.3106 0 8
7.3959 -1.9015 -2.4953 0.3106 0 8
7.4255 -1.7824 -2.4953 0.3106 0 8
7.4532 -1.6628 -2.4953 0.3106 0 8
7.4790 -1.5428 -2.4953 0.3106 0 8
7.5028 -1.4224 -2.4953 0.3106 0 8
7.5247 -1.3016 -2.4953 0.3106 0 8
7.5446 -1.1805 -2.4953 0.3106 0 8
7.5626 -1.0591 -2.4953 0.3106 0 8
7.5787 -0.9374 -2.4953 0.3106 0 8
7.5928 -0.8154 -2.4953 0.3106 0 8
7.6049 -0.6933 -2.4953 0.3106 0 8
7.6151 -0.5710 -2.4953 0.3106 0 8
7.6233 -0.4485 -2.4953 0.3106 0 8
7.6295 -0.3259 -2.4953 0.3106 0 8
7.6337 -0.2032 -2.4953 0.3106 0 8
7.6360 -0.0805 -2.4953 0.3106 0 8
7.6363 0.0422 -2.4953 0.3106 0 8
7.6347 0.1650 -2.4953 0.3106 0 8
7.6310 0.2877 -2.4953 0.3106 0 8
7.6254 0.4103 -2.4953 0.3106 0 8
7.6178 0.5328 -2.4953 0.3106 0 8
7.6083 0.6552 -2.4953 0.3106 0 8
7.5968 0.7774 -2.4953 0.3106 0 8
7.5833 0.8994 -2.4953 0.3106 0 8
7.5679 1.0212 -2.4953 0.3106 0 8
7.5505 1.1427 -2.4953 0.3106 0 8
7.5311 1.2639 -2.4953 0.3106 0 8
7.5098 1.3848 -2.4953 0.3106 0 8
7.4866 1.5053 -2.4953 0.3106 0 8
7.4614 1.6254 -2.4953 0.3106 0 8
7.4344 1.7452 -2.4953 0.3106 0 8
7.4053 1.8644 -2.4953 0.3106 0 8
7.3744 1.9832 -2.4953 0.3106 0 8
7.3416 2.1015 -2.4953 0.3106 0 8
7.3069 2.2192 -2.4953 0.3106 0 8
7.2703 2.3364 -2.4953 0.3106 0 8
0.7232 -7.3915 -2.4953 0.3185 0 8
0.8419 -7.3789 -2.4953 0.3185 0 8
0.9604 -7.3644 -2.4953 0.3185 0 8
1.0786 -7.3481 -2.4953 0.3185 0 8
1.1966 -7.3298 -2.4953 0.3185 0 8
1.3143 -7.3096 -2.4953 0.3185 0 8
1.4316 -7.2875 -2.4953 0.3185 0 8
1.5485 -7.2636 -2.4953 0.3185 0 8
1.6651 -7.2377 -2.4953 0.3185 0 8
1.7812 -7.2100 -2.4953 0.3185 0 8
1.8968 -7.1805 -2.4953 0.3185 0 8
2.0120 -7.1491 -2.4953 0.3185 0 8
2.1267 -7.1158 -2.4953 0.3185 0 8
2.2408 -7.0807 -2.4953 0.3185 0 8
2.3543 -7.0438 -2.4953 0.3185 0 8
2.4672 -7.0050 -2.4953 0.3185 0 8
2.5795 -6.9645 -2.4953 0.3185 0 8
2.6911 -6.9221 -2.4953 0.3185 0 8
2.8020 -6.8779 -2.4953 0.3185 0 8
2.9122 -6.8320 -2.4953 0.3185 0 8
3.0216 -6.7843 -2.4953 0.3185 0 8
3.1303 -6.7349 -2.4953 0.3185 0 8
3.2381 -6.6837 -2.4953 0.3185 0 8
3.3451 -6.6308 -2.4953 0.3185 0 8
3.4513 -6.5762 -2.4953 0.3185 0 8
3.5565 -6.5198 -2.4953 0.3185 0 8
3.6609 -6.4618 -2.4953 0.3185 0 8
3.7643 -6.4022 -2.4953 0.3185 0 8
3.8667 -6.3408 -2.4953 0.3185 0 8
3.9681 -6.2779 -2.4953 0.3185 0 8
4.0685 -6.2133 -2.4953 0.3185 0 8
4.1678 -6.1471 -2.4953 0.3185 0 8
4.2661 -6.0793 -2.4953 0.3185 0 8
4.3632 -6.0099 -2.4953 0.3185 0 8
4.4593 -5.9390 -2.4953 0.3185 0 8
4.5542 -5.8666 -2.4953 0.3185 0 8
4.6479 -5.7926 -2.4953 0.3185 0 8
4.7404 -5.7172 -2.4953 0.3185 0 8
4.8317 -5.6402 -2.4953 0.3185 0 8
4.9217 -5.5619 -2.4953 0.3185 0 8
5.0105 -5.4820 -2.4953 0.3185 0 8
5.0979 -5.4008 -2.4953 0.3185 0 8
5.1841 -5.3182 -2.4953 0.3185 0 8
5.2689 -5.2341 -2.4953 0.3185 0 8
5.3523 -5.1488 -2.4953 0.3185 0 8
5.4344 -5.0621 -2.4953 0.3185 0 8
5.5151 -4.9741 -2.4953 0.3185 0 8
5.5943 -4.8848 -2.4953 0.3185 0 8
5.6721 -4.7942 -2.4953 0.3185 0 8
5.7484 -4.7025 -2.4953 0.3185 0 8
5.8233 -4.6094 -2.4953 0.3185 0 8
5.8966 -4.5153 -2.4953 0.3185 0 8
5.9684 -4.4199 -2.4953 0.3185 0 8
6.0387 -4.3234 -2.4953 0.3185 0 8
6.1074 -4.2258 -2.4953 0.3185 0 8
6.1745 -4.1271 -2.4953 0.3185 0 8
6.2401 -4.0273 -2.4953 0.3185 0 8
6.3040 -3.9265 -2.4953 0.3185 0 8
6.3663 -3.8246 -2.4953 0.3185 0 8
6.4269 -3.7218 -2.4953 0.3185 0 8
6.4859 -3.6180 -2.4953 0.3185 0 8
6.5432 -3.5133 -2.4953 0.3185 0 8
6.5989 -3.4077 -2.4953 0.3185 0 8
6.6528 -3.3012 -2.4953 0.3185 0 8
6.7050 -3.1938 -2.4953 0.3185 0 8
6.7555 -3.0856 -2.4953 0.3185 0 8
6.8042 -2.9767 -2.4953 0.3185 0 8
6.8511 -2.8669 -2.4953 0.3185 0 8
6.8963 -2.7564 -2.4953 0.3185 0 8
6.9398 -2.6452 -2.4953 0.3185 0 8
6.9814 -2.5333 -2.4953 0.3185 0 8
7.0212 -2.4208 -2.4953 0.3185 0 8
7.0592 -2.3076 -2.4953 0.3185 0 8
7.0954 -2.1939 -2.4953 0.3185 0 8
7.1297 -2.0795 -2.4953 0.3185 0 8
7.1622 -1.9647 -2.4953 0.3185 0 8
7.1929 -1.8493 -2.4953 0.3185 0 8
7.2217 -1.7334 -2.4953 0.3185 0 8
7.2486 -1.6171 -2.4953 0.3185 0 8
7.2737 -1.5004 -2.4953 0.3185 0 8
7.2968 -1.3833 -2.4953 0.3185 0 8
7.3181 -1.2659 -2.4953 0.3185 0 8
7.3375 -1.1481 -2.4953 0.3185 0 8
7.3550 -1.0300 -2.4953 0.3185 0 8
7.3706 -0.9116 -2.4953 0.3185 0 8
7.3843 -0.7930 -2.4953 0.3185 0 8
7.3961 -0.6743 -2.4953 0.3185 0 8
7.4060 -0.5553 -2.4953 0.3185 0 8
7.4140 -0.4362 -2.4953 0.3185 0 8
7.4200 -0.3170 -2.4953 0.3185 0 8
7.4242 -0.1976 -2.4953 0.3185 0 8
7.4264 -0.0783 -2.4953 0.3185 0 8
7.4267 0.0411 -2.4953 0.3185 0 8
7.4251 0.1604 -2.4953 0.3185 0 8
7.4215 0.2798 -2.4953 0.3185 0 8
7.4161 0.3990 -2.4953 0.3185 0 8
7.4087 0.5182 -2.4953 0.3185 0 8
7.3994 0.6372 -2.4953 0.3185 0 8
7.3882 0.7560 -2.4953 0.3185 0 8
7.3751 0.8747 -2.4953 0.3185 0 8
7.3601 0.9931 -2.4953 0.3185 0 8
7.3432 1.1113 -2.4953 0.3185 0 8
7.3244 1.2292 -2.4953 0.3185 0 8
7.3037 1.3467 -2.4953 0.3185 0 8
7.2811 1.4640 -2.4953 0.3185 0 8
7.2566 1.5808 -2.4953 0.3185 0 8
7.2303 1.6972 -2.4953 0.3185 0 8
7.2020 1.8132 -2.4953 0.3185 0 8
7.1720 1.9288 -2.4953 0.3185 0 8
7.1400 2.0438 -2.4953 0.3185 0 8
7.1063 2.1583 -2.4953 0.3185 0 8
7.0707 2.2722 -2.4953 0.3185 0 8
0.7037 -7.1929 -2.4953 0.3264 0 8
0.8193 -7.1807 -2.4953 0.3264 0 8
0.9346 -7.1666 -2.4953 0.3264 0 8
1.0496 -7.1506 -2.4953 0.3264 0 8
