ply
format ascii 1.0
element vertex 1399
property float32 x
property float32 y
property float32 z
property float32 CosAngle
property uint32 ObjIdx
property uint32 ObjTag
end_header
19.6254 3.3650 -2.4953 0.1243 0 8
19.5689 3.6792 -2.4953 0.1243 0 8
19.5074 3.9924 -2.4953 0.1243 0 8
19.4409 4.3046 -2.4953 0.1243 0 8
19.3694 4.6157 -2.4953 0.1243 0 8
19.2929 4.9256 -2.4953 0.1243 0 8
19.2115 5.2343 -2.4953 0.1243 0 8
19.1251 5.5416 -2.4953 0.1243 0 8
19.0338 5.8474 -2.4953 0.1243 0 8
18.9377 6.1518 -2.4953 0.1243 0 8
18.8366 6.4546 -2.4953 0.1243 0 8
18.7307 6.7557 -2.4953 0.1243 0 8
18.6200 7.0551 -2.4953 0.1243 0 8
18.5045 7.3527 -2.4953 0.1243 0 8
18.3843 7.6484 -2.4953 0.1243 0 8
18.2593 7.9421 -2.4953 0.1243 0 8
18.1296 8.2338 -2.4953 0.1243 0 8
19.0944 9.0440 -2.6477 0.1243 0 7
18.9470 9.3489 -2.6477 0.1243 0 7
18.7946 9.6514 -2.6477 0.1243 0 7
18.6375 9.9515 -2.6477 0.1243 0 7
18.4756 10.2490 -2.6477 0.1243 0 7
18.3089 10.5438 -2.6477 0.1243 0 7
18.1375 10.8360 -2.6477 0.1243 0 7
17.9615 11.1254 -2.6477 0.1243 0 7
17.7808 11.4119 -2.6477 0.1243 0 7
17.5956 11.6954 -2.6477 0.1243 0 7
17.4059 11.9760 -2.6477 0.1243 0 7
17.2116 12.2535 -2.6477 0.1243 0 7
17.0130 12.5278 -2.6477 0.1243 0 7
16.8100 12.7990 -2.6477 0.1243 0 7
16.6027 13.0668 -2.6477 0.1243 0 7
16.3910 13.3313 -2.6477 0.1243 0 7
16.1752 13.5923 -2.6477 0.1243 0 7
15.9552 13.8499 -2.6477 0.1243 0 7
15.7312 14.1039 -2.6477 0.1243 0 7
15.5031 14.3542 -2.6477 0.1243 0 7
15.2710 14.6009 -2.6477 0.1243 0 7
15.0349 14.8438 -2.6477 0.1243 0 7
14.7950 15.0830 -2.6477 0.1243 0 7
14.5514 15.3182 -2.6477 0.1243 0 7
14.3039 15.5495 -2.6477 0.1243 0 7
14.0528 15.7768 -2.6477 0.1243 0 7
13.7981 16.0000 -2.6477 0.1243 0 7
13.5398 16.2192 -2.6477 0.1243 0 7
13.2781 16.4342 -2.6477 0.1243 0 7
13.0129 16.6449 -2.6477 0.1243 0 7
12.7444 16.8514 -2.6477 0.1243 0 7
12.4726 17.0535 -2.6477 0.1243 0 7
12.1977 17.2513 -2.6477 0.1243 0 7
11.9196 17.4446 -2.6477 0.1243 0 7
11.6384 17.6334 -2.6477 0.1243 0 7
11.3542 17.8177 -2.6477 0.1243 0 7
11.0671 17.9974 -2.6477 0.1243 0 7
10.7772 18.1725 -2.6477 0.1243 0 7
10.4845 18.3430 -2.6477 0.1243 0 7
10.1891 18.5087 -2.6477 0.1243 0 6
9.8910 18.6697 -2.6477 0.1243 0 7
9.5905 18.8258 -2.6477 0.1243 0 7
9.2792 18.9602 -2.6453 0.8978 0 8
8.9066 18.9629 -2.6254 0.9046 0 8
8.5394 18.9654 -2.6065 0.9112 0 8
8.1773 18.9677 -2.5884 0.9175 0 8
7.8200 18.9699 -2.5713 0.9236 0 8
7.4673 18.9719 -2.5550 0.9295 0 8
18.3428 -3.3925 -2.4953 0.1326 0 8
18.3948 -3.0980 -2.4953 0.1326 0 8
18.4421 -2.8027 -2.4953 0.1326 0 8
18.4847 -2.5067 -2.4953 0.1326 0 8
18.5225 -2.2101 -2.4953 0.1326 0 8
18.5555 -1.9129 -2.4953 0.1326 0 8
18.5838 -1.6152 -2.4953 0.1326 0 8
8.6804 -0.6144 -1.1641 0.3024 25 10
8.6052 -0.4706 -1.1528 0.4033 25 10
8.5663 -0.3308 -1.1467 0.4179 25 10
8.5418 -0.1928 -1.1429 0.4223 25 10
8.5241 -0.0557 -1.1403 0.4233 25 10
8.5274 0.0810 -1.1407 0.4231 25 10
8.5451 0.2182 -1.1434 0.4241 25 10
8.5733 0.3565 -1.1478 0.4050 25 10
8.6124 0.4965 -1.1540 0.4029 25 10
8.8525 0.6529 -1.1874 0.0993 25 10
18.5790 1.6701 -2.4953 0.1326 0 8
18.5498 1.9677 -2.4953 0.1326 0 8
18.5159 2.2648 -2.4953 0.1326 0 8
18.4772 2.5614 -2.4953 0.1326 0 8
18.4338 2.8573 -2.4953 0.1326 0 8
18.3856 3.1524 -2.4953 0.1326 0 8
18.3327 3.4467 -2.4953 0.1326 0 8
18.2751 3.7402 -2.4953 0.1326 0 8
18.2128 4.0327 -2.4953 0.1326 0 8
18.1458 4.3241 -2.4953 0.1326 0 8
18.0741 4.6144 -2.4953 0.1326 0 8
17.9978 4.9036 -2.4953 0.1326 0 8
17.9169 5.1915 -2.4953 0.1326 0 8
17.8314 5.4780 -2.4953 0.1326 0 8
17.7413 5.7632 -2.4953 0.1326 0 8
17.6466 6.0468 -2.4953 0.1326 0 8
17.5474 6.3289 -2.4953 0.1326 0 8
17.4437 6.6094 -2.4953 0.1326 0 8
17.3355 6.8882 -2.4953 0.1326 0 8
17.2229 7.1652 -2.4953 0.1326 0 8
17.1058 7.4404 -2.4953 0.1326 0 8
16.9843 7.7136 -2.4953 0.1326 0 8
16.8585 7.9849 -2.4953 0.1326 0 8
16.7283 8.2542 -2.4953 0.1326 0 8
17.6073 9.0417 -2.6477 0.1326 0 7
17.4601 9.3228 -2.6477 0.1326 0 7
17.3084 9.6015 -2.6477 0.1326 0 7
17.1523 9.8778 -2.6477 0.1326 0 7
16.9917 10.1515 -2.6477 0.1326 0 7
16.8268 10.4225 -2.6477 0.1326 0 7
16.6575 10.6909 -2.6477 0.1326 0 7
16.4840 10.9566 -2.6477 0.1326 0 7
16.3062 11.2194 -2.6477 0.1326 0 7
16.1243 11.4794 -2.6477 0.1326 0 6
15.9382 11.7364 -2.6477 0.1326 0 7
15.7480 11.9904 -2.6477 0.1326 0 7
15.5538 12.2413 -2.6477 0.1326 0 7
15.3555 12.4891 -2.6477 0.1326 0 7
15.1534 12.7336 -2.6477 0.1326 0 7
14.9473 12.9749 -2.6477 0.1326 0 7
14.7374 13.2129 -2.6477 0.1326 0 7
14.5237 13.4474 -2.6477 0.1326 0 7
14.3062 13.6785 -2.6477 0.1326 0 7
14.0851 13.9061 -2.6477 0.1326 0 7
13.8604 14.1301 -2.6477 0.1326 0 7
13.6321 14.3505 -2.6477 0.1326 0 7
13.4003 14.5672 -2.6477 0.1326 0 7
13.1650 14.7801 -2.6477 0.1326 0 7
12.9264 14.9893 -2.6477 0.1326 0 6
12.6845 15.1945 -2.6477 0.1326 0 7
12.4393 15.3960 -2.6477 0.1326 0 7
12.1908 15.5934 -2.6477 0.1326 0 7
11.9393 15.7868 -2.6477 0.1326 0 7
11.6847 15.9762 -2.6477 0.1326 0 7
11.4271 16.1614 -2.6477 0.1326 0 7
11.1666 16.3425 -2.6477 0.1326 0 7
10.9031 16.5194 -2.6477 0.1326 0 7
10.6369 16.6921 -2.6477 0.1326 0 7
10.3680 16.8605 -2.6477 0.1326 0 7
10.0963 17.0245 -2.6477 0.1326 0 7
9.8221 17.1842 -2.6477 0.1326 0 7
9.5454 17.3394 -2.6477 0.1326 0 7
9.2662 17.4902 -2.6477 0.1326 0 7
8.9846 17.6365 -2.6477 0.1326 0 7
8.7007 17.7783 -2.6477 0.1326 0 7
8.4146 17.9155 -2.6477 0.1326 0 7
8.1263 18.0481 -2.6477 0.1326 0 7
7.8360 18.1760 -2.6477 0.1326 0 7
7.5436 18.2993 -2.6477 0.1326 0 7
7.2493 18.4179 -2.6477 0.1326 0 6
17.2506 -3.1905 -2.4953 0.1408 0 8
17.2995 -2.9135 -2.4953 0.1408 0 8
17.3440 -2.6358 -2.4953 0.1408 0 8
17.3840 -2.3575 -2.4953 0.1408 0 8
17.4196 -2.0785 -2.4953 0.1408 0 8
17.4506 -1.7990 -2.4953 0.1408 0 8
17.4772 -1.5190 -2.4953 0.1408 0 8
8.4944 -0.6012 -1.2112 0.3866 25 10
8.4400 -0.4615 -1.2023 0.4234 25 10
8.4063 -0.3246 -1.1966 0.4254 25 10
8.3840 -0.1892 -1.1928 0.4318 25 10
8.3663 -0.0547 -1.1900 0.4328 25 10
8.3696 0.0795 -1.1905 0.4326 25 10
8.3871 0.2141 -1.1933 0.4316 25 10
8.4125 0.3498 -1.1976 0.4250 25 10
8.4462 0.4869 -1.2033 0.4230 25 10
8.5173 0.6282 -1.2148 0.1680 25 10
17.4727 1.5707 -2.4953 0.1408 0 8
17.4452 1.8506 -2.4953 0.1408 0 8
17.4133 2.1300 -2.4953 0.1408 0 8
17.3770 2.4089 -2.4953 0.1408 0 8
17.3361 2.6871 -2.4953 0.1408 0 8
17.2908 2.9647 -2.4953 0.1408 0 8
17.2411 3.2415 -2.4953 0.1408 0 8
17.1869 3.5175 -2.4953 0.1408 0 8
17.1283 3.7925 -2.4953 0.1408 0 8
17.0653 4.0666 -2.4953 0.1408 0 8
16.9979 4.3397 -2.4953 0.1408 0 8
16.9261 4.6116 -2.4953 0.1408 0 8
16.8500 4.8823 -2.4953 0.1408 0 8
16.7696 5.1518 -2.4953 0.1408 0 8
16.6849 5.4200 -2.4953 0.1408 0 8
16.5958 5.6868 -2.4953 0.1408 0 8
16.5025 5.9521 -2.4953 0.1408 0 8
16.4050 6.2159 -2.4953 0.1408 0 8
16.3033 6.4780 -2.4953 0.1408 0 8
16.1973 6.7386 -2.4953 0.1408 0 8
16.0872 6.9974 -2.4953 0.1408 0 8
15.9730 7.2543 -2.4953 0.1408 0 8
15.8546 7.5095 -2.4953 0.1408 0 8
15.7322 7.7627 -2.4953 0.1408 0 8
15.6057 8.0139 -2.4953 0.1408 0 8
15.4753 8.2630 -2.4953 0.1408 0 8
16.2778 9.0298 -2.6477 0.1408 0 7
16.1309 9.2896 -2.6477 0.1408 0 7
15.9799 9.5470 -2.6477 0.1408 0 7
15.8248 9.8019 -2.6477 0.1408 0 7
15.6657 10.0543 -2.6477 0.1408 0 7
15.5025 10.3042 -2.6477 0.1408 0 7
15.3353 10.5514 -2.6477 0.1408 0 7
15.1642 10.7958 -2.6477 0.1408 0 7
14.9892 11.0376 -2.6477 0.1408 0 7
14.8103 11.2764 -2.6477 0.1408 0 7
14.6276 11.5124 -2.6477 0.1408 0 6
14.4412 11.7454 -2.6477 0.1408 0 7
14.2511 11.9754 -2.6477 0.1408 0 7
14.0572 12.2023 -2.6477 0.1408 0 7
13.8598 12.4261 -2.6477 0.1408 0 7
13.6588 12.6467 -2.6477 0.1408 0 7
13.4544 12.8640 -2.6477 0.1408 0 7
13.2464 13.0780 -2.6477 0.1408 0 7
13.0351 13.2887 -2.6477 0.1408 0 7
12.8204 13.4960 -2.6477 0.1408 0 7
12.6024 13.6998 -2.6477 0.1408 0 7
12.3811 13.9000 -2.6477 0.1408 0 7
12.1567 14.0967 -2.6477 0.1408 0 7
11.9292 14.2898 -2.6477 0.1408 0 7
11.6985 14.4792 -2.6477 0.1408 0 7
11.4649 14.6649 -2.6477 0.1408 0 7
11.2284 14.8468 -2.6477 0.1408 0 7
10.9889 15.0249 -2.6477 0.1408 0 7
10.7467 15.1991 -2.6477 0.1408 0 7
10.5016 15.3694 -2.6477 0.1408 0 7
10.2539 15.5358 -2.6477 0.1408 0 7
10.0035 15.6982 -2.6477 0.1408 0 7
9.7506 15.8565 -2.6477 0.1408 0 7
9.4951 16.0108 -2.6477 0.1408 0 7
9.2373 16.1609 -2.6477 0.1408 0 7
8.9770 16.3069 -2.6477 0.1408 0 7
8.7144 16.4488 -2.6477 0.1408 0 7
8.4496 16.5863 -2.6477 0.1408 0 7
8.1826 16.7197 -2.6477 0.1408 0 7
7.9136 16.8487 -2.6477 0.1408 0 7
7.6424 16.9734 -2.6477 0.1408 0 7
7.3694 17.0937 -2.6477 0.1408 0 7
7.0944 17.2097 -2.6477 0.1408 0 7
6.8176 17.3212 -2.6477 0.1408 0 7
16.2790 -3.0108 -2.4953 0.1490 0 8
16.3251 -2.7494 -2.4953 0.1490 0 8
16.3671 -2.4874 -2.4953 0.1490 0 8
16.4049 -2.2247 -2.4953 0.1490 0 8
16.4384 -1.9614 -2.4953 0.1490 0 8
16.4678 -1.6976 -2.4953 0.1490 0 8
16.4929 -1.4334 -2.4953 0.1490 0 8
8.3536 -0.5913 -1.2623 0.4885 25 10
8.3082 -0.4543 -1.2541 0.5129 25 10
8.2715 -0.3194 -1.2477 0.5074 25 10
8.2508 -0.1862 -1.2439 0.5209 25 10
8.2368 -0.0538 -1.2415 0.5146 25 10
8.2394 0.0782 -1.2419 0.5144 25 10
8.2536 0.2107 -1.2444 0.5207 25 10
8.2785 0.3442 -1.2489 0.5069 25 10
8.3148 0.4794 -1.2553 0.5124 25 10
8.3660 0.6170 -1.2644 0.4877 25 10
16.4886 1.4822 -2.4953 0.1490 0 8
16.4627 1.7463 -2.4953 0.1490 0 8
16.4326 2.0100 -2.4953 0.1490 0 8
16.3982 2.2732 -2.4953 0.1490 0 8
16.3597 2.5358 -2.4953 0.1490 0 8
16.3169 2.7977 -2.4953 0.1490 0 8
16.2700 3.0589 -2.4953 0.1490 0 8
16.2189 3.3193 -2.4953 0.1490 0 8
16.1636 3.5789 -2.4953 0.1490 0 8
16.1041 3.8376 -2.4953 0.1490 0 8
16.0405 4.0952 -2.4953 0.1490 0 8
15.9728 4.3519 -2.4953 0.1490 0 8
15.9010 4.6074 -2.4953 0.1490 0 8
15.8251 4.8617 -2.4953 0.1490 0 8
15.7451 5.1147 -2.4953 0.1490 0 8
15.6611 5.3665 -2.4953 0.1490 0 8
15.5731 5.6168 -2.4953 0.1490 0 8
15.4810 5.8658 -2.4953 0.1490 0 8
15.3850 6.1132 -2.4953 0.1490 0 8
15.2850 6.3590 -2.4953 0.1490 0 8
15.1811 6.6032 -2.4953 0.1490 0 8
15.0733 6.8458 -2.4953 0.1490 0 8
14.9616 7.0865 -2.4953 0.1490 0 8
14.8461 7.3254 -2.4953 0.1490 0 8
14.7268 7.5625 -2.4953 0.1490 0 8
14.6036 7.7976 -2.4953 0.1490 0 8
14.4768 8.0307 -2.4953 0.1490 0 8
14.3462 8.2618 -2.4953 0.1490 0 8
14.2119 8.4907 -2.4953 0.1490 0 8
14.9335 9.2498 -2.6477 0.1490 0 7
14.7833 9.4880 -2.6477 0.1490 0 7
14.6293 9.7238 -2.6477 0.1490 0 7
14.4716 9.9571 -2.6477 0.1490 0 7
14.3101 10.1878 -2.6477 0.1490 0 7
14.1449 10.4159 -2.6477 0.1490 0 7
13.9761 10.6413 -2.6477 0.1490 0 7
13.8038 10.8640 -2.6477 0.1490 0 7
13.6278 11.0839 -2.6477 0.1490 0 7
13.4484 11.3009 -2.6477 0.1490 0 7
13.2655 11.5150 -2.6477 0.1490 0 6
13.0792 11.7262 -2.6477 0.1490 0 7
12.8895 11.9344 -2.6477 0.1490 0 7
12.6966 12.1395 -2.6477 0.1490 0 7
12.5003 12.3414 -2.6477 0.1490 0 7
12.3009 12.5403 -2.6477 0.1490 0 7
12.0983 12.7358 -2.6477 0.1490 0 7
11.8925 12.9281 -2.6477 0.1490 0 7
11.6838 13.1171 -2.6477 0.1490 0 7
11.4720 13.3027 -2.6477 0.1490 0 7
11.2573 13.4849 -2.6477 0.1490 0 7
11.0396 13.6637 -2.6477 0.1490 0 7
10.8192 13.8389 -2.6477 0.1490 0 7
10.5959 14.0105 -2.6477 0.1490 0 7
10.3700 14.1786 -2.6477 0.1490 0 7
10.1414 14.3430 -2.6477 0.1490 0 7
9.9101 14.5037 -2.6477 0.1490 0 7
9.6764 14.6608 -2.6477 0.1490 0 7
9.4401 14.8140 -2.6477 0.1490 0 7
9.2014 14.9634 -2.6477 0.1490 0 7
8.9603 15.1090 -2.6477 0.1490 0 7
8.7170 15.2507 -2.6477 0.1490 0 7
8.4714 15.3885 -2.6477 0.1490 0 7
8.2236 15.5223 -2.6477 0.1490 0 7
7.9737 15.6521 -2.6477 0.1490 0 7
7.7218 15.7780 -2.6477 0.1490 0 7
7.4678 15.8997 -2.6477 0.1490 0 7
7.2120 16.0174 -2.6477 0.1490 0 7
6.9543 16.1309 -2.6477 0.1490 0 7
6.6948 16.2403 -2.6477 0.1490 0 7
6.4336 16.3456 -2.6477 0.1490 0 7
15.4089 -2.8499 -2.4953 0.1573 0 8
15.4526 -2.6025 -2.4953 0.1573 0 8
15.4923 -2.3544 -2.4953 0.1573 0 8
15.5281 -2.1058 -2.4953 0.1573 0 8
15.5599 -1.8566 -2.4953 0.1573 0 8
15.5876 -1.6069 -2.4953 0.1573 0 8
8.5311 -0.7415 -1.3636 0.1672 25 10
8.2276 -0.5823 -1.3134 0.4954 25 10
8.1855 -0.4476 -1.3054 0.5117 25 10
8.1483 -0.3147 -1.2985 0.5144 25 10
8.1301 -0.1835 -1.2949 0.5280 25 10
8.1149 -0.0530 -1.2922 0.5291 25 10
8.1177 0.0771 -1.2927 0.5289 25 10
8.1329 0.2076 -1.2955 0.5278 25 10
8.1552 0.3391 -1.2997 0.5140 25 10
8.1923 0.4723 -1.3067 0.5112 25 10
8.2397 0.6077 -1.3156 0.4946 25 10
8.9858 0.8078 -1.4366 0.0974 25 10
15.5828 1.6530 -2.4953 0.1573 0 8
15.5543 1.9026 -2.4953 0.1573 0 8
15.5218 2.1517 -2.4953 0.1573 0 8
15.4853 2.4002 -2.4953 0.1573 0 8
15.4448 2.6482 -2.4953 0.1573 0 8
15.4004 2.8954 -2.4953 0.1573 0 8
15.3520 3.1419 -2.4953 0.1573 0 8
15.2997 3.3876 -2.4953 0.1573 0 8
15.2434 3.6325 -2.4953 0.1573 0 8
15.1832 3.8764 -2.4953 0.1573 0 8
15.1191 4.1193 -2.4953 0.1573 0 8
15.0511 4.3611 -2.4953 0.1573 0 8
14.9793 4.6018 -2.4953 0.1573 0 8
14.9036 4.8414 -2.4953 0.1573 0 8
14.8241 5.0796 -2.4953 0.1573 0 8
14.7407 5.3166 -2.4953 0.1573 0 8
14.6536 5.5523 -2.4953 0.1573 0 8
14.5627 5.7864 -2.4953 0.1573 0 8
14.4681 6.0192 -2.4953 0.1573 0 8
14.3697 6.2503 -2.4953 0.1573 0 8
14.2677 6.4799 -2.4953 0.1573 0 8
14.1620 6.7078 -2.4953 0.1573 0 8
14.0526 6.9339 -2.4953 0.1573 0 8
13.9397 7.1583 -2.4953 0.1573 0 8
13.8231 7.3809 -2.4953 0.1573 0 8
13.7030 7.6015 -2.4953 0.1573 0 8
13.5794 7.8202 -2.4953 0.1573 0 8
13.4523 8.0369 -2.4953 0.1573 0 8
13.3217 8.2515 -2.4953 0.1573 0 8
13.1877 8.4640 -2.4953 0.1573 0 8
13.8474 9.2041 -2.6477 0.1573 0 7
13.6981 9.4249 -2.6477 0.1573 0 7
13.5453 9.6433 -2.6477 0.1573 0 7
13.3889 9.8592 -2.6477 0.1573 0 7
13.2292 10.0725 -2.6477 0.1573 0 7
13.0660 10.2833 -2.6477 0.1573 0 7
12.8995 10.4915 -2.6477 0.1573 0 7
12.7296 10.6969 -2.6477 0.1573 0 7
12.5565 10.8996 -2.6477 0.1573 0 7
12.3802 11.0995 -2.6477 0.1573 0 7
12.2006 11.2965 -2.6477 0.1573 0 7
12.0180 11.4907 -2.6477 0.1573 0 6
11.8322 11.6818 -2.6477 0.1573 0 7
11.6434 11.8700 -2.6477 0.1573 0 7
11.4517 12.0551 -2.6477 0.1573 0 7
11.2569 12.2372 -2.6477 0.1573 0 7
11.0593 12.4161 -2.6477 0.1573 0 7
10.8589 12.5917 -2.6477 0.1573 0 7
10.6556 12.7642 -2.6477 0.1573 0 7
10.4496 12.9334 -2.6477 0.1573 0 7
10.2409 13.0992 -2.6477 0.1573 0 7
10.0296 13.2617 -2.6477 0.1573 0 7
9.8157 13.4208 -2.6477 0.1573 0 7
9.5993 13.5764 -2.6477 0.1573 0 7
9.3805 13.7286 -2.6477 0.1573 0 7
9.1592 13.8772 -2.6477 0.1573 0 7
8.9356 14.0222 -2.6477 0.1573 0 7
8.7096 14.1637 -2.6477 0.1573 0 7
8.4814 14.3015 -2.6477 0.1573 0 7
8.2511 14.4356 -2.6477 0.1573 0 7
8.0186 14.5660 -2.6477 0.1573 0 7
7.7841 14.6927 -2.6477 0.1573 0 7
7.5475 14.8156 -2.6477 0.1573 0 7
7.3090 14.9347 -2.6477 0.1573 0 6
7.0687 15.0499 -2.6477 0.1573 0 7
6.8265 15.1613 -2.6477 0.1573 0 7
6.5826 15.2688 -2.6477 0.1573 0 7
6.3370 15.3724 -2.6477 0.1573 0 7
6.0898 15.4720 -2.6477 0.1573 0 7
14.6252 -2.7049 -2.4953 0.1655 0 8
14.6666 -2.4701 -2.4953 0.1655 0 8
14.7043 -2.2347 -2.4953 0.1655 0 8
14.7383 -1.9987 -2.4953 0.1655 0 8
14.7684 -1.7621 -2.4953 0.1655 0 8
14.7948 -1.5252 -2.4953 0.1655 0 8
8.2790 -0.7195 -1.3942 0.3416 25 10
8.0842 -0.5722 -1.3597 0.3440 25 10
8.0261 -0.4389 -1.3486 0.3515 25 10
7.9747 -0.3080 -1.3389 0.3359 25 10
7.9520 -0.1795 -1.3344 0.3452 25 10
7.9365 -0.0519 -1.3315 0.3628 25 10
7.9384 0.0754 -1.3319 0.3627 25 10
7.9555 0.2031 -1.3351 0.3450 25 10
7.9858 0.3321 -1.3409 0.3354 25 10
8.0346 0.4632 -1.3502 0.3511 25 10
8.1033 0.5976 -1.3632 0.3432 25 10
8.3261 0.7485 -1.4025 0.3396 25 10
14.7902 1.5689 -2.4953 0.1655 0 8
14.7631 1.8058 -2.4953 0.1655 0 8
14.7323 2.0422 -2.4953 0.1655 0 8
14.6977 2.2782 -2.4953 0.1655 0 8
14.6593 2.5135 -2.4953 0.1655 0 8
14.6171 2.7482 -2.4953 0.1655 0 8
14.5712 2.9821 -2.4953 0.1655 0 8
14.5215 3.2153 -2.4953 0.1655 0 8
14.4681 3.4477 -2.4953 0.1655 0 8
14.4109 3.6792 -2.4953 0.1655 0 8
14.3501 3.9097 -2.4953 0.1655 0 8
14.2856 4.1393 -2.4953 0.1655 0 8
14.2174 4.3678 -2.4953 0.1655 0 8
14.1456 4.5951 -2.4953 0.1655 0 8
14.0701 4.8213 -2.4953 0.1655 0 8
13.9910 5.0462 -2.4953 0.1655 0 8
13.9083 5.2698 -2.4953 0.1655 0 8
13.8220 5.4921 -2.4953 0.1655 0 8
13.7322 5.7130 -2.4953 0.1655 0 8
13.6389 5.9324 -2.4953 0.1655 0 8
13.5420 6.1503 -2.4953 0.1655 0 8
13.4417 6.3666 -2.4953 0.1655 0 8
13.3379 6.5812 -2.4953 0.1655 0 8
13.2307 6.7942 -2.4953 0.1655 0 8
13.1200 7.0054 -2.4953 0.1655 0 8
13.0061 7.2149 -2.4953 0.1655 0 8
12.8887 7.4224 -2.4953 0.1655 0 8
12.7681 7.6281 -2.4953 0.1655 0 8
12.6441 7.8318 -2.4953 0.1655 0 8
12.5170 8.0335 -2.4953 0.1655 0 8
12.3866 8.2331 -2.4953 0.1655 0 8
12.2530 8.4306 -2.4953 0.1655 0 8
12.8563 9.1528 -2.6477 0.1655 0 7
12.7079 9.3577 -2.6477 0.1655 0 7
12.5563 9.5602 -2.6477 0.1655 0 7
12.4014 9.7603 -2.6477 0.1655 0 7
12.2434 9.9578 -2.6477 0.1655 0 7
12.0821 10.1528 -2.6477 0.1655 0 7
11.9178 10.3452 -2.6477 0.1655 0 7
11.7505 10.5349 -2.6477 0.1655 0 7
11.5801 10.7219 -2.6477 0.1655 0 7
11.4067 10.9062 -2.6477 0.1655 0 7
11.2304 11.0877 -2.6477 0.1655 0 7
11.0512 11.2663 -2.6477 0.1655 0 7
10.8692 11.4420 -2.6477 0.1655 0 6
10.6844 11.6147 -2.6477 0.1655 0 7
10.4968 11.7845 -2.6477 0.1655 0 7
10.3065 11.9513 -2.6477 0.1655 0 7
10.1136 12.1150 -2.6477 0.1655 0 7
9.9181 12.2756 -2.6477 0.1655 0 7
9.7200 12.4330 -2.6477 0.1655 0 7
9.5195 12.5872 -2.6477 0.1655 0 7
9.3165 12.7382 -2.6477 0.1655 0 7
9.1111 12.8859 -2.6477 0.1655 0 7
8.9034 13.0303 -2.6477 0.1655 0 7
8.6933 13.1713 -2.6477 0.1655 0 7
8.4811 13.3090 -2.6477 0.1655 0 7
8.2666 13.4433 -2.6477 0.1655 0 7
8.0500 13.5740 -2.6477 0.1655 0 7
7.8314 13.7014 -2.6477 0.1655 0 7
7.6108 13.8251 -2.6477 0.1655 0 7
7.3881 13.9454 -2.6477 0.1655 0 7
7.1637 14.0620 -2.6477 0.1655 0 7
6.9373 14.1750 -2.6477 0.1655 0 7
6.7092 14.2844 -2.6477 0.1655 0 7
6.4793 14.3901 -2.6477 0.1655 0 7
6.2478 14.4922 -2.6477 0.1655 0 7
6.0147 14.5905 -2.6477 0.1655 0 7
5.7800 14.6850 -2.6477 0.1655 0 7
13.9154 -2.5736 -2.4953 0.1736 0 8
13.9549 -2.3502 -2.4953 0.1736 0 8
13.9907 -2.1262 -2.4953 0.1736 0 8
14.0230 -1.9017 -2.4953 0.1736 0 8
14.0517 -1.6766 -2.4953 0.1736 0 8
14.0768 -1.4512 -2.4953 0.1736 0 8
8.1280 -0.7064 -1.4386 0.2670 25 10
7.9074 -0.5597 -1.3978 0.3698 25 10
7.8421 -0.4288 -1.3848 0.3409 25 10
7.7853 -0.3007 -1.3738 0.3436 25 10
7.7695 -0.1754 -1.3703 0.3700 25 10
7.7599 -0.0507 -1.3683 0.3705 25 10
7.7617 0.0737 -1.3687 0.3705 25 10
7.7711 0.1984 -1.3707 0.3699 25 10
7.7958 0.3242 -1.3758 0.3431 25 10
7.8515 0.4527 -1.3867 0.3588 25 10
7.9426 0.5858 -1.4043 0.3681 25 10
8.1862 0.7359 -1.4493 0.2650 25 10
14.0724 1.4928 -2.4953 0.1736 0 8
14.0467 1.7182 -2.4953 0.1736 0 8
14.0173 1.9431 -2.4953 0.1736 0 8
13.9844 2.1676 -2.4953 0.1736 0 8
13.9479 2.3915 -2.4953 0.1736 0 8
13.9077 2.6148 -2.4953 0.1736 0 8
13.8640 2.8374 -2.4953 0.1736 0 8
13.8167 3.0593 -2.4953 0.1736 0 8
13.7659 3.2804 -2.4953 0.1736 0 8
13.7116 3.5006 -2.4953 0.1736 0 8
13.6537 3.7200 -2.4953 0.1736 0 8
13.5923 3.9384 -2.4953 0.1736 0 8
13.5274 4.1558 -2.4953 0.1736 0 8
13.4591 4.3721 -2.4953 0.1736 0 8
13.3872 4.5873 -2.4953 0.1736 0 8
13.3120 4.8013 -2.4953 0.1736 0 8
13.2333 5.0141 -2.4953 0.1736 0 8
13.1512 5.2256 -2.4953 0.1736 0 8
13.0658 5.4358 -2.4953 0.1736 0 8
12.9770 5.6445 -2.4953 0.1736 0 8
12.8848 5.8518 -2.4953 0.1736 0 8
12.7893 6.0576 -2.4953 0.1736 0 8
12.6906 6.2619 -2.4953 0.1736 0 8
12.5886 6.4645 -2.4953 0.1736 0 8
12.4833 6.6655 -2.4953 0.1736 0 8
12.3749 6.8647 -2.4953 0.1736 0 8
12.2632 7.0622 -2.4953 0.1736 0 8
12.1484 7.2579 -2.4953 0.1736 0 8
12.0305 7.4517 -2.4953 0.1736 0 8
11.9095 7.6436 -2.4953 0.1736 0 8
11.7855 7.8336 -2.4953 0.1736 0 8
11.6584 8.0215 -2.4953 0.1736 0 8
11.5283 8.2073 -2.4953 0.1736 0 8
11.3952 8.3911 -2.4953 0.1736 0 8
11.9469 9.0963 -2.6477 0.1736 0 7
11.7996 9.2866 -2.6477 0.1736 0 7
11.6492 9.4746 -2.6477 0.1736 0 7
11.4958 9.6601 -2.6477 0.1736 0 7
11.3395 9.8432 -2.6477 0.1736 0 7
11.1802 10.0237 -2.6477 0.1736 0 7
11.0181 10.2016 -2.6477 0.1736 0 7
10.8531 10.3769 -2.6477 0.1736 0 7
10.6854 10.5496 -2.6477 0.1736 0 7
10.5149 10.7195 -2.6477 0.1736 0 7
10.3417 10.8867 -2.6477 0.1736 0 7
10.1659 11.0511 -2.6477 0.1736 0 7
9.9874 11.2126 -2.6477 0.1736 0 7
9.8064 11.3713 -2.6477 0.1736 0 7
9.6228 11.5270 -2.6477 0.1736 0 7
9.4368 11.6798 -2.6477 0.1736 0 7
9.2483 11.8296 -2.6477 0.1736 0 7
9.0575 11.9763 -2.6477 0.1736 0 7
8.8644 12.1200 -2.6477 0.1736 0 7
8.6689 12.2605 -2.6477 0.1736 0 7
8.4713 12.3979 -2.6477 0.1736 0 7
8.2714 12.5321 -2.6477 0.1736 0 7
8.0695 12.6631 -2.6477 0.1736 0 7
7.8654 12.7909 -2.6477 0.1736 0 7
7.6594 12.9153 -2.6477 0.1736 0 7
7.4513 13.0364 -2.6477 0.1736 0 7
7.2414 13.1542 -2.6477 0.1736 0 7
7.0296 13.2686 -2.6477 0.1736 0 7
6.8160 13.3796 -2.6477 0.1736 0 7
6.6006 13.4871 -2.6477 0.1736 0 7
6.3836 13.5912 -2.6477 0.1736 0 7
6.1649 13.6918 -2.6477 0.1736 0 7
5.9446 13.7889 -2.6477 0.1736 0 7
5.7228 13.8824 -2.6477 0.1736 0 7
5.4995 13.9723 -2.6477 0.1736 0 7
13.2695 -2.4542 -2.4953 0.1818 0 8
13.3072 -2.2412 -2.4953 0.1818 0 8
13.3414 -2.0275 -2.4953 0.1818 0 8
13.3722 -1.8134 -2.4953 0.1818 0 8
13.3995 -1.5988 -2.4953 0.1818 0 8
13.4234 -1.3838 -2.4953 0.1818 0 8
7.9579 -0.6916 -1.4770 0.3665 25 10
7.7703 -0.5500 -1.4404 0.3758 25 10
7.7066 -0.4214 -1.4271 0.9163 25 10
7.6660 -0.2961 -1.4186 0.9849 25 10
7.6529 -0.1727 -1.4155 0.9871 25 10
7.6398 -0.0499 -1.4127 0.9890 25 10
7.6422 0.0726 -1.4132 0.9887 25 10
7.6553 0.1955 -1.4160 0.9867 25 10
7.6722 0.3190 -1.4199 0.9210 25 10
7.7144 0.4448 -1.4288 0.9152 25 10
7.8043 0.5756 -1.4470 0.3741 25 10
8.0017 0.7193 -1.4855 0.2707 25 10
13.4193 1.4235 -2.4953 0.1818 0 8
13.3947 1.6384 -2.4953 0.1818 0 8
13.3668 1.8530 -2.4953 0.1818 0 8
13.3353 2.0670 -2.4953 0.1818 0 8
13.3005 2.2805 -2.4953 0.1818 0 8
13.2622 2.4934 -2.4953 0.1818 0 8
13.2205 2.7057 -2.4953 0.1818 0 8
13.1755 2.9173 -2.4953 0.1818 0 8
13.1270 3.1281 -2.4953 0.1818 0 8
13.0752 3.3382 -2.4953 0.1818 0 8
13.0200 3.5473 -2.4953 0.1818 0 8
12.9614 3.7556 -2.4953 0.1818 0 8
12.8996 3.9629 -2.4953 0.1818 0 8
12.8344 4.1692 -2.4953 0.1818 0 8
12.7659 4.3744 -2.4953 0.1818 0 8
12.6941 4.5785 -2.4953 0.1818 0 8
12.6191 4.7814 -2.4953 0.1818 0 8
12.5408 4.9831 -2.4953 0.1818 0 8
12.4594 5.1835 -2.4953 0.1818 0 8
12.3747 5.3825 -2.4953 0.1818 0 8
12.2868 5.5802 -2.4953 0.1818 0 8
12.1957 5.7765 -2.4953 0.1818 0 8
12.1016 5.9712 -2.4953 0.1818 0 8
12.0043 6.1645 -2.4953 0.1818 0 8
11.9039 6.3561 -2.4953 0.1818 0 8
11.8005 6.5461 -2.4953 0.1818 0 8
11.6941 6.7344 -2.4953 0.1818 0 8
11.5846 6.9210 -2.4953 0.1818 0 8
11.4722 7.1059 -2.4953 0.1818 0 8
11.3568 7.2889 -2.4953 0.1818 0 8
11.2385 7.4700 -2.4953 0.1818 0 8
11.1173 7.6492 -2.4953 0.1818 0 8
10.9932 7.8264 -2.4953 0.1818 0 8
10.8663 8.0016 -2.4953 0.1818 0 8
10.7367 8.1748 -2.4953 0.1818 0 8
10.6042 8.3459 -2.4953 0.1818 0 8
11.1085 9.0348 -2.6477 0.1818 0 7
10.9622 9.2117 -2.6477 0.1818 0 7
10.8132 9.3863 -2.6477 0.1818 0 7
10.6613 9.5584 -2.6477 0.1818 0 7
10.5067 9.7281 -2.6477 0.1818 0 7
10.3494 9.8953 -2.6477 0.1818 0 7
10.1894 10.0599 -2.6477 0.1818 0 7
10.0269 10.2220 -2.6477 0.1818 0 7
9.8617 10.3814 -2.6477 0.1818 0 7
9.6940 10.5382 -2.6477 0.1818 0 7
9.5238 10.6922 -2.6477 0.1818 0 7
9.3512 10.8435 -2.6477 0.1818 0 7
9.1762 10.9920 -2.6477 0.1818 0 7
8.9988 11.1377 -2.6477 0.1818 0 7
8.8191 11.2805 -2.6477 0.1818 0 7
8.6372 11.4205 -2.6477 0.1818 0 6
8.4529 11.5575 -2.6477 0.1818 0 7
8.2666 11.6915 -2.6477 0.1818 0 7
8.0781 11.8225 -2.6477 0.1818 0 7
7.8875 11.9505 -2.6477 0.1818 0 7
7.6949 12.0754 -2.6477 0.1818 0 7
7.5004 12.1972 -2.6477 0.1818 0 7
7.3039 12.3159 -2.6477 0.1818 0 7
7.1055 12.4314 -2.6477 0.1818 0 7
6.9053 12.5437 -2.6477 0.1818 0 7
6.7033 12.6528 -2.6477 0.1818 0 7
6.4996 12.7586 -2.6477 0.1818 0 7
6.2943 12.8611 -2.6477 0.1818 0 7
6.0873 12.9604 -2.6477 0.1818 0 7
5.8787 13.0563 -2.6477 0.1818 0 7
5.6687 13.1489 -2.6477 0.1818 0 7
5.4572 13.2381 -2.6477 0.1818 0 7
5.2443 13.3238 -2.6477 0.1818 0 7
12.6792 -2.3450 -2.4953 0.1900 0 8
12.7152 -2.1415 -2.4953 0.1900 0 8
12.7479 -1.9373 -2.4953 0.1900 0 8
12.7773 -1.7327 -2.4953 0.1900 0 8
12.8034 -1.5277 -2.4953 0.1900 0 8
8.1980 -0.8451 -1.5949 0.1887 25 10
7.8369 -0.6811 -1.5223 0.7014 25 10
7.7322 -0.5473 -1.5001 0.7118 25 10
7.6840 -0.4202 -1.4892 0.9176 25 10
7.6482 -0.2954 -1.4812 0.9857 25 10
7.6351 -0.1723 -1.4779 0.9878 25 10
7.6229 -0.0498 -1.4752 0.9969 25 10
7.6245 0.0724 -1.4755 0.9894 25 10
7.6376 0.1950 -1.4785 0.9874 25 10
7.6525 0.3182 -1.4822 0.9672 25 10
7.6918 0.4434 -1.4910 0.9165 25 10
7.7513 0.5717 -1.5041 0.7099 25 10
7.8565 0.7062 -1.5265 0.6995 25 10
12.8223 1.3602 -2.4953 0.1900 0 8
12.7989 1.5655 -2.4953 0.1900 0 8
12.7721 1.7705 -2.4953 0.1900 0 8
12.7421 1.9750 -2.4953 0.1900 0 8
12.7088 2.1791 -2.4953 0.1900 0 8
12.6722 2.3825 -2.4953 0.1900 0 8
12.6324 2.5853 -2.4953 0.1900 0 8
12.5893 2.7875 -2.4953 0.1900 0 8
12.5430 2.9890 -2.4953 0.1900 0 8
12.4935 3.1897 -2.4953 0.1900 0 8
12.4408 3.3895 -2.4953 0.1900 0 8
12.3848 3.5885 -2.4953 0.1900 0 8
12.3257 3.7866 -2.4953 0.1900 0 8
12.2634 3.9837 -2.4953 0.1900 0 8
12.1980 4.1798 -2.4953 0.1900 0 8
12.1294 4.3748 -2.4953 0.1900 0 8
12.0577 4.5687 -2.4953 0.1900 0 8
11.9830 4.7614 -2.4953 0.1900 0 8
11.9051 4.9529 -2.4953 0.1900 0 8
11.8242 5.1431 -2.4953 0.1900 0 8
11.7402 5.3320 -2.4953 0.1900 0 8
11.6532 5.5195 -2.4953 0.1900 0 8
11.5632 5.7056 -2.4953 0.1900 0 8
11.4703 5.8902 -2.4953 0.1900 0 8
11.3744 6.0733 -2.4953 0.1900 0 8
11.2756 6.2549 -2.4953 0.1900 0 8
11.1738 6.4349 -2.4953 0.1900 0 8
11.0692 6.6132 -2.4953 0.1900 0 8
10.9618 6.7898 -2.4953 0.1900 0 8
10.8516 6.9646 -2.4953 0.1900 0 8
10.7385 7.1377 -2.4953 0.1900 0 8
10.6227 7.3089 -2.4953 0.1900 0 8
10.5042 7.4782 -2.4953 0.1900 0 8
10.3829 7.6457 -2.4953 0.1900 0 8
10.2590 7.8111 -2.4953 0.1900 0 8
10.1325 7.9746 -2.4953 0.1900 0 8
10.0034 8.1360 -2.4953 0.1900 0 8
9.8717 8.2953 -2.4953 0.1900 0 8
9.7374 8.4525 -2.4953 0.1900 0 8
10.1870 9.1332 -2.6477 0.1900 0 7
10.0393 9.2954 -2.6477 0.1900 0 7
9.8890 9.4551 -2.6477 0.1900 0 7
9.7362 9.6124 -2.6477 0.1900 0 7
9.5808 9.7673 -2.6477 0.1900 0 7
9.4230 9.9196 -2.6477 0.1900 0 7
9.2628 10.0694 -2.6477 0.1900 0 7
9.1002 10.2166 -2.6477 0.1900 0 7
8.9352 10.3611 -2.6477 0.1900 0 7
8.7680 10.5030 -2.6477 0.1900 0 7
8.5985 10.6423 -2.6477 0.1900 0 7
8.4268 10.7787 -2.6477 0.1900 0 7
8.2529 10.9124 -2.6477 0.1900 0 7
8.0769 11.0433 -2.6477 0.1900 0 7
7.8988 11.1714 -2.6477 0.1900 0 7
7.7187 11.2966 -2.6477 0.1900 0 7
7.5366 11.4188 -2.6477 0.1900 0 6
7.3526 11.5382 -2.6477 0.1900 0 7
7.1667 11.6546 -2.6477 0.1900 0 7
6.9790 11.7680 -2.6477 0.1900 0 7
6.7894 11.8783 -2.6477 0.1900 0 7
6.5981 11.9857 -2.6477 0.1900 0 7
6.4051 12.0899 -2.6477 0.1900 0 7
6.2105 12.1910 -2.6477 0.1900 0 7
6.0143 12.2890 -2.6477 0.1900 0 7
5.8165 12.3838 -2.6477 0.1900 0 7
5.6172 12.4755 -2.6477 0.1900 0 7
5.4165 12.5639 -2.6477 0.1900 0 7
5.2144 12.6492 -2.6477 0.1900 0 7
5.0110 12.7311 -2.6477 0.1900 0 7
12.1375 -2.2448 -2.4953 0.1981 0 8
12.1720 -2.0500 -2.4953 0.1981 0 8
12.2033 -1.8546 -2.4953 0.1981 0 8
12.2314 -1.6587 -2.4953 0.1981 0 8
12.2565 -1.4624 -2.4953 0.1981 0 8
8.1541 -0.8406 -1.6571 0.1894 25 10
7.8007 -0.6780 -1.5829 0.7035 25 10
7.7091 -0.5457 -1.5623 0.8754 25 10
7.6615 -0.4190 -1.5511 0.9187 25 10
7.6304 -0.2947 -1.5437 0.9863 25 10
7.6174 -0.1719 -1.5403 0.9885 25 10
7.6078 -0.0497 -1.5380 0.9972 25 10
7.6091 0.0722 -1.5383 0.9970 25 10
7.6198 0.1945 -1.5409 0.9881 25 10
7.6344 0.3174 -1.5447 0.9679 25 10
7.6692 0.4421 -1.5529 0.9177 25 10
7.7194 0.5693 -1.5648 0.8741 25 10
7.8201 0.7030 -1.5873 0.7016 25 10
8.2855 0.8789 -1.6843 0.0223 25 10
12.2521 1.4987 -2.4953 0.1981 0 8
12.2265 1.6949 -2.4953 0.1981 0 8
12.1977 1.8907 -2.4953 0.1981 0 8
12.1659 2.0860 -2.4953 0.1981 0 8
12.1309 2.2807 -2.4953 0.1981 0 8
12.0927 2.4749 -2.4953 0.1981 0 8
12.0515 2.6684 -2.4953 0.1981 0 8
12.0072 2.8613 -2.4953 0.1981 0 8
11.9598 3.0534 -2.4953 0.1981 0 8
11.9093 3.2447 -2.4953 0.1981 0 8
11.8557 3.4352 -2.4953 0.1981 0 8
11.7991 3.6248 -2.4953 0.1981 0 8
11.7395 3.8135 -2.4953 0.1981 0 8
11.6769 4.0012 -2.4953 0.1981 0 8
11.6112 4.1879 -2.4953 0.1981 0 8
11.5426 4.3735 -2.4953 0.1981 0 8
11.4710 4.5580 -2.4953 0.1981 0 8
11.3965 4.7413 -2.4953 0.1981 0 8
11.3190 4.9234 -2.4953 0.1981 0 8
11.2386 5.1042 -2.4953 0.1981 0 8
11.1554 5.2837 -2.4953 0.1981 0 8
11.0692 5.4618 -2.4953 0.1981 0 8
10.9802 5.6386 -2.4953 0.1981 0 8
10.8884 5.8139 -2.4953 0.1981 0 8
10.7938 5.9877 -2.4953 0.1981 0 8
10.6965 6.1599 -2.4953 0.1981 0 8
10.5963 6.3306 -2.4953 0.1981 0 8
10.4935 6.4997 -2.4953 0.1981 0 8
10.3879 6.6671 -2.4953 0.1981 0 8
10.2797 6.8327 -2.4953 0.1981 0 8
10.1689 6.9966 -2.4953 0.1981 0 8
10.0554 7.1588 -2.4953 0.1981 0 8
9.9394 7.3190 -2.4953 0.1981 0 8
9.8208 7.4774 -2.4953 0.1981 0 8
9.6996 7.6339 -2.4953 0.1981 0 8
9.5760 7.7884 -2.4953 0.1981 0 8
9.4499 7.9409 -2.4953 0.1981 0 8
9.3214 8.0914 -2.4953 0.1981 0 8
9.1905 8.2398 -2.4953 0.1981 0 8
9.0572 8.3861 -2.4953 0.1981 0 8
9.4665 9.0512 -2.6477 0.1981 0 7
9.3202 9.2017 -2.6477 0.1981 0 7
9.1715 9.3500 -2.6477 0.1981 0 7
9.0204 9.4958 -2.6477 0.1981 0 7
8.8671 9.6392 -2.6477 0.1981 0 7
8.7114 9.7801 -2.6477 0.1981 0 7
8.5535 9.9185 -2.6477 0.1981 0 7
8.3934 10.0543 -2.6477 0.1981 0 7
8.2311 10.1876 -2.6477 0.1981 0 7
8.0668 10.3182 -2.6477 0.1981 0 7
7.9003 10.4462 -2.6477 0.1981 0 7
7.7318 10.5715 -2.6477 0.1981 0 7
7.5614 10.6941 -2.6477 0.1981 0 7
7.3890 10.8140 -2.6477 0.1981 0 7
7.2147 10.9310 -2.6477 0.1981 0 7
7.0385 11.0453 -2.6477 0.1981 0 7
6.8605 11.1567 -2.6477 0.1981 0 7
6.6808 11.2652 -2.6477 0.1981 0 7
6.4994 11.3709 -2.6477 0.1981 0 7
6.3162 11.4736 -2.6477 0.1981 0 6
6.1315 11.5734 -2.6477 0.1981 0 7
5.9452 11.6702 -2.6477 0.1981 0 7
5.7573 11.7640 -2.6477 0.1981 0 7
5.5680 11.8548 -2.6477 0.1981 0 7
5.3772 11.9425 -2.6477 0.1981 0 7
5.1851 12.0272 -2.6477 0.1981 0 7
4.9916 12.1088 -2.6477 0.1981 0 7
4.7969 12.1872 -2.6477 0.1981 0 7
11.6387 -2.1526 -2.4953 0.2063 0 8
11.6717 -1.9657 -2.4953 0.2063 0 8
11.7017 -1.7783 -2.4953 0.2063 0 8
11.7287 -1.5905 -2.4953 0.2063 0 8
11.7527 -1.4023 -2.4953 0.2063 0 8
8.1104 -0.8361 -1.7189 0.1901 25 10
7.7647 -0.6748 -1.6431 0.7056 25 10
7.6868 -0.5441 -1.6246 0.8765 25 10
7.6391 -0.4177 -1.6129 0.9199 25 10
7.6126 -0.2940 -1.6061 0.9869 25 10
7.5997 -0.1715 -1.6026 0.9891 25 10
7.5927 -0.0496 -1.6007 0.9975 25 10
7.5940 0.0721 -1.6010 0.9973 25 10
7.6021 0.1941 -1.6032 0.9887 25 10
7.6163 0.3167 -1.6071 0.9686 25 10
7.6467 0.4409 -1.6148 0.9188 25 10
7.6970 0.5677 -1.6271 0.8751 25 10
7.7840 0.6997 -1.6476 0.7037 25 10
8.2305 0.8731 -1.7449 0.1873 25 10
11.7485 1.4371 -2.4953 0.2063 0 8
11.7239 1.6252 -2.4953 0.2063 0 8
11.6964 1.8130 -2.4953 0.2063 0 8
11.6658 2.0002 -2.4953 0.2063 0 8
11.6322 2.1870 -2.4953 0.2063 0 8
11.5957 2.3732 -2.4953 0.2063 0 8
11.5562 2.5588 -2.4953 0.2063 0 8
11.5137 2.7437 -2.4953 0.2063 0 8
11.4682 2.9279 -2.4953 0.2063 0 8
11.4198 3.1114 -2.4953 0.2063 0 8
11.3684 3.2940 -2.4953 0.2063 0 8
11.3142 3.4759 -2.4953 0.2063 0 8
11.2570 3.6568 -2.4953 0.2063 0 8
11.1969 3.8368 -2.4953 0.2063 0 8
11.1340 4.0158 -2.4953 0.2063 0 8
11.0682 4.1937 -2.4953 0.2063 0 8
10.9995 4.3706 -2.4953 0.2063 0 8
10.9280 4.5464 -2.4953 0.2063 0 8
10.8538 4.7210 -2.4953 0.2063 0 8
10.7767 4.8944 -2.4953 0.2063 0 8
10.6968 5.0665 -2.4953 0.2063 0 8
10.6142 5.2373 -2.4953 0.2063 0 8
10.5289 5.4068 -2.4953 0.2063 0 8
10.4409 5.5749 -2.4953 0.2063 0 8
10.3502 5.7416 -2.4953 0.2063 0 8
10.2568 5.9068 -2.4953 0.2063 0 8
10.1608 6.0704 -2.4953 0.2063 0 8
10.0622 6.2325 -2.4953 0.2063 0 8
9.9610 6.3930 -2.4953 0.2063 0 8
9.8572 6.5519 -2.4953 0.2063 0 8
9.7509 6.7091 -2.4953 0.2063 0 8
9.6421 6.8645 -2.4953 0.2063 0 8
9.5308 7.0182 -2.4953 0.2063 0 8
9.4171 7.1701 -2.4953 0.2063 0 8
9.3009 7.3201 -2.4953 0.2063 0 8
9.1824 7.4683 -2.4953 0.2063 0 8
9.0615 7.6145 -2.4953 0.2063 0 8
8.9383 7.7588 -2.4953 0.2063 0 8
8.8127 7.9011 -2.4953 0.2063 0 8
8.6849 8.0414 -2.4953 0.2063 0 8
8.5549 8.1796 -2.4953 0.2063 0 8
8.4227 8.3156 -2.4953 0.2063 0 8
8.2883 8.4496 -2.4953 0.2063 0 8
8.6497 9.1055 -2.6477 0.2063 0 7
8.5026 9.2430 -2.6477 0.2063 0 7
8.3533 9.3781 -2.6477 0.2063 0 7
8.2019 9.5108 -2.6477 0.2063 0 7
8.0484 9.6411 -2.6477 0.2063 0 7
7.8928 9.7689 -2.6477 0.2063 0 7
7.7352 9.8941 -2.6477 0.2063 0 7
7.5756 10.0169 -2.6477 0.2063 0 7
7.4140 10.1370 -2.6477 0.2063 0 7
7.2506 10.2546 -2.6477 0.2063 0 7
7.0853 10.3695 -2.6477 0.2063 0 7
6.9181 10.4817 -2.6477 0.2063 0 7
6.7492 10.5913 -2.6477 0.2063 0 7
6.5786 10.6981 -2.6477 0.2063 0 7
6.4062 10.8022 -2.6477 0.2063 0 7
6.2322 10.9035 -2.6477 0.2063 0 7
6.0566 11.0020 -2.6477 0.2063 0 7
5.8795 11.0977 -2.6477 0.2063 0 7
5.7008 11.1905 -2.6477 0.2063 0 7
5.5207 11.2805 -2.6477 0.2063 0 7
5.3391 11.3675 -2.6477 0.2063 0 7
5.1563 11.4516 -2.6477 0.2063 0 6
4.9720 11.5328 -2.6477 0.2063 0 7
4.7865 11.6111 -2.6477 0.2063 0 7
4.5997 11.6863 -2.6477 0.2063 0 7
11.1776 -2.0673 -2.4953 0.2144 0 8
11.2093 -1.8878 -2.4953 0.2144 0 8
11.2381 -1.7079 -2.4953 0.2144 0 8
11.2641 -1.5275 -2.4953 0.2144 0 8
11.2871 -1.3468 -2.4953 0.2144 0 8
8.0671 -0.8316 -1.7803 0.1908 25 10
7.7290 -0.6717 -1.7030 0.7076 25 10
7.6645 -0.5425 -1.6867 0.8775 25 10
7.6180 -0.4166 -1.6748 0.9660 25 10
7.5948 -0.2933 -1.6684 0.9875 25 10
7.5844 -0.1712 -1.6653 0.9966 25 10
7.5776 -0.0495 -1.6634 0.9977 25 10
7.5789 0.0720 -1.6638 0.9975 25 10
7.5857 0.1937 -1.6657 0.9963 25 10
7.5983 0.3159 -1.6694 0.9691 25 10
7.6243 0.4396 -1.6764 0.9198 25 10
7.6746 0.5660 -1.6893 0.8761 25 10
7.7480 0.6965 -1.7077 0.7057 25 10
8.1859 0.8684 -1.8070 0.1880 25 10
11.2831 1.3801 -2.4953 0.2144 0 8
11.2595 1.5608 -2.4953 0.2144 0 8
11.2330 1.7411 -2.4953 0.2144 0 8
11.2037 1.9210 -2.4953 0.2144 0 8
11.1714 2.1003 -2.4953 0.2144 0 8
11.1363 2.2792 -2.4953 0.2144 0 8
11.0984 2.4574 -2.4953 0.2144 0 8
11.0575 2.6350 -2.4953 0.2144 0 8
11.0139 2.8119 -2.4953 0.2144 0 8
10.9674 2.9881 -2.4953 0.2144 0 8
10.9181 3.1635 -2.4953 0.2144 0 8
10.8660 3.3382 -2.4953 0.2144 0 8
10.8110 3.5119 -2.4953 0.2144 0 8
10.7534 3.6848 -2.4953 0.2144 0 8
10.6929 3.8567 -2.4953 0.2144 0 8
10.6297 4.0276 -2.4953 0.2144 0 8
10.5638 4.1975 -2.4953 0.2144 0 8
10.4951 4.3663 -2.4953 0.2144 0 8
10.4238 4.5340 -2.4953 0.2144 0 8
10.3498 4.7005 -2.4953 0.2144 0 8
10.2731 4.8658 -2.4953 0.2144 0 8
10.1938 5.0299 -2.4953 0.2144 0 8
10.1118 5.1926 -2.4953 0.2144 0 8
10.0273 5.3541 -2.4953 0.2144 0 8
9.9402 5.5141 -2.4953 0.2144 0 8
9.8505 5.6728 -2.4953 0.2144 0 8
9.7583 5.8299 -2.4953 0.2144 0 8
9.6636 5.9856 -2.4953 0.2144 0 8
9.5664 6.1398 -2.4953 0.2144 0 8
9.4667 6.2923 -2.4953 0.2144 0 8
9.3646 6.4433 -2.4953 0.2144 0 8
9.2601 6.5926 -2.4953 0.2144 0 8
9.1533 6.7402 -2.4953 0.2144 0 8
9.0440 6.8860 -2.4953 0.2144 0 8
8.9325 7.0301 -2.4953 0.2144 0 8
8.8186 7.1724 -2.4953 0.2144 0 8
8.7025 7.3129 -2.4953 0.2144 0 8
8.5842 7.4515 -2.4953 0.2144 0 8
8.4636 7.5881 -2.4953 0.2144 0 8
8.3409 7.7228 -2.4953 0.2144 0 8
8.2160 7.8555 -2.4953 0.2144 0 8
8.0890 7.9862 -2.4953 0.2144 0 8
7.9600 8.1149 -2.4953 0.2144 0 8
7.8289 8.2414 -2.4953 0.2144 0 8
7.6957 8.3659 -2.4953 0.2144 0 8
8.0224 9.0066 -2.6477 0.2144 0 7
7.8770 9.1340 -2.6477 0.2144 0 7
7.7296 9.2591 -2.6477 0.2144 0 7
7.5801 9.3819 -2.6477 0.2144 0 7
7.4288 9.5022 -2.6477 0.2144 0 7
7.2755 9.6200 -2.6477 0.2144 0 7
7.1203 9.7354 -2.6477 0.2144 0 7
6.9634 9.8483 -2.6477 0.2144 0 7
6.8046 9.9587 -2.6477 0.2144 0 7
6.6441 10.0665 -2.6477 0.2144 0 7
6.4818 10.1717 -2.6477 0.2144 0 7
6.3179 10.2743 -2.6477 0.2144 0 7
6.1524 10.3743 -2.6477 0.2144 0 7
5.9853 10.4716 -2.6477 0.2144 0 7
5.8167 10.5662 -2.6477 0.2144 0 7
5.6466 10.6581 -2.6477 0.2144 0 7
5.4750 10.7472 -2.6477 0.2144 0 7
5.3020 10.8336 -2.6477 0.2144 0 7
5.1276 10.9172 -2.6477 0.2144 0 7
4.9520 10.9980 -2.6477 0.2144 0 7
4.7750 11.0760 -2.6477 0.2144 0 7
4.5969 11.1511 -2.6477 0.2144 0 7
4.4175 11.2233 -2.6477 0.2144 0 7
10.7502 -1.9882 -2.4953 0.2225 0 8
10.7807 -1.8156 -2.4953 0.2225 0 8
10.8084 -1.6426 -2.4953 0.2225 0 8
10.8333 -1.4691 -2.4953 0.2225 0 8
10.8555 -1.2953 -2.4953 0.2225 0 8
8.0242 -0.8272 -1.8412 0.1915 25 10
7.6973 -0.6690 -1.7635 0.8710 25 10
7.6422 -0.5409 -1.7487 0.8784 25 10
7.5999 -0.4156 -1.7372 0.9665 25 10
7.5771 -0.2926 -1.7307 0.9880 25 10
7.5693 -0.1709 -1.7281 0.9967 25 10
7.5625 -0.0494 -1.7261 0.9978 25 10
7.5638 0.0718 -1.7265 0.9977 25 10
7.5705 0.1933 -1.7285 0.9965 25 10
7.5803 0.3152 -1.7316 0.9696 25 10
7.6043 0.4384 -1.7385 0.9658 25 10
7.6523 0.5644 -1.7513 0.8770 25 10
7.7123 0.6933 -1.7674 0.7076 25 10
8.1426 0.8638 -1.8689 0.1868 25 10
10.8516 1.3274 -2.4953 0.2225 0 8
10.8289 1.5012 -2.4953 0.2225 0 8
10.8035 1.6746 -2.4953 0.2225 0 8
10.7753 1.8475 -2.4953 0.2225 0 8
10.7443 2.0200 -2.4953 0.2225 0 8
10.7105 2.1920 -2.4953 0.2225 0 8
10.6740 2.3634 -2.4953 0.2225 0 8
10.6347 2.5342 -2.4953 0.2225 0 8
10.5927 2.7044 -2.4953 0.2225 0 8
10.5480 2.8738 -2.4953 0.2225 0 8
10.5006 3.0426 -2.4953 0.2225 0 8
10.4505 3.2105 -2.4953 0.2225 0 8
10.3977 3.3776 -2.4953 0.2225 0 8
10.3422 3.5439 -2.4953 0.2225 0 8
10.2840 3.7092 -2.4953 0.2225 0 8
10.2233 3.8736 -2.4953 0.2225 0 8
10.1598 4.0370 -2.4953 0.2225 0 8
10.0938 4.1993 -2.4953 0.2225 0 8
10.0252 4.3606 -2.4953 0.2225 0 8
9.9540 4.5207 -2.4953 0.2225 0 8
9.8803 4.6797 -2.4953 0.2225 0 8
9.8040 4.8375 -2.4953 0.2225 0 8
9.7252 4.9941 -2.4953 0.2225 0 8
9.6439 5.1493 -2.4953 0.2225 0 8
9.5601 5.3033 -2.4953 0.2225 0 8
9.4738 5.4558 -2.4953 0.2225 0 8
9.3851 5.6070 -2.4953 0.2225 0 8
9.2941 5.7568 -2.4953 0.2225 0 8
9.2006 5.9050 -2.4953 0.2225 0 8
9.1047 6.0517 -2.4953 0.2225 0 8
9.0065 6.1969 -2.4953 0.2225 0 8
8.9060 6.3405 -2.4953 0.2225 0 8
8.8033 6.4824 -2.4953 0.2225 0 8
8.6982 6.6227 -2.4953 0.2225 0 8
8.5909 6.7613 -2.4953 0.2225 0 8
8.4814 6.8982 -2.4953 0.2225 0 8
8.3698 7.0333 -2.4953 0.2225 0 8
8.2559 7.1665 -2.4953 0.2225 0 8
8.1400 7.2979 -2.4953 0.2225 0 8
8.0220 7.4275 -2.4953 0.2225 0 8
7.9019 7.5551 -2.4953 0.2225 0 8
7.7797 7.6808 -2.4953 0.2225 0 8
7.6556 7.8046 -2.4953 0.2225 0 8
7.5295 7.9263 -2.4953 0.2225 0 8
7.4015 8.0460 -2.4953 0.2225 0 8
7.2715 8.1636 -2.4953 0.2225 0 8
7.1397 8.2791 -2.4953 0.2225 0 8
7.0061 8.3925 -2.4953 0.2225 0 8
7.2903 9.0231 -2.6477 0.2225 0 7
7.1447 9.1388 -2.6477 0.2225 0 7
6.9973 9.2522 -2.6477 0.2225 0 7
6.8481 9.3632 -2.6477 0.2225 0 7
6.6971 9.4717 -2.6477 0.2225 0 7
6.5444 9.5779 -2.6477 0.2225 0 7
6.3900 9.6816 -2.6477 0.2225 0 7
6.2340 9.7828 -2.6477 0.2225 0 7
6.0764 9.8814 -2.6477 0.2225 0 7
5.9172 9.9776 -2.6477 0.2225 0 7
5.7565 10.0712 -2.6477 0.2225 0 7
5.5943 10.1621 -2.6477 0.2225 0 7
5.4306 10.2505 -2.6477 0.2225 0 7
5.2656 10.3363 -2.6477 0.2225 0 7
5.0992 10.4193 -2.6477 0.2225 0 7
4.9316 10.4997 -2.6477 0.2225 0 7
4.7626 10.5774 -2.6477 0.2225 0 7
4.5924 10.6524 -2.6477 0.2225 0 7
4.4211 10.7247 -2.6477 0.2225 0 7
4.2486 10.7942 -2.6477 0.2225 0 7
10.3528 -1.9147 -2.4953 0.2306 0 8
10.3822 -1.7485 -2.4953 0.2306 0 8
10.4089 -1.5819 -2.4953 0.2306 0 8
10.4329 -1.4148 -2.4953 0.2306 0 8
10.4542 -1.2474 -2.4953 0.2306 0 8
7.9853 -0.8232 -1.9026 0.1912 25 10
7.6867 -0.6681 -1.8287 0.7661 25 10
7.6307 -0.5401 -1.8130 0.8564 25 10
7.5890 -0.4150 -1.8013 0.9371 25 10
7.5656 -0.2922 -1.7944 0.9661 25 10
7.5583 -0.1706 -1.7918 0.9675 25 10
7.5511 -0.0494 -1.7897 0.9686 25 10
7.5524 0.0717 -1.7900 0.9684 25 10
7.5597 0.1930 -1.7923 0.9672 25 10
7.5681 0.3147 -1.7952 0.9403 25 10
7.5938 0.4378 -1.8027 0.9364 25 10
7.6409 0.5635 -1.8158 0.8551 25 10
7.7005 0.6922 -1.8324 0.7645 25 10
8.1027 0.8595 -1.9311 0.1874 25 10
10.4505 1.2783 -2.4953 0.2306 0 8
10.4287 1.4457 -2.4953 0.2306 0 8
10.4041 1.6127 -2.4953 0.2306 0 8
10.3770 1.7792 -2.4953 0.2306 0 8
10.3471 1.9454 -2.4953 0.2306 0 8
10.3146 2.1110 -2.4953 0.2306 0 8
10.2794 2.2761 -2.4953 0.2306 0 8
10.2416 2.4406 -2.4953 0.2306 0 8
10.2012 2.6044 -2.4953 0.2306 0 8
10.1581 2.7676 -2.4953 0.2306 0 8
10.1124 2.9301 -2.4953 0.2306 0 8
10.0642 3.0918 -2.4953 0.2306 0 8
10.0133 3.2528 -2.4953 0.2306 0 8
9.9599 3.4129 -2.4953 0.2306 0 8
9.9039 3.5721 -2.4953 0.2306 0 8
9.8453 3.7304 -2.4953 0.2306 0 8
9.7843 3.8878 -2.4953 0.2306 0 8
9.7207 4.0441 -2.4953 0.2306 0 8
9.6546 4.1994 -2.4953 0.2306 0 8
9.5861 4.3536 -2.4953 0.2306 0 8
9.5150 4.5068 -2.4953 0.2306 0 8
9.4416 4.6587 -2.4953 0.2306 0 8
9.3657 4.8095 -2.4953 0.2306 0 8
9.2874 4.9590 -2.4953 0.2306 0 8
9.2067 5.1072 -2.4953 0.2306 0 8
9.1236 5.2542 -2.4953 0.2306 0 8
9.0382 5.3998 -2.4953 0.2306 0 8
8.9505 5.5439 -2.4953 0.2306 0 8
8.8605 5.6867 -2.4953 0.2306 0 8
8.7682 5.8280 -2.4953 0.2306 0 8
8.6736 5.9678 -2.4953 0.2306 0 8
8.5768 6.1061 -2.4953 0.2306 0 8
8.4778 6.2428 -2.4953 0.2306 0 8
8.3767 6.3779 -2.4953 0.2306 0 8
8.2734 6.5114 -2.4953 0.2306 0 8
8.1679 6.6432 -2.4953 0.2306 0 8
8.0604 6.7733 -2.4953 0.2306 0 8
7.9508 6.9016 -2.4953 0.2306 0 8
7.8391 7.0282 -2.4953 0.2306 0 8
7.7254 7.1529 -2.4953 0.2306 0 8
7.6098 7.2759 -2.4953 0.2306 0 8
7.4922 7.3969 -2.4953 0.2306 0 8
7.3726 7.5161 -2.4953 0.2306 0 8
7.2512 7.6333 -2.4953 0.2306 0 8
7.1279 7.7486 -2.4953 0.2306 0 8
7.0027 7.8618 -2.4953 0.2306 0 8
6.8758 7.9731 -2.4953 0.2306 0 8
6.7471 8.0823 -2.4953 0.2306 0 8
6.6167 8.1894 -2.4953 0.2306 0 8
6.4845 8.2944 -2.4953 0.2306 0 8
6.3507 8.3973 -2.4953 0.2306 0 8
6.5949 9.0171 -2.6477 0.2306 0 7
6.4495 9.1216 -2.6477 0.2306 0 7
6.3025 9.2238 -2.6477 0.2306 0 7
6.1538 9.3237 -2.6477 0.2306 0 7
6.0035 9.4211 -2.6477 0.2306 0 7
5.8517 9.5162 -2.6477 0.2306 0 7
5.6984 9.6088 -2.6477 0.2306 0 7
5.5437 9.6989 -2.6477 0.2306 0 7
5.3875 9.7865 -2.6477 0.2306 0 7
5.2299 9.8716 -2.6477 0.2306 0 7
5.0710 9.9542 -2.6477 0.2306 0 7
4.9108 10.0342 -2.6477 0.2306 0 7
4.7493 10.1116 -2.6477 0.2306 0 7
4.5866 10.1865 -2.6477 0.2306 0 7
4.4227 10.2587 -2.6477 0.2306 0 7
4.2577 10.3282 -2.6477 0.2306 0 7
4.0915 10.3952 -2.6477 0.2306 0 7
9.9823 -1.8462 -2.4953 0.2387 0 8
10.0107 -1.6860 -2.4953 0.2387 0 8
10.0364 -1.5253 -2.4953 0.2387 0 8
10.0596 -1.3642 -2.4953 0.2387 0 8
10.0801 -1.2027 -2.4953 0.2387 0 8
7.9476 -0.8193 -1.9639 0.1917 25 10
7.7000 -0.6692 -1.8998 0.7632 25 10
7.6334 -0.5403 -1.8810 0.8544 25 10
7.5908 -0.4151 -1.8686 0.9186 25 10
7.5662 -0.2922 -1.8612 0.9641 25 10
7.5590 -0.1706 -1.8585 0.9655 25 10
7.5587 -0.0494 -1.8580 0.9270 25 10
7.5580 0.0718 -1.8578 0.9270 25 10
7.5603 0.1930 -1.8589 0.9652 25 10
7.5691 0.3147 -1.8621 0.9383 25 10
7.5964 0.4380 -1.8703 0.9178 25 10
7.6435 0.5637 -1.8839 0.8531 25 10
7.7354 0.6954 -1.9090 0.2828 25 10
8.0635 0.8554 -1.9931 0.1889 25 10
10.0765 1.2326 -2.4953 0.2387 0 8
10.0555 1.3939 -2.4953 0.2387 0 8
10.0318 1.5549 -2.4953 0.2387 0 8
10.0056 1.7156 -2.4953 0.2387 0 8
9.9768 1.8757 -2.4953 0.2387 0 8
9.9455 2.0354 -2.4953 0.2387 0 8
9.9116 2.1946 -2.4953 0.2387 0 8
9.8751 2.3532 -2.4953 0.2387 0 8
9.8361 2.5112 -2.4953 0.2387 0 8
9.7946 2.6686 -2.4953 0.2387 0 8
9.7506 2.8253 -2.4953 0.2387 0 8
9.7040 2.9812 -2.4953 0.2387 0 8
9.6550 3.1364 -2.4953 0.2387 0 8
9.6035 3.2907 -2.4953 0.2387 0 8
9.5495 3.4443 -2.4953 0.2387 0 8
9.4930 3.5969 -2.4953 0.2387 0 8
9.4342 3.7486 -2.4953 0.2387 0 8
9.3729 3.8994 -2.4953 0.2387 0 8
9.3091 4.0491 -2.4953 0.2387 0 8
9.2430 4.1979 -2.4953 0.2387 0 8
9.1746 4.3455 -2.4953 0.2387 0 8
9.1037 4.4920 -2.4953 0.2387 0 8
9.0305 4.6374 -2.4953 0.2387 0 8
8.9550 4.7815 -2.4953 0.2387 0 8
8.8772 4.9245 -2.4953 0.2387 0 8
8.7971 5.0662 -2.4953 0.2387 0 8
8.7148 5.2065 -2.4953 0.2387 0 8
8.6302 5.3456 -2.4953 0.2387 0 8
8.5434 5.4832 -2.4953 0.2387 0 8
8.4544 5.6195 -2.4953 0.2387 0 8
8.3632 5.7543 -2.4953 0.2387 0 8
8.2699 5.8876 -2.4953 0.2387 0 8
8.1745 6.0194 -2.4953 0.2387 0 8
8.0769 6.1497 -2.4953 0.2387 0 8
7.9773 6.2784 -2.4953 0.2387 0 8
7.8756 6.4055 -2.4953 0.2387 0 8
7.7719 6.5309 -2.4953 0.2387 0 8
7.6663 6.6546 -2.4953 0.2387 0 8
7.5586 6.7767 -2.4953 0.2387 0 8
7.4490 6.8970 -2.4953 0.2387 0 8
7.3375 7.0155 -2.4953 0.2387 0 8
7.2241 7.1322 -2.4953 0.2387 0 8
7.1088 7.2471 -2.4953 0.2387 0 8
6.9917 7.3602 -2.4953 0.2387 0 8
6.8728 7.4713 -2.4953 0.2387 0 8
6.7522 7.5805 -2.4953 0.2387 0 8
6.6298 7.6878 -2.4953 0.2387 0 8
6.5057 7.7931 -2.4953 0.2387 0 8
6.3799 7.8964 -2.4953 0.2387 0 8
6.2525 7.9976 -2.4953 0.2387 0 8
6.1235 8.0968 -2.4953 0.2387 0 8
5.9929 8.1939 -2.4953 0.2387 0 8
5.8608 8.2890 -2.4953 0.2387 0 8
5.7272 8.3818 -2.4953 0.2387 0 8
5.9336 8.9901 -2.6477 0.2387 0 7
5.7887 9.0840 -2.6477 0.2387 0 7
5.6423 9.1756 -2.6477 0.2387 0 7
5.4945 9.2649 -2.6477 0.2387 0 7
5.3453 9.3518 -2.6477 0.2387 0 7
5.1947 9.4363 -2.6477 0.2387 0 7
5.0428 9.5184 -2.6477 0.2387 0 7
4.8895 9.5980 -2.6477 0.2387 0 7
4.7350 9.6751 -2.6477 0.2387 0 7
4.5793 9.7498 -2.6477 0.2387 0 7
4.4224 9.8219 -2.6477 0.2387 0 7
4.2644 9.8916 -2.6477 0.2387 0 7
4.1053 9.9587 -2.6477 0.2387 0 7
3.9451 10.0232 -2.6477 0.2387 0 7
9.6361 -1.7822 -2.4953 0.2468 0 8
9.6635 -1.6275 -2.4953 0.2468 0 8
9.6883 -1.4724 -2.4953 0.2468 0 8
9.7107 -1.3169 -2.4953 0.2468 0 8
9.7305 -1.1610 -2.4953 0.2468 0 8
7.9429 -0.8188 -2.0332 0.5414 25 10
7.7135 -0.6704 -1.9715 0.7166 25 10
7.6391 -0.5407 -1.9500 0.7687 25 10
7.5940 -0.4153 -1.9365 0.9163 25 10
7.5669 -0.2922 -1.9282 0.9620 25 10
7.5651 -0.1708 -1.9268 0.9240 25 10
7.5686 -0.0495 -1.9273 0.9238 25 10
7.5680 0.0719 -1.9271 0.9239 25 10
7.5645 0.1931 -1.9268 0.9240 25 10
7.5701 0.3148 -1.9293 0.9362 25 10
7.5996 0.4381 -1.9383 0.9155 25 10
7.6527 0.5644 -1.9539 0.7672 25 10
7.7518 0.6968 -1.9818 0.4054 25 10
8.0765 0.8567 -2.0681 0.1517 25 10
9.7270 1.1898 -2.4953 0.2468 0 8
9.7067 1.3456 -2.4953 0.2468 0 8
9.6839 1.5010 -2.4953 0.2468 0 8
9.6586 1.6561 -2.4953 0.2468 0 8
9.6308 1.8107 -2.4953 0.2468 0 8
9.6005 1.9648 -2.4953 0.2468 0 8
9.5678 2.1185 -2.4953 0.2468 0 8
9.5326 2.2716 -2.4953 0.2468 0 8
9.4950 2.4241 -2.4953 0.2468 0 8
9.4549 2.5760 -2.4953 0.2468 0 8
9.4124 2.7273 -2.4953 0.2468 0 8
9.3675 2.8778 -2.4953 0.2468 0 8
9.3201 3.0276 -2.4953 0.2468 0 8
9.2704 3.1766 -2.4953 0.2468 0 8
9.2183 3.3248 -2.4953 0.2468 0 8
9.1638 3.4722 -2.4953 0.2468 0 8
9.1070 3.6186 -2.4953 0.2468 0 8
9.0478 3.7641 -2.4953 0.2468 0 8
8.9863 3.9087 -2.4953 0.2468 0 8
8.9225 4.0523 -2.4953 0.2468 0 8
8.8564 4.1948 -2.4953 0.2468 0 8
8.7880 4.3362 -2.4953 0.2468 0 8
8.7173 4.4765 -2.4953 0.2468 0 8
8.6444 4.6157 -2.4953 0.2468 0 8
8.5693 4.7537 -2.4953 0.2468 0 8
8.4920 4.8904 -2.4953 0.2468 0 8
8.4125 5.0260 -2.4953 0.2468 0 8
8.3309 5.1602 -2.4953 0.2468 0 8
8.2471 5.2931 -2.4953 0.2468 0 8
8.1612 5.4246 -2.4953 0.2468 0 8
8.0732 5.5547 -2.4953 0.2468 0 8
7.9831 5.6834 -2.4953 0.2468 0 8
7.8910 5.8107 -2.4953 0.2468 0 8
7.7968 5.9364 -2.4953 0.2468 0 8
7.7006 6.0606 -2.4953 0.2468 0 8
7.6025 6.1833 -2.4953 0.2468 0 8
7.5024 6.3044 -2.4953 0.2468 0 8
7.4004 6.4238 -2.4953 0.2468 0 8
7.2964 6.5417 -2.4953 0.2468 0 8
7.1906 6.6578 -2.4953 0.2468 0 8
7.0830 6.7722 -2.4953 0.2468 0 8
6.9735 6.8849 -2.4953 0.2468 0 8
6.8622 6.9958 -2.4953 0.2468 0 8
6.7492 7.1049 -2.4953 0.2468 0 8
6.6344 7.2122 -2.4953 0.2468 0 8
6.5180 7.3176 -2.4953 0.2468 0 8
6.3998 7.4211 -2.4953 0.2468 0 8
6.2800 7.5228 -2.4953 0.2468 0 8
6.1586 7.6225 -2.4953 0.2468 0 8
6.0356 7.7202 -2.4953 0.2468 0 8
5.9111 7.8160 -2.4953 0.2468 0 8
5.7851 7.9097 -2.4953 0.2468 0 8
5.6575 8.0015 -2.4953 0.2468 0 8
5.5285 8.0911 -2.4953 0.2468 0 8
5.3981 8.1787 -2.4953 0.2468 0 8
5.2663 8.2642 -2.4953 0.2468 0 8
5.1331 8.3476 -2.4953 0.2468 0 8
4.9987 8.4288 -2.4953 0.2468 0 8
5.1599 9.0275 -2.6477 0.2468 0 7
5.0145 9.1090 -2.6477 0.2468 0 7
4.8679 9.1882 -2.6477 0.2468 0 7
4.7199 9.2651 -2.6477 0.2468 0 7
4.5708 9.3396 -2.6477 0.2468 0 7
4.4205 9.4116 -2.6477 0.2468 0 7
4.2691 9.4813 -2.6477 0.2468 0 7
4.1165 9.5485 -2.6477 0.2468 0 7
3.9629 9.6133 -2.6477 0.2468 0 7
3.8083 9.6756 -2.6477 0.2468 0 7
9.3118 -1.7222 -2.4953 0.2548 0 8
9.3382 -1.5727 -2.4953 0.2548 0 8
9.3622 -1.4228 -2.4953 0.2548 0 8
9.3838 -1.2725 -2.4953 0.2548 0 8
9.4030 -1.1220 -2.4953 0.2548 0 8
7.9913 -0.8238 -2.1169 0.1531 25 10
7.7516 -0.6737 -2.0502 0.4046 25 10
7.6589 -0.5421 -2.0232 0.7211 25 10
7.6036 -0.4158 -2.0065 0.8438 25 10
7.5739 -0.2925 -1.9972 0.8885 25 10
7.5775 -0.1710 -1.9972 0.8885 25 10
7.5813 -0.0496 -1.9977 0.9286 25 10
7.5806 0.0720 -1.9976 0.8884 25 10
7.5769 0.1934 -1.9972 0.8886 25 10
7.5779 0.3151 -1.9985 0.8472 25 10
7.6095 0.4387 -2.0084 0.8430 25 10
7.6732 0.5659 -2.0274 0.7196 25 10
7.7954 0.7008 -2.0624 0.4023 25 10
8.1172 0.8611 -2.1509 0.1939 25 10
9.3997 1.1498 -2.4953 0.2548 0 8
9.3800 1.3003 -2.4953 0.2548 0 8
9.3580 1.4505 -2.4953 0.2548 0 8
9.3335 1.6003 -2.4953 0.2548 0 8
9.3067 1.7497 -2.4953 0.2548 0 8
9.2774 1.8987 -2.4953 0.2548 0 8
9.2458 2.0472 -2.4953 0.2548 0 8
9.2118 2.1951 -2.4953 0.2548 0 8
9.1754 2.3425 -2.4953 0.2548 0 8
9.1367 2.4893 -2.4953 0.2548 0 8
