ply
format ascii 1.0
element vertex 1345
property float32 x
property float32 y
property float32 z
property float32 CosAngle
property uint32 ObjIdx
property uint32 ObjTag
end_header
-30.5723 25.4245 -2.6477 0.0664 0 7
-30.9782 24.9283 -2.6477 0.0664 0 7
-31.3759 24.4258 -2.6477 0.0664 0 7
-31.7656 23.9168 -2.6477 0.0664 0 7
-30.3891 22.1221 -2.5029 0.0664 0 14
-30.7418 21.6293 -2.5029 0.0664 0 14
-31.0864 21.1309 -2.5029 0.0664 0 14
-31.4230 20.6272 -2.5029 0.0664 0 14
-31.7514 20.1180 -2.5029 0.0664 0 14
-32.0715 19.6035 -2.5029 0.0664 0 14
-34.2566 20.1880 -2.6477 0.0664 0 7
-34.5775 19.6332 -2.6477 0.0664 0 7
-34.8895 19.0733 -2.6477 0.0664 0 7
-35.1924 18.5084 -2.6477 0.0664 0 7
-35.4862 17.9387 -2.6477 0.0664 0 7
-35.7707 17.3644 -2.6477 0.0664 0 7
-36.0460 16.7855 -2.6477 0.0664 0 7
-36.3119 16.2023 -2.6477 0.0664 0 7
-36.5683 15.6149 -2.6477 0.0664 0 7
-36.8153 15.0234 -2.6477 0.0664 0 6
-37.0526 14.4281 -2.6477 0.0664 0 6
-37.2804 13.8290 -2.6477 0.0664 0 7
-37.4985 13.2262 -2.6477 0.0664 0 7
-37.7068 12.6201 -2.6477 0.0664 0 7
-37.9053 12.0106 -2.6477 0.0664 0 7
-38.0940 11.3981 -2.6477 0.0664 0 7
-38.2727 10.7826 -2.6477 0.0664 0 7
-38.4416 10.1643 -2.6477 0.0664 0 7
-38.6004 9.5433 -2.6477 0.0664 0 7
-38.7492 8.9199 -2.6477 0.0664 0 7
-38.8880 8.2941 -2.6477 0.0664 0 7
-39.0166 7.6662 -2.6477 0.0664 0 7
-39.1351 7.0363 -2.6477 0.0664 0 7
-39.2435 6.4045 -2.6477 0.0664 0 7
-39.3416 5.7711 -2.6477 0.0664 0 7
-39.4295 5.1362 -2.6477 0.0664 0 7
-39.5072 4.5000 -2.6477 0.0664 0 7
-39.5746 3.8626 -2.6477 0.0664 0 6
-39.6317 3.2242 -2.6477 0.0664 0 6
-39.6785 2.5850 -2.6477 0.0664 0 6
-37.4290 1.8331 -2.4953 0.0664 0 8
-37.4537 1.2295 -2.4953 0.0664 0 8
-37.4687 0.6256 -2.4953 0.0664 0 8
-37.4739 0.0216 -2.4953 0.0664 0 8
-37.4694 -0.5825 -2.4953 0.0664 0 8
-37.4551 -1.1863 -2.4953 0.0664 0 8
-37.4311 -1.7899 -2.4953 0.0664 0 8
-37.3974 -2.3931 -2.4953 0.0664 0 8
-37.3540 -2.9956 -2.4953 0.0664 0 8
-37.3008 -3.5973 -2.4953 0.0664 0 8
-37.2380 -4.1981 -2.4953 0.0664 0 8
-37.1655 -4.7978 -2.4953 0.0664 0 8
-37.0833 -5.3962 -2.4953 0.0664 0 8
-36.9915 -5.9933 -2.4953 0.0664 0 8
-36.8901 -6.5888 -2.4953 0.0664 0 8
-36.7791 -7.1825 -2.4953 0.0664 0 8
-36.6586 -7.7745 -2.4953 0.0664 0 8
-36.5285 -8.3643 -2.4953 0.0664 0 8
-36.3889 -8.9521 -2.4953 0.0664 0 8
-16.6337 31.1702 -2.6477 0.0747 0 7
-17.1340 30.8980 -2.6477 0.0747 0 7
-17.6298 30.6178 -2.6477 0.0747 0 7
-18.1211 30.3296 -2.6477 0.0747 0 7
-18.6076 30.0336 -2.6477 0.0747 0 7
-19.0893 29.7298 -2.6477 0.0747 0 7
-19.5660 29.4182 -2.6477 0.0747 0 7
-20.0377 29.0990 -2.6477 0.0747 0 7
-20.5041 28.7722 -2.6477 0.0747 0 7
-20.9652 28.4380 -2.6477 0.0747 0 7
-21.4209 28.0964 -2.6477 0.0747 0 7
-21.8710 27.7474 -2.6477 0.0747 0 7
-22.3154 27.3913 -2.6477 0.0747 0 7
-22.7540 27.0280 -2.6477 0.0747 0 7
-23.1868 26.6577 -2.6477 0.0747 0 7
-23.6135 26.2805 -2.6477 0.0747 0 7
-24.0340 25.8965 -2.6477 0.0747 0 7
-24.4483 25.5057 -2.6477 0.0747 0 7
-24.8562 25.1083 -2.6477 0.0747 0 7
-25.2577 24.7044 -2.6477 0.0747 0 7
-25.6527 24.2941 -2.6477 0.0747 0 7
-26.0409 23.8774 -2.6477 0.0747 0 7
-24.9776 22.1720 -2.5029 0.0747 0 14
-25.3317 21.7665 -2.5029 0.0747 0 14
-25.6793 21.3554 -2.5029 0.0747 0 14
-26.0202 20.9386 -2.5029 0.0747 0 14
-26.3543 20.5165 -2.5029 0.0747 0 14
-26.6816 20.0890 -2.5029 0.0747 0 14
-27.0020 19.6564 -2.5029 0.0747 0 14
-27.3153 19.2185 -2.5029 0.0747 0 14
-27.7764 18.8810 -2.5169 0.5671 0 8
-28.7420 18.8673 -2.5765 0.5540 0 8
-29.7546 18.8528 -2.6397 0.5407 0 8
-30.1453 18.4262 -2.6477 0.0747 0 7
-30.4384 17.9379 -2.6477 0.0747 0 7
-30.7236 17.4449 -2.6477 0.0747 0 6
-31.0008 16.9474 -2.6477 0.0747 0 7
-31.2699 16.4455 -2.6477 0.0747 0 7
-31.5309 15.9393 -2.6477 0.0747 0 7
-31.7838 15.4290 -2.6477 0.0747 0 7
-32.0283 14.9146 -2.6477 0.0747 0 7
-32.2646 14.3964 -2.6477 0.0747 0 7
-32.4925 13.8745 -2.6477 0.0747 0 7
-32.7119 13.3489 -2.6477 0.0747 0 7
-32.9228 12.8199 -2.6477 0.0747 0 7
-33.1252 12.2876 -2.6477 0.0747 0 7
-33.3189 11.7521 -2.6477 0.0747 0 7
-33.5040 11.2134 -2.6477 0.0747 0 7
-33.6804 10.6720 -2.6477 0.0747 0 7
-33.8481 10.1277 -2.6477 0.0747 0 7
-34.0069 9.5808 -2.6477 0.0747 0 7
-34.1569 9.0314 -2.6477 0.0747 0 7
-34.2981 8.4796 -2.6477 0.0747 0 7
-32.4485 7.4695 -2.4953 0.0747 0 8
-32.5647 6.9454 -2.4953 0.0747 0 8
-32.6724 6.4196 -2.4953 0.0747 0 8
-32.7716 5.8922 -2.4953 0.0747 0 8
-32.8623 5.3631 -2.4953 0.0747 0 8
-32.9445 4.8327 -2.4953 0.0747 0 8
-33.0181 4.3011 -2.4953 0.0747 0 8
-33.0830 3.7682 -2.4953 0.0747 0 8
-33.1396 3.2345 -2.4953 0.0747 0 8
-33.1874 2.6999 -2.4953 0.0747 0 8
-33.2267 2.1646 -2.4953 0.0747 0 8
-33.2573 1.6288 -2.4953 0.0747 0 8
-33.2792 1.0925 -2.4953 0.0747 0 8
-33.2925 0.5559 -2.4953 0.0747 0 8
-33.2971 0.0192 -2.4953 0.0747 0 8
-33.2931 -0.5175 -2.4953 0.0747 0 8
-33.2804 -1.0541 -2.4953 0.0747 0 8
-33.2591 -1.5904 -2.4953 0.0747 0 8
-33.2291 -2.1263 -2.4953 0.0747 0 8
-33.1905 -2.6617 -2.4953 0.0747 0 8
-33.1433 -3.1963 -2.4953 0.0747 0 8
-33.0875 -3.7302 -2.4953 0.0747 0 8
-33.0231 -4.2630 -2.4953 0.0747 0 8
-32.9501 -4.7948 -2.4953 0.0747 0 8
-32.8685 -5.3252 -2.4953 0.0747 0 8
-32.7784 -5.8544 -2.4953 0.0747 0 8
-32.6798 -6.3820 -2.4953 0.0747 0 8
-32.5726 -6.9079 -2.4953 0.0747 0 8
-32.4571 -7.4320 -2.4953 0.0747 0 8
-32.3331 -7.9543 -2.4953 0.0747 0 8
-14.9638 28.0408 -2.6477 0.0830 0 7
-15.4138 27.7960 -2.6477 0.0830 0 7
-15.8599 27.5439 -2.6477 0.0830 0 7
-16.3018 27.2847 -2.6477 0.0830 0 7
-16.7395 27.0184 -2.6477 0.0830 0 7
-17.1728 26.7450 -2.6477 0.0830 0 7
-17.6017 26.4647 -2.6477 0.0830 0 7
-18.0260 26.1776 -2.6477 0.0830 0 7
-18.4456 25.8836 -2.6477 0.0830 0 7
-18.8604 25.5830 -2.6477 0.0830 0 7
-19.2703 25.2756 -2.6477 0.0830 0 7
-19.6753 24.9617 -2.6477 0.0830 0 7
-20.0750 24.6413 -2.6477 0.0830 0 7
-20.4696 24.3145 -2.6477 0.0830 0 7
-20.8589 23.9814 -2.6477 0.0830 0 7
-21.2428 23.6421 -2.6477 0.0830 0 7
-20.4388 22.0227 -2.5029 0.0830 0 14
-20.7911 21.6904 -2.5029 0.0830 0 14
-21.1381 21.3524 -2.5029 0.0830 0 14
-21.4795 21.0089 -2.5029 0.0830 0 14
-21.8153 20.6600 -2.5029 0.0830 0 14
-22.1455 20.3056 -2.5029 0.0830 0 14
-22.4700 19.9460 -2.5029 0.0830 0 14
-22.7886 19.5813 -2.5029 0.0830 0 14
-23.1012 19.2114 -2.5029 0.0830 0 14
-23.4795 18.8941 -2.5106 0.6316 0 8
-24.2557 18.8827 -2.5607 0.6192 0 8
-25.0634 18.8707 -2.6135 0.6067 0 8
-25.6962 18.7058 -2.6477 0.0830 0 7
-25.9944 18.2892 -2.6477 0.0830 0 7
-26.2858 17.8678 -2.6477 0.0830 0 7
-26.5704 17.4418 -2.6477 0.0830 0 7
-26.8481 17.0112 -2.6477 0.0830 0 7
-27.1188 16.5763 -2.6477 0.0830 0 7
-27.3825 16.1370 -2.6477 0.0830 0 7
-27.6390 15.6935 -2.6477 0.0830 0 7
-27.8884 15.2459 -2.6477 0.0830 0 7
-28.1306 14.7944 -2.6477 0.0830 0 7
-28.3654 14.3391 -2.6477 0.0830 0 7
-28.5928 13.8800 -2.6477 0.0830 0 7
-28.8128 13.4173 -2.6477 0.0830 0 7
-29.0254 12.9511 -2.6477 0.0830 0 7
-29.2303 12.4816 -2.6477 0.0830 0 7
-29.4277 12.0088 -2.6477 0.0830 0 7
-29.6175 11.5329 -2.6477 0.0830 0 7
-29.7995 11.0540 -2.6477 0.0830 0 7
-29.9738 10.5723 -2.6477 0.0830 0 7
-30.1404 10.0877 -2.6477 0.0830 0 7
-30.2991 9.6005 -2.6477 0.0830 0 7
-30.4499 9.1109 -2.6477 0.0830 0 7
-28.8318 8.1228 -2.4953 0.0830 0 8
-28.9590 7.6570 -2.4953 0.0830 0 8
-29.0787 7.1892 -2.4953 0.0830 0 8
-29.1908 6.7196 -2.4953 0.0830 0 8
-29.2953 6.2482 -2.4953 0.0830 0 8
-29.3922 5.7751 -2.4953 0.0830 0 8
-29.4815 5.3006 -2.4953 0.0830 0 8
-29.5631 4.8247 -2.4953 0.0830 0 8
-29.6370 4.3476 -2.4953 0.0830 0 8
-29.7033 3.8693 -2.4953 0.0830 0 8
-29.7618 3.3900 -2.4953 0.0830 0 8
-29.8126 2.9098 -2.4953 0.0830 0 8
-29.8556 2.4289 -2.4953 0.0830 0 8
-29.8909 1.9473 -2.4953 0.0830 0 8
-29.9184 1.4653 -2.4953 0.0830 0 8
-29.9381 0.9828 -2.4953 0.0830 0 8
-29.9500 0.5001 -2.4953 0.0830 0 8
-29.9542 0.0173 -2.4953 0.0830 0 8
-29.9506 -0.4656 -2.4953 0.0830 0 8
-29.9392 -0.9483 -2.4953 0.0830 0 8
-29.9200 -1.4308 -2.4953 0.0830 0 8
-29.8931 -1.9129 -2.4953 0.0830 0 8
-29.8584 -2.3944 -2.4953 0.0830 0 8
-29.8159 -2.8754 -2.4953 0.0830 0 8
-29.7657 -3.3557 -2.4953 0.0830 0 8
-29.7077 -3.8350 -2.4953 0.0830 0 8
-29.6420 -4.3134 -2.4953 0.0830 0 8
-29.5687 -4.7906 -2.4953 0.0830 0 8
-29.4876 -5.2666 -2.4953 0.0830 0 8
-29.3989 -5.7412 -2.4953 0.0830 0 8
-29.3025 -6.2144 -2.4953 0.0830 0 8
-29.1985 -6.6859 -2.4953 0.0830 0 8
-29.0870 -7.1557 -2.4953 0.0830 0 8
-13.5968 25.4793 -2.6477 0.0913 0 7
-14.0058 25.2568 -2.6477 0.0913 0 7
-14.4111 25.0278 -2.6477 0.0913 0 7
-14.8126 24.7922 -2.6477 0.0913 0 7
-15.2104 24.5503 -2.6477 0.0913 0 7
-15.6041 24.3019 -2.6477 0.0913 0 7
-15.9938 24.0472 -2.6477 0.0913 0 7
-16.3793 23.7863 -2.6477 0.0913 0 7
-15.8441 22.2331 -2.5029 0.0913 0 8
-16.2004 21.9748 -2.5029 0.0913 0 14
-16.5525 21.7108 -2.5029 0.0913 0 14
-16.9003 21.4412 -2.5029 0.0913 0 14
-17.2437 21.1660 -2.5029 0.0913 0 14
-17.5827 20.8853 -2.5029 0.0913 0 14
-17.9171 20.5992 -2.5029 0.0913 0 14
-18.2468 20.3077 -2.5029 0.0913 0 14
-18.5717 20.0109 -2.5029 0.0913 0 14
-18.8919 19.7090 -2.5029 0.0913 0 14
-19.2071 19.4019 -2.5029 0.0913 0 14
-19.5174 19.0898 -2.5029 0.0913 0 14
-19.9592 18.9022 -2.5202 0.6919 0 8
-20.6043 18.8925 -2.5628 0.6804 0 8
-21.2716 18.8823 -2.6076 0.6687 0 8
-21.9046 18.8217 -2.6477 0.0913 0 7
-22.2052 18.4662 -2.6477 0.0913 0 7
-22.4999 18.1059 -2.6477 0.0913 0 7
-22.7889 17.7408 -2.6477 0.0913 0 7
-23.0719 17.3712 -2.6477 0.0913 0 7
-23.3489 16.9970 -2.6477 0.0913 0 7
-23.6198 16.6185 -2.6477 0.0913 0 7
-23.8846 16.2356 -2.6477 0.0913 0 7
-24.1432 15.8485 -2.6477 0.0913 0 7
-24.3955 15.4573 -2.6477 0.0913 0 7
-24.6415 15.0620 -2.6477 0.0913 0 7
-24.8811 14.6629 -2.6477 0.0913 0 7
-25.1142 14.2599 -2.6477 0.0913 0 7
-25.3408 13.8532 -2.6477 0.0913 0 7
-25.5608 13.4430 -2.6477 0.0913 0 7
-25.7742 13.0292 -2.6477 0.0913 0 7
-25.9809 12.6120 -2.6477 0.0913 0 7
-26.1808 12.1916 -2.6477 0.0913 0 7
-26.3739 11.7680 -2.6477 0.0913 0 7
-26.5602 11.3414 -2.6477 0.0913 0 6
-26.7395 10.9118 -2.6477 0.0913 0 7
-26.9119 10.4794 -2.6477 0.0913 0 7
-27.0774 10.0442 -2.6477 0.0913 0 7
-27.2357 9.6064 -2.6477 0.0913 0 7
-27.3871 9.1662 -2.6477 0.0913 0 7
-25.9466 8.2214 -2.4953 0.0913 0 8
-26.0757 7.8021 -2.4953 0.0913 0 8
-26.1981 7.3808 -2.4953 0.0913 0 8
-26.3136 6.9575 -2.4953 0.0913 0 8
-26.4224 6.5325 -2.4953 0.0913 0 8
-26.5242 6.1057 -2.4953 0.0913 0 8
-26.6192 5.6774 -2.4953 0.0913 0 8
-26.7073 5.2476 -2.4953 0.0913 0 8
-26.7884 4.8164 -2.4953 0.0913 0 8
-26.8625 4.3840 -2.4953 0.0913 0 8
-26.9297 3.9504 -2.4953 0.0913 0 8
-26.9899 3.5158 -2.4953 0.0913 0 8
-27.0430 3.0803 -2.4953 0.0913 0 8
-27.0892 2.6440 -2.4953 0.0913 0 8
-27.1283 2.2070 -2.4953 0.0913 0 8
-27.1603 1.7694 -2.4953 0.0913 0 8
-27.1853 1.3314 -2.4953 0.0913 0 8
-27.2033 0.8930 -2.4953 0.0913 0 8
-27.2141 0.4544 -2.4953 0.0913 0 8
-27.2179 0.0157 -2.4953 0.0913 0 8
-27.2146 -0.4230 -2.4953 0.0913 0 8
-27.2043 -0.8617 -2.4953 0.0913 0 8
-27.1868 -1.3001 -2.4953 0.0913 0 8
-27.1624 -1.7381 -2.4953 0.0913 0 8
-27.1308 -2.1757 -2.4953 0.0913 0 8
-27.0922 -2.6128 -2.4953 0.0913 0 8
-27.0466 -3.0491 -2.4953 0.0913 0 8
-26.9939 -3.4847 -2.4953 0.0913 0 8
-26.9342 -3.9194 -2.4953 0.0913 0 8
-26.8676 -4.3530 -2.4953 0.0913 0 8
-26.7939 -4.7855 -2.4953 0.0913 0 8
-26.7133 -5.2168 -2.4953 0.0913 0 8
-26.6257 -5.6467 -2.4953 0.0913 0 8
-26.5312 -6.0752 -2.4953 0.0913 0 8
-26.4299 -6.5020 -2.4953 0.0913 0 8
-11.7760 22.0672 -2.5029 0.0996 0 14
-12.1301 21.8745 -2.5029 0.0996 0 14
-12.4812 21.6761 -2.5029 0.0996 0 14
-12.8289 21.4721 -2.5029 0.0996 0 14
-13.1734 21.2625 -2.5029 0.0996 0 14
-13.5144 21.0474 -2.5029 0.0996 0 14
-13.8519 20.8268 -2.5029 0.0996 0 14
-14.1858 20.6009 -2.5029 0.0996 0 14
-14.5161 20.3695 -2.5029 0.0996 0 14
-14.8425 20.1329 -2.5029 0.0996 0 14
-15.1651 19.8910 -2.5029 0.0996 0 14
-15.4837 19.6440 -2.5029 0.0996 0 14
-15.7984 19.3919 -2.5029 0.0996 0 14
-16.1089 19.1347 -2.5029 0.0996 0 14
-16.4527 18.9156 -2.5086 0.6025 0 8
-16.9874 18.9061 -2.5433 0.7477 0 8
-17.5387 18.8978 -2.5799 0.7371 0 8
-18.1060 18.8891 -2.6182 0.7263 0 8
-18.6151 18.8039 -2.6477 0.0996 0 7
-18.9157 18.5013 -2.6477 0.0996 0 7
-19.2115 18.1941 -2.6477 0.0996 0 7
-19.5023 17.8820 -2.6477 0.0996 0 7
-19.7880 17.5653 -2.6477 0.0996 0 7
-20.0686 17.2441 -2.6477 0.0996 0 7
-20.3439 16.9184 -2.6477 0.0996 0 7
-20.6140 16.5882 -2.6477 0.0996 0 7
-20.8787 16.2538 -2.6477 0.0996 0 7
-21.1380 15.9151 -2.6477 0.0996 0 7
-21.3918 15.5724 -2.6477 0.0996 0 7
-21.6400 15.2255 -2.6477 0.0996 0 7
-21.8826 14.8747 -2.6477 0.0996 0 6
-22.1195 14.5201 -2.6477 0.0996 0 7
-22.3507 14.1616 -2.6477 0.0996 0 7
-22.5761 13.7995 -2.6477 0.0996 0 7
-22.7956 13.4338 -2.6477 0.0996 0 7
-23.0092 13.0646 -2.6477 0.0996 0 7
-23.2168 12.6920 -2.6477 0.0996 0 7
-23.4183 12.3162 -2.6477 0.0996 0 7
-23.6138 11.9371 -2.6477 0.0996 0 7
-23.8032 11.5549 -2.6477 0.0996 0 7
-23.9863 11.1697 -2.6477 0.0996 0 7
-24.1632 10.7816 -2.6477 0.0996 0 7
-24.3339 10.3907 -2.6477 0.0996 0 7
-24.4982 9.9971 -2.6477 0.0996 0 7
-24.6562 9.6010 -2.6477 0.0996 0 7
-24.8077 9.2023 -2.6477 0.0996 0 7
-23.5166 8.2946 -2.4953 0.0996 0 8
-23.6472 7.9145 -2.4953 0.0996 0 8
-23.7717 7.5323 -2.4953 0.0996 0 8
-23.8900 7.1481 -2.4953 0.0996 0 8
-24.0021 6.7621 -2.4953 0.0996 0 8
-24.1080 6.3743 -2.4953 0.0996 0 8
-24.2076 5.9849 -2.4953 0.0996 0 8
-24.3010 5.5940 -2.4953 0.0996 0 8
-24.3880 5.2015 -2.4953 0.0996 0 8
-24.4687 4.8077 -2.4953 0.0996 0 8
-24.5430 4.4127 -2.4953 0.0996 0 8
-24.6109 4.0165 -2.4953 0.0996 0 8
-24.6725 3.6193 -2.4953 0.0996 0 8
-24.7276 3.2211 -2.4953 0.0996 0 8
-24.7763 2.8221 -2.4953 0.0996 0 8
-24.8186 2.4224 -2.4953 0.0996 0 8
-24.8544 2.0220 -2.4953 0.0996 0 8
-24.8838 1.6211 -2.4953 0.0996 0 8
-24.9067 1.2198 -2.4953 0.0996 0 8
-24.9231 0.8182 -2.4953 0.0996 0 8
-24.9330 0.4163 -2.4953 0.0996 0 8
-24.9365 0.0144 -2.4953 0.0996 0 8
-24.9335 -0.3876 -2.4953 0.0996 0 8
-24.9240 -0.7894 -2.4953 0.0996 0 8
-24.9080 -1.1911 -2.4953 0.0996 0 8
-24.8856 -1.5924 -2.4953 0.0996 0 8
-24.8567 -1.9933 -2.4953 0.0996 0 8
-24.8213 -2.3938 -2.4953 0.0996 0 8
-24.7795 -2.7936 -2.4953 0.0996 0 8
-24.7313 -3.1926 -2.4953 0.0996 0 8
-24.6766 -3.5908 -2.4953 0.0996 0 8
-24.6155 -3.9881 -2.4953 0.0996 0 8
-24.5480 -4.3844 -2.4953 0.0996 0 8
-24.4742 -4.7795 -2.4953 0.0996 0 8
-24.3939 -5.1734 -2.4953 0.0996 0 8
-24.3074 -5.5659 -2.4953 0.0996 0 8
-24.2145 -5.9570 -2.4953 0.0996 0 8
-10.8638 20.3579 -2.5029 0.1078 0 14
-11.1906 20.1801 -2.5029 0.1078 0 14
-11.5144 19.9971 -2.5029 0.1078 0 14
-11.8352 19.8089 -2.5029 0.1078 0 14
-12.1530 19.6155 -2.5029 0.1078 0 14
-12.4676 19.4171 -2.5029 0.1078 0 14
-12.7790 19.2136 -2.5029 0.1078 0 14
-13.0870 19.0051 -2.5029 0.1078 0 8
-13.4832 18.9202 -2.5200 0.8173 0 8
-13.9436 18.9136 -2.5487 0.8081 0 8
-14.4146 18.9067 -2.5788 0.7987 0 8
-14.8969 18.8995 -2.6102 0.7890 0 8
-15.3912 18.8921 -2.6431 0.7792 0 8
-15.7208 18.6737 -2.6477 0.1078 0 7
-16.0196 18.4178 -2.6477 0.1078 0 6
-16.3145 18.1572 -2.6477 0.1078 0 7
-16.6051 17.8919 -2.6477 0.1078 0 7
-16.8913 17.6219 -2.6477 0.1078 0 7
-17.1732 17.3473 -2.6477 0.1078 0 7
-17.4506 17.0683 -2.6477 0.1078 0 7
-17.7234 16.7848 -2.6477 0.1078 0 7
-17.9917 16.4969 -2.6477 0.1078 0 7
-18.2552 16.2047 -2.6477 0.1078 0 7
-18.5141 15.9084 -2.6477 0.1078 0 7
-18.7681 15.6079 -2.6477 0.1078 0 7
-19.0173 15.3033 -2.6477 0.1078 0 7
-19.2615 14.9948 -2.6477 0.1078 0 7
-19.5007 14.6824 -2.6477 0.1078 0 7
-19.7348 14.3661 -2.6477 0.1078 0 7
-19.9638 14.0462 -2.6477 0.1078 0 7
-20.1876 13.7226 -2.6477 0.1078 0 7
-20.4062 13.3954 -2.6477 0.1078 0 7
-20.6194 13.0647 -2.6477 0.1078 0 7
-20.8274 12.7306 -2.6477 0.1078 0 7
-21.0299 12.3933 -2.6477 0.1078 0 7
-21.2269 12.0527 -2.6477 0.1078 0 7
-21.4184 11.7089 -2.6477 0.1078 0 7
-21.6044 11.3622 -2.6477 0.1078 0 6
-21.7847 11.0125 -2.6477 0.1078 0 7
-21.9594 10.6599 -2.6477 0.1078 0 7
-22.1284 10.3045 -2.6477 0.1078 0 7
-22.2916 9.9465 -2.6477 0.1078 0 7
-22.4490 9.5859 -2.6477 0.1078 0 7
-22.6006 9.2228 -2.6477 0.1078 0 7
-21.4371 8.3475 -2.4953 0.1078 0 8
-21.5688 8.0008 -2.4953 0.1078 0 8
-21.6950 7.6521 -2.4953 0.1078 0 8
-21.8155 7.3014 -2.4953 0.1078 0 8
-21.9304 6.9488 -2.4953 0.1078 0 8
-22.0395 6.5945 -2.4953 0.1078 0 8
-22.1430 6.2383 -2.4953 0.1078 0 8
-22.2407 5.8806 -2.4953 0.1078 0 8
-22.3326 5.5213 -2.4953 0.1078 0 8
-22.4186 5.1607 -2.4953 0.1078 0 8
-22.4989 4.7986 -2.4953 0.1078 0 8
-22.5733 4.4353 -2.4953 0.1078 0 8
-22.6419 4.0709 -2.4953 0.1078 0 8
-22.7046 3.7054 -2.4953 0.1078 0 8
-22.7614 3.3389 -2.4953 0.1078 0 8
-22.8122 2.9716 -2.4953 0.1078 0 8
-22.8572 2.6035 -2.4953 0.1078 0 8
-22.8962 2.2347 -2.4953 0.1078 0 8
-22.9292 1.8654 -2.4953 0.1078 0 8
-22.9563 1.4955 -2.4953 0.1078 0 8
-22.9774 1.1253 -2.4953 0.1078 0 8
-22.9926 0.7548 -2.4953 0.1078 0 8
-23.0018 0.3841 -2.4953 0.1078 0 8
-23.0050 0.0133 -2.4953 0.1078 0 8
-23.0022 -0.3576 -2.4953 0.1078 0 8
-22.9934 -0.7283 -2.4953 0.1078 0 8
-22.9787 -1.0988 -2.4953 0.1078 0 8
-22.9580 -1.4691 -2.4953 0.1078 0 8
-22.9313 -1.8389 -2.4953 0.1078 0 8
-22.8987 -2.2083 -2.4953 0.1078 0 8
-22.8601 -2.5772 -2.4953 0.1078 0 8
-22.8156 -2.9453 -2.4953 0.1078 0 8
-22.7652 -3.3127 -2.4953 0.1078 0 8
-22.7088 -3.6792 -2.4953 0.1078 0 8
-22.6466 -4.0448 -2.4953 0.1078 0 8
-22.5784 -4.4093 -2.4953 0.1078 0 8
-22.5044 -4.7727 -2.4953 0.1078 0 8
-22.4246 -5.1348 -2.4953 0.1078 0 8
-22.3389 -5.4956 -2.4953 0.1078 0 8
-10.1037 18.9334 -2.5084 0.7026 0 8
-10.4955 18.9267 -2.5296 0.8766 0 8
-10.8950 18.9214 -2.5520 0.8688 0 8
-11.3017 18.9160 -2.5755 0.8609 0 8
-11.7160 18.9102 -2.6001 0.8528 0 8
-12.1383 18.9043 -2.6259 0.8444 0 8
-12.5448 18.8614 -2.6477 0.1161 0 7
-12.8471 18.6568 -2.6477 0.1161 0 7
-13.1462 18.4473 -2.6477 0.1161 0 6
-13.4418 18.2330 -2.6477 0.1161 0 7
-13.7340 18.0139 -2.6477 0.1161 0 7
-14.0226 17.7902 -2.6477 0.1161 0 7
-14.3075 17.5619 -2.6477 0.1161 0 7
-14.5887 17.3290 -2.6477 0.1161 0 7
-14.8662 17.0916 -2.6477 0.1161 0 7
-15.1397 16.8497 -2.6477 0.1161 0 7
-15.4094 16.6035 -2.6477 0.1161 0 7
-15.6750 16.3530 -2.6477 0.1161 0 7
-15.9366 16.0982 -2.6477 0.1161 0 7
-16.1940 15.8392 -2.6477 0.1161 0 7
-16.4472 15.5761 -2.6477 0.1161 0 7
-16.6961 15.3090 -2.6477 0.1161 0 7
-16.9407 15.0379 -2.6477 0.1161 0 7
-17.1809 14.7628 -2.6477 0.1161 0 7
-17.4166 14.4840 -2.6477 0.1161 0 7
-17.6479 14.2014 -2.6477 0.1161 0 7
-17.8745 13.9150 -2.6477 0.1161 0 7
-18.0964 13.6251 -2.6477 0.1161 0 7
-18.3137 13.3317 -2.6477 0.1161 0 7
-18.5262 13.0347 -2.6477 0.1161 0 7
-18.7339 12.7344 -2.6477 0.1161 0 7
-18.9368 12.4308 -2.6477 0.1161 0 7
-19.1347 12.1239 -2.6477 0.1161 0 7
-19.3276 11.8139 -2.6477 0.1161 0 7
-19.5155 11.5008 -2.6477 0.1161 0 7
-19.6984 11.1848 -2.6477 0.1161 0 7
-19.8761 10.8658 -2.6477 0.1161 0 7
-20.0487 10.5440 -2.6477 0.1161 0 7
-20.2160 10.2195 -2.6477 0.1161 0 7
-20.3781 9.8923 -2.6477 0.1161 0 7
-20.5349 9.5625 -2.6477 0.1161 0 7
-20.6864 9.2303 -2.6477 0.1161 0 7
-19.6334 8.3836 -2.4953 0.1161 0 8
-19.7660 8.0660 -2.4953 0.1161 0 8
-19.8934 7.7464 -2.4953 0.1161 0 8
-20.0157 7.4247 -2.4953 0.1161 0 8
-20.1328 7.1011 -2.4953 0.1161 0 8
-20.2446 6.7757 -2.4953 0.1161 0 8
-20.3512 6.4485 -2.4953 0.1161 0 8
-20.4525 6.1196 -2.4953 0.1161 0 8
-20.5485 5.7891 -2.4953 0.1161 0 8
-20.6391 5.4571 -2.4953 0.1161 0 8
-20.7244 5.1238 -2.4953 0.1161 0 8
-20.8043 4.7890 -2.4953 0.1161 0 8
-20.8788 4.4531 -2.4953 0.1161 0 8
-20.9479 4.1159 -2.4953 0.1161 0 8
-21.0115 3.7777 -2.4953 0.1161 0 8
-21.0697 3.4386 -2.4953 0.1161 0 8
-21.1223 3.0985 -2.4953 0.1161 0 8
-21.1695 2.7576 -2.4953 0.1161 0 8
-21.2112 2.4160 -2.4953 0.1161 0 8
-21.2474 2.0738 -2.4953 0.1161 0 8
-21.2781 1.7311 -2.4953 0.1161 0 8
-21.3032 1.3879 -2.4953 0.1161 0 8
-21.3228 1.0443 -2.4953 0.1161 0 8
-21.3369 0.7004 -2.4953 0.1161 0 8
-21.3454 0.3564 -2.4953 0.1161 0 8
-21.3484 0.0123 -2.4953 0.1161 0 8
-21.3458 -0.3318 -2.4953 0.1161 0 8
-21.3377 -0.6758 -2.4953 0.1161 0 8
-21.3240 -1.0197 -2.4953 0.1161 0 8
-21.3048 -1.3633 -2.4953 0.1161 0 8
-21.2801 -1.7065 -2.4953 0.1161 0 8
-21.2498 -2.0493 -2.4953 0.1161 0 8
-21.2140 -2.3916 -2.4953 0.1161 0 8
-21.1727 -2.7332 -2.4953 0.1161 0 8
-21.1259 -3.0742 -2.4953 0.1161 0 8
-21.0736 -3.4143 -2.4953 0.1161 0 8
-21.0158 -3.7535 -2.4953 0.1161 0 8
-20.9526 -4.0918 -2.4953 0.1161 0 8
-20.8839 -4.4290 -2.4953 0.1161 0 8
-20.8098 -4.7651 -2.4953 0.1161 0 8
-20.7303 -5.0999 -2.4953 0.1161 0 8
-9.9470 18.6399 -2.6477 0.1243 0 7
-10.2462 18.4771 -2.6477 0.1243 0 7
-10.5427 18.3096 -2.6477 0.1243 0 7
-10.8365 18.1372 -2.6477 0.1243 0 7
-11.1274 17.9602 -2.6477 0.1243 0 7
-11.4155 17.7785 -2.6477 0.1243 0 7
-11.7006 17.5922 -2.6477 0.1243 0 7
-11.9826 17.4013 -2.6477 0.1243 0 7
-12.2615 17.2059 -2.6477 0.1243 0 7
-12.5373 17.0060 -2.6477 0.1243 0 7
-12.8098 16.8017 -2.6477 0.1243 0 7
-13.0790 16.5931 -2.6477 0.1243 0 7
-13.3447 16.3801 -2.6477 0.1243 0 7
-13.6070 16.1629 -2.6477 0.1243 0 7
-13.8658 15.9414 -2.6477 0.1243 0 7
-14.1209 15.7159 -2.6477 0.1243 0 7
-14.3724 15.4862 -2.6477 0.1243 0 7
-14.6202 15.2525 -2.6477 0.1243 0 7
-14.8641 15.0149 -2.6477 0.1243 0 7
-15.1042 14.7733 -2.6477 0.1243 0 7
-15.3404 14.5280 -2.6477 0.1243 0 7
-15.5726 14.2788 -2.6477 0.1243 0 7
-15.8007 14.0259 -2.6477 0.1243 0 7
-16.0247 13.7694 -2.6477 0.1243 0 7
-16.2446 13.5093 -2.6477 0.1243 0 7
-16.4603 13.2457 -2.6477 0.1243 0 7
-16.6716 12.9787 -2.6477 0.1243 0 7
-16.8787 12.7082 -2.6477 0.1243 0 7
-17.0813 12.4345 -2.6477 0.1243 0 7
-17.2795 12.1576 -2.6477 0.1243 0 7
-17.4733 11.8775 -2.6477 0.1243 0 7
-17.6624 11.5943 -2.6477 0.1243 0 7
-17.8470 11.3081 -2.6477 0.1243 0 7
-18.0270 11.0189 -2.6477 0.1243 0 7
-18.2023 10.7269 -2.6477 0.1243 0 7
-18.3728 10.4321 -2.6477 0.1243 0 7
-18.5386 10.1346 -2.6477 0.1243 0 7
-18.6995 9.8345 -2.6477 0.1243 0 7
-18.8556 9.5318 -2.6477 0.1243 0 7
-19.0068 9.2266 -2.6477 0.1243 0 7
-19.1531 8.9190 -2.6477 0.1243 0 7
-18.1838 8.1136 -2.4953 0.1243 0 8
-18.3122 7.8194 -2.4953 0.1243 0 8
-18.4359 7.5232 -2.4953 0.1243 0 8
-18.5547 7.2251 -2.4953 0.1243 0 8
-18.6688 6.9251 -2.4953 0.1243 0 8
-18.7780 6.6233 -2.4953 0.1243 0 8
-18.8823 6.3197 -2.4953 0.1243 0 8
-18.9817 6.0145 -2.4953 0.1243 0 8
-19.0762 5.7078 -2.4953 0.1243 0 8
-19.1657 5.3996 -2.4953 0.1243 0 8
-19.2503 5.0899 -2.4953 0.1243 0 8
-19.3298 4.7790 -2.4953 0.1243 0 8
-19.4043 4.4668 -2.4953 0.1243 0 8
-19.4738 4.1534 -2.4953 0.1243 0 8
-19.5382 3.8390 -2.4953 0.1243 0 8
-19.5976 3.5235 -2.4953 0.1243 0 8
-19.6518 3.2072 -2.4953 0.1243 0 8
-19.7010 2.8900 -2.4953 0.1243 0 8
-19.7450 2.5721 -2.4953 0.1243 0 8
-19.7839 2.2534 -2.4953 0.1243 0 8
-19.8176 1.9343 -2.4953 0.1243 0 8
-19.8462 1.6146 -2.4953 0.1243 0 8
-19.8697 1.2945 -2.4953 0.1243 0 8
-19.8880 0.9740 -2.4953 0.1243 0 8
-19.9011 0.6533 -2.4953 0.1243 0 8
-19.9090 0.3324 -2.4953 0.1243 0 8
-19.9118 0.0115 -2.4953 0.1243 0 8
-19.9094 -0.3095 -2.4953 0.1243 0 8
-19.9018 -0.6304 -2.4953 0.1243 0 8
-19.8891 -0.9511 -2.4953 0.1243 0 8
-19.8712 -1.2716 -2.4953 0.1243 0 8
-19.8481 -1.5917 -2.4953 0.1243 0 8
-19.8198 -1.9114 -2.4953 0.1243 0 8
-19.7864 -2.2307 -2.4953 0.1243 0 8
-19.7479 -2.5493 -2.4953 0.1243 0 8
-19.7043 -2.8673 -2.4953 0.1243 0 8
-19.6555 -3.1845 -2.4953 0.1243 0 8
-19.6016 -3.5009 -2.4953 0.1243 0 8
-19.5426 -3.8164 -2.4953 0.1243 0 8
-19.4786 -4.1310 -2.4953 0.1243 0 8
-19.4095 -4.4444 -2.4953 0.1243 0 8
-19.3353 -4.7567 -2.4953 0.1243 0 8
-9.3186 17.4623 -2.6477 0.1326 0 7
-9.5989 17.3098 -2.6477 0.1326 0 7
-9.8767 17.1529 -2.6477 0.1326 0 7
-10.1519 16.9914 -2.6477 0.1326 0 7
-10.4245 16.8256 -2.6477 0.1326 0 7
-10.6943 16.6554 -2.6477 0.1326 0 7
-10.9614 16.4808 -2.6477 0.1326 0 7
-11.2256 16.3020 -2.6477 0.1326 0 7
-11.4869 16.1189 -2.6477 0.1326 0 7
-11.7453 15.9317 -2.6477 0.1326 0 7
-12.0005 15.7403 -2.6477 0.1326 0 7
-12.2527 15.5448 -2.6477 0.1326 0 7
-12.5017 15.3453 -2.6477 0.1326 0 7
-12.7474 15.1418 -2.6477 0.1326 0 7
-12.9898 14.9343 -2.6477 0.1326 0 7
-13.2288 14.7230 -2.6477 0.1326 0 7
-13.4645 14.5079 -2.6477 0.1326 0 7
-13.6966 14.2889 -2.6477 0.1326 0 7
-13.9251 14.0663 -2.6477 0.1326 0 7
-14.1500 13.8400 -2.6477 0.1326 0 7
-14.3713 13.6102 -2.6477 0.1326 0 7
-14.5888 13.3767 -2.6477 0.1326 0 7
-14.8025 13.1399 -2.6477 0.1326 0 7
-15.0124 12.8995 -2.6477 0.1326 0 7
-15.2184 12.6559 -2.6477 0.1326 0 7
-15.4204 12.4089 -2.6477 0.1326 0 7
-15.6184 12.1587 -2.6477 0.1326 0 7
-15.8124 11.9054 -2.6477 0.1326 0 7
-16.0022 11.6490 -2.6477 0.1326 0 7
-16.1879 11.3895 -2.6477 0.1326 0 6
-16.3694 11.1271 -2.6477 0.1326 0 7
-16.5466 10.8618 -2.6477 0.1326 0 7
-16.7196 10.5937 -2.6477 0.1326 0 7
-16.8882 10.3228 -2.6477 0.1326 0 7
-17.0524 10.0493 -2.6477 0.1326 0 7
-17.2121 9.7731 -2.6477 0.1326 0 7
-17.3674 9.4943 -2.6477 0.1326 0 7
-17.5182 9.2132 -2.6477 0.1326 0 7
-17.6644 8.9296 -2.6477 0.1326 0 7
-16.7812 8.1462 -2.4953 0.1326 0 8
-16.9103 7.8746 -2.4953 0.1326 0 8
-17.0350 7.6010 -2.4953 0.1326 0 8
-17.1553 7.3254 -2.4953 0.1326 0 8
-17.2712 7.0480 -2.4953 0.1326 0 8
-17.3825 6.7687 -2.4953 0.1326 0 8
-17.4894 6.4876 -2.4953 0.1326 0 8
-17.5917 6.2048 -2.4953 0.1326 0 8
-17.6894 5.9205 -2.4953 0.1326 0 8
-17.7825 5.6346 -2.4953 0.1326 0 8
-17.8711 5.3472 -2.4953 0.1326 0 8
-17.9549 5.0585 -2.4953 0.1326 0 8
-18.0341 4.7684 -2.4953 0.1326 0 8
-18.1087 4.4771 -2.4953 0.1326 0 8
-18.1785 4.1846 -2.4953 0.1326 0 8
-18.2435 3.8910 -2.4953 0.1326 0 8
-18.3039 3.5964 -2.4953 0.1326 0 8
-18.3595 3.3009 -2.4953 0.1326 0 8
-18.4103 3.0046 -2.4953 0.1326 0 8
-18.4564 2.7074 -2.4953 0.1326 0 8
-18.4976 2.4096 -2.4953 0.1326 0 8
-18.5340 2.1111 -2.4953 0.1326 0 8
-18.5657 1.8121 -2.4953 0.1326 0 8
-18.5925 1.5126 -2.4953 0.1326 0 8
-18.6144 1.2127 -2.4953 0.1326 0 8
-18.6315 0.9125 -2.4953 0.1326 0 8
-18.6438 0.6120 -2.4953 0.1326 0 8
-18.6513 0.3114 -2.4953 0.1326 0 8
-18.6539 0.0108 -2.4953 0.1326 0 8
-18.6516 -0.2899 -2.4953 0.1326 0 8
-18.6445 -0.5905 -2.4953 0.1326 0 8
-18.6326 -0.8910 -2.4953 0.1326 0 8
-18.6158 -1.1912 -2.4953 0.1326 0 8
-18.5942 -1.4911 -2.4953 0.1326 0 8
-18.5677 -1.7907 -2.4953 0.1326 0 8
-18.5365 -2.0897 -2.4953 0.1326 0 8
-18.5004 -2.3882 -2.4953 0.1326 0 8
-18.4595 -2.6861 -2.4953 0.1326 0 8
-18.4138 -2.9833 -2.4953 0.1326 0 8
-18.3633 -3.2798 -2.4953 0.1326 0 8
-18.3080 -3.5753 -2.4953 0.1326 0 8
-18.2480 -3.8700 -2.4953 0.1326 0 8
-18.1833 -4.1636 -2.4953 0.1326 0 8
-18.1138 -4.4562 -2.4953 0.1326 0 8
-8.7638 16.4225 -2.6477 0.1408 0 7
-9.0273 16.2791 -2.6477 0.1408 0 7
-9.2886 16.1315 -2.6477 0.1408 0 7
-9.5474 15.9797 -2.6477 0.1408 0 7
-9.8037 15.8237 -2.6477 0.1408 0 7
-10.0575 15.6636 -2.6477 0.1408 0 7
-10.3087 15.4995 -2.6477 0.1408 0 7
-10.5572 15.3313 -2.6477 0.1408 0 7
-10.8029 15.1591 -2.6477 0.1408 0 7
-11.0459 14.9830 -2.6477 0.1408 0 7
-11.2860 14.8030 -2.6477 0.1408 0 7
-11.5231 14.6192 -2.6477 0.1408 0 7
-11.7572 14.4316 -2.6477 0.1408 0 7
-11.9883 14.2402 -2.6477 0.1408 0 7
-12.2163 14.0451 -2.6477 0.1408 0 7
-12.4411 13.8463 -2.6477 0.1408 0 7
-12.6627 13.6440 -2.6477 0.1408 0 7
-12.8810 13.4381 -2.6477 0.1408 0 7
-13.0959 13.2287 -2.6477 0.1408 0 7
-13.3075 13.0159 -2.6477 0.1408 0 7
-13.5155 12.7997 -2.6477 0.1408 0 7
-13.7201 12.5802 -2.6477 0.1408 0 7
-13.9211 12.3574 -2.6477 0.1408 0 7
-14.1185 12.1314 -2.6477 0.1408 0 7
-14.3122 11.9023 -2.6477 0.1408 0 7
-14.5022 11.6700 -2.6477 0.1408 0 7
-14.6883 11.4347 -2.6477 0.1408 0 6
-14.8708 11.1965 -2.6477 0.1408 0 7
-15.0494 10.9553 -2.6477 0.1408 0 7
-15.2240 10.7113 -2.6477 0.1408 0 7
-15.3947 10.4646 -2.6477 0.1408 0 7
-15.5613 10.2150 -2.6477 0.1408 0 7
-15.7240 9.9629 -2.6477 0.1408 0 7
-15.8825 9.7081 -2.6477 0.1408 0 7
-16.0370 9.4509 -2.6477 0.1408 0 7
-16.1872 9.1911 -2.6477 0.1408 0 7
-16.3333 8.9290 -2.6477 0.1408 0 7
-15.5268 8.1658 -2.4953 0.1408 0 8
-15.6564 7.9145 -2.4953 0.1408 0 8
-15.7819 7.6611 -2.4953 0.1408 0 8
-15.9034 7.4057 -2.4953 0.1408 0 8
-16.0207 7.1484 -2.4953 0.1408 0 8
-16.1338 6.8893 -2.4953 0.1408 0 8
-16.2428 6.6283 -2.4953 0.1408 0 8
-16.3475 6.3656 -2.4953 0.1408 0 8
-16.4480 6.1013 -2.4953 0.1408 0 8
-16.5442 5.8354 -2.4953 0.1408 0 8
-16.6361 5.5679 -2.4953 0.1408 0 8
-16.7237 5.2991 -2.4953 0.1408 0 8
-16.8069 5.0288 -2.4953 0.1408 0 8
-16.8858 4.7572 -2.4953 0.1408 0 8
-16.9603 4.4844 -2.4953 0.1408 0 8
-17.0304 4.2105 -2.4953 0.1408 0 8
-17.0960 3.9354 -2.4953 0.1408 0 8
-17.1572 3.6593 -2.4953 0.1408 0 8
-17.2140 3.3823 -2.4953 0.1408 0 8
-17.2663 3.1044 -2.4953 0.1408 0 8
-17.3141 2.8257 -2.4953 0.1408 0 8
-17.3574 2.5462 -2.4953 0.1408 0 8
-17.3962 2.2661 -2.4953 0.1408 0 8
-17.4304 1.9854 -2.4953 0.1408 0 8
-17.4602 1.7042 -2.4953 0.1408 0 8
-17.4854 1.4225 -2.4953 0.1408 0 8
-17.5060 1.1405 -2.4953 0.1408 0 8
-17.5221 0.8581 -2.4953 0.1408 0 8
-17.5337 0.5756 -2.4953 0.1408 0 8
-17.5407 0.2929 -2.4953 0.1408 0 8
-17.5431 0.0101 -2.4953 0.1408 0 8
-17.5410 -0.2727 -2.4953 0.1408 0 8
-17.5343 -0.5554 -2.4953 0.1408 0 8
-17.5231 -0.8380 -2.4953 0.1408 0 8
-17.5073 -1.1203 -2.4953 0.1408 0 8
-17.4870 -1.4023 -2.4953 0.1408 0 8
-17.4621 -1.6840 -2.4953 0.1408 0 8
-17.4327 -1.9653 -2.4953 0.1408 0 8
-17.3989 -2.2454 -2.4953 0.1408 0 8
-17.3603 -2.5262 -2.4953 0.1408 0 8
-17.3173 -2.8057 -2.4953 0.1408 0 8
-17.2698 -3.0845 -2.4953 0.1408 0 8
-17.2179 -3.3624 -2.4953 0.1408 0 8
-17.1614 -3.6396 -2.4953 0.1408 0 8
-17.1005 -3.9157 -2.4953 0.1408 0 8
-17.0352 -4.1908 -2.4953 0.1408 0 8
-8.2702 15.4975 -2.6477 0.1490 0 7
-8.5189 15.3622 -2.6477 0.1490 0 7
-8.7654 15.2229 -2.6477 0.1490 0 7
-9.0096 15.0796 -2.6477 0.1490 0 7
-9.2515 14.9325 -2.6477 0.1490 0 7
-9.4910 14.7814 -2.6477 0.1490 0 7
-9.7281 14.6265 -2.6477 0.1490 0 7
-9.9626 14.4678 -2.6477 0.1490 0 7
-10.1945 14.3053 -2.6477 0.1490 0 7
-10.4237 14.1391 -2.6477 0.1490 0 7
-10.6503 13.9693 -2.6477 0.1490 0 7
-10.8741 13.7958 -2.6477 0.1490 0 7
-11.0950 13.6187 -2.6477 0.1490 0 7
-11.3131 13.4381 -2.6477 0.1490 0 7
-11.5283 13.2540 -2.6477 0.1490 0 7
-11.7404 13.0665 -2.6477 0.1490 0 7
-11.9495 12.8755 -2.6477 0.1490 0 7
-12.1555 12.6812 -2.6477 0.1490 0 7
-12.3583 12.4836 -2.6477 0.1490 0 7
-12.5579 12.2828 -2.6477 0.1490 0 7
-12.7543 12.0788 -2.6477 0.1490 0 7
-12.9473 11.8716 -2.6477 0.1490 0 7
-13.1370 11.6614 -2.6477 0.1490 0 7
-13.3233 11.4481 -2.6477 0.1490 0 6
-13.5061 11.2319 -2.6477 0.1490 0 7
-13.6854 11.0127 -2.6477 0.1490 0 7
-13.8611 10.7907 -2.6477 0.1490 0 7
-14.0332 10.5659 -2.6477 0.1490 0 7
-14.2017 10.3383 -2.6477 0.1490 0 7
-14.3665 10.1080 -2.6477 0.1490 0 7
-14.5276 9.8751 -2.6477 0.1490 0 7
-14.6849 9.6397 -2.6477 0.1490 0 7
-14.8384 9.4017 -2.6477 0.1490 0 7
-14.9880 9.1613 -2.6477 0.1490 0 7
-14.2626 8.4052 -2.4953 0.1490 0 8
-14.3962 8.1742 -2.4953 0.1490 0 8
-14.5261 7.9411 -2.4953 0.1490 0 8
-14.6522 7.7059 -2.4953 0.1490 0 8
-14.7745 7.4687 -2.4953 0.1490 0 8
-14.8930 7.2296 -2.4953 0.1490 0 8
-15.0076 6.9886 -2.4953 0.1490 0 8
-15.1183 6.7458 -2.4953 0.1490 0 8
-15.2251 6.5012 -2.4953 0.1490 0 8
-15.3279 6.2550 -2.4953 0.1490 0 8
-15.4267 6.0071 -2.4953 0.1490 0 8
-15.5216 5.7576 -2.4953 0.1490 0 8
-15.6123 5.5067 -2.4953 0.1490 0 8
-15.6991 5.2543 -2.4953 0.1490 0 8
-15.7817 5.0006 -2.4953 0.1490 0 8
-15.8603 4.7456 -2.4953 0.1490 0 8
-15.9347 4.4893 -2.4953 0.1490 0 8
-16.0050 4.2319 -2.4953 0.1490 0 8
-16.0712 3.9733 -2.4953 0.1490 0 8
-16.1331 3.7138 -2.4953 0.1490 0 8
-16.1909 3.4532 -2.4953 0.1490 0 8
-16.2444 3.1918 -2.4953 0.1490 0 8
-16.2938 2.9295 -2.4953 0.1490 0 8
-16.3389 2.6665 -2.4953 0.1490 0 8
-16.3797 2.4028 -2.4953 0.1490 0 8
-16.4163 2.1385 -2.4953 0.1490 0 8
-16.4487 1.8736 -2.4953 0.1490 0 8
-16.4767 1.6082 -2.4953 0.1490 0 8
-16.5005 1.3424 -2.4953 0.1490 0 8
-16.5200 1.0762 -2.4953 0.1490 0 8
-16.5352 0.8098 -2.4953 0.1490 0 8
-16.5461 0.5432 -2.4953 0.1490 0 8
-16.5527 0.2764 -2.4953 0.1490 0 8
-16.5550 0.0095 -2.4953 0.1490 0 8
-16.5530 -0.2573 -2.4953 0.1490 0 8
-16.5467 -0.5241 -2.4953 0.1490 0 8
-16.5361 -0.7908 -2.4953 0.1490 0 8
-16.5212 -1.0572 -2.4953 0.1490 0 8
-16.5021 -1.3234 -2.4953 0.1490 0 8
-16.4786 -1.5892 -2.4953 0.1490 0 8
-16.4508 -1.8546 -2.4953 0.1490 0 8
-16.4188 -2.1195 -2.4953 0.1490 0 8
-16.3825 -2.3839 -2.4953 0.1490 0 8
-16.3419 -2.6477 -2.4953 0.1490 0 8
-16.2971 -2.9108 -2.4953 0.1490 0 8
-16.2481 -3.1731 -2.4953 0.1490 0 8
-16.1948 -3.4346 -2.4953 0.1490 0 8
-16.1374 -3.6952 -2.4953 0.1490 0 8
-16.0757 -3.9548 -2.4953 0.1490 0 8
-7.8281 14.6693 -2.6477 0.1573 0 7
-8.0636 14.5412 -2.6477 0.1573 0 7
-8.2969 14.4093 -2.6477 0.1573 0 7
-8.5281 14.2737 -2.6477 0.1573 0 7
-8.7571 14.1344 -2.6477 0.1573 0 7
-8.9838 13.9914 -2.6477 0.1573 0 7
-9.2081 13.8447 -2.6477 0.1573 0 7
-9.4301 13.6945 -2.6477 0.1573 0 7
-9.6496 13.5407 -2.6477 0.1573 0 7
-9.8666 13.3834 -2.6477 0.1573 0 7
-10.0811 13.2227 -2.6477 0.1573 0 7
-10.2929 13.0584 -2.6477 0.1573 0 7
-10.5020 12.8908 -2.6477 0.1573 0 7
-10.7085 12.7199 -2.6477 0.1573 0 7
-10.9121 12.5456 -2.6477 0.1573 0 7
-11.1129 12.3681 -2.6477 0.1573 0 7
-11.3108 12.1874 -2.6477 0.1573 0 7
-11.5058 12.0035 -2.6477 0.1573 0 7
-11.6978 11.8164 -2.6477 0.1573 0 7
-11.8868 11.6263 -2.6477 0.1573 0 7
-12.0726 11.4332 -2.6477 0.1573 0 6
-12.2553 11.2371 -2.6477 0.1573 0 7
-12.4349 11.0381 -2.6477 0.1573 0 7
-12.6112 10.8363 -2.6477 0.1573 0 7
-12.7842 10.6316 -2.6477 0.1573 0 7
-12.9539 10.4241 -2.6477 0.1573 0 7
-13.1203 10.2140 -2.6477 0.1573 0 7
-13.2832 10.0012 -2.6477 0.1573 0 7
-13.4427 9.7857 -2.6477 0.1573 0 7
-13.5987 9.5678 -2.6477 0.1573 0 7
-13.7511 9.3474 -2.6477 0.1573 0 7
-13.9000 9.1245 -2.6477 0.1573 0 7
-13.2368 8.3870 -2.4953 0.1573 0 8
-13.3703 8.1725 -2.4953 0.1573 0 8
-13.5003 7.9560 -2.4953 0.1573 0 8
-13.6268 7.7373 -2.4953 0.1573 0 8
-13.7497 7.5167 -2.4953 0.1573 0 8
-13.8691 7.2940 -2.4953 0.1573 0 8
-13.9849 7.0695 -2.4953 0.1573 0 8
-14.0970 6.8432 -2.4953 0.1573 0 8
-14.2055 6.6151 -2.4953 0.1573 0 8
-14.3103 6.3852 -2.4953 0.1573 0 8
-14.4114 6.1538 -2.4953 0.1573 0 8
-14.5087 5.9206 -2.4953 0.1573 0 8
-14.6022 5.6860 -2.4953 0.1573 0 8
-14.6920 5.4499 -2.4953 0.1573 0 8
-14.7779 5.2124 -2.4953 0.1573 0 8
-14.8600 4.9735 -2.4953 0.1573 0 8
-14.9383 4.7333 -2.4953 0.1573 0 8
-15.0126 4.4919 -2.4953 0.1573 0 8
-15.0831 4.2494 -2.4953 0.1573 0 8
-15.1496 4.0057 -2.4953 0.1573 0 8
-15.2122 3.7610 -2.4953 0.1573 0 8
-15.2708 3.5153 -2.4953 0.1573 0 8
-15.3255 3.2687 -2.4953 0.1573 0 8
-15.3762 3.0212 -2.4953 0.1573 0 8
-15.4229 2.7730 -2.4953 0.1573 0 8
-15.4656 2.5240 -2.4953 0.1573 0 8
-15.5043 2.2744 -2.4953 0.1573 0 8
-15.5389 2.0242 -2.4953 0.1573 0 8
-15.5695 1.7734 -2.4953 0.1573 0 8
-15.5961 1.5222 -2.4953 0.1573 0 8
-15.6186 1.2706 -2.4953 0.1573 0 8
-15.6371 1.0187 -2.4953 0.1573 0 8
-15.6515 0.7665 -2.4953 0.1573 0 8
-15.6618 0.5141 -2.4953 0.1573 0 8
-15.6680 0.2616 -2.4953 0.1573 0 8
-15.6702 0.0090 -2.4953 0.1573 0 8
-15.6683 -0.2436 -2.4953 0.1573 0 8
-15.6624 -0.4961 -2.4953 0.1573 0 8
-15.6523 -0.7485 -2.4953 0.1573 0 8
-15.6382 -1.0007 -2.4953 0.1573 0 8
-15.6201 -1.2526 -2.4953 0.1573 0 8
-15.5979 -1.5043 -2.4953 0.1573 0 8
-15.5716 -1.7555 -2.4953 0.1573 0 8
-15.5413 -2.0062 -2.4953 0.1573 0 8
-15.5069 -2.2565 -2.4953 0.1573 0 8
-15.4685 -2.5062 -2.4953 0.1573 0 8
-15.4261 -2.7552 -2.4953 0.1573 0 8
-15.3797 -3.0035 -2.4953 0.1573 0 8
-15.3293 -3.2510 -2.4953 0.1573 0 8
-15.2749 -3.4977 -2.4953 0.1573 0 8
-15.2165 -3.7434 -2.4953 0.1573 0 8
-7.4300 13.9231 -2.6477 0.1655 0 7
-7.6534 13.8016 -2.6477 0.1655 0 7
-7.8749 13.6764 -2.6477 0.1655 0 7
-8.0943 13.5477 -2.6477 0.1655 0 7
-8.3117 13.4154 -2.6477 0.1655 0 7
-8.5268 13.2797 -2.6477 0.1655 0 7
-8.7398 13.1406 -2.6477 0.1655 0 7
-8.9505 12.9980 -2.6477 0.1655 0 7
-9.1588 12.8520 -2.6477 0.1655 0 7
-9.3648 12.7027 -2.6477 0.1655 0 7
-9.5683 12.5501 -2.6477 0.1655 0 7
-9.7694 12.3943 -2.6477 0.1655 0 7
-9.9679 12.2352 -2.6477 0.1655 0 7
-10.1638 12.0729 -2.6477 0.1655 0 7
-10.3571 11.9075 -2.6477 0.1655 0 7
-10.5477 11.7390 -2.6477 0.1655 0 7
-10.7355 11.5675 -2.6477 0.1655 0 7
-10.9206 11.3929 -2.6477 0.1655 0 6
-11.1028 11.2154 -2.6477 0.1655 0 7
-11.2822 11.0350 -2.6477 0.1655 0 7
-11.4586 10.8517 -2.6477 0.1655 0 7
-11.6320 10.6656 -2.6477 0.1655 0 7
-11.8024 10.4767 -2.6477 0.1655 0 7
-11.9697 10.2851 -2.6477 0.1655 0 7
-12.1340 10.0908 -2.6477 0.1655 0 7
-12.2951 9.8939 -2.6477 0.1655 0 7
-12.4529 9.6945 -2.6477 0.1655 0 7
-12.6076 9.4925 -2.6477 0.1655 0 7
-12.7590 9.2880 -2.6477 0.1655 0 7
-12.9070 9.0811 -2.6477 0.1655 0 7
-12.3005 8.3613 -2.4953 0.1655 0 8
-12.4336 8.1619 -2.4953 0.1655 0 8
-12.5636 7.9604 -2.4953 0.1655 0 8
-12.6903 7.7569 -2.4953 0.1655 0 8
-12.8136 7.5513 -2.4953 0.1655 0 8
-12.9337 7.3438 -2.4953 0.1655 0 8
-13.0504 7.1343 -2.4953 0.1655 0 8
-13.1637 6.9231 -2.4953 0.1655 0 8
-13.2736 6.7100 -2.4953 0.1655 0 8
-13.3800 6.4951 -2.4953 0.1655 0 8
-13.4830 6.2786 -2.4953 0.1655 0 8
-13.5824 6.0605 -2.4953 0.1655 0 8
-13.6784 5.8408 -2.4953 0.1655 0 8
-13.7707 5.6195 -2.4953 0.1655 0 8
-13.8595 5.3968 -2.4953 0.1655 0 8
-13.9447 5.1727 -2.4953 0.1655 0 8
-14.0263 4.9473 -2.4953 0.1655 0 8
-14.1042 4.7205 -2.4953 0.1655 0 8
-14.1785 4.4926 -2.4953 0.1655 0 8
-14.2490 4.2635 -2.4953 0.1655 0 8
-14.3159 4.0332 -2.4953 0.1655 0 8
-14.3790 3.8019 -2.4953 0.1655 0 8
-14.4385 3.5697 -2.4953 0.1655 0 8
-14.4941 3.3365 -2.4953 0.1655 0 8
-14.5460 3.1024 -2.4953 0.1655 0 8
-14.5941 2.8675 -2.4953 0.1655 0 8
-14.6385 2.6319 -2.4953 0.1655 0 8
-14.6790 2.3956 -2.4953 0.1655 0 8
-14.7157 2.1587 -2.4953 0.1655 0 8
-14.7486 1.9212 -2.4953 0.1655 0 8
-14.7776 1.6832 -2.4953 0.1655 0 8
-14.8028 1.4448 -2.4953 0.1655 0 8
-14.8242 1.2060 -2.4953 0.1655 0 8
-14.8417 0.9669 -2.4953 0.1655 0 8
-14.8554 0.7275 -2.4953 0.1655 0 8
-14.8652 0.4880 -2.4953 0.1655 0 8
-14.8711 0.2483 -2.4953 0.1655 0 8
-14.8732 0.0086 -2.4953 0.1655 0 8
-14.8714 -0.2312 -2.4953 0.1655 0 8
-14.8657 -0.4709 -2.4953 0.1655 0 8
-14.8562 -0.7104 -2.4953 0.1655 0 8
-14.8428 -0.9498 -2.4953 0.1655 0 8
-14.8256 -1.1889 -2.4953 0.1655 0 8
-14.8045 -1.4277 -2.4953 0.1655 0 8
-14.7796 -1.6662 -2.4953 0.1655 0 8
-14.7508 -1.9042 -2.4953 0.1655 0 8
-14.7182 -2.1417 -2.4953 0.1655 0 8
-14.6817 -2.3787 -2.4953 0.1655 0 8
-14.6415 -2.6150 -2.4953 0.1655 0 8
-14.5974 -2.8507 -2.4953 0.1655 0 8
-14.5496 -3.0856 -2.4953 0.1655 0 8
-14.4980 -3.3198 -2.4953 0.1655 0 8
-14.4426 -3.5530 -2.4953 0.1655 0 8
-7.0694 13.2474 -2.6477 0.1736 0 7
-7.2820 13.1318 -2.6477 0.1736 0 7
-7.4927 13.0127 -2.6477 0.1736 0 7
-7.7015 12.8902 -2.6477 0.1736 0 7
-7.9083 12.7644 -2.6477 0.1736 0 7
-8.1130 12.6353 -2.6477 0.1736 0 7
-8.3156 12.5028 -2.6477 0.1736 0 7
-8.5161 12.3672 -2.6477 0.1736 0 7
-8.7143 12.2283 -2.6477 0.1736 0 7
-8.9103 12.0863 -2.6477 0.1736 0 7
-9.1040 11.9410 -2.6477 0.1736 0 7
-9.2953 11.7928 -2.6477 0.1736 0 7
-9.4841 11.6414 -2.6477 0.1736 0 7
-9.6706 11.4870 -2.6477 0.1736 0 7
-9.8545 11.3296 -2.6477 0.1736 0 7
-10.0358 11.1693 -2.6477 0.1736 0 7
-10.2145 11.0061 -2.6477 0.1736 0 7
-10.3906 10.8400 -2.6477 0.1736 0 7
-10.5640 10.6711 -2.6477 0.1736 0 7
-10.7346 10.4995 -2.6477 0.1736 0 7
-10.9025 10.3251 -2.6477 0.1736 0 7
-11.0675 10.1480 -2.6477 0.1736 0 7
-11.2296 9.9683 -2.6477 0.1736 0 7
-11.3889 9.7860 -2.6477 0.1736 0 7
-11.5451 9.6011 -2.6477 0.1736 0 7
-11.6984 9.4138 -2.6477 0.1736 0 7
-11.8486 9.2240 -2.6477 0.1736 0 7
-11.9957 9.0318 -2.6477 0.1736 0 7
-11.4410 8.3286 -2.4953 0.1736 0 8
-11.5738 8.1431 -2.4953 0.1736 0 8
-11.7035 7.9555 -2.4953 0.1736 0 8
-11.8302 7.7658 -2.4953 0.1736 0 8
-11.9539 7.5741 -2.4953 0.1736 0 8
-12.0744 7.3804 -2.4953 0.1736 0 8
-12.1918 7.1848 -2.4953 0.1736 0 8
-12.3060 6.9874 -2.4953 0.1736 0 8
-12.4171 6.7881 -2.4953 0.1736 0 8
-12.5249 6.5871 -2.4953 0.1736 0 8
-12.6294 6.3843 -2.4953 0.1736 0 8
-12.7307 6.1799 -2.4953 0.1736 0 8
-12.8286 5.9739 -2.4953 0.1736 0 8
-12.9233 5.7664 -2.4953 0.1736 0 8
-13.0145 5.5573 -2.4953 0.1736 0 8
-13.1024 5.3468 -2.4953 0.1736 0 8
-13.1869 5.1349 -2.4953 0.1736 0 8
-13.2680 4.9217 -2.4953 0.1736 0 8
-13.3456 4.7072 -2.4953 0.1736 0 8
-13.4197 4.4914 -2.4953 0.1736 0 8
-13.4904 4.2745 -2.4953 0.1736 0 8
-13.5575 4.0565 -2.4953 0.1736 0 8
-13.6211 3.8375 -2.4953 0.1736 0 8
-13.6812 3.6174 -2.4953 0.1736 0 8
-13.7378 3.3964 -2.4953 0.1736 0 8
-13.7907 3.1746 -2.4953 0.1736 0 8
-13.8401 2.9518 -2.4953 0.1736 0 8
-13.8859 2.7284 -2.4953 0.1736 0 8
-13.9281 2.5042 -2.4953 0.1736 0 8
-13.9666 2.2794 -2.4953 0.1736 0 8
-14.0015 2.0539 -2.4953 0.1736 0 8
-14.0328 1.8280 -2.4953 0.1736 0 8
-14.0605 1.6015 -2.4953 0.1736 0 8
-14.0845 1.3747 -2.4953 0.1736 0 8
-14.1048 1.1475 -2.4953 0.1736 0 8
-14.1215 0.9200 -2.4953 0.1736 0 8
-14.1344 0.6922 -2.4953 0.1736 0 8
-14.1438 0.4643 -2.4953 0.1736 0 8
-14.1494 0.2363 -2.4953 0.1736 0 8
-14.1514 0.0082 -2.4953 0.1736 0 8
-14.1497 -0.2200 -2.4953 0.1736 0 8
-14.1443 -0.4480 -2.4953 0.1736 0 8
-14.1352 -0.6759 -2.4953 0.1736 0 8
-14.1225 -0.9037 -2.4953 0.1736 0 8
-14.1061 -1.1312 -2.4953 0.1736 0 8
-14.0860 -1.3585 -2.4953 0.1736 0 8
-14.0623 -1.5853 -2.4953 0.1736 0 8
-14.0349 -1.8118 -2.4953 0.1736 0 8
-14.0039 -2.0378 -2.4953 0.1736 0 8
-13.9692 -2.2633 -2.4953 0.1736 0 8
-13.9309 -2.4881 -2.4953 0.1736 0 8
-13.8890 -2.7124 -2.4953 0.1736 0 8
-13.8435 -2.9359 -2.4953 0.1736 0 8
-13.7944 -3.1586 -2.4953 0.1736 0 8
-13.7417 -3.3806 -2.4953 0.1736 0 8
-6.7413 12.6326 -2.6477 0.1818 0 7
-6.9440 12.5223 -2.6477 0.1818 0 7
-7.1450 12.4087 -2.6477 0.1818 0 7
-7.3441 12.2919 -2.6477 0.1818 0 7
-7.5413 12.1720 -2.6477 0.1818 0 7
-7.7365 12.0488 -2.6477 0.1818 0 7
-7.9297 11.9225 -2.6477 0.1818 0 7
-8.1208 11.7932 -2.6477 0.1818 0 7
-8.3099 11.6607 -2.6477 0.1818 0 7
-8.4967 11.5253 -2.6477 0.1818 0 7
-8.6814 11.3868 -2.6477 0.1818 0 6
-8.8638 11.2454 -2.6477 0.1818 0 7
-9.0439 11.1011 -2.6477 0.1818 0 7
-9.2217 10.9539 -2.6477 0.1818 0 7
-9.3971 10.8038 -2.6477 0.1818 0 7
-9.5700 10.6509 -2.6477 0.1818 0 7
-9.7404 10.4953 -2.6477 0.1818 0 7
-9.9084 10.3369 -2.6477 0.1818 0 7
-10.0737 10.1758 -2.6477 0.1818 0 7
-10.2364 10.0121 -2.6477 0.1818 0 7
-10.3965 9.8458 -2.6477 0.1818 0 7
-10.5538 9.6770 -2.6477 0.1818 0 7
-10.7084 9.5056 -2.6477 0.1818 0 7
-10.8603 9.3318 -2.6477 0.1818 0 7
-11.0093 9.1555 -2.6477 0.1818 0 7
-11.1554 8.9768 -2.6477 0.1818 0 7
-10.6483 8.2896 -2.4953 0.1818 0 8
-10.7805 8.1169 -2.4953 0.1818 0 8
-10.9100 7.9420 -2.4953 0.1818 0 8
-11.0366 7.7651 -2.4953 0.1818 0 8
-11.1603 7.5862 -2.4953 0.1818 0 8
-11.2811 7.4054 -2.4953 0.1818 0 8
-11.3990 7.2226 -2.4953 0.1818 0 8
-11.5140 7.0379 -2.4953 0.1818 0 8
-11.6259 6.8514 -2.4953 0.1818 0 8
-11.7349 6.6631 -2.4953 0.1818 0 8
-11.8407 6.4731 -2.4953 0.1818 0 8
-11.9435 6.2813 -2.4953 0.1818 0 8
-12.0432 6.0880 -2.4953 0.1818 0 8
-12.1398 5.8931 -2.4953 0.1818 0 8
-12.2332 5.6966 -2.4953 0.1818 0 8
-12.3235 5.4987 -2.4953 0.1818 0 8
-12.4105 5.2994 -2.4953 0.1818 0 8
-12.4943 5.0986 -2.4953 0.1818 0 8
-12.5749 4.8966 -2.4953 0.1818 0 8
-12.6522 4.6932 -2.4953 0.1818 0 8
-12.7262 4.4887 -2.4953 0.1818 0 8
-12.7969 4.2830 -2.4953 0.1818 0 8
-12.8642 4.0761 -2.4953 0.1818 0 8
-12.9283 3.8683 -2.4953 0.1818 0 8
-12.9889 3.6594 -2.4953 0.1818 0 8
-13.0462 3.4495 -2.4953 0.1818 0 8
-13.1001 3.2388 -2.4953 0.1818 0 8
-13.1506 3.0272 -2.4953 0.1818 0 8
-13.1977 2.8148 -2.4953 0.1818 0 8
-13.2414 2.6017 -2.4953 0.1818 0 8
-13.2816 2.3880 -2.4953 0.1818 0 8
-13.3184 2.1736 -2.4953 0.1818 0 8
-13.3517 1.9586 -2.4953 0.1818 0 8
-13.3815 1.7431 -2.4953 0.1818 0 8
-13.4079 1.5272 -2.4953 0.1818 0 8
-13.4308 1.3109 -2.4953 0.1818 0 8
-13.4501 1.0942 -2.4953 0.1818 0 8
-13.4660 0.8773 -2.4953 0.1818 0 8
-13.4784 0.6601 -2.4953 0.1818 0 8
-13.4873 0.4428 -2.4953 0.1818 0 8
-13.4927 0.2253 -2.4953 0.1818 0 8
-13.4946 0.0078 -2.4953 0.1818 0 8
-13.4929 -0.2097 -2.4953 0.1818 0 8
-13.4878 -0.4272 -2.4953 0.1818 0 8
-13.4792 -0.6446 -2.4953 0.1818 0 8
-13.4670 -0.8618 -2.4953 0.1818 0 8
-13.4514 -1.0787 -2.4953 0.1818 0 8
-13.4323 -1.2954 -2.4953 0.1818 0 8
-13.4096 -1.5118 -2.4953 0.1818 0 8
-13.3835 -1.7277 -2.4953 0.1818 0 8
-13.3539 -1.9432 -2.4953 0.1818 0 8
-13.3209 -2.1582 -2.4953 0.1818 0 8
-13.2844 -2.3727 -2.4953 0.1818 0 8
-13.2444 -2.5865 -2.4953 0.1818 0 8
-13.2010 -2.7996 -2.4953 0.1818 0 8
-13.1541 -3.0120 -2.4953 0.1818 0 8
-13.1039 -3.2237 -2.4953 0.1818 0 8
-6.4414 12.0706 -2.6477 0.1900 0 7
-6.6351 11.9652 -2.6477 0.1900 0 7
-6.8271 11.8567 -2.6477 0.1900 0 7
-7.0174 11.7451 -2.6477 0.1900 0 7
-7.2058 11.6305 -2.6477 0.1900 0 7
-7.3923 11.5128 -2.6477 0.1900 0 7
-7.5769 11.3922 -2.6477 0.1900 0 6
-7.7596 11.2686 -2.6477 0.1900 0 7
-7.9402 11.1420 -2.6477 0.1900 0 7
-8.1188 11.0126 -2.6477 0.1900 0 7
-8.2952 10.8803 -2.6477 0.1900 0 7
-8.4695 10.7452 -2.6477 0.1900 0 7
-8.6416 10.6072 -2.6477 0.1900 0 7
-8.8115 10.4666 -2.6477 0.1900 0 7
-8.9790 10.3232 -2.6477 0.1900 0 7
-9.1443 10.1771 -2.6477 0.1900 0 7
-9.3071 10.0284 -2.6477 0.1900 0 7
-9.4676 9.8771 -2.6477 0.1900 0 7
-9.6255 9.7232 -2.6477 0.1900 0 7
-9.7810 9.5667 -2.6477 0.1900 0 7
-9.9340 9.4079 -2.6477 0.1900 0 7
-10.0843 9.2465 -2.6477 0.1900 0 7
-10.2321 9.0828 -2.6477 0.1900 0 7
-9.7798 8.4034 -2.4953 0.1900 0 8
-9.9140 8.2447 -2.4953 0.1900 0 8
-10.0456 8.0838 -2.4953 0.1900 0 8
-10.1746 7.9208 -2.4953 0.1900 0 8
-10.3010 7.7558 -2.4953 0.1900 0 8
-10.4246 7.5887 -2.4953 0.1900 0 8
-10.5456 7.4197 -2.4953 0.1900 0 8
-10.6638 7.2488 -2.4953 0.1900 0 8
-10.7793 7.0759 -2.4953 0.1900 0 8
-10.8920 6.9013 -2.4953 0.1900 0 8
-11.0018 6.7248 -2.4953 0.1900 0 8
-11.1087 6.5466 -2.4953 0.1900 0 8
-11.2128 6.3667 -2.4953 0.1900 0 8
-11.3140 6.1851 -2.4953 0.1900 0 8
-11.4122 6.0019 -2.4953 0.1900 0 8
-11.5075 5.8172 -2.4953 0.1900 0 8
-11.5998 5.6309 -2.4953 0.1900 0 8
-11.6890 5.4432 -2.4953 0.1900 0 8
-11.7752 5.2541 -2.4953 0.1900 0 8
-11.8584 5.0636 -2.4953 0.1900 0 8
-11.9385 4.8718 -2.4953 0.1900 0 8
-12.0155 4.6787 -2.4953 0.1900 0 8
-12.0893 4.4845 -2.4953 0.1900 0 8
-12.1600 4.2890 -2.4953 0.1900 0 8
-12.2276 4.0924 -2.4953 0.1900 0 8
-12.2920 3.8948 -2.4953 0.1900 0 8
-12.3531 3.6962 -2.4953 0.1900 0 8
-12.4111 3.4966 -2.4953 0.1900 0 8
-12.4659 3.2961 -2.4953 0.1900 0 8
-12.5174 3.0947 -2.4953 0.1900 0 8
-12.5656 2.8925 -2.4953 0.1900 0 8
-12.6106 2.6896 -2.4953 0.1900 0 8
-12.6523 2.4860 -2.4953 0.1900 0 8
-12.6908 2.2817 -2.4953 0.1900 0 8
-12.7259 2.0769 -2.4953 0.1900 0 8
-12.7577 1.8715 -2.4953 0.1900 0 8
-12.7862 1.6656 -2.4953 0.1900 0 8
-12.8114 1.4593 -2.4953 0.1900 0 8
-12.8333 1.2526 -2.4953 0.1900 0 8
-12.8518 1.0455 -2.4953 0.1900 0 8
-12.8670 0.8383 -2.4953 0.1900 0 8
-12.8788 0.6307 -2.4953 0.1900 0 8
-12.8873 0.4231 -2.4953 0.1900 0 8
-12.8925 0.2153 -2.4953 0.1900 0 8
-12.8943 0.0074 -2.4953 0.1900 0 8
-12.8927 -0.2004 -2.4953 0.1900 0 8
-12.8878 -0.4082 -2.4953 0.1900 0 8
-12.8795 -0.6159 -2.4953 0.1900 0 8
-12.8679 -0.8234 -2.4953 0.1900 0 8
-12.8530 -1.0307 -2.4953 0.1900 0 8
-12.8347 -1.2378 -2.4953 0.1900 0 8
-12.8131 -1.4445 -2.4953 0.1900 0 8
-12.7881 -1.6508 -2.4953 0.1900 0 8
-12.7599 -1.8568 -2.4953 0.1900 0 8
-12.7283 -2.0622 -2.4953 0.1900 0 8
-12.6934 -2.2671 -2.4953 0.1900 0 8
-12.6552 -2.4714 -2.4953 0.1900 0 8
-12.6137 -2.6751 -2.4953 0.1900 0 8
-12.5690 -2.8781 -2.4953 0.1900 0 8
-12.5209 -3.0803 -2.4953 0.1900 0 8
-6.1662 11.5549 -2.6477 0.1981 0 7
-6.3517 11.4540 -2.6477 0.1981 0 6
-6.5355 11.3502 -2.6477 0.1981 0 7
-6.7176 11.2433 -2.6477 0.1981 0 7
-6.8979 11.1336 -2.6477 0.1981 0 7
-7.0765 11.0210 -2.6477 0.1981 0 7
-7.2532 10.9055 -2.6477 0.1981 0 7
-7.4281 10.7871 -2.6477 0.1981 0 7
-7.6010 10.6660 -2.6477 0.1981 0 7
-7.7719 10.5421 -2.6477 0.1981 0 7
-7.9408 10.4155 -2.6477 0.1981 0 7
-8.1077 10.2861 -2.6477 0.1981 0 7
-8.2724 10.1541 -2.6477 0.1981 0 7
-8.4350 10.0194 -2.6477 0.1981 0 7
-8.5954 9.8821 -2.6477 0.1981 0 7
-8.7536 9.7423 -2.6477 0.1981 0 7
-8.9095 9.6000 -2.6477 0.1981 0 7
-9.0631 9.4551 -2.6477 0.1981 0 7
-9.2143 9.3078 -2.6477 0.1981 0 7
-9.3632 9.1580 -2.6477 0.1981 0 7
-9.5096 9.0059 -2.6477 0.1981 0 7
-9.0979 8.3420 -2.4953 0.1981 0 8
-9.2311 8.1942 -2.4953 0.1981 0 8
-9.3620 8.0444 -2.4953 0.1981 0 8
-9.4905 7.8924 -2.4953 0.1981 0 8
-9.6164 7.7384 -2.4953 0.1981 0 8
-9.7399 7.5824 -2.4953 0.1981 0 8
-9.8609 7.4244 -2.4953 0.1981 0 8
-9.9793 7.2645 -2.4953 0.1981 0 8
-10.0951 7.1027 -2.4953 0.1981 0 8
-10.2083 6.9391 -2.4953 0.1981 0 8
-10.3188 6.7736 -2.4953 0.1981 0 8
-10.4266 6.6064 -2.4953 0.1981 0 8
-10.5318 6.4375 -2.4953 0.1981 0 8
-10.6342 6.2669 -2.4953 0.1981 0 8
-10.7338 6.0947 -2.4953 0.1981 0 8
-10.8306 5.9209 -2.4953 0.1981 0 8
-10.9247 5.7455 -2.4953 0.1981 0 8
-11.0159 5.5687 -2.4953 0.1981 0 8
-11.1042 5.3904 -2.4953 0.1981 0 8
-11.1896 5.2107 -2.4953 0.1981 0 8
