ply
format ascii 1.0
element vertex 1370
property float32 x
property float32 y
property float32 z
property float32 CosAngle
property uint32 ObjIdx
property uint32 ObjTag
end_header
-16.5728 23.6519 -2.6477 0.0913 0 7
-16.0240 22.1038 -2.5029 0.0913 0 14
-16.3772 21.8434 -2.5029 0.0913 0 14
-16.7262 21.5773 -2.5029 0.0913 0 14
-17.0709 21.3057 -2.5029 0.0913 0 14
-17.4112 21.0285 -2.5029 0.0913 0 14
-17.7469 20.7459 -2.5029 0.0913 0 14
-18.0781 20.4579 -2.5029 0.0913 0 14
-18.4046 20.1647 -2.5029 0.0913 0 14
-18.7264 19.8662 -2.5029 0.0913 0 14
-19.0433 19.5627 -2.5029 0.0913 0 14
-19.3553 19.2540 -2.5029 0.0913 0 14
-19.6623 18.9404 -2.5029 0.0913 0 8
-20.2599 18.8977 -2.5400 0.6865 0 8
-20.9134 18.8878 -2.5835 0.6749 0 8
19.6248 17.7475 -2.6477 0.0996 0 7
19.3370 18.0606 -2.6477 0.0996 0 7
19.0442 18.3691 -2.6477 0.0996 0 7
18.7464 18.6729 -2.6477 0.0996 0 7
18.4439 18.9718 -2.6477 0.0996 0 7
17.8775 18.9907 -2.6099 0.7287 0 8
17.3152 18.9961 -2.5720 0.7394 0 8
16.7687 19.0013 -2.5359 0.7499 0 8
16.2469 19.0177 -2.5029 0.0996 0 8
15.9391 19.2764 -2.5029 0.0996 0 14
15.6271 19.5301 -2.5029 0.0996 0 14
15.3112 19.7788 -2.5029 0.0996 0 14
14.9913 20.0224 -2.5029 0.0996 0 14
14.6675 20.2607 -2.5029 0.0996 0 14
14.3399 20.4939 -2.5029 0.0996 0 14
14.0086 20.7218 -2.5029 0.0996 0 14
13.6737 20.9443 -2.5029 0.0996 0 14
13.3353 21.1614 -2.5029 0.0996 0 14
12.9934 21.3730 -2.5029 0.0996 0 14
12.6481 21.5791 -2.5029 0.0996 0 14
12.2996 21.7796 -2.5029 0.0996 0 14
11.9479 21.9745 -2.5029 0.0996 0 14
11.5932 22.1637 -2.5029 0.0996 0 14
11.2354 22.3472 -2.5029 0.0996 0 8
11.5037 23.8279 -2.6477 0.0996 0 7
11.1192 24.0098 -2.6477 0.0996 0 7
10.7319 24.1854 -2.6477 0.0996 0 7
10.3417 24.3548 -2.6477 0.0996 0 7
9.9488 24.5178 -2.6477 0.0996 0 7
9.5535 24.6746 -2.6477 0.0996 0 7
9.1556 24.8250 -2.6477 0.0996 0 7
8.7554 24.9690 -2.6477 0.0996 0 7
8.3529 25.1064 -2.6477 0.0996 0 7
7.9482 25.2375 -2.6477 0.0996 0 7
7.5415 25.3620 -2.6477 0.0996 0 7
7.1328 25.4800 -2.6477 0.0996 0 7
6.7223 25.5913 -2.6477 0.0996 0 7
6.3101 25.6961 -2.6477 0.0996 0 7
5.8962 25.7942 -2.6477 0.0996 0 7
5.4808 25.8856 -2.6477 0.0996 0 7
5.0640 25.9704 -2.6477 0.0996 0 7
4.6459 26.0484 -2.6477 0.0996 0 7
4.2266 26.1198 -2.6477 0.0996 0 7
3.8062 26.1843 -2.6477 0.0996 0 7
3.3848 26.2421 -2.6477 0.0996 0 7
2.9625 26.2931 -2.6477 0.0996 0 7
2.5395 26.3374 -2.6477 0.0996 0 7
2.1158 26.3748 -2.6477 0.0996 0 7
1.6915 26.4054 -2.6477 0.0996 0 7
1.2668 26.4292 -2.6477 0.0996 0 7
0.8418 26.4461 -2.6477 0.0996 0 7
0.4166 26.4562 -2.6477 0.0996 0 7
-0.0087 26.4595 -2.6477 0.0996 0 6
-0.4341 26.4560 -2.6477 0.0996 0 6
-0.8593 26.4456 -2.6477 0.0996 0 6
-1.2843 26.4283 -2.6477 0.0996 0 6
-1.7089 26.4043 -2.6477 0.0996 0 6
-2.1331 26.3734 -2.6477 0.0996 0 7
-2.5568 26.3357 -2.6477 0.0996 0 7
-2.9798 26.2912 -2.6477 0.0996 0 7
-3.4020 26.2399 -2.6477 0.0996 0 7
-3.8234 26.1818 -2.6477 0.0996 0 7
-4.2438 26.1170 -2.6477 0.0996 0 7
-4.6631 26.0453 -2.6477 0.0996 0 7
-5.0811 25.9671 -2.6477 0.0996 0 7
-5.4979 25.8820 -2.6477 0.0996 0 7
-5.9132 25.7903 -2.6477 0.0996 0 7
-6.3270 25.6919 -2.6477 0.0996 0 7
-6.7392 25.5869 -2.6477 0.0996 0 7
-7.1496 25.4753 -2.6477 0.0996 0 7
-7.5582 25.3570 -2.6477 0.0996 0 7
-7.9648 25.2323 -2.6477 0.0996 0 7
-8.3694 25.1010 -2.6477 0.0996 0 7
-8.7718 24.9632 -2.6477 0.0996 0 7
-9.1719 24.8190 -2.6477 0.0996 0 7
-9.5697 24.6683 -2.6477 0.0996 0 7
-9.9650 24.5113 -2.6477 0.0996 0 7
-10.3577 24.3480 -2.6477 0.0996 0 7
-10.7478 24.1783 -2.6477 0.0996 0 7
-11.1351 24.0024 -2.6477 0.0996 0 7
-11.5194 23.8203 -2.6477 0.0996 0 7
-11.2501 22.3398 -2.5029 0.0996 0 8
-11.6077 22.1561 -2.5029 0.0996 0 14
-11.9624 21.9667 -2.5029 0.0996 0 14
-12.3140 21.7715 -2.5029 0.0996 0 14
-12.6624 21.5708 -2.5029 0.0996 0 14
-13.0075 21.3644 -2.5029 0.0996 0 14
-13.3492 21.1526 -2.5029 0.0996 0 14
-13.6875 20.9353 -2.5029 0.0996 0 14
-14.0223 20.7125 -2.5029 0.0996 0 14
-14.3534 20.4845 -2.5029 0.0996 0 14
-14.6808 20.2511 -2.5029 0.0996 0 14
-15.0044 20.0125 -2.5029 0.0996 0 14
-15.3242 19.7687 -2.5029 0.0996 0 14
-15.6400 19.5198 -2.5029 0.0996 0 14
-15.9518 19.2659 -2.5029 0.0996 0 14
-16.2594 19.0070 -2.5029 0.0996 0 8
-16.7105 18.9102 -2.5252 0.7531 0 8
-17.2523 18.9021 -2.5608 0.7426 0 8
-17.8097 18.8937 -2.5981 0.7319 0 8
-18.3835 18.8849 -2.6372 0.7211 0 8
-18.7587 18.6605 -2.6477 0.0996 0 7
-19.0563 18.3566 -2.6477 0.0996 0 6
-19.3489 18.0479 -2.6477 0.0996 0 7
-19.6365 17.7345 -2.6477 0.0996 0 7
18.1047 16.3728 -2.6477 0.1078 0 7
17.8392 16.6617 -2.6477 0.1078 0 7
17.5691 16.9463 -2.6477 0.1078 0 7
17.2944 17.2265 -2.6477 0.1078 0 7
17.0152 17.5023 -2.6477 0.1078 0 7
16.7317 17.7735 -2.6477 0.1078 0 7
16.4438 18.0402 -2.6477 0.1078 0 7
16.1517 18.3022 -2.6477 0.1078 0 7
15.8554 18.5595 -2.6477 0.1078 0 7
15.5550 18.8119 -2.6477 0.1078 0 7
15.1856 18.9783 -2.6364 0.7812 0 8
14.6951 18.9829 -2.6039 0.7910 0 8
14.2163 18.9874 -2.5728 0.8005 0 8
13.7487 18.9916 -2.5431 0.8099 0 8
13.2915 18.9956 -2.5147 0.8190 0 8
12.9235 19.1167 -2.5029 0.1078 0 8
12.6146 19.3220 -2.5029 0.1078 0 14
12.3023 19.5222 -2.5029 0.1078 0 14
11.9869 19.7175 -2.5029 0.1078 0 14
11.6684 19.9076 -2.5029 0.1078 0 14
11.3469 20.0926 -2.5029 0.1078 0 14
11.0225 20.2724 -2.5029 0.1078 0 14
10.6952 20.4470 -2.5029 0.1078 0 14
10.3651 20.6163 -2.5029 0.1078 0 14
10.0324 20.7802 -2.5029 0.1078 0 14
9.6970 20.9388 -2.5029 0.1078 0 14
9.3592 21.0920 -2.5029 0.1078 0 14
9.0189 21.2397 -2.5029 0.1078 0 14
8.6764 21.3819 -2.5029 0.1078 0 14
8.3315 21.5186 -2.5029 0.1078 0 14
7.9846 21.6498 -2.5029 0.1078 0 14
7.6355 21.7753 -2.5029 0.1078 0 14
7.2845 21.8952 -2.5029 0.1078 0 14
6.9316 22.0095 -2.5029 0.1078 0 14
6.5769 22.1181 -2.5029 0.1078 0 14
6.2205 22.2209 -2.5029 0.1078 0 14
5.8625 22.3181 -2.5029 0.1078 0 8
5.5030 22.4094 -2.5029 0.1078 0 8
5.4395 23.7962 -2.6477 0.1078 0 7
5.0563 23.8806 -2.6477 0.1078 0 7
4.6718 23.9588 -2.6477 0.1078 0 7
4.2860 24.0308 -2.6477 0.1078 0 7
3.8992 24.0966 -2.6477 0.1078 0 7
3.5113 24.1561 -2.6477 0.1078 0 7
3.1226 24.2094 -2.6477 0.1078 0 7
2.7330 24.2565 -2.6477 0.1078 0 7
2.3428 24.2973 -2.6477 0.1078 0 7
1.9519 24.3318 -2.6477 0.1078 0 7
1.5605 24.3601 -2.6477 0.1078 0 7
1.1687 24.3820 -2.6477 0.1078 0 7
0.7766 24.3976 -2.6477 0.1078 0 7
0.3843 24.4070 -2.6477 0.1078 0 7
-0.0080 24.4100 -2.6477 0.1078 0 7
-0.4004 24.4067 -2.6477 0.1078 0 7
-0.7927 24.3971 -2.6477 0.1078 0 7
-1.1848 24.3812 -2.6477 0.1078 0 7
-1.5765 24.3590 -2.6477 0.1078 0 7
-1.9679 24.3305 -2.6477 0.1078 0 7
-2.3587 24.2958 -2.6477 0.1078 0 7
-2.7490 24.2547 -2.6477 0.1078 0 7
-3.1385 24.2074 -2.6477 0.1078 0 7
-3.5273 24.1538 -2.6477 0.1078 0 7
-3.9150 24.0940 -2.6477 0.1078 0 7
-4.3019 24.0279 -2.6477 0.1078 0 7
-4.6875 23.9557 -2.6477 0.1078 0 7
-5.0720 23.8772 -2.6477 0.1078 0 7
-5.4552 23.7926 -2.6477 0.1078 0 7
-5.8369 23.7019 -2.6477 0.1078 0 7
-5.8772 22.3142 -2.5029 0.1078 0 8
-6.2352 22.2168 -2.5029 0.1078 0 14
-6.5915 22.1137 -2.5029 0.1078 0 14
-6.9461 22.0049 -2.5029 0.1078 0 14
-7.2989 21.8904 -2.5029 0.1078 0 14
-7.6499 21.7703 -2.5029 0.1078 0 14
-7.9988 21.6445 -2.5029 0.1078 0 14
-8.3457 21.5131 -2.5029 0.1078 0 14
-8.6904 21.3762 -2.5029 0.1078 0 14
-9.0329 21.2337 -2.5029 0.1078 0 14
-9.3731 21.0858 -2.5029 0.1078 0 14
-9.7108 20.9324 -2.5029 0.1078 0 14
-10.0460 20.7736 -2.5029 0.1078 0 14
-10.3787 20.6094 -2.5029 0.1078 0 14
-10.7086 20.4399 -2.5029 0.1078 0 14
-11.0358 20.2651 -2.5029 0.1078 0 14
-11.3601 20.0851 -2.5029 0.1078 0 14
-11.6816 19.8999 -2.5029 0.1078 0 14
-11.9999 19.7096 -2.5029 0.1078 0 14
-12.3152 19.5141 -2.5029 0.1078 0 14
-12.6273 19.3136 -2.5029 0.1078 0 14
-12.9361 19.1082 -2.5029 0.1078 0 14
-13.2616 18.9264 -2.5067 0.6530 0 8
-13.7136 18.9169 -2.5343 0.8127 0 8
-14.1780 18.9102 -2.5636 0.8034 0 8
-14.6533 18.9032 -2.5943 0.7939 0 8
-15.1401 18.8959 -2.6263 0.7842 0 8
-15.5674 18.8017 -2.6477 0.1078 0 7
-15.8676 18.5490 -2.6477 0.1078 0 7
-16.1638 18.2916 -2.6477 0.1078 0 7
-16.4557 18.0294 -2.6477 0.1078 0 7
-16.7434 17.7625 -2.6477 0.1078 0 7
-17.0267 17.4911 -2.6477 0.1078 0 7
-17.3057 17.2151 -2.6477 0.1078 0 7
-17.5802 16.9347 -2.6477 0.1078 0 7
-17.8501 16.6499 -2.6477 0.1078 0 7
-18.1155 16.3608 -2.6477 0.1078 0 7
16.8010 15.1938 -2.6477 0.1161 0 7
16.5546 15.4619 -2.6477 0.1161 0 7
16.3039 15.7260 -2.6477 0.1161 0 7
16.0490 15.9861 -2.6477 0.1161 0 7
15.7900 16.2420 -2.6477 0.1161 0 7
15.5269 16.4937 -2.6477 0.1161 0 7
15.2597 16.7411 -2.6477 0.1161 0 7
14.9886 16.9843 -2.6477 0.1161 0 7
14.7137 17.2230 -2.6477 0.1161 0 7
14.4349 17.4573 -2.6477 0.1161 0 7
14.1524 17.6871 -2.6477 0.1161 0 7
13.8663 17.9123 -2.6477 0.1161 0 7
13.5766 18.1329 -2.6477 0.1161 0 7
13.2833 18.3488 -2.6477 0.1161 0 7
12.9867 18.5599 -2.6477 0.1161 0 7
12.6867 18.7663 -2.6477 0.1161 0 7
12.3834 18.9678 -2.6477 0.1161 0 7
11.9557 18.9721 -2.6211 0.8459 0 8
11.5360 18.9757 -2.5956 0.8542 0 8
11.1242 18.9791 -2.5713 0.8623 0 8
10.7199 18.9822 -2.5481 0.8702 0 8
10.3226 18.9852 -2.5259 0.8778 0 8
9.9343 18.9923 -2.5052 0.7035 0 8
9.6252 19.1445 -2.5046 0.7087 0 8
9.3099 19.2839 -2.5029 0.1161 0 14
8.9988 19.4310 -2.5029 0.1161 0 14
8.6853 19.5732 -2.5029 0.1161 0 14
8.3695 19.7102 -2.5029 0.1161 0 14
8.0516 19.8422 -2.5029 0.1161 0 14
7.7316 19.9691 -2.5029 0.1161 0 14
7.4096 20.0908 -2.5029 0.1161 0 14
7.0857 20.2073 -2.5029 0.1161 0 14
6.7599 20.3186 -2.5029 0.1161 0 14
6.4325 20.4246 -2.5029 0.1161 0 14
6.1033 20.5254 -2.5029 0.1161 0 14
5.7726 20.6209 -2.5029 0.1161 0 14
5.4404 20.7110 -2.5029 0.1161 0 14
5.1067 20.7958 -2.5029 0.1161 0 14
4.7718 20.8752 -2.5029 0.1161 0 14
4.4356 20.9492 -2.5029 0.1161 0 14
4.0983 21.0178 -2.5029 0.1161 0 14
3.7599 21.0809 -2.5029 0.1161 0 14
3.4206 21.1386 -2.5029 0.1161 0 14
3.0803 21.1909 -2.5029 0.1161 0 14
2.7393 21.2377 -2.5029 0.1161 0 14
2.3975 21.2790 -2.5029 0.1161 0 14
2.0552 21.3147 -2.5029 0.1161 0 14
1.7123 21.3450 -2.5029 0.1161 0 14
1.3689 21.3698 -2.5029 0.1161 0 14
1.0252 21.3890 -2.5029 0.1161 0 14
0.6813 21.4028 -2.5029 0.1161 0 14
0.3372 21.4109 -2.5029 0.1161 0 14
-0.0070 21.4136 -2.5029 0.1161 0 14
-0.3513 21.4107 -2.5029 0.1161 0 14
-0.6954 21.4023 -2.5029 0.1161 0 14
-1.0393 21.3884 -2.5029 0.1161 0 14
-1.3830 21.3689 -2.5029 0.1161 0 14
-1.7263 21.3439 -2.5029 0.1161 0 14
-2.0692 21.3134 -2.5029 0.1161 0 14
-2.4115 21.2774 -2.5029 0.1161 0 14
-2.7533 21.2359 -2.5029 0.1161 0 14
-3.0943 21.1889 -2.5029 0.1161 0 14
-3.4345 21.1364 -2.5029 0.1161 0 14
-3.7738 21.0784 -2.5029 0.1161 0 14
-4.1121 21.0151 -2.5029 0.1161 0 14
-4.4494 20.9462 -2.5029 0.1161 0 14
-4.7855 20.8720 -2.5029 0.1161 0 14
-5.1204 20.7924 -2.5029 0.1161 0 14
-5.4540 20.7074 -2.5029 0.1161 0 14
-5.7862 20.6170 -2.5029 0.1161 0 14
-6.1168 20.5214 -2.5029 0.1161 0 14
-6.4459 20.4204 -2.5029 0.1161 0 14
-6.7733 20.3141 -2.5029 0.1161 0 14
-7.0990 20.2026 -2.5029 0.1161 0 14
-7.4228 20.0859 -2.5029 0.1161 0 14
-7.7447 19.9640 -2.5029 0.1161 0 14
-8.0646 19.8369 -2.5029 0.1161 0 14
-8.3825 19.7047 -2.5029 0.1161 0 14
-8.6981 19.5674 -2.5029 0.1161 0 14
-9.0116 19.4251 -2.5029 0.1161 0 14
-9.3226 19.2777 -2.5029 0.1161 0 14
-9.6313 19.1254 -2.5029 0.1161 0 14
-9.9375 18.9681 -2.5029 0.1161 0 8
-10.3083 18.9291 -2.5193 0.8801 0 8
-10.7034 18.9240 -2.5412 0.8726 0 8
-11.1055 18.9186 -2.5641 0.8648 0 8
-11.5150 18.9130 -2.5881 0.8567 0 8
-11.9322 18.9072 -2.6132 0.8485 0 8
-12.3576 18.9012 -2.6395 0.8401 0 8
-12.6990 18.7579 -2.6477 0.1161 0 7
-12.9989 18.5514 -2.6477 0.1161 0 7
-13.2954 18.3400 -2.6477 0.1161 0 6
-13.5885 18.1240 -2.6477 0.1161 0 7
-13.8781 17.9032 -2.6477 0.1161 0 7
-14.1641 17.6778 -2.6477 0.1161 0 7
-14.4464 17.4478 -2.6477 0.1161 0 7
-14.7250 17.2133 -2.6477 0.1161 0 7
-14.9998 16.9744 -2.6477 0.1161 0 7
-15.2707 16.7311 -2.6477 0.1161 0 7
-15.5377 16.4835 -2.6477 0.1161 0 7
-15.8007 16.2316 -2.6477 0.1161 0 7
-16.0596 15.9755 -2.6477 0.1161 0 7
-16.3143 15.7153 -2.6477 0.1161 0 7
-16.5648 15.4510 -2.6477 0.1161 0 7
-16.8110 15.1827 -2.6477 0.1161 0 7
15.6704 14.1713 -2.6477 0.1243 0 7
15.4406 14.4214 -2.6477 0.1243 0 7
15.2068 14.6677 -2.6477 0.1243 0 7
14.9690 14.9103 -2.6477 0.1243 0 7
14.7274 15.1490 -2.6477 0.1243 0 7
14.4820 15.3838 -2.6477 0.1243 0 7
14.2328 15.6146 -2.6477 0.1243 0 7
13.9800 15.8413 -2.6477 0.1243 0 7
13.7236 16.0640 -2.6477 0.1243 0 7
13.4636 16.2826 -2.6477 0.1243 0 7
13.2001 16.4969 -2.6477 0.1243 0 7
12.9332 16.7069 -2.6477 0.1243 0 7
12.6630 16.9127 -2.6477 0.1243 0 7
12.3895 17.1140 -2.6477 0.1243 0 7
12.1128 17.3110 -2.6477 0.1243 0 7
11.8329 17.5034 -2.6477 0.1243 0 7
11.5500 17.6914 -2.6477 0.1243 0 7
11.2642 17.8748 -2.6477 0.1243 0 7
10.9754 18.0535 -2.6477 0.1243 0 7
10.6837 18.2276 -2.6477 0.1243 0 7
10.3894 18.3970 -2.6477 0.1243 0 7
10.0923 18.5616 -2.6477 0.1243 0 7
9.7926 18.7215 -2.6477 0.1243 0 7
9.4904 18.8765 -2.6477 0.1243 0 7
9.1541 18.9611 -2.6386 0.9001 0 8
8.7824 18.9637 -2.6189 0.9068 0 8
8.4159 18.9662 -2.6003 0.9133 0 8
8.0545 18.9685 -2.5825 0.9196 0 8
7.6979 18.9706 -2.5656 0.9257 0 8
7.3458 18.9726 -2.5496 0.9315 0 8
6.9979 18.9744 -2.5344 0.9371 0 8
6.6540 18.9761 -2.5200 0.9424 0 8
6.3148 18.9807 -2.5068 0.7531 0 8
5.9996 19.0502 -2.5029 0.1243 0 8
5.6926 19.1442 -2.5029 0.1243 0 14
5.3841 19.2332 -2.5029 0.1243 0 14
5.0743 19.3173 -2.5029 0.1243 0 14
4.7631 19.3963 -2.5029 0.1243 0 14
4.4507 19.4704 -2.5029 0.1243 0 14
4.1371 19.5394 -2.5029 0.1243 0 14
3.8225 19.6034 -2.5029 0.1243 0 14
3.5069 19.6623 -2.5029 0.1243 0 14
3.1904 19.7161 -2.5029 0.1243 0 14
2.8730 19.7649 -2.5029 0.1243 0 14
2.5550 19.8085 -2.5029 0.1243 0 14
2.2362 19.8470 -2.5029 0.1243 0 14
1.9169 19.8804 -2.5029 0.1243 0 14
1.5970 19.9086 -2.5029 0.1243 0 14
1.2768 19.9317 -2.5029 0.1243 0 14
0.9563 19.9497 -2.5029 0.1243 0 14
0.6355 19.9625 -2.5029 0.1243 0 14
0.3145 19.9701 -2.5029 0.1243 0 14
-0.0066 19.9726 -2.5029 0.1243 0 14
-0.3276 19.9699 -2.5029 0.1243 0 14
-0.6486 19.9621 -2.5029 0.1243 0 14
-0.9694 19.9491 -2.5029 0.1243 0 14
-1.2899 19.9309 -2.5029 0.1243 0 14
-1.6102 19.9076 -2.5029 0.1243 0 14
-1.9300 19.8791 -2.5029 0.1243 0 14
-2.2493 19.8455 -2.5029 0.1243 0 14
-2.5680 19.8068 -2.5029 0.1243 0 14
-2.8860 19.7630 -2.5029 0.1243 0 14
-3.2033 19.7140 -2.5029 0.1243 0 14
-3.5198 19.6600 -2.5029 0.1243 0 14
-3.8354 19.6009 -2.5029 0.1243 0 14
-4.1500 19.5367 -2.5029 0.1243 0 14
-4.4635 19.4675 -2.5029 0.1243 0 14
-4.7759 19.3932 -2.5029 0.1243 0 14
-5.0870 19.3139 -2.5029 0.1243 0 14
-5.3968 19.2296 -2.5029 0.1243 0 14
-5.7052 19.1404 -2.5029 0.1243 0 14
-6.0121 19.0462 -2.5029 0.1243 0 8
-6.3182 18.9492 -2.5032 0.7541 0 8
-6.6553 18.9399 -2.5157 0.9440 0 8
-6.9980 18.9364 -2.5299 0.9387 0 8
-7.3446 18.9326 -2.5448 0.9332 0 8
-7.6954 18.9287 -2.5606 0.9275 0 8
-8.0506 18.9247 -2.5772 0.9215 0 8
-8.4105 18.9204 -2.5947 0.9153 0 8
-8.7754 18.9160 -2.6131 0.9088 0 8
-9.1455 18.9114 -2.6325 0.9022 0 8
-9.5028 18.8702 -2.6477 0.1243 0 7
-9.8049 18.7150 -2.6477 0.1243 0 7
-10.1045 18.5550 -2.6477 0.1243 0 7
-10.4015 18.3902 -2.6477 0.1243 0 6
-10.6958 18.2206 -2.6477 0.1243 0 7
-10.9873 18.0463 -2.6477 0.1243 0 7
-11.2759 17.8673 -2.6477 0.1243 0 7
-11.5617 17.6838 -2.6477 0.1243 0 7
-11.8445 17.4956 -2.6477 0.1243 0 7
-12.1242 17.3030 -2.6477 0.1243 0 7
-12.4007 17.1059 -2.6477 0.1243 0 7
-12.6741 16.9043 -2.6477 0.1243 0 7
-12.9442 16.6984 -2.6477 0.1243 0 7
-13.2109 16.4882 -2.6477 0.1243 0 7
-13.4743 16.2737 -2.6477 0.1243 0 7
-13.7341 16.0550 -2.6477 0.1243 0 7
-13.9904 15.8321 -2.6477 0.1243 0 7
-14.2431 15.6052 -2.6477 0.1243 0 7
-14.4921 15.3742 -2.6477 0.1243 0 7
-14.7374 15.1393 -2.6477 0.1243 0 7
-14.9789 14.9004 -2.6477 0.1243 0 6
-15.2164 14.6577 -2.6477 0.1243 0 7
-15.4501 14.4112 -2.6477 0.1243 0 7
-15.6797 14.1610 -2.6477 0.1243 0 7
14.6804 13.2761 -2.6477 0.1326 0 7
14.4651 13.5103 -2.6477 0.1326 0 7
14.2461 13.7411 -2.6477 0.1326 0 7
14.0234 13.9683 -2.6477 0.1326 0 7
13.7970 14.1920 -2.6477 0.1326 0 7
13.5671 14.4119 -2.6477 0.1326 0 7
13.3337 14.6281 -2.6477 0.1326 0 7
13.0968 14.8406 -2.6477 0.1326 0 7
12.8566 15.0492 -2.6477 0.1326 0 7
12.6130 15.2539 -2.6477 0.1326 0 7
12.3662 15.4547 -2.6477 0.1326 0 7
12.1161 15.6515 -2.6477 0.1326 0 7
11.8630 15.8442 -2.6477 0.1326 0 7
11.6068 16.0329 -2.6477 0.1326 0 7
11.3476 16.2174 -2.6477 0.1326 0 7
11.0854 16.3977 -2.6477 0.1326 0 7
10.8204 16.5738 -2.6477 0.1326 0 7
10.5526 16.7455 -2.6477 0.1326 0 7
10.2820 16.9130 -2.6477 0.1326 0 7
10.0088 17.0761 -2.6477 0.1326 0 7
9.7330 17.2348 -2.6477 0.1326 0 7
9.4547 17.3890 -2.6477 0.1326 0 7
9.1740 17.5388 -2.6477 0.1326 0 7
8.8909 17.6840 -2.6477 0.1326 0 7
8.6054 17.8246 -2.6477 0.1326 0 7
8.3178 17.9606 -2.6477 0.1326 0 7
8.0280 18.0920 -2.6477 0.1326 0 7
7.7362 18.2187 -2.6477 0.1326 0 7
7.4423 18.3407 -2.6477 0.1326 0 7
7.1466 18.4580 -2.6477 0.1326 0 6
6.8489 18.5705 -2.6477 0.1326 0 7
6.5495 18.6782 -2.6477 0.1326 0 7
6.2484 18.7810 -2.6477 0.1326 0 7
5.9457 18.8790 -2.6477 0.1326 0 7
5.6349 18.9502 -2.6446 0.9575 0 8
5.3053 18.9515 -2.6325 0.9619 0 8
4.9785 18.9527 -2.6213 0.9661 0 8
4.6544 18.9538 -2.6107 0.9700 0 8
4.3328 18.9547 -2.6009 0.9736 0 8
4.0135 18.9555 -2.5918 0.9770 0 8
3.6963 18.9562 -2.5835 0.9802 0 8
3.3810 18.9567 -2.5758 0.9831 0 8
3.0676 18.9571 -2.5688 0.9858 0 8
2.7557 18.9574 -2.5625 0.9882 0 8
2.4452 18.9576 -2.5569 0.9904 0 8
2.1360 18.9577 -2.5520 0.9923 0 8
1.8279 18.9576 -2.5477 0.9940 0 8
1.5207 18.9574 -2.5440 0.9954 0 8
1.2144 18.9571 -2.5410 0.9966 0 8
0.9087 18.9567 -2.5387 0.9975 0 8
0.6034 18.9562 -2.5370 0.9982 0 8
0.2985 18.9555 -2.5359 0.9986 0 8
-0.0062 18.9566 -2.5358 0.9970 0 8
-0.3110 18.9558 -2.5360 0.9987 0 8
-0.6158 18.9541 -2.5368 0.9984 0 8
-0.9210 18.9522 -2.5382 0.9978 0 8
-1.2265 18.9505 -2.5403 0.9969 0 8
-1.5326 18.9491 -2.5430 0.9958 0 8
-1.8395 18.9476 -2.5465 0.9944 0 8
-2.1473 18.9460 -2.5506 0.9928 0 8
-2.4561 18.9443 -2.5553 0.9910 0 8
-2.7662 18.9424 -2.5607 0.9889 0 8
-3.0776 18.9404 -2.5668 0.9866 0 8
-3.3906 18.9383 -2.5736 0.9840 0 8
-3.7053 18.9360 -2.5810 0.9811 0 8
-4.0219 18.9337 -2.5892 0.9780 0 8
-4.3405 18.9311 -2.5981 0.9747 0 8
-4.6614 18.9285 -2.6076 0.9711 0 8
-4.9847 18.9256 -2.6180 0.9673 0 8
-5.3107 18.9227 -2.6290 0.9632 0 8
-5.6394 18.9196 -2.6408 0.9589 0 8
-5.9581 18.8751 -2.6477 0.1326 0 7
-6.2608 18.7769 -2.6477 0.1326 0 7
-6.5618 18.6738 -2.6477 0.1326 0 7
-6.8611 18.5660 -2.6477 0.1326 0 7
-7.1585 18.4533 -2.6477 0.1326 0 6
-7.4544 18.3358 -2.6477 0.1326 0 7
-7.7482 18.2136 -2.6477 0.1326 0 7
-8.0399 18.0867 -2.6477 0.1326 0 7
-8.3296 17.9551 -2.6477 0.1326 0 7
-8.6172 17.8189 -2.6477 0.1326 0 7
-8.9025 17.6781 -2.6477 0.1326 0 7
-9.1855 17.5327 -2.6477 0.1326 0 7
-9.4662 17.3828 -2.6477 0.1326 0 7
-9.7444 17.2284 -2.6477 0.1326 0 7
-10.0201 17.0695 -2.6477 0.1326 0 7
-10.2932 16.9062 -2.6477 0.1326 0 7
-10.5636 16.7386 -2.6477 0.1326 0 7
-10.8313 16.5666 -2.6477 0.1326 0 7
-11.0962 16.3904 -2.6477 0.1326 0 7
-11.3582 16.2099 -2.6477 0.1326 0 7
-11.6173 16.0252 -2.6477 0.1326 0 7
-11.8734 15.8364 -2.6477 0.1326 0 7
-12.1265 15.6435 -2.6477 0.1326 0 7
-12.3763 15.4465 -2.6477 0.1326 0 7
-12.6230 15.2456 -2.6477 0.1326 0 7
-12.8665 15.0407 -2.6477 0.1326 0 7
-13.1066 14.8320 -2.6477 0.1326 0 7
-13.3433 14.6194 -2.6477 0.1326 0 7
-13.5766 14.4030 -2.6477 0.1326 0 7
-13.8064 14.1829 -2.6477 0.1326 0 7
-14.0326 13.9591 -2.6477 0.1326 0 7
-14.2551 13.7317 -2.6477 0.1326 0 7
-14.4740 13.5008 -2.6477 0.1326 0 7
-14.6892 13.2664 -2.6477 0.1326 0 7
13.8063 12.4856 -2.6477 0.1408 0 7
13.6038 12.7059 -2.6477 0.1408 0 7
13.3978 12.9229 -2.6477 0.1408 0 7
13.1883 13.1366 -2.6477 0.1408 0 7
12.9755 13.3469 -2.6477 0.1408 0 7
12.7593 13.5538 -2.6477 0.1408 0 7
12.5397 13.7571 -2.6477 0.1408 0 7
12.3170 13.9569 -2.6477 0.1408 0 7
12.0910 14.1531 -2.6477 0.1408 0 7
11.8620 14.3456 -2.6477 0.1408 0 7
11.6298 14.5344 -2.6477 0.1408 0 7
11.3947 14.7195 -2.6477 0.1408 0 7
11.1566 14.9008 -2.6477 0.1408 0 7
10.9156 15.0782 -2.6477 0.1408 0 7
10.6718 15.2517 -2.6477 0.1408 0 7
10.4253 15.4213 -2.6477 0.1408 0 7
10.1761 15.5869 -2.6477 0.1408 0 7
9.9242 15.7484 -2.6477 0.1408 0 7
9.6698 15.9059 -2.6477 0.1408 0 7
9.4128 16.0593 -2.6477 0.1408 0 7
9.1535 16.2085 -2.6477 0.1408 0 7
8.8917 16.3536 -2.6477 0.1408 0 7
8.6277 16.4944 -2.6477 0.1408 0 7
8.3614 16.6310 -2.6477 0.1408 0 7
8.0930 16.7632 -2.6477 0.1408 0 7
7.8225 16.8911 -2.6477 0.1408 0 7
7.5500 17.0147 -2.6477 0.1408 0 7
7.2755 17.1339 -2.6477 0.1408 0 7
6.9991 17.2486 -2.6477 0.1408 0 7
6.7210 17.3589 -2.6477 0.1408 0 7
6.4411 17.4647 -2.6477 0.1408 0 7
6.1595 17.5660 -2.6477 0.1408 0 7
5.8763 17.6627 -2.6477 0.1408 0 7
5.5917 17.7549 -2.6477 0.1408 0 7
5.3055 17.8425 -2.6477 0.1408 0 7
5.0180 17.9255 -2.6477 0.1408 0 7
4.7292 18.0038 -2.6477 0.1408 0 7
4.4392 18.0775 -2.6477 0.1408 0 7
4.1481 18.1465 -2.6477 0.1408 0 7
3.8558 18.2109 -2.6477 0.1408 0 7
3.5626 18.2705 -2.6477 0.1408 0 7
3.2684 18.3254 -2.6477 0.1408 0 7
2.9734 18.3756 -2.6477 0.1408 0 7
2.6777 18.4210 -2.6477 0.1408 0 6
2.3812 18.4616 -2.6477 0.1408 0 6
2.0841 18.4975 -2.6477 0.1408 0 6
1.7865 18.5287 -2.6477 0.1408 0 7
1.4885 18.5550 -2.6477 0.1408 0 7
1.1900 18.5765 -2.6477 0.1408 0 7
0.8912 18.5932 -2.6477 0.1408 0 7
0.5922 18.6052 -2.6477 0.1408 0 7
0.2931 18.6123 -2.6477 0.1408 0 7
-0.0061 18.6146 -2.6477 0.1408 0 7
-0.3053 18.6121 -2.6477 0.1408 0 7
-0.6045 18.6048 -2.6477 0.1408 0 7
-0.9035 18.5926 -2.6477 0.1408 0 7
-1.2022 18.5757 -2.6477 0.1408 0 7
-1.5007 18.5540 -2.6477 0.1408 0 7
-1.7987 18.5275 -2.6477 0.1408 0 7
-2.0963 18.4962 -2.6477 0.1408 0 7
-2.3934 18.4601 -2.6477 0.1408 0 6
-2.6898 18.4192 -2.6477 0.1408 0 6
-2.9856 18.3736 -2.6477 0.1408 0 6
-3.2805 18.3232 -2.6477 0.1408 0 7
-3.5746 18.2681 -2.6477 0.1408 0 7
-3.8678 18.2083 -2.6477 0.1408 0 7
-4.1600 18.1438 -2.6477 0.1408 0 7
-4.4511 18.0746 -2.6477 0.1408 0 7
-4.7411 18.0007 -2.6477 0.1408 0 7
-5.0298 17.9221 -2.6477 0.1408 0 7
-5.3173 17.8390 -2.6477 0.1408 0 7
-5.6034 17.7512 -2.6477 0.1408 0 7
-5.8880 17.6588 -2.6477 0.1408 0 7
-6.1711 17.5619 -2.6477 0.1408 0 7
-6.4526 17.4604 -2.6477 0.1408 0 7
-6.7324 17.3545 -2.6477 0.1408 0 7
-7.0105 17.2440 -2.6477 0.1408 0 7
-7.2868 17.1291 -2.6477 0.1408 0 7
-7.5612 17.0097 -2.6477 0.1408 0 7
-7.8336 16.8860 -2.6477 0.1408 0 7
-8.1041 16.7579 -2.6477 0.1408 0 7
-8.3724 16.6255 -2.6477 0.1408 0 7
-8.6386 16.4887 -2.6477 0.1408 0 7
-8.9025 16.3477 -2.6477 0.1408 0 7
-9.1641 16.2025 -2.6477 0.1408 0 7
-9.4234 16.0531 -2.6477 0.1408 0 7
-9.6802 15.8996 -2.6477 0.1408 0 7
-9.9346 15.7419 -2.6477 0.1408 0 7
-10.1863 15.5802 -2.6477 0.1408 0 7
-10.4355 15.4144 -2.6477 0.1408 0 7
-10.6819 15.2447 -2.6477 0.1408 0 7
-10.9256 15.0710 -2.6477 0.1408 0 7
-11.1664 14.8934 -2.6477 0.1408 0 7
-11.4044 14.7120 -2.6477 0.1408 0 7
-11.6394 14.5268 -2.6477 0.1408 0 7
-11.8714 14.3378 -2.6477 0.1408 0 7
-12.1003 14.1451 -2.6477 0.1408 0 7
-12.3262 13.9488 -2.6477 0.1408 0 7
-12.5488 13.7488 -2.6477 0.1408 0 7
-12.7682 13.5453 -2.6477 0.1408 0 7
-12.9843 13.3384 -2.6477 0.1408 0 7
-13.1970 13.1279 -2.6477 0.1408 0 7
-13.4063 12.9141 -2.6477 0.1408 0 7
-13.6122 12.6969 -2.6477 0.1408 0 7
-13.8145 12.4765 -2.6477 0.1408 0 7
13.0287 11.7823 -2.6477 0.1490 0 7
12.8376 11.9902 -2.6477 0.1490 0 7
12.6432 12.1950 -2.6477 0.1490 0 7
12.4455 12.3967 -2.6477 0.1490 0 7
12.2446 12.5952 -2.6477 0.1490 0 7
12.0406 12.7904 -2.6477 0.1490 0 7
11.8335 12.9823 -2.6477 0.1490 0 7
11.6232 13.1708 -2.6477 0.1490 0 7
11.4100 13.3559 -2.6477 0.1490 0 7
11.1938 13.5376 -2.6477 0.1490 0 7
10.9748 13.7158 -2.6477 0.1490 0 7
10.7529 13.8905 -2.6477 0.1490 0 7
10.5282 14.0615 -2.6477 0.1490 0 7
10.3008 14.2289 -2.6477 0.1490 0 7
10.0708 14.3927 -2.6477 0.1490 0 7
9.8381 14.5527 -2.6477 0.1490 0 7
9.6029 14.7090 -2.6477 0.1490 0 7
9.3652 14.8614 -2.6477 0.1490 0 7
9.1251 15.0100 -2.6477 0.1490 0 7
8.8827 15.1548 -2.6477 0.1490 0 7
8.6379 15.2956 -2.6477 0.1490 0 7
8.3909 15.4325 -2.6477 0.1490 0 7
8.1418 15.5654 -2.6477 0.1490 0 7
7.8905 15.6942 -2.6477 0.1490 0 7
7.6372 15.8191 -2.6477 0.1490 0 7
7.3819 15.9398 -2.6477 0.1490 0 7
7.1247 16.0564 -2.6477 0.1490 0 7
6.8657 16.1688 -2.6477 0.1490 0 7
6.6049 16.2771 -2.6477 0.1490 0 7
6.3424 16.3812 -2.6477 0.1490 0 7
6.0783 16.4810 -2.6477 0.1490 0 7
5.8126 16.5766 -2.6477 0.1490 0 7
5.5454 16.6679 -2.6477 0.1490 0 7
5.2767 16.7549 -2.6477 0.1490 0 7
5.0067 16.8375 -2.6477 0.1490 0 7
4.7354 16.9158 -2.6477 0.1490 0 7
4.4629 16.9898 -2.6477 0.1490 0 7
4.1892 17.0593 -2.6477 0.1490 0 7
3.9144 17.1245 -2.6477 0.1490 0 7
3.6386 17.1852 -2.6477 0.1490 0 7
3.3619 17.2414 -2.6477 0.1490 0 7
3.0843 17.2932 -2.6477 0.1490 0 7
2.8060 17.3406 -2.6477 0.1490 0 7
2.5269 17.3834 -2.6477 0.1490 0 7
2.2471 17.4218 -2.6477 0.1490 0 7
1.9668 17.4557 -2.6477 0.1490 0 7
1.6859 17.4851 -2.6477 0.1490 0 7
1.4046 17.5099 -2.6477 0.1490 0 7
1.1230 17.5302 -2.6477 0.1490 0 7
0.8410 17.5460 -2.6477 0.1490 0 7
0.5589 17.5573 -2.6477 0.1490 0 7
0.2766 17.5640 -2.6477 0.1490 0 7
-0.0058 17.5661 -2.6477 0.1490 0 7
-0.2882 17.5638 -2.6477 0.1490 0 7
-0.5704 17.5569 -2.6477 0.1490 0 7
-0.8526 17.5454 -2.6477 0.1490 0 7
-1.1345 17.5295 -2.6477 0.1490 0 7
-1.4162 17.5090 -2.6477 0.1490 0 7
-1.6974 17.4839 -2.6477 0.1490 0 7
-1.9783 17.4544 -2.6477 0.1490 0 7
-2.2586 17.4203 -2.6477 0.1490 0 7
-2.5383 17.3818 -2.6477 0.1490 0 7
-2.8174 17.3387 -2.6477 0.1490 0 7
-3.0957 17.2912 -2.6477 0.1490 0 7
-3.3733 17.2392 -2.6477 0.1490 0 7
-3.6500 17.1828 -2.6477 0.1490 0 7
-3.9257 17.1219 -2.6477 0.1490 0 7
-4.2004 17.0565 -2.6477 0.1490 0 7
-4.4741 16.9868 -2.6477 0.1490 0 7
-4.7465 16.9127 -2.6477 0.1490 0 7
-5.0178 16.8342 -2.6477 0.1490 0 7
-5.2878 16.7514 -2.6477 0.1490 0 7
-5.5563 16.6642 -2.6477 0.1490 0 7
-5.8235 16.5728 -2.6477 0.1490 0 7
-6.0891 16.4770 -2.6477 0.1490 0 7
-6.3532 16.3770 -2.6477 0.1490 0 7
-6.6156 16.2728 -2.6477 0.1490 0 7
-6.8764 16.1643 -2.6477 0.1490 0 7
-7.1353 16.0517 -2.6477 0.1490 0 7
-7.3924 15.9349 -2.6477 0.1490 0 7
-7.6476 15.8140 -2.6477 0.1490 0 7
-7.9008 15.6890 -2.6477 0.1490 0 7
-8.1520 15.5600 -2.6477 0.1490 0 7
-8.4011 15.4270 -2.6477 0.1490 0 7
-8.6480 15.2899 -2.6477 0.1490 0 7
-8.8927 15.1489 -2.6477 0.1490 0 7
-9.1350 15.0040 -2.6477 0.1490 0 7
-9.3750 14.8552 -2.6477 0.1490 0 7
-9.6126 14.7026 -2.6477 0.1490 0 7
-9.8477 14.5462 -2.6477 0.1490 0 7
-10.0802 14.3860 -2.6477 0.1490 0 7
-10.3102 14.2221 -2.6477 0.1490 0 7
-10.5375 14.0546 -2.6477 0.1490 0 7
-10.7620 13.8834 -2.6477 0.1490 0 7
-10.9838 13.7086 -2.6477 0.1490 0 7
-11.2028 13.5302 -2.6477 0.1490 0 7
-11.4188 13.3484 -2.6477 0.1490 0 7
-11.6319 13.1631 -2.6477 0.1490 0 7
-11.8420 12.9745 -2.6477 0.1490 0 7
-12.0490 12.7824 -2.6477 0.1490 0 7
-12.2529 12.5871 -2.6477 0.1490 0 7
-12.4537 12.3885 -2.6477 0.1490 0 7
-12.6512 12.1867 -2.6477 0.1490 0 7
-12.8455 11.9818 -2.6477 0.1490 0 7
-13.0364 11.7737 -2.6477 0.1490 0 7
12.3323 11.1526 -2.6477 0.1573 0 7
12.1515 11.3494 -2.6477 0.1573 0 7
11.9675 11.5432 -2.6477 0.1573 0 7
11.7804 11.7341 -2.6477 0.1573 0 7
11.5902 11.9220 -2.6477 0.1573 0 7
11.3971 12.1068 -2.6477 0.1573 0 7
11.2010 12.2884 -2.6477 0.1573 0 7
11.0020 12.4669 -2.6477 0.1573 0 7
10.8002 12.6421 -2.6477 0.1573 0 7
10.5956 12.8141 -2.6477 0.1573 0 7
10.3882 12.9827 -2.6477 0.1573 0 7
10.1782 13.1481 -2.6477 0.1573 0 7
9.9655 13.3100 -2.6477 0.1573 0 7
9.7503 13.4684 -2.6477 0.1573 0 7
9.5325 13.6234 -2.6477 0.1573 0 7
9.3123 13.7749 -2.6477 0.1573 0 7
9.0897 13.9228 -2.6477 0.1573 0 7
8.8647 14.0671 -2.6477 0.1573 0 7
8.6374 14.2078 -2.6477 0.1573 0 7
8.4079 14.3448 -2.6477 0.1573 0 7
8.1762 14.4781 -2.6477 0.1573 0 7
7.9425 14.6077 -2.6477 0.1573 0 7
7.7066 14.7335 -2.6477 0.1573 0 7
7.4688 14.8554 -2.6477 0.1573 0 7
7.2290 14.9736 -2.6477 0.1573 0 6
6.9874 15.0878 -2.6477 0.1573 0 7
6.7440 15.1982 -2.6477 0.1573 0 7
6.4988 15.3047 -2.6477 0.1573 0 7
6.2519 15.4072 -2.6477 0.1573 0 7
6.0034 15.5057 -2.6477 0.1573 0 7
5.7534 15.6002 -2.6477 0.1573 0 7
5.5019 15.6906 -2.6477 0.1573 0 7
5.2490 15.7770 -2.6477 0.1573 0 7
4.9947 15.8594 -2.6477 0.1573 0 7
4.7391 15.9376 -2.6477 0.1573 0 7
4.4823 16.0117 -2.6477 0.1573 0 7
4.2243 16.0817 -2.6477 0.1573 0 7
3.9653 16.1475 -2.6477 0.1573 0 7
3.7052 16.2092 -2.6477 0.1573 0 7
3.4442 16.2667 -2.6477 0.1573 0 7
3.1823 16.3199 -2.6477 0.1573 0 7
2.9195 16.3690 -2.6477 0.1573 0 7
2.6560 16.4138 -2.6477 0.1573 0 7
2.3918 16.4544 -2.6477 0.1573 0 7
2.1270 16.4907 -2.6477 0.1573 0 7
1.8616 16.5227 -2.6477 0.1573 0 7
1.5958 16.5505 -2.6477 0.1573 0 7
1.3295 16.5740 -2.6477 0.1573 0 7
1.0630 16.5933 -2.6477 0.1573 0 7
0.7961 16.6082 -2.6477 0.1573 0 7
0.5290 16.6189 -2.6477 0.1573 0 7
0.2618 16.6252 -2.6477 0.1573 0 7
-0.0055 16.6273 -2.6477 0.1573 0 7
-0.2728 16.6251 -2.6477 0.1573 0 7
-0.5400 16.6185 -2.6477 0.1573 0 7
-0.8070 16.6077 -2.6477 0.1573 0 7
-1.0739 16.5926 -2.6477 0.1573 0 7
-1.3405 16.5732 -2.6477 0.1573 0 7
-1.6067 16.5495 -2.6477 0.1573 0 7
-1.8725 16.5215 -2.6477 0.1573 0 7
-2.1379 16.4893 -2.6477 0.1573 0 7
-2.4027 16.4528 -2.6477 0.1573 0 7
-2.6668 16.4120 -2.6477 0.1573 0 7
-2.9303 16.3670 -2.6477 0.1573 0 7
-3.1930 16.3178 -2.6477 0.1573 0 7
-3.4549 16.2644 -2.6477 0.1573 0 7
-3.7159 16.2068 -2.6477 0.1573 0 7
-3.9759 16.1449 -2.6477 0.1573 0 7
-4.2349 16.0789 -2.6477 0.1573 0 7
-4.4929 16.0088 -2.6477 0.1573 0 7
-4.7496 15.9345 -2.6477 0.1573 0 7
-5.0051 15.8561 -2.6477 0.1573 0 7
-5.2594 15.7736 -2.6477 0.1573 0 7
-5.5122 15.6870 -2.6477 0.1573 0 7
-5.7637 15.5964 -2.6477 0.1573 0 7
-6.0137 15.5017 -2.6477 0.1573 0 7
-6.2621 15.4030 -2.6477 0.1573 0 7
-6.5089 15.3004 -2.6477 0.1573 0 7
-6.7540 15.1938 -2.6477 0.1573 0 7
-6.9973 15.0832 -2.6477 0.1573 0 7
-7.2389 14.9688 -2.6477 0.1573 0 6
-7.4786 14.8505 -2.6477 0.1573 0 7
-7.7163 14.7284 -2.6477 0.1573 0 7
-7.9521 14.6024 -2.6477 0.1573 0 7
-8.1858 14.4727 -2.6477 0.1573 0 7
-8.4174 14.3393 -2.6477 0.1573 0 7
-8.6468 14.2021 -2.6477 0.1573 0 7
-8.8740 14.0613 -2.6477 0.1573 0 7
-9.0988 13.9168 -2.6477 0.1573 0 7
-9.3214 13.7688 -2.6477 0.1573 0 7
-9.5415 13.6171 -2.6477 0.1573 0 7
-9.7591 13.4620 -2.6477 0.1573 0 7
-9.9743 13.3034 -2.6477 0.1573 0 7
-10.1868 13.1413 -2.6477 0.1573 0 7
-10.3968 12.9759 -2.6477 0.1573 0 7
-10.6040 12.8071 -2.6477 0.1573 0 7
-10.8085 12.6350 -2.6477 0.1573 0 7
-11.0102 12.4596 -2.6477 0.1573 0 7
-11.2091 12.2810 -2.6477 0.1573 0 7
-11.4050 12.0992 -2.6477 0.1573 0 7
-11.5981 11.9144 -2.6477 0.1573 0 7
-11.7881 11.7264 -2.6477 0.1573 0 7
-11.9751 11.5354 -2.6477 0.1573 0 7
-12.1589 11.3414 -2.6477 0.1573 0 6
-12.3397 11.1445 -2.6477 0.1573 0 7
11.7051 10.5853 -2.6477 0.1655 0 7
11.5334 10.7721 -2.6477 0.1655 0 7
11.3588 10.9561 -2.6477 0.1655 0 7
11.1812 11.1373 -2.6477 0.1655 0 7
11.0007 11.3156 -2.6477 0.1655 0 7
10.8174 11.4910 -2.6477 0.1655 0 6
10.6313 11.6634 -2.6477 0.1655 0 7
10.4424 11.8327 -2.6477 0.1655 0 7
10.2509 11.9991 -2.6477 0.1655 0 7
10.0566 12.1623 -2.6477 0.1655 0 7
9.8598 12.3224 -2.6477 0.1655 0 7
9.6605 12.4793 -2.6477 0.1655 0 7
9.4586 12.6330 -2.6477 0.1655 0 7
9.2544 12.7834 -2.6477 0.1655 0 7
9.0477 12.9305 -2.6477 0.1655 0 7
8.8386 13.0743 -2.6477 0.1655 0 7
8.6273 13.2147 -2.6477 0.1655 0 7
8.4138 13.3516 -2.6477 0.1655 0 7
8.1981 13.4851 -2.6477 0.1655 0 7
7.9803 13.6152 -2.6477 0.1655 0 7
7.7604 13.7417 -2.6477 0.1655 0 7
7.5385 13.8647 -2.6477 0.1655 0 7
7.3146 13.9841 -2.6477 0.1655 0 7
7.0889 14.0998 -2.6477 0.1655 0 7
6.8613 14.2120 -2.6477 0.1655 0 7
6.6320 14.3204 -2.6477 0.1655 0 7
6.4009 14.4252 -2.6477 0.1655 0 7
6.1682 14.5262 -2.6477 0.1655 0 7
5.9339 14.6235 -2.6477 0.1655 0 7
5.6981 14.7170 -2.6477 0.1655 0 7
5.4608 14.8067 -2.6477 0.1655 0 7
5.2221 14.8926 -2.6477 0.1655 0 7
4.9819 14.9746 -2.6477 0.1655 0 7
4.7406 15.0527 -2.6477 0.1655 0 7
4.4981 15.1270 -2.6477 0.1655 0 7
4.2543 15.1973 -2.6477 0.1655 0 7
4.0095 15.2638 -2.6477 0.1655 0 7
3.7636 15.3262 -2.6477 0.1655 0 7
3.5168 15.3847 -2.6477 0.1655 0 7
3.2690 15.4393 -2.6477 0.1655 0 7
3.0204 15.4898 -2.6477 0.1655 0 7
2.7710 15.5364 -2.6477 0.1655 0 7
2.5209 15.5789 -2.6477 0.1655 0 7
2.2702 15.6174 -2.6477 0.1655 0 7
2.0188 15.6519 -2.6477 0.1655 0 7
1.7669 15.6823 -2.6477 0.1655 0 7
1.5146 15.7087 -2.6477 0.1655 0 7
1.2619 15.7310 -2.6477 0.1655 0 7
1.0089 15.7493 -2.6477 0.1655 0 7
0.7556 15.7635 -2.6477 0.1655 0 7
0.5021 15.7736 -2.6477 0.1655 0 7
0.2485 15.7796 -2.6477 0.1655 0 7
-0.0052 15.7816 -2.6477 0.1655 0 7
-0.2589 15.7795 -2.6477 0.1655 0 7
-0.5125 15.7733 -2.6477 0.1655 0 7
-0.7660 15.7630 -2.6477 0.1655 0 7
-1.0193 15.7486 -2.6477 0.1655 0 7
-1.2723 15.7302 -2.6477 0.1655 0 7
-1.5250 15.7077 -2.6477 0.1655 0 7
-1.7773 15.6812 -2.6477 0.1655 0 7
-2.0291 15.6506 -2.6477 0.1655 0 7
-2.2804 15.6159 -2.6477 0.1655 0 7
-2.5312 15.5773 -2.6477 0.1655 0 7
-2.7812 15.5346 -2.6477 0.1655 0 7
-3.0306 15.4879 -2.6477 0.1655 0 7
-3.2792 15.4371 -2.6477 0.1655 0 7
-3.5269 15.3824 -2.6477 0.1655 0 7
-3.7737 15.3237 -2.6477 0.1655 0 7
-4.0195 15.2611 -2.6477 0.1655 0 7
-4.2643 15.1945 -2.6477 0.1655 0 7
-4.5080 15.1240 -2.6477 0.1655 0 7
-4.7506 15.0496 -2.6477 0.1655 0 7
-4.9919 14.9713 -2.6477 0.1655 0 7
-5.2319 14.8891 -2.6477 0.1655 0 7
-5.4705 14.8031 -2.6477 0.1655 0 7
-5.7078 14.7132 -2.6477 0.1655 0 7
-5.9435 14.6196 -2.6477 0.1655 0 7
-6.1778 14.5222 -2.6477 0.1655 0 7
-6.4104 14.4210 -2.6477 0.1655 0 7
-6.6414 14.3161 -2.6477 0.1655 0 7
-6.8707 14.2075 -2.6477 0.1655 0 7
-7.0982 14.0952 -2.6477 0.1655 0 7
-7.3238 13.9793 -2.6477 0.1655 0 7
-7.5476 13.8597 -2.6477 0.1655 0 7
-7.7694 13.7366 -2.6477 0.1655 0 7
-7.9892 13.6099 -2.6477 0.1655 0 7
-8.2070 13.4798 -2.6477 0.1655 0 7
-8.4226 13.3461 -2.6477 0.1655 0 7
-8.6360 13.2090 -2.6477 0.1655 0 7
-8.8473 13.0684 -2.6477 0.1655 0 7
-9.0562 12.9245 -2.6477 0.1655 0 7
-9.2628 12.7773 -2.6477 0.1655 0 7
-9.4670 12.6267 -2.6477 0.1655 0 7
-9.6687 12.4729 -2.6477 0.1655 0 7
-9.8680 12.3159 -2.6477 0.1655 0 7
-10.0647 12.1557 -2.6477 0.1655 0 7
-10.2587 11.9923 -2.6477 0.1655 0 7
-10.4502 11.8259 -2.6477 0.1655 0 7
-10.6390 11.6564 -2.6477 0.1655 0 7
-10.8249 11.4838 -2.6477 0.1655 0 7
-11.0081 11.3084 -2.6477 0.1655 0 7
-11.1885 11.1299 -2.6477 0.1655 0 7
-11.3660 10.9486 -2.6477 0.1655 0 7
-11.5405 10.7645 -2.6477 0.1655 0 7
-11.7120 10.5776 -2.6477 0.1655 0 7
11.1370 10.0716 -2.6477 0.1736 0 7
10.9737 10.2494 -2.6477 0.1736 0 7
10.8075 10.4244 -2.6477 0.1736 0 7
10.6386 10.5968 -2.6477 0.1736 0 7
10.4668 10.7664 -2.6477 0.1736 0 7
10.2924 10.9333 -2.6477 0.1736 0 7
10.1153 11.0973 -2.6477 0.1736 0 7
9.9356 11.2585 -2.6477 0.1736 0 7
9.7534 11.4168 -2.6477 0.1736 0 6
9.5686 11.5721 -2.6477 0.1736 0 7
9.3813 11.7244 -2.6477 0.1736 0 7
9.1917 11.8737 -2.6477 0.1736 0 7
8.9996 12.0199 -2.6477 0.1736 0 7
8.8052 12.1630 -2.6477 0.1736 0 7
8.6086 12.3030 -2.6477 0.1736 0 7
8.4097 12.4398 -2.6477 0.1736 0 7
8.2087 12.5733 -2.6477 0.1736 0 7
8.0055 12.7037 -2.6477 0.1736 0 7
7.8002 12.8307 -2.6477 0.1736 0 7
7.5930 12.9544 -2.6477 0.1736 0 7
7.3838 13.0748 -2.6477 0.1736 0 7
7.1726 13.1918 -2.6477 0.1736 0 7
6.9596 13.3054 -2.6477 0.1736 0 7
6.7449 13.4156 -2.6477 0.1736 0 7
6.5283 13.5223 -2.6477 0.1736 0 7
6.3101 13.6255 -2.6477 0.1736 0 7
6.0903 13.7251 -2.6477 0.1736 0 7
5.8689 13.8213 -2.6477 0.1736 0 7
5.6459 13.9138 -2.6477 0.1736 0 7
5.4216 14.0028 -2.6477 0.1736 0 7
5.1958 14.0881 -2.6477 0.1736 0 7
4.9686 14.1698 -2.6477 0.1736 0 7
4.7402 14.2479 -2.6477 0.1736 0 7
4.5106 14.3222 -2.6477 0.1736 0 7
4.2798 14.3929 -2.6477 0.1736 0 7
4.0479 14.4598 -2.6477 0.1736 0 7
3.8149 14.5230 -2.6477 0.1736 0 7
3.5810 14.5824 -2.6477 0.1736 0 7
3.3461 14.6381 -2.6477 0.1736 0 7
3.1104 14.6900 -2.6477 0.1736 0 7
2.8738 14.7381 -2.6477 0.1736 0 7
2.6365 14.7824 -2.6477 0.1736 0 7
2.3986 14.8229 -2.6477 0.1736 0 7
2.1600 14.8595 -2.6477 0.1736 0 7
1.9208 14.8923 -2.6477 0.1736 0 7
1.6812 14.9213 -2.6477 0.1736 0 7
1.4411 14.9464 -2.6477 0.1736 0 7
1.2007 14.9676 -2.6477 0.1736 0 7
0.9599 14.9850 -2.6477 0.1736 0 7
0.7189 14.9985 -2.6477 0.1736 0 7
0.4777 15.0081 -2.6477 0.1736 0 7
0.2364 15.0138 -2.6477 0.1736 0 7
-0.0049 15.0157 -2.6477 0.1736 0 7
-0.2463 15.0137 -2.6477 0.1736 0 7
-0.4876 15.0078 -2.6477 0.1736 0 7
-0.7288 14.9980 -2.6477 0.1736 0 7
-0.9698 14.9843 -2.6477 0.1736 0 6
-1.2106 14.9668 -2.6477 0.1736 0 6
-1.4510 14.9454 -2.6477 0.1736 0 6
-1.6909 14.9202 -2.6477 0.1736 0 7
-1.9306 14.8911 -2.6477 0.1736 0 7
-2.1698 14.8581 -2.6477 0.1736 0 7
-2.4083 14.8213 -2.6477 0.1736 0 7
-2.6463 14.7807 -2.6477 0.1736 0 7
-2.8835 14.7362 -2.6477 0.1736 0 7
-3.1200 14.6880 -2.6477 0.1736 0 7
-3.3557 14.6359 -2.6477 0.1736 0 7
-3.5906 14.5801 -2.6477 0.1736 0 7
-3.8245 14.5205 -2.6477 0.1736 0 7
-4.0574 14.4571 -2.6477 0.1736 0 7
-4.2893 14.3900 -2.6477 0.1736 0 7
-4.5200 14.3192 -2.6477 0.1736 0 7
-4.7496 14.2447 -2.6477 0.1736 0 7
-4.9780 14.1665 -2.6477 0.1736 0 7
-5.2050 14.0847 -2.6477 0.1736 0 7
-5.4308 13.9992 -2.6477 0.1736 0 7
-5.6551 13.9101 -2.6477 0.1736 0 7
-5.8780 13.8174 -2.6477 0.1736 0 7
-6.0993 13.7211 -2.6477 0.1736 0 7
-6.3191 13.6213 -2.6477 0.1736 0 7
-6.5372 13.5180 -2.6477 0.1736 0 7
-6.7537 13.4111 -2.6477 0.1736 0 7
-6.9684 13.3008 -2.6477 0.1736 0 7
-7.1813 13.1871 -2.6477 0.1736 0 7
-7.3924 13.0700 -2.6477 0.1736 0 7
-7.6015 12.9494 -2.6477 0.1736 0 7
-7.8087 12.8256 -2.6477 0.1736 0 7
-8.0139 12.6984 -2.6477 0.1736 0 7
-8.2169 12.5679 -2.6477 0.1736 0 7
-8.4179 12.4342 -2.6477 0.1736 0 7
-8.6167 12.2973 -2.6477 0.1736 0 7
-8.8132 12.1572 -2.6477 0.1736 0 7
-9.0075 12.0140 -2.6477 0.1736 0 7
-9.1995 11.8676 -2.6477 0.1736 0 7
-9.3891 11.7182 -2.6477 0.1736 0 7
-9.5762 11.5658 -2.6477 0.1736 0 7
-9.7609 11.4103 -2.6477 0.1736 0 6
-9.9431 11.2520 -2.6477 0.1736 0 7
-10.1226 11.0907 -2.6477 0.1736 0 7
-10.2996 10.9265 -2.6477 0.1736 0 7
-10.4739 10.7596 -2.6477 0.1736 0 7
-10.6455 10.5898 -2.6477 0.1736 0 7
-10.8144 10.4173 -2.6477 0.1736 0 7
-10.9804 10.2421 -2.6477 0.1736 0 7
-11.1437 10.0643 -2.6477 0.1736 0 7
10.6201 9.6042 -2.6477 0.1818 0 7
10.4644 9.7736 -2.6477 0.1818 0 7
10.3059 9.9406 -2.6477 0.1818 0 7
10.1448 10.1050 -2.6477 0.1818 0 7
9.9810 10.2667 -2.6477 0.1818 0 7
9.8147 10.4259 -2.6477 0.1818 0 7
9.6459 10.5823 -2.6477 0.1818 0 7
9.4745 10.7360 -2.6477 0.1818 0 7
9.3007 10.8869 -2.6477 0.1818 0 7
9.1245 11.0350 -2.6477 0.1818 0 7
8.9459 11.1802 -2.6477 0.1818 0 7
8.7651 11.3226 -2.6477 0.1818 0 7
8.5818 11.4620 -2.6477 0.1818 0 6
8.3966 11.5985 -2.6477 0.1818 0 7
8.2090 11.7320 -2.6477 0.1818 0 7
8.0194 11.8624 -2.6477 0.1818 0 7
7.8277 11.9898 -2.6477 0.1818 0 7
7.6339 12.1141 -2.6477 0.1818 0 7
7.4382 12.2352 -2.6477 0.1818 0 7
7.2406 12.3532 -2.6477 0.1818 0 7
7.0411 12.4680 -2.6477 0.1818 0 7
6.8397 12.5796 -2.6477 0.1818 0 7
6.6366 12.6879 -2.6477 0.1818 0 7
6.4318 12.7929 -2.6477 0.1818 0 7
6.2253 12.8947 -2.6477 0.1818 0 7
6.0173 12.9931 -2.6477 0.1818 0 7
5.8076 13.0881 -2.6477 0.1818 0 7
5.5965 13.1798 -2.6477 0.1818 0 7
5.3839 13.2680 -2.6477 0.1818 0 7
5.1699 13.3529 -2.6477 0.1818 0 7
4.9546 13.4342 -2.6477 0.1818 0 7
4.7380 13.5121 -2.6477 0.1818 0 7
4.5202 13.5866 -2.6477 0.1818 0 7
4.3012 13.6575 -2.6477 0.1818 0 7
4.0811 13.7248 -2.6477 0.1818 0 7
3.8600 13.7887 -2.6477 0.1818 0 7
3.6378 13.8489 -2.6477 0.1818 0 7
3.4148 13.9056 -2.6477 0.1818 0 7
3.1908 13.9587 -2.6477 0.1818 0 7
2.9660 14.0082 -2.6477 0.1818 0 7
2.7404 14.0541 -2.6477 0.1818 0 7
2.5142 14.0963 -2.6477 0.1818 0 7
2.2872 14.1349 -2.6477 0.1818 0 7
2.0597 14.1698 -2.6477 0.1818 0 7
1.8317 14.2011 -2.6477 0.1818 0 7
1.6032 14.2287 -2.6477 0.1818 0 7
1.3742 14.2527 -2.6477 0.1818 0 7
1.1450 14.2729 -2.6477 0.1818 0 7
0.9154 14.2895 -2.6477 0.1818 0 7
0.6856 14.3023 -2.6477 0.1818 0 7
0.4556 14.3115 -2.6477 0.1818 0 7
0.2254 14.3170 -2.6477 0.1818 0 7
-0.0047 14.3188 -2.6477 0.1818 0 7
-0.2349 14.3168 -2.6477 0.1818 0 7
-0.4650 14.3112 -2.6477 0.1818 0 7
-0.6950 14.3019 -2.6477 0.1818 0 7
-0.9248 14.2889 -2.6477 0.1818 0 7
-1.1544 14.2722 -2.6477 0.1818 0 7
-1.3836 14.2518 -2.6477 0.1818 0 7
-1.6125 14.2277 -2.6477 0.1818 0 7
-1.8410 14.1999 -2.6477 0.1818 0 7
-2.0691 14.1685 -2.6477 0.1818 0 7
-2.2965 14.1334 -2.6477 0.1818 0 7
-2.5235 14.0947 -2.6477 0.1818 0 7
-2.7497 14.0523 -2.6477 0.1818 0 7
-2.9752 14.0062 -2.6477 0.1818 0 7
-3.2000 13.9566 -2.6477 0.1818 0 7
-3.4239 13.9034 -2.6477 0.1818 0 7
-3.6470 13.8465 -2.6477 0.1818 0 7
-3.8691 13.7861 -2.6477 0.1818 0 7
-4.0902 13.7222 -2.6477 0.1818 0 7
-4.3102 13.6546 -2.6477 0.1818 0 7
-4.5292 13.5836 -2.6477 0.1818 0 7
-4.7469 13.5090 -2.6477 0.1818 0 7
-4.9635 13.4310 -2.6477 0.1818 0 7
-5.1787 13.3494 -2.6477 0.1818 0 7
-5.3926 13.2645 -2.6477 0.1818 0 7
-5.6052 13.1761 -2.6477 0.1818 0 7
-5.8162 13.0843 -2.6477 0.1818 0 7
-6.0258 12.9891 -2.6477 0.1818 0 7
-6.2338 12.8906 -2.6477 0.1818 0 7
-6.4402 12.7887 -2.6477 0.1818 0 7
-6.6450 12.6835 -2.6477 0.1818 0 7
-6.8480 12.5750 -2.6477 0.1818 0 7
-7.0493 12.4633 -2.6477 0.1818 0 7
-7.2487 12.3484 -2.6477 0.1818 0 7
-7.4463 12.2303 -2.6477 0.1818 0 7
-7.6419 12.1090 -2.6477 0.1818 0 7
-7.8356 11.9846 -2.6477 0.1818 0 7
-8.0272 11.8571 -2.6477 0.1818 0 7
-8.2168 11.7266 -2.6477 0.1818 0 7
-8.4042 11.5930 -2.6477 0.1818 0 7
-8.5894 11.4564 -2.6477 0.1818 0 6
-8.7725 11.3168 -2.6477 0.1818 0 7
-8.9533 11.1743 -2.6477 0.1818 0 7
-9.1318 11.0290 -2.6477 0.1818 0 7
-9.3079 10.8808 -2.6477 0.1818 0 7
-9.4816 10.7297 -2.6477 0.1818 0 7
-9.6528 10.5759 -2.6477 0.1818 0 7
-9.8216 10.4194 -2.6477 0.1818 0 7
-9.9878 10.2602 -2.6477 0.1818 0 7
-10.1514 10.0983 -2.6477 0.1818 0 7
-10.3124 9.9338 -2.6477 0.1818 0 7
-10.4708 9.7668 -2.6477 0.1818 0 7
-10.6264 9.5972 -2.6477 0.1818 0 7
10.1477 9.1769 -2.6477 0.1900 0 7
9.9988 9.3389 -2.6477 0.1900 0 7
9.8474 9.4984 -2.6477 0.1900 0 7
9.6935 9.6554 -2.6477 0.1900 0 7
9.5370 9.8100 -2.6477 0.1900 0 7
9.3781 9.9621 -2.6477 0.1900 0 7
9.2168 10.1115 -2.6477 0.1900 0 7
9.0530 10.2584 -2.6477 0.1900 0 7
8.8869 10.4026 -2.6477 0.1900 0 7
8.7186 10.5441 -2.6477 0.1900 0 7
8.5480 10.6829 -2.6477 0.1900 0 7
8.3751 10.8189 -2.6477 0.1900 0 7
8.2001 10.9521 -2.6477 0.1900 0 7
8.0230 11.0825 -2.6477 0.1900 0 7
7.8438 11.2101 -2.6477 0.1900 0 7
7.6626 11.3347 -2.6477 0.1900 0 7
7.4794 11.4564 -2.6477 0.1900 0 6
7.2943 11.5752 -2.6477 0.1900 0 7
7.1073 11.6909 -2.6477 0.1900 0 7
6.9185 11.8036 -2.6477 0.1900 0 7
6.7278 11.9133 -2.6477 0.1900 0 7
6.5355 12.0199 -2.6477 0.1900 0 7
6.3414 12.1234 -2.6477 0.1900 0 7
6.1457 12.2238 -2.6477 0.1900 0 7
5.9484 12.3210 -2.6477 0.1900 0 7
5.7496 12.4150 -2.6477 0.1900 0 7
5.5493 12.5059 -2.6477 0.1900 0 7
5.3475 12.5935 -2.6477 0.1900 0 7
5.1444 12.6778 -2.6477 0.1900 0 7
4.9399 12.7589 -2.6477 0.1900 0 7
4.7342 12.8366 -2.6477 0.1900 0 7
4.5273 12.9110 -2.6477 0.1900 0 7
4.3191 12.9822 -2.6477 0.1900 0 7
4.1099 13.0499 -2.6477 0.1900 0 7
3.8996 13.1143 -2.6477 0.1900 0 7
3.6883 13.1753 -2.6477 0.1900 0 7
3.4760 13.2329 -2.6477 0.1900 0 7
3.2628 13.2870 -2.6477 0.1900 0 7
3.0488 13.3378 -2.6477 0.1900 0 7
2.8340 13.3850 -2.6477 0.1900 0 7
2.6185 13.4289 -2.6477 0.1900 0 7
2.4023 13.4692 -2.6477 0.1900 0 7
2.1855 13.5061 -2.6477 0.1900 0 7
1.9681 13.5395 -2.6477 0.1900 0 7
1.7502 13.5694 -2.6477 0.1900 0 7
1.5319 13.5958 -2.6477 0.1900 0 7
1.3131 13.6186 -2.6477 0.1900 0 7
1.0940 13.6380 -2.6477 0.1900 0 7
0.8747 13.6538 -2.6477 0.1900 0 7
0.6551 13.6661 -2.6477 0.1900 0 7
0.4353 13.6749 -2.6477 0.1900 0 7
0.2154 13.6801 -2.6477 0.1900 0 7
-0.0045 13.6818 -2.6477 0.1900 0 7
-0.2244 13.6799 -2.6477 0.1900 0 7
-0.4443 13.6746 -2.6477 0.1900 0 7
-0.6641 13.6657 -2.6477 0.1900 0 7
-0.8836 13.6532 -2.6477 0.1900 0 7
-1.1030 13.6372 -2.6477 0.1900 0 7
-1.3221 13.6178 -2.6477 0.1900 0 7
-1.5408 13.5947 -2.6477 0.1900 0 7
-1.7591 13.5682 -2.6477 0.1900 0 7
-1.9770 13.5382 -2.6477 0.1900 0 7
-2.1944 13.5047 -2.6477 0.1900 0 7
-2.4112 13.4676 -2.6477 0.1900 0 7
-2.6274 13.4271 -2.6477 0.1900 0 7
-2.8429 13.3832 -2.6477 0.1900 0 7
-3.0576 13.3357 -2.6477 0.1900 0 7
-3.2716 13.2849 -2.6477 0.1900 0 7
-3.4847 13.2306 -2.6477 0.1900 0 7
-3.6970 13.1728 -2.6477 0.1900 0 7
-3.9082 13.1117 -2.6477 0.1900 0 7
-4.1185 13.0472 -2.6477 0.1900 0 7
-4.3277 12.9793 -2.6477 0.1900 0 7
-4.5358 12.9081 -2.6477 0.1900 0 7
-4.7427 12.8335 -2.6477 0.1900 0 7
-4.9483 12.7556 -2.6477 0.1900 0 7
-5.1527 12.6744 -2.6477 0.1900 0 7
-5.3558 12.5899 -2.6477 0.1900 0 7
-5.5575 12.5022 -2.6477 0.1900 0 7
-5.7578 12.4113 -2.6477 0.1900 0 7
-5.9565 12.3171 -2.6477 0.1900 0 7
-6.1537 12.2198 -2.6477 0.1900 0 7
-6.3494 12.1193 -2.6477 0.1900 0 7
-6.5434 12.0156 -2.6477 0.1900 0 7
-6.7357 11.9089 -2.6477 0.1900 0 7
-6.9262 11.7991 -2.6477 0.1900 0 7
-7.1150 11.6862 -2.6477 0.1900 0 7
-7.3019 11.5703 -2.6477 0.1900 0 7
-7.4871 11.4515 -2.6477 0.1900 0 6
-7.6701 11.3296 -2.6477 0.1900 0 7
-7.8512 11.2049 -2.6477 0.1900 0 7
-8.0303 11.0772 -2.6477 0.1900 0 7
-8.2073 10.9467 -2.6477 0.1900 0 7
-8.3823 10.8134 -2.6477 0.1900 0 7
-8.5550 10.6772 -2.6477 0.1900 0 7
-8.7255 10.5383 -2.6477 0.1900 0 7
-8.8938 10.3967 -2.6477 0.1900 0 7
-9.0598 10.2524 -2.6477 0.1900 0 7
-9.2234 10.1054 -2.6477 0.1900 0 7
-9.3847 9.9559 -2.6477 0.1900 0 7
-9.5435 9.8037 -2.6477 0.1900 0 7
-9.6998 9.6491 -2.6477 0.1900 0 7
-9.8537 9.4919 -2.6477 0.1900 0 7
-10.0050 9.3323 -2.6477 0.1900 0 7
-10.1537 9.1702 -2.6477 0.1900 0 7
9.1550 8.2792 -2.4953 0.1981 0 8
9.0207 8.4253 -2.4953 0.1981 0 8
9.4267 9.0926 -2.6477 0.1981 0 7
9.2794 9.2429 -2.6477 0.1981 0 7
9.1296 9.3909 -2.6477 0.1981 0 7
8.9774 9.5365 -2.6477 0.1981 0 7
8.8230 9.6795 -2.6477 0.1981 0 7
8.6663 9.8201 -2.6477 0.1981 0 7
8.5073 9.9581 -2.6477 0.1981 0 7
8.3461 10.0936 -2.6477 0.1981 0 7
8.1828 10.2265 -2.6477 0.1981 0 7
8.0173 10.3567 -2.6477 0.1981 0 7
7.8498 10.4842 -2.6477 0.1981 0 7
7.6803 10.6091 -2.6477 0.1981 0 7
7.5087 10.7311 -2.6477 0.1981 0 7
7.3353 10.8504 -2.6477 0.1981 0 7
7.1599 10.9670 -2.6477 0.1981 0 7
6.9827 11.0806 -2.6477 0.1981 0 7
6.8037 11.1914 -2.6477 0.1981 0 7
6.6229 11.2994 -2.6477 0.1981 0 7
6.4404 11.4044 -2.6477 0.1981 0 6
6.2562 11.5064 -2.6477 0.1981 0 6
6.0705 11.6055 -2.6477 0.1981 0 7
5.8831 11.7016 -2.6477 0.1981 0 7
5.6943 11.7946 -2.6477 0.1981 0 7
5.5039 11.8847 -2.6477 0.1981 0 7
5.3122 11.9716 -2.6477 0.1981 0 7
5.1191 12.0554 -2.6477 0.1981 0 7
4.9246 12.1362 -2.6477 0.1981 0 7
4.7289 12.2138 -2.6477 0.1981 0 7
4.5320 12.2882 -2.6477 0.1981 0 7
4.3338 12.3595 -2.6477 0.1981 0 7
4.1346 12.4275 -2.6477 0.1981 0 7
3.9343 12.4924 -2.6477 0.1981 0 7
3.7330 12.5540 -2.6477 0.1981 0 7
3.5307 12.6124 -2.6477 0.1981 0 7
3.3275 12.6675 -2.6477 0.1981 0 7
3.1234 12.7194 -2.6477 0.1981 0 7
2.9186 12.7679 -2.6477 0.1981 0 7
2.7130 12.8132 -2.6477 0.1981 0 7
2.5067 12.8552 -2.6477 0.1981 0 7
2.2997 12.8938 -2.6477 0.1981 0 7
2.0921 12.9291 -2.6477 0.1981 0 7
1.8840 12.9611 -2.6477 0.1981 0 7
1.6754 12.9897 -2.6477 0.1981 0 7
1.4664 13.0149 -2.6477 0.1981 0 7
1.2570 13.0368 -2.6477 0.1981 0 7
1.0473 13.0553 -2.6477 0.1981 0 7
0.8373 13.0705 -2.6477 0.1981 0 7
0.6271 13.0823 -2.6477 0.1981 0 7
0.4167 13.0906 -2.6477 0.1981 0 7
0.2062 13.0956 -2.6477 0.1981 0 7
-0.0043 13.0973 -2.6477 0.1981 0 7
-0.2148 13.0955 -2.6477 0.1981 0 7
-0.4253 13.0904 -2.6477 0.1981 0 7
-0.6357 13.0818 -2.6477 0.1981 0 7
-0.8459 13.0699 -2.6477 0.1981 0 7
-1.0559 13.0546 -2.6477 0.1981 0 7
-1.2656 13.0360 -2.6477 0.1981 0 7
-1.4750 13.0140 -2.6477 0.1981 0 7
-1.6840 12.9886 -2.6477 0.1981 0 7
-1.8926 12.9598 -2.6477 0.1981 0 7
-2.1006 12.9277 -2.6477 0.1981 0 7
-2.3082 12.8923 -2.6477 0.1981 0 7
-2.5151 12.8535 -2.6477 0.1981 0 7
-2.7214 12.8114 -2.6477 0.1981 0 7
-2.9270 12.7660 -2.6477 0.1981 0 7
-3.1318 12.7173 -2.6477 0.1981 0 7
-3.3358 12.6653 -2.6477 0.1981 0 7
-3.5390 12.6101 -2.6477 0.1981 0 7
-3.7412 12.5516 -2.6477 0.1981 0 7
-3.9425 12.4898 -2.6477 0.1981 0 7
-4.1428 12.4248 -2.6477 0.1981 0 7
-4.3420 12.3566 -2.6477 0.1981 0 7
-4.5400 12.2852 -2.6477 0.1981 0 7
-4.7369 12.2106 -2.6477 0.1981 0 7
-4.9326 12.1329 -2.6477 0.1981 0 7
-5.1270 12.0521 -2.6477 0.1981 0 7
-5.3201 11.9681 -2.6477 0.1981 0 7
-5.5118 11.8810 -2.6477 0.1981 0 7
-5.7020 11.7909 -2.6477 0.1981 0 7
-5.8908 11.6977 -2.6477 0.1981 0 7
-6.0781 11.6015 -2.6477 0.1981 0 7
-6.2638 11.5023 -2.6477 0.1981 0 7
-6.4479 11.4001 -2.6477 0.1981 0 6
-6.6303 11.2950 -2.6477 0.1981 0 7
-6.8110 11.1870 -2.6477 0.1981 0 7
-6.9900 11.0760 -2.6477 0.1981 0 7
-7.1671 10.9622 -2.6477 0.1981 0 7
-7.3424 10.8456 -2.6477 0.1981 0 7
-7.5158 10.7262 -2.6477 0.1981 0 7
-7.6873 10.6040 -2.6477 0.1981 0 7
-7.8567 10.4791 -2.6477 0.1981 0 7
-8.0241 10.3514 -2.6477 0.1981 0 7
-8.1895 10.2211 -2.6477 0.1981 0 7
