ply
format ascii 1.0
element vertex 1346
property float32 x
property float32 y
property float32 z
property float32 CosAngle
property uint32 ObjIdx
property uint32 ObjTag
end_header
26.9140 -4.0561 -2.4953 0.0913 0 8
26.9758 -3.6226 -2.4953 0.0913 0 8
27.0305 -3.1882 -2.4953 0.0913 0 8
27.0783 -2.7530 -2.4953 0.0913 0 8
27.1191 -2.3170 -2.4953 0.0913 0 8
27.1529 -1.8805 -2.4953 0.0913 0 8
27.1796 -1.4434 -2.4953 0.0913 0 8
27.1993 -1.0060 -2.4953 0.0913 0 8
27.2120 -0.5684 -2.4953 0.0913 0 8
27.2176 -0.1306 -2.4953 0.0913 0 8
27.2162 0.3073 -2.4953 0.0913 0 8
27.2077 0.7451 -2.4953 0.0913 0 8
27.1922 1.1826 -2.4953 0.0913 0 8
27.1697 1.6199 -2.4953 0.0913 0 8
27.1401 2.0568 -2.4953 0.0913 0 8
27.1035 2.4931 -2.4953 0.0913 0 8
27.0599 2.9288 -2.4953 0.0913 0 8
27.0093 3.3637 -2.4953 0.0913 0 8
26.9517 3.7977 -2.4953 0.0913 0 8
26.8871 4.2308 -2.4953 0.0913 0 8
26.8156 4.6627 -2.4953 0.0913 0 8
26.7371 5.0935 -2.4953 0.0913 0 8
26.6517 5.5229 -2.4953 0.0913 0 8
26.5594 5.9510 -2.4953 0.0913 0 8
26.4602 6.3774 -2.4953 0.0913 0 8
26.3542 6.8023 -2.4953 0.0913 0 8
26.2414 7.2253 -2.4953 0.0913 0 8
26.1217 7.6465 -2.4953 0.0913 0 8
25.9954 8.0657 -2.4953 0.0913 0 8
25.8622 8.4828 -2.4953 0.0913 0 8
27.2935 9.4412 -2.6477 0.0913 0 7
27.1381 9.8790 -2.6477 0.0913 0 7
26.9756 10.3143 -2.6477 0.0913 0 7
26.8062 10.7469 -2.6477 0.0913 0 7
26.6299 11.1767 -2.6477 0.0913 0 7
26.4466 11.6037 -2.6477 0.0913 0 7
26.2566 12.0276 -2.6477 0.0913 0 7
26.0597 12.4484 -2.6477 0.0913 0 7
25.8561 12.8660 -2.6477 0.0913 0 7
25.6457 13.2803 -2.6477 0.0913 0 7
25.4288 13.6911 -2.6477 0.0913 0 7
25.2053 14.0984 -2.6477 0.0913 0 7
24.9752 14.5020 -2.6477 0.0913 0 7
24.7387 14.9019 -2.6477 0.0913 0 7
24.4958 15.2979 -2.6477 0.0913 0 7
24.2465 15.6900 -2.6477 0.0913 0 7
23.9910 16.0780 -2.6477 0.0913 0 7
23.7292 16.4619 -2.6477 0.0913 0 7
23.4614 16.8414 -2.6477 0.0913 0 7
23.1874 17.2167 -2.6477 0.0913 0 7
22.9075 17.5874 -2.6477 0.0913 0 7
22.6216 17.9537 -2.6477 0.0913 0 7
22.3298 18.3152 -2.6477 0.0913 0 7
22.0323 18.6721 -2.6477 0.0913 0 7
21.6959 18.9950 -2.6436 0.6596 0 8
-23.1025 -9.3863 -2.4953 0.0996 0 8
-22.9486 -9.7567 -2.4953 0.0996 0 8
-22.7886 -10.1246 -2.4953 0.0996 0 8
-22.6228 -10.4898 -2.4953 0.0996 0 8
-22.4512 -10.8524 -2.4953 0.0996 0 8
-22.2737 -11.2122 -2.4953 0.0996 0 8
-22.0904 -11.5690 -2.4953 0.0996 0 8
-21.9015 -11.9229 -2.4953 0.0996 0 8
-21.7068 -12.2736 -2.4953 0.0996 0 8
-21.5066 -12.6212 -2.4953 0.0996 0 8
-21.3008 -12.9656 -2.4953 0.0996 0 8
-21.0894 -13.3065 -2.4953 0.0996 0 8
-20.8727 -13.6440 -2.4953 0.0996 0 8
-20.6505 -13.9781 -2.4953 0.0996 0 8
-20.4230 -14.3084 -2.4953 0.0996 0 8
-20.1902 -14.6351 -2.4953 0.0996 0 8
-19.9521 -14.9580 -2.4953 0.0996 0 8
-19.7089 -15.2770 -2.4953 0.0996 0 8
-19.4606 -15.5921 -2.4953 0.0996 0 8
-19.2073 -15.9031 -2.4953 0.0996 0 8
-18.9490 -16.2101 -2.4953 0.0996 0 8
-18.6858 -16.5128 -2.4953 0.0996 0 8
-18.4177 -16.8112 -2.4953 0.0996 0 8
-18.1449 -17.1053 -2.4953 0.0996 0 8
-17.8674 -17.3950 -2.4953 0.0996 0 8
-17.5852 -17.6802 -2.4953 0.0996 0 8
-17.2986 -17.9608 -2.4953 0.0996 0 8
-17.0074 -18.2367 -2.4953 0.0996 0 8
-16.7118 -18.5079 -2.4953 0.0996 0 8
-16.4120 -18.7744 -2.4953 0.0996 0 8
-16.1078 -19.0359 -2.4953 0.0996 0 8
-15.7995 -19.2926 -2.4953 0.0996 0 8
-15.4871 -19.5443 -2.4953 0.0996 0 8
-15.1707 -19.7908 -2.4953 0.0996 0 8
-14.8504 -20.0323 -2.4953 0.0996 0 8
-14.5262 -20.2686 -2.4953 0.0996 0 8
-14.1983 -20.4997 -2.4953 0.0996 0 8
-13.8667 -20.7254 -2.4953 0.0996 0 8
-13.5315 -20.9458 -2.4953 0.0996 0 8
-13.1928 -21.1608 -2.4953 0.0996 0 8
-12.8507 -21.3703 -2.4953 0.0996 0 8
-12.5053 -21.5742 -2.4953 0.0996 0 8
-12.1566 -21.7726 -2.4953 0.0996 0 8
-11.8048 -21.9653 -2.4953 0.0996 0 8
-11.4499 -22.1524 -2.4953 0.0996 0 8
-11.0921 -22.3337 -2.4953 0.0996 0 8
-10.7314 -22.5093 -2.4953 0.0996 0 8
-10.3679 -22.6790 -2.4953 0.0996 0 8
-10.0017 -22.8428 -2.4953 0.0996 0 8
-9.6330 -23.0007 -2.4953 0.0996 0 8
-9.2617 -23.1527 -2.4953 0.0996 0 8
-8.8881 -23.2987 -2.4953 0.0996 0 8
-8.5122 -23.4387 -2.4953 0.0996 0 8
-8.1340 -23.5726 -2.4953 0.0996 0 8
-7.7538 -23.7004 -2.4953 0.0996 0 8
-7.3715 -23.8220 -2.4953 0.0996 0 8
-6.9874 -23.9375 -2.4953 0.0996 0 8
-6.6014 -24.0468 -2.4953 0.0996 0 8
-6.2137 -24.1499 -2.4953 0.0996 0 8
-5.8244 -24.2468 -2.4953 0.0996 0 8
-5.4336 -24.3373 -2.4953 0.0996 0 8
-5.0414 -24.4216 -2.4953 0.0996 0 8
-4.6479 -24.4995 -2.4953 0.0996 0 8
-4.2532 -24.5711 -2.4953 0.0996 0 8
-3.8574 -24.6363 -2.4953 0.0996 0 8
-3.4606 -24.6952 -2.4953 0.0996 0 8
-3.0629 -24.7477 -2.4953 0.0996 0 8
-2.6644 -24.7937 -2.4953 0.0996 0 8
-2.2652 -24.8334 -2.4953 0.0996 0 8
-1.8654 -24.8666 -2.4953 0.0996 0 8
-1.4652 -24.8934 -2.4953 0.0996 0 8
-1.0646 -24.9138 -2.4953 0.0996 0 8
-0.6636 -24.9277 -2.4953 0.0996 0 8
-0.2626 -24.9351 -2.4953 0.0996 0 8
0.1386 -24.9361 -2.4953 0.0996 0 8
0.5397 -24.9307 -2.4953 0.0996 0 8
0.9407 -24.9188 -2.4953 0.0996 0 8
1.3414 -24.9004 -2.4953 0.0996 0 8
1.7418 -24.8756 -2.4953 0.0996 0 8
2.1417 -24.8444 -2.4953 0.0996 0 8
2.5411 -24.8067 -2.4953 0.0996 0 8
2.9398 -24.7626 -2.4953 0.0996 0 8
3.3378 -24.7121 -2.4953 0.0996 0 8
3.7349 -24.6553 -2.4953 0.0996 0 8
4.1310 -24.5919 -2.4953 0.0996 0 8
4.5261 -24.5223 -2.4953 0.0996 0 8
4.9200 -24.4463 -2.4953 0.0996 0 8
5.3126 -24.3640 -2.4953 0.0996 0 8
5.7038 -24.2754 -2.4953 0.0996 0 8
6.0936 -24.1805 -2.4953 0.0996 0 8
6.4818 -24.0794 -2.4953 0.0996 0 8
6.8683 -23.9720 -2.4953 0.0996 0 8
7.2530 -23.8584 -2.4953 0.0996 0 8
7.6359 -23.7386 -2.4953 0.0996 0 8
8.0167 -23.6127 -2.4953 0.0996 0 8
8.3955 -23.4807 -2.4953 0.0996 0 8
8.7722 -23.3426 -2.4953 0.0996 0 8
9.1465 -23.1985 -2.4953 0.0996 0 8
9.5185 -23.0484 -2.4953 0.0996 0 8
9.8881 -22.8923 -2.4953 0.0996 0 8
10.2550 -22.7302 -2.4953 0.0996 0 8
10.6193 -22.5623 -2.4953 0.0996 0 8
10.9809 -22.3886 -2.4953 0.0996 0 8
11.3397 -22.2090 -2.4953 0.0996 0 8
11.6954 -22.0238 -2.4953 0.0996 0 8
12.0482 -21.8328 -2.4953 0.0996 0 8
12.3979 -21.6361 -2.4953 0.0996 0 8
12.7443 -21.4339 -2.4953 0.0996 0 8
13.0875 -21.2261 -2.4953 0.0996 0 8
13.4272 -21.0128 -2.4953 0.0996 0 8
13.7635 -20.7941 -2.4953 0.0996 0 8
14.0962 -20.5700 -2.4953 0.0996 0 8
14.4253 -20.3406 -2.4953 0.0996 0 8
14.7506 -20.1059 -2.4953 0.0996 0 8
15.0721 -19.8660 -2.4953 0.0996 0 8
15.3898 -19.6210 -2.4953 0.0996 0 8
15.7034 -19.3709 -2.4953 0.0996 0 8
16.0130 -19.1158 -2.4953 0.0996 0 8
16.3184 -18.8557 -2.4953 0.0996 0 8
16.6196 -18.5908 -2.4953 0.0996 0 8
16.9165 -18.3210 -2.4953 0.0996 0 8
17.2091 -18.0465 -2.4953 0.0996 0 8
17.4971 -17.7674 -2.4953 0.0996 0 8
17.7807 -17.4836 -2.4953 0.0996 0 8
18.0596 -17.1953 -2.4953 0.0996 0 8
18.3339 -16.9026 -2.4953 0.0996 0 8
18.6034 -16.6055 -2.4953 0.0996 0 8
18.8681 -16.3041 -2.4953 0.0996 0 8
19.1280 -15.9984 -2.4953 0.0996 0 8
19.3829 -15.6886 -2.4953 0.0996 0 8
19.6327 -15.3748 -2.4953 0.0996 0 8
19.8775 -15.0570 -2.4953 0.0996 0 8
20.1171 -14.7353 -2.4953 0.0996 0 8
20.3516 -14.4098 -2.4953 0.0996 0 8
20.5807 -14.0806 -2.4953 0.0996 0 8
20.8046 -13.7477 -2.4953 0.0996 0 8
21.0230 -13.4112 -2.4953 0.0996 0 8
21.2360 -13.0713 -2.4953 0.0996 0 8
21.4436 -12.7280 -2.4953 0.0996 0 8
21.6456 -12.3814 -2.4953 0.0996 0 8
21.8419 -12.0316 -2.4953 0.0996 0 8
22.0326 -11.6787 -2.4953 0.0996 0 8
22.2177 -11.3227 -2.4953 0.0996 0 8
22.3969 -10.9639 -2.4953 0.0996 0 8
22.5704 -10.6022 -2.4953 0.0996 0 8
22.7380 -10.2377 -2.4953 0.0996 0 8
22.8998 -9.8706 -2.4953 0.0996 0 8
23.0556 -9.5010 -2.4953 0.0996 0 8
23.2054 -9.1289 -2.4953 0.0996 0 8
23.3493 -8.7544 -2.4953 0.0996 0 8
23.4871 -8.3777 -2.4953 0.0996 0 8
23.6188 -7.9988 -2.4953 0.0996 0 8
23.7444 -7.6178 -2.4953 0.0996 0 8
23.8639 -7.2348 -2.4953 0.0996 0 8
23.9772 -6.8500 -2.4953 0.0996 0 8
24.0843 -6.4634 -2.4953 0.0996 0 8
24.1852 -6.0752 -2.4953 0.0996 0 8
24.2797 -5.6853 -2.4953 0.0996 0 8
24.3681 -5.2940 -2.4953 0.0996 0 8
24.4501 -4.9014 -2.4953 0.0996 0 8
24.5257 -4.5074 -2.4953 0.0996 0 8
24.5951 -4.1123 -2.4953 0.0996 0 8
24.6581 -3.7161 -2.4953 0.0996 0 8
24.7146 -3.3190 -2.4953 0.0996 0 8
24.7648 -2.9210 -2.4953 0.0996 0 8
24.8086 -2.5222 -2.4953 0.0996 0 8
24.8460 -2.1228 -2.4953 0.0996 0 8
24.8769 -1.7229 -2.4953 0.0996 0 8
24.9014 -1.3225 -2.4953 0.0996 0 8
24.9195 -0.9217 -2.4953 0.0996 0 8
24.9311 -0.5207 -2.4953 0.0996 0 8
10.0962 -0.0484 -1.0103 0.0217 25 10
24.9349 0.2815 -2.4953 0.0996 0 8
24.9272 0.6826 -2.4953 0.0996 0 8
24.9130 1.0835 -2.4953 0.0996 0 8
24.8923 1.4841 -2.4953 0.0996 0 8
24.8652 1.8844 -2.4953 0.0996 0 8
24.8317 2.2841 -2.4953 0.0996 0 8
24.7917 2.6833 -2.4953 0.0996 0 8
24.7453 3.0817 -2.4953 0.0996 0 8
24.6926 3.4794 -2.4953 0.0996 0 8
24.6334 3.8761 -2.4953 0.0996 0 8
24.5679 4.2719 -2.4953 0.0996 0 8
24.4960 4.6666 -2.4953 0.0996 0 8
24.4177 5.0600 -2.4953 0.0996 0 8
24.3331 5.4521 -2.4953 0.0996 0 8
24.2423 5.8429 -2.4953 0.0996 0 8
24.1452 6.2321 -2.4953 0.0996 0 8
24.0418 6.6197 -2.4953 0.0996 0 8
23.9322 7.0056 -2.4953 0.0996 0 8
23.8164 7.3897 -2.4953 0.0996 0 8
23.6945 7.7718 -2.4953 0.0996 0 8
23.5664 8.1520 -2.4953 0.0996 0 8
24.8633 9.0510 -2.6477 0.0996 0 7
24.7145 9.4498 -2.6477 0.0996 0 7
24.5593 9.8461 -2.6477 0.0996 0 7
24.3977 10.2399 -2.6477 0.0996 0 7
24.2299 10.6310 -2.6477 0.0996 0 7
24.0557 11.0194 -2.6477 0.0996 0 7
23.8753 11.4050 -2.6477 0.0996 0 7
23.6888 11.7876 -2.6477 0.0996 0 7
23.4961 12.1671 -2.6477 0.0996 0 7
23.2973 12.5435 -2.6477 0.0996 0 7
23.0926 12.9167 -2.6477 0.0996 0 7
22.8818 13.2865 -2.6477 0.0996 0 7
22.6651 13.6528 -2.6477 0.0996 0 7
22.4425 14.0157 -2.6477 0.0996 0 7
22.2142 14.3749 -2.6477 0.0996 0 7
21.9801 14.7304 -2.6477 0.0996 0 7
21.7403 15.0820 -2.6477 0.0996 0 7
21.4948 15.4298 -2.6477 0.0996 0 7
21.2438 15.7736 -2.6477 0.0996 0 7
20.9873 16.1133 -2.6477 0.0996 0 7
20.7254 16.4488 -2.6477 0.0996 0 7
20.4581 16.7800 -2.6477 0.0996 0 7
20.1856 17.1070 -2.6477 0.0996 0 7
19.9078 17.4295 -2.6477 0.0996 0 7
-21.3130 -8.6592 -2.4953 0.1078 0 8
-21.1710 -9.0009 -2.4953 0.1078 0 8
-21.0235 -9.3403 -2.4953 0.1078 0 8
-20.8705 -9.6773 -2.4953 0.1078 0 8
-20.7121 -10.0118 -2.4953 0.1078 0 8
-20.5484 -10.3437 -2.4953 0.1078 0 8
-20.3793 -10.6729 -2.4953 0.1078 0 8
-20.2050 -10.9993 -2.4953 0.1078 0 8
-20.0255 -11.3229 -2.4953 0.1078 0 8
-19.8407 -11.6436 -2.4953 0.1078 0 8
-19.6509 -11.9613 -2.4953 0.1078 0 8
-19.4559 -12.2758 -2.4953 0.1078 0 8
-19.2559 -12.5872 -2.4953 0.1078 0 8
-19.0509 -12.8953 -2.4953 0.1078 0 8
-18.8410 -13.2001 -2.4953 0.1078 0 8
-18.6263 -13.5015 -2.4953 0.1078 0 8
-18.4067 -13.7994 -2.4953 0.1078 0 8
-18.1823 -14.0937 -2.4953 0.1078 0 8
-17.9532 -14.3844 -2.4953 0.1078 0 8
-17.7195 -14.6713 -2.4953 0.1078 0 8
-17.4812 -14.9544 -2.4953 0.1078 0 8
-17.2384 -15.2337 -2.4953 0.1078 0 8
-16.9911 -15.5091 -2.4953 0.1078 0 8
-16.7394 -15.7804 -2.4953 0.1078 0 8
-16.4834 -16.0476 -2.4953 0.1078 0 8
-16.2231 -16.3107 -2.4953 0.1078 0 8
-15.9586 -16.5696 -2.4953 0.1078 0 8
-15.6900 -16.8241 -2.4953 0.1078 0 8
-15.4174 -17.0743 -2.4953 0.1078 0 8
-15.1407 -17.3201 -2.4953 0.1078 0 8
-14.8601 -17.5615 -2.4953 0.1078 0 8
-14.5757 -17.7982 -2.4953 0.1078 0 8
-14.2875 -18.0304 -2.4953 0.1078 0 8
-13.9956 -18.2579 -2.4953 0.1078 0 8
-13.7001 -18.4807 -2.4953 0.1078 0 8
-13.4011 -18.6987 -2.4953 0.1078 0 8
-13.0985 -18.9118 -2.4953 0.1078 0 8
-12.7926 -19.1201 -2.4953 0.1078 0 8
-12.4834 -19.3234 -2.4953 0.1078 0 8
-12.1709 -19.5217 -2.4953 0.1078 0 8
-11.8553 -19.7150 -2.4953 0.1078 0 8
-11.5366 -19.9031 -2.4953 0.1078 0 8
-11.2150 -20.0861 -2.4953 0.1078 0 8
-10.8904 -20.2639 -2.4953 0.1078 0 8
-10.5630 -20.4365 -2.4953 0.1078 0 8
-10.2329 -20.6038 -2.4953 0.1078 0 8
-9.9001 -20.7657 -2.4953 0.1078 0 8
-9.5648 -20.9223 -2.4953 0.1078 0 8
-9.2270 -21.0734 -2.4953 0.1078 0 8
-8.8868 -21.2191 -2.4953 0.1078 0 8
-8.5443 -21.3594 -2.4953 0.1078 0 8
-8.1996 -21.4940 -2.4953 0.1078 0 8
-7.8528 -21.6232 -2.4953 0.1078 0 8
-7.5040 -21.7467 -2.4953 0.1078 0 8
-7.1532 -21.8646 -2.4953 0.1078 0 8
-6.8005 -21.9768 -2.4953 0.1078 0 8
-6.4461 -22.0834 -2.4953 0.1078 0 8
-6.0901 -22.1842 -2.4953 0.1078 0 8
-5.7324 -22.2793 -2.4953 0.1078 0 8
-5.3733 -22.3686 -2.4953 0.1078 0 8
-5.0128 -22.4522 -2.4953 0.1078 0 8
-4.6509 -22.5299 -2.4953 0.1078 0 8
-4.2879 -22.6018 -2.4953 0.1078 0 8
-3.9238 -22.6679 -2.4953 0.1078 0 8
-3.5586 -22.7280 -2.4953 0.1078 0 8
-3.1925 -22.7824 -2.4953 0.1078 0 8
-2.8256 -22.8308 -2.4953 0.1078 0 8
-2.4580 -22.8733 -2.4953 0.1078 0 8
-2.0898 -22.9098 -2.4953 0.1078 0 8
-1.7209 -22.9405 -2.4953 0.1078 0 8
-1.3517 -22.9652 -2.4953 0.1078 0 8
-0.9821 -22.9840 -2.4953 0.1078 0 8
-0.6122 -22.9968 -2.4953 0.1078 0 8
-0.2422 -23.0037 -2.4953 0.1078 0 8
0.1279 -23.0046 -2.4953 0.1078 0 8
0.4979 -22.9996 -2.4953 0.1078 0 8
0.8678 -22.9886 -2.4953 0.1078 0 8
1.2375 -22.9716 -2.4953 0.1078 0 8
1.6069 -22.9488 -2.4953 0.1078 0 8
1.9758 -22.9200 -2.4953 0.1078 0 8
2.3443 -22.8852 -2.4953 0.1078 0 8
2.7121 -22.8445 -2.4953 0.1078 0 8
3.0792 -22.7979 -2.4953 0.1078 0 8
3.4456 -22.7455 -2.4953 0.1078 0 8
3.8110 -22.6871 -2.4953 0.1078 0 8
4.1755 -22.6229 -2.4953 0.1078 0 8
4.5389 -22.5528 -2.4953 0.1078 0 8
4.9011 -22.4768 -2.4953 0.1078 0 8
5.2620 -22.3951 -2.4953 0.1078 0 8
5.6216 -22.3075 -2.4953 0.1078 0 8
5.9797 -22.2142 -2.4953 0.1078 0 8
6.3363 -22.1151 -2.4953 0.1078 0 8
6.6912 -22.0104 -2.4953 0.1078 0 8
7.0444 -21.8999 -2.4953 0.1078 0 8
7.3958 -21.7837 -2.4953 0.1078 0 8
7.7452 -21.6619 -2.4953 0.1078 0 8
8.0927 -21.5345 -2.4953 0.1078 0 8
8.4381 -21.4016 -2.4953 0.1078 0 8
8.7812 -21.2631 -2.4953 0.1078 0 8
9.1221 -21.1191 -2.4953 0.1078 0 8
9.4607 -20.9696 -2.4953 0.1078 0 8
9.7968 -20.8147 -2.4953 0.1078 0 8
10.1304 -20.6544 -2.4953 0.1078 0 8
10.4613 -20.4888 -2.4953 0.1078 0 8
10.7895 -20.3178 -2.4953 0.1078 0 8
11.1150 -20.1416 -2.4953 0.1078 0 8
11.4376 -19.9602 -2.4953 0.1078 0 8
11.7572 -19.7736 -2.4953 0.1078 0 8
12.0737 -19.5820 -2.4953 0.1078 0 8
12.3872 -19.3852 -2.4953 0.1078 0 8
12.6974 -19.1834 -2.4953 0.1078 0 8
13.0043 -18.9767 -2.4953 0.1078 0 8
13.3079 -18.7651 -2.4953 0.1078 0 8
13.6081 -18.5485 -2.4953 0.1078 0 8
13.9047 -18.3272 -2.4953 0.1078 0 8
14.1977 -18.1012 -2.4953 0.1078 0 8
14.4870 -17.8705 -2.4953 0.1078 0 8
14.7726 -17.6351 -2.4953 0.1078 0 8
15.0544 -17.3952 -2.4953 0.1078 0 8
15.3323 -17.1508 -2.4953 0.1078 0 8
15.6062 -16.9019 -2.4953 0.1078 0 8
15.8761 -16.6487 -2.4953 0.1078 0 8
16.1418 -16.3911 -2.4953 0.1078 0 8
16.4034 -16.1293 -2.4953 0.1078 0 8
16.6608 -15.8634 -2.4953 0.1078 0 8
16.9136 -15.5907 -2.4953 0.1078 0 8
17.1624 -15.3192 -2.4953 0.1078 0 8
17.4066 -15.0412 -2.4953 0.1078 0 8
17.6464 -14.7592 -2.4953 0.1078 0 8
17.8815 -14.4734 -2.4953 0.1078 0 8
18.1120 -14.1839 -2.4953 0.1078 0 8
18.3378 -13.8907 -2.4953 0.1078 0 8
18.5589 -13.5939 -2.4953 0.1078 0 8
18.7752 -13.2936 -2.4953 0.1078 0 8
18.9866 -12.9899 -2.4953 0.1078 0 8
19.1931 -12.6828 -2.4953 0.1078 0 8
19.3946 -12.3724 -2.4953 0.1078 0 8
19.5911 -12.0588 -2.4953 0.1078 0 8
19.7826 -11.7421 -2.4953 0.1078 0 8
19.9689 -11.4224 -2.4953 0.1078 0 8
20.1501 -11.0996 -2.4953 0.1078 0 8
20.3260 -10.7741 -2.4953 0.1078 0 8
20.4967 -10.4457 -2.4953 0.1078 0 8
20.6621 -10.1146 -2.4953 0.1078 0 8
20.8221 -9.7809 -2.4953 0.1078 0 8
20.9768 -9.4447 -2.4953 0.1078 0 8
21.1260 -9.1061 -2.4953 0.1078 0 8
21.2697 -8.7650 -2.4953 0.1078 0 8
21.4080 -8.4218 -2.4953 0.1078 0 8
21.5407 -8.0763 -2.4953 0.1078 0 8
21.6678 -7.7287 -2.4953 0.1078 0 8
21.7893 -7.3792 -2.4953 0.1078 0 8
21.9052 -7.0277 -2.4953 0.1078 0 8
22.0154 -6.6744 -2.4953 0.1078 0 8
22.1200 -6.3194 -2.4953 0.1078 0 8
22.2188 -5.9628 -2.4953 0.1078 0 8
22.3118 -5.6046 -2.4953 0.1078 0 8
22.3991 -5.2450 -2.4953 0.1078 0 8
22.4805 -4.8840 -2.4953 0.1078 0 8
22.5562 -4.5217 -2.4953 0.1078 0 8
22.6260 -4.1583 -2.4953 0.1078 0 8
22.6900 -3.7938 -2.4953 0.1078 0 8
22.7481 -3.4283 -2.4953 0.1078 0 8
22.8003 -3.0619 -2.4953 0.1078 0 8
22.8466 -2.6947 -2.4953 0.1078 0 8
22.8870 -2.3269 -2.4953 0.1078 0 8
22.9214 -1.9584 -2.4953 0.1078 0 8
22.9500 -1.5894 -2.4953 0.1078 0 8
9.5297 -0.5061 -1.0351 0.1398 25 10
9.4060 -0.3479 -1.0209 0.1465 25 10
9.3029 -0.1943 -1.0093 0.1524 25 10
9.2500 -0.0444 -1.0033 0.1569 25 10
9.2721 0.1047 -1.0058 0.1529 25 10
9.3299 0.2555 -1.0124 0.1477 25 10
9.4579 0.4113 -1.0268 0.1409 25 10
9.6955 0.5781 -1.0535 0.1079 25 10
22.9392 1.7384 -2.4953 0.1078 0 8
22.9082 2.1072 -2.4953 0.1078 0 8
22.8714 2.4754 -2.4953 0.1078 0 8
22.8286 2.8430 -2.4953 0.1078 0 8
22.7799 3.2099 -2.4953 0.1078 0 8
22.7253 3.5759 -2.4953 0.1078 0 8
22.6649 3.9410 -2.4953 0.1078 0 8
22.5985 4.3051 -2.4953 0.1078 0 8
22.5264 4.6681 -2.4953 0.1078 0 8
22.4484 5.0298 -2.4953 0.1078 0 8
22.3645 5.3903 -2.4953 0.1078 0 8
22.2749 5.7494 -2.4953 0.1078 0 8
22.1796 6.1069 -2.4953 0.1078 0 8
22.0785 6.4629 -2.4953 0.1078 0 8
21.9716 6.8173 -2.4953 0.1078 0 8
21.8591 7.1698 -2.4953 0.1078 0 8
21.7410 7.5205 -2.4953 0.1078 0 8
21.6172 7.8693 -2.4953 0.1078 0 8
21.4878 8.2160 -2.4953 0.1078 0 8
22.6570 9.0834 -2.6477 0.1078 0 7
22.5079 9.4467 -2.6477 0.1078 0 7
22.3531 9.8076 -2.6477 0.1078 0 7
22.1924 10.1659 -2.6477 0.1078 0 7
22.0260 10.5216 -2.6477 0.1078 0 7
21.8539 10.8745 -2.6477 0.1078 0 7
21.6761 11.2247 -2.6477 0.1078 0 7
21.4928 11.5719 -2.6477 0.1078 0 7
21.3038 11.9162 -2.6477 0.1078 0 7
21.1094 12.2573 -2.6477 0.1078 0 7
20.9095 12.5953 -2.6477 0.1078 0 7
20.7042 12.9300 -2.6477 0.1078 0 7
20.4935 13.2614 -2.6477 0.1078 0 7
20.2775 13.5894 -2.6477 0.1078 0 7
20.0563 13.9138 -2.6477 0.1078 0 7
19.8299 14.2346 -2.6477 0.1078 0 7
19.5983 14.5518 -2.6477 0.1078 0 7
19.3617 14.8651 -2.6477 0.1078 0 7
19.1201 15.1747 -2.6477 0.1078 0 7
18.8735 15.4803 -2.6477 0.1078 0 7
18.6220 15.7819 -2.6477 0.1078 0 7
18.3657 16.0794 -2.6477 0.1078 0 7
-19.7783 -8.0357 -2.4953 0.1161 0 8
-19.6465 -8.3528 -2.4953 0.1161 0 8
-19.5096 -8.6677 -2.4953 0.1161 0 8
-19.3676 -8.9805 -2.4953 0.1161 0 8
-19.2207 -9.2909 -2.4953 0.1161 0 8
-19.0687 -9.5988 -2.4953 0.1161 0 8
-18.9119 -9.9043 -2.4953 0.1161 0 8
-18.7501 -10.2073 -2.4953 0.1161 0 8
-18.5835 -10.5076 -2.4953 0.1161 0 8
-18.4120 -10.8052 -2.4953 0.1161 0 8
-18.2358 -11.1000 -2.4953 0.1161 0 8
-18.0549 -11.3919 -2.4953 0.1161 0 8
-17.8693 -11.6808 -2.4953 0.1161 0 8
-17.6791 -11.9668 -2.4953 0.1161 0 8
-17.4843 -12.2496 -2.4953 0.1161 0 8
-17.2850 -12.5293 -2.4953 0.1161 0 8
-17.0812 -12.8057 -2.4953 0.1161 0 8
-16.8730 -13.0788 -2.4953 0.1161 0 8
-16.6604 -13.3486 -2.4953 0.1161 0 8
-16.4436 -13.6148 -2.4953 0.1161 0 8
-16.2224 -13.8776 -2.4953 0.1161 0 8
-15.9971 -14.1368 -2.4953 0.1161 0 8
-15.7676 -14.3923 -2.4953 0.1161 0 8
-15.5340 -14.6440 -2.4953 0.1161 0 8
-15.2965 -14.8920 -2.4953 0.1161 0 8
-15.0549 -15.1362 -2.4953 0.1161 0 8
-14.8095 -15.3764 -2.4953 0.1161 0 8
-14.5602 -15.6126 -2.4953 0.1161 0 8
-14.3072 -15.8448 -2.4953 0.1161 0 8
-14.0504 -16.0729 -2.4953 0.1161 0 8
-13.7901 -16.2969 -2.4953 0.1161 0 8
-13.5261 -16.5166 -2.4953 0.1161 0 8
-13.2587 -16.7320 -2.4953 0.1161 0 8
-12.9878 -16.9432 -2.4953 0.1161 0 8
-12.7136 -17.1499 -2.4953 0.1161 0 8
-12.4361 -17.3522 -2.4953 0.1161 0 8
-12.1553 -17.5500 -2.4953 0.1161 0 8
-11.8714 -17.7433 -2.4953 0.1161 0 8
-11.5845 -17.9319 -2.4953 0.1161 0 8
-11.2945 -18.1160 -2.4953 0.1161 0 8
-11.0016 -18.2953 -2.4953 0.1161 0 8
-10.7059 -18.4699 -2.4953 0.1161 0 8
-10.4074 -18.6397 -2.4953 0.1161 0 8
-10.1062 -18.8048 -2.4953 0.1161 0 8
-9.8024 -18.9649 -2.4953 0.1161 0 8
-9.4960 -19.1201 -2.4953 0.1161 0 8
-9.1872 -19.2704 -2.4953 0.1161 0 8
-8.8761 -19.4157 -2.4953 0.1161 0 8
-8.5626 -19.5560 -2.4953 0.1161 0 8
-8.2469 -19.6912 -2.4953 0.1161 0 8
-7.9291 -19.8213 -2.4953 0.1161 0 8
-7.6092 -19.9463 -2.4953 0.1161 0 8
-7.2874 -20.0661 -2.4953 0.1161 0 8
-6.9636 -20.1807 -2.4953 0.1161 0 8
-6.6381 -20.2901 -2.4953 0.1161 0 8
-6.3108 -20.3943 -2.4953 0.1161 0 8
-5.9820 -20.4932 -2.4953 0.1161 0 8
-5.6515 -20.5868 -2.4953 0.1161 0 8
-5.3196 -20.6750 -2.4953 0.1161 0 8
-4.9863 -20.7579 -2.4953 0.1161 0 8
-4.6518 -20.8354 -2.4953 0.1161 0 8
-4.3160 -20.9076 -2.4953 0.1161 0 8
-3.9791 -20.9743 -2.4953 0.1161 0 8
-3.6412 -21.0356 -2.4953 0.1161 0 8
-3.3024 -21.0914 -2.4953 0.1161 0 8
-2.9626 -21.1418 -2.4953 0.1161 0 8
-2.6222 -21.1868 -2.4953 0.1161 0 8
-2.2810 -21.2262 -2.4953 0.1161 0 8
-1.9393 -21.2601 -2.4953 0.1161 0 8
-1.5970 -21.2886 -2.4953 0.1161 0 8
-1.2544 -21.3115 -2.4953 0.1161 0 8
-0.9114 -21.3289 -2.4953 0.1161 0 8
-0.5681 -21.3408 -2.4953 0.1161 0 8
-0.2248 -21.3472 -2.4953 0.1161 0 8
0.1186 -21.3481 -2.4953 0.1161 0 8
0.4620 -21.3434 -2.4953 0.1161 0 8
0.8053 -21.3332 -2.4953 0.1161 0 8
1.1484 -21.3175 -2.4953 0.1161 0 8
1.4912 -21.2963 -2.4953 0.1161 0 8
1.8336 -21.2695 -2.4953 0.1161 0 8
2.1755 -21.2373 -2.4953 0.1161 0 8
2.5168 -21.1995 -2.4953 0.1161 0 8
2.8575 -21.1563 -2.4953 0.1161 0 8
3.1975 -21.1076 -2.4953 0.1161 0 8
3.5366 -21.0534 -2.4953 0.1161 0 8
3.8748 -20.9938 -2.4953 0.1161 0 8
4.2120 -20.9288 -2.4953 0.1161 0 8
4.5481 -20.8583 -2.4953 0.1161 0 8
4.8831 -20.7824 -2.4953 0.1161 0 8
5.2168 -20.7012 -2.4953 0.1161 0 8
5.5491 -20.6146 -2.4953 0.1161 0 8
5.8800 -20.5227 -2.4953 0.1161 0 8
6.2094 -20.4254 -2.4953 0.1161 0 8
6.5371 -20.3229 -2.4953 0.1161 0 8
6.8632 -20.2151 -2.4953 0.1161 0 8
7.1875 -20.1021 -2.4953 0.1161 0 8
7.5100 -19.9839 -2.4953 0.1161 0 8
7.8304 -19.8605 -2.4953 0.1161 0 8
8.1489 -19.7319 -2.4953 0.1161 0 8
8.4653 -19.5983 -2.4953 0.1161 0 8
8.7794 -19.4596 -2.4953 0.1161 0 8
9.0913 -19.3158 -2.4953 0.1161 0 8
9.4009 -19.1671 -2.4953 0.1161 0 8
9.7080 -19.0136 -2.4953 0.1161 0 8
10.0126 -18.8548 -2.4953 0.1161 0 8
10.3146 -18.6913 -2.4953 0.1161 0 8
10.6139 -18.5229 -2.4953 0.1161 0 8
10.9105 -18.3498 -2.4953 0.1161 0 8
11.2043 -18.1719 -2.4953 0.1161 0 8
11.4952 -17.9893 -2.4953 0.1161 0 8
11.7831 -17.8021 -2.4953 0.1161 0 8
12.0679 -17.6102 -2.4953 0.1161 0 8
12.3496 -17.4138 -2.4953 0.1161 0 8
12.6282 -17.2129 -2.4953 0.1161 0 8
12.9034 -17.0075 -2.4953 0.1161 0 8
13.1753 -16.7978 -2.4953 0.1161 0 8
13.4438 -16.5836 -2.4953 0.1161 0 8
13.7089 -16.3652 -2.4953 0.1161 0 8
13.9704 -16.1426 -2.4953 0.1161 0 8
14.2282 -15.9158 -2.4953 0.1161 0 8
14.4824 -15.6848 -2.4953 0.1161 0 8
14.7329 -15.4498 -2.4953 0.1161 0 8
14.9795 -15.2108 -2.4953 0.1161 0 8
15.2222 -14.9679 -2.4953 0.1161 0 8
15.4610 -14.7211 -2.4953 0.1161 0 8
15.6958 -14.4705 -2.4953 0.1161 0 8
15.9266 -14.2161 -2.4953 0.1161 0 8
16.1532 -13.9581 -2.4953 0.1161 0 8
16.3757 -13.6964 -2.4953 0.1161 0 8
16.5939 -13.4312 -2.4953 0.1161 0 8
16.8078 -13.1626 -2.4953 0.1161 0 8
17.0173 -12.8905 -2.4953 0.1161 0 8
17.2225 -12.6151 -2.4953 0.1161 0 8
17.4232 -12.3364 -2.4953 0.1161 0 8
17.6194 -12.0545 -2.4953 0.1161 0 8
17.8110 -11.7695 -2.4953 0.1161 0 8
17.9980 -11.4815 -2.4953 0.1161 0 8
18.1804 -11.1905 -2.4953 0.1161 0 8
18.3581 -10.8966 -2.4953 0.1161 0 8
18.5310 -10.5998 -2.4953 0.1161 0 8
18.6991 -10.3004 -2.4953 0.1161 0 8
18.8624 -9.9982 -2.4953 0.1161 0 8
19.0208 -9.6935 -2.4953 0.1161 0 8
19.1742 -9.3863 -2.4953 0.1161 0 8
19.3228 -9.0766 -2.4953 0.1161 0 8
19.4663 -8.7646 -2.4953 0.1161 0 8
19.6047 -8.4503 -2.4953 0.1161 0 8
19.7381 -8.1339 -2.4953 0.1161 0 8
19.8664 -7.8153 -2.4953 0.1161 0 8
19.9896 -7.4947 -2.4953 0.1161 0 8
20.1076 -7.1722 -2.4953 0.1161 0 8
20.2203 -6.8478 -2.4953 0.1161 0 8
20.3279 -6.5217 -2.4953 0.1161 0 8
20.4301 -6.1938 -2.4953 0.1161 0 8
20.5271 -5.8644 -2.4953 0.1161 0 8
20.6188 -5.5334 -2.4953 0.1161 0 8
20.7052 -5.2010 -2.4953 0.1161 0 8
20.7861 -4.8673 -2.4953 0.1161 0 8
20.8618 -4.5323 -2.4953 0.1161 0 8
20.9320 -4.1961 -2.4953 0.1161 0 8
20.9967 -3.8588 -2.4953 0.1161 0 8
21.0561 -3.5206 -2.4953 0.1161 0 8
21.1100 -3.1814 -2.4953 0.1161 0 8
21.1585 -2.8414 -2.4953 0.1161 0 8
21.2014 -2.5007 -2.4953 0.1161 0 8
21.2389 -2.1593 -2.4953 0.1161 0 8
21.2709 -1.8174 -2.4953 0.1161 0 8
21.2974 -1.4750 -2.4953 0.1161 0 8
9.0460 -0.4804 -1.0588 0.3108 25 10
8.9942 -0.3327 -1.0520 0.3128 25 10
8.9551 -0.1870 -1.0469 0.3212 25 10
8.9334 -0.0429 -1.0442 0.3185 25 10
8.9422 0.1010 -1.0453 0.3181 25 10
8.9649 0.2455 -1.0482 0.3208 25 10
9.0151 0.3921 -1.0547 0.3120 25 10
9.0759 0.5411 -1.0627 0.2683 25 10
21.2874 1.6132 -2.4953 0.1161 0 8
21.2587 1.9554 -2.4953 0.1161 0 8
21.2244 2.2972 -2.4953 0.1161 0 8
21.1847 2.6383 -2.4953 0.1161 0 8
21.1396 2.9787 -2.4953 0.1161 0 8
21.0889 3.3184 -2.4953 0.1161 0 8
21.0328 3.6572 -2.4953 0.1161 0 8
20.9713 3.9951 -2.4953 0.1161 0 8
20.9043 4.3319 -2.4953 0.1161 0 8
20.8319 4.6676 -2.4953 0.1161 0 8
20.7541 5.0022 -2.4953 0.1161 0 8
20.6709 5.3354 -2.4953 0.1161 0 8
20.5824 5.6672 -2.4953 0.1161 0 8
20.4886 5.9976 -2.4953 0.1161 0 8
20.3895 6.3264 -2.4953 0.1161 0 8
20.2851 6.6535 -2.4953 0.1161 0 8
20.1754 6.9790 -2.4953 0.1161 0 8
20.0606 7.3026 -2.4953 0.1161 0 8
19.9405 7.6244 -2.4953 0.1161 0 8
19.8153 7.9442 -2.4953 0.1161 0 8
19.6849 8.2619 -2.4953 0.1161 0 8
20.7435 9.1014 -2.6477 0.1161 0 7
20.5944 9.4339 -2.6477 0.1161 0 7
20.4399 9.7639 -2.6477 0.1161 0 7
20.2802 10.0915 -2.6477 0.1161 0 7
20.1153 10.4164 -2.6477 0.1161 0 7
19.9451 10.7386 -2.6477 0.1161 0 7
19.7698 11.0581 -2.6477 0.1161 0 7
19.5893 11.3747 -2.6477 0.1161 0 7
19.4038 11.6883 -2.6477 0.1161 0 7
19.2133 11.9990 -2.6477 0.1161 0 7
19.0178 12.3065 -2.6477 0.1161 0 7
18.8173 12.6108 -2.6477 0.1161 0 7
18.6121 12.9119 -2.6477 0.1161 0 7
18.4019 13.2096 -2.6477 0.1161 0 7
18.1871 13.5039 -2.6477 0.1161 0 7
17.9675 13.7947 -2.6477 0.1161 0 7
17.7433 14.0820 -2.6477 0.1161 0 7
17.5144 14.3656 -2.6477 0.1161 0 7
17.2811 14.6455 -2.6477 0.1161 0 7
17.0432 14.9216 -2.6477 0.1161 0 7
-18.4474 -7.4949 -2.4953 0.1243 0 8
-18.3244 -7.7907 -2.4953 0.1243 0 8
-18.1967 -8.0845 -2.4953 0.1243 0 8
-18.0643 -8.3761 -2.4953 0.1243 0 8
-17.9272 -8.6656 -2.4953 0.1243 0 8
-17.7855 -8.9529 -2.4953 0.1243 0 8
-17.6392 -9.2378 -2.4953 0.1243 0 8
-17.4883 -9.5204 -2.4953 0.1243 0 8
-17.3329 -9.8005 -2.4953 0.1243 0 8
-17.1730 -10.0781 -2.4953 0.1243 0 8
-17.0087 -10.3530 -2.4953 0.1243 0 8
-16.8399 -10.6253 -2.4953 0.1243 0 8
-16.6668 -10.8948 -2.4953 0.1243 0 8
-16.4894 -11.1615 -2.4953 0.1243 0 8
-16.3077 -11.4253 -2.4953 0.1243 0 8
-16.1218 -11.6861 -2.4953 0.1243 0 8
-15.9318 -11.9440 -2.4953 0.1243 0 8
-15.7376 -12.1987 -2.4953 0.1243 0 8
-15.5393 -12.4503 -2.4953 0.1243 0 8
-15.3370 -12.6987 -2.4953 0.1243 0 8
-15.1307 -12.9437 -2.4953 0.1243 0 8
-14.9206 -13.1855 -2.4953 0.1243 0 8
-14.7065 -13.4238 -2.4953 0.1243 0 8
-14.4887 -13.6586 -2.4953 0.1243 0 8
-14.2671 -13.8899 -2.4953 0.1243 0 8
-14.0418 -14.1176 -2.4953 0.1243 0 8
-13.8129 -14.3417 -2.4953 0.1243 0 8
-13.5804 -14.5620 -2.4953 0.1243 0 8
-13.3444 -14.7786 -2.4953 0.1243 0 8
-13.1049 -14.9913 -2.4953 0.1243 0 8
-12.8621 -15.2002 -2.4953 0.1243 0 8
-12.6159 -15.4051 -2.4953 0.1243 0 8
-12.3665 -15.6061 -2.4953 0.1243 0 8
-12.1138 -15.8030 -2.4953 0.1243 0 8
-11.8580 -15.9958 -2.4953 0.1243 0 8
-11.5992 -16.1845 -2.4953 0.1243 0 8
-11.3373 -16.3690 -2.4953 0.1243 0 8
-11.0726 -16.5493 -2.4953 0.1243 0 8
-10.8049 -16.7252 -2.4953 0.1243 0 8
-10.5345 -16.8969 -2.4953 0.1243 0 8
-10.2613 -17.0642 -2.4953 0.1243 0 8
-9.9855 -17.2270 -2.4953 0.1243 0 8
-9.7070 -17.3854 -2.4953 0.1243 0 8
-9.4261 -17.5393 -2.4953 0.1243 0 8
-9.1428 -17.6887 -2.4953 0.1243 0 8
-8.8570 -17.8335 -2.4953 0.1243 0 8
-8.5690 -17.9736 -2.4953 0.1243 0 8
-8.2788 -18.1092 -2.4953 0.1243 0 8
-7.9864 -18.2400 -2.4953 0.1243 0 8
-7.6919 -18.3661 -2.4953 0.1243 0 8
-7.3955 -18.4875 -2.4953 0.1243 0 8
-7.0972 -18.6040 -2.4953 0.1243 0 8
-6.7970 -18.7158 -2.4953 0.1243 0 8
-6.4950 -18.8227 -2.4953 0.1243 0 8
-6.1914 -18.9248 -2.4953 0.1243 0 8
-5.8862 -19.0219 -2.4953 0.1243 0 8
-5.5794 -19.1141 -2.4953 0.1243 0 8
-5.2712 -19.2014 -2.4953 0.1243 0 8
-4.9616 -19.2837 -2.4953 0.1243 0 8
-4.6508 -19.3610 -2.4953 0.1243 0 8
-4.3388 -19.4333 -2.4953 0.1243 0 8
-4.0256 -19.5006 -2.4953 0.1243 0 8
-3.7114 -19.5629 -2.4953 0.1243 0 8
-3.3962 -19.6200 -2.4953 0.1243 0 8
-3.0801 -19.6721 -2.4953 0.1243 0 8
-2.7633 -19.7191 -2.4953 0.1243 0 8
-2.4457 -19.7610 -2.4953 0.1243 0 8
-2.1275 -19.7978 -2.4953 0.1243 0 8
-1.8088 -19.8295 -2.4953 0.1243 0 8
-1.4895 -19.8560 -2.4953 0.1243 0 8
-1.1699 -19.8774 -2.4953 0.1243 0 8
-0.8500 -19.8936 -2.4953 0.1243 0 8
-0.5299 -19.9047 -2.4953 0.1243 0 8
-0.2096 -19.9107 -2.4953 0.1243 0 8
0.1107 -19.9115 -2.4953 0.1243 0 8
0.4309 -19.9071 -2.4953 0.1243 0 8
0.7511 -19.8976 -2.4953 0.1243 0 8
1.0711 -19.8830 -2.4953 0.1243 0 8
1.3908 -19.8632 -2.4953 0.1243 0 8
1.7102 -19.8382 -2.4953 0.1243 0 8
2.0291 -19.8081 -2.4953 0.1243 0 8
2.3474 -19.7729 -2.4953 0.1243 0 8
2.6652 -19.7326 -2.4953 0.1243 0 8
2.9823 -19.6872 -2.4953 0.1243 0 8
3.2986 -19.6367 -2.4953 0.1243 0 8
3.6141 -19.5811 -2.4953 0.1243 0 8
3.9286 -19.5204 -2.4953 0.1243 0 8
4.2421 -19.4547 -2.4953 0.1243 0 8
4.5545 -19.3839 -2.4953 0.1243 0 8
4.8657 -19.3081 -2.4953 0.1243 0 8
5.1757 -19.2274 -2.4953 0.1243 0 8
5.4843 -19.1416 -2.4953 0.1243 0 8
5.7915 -19.0509 -2.4953 0.1243 0 8
6.0972 -18.9553 -2.4953 0.1243 0 8
6.4014 -18.8548 -2.4953 0.1243 0 8
6.7038 -18.7493 -2.4953 0.1243 0 8
7.0046 -18.6391 -2.4953 0.1243 0 8
7.3035 -18.5240 -2.4953 0.1243 0 8
7.6005 -18.4041 -2.4953 0.1243 0 8
7.8956 -18.2795 -2.4953 0.1243 0 8
8.1886 -18.1501 -2.4953 0.1243 0 8
8.4796 -18.0160 -2.4953 0.1243 0 8
8.7683 -17.8773 -2.4953 0.1243 0 8
9.0547 -17.7339 -2.4953 0.1243 0 8
9.3388 -17.5860 -2.4953 0.1243 0 8
9.6205 -17.4335 -2.4953 0.1243 0 8
9.8997 -17.2764 -2.4953 0.1243 0 8
10.1763 -17.1150 -2.4953 0.1243 0 8
10.4503 -16.9490 -2.4953 0.1243 0 8
10.7216 -16.7787 -2.4953 0.1243 0 8
10.9902 -16.6041 -2.4953 0.1243 0 8
11.2558 -16.4252 -2.4953 0.1243 0 8
11.5186 -16.2420 -2.4953 0.1243 0 8
11.7784 -16.0546 -2.4953 0.1243 0 8
12.0351 -15.8630 -2.4953 0.1243 0 8
12.2887 -15.6674 -2.4953 0.1243 0 8
12.5392 -15.4677 -2.4953 0.1243 0 8
12.7864 -15.2640 -2.4953 0.1243 0 8
13.0303 -15.0563 -2.4953 0.1243 0 8
13.2708 -14.8447 -2.4953 0.1243 0 8
13.5078 -14.6293 -2.4953 0.1243 0 8
13.7415 -14.4109 -2.4953 0.1243 0 8
13.9715 -14.1872 -2.4953 0.1243 0 8
14.1979 -13.9607 -2.4953 0.1243 0 8
14.4206 -13.7305 -2.4953 0.1243 0 8
14.6396 -13.4967 -2.4953 0.1243 0 8
14.8548 -13.2595 -2.4953 0.1243 0 8
15.0662 -13.0188 -2.4953 0.1243 0 8
15.2737 -12.7747 -2.4953 0.1243 0 8
15.4772 -12.5274 -2.4953 0.1243 0 8
15.6767 -12.2768 -2.4953 0.1243 0 8
15.8722 -12.0230 -2.4953 0.1243 0 8
16.0635 -11.7661 -2.4953 0.1243 0 8
16.2507 -11.5062 -2.4953 0.1243 0 8
16.4337 -11.2433 -2.4953 0.1243 0 8
16.6125 -10.9775 -2.4953 0.1243 0 8
16.7869 -10.7091 -2.4953 0.1243 0 8
16.9570 -10.4374 -2.4953 0.1243 0 8
17.1227 -10.1633 -2.4953 0.1243 0 8
17.2840 -9.8865 -2.4953 0.1243 0 8
17.4408 -9.6072 -2.4953 0.1243 0 8
17.5931 -9.3254 -2.4953 0.1243 0 8
17.7408 -9.0412 -2.4953 0.1243 0 8
17.8839 -8.7547 -2.4953 0.1243 0 8
18.0225 -8.4658 -2.4953 0.1243 0 8
18.1563 -8.1748 -2.4953 0.1243 0 8
18.2855 -7.8817 -2.4953 0.1243 0 8
18.4099 -7.5865 -2.4953 0.1243 0 8
18.5295 -7.2894 -2.4953 0.1243 0 8
18.6444 -6.9904 -2.4953 0.1243 0 8
18.7544 -6.6896 -2.4953 0.1243 0 8
18.8596 -6.3870 -2.4953 0.1243 0 8
18.9599 -6.0828 -2.4953 0.1243 0 8
19.0553 -5.7770 -2.4953 0.1243 0 8
19.1458 -5.4697 -2.4953 0.1243 0 8
19.2313 -5.1611 -2.4953 0.1243 0 8
19.3118 -4.8510 -2.4953 0.1243 0 8
19.3874 -4.5397 -2.4953 0.1243 0 8
19.4579 -4.2273 -2.4953 0.1243 0 8
19.5234 -3.9137 -2.4953 0.1243 0 8
19.5838 -3.5992 -2.4953 0.1243 0 8
19.6392 -3.2837 -2.4953 0.1243 0 8
19.6895 -2.9673 -2.4953 0.1243 0 8
19.7346 -2.6502 -2.4953 0.1243 0 8
19.7747 -2.3324 -2.4953 0.1243 0 8
19.8097 -2.0140 -2.4953 0.1243 0 8
19.8395 -1.6951 -2.4953 0.1243 0 8
8.9136 -0.6173 -1.1197 0.2728 25 10
8.8155 -0.4682 -1.1063 0.3192 25 10
8.7661 -0.3242 -1.0993 0.3206 25 10
8.7328 -0.1824 -1.0946 0.3290 25 10
8.7096 -0.0418 -1.0915 0.3263 25 10
8.7189 0.0984 -1.0927 0.3296 25 10
8.7422 0.2394 -1.0959 0.3286 25 10
8.7860 0.3821 -1.1021 0.3204 25 10
8.8354 0.5268 -1.1092 0.3183 25 10
19.8549 1.5047 -2.4953 0.1243 0 8
19.8281 1.8239 -2.4953 0.1243 0 8
19.7962 2.1426 -2.4953 0.1243 0 8
19.7592 2.4608 -2.4953 0.1243 0 8
19.7170 2.7783 -2.4953 0.1243 0 8
19.6698 3.0951 -2.4953 0.1243 0 8
19.6174 3.4111 -2.4953 0.1243 0 8
19.5600 3.7263 -2.4953 0.1243 0 8
19.4976 4.0404 -2.4953 0.1243 0 8
19.4300 4.3535 -2.4953 0.1243 0 8
19.3575 4.6655 -2.4953 0.1243 0 8
19.2799 4.9763 -2.4953 0.1243 0 8
19.1974 5.2858 -2.4953 0.1243 0 8
19.1099 5.5940 -2.4953 0.1243 0 8
19.0174 5.9006 -2.4953 0.1243 0 8
18.9200 6.2058 -2.4953 0.1243 0 8
18.8178 6.5094 -2.4953 0.1243 0 8
18.7106 6.8112 -2.4953 0.1243 0 8
18.5986 7.1113 -2.4953 0.1243 0 8
18.4818 7.4096 -2.4953 0.1243 0 8
18.3602 7.7059 -2.4953 0.1243 0 8
18.2339 8.0003 -2.4953 0.1243 0 8
18.1029 8.2925 -2.4953 0.1243 0 8
19.0645 9.1069 -2.6477 0.1243 0 7
18.9155 9.4124 -2.6477 0.1243 0 7
18.7616 9.7154 -2.6477 0.1243 0 7
18.6029 10.0160 -2.6477 0.1243 0 7
18.4394 10.3140 -2.6477 0.1243 0 7
18.2711 10.6092 -2.6477 0.1243 0 7
18.0981 10.9018 -2.6477 0.1243 0 7
17.9204 11.1915 -2.6477 0.1243 0 7
17.7380 11.4783 -2.6477 0.1243 0 6
17.5511 11.7622 -2.6477 0.1243 0 7
17.3596 12.0430 -2.6477 0.1243 0 7
17.1636 12.3207 -2.6477 0.1243 0 7
16.9632 12.5952 -2.6477 0.1243 0 7
16.7584 12.8664 -2.6477 0.1243 0 7
16.5493 13.1343 -2.6477 0.1243 0 7
16.3358 13.3989 -2.6477 0.1243 0 7
16.1182 13.6599 -2.6477 0.1243 0 7
15.8963 13.9174 -2.6477 0.1243 0 7
-17.2820 -7.0214 -2.4953 0.1326 0 8
-17.1668 -7.2985 -2.4953 0.1326 0 8
-17.0472 -7.5737 -2.4953 0.1326 0 8
-16.9231 -7.8470 -2.4953 0.1326 0 8
-16.7947 -8.1182 -2.4953 0.1326 0 8
-16.6620 -8.3873 -2.4953 0.1326 0 8
-16.5249 -8.6543 -2.4953 0.1326 0 8
-16.3835 -8.9190 -2.4953 0.1326 0 8
-16.2379 -9.1814 -2.4953 0.1326 0 8
-16.0881 -9.4414 -2.4953 0.1326 0 8
-15.9342 -9.6990 -2.4953 0.1326 0 8
-15.7761 -9.9540 -2.4953 0.1326 0 8
-15.6139 -10.2065 -2.4953 0.1326 0 8
-15.4477 -10.4564 -2.4953 0.1326 0 8
-15.2775 -10.7035 -2.4953 0.1326 0 8
-15.1034 -10.9479 -2.4953 0.1326 0 8
-14.9253 -11.1894 -2.4953 0.1326 0 8
-14.7434 -11.4281 -2.4953 0.1326 0 8
-14.5576 -11.6638 -2.4953 0.1326 0 8
-14.3681 -11.8964 -2.4953 0.1326 0 8
-14.1749 -12.1260 -2.4953 0.1326 0 8
-13.9780 -12.3525 -2.4953 0.1326 0 8
-13.7775 -12.5757 -2.4953 0.1326 0 8
-13.5734 -12.7957 -2.4953 0.1326 0 8
-13.3658 -13.0124 -2.4953 0.1326 0 8
-13.1547 -13.2257 -2.4953 0.1326 0 8
-12.9403 -13.4356 -2.4953 0.1326 0 8
-12.7225 -13.6423 -2.4953 0.1326 0 8
-12.5014 -13.8450 -2.4953 0.1326 0 8
-12.2771 -14.0443 -2.4953 0.1326 0 8
-12.0495 -14.2400 -2.4953 0.1326 0 8
-11.8189 -14.4319 -2.4953 0.1326 0 8
-11.5852 -14.6202 -2.4953 0.1326 0 8
-11.3485 -14.8047 -2.4953 0.1326 0 8
-11.1089 -14.9853 -2.4953 0.1326 0 8
-10.8664 -15.1621 -2.4953 0.1326 0 8
-10.6211 -15.3349 -2.4953 0.1326 0 8
-10.3731 -15.5038 -2.4953 0.1326 0 8
-10.1223 -15.6686 -2.4953 0.1326 0 8
-9.8690 -15.8294 -2.4953 0.1326 0 8
-9.6130 -15.9861 -2.4953 0.1326 0 8
-9.3546 -16.1387 -2.4953 0.1326 0 8
-9.0938 -16.2871 -2.4953 0.1326 0 8
-8.8306 -16.4313 -2.4953 0.1326 0 8
-8.5652 -16.5712 -2.4953 0.1326 0 8
-8.2975 -16.7069 -2.4953 0.1326 0 8
-8.0277 -16.8382 -2.4953 0.1326 0 8
-7.7558 -16.9651 -2.4953 0.1326 0 8
-7.4818 -17.0877 -2.4953 0.1326 0 8
-7.2060 -17.2058 -2.4953 0.1326 0 8
-6.9283 -17.3195 -2.4953 0.1326 0 8
-6.6488 -17.4287 -2.4953 0.1326 0 8
-6.3676 -17.5334 -2.4953 0.1326 0 8
-6.0847 -17.6336 -2.4953 0.1326 0 8
-5.8003 -17.7292 -2.4953 0.1326 0 8
-5.5143 -17.8202 -2.4953 0.1326 0 8
-5.2269 -17.9066 -2.4953 0.1326 0 8
-4.9382 -17.9884 -2.4953 0.1326 0 8
-4.6482 -18.0655 -2.4953 0.1326 0 8
-4.3570 -18.1379 -2.4953 0.1326 0 8
-4.0647 -18.2057 -2.4953 0.1326 0 8
-3.7713 -18.2687 -2.4953 0.1326 0 8
-3.4769 -18.3270 -2.4953 0.1326 0 8
-3.1816 -18.3806 -2.4953 0.1326 0 8
-2.8855 -18.4293 -2.4953 0.1326 0 8
-2.5887 -18.4734 -2.4953 0.1326 0 8
-2.2912 -18.5126 -2.4953 0.1326 0 8
-1.9931 -18.5471 -2.4953 0.1326 0 8
-1.6945 -18.5767 -2.4953 0.1326 0 8
-1.3954 -18.6016 -2.4953 0.1326 0 8
-1.0960 -18.6217 -2.4953 0.1326 0 8
-0.7963 -18.6369 -2.4953 0.1326 0 8
-0.4964 -18.6473 -2.4953 0.1326 0 8
-0.1964 -18.6528 -2.4953 0.1326 0 8
0.1037 -18.6536 -2.4953 0.1326 0 8
0.4037 -18.6495 -2.4953 0.1326 0 8
0.7037 -18.6406 -2.4953 0.1326 0 8
1.0034 -18.6269 -2.4953 0.1326 0 8
1.3030 -18.6083 -2.4953 0.1326 0 8
1.6021 -18.5850 -2.4953 0.1326 0 8
1.9009 -18.5568 -2.4953 0.1326 0 8
2.1992 -18.5238 -2.4953 0.1326 0 8
2.4968 -18.4860 -2.4953 0.1326 0 8
2.7939 -18.4435 -2.4953 0.1326 0 8
3.0902 -18.3961 -2.4953 0.1326 0 8
3.3857 -18.3440 -2.4953 0.1326 0 8
3.6804 -18.2872 -2.4953 0.1326 0 8
3.9741 -18.2256 -2.4953 0.1326 0 8
4.2668 -18.1594 -2.4953 0.1326 0 8
4.5583 -18.0884 -2.4953 0.1326 0 8
4.8487 -18.0127 -2.4953 0.1326 0 8
5.1379 -17.9324 -2.4953 0.1326 0 8
5.4257 -17.8474 -2.4953 0.1326 0 8
5.7120 -17.7578 -2.4953 0.1326 0 8
5.9970 -17.6636 -2.4953 0.1326 0 8
6.2803 -17.5649 -2.4953 0.1326 0 8
6.5621 -17.4616 -2.4953 0.1326 0 8
6.8421 -17.3537 -2.4953 0.1326 0 8
7.1204 -17.2414 -2.4953 0.1326 0 8
7.3968 -17.1247 -2.4953 0.1326 0 8
7.6713 -17.0035 -2.4953 0.1326 0 8
7.9439 -16.8779 -2.4953 0.1326 0 8
8.2143 -16.7479 -2.4953 0.1326 0 8
8.4827 -16.6136 -2.4953 0.1326 0 8
8.7488 -16.4750 -2.4953 0.1326 0 8
9.0127 -16.3321 -2.4953 0.1326 0 8
9.2743 -16.1850 -2.4953 0.1326 0 8
9.5334 -16.0337 -2.4953 0.1326 0 8
9.7901 -15.8783 -2.4953 0.1326 0 8
10.0443 -15.7188 -2.4953 0.1326 0 8
10.2959 -15.5551 -2.4953 0.1326 0 8
10.5447 -15.3875 -2.4953 0.1326 0 8
10.7909 -15.2159 -2.4953 0.1326 0 8
11.0343 -15.0403 -2.4953 0.1326 0 8
11.2748 -14.8609 -2.4953 0.1326 0 8
11.5124 -14.6776 -2.4953 0.1326 0 8
11.7470 -14.4905 -2.4953 0.1326 0 8
11.9786 -14.2997 -2.4953 0.1326 0 8
12.2071 -14.1051 -2.4953 0.1326 0 8
12.4324 -13.9069 -2.4953 0.1326 0 8
12.6545 -13.7051 -2.4953 0.1326 0 8
12.8733 -13.4998 -2.4953 0.1326 0 8
13.0888 -13.2910 -2.4953 0.1326 0 8
13.3009 -13.0787 -2.4953 0.1326 0 8
13.5096 -12.8630 -2.4953 0.1326 0 8
13.7148 -12.6441 -2.4953 0.1326 0 8
13.9164 -12.4218 -2.4953 0.1326 0 8
14.1144 -12.1963 -2.4953 0.1326 0 8
14.3088 -11.9677 -2.4953 0.1326 0 8
14.4994 -11.7360 -2.4953 0.1326 0 8
14.6864 -11.5012 -2.4953 0.1326 0 8
14.8695 -11.2635 -2.4953 0.1326 0 8
15.0487 -11.0228 -2.4953 0.1326 0 8
15.2241 -10.7793 -2.4953 0.1326 0 8
15.3955 -10.5330 -2.4953 0.1326 0 8
15.5630 -10.2840 -2.4953 0.1326 0 8
15.7264 -10.0323 -2.4953 0.1326 0 8
15.8857 -9.7781 -2.4953 0.1326 0 8
16.0410 -9.5212 -2.4953 0.1326 0 8
16.1921 -9.2620 -2.4953 0.1326 0 8
16.3390 -9.0003 -2.4953 0.1326 0 8
16.4816 -8.7363 -2.4953 0.1326 0 8
16.6200 -8.4700 -2.4953 0.1326 0 8
16.7542 -8.2016 -2.4953 0.1326 0 8
16.8839 -7.9310 -2.4953 0.1326 0 8
17.0093 -7.6584 -2.4953 0.1326 0 8
17.1303 -7.3838 -2.4953 0.1326 0 8
17.2469 -7.1073 -2.4953 0.1326 0 8
17.3590 -6.8289 -2.4953 0.1326 0 8
17.4666 -6.5488 -2.4953 0.1326 0 8
17.5696 -6.2670 -2.4953 0.1326 0 8
17.6682 -5.9835 -2.4953 0.1326 0 8
17.7621 -5.6985 -2.4953 0.1326 0 8
17.8515 -5.4121 -2.4953 0.1326 0 8
17.9363 -5.1242 -2.4953 0.1326 0 8
18.0164 -4.8350 -2.4953 0.1326 0 8
18.0918 -4.5446 -2.4953 0.1326 0 8
18.1626 -4.2529 -2.4953 0.1326 0 8
18.2287 -3.9602 -2.4953 0.1326 0 8
18.2900 -3.6665 -2.4953 0.1326 0 8
18.3466 -3.3718 -2.4953 0.1326 0 8
18.3985 -3.0762 -2.4953 0.1326 0 8
18.4456 -2.7799 -2.4953 0.1326 0 8
18.4879 -2.4828 -2.4953 0.1326 0 8
18.5254 -2.1850 -2.4953 0.1326 0 8
18.5582 -1.8868 -2.4953 0.1326 0 8
18.5862 -1.5880 -2.4953 0.1326 0 8
8.6697 -0.6004 -1.1625 0.3028 25 10
8.6014 -0.4568 -1.1522 0.4035 25 10
8.5627 -0.3167 -1.1462 0.4181 25 10
8.5400 -0.1784 -1.1426 0.4224 25 10
8.5222 -0.0409 -1.1400 0.4234 25 10
8.5294 0.0963 -1.1410 0.4230 25 10
8.5472 0.2341 -1.1438 0.4240 25 10
8.5779 0.3731 -1.1485 0.4048 25 10
8.6172 0.5138 -1.1547 0.4026 25 10
9.0096 0.6828 -1.2086 0.0976 25 10
18.5755 1.7086 -2.4953 0.1326 0 8
18.5455 2.0072 -2.4953 0.1326 0 8
18.5109 2.3053 -2.4953 0.1326 0 8
18.4714 2.6028 -2.4953 0.1326 0 8
18.4271 2.8996 -2.4953 0.1326 0 8
18.3781 3.1956 -2.4953 0.1326 0 8
18.3243 3.4909 -2.4953 0.1326 0 8
18.2658 3.7852 -2.4953 0.1326 0 8
18.2025 4.0785 -2.4953 0.1326 0 8
18.1346 4.3708 -2.4953 0.1326 0 8
18.0619 4.6620 -2.4953 0.1326 0 8
17.9846 4.9519 -2.4953 0.1326 0 8
17.9026 5.2406 -2.4953 0.1326 0 8
17.8160 5.5279 -2.4953 0.1326 0 8
17.7248 5.8137 -2.4953 0.1326 0 8
17.6289 6.0981 -2.4953 0.1326 0 8
17.5286 6.3809 -2.4953 0.1326 0 8
17.4236 6.6620 -2.4953 0.1326 0 8
17.3142 6.9415 -2.4953 0.1326 0 8
17.2003 7.2191 -2.4953 0.1326 0 8
17.0820 7.4949 -2.4953 0.1326 0 8
16.9592 7.7687 -2.4953 0.1326 0 8
16.8321 8.0405 -2.4953 0.1326 0 8
16.7005 8.3102 -2.4953 0.1326 0 8
17.5764 9.1017 -2.6477 0.1326 0 7
17.4277 9.3832 -2.6477 0.1326 0 7
17.2745 9.6624 -2.6477 0.1326 0 7
17.1168 9.9390 -2.6477 0.1326 0 7
16.9547 10.2131 -2.6477 0.1326 0 7
16.7882 10.4845 -2.6477 0.1326 0 7
16.6174 10.7532 -2.6477 0.1326 0 7
16.4423 11.0191 -2.6477 0.1326 0 7
16.2629 11.2822 -2.6477 0.1326 0 7
16.0793 11.5423 -2.6477 0.1326 0 7
15.8916 11.7995 -2.6477 0.1326 0 7
15.6997 12.0536 -2.6477 0.1326 0 7
15.5038 12.3046 -2.6477 0.1326 0 7
15.3038 12.5524 -2.6477 0.1326 0 7
15.0999 12.7970 -2.6477 0.1326 0 7
14.8921 13.0382 -2.6477 0.1326 0 7
-16.2529 -6.6033 -2.4953 0.1408 0 8
-16.1446 -6.8639 -2.4953 0.1408 0 8
-16.0321 -7.1227 -2.4953 0.1408 0 8
-15.9154 -7.3797 -2.4953 0.1408 0 8
-15.7947 -7.6348 -2.4953 0.1408 0 8
-15.6698 -7.8879 -2.4953 0.1408 0 8
-15.5409 -8.1389 -2.4953 0.1408 0 8
-15.4079 -8.3879 -2.4953 0.1408 0 8
-15.2710 -8.6347 -2.4953 0.1408 0 8
-15.1301 -8.8792 -2.4953 0.1408 0 8
-14.9854 -9.1214 -2.4953 0.1408 0 8
-14.8367 -9.3613 -2.4953 0.1408 0 8
-14.6842 -9.5988 -2.4953 0.1408 0 8
-14.5279 -9.8337 -2.4953 0.1408 0 8
-14.3678 -10.0662 -2.4953 0.1408 0 8
-14.2040 -10.2960 -2.4953 0.1408 0 8
-14.0365 -10.5231 -2.4953 0.1408 0 8
-13.8655 -10.7476 -2.4953 0.1408 0 8
-13.6908 -10.9692 -2.4953 0.1408 0 8
-13.5125 -11.1880 -2.4953 0.1408 0 8
-13.3308 -11.4040 -2.4953 0.1408 0 8
-13.1456 -11.6169 -2.4953 0.1408 0 8
-12.9570 -11.8272 -2.4953 0.1408 0 8
-12.7651 -12.0338 -2.4953 0.1408 0 8
-12.5699 -12.2376 -2.4953 0.1408 0 8
-12.3714 -12.4382 -2.4953 0.1408 0 8
-12.1697 -12.6356 -2.4953 0.1408 0 8
-11.9649 -12.8297 -2.4953 0.1408 0 8
-11.7570 -13.0205 -2.4953 0.1408 0 8
-11.5460 -13.2080 -2.4953 0.1408 0 8
-11.3320 -13.3920 -2.4953 0.1408 0 8
-11.1151 -13.5726 -2.4953 0.1408 0 8
-10.8954 -13.7496 -2.4953 0.1408 0 8
-10.6728 -13.9231 -2.4953 0.1408 0 8
-10.4474 -14.0930 -2.4953 0.1408 0 8
-10.2194 -14.2592 -2.4953 0.1408 0 8
-9.9887 -14.4218 -2.4953 0.1408 0 8
-9.7554 -14.5806 -2.4953 0.1408 0 8
-9.5196 -14.7356 -2.4953 0.1408 0 8
-9.2813 -14.8869 -2.4953 0.1408 0 8
-9.0406 -15.0342 -2.4953 0.1408 0 8
-8.7976 -15.1777 -2.4953 0.1408 0 8
-8.5523 -15.3173 -2.4953 0.1408 0 8
-8.3048 -15.4529 -2.4953 0.1408 0 8
-8.0552 -15.5845 -2.4953 0.1408 0 8
-7.8034 -15.7120 -2.4953 0.1408 0 8
-7.5497 -15.8355 -2.4953 0.1408 0 8
-7.2939 -15.9549 -2.4953 0.1408 0 8
-7.0363 -16.0702 -2.4953 0.1408 0 8
-6.7769 -16.1813 -2.4953 0.1408 0 8
-6.5157 -16.2882 -2.4953 0.1408 0 8
-6.2529 -16.3909 -2.4953 0.1408 0 8
-5.9884 -16.4894 -2.4953 0.1408 0 8
-5.7224 -16.5836 -2.4953 0.1408 0 8
-5.4549 -16.6735 -2.4953 0.1408 0 8
-5.1860 -16.7591 -2.4953 0.1408 0 8
-4.9157 -16.8403 -2.4953 0.1408 0 8
-4.6442 -16.9172 -2.4953 0.1408 0 8
-4.3714 -16.9898 -2.4953 0.1408 0 8
-4.0976 -17.0579 -2.4953 0.1408 0 8
-3.8226 -17.1216 -2.4953 0.1408 0 8
-3.5467 -17.1809 -2.4953 0.1408 0 8
-3.2699 -17.2357 -2.4953 0.1408 0 8
-2.9922 -17.2861 -2.4953 0.1408 0 8
-2.7137 -17.3320 -2.4953 0.1408 0 8
-2.4346 -17.3734 -2.4953 0.1408 0 8
-2.1548 -17.4103 -2.4953 0.1408 0 8
-1.8744 -17.4427 -2.4953 0.1408 0 8
-1.5936 -17.4706 -2.4953 0.1408 0 8
-1.3124 -17.4940 -2.4953 0.1408 0 8
-1.0308 -17.5128 -2.4953 0.1408 0 8
-0.7489 -17.5271 -2.4953 0.1408 0 8
-0.4669 -17.5369 -2.4953 0.1408 0 8
-0.1847 -17.5422 -2.4953 0.1408 0 8
0.0975 -17.5429 -2.4953 0.1408 0 8
0.3797 -17.5390 -2.4953 0.1408 0 8
0.6618 -17.5306 -2.4953 0.1408 0 8
0.9437 -17.5177 -2.4953 0.1408 0 8
1.2254 -17.5003 -2.4953 0.1408 0 8
1.5067 -17.4783 -2.4953 0.1408 0 8
1.7877 -17.4518 -2.4953 0.1408 0 8
2.0682 -17.4208 -2.4953 0.1408 0 8
2.3482 -17.3853 -2.4953 0.1408 0 8
2.6275 -17.3452 -2.4953 0.1408 0 8
2.9062 -17.3007 -2.4953 0.1408 0 8
3.1841 -17.2517 -2.4953 0.1408 0 8
3.4612 -17.1983 -2.4953 0.1408 0 8
3.7375 -17.1404 -2.4953 0.1408 0 8
4.0127 -17.0780 -2.4953 0.1408 0 8
4.2869 -17.0113 -2.4953 0.1408 0 8
4.5600 -16.9401 -2.4953 0.1408 0 8
4.8319 -16.8646 -2.4953 0.1408 0 8
5.1026 -16.7847 -2.4953 0.1408 0 8
5.3719 -16.7004 -2.4953 0.1408 0 8
5.6399 -16.6118 -2.4953 0.1408 0 8
5.9064 -16.5190 -2.4953 0.1408 0 8
6.1713 -16.4218 -2.4953 0.1408 0 8
6.4347 -16.3203 -2.4953 0.1408 0 8
6.6964 -16.2148 -2.4953 0.1408 0 8
6.9564 -16.1050 -2.4953 0.1408 0 8
7.2145 -15.9910 -2.4953 0.1408 0 8
7.4708 -15.8729 -2.4953 0.1408 0 8
7.7252 -15.7506 -2.4953 0.1408 0 8
7.9776 -15.6243 -2.4953 0.1408 0 8
8.2279 -15.4940 -2.4953 0.1408 0 8
8.4761 -15.3596 -2.4953 0.1408 0 8
8.7220 -15.2213 -2.4953 0.1408 0 8
8.9658 -15.0790 -2.4953 0.1408 0 8
9.2072 -14.9328 -2.4953 0.1408 0 8
9.4462 -14.7828 -2.4953 0.1408 0 8
9.6828 -14.6289 -2.4953 0.1408 0 8
9.9169 -14.4713 -2.4953 0.1408 0 8
10.1484 -14.3099 -2.4953 0.1408 0 8
10.3772 -14.1448 -2.4953 0.1408 0 8
10.6034 -13.9760 -2.4953 0.1408 0 8
10.8269 -13.8036 -2.4953 0.1408 0 8
11.0475 -13.6277 -2.4953 0.1408 0 8
11.2653 -13.4482 -2.4953 0.1408 0 8
11.4802 -13.2652 -2.4953 0.1408 0 8
11.6921 -13.0788 -2.4953 0.1408 0 8
11.9010 -12.8891 -2.4953 0.1408 0 8
12.1068 -12.6960 -2.4953 0.1408 0 8
12.3094 -12.4996 -2.4953 0.1408 0 8
12.5089 -12.2999 -2.4953 0.1408 0 8
12.7052 -12.0971 -2.4953 0.1408 0 8
12.8981 -11.8912 -2.4953 0.1408 0 8
13.0877 -11.6821 -2.4953 0.1408 0 8
13.2740 -11.4701 -2.4953 0.1408 0 8
13.4568 -11.2551 -2.4953 0.1408 0 8
13.6361 -11.0372 -2.4953 0.1408 0 8
13.8119 -10.8164 -2.4953 0.1408 0 8
13.9841 -10.5928 -2.4953 0.1408 0 8
14.1527 -10.3665 -2.4953 0.1408 0 8
14.3176 -10.1375 -2.4953 0.1408 0 8
14.4788 -9.9058 -2.4953 0.1408 0 8
14.6363 -9.6716 -2.4953 0.1408 0 8
14.7900 -9.4350 -2.4953 0.1408 0 8
14.9398 -9.1958 -2.4953 0.1408 0 8
15.0858 -8.9543 -2.4953 0.1408 0 8
15.2279 -8.7105 -2.4953 0.1408 0 8
15.3661 -8.4644 -2.4953 0.1408 0 8
15.5002 -8.2161 -2.4953 0.1408 0 8
15.6304 -7.9657 -2.4953 0.1408 0 8
15.7565 -7.7132 -2.4953 0.1408 0 8
15.8785 -7.4588 -2.4953 0.1408 0 8
15.9965 -7.2024 -2.4953 0.1408 0 8
16.1103 -6.9441 -2.4953 0.1408 0 8
16.2199 -6.6841 -2.4953 0.1408 0 8
16.3253 -6.4223 -2.4953 0.1408 0 8
16.4265 -6.1588 -2.4953 0.1408 0 8
16.5235 -5.8938 -2.4953 0.1408 0 8
16.6161 -5.6272 -2.4953 0.1408 0 8
16.7045 -5.3592 -2.4953 0.1408 0 8
16.7885 -5.0898 -2.4953 0.1408 0 8
16.8682 -4.8191 -2.4953 0.1408 0 8
16.9436 -4.5471 -2.4953 0.1408 0 8
17.0145 -4.2740 -2.4953 0.1408 0 8
17.0811 -3.9997 -2.4953 0.1408 0 8
17.1432 -3.7244 -2.4953 0.1408 0 8
17.2009 -3.4482 -2.4953 0.1408 0 8
17.2542 -3.1710 -2.4953 0.1408 0 8
17.3029 -2.8930 -2.4953 0.1408 0 8
17.3472 -2.6143 -2.4953 0.1408 0 8
17.3870 -2.3349 -2.4953 0.1408 0 8
17.4224 -2.0549 -2.4953 0.1408 0 8
17.4532 -1.7744 -2.4953 0.1408 0 8
17.4794 -1.4934 -2.4953 0.1408 0 8
8.4865 -0.5877 -1.2100 0.3870 25 10
8.4367 -0.4481 -1.2017 0.4236 25 10
8.4029 -0.3108 -1.1960 0.4256 25 10
8.3821 -0.1751 -1.1925 0.4319 25 10
8.3644 -0.0401 -1.1897 0.4329 25 10
8.3716 0.0945 -1.1908 0.4325 25 10
8.3891 0.2297 -1.1937 0.4315 25 10
8.4166 0.3661 -1.1983 0.4248 25 10
8.4503 0.5038 -1.2041 0.4228 25 10
8.5980 0.6516 -1.2265 0.1664 25 10
17.4694 1.6069 -2.4953 0.1408 0 8
17.4413 1.8877 -2.4953 0.1408 0 8
17.4086 2.1680 -2.4953 0.1408 0 8
17.3715 2.4478 -2.4953 0.1408 0 8
17.3299 2.7269 -2.4953 0.1408 0 8
17.2838 3.0053 -2.4953 0.1408 0 8
17.2332 3.2830 -2.4953 0.1408 0 8
17.1782 3.5598 -2.4953 0.1408 0 8
17.1187 3.8357 -2.4953 0.1408 0 8
17.0548 4.1105 -2.4953 0.1408 0 8
16.9864 4.3844 -2.4953 0.1408 0 8
16.9137 4.6570 -2.4953 0.1408 0 8
16.8366 4.9285 -2.4953 0.1408 0 8
16.7551 5.1987 -2.4953 0.1408 0 8
16.6693 5.4676 -2.4953 0.1408 0 8
16.5792 5.7350 -2.4953 0.1408 0 8
16.4848 6.0010 -2.4953 0.1408 0 8
16.3862 6.2654 -2.4953 0.1408 0 8
16.2833 6.5281 -2.4953 0.1408 0 8
16.1761 6.7892 -2.4953 0.1408 0 8
16.0648 7.0486 -2.4953 0.1408 0 8
15.9494 7.3061 -2.4953 0.1408 0 8
15.8298 7.5617 -2.4953 0.1408 0 8
15.7061 7.8154 -2.4953 0.1408 0 8
15.5783 8.0670 -2.4953 0.1408 0 8
15.4466 8.3166 -2.4953 0.1408 0 8
16.2459 9.0870 -2.6477 0.1408 0 7
16.0976 9.3472 -2.6477 0.1408 0 7
15.9452 9.6049 -2.6477 0.1408 0 7
