ply
format ascii 1.0
element vertex 1340
property float32 x
property float32 y
property float32 z
property float32 CosAngle
property uint32 ObjIdx
property uint32 ObjTag
end_header
-28.5676 95.8925 -2.4953 0.0249 0 8
-30.1029 95.4217 -2.4953 0.0249 0 8
-31.6304 94.9263 -2.4953 0.0249 0 8
-33.1498 94.4065 -2.4953 0.0249 0 8
-34.6606 93.8623 -2.4953 0.0249 0 8
-36.1625 93.2940 -2.4953 0.0249 0 8
-39.9548 98.3634 -2.6477 0.0249 0 7
-41.5283 97.7095 -2.6477 0.0249 0 7
-43.0911 97.0304 -2.6477 0.0249 0 7
-44.6428 96.3264 -2.6477 0.0249 0 7
-46.1829 95.5976 -2.6477 0.0249 0 7
-47.7112 94.8441 -2.6477 0.0249 0 7
-49.2271 94.0661 -2.6477 0.0249 0 7
-50.7304 93.2640 -2.6477 0.0249 0 7
-52.2207 92.4378 -2.6477 0.0249 0 7
-53.6975 91.5878 -2.6477 0.0249 0 7
-55.1604 90.7143 -2.6477 0.0249 0 7
-56.2566 89.2580 -2.6312 0.5310 0 8
-56.2771 86.1921 -2.5671 0.5443 0 8
-56.2965 83.2712 -2.5067 0.5574 0 8
-57.3629 81.9816 -2.4953 0.0249 0 8
-58.6712 81.0505 -2.4953 0.0249 0 8
-59.9644 80.0984 -2.4953 0.0249 0 8
-61.2421 79.1258 -2.4953 0.0249 0 8
-62.5041 78.1327 -2.4953 0.0249 0 14
-63.7500 77.1196 -2.4953 0.0249 0 14
-64.9794 76.0865 -2.4953 0.0249 0 14
-66.1922 75.0338 -2.4953 0.0249 0 14
-67.3879 73.9619 -2.4953 0.0249 0 14
-68.5662 72.8709 -2.4953 0.0249 0 14
-69.7268 71.7612 -2.4953 0.0249 0 14
-70.8695 70.6328 -2.4953 0.0249 0 14
-71.9939 69.4864 -2.4953 0.0249 0 14
-73.0997 68.3221 -2.4953 0.0249 0 14
-74.1868 67.1402 -2.4953 0.0249 0 14
-75.2548 65.9409 -2.4953 0.0249 0 14
-76.3035 64.7246 -2.4953 0.0249 0 14
-77.3323 63.4917 -2.4953 0.0249 0 14
-78.3413 62.2424 -2.4953 0.0249 0 14
-79.3301 60.9772 -2.4953 0.0249 0 14
-80.2985 59.6962 -2.4953 0.0249 0 14
-81.2463 58.3997 -2.4953 0.0249 0 14
-82.1730 57.0884 -2.4953 0.0249 0 14
-83.0786 55.7623 -2.4953 0.0249 0 14
-83.9628 54.4218 -2.4953 0.0249 0 14
-84.8254 53.0673 -2.4953 0.0249 0 14
-85.6661 51.6992 -2.4953 0.0249 0 14
-86.4848 50.3176 -2.4953 0.0249 0 14
-87.2812 48.9232 -2.4953 0.0249 0 14
-88.0551 47.5162 -2.4953 0.0249 0 14
-88.8063 46.0969 -2.4953 0.0249 0 14
-89.5347 44.6657 -2.4953 0.0249 0 14
-90.2400 43.2230 -2.4953 0.0249 0 14
-90.9221 41.7692 -2.4953 0.0249 0 14
-91.5807 40.3046 -2.4953 0.0249 0 14
-92.2157 38.8297 -2.4953 0.0249 0 8
-92.8270 37.3448 -2.4953 0.0249 0 8
-93.4144 35.8503 -2.4953 0.0249 0 8
-93.9777 34.3465 -2.4953 0.0249 0 8
-100.2895 34.8391 -2.6477 0.0249 0 7
-100.8357 33.2252 -2.6477 0.0249 0 7
-101.3559 31.6026 -2.6477 0.0249 0 7
-101.8500 29.9720 -2.6477 0.0249 0 7
-102.3179 28.3335 -2.6477 0.0249 0 7
-102.7595 26.6879 -2.6477 0.0249 0 7
-103.1745 25.0352 -2.6477 0.0249 0 7
-103.5630 23.3762 -2.6477 0.0249 0 7
-103.9249 21.7112 -2.6477 0.0249 0 7
-104.2599 20.0406 -2.6477 0.0249 0 7
-104.5681 18.3647 -2.6477 0.0249 0 7
-104.8493 16.6841 -2.6477 0.0249 0 7
-105.1036 14.9993 -2.6477 0.0249 0 7
-105.3308 13.3106 -2.6477 0.0249 0 7
-105.5308 11.6185 -2.6477 0.0249 0 7
-105.7037 9.9233 -2.6477 0.0249 0 7
-105.8493 8.2256 -2.6477 0.0249 0 7
-105.9677 6.5258 -2.6477 0.0249 0 7
-106.0588 4.8243 -2.6477 0.0249 0 7
-106.1226 3.1217 -2.6477 0.0249 0 6
-106.1590 1.4181 -2.6477 0.0249 0 7
-106.1681 -0.2858 -2.6477 0.0249 0 7
-106.1498 -1.9896 -2.6477 0.0249 0 7
-106.1042 -3.6929 -2.6477 0.0249 0 7
-106.0318 -5.3953 -2.6477 0.0249 0 7
-105.9311 -7.0962 -2.6477 0.0249 0 7
-105.8035 -8.7954 -2.6477 0.0249 0 7
-105.6488 -10.4923 -2.6477 0.0249 0 7
-105.4667 -12.1865 -2.6477 0.0249 0 7
-105.2576 -13.8775 -2.6477 0.0249 0 7
-105.0213 -15.5649 -2.6477 0.0249 0 7
-98.7281 -16.2556 -2.4953 0.0249 0 8
-98.4545 -17.8380 -2.4953 0.0249 0 8
-98.1556 -19.4157 -2.4953 0.0249 0 8
-97.8313 -20.9885 -2.4953 0.0249 0 8
-97.4819 -22.5558 -2.4953 0.0249 0 8
-97.1073 -24.1174 -2.4953 0.0249 0 8
-96.7078 -25.6727 -2.4953 0.0249 0 8
-96.2833 -27.2214 -2.4953 0.0249 0 8
-95.8341 -28.7631 -2.4953 0.0249 0 8
-95.3601 -30.2975 -2.4953 0.0249 0 8
-94.8616 -31.8239 -2.4953 0.0249 0 8
-94.3387 -33.3422 -2.4953 0.0249 0 8
-93.7915 -34.8519 -2.4953 0.0249 0 8
-93.2200 -36.3527 -2.4953 0.0249 0 8
-92.6246 -37.8440 -2.4953 0.0249 0 8
-92.0053 -39.3256 -2.4953 0.0249 0 8
-91.3624 -40.7971 -2.4953 0.0249 0 8
-90.6959 -42.2581 -2.4953 0.0249 0 8
49.5626 56.3309 -2.4953 0.0332 0 8
51.6235 60.6077 -2.6477 0.0332 0 7
50.6442 61.4284 -2.6477 0.0332 0 7
49.6518 62.2333 -2.6477 0.0332 0 7
48.6467 63.0221 -2.6477 0.0332 0 7
47.6290 63.7947 -2.6477 0.0332 0 7
46.5991 64.5509 -2.6477 0.0332 0 7
45.5571 65.2904 -2.6477 0.0332 0 7
44.5034 66.0131 -2.6477 0.0332 0 7
43.4383 66.7188 -2.6477 0.0332 0 7
42.3619 67.4073 -2.6477 0.0332 0 7
41.2747 68.0785 -2.6477 0.0332 0 7
40.1768 68.7322 -2.6477 0.0332 0 7
39.0685 69.3681 -2.6477 0.0332 0 7
37.9502 69.9862 -2.6477 0.0332 0 7
36.8221 70.5862 -2.6477 0.0332 0 7
35.6846 71.1681 -2.6477 0.0332 0 7
34.5378 71.7316 -2.6477 0.0332 0 7
33.3822 72.2766 -2.6477 0.0332 0 7
32.2180 72.8031 -2.6477 0.0332 0 7
31.0454 73.3108 -2.6477 0.0332 0 7
29.8649 73.7995 -2.6477 0.0332 0 7
28.6475 74.1939 -2.6450 0.0490 0 8
27.3940 74.4833 -2.6393 0.9280 0 8
26.0451 74.4844 -2.6242 0.9333 0 8
24.7112 74.4853 -2.6099 0.9384 0 8
23.3914 74.4861 -2.5964 0.9433 0 8
22.0847 74.4868 -2.5838 0.9479 0 8
20.7904 74.4873 -2.5719 0.9523 0 8
19.5075 74.4878 -2.5608 0.9564 0 8
18.2354 74.4881 -2.5504 0.9603 0 8
16.9731 74.4882 -2.5407 0.9640 0 8
15.7200 74.4883 -2.5318 0.9674 0 8
14.4754 74.4882 -2.5236 0.9705 0 8
13.2385 74.4880 -2.5160 0.9734 0 8
12.0086 74.4877 -2.5092 0.9761 0 8
10.7851 74.4873 -2.5030 0.9785 0 8
9.5677 74.4910 -2.4977 0.7243 0 8
8.3630 74.5633 -2.4953 0.0332 0 8
7.1652 74.6879 -2.4953 0.0332 0 8
5.9657 74.7933 -2.4953 0.0332 0 8
4.7646 74.8794 -2.4953 0.0332 0 8
3.5623 74.9462 -2.4953 0.0332 0 8
2.3590 74.9937 -2.4953 0.0332 0 8
1.1552 75.0219 -2.4953 0.0332 0 8
-0.0490 75.0308 -2.4953 0.0332 0 8
-1.2531 75.0203 -2.4953 0.0332 0 8
-2.4570 74.9905 -2.4953 0.0332 0 8
-3.6601 74.9415 -2.4953 0.0332 0 8
-4.8624 74.8731 -2.4953 0.0332 0 8
-6.0633 74.7854 -2.4953 0.0332 0 8
-7.2628 74.6785 -2.4953 0.0332 0 8
-8.4600 74.5523 -2.4953 0.0332 0 8
-9.6636 74.4668 -2.4973 0.7248 0 8
-10.8804 74.4599 -2.5026 0.7233 0 8
-12.1034 74.4570 -2.5087 0.9763 0 8
-13.3328 74.4541 -2.5155 0.9736 0 8
-14.5691 74.4512 -2.5230 0.9707 0 8
-15.8132 74.4481 -2.5311 0.9676 0 8
-17.0655 74.4448 -2.5400 0.9642 0 8
-18.3270 74.4415 -2.5496 0.9606 0 8
-19.5984 74.4379 -2.5599 0.9567 0 8
-20.8804 74.4342 -2.5710 0.9526 0 8
-22.1738 74.4304 -2.5828 0.9482 0 8
-23.4795 74.4264 -2.5954 0.9436 0 8
-24.7983 74.4222 -2.6088 0.9388 0 8
-26.1310 74.4179 -2.6230 0.9337 0 8
-27.4787 74.4134 -2.6381 0.9284 0 8
-28.7399 74.1448 -2.6446 0.0490 0 8
-29.9612 73.7605 -2.6477 0.0332 0 7
-31.1411 73.2701 -2.6477 0.0332 0 6
-32.3130 72.7609 -2.6477 0.0332 0 7
-33.4766 72.2330 -2.6477 0.0332 0 7
-34.6315 71.6864 -2.6477 0.0332 0 7
-35.7775 71.1214 -2.6477 0.0332 0 7
-36.9143 70.5381 -2.6477 0.0332 0 7
-38.0416 69.9365 -2.6477 0.0332 0 7
-39.1591 69.3170 -2.6477 0.0332 0 7
-40.2665 68.6796 -2.6477 0.0332 0 7
-41.3635 68.0246 -2.6477 0.0332 0 7
-42.4499 67.3520 -2.6477 0.0332 0 7
-43.5254 66.6620 -2.6477 0.0332 0 7
-44.5896 65.9549 -2.6477 0.0332 0 7
-45.6424 65.2308 -2.6477 0.0332 0 7
-46.6833 64.4899 -2.6477 0.0332 0 7
-47.7123 63.7324 -2.6477 0.0332 0 7
-48.7289 62.9585 -2.6477 0.0332 0 7
-49.7331 62.1684 -2.6477 0.0332 0 7
-50.7244 61.3622 -2.6477 0.0332 0 7
-51.7027 60.5402 -2.6477 0.0332 0 7
-52.6676 59.7027 -2.6477 0.0332 0 7
-53.6190 58.8497 -2.6477 0.0332 0 7
-54.5565 57.9816 -2.6477 0.0332 0 7
-55.4800 57.0987 -2.6477 0.0332 0 7
-56.2591 56.0712 -2.6416 0.0453 0 8
-56.3596 54.3966 -2.6049 0.7151 0 8
-56.3716 52.6872 -2.5661 0.7259 0 8
-56.3831 51.0275 -2.5290 0.7366 0 8
-56.4319 49.4476 -2.4953 0.0332 0 8
-57.2182 48.5355 -2.4953 0.0332 0 8
-57.9898 47.6110 -2.4953 0.0332 0 8
-58.7464 46.6742 -2.4953 0.0332 0 8
-59.4879 45.7254 -2.4953 0.0332 0 8
-60.2141 44.7648 -2.4953 0.0332 0 8
-60.9247 43.7926 -2.4953 0.0332 0 8
-61.6197 42.8093 -2.4953 0.0332 0 8
-62.2989 41.8149 -2.4953 0.0332 0 8
-62.9618 40.8097 -2.4953 0.0332 0 14
-63.6087 39.7940 -2.4953 0.0332 0 14
-64.2391 38.7680 -2.4953 0.0332 0 8
-64.8530 37.7321 -2.4953 0.0332 0 8
-65.4502 36.6864 -2.4953 0.0332 0 8
-66.0305 35.6313 -2.4953 0.0332 0 8
-66.5939 34.5670 -2.4953 0.0332 0 8
-67.1400 33.4938 -2.4953 0.0332 0 8
-68.3044 32.7163 -2.5187 0.4330 0 8
-71.1641 32.6925 -2.6045 0.4188 0 8
-72.8686 32.0695 -2.6477 0.0332 0 7
-73.3739 30.8959 -2.6477 0.0332 0 7
-73.8603 29.7144 -2.6477 0.0332 0 6
-74.3276 28.5252 -2.6477 0.0332 0 7
-74.7759 27.3286 -2.6477 0.0332 0 7
-75.2048 26.1251 -2.6477 0.0332 0 7
-75.6144 24.9148 -2.6477 0.0332 0 7
-76.0045 23.6981 -2.6477 0.0332 0 7
-72.1987 21.2463 -2.5029 0.0332 0 14
-72.5304 20.0849 -2.5029 0.0332 0 14
-72.8434 18.9183 -2.5029 0.0332 0 14
-77.3682 18.7734 -2.6477 0.0332 0 7
-77.6596 17.5293 -2.6477 0.0332 0 7
-77.9309 16.2807 -2.6477 0.0332 0 7
-78.1821 15.0280 -2.6477 0.0332 0 7
-78.4132 13.7712 -2.6477 0.0332 0 7
-78.6242 12.5110 -2.6477 0.0332 0 7
-78.8149 11.2476 -2.6477 0.0332 0 6
-78.9852 9.9813 -2.6477 0.0332 0 7
-74.5802 8.2109 -2.4953 0.0332 0 8
-74.7023 7.0130 -2.4953 0.0332 0 8
-74.8053 5.8131 -2.4953 0.0332 0 8
-74.8889 4.6119 -2.4953 0.0332 0 8
-74.9533 3.4094 -2.4953 0.0332 0 8
-74.9983 2.2061 -2.4953 0.0332 0 8
-75.0241 1.0022 -2.4953 0.0332 0 8
-75.0306 -0.2020 -2.4953 0.0332 0 8
-75.0176 -1.4061 -2.4953 0.0332 0 8
-74.9854 -2.6098 -2.4953 0.0332 0 8
-74.9338 -3.8130 -2.4953 0.0332 0 8
-74.8630 -5.0150 -2.4953 0.0332 0 8
-74.7729 -6.2158 -2.4953 0.0332 0 8
-74.6635 -7.4151 -2.4953 0.0332 0 8
-74.5349 -8.6124 -2.4953 0.0332 0 8
-74.3871 -9.8074 -2.4953 0.0332 0 8
-74.2201 -10.9999 -2.4953 0.0332 0 8
-74.0340 -12.1897 -2.4953 0.0332 0 8
-73.8288 -13.3763 -2.4953 0.0332 0 8
-73.6046 -14.5594 -2.4953 0.0332 0 8
-73.3615 -15.7388 -2.4953 0.0332 0 8
-73.0995 -16.9141 -2.4953 0.0332 0 8
-72.8186 -18.0851 -2.4953 0.0332 0 8
-72.5190 -19.2514 -2.4953 0.0332 0 8
-72.2007 -20.4127 -2.4953 0.0332 0 8
-71.8638 -21.5688 -2.4953 0.0332 0 8
-71.5084 -22.7194 -2.4953 0.0332 0 8
-71.1346 -23.8640 -2.4953 0.0332 0 8
-70.7424 -25.0026 -2.4953 0.0332 0 8
-70.3321 -26.1346 -2.4953 0.0332 0 8
-69.9036 -27.2600 -2.4953 0.0332 0 8
-69.4571 -28.3784 -2.4953 0.0332 0 8
-68.9926 -29.4894 -2.4953 0.0332 0 8
-68.5106 -30.5929 -2.4953 0.0332 0 8
-68.0108 -31.6884 -2.4953 0.0332 0 8
42.0630 47.8073 -2.6477 0.0415 0 6
41.2903 48.4762 -2.6477 0.0415 0 7
40.5070 49.1326 -2.6477 0.0415 0 7
39.7133 49.7764 -2.6477 0.0415 0 7
38.9093 50.4073 -2.6477 0.0415 0 7
38.0953 51.0252 -2.6477 0.0415 0 7
35.1262 48.6582 -2.4953 0.0415 0 8
34.3408 49.2157 -2.4953 0.0415 0 8
33.5465 49.7605 -2.4953 0.0415 0 8
32.7436 50.2924 -2.4953 0.0415 0 8
31.9323 50.8114 -2.4953 0.0415 0 8
31.1127 51.3174 -2.4953 0.0415 0 8
30.2851 51.8101 -2.4953 0.0415 0 8
29.4497 52.2894 -2.4953 0.0415 0 8
28.6068 52.7553 -2.4953 0.0415 0 8
27.7564 53.2076 -2.4953 0.0415 0 8
26.8989 53.6462 -2.4953 0.0415 0 8
26.0345 54.0710 -2.4953 0.0415 0 8
25.1634 54.4819 -2.4953 0.0415 0 8
24.2858 54.8787 -2.4953 0.0415 0 8
23.4019 55.2614 -2.4953 0.0415 0 8
22.5120 55.6298 -2.4953 0.0415 0 8
21.6164 55.9840 -2.4953 0.0415 0 8
20.7151 56.3237 -2.4953 0.0415 0 8
19.8085 56.6489 -2.4953 0.0415 0 8
18.8969 56.9595 -2.4953 0.0415 0 8
17.9803 57.2554 -2.4953 0.0415 0 8
17.0591 57.5366 -2.4953 0.0415 0 8
16.1335 57.8029 -2.4953 0.0415 0 8
15.2038 58.0544 -2.4953 0.0415 0 8
14.2701 58.2910 -2.4953 0.0415 0 8
13.3328 58.5125 -2.4953 0.0415 0 8
12.3921 58.7189 -2.4953 0.0415 0 8
11.4481 58.9102 -2.4953 0.0415 0 8
10.5012 59.0863 -2.4953 0.0415 0 8
9.5516 59.2473 -2.4953 0.0415 0 8
8.5995 59.3929 -2.4953 0.0415 0 8
7.6453 59.5233 -2.4953 0.0415 0 8
6.6890 59.6383 -2.4953 0.0415 0 8
5.7310 59.7380 -2.4953 0.0415 0 8
4.7715 59.8223 -2.4953 0.0415 0 8
3.8109 59.8911 -2.4953 0.0415 0 8
2.8492 59.9446 -2.4953 0.0415 0 8
1.8868 59.9826 -2.4953 0.0415 0 8
0.9239 60.0051 -2.4953 0.0415 0 8
-0.0392 60.0122 -2.4953 0.0415 0 8
-1.0023 60.0039 -2.4953 0.0415 0 8
-1.9652 59.9801 -2.4953 0.0415 0 8
-2.9275 59.9408 -2.4953 0.0415 0 8
-3.8891 59.8861 -2.4953 0.0415 0 8
-4.8497 59.8160 -2.4953 0.0415 0 8
-5.8090 59.7305 -2.4953 0.0415 0 8
-6.7669 59.6295 -2.4953 0.0415 0 8
-7.7230 59.5133 -2.4953 0.0415 0 8
-8.6771 59.3816 -2.4953 0.0415 0 8
-9.6290 59.2347 -2.4953 0.0415 0 8
-10.5784 59.0726 -2.4953 0.0415 0 8
-11.5251 58.8952 -2.4953 0.0415 0 8
-12.4688 58.7027 -2.4953 0.0415 0 8
-13.4092 58.4950 -2.4953 0.0415 0 8
-14.3463 58.2723 -2.4953 0.0415 0 8
-15.2796 58.0345 -2.4953 0.0415 0 8
-16.2090 57.7818 -2.4953 0.0415 0 8
-17.1342 57.5143 -2.4953 0.0415 0 8
-18.0551 57.2319 -2.4953 0.0415 0 8
-18.9713 56.9347 -2.4953 0.0415 0 8
-19.8825 56.6229 -2.4953 0.0415 0 8
-20.7887 56.2966 -2.4953 0.0415 0 8
-21.6895 55.9557 -2.4953 0.0415 0 8
-22.5847 55.6004 -2.4953 0.0415 0 8
-23.4741 55.2308 -2.4953 0.0415 0 8
-24.3575 54.8469 -2.4953 0.0415 0 8
-25.2345 54.4490 -2.4953 0.0415 0 8
-26.1051 54.0370 -2.4953 0.0415 0 8
-26.9690 53.6111 -2.4953 0.0415 0 8
-27.8259 53.1713 -2.4953 0.0415 0 8
-28.6756 52.7179 -2.4953 0.0415 0 8
-29.5180 52.2509 -2.4953 0.0415 0 8
-30.3528 51.7705 -2.4953 0.0415 0 8
-31.1797 51.2767 -2.4953 0.0415 0 8
-31.9986 50.7697 -2.4953 0.0415 0 8
-32.8093 50.2496 -2.4953 0.0415 0 8
-33.6115 49.7166 -2.4953 0.0415 0 8
-34.4050 49.1708 -2.4953 0.0415 0 8
-35.1897 48.6123 -2.4953 0.0415 0 8
-35.9654 48.0413 -2.4953 0.0415 0 8
-36.7317 47.4579 -2.4953 0.0415 0 8
-39.7783 49.7244 -2.6477 0.0415 0 7
-40.5712 49.0796 -2.6477 0.0415 0 7
-41.3536 48.4222 -2.6477 0.0415 0 7
-42.1254 47.7523 -2.6477 0.0415 0 7
-42.8863 47.0701 -2.6477 0.0415 0 7
-43.6362 46.3758 -2.6477 0.0415 0 7
-44.3748 45.6695 -2.6477 0.0415 0 7
-45.1021 44.9515 -2.6477 0.0415 0 7
-45.8177 44.2219 -2.6477 0.0415 0 7
-46.5214 43.4809 -2.6477 0.0415 0 7
-47.2133 42.7287 -2.6477 0.0415 0 7
-47.8929 41.9654 -2.6477 0.0415 0 7
-48.5603 41.1914 -2.6477 0.0415 0 7
-49.2151 40.4068 -2.6477 0.0415 0 7
-49.8572 39.6117 -2.6477 0.0415 0 7
-50.4865 38.8065 -2.6477 0.0415 0 7
-51.1028 37.9912 -2.6477 0.0415 0 7
-51.7060 37.1662 -2.6477 0.0415 0 7
-52.2957 36.3316 -2.6477 0.0415 0 6
-52.8721 35.4877 -2.6477 0.0415 0 6
-53.4348 34.6346 -2.6477 0.0415 0 7
-53.9837 33.7726 -2.6477 0.0415 0 7
-54.5188 32.9019 -2.6477 0.0415 0 7
-55.0398 32.0226 -2.6477 0.0415 0 7
-55.5466 31.1352 -2.6477 0.0415 0 7
-56.0391 30.2398 -2.6477 0.0415 0 7
-56.5172 29.3365 -2.6477 0.0415 0 7
-56.9808 28.4257 -2.6477 0.0415 0 6
-57.4297 27.5075 -2.6477 0.0415 0 7
-57.8637 26.5823 -2.6477 0.0415 0 7
-58.2829 25.6503 -2.6477 0.0415 0 7
-58.6870 24.7116 -2.6477 0.0415 0 7
-59.0760 23.7666 -2.6477 0.0415 0 7
-59.4498 22.8155 -2.6477 0.0415 0 7
-59.8084 21.8584 -2.6477 0.0415 0 7
-60.1514 20.8958 -2.6477 0.0415 0 7
-60.4790 19.9277 -2.6477 0.0415 0 7
-60.7911 18.9546 -2.6477 0.0415 0 7
-61.0874 17.9765 -2.6477 0.0415 0 7
-61.3681 16.9938 -2.6477 0.0415 0 7
-61.6329 16.0068 -2.6477 0.0415 0 7
-61.8818 15.0156 -2.6477 0.0415 0 7
-62.1148 14.0206 -2.6477 0.0415 0 7
-62.3319 13.0219 -2.6477 0.0415 0 7
-62.5328 12.0199 -2.6477 0.0415 0 7
-62.7177 11.0147 -2.6477 0.0415 0 7
-62.8864 10.0068 -2.6477 0.0415 0 7
-63.0389 8.9962 -2.6477 0.0415 0 7
-63.0499 7.9676 -2.6424 0.0445 0 8
-60.8004 6.6939 -2.5433 0.4692 0 8
-59.7496 5.6092 -2.4953 0.0415 0 8
-59.8318 4.6496 -2.4953 0.0415 0 8
-59.8988 3.6887 -2.4953 0.0415 0 8
-59.9503 2.7270 -2.4953 0.0415 0 8
-59.9863 1.7645 -2.4953 0.0415 0 8
-60.0069 0.8016 -2.4953 0.0415 0 8
-60.0120 -0.1616 -2.4953 0.0415 0 8
-60.0017 -1.1246 -2.4953 0.0415 0 8
-59.9760 -2.0874 -2.4953 0.0415 0 8
-59.9347 -3.0497 -2.4953 0.0415 0 8
-59.8781 -4.0112 -2.4953 0.0415 0 8
-59.8060 -4.9716 -2.4953 0.0415 0 8
-59.7185 -5.9308 -2.4953 0.0415 0 8
-59.6156 -6.8885 -2.4953 0.0415 0 8
-59.4974 -7.8443 -2.4953 0.0415 0 8
-59.3638 -8.7981 -2.4953 0.0415 0 8
-59.2150 -9.7497 -2.4953 0.0415 0 8
-59.0509 -10.6988 -2.4953 0.0415 0 8
-58.8716 -11.6451 -2.4953 0.0415 0 8
-58.6771 -12.5884 -2.4953 0.0415 0 8
-58.4675 -13.5285 -2.4953 0.0415 0 8
-58.2429 -14.4651 -2.4953 0.0415 0 8
-58.0032 -15.3979 -2.4953 0.0415 0 8
-57.7486 -16.3268 -2.4953 0.0415 0 8
-57.4792 -17.2515 -2.4953 0.0415 0 8
-57.1949 -18.1717 -2.4953 0.0415 0 8
-56.8959 -19.0873 -2.4953 0.0415 0 8
-56.5823 -19.9979 -2.4953 0.0415 0 8
-56.5356 -21.0080 -2.5078 0.9310 0 8
-56.5250 -22.0429 -2.5227 0.9255 0 8
-56.5142 -23.0903 -2.5384 0.9198 0 8
-56.5031 -24.1510 -2.5550 0.9138 0 8
-56.4918 -25.2259 -2.5724 0.9076 0 8
-56.4802 -26.3160 -2.5908 0.9012 0 8
33.0264 37.5367 -2.4953 0.0498 0 8
32.4197 38.0619 -2.4953 0.0498 0 8
31.8047 38.5773 -2.4953 0.0498 0 8
31.1815 39.0828 -2.4953 0.0498 0 8
30.5503 39.5781 -2.4953 0.0498 0 8
29.9112 40.0633 -2.4953 0.0498 0 8
29.2644 40.5382 -2.4953 0.0498 0 8
28.6100 41.0026 -2.4953 0.0498 0 8
27.9483 41.4565 -2.4953 0.0498 0 8
27.2794 41.8997 -2.4953 0.0498 0 8
26.6035 42.3321 -2.4953 0.0498 0 8
25.9206 42.7536 -2.4953 0.0498 0 8
25.2312 43.1641 -2.4953 0.0498 0 8
24.5352 43.5634 -2.4953 0.0498 0 8
23.8329 43.9516 -2.4953 0.0498 0 8
23.1244 44.3284 -2.4953 0.0498 0 8
22.4101 44.6938 -2.4953 0.0498 0 8
21.6899 45.0477 -2.4953 0.0498 0 8
20.9641 45.3900 -2.4953 0.0498 0 8
20.2330 45.7206 -2.4953 0.0498 0 8
19.4966 46.0395 -2.4953 0.0498 0 8
18.7553 46.3464 -2.4953 0.0498 0 8
18.0091 46.6414 -2.4953 0.0498 0 8
17.2582 46.9244 -2.4953 0.0498 0 8
16.5029 47.1954 -2.4953 0.0498 0 8
15.7434 47.4541 -2.4953 0.0498 0 8
14.9798 47.7007 -2.4953 0.0498 0 8
14.2123 47.9349 -2.4953 0.0498 0 8
13.4412 48.1568 -2.4953 0.0498 0 8
12.6666 48.3664 -2.4953 0.0498 0 8
11.8888 48.5634 -2.4953 0.0498 0 8
11.1078 48.7480 -2.4953 0.0498 0 8
10.3241 48.9199 -2.4953 0.0498 0 8
9.5377 49.0793 -2.4953 0.0498 0 8
8.7488 49.2261 -2.4953 0.0498 0 8
7.9576 49.3601 -2.4953 0.0498 0 8
7.1645 49.4815 -2.4953 0.0498 0 8
6.3694 49.5901 -2.4953 0.0498 0 8
5.5727 49.6859 -2.4953 0.0498 0 8
4.7746 49.7690 -2.4953 0.0498 0 8
3.9753 49.8392 -2.4953 0.0498 0 8
3.1749 49.8966 -2.4953 0.0498 0 8
2.3737 49.9411 -2.4953 0.0498 0 8
1.5719 49.9728 -2.4953 0.0498 0 8
0.7697 49.9915 -2.4953 0.0498 0 8
-0.0326 49.9975 -2.4953 0.0498 0 8
-0.8350 49.9905 -2.4953 0.0498 0 8
-1.6372 49.9707 -2.4953 0.0498 0 8
-2.4390 49.9379 -2.4953 0.0498 0 8
-3.2401 49.8924 -2.4953 0.0498 0 8
-4.0404 49.8340 -2.4953 0.0498 0 8
-4.8396 49.7627 -2.4953 0.0498 0 8
-5.6376 49.6786 -2.4953 0.0498 0 8
-6.4342 49.5817 -2.4953 0.0498 0 8
-7.2291 49.4721 -2.4953 0.0498 0 8
-8.0221 49.3497 -2.4953 0.0498 0 8
-8.8131 49.2146 -2.4953 0.0498 0 8
-9.6018 49.0668 -2.4953 0.0498 0 8
-10.3880 48.9064 -2.4953 0.0498 0 8
-11.1715 48.7334 -2.4953 0.0498 0 8
-11.9522 48.5478 -2.4953 0.0498 0 8
-12.7298 48.3498 -2.4953 0.0498 0 8
-13.5041 48.1392 -2.4953 0.0498 0 8
-14.2749 47.9163 -2.4953 0.0498 0 8
-15.0421 47.6811 -2.4953 0.0498 0 8
-15.8053 47.4335 -2.4953 0.0498 0 8
-16.5645 47.1738 -2.4953 0.0498 0 8
-17.3195 46.9018 -2.4953 0.0498 0 8
-18.0699 46.6179 -2.4953 0.0498 0 8
-18.8158 46.3219 -2.4953 0.0498 0 8
-19.5567 46.0139 -2.4953 0.0498 0 8
-20.2927 45.6941 -2.4953 0.0498 0 8
-21.0234 45.3626 -2.4953 0.0498 0 8
-21.7487 45.0193 -2.4953 0.0498 0 8
-22.4684 44.6645 -2.4953 0.0498 0 8
-23.1823 44.2982 -2.4953 0.0498 0 8
-23.8903 43.9204 -2.4953 0.0498 0 8
-24.5921 43.5313 -2.4953 0.0498 0 8
-25.2875 43.1311 -2.4953 0.0498 0 8
-25.9764 42.7197 -2.4953 0.0498 0 8
-26.6587 42.2973 -2.4953 0.0498 0 8
-27.3341 41.8640 -2.4953 0.0498 0 8
-28.0024 41.4199 -2.4953 0.0498 0 8
-28.6636 40.9652 -2.4953 0.0498 0 8
-29.3173 40.4999 -2.4953 0.0498 0 8
-29.9635 40.0242 -2.4953 0.0498 0 8
-30.6019 39.5382 -2.4953 0.0498 0 8
-31.2325 39.0420 -2.4953 0.0498 0 8
-31.8551 38.5357 -2.4953 0.0498 0 8
-32.4694 38.0195 -2.4953 0.0498 0 8
-33.0755 37.4935 -2.4953 0.0498 0 8
-33.6729 36.9579 -2.4953 0.0498 0 8
-34.2617 36.4127 -2.4953 0.0498 0 8
-34.8416 35.8582 -2.4953 0.0498 0 8
-37.5755 37.4500 -2.6477 0.0498 0 6
-38.1717 36.8422 -2.6477 0.0498 0 7
-38.7580 36.2248 -2.6477 0.0498 0 6
-39.3343 35.5981 -2.6477 0.0498 0 7
-39.9006 34.9623 -2.6477 0.0498 0 7
-40.4566 34.3174 -2.6477 0.0498 0 7
-41.0021 33.6637 -2.6477 0.0498 0 7
-41.5371 33.0013 -2.6477 0.0498 0 7
-42.0614 32.3305 -2.6477 0.0498 0 7
-42.5748 31.6513 -2.6477 0.0498 0 7
-43.0773 30.9639 -2.6477 0.0498 0 7
-43.5687 30.2686 -2.6477 0.0498 0 7
-44.0488 29.5655 -2.6477 0.0498 0 7
-44.5176 28.8548 -2.6477 0.0498 0 7
-44.9750 28.1367 -2.6477 0.0498 0 6
-45.4207 27.4112 -2.6477 0.0498 0 7
-45.8548 26.6787 -2.6477 0.0498 0 7
-46.2771 25.9394 -2.6477 0.0498 0 7
-46.6874 25.1934 -2.6477 0.0498 0 7
-47.0857 24.4409 -2.6477 0.0498 0 7
-47.4718 23.6821 -2.6477 0.0498 0 7
-47.8458 22.9171 -2.6477 0.0498 0 7
-48.2075 22.1463 -2.6477 0.0498 0 7
-48.5567 21.3698 -2.6477 0.0498 0 7
-48.8934 20.5878 -2.6477 0.0498 0 7
-49.2175 19.8005 -2.6477 0.0498 0 7
-49.5289 19.0080 -2.6477 0.0498 0 7
-49.8276 18.2107 -2.6477 0.0498 0 7
-50.1134 17.4087 -2.6477 0.0498 0 7
-50.3864 16.6022 -2.6477 0.0498 0 7
-50.6463 15.7914 -2.6477 0.0498 0 7
-50.8932 14.9766 -2.6477 0.0498 0 7
-51.1270 14.1579 -2.6477 0.0498 0 7
-51.3476 13.3356 -2.6477 0.0498 0 7
-51.5551 12.5098 -2.6477 0.0498 0 7
-51.7492 11.6808 -2.6477 0.0498 0 7
-51.9300 10.8488 -2.6477 0.0498 0 7
-52.0974 10.0140 -2.6477 0.0498 0 7
-52.2514 9.1766 -2.6477 0.0498 0 7
-52.3919 8.3368 -2.6477 0.0498 0 7
-52.5190 7.4950 -2.6477 0.0498 0 7
-52.6325 6.6511 -2.6477 0.0498 0 7
-52.7325 5.8056 -2.6477 0.0498 0 7
-52.8189 4.9586 -2.6477 0.0498 0 7
-52.8916 4.1102 -2.6477 0.0498 0 6
-52.9508 3.2609 -2.6477 0.0498 0 6
-52.9963 2.4107 -2.6477 0.0498 0 6
-53.0282 1.5599 -2.6477 0.0498 0 7
-53.0464 0.7086 -2.6477 0.0498 0 7
-53.0509 -0.1428 -2.6477 0.0498 0 7
-53.0418 -0.9942 -2.6477 0.0498 0 7
-53.0190 -1.8453 -2.6477 0.0498 0 7
-52.9826 -2.6960 -2.6477 0.0498 0 7
-52.9325 -3.5459 -2.6477 0.0498 0 7
-52.8687 -4.3949 -2.6477 0.0498 0 7
-52.7914 -5.2429 -2.6477 0.0498 0 7
-52.7005 -6.0894 -2.6477 0.0498 0 7
-52.5959 -6.9344 -2.6477 0.0498 0 7
-52.4779 -7.7776 -2.6477 0.0498 0 7
-52.3463 -8.6188 -2.6477 0.0498 0 7
-52.2012 -9.4578 -2.6477 0.0498 0 7
-52.0427 -10.2944 -2.6477 0.0498 0 7
-51.8708 -11.1282 -2.6477 0.0498 0 7
-51.6856 -11.9592 -2.6477 0.0498 0 7
-51.4870 -12.7872 -2.6477 0.0498 0 7
-51.2751 -13.6118 -2.6477 0.0498 0 7
-51.0501 -14.4330 -2.6477 0.0498 0 7
-50.8119 -15.2504 -2.6477 0.0498 0 7
-50.5606 -16.0639 -2.6477 0.0498 0 7
-50.2963 -16.8732 -2.6477 0.0498 0 7
-50.0190 -17.6783 -2.6477 0.0498 0 7
-49.7288 -18.4787 -2.6477 0.0498 0 7
-49.4259 -19.2744 -2.6477 0.0498 0 7
-49.1102 -20.0652 -2.6477 0.0498 0 7
-48.7818 -20.8507 -2.6477 0.0498 0 7
-48.4409 -21.6309 -2.6477 0.0498 0 7
-48.0875 -22.4055 -2.6477 0.0498 0 7
29.1775 33.1621 -2.5727 0.5754 0 8
28.1184 33.0119 -2.5257 0.6886 0 8
27.2531 33.0564 -2.4953 0.0581 0 8
26.7190 33.4895 -2.4953 0.0581 0 8
26.1781 33.9140 -2.4953 0.0581 0 8
25.6305 34.3297 -2.4953 0.0581 0 8
25.0763 34.7366 -2.4953 0.0581 0 8
24.5156 35.1346 -2.4953 0.0581 0 8
23.9485 35.5235 -2.4953 0.0581 0 8
23.3754 35.9033 -2.4953 0.0581 0 8
22.7962 36.2738 -2.4953 0.0581 0 8
22.2111 36.6350 -2.4953 0.0581 0 8
21.6203 36.9867 -2.4953 0.0581 0 8
21.0239 37.3289 -2.4953 0.0581 0 8
20.4221 37.6615 -2.4953 0.0581 0 8
19.8150 37.9844 -2.4953 0.0581 0 8
19.2029 38.2975 -2.4953 0.0581 0 8
18.5858 38.6008 -2.4953 0.0581 0 8
17.9639 38.8941 -2.4953 0.0581 0 8
17.3374 39.1774 -2.4953 0.0581 0 8
16.7064 39.4506 -2.4953 0.0581 0 8
16.0711 39.7136 -2.4953 0.0581 0 8
15.4317 39.9664 -2.4953 0.0581 0 8
14.7883 40.2089 -2.4953 0.0581 0 8
14.1411 40.4411 -2.4953 0.0581 0 8
13.4903 40.6628 -2.4953 0.0581 0 8
12.8360 40.8741 -2.4953 0.0581 0 8
12.1784 41.0748 -2.4953 0.0581 0 8
11.5176 41.2650 -2.4953 0.0581 0 8
10.8539 41.4445 -2.4953 0.0581 0 8
10.1873 41.6133 -2.4953 0.0581 0 8
9.5182 41.7715 -2.4953 0.0581 0 8
8.8466 41.9188 -2.4953 0.0581 0 8
8.1727 42.0554 -2.4953 0.0581 0 8
7.4967 42.1812 -2.4953 0.0581 0 8
6.8188 42.2961 -2.4953 0.0581 0 8
6.1391 42.4000 -2.4953 0.0581 0 8
5.4579 42.4931 -2.4953 0.0581 0 8
4.7752 42.5752 -2.4953 0.0581 0 8
4.0913 42.6464 -2.4953 0.0581 0 8
3.4064 42.7066 -2.4953 0.0581 0 8
2.7205 42.7557 -2.4953 0.0581 0 8
2.0340 42.7939 -2.4953 0.0581 0 8
1.3470 42.8210 -2.4953 0.0581 0 8
0.6596 42.8371 -2.4953 0.0581 0 8
-0.0280 42.8422 -2.4953 0.0581 0 8
-0.7155 42.8362 -2.4953 0.0581 0 8
-1.4029 42.8192 -2.4953 0.0581 0 8
-2.0899 42.7912 -2.4953 0.0581 0 8
-2.7764 42.7521 -2.4953 0.0581 0 8
-3.4621 42.7021 -2.4953 0.0581 0 8
-4.1470 42.6410 -2.4953 0.0581 0 8
-4.8308 42.5690 -2.4953 0.0581 0 8
-5.5134 42.4859 -2.4953 0.0581 0 8
-6.1945 42.3920 -2.4953 0.0581 0 8
-6.8740 42.2871 -2.4953 0.0581 0 8
-7.5518 42.1714 -2.4953 0.0581 0 8
-8.2276 42.0447 -2.4953 0.0581 0 8
-8.9013 41.9073 -2.4953 0.0581 0 8
-9.5727 41.7590 -2.4953 0.0581 0 8
-10.2417 41.6000 -2.4953 0.0581 0 8
-10.9080 41.4303 -2.4953 0.0581 0 8
-11.5715 41.2499 -2.4953 0.0581 0 8
-12.2320 41.0589 -2.4953 0.0581 0 8
-12.8894 40.8573 -2.4953 0.0581 0 8
-13.5434 40.6452 -2.4953 0.0581 0 8
-14.1939 40.4226 -2.4953 0.0581 0 8
-14.8408 40.1896 -2.4953 0.0581 0 8
-15.4839 39.9462 -2.4953 0.0581 0 8
-16.1230 39.6926 -2.4953 0.0581 0 8
-16.7579 39.4287 -2.4953 0.0581 0 8
-17.3886 39.1547 -2.4953 0.0581 0 8
-18.0147 38.8706 -2.4953 0.0581 0 8
-18.6362 38.5765 -2.4953 0.0581 0 8
-19.2529 38.2724 -2.4953 0.0581 0 8
-19.8646 37.9585 -2.4953 0.0581 0 8
-20.4713 37.6348 -2.4953 0.0581 0 8
-21.0726 37.3014 -2.4953 0.0581 0 8
-21.6685 36.9585 -2.4953 0.0581 0 8
-22.2589 36.6059 -2.4953 0.0581 0 8
-22.8435 36.2440 -2.4953 0.0581 0 8
-23.4222 35.8727 -2.4953 0.0581 0 8
-23.9949 35.4922 -2.4953 0.0581 0 8
-24.5614 35.1025 -2.4953 0.0581 0 8
-25.1216 34.7039 -2.4953 0.0581 0 8
-25.6753 34.2962 -2.4953 0.0581 0 8
-26.2224 33.8798 -2.4953 0.0581 0 8
-26.7628 33.4546 -2.4953 0.0581 0 8
-27.2962 33.0207 -2.4953 0.0581 0 8
-28.0367 32.8290 -2.5145 0.7588 0 8
-28.9527 32.8200 -2.5490 0.7485 0 8
-29.9066 32.8241 -2.5863 0.7155 0 8
-30.9994 32.9456 -2.6347 0.6060 0 8
-31.6788 32.6030 -2.6477 0.0581 0 7
-32.1979 32.0904 -2.6477 0.0581 0 7
-32.7088 31.5696 -2.6477 0.0581 0 7
-33.2112 31.0406 -2.6477 0.0581 0 7
-33.7051 30.5036 -2.6477 0.0581 0 7
-34.1903 29.9587 -2.6477 0.0581 0 7
-34.6667 29.4061 -2.6477 0.0581 0 7
-35.1342 28.8460 -2.6477 0.0581 0 7
-35.5926 28.2784 -2.6477 0.0581 0 7
-36.0418 27.7036 -2.6477 0.0581 0 7
-36.4818 27.1216 -2.6477 0.0581 0 7
-36.9124 26.5326 -2.6477 0.0581 0 7
-37.3334 25.9368 -2.6477 0.0581 0 7
-37.7449 25.3343 -2.6477 0.0581 0 7
-38.1466 24.7253 -2.6477 0.0581 0 7
-38.5385 24.1099 -2.6477 0.0581 0 7
-38.9204 23.4883 -2.6477 0.0581 0 7
-39.2924 22.8607 -2.6477 0.0581 0 7
-39.6542 22.2271 -2.6477 0.0581 0 7
-40.0058 21.5879 -2.6477 0.0581 0 7
-40.3471 20.9431 -2.6477 0.0581 0 7
-40.6780 20.2928 -2.6477 0.0581 0 7
-40.9985 19.6374 -2.6477 0.0581 0 6
-41.3083 18.9769 -2.6477 0.0581 0 7
-41.6076 18.3115 -2.6477 0.0581 0 7
-41.8961 17.6414 -2.6477 0.0581 0 7
-42.1738 16.9668 -2.6477 0.0581 0 7
-42.4407 16.2877 -2.6477 0.0581 0 7
-42.6966 15.6045 -2.6477 0.0581 0 7
-42.9415 14.9172 -2.6477 0.0581 0 6
-43.1754 14.2262 -2.6477 0.0581 0 7
-43.3982 13.5315 -2.6477 0.0581 0 7
-43.6097 12.8333 -2.6477 0.0581 0 7
-43.8101 12.1317 -2.6477 0.0581 0 7
-43.9991 11.4271 -2.6477 0.0581 0 7
-44.1769 10.7195 -2.6477 0.0581 0 7
-44.3432 10.0091 -2.6477 0.0581 0 7
-44.4981 9.2962 -2.6477 0.0581 0 7
-44.6416 8.5809 -2.6477 0.0581 0 7
-44.7735 7.8633 -2.6477 0.0581 0 7
-44.8940 7.1437 -2.6477 0.0581 0 7
-45.0028 6.4223 -2.6477 0.0581 0 7
-45.1001 5.6993 -2.6477 0.0581 0 7
-45.1858 4.9748 -2.6477 0.0581 0 7
-45.2598 4.2489 -2.6477 0.0581 0 7
-45.3221 3.5220 -2.6477 0.0581 0 7
-45.3728 2.7942 -2.6477 0.0581 0 7
-45.4118 2.0657 -2.6477 0.0581 0 7
-45.4393 1.3365 -2.6477 0.0581 0 7
-45.4547 0.6072 -2.6477 0.0581 0 7
-45.4586 -0.1224 -2.6477 0.0581 0 7
-45.4508 -0.8519 -2.6477 0.0581 0 7
-45.4313 -1.5812 -2.6477 0.0581 0 7
-45.4001 -2.3101 -2.6477 0.0581 0 7
-45.3571 -3.0384 -2.6477 0.0581 0 7
-45.3025 -3.7660 -2.6477 0.0581 0 7
-45.2363 -4.4926 -2.6477 0.0581 0 7
-45.1583 -5.2180 -2.6477 0.0581 0 7
-45.0688 -5.9420 -2.6477 0.0581 0 7
-44.9676 -6.6645 -2.6477 0.0581 0 7
-44.8549 -7.3853 -2.6477 0.0581 0 7
-44.7305 -8.1043 -2.6477 0.0581 0 7
-44.5947 -8.8211 -2.6477 0.0581 0 7
-44.4474 -9.5356 -2.6477 0.0581 0 7
-44.2887 -10.2477 -2.6477 0.0581 0 7
-44.1185 -10.9572 -2.6477 0.0581 0 7
-43.9370 -11.6638 -2.6477 0.0581 0 7
-43.7441 -12.3674 -2.6477 0.0581 0 7
-43.5400 -13.0679 -2.6477 0.0581 0 7
-43.3247 -13.7649 -2.6477 0.0581 0 7
-43.0982 -14.4584 -2.6477 0.0581 0 7
-42.8606 -15.1483 -2.6477 0.0581 0 7
-42.6120 -15.8341 -2.6477 0.0581 0 7
-42.3524 -16.5160 -2.6477 0.0581 0 7
-42.0819 -17.1936 -2.6477 0.0581 0 7
-41.8005 -17.8667 -2.6477 0.0581 0 7
-41.5084 -18.5352 -2.6477 0.0581 0 7
-41.2056 -19.1990 -2.6477 0.0581 0 7
26.2657 29.8527 -2.6477 0.0664 0 7
25.7832 30.2703 -2.6477 0.0664 0 7
25.2941 30.6802 -2.6477 0.0664 0 7
24.7984 31.0822 -2.6477 0.0664 0 7
24.2964 31.4762 -2.6477 0.0664 0 7
23.7882 31.8621 -2.6477 0.0664 0 7
23.2738 32.2397 -2.6477 0.0664 0 7
22.7399 32.5898 -2.6461 0.0803 0 8
22.1714 32.8874 -2.6410 0.0804 0 8
21.4509 32.9473 -2.6179 0.8328 0 8
20.7074 32.9502 -2.5913 0.8413 0 8
19.9787 32.9529 -2.5660 0.8496 0 8
19.2638 32.9554 -2.5418 0.8577 0 8
18.5620 32.9577 -2.5187 0.8656 0 8
17.8752 32.9646 -2.4970 0.6662 0 8
17.3321 33.2248 -2.4953 0.0664 0 8
16.7967 33.4987 -2.4953 0.0664 0 8
16.2569 33.7640 -2.4953 0.0664 0 8
15.7130 34.0205 -2.4953 0.0664 0 8
15.1650 34.2683 -2.4953 0.0664 0 8
14.6130 34.5073 -2.4953 0.0664 0 8
14.0574 34.7374 -2.4953 0.0664 0 8
13.4981 34.9585 -2.4953 0.0664 0 8
12.9353 35.1706 -2.4953 0.0664 0 8
12.3692 35.3737 -2.4953 0.0664 0 8
11.7999 35.5676 -2.4953 0.0664 0 8
11.2276 35.7524 -2.4953 0.0664 0 8
10.6524 35.9280 -2.4953 0.0664 0 8
10.0744 36.0943 -2.4953 0.0664 0 8
9.4938 36.2514 -2.4953 0.0664 0 8
8.9108 36.3990 -2.4953 0.0664 0 8
8.3255 36.5374 -2.4953 0.0664 0 8
7.7381 36.6663 -2.4953 0.0664 0 8
7.1486 36.7857 -2.4953 0.0664 0 8
6.5573 36.8957 -2.4953 0.0664 0 8
5.9644 36.9962 -2.4953 0.0664 0 8
5.3699 37.0872 -2.4953 0.0664 0 8
4.7740 37.1686 -2.4953 0.0664 0 8
4.1768 37.2404 -2.4953 0.0664 0 8
3.5786 37.3026 -2.4953 0.0664 0 8
2.9795 37.3553 -2.4953 0.0664 0 8
2.3796 37.3983 -2.4953 0.0664 0 8
1.7792 37.4317 -2.4953 0.0664 0 8
1.1782 37.4554 -2.4953 0.0664 0 8
0.5769 37.4695 -2.4953 0.0664 0 8
-0.0245 37.4739 -2.4953 0.0664 0 8
-0.6259 37.4687 -2.4953 0.0664 0 8
-1.2271 37.4538 -2.4953 0.0664 0 8
-1.8280 37.4293 -2.4953 0.0664 0 8
-2.4285 37.3951 -2.4953 0.0664 0 8
-3.0283 37.3513 -2.4953 0.0664 0 8
-3.6274 37.2979 -2.4953 0.0664 0 8
-4.2255 37.2349 -2.4953 0.0664 0 8
-4.8225 37.1623 -2.4953 0.0664 0 8
-5.4183 37.0801 -2.4953 0.0664 0 8
-6.0127 36.9884 -2.4953 0.0664 0 8
-6.6055 36.8871 -2.4953 0.0664 0 8
-7.1967 36.7764 -2.4953 0.0664 0 8
-7.7859 36.6561 -2.4953 0.0664 0 8
-8.3732 36.5265 -2.4953 0.0664 0 8
-8.9584 36.3874 -2.4953 0.0664 0 8
-9.5412 36.2389 -2.4953 0.0664 0 8
-10.1215 36.0811 -2.4953 0.0664 0 8
-10.6993 35.9141 -2.4953 0.0664 0 8
-11.2743 35.7377 -2.4953 0.0664 0 8
-11.8464 35.5522 -2.4953 0.0664 0 8
-12.4154 35.3575 -2.4953 0.0664 0 8
-12.9812 35.1537 -2.4953 0.0664 0 8
-13.5437 34.9408 -2.4953 0.0664 0 8
-14.1027 34.7190 -2.4953 0.0664 0 8
-14.6581 34.4882 -2.4953 0.0664 0 8
-15.2097 34.2485 -2.4953 0.0664 0 8
-15.7574 34.0000 -2.4953 0.0664 0 8
-16.3010 33.7427 -2.4953 0.0664 0 8
-16.8404 33.4768 -2.4953 0.0664 0 8
-17.3755 33.2022 -2.4953 0.0664 0 8
-17.9061 32.9190 -2.4953 0.0664 0 8
-18.5611 32.8556 -2.5127 0.8677 0 8
-19.2595 32.8495 -2.5356 0.8598 0 8
-19.9708 32.8431 -2.5595 0.8518 0 8
-20.6958 32.8364 -2.5845 0.8436 0 8
-21.4353 32.8295 -2.6107 0.8351 0 8
-22.1899 32.8223 -2.6381 0.8264 0 8
-22.7708 32.5433 -2.6447 0.0803 0 8
-23.3158 32.2093 -2.6477 0.0664 0 7
-23.8298 31.8310 -2.6477 0.0664 0 7
-24.3375 31.4445 -2.6477 0.0664 0 7
-24.8390 31.0498 -2.6477 0.0664 0 7
-25.3342 30.6472 -2.6477 0.0664 0 7
-25.8227 30.2366 -2.6477 0.0664 0 7
-26.3047 29.8183 -2.6477 0.0664 0 6
-26.7798 29.3923 -2.6477 0.0664 0 7
-27.2481 28.9587 -2.6477 0.0664 0 7
-27.7093 28.5178 -2.6477 0.0664 0 7
-28.1634 28.0694 -2.6477 0.0664 0 7
-28.6103 27.6138 -2.6477 0.0664 0 7
-29.0497 27.1511 -2.6477 0.0664 0 7
-29.4817 26.6814 -2.6477 0.0664 0 7
-29.9061 26.2051 -2.6477 0.0664 0 7
-30.3229 25.7214 -2.6477 0.0664 0 7
-30.7317 25.2315 -2.6477 0.0664 0 7
-31.1327 24.7350 -2.6477 0.0664 0 7
-31.5257 24.2322 -2.6477 0.0664 0 7
-31.9105 23.7232 -2.6477 0.0664 0 7
-30.5216 21.9389 -2.5029 0.0664 0 14
-30.8697 21.4463 -2.5029 0.0664 0 14
-31.2100 20.9481 -2.5029 0.0664 0 14
-31.5421 20.4445 -2.5029 0.0664 0 14
-31.8662 19.9357 -2.5029 0.0664 0 14
-32.1820 19.4217 -2.5029 0.0664 0 8
-34.3689 19.9961 -2.6477 0.0664 0 7
-34.6854 19.4420 -2.6477 0.0664 0 7
-34.9929 18.8828 -2.6477 0.0664 0 7
-35.2915 18.3188 -2.6477 0.0664 0 7
-35.5809 17.7501 -2.6477 0.0664 0 7
-35.8612 17.1767 -2.6477 0.0664 0 7
-36.1323 16.5990 -2.6477 0.0664 0 7
-36.3940 16.0170 -2.6477 0.0664 0 7
-36.6464 15.4309 -2.6477 0.0664 0 7
-36.8893 14.8407 -2.6477 0.0664 0 6
-37.1227 14.2468 -2.6477 0.0664 0 7
-37.3466 13.6492 -2.6477 0.0664 0 7
-37.5608 13.0481 -2.6477 0.0664 0 6
-37.7654 12.4436 -2.6477 0.0664 0 7
-37.9602 11.8359 -2.6477 0.0664 0 7
-38.1453 11.2252 -2.6477 0.0664 0 7
-38.3205 10.6116 -2.6477 0.0664 0 7
-38.4859 9.9953 -2.6477 0.0664 0 7
-38.6413 9.3763 -2.6477 0.0664 0 7
-38.7868 8.7550 -2.6477 0.0664 0 7
-38.9223 8.1314 -2.6477 0.0664 0 7
-39.0478 7.5057 -2.6477 0.0664 0 7
-39.1633 6.8780 -2.6477 0.0664 0 7
-39.2686 6.2486 -2.6477 0.0664 0 7
-39.3638 5.6176 -2.6477 0.0664 0 7
-39.4489 4.9851 -2.6477 0.0664 0 7
-39.5238 4.3514 -2.6477 0.0664 0 7
-39.5886 3.7165 -2.6477 0.0664 0 6
-39.6431 3.0807 -2.6477 0.0664 0 6
-39.6875 2.4441 -2.6477 0.0664 0 6
-37.4352 1.7028 -2.4953 0.0664 0 8
-37.4577 1.1018 -2.4953 0.0664 0 8
-37.4706 0.5005 -2.4953 0.0664 0 8
-37.4738 -0.1009 -2.4953 0.0664 0 8
-37.4673 -0.7023 -2.4953 0.0664 0 8
-37.4512 -1.3035 -2.4953 0.0664 0 8
-37.4255 -1.9044 -2.4953 0.0664 0 8
-37.3901 -2.5047 -2.4953 0.0664 0 8
-37.3451 -3.1045 -2.4953 0.0664 0 8
-37.2905 -3.7034 -2.4953 0.0664 0 8
-37.2262 -4.3014 -2.4953 0.0664 0 8
-37.1524 -4.8983 -2.4953 0.0664 0 8
-37.0690 -5.4939 -2.4953 0.0664 0 8
-36.9761 -6.0881 -2.4953 0.0664 0 8
-36.8736 -6.6808 -2.4953 0.0664 0 8
-36.7616 -7.2717 -2.4953 0.0664 0 8
-36.6402 -7.8607 -2.4953 0.0664 0 8
-36.5093 -8.4477 -2.4953 0.0664 0 8
-36.3690 -9.0325 -2.4953 0.0664 0 8
-36.2194 -9.6150 -2.4953 0.0664 0 8
-36.0604 -10.1951 -2.4953 0.0664 0 8
-35.8922 -10.7725 -2.4953 0.0664 0 8
-35.7147 -11.3471 -2.4953 0.0664 0 8
-35.5280 -11.9188 -2.4953 0.0664 0 8
-35.3321 -12.4875 -2.4953 0.0664 0 8
-35.1271 -13.0529 -2.4953 0.0664 0 8
-34.9131 -13.6149 -2.4953 0.0664 0 8
-34.6901 -14.1735 -2.4953 0.0664 0 8
-34.4582 -14.7284 -2.4953 0.0664 0 8
-34.2174 -15.2795 -2.4953 0.0664 0 8
-33.9678 -15.8267 -2.4953 0.0664 0 8
23.3381 26.5253 -2.6477 0.0747 0 7
22.9094 26.8964 -2.6477 0.0747 0 7
22.4748 27.2606 -2.6477 0.0747 0 7
22.0344 27.6178 -2.6477 0.0747 0 7
21.5884 27.9679 -2.6477 0.0747 0 7
21.1367 28.3108 -2.6477 0.0747 0 7
20.6797 28.6463 -2.6477 0.0747 0 7
20.2173 28.9745 -2.6477 0.0747 0 7
19.7497 29.2952 -2.6477 0.0747 0 7
19.2770 29.6084 -2.6477 0.0747 0 7
18.7993 29.9140 -2.6477 0.0747 0 7
18.3168 30.2118 -2.6477 0.0747 0 7
17.8296 30.5019 -2.6477 0.0747 0 7
17.3378 30.7841 -2.6477 0.0747 0 7
16.8415 31.0584 -2.6477 0.0747 0 7
16.3409 31.3247 -2.6477 0.0747 0 7
15.8361 31.5829 -2.6477 0.0747 0 7
15.3272 31.8330 -2.6477 0.0747 0 7
14.8143 32.0749 -2.6477 0.0747 0 7
14.2977 32.3085 -2.6477 0.0747 0 7
13.7728 32.5232 -2.6468 0.0903 0 8
13.2338 32.7022 -2.6437 0.0904 0 8
12.6931 32.8738 -2.6408 0.0905 0 8
12.1073 32.9194 -2.6285 0.9329 0 8
11.5114 32.9205 -2.6135 0.9383 0 8
10.9220 32.9215 -2.5994 0.9434 0 8
10.3388 32.9224 -2.5860 0.9483 0 8
9.7614 32.9231 -2.5734 0.9529 0 8
9.1894 32.9237 -2.5616 0.9573 0 8
8.6225 32.9242 -2.5505 0.9615 0 8
8.0602 32.9245 -2.5402 0.9654 0 8
7.5023 32.9247 -2.5306 0.9690 0 8
6.9485 32.9249 -2.5217 0.9724 0 8
6.3983 32.9248 -2.5135 0.9756 0 8
5.8516 32.9247 -2.5060 0.9785 0 8
5.3084 32.9273 -2.4994 0.7486 0 8
4.7713 32.9535 -2.4953 0.0747 0 8
4.2419 33.0258 -2.4953 0.0747 0 8
3.7113 33.0896 -2.4953 0.0747 0 8
3.1798 33.1449 -2.4953 0.0747 0 8
2.6474 33.1917 -2.4953 0.0747 0 8
2.1144 33.2299 -2.4953 0.0747 0 8
1.5808 33.2595 -2.4953 0.0747 0 8
1.0469 33.2806 -2.4953 0.0747 0 8
0.5126 33.2931 -2.4953 0.0747 0 8
-0.0217 33.2971 -2.4953 0.0747 0 8
-0.5561 33.2924 -2.4953 0.0747 0 8
-1.0903 33.2792 -2.4953 0.0747 0 8
-1.6243 33.2575 -2.4953 0.0747 0 8
-2.1578 33.2271 -2.4953 0.0747 0 8
-2.6908 33.1882 -2.4953 0.0747 0 8
-3.2231 33.1407 -2.4953 0.0747 0 8
-3.7545 33.0847 -2.4953 0.0747 0 8
-4.2850 33.0202 -2.4953 0.0747 0 8
-4.8143 32.9472 -2.4953 0.0747 0 8
-5.3480 32.8992 -2.4978 0.7493 0 8
-5.8902 32.8924 -2.5042 0.9793 0 8
-6.4361 32.8896 -2.5115 0.9764 0 8
-6.9853 32.8866 -2.5195 0.9733 0 8
-7.5381 32.8834 -2.5282 0.9700 0 8
-8.0949 32.8801 -2.5376 0.9664 0 8
-8.6559 32.8767 -2.5477 0.9625 0 8
-9.2216 32.8731 -2.5586 0.9584 0 8
-9.7922 32.8694 -2.5702 0.9541 0 8
-10.3682 32.8655 -2.5826 0.9495 0 8
-10.9498 32.8614 -2.5957 0.9447 0 8
-11.5374 32.8572 -2.6097 0.9397 0 8
-12.1316 32.8528 -2.6245 0.9344 0 8
-12.7324 32.8478 -2.6401 0.0905 0 8
-13.2725 32.6751 -2.6430 0.0904 0 8
-13.8110 32.4951 -2.6460 0.0903 0 8
-14.3399 32.2898 -2.6477 0.0747 0 7
-14.8562 32.0555 -2.6477 0.0747 0 7
-15.3687 31.8129 -2.6477 0.0747 0 7
-15.8773 31.5622 -2.6477 0.0747 0 7
-16.3818 31.3033 -2.6477 0.0747 0 7
-16.8821 31.0364 -2.6477 0.0747 0 7
-17.3780 30.7614 -2.6477 0.0747 0 7
-17.8694 30.4786 -2.6477 0.0747 0 7
-18.3563 30.1879 -2.6477 0.0747 0 7
-18.8382 29.8894 -2.6477 0.0747 0 6
-19.3157 29.5832 -2.6477 0.0747 0 7
-19.7879 29.2694 -2.6477 0.0747 0 7
-20.2551 28.9481 -2.6477 0.0747 0 7
-20.7171 28.6193 -2.6477 0.0747 0 7
-21.1737 28.2831 -2.6477 0.0747 0 7
-21.6249 27.9397 -2.6477 0.0747 0 7
-22.0705 27.5890 -2.6477 0.0747 0 7
-22.5104 27.2313 -2.6477 0.0747 0 7
-22.9446 26.8665 -2.6477 0.0747 0 7
-23.3728 26.4948 -2.6477 0.0747 0 7
-23.7950 26.1163 -2.6477 0.0747 0 7
-24.2110 25.7310 -2.6477 0.0747 0 7
-24.6208 25.3392 -2.6477 0.0747 0 7
-25.0244 24.9408 -2.6477 0.0747 0 7
-25.4214 24.5360 -2.6477 0.0747 0 7
-25.8119 24.1248 -2.6477 0.0747 0 7
-26.1957 23.7075 -2.6477 0.0747 0 7
-25.1198 22.0108 -2.5029 0.0747 0 14
-25.4698 21.6048 -2.5029 0.0747 0 14
-25.8132 21.1933 -2.5029 0.0747 0 14
-26.1500 20.7763 -2.5029 0.0747 0 14
-26.4801 20.3539 -2.5029 0.0747 0 14
-26.8033 19.9263 -2.5029 0.0747 0 14
-27.1197 19.4936 -2.5029 0.0747 0 14
-27.4290 19.0559 -2.5029 0.0747 0 14
-28.1230 18.8761 -2.5382 0.5623 0 8
-29.1009 18.8622 -2.5988 0.5492 0 8
-29.9522 18.7383 -2.6477 0.0747 0 7
-30.2491 18.2552 -2.6477 0.0747 0 7
-30.5382 17.7674 -2.6477 0.0747 0 7
-30.8194 17.2750 -2.6477 0.0747 0 6
-31.0927 16.7782 -2.6477 0.0747 0 7
-31.3579 16.2770 -2.6477 0.0747 0 7
-31.6151 15.7717 -2.6477 0.0747 0 7
-31.8642 15.2622 -2.6477 0.0747 0 7
-32.1050 14.7489 -2.6477 0.0747 0 7
-32.3376 14.2318 -2.6477 0.0747 0 7
-32.5618 13.7110 -2.6477 0.0747 0 7
-32.7776 13.1866 -2.6477 0.0747 0 7
-32.9850 12.6589 -2.6477 0.0747 0 7
-33.1840 12.1279 -2.6477 0.0747 0 7
-33.3743 11.5938 -2.6477 0.0747 0 7
-33.5561 11.0567 -2.6477 0.0747 0 7
-33.7292 10.5167 -2.6477 0.0747 0 6
-33.8936 9.9741 -2.6477 0.0747 0 7
-34.0493 9.4288 -2.6477 0.0747 0 7
-34.1963 8.8812 -2.6477 0.0747 0 7
-34.3344 8.3312 -2.6477 0.0747 0 7
-32.4799 7.3313 -2.4953 0.0747 0 8
-32.5934 6.8091 -2.4953 0.0747 0 8
-32.6985 6.2852 -2.4953 0.0747 0 8
-32.7952 5.7596 -2.4953 0.0747 0 8
-32.8834 5.2325 -2.4953 0.0747 0 8
-32.9631 4.7042 -2.4953 0.0747 0 8
-33.0343 4.1745 -2.4953 0.0747 0 8
-33.0971 3.6439 -2.4953 0.0747 0 8
-33.1514 3.1122 -2.4953 0.0747 0 8
-33.1970 2.5798 -2.4953 0.0747 0 8
-33.2341 2.0467 -2.4953 0.0747 0 8
-33.2627 1.5130 -2.4953 0.0747 0 8
-33.2827 0.9790 -2.4953 0.0747 0 8
-33.2941 0.4447 -2.4953 0.0747 0 8
-33.2970 -0.0896 -2.4953 0.0747 0 8
-33.2912 -0.6240 -2.4953 0.0747 0 8
-33.2770 -1.1582 -2.4953 0.0747 0 8
-33.2541 -1.6921 -2.4953 0.0747 0 8
-33.2226 -2.2256 -2.4953 0.0747 0 8
-33.1826 -2.7585 -2.4953 0.0747 0 8
-33.1341 -3.2907 -2.4953 0.0747 0 8
-33.0770 -3.8220 -2.4953 0.0747 0 8
-33.0114 -4.3523 -2.4953 0.0747 0 8
-32.9373 -4.8815 -2.4953 0.0747 0 8
-32.8547 -5.4095 -2.4953 0.0747 0 8
-32.7637 -5.9361 -2.4953 0.0747 0 8
-32.6642 -6.4612 -2.4953 0.0747 0 8
-32.5563 -6.9845 -2.4953 0.0747 0 8
-32.4400 -7.5061 -2.4953 0.0747 0 8
-32.3154 -8.0258 -2.4953 0.0747 0 8
-32.1824 -8.5434 -2.4953 0.0747 0 8
-32.0412 -9.0587 -2.4953 0.0747 0 8
-31.8917 -9.5718 -2.4953 0.0747 0 8
-31.7339 -10.0824 -2.4953 0.0747 0 8
-31.5681 -10.5904 -2.4953 0.0747 0 8
-31.3940 -11.0949 -2.4953 0.0747 0 8
-31.2119 -11.5983 -2.4953 0.0747 0 8
-31.0217 -12.0974 -2.4953 0.0747 0 8
-30.8236 -12.5937 -2.4953 0.0747 0 8
-30.6175 -13.0868 -2.4953 0.0747 0 8
-30.4036 -13.5765 -2.4953 0.0747 0 8
-30.1818 -14.0627 -2.4953 0.0747 0 8
20.9951 23.8623 -2.6477 0.0830 0 7
20.6094 24.1962 -2.6477 0.0830 0 7
20.2185 24.5238 -2.6477 0.0830 0 7
19.8223 24.8451 -2.6477 0.0830 0 7
19.4210 25.1600 -2.6477 0.0830 0 7
19.0147 25.4685 -2.6477 0.0830 0 7
18.6035 25.7704 -2.6477 0.0830 0 7
18.1876 26.0656 -2.6477 0.0830 0 7
17.7669 26.3541 -2.6477 0.0830 0 7
17.3417 26.6359 -2.6477 0.0830 0 7
16.9120 26.9107 -2.6477 0.0830 0 7
16.4779 27.1787 -2.6477 0.0830 0 7
16.0396 27.4396 -2.6477 0.0830 0 7
15.5972 27.6935 -2.6477 0.0830 0 7
15.1507 27.9403 -2.6477 0.0830 0 7
14.7003 28.1798 -2.6477 0.0830 0 7
14.2462 28.4121 -2.6477 0.0830 0 7
13.7884 28.6371 -2.6477 0.0830 0 7
13.3270 28.8547 -2.6477 0.0830 0 7
12.8622 29.0649 -2.6477 0.0830 0 7
12.3941 29.2675 -2.6477 0.0830 0 7
11.9228 29.4627 -2.6477 0.0830 0 7
11.4485 29.6502 -2.6477 0.0830 0 7
10.9711 29.8301 -2.6477 0.0830 0 7
10.4910 30.0024 -2.6477 0.0830 0 6
10.0082 30.1669 -2.6477 0.0830 0 7
9.5227 30.3236 -2.6477 0.0830 0 7
9.0349 30.4725 -2.6477 0.0830 0 7
8.5447 30.6136 -2.6477 0.0830 0 7
8.0522 30.7468 -2.6477 0.0830 0 7
7.5578 30.8720 -2.6477 0.0830 0 7
7.0613 30.9894 -2.6477 0.0830 0 7
6.5631 31.0987 -2.6477 0.0830 0 7
6.0631 31.2000 -2.6477 0.0830 0 7
5.5617 31.2933 -2.6477 0.0830 0 7
5.0587 31.3785 -2.6477 0.0830 0 7
4.5545 31.4557 -2.6477 0.0830 0 7
4.0491 31.5247 -2.6477 0.0830 0 7
3.5426 31.5856 -2.6477 0.0830 0 7
3.0352 31.6384 -2.6477 0.0830 0 7
2.5271 31.6831 -2.6477 0.0830 0 7
2.0183 31.7195 -2.6477 0.0830 0 7
1.5090 31.7478 -2.6477 0.0830 0 7
0.9993 31.7680 -2.6477 0.0830 0 7
0.4893 31.7799 -2.6477 0.0830 0 7
-0.0208 31.7837 -2.6477 0.0830 0 7
-0.5308 31.7793 -2.6477 0.0830 0 7
-1.0408 31.7666 -2.6477 0.0830 0 7
-1.5505 31.7458 -2.6477 0.0830 0 7
-2.0597 31.7169 -2.6477 0.0830 0 7
-2.5685 31.6797 -2.6477 0.0830 0 7
-3.0766 31.6344 -2.6477 0.0830 0 7
-3.5839 31.5810 -2.6477 0.0830 0 7
-4.0902 31.5194 -2.6477 0.0830 0 7
-4.5956 31.4497 -2.6477 0.0830 0 7
-5.0997 31.3719 -2.6477 0.0830 0 7
-5.6025 31.2860 -2.6477 0.0830 0 7
-6.1039 31.1921 -2.6477 0.0830 0 7
-6.6037 31.0901 -2.6477 0.0830 0 7
-7.1018 30.9801 -2.6477 0.0830 0 7
-7.5981 30.8621 -2.6477 0.0830 0 7
-8.0924 30.7362 -2.6477 0.0830 0 7
-8.5846 30.6024 -2.6477 0.0830 0 7
-9.0746 30.4607 -2.6477 0.0830 0 7
-9.5623 30.3111 -2.6477 0.0830 0 7
-10.0475 30.1538 -2.6477 0.0830 0 7
-10.5302 29.9886 -2.6477 0.0830 0 7
-11.0101 29.8158 -2.6477 0.0830 0 7
-11.4872 29.6352 -2.6477 0.0830 0 7
-11.9613 29.4471 -2.6477 0.0830 0 7
-12.4323 29.2513 -2.6477 0.0830 0 7
-12.9002 29.0480 -2.6477 0.0830 0 7
-13.3647 28.8373 -2.6477 0.0830 0 7
-13.8258 28.6191 -2.6477 0.0830 0 7
-14.2833 28.3935 -2.6477 0.0830 0 7
-14.7371 28.1606 -2.6477 0.0830 0 7
-15.1872 27.9205 -2.6477 0.0830 0 7
-15.6333 27.6731 -2.6477 0.0830 0 7
-16.0754 27.4187 -2.6477 0.0830 0 7
-16.5134 27.1572 -2.6477 0.0830 0 7
-16.9471 26.8886 -2.6477 0.0830 0 7
-17.3765 26.6132 -2.6477 0.0830 0 7
-17.8013 26.3309 -2.6477 0.0830 0 7
-18.2216 26.0418 -2.6477 0.0830 0 7
-18.6372 25.7460 -2.6477 0.0830 0 7
-19.0480 25.4436 -2.6477 0.0830 0 7
-19.4538 25.1347 -2.6477 0.0830 0 7
-19.8547 24.8192 -2.6477 0.0830 0 7
-20.2505 24.4974 -2.6477 0.0830 0 7
-20.6410 24.1692 -2.6477 0.0830 0 7
-21.0263 23.8348 -2.6477 0.0830 0 7
-20.2355 22.2096 -2.5029 0.0830 0 8
-20.5894 21.8820 -2.5029 0.0830 0 14
-20.9379 21.5488 -2.5029 0.0830 0 14
-21.2810 21.2099 -2.5029 0.0830 0 14
-21.6187 20.8657 -2.5029 0.0830 0 14
-21.9507 20.5161 -2.5029 0.0830 0 14
-22.2772 20.1611 -2.5029 0.0830 0 14
-22.5979 19.8010 -2.5029 0.0830 0 14
-22.9127 19.4358 -2.5029 0.0830 0 14
-23.2217 19.0656 -2.5029 0.0830 0 14
-23.7756 18.8898 -2.5296 0.6268 0 8
-24.5602 18.8782 -2.5805 0.6144 0 8
-25.3770 18.8660 -2.6342 0.6019 0 8
-25.8083 18.5509 -2.6477 0.0830 0 7
-26.1026 18.1344 -2.6477 0.0830 0 7
-26.3903 17.7131 -2.6477 0.0830 0 7
-26.6712 17.2873 -2.6477 0.0830 0 7
-26.9452 16.8571 -2.6477 0.0830 0 7
-27.2122 16.4225 -2.6477 0.0830 0 7
-27.4723 15.9836 -2.6477 0.0830 0 7
-27.7253 15.5407 -2.6477 0.0830 0 7
-27.9711 15.0937 -2.6477 0.0830 0 7
-28.2097 14.6429 -2.6477 0.0830 0 7
-28.4411 14.1883 -2.6477 0.0830 0 7
-28.6651 13.7300 -2.6477 0.0830 0 7
-28.8818 13.2682 -2.6477 0.0830 0 7
-29.0910 12.8030 -2.6477 0.0830 0 7
-29.2927 12.3344 -2.6477 0.0830 0 7
-29.4869 11.8627 -2.6477 0.0830 0 7
-29.6735 11.3880 -2.6477 0.0830 0 6
-29.8524 10.9103 -2.6477 0.0830 0 7
-30.0237 10.4298 -2.6477 0.0830 0 7
-30.1872 9.9466 -2.6477 0.0830 0 7
-30.3430 9.4609 -2.6477 0.0830 0 7
-30.4909 8.9727 -2.6477 0.0830 0 7
-28.8678 7.9940 -2.4953 0.0830 0 8
-28.9924 7.5297 -2.4953 0.0830 0 8
-29.1095 7.0633 -2.4953 0.0830 0 8
-29.2191 6.5953 -2.4953 0.0830 0 8
-29.3212 6.1255 -2.4953 0.0830 0 8
-29.4157 5.6542 -2.4953 0.0830 0 8
-29.5027 5.1814 -2.4953 0.0830 0 8
-29.5820 4.7072 -2.4953 0.0830 0 8
-29.6538 4.2319 -2.4953 0.0830 0 8
-29.7179 3.7554 -2.4953 0.0830 0 8
-29.7743 3.2780 -2.4953 0.0830 0 8
-29.8231 2.7997 -2.4953 0.0830 0 8
-29.8642 2.3208 -2.4953 0.0830 0 8
-29.8976 1.8412 -2.4953 0.0830 0 8
-29.9233 1.3611 -2.4953 0.0830 0 8
-29.9413 0.8807 -2.4953 0.0830 0 8
-29.9515 0.4001 -2.4953 0.0830 0 8
-29.9541 -0.0806 -2.4953 0.0830 0 8
-29.9490 -0.5614 -2.4953 0.0830 0 8
-29.9361 -1.0419 -2.4953 0.0830 0 8
-29.9155 -1.5222 -2.4953 0.0830 0 8
-29.8872 -2.0021 -2.4953 0.0830 0 8
-29.8513 -2.4815 -2.4953 0.0830 0 8
-29.8076 -2.9603 -2.4953 0.0830 0 8
-29.7562 -3.4383 -2.4953 0.0830 0 8
-29.6972 -3.9154 -2.4953 0.0830 0 8
-29.6306 -4.3915 -2.4953 0.0830 0 8
-29.5563 -4.8664 -2.4953 0.0830 0 8
-29.4744 -5.3402 -2.4953 0.0830 0 8
-29.3849 -5.8125 -2.4953 0.0830 0 8
-29.2878 -6.2833 -2.4953 0.0830 0 8
-29.1832 -6.7525 -2.4953 0.0830 0 8
-29.0711 -7.2200 -2.4953 0.0830 0 8
-28.9514 -7.6856 -2.4953 0.0830 0 8
-28.8244 -8.1493 -2.4953 0.0830 0 8
-28.6899 -8.6108 -2.4953 0.0830 0 8
-28.5480 -9.0701 -2.4953 0.0830 0 8
-28.3987 -9.5271 -2.4953 0.0830 0 8
-28.2422 -9.9817 -2.4953 0.0830 0 8
-28.0784 -10.4336 -2.4953 0.0830 0 8
-27.9073 -10.8829 -2.4953 0.0830 0 8
-27.7291 -11.3294 -2.4953 0.0830 0 8
-27.5437 -11.7729 -2.4953 0.0830 0 8
-27.3512 -12.2134 -2.4953 0.0830 0 8
-27.1516 -12.6508 -2.4953 0.0830 0 8
18.0340 20.4968 -2.5029 0.0913 0 14
17.7028 20.7836 -2.5029 0.0913 0 14
17.3669 21.0651 -2.5029 0.0913 0 14
17.0266 21.3411 -2.5029 0.0913 0 14
16.6819 21.6116 -2.5029 0.0913 0 14
16.3329 21.8765 -2.5029 0.0913 0 14
15.9798 22.1358 -2.5029 0.0913 0 14
15.6225 22.3894 -2.5029 0.0913 0 8
16.1439 23.9467 -2.6477 0.0913 0 7
15.7575 24.2027 -2.6477 0.0913 0 7
15.3671 24.4525 -2.6477 0.0913 0 7
14.9727 24.6959 -2.6477 0.0913 0 7
14.5744 24.9330 -2.6477 0.0913 0 7
14.1724 25.1637 -2.6477 0.0913 0 7
13.7667 25.3879 -2.6477 0.0913 0 7
13.3575 25.6056 -2.6477 0.0913 0 7
12.9448 25.8167 -2.6477 0.0913 0 7
12.5288 26.0211 -2.6477 0.0913 0 7
12.1096 26.2188 -2.6477 0.0913 0 7
11.6873 26.4098 -2.6477 0.0913 0 7
11.2619 26.5940 -2.6477 0.0913 0 7
10.8337 26.7713 -2.6477 0.0913 0 7
10.4026 26.9417 -2.6477 0.0913 0 7
9.9689 27.1052 -2.6477 0.0913 0 7
9.5327 27.2617 -2.6477 0.0913 0 7
9.0939 27.4111 -2.6477 0.0913 0 7
8.6528 27.5535 -2.6477 0.0913 0 7
8.2095 27.6889 -2.6477 0.0913 0 7
7.7641 27.8171 -2.6477 0.0913 0 7
7.3167 27.9381 -2.6477 0.0913 0 7
6.8674 28.0519 -2.6477 0.0913 0 7
6.4163 28.1585 -2.6477 0.0913 0 7
5.9635 28.2578 -2.6477 0.0913 0 7
5.5093 28.3499 -2.6477 0.0913 0 7
5.0536 28.4347 -2.6477 0.0913 0 7
