ply
format ascii 1.0
element vertex 1356
property float32 x
property float32 y
property float32 z
property float32 CosAngle
property uint32 ObjIdx
property uint32 ObjTag
end_header
-26.3605 6.7777 -2.4953 0.0913 0 8
-26.4660 6.3532 -2.4953 0.0913 0 8
-26.5647 5.9272 -2.4953 0.0913 0 8
-26.6565 5.4996 -2.4953 0.0913 0 8
-26.7414 5.0706 -2.4953 0.0913 0 8
-26.8194 4.6403 -2.4953 0.0913 0 8
-26.8905 4.2088 -2.4953 0.0913 0 8
-26.9547 3.7762 -2.4953 0.0913 0 8
-27.0119 3.3426 -2.4953 0.0913 0 8
-27.0621 2.9081 -2.4953 0.0913 0 8
-27.1053 2.4729 -2.4953 0.0913 0 8
-27.1416 2.0371 -2.4953 0.0913 0 8
-27.1708 1.6008 -2.4953 0.0913 0 8
-27.1930 1.1640 -2.4953 0.0913 0 8
-27.2082 0.7269 -2.4953 0.0913 0 8
-27.2164 0.2897 -2.4953 0.0913 0 8
-27.2175 -0.1477 -2.4953 0.0913 0 8
-27.2116 -0.5849 -2.4953 0.0913 0 8
-27.1987 -1.0221 -2.4953 0.0913 0 8
-27.1788 -1.4590 -2.4953 0.0913 0 8
-4.2740 26.1120 -2.6477 0.0996 0 7
-4.6930 26.0400 -2.6477 0.0996 0 7
-5.1108 25.9612 -2.6477 0.0996 0 7
-5.5273 25.8758 -2.6477 0.0996 0 7
-5.9423 25.7836 -2.6477 0.0996 0 7
-6.3558 25.6848 -2.6477 0.0996 0 7
-6.7677 25.5794 -2.6477 0.0996 0 7
-7.1778 25.4673 -2.6477 0.0996 0 7
-7.5861 25.3487 -2.6477 0.0996 0 7
-7.9924 25.2236 -2.6477 0.0996 0 7
-8.3966 25.0919 -2.6477 0.0996 0 7
-8.7987 24.9537 -2.6477 0.0996 0 7
-9.1985 24.8091 -2.6477 0.0996 0 7
-9.5959 24.6581 -2.6477 0.0996 0 7
-9.9909 24.5008 -2.6477 0.0996 0 7
-10.3832 24.3371 -2.6477 0.0996 0 7
-10.7729 24.1671 -2.6477 0.0996 0 7
-11.1598 23.9909 -2.6477 0.0996 0 7
-11.5439 23.8085 -2.6477 0.0996 0 7
-11.2728 22.3284 -2.5029 0.0996 0 8
-11.6301 22.1444 -2.5029 0.0996 0 14
-11.9844 21.9546 -2.5029 0.0996 0 14
-12.3356 21.7593 -2.5029 0.0996 0 14
-12.6837 21.5582 -2.5029 0.0996 0 14
-13.0284 21.3517 -2.5029 0.0996 0 14
-13.3698 21.1396 -2.5029 0.0996 0 14
-13.7077 20.9220 -2.5029 0.0996 0 14
-14.0421 20.6991 -2.5029 0.0996 0 14
-14.3729 20.4708 -2.5029 0.0996 0 14
-14.6999 20.2372 -2.5029 0.0996 0 14
-15.0232 19.9984 -2.5029 0.0996 0 14
-15.3426 19.7545 -2.5029 0.0996 0 14
-15.6580 19.5054 -2.5029 0.0996 0 14
-15.9693 19.2513 -2.5029 0.0996 0 14
-16.2766 18.9922 -2.5029 0.0996 0 8
-16.7404 18.9098 -2.5272 0.7525 0 8
-17.2828 18.9017 -2.5629 0.7420 0 8
-17.8408 18.8932 -2.6002 0.7314 0 8
-18.4153 18.8844 -2.6394 0.7205 0 8
-18.7749 18.6442 -2.6477 0.0996 0 7
-19.0721 18.3402 -2.6477 0.0996 0 6
-19.3643 18.0313 -2.6477 0.0996 0 7
-19.6515 17.7179 -2.6477 0.0996 0 7
-19.9336 17.3999 -2.6477 0.0996 0 7
-20.2106 17.0773 -2.6477 0.0996 0 7
-20.4824 16.7504 -2.6477 0.0996 0 7
-20.7489 16.4191 -2.6477 0.0996 0 7
-21.0101 16.0836 -2.6477 0.0996 0 7
-21.2658 15.7440 -2.6477 0.0996 0 7
-21.5160 15.4003 -2.6477 0.0996 0 7
-21.7606 15.0526 -2.6477 0.0996 0 7
-21.9997 14.7010 -2.6477 0.0996 0 7
-22.2330 14.3457 -2.6477 0.0996 0 7
-22.4607 13.9866 -2.6477 0.0996 0 7
-22.6825 13.6239 -2.6477 0.0996 0 7
-22.8985 13.2577 -2.6477 0.0996 0 7
-23.1085 12.8881 -2.6477 0.0996 0 7
-23.3126 12.5151 -2.6477 0.0996 0 7
-23.5107 12.1389 -2.6477 0.0996 0 7
-23.7027 11.7596 -2.6477 0.0996 0 7
-23.8885 11.3772 -2.6477 0.0996 0 6
-24.0683 10.9919 -2.6477 0.0996 0 7
-24.2418 10.6038 -2.6477 0.0996 0 7
-24.4091 10.2129 -2.6477 0.0996 0 7
-24.5700 9.8194 -2.6477 0.0996 0 7
-24.7246 9.4234 -2.6477 0.0996 0 7
-24.8728 9.0249 -2.6477 0.0996 0 7
-23.5747 8.1277 -2.4953 0.0996 0 8
-23.7023 7.7479 -2.4953 0.0996 0 8
-23.8237 7.3661 -2.4953 0.0996 0 8
-23.9390 6.9823 -2.4953 0.0996 0 8
-24.0481 6.5968 -2.4953 0.0996 0 8
-24.1510 6.2096 -2.4953 0.0996 0 8
-24.2477 5.8207 -2.4953 0.0996 0 8
-24.3380 5.4304 -2.4953 0.0996 0 8
-24.4222 5.0386 -2.4953 0.0996 0 8
-24.5000 4.6456 -2.4953 0.0996 0 8
-24.5714 4.2513 -2.4953 0.0996 0 8
-24.6366 3.8560 -2.4953 0.0996 0 8
-24.6953 3.4596 -2.4953 0.0996 0 8
-24.7477 3.0624 -2.4953 0.0996 0 8
-24.7938 2.6644 -2.4953 0.0996 0 8
-24.8333 2.2657 -2.4953 0.0996 0 8
-24.8666 1.8664 -2.4953 0.0996 0 8
-24.8933 1.4666 -2.4953 0.0996 0 8
-24.9137 1.0664 -2.4953 0.0996 0 8
-24.9276 0.6660 -2.4953 0.0996 0 8
-24.9351 0.2654 -2.4953 0.0996 0 8
-24.9361 -0.1353 -2.4953 0.0996 0 8
-24.9307 -0.5359 -2.4953 0.0996 0 8
-24.9189 -0.9364 -2.4953 0.0996 0 8
-24.9007 -1.3367 -2.4953 0.0996 0 8
-3.9430 24.0894 -2.6477 0.1078 0 7
-4.3295 24.0230 -2.6477 0.1078 0 7
-4.7149 23.9503 -2.6477 0.1078 0 7
-5.0992 23.8715 -2.6477 0.1078 0 7
-5.4820 23.7864 -2.6477 0.1078 0 7
-5.8635 23.6953 -2.6477 0.1078 0 7
-5.9021 22.3076 -2.5029 0.1078 0 8
-6.2597 22.2099 -2.5029 0.1078 0 14
-6.6158 22.1065 -2.5029 0.1078 0 14
-6.9701 21.9973 -2.5029 0.1078 0 14
-7.3227 21.8825 -2.5029 0.1078 0 14
-7.6733 21.7620 -2.5029 0.1078 0 14
-8.0220 21.6359 -2.5029 0.1078 0 14
-8.3686 21.5042 -2.5029 0.1078 0 14
-8.7130 21.3670 -2.5029 0.1078 0 14
-9.0552 21.2243 -2.5029 0.1078 0 14
-9.3950 21.0760 -2.5029 0.1078 0 14
-9.7324 20.9224 -2.5029 0.1078 0 14
-10.0673 20.7633 -2.5029 0.1078 0 14
-10.3996 20.5989 -2.5029 0.1078 0 14
-10.7293 20.4291 -2.5029 0.1078 0 14
-11.0561 20.2541 -2.5029 0.1078 0 14
-11.3801 20.0738 -2.5029 0.1078 0 14
-11.7012 19.8884 -2.5029 0.1078 0 14
-12.0192 19.6978 -2.5029 0.1078 0 14
-12.3342 19.5021 -2.5029 0.1078 0 14
-12.6459 19.3014 -2.5029 0.1078 0 14
-12.9544 19.0958 -2.5029 0.1078 0 14
-13.2874 18.9248 -2.5081 0.6527 0 8
-13.7406 18.9165 -2.5360 0.8121 0 8
-14.2054 18.9098 -2.5653 0.8028 0 8
-14.6811 18.9028 -2.5961 0.7933 0 8
-15.1683 18.8955 -2.6282 0.7836 0 8
-15.5846 18.7875 -2.6477 0.1078 0 7
-15.8844 18.5346 -2.6477 0.1078 0 7
-16.1802 18.2770 -2.6477 0.1078 0 7
-16.4718 18.0147 -2.6477 0.1078 0 7
-16.7591 17.7477 -2.6477 0.1078 0 7
-17.0421 17.4762 -2.6477 0.1078 0 7
-17.3207 17.2001 -2.6477 0.1078 0 7
-17.5948 16.9195 -2.6477 0.1078 0 7
-17.8644 16.6347 -2.6477 0.1078 0 7
-18.1293 16.3455 -2.6477 0.1078 0 7
-18.3896 16.0521 -2.6477 0.1078 0 7
-18.6452 15.7546 -2.6477 0.1078 0 7
-18.8959 15.4529 -2.6477 0.1078 0 7
-19.1417 15.1473 -2.6477 0.1078 0 7
-19.3826 14.8378 -2.6477 0.1078 0 7
-19.6186 14.5245 -2.6477 0.1078 0 7
-19.8494 14.2074 -2.6477 0.1078 0 7
-20.0751 13.8866 -2.6477 0.1078 0 7
-20.2956 13.5623 -2.6477 0.1078 0 7
-20.5109 13.2345 -2.6477 0.1078 0 7
-20.7209 12.9032 -2.6477 0.1078 0 7
-20.9255 12.5686 -2.6477 0.1078 0 7
-21.1248 12.2308 -2.6477 0.1078 0 7
-21.3186 11.8898 -2.6477 0.1078 0 7
-21.5069 11.5457 -2.6477 0.1078 0 7
-21.6896 11.1986 -2.6477 0.1078 0 7
-21.8667 10.8487 -2.6477 0.1078 0 7
-22.0382 10.4960 -2.6477 0.1078 0 7
-22.2040 10.1405 -2.6477 0.1078 0 7
-22.3641 9.7824 -2.6477 0.1078 0 7
-22.5184 9.4219 -2.6477 0.1078 0 7
-22.6668 9.0588 -2.6477 0.1078 0 7
-21.4965 8.1931 -2.4953 0.1078 0 8
-21.6254 7.8466 -2.4953 0.1078 0 8
-21.7487 7.4982 -2.4953 0.1078 0 8
-21.8664 7.1477 -2.4953 0.1078 0 8
-21.9784 6.7955 -2.4953 0.1078 0 8
-22.0847 6.4415 -2.4953 0.1078 0 8
-22.1854 6.0858 -2.4953 0.1078 0 8
-22.2803 5.7286 -2.4953 0.1078 0 8
-22.3695 5.3699 -2.4953 0.1078 0 8
-22.4528 5.0097 -2.4953 0.1078 0 8
-22.5304 4.6483 -2.4953 0.1078 0 8
-22.6022 4.2857 -2.4953 0.1078 0 8
-22.6682 3.9220 -2.4953 0.1078 0 8
-22.7283 3.5573 -2.4953 0.1078 0 8
-22.7825 3.1916 -2.4953 0.1078 0 8
-22.8308 2.8252 -2.4953 0.1078 0 8
-22.8733 2.4580 -2.4953 0.1078 0 8
-22.9098 2.0902 -2.4953 0.1078 0 8
-22.9404 1.7218 -2.4953 0.1078 0 8
-22.9651 1.3530 -2.4953 0.1078 0 8
-22.9839 0.9838 -2.4953 0.1078 0 8
-22.9968 0.6144 -2.4953 0.1078 0 8
-23.0037 0.2448 -2.4953 0.1078 0 8
-23.0046 -0.1248 -2.4953 0.1078 0 8
-22.9996 -0.4944 -2.4953 0.1078 0 8
-22.9887 -0.8639 -2.4953 0.1078 0 8
-22.9719 -1.2331 -2.4953 0.1078 0 8
-3.4590 21.1324 -2.5029 0.1161 0 14
-3.7981 21.0741 -2.5029 0.1161 0 14
-4.1362 21.0103 -2.5029 0.1161 0 14
-4.4732 20.9412 -2.5029 0.1161 0 14
-4.8091 20.8666 -2.5029 0.1161 0 14
-5.1438 20.7866 -2.5029 0.1161 0 14
-5.4771 20.7013 -2.5029 0.1161 0 14
-5.8090 20.6106 -2.5029 0.1161 0 14
-6.1394 20.5146 -2.5029 0.1161 0 14
-6.4682 20.4133 -2.5029 0.1161 0 14
-6.7954 20.3068 -2.5029 0.1161 0 14
-7.1208 20.1950 -2.5029 0.1161 0 14
-7.4443 20.0780 -2.5029 0.1161 0 14
-7.7659 19.9558 -2.5029 0.1161 0 14
-8.0856 19.8284 -2.5029 0.1161 0 14
-8.4031 19.6959 -2.5029 0.1161 0 14
-8.7185 19.5584 -2.5029 0.1161 0 14
-9.0316 19.4158 -2.5029 0.1161 0 14
-9.3424 19.2682 -2.5029 0.1161 0 14
-9.6508 19.1156 -2.5029 0.1161 0 14
-9.9567 18.9580 -2.5029 0.1161 0 8
-10.3327 18.9288 -2.5206 0.8797 0 8
-10.7281 18.9237 -2.5426 0.8721 0 8
-11.1305 18.9183 -2.5655 0.8643 0 8
-11.5402 18.9127 -2.5896 0.8562 0 8
-11.9577 18.9069 -2.6148 0.8480 0 8
-12.3835 18.9008 -2.6411 0.8395 0 8
-12.7170 18.7458 -2.6477 0.1161 0 7
-13.0165 18.5390 -2.6477 0.1161 0 7
-13.3127 18.3275 -2.6477 0.1161 0 7
-13.6055 18.1112 -2.6477 0.1161 0 7
-13.8947 17.8903 -2.6477 0.1161 0 7
-14.1804 17.6647 -2.6477 0.1161 0 7
-14.4624 17.4346 -2.6477 0.1161 0 7
-14.7406 17.2000 -2.6477 0.1161 0 7
-15.0151 16.9609 -2.6477 0.1161 0 7
-15.2857 16.7175 -2.6477 0.1161 0 7
-15.5523 16.4697 -2.6477 0.1161 0 7
-15.8149 16.2177 -2.6477 0.1161 0 7
-16.0734 15.9615 -2.6477 0.1161 0 7
-16.3278 15.7012 -2.6477 0.1161 0 7
-16.5780 15.4368 -2.6477 0.1161 0 7
-16.8239 15.1685 -2.6477 0.1161 0 7
-17.0653 14.8962 -2.6477 0.1161 0 7
-17.3025 14.6201 -2.6477 0.1161 0 7
-17.5352 14.3402 -2.6477 0.1161 0 7
-17.7634 14.0566 -2.6477 0.1161 0 7
-17.9869 13.7694 -2.6477 0.1161 0 7
-18.2058 13.4786 -2.6477 0.1161 0 7
-18.4201 13.1843 -2.6477 0.1161 0 7
-18.6295 12.8867 -2.6477 0.1161 0 7
-18.8342 12.5857 -2.6477 0.1161 0 7
-19.0339 12.2815 -2.6477 0.1161 0 7
-19.2288 11.9741 -2.6477 0.1161 0 7
-19.4187 11.6635 -2.6477 0.1161 0 7
-19.6036 11.3500 -2.6477 0.1161 0 6
-19.7834 11.0336 -2.6477 0.1161 0 7
-19.9582 10.7143 -2.6477 0.1161 0 7
-20.1277 10.3922 -2.6477 0.1161 0 7
-20.2921 10.0675 -2.6477 0.1161 0 7
-20.4513 9.7402 -2.6477 0.1161 0 7
-20.6051 9.4103 -2.6477 0.1161 0 7
-20.7537 9.0780 -2.6477 0.1161 0 7
-19.6940 8.2401 -2.4953 0.1161 0 8
-19.8239 7.9226 -2.4953 0.1161 0 8
-19.9486 7.6031 -2.4953 0.1161 0 8
-20.0682 7.2816 -2.4953 0.1161 0 8
-20.1826 6.9582 -2.4953 0.1161 0 8
-20.2918 6.6330 -2.4953 0.1161 0 8
-20.3957 6.3062 -2.4953 0.1161 0 8
-20.4944 5.9776 -2.4953 0.1161 0 8
-20.5878 5.6476 -2.4953 0.1161 0 8
-20.6759 5.3161 -2.4953 0.1161 0 8
-20.7587 4.9832 -2.4953 0.1161 0 8
-20.8361 4.6490 -2.4953 0.1161 0 8
-20.9081 4.3136 -2.4953 0.1161 0 8
-20.9747 3.9771 -2.4953 0.1161 0 8
-21.0359 3.6396 -2.4953 0.1161 0 8
-21.0916 3.3012 -2.4953 0.1161 0 8
-21.1420 2.9618 -2.4953 0.1161 0 8
-21.1868 2.6218 -2.4953 0.1161 0 8
-21.2262 2.2810 -2.4953 0.1161 0 8
-21.2601 1.9397 -2.4953 0.1161 0 8
-21.2885 1.5978 -2.4953 0.1161 0 8
-21.3114 1.2556 -2.4953 0.1161 0 8
-21.3289 0.9130 -2.4953 0.1161 0 8
-21.3408 0.5702 -2.4953 0.1161 0 8
-21.3472 0.2272 -2.4953 0.1161 0 8
-21.3481 -0.1158 -2.4953 0.1161 0 8
-21.3435 -0.4588 -2.4953 0.1161 0 8
-21.3333 -0.8017 -2.4953 0.1161 0 8
-21.3177 -1.1443 -2.4953 0.1161 0 8
-3.2262 19.7103 -2.5029 0.1243 0 14
-3.5425 19.6559 -2.5029 0.1243 0 14
-3.8578 19.5965 -2.5029 0.1243 0 14
-4.1722 19.5320 -2.5029 0.1243 0 14
-4.4855 19.4624 -2.5029 0.1243 0 14
-4.7976 19.3878 -2.5029 0.1243 0 14
-5.1085 19.3082 -2.5029 0.1243 0 14
-5.4181 19.2237 -2.5029 0.1243 0 14
-5.7262 19.1341 -2.5029 0.1243 0 14
-6.0329 19.0397 -2.5029 0.1243 0 8
-6.3408 18.9483 -2.5040 0.7539 0 8
-6.6781 18.9397 -2.5167 0.9437 0 8
-7.0209 18.9361 -2.5309 0.9384 0 8
-7.3677 18.9324 -2.5459 0.9328 0 8
-7.7186 18.9285 -2.5617 0.9271 0 8
-8.0739 18.9244 -2.5784 0.9211 0 8
-8.4340 18.9201 -2.5959 0.9149 0 8
-8.7990 18.9157 -2.6144 0.9084 0 8
-9.1693 18.9111 -2.6337 0.9017 0 8
-9.5220 18.8605 -2.6477 0.1243 0 7
-9.8238 18.7051 -2.6477 0.1243 0 7
-10.1231 18.5449 -2.6477 0.1243 0 7
-10.4198 18.3798 -2.6477 0.1243 0 6
-10.7137 18.2100 -2.6477 0.1243 0 7
-11.0049 18.0355 -2.6477 0.1243 0 7
-11.2933 17.8564 -2.6477 0.1243 0 7
-11.5788 17.6726 -2.6477 0.1243 0 7
-11.8612 17.4843 -2.6477 0.1243 0 7
-12.1406 17.2915 -2.6477 0.1243 0 7
-12.4169 17.0942 -2.6477 0.1243 0 7
-12.6899 16.8925 -2.6477 0.1243 0 7
-12.9597 16.6864 -2.6477 0.1243 0 7
-13.2261 16.4760 -2.6477 0.1243 0 7
-13.4891 16.2614 -2.6477 0.1243 0 7
-13.7487 16.0425 -2.6477 0.1243 0 7
-14.0047 15.8196 -2.6477 0.1243 0 7
-14.2570 15.5925 -2.6477 0.1243 0 7
-14.5057 15.3614 -2.6477 0.1243 0 7
-14.7507 15.1264 -2.6477 0.1243 0 7
-14.9918 14.8874 -2.6477 0.1243 0 6
-15.2291 14.6446 -2.6477 0.1243 0 7
-15.4624 14.3980 -2.6477 0.1243 0 7
-15.6917 14.1477 -2.6477 0.1243 0 7
-15.9170 13.8938 -2.6477 0.1243 0 7
-16.1382 13.6362 -2.6477 0.1243 0 7
-16.3552 13.3752 -2.6477 0.1243 0 7
-16.5680 13.1107 -2.6477 0.1243 0 7
-16.7765 12.8428 -2.6477 0.1243 0 7
-16.9807 12.5716 -2.6477 0.1243 0 7
-17.1805 12.2971 -2.6477 0.1243 0 7
-17.3759 12.0195 -2.6477 0.1243 0 7
-17.5667 11.7388 -2.6477 0.1243 0 7
-17.7531 11.4550 -2.6477 0.1243 0 7
-17.9348 11.1683 -2.6477 0.1243 0 7
-18.1120 10.8787 -2.6477 0.1243 0 7
-18.2844 10.5862 -2.6477 0.1243 0 7
-18.4521 10.2911 -2.6477 0.1243 0 7
-18.6151 9.9933 -2.6477 0.1243 0 7
-18.7733 9.6929 -2.6477 0.1243 0 7
-18.9266 9.3900 -2.6477 0.1243 0 7
-19.0750 9.0847 -2.6477 0.1243 0 7
-18.1123 8.2719 -2.4953 0.1243 0 8
-18.2429 7.9798 -2.4953 0.1243 0 8
-18.3687 7.6856 -2.4953 0.1243 0 8
-18.4899 7.3895 -2.4953 0.1243 0 8
-18.6062 7.0915 -2.4953 0.1243 0 8
-18.7177 6.7916 -2.4953 0.1243 0 8
-18.8244 6.4900 -2.4953 0.1243 0 8
-18.9263 6.1867 -2.4953 0.1243 0 8
-19.0233 5.8818 -2.4953 0.1243 0 8
-19.1153 5.5754 -2.4953 0.1243 0 8
-19.2024 5.2675 -2.4953 0.1243 0 8
-19.2846 4.9583 -2.4953 0.1243 0 8
-19.3617 4.6478 -2.4953 0.1243 0 8
-19.4339 4.3361 -2.4953 0.1243 0 8
-19.5011 4.0233 -2.4953 0.1243 0 8
-19.5632 3.7095 -2.4953 0.1243 0 8
-19.6203 3.3947 -2.4953 0.1243 0 8
-19.6723 3.0790 -2.4953 0.1243 0 8
-19.7192 2.7625 -2.4953 0.1243 0 8
-19.7611 2.4453 -2.4953 0.1243 0 8
-19.7978 2.1275 -2.4953 0.1243 0 8
-19.8294 1.8091 -2.4953 0.1243 0 8
-19.8559 1.4903 -2.4953 0.1243 0 8
-19.8773 1.1711 -2.4953 0.1243 0 8
-19.8936 0.8516 -2.4953 0.1243 0 8
-19.9047 0.5318 -2.4953 0.1243 0 8
-19.9107 0.2119 -2.4953 0.1243 0 8
-19.9115 -0.1080 -2.4953 0.1243 0 8
-19.9072 -0.4279 -2.4953 0.1243 0 8
-19.8977 -0.7477 -2.4953 0.1243 0 8
-19.8832 -1.0673 -2.4953 0.1243 0 8
-3.1002 18.9403 -2.5673 0.9864 0 8
-3.4131 18.9381 -2.5741 0.9838 0 8
-3.7278 18.9359 -2.5816 0.9809 0 8
-4.0444 18.9335 -2.5898 0.9778 0 8
-4.3630 18.9309 -2.5987 0.9745 0 8
-4.6839 18.9283 -2.6083 0.9709 0 8
-5.0072 18.9254 -2.6187 0.9670 0 8
-5.3332 18.9225 -2.6298 0.9629 0 8
-5.6620 18.9194 -2.6417 0.9586 0 8
-5.9787 18.8686 -2.6477 0.1326 0 7
-6.2811 18.7701 -2.6477 0.1326 0 7
-6.5819 18.6667 -2.6477 0.1326 0 7
-6.8810 18.5586 -2.6477 0.1326 0 7
-7.1781 18.4457 -2.6477 0.1326 0 6
-7.4737 18.3280 -2.6477 0.1326 0 7
-7.7672 18.2055 -2.6477 0.1326 0 7
-8.0587 18.0784 -2.6477 0.1326 0 7
-8.3482 17.9465 -2.6477 0.1326 0 7
-8.6354 17.8101 -2.6477 0.1326 0 7
-8.9205 17.6690 -2.6477 0.1326 0 7
-9.2032 17.5234 -2.6477 0.1326 0 7
-9.4836 17.3733 -2.6477 0.1326 0 7
-9.7615 17.2187 -2.6477 0.1326 0 7
-10.0369 17.0596 -2.6477 0.1326 0 7
-10.3097 16.8962 -2.6477 0.1326 0 7
-10.5799 16.7283 -2.6477 0.1326 0 7
-10.8473 16.5562 -2.6477 0.1326 0 7
-11.1119 16.3798 -2.6477 0.1326 0 7
-11.3736 16.1991 -2.6477 0.1326 0 7
-11.6324 16.0143 -2.6477 0.1326 0 7
-11.8882 15.8253 -2.6477 0.1326 0 7
-12.1410 15.6322 -2.6477 0.1326 0 7
-12.3906 15.4352 -2.6477 0.1326 0 7
-12.6370 15.2341 -2.6477 0.1326 0 7
-12.8801 15.0291 -2.6477 0.1326 0 7
-13.1199 14.8202 -2.6477 0.1326 0 7
-13.3564 14.6075 -2.6477 0.1326 0 7
-13.5893 14.3910 -2.6477 0.1326 0 7
-13.8188 14.1708 -2.6477 0.1326 0 7
-14.0447 13.9469 -2.6477 0.1326 0 7
-14.2670 13.7194 -2.6477 0.1326 0 7
-14.4855 13.4884 -2.6477 0.1326 0 7
-14.7004 13.2540 -2.6477 0.1326 0 7
-14.9115 13.0161 -2.6477 0.1326 0 7
-15.1187 12.7748 -2.6477 0.1326 0 7
-15.3220 12.5302 -2.6477 0.1326 0 7
-15.5213 12.2824 -2.6477 0.1326 0 7
-15.7167 12.0315 -2.6477 0.1326 0 7
-15.9080 11.7774 -2.6477 0.1326 0 7
-16.0951 11.5203 -2.6477 0.1326 0 7
-16.2782 11.2602 -2.6477 0.1326 0 7
-16.4570 10.9972 -2.6477 0.1326 0 7
-16.6315 10.7313 -2.6477 0.1326 0 7
-16.8018 10.4627 -2.6477 0.1326 0 7
-16.9678 10.1914 -2.6477 0.1326 0 7
-17.1293 9.9175 -2.6477 0.1326 0 7
-17.2865 9.6410 -2.6477 0.1326 0 7
-17.4391 9.3620 -2.6477 0.1326 0 7
-17.5873 9.0806 -2.6477 0.1326 0 7
-16.7104 8.2905 -2.4953 0.1326 0 8
-16.8414 8.0209 -2.4953 0.1326 0 8
-16.9681 7.7493 -2.4953 0.1326 0 8
-17.0904 7.4757 -2.4953 0.1326 0 8
-17.2083 7.2001 -2.4953 0.1326 0 8
-17.3218 6.9227 -2.4953 0.1326 0 8
-17.4308 6.6435 -2.4953 0.1326 0 8
-17.5353 6.3626 -2.4953 0.1326 0 8
-17.6352 6.0800 -2.4953 0.1326 0 8
-17.7306 5.7959 -2.4953 0.1326 0 8
-17.8215 5.5102 -2.4953 0.1326 0 8
-17.9077 5.2232 -2.4953 0.1326 0 8
-17.9893 4.9348 -2.4953 0.1326 0 8
-18.0663 4.6451 -2.4953 0.1326 0 8
-18.1386 4.3542 -2.4953 0.1326 0 8
-18.2062 4.0622 -2.4953 0.1326 0 8
-18.2691 3.7692 -2.4953 0.1326 0 8
-18.3273 3.4751 -2.4953 0.1326 0 8
-18.3808 3.1802 -2.4953 0.1326 0 8
-18.4295 2.8845 -2.4953 0.1326 0 8
-18.4735 2.5880 -2.4953 0.1326 0 8
-18.5127 2.2909 -2.4953 0.1326 0 8
-18.5471 1.9931 -2.4953 0.1326 0 8
-18.5767 1.6948 -2.4953 0.1326 0 8
-18.6016 1.3962 -2.4953 0.1326 0 8
-18.6216 1.0971 -2.4953 0.1326 0 8
-18.6368 0.7978 -2.4953 0.1326 0 8
-18.6472 0.4982 -2.4953 0.1326 0 8
-18.6528 0.1985 -2.4953 0.1326 0 8
-18.6536 -0.1012 -2.4953 0.1326 0 8
-18.6496 -0.4009 -2.4953 0.1326 0 8
-18.6407 -0.7005 -2.4953 0.1326 0 8
-18.6271 -0.9999 -2.4953 0.1326 0 8
-3.0067 18.3701 -2.6477 0.1408 0 6
-3.3016 18.3194 -2.6477 0.1408 0 7
-3.5955 18.2640 -2.6477 0.1408 0 7
-3.8885 18.2039 -2.6477 0.1408 0 7
-4.1805 18.1391 -2.6477 0.1408 0 7
-4.4714 18.0696 -2.6477 0.1408 0 7
-4.7612 17.9954 -2.6477 0.1408 0 7
-5.0497 17.9166 -2.6477 0.1408 0 7
-5.3369 17.8331 -2.6477 0.1408 0 7
-5.6227 17.7451 -2.6477 0.1408 0 7
-5.9071 17.6524 -2.6477 0.1408 0 7
-6.1900 17.5552 -2.6477 0.1408 0 7
-6.4712 17.4535 -2.6477 0.1408 0 7
-6.7508 17.3473 -2.6477 0.1408 0 7
-7.0287 17.2366 -2.6477 0.1408 0 7
-7.3047 17.1214 -2.6477 0.1408 0 7
-7.5789 17.0019 -2.6477 0.1408 0 7
-7.8511 16.8779 -2.6477 0.1408 0 7
-8.1212 16.7496 -2.6477 0.1408 0 7
-8.3893 16.6169 -2.6477 0.1408 0 7
-8.6552 16.4800 -2.6477 0.1408 0 7
-8.9189 16.3388 -2.6477 0.1408 0 7
-9.1803 16.1934 -2.6477 0.1408 0 7
-9.4393 16.0438 -2.6477 0.1408 0 7
-9.6958 15.8901 -2.6477 0.1408 0 7
-9.9499 15.7322 -2.6477 0.1408 0 7
-10.2014 15.5703 -2.6477 0.1408 0 7
-10.4502 15.4044 -2.6477 0.1408 0 7
-10.6964 15.2345 -2.6477 0.1408 0 7
-10.9398 15.0607 -2.6477 0.1408 0 7
-11.1803 14.8830 -2.6477 0.1408 0 7
-11.4180 14.7014 -2.6477 0.1408 0 7
-11.6528 14.5161 -2.6477 0.1408 0 7
-11.8845 14.3270 -2.6477 0.1408 0 7
-12.1132 14.1341 -2.6477 0.1408 0 7
-12.3387 13.9377 -2.6477 0.1408 0 7
-12.5610 13.7376 -2.6477 0.1408 0 7
-12.7801 13.5341 -2.6477 0.1408 0 7
-12.9959 13.3270 -2.6477 0.1408 0 7
-13.2084 13.1164 -2.6477 0.1408 0 7
-13.4174 12.9025 -2.6477 0.1408 0 7
-13.6230 12.6853 -2.6477 0.1408 0 7
-13.8251 12.4648 -2.6477 0.1408 0 7
-14.0236 12.2410 -2.6477 0.1408 0 7
-14.2184 12.0141 -2.6477 0.1408 0 7
-14.4096 11.7841 -2.6477 0.1408 0 7
-14.5971 11.5511 -2.6477 0.1408 0 7
-14.7808 11.3150 -2.6477 0.1408 0 7
-14.9607 11.0761 -2.6477 0.1408 0 7
-15.1367 10.8343 -2.6477 0.1408 0 7
-15.3089 10.5897 -2.6477 0.1408 0 7
-15.4770 10.3423 -2.6477 0.1408 0 7
-15.6412 10.0923 -2.6477 0.1408 0 7
-15.8013 9.8397 -2.6477 0.1408 0 7
-15.9574 9.5846 -2.6477 0.1408 0 7
-16.1093 9.3269 -2.6477 0.1408 0 7
-16.2571 9.0669 -2.6477 0.1408 0 7
-15.4567 8.2977 -2.4953 0.1408 0 8
-15.5880 8.0483 -2.4953 0.1408 0 8
-15.7153 7.7968 -2.4953 0.1408 0 8
-15.8386 7.5433 -2.4953 0.1408 0 8
-15.9577 7.2879 -2.4953 0.1408 0 8
-16.0728 7.0305 -2.4953 0.1408 0 8
-16.1836 6.7714 -2.4953 0.1408 0 8
-16.2903 6.5105 -2.4953 0.1408 0 8
-16.3928 6.2479 -2.4953 0.1408 0 8
-16.4911 5.9837 -2.4953 0.1408 0 8
-16.5851 5.7179 -2.4953 0.1408 0 8
-16.6749 5.4507 -2.4953 0.1408 0 8
-16.7603 5.1821 -2.4953 0.1408 0 8
-16.8414 4.9121 -2.4953 0.1408 0 8
-16.9181 4.6409 -2.4953 0.1408 0 8
-16.9905 4.3685 -2.4953 0.1408 0 8
-17.0585 4.0949 -2.4953 0.1408 0 8
-17.1221 3.8203 -2.4953 0.1408 0 8
-17.1813 3.5447 -2.4953 0.1408 0 8
-17.2360 3.2682 -2.4953 0.1408 0 8
-17.2863 2.9909 -2.4953 0.1408 0 8
-17.3321 2.7127 -2.4953 0.1408 0 8
-17.3735 2.4339 -2.4953 0.1408 0 8
-17.4103 2.1544 -2.4953 0.1408 0 8
-17.4427 1.8744 -2.4953 0.1408 0 8
-17.4706 1.5939 -2.4953 0.1408 0 8
-17.4939 1.3130 -2.4953 0.1408 0 8
-17.5128 1.0318 -2.4953 0.1408 0 8
-17.5271 0.7503 -2.4953 0.1408 0 8
-17.5369 0.4685 -2.4953 0.1408 0 8
-17.5421 0.1867 -2.4953 0.1408 0 8
-17.5429 -0.0952 -2.4953 0.1408 0 8
-17.5391 -0.3770 -2.4953 0.1408 0 8
-17.5308 -0.6588 -2.4953 0.1408 0 8
-17.5179 -0.9404 -2.4953 0.1408 0 8
-2.8375 17.3355 -2.6477 0.1490 0 7
-3.1156 17.2876 -2.6477 0.1490 0 7
-3.3930 17.2353 -2.6477 0.1490 0 7
-3.6695 17.1786 -2.6477 0.1490 0 7
-3.9450 17.1174 -2.6477 0.1490 0 7
-4.2196 17.0518 -2.6477 0.1490 0 7
-4.4930 16.9818 -2.6477 0.1490 0 7
-4.7653 16.9074 -2.6477 0.1490 0 7
-5.0363 16.8287 -2.6477 0.1490 0 7
-5.3060 16.7456 -2.6477 0.1490 0 7
-5.5744 16.6582 -2.6477 0.1490 0 7
-5.8413 16.5665 -2.6477 0.1490 0 7
-6.1068 16.4705 -2.6477 0.1490 0 7
-6.3706 16.3702 -2.6477 0.1490 0 7
-6.6328 16.2658 -2.6477 0.1490 0 7
-6.8933 16.1571 -2.6477 0.1490 0 7
-7.1520 16.0443 -2.6477 0.1490 0 7
-7.4089 15.9273 -2.6477 0.1490 0 7
-7.6638 15.8062 -2.6477 0.1490 0 7
-7.9168 15.6810 -2.6477 0.1490 0 7
-8.1677 15.5518 -2.6477 0.1490 0 7
-8.4165 15.4185 -2.6477 0.1490 0 7
-8.6632 15.2813 -2.6477 0.1490 0 7
-8.9076 15.1401 -2.6477 0.1490 0 7
-9.1497 14.9951 -2.6477 0.1490 0 7
-9.3895 14.8461 -2.6477 0.1490 0 7
-9.6268 14.6933 -2.6477 0.1490 0 7
-9.8616 14.5368 -2.6477 0.1490 0 7
-10.0939 14.3764 -2.6477 0.1490 0 7
-10.3236 14.2124 -2.6477 0.1490 0 7
-10.5506 14.0447 -2.6477 0.1490 0 7
-10.7749 13.8734 -2.6477 0.1490 0 7
-10.9964 13.6985 -2.6477 0.1490 0 7
-11.2151 13.5200 -2.6477 0.1490 0 7
-11.4309 13.3381 -2.6477 0.1490 0 7
-11.6437 13.1527 -2.6477 0.1490 0 7
-11.8536 12.9639 -2.6477 0.1490 0 7
-12.0603 12.7718 -2.6477 0.1490 0 7
-12.2640 12.5764 -2.6477 0.1490 0 7
-12.4645 12.3777 -2.6477 0.1490 0 7
-12.6617 12.1758 -2.6477 0.1490 0 7
-12.8557 11.9708 -2.6477 0.1490 0 7
-13.0464 11.7627 -2.6477 0.1490 0 7
-13.2337 11.5516 -2.6477 0.1490 0 7
-13.4176 11.3374 -2.6477 0.1490 0 6
-13.5980 11.1204 -2.6477 0.1490 0 7
-13.7750 10.9005 -2.6477 0.1490 0 7
-13.9483 10.6777 -2.6477 0.1490 0 7
-14.1181 10.4522 -2.6477 0.1490 0 7
-14.2842 10.2241 -2.6477 0.1490 0 7
-14.4466 9.9932 -2.6477 0.1490 0 7
-14.6053 9.7598 -2.6477 0.1490 0 7
-14.7602 9.5239 -2.6477 0.1490 0 7
-14.9114 9.2855 -2.6477 0.1490 0 7
-15.0586 9.0447 -2.6477 0.1490 0 7
-14.3270 8.2950 -2.4953 0.1490 0 8
-14.4584 8.0637 -2.4953 0.1490 0 8
-14.5861 7.8304 -2.4953 0.1490 0 8
-14.7100 7.5950 -2.4953 0.1490 0 8
-14.8302 7.3577 -2.4953 0.1490 0 8
-14.9465 7.1184 -2.4953 0.1490 0 8
-15.0589 6.8774 -2.4953 0.1490 0 8
-15.1675 6.6345 -2.4953 0.1490 0 8
-15.2721 6.3900 -2.4953 0.1490 0 8
-15.3728 6.1438 -2.4953 0.1490 0 8
-15.4695 5.8960 -2.4953 0.1490 0 8
-15.5623 5.6467 -2.4953 0.1490 0 8
-15.6510 5.3959 -2.4953 0.1490 0 8
-15.7357 5.1437 -2.4953 0.1490 0 8
-15.8163 4.8902 -2.4953 0.1490 0 8
-15.8928 4.6355 -2.4953 0.1490 0 8
-15.9652 4.3795 -2.4953 0.1490 0 8
-16.0336 4.1225 -2.4953 0.1490 0 8
-16.0977 3.8643 -2.4953 0.1490 0 8
-16.1577 3.6052 -2.4953 0.1490 0 8
-16.2136 3.3451 -2.4953 0.1490 0 8
-16.2652 3.0841 -2.4953 0.1490 0 8
-16.3127 2.8224 -2.4953 0.1490 0 8
-16.3559 2.5599 -2.4953 0.1490 0 8
-16.3949 2.2968 -2.4953 0.1490 0 8
-16.4297 2.0331 -2.4953 0.1490 0 8
-16.4603 1.7688 -2.4953 0.1490 0 8
-16.4866 1.5041 -2.4953 0.1490 0 8
-16.5086 1.2391 -2.4953 0.1490 0 8
-16.5264 0.9737 -2.4953 0.1490 0 8
-16.5399 0.7080 -2.4953 0.1490 0 8
-16.5491 0.4421 -2.4953 0.1490 0 8
-16.5541 0.1762 -2.4953 0.1490 0 8
-16.5548 -0.0898 -2.4953 0.1490 0 8
-16.5512 -0.3558 -2.4953 0.1490 0 8
-16.5434 -0.6217 -2.4953 0.1490 0 8
-16.5312 -0.8874 -2.4953 0.1490 0 8
-2.6858 16.4089 -2.6477 0.1573 0 7
-2.9491 16.3637 -2.6477 0.1573 0 7
-3.2117 16.3142 -2.6477 0.1573 0 7
-3.4734 16.2605 -2.6477 0.1573 0 7
-3.7342 16.2025 -2.6477 0.1573 0 7
-3.9940 16.1405 -2.6477 0.1573 0 7
-4.2529 16.0742 -2.6477 0.1573 0 7
-4.5106 16.0038 -2.6477 0.1573 0 7
-4.7671 15.9293 -2.6477 0.1573 0 7
-5.0224 15.8506 -2.6477 0.1573 0 7
-5.2765 15.7679 -2.6477 0.1573 0 7
-5.5291 15.6810 -2.6477 0.1573 0 7
-5.7804 15.5902 -2.6477 0.1573 0 7
-6.0301 15.4953 -2.6477 0.1573 0 7
-6.2783 15.3964 -2.6477 0.1573 0 7
-6.5249 15.2936 -2.6477 0.1573 0 7
-6.7698 15.1867 -2.6477 0.1573 0 7
-7.0129 15.0760 -2.6477 0.1573 0 7
-7.2542 14.9614 -2.6477 0.1573 0 6
-7.4937 14.8429 -2.6477 0.1573 0 7
-7.7312 14.7206 -2.6477 0.1573 0 7
-7.9667 14.5945 -2.6477 0.1573 0 7
-8.2002 14.4646 -2.6477 0.1573 0 7
-8.4315 14.3310 -2.6477 0.1573 0 7
-8.6607 14.1936 -2.6477 0.1573 0 7
-8.8876 14.0526 -2.6477 0.1573 0 7
-9.1123 13.9080 -2.6477 0.1573 0 7
-9.3346 13.7598 -2.6477 0.1573 0 7
-9.5544 13.6081 -2.6477 0.1573 0 7
-9.7719 13.4528 -2.6477 0.1573 0 7
-9.9867 13.2941 -2.6477 0.1573 0 7
-10.1990 13.1319 -2.6477 0.1573 0 7
-10.4087 12.9663 -2.6477 0.1573 0 7
-10.6157 12.7974 -2.6477 0.1573 0 7
-10.8200 12.6252 -2.6477 0.1573 0 7
-11.0214 12.4497 -2.6477 0.1573 0 7
-11.2200 12.2710 -2.6477 0.1573 0 7
-11.4157 12.0892 -2.6477 0.1573 0 7
-11.6085 11.9042 -2.6477 0.1573 0 7
-11.7983 11.7161 -2.6477 0.1573 0 7
-11.9850 11.5250 -2.6477 0.1573 0 7
-12.1686 11.3310 -2.6477 0.1573 0 7
-12.3491 11.1340 -2.6477 0.1573 0 7
-12.5264 10.9342 -2.6477 0.1573 0 7
-12.7005 10.7315 -2.6477 0.1573 0 7
-12.8713 10.5260 -2.6477 0.1573 0 7
-13.0387 10.3179 -2.6477 0.1573 0 7
-13.2028 10.1070 -2.6477 0.1573 0 7
-13.3635 9.8936 -2.6477 0.1573 0 7
-13.5207 9.6776 -2.6477 0.1573 0 7
-13.6745 9.4591 -2.6477 0.1573 0 7
-13.8247 9.2382 -2.6477 0.1573 0 7
-13.9714 9.0149 -2.6477 0.1573 0 7
-13.3020 8.2833 -2.4953 0.1573 0 8
-13.4333 8.0685 -2.4953 0.1573 0 8
-13.5612 7.8516 -2.4953 0.1573 0 8
-13.6856 7.6327 -2.4953 0.1573 0 8
-13.8065 7.4119 -2.4953 0.1573 0 8
-13.9238 7.1891 -2.4953 0.1573 0 8
-14.0375 6.9644 -2.4953 0.1573 0 8
-14.1476 6.7380 -2.4953 0.1573 0 8
-14.2541 6.5098 -2.4953 0.1573 0 8
-14.3568 6.2799 -2.4953 0.1573 0 8
-14.4559 6.0484 -2.4953 0.1573 0 8
-14.5512 5.8154 -2.4953 0.1573 0 8
-14.6427 5.5809 -2.4953 0.1573 0 8
-14.7305 5.3449 -2.4953 0.1573 0 8
-14.8145 5.1075 -2.4953 0.1573 0 8
-14.8946 4.8688 -2.4953 0.1573 0 8
-14.9710 4.6289 -2.4953 0.1573 0 8
-15.0434 4.3877 -2.4953 0.1573 0 8
-15.1119 4.1455 -2.4953 0.1573 0 8
-15.1766 3.9021 -2.4953 0.1573 0 8
-15.2373 3.6578 -2.4953 0.1573 0 8
-15.2941 3.4125 -2.4953 0.1573 0 8
-15.3470 3.1663 -2.4953 0.1573 0 8
-15.3959 2.9193 -2.4953 0.1573 0 8
-15.4408 2.6716 -2.4953 0.1573 0 8
-15.4817 2.4231 -2.4953 0.1573 0 8
-15.5187 2.1740 -2.4953 0.1573 0 8
-15.5516 1.9244 -2.4953 0.1573 0 8
-15.5805 1.6743 -2.4953 0.1573 0 8
-15.6054 1.4238 -2.4953 0.1573 0 8
-15.6263 1.1728 -2.4953 0.1573 0 8
-15.6431 0.9216 -2.4953 0.1573 0 8
-15.6559 0.6702 -2.4953 0.1573 0 8
-15.6646 0.4185 -2.4953 0.1573 0 8
-15.6693 0.1668 -2.4953 0.1573 0 8
-15.6700 -0.0850 -2.4953 0.1573 0 8
-15.6666 -0.3368 -2.4953 0.1573 0 8
-15.6592 -0.5884 -2.4953 0.1573 0 8
-15.6477 -0.8400 -2.4953 0.1573 0 8
-2.5492 15.5743 -2.6477 0.1655 0 7
-2.7991 15.5314 -2.6477 0.1655 0 7
-3.0483 15.4844 -2.6477 0.1655 0 7
-3.2967 15.4334 -2.6477 0.1655 0 7
-3.5442 15.3784 -2.6477 0.1655 0 7
-3.7909 15.3195 -2.6477 0.1655 0 7
-4.0365 15.2566 -2.6477 0.1655 0 7
-4.2811 15.1898 -2.6477 0.1655 0 7
-4.5247 15.1190 -2.6477 0.1655 0 7
-4.7670 15.0444 -2.6477 0.1655 0 7
-5.0081 14.9659 -2.6477 0.1655 0 7
-5.2479 14.8835 -2.6477 0.1655 0 7
-5.4864 14.7972 -2.6477 0.1655 0 7
-5.7234 14.7072 -2.6477 0.1655 0 7
-5.9590 14.6133 -2.6477 0.1655 0 7
-6.1930 14.5157 -2.6477 0.1655 0 7
-6.4254 14.4143 -2.6477 0.1655 0 7
-6.6562 14.3092 -2.6477 0.1655 0 7
-6.8852 14.2004 -2.6477 0.1655 0 7
-7.1125 14.0879 -2.6477 0.1655 0 7
-7.3380 13.9718 -2.6477 0.1655 0 7
-7.5615 13.8521 -2.6477 0.1655 0 7
-7.7831 13.7289 -2.6477 0.1655 0 7
-8.0027 13.6020 -2.6477 0.1655 0 7
-8.2202 13.4717 -2.6477 0.1655 0 7
-8.4356 13.3379 -2.6477 0.1655 0 7
-8.6488 13.2006 -2.6477 0.1655 0 7
-8.8598 13.0600 -2.6477 0.1655 0 7
-9.0685 12.9159 -2.6477 0.1655 0 7
-9.2748 12.7685 -2.6477 0.1655 0 7
-9.4788 12.6179 -2.6477 0.1655 0 7
-9.6803 12.4640 -2.6477 0.1655 0 7
-9.8793 12.3068 -2.6477 0.1655 0 7
-10.0758 12.1465 -2.6477 0.1655 0 7
-10.2696 11.9830 -2.6477 0.1655 0 7
-10.4608 11.8165 -2.6477 0.1655 0 7
-10.6493 11.6469 -2.6477 0.1655 0 7
-10.8351 11.4743 -2.6477 0.1655 0 7
-11.0181 11.2987 -2.6477 0.1655 0 7
-11.1982 11.1202 -2.6477 0.1655 0 7
-11.3754 10.9388 -2.6477 0.1655 0 7
-11.5497 10.7547 -2.6477 0.1655 0 7
-11.7210 10.5677 -2.6477 0.1655 0 7
-11.8893 10.3780 -2.6477 0.1655 0 7
-12.0545 10.1857 -2.6477 0.1655 0 7
-12.2166 9.9906 -2.6477 0.1655 0 7
-12.3755 9.7931 -2.6477 0.1655 0 7
-12.5313 9.5930 -2.6477 0.1655 0 7
-12.6838 9.3904 -2.6477 0.1655 0 7
-12.8330 9.1854 -2.6477 0.1655 0 7
-12.9790 8.9780 -2.6477 0.1655 0 7
-12.3663 8.2636 -2.4953 0.1655 0 8
-12.4974 8.0639 -2.4953 0.1655 0 8
-12.6254 7.8620 -2.4953 0.1655 0 8
-12.7501 7.6581 -2.4953 0.1655 0 8
-12.8715 7.4523 -2.4953 0.1655 0 8
-12.9896 7.2445 -2.4953 0.1655 0 8
-13.1043 7.0349 -2.4953 0.1655 0 8
-13.2156 6.8234 -2.4953 0.1655 0 8
-13.3236 6.6102 -2.4953 0.1655 0 8
-13.4280 6.3953 -2.4953 0.1655 0 8
-13.5291 6.1787 -2.4953 0.1655 0 8
-13.6266 5.9605 -2.4953 0.1655 0 8
-13.7206 5.7408 -2.4953 0.1655 0 8
-13.8111 5.5196 -2.4953 0.1655 0 8
-13.8980 5.2970 -2.4953 0.1655 0 8
-13.9813 5.0730 -2.4953 0.1655 0 8
-14.0610 4.8477 -2.4953 0.1655 0 8
-14.1371 4.6212 -2.4953 0.1655 0 8
-14.2095 4.3934 -2.4953 0.1655 0 8
-14.2782 4.1646 -2.4953 0.1655 0 8
-14.3433 3.9346 -2.4953 0.1655 0 8
-14.4047 3.7036 -2.4953 0.1655 0 8
-14.4623 3.4717 -2.4953 0.1655 0 8
-14.5162 3.2389 -2.4953 0.1655 0 8
-14.5664 3.0053 -2.4953 0.1655 0 8
-14.6128 2.7708 -2.4953 0.1655 0 8
-14.6554 2.5357 -2.4953 0.1655 0 8
-14.6943 2.2999 -2.4953 0.1655 0 8
-14.7294 2.0635 -2.4953 0.1655 0 8
-14.7606 1.8266 -2.4953 0.1655 0 8
-14.7880 1.5891 -2.4953 0.1655 0 8
-14.8117 1.3513 -2.4953 0.1655 0 8
-14.8315 1.1132 -2.4953 0.1655 0 8
-14.8474 0.8747 -2.4953 0.1655 0 8
-14.8596 0.6361 -2.4953 0.1655 0 8
-14.8679 0.3972 -2.4953 0.1655 0 8
-14.8723 0.1583 -2.4953 0.1655 0 8
-14.8730 -0.0807 -2.4953 0.1655 0 8
-14.8698 -0.3196 -2.4953 0.1655 0 8
-14.8627 -0.5585 -2.4953 0.1655 0 8
-14.8518 -0.7973 -2.4953 0.1655 0 8
-2.4255 14.8185 -2.6477 0.1736 0 7
-2.6633 14.7776 -2.6477 0.1736 0 7
-2.9004 14.7329 -2.6477 0.1736 0 7
-3.1367 14.6844 -2.6477 0.1736 0 7
-3.3722 14.6321 -2.6477 0.1736 0 7
-3.6069 14.5760 -2.6477 0.1736 0 7
-3.8406 14.5162 -2.6477 0.1736 0 7
-4.0734 14.4526 -2.6477 0.1736 0 7
-4.3051 14.3853 -2.6477 0.1736 0 7
-4.5356 14.3143 -2.6477 0.1736 0 7
-4.7651 14.2396 -2.6477 0.1736 0 7
-4.9932 14.1612 -2.6477 0.1736 0 7
-5.2201 14.0791 -2.6477 0.1736 0 7
-5.4457 13.9934 -2.6477 0.1736 0 7
-5.6698 13.9041 -2.6477 0.1736 0 7
-5.8925 13.8112 -2.6477 0.1736 0 7
-6.1136 13.7148 -2.6477 0.1736 0 7
-6.3332 13.6148 -2.6477 0.1736 0 7
-6.5511 13.5113 -2.6477 0.1736 0 7
-6.7674 13.4043 -2.6477 0.1736 0 7
-6.9818 13.2938 -2.6477 0.1736 0 7
-7.1945 13.1799 -2.6477 0.1736 0 7
-7.4054 13.0626 -2.6477 0.1736 0 7
-7.6143 12.9419 -2.6477 0.1736 0 7
-7.8213 12.8179 -2.6477 0.1736 0 7
-8.0262 12.6906 -2.6477 0.1736 0 7
-8.2291 12.5600 -2.6477 0.1736 0 7
-8.4298 12.4262 -2.6477 0.1736 0 7
-8.6284 12.2891 -2.6477 0.1736 0 7
-8.8247 12.1489 -2.6477 0.1736 0 7
-9.0188 12.0055 -2.6477 0.1736 0 7
-9.2105 11.8591 -2.6477 0.1736 0 7
-9.3999 11.7096 -2.6477 0.1736 0 7
-9.5868 11.5570 -2.6477 0.1736 0 7
-9.7712 11.4015 -2.6477 0.1736 0 6
-9.9532 11.2430 -2.6477 0.1736 0 7
-10.1325 11.0816 -2.6477 0.1736 0 7
-10.3093 10.9174 -2.6477 0.1736 0 7
-10.4833 10.7504 -2.6477 0.1736 0 7
-10.6547 10.5805 -2.6477 0.1736 0 7
-10.8233 10.4080 -2.6477 0.1736 0 7
-10.9892 10.2327 -2.6477 0.1736 0 7
-11.1522 10.0549 -2.6477 0.1736 0 7
-11.3123 9.8744 -2.6477 0.1736 0 7
-11.4695 9.6913 -2.6477 0.1736 0 7
-11.6237 9.5058 -2.6477 0.1736 0 7
-11.7750 9.3178 -2.6477 0.1736 0 7
-11.9231 9.1274 -2.6477 0.1736 0 7
-12.0683 8.9347 -2.6477 0.1736 0 7
-11.5074 8.2366 -2.4953 0.1736 0 8
-11.6383 8.0506 -2.4953 0.1736 0 8
-11.7661 7.8626 -2.4953 0.1736 0 8
-11.8909 7.6725 -2.4953 0.1736 0 8
-12.0127 7.4805 -2.4953 0.1736 0 8
-12.1313 7.2865 -2.4953 0.1736 0 8
-12.2468 7.0906 -2.4953 0.1736 0 8
-12.3592 6.8929 -2.4953 0.1736 0 8
-12.4683 6.6935 -2.4953 0.1736 0 8
-12.5743 6.4923 -2.4953 0.1736 0 8
-12.6770 6.2894 -2.4953 0.1736 0 8
-12.7764 6.0849 -2.4953 0.1736 0 8
-12.8725 5.8788 -2.4953 0.1736 0 8
-12.9653 5.6712 -2.4953 0.1736 0 8
-13.0547 5.4622 -2.4953 0.1736 0 8
-13.1408 5.2517 -2.4953 0.1736 0 8
-13.2235 5.0399 -2.4953 0.1736 0 8
-13.3028 4.8268 -2.4953 0.1736 0 8
-13.3786 4.6124 -2.4953 0.1736 0 8
-13.4510 4.3969 -2.4953 0.1736 0 8
-13.5199 4.1802 -2.4953 0.1736 0 8
-13.5853 3.9624 -2.4953 0.1736 0 8
-13.6472 3.7437 -2.4953 0.1736 0 8
-13.7056 3.5239 -2.4953 0.1736 0 8
-13.7605 3.3032 -2.4953 0.1736 0 8
-13.8118 3.0817 -2.4953 0.1736 0 8
-13.8595 2.8594 -2.4953 0.1736 0 8
-13.9036 2.6364 -2.4953 0.1736 0 8
-13.9442 2.4126 -2.4953 0.1736 0 8
-13.9812 2.1883 -2.4953 0.1736 0 8
-14.0145 1.9633 -2.4953 0.1736 0 8
-14.0443 1.7379 -2.4953 0.1736 0 8
-14.0704 1.5120 -2.4953 0.1736 0 8
-14.0928 1.2858 -2.4953 0.1736 0 8
-14.1117 1.0592 -2.4953 0.1736 0 8
-14.1269 0.8323 -2.4953 0.1736 0 8
-14.1384 0.6052 -2.4953 0.1736 0 8
-14.1463 0.3780 -2.4953 0.1736 0 8
-14.1506 0.1506 -2.4953 0.1736 0 8
-14.1512 -0.0768 -2.4953 0.1736 0 8
-14.1481 -0.3041 -2.4953 0.1736 0 8
-14.1414 -0.5314 -2.4953 0.1736 0 8
-14.1310 -0.7586 -2.4953 0.1736 0 8
-2.3129 14.1307 -2.6477 0.1818 0 7
-2.5397 14.0917 -2.6477 0.1818 0 7
-2.7658 14.0491 -2.6477 0.1818 0 7
-2.9911 14.0029 -2.6477 0.1818 0 7
-3.2157 13.9530 -2.6477 0.1818 0 7
-3.4395 13.8995 -2.6477 0.1818 0 7
-3.6624 13.8425 -2.6477 0.1818 0 7
-3.8843 13.7818 -2.6477 0.1818 0 7
-4.1053 13.7176 -2.6477 0.1818 0 7
-4.3251 13.6499 -2.6477 0.1818 0 7
-4.5439 13.5787 -2.6477 0.1818 0 7
-4.7615 13.5039 -2.6477 0.1818 0 7
-4.9778 13.4257 -2.6477 0.1818 0 7
-5.1929 13.3439 -2.6477 0.1818 0 7
-5.4066 13.2588 -2.6477 0.1818 0 7
-5.6190 13.1702 -2.6477 0.1818 0 7
-5.8298 13.0782 -2.6477 0.1818 0 7
-6.0392 12.9829 -2.6477 0.1818 0 7
-6.2470 12.8842 -2.6477 0.1818 0 7
-6.4532 12.7821 -2.6477 0.1818 0 7
-6.6578 12.6768 -2.6477 0.1818 0 7
-6.8606 12.5682 -2.6477 0.1818 0 7
-7.0617 12.4563 -2.6477 0.1818 0 7
-7.2609 12.3412 -2.6477 0.1818 0 7
-7.4582 12.2230 -2.6477 0.1818 0 7
-7.6537 12.1016 -2.6477 0.1818 0 7
-7.8471 11.9770 -2.6477 0.1818 0 7
-8.0385 11.8494 -2.6477 0.1818 0 7
-8.2279 11.7187 -2.6477 0.1818 0 7
-8.4151 11.5850 -2.6477 0.1818 0 7
-8.6002 11.4483 -2.6477 0.1818 0 6
-8.7830 11.3087 -2.6477 0.1818 0 7
-8.9636 11.1661 -2.6477 0.1818 0 7
-9.1418 11.0206 -2.6477 0.1818 0 7
-9.3177 10.8723 -2.6477 0.1818 0 7
-9.4912 10.7212 -2.6477 0.1818 0 7
-9.6622 10.5673 -2.6477 0.1818 0 7
-9.8308 10.4107 -2.6477 0.1818 0 7
-9.9968 10.2514 -2.6477 0.1818 0 7
-10.1602 10.0895 -2.6477 0.1818 0 7
-10.3210 9.9249 -2.6477 0.1818 0 7
-10.4791 9.7578 -2.6477 0.1818 0 7
-10.6346 9.5882 -2.6477 0.1818 0 7
-10.7872 9.4161 -2.6477 0.1818 0 7
-10.9371 9.2415 -2.6477 0.1818 0 7
-11.0842 9.0646 -2.6477 0.1818 0 7
-10.5821 8.3739 -2.4953 0.1818 0 8
-10.7153 8.2028 -2.4953 0.1818 0 8
-10.8457 8.0296 -2.4953 0.1818 0 8
-10.9733 7.8543 -2.4953 0.1818 0 8
-11.0981 7.6770 -2.4953 0.1818 0 8
-11.2200 7.4976 -2.4953 0.1818 0 8
-11.3390 7.3164 -2.4953 0.1818 0 8
-11.4551 7.1333 -2.4953 0.1818 0 8
-11.5683 6.9483 -2.4953 0.1818 0 8
-11.6784 6.7615 -2.4953 0.1818 0 8
-11.7855 6.5730 -2.4953 0.1818 0 8
-11.8896 6.3828 -2.4953 0.1818 0 8
-11.9907 6.1909 -2.4953 0.1818 0 8
-12.0886 5.9975 -2.4953 0.1818 0 8
-12.1834 5.8025 -2.4953 0.1818 0 8
-12.2750 5.6060 -2.4953 0.1818 0 8
-12.3635 5.4080 -2.4953 0.1818 0 8
-12.4488 5.2087 -2.4953 0.1818 0 8
-12.5309 5.0080 -2.4953 0.1818 0 8
-12.6098 4.8060 -2.4953 0.1818 0 8
-12.6853 4.6028 -2.4953 0.1818 0 8
-12.7577 4.3984 -2.4953 0.1818 0 8
-12.8267 4.1928 -2.4953 0.1818 0 8
-12.8924 3.9862 -2.4953 0.1818 0 8
-12.9548 3.7785 -2.4953 0.1818 0 8
-13.0138 3.5699 -2.4953 0.1818 0 8
-13.0695 3.3603 -2.4953 0.1818 0 8
-13.1218 3.1499 -2.4953 0.1818 0 8
-13.1707 2.9387 -2.4953 0.1818 0 8
-13.2162 2.7267 -2.4953 0.1818 0 8
-13.2583 2.5140 -2.4953 0.1818 0 8
-13.2970 2.3006 -2.4953 0.1818 0 8
-13.3323 2.0867 -2.4953 0.1818 0 8
-13.3641 1.8722 -2.4953 0.1818 0 8
-13.3924 1.6572 -2.4953 0.1818 0 8
-13.4173 1.4418 -2.4953 0.1818 0 8
-13.4388 1.2261 -2.4953 0.1818 0 8
-13.4567 1.0100 -2.4953 0.1818 0 8
-13.4712 0.7937 -2.4953 0.1818 0 8
-13.4822 0.5771 -2.4953 0.1818 0 8
-13.4898 0.3604 -2.4953 0.1818 0 8
-13.4938 0.1436 -2.4953 0.1818 0 8
-13.4944 -0.0732 -2.4953 0.1818 0 8
-13.4915 -0.2900 -2.4953 0.1818 0 8
-13.4851 -0.5067 -2.4953 0.1818 0 8
-13.4752 -0.7234 -2.4953 0.1818 0 8
-2.2100 13.5021 -2.6477 0.1900 0 7
-2.4267 13.4649 -2.6477 0.1900 0 7
-2.6427 13.4241 -2.6477 0.1900 0 7
-2.8581 13.3799 -2.6477 0.1900 0 7
-3.0727 13.3323 -2.6477 0.1900 0 7
-3.2865 13.2812 -2.6477 0.1900 0 7
-3.4995 13.2267 -2.6477 0.1900 0 7
-3.7115 13.1687 -2.6477 0.1900 0 7
-3.9226 13.1074 -2.6477 0.1900 0 7
-4.1327 13.0427 -2.6477 0.1900 0 7
-4.3418 12.9746 -2.6477 0.1900 0 7
-4.5497 12.9032 -2.6477 0.1900 0 7
-4.7564 12.8284 -2.6477 0.1900 0 7
-4.9619 12.7503 -2.6477 0.1900 0 7
-5.1661 12.6690 -2.6477 0.1900 0 7
-5.3690 12.5843 -2.6477 0.1900 0 7
-5.5705 12.4964 -2.6477 0.1900 0 7
-5.7706 12.4053 -2.6477 0.1900 0 7
-5.9691 12.3110 -2.6477 0.1900 0 7
-6.1662 12.2135 -2.6477 0.1900 0 7
-6.3616 12.1129 -2.6477 0.1900 0 7
-6.5554 12.0091 -2.6477 0.1900 0 7
-6.7475 11.9022 -2.6477 0.1900 0 7
-6.9379 11.7922 -2.6477 0.1900 0 7
-7.1265 11.6792 -2.6477 0.1900 0 7
-7.3132 11.5632 -2.6477 0.1900 0 7
-7.4981 11.4442 -2.6477 0.1900 0 6
-7.6809 11.3223 -2.6477 0.1900 0 7
-7.8619 11.1974 -2.6477 0.1900 0 7
-8.0408 11.0696 -2.6477 0.1900 0 7
-8.2176 10.9390 -2.6477 0.1900 0 7
-8.3923 10.8056 -2.6477 0.1900 0 7
-8.5648 10.6693 -2.6477 0.1900 0 7
-8.7351 10.5304 -2.6477 0.1900 0 7
-8.9032 10.3887 -2.6477 0.1900 0 7
-9.0690 10.2443 -2.6477 0.1900 0 7
-9.2324 10.0972 -2.6477 0.1900 0 7
-9.3935 9.9476 -2.6477 0.1900 0 7
-9.5521 9.7954 -2.6477 0.1900 0 7
-9.7082 9.6406 -2.6477 0.1900 0 7
-9.8619 9.4834 -2.6477 0.1900 0 7
-10.0130 9.3237 -2.6477 0.1900 0 7
-10.1615 9.1616 -2.6477 0.1900 0 7
-10.3074 8.9972 -2.6477 0.1900 0 7
-9.8491 8.3221 -2.4953 0.1900 0 8
-9.9815 8.1628 -2.4953 0.1900 0 8
-10.1114 8.0014 -2.4953 0.1900 0 8
-10.2386 7.8379 -2.4953 0.1900 0 8
-10.3632 7.6724 -2.4953 0.1900 0 8
-10.4852 7.5049 -2.4953 0.1900 0 8
-10.6044 7.3354 -2.4953 0.1900 0 8
-10.7209 7.1641 -2.4953 0.1900 0 8
-10.8346 6.9909 -2.4953 0.1900 0 8
-10.9455 6.8159 -2.4953 0.1900 0 8
-11.0536 6.6392 -2.4953 0.1900 0 8
-11.1589 6.4607 -2.4953 0.1900 0 8
-11.2613 6.2806 -2.4953 0.1900 0 8
-11.3607 6.0989 -2.4953 0.1900 0 8
-11.4572 5.9155 -2.4953 0.1900 0 8
-11.5508 5.7307 -2.4953 0.1900 0 8
-11.6414 5.5444 -2.4953 0.1900 0 8
-11.7290 5.3566 -2.4953 0.1900 0 8
-11.8135 5.1674 -2.4953 0.1900 0 8
-11.8950 4.9770 -2.4953 0.1900 0 8
-11.9735 4.7852 -2.4953 0.1900 0 8
-12.0488 4.5922 -2.4953 0.1900 0 8
-12.1210 4.3980 -2.4953 0.1900 0 8
-12.1901 4.2027 -2.4953 0.1900 0 8
-12.2561 4.0063 -2.4953 0.1900 0 8
-12.3189 3.8089 -2.4953 0.1900 0 8
-12.3785 3.6104 -2.4953 0.1900 0 8
-12.4349 3.4111 -2.4953 0.1900 0 8
-12.4881 3.2109 -2.4953 0.1900 0 8
-12.5381 3.0098 -2.4953 0.1900 0 8
-12.5848 2.8080 -2.4953 0.1900 0 8
-12.6283 2.6054 -2.4953 0.1900 0 8
-12.6685 2.4022 -2.4953 0.1900 0 8
-12.7055 2.1983 -2.4953 0.1900 0 8
-12.7392 1.9939 -2.4953 0.1900 0 8
-12.7696 1.7889 -2.4953 0.1900 0 8
-12.7967 1.5835 -2.4953 0.1900 0 8
-12.8204 1.3777 -2.4953 0.1900 0 8
-12.8409 1.1715 -2.4953 0.1900 0 8
-12.8581 0.9651 -2.4953 0.1900 0 8
-12.8719 0.7584 -2.4953 0.1900 0 8
-12.8825 0.5514 -2.4953 0.1900 0 8
-12.8897 0.3444 -2.4953 0.1900 0 8
-12.8935 0.1372 -2.4953 0.1900 0 8
-12.8941 -0.0700 -2.4953 0.1900 0 8
-12.8913 -0.2771 -2.4953 0.1900 0 8
-12.8852 -0.4842 -2.4953 0.1900 0 8
-12.8757 -0.6912 -2.4953 0.1900 0 8
-2.1156 12.9253 -2.6477 0.1981 0 7
-2.3230 12.8896 -2.6477 0.1981 0 7
-2.5298 12.8506 -2.6477 0.1981 0 7
-2.7360 12.8083 -2.6477 0.1981 0 7
-2.9414 12.7627 -2.6477 0.1981 0 7
-3.1461 12.7138 -2.6477 0.1981 0 7
-3.3500 12.6616 -2.6477 0.1981 0 7
-3.5530 12.6061 -2.6477 0.1981 0 7
-3.7551 12.5474 -2.6477 0.1981 0 7
-3.9562 12.4855 -2.6477 0.1981 0 7
-4.1563 12.4203 -2.6477 0.1981 0 7
-4.3553 12.3519 -2.6477 0.1981 0 7
-4.5532 12.2803 -2.6477 0.1981 0 7
-4.7499 12.2056 -2.6477 0.1981 0 7
-4.9454 12.1277 -2.6477 0.1981 0 7
-5.1396 12.0467 -2.6477 0.1981 0 7
-5.3325 11.9626 -2.6477 0.1981 0 7
-5.5240 11.8753 -2.6477 0.1981 0 7
-5.7141 11.7850 -2.6477 0.1981 0 7
-5.9027 11.6917 -2.6477 0.1981 0 7
-6.0898 11.5954 -2.6477 0.1981 0 7
-6.2754 11.4960 -2.6477 0.1981 0 7
-6.4592 11.3937 -2.6477 0.1981 0 6
-6.6415 11.2885 -2.6477 0.1981 0 7
-6.8220 11.1803 -2.6477 0.1981 0 7
-7.0008 11.0692 -2.6477 0.1981 0 7
-7.1777 10.9553 -2.6477 0.1981 0 7
-7.3528 10.8386 -2.6477 0.1981 0 7
-7.5260 10.7190 -2.6477 0.1981 0 7
-7.6973 10.5967 -2.6477 0.1981 0 7
-7.8665 10.4717 -2.6477 0.1981 0 7
-8.0338 10.3440 -2.6477 0.1981 0 7
-8.1989 10.2135 -2.6477 0.1981 0 7
-8.3620 10.0805 -2.6477 0.1981 0 7
-8.5228 9.9448 -2.6477 0.1981 0 7
-8.6815 9.8066 -2.6477 0.1981 0 7
-8.8380 9.6658 -2.6477 0.1981 0 7
-8.9921 9.5226 -2.6477 0.1981 0 7
-9.1440 9.3769 -2.6477 0.1981 0 7
-9.2935 9.2288 -2.6477 0.1981 0 7
-9.4405 9.0782 -2.6477 0.1981 0 7
-9.0335 8.4117 -2.4953 0.1981 0 8
-9.1674 8.2654 -2.4953 0.1981 0 8
-9.2991 8.1171 -2.4953 0.1981 0 8
-9.4283 7.9666 -2.4953 0.1981 0 8
-9.5551 7.8141 -2.4953 0.1981 0 8
-9.6794 7.6595 -2.4953 0.1981 0 8
-9.8012 7.5030 -2.4953 0.1981 0 8
-9.9205 7.3446 -2.4953 0.1981 0 8
-10.0372 7.1842 -2.4953 0.1981 0 8
-10.1514 7.0221 -2.4953 0.1981 0 8
-10.2629 6.8580 -2.4953 0.1981 0 8
-10.3717 6.6923 -2.4953 0.1981 0 8
-10.4779 6.5248 -2.4953 0.1981 0 8
-10.5814 6.3556 -2.4953 0.1981 0 8
-10.6822 6.1847 -2.4953 0.1981 0 8
-10.7802 6.0123 -2.4953 0.1981 0 8
-10.8754 5.8383 -2.4953 0.1981 0 8
-10.9678 5.6628 -2.4953 0.1981 0 8
-11.0573 5.4859 -2.4953 0.1981 0 8
-11.1440 5.3075 -2.4953 0.1981 0 8
-11.2279 5.1278 -2.4953 0.1981 0 8
-11.3088 4.9467 -2.4953 0.1981 0 8
-11.3868 4.7643 -2.4953 0.1981 0 8
-11.4619 4.5808 -2.4953 0.1981 0 8
-11.5340 4.3960 -2.4953 0.1981 0 8
-11.6032 4.2101 -2.4953 0.1981 0 8
-11.6693 4.0232 -2.4953 0.1981 0 8
-11.7325 3.8351 -2.4953 0.1981 0 8
-11.7926 3.6461 -2.4953 0.1981 0 8
-11.8496 3.4562 -2.4953 0.1981 0 8
-11.9036 3.2654 -2.4953 0.1981 0 8
-11.9546 3.0737 -2.4953 0.1981 0 8
-12.0024 2.8812 -2.4953 0.1981 0 8
-12.0472 2.6880 -2.4953 0.1981 0 8
-12.0888 2.4941 -2.4953 0.1981 0 8
-12.1273 2.2995 -2.4953 0.1981 0 8
-12.1627 2.1044 -2.4953 0.1981 0 8
-12.1949 1.9087 -2.4953 0.1981 0 8
-12.2240 1.7125 -2.4953 0.1981 0 8
-12.2500 1.5159 -2.4953 0.1981 0 8
-12.2727 1.3188 -2.4953 0.1981 0 8
-12.2923 1.1215 -2.4953 0.1981 0 8
-12.3088 0.9238 -2.4953 0.1981 0 8
-12.3220 0.7260 -2.4953 0.1981 0 8
-12.3321 0.5279 -2.4953 0.1981 0 8
-12.3390 0.3297 -2.4953 0.1981 0 8
-12.3427 0.1314 -2.4953 0.1981 0 8
-12.3432 -0.0670 -2.4953 0.1981 0 8
-12.3405 -0.2653 -2.4953 0.1981 0 8
-12.3347 -0.4635 -2.4953 0.1981 0 8
-12.3256 -0.6616 -2.4953 0.1981 0 8
-2.0287 12.3940 -2.6477 0.2063 0 7
-2.2275 12.3598 -2.6477 0.2063 0 7
-2.4258 12.3224 -2.6477 0.2063 0 7
-2.6235 12.2819 -2.6477 0.2063 0 7
-2.8205 12.2381 -2.6477 0.2063 0 7
-3.0168 12.1912 -2.6477 0.2063 0 7
-3.2123 12.1412 -2.6477 0.2063 0 7
-3.4069 12.0880 -2.6477 0.2063 0 7
-3.6007 12.0317 -2.6477 0.2063 0 7
-3.7936 11.9723 -2.6477 0.2063 0 7
-3.9854 11.9098 -2.6477 0.2063 0 7
-4.1763 11.8442 -2.6477 0.2063 0 7
-4.3660 11.7756 -2.6477 0.2063 0 7
-4.5547 11.7039 -2.6477 0.2063 0 7
-4.7421 11.6292 -2.6477 0.2063 0 7
-4.9284 11.5515 -2.6477 0.2063 0 7
-5.1133 11.4709 -2.6477 0.2063 0 6
-5.2970 11.3872 -2.6477 0.2063 0 6
-5.4793 11.3006 -2.6477 0.2063 0 7
-5.6601 11.2111 -2.6477 0.2063 0 7
-5.8395 11.1188 -2.6477 0.2063 0 7
-6.0174 11.0235 -2.6477 0.2063 0 7
-6.1938 10.9254 -2.6477 0.2063 0 7
-6.3685 10.8245 -2.6477 0.2063 0 7
-6.5416 10.7207 -2.6477 0.2063 0 7
-6.7130 10.6143 -2.6477 0.2063 0 7
-6.8827 10.5050 -2.6477 0.2063 0 7
-7.0506 10.3931 -2.6477 0.2063 0 7
-7.2167 10.2785 -2.6477 0.2063 0 7
-7.3809 10.1612 -2.6477 0.2063 0 7
-7.5432 10.0413 -2.6477 0.2063 0 7
-7.7035 9.9188 -2.6477 0.2063 0 7
-7.8619 9.7937 -2.6477 0.2063 0 7
-8.0183 9.6661 -2.6477 0.2063 0 7
-8.1725 9.5361 -2.6477 0.2063 0 7
-8.3247 9.4035 -2.6477 0.2063 0 7
-8.4747 9.2685 -2.6477 0.2063 0 7
-8.6225 9.1312 -2.6477 0.2063 0 7
-8.7681 8.9915 -2.6477 0.2063 0 7
-8.3985 8.3401 -2.4953 0.2063 0 8
-8.5314 8.2040 -2.4953 0.2063 0 8
-8.6622 8.0659 -2.4953 0.2063 0 8
-8.7906 7.9257 -2.4953 0.2063 0 8
-8.9169 7.7834 -2.4953 0.2063 0 8
-9.0408 7.6391 -2.4953 0.2063 0 8
-9.1623 7.4929 -2.4953 0.2063 0 8
-9.2815 7.3447 -2.4953 0.2063 0 8
-9.3984 7.1946 -2.4953 0.2063 0 8
-9.5127 7.0427 -2.4953 0.2063 0 8
-9.6247 6.8890 -2.4953 0.2063 0 8
-9.7341 6.7334 -2.4953 0.2063 0 8
-9.8410 6.5762 -2.4953 0.2063 0 8
-9.9454 6.4172 -2.4953 0.2063 0 8
-10.0473 6.2566 -2.4953 0.2063 0 8
-10.1465 6.0943 -2.4953 0.2063 0 8
-10.2431 5.9305 -2.4953 0.2063 0 8
-10.3371 5.7652 -2.4953 0.2063 0 8
-10.4284 5.5983 -2.4953 0.2063 0 8
-10.5170 5.4301 -2.4953 0.2063 0 8
-10.6028 5.2604 -2.4953 0.2063 0 8
-10.6860 5.0893 -2.4953 0.2063 0 8
-10.7664 4.9170 -2.4953 0.2063 0 8
-10.8440 4.7434 -2.4953 0.2063 0 8
-10.9188 4.5685 -2.4953 0.2063 0 8
-10.9908 4.3925 -2.4953 0.2063 0 8
-11.0600 4.2153 -2.4953 0.2063 0 8
-11.1263 4.0371 -2.4953 0.2063 0 8
-11.1897 3.8578 -2.4953 0.2063 0 8
-11.2502 3.6775 -2.4953 0.2063 0 8
-11.3079 3.4963 -2.4953 0.2063 0 8
-11.3626 3.3141 -2.4953 0.2063 0 8
-11.4144 3.1312 -2.4953 0.2063 0 8
-11.4632 2.9473 -2.4953 0.2063 0 8
-11.5091 2.7628 -2.4953 0.2063 0 8
-11.5520 2.5775 -2.4953 0.2063 0 8
-11.5919 2.3916 -2.4953 0.2063 0 8
-11.6288 2.2050 -2.4953 0.2063 0 8
-11.6628 2.0179 -2.4953 0.2063 0 8
-11.6937 1.8302 -2.4953 0.2063 0 8
-11.7216 1.6421 -2.4953 0.2063 0 8
-11.7464 1.4536 -2.4953 0.2063 0 8
-11.7683 1.2646 -2.4953 0.2063 0 8
-11.7871 1.0754 -2.4953 0.2063 0 8
-11.8028 0.8859 -2.4953 0.2063 0 8
-11.8156 0.6961 -2.4953 0.2063 0 8
-11.8252 0.5062 -2.4953 0.2063 0 8
-11.8318 0.3161 -2.4953 0.2063 0 8
-11.8354 0.1260 -2.4953 0.2063 0 8
-11.8359 -0.0642 -2.4953 0.2063 0 8
-11.8333 -0.2544 -2.4953 0.2063 0 8
-11.8277 -0.4445 -2.4953 0.2063 0 8
-11.8190 -0.6344 -2.4953 0.2063 0 8
-1.9483 11.9030 -2.6477 0.2144 0 7
-2.1393 11.8702 -2.6477 0.2144 0 7
-2.3297 11.8343 -2.6477 0.2144 0 7
-2.5196 11.7953 -2.6477 0.2144 0 7
-2.7088 11.7533 -2.6477 0.2144 0 7
-2.8973 11.7083 -2.6477 0.2144 0 7
-3.0850 11.6602 -2.6477 0.2144 0 7
-3.2720 11.6091 -2.6477 0.2144 0 7
-3.4581 11.5551 -2.6477 0.2144 0 7
-3.6433 11.4980 -2.6477 0.2144 0 7
-3.8276 11.4380 -2.6477 0.2144 0 6
-4.0108 11.3750 -2.6477 0.2144 0 6
-4.1931 11.3091 -2.6477 0.2144 0 7
-4.3742 11.2403 -2.6477 0.2144 0 7
-4.5543 11.1685 -2.6477 0.2144 0 7
-4.7331 11.0939 -2.6477 0.2144 0 7
-4.9108 11.0165 -2.6477 0.2144 0 7
-5.0871 10.9361 -2.6477 0.2144 0 7
-5.2622 10.8530 -2.6477 0.2144 0 7
-5.4359 10.7670 -2.6477 0.2144 0 7
-5.6082 10.6783 -2.6477 0.2144 0 7
-5.7790 10.5868 -2.6477 0.2144 0 7
-5.9484 10.4926 -2.6477 0.2144 0 7
-6.1162 10.3957 -2.6477 0.2144 0 7
-6.2825 10.2960 -2.6477 0.2144 0 7
-6.4471 10.1938 -2.6477 0.2144 0 7
-6.6100 10.0889 -2.6477 0.2144 0 7
-6.7713 9.9814 -2.6477 0.2144 0 7
-6.9308 9.8713 -2.6477 0.2144 0 7
-7.0885 9.7586 -2.6477 0.2144 0 7
-7.2444 9.6435 -2.6477 0.2144 0 7
-7.3984 9.5259 -2.6477 0.2144 0 7
-7.5505 9.4058 -2.6477 0.2144 0 7
-7.7006 9.2832 -2.6477 0.2144 0 7
-7.8488 9.1583 -2.6477 0.2144 0 7
-7.9949 9.0310 -2.6477 0.2144 0 7
-7.6705 8.3890 -2.4953 0.2144 0 8
-7.8043 8.2647 -2.4953 0.2144 0 8
-7.9361 8.1382 -2.4953 0.2144 0 8
-8.0658 8.0097 -2.4953 0.2144 0 8
-8.1935 7.8790 -2.4953 0.2144 0 8
-8.3190 7.7464 -2.4953 0.2144 0 8
-8.4424 7.6117 -2.4953 0.2144 0 8
-8.5636 7.4751 -2.4953 0.2144 0 8
-8.6826 7.3365 -2.4953 0.2144 0 8
-8.7994 7.1961 -2.4953 0.2144 0 8
-8.9139 7.0538 -2.4953 0.2144 0 8
-9.0260 6.9096 -2.4953 0.2144 0 8
