ply
format ascii 1.0
element vertex 1387
property float32 x
property float32 y
property float32 z
property float32 CosAngle
property uint32 ObjIdx
property uint32 ObjTag
end_header
27.1019 19.5183 -2.5029 0.0747 0 14
26.7846 19.9516 -2.5029 0.0747 0 14
26.4603 20.3797 -2.5029 0.0747 0 14
26.1291 20.8026 -2.5029 0.0747 0 14
25.7912 21.2201 -2.5029 0.0747 0 14
25.4466 21.6321 -2.5029 0.0747 0 14
25.0955 22.0385 -2.5029 0.0747 0 14
24.7378 22.4392 -2.5029 0.0747 0 8
25.7837 24.1550 -2.6477 0.0747 0 7
25.3919 24.5665 -2.6477 0.0747 0 7
24.9936 24.9716 -2.6477 0.0747 0 7
24.5888 25.3703 -2.6477 0.0747 0 7
24.1776 25.7624 -2.6477 0.0747 0 7
23.7602 26.1479 -2.6477 0.0747 0 7
23.3367 26.5266 -2.6477 0.0747 0 7
22.9070 26.8985 -2.6477 0.0747 0 7
22.4715 27.2634 -2.6477 0.0747 0 7
22.0302 27.6212 -2.6477 0.0747 0 7
21.5832 27.9719 -2.6477 0.0747 0 7
21.1306 28.3154 -2.6477 0.0747 0 7
20.6725 28.6515 -2.6477 0.0747 0 7
20.2091 28.9802 -2.6477 0.0747 0 7
19.7404 29.3015 -2.6477 0.0747 0 7
19.2667 29.6151 -2.6477 0.0747 0 7
18.7880 29.9211 -2.6477 0.0747 0 7
18.3044 30.2194 -2.6477 0.0747 0 7
17.8160 30.5098 -2.6477 0.0747 0 7
17.3231 30.7924 -2.6477 0.0747 0 7
16.8257 31.0670 -2.6477 0.0747 0 7
16.3239 31.3335 -2.6477 0.0747 0 7
15.8179 31.5920 -2.6477 0.0747 0 7
15.3079 31.8423 -2.6477 0.0747 0 7
14.7938 32.0843 -2.6477 0.0747 0 7
14.2760 32.3181 -2.6477 0.0747 0 7
13.7492 32.5312 -2.6467 0.0903 0 8
13.2090 32.7102 -2.6436 0.0904 0 8
12.6672 32.8819 -2.6407 0.0905 0 8
12.0774 32.9195 -2.6278 0.9332 0 8
11.4806 32.9206 -2.6128 0.9386 0 8
10.8904 32.9216 -2.5986 0.9437 0 8
10.3064 32.9224 -2.5853 0.9485 0 8
9.7281 32.9231 -2.5727 0.9532 0 8
9.1553 32.9237 -2.5609 0.9576 0 8
8.5875 32.9242 -2.5499 0.9617 0 8
8.0244 32.9245 -2.5396 0.9656 0 8
7.4656 32.9248 -2.5300 0.9693 0 8
6.9109 32.9249 -2.5211 0.9727 0 8
6.3599 32.9248 -2.5130 0.9758 0 8
5.8123 32.9247 -2.5055 0.9787 0 8
5.2683 32.9276 -2.4990 0.7487 0 8
4.7311 32.9593 -2.4953 0.0747 0 8
4.2004 33.0311 -2.4953 0.0747 0 8
3.6687 33.0944 -2.4953 0.0747 0 8
3.1361 33.1491 -2.4953 0.0747 0 8
2.6026 33.1952 -2.4953 0.0747 0 8
2.0684 33.2328 -2.4953 0.0747 0 8
1.5337 33.2618 -2.4953 0.0747 0 8
0.9987 33.2821 -2.4953 0.0747 0 8
0.4633 33.2939 -2.4953 0.0747 0 8
-0.0721 33.2970 -2.4953 0.0747 0 8
-0.6076 33.2916 -2.4953 0.0747 0 8
-1.1429 33.2775 -2.4953 0.0747 0 8
-1.6778 33.2548 -2.4953 0.0747 0 8
-2.2124 33.2235 -2.4953 0.0747 0 8
-2.7464 33.1836 -2.4953 0.0747 0 8
-3.2797 33.1352 -2.4953 0.0747 0 8
-3.8121 33.0782 -2.4953 0.0747 0 8
-4.3435 33.0126 -2.4953 0.0747 0 8
-4.8739 32.9384 -2.4953 0.0747 0 8
-5.4099 32.8984 -2.4985 0.7491 0 8
-5.9536 32.8921 -2.5050 0.9789 0 8
-6.5010 32.8892 -2.5124 0.9761 0 8
-7.0517 32.8862 -2.5205 0.9729 0 8
26.3753 17.7354 -2.6477 0.0830 0 7
26.0867 18.1573 -2.6477 0.0830 0 7
25.7913 18.5744 -2.6477 0.0830 0 7
25.4893 18.9868 -2.6477 0.0830 0 7
24.6848 19.0122 -2.5955 0.6109 0 8
23.8896 19.0196 -2.5438 0.6233 0 8
23.2019 19.0897 -2.5029 0.0830 0 8
22.8919 19.4603 -2.5029 0.0830 0 14
22.5760 19.8259 -2.5029 0.0830 0 14
22.2542 20.1864 -2.5029 0.0830 0 14
21.9268 20.5417 -2.5029 0.0830 0 14
21.5936 20.8916 -2.5029 0.0830 0 14
21.2548 21.2362 -2.5029 0.0830 0 14
20.9106 21.5752 -2.5029 0.0830 0 14
20.5609 21.9087 -2.5029 0.0830 0 14
20.2060 22.2365 -2.5029 0.0830 0 14
20.9938 23.8635 -2.6477 0.0830 0 7
20.6073 24.1980 -2.6477 0.0830 0 7
20.2155 24.5262 -2.6477 0.0830 0 7
19.8185 24.8482 -2.6477 0.0830 0 7
19.4163 25.1637 -2.6477 0.0830 0 7
19.0091 25.4726 -2.6477 0.0830 0 7
18.5971 25.7750 -2.6477 0.0830 0 7
18.1802 26.0707 -2.6477 0.0830 0 7
17.7586 26.3597 -2.6477 0.0830 0 7
17.3324 26.6419 -2.6477 0.0830 0 7
16.9017 26.9172 -2.6477 0.0830 0 7
16.4667 27.1855 -2.6477 0.0830 0 7
16.0274 27.4468 -2.6477 0.0830 0 7
15.5839 27.7010 -2.6477 0.0830 0 7
15.1365 27.9480 -2.6477 0.0830 0 7
14.6851 28.1878 -2.6477 0.0830 0 7
14.2299 28.4203 -2.6477 0.0830 0 7
13.7710 28.6454 -2.6477 0.0830 0 7
13.3086 28.8632 -2.6477 0.0830 0 7
12.8427 29.0735 -2.6477 0.0830 0 7
12.3735 29.2763 -2.6477 0.0830 0 7
11.9011 29.4714 -2.6477 0.0830 0 7
11.4257 29.6590 -2.6477 0.0830 0 7
10.9472 29.8389 -2.6477 0.0830 0 7
10.4660 30.0111 -2.6477 0.0830 0 6
9.9820 30.1755 -2.6477 0.0830 0 7
9.4955 30.3321 -2.6477 0.0830 0 7
9.0065 30.4809 -2.6477 0.0830 0 7
8.5152 30.6218 -2.6477 0.0830 0 7
8.0216 30.7548 -2.6477 0.0830 0 7
7.5260 30.8798 -2.6477 0.0830 0 7
7.0285 30.9968 -2.6477 0.0830 0 7
6.5291 31.1058 -2.6477 0.0830 0 7
6.0281 31.2068 -2.6477 0.0830 0 7
5.5254 31.2997 -2.6477 0.0830 0 7
5.0214 31.3845 -2.6477 0.0830 0 7
4.5160 31.4612 -2.6477 0.0830 0 7
4.0095 31.5298 -2.6477 0.0830 0 7
3.5020 31.5902 -2.6477 0.0830 0 7
2.9935 31.6424 -2.6477 0.0830 0 7
2.4843 31.6864 -2.6477 0.0830 0 7
1.9744 31.7223 -2.6477 0.0830 0 7
1.4640 31.7500 -2.6477 0.0830 0 7
0.9533 31.7694 -2.6477 0.0830 0 7
0.4423 31.7806 -2.6477 0.0830 0 7
-0.0688 31.7836 -2.6477 0.0830 0 7
-0.5799 31.7784 -2.6477 0.0830 0 7
-1.0909 31.7650 -2.6477 0.0830 0 7
-1.6016 31.7433 -2.6477 0.0830 0 7
-2.1118 31.7135 -2.6477 0.0830 0 7
-2.6216 31.6754 -2.6477 0.0830 0 7
-3.1306 31.6291 -2.6477 0.0830 0 7
-3.6388 31.5747 -2.6477 0.0830 0 7
-4.1461 31.5121 -2.6477 0.0830 0 7
-4.6523 31.4414 -2.6477 0.0830 0 7
-5.1573 31.3625 -2.6477 0.0830 0 7
-5.6610 31.2755 -2.6477 0.0830 0 7
-6.1632 31.1804 -2.6477 0.0830 0 7
-6.6638 31.0773 -2.6477 0.0830 0 7
23.9659 16.1153 -2.6477 0.0913 0 7
23.7037 16.4986 -2.6477 0.0913 0 7
23.4353 16.8777 -2.6477 0.0913 0 7
23.1609 17.2523 -2.6477 0.0913 0 7
22.8805 17.6226 -2.6477 0.0913 0 7
22.5941 17.9882 -2.6477 0.0913 0 7
22.3019 18.3492 -2.6477 0.0913 0 7
22.0040 18.7055 -2.6477 0.0913 0 7
21.6306 18.9957 -2.6392 0.6607 0 8
20.9489 19.0023 -2.5929 0.6725 0 8
20.2904 19.0087 -2.5489 0.6841 0 8
19.6561 19.0172 -2.5074 0.5527 0 8
19.3132 19.2963 -2.5029 0.0913 0 14
19.0004 19.6043 -2.5029 0.0913 0 14
18.6827 19.9074 -2.5029 0.0913 0 14
18.3602 20.2052 -2.5029 0.0913 0 14
18.0329 20.4978 -2.5029 0.0913 0 14
17.7009 20.7852 -2.5029 0.0913 0 14
17.3644 21.0672 -2.5029 0.0913 0 14
17.0233 21.3437 -2.5029 0.0913 0 14
16.6779 21.6147 -2.5029 0.0913 0 14
16.3282 21.8801 -2.5029 0.0913 0 14
15.9742 22.1398 -2.5029 0.0913 0 14
15.6161 22.3938 -2.5029 0.0913 0 8
16.1364 23.9518 -2.6477 0.0913 0 7
15.7491 24.2082 -2.6477 0.0913 0 7
15.3578 24.4583 -2.6477 0.0913 0 7
14.9625 24.7021 -2.6477 0.0913 0 7
14.5633 24.9395 -2.6477 0.0913 0 7
14.1604 25.1705 -2.6477 0.0913 0 7
13.7538 25.3950 -2.6477 0.0913 0 7
13.3436 25.6129 -2.6477 0.0913 0 7
12.9300 25.8241 -2.6477 0.0913 0 7
12.5130 26.0287 -2.6477 0.0913 0 7
12.0929 26.2266 -2.6477 0.0913 0 7
11.6695 26.4176 -2.6477 0.0913 0 7
11.2432 26.6019 -2.6477 0.0913 0 7
10.8140 26.7792 -2.6477 0.0913 0 7
10.3819 26.9497 -2.6477 0.0913 0 7
9.9472 27.1131 -2.6477 0.0913 0 7
9.5099 27.2696 -2.6477 0.0913 0 7
9.0702 27.4190 -2.6477 0.0913 0 7
8.6281 27.5613 -2.6477 0.0913 0 7
8.1838 27.6965 -2.6477 0.0913 0 7
7.7373 27.8245 -2.6477 0.0913 0 7
7.2889 27.9453 -2.6477 0.0913 0 7
6.8385 28.0589 -2.6477 0.0913 0 7
6.3864 28.1653 -2.6477 0.0913 0 7
5.9327 28.2643 -2.6477 0.0913 0 7
5.4774 28.3561 -2.6477 0.0913 0 7
5.0207 28.4405 -2.6477 0.0913 0 7
4.5627 28.5176 -2.6477 0.0913 0 7
4.1035 28.5872 -2.6477 0.0913 0 7
3.6433 28.6495 -2.6477 0.0913 0 7
3.1821 28.7044 -2.6477 0.0913 0 7
2.7201 28.7519 -2.6477 0.0913 0 7
2.2574 28.7919 -2.6477 0.0913 0 7
1.7941 28.8245 -2.6477 0.0913 0 7
1.3303 28.8496 -2.6477 0.0913 0 7
0.8662 28.8673 -2.6477 0.0913 0 7
0.4019 28.8775 -2.6477 0.0913 0 7
-0.0626 28.8802 -2.6477 0.0913 0 7
-0.5270 28.8755 -2.6477 0.0913 0 7
-0.9913 28.8632 -2.6477 0.0913 0 7
-1.4553 28.8436 -2.6477 0.0913 0 7
-1.9189 28.8164 -2.6477 0.0913 0 7
-2.3821 28.7819 -2.6477 0.0913 0 7
-2.8446 28.7398 -2.6477 0.0913 0 7
-3.3064 28.6904 -2.6477 0.0913 0 7
-3.7674 28.6335 -2.6477 0.0913 0 7
-4.2273 28.5692 -2.6477 0.0913 0 7
-4.6862 28.4975 -2.6477 0.0913 0 7
-5.1439 28.4185 -2.6477 0.0913 0 7
-5.6002 28.3321 -2.6477 0.0913 0 7
-6.0551 28.2384 -2.6477 0.0913 0 7
21.9571 14.7645 -2.6477 0.0996 0 7
21.7169 15.1157 -2.6477 0.0996 0 7
21.4710 15.4630 -2.6477 0.0996 0 7
21.2195 15.8062 -2.6477 0.0996 0 7
20.9626 16.1454 -2.6477 0.0996 0 7
20.7002 16.4804 -2.6477 0.0996 0 7
20.4326 16.8112 -2.6477 0.0996 0 7
20.1596 17.1376 -2.6477 0.0996 0 7
19.8814 17.4596 -2.6477 0.0996 0 7
19.5980 17.7770 -2.6477 0.0996 0 7
19.3096 18.0899 -2.6477 0.0996 0 7
19.0162 18.3981 -2.6477 0.0996 0 7
18.7179 18.7015 -2.6477 0.0996 0 7
18.4006 18.9855 -2.6456 0.7188 0 8
17.8229 18.9912 -2.6062 0.7297 0 8
17.2619 18.9966 -2.5685 0.7404 0 8
16.7167 19.0018 -2.5325 0.7509 0 8
16.2172 19.0430 -2.5029 0.0996 0 8
15.9089 19.3013 -2.5029 0.0996 0 14
15.5964 19.5546 -2.5029 0.0996 0 14
15.2800 19.8029 -2.5029 0.0996 0 14
14.9595 20.0461 -2.5029 0.0996 0 14
14.6352 20.2840 -2.5029 0.0996 0 14
14.3072 20.5168 -2.5029 0.0996 0 14
13.9754 20.7442 -2.5029 0.0996 0 14
13.6400 20.9662 -2.5029 0.0996 0 14
13.3011 21.1829 -2.5029 0.0996 0 14
12.9587 21.3940 -2.5029 0.0996 0 14
12.6130 21.5997 -2.5029 0.0996 0 14
12.2640 21.7997 -2.5029 0.0996 0 14
11.9119 21.9941 -2.5029 0.0996 0 14
11.5566 22.1828 -2.5029 0.0996 0 14
11.1984 22.3658 -2.5029 0.0996 0 8
11.4642 23.8470 -2.6477 0.0996 0 7
11.0792 24.0282 -2.6477 0.0996 0 7
10.6914 24.2033 -2.6477 0.0996 0 7
10.3008 24.3721 -2.6477 0.0996 0 7
9.9075 24.5346 -2.6477 0.0996 0 7
9.5117 24.6908 -2.6477 0.0996 0 7
9.1134 24.8405 -2.6477 0.0996 0 7
8.7128 24.9839 -2.6477 0.0996 0 7
8.3099 25.1207 -2.6477 0.0996 0 7
7.9049 25.2511 -2.6477 0.0996 0 7
7.4978 25.3750 -2.6477 0.0996 0 7
7.0888 25.4923 -2.6477 0.0996 0 7
6.6779 25.6030 -2.6477 0.0996 0 7
6.2653 25.7070 -2.6477 0.0996 0 7
5.8511 25.8045 -2.6477 0.0996 0 7
5.4354 25.8952 -2.6477 0.0996 0 7
5.0183 25.9793 -2.6477 0.0996 0 7
4.5999 26.0566 -2.6477 0.0996 0 7
4.1802 26.1272 -2.6477 0.0996 0 7
3.7595 26.1910 -2.6477 0.0996 0 7
3.3379 26.2481 -2.6477 0.0996 0 7
2.9154 26.2984 -2.6477 0.0996 0 7
2.4921 26.3419 -2.6477 0.0996 0 7
2.0681 26.3786 -2.6477 0.0996 0 7
1.6437 26.4084 -2.6477 0.0996 0 7
1.2188 26.4314 -2.6477 0.0996 0 7
0.7936 26.4476 -2.6477 0.0996 0 7
0.3682 26.4570 -2.6477 0.0996 0 6
-0.0573 26.4595 -2.6477 0.0996 0 6
-0.4828 26.4551 -2.6477 0.0996 0 6
-0.9082 26.4439 -2.6477 0.0996 0 6
-1.3333 26.4259 -2.6477 0.0996 0 6
-1.7581 26.4010 -2.6477 0.0996 0 7
-2.1824 26.3694 -2.6477 0.0996 0 7
-2.6062 26.3308 -2.6477 0.0996 0 7
-3.0293 26.2855 -2.6477 0.0996 0 7
-3.4516 26.2334 -2.6477 0.0996 0 7
-3.8730 26.1745 -2.6477 0.0996 0 7
-4.2934 26.1089 -2.6477 0.0996 0 7
-4.7127 26.0364 -2.6477 0.0996 0 7
-5.1308 25.9573 -2.6477 0.0996 0 7
-5.5475 25.8714 -2.6477 0.0996 0 7
20.2563 13.6209 -2.6477 0.1078 0 7
20.0347 13.9449 -2.6477 0.1078 0 7
19.8079 14.2652 -2.6477 0.1078 0 7
19.5759 14.5819 -2.6477 0.1078 0 7
19.3389 14.8948 -2.6477 0.1078 0 7
19.0969 15.2039 -2.6477 0.1078 0 7
18.8499 15.5090 -2.6477 0.1078 0 7
18.5980 15.8101 -2.6477 0.1078 0 7
18.3414 16.1072 -2.6477 0.1078 0 7
18.0800 16.4000 -2.6477 0.1078 0 7
17.8139 16.6887 -2.6477 0.1078 0 7
17.5433 16.9730 -2.6477 0.1078 0 7
17.2681 17.2529 -2.6477 0.1078 0 7
16.9884 17.5283 -2.6477 0.1078 0 7
16.7043 17.7993 -2.6477 0.1078 0 7
16.4159 18.0656 -2.6477 0.1078 0 7
16.1233 18.3272 -2.6477 0.1078 0 7
15.8265 18.5841 -2.6477 0.1078 0 7
15.5256 18.8363 -2.6477 0.1078 0 7
15.1371 18.9788 -2.6331 0.7822 0 8
14.6476 18.9834 -2.6008 0.7919 0 8
14.1698 18.9878 -2.5698 0.8015 0 8
13.7030 18.9920 -2.5402 0.8108 0 8
13.2466 18.9959 -2.5119 0.8199 0 8
12.8929 19.1374 -2.5029 0.1078 0 8
12.5835 19.3422 -2.5029 0.1078 0 14
12.2708 19.5421 -2.5029 0.1078 0 14
11.9549 19.7369 -2.5029 0.1078 0 14
11.6360 19.9266 -2.5029 0.1078 0 14
11.3141 20.1111 -2.5029 0.1078 0 14
10.9892 20.2905 -2.5029 0.1078 0 14
10.6615 20.4646 -2.5029 0.1078 0 14
10.3310 20.6334 -2.5029 0.1078 0 14
9.9979 20.7968 -2.5029 0.1078 0 14
9.6621 20.9549 -2.5029 0.1078 0 14
9.3239 21.1076 -2.5029 0.1078 0 14
8.9833 21.2548 -2.5029 0.1078 0 14
8.6403 21.3965 -2.5029 0.1078 0 14
8.2951 21.5327 -2.5029 0.1078 0 14
7.9478 21.6633 -2.5029 0.1078 0 14
7.5984 21.7883 -2.5029 0.1078 0 14
7.2470 21.9077 -2.5029 0.1078 0 14
6.8938 22.0214 -2.5029 0.1078 0 14
6.5388 22.1294 -2.5029 0.1078 0 14
6.1821 22.2317 -2.5029 0.1078 0 14
5.8238 22.3282 -2.5029 0.1078 0 8
5.7800 23.7158 -2.6477 0.1078 0 7
5.3979 23.8057 -2.6477 0.1078 0 7
5.0144 23.8894 -2.6477 0.1078 0 7
4.6296 23.9670 -2.6477 0.1078 0 7
4.2435 24.0383 -2.6477 0.1078 0 7
3.8564 24.1034 -2.6477 0.1078 0 7
3.4683 24.1623 -2.6477 0.1078 0 7
3.0793 24.2150 -2.6477 0.1078 0 7
2.6895 24.2614 -2.6477 0.1078 0 7
2.2990 24.3015 -2.6477 0.1078 0 7
1.9079 24.3353 -2.6477 0.1078 0 7
1.5164 24.3629 -2.6477 0.1078 0 7
1.1244 24.3841 -2.6477 0.1078 0 7
0.7321 24.3990 -2.6477 0.1078 0 7
0.3397 24.4076 -2.6477 0.1078 0 7
-0.0529 24.4099 -2.6477 0.1078 0 7
-0.4454 24.4059 -2.6477 0.1078 0 7
-0.8378 24.3956 -2.6477 0.1078 0 7
-1.2300 24.3790 -2.6477 0.1078 0 7
-1.6219 24.3561 -2.6477 0.1078 0 7
-2.0134 24.3268 -2.6477 0.1078 0 7
-2.4043 24.2913 -2.6477 0.1078 0 7
-2.7946 24.2495 -2.6477 0.1078 0 7
-3.1842 24.2014 -2.6477 0.1078 0 7
-3.5730 24.1471 -2.6477 0.1078 0 7
-3.9608 24.0865 -2.6477 0.1078 0 7
-4.3477 24.0197 -2.6477 0.1078 0 7
-4.7334 23.9467 -2.6477 0.1078 0 7
-5.1178 23.8675 -2.6477 0.1078 0 7
18.7977 12.6401 -2.6477 0.1161 0 7
18.5920 12.9407 -2.6477 0.1161 0 7
18.3815 13.2380 -2.6477 0.1161 0 7
18.1663 13.5319 -2.6477 0.1161 0 7
17.9463 13.8223 -2.6477 0.1161 0 7
17.7217 14.1091 -2.6477 0.1161 0 7
17.4925 14.3922 -2.6477 0.1161 0 7
17.2588 14.6717 -2.6477 0.1161 0 7
17.0207 14.9473 -2.6477 0.1161 0 7
16.7781 15.2191 -2.6477 0.1161 0 7
16.5312 15.4869 -2.6477 0.1161 0 7
16.2800 15.7508 -2.6477 0.1161 0 7
16.0246 16.0105 -2.6477 0.1161 0 7
15.7651 16.2662 -2.6477 0.1161 0 7
15.5015 16.5176 -2.6477 0.1161 0 7
15.2338 16.7647 -2.6477 0.1161 0 7
14.9623 17.0075 -2.6477 0.1161 0 7
14.6868 17.2459 -2.6477 0.1161 0 7
14.4076 17.4799 -2.6477 0.1161 0 7
14.1246 17.7093 -2.6477 0.1161 0 7
13.8380 17.9342 -2.6477 0.1161 0 7
13.5478 18.1544 -2.6477 0.1161 0 7
13.2541 18.3699 -2.6477 0.1161 0 7
12.9570 18.5806 -2.6477 0.1161 0 7
12.6566 18.7866 -2.6477 0.1161 0 7
12.3405 18.9688 -2.6450 0.8383 0 8
11.9131 18.9725 -2.6185 0.8468 0 8
11.4941 18.9760 -2.5931 0.8551 0 8
11.0829 18.9794 -2.5689 0.8631 0 8
10.6792 18.9825 -2.5458 0.8710 0 8
10.2825 18.9855 -2.5236 0.8786 0 8
9.8954 18.9941 -2.5033 0.7040 0 8
9.5871 19.1476 -2.5029 0.1161 0 14
9.2779 19.2993 -2.5029 0.1161 0 14
8.9664 19.4460 -2.5029 0.1161 0 14
8.6525 19.5877 -2.5029 0.1161 0 14
8.3364 19.7243 -2.5029 0.1161 0 14
8.0181 19.8558 -2.5029 0.1161 0 14
7.6978 19.9821 -2.5029 0.1161 0 14
7.3755 20.1033 -2.5029 0.1161 0 14
7.0512 20.2193 -2.5029 0.1161 0 14
6.7252 20.3301 -2.5029 0.1161 0 14
6.3974 20.4356 -2.5029 0.1161 0 14
6.0679 20.5359 -2.5029 0.1161 0 14
5.7369 20.6308 -2.5029 0.1161 0 14
5.4044 20.7204 -2.5029 0.1161 0 14
5.0705 20.8046 -2.5029 0.1161 0 14
4.7353 20.8835 -2.5029 0.1161 0 14
4.3988 20.9569 -2.5029 0.1161 0 14
4.0613 21.0249 -2.5029 0.1161 0 14
3.7226 21.0875 -2.5029 0.1161 0 14
3.3831 21.1447 -2.5029 0.1161 0 14
3.0426 21.1963 -2.5029 0.1161 0 14
2.7013 21.2425 -2.5029 0.1161 0 14
2.3594 21.2832 -2.5029 0.1161 0 14
2.0168 21.3184 -2.5029 0.1161 0 14
1.6737 21.3481 -2.5029 0.1161 0 14
1.3302 21.3722 -2.5029 0.1161 0 14
0.9864 21.3909 -2.5029 0.1161 0 14
0.6422 21.4040 -2.5029 0.1161 0 14
0.2980 21.4115 -2.5029 0.1161 0 14
-0.0464 21.4135 -2.5029 0.1161 0 14
-0.3907 21.4100 -2.5029 0.1161 0 14
-0.7350 21.4010 -2.5029 0.1161 0 14
-1.0790 21.3864 -2.5029 0.1161 0 14
-1.4228 21.3663 -2.5029 0.1161 0 14
-1.7662 21.3406 -2.5029 0.1161 0 14
-2.1092 21.3095 -2.5029 0.1161 0 14
-2.4516 21.2728 -2.5029 0.1161 0 14
-2.7934 21.2306 -2.5029 0.1161 0 14
-3.1344 21.1830 -2.5029 0.1161 0 14
-3.4746 21.1298 -2.5029 0.1161 0 14
-3.8140 21.0712 -2.5029 0.1161 0 14
-4.1523 21.0071 -2.5029 0.1161 0 14
-4.4896 20.9377 -2.5029 0.1161 0 14
17.5328 11.7895 -2.6477 0.1243 0 7
17.3409 12.0699 -2.6477 0.1243 0 7
17.1446 12.3472 -2.6477 0.1243 0 7
16.9438 12.6213 -2.6477 0.1243 0 7
16.7386 12.8921 -2.6477 0.1243 0 7
16.5292 13.1596 -2.6477 0.1243 0 7
16.3154 13.4237 -2.6477 0.1243 0 7
16.0974 13.6844 -2.6477 0.1243 0 7
15.8753 13.9415 -2.6477 0.1243 0 7
15.6490 14.1950 -2.6477 0.1243 0 7
15.4187 14.4448 -2.6477 0.1243 0 7
15.1845 14.6908 -2.6477 0.1243 0 7
14.9463 14.9331 -2.6477 0.1243 0 6
14.7042 15.1716 -2.6477 0.1243 0 7
14.4583 15.4060 -2.6477 0.1243 0 7
14.2087 15.6366 -2.6477 0.1243 0 7
13.9554 15.8630 -2.6477 0.1243 0 7
13.6985 16.0854 -2.6477 0.1243 0 7
13.4381 16.3036 -2.6477 0.1243 0 7
13.1741 16.5176 -2.6477 0.1243 0 7
12.9068 16.7273 -2.6477 0.1243 0 7
12.6362 16.9327 -2.6477 0.1243 0 7
12.3622 17.1337 -2.6477 0.1243 0 7
12.0851 17.3303 -2.6477 0.1243 0 7
11.8049 17.5224 -2.6477 0.1243 0 7
11.5216 17.7100 -2.6477 0.1243 0 7
11.2353 17.8929 -2.6477 0.1243 0 7
10.9461 18.0713 -2.6477 0.1243 0 7
10.6541 18.2450 -2.6477 0.1243 0 7
10.3593 18.4140 -2.6477 0.1243 0 6
10.0618 18.5782 -2.6477 0.1243 0 7
9.7618 18.7376 -2.6477 0.1243 0 7
9.4592 18.8921 -2.6477 0.1243 0 7
9.1155 18.9614 -2.6365 0.9008 0 8
8.7441 18.9640 -2.6170 0.9075 0 8
8.3781 18.9664 -2.5984 0.9140 0 8
8.0171 18.9687 -2.5807 0.9203 0 8
7.6608 18.9708 -2.5639 0.9263 0 8
7.3090 18.9728 -2.5479 0.9321 0 8
6.9614 18.9746 -2.5328 0.9377 0 8
6.6178 18.9763 -2.5185 0.9430 0 8
6.2792 18.9819 -2.5055 0.7534 0 8
5.9669 19.0605 -2.5029 0.1243 0 8
5.6596 19.1539 -2.5029 0.1243 0 14
5.3509 19.2425 -2.5029 0.1243 0 14
5.0407 19.3260 -2.5029 0.1243 0 14
4.7293 19.4046 -2.5029 0.1243 0 14
4.4166 19.4781 -2.5029 0.1243 0 14
4.1028 19.5467 -2.5029 0.1243 0 14
3.7880 19.6101 -2.5029 0.1243 0 14
3.4721 19.6685 -2.5029 0.1243 0 14
3.1554 19.7218 -2.5029 0.1243 0 14
2.8378 19.7700 -2.5029 0.1243 0 14
2.5195 19.8130 -2.5029 0.1243 0 14
2.2006 19.8510 -2.5029 0.1243 0 14
1.8811 19.8838 -2.5029 0.1243 0 14
1.5611 19.9115 -2.5029 0.1243 0 14
1.2407 19.9340 -2.5029 0.1243 0 14
0.9200 19.9514 -2.5029 0.1243 0 14
0.5990 19.9636 -2.5029 0.1243 0 14
0.2779 19.9707 -2.5029 0.1243 0 14
-0.0433 19.9726 -2.5029 0.1243 0 14
-0.3644 19.9693 -2.5029 0.1243 0 14
-0.6855 19.9608 -2.5029 0.1243 0 14
-1.0064 19.9472 -2.5029 0.1243 0 14
-1.3271 19.9285 -2.5029 0.1243 0 14
-1.6474 19.9045 -2.5029 0.1243 0 14
-1.9672 19.8755 -2.5029 0.1243 0 14
-2.2866 19.8413 -2.5029 0.1243 0 14
-2.6054 19.8019 -2.5029 0.1243 0 14
-2.9235 19.7575 -2.5029 0.1243 0 14
-3.2408 19.7079 -2.5029 0.1243 0 14
-3.5573 19.6532 -2.5029 0.1243 0 14
-3.8729 19.5935 -2.5029 0.1243 0 14
-4.1875 19.5287 -2.5029 0.1243 0 14
16.4251 11.0447 -2.6477 0.1326 0 7
16.2454 11.3074 -2.6477 0.1326 0 7
16.0615 11.5672 -2.6477 0.1326 0 7
15.8734 11.8239 -2.6477 0.1326 0 7
15.6812 12.0777 -2.6477 0.1326 0 7
15.4849 12.3283 -2.6477 0.1326 0 7
15.2847 12.5757 -2.6477 0.1326 0 7
15.0805 12.8199 -2.6477 0.1326 0 7
14.8724 13.0607 -2.6477 0.1326 0 7
14.6604 13.2982 -2.6477 0.1326 0 7
14.4447 13.5322 -2.6477 0.1326 0 7
14.2252 13.7628 -2.6477 0.1326 0 7
14.0020 13.9897 -2.6477 0.1326 0 7
13.7752 14.2131 -2.6477 0.1326 0 7
13.5449 14.4328 -2.6477 0.1326 0 7
13.3111 14.6487 -2.6477 0.1326 0 7
13.0738 14.8609 -2.6477 0.1326 0 7
12.8331 15.0692 -2.6477 0.1326 0 7
12.5891 15.2736 -2.6477 0.1326 0 7
12.3419 15.4741 -2.6477 0.1326 0 7
12.0914 15.6706 -2.6477 0.1326 0 7
11.8379 15.8630 -2.6477 0.1326 0 7
11.5813 16.0513 -2.6477 0.1326 0 7
11.3216 16.2355 -2.6477 0.1326 0 7
11.0591 16.4154 -2.6477 0.1326 0 7
10.7937 16.5911 -2.6477 0.1326 0 7
10.5255 16.7626 -2.6477 0.1326 0 7
10.2546 16.9297 -2.6477 0.1326 0 7
9.9810 17.0924 -2.6477 0.1326 0 7
9.7048 17.2507 -2.6477 0.1326 0 7
9.4262 17.4045 -2.6477 0.1326 0 7
9.1451 17.5539 -2.6477 0.1326 0 7
8.8616 17.6986 -2.6477 0.1326 0 7
8.5759 17.8388 -2.6477 0.1326 0 7
8.2879 17.9744 -2.6477 0.1326 0 7
7.9978 18.1054 -2.6477 0.1326 0 7
7.7056 18.2317 -2.6477 0.1326 0 7
7.4114 18.3532 -2.6477 0.1326 0 7
7.1154 18.4700 -2.6477 0.1326 0 6
6.8174 18.5821 -2.6477 0.1326 0 7
6.5177 18.6893 -2.6477 0.1326 0 7
6.2163 18.7917 -2.6477 0.1326 0 7
5.9133 18.8892 -2.6477 0.1326 0 7
5.5995 18.9504 -2.6433 0.9580 0 8
5.2700 18.9517 -2.6313 0.9624 0 8
4.9434 18.9528 -2.6201 0.9665 0 8
4.6194 18.9539 -2.6096 0.9704 0 8
4.2980 18.9548 -2.5999 0.9740 0 8
3.9788 18.9556 -2.5909 0.9774 0 8
3.6617 18.9562 -2.5826 0.9805 0 8
3.3465 18.9568 -2.5750 0.9834 0 8
3.0331 18.9572 -2.5681 0.9861 0 8
2.7212 18.9575 -2.5619 0.9885 0 8
2.4108 18.9576 -2.5563 0.9906 0 8
2.1016 18.9577 -2.5514 0.9925 0 8
1.7935 18.9576 -2.5472 0.9942 0 8
1.4863 18.9574 -2.5437 0.9955 0 8
1.1799 18.9571 -2.5407 0.9967 0 8
0.8741 18.9566 -2.5385 0.9976 0 8
0.5688 18.9561 -2.5368 0.9982 0 8
0.2638 18.9554 -2.5359 0.9986 0 8
-0.0411 18.9566 -2.5358 0.9970 0 8
-0.3459 18.9556 -2.5361 0.9987 0 8
-0.6509 18.9539 -2.5369 0.9983 0 8
-0.9562 18.9520 -2.5384 0.9977 0 8
-1.2619 18.9503 -2.5405 0.9968 0 8
-1.5683 18.9490 -2.5434 0.9956 0 8
-1.8754 18.9474 -2.5469 0.9943 0 8
-2.1834 18.9458 -2.5511 0.9926 0 8
-2.4925 18.9441 -2.5559 0.9908 0 8
-2.8028 18.9422 -2.5614 0.9886 0 8
-3.1146 18.9402 -2.5676 0.9863 0 8
-3.4279 18.9380 -2.5744 0.9836 0 8
-3.7429 18.9358 -2.5820 0.9808 0 8
-4.0598 18.9334 -2.5902 0.9776 0 8
15.4471 10.3870 -2.6477 0.1408 0 7
15.2781 10.6341 -2.6477 0.1408 0 7
15.1051 10.8784 -2.6477 0.1408 0 7
14.9282 11.1199 -2.6477 0.1408 0 7
14.7475 11.3585 -2.6477 0.1408 0 7
14.5629 11.5942 -2.6477 0.1408 0 7
14.3746 11.8269 -2.6477 0.1408 0 7
14.1825 12.0565 -2.6477 0.1408 0 7
13.9868 12.2830 -2.6477 0.1408 0 7
13.7875 12.5064 -2.6477 0.1408 0 7
13.5846 12.7264 -2.6477 0.1408 0 7
13.3782 12.9433 -2.6477 0.1408 0 7
13.1683 13.1567 -2.6477 0.1408 0 7
12.9550 13.3668 -2.6477 0.1408 0 7
12.7384 13.5734 -2.6477 0.1408 0 7
12.5185 13.7765 -2.6477 0.1408 0 7
12.2953 13.9760 -2.6477 0.1408 0 7
12.0690 14.1719 -2.6477 0.1408 0 7
11.8395 14.3642 -2.6477 0.1408 0 7
11.6070 14.5527 -2.6477 0.1408 0 7
11.3715 14.7375 -2.6477 0.1408 0 7
11.1330 14.9184 -2.6477 0.1408 0 7
10.8916 15.0955 -2.6477 0.1408 0 7
10.6475 15.2687 -2.6477 0.1408 0 7
10.4006 15.4380 -2.6477 0.1408 0 7
10.1510 15.6032 -2.6477 0.1408 0 7
9.8987 15.7644 -2.6477 0.1408 0 7
9.6440 15.9216 -2.6477 0.1408 0 7
9.3867 16.0746 -2.6477 0.1408 0 7
9.1270 16.2235 -2.6477 0.1408 0 7
8.8649 16.3682 -2.6477 0.1408 0 7
8.6005 16.5086 -2.6477 0.1408 0 7
8.3339 16.6448 -2.6477 0.1408 0 7
8.0652 16.7766 -2.6477 0.1408 0 7
7.7944 16.9042 -2.6477 0.1408 0 7
7.5215 17.0273 -2.6477 0.1408 0 7
7.2467 17.1461 -2.6477 0.1408 0 7
6.9701 17.2604 -2.6477 0.1408 0 7
6.6916 17.3702 -2.6477 0.1408 0 7
6.4114 17.4756 -2.6477 0.1408 0 7
6.1296 17.5764 -2.6477 0.1408 0 7
5.8461 17.6727 -2.6477 0.1408 0 7
5.5612 17.7645 -2.6477 0.1408 0 7
5.2748 17.8516 -2.6477 0.1408 0 7
4.9870 17.9341 -2.6477 0.1408 0 7
4.6980 18.0120 -2.6477 0.1408 0 7
4.4077 18.0852 -2.6477 0.1408 0 7
4.1163 18.1537 -2.6477 0.1408 0 7
3.8239 18.2176 -2.6477 0.1408 0 7
3.5304 18.2767 -2.6477 0.1408 0 7
3.2360 18.3311 -2.6477 0.1408 0 7
2.9411 18.3808 -2.6477 0.1408 0 6
2.6449 18.4257 -2.6477 0.1408 0 6
2.3482 18.4659 -2.6477 0.1408 0 6
2.0512 18.5012 -2.6477 0.1408 0 6
1.7532 18.5318 -2.6477 0.1408 0 7
1.4550 18.5576 -2.6477 0.1408 0 7
1.1563 18.5786 -2.6477 0.1408 0 7
0.8574 18.5948 -2.6477 0.1408 0 7
0.5583 18.6062 -2.6477 0.1408 0 7
0.2590 18.6128 -2.6477 0.1408 0 7
-0.0403 18.6145 -2.6477 0.1408 0 7
-0.3397 18.6115 -2.6477 0.1408 0 7
-0.6389 18.6036 -2.6477 0.1408 0 7
-0.9380 18.5909 -2.6477 0.1408 0 7
-1.2368 18.5734 -2.6477 0.1408 0 7
-1.5353 18.5512 -2.6477 0.1408 0 7
-1.8335 18.5241 -2.6477 0.1408 0 7
-2.1311 18.4922 -2.6477 0.1408 0 7
-2.4282 18.4555 -2.6477 0.1408 0 6
-2.7247 18.4141 -2.6477 0.1408 0 6
-3.0205 18.3679 -2.6477 0.1408 0 6
-3.3154 18.3169 -2.6477 0.1408 0 7
-3.6096 18.2613 -2.6477 0.1408 0 7
-3.9028 18.2009 -2.6477 0.1408 0 7
14.5771 9.8020 -2.6477 0.1490 0 7
14.4175 10.0351 -2.6477 0.1490 0 7
14.2543 10.2657 -2.6477 0.1490 0 7
14.0874 10.4936 -2.6477 0.1490 0 7
13.9168 10.7188 -2.6477 0.1490 0 7
13.7427 10.9412 -2.6477 0.1490 0 7
13.5649 11.1607 -2.6477 0.1490 0 7
13.3837 11.3774 -2.6477 0.1490 0 7
13.1990 11.5912 -2.6477 0.1490 0 7
13.0109 11.8020 -2.6477 0.1490 0 7
12.8194 12.0097 -2.6477 0.1490 0 7
12.6247 12.2142 -2.6477 0.1490 0 7
12.4266 12.4157 -2.6477 0.1490 0 7
12.2253 12.6139 -2.6477 0.1490 0 7
12.0209 12.8089 -2.6477 0.1490 0 7
11.8134 13.0005 -2.6477 0.1490 0 7
11.6028 13.1888 -2.6477 0.1490 0 7
11.3892 13.3737 -2.6477 0.1490 0 7
11.1727 13.5551 -2.6477 0.1490 0 7
10.9532 13.7330 -2.6477 0.1490 0 7
10.7310 13.9074 -2.6477 0.1490 0 7
10.5059 14.0782 -2.6477 0.1490 0 7
10.2782 14.2453 -2.6477 0.1490 0 7
10.0478 14.4087 -2.6477 0.1490 0 7
9.8148 14.5684 -2.6477 0.1490 0 7
9.5792 14.7244 -2.6477 0.1490 0 7
9.3412 14.8765 -2.6477 0.1490 0 7
9.1008 15.0248 -2.6477 0.1490 0 7
8.8580 15.1692 -2.6477 0.1490 0 7
8.6129 15.3097 -2.6477 0.1490 0 7
8.3656 15.4462 -2.6477 0.1490 0 7
8.1161 15.5788 -2.6477 0.1490 0 7
7.8645 15.7073 -2.6477 0.1490 0 7
7.6109 15.8317 -2.6477 0.1490 0 7
7.3554 15.9521 -2.6477 0.1490 0 7
7.0979 16.0683 -2.6477 0.1490 0 7
6.8386 16.1803 -2.6477 0.1490 0 7
6.5775 16.2882 -2.6477 0.1490 0 7
6.3147 16.3919 -2.6477 0.1490 0 7
6.0503 16.4913 -2.6477 0.1490 0 7
5.7843 16.5865 -2.6477 0.1490 0 7
5.5168 16.6773 -2.6477 0.1490 0 7
5.2479 16.7639 -2.6477 0.1490 0 7
4.9777 16.8461 -2.6477 0.1490 0 7
4.7061 16.9240 -2.6477 0.1490 0 7
4.4334 16.9975 -2.6477 0.1490 0 7
4.1595 17.0666 -2.6477 0.1490 0 7
3.8845 17.1313 -2.6477 0.1490 0 7
3.6085 17.1915 -2.6477 0.1490 0 7
3.3316 17.2473 -2.6477 0.1490 0 7
3.0538 17.2987 -2.6477 0.1490 0 7
2.7752 17.3455 -2.6477 0.1490 0 7
2.4959 17.3879 -2.6477 0.1490 0 7
2.2160 17.4258 -2.6477 0.1490 0 7
1.9355 17.4592 -2.6477 0.1490 0 7
1.6545 17.4881 -2.6477 0.1490 0 7
1.3730 17.5124 -2.6477 0.1490 0 7
1.0912 17.5322 -2.6477 0.1490 0 7
0.8091 17.5475 -2.6477 0.1490 0 7
0.5269 17.5582 -2.6477 0.1490 0 7
0.2444 17.5644 -2.6477 0.1490 0 7
-0.0380 17.5661 -2.6477 0.1490 0 7
-0.3205 17.5632 -2.6477 0.1490 0 7
-0.6029 17.5558 -2.6477 0.1490 0 7
-0.8852 17.5438 -2.6477 0.1490 0 7
-1.1672 17.5273 -2.6477 0.1490 0 7
-1.4489 17.5063 -2.6477 0.1490 0 7
-1.7302 17.4807 -2.6477 0.1490 0 7
-2.0111 17.4506 -2.6477 0.1490 0 7
-2.2915 17.4160 -2.6477 0.1490 0 7
-2.5712 17.3769 -2.6477 0.1490 0 7
-2.8503 17.3333 -2.6477 0.1490 0 7
-3.1287 17.2853 -2.6477 0.1490 0 7
-3.4063 17.2327 -2.6477 0.1490 0 7
-3.6829 17.1757 -2.6477 0.1490 0 7
13.7980 9.2781 -2.6477 0.1573 0 7
13.6470 9.4988 -2.6477 0.1573 0 7
13.4925 9.7170 -2.6477 0.1573 0 7
13.3345 9.9327 -2.6477 0.1573 0 7
13.1730 10.1459 -2.6477 0.1573 0 7
13.0082 10.3564 -2.6477 0.1573 0 7
12.8399 10.5642 -2.6477 0.1573 0 7
12.6684 10.7693 -2.6477 0.1573 0 7
12.4936 10.9717 -2.6477 0.1573 0 7
12.3155 11.1712 -2.6477 0.1573 0 7
12.1343 11.3678 -2.6477 0.1573 0 7
11.9499 11.5614 -2.6477 0.1573 0 7
11.7624 11.7521 -2.6477 0.1573 0 7
11.5719 11.9397 -2.6477 0.1573 0 7
11.3784 12.1243 -2.6477 0.1573 0 7
11.1820 12.3057 -2.6477 0.1573 0 7
10.9827 12.4839 -2.6477 0.1573 0 7
10.7805 12.6589 -2.6477 0.1573 0 7
10.5755 12.8306 -2.6477 0.1573 0 7
10.3678 12.9990 -2.6477 0.1573 0 7
10.1574 13.1641 -2.6477 0.1573 0 7
9.9444 13.3257 -2.6477 0.1573 0 7
9.7289 13.4839 -2.6477 0.1573 0 7
9.5108 13.6386 -2.6477 0.1573 0 7
9.2902 13.7898 -2.6477 0.1573 0 7
9.0673 13.9374 -2.6477 0.1573 0 7
8.8420 14.0814 -2.6477 0.1573 0 7
8.6144 14.2218 -2.6477 0.1573 0 7
8.3846 14.3585 -2.6477 0.1573 0 7
8.1526 14.4915 -2.6477 0.1573 0 7
7.9185 14.6207 -2.6477 0.1573 0 7
7.6823 14.7461 -2.6477 0.1573 0 7
7.4442 14.8678 -2.6477 0.1573 0 7
7.2042 14.9856 -2.6477 0.1573 0 6
6.9622 15.0995 -2.6477 0.1573 0 7
6.7185 15.2095 -2.6477 0.1573 0 7
6.4731 15.3155 -2.6477 0.1573 0 7
6.2259 15.4177 -2.6477 0.1573 0 7
5.9772 15.5158 -2.6477 0.1573 0 7
5.7269 15.6099 -2.6477 0.1573 0 7
5.4752 15.7000 -2.6477 0.1573 0 7
5.2220 15.7860 -2.6477 0.1573 0 7
4.9675 15.8679 -2.6477 0.1573 0 7
4.7117 15.9458 -2.6477 0.1573 0 7
4.4546 16.0195 -2.6477 0.1573 0 7
4.1964 16.0890 -2.6477 0.1573 0 7
3.9372 16.1544 -2.6477 0.1573 0 7
3.6769 16.2157 -2.6477 0.1573 0 7
3.4156 16.2727 -2.6477 0.1573 0 7
3.1535 16.3255 -2.6477 0.1573 0 7
2.8906 16.3741 -2.6477 0.1573 0 7
2.6269 16.4185 -2.6477 0.1573 0 7
2.3625 16.4586 -2.6477 0.1573 0 7
2.0975 16.4945 -2.6477 0.1573 0 7
1.8320 16.5261 -2.6477 0.1573 0 7
1.5660 16.5534 -2.6477 0.1573 0 7
1.2996 16.5764 -2.6477 0.1573 0 7
1.0329 16.5952 -2.6477 0.1573 0 7
0.7659 16.6096 -2.6477 0.1573 0 7
0.4987 16.6198 -2.6477 0.1573 0 7
0.2314 16.6257 -2.6477 0.1573 0 7
-0.0360 16.6272 -2.6477 0.1573 0 7
-0.3034 16.6245 -2.6477 0.1573 0 7
-0.5707 16.6175 -2.6477 0.1573 0 7
-0.8378 16.6062 -2.6477 0.1573 0 7
-1.1048 16.5905 -2.6477 0.1573 0 7
-1.3714 16.5706 -2.6477 0.1573 0 7
-1.6377 16.5464 -2.6477 0.1573 0 7
-1.9036 16.5180 -2.6477 0.1573 0 7
-2.1690 16.4852 -2.6477 0.1573 0 7
-2.4338 16.4482 -2.6477 0.1573 0 7
-2.6980 16.4069 -2.6477 0.1573 0 7
-2.9615 16.3614 -2.6477 0.1573 0 7
-3.2242 16.3117 -2.6477 0.1573 0 7
-3.4861 16.2577 -2.6477 0.1573 0 7
12.3423 8.2993 -2.4953 0.1655 0 8
12.9528 9.0156 -2.6477 0.1655 0 7
12.8062 9.2228 -2.6477 0.1655 0 7
12.6562 9.4275 -2.6477 0.1655 0 7
12.5030 9.6298 -2.6477 0.1655 0 7
12.3465 9.8296 -2.6477 0.1655 0 7
12.1868 10.0269 -2.6477 0.1655 0 7
12.0240 10.2216 -2.6477 0.1655 0 7
11.8581 10.4136 -2.6477 0.1655 0 7
11.6891 10.6030 -2.6477 0.1655 0 7
11.5171 10.7896 -2.6477 0.1655 0 7
11.3421 10.9734 -2.6477 0.1655 0 7
11.1642 11.1544 -2.6477 0.1655 0 7
10.9833 11.3324 -2.6477 0.1655 0 7
10.7997 11.5076 -2.6477 0.1655 0 6
10.6132 11.6798 -2.6477 0.1655 0 7
10.4240 11.8489 -2.6477 0.1655 0 7
10.2321 12.0150 -2.6477 0.1655 0 7
10.0376 12.1780 -2.6477 0.1655 0 7
9.8405 12.3379 -2.6477 0.1655 0 7
9.6408 12.4945 -2.6477 0.1655 0 7
9.4386 12.6479 -2.6477 0.1655 0 7
9.2340 12.7981 -2.6477 0.1655 0 7
9.0270 12.9449 -2.6477 0.1655 0 7
8.8177 13.0884 -2.6477 0.1655 0 7
8.6061 13.2285 -2.6477 0.1655 0 7
8.3922 13.3652 -2.6477 0.1655 0 7
8.1762 13.4984 -2.6477 0.1655 0 7
7.9581 13.6282 -2.6477 0.1655 0 7
7.7379 13.7544 -2.6477 0.1655 0 7
7.5157 13.8770 -2.6477 0.1655 0 7
7.2916 13.9961 -2.6477 0.1655 0 7
7.0656 14.1115 -2.6477 0.1655 0 7
6.8377 14.2233 -2.6477 0.1655 0 7
6.6081 14.3315 -2.6477 0.1655 0 7
6.3768 14.4359 -2.6477 0.1655 0 7
6.1438 14.5366 -2.6477 0.1655 0 7
5.9093 14.6335 -2.6477 0.1655 0 7
5.6732 14.7266 -2.6477 0.1655 0 7
5.4356 14.8159 -2.6477 0.1655 0 7
5.1965 14.9014 -2.6477 0.1655 0 7
4.9564 14.9831 -2.6477 0.1655 0 7
4.7148 15.0608 -2.6477 0.1655 0 7
4.4720 15.1347 -2.6477 0.1655 0 7
4.2280 15.2047 -2.6477 0.1655 0 7
3.9830 15.2707 -2.6477 0.1655 0 7
3.7369 15.3328 -2.6477 0.1655 0 7
3.4899 15.3909 -2.6477 0.1655 0 7
3.2419 15.4450 -2.6477 0.1655 0 7
2.9931 15.4951 -2.6477 0.1655 0 7
2.7435 15.5413 -2.6477 0.1655 0 7
2.4933 15.5834 -2.6477 0.1655 0 7
2.2424 15.6214 -2.6477 0.1655 0 7
1.9908 15.6555 -2.6477 0.1655 0 7
1.7388 15.6855 -2.6477 0.1655 0 7
1.4864 15.7114 -2.6477 0.1655 0 7
1.2335 15.7333 -2.6477 0.1655 0 7
0.9804 15.7511 -2.6477 0.1655 0 7
0.7269 15.7648 -2.6477 0.1655 0 7
0.4733 15.7745 -2.6477 0.1655 0 7
0.2196 15.7800 -2.6477 0.1655 0 7
-0.0342 15.7815 -2.6477 0.1655 0 7
-0.2880 15.7789 -2.6477 0.1655 0 7
-0.5417 15.7723 -2.6477 0.1655 0 7
-0.7952 15.7615 -2.6477 0.1655 0 7
-1.0486 15.7467 -2.6477 0.1655 0 7
-1.3017 15.7278 -2.6477 0.1655 0 7
-1.5544 15.7048 -2.6477 0.1655 0 7
-1.8068 15.6778 -2.6477 0.1655 0 7
-2.0587 15.6467 -2.6477 0.1655 0 7
-2.3100 15.6116 -2.6477 0.1655 0 7
-2.5608 15.5724 -2.6477 0.1655 0 7
-2.8109 15.5292 -2.6477 0.1655 0 7
-3.0602 15.4820 -2.6477 0.1655 0 7
-3.3088 15.4308 -2.6477 0.1655 0 7
11.7434 7.8965 -2.4953 0.1736 0 8
11.6149 8.0844 -2.4953 0.1736 0 8
11.4833 8.2701 -2.4953 0.1736 0 8
11.3489 8.4537 -2.4953 0.1736 0 8
11.8962 9.1625 -2.6477 0.1736 0 7
11.7473 9.3526 -2.6477 0.1736 0 7
11.5954 9.5403 -2.6477 0.1736 0 7
11.4405 9.7255 -2.6477 0.1736 0 7
11.2826 9.9083 -2.6477 0.1736 0 7
11.1218 10.0884 -2.6477 0.1736 0 7
10.9582 10.2660 -2.6477 0.1736 0 7
10.7917 10.4408 -2.6477 0.1736 0 7
10.6224 10.6130 -2.6477 0.1736 0 7
10.4503 10.7825 -2.6477 0.1736 0 7
10.2756 10.9491 -2.6477 0.1736 0 7
10.0982 11.1130 -2.6477 0.1736 0 7
9.9182 11.2739 -2.6477 0.1736 0 7
9.7356 11.4320 -2.6477 0.1736 0 6
9.5505 11.5870 -2.6477 0.1736 0 7
9.3629 11.7391 -2.6477 0.1736 0 7
9.1729 11.8882 -2.6477 0.1736 0 7
8.9806 12.0341 -2.6477 0.1736 0 7
8.7859 12.1770 -2.6477 0.1736 0 7
8.5889 12.3167 -2.6477 0.1736 0 7
8.3898 12.4532 -2.6477 0.1736 0 7
8.1884 12.5865 -2.6477 0.1736 0 7
7.9850 12.7166 -2.6477 0.1736 0 7
7.7794 12.8433 -2.6477 0.1736 0 7
7.5719 12.9668 -2.6477 0.1736 0 7
7.3624 13.0869 -2.6477 0.1736 0 7
7.1510 13.2036 -2.6477 0.1736 0 7
6.9377 13.3169 -2.6477 0.1736 0 7
6.7227 13.4267 -2.6477 0.1736 0 7
6.5059 13.5331 -2.6477 0.1736 0 7
6.2874 13.6360 -2.6477 0.1736 0 7
6.0673 13.7353 -2.6477 0.1736 0 7
5.8457 13.8311 -2.6477 0.1736 0 7
5.6225 13.9233 -2.6477 0.1736 0 7
5.3979 14.0119 -2.6477 0.1736 0 7
5.1718 14.0969 -2.6477 0.1736 0 7
4.9445 14.1783 -2.6477 0.1736 0 7
4.7158 14.2559 -2.6477 0.1736 0 7
4.4860 14.3299 -2.6477 0.1736 0 7
4.2550 14.4002 -2.6477 0.1736 0 7
4.0229 14.4668 -2.6477 0.1736 0 7
3.7897 14.5296 -2.6477 0.1736 0 7
3.5556 14.5887 -2.6477 0.1736 0 7
3.3205 14.6440 -2.6477 0.1736 0 7
3.0846 14.6954 -2.6477 0.1736 0 7
2.8479 14.7432 -2.6477 0.1736 0 7
2.6104 14.7870 -2.6477 0.1736 0 7
2.3723 14.8271 -2.6477 0.1736 0 7
2.1335 14.8633 -2.6477 0.1736 0 7
1.8942 14.8957 -2.6477 0.1736 0 7
1.6545 14.9243 -2.6477 0.1736 0 7
1.4142 14.9489 -2.6477 0.1736 0 7
1.1737 14.9698 -2.6477 0.1736 0 7
0.9328 14.9867 -2.6477 0.1736 0 7
0.6917 14.9998 -2.6477 0.1736 0 7
0.4504 15.0089 -2.6477 0.1736 0 7
0.2090 15.0142 -2.6477 0.1736 0 7
-0.0325 15.0157 -2.6477 0.1736 0 7
-0.2740 15.0132 -2.6477 0.1736 0 7
-0.5154 15.0068 -2.6477 0.1736 0 7
-0.7566 14.9966 -2.6477 0.1736 0 7
-0.9977 14.9825 -2.6477 0.1736 0 6
-1.2385 14.9645 -2.6477 0.1736 0 6
-1.4790 14.9427 -2.6477 0.1736 0 6
-1.7192 14.9169 -2.6477 0.1736 0 7
-1.9588 14.8874 -2.6477 0.1736 0 7
-2.1979 14.8540 -2.6477 0.1736 0 7
-2.4365 14.8167 -2.6477 0.1736 0 7
-2.6744 14.7756 -2.6477 0.1736 0 7
-2.9117 14.7307 -2.6477 0.1736 0 7
-3.1482 14.6820 -2.6477 0.1736 0 7
11.1983 7.5300 -2.4953 0.1818 0 8
11.0758 7.7091 -2.4953 0.1818 0 8
10.9504 7.8862 -2.4953 0.1818 0 8
10.8221 8.0613 -2.4953 0.1818 0 8
10.6911 8.2343 -2.4953 0.1818 0 8
10.5573 8.4052 -2.4953 0.1818 0 8
11.0572 9.0975 -2.6477 0.1818 0 7
10.9095 9.2741 -2.6477 0.1818 0 7
10.7590 9.4484 -2.6477 0.1818 0 7
10.6056 9.6202 -2.6477 0.1818 0 7
10.4496 9.7895 -2.6477 0.1818 0 7
10.2908 9.9562 -2.6477 0.1818 0 7
10.1293 10.1204 -2.6477 0.1818 0 7
9.9653 10.2820 -2.6477 0.1818 0 7
9.7987 10.4409 -2.6477 0.1818 0 7
9.6295 10.5972 -2.6477 0.1818 0 7
9.4578 10.7507 -2.6477 0.1818 0 7
9.2837 10.9014 -2.6477 0.1818 0 7
9.1072 11.0492 -2.6477 0.1818 0 7
8.9284 11.1943 -2.6477 0.1818 0 7
8.7472 11.3364 -2.6477 0.1818 0 7
8.5638 11.4756 -2.6477 0.1818 0 6
8.3781 11.6118 -2.6477 0.1818 0 7
8.1903 11.7450 -2.6477 0.1818 0 7
8.0004 11.8752 -2.6477 0.1818 0 7
7.8084 12.0024 -2.6477 0.1818 0 7
7.6143 12.1264 -2.6477 0.1818 0 7
7.4184 12.2472 -2.6477 0.1818 0 7
7.2204 12.3650 -2.6477 0.1818 0 7
7.0207 12.4795 -2.6477 0.1818 0 7
6.8191 12.5908 -2.6477 0.1818 0 7
6.6157 12.6988 -2.6477 0.1818 0 7
6.4107 12.8035 -2.6477 0.1818 0 7
6.2039 12.9050 -2.6477 0.1818 0 7
5.9956 13.0031 -2.6477 0.1818 0 7
5.7857 13.0978 -2.6477 0.1818 0 7
5.5744 13.1891 -2.6477 0.1818 0 7
5.3615 13.2771 -2.6477 0.1818 0 7
5.1473 13.3616 -2.6477 0.1818 0 7
4.9318 13.4426 -2.6477 0.1818 0 7
4.7150 13.5202 -2.6477 0.1818 0 7
4.4970 13.5943 -2.6477 0.1818 0 7
4.2778 13.6648 -2.6477 0.1818 0 7
4.0575 13.7319 -2.6477 0.1818 0 7
3.8361 13.7953 -2.6477 0.1818 0 7
3.6138 13.8552 -2.6477 0.1818 0 7
3.3905 13.9116 -2.6477 0.1818 0 7
3.1664 13.9643 -2.6477 0.1818 0 7
2.9414 14.0134 -2.6477 0.1818 0 7
2.7157 14.0589 -2.6477 0.1818 0 7
2.4892 14.1007 -2.6477 0.1818 0 7
2.2622 14.1389 -2.6477 0.1818 0 7
2.0345 14.1735 -2.6477 0.1818 0 7
1.8063 14.2044 -2.6477 0.1818 0 7
1.5777 14.2316 -2.6477 0.1818 0 7
1.3486 14.2551 -2.6477 0.1818 0 7
1.1192 14.2750 -2.6477 0.1818 0 7
0.8895 14.2911 -2.6477 0.1818 0 7
0.6596 14.3036 -2.6477 0.1818 0 7
0.4295 14.3123 -2.6477 0.1818 0 7
0.1992 14.3174 -2.6477 0.1818 0 7
-0.0310 14.3187 -2.6477 0.1818 0 7
-0.2613 14.3164 -2.6477 0.1818 0 7
-0.4915 14.3103 -2.6477 0.1818 0 7
-0.7215 14.3006 -2.6477 0.1818 0 7
-0.9514 14.2871 -2.6477 0.1818 0 7
-1.1810 14.2700 -2.6477 0.1818 0 7
-1.4104 14.2491 -2.6477 0.1818 0 7
-1.6393 14.2246 -2.6477 0.1818 0 7
-1.8678 14.1964 -2.6477 0.1818 0 7
-2.0959 14.1645 -2.6477 0.1818 0 7
-2.3234 14.1290 -2.6477 0.1818 0 7
-2.5503 14.0898 -2.6477 0.1818 0 7
-2.7766 14.0470 -2.6477 0.1818 0 7
-3.0021 14.0005 -2.6477 0.1818 0 7
10.7002 7.1951 -2.4953 0.1900 0 8
10.5831 7.3662 -2.4953 0.1900 0 8
10.4632 7.5354 -2.4953 0.1900 0 8
10.3407 7.7027 -2.4953 0.1900 0 8
10.2155 7.8680 -2.4953 0.1900 0 8
10.0877 8.0313 -2.4953 0.1900 0 8
9.9572 8.1924 -2.4953 0.1900 0 8
9.8241 8.3515 -2.4953 0.1900 0 8
10.2803 9.0281 -2.6477 0.1900 0 7
10.1338 9.1922 -2.6477 0.1900 0 7
9.9847 9.3540 -2.6477 0.1900 0 7
9.8330 9.5133 -2.6477 0.1900 0 7
9.6787 9.6702 -2.6477 0.1900 0 7
9.5220 9.8246 -2.6477 0.1900 0 7
9.3627 9.9765 -2.6477 0.1900 0 7
9.2011 10.1257 -2.6477 0.1900 0 7
9.0371 10.2724 -2.6477 0.1900 0 7
8.8707 10.4164 -2.6477 0.1900 0 7
8.7021 10.5577 -2.6477 0.1900 0 7
8.5312 10.6963 -2.6477 0.1900 0 7
8.3581 10.8321 -2.6477 0.1900 0 7
8.1828 10.9651 -2.6477 0.1900 0 7
8.0054 11.0953 -2.6477 0.1900 0 7
7.8259 11.2226 -2.6477 0.1900 0 7
7.6445 11.3470 -2.6477 0.1900 0 7
7.4609 11.4684 -2.6477 0.1900 0 6
7.2756 11.5869 -2.6477 0.1900 0 7
7.0883 11.7024 -2.6477 0.1900 0 7
6.8992 11.8149 -2.6477 0.1900 0 7
6.7084 11.9243 -2.6477 0.1900 0 7
6.5157 12.0307 -2.6477 0.1900 0 7
6.3214 12.1339 -2.6477 0.1900 0 7
6.1255 12.2340 -2.6477 0.1900 0 7
5.9280 12.3309 -2.6477 0.1900 0 7
5.7289 12.4246 -2.6477 0.1900 0 7
5.5283 12.5151 -2.6477 0.1900 0 7
5.3264 12.6024 -2.6477 0.1900 0 7
5.1230 12.6864 -2.6477 0.1900 0 7
4.9184 12.7672 -2.6477 0.1900 0 7
4.7124 12.8446 -2.6477 0.1900 0 7
4.5053 12.9187 -2.6477 0.1900 0 7
4.2969 12.9895 -2.6477 0.1900 0 7
4.0875 13.0569 -2.6477 0.1900 0 7
3.8770 13.1210 -2.6477 0.1900 0 7
3.6655 13.1816 -2.6477 0.1900 0 7
3.4530 13.2389 -2.6477 0.1900 0 7
3.2397 13.2927 -2.6477 0.1900 0 7
3.0255 13.3431 -2.6477 0.1900 0 7
2.8106 13.3900 -2.6477 0.1900 0 7
2.5949 13.4335 -2.6477 0.1900 0 7
2.3785 13.4735 -2.6477 0.1900 0 7
2.1615 13.5100 -2.6477 0.1900 0 7
1.9440 13.5430 -2.6477 0.1900 0 7
1.7260 13.5725 -2.6477 0.1900 0 7
1.5075 13.5985 -2.6477 0.1900 0 7
1.2886 13.6210 -2.6477 0.1900 0 7
1.0694 13.6399 -2.6477 0.1900 0 7
0.8499 13.6554 -2.6477 0.1900 0 7
0.6302 13.6673 -2.6477 0.1900 0 7
0.4103 13.6756 -2.6477 0.1900 0 7
0.1904 13.6805 -2.6477 0.1900 0 7
-0.0296 13.6818 -2.6477 0.1900 0 7
-0.2496 13.6795 -2.6477 0.1900 0 7
-0.4696 13.6737 -2.6477 0.1900 0 7
-0.6894 13.6644 -2.6477 0.1900 0 7
-0.9091 13.6516 -2.6477 0.1900 0 7
-1.1285 13.6352 -2.6477 0.1900 0 7
-1.3476 13.6153 -2.6477 0.1900 0 7
-1.5664 13.5918 -2.6477 0.1900 0 7
-1.7848 13.5649 -2.6477 0.1900 0 7
-2.0027 13.5344 -2.6477 0.1900 0 7
-2.2200 13.5005 -2.6477 0.1900 0 7
-2.4369 13.4630 -2.6477 0.1900 0 7
-2.6530 13.4221 -2.6477 0.1900 0 7
-2.8685 13.3777 -2.6477 0.1900 0 7
10.2430 6.8877 -2.4953 0.1981 0 8
10.1309 7.0515 -2.4953 0.1981 0 8
10.0162 7.2135 -2.4953 0.1981 0 8
9.8989 7.3736 -2.4953 0.1981 0 8
9.7791 7.5319 -2.4953 0.1981 0 8
9.6567 7.6881 -2.4953 0.1981 0 8
9.5318 7.8424 -2.4953 0.1981 0 8
9.4045 7.9947 -2.4953 0.1981 0 8
9.2747 8.1449 -2.4953 0.1981 0 8
9.1425 8.2930 -2.4953 0.1981 0 8
9.0080 8.4389 -2.4953 0.1981 0 8
9.4129 9.1069 -2.6477 0.1981 0 7
9.2652 9.2571 -2.6477 0.1981 0 7
9.1152 9.4049 -2.6477 0.1981 0 7
8.9628 9.5503 -2.6477 0.1981 0 7
8.8080 9.6932 -2.6477 0.1981 0 7
8.6510 9.8335 -2.6477 0.1981 0 7
8.4918 9.9714 -2.6477 0.1981 0 7
8.3303 10.1067 -2.6477 0.1981 0 7
8.1667 10.2393 -2.6477 0.1981 0 7
8.0010 10.3693 -2.6477 0.1981 0 7
7.8332 10.4966 -2.6477 0.1981 0 7
7.6634 10.6212 -2.6477 0.1981 0 7
7.4916 10.7431 -2.6477 0.1981 0 7
7.3179 10.8622 -2.6477 0.1981 0 7
7.1423 10.9785 -2.6477 0.1981 0 7
6.9648 11.0919 -2.6477 0.1981 0 7
6.7855 11.2025 -2.6477 0.1981 0 7
6.6045 11.3101 -2.6477 0.1981 0 7
6.4218 11.4149 -2.6477 0.1981 0 6
6.2374 11.5167 -2.6477 0.1981 0 7
6.0514 11.6155 -2.6477 0.1981 0 7
5.8638 11.7113 -2.6477 0.1981 0 7
5.6747 11.8041 -2.6477 0.1981 0 7
5.4841 11.8938 -2.6477 0.1981 0 7
5.2922 11.9805 -2.6477 0.1981 0 7
5.0988 12.0640 -2.6477 0.1981 0 7
4.9042 12.1445 -2.6477 0.1981 0 7
4.7082 12.2217 -2.6477 0.1981 0 7
4.5111 12.2959 -2.6477 0.1981 0 7
4.3128 12.3668 -2.6477 0.1981 0 7
4.1133 12.4346 -2.6477 0.1981 0 7
3.9129 12.4991 -2.6477 0.1981 0 7
3.7114 12.5604 -2.6477 0.1981 0 7
3.5089 12.6185 -2.6477 0.1981 0 7
3.3055 12.6733 -2.6477 0.1981 0 7
3.1013 12.7248 -2.6477 0.1981 0 7
2.8963 12.7730 -2.6477 0.1981 0 7
2.6905 12.8180 -2.6477 0.1981 0 7
2.4840 12.8596 -2.6477 0.1981 0 7
2.2769 12.8978 -2.6477 0.1981 0 7
2.0692 12.9328 -2.6477 0.1981 0 7
1.8609 12.9644 -2.6477 0.1981 0 7
1.6522 12.9926 -2.6477 0.1981 0 7
1.4431 13.0175 -2.6477 0.1981 0 7
1.2336 13.0391 -2.6477 0.1981 0 7
1.0237 13.0572 -2.6477 0.1981 0 7
0.8136 13.0720 -2.6477 0.1981 0 7
0.6033 13.0834 -2.6477 0.1981 0 7
0.3928 13.0914 -2.6477 0.1981 0 7
0.1823 13.0960 -2.6477 0.1981 0 7
-0.0284 13.0972 -2.6477 0.1981 0 7
-0.2390 13.0951 -2.6477 0.1981 0 7
-0.4495 13.0896 -2.6477 0.1981 0 7
-0.6600 13.0806 -2.6477 0.1981 0 7
-0.8702 13.0683 -2.6477 0.1981 0 7
-1.0803 13.0526 -2.6477 0.1981 0 7
-1.2900 13.0336 -2.6477 0.1981 0 7
-1.4995 13.0112 -2.6477 0.1981 0 7
-1.7085 12.9854 -2.6477 0.1981 0 7
-1.9171 12.9562 -2.6477 0.1981 0 7
-2.1252 12.9237 -2.6477 0.1981 0 7
-2.3328 12.8879 -2.6477 0.1981 0 7
-2.5397 12.8487 -2.6477 0.1981 0 7
-2.7460 12.8062 -2.6477 0.1981 0 7
9.8220 6.6046 -2.4953 0.2063 0 8
9.7145 6.7617 -2.4953 0.2063 0 8
9.6045 6.9170 -2.4953 0.2063 0 8
9.4921 7.0705 -2.4953 0.2063 0 8
9.3771 7.2223 -2.4953 0.2063 0 8
9.2598 7.3721 -2.4953 0.2063 0 8
9.1400 7.5201 -2.4953 0.2063 0 8
9.0179 7.6661 -2.4953 0.2063 0 8
8.8935 7.8101 -2.4953 0.2063 0 8
8.7667 7.9521 -2.4953 0.2063 0 8
8.6377 8.0921 -2.4953 0.2063 0 8
8.5065 8.2299 -2.4953 0.2063 0 8
8.3730 8.3657 -2.4953 0.2063 0 8
8.7405 9.0183 -2.6477 0.2063 0 7
8.5944 9.1577 -2.6477 0.2063 0 7
8.4460 9.2947 -2.6477 0.2063 0 7
8.2954 9.4294 -2.6477 0.2063 0 7
8.1427 9.5615 -2.6477 0.2063 0 7
7.9879 9.6912 -2.6477 0.2063 0 7
7.8310 9.8184 -2.6477 0.2063 0 7
7.6721 9.9431 -2.6477 0.2063 0 7
7.5112 10.0652 -2.6477 0.2063 0 7
7.3484 10.1847 -2.6477 0.2063 0 7
7.1837 10.3015 -2.6477 0.2063 0 7
7.0171 10.4157 -2.6477 0.2063 0 7
6.8487 10.5272 -2.6477 0.2063 0 7
6.6785 10.6360 -2.6477 0.2063 0 7
6.5066 10.7420 -2.6477 0.2063 0 7
6.3330 10.8453 -2.6477 0.2063 0 7
6.1578 10.9457 -2.6477 0.2063 0 7
5.9810 11.0433 -2.6477 0.2063 0 7
5.8026 11.1381 -2.6477 0.2063 0 7
5.6228 11.2299 -2.6477 0.2063 0 7
5.4415 11.3189 -2.6477 0.2063 0 7
5.2587 11.4049 -2.6477 0.2063 0 6
5.0747 11.4880 -2.6477 0.2063 0 6
4.8892 11.5682 -2.6477 0.2063 0 7
4.7026 11.6453 -2.6477 0.2063 0 7
4.5147 11.7194 -2.6477 0.2063 0 7
4.3257 11.7905 -2.6477 0.2063 0 7
4.1355 11.8585 -2.6477 0.2063 0 7
3.9443 11.9235 -2.6477 0.2063 0 7
3.7520 11.9854 -2.6477 0.2063 0 7
3.5588 12.0442 -2.6477 0.2063 0 7
3.3647 12.0998 -2.6477 0.2063 0 7
3.1697 12.1524 -2.6477 0.2063 0 7
2.9738 12.2018 -2.6477 0.2063 0 7
2.7772 12.2480 -2.6477 0.2063 0 7
2.5799 12.2911 -2.6477 0.2063 0 7
2.3819 12.3310 -2.6477 0.2063 0 7
2.1833 12.3677 -2.6477 0.2063 0 7
1.9841 12.4012 -2.6477 0.2063 0 7
1.7845 12.4315 -2.6477 0.2063 0 7
1.5843 12.4586 -2.6477 0.2063 0 7
1.3838 12.4825 -2.6477 0.2063 0 7
1.1829 12.5031 -2.6477 0.2063 0 7
0.9816 12.5205 -2.6477 0.2063 0 7
0.7802 12.5347 -2.6477 0.2063 0 7
0.5785 12.5456 -2.6477 0.2063 0 7
0.3767 12.5533 -2.6477 0.2063 0 7
0.1748 12.5577 -2.6477 0.2063 0 7
-0.0272 12.5589 -2.6477 0.2063 0 7
-0.2292 12.5568 -2.6477 0.2063 0 7
-0.4311 12.5515 -2.6477 0.2063 0 7
-0.6328 12.5430 -2.6477 0.2063 0 7
-0.8345 12.5312 -2.6477 0.2063 0 7
-1.0359 12.5161 -2.6477 0.2063 0 7
-1.2370 12.4979 -2.6477 0.2063 0 7
-1.4378 12.4764 -2.6477 0.2063 0 7
-1.6383 12.4516 -2.6477 0.2063 0 7
-1.8383 12.4237 -2.6477 0.2063 0 7
-2.0378 12.3925 -2.6477 0.2063 0 7
-2.2369 12.3581 -2.6477 0.2063 0 7
-2.4353 12.3206 -2.6477 0.2063 0 7
-2.6331 12.2798 -2.6477 0.2063 0 7
9.4329 6.3429 -2.4953 0.2144 0 8
9.3297 6.4938 -2.4953 0.2144 0 8
9.2241 6.6430 -2.4953 0.2144 0 8
9.1160 6.7905 -2.4953 0.2144 0 8
9.0057 6.9362 -2.4953 0.2144 0 8
8.8930 7.0801 -2.4953 0.2144 0 8
8.7780 7.2222 -2.4953 0.2144 0 8
8.6607 7.3624 -2.4953 0.2144 0 8
8.5412 7.5007 -2.4953 0.2144 0 8
8.4194 7.6371 -2.4953 0.2144 0 8
8.2955 7.7715 -2.4953 0.2144 0 8
8.1695 7.9039 -2.4953 0.2144 0 8
8.0413 8.0343 -2.4953 0.2144 0 8
7.9111 8.1625 -2.4953 0.2144 0 8
7.7788 8.2887 -2.4953 0.2144 0 8
7.6445 8.4127 -2.4953 0.2144 0 8
7.9668 9.0558 -2.6477 0.2144 0 7
7.8201 9.1828 -2.6477 0.2144 0 7
7.6715 9.3073 -2.6477 0.2144 0 7
7.5208 9.4295 -2.6477 0.2144 0 7
7.3682 9.5492 -2.6477 0.2144 0 7
7.2137 9.6665 -2.6477 0.2144 0 7
7.0573 9.7812 -2.6477 0.2144 0 7
6.8991 9.8934 -2.6477 0.2144 0 7
6.7391 10.0031 -2.6477 0.2144 0 7
6.5774 10.1102 -2.6477 0.2144 0 7
6.4139 10.2146 -2.6477 0.2144 0 7
6.2489 10.3165 -2.6477 0.2144 0 7
6.0821 10.4156 -2.6477 0.2144 0 7
5.9139 10.5121 -2.6477 0.2144 0 7
5.7441 10.6058 -2.6477 0.2144 0 7
5.5728 10.6968 -2.6477 0.2144 0 7
5.4000 10.7851 -2.6477 0.2144 0 7
5.2259 10.8705 -2.6477 0.2144 0 7
5.0504 10.9531 -2.6477 0.2144 0 7
4.8736 11.0329 -2.6477 0.2144 0 7
4.6956 11.1099 -2.6477 0.2144 0 7
4.5163 11.1840 -2.6477 0.2144 0 7
4.3359 11.2551 -2.6477 0.2144 0 7
4.1543 11.3234 -2.6477 0.2144 0 7
3.9716 11.3887 -2.6477 0.2144 0 6
3.7881 11.4511 -2.6477 0.2144 0 6
3.6034 11.5106 -2.6477 0.2144 0 7
3.4178 11.5670 -2.6477 0.2144 0 7
3.2314 11.6205 -2.6477 0.2144 0 7
3.0441 11.6710 -2.6477 0.2144 0 7
2.8560 11.7184 -2.6477 0.2144 0 7
2.6672 11.7628 -2.6477 0.2144 0 7
2.4777 11.8042 -2.6477 0.2144 0 7
2.2876 11.8425 -2.6477 0.2144 0 7
2.0968 11.8778 -2.6477 0.2144 0 7
1.9055 11.9099 -2.6477 0.2144 0 7
1.7138 11.9390 -2.6477 0.2144 0 7
1.5216 11.9651 -2.6477 0.2144 0 7
1.3289 11.9880 -2.6477 0.2144 0 7
1.1360 12.0078 -2.6477 0.2144 0 7
0.9428 12.0245 -2.6477 0.2144 0 7
0.7493 12.0381 -2.6477 0.2144 0 7
0.5556 12.0486 -2.6477 0.2144 0 7
0.3617 12.0560 -2.6477 0.2144 0 7
0.1678 12.0603 -2.6477 0.2144 0 7
-0.0261 12.0614 -2.6477 0.2144 0 7
-0.2201 12.0594 -2.6477 0.2144 0 7
-0.4140 12.0543 -2.6477 0.2144 0 7
-0.6078 12.0461 -2.6477 0.2144 0 7
-0.8014 12.0348 -2.6477 0.2144 0 7
-0.9948 12.0203 -2.6477 0.2144 0 7
-1.1880 12.0028 -2.6477 0.2144 0 7
-1.3809 11.9821 -2.6477 0.2144 0 7
-1.5734 11.9584 -2.6477 0.2144 0 7
-1.7655 11.9315 -2.6477 0.2144 0 7
-1.9571 11.9016 -2.6477 0.2144 0 7
-2.1483 11.8686 -2.6477 0.2144 0 7
-2.3388 11.8325 -2.6477 0.2144 0 7
-2.5288 11.7933 -2.6477 0.2144 0 7
9.0722 6.1004 -2.4953 0.2225 0 8
8.9729 6.2455 -2.4953 0.2225 0 8
8.8713 6.3890 -2.4953 0.2225 0 8
8.7675 6.5308 -2.4953 0.2225 0 8
8.6613 6.6709 -2.4953 0.2225 0 8
8.5529 6.8094 -2.4953 0.2225 0 8
8.4423 6.9460 -2.4953 0.2225 0 8
8.3295 7.0809 -2.4953 0.2225 0 8
8.2146 7.2139 -2.4953 0.2225 0 8
8.0975 7.3451 -2.4953 0.2225 0 8
7.9783 7.4743 -2.4953 0.2225 0 8
7.8571 7.6017 -2.4953 0.2225 0 8
7.7338 7.7270 -2.4953 0.2225 0 8
7.6086 7.8504 -2.4953 0.2225 0 8
7.4814 7.9717 -2.4953 0.2225 0 8
7.3522 8.0910 -2.4953 0.2225 0 8
7.2211 8.2082 -2.4953 0.2225 0 8
7.0882 8.3233 -2.4953 0.2225 0 8
6.9534 8.4362 -2.4953 0.2225 0 8
7.2332 9.0689 -2.6477 0.2225 0 7
7.0864 9.1841 -2.6477 0.2225 0 7
6.9378 9.2968 -2.6477 0.2225 0 7
6.7874 9.4072 -2.6477 0.2225 0 7
6.6353 9.5151 -2.6477 0.2225 0 7
6.4814 9.6206 -2.6477 0.2225 0 7
6.3259 9.7236 -2.6477 0.2225 0 7
6.1687 9.8241 -2.6477 0.2225 0 7
6.0099 9.9220 -2.6477 0.2225 0 7
5.8496 10.0174 -2.6477 0.2225 0 7
5.6877 10.1101 -2.6477 0.2225 0 7
5.5244 10.2003 -2.6477 0.2225 0 7
5.3597 10.2878 -2.6477 0.2225 0 7
5.1935 10.3727 -2.6477 0.2225 0 7
5.0261 10.4548 -2.6477 0.2225 0 7
4.8573 10.5343 -2.6477 0.2225 0 7
4.6873 10.6111 -2.6477 0.2225 0 7
4.5160 10.6851 -2.6477 0.2225 0 7
4.3436 10.7563 -2.6477 0.2225 0 7
4.1701 10.8248 -2.6477 0.2225 0 7
