ply
format ascii 1.0
element vertex 1385
property float32 x
property float32 y
property float32 z
property float32 CosAngle
property uint32 ObjIdx
property uint32 ObjTag
end_header
8.7558 -0.2942 -1.0979 0.3210 25 10
8.7279 -0.1526 -1.0939 0.3292 25 10
8.7051 -0.0119 -1.0909 0.3265 25 10
8.7239 0.1286 -1.0934 0.3294 25 10
8.7474 0.2699 -1.0967 0.3214 25 10
8.7967 0.4134 -1.1036 0.3199 25 10
8.8579 0.5594 -1.1122 0.2968 25 10
19.8494 1.5748 -2.4953 0.1243 0 8
19.8215 1.8944 -2.4953 0.1243 0 8
19.7884 2.2134 -2.4953 0.1243 0 8
19.7502 2.5319 -2.4953 0.1243 0 8
19.7068 2.8497 -2.4953 0.1243 0 8
19.6584 3.1668 -2.4953 0.1243 0 8
19.6048 3.4830 -2.4953 0.1243 0 8
19.5461 3.7984 -2.4953 0.1243 0 8
19.4824 4.1128 -2.4953 0.1243 0 8
19.4136 4.4261 -2.4953 0.1243 0 8
19.3398 4.7382 -2.4953 0.1243 0 8
19.2610 5.0491 -2.4953 0.1243 0 8
19.1772 5.3587 -2.4953 0.1243 0 8
19.0884 5.6669 -2.4953 0.1243 0 8
18.9946 5.9737 -2.4953 0.1243 0 8
18.8959 6.2789 -2.4953 0.1243 0 8
18.7923 6.5824 -2.4953 0.1243 0 8
18.6838 6.8843 -2.4953 0.1243 0 8
18.5705 7.1844 -2.4953 0.1243 0 8
18.4524 7.4826 -2.4953 0.1243 0 8
18.3295 7.7788 -2.4953 0.1243 0 8
18.2018 8.0731 -2.4953 0.1243 0 8
18.0694 8.3652 -2.4953 0.1243 0 8
19.0275 9.1839 -2.6477 0.1243 0 7
18.8771 9.4892 -2.6477 0.1243 0 7
18.7218 9.7920 -2.6477 0.1243 0 7
18.5616 10.0923 -2.6477 0.1243 0 7
18.3966 10.3900 -2.6477 0.1243 0 7
18.2269 10.6850 -2.6477 0.1243 0 7
18.0524 10.9772 -2.6477 0.1243 0 7
17.8732 11.2666 -2.6477 0.1243 0 7
17.6894 11.5530 -2.6477 0.1243 0 7
17.5010 11.8365 -2.6477 0.1243 0 7
17.3081 12.1169 -2.6477 0.1243 0 7
17.1107 12.3941 -2.6477 0.1243 0 7
13.3318 -13.0472 -2.4953 0.1326 0 8
13.5403 -12.8307 -2.4953 0.1326 0 8
13.7452 -12.6110 -2.4953 0.1326 0 8
13.9466 -12.3879 -2.4953 0.1326 0 8
14.1443 -12.1616 -2.4953 0.1326 0 8
14.3384 -11.9322 -2.4953 0.1326 0 8
14.5287 -11.6997 -2.4953 0.1326 0 8
14.7153 -11.4642 -2.4953 0.1326 0 8
14.8981 -11.2256 -2.4953 0.1326 0 8
15.0770 -10.9842 -2.4953 0.1326 0 8
15.2519 -10.7399 -2.4953 0.1326 0 8
15.4230 -10.4928 -2.4953 0.1326 0 8
15.5900 -10.2430 -2.4953 0.1326 0 8
15.7530 -9.9906 -2.4953 0.1326 0 8
15.9118 -9.7355 -2.4953 0.1326 0 8
16.0666 -9.4779 -2.4953 0.1326 0 8
16.2172 -9.2179 -2.4953 0.1326 0 8
16.3636 -8.9555 -2.4953 0.1326 0 8
16.5057 -8.6907 -2.4953 0.1326 0 8
16.6436 -8.4237 -2.4953 0.1326 0 8
16.7771 -8.1545 -2.4953 0.1326 0 8
16.9063 -7.8832 -2.4953 0.1326 0 8
17.0311 -7.6098 -2.4953 0.1326 0 8
17.1514 -7.3345 -2.4953 0.1326 0 8
17.2674 -7.0573 -2.4953 0.1326 0 8
17.3788 -6.7782 -2.4953 0.1326 0 8
17.4857 -6.4974 -2.4953 0.1326 0 8
17.5881 -6.2149 -2.4953 0.1326 0 8
17.6860 -5.9308 -2.4953 0.1326 0 8
17.7792 -5.6451 -2.4953 0.1326 0 8
17.8678 -5.3580 -2.4953 0.1326 0 8
17.9518 -5.0695 -2.4953 0.1326 0 8
18.0312 -4.7796 -2.4953 0.1326 0 8
18.1058 -4.4886 -2.4953 0.1326 0 8
18.1758 -4.1963 -2.4953 0.1326 0 8
18.2410 -3.9030 -2.4953 0.1326 0 8
18.3015 -3.6087 -2.4953 0.1326 0 8
18.3572 -3.3134 -2.4953 0.1326 0 8
18.4082 -3.0173 -2.4953 0.1326 0 8
18.4545 -2.7203 -2.4953 0.1326 0 8
18.4959 -2.4227 -2.4953 0.1326 0 8
18.5325 -2.1245 -2.4953 0.1326 0 8
18.5643 -1.8257 -2.4953 0.1326 0 8
18.5913 -1.5264 -2.4953 0.1326 0 8
8.6464 -0.5698 -1.1591 0.3037 25 10
8.5932 -0.4274 -1.1509 0.4039 25 10
8.5552 -0.2875 -1.1451 0.4186 25 10
8.5363 -0.1492 -1.1420 0.4226 25 10
8.5183 -0.0117 -1.1395 0.4236 25 10
8.5333 0.1258 -1.1416 0.4228 25 10
8.5510 0.2638 -1.1444 0.4237 25 10
8.5865 0.4035 -1.1499 0.4043 25 10
8.6277 0.5448 -1.1564 0.3606 25 10
18.5954 1.4753 -2.4953 0.1326 0 8
18.5693 1.7747 -2.4953 0.1326 0 8
18.5383 2.0736 -2.4953 0.1326 0 8
18.5025 2.3719 -2.4953 0.1326 0 8
18.4618 2.6697 -2.4953 0.1326 0 8
18.4165 2.9667 -2.4953 0.1326 0 8
18.3663 3.2630 -2.4953 0.1326 0 8
18.3113 3.5584 -2.4953 0.1326 0 8
18.2516 3.8529 -2.4953 0.1326 0 8
18.1872 4.1464 -2.4953 0.1326 0 8
18.1180 4.4389 -2.4953 0.1326 0 8
18.0442 4.7301 -2.4953 0.1326 0 8
17.9656 5.0202 -2.4953 0.1326 0 8
17.8825 5.3089 -2.4953 0.1326 0 8
17.7946 5.5963 -2.4953 0.1326 0 8
17.7022 5.8822 -2.4953 0.1326 0 8
17.6051 6.1666 -2.4953 0.1326 0 8
17.5035 6.4494 -2.4953 0.1326 0 8
17.3974 6.7305 -2.4953 0.1326 0 8
17.2867 7.0099 -2.4953 0.1326 0 8
17.1715 7.2874 -2.4953 0.1326 0 8
17.0519 7.5631 -2.4953 0.1326 0 8
16.9278 7.8368 -2.4953 0.1326 0 8
16.7994 8.1084 -2.4953 0.1326 0 8
16.6666 8.3780 -2.4953 0.1326 0 8
17.5391 9.1734 -2.6477 0.1326 0 7
17.3890 9.4547 -2.6477 0.1326 0 7
17.2345 9.7336 -2.6477 0.1326 0 7
17.0754 10.0100 -2.6477 0.1326 0 7
16.9120 10.2838 -2.6477 0.1326 0 7
16.7441 10.5548 -2.6477 0.1326 0 7
16.5719 10.8232 -2.6477 0.1326 0 7
16.3954 11.0887 -2.6477 0.1326 0 7
16.2147 11.3514 -2.6477 0.1326 0 7
16.0297 11.6111 -2.6477 0.1326 0 7
12.5380 -12.2703 -2.4953 0.1408 0 8
12.7340 -12.0667 -2.4953 0.1408 0 8
12.9267 -11.8600 -2.4953 0.1408 0 8
13.1161 -11.6503 -2.4953 0.1408 0 8
13.3021 -11.4375 -2.4953 0.1408 0 8
13.4846 -11.2217 -2.4953 0.1408 0 8
13.6636 -11.0030 -2.4953 0.1408 0 8
13.8391 -10.7815 -2.4953 0.1408 0 8
14.0110 -10.5572 -2.4953 0.1408 0 8
14.1792 -10.3301 -2.4953 0.1408 0 8
14.3438 -10.1004 -2.4953 0.1408 0 8
14.5046 -9.8680 -2.4953 0.1408 0 8
14.6617 -9.6331 -2.4953 0.1408 0 8
14.8149 -9.3957 -2.4953 0.1408 0 8
14.9644 -9.1558 -2.4953 0.1408 0 8
15.1099 -8.9136 -2.4953 0.1408 0 8
15.2515 -8.6690 -2.4953 0.1408 0 8
15.3892 -8.4222 -2.4953 0.1408 0 8
15.5229 -8.1732 -2.4953 0.1408 0 8
15.6525 -7.9221 -2.4953 0.1408 0 8
15.7781 -7.6690 -2.4953 0.1408 0 8
15.8996 -7.4138 -2.4953 0.1408 0 8
16.0169 -7.1567 -2.4953 0.1408 0 8
16.1302 -6.8978 -2.4953 0.1408 0 8
16.2392 -6.6371 -2.4953 0.1408 0 8
16.3440 -6.3746 -2.4953 0.1408 0 8
16.4445 -6.1105 -2.4953 0.1408 0 8
16.5409 -5.8452 -2.4953 0.1408 0 8
16.6328 -5.5776 -2.4953 0.1408 0 8
16.7205 -5.3090 -2.4953 0.1408 0 8
16.8039 -5.0389 -2.4953 0.1408 0 8
16.8829 -4.7676 -2.4953 0.1408 0 8
16.9575 -4.4950 -2.4953 0.1408 0 8
17.0277 -4.2213 -2.4953 0.1408 0 8
17.0935 -3.9465 -2.4953 0.1408 0 8
17.1548 -3.6706 -2.4953 0.1408 0 8
17.2117 -3.3938 -2.4953 0.1408 0 8
17.2642 -3.1161 -2.4953 0.1408 0 8
17.3121 -2.8376 -2.4953 0.1408 0 8
17.3556 -2.5584 -2.4953 0.1408 0 8
17.3945 -2.2784 -2.4953 0.1408 0 8
17.4290 -1.9980 -2.4953 0.1408 0 8
17.4589 -1.7169 -2.4953 0.1408 0 8
17.4843 -1.4355 -2.4953 0.1408 0 8
8.4689 -0.5581 -1.2072 0.3879 25 10
8.4297 -0.4193 -1.2005 0.4240 25 10
8.3957 -0.2821 -1.1949 0.4310 25 10
8.3784 -0.1465 -1.1919 0.4321 25 10
8.3605 -0.0115 -1.1892 0.4311 25 10
8.3754 0.1234 -1.1914 0.4323 25 10
8.3928 0.2590 -1.1943 0.4312 25 10
8.4239 0.3958 -1.1995 0.4244 25 10
8.4579 0.5341 -1.2054 0.4096 25 10
8.9137 0.7072 -1.2718 0.0985 25 10
17.4635 1.6690 -2.4953 0.1408 0 8
17.4344 1.9501 -2.4953 0.1408 0 8
17.4007 2.2307 -2.4953 0.1408 0 8
17.3625 2.5107 -2.4953 0.1408 0 8
17.3198 2.7901 -2.4953 0.1408 0 8
17.2726 3.0687 -2.4953 0.1408 0 8
17.2210 3.3465 -2.4953 0.1408 0 8
17.1648 3.6235 -2.4953 0.1408 0 8
17.1042 3.8995 -2.4953 0.1408 0 8
17.0392 4.1745 -2.4953 0.1408 0 8
16.9697 4.4485 -2.4953 0.1408 0 8
16.8959 4.7213 -2.4953 0.1408 0 8
16.8176 4.9928 -2.4953 0.1408 0 8
16.7350 5.2631 -2.4953 0.1408 0 8
16.6481 5.5320 -2.4953 0.1408 0 8
16.5568 5.7994 -2.4953 0.1408 0 8
16.4613 6.0654 -2.4953 0.1408 0 8
16.3614 6.3297 -2.4953 0.1408 0 8
16.2573 6.5925 -2.4953 0.1408 0 8
16.1490 6.8535 -2.4953 0.1408 0 8
16.0365 7.1127 -2.4953 0.1408 0 8
15.9199 7.3701 -2.4953 0.1408 0 8
15.7991 7.6256 -2.4953 0.1408 0 8
15.6742 7.8791 -2.4953 0.1408 0 8
15.5452 8.1306 -2.4953 0.1408 0 8
15.4122 8.3800 -2.4953 0.1408 0 8
16.2082 9.1540 -2.6477 0.1408 0 7
16.0587 9.4139 -2.6477 0.1408 0 7
15.9049 9.6714 -2.6477 0.1408 0 7
15.7471 9.9263 -2.6477 0.1408 0 7
15.5851 10.1787 -2.6477 0.1408 0 7
15.4192 10.4284 -2.6477 0.1408 0 7
15.2492 10.6755 -2.6477 0.1408 0 7
15.0752 10.9197 -2.6477 0.1408 0 7
11.8318 -11.5792 -2.4953 0.1490 0 8
12.0168 -11.3871 -2.4953 0.1490 0 8
12.1987 -11.1920 -2.4953 0.1490 0 8
12.3774 -10.9941 -2.4953 0.1490 0 8
12.5529 -10.7933 -2.4953 0.1490 0 8
12.7251 -10.5897 -2.4953 0.1490 0 8
12.8940 -10.3833 -2.4953 0.1490 0 8
13.0596 -10.1743 -2.4953 0.1490 0 8
13.2218 -9.9626 -2.4953 0.1490 0 8
13.3806 -9.7483 -2.4953 0.1490 0 8
13.5359 -9.5315 -2.4953 0.1490 0 8
13.6876 -9.3122 -2.4953 0.1490 0 8
13.8359 -9.0905 -2.4953 0.1490 0 8
13.9805 -8.8665 -2.4953 0.1490 0 8
14.1215 -8.6401 -2.4953 0.1490 0 8
14.2589 -8.4115 -2.4953 0.1490 0 8
14.3925 -8.1808 -2.4953 0.1490 0 8
14.5224 -7.9479 -2.4953 0.1490 0 8
14.6486 -7.7129 -2.4953 0.1490 0 8
14.7709 -7.4759 -2.4953 0.1490 0 8
14.8894 -7.2370 -2.4953 0.1490 0 8
15.0041 -6.9962 -2.4953 0.1490 0 8
15.1148 -6.7536 -2.4953 0.1490 0 8
15.2216 -6.5093 -2.4953 0.1490 0 8
15.3245 -6.2632 -2.4953 0.1490 0 8
15.4234 -6.0156 -2.4953 0.1490 0 8
15.5183 -5.7663 -2.4953 0.1490 0 8
15.6092 -5.5156 -2.4953 0.1490 0 8
15.6960 -5.2635 -2.4953 0.1490 0 8
15.7788 -5.0100 -2.4953 0.1490 0 8
15.8574 -4.7551 -2.4953 0.1490 0 8
15.9320 -4.4991 -2.4953 0.1490 0 8
16.0024 -4.2419 -2.4953 0.1490 0 8
16.0686 -3.9835 -2.4953 0.1490 0 8
16.1307 -3.7242 -2.4953 0.1490 0 8
16.1886 -3.4639 -2.4953 0.1490 0 8
16.2423 -3.2026 -2.4953 0.1490 0 8
16.2918 -2.9406 -2.4953 0.1490 0 8
16.3370 -2.6778 -2.4953 0.1490 0 8
16.3781 -2.4143 -2.4953 0.1490 0 8
16.4148 -2.1501 -2.4953 0.1490 0 8
16.4473 -1.8854 -2.4953 0.1490 0 8
16.4756 -1.6202 -2.4953 0.1490 0 8
8.5951 -0.7057 -1.2999 0.1662 25 10
8.3335 -0.5492 -1.2588 0.4899 25 10
8.2972 -0.4127 -1.2521 0.5137 25 10
8.2613 -0.2776 -1.2459 0.5201 25 10
8.2463 -0.1442 -1.2431 0.5139 25 10
8.2323 -0.0113 -1.2408 0.5149 25 10
8.2440 0.1215 -1.2427 0.5141 25 10
8.2587 0.2548 -1.2454 0.5203 25 10
8.2910 0.3896 -1.2510 0.5141 25 10
8.3271 0.5258 -1.2576 0.5114 25 10
8.4857 0.6733 -1.2830 0.1684 25 10
16.4799 1.5750 -2.4953 0.1490 0 8
16.4524 1.8403 -2.4953 0.1490 0 8
16.4207 2.1051 -2.4953 0.1490 0 8
16.3846 2.3693 -2.4953 0.1490 0 8
16.3443 2.6329 -2.4953 0.1490 0 8
16.2998 2.8959 -2.4953 0.1490 0 8
16.2510 3.1580 -2.4953 0.1490 0 8
16.1981 3.4194 -2.4953 0.1490 0 8
16.1409 3.6799 -2.4953 0.1490 0 8
16.0795 3.9394 -2.4953 0.1490 0 8
16.0140 4.1979 -2.4953 0.1490 0 8
15.9443 4.4553 -2.4953 0.1490 0 8
15.8704 4.7116 -2.4953 0.1490 0 8
15.7925 4.9666 -2.4953 0.1490 0 8
15.7104 5.2204 -2.4953 0.1490 0 8
15.6243 5.4728 -2.4953 0.1490 0 8
15.5341 5.7237 -2.4953 0.1490 0 8
15.4399 5.9732 -2.4953 0.1490 0 8
15.3417 6.2212 -2.4953 0.1490 0 8
15.2395 6.4675 -2.4953 0.1490 0 8
15.1333 6.7121 -2.4953 0.1490 0 8
15.0232 6.9550 -2.4953 0.1490 0 8
14.9092 7.1961 -2.4953 0.1490 0 8
14.7914 7.4353 -2.4953 0.1490 0 8
14.6697 7.6727 -2.4953 0.1490 0 8
14.5442 7.9080 -2.4953 0.1490 0 8
14.4149 8.1412 -2.4953 0.1490 0 8
14.2819 8.3724 -2.4953 0.1490 0 8
15.0091 9.1267 -2.6477 0.1490 0 7
14.8601 9.3673 -2.6477 0.1490 0 7
14.7073 9.6054 -2.6477 0.1490 0 7
14.5507 9.8411 -2.6477 0.1490 0 7
14.3903 10.0742 -2.6477 0.1490 0 7
14.2261 10.3047 -2.6477 0.1490 0 7
11.1994 -10.9603 -2.4953 0.1573 0 8
11.3745 -10.7785 -2.4953 0.1573 0 8
11.5467 -10.5939 -2.4953 0.1573 0 8
11.7158 -10.4065 -2.4953 0.1573 0 8
11.8819 -10.2164 -2.4953 0.1573 0 8
12.0450 -10.0237 -2.4953 0.1573 0 8
12.2049 -9.8284 -2.4953 0.1573 0 8
12.3616 -9.6305 -2.4953 0.1573 0 8
12.5151 -9.4301 -2.4953 0.1573 0 8
12.6654 -9.2273 -2.4953 0.1573 0 8
12.8124 -9.0221 -2.4953 0.1573 0 8
12.9561 -8.8145 -2.4953 0.1573 0 8
13.0964 -8.6047 -2.4953 0.1573 0 8
13.2333 -8.3926 -2.4953 0.1573 0 8
13.3668 -8.1783 -2.4953 0.1573 0 8
13.4968 -7.9620 -2.4953 0.1573 0 8
13.6233 -7.7435 -2.4953 0.1573 0 8
13.7463 -7.5231 -2.4953 0.1573 0 8
13.8656 -7.3007 -2.4953 0.1573 0 8
13.9815 -7.0764 -2.4953 0.1573 0 8
14.0936 -6.8502 -2.4953 0.1573 0 8
14.2021 -6.6223 -2.4953 0.1573 0 8
14.3070 -6.3927 -2.4953 0.1573 0 8
14.4081 -6.1614 -2.4953 0.1573 0 8
14.5055 -5.9285 -2.4953 0.1573 0 8
14.5991 -5.6941 -2.4953 0.1573 0 8
14.6889 -5.4582 -2.4953 0.1573 0 8
14.7749 -5.2208 -2.4953 0.1573 0 8
14.8571 -4.9822 -2.4953 0.1573 0 8
14.9354 -4.7422 -2.4953 0.1573 0 8
15.0099 -4.5010 -2.4953 0.1573 0 8
15.0805 -4.2586 -2.4953 0.1573 0 8
15.1471 -4.0151 -2.4953 0.1573 0 8
15.2098 -3.7706 -2.4953 0.1573 0 8
15.2686 -3.5251 -2.4953 0.1573 0 8
15.3234 -3.2787 -2.4953 0.1573 0 8
15.3742 -3.0315 -2.4953 0.1573 0 8
15.4210 -2.7834 -2.4953 0.1573 0 8
15.4639 -2.5346 -2.4953 0.1573 0 8
15.5027 -2.2852 -2.4953 0.1573 0 8
15.5375 -2.0352 -2.4953 0.1573 0 8
15.5683 -1.7847 -2.4953 0.1573 0 8
15.5950 -1.5336 -2.4953 0.1573 0 8
8.3428 -0.6850 -1.3329 0.3396 25 10
8.2103 -0.5411 -1.3102 0.5180 25 10
8.1741 -0.4066 -1.3032 0.5126 25 10
8.1403 -0.2735 -1.2970 0.5272 25 10
8.1253 -0.1421 -1.2940 0.5283 25 10
8.1100 -0.0111 -1.2914 0.5220 25 10
8.1227 0.1197 -1.2936 0.5285 25 10
8.1378 0.2511 -1.2964 0.5274 25 10
8.1677 0.3838 -1.3020 0.5130 25 10
8.2044 0.5181 -1.3090 0.5184 25 10
8.2988 0.6584 -1.3256 0.3415 25 10
15.5991 1.4908 -2.4953 0.1573 0 8
15.5731 1.7419 -2.4953 0.1573 0 8
15.5430 1.9925 -2.4953 0.1573 0 8
15.5089 2.2427 -2.4953 0.1573 0 8
15.4708 2.4922 -2.4953 0.1573 0 8
15.4286 2.7411 -2.4953 0.1573 0 8
15.3825 2.9893 -2.4953 0.1573 0 8
15.3323 3.2367 -2.4953 0.1573 0 8
15.2782 3.4832 -2.4953 0.1573 0 8
15.2201 3.7289 -2.4953 0.1573 0 8
15.1581 3.9736 -2.4953 0.1573 0 8
15.0921 4.2172 -2.4953 0.1573 0 8
15.0222 4.4598 -2.4953 0.1573 0 8
14.9484 4.7012 -2.4953 0.1573 0 8
14.8707 4.9414 -2.4953 0.1573 0 8
14.7892 5.1803 -2.4953 0.1573 0 8
14.7038 5.4178 -2.4953 0.1573 0 8
14.6147 5.6540 -2.4953 0.1573 0 8
14.5217 5.8887 -2.4953 0.1573 0 8
14.4250 6.1218 -2.4953 0.1573 0 8
14.3245 6.3534 -2.4953 0.1573 0 8
14.2203 6.5833 -2.4953 0.1573 0 8
14.1124 6.8115 -2.4953 0.1573 0 8
14.0008 7.0380 -2.4953 0.1573 0 8
13.8856 7.2626 -2.4953 0.1573 0 8
13.7668 7.4853 -2.4953 0.1573 0 8
13.6445 7.7061 -2.4953 0.1573 0 8
13.5186 7.9249 -2.4953 0.1573 0 8
13.3892 8.1416 -2.4953 0.1573 0 8
13.2563 8.3562 -2.4953 0.1573 0 8
13.9213 9.0920 -2.6477 0.1573 0 7
13.7730 9.3151 -2.6477 0.1573 0 7
13.6212 9.5358 -2.6477 0.1573 0 7
13.4658 9.7539 -2.6477 0.1573 0 7
10.6298 -10.4028 -2.4953 0.1655 0 8
10.7960 -10.2303 -2.4953 0.1655 0 8
10.9594 -10.0550 -2.4953 0.1655 0 8
11.1199 -9.8772 -2.4953 0.1655 0 8
11.2776 -9.6968 -2.4953 0.1655 0 8
11.4323 -9.5139 -2.4953 0.1655 0 8
11.5841 -9.3285 -2.4953 0.1655 0 8
11.7329 -9.1406 -2.4953 0.1655 0 8
11.8786 -8.9505 -2.4953 0.1655 0 8
12.0212 -8.7580 -2.4953 0.1655 0 8
12.1607 -8.5632 -2.4953 0.1655 0 8
12.2971 -8.3662 -2.4953 0.1655 0 8
12.4303 -8.1670 -2.4953 0.1655 0 8
12.5602 -7.9657 -2.4953 0.1655 0 8
12.6869 -7.7624 -2.4953 0.1655 0 8
12.8103 -7.5570 -2.4953 0.1655 0 8
12.9304 -7.3497 -2.4953 0.1655 0 8
13.0471 -7.1404 -2.4953 0.1655 0 8
13.1604 -6.9293 -2.4953 0.1655 0 8
13.2703 -6.7164 -2.4953 0.1655 0 8
13.3768 -6.5018 -2.4953 0.1655 0 8
13.4798 -6.2855 -2.4953 0.1655 0 8
13.5793 -6.0675 -2.4953 0.1655 0 8
13.6753 -5.8480 -2.4953 0.1655 0 8
13.7677 -5.6269 -2.4953 0.1655 0 8
13.8565 -5.4044 -2.4953 0.1655 0 8
13.9418 -5.1805 -2.4953 0.1655 0 8
14.0234 -4.9553 -2.4953 0.1655 0 8
14.1014 -4.7287 -2.4953 0.1655 0 8
14.1758 -4.5010 -2.4953 0.1655 0 8
14.2464 -4.2721 -2.4953 0.1655 0 8
14.3134 -4.0420 -2.4953 0.1655 0 8
14.3767 -3.8109 -2.4953 0.1655 0 8
14.4362 -3.5788 -2.4953 0.1655 0 8
14.4920 -3.3458 -2.4953 0.1655 0 8
14.5440 -3.1120 -2.4953 0.1655 0 8
14.5922 -2.8773 -2.4953 0.1655 0 8
14.6367 -2.6418 -2.4953 0.1655 0 8
14.6773 -2.4057 -2.4953 0.1655 0 8
14.7142 -2.1690 -2.4953 0.1655 0 8
14.7472 -1.9317 -2.4953 0.1655 0 8
14.7764 -1.6939 -2.4953 0.1655 0 8
14.8018 -1.4556 -2.4953 0.1655 0 8
8.2039 -0.6736 -1.3810 0.3449 25 10
8.0581 -0.5311 -1.3548 0.3499 25 10
8.0120 -0.3985 -1.3458 0.3522 25 10
7.9651 -0.2677 -1.3370 0.3445 25 10
7.9458 -0.1389 -1.3333 0.3455 25 10
7.9331 -0.0109 -1.3309 0.3630 25 10
7.9424 0.1171 -1.3326 0.3456 25 10
7.9618 0.2457 -1.3364 0.3447 25 10
8.0041 0.3761 -1.3443 0.3526 25 10
8.0503 0.5084 -1.3533 0.3503 25 10
8.1614 0.6475 -1.3735 0.3468 25 10
14.8057 1.4150 -2.4953 0.1655 0 8
14.7810 1.6533 -2.4953 0.1655 0 8
14.7524 1.8912 -2.4953 0.1655 0 8
14.7201 2.1286 -2.4953 0.1655 0 8
14.6839 2.3654 -2.4953 0.1655 0 8
14.6439 2.6017 -2.4953 0.1655 0 8
14.6001 2.8372 -2.4953 0.1655 0 8
14.5525 3.0720 -2.4953 0.1655 0 8
14.5011 3.3060 -2.4953 0.1655 0 8
14.4460 3.5392 -2.4953 0.1655 0 8
14.3871 3.7715 -2.4953 0.1655 0 8
14.3245 4.0027 -2.4953 0.1655 0 8
14.2581 4.2329 -2.4953 0.1655 0 8
14.1881 4.4621 -2.4953 0.1655 0 8
14.1144 4.6900 -2.4953 0.1655 0 8
14.0370 4.9168 -2.4953 0.1655 0 8
13.9560 5.1423 -2.4953 0.1655 0 8
13.8713 5.3664 -2.4953 0.1655 0 8
13.7831 5.5891 -2.4953 0.1655 0 8
13.6913 5.8104 -2.4953 0.1655 0 8
13.5959 6.0302 -2.4953 0.1655 0 8
13.4970 6.2485 -2.4953 0.1655 0 8
13.3946 6.4651 -2.4953 0.1655 0 8
13.2887 6.6800 -2.4953 0.1655 0 8
13.1794 6.8932 -2.4953 0.1655 0 8
13.0666 7.1046 -2.4953 0.1655 0 8
12.9505 7.3141 -2.4953 0.1655 0 8
12.8310 7.5218 -2.4953 0.1655 0 8
12.7082 7.7275 -2.4953 0.1655 0 8
12.5820 7.9312 -2.4953 0.1655 0 8
12.4526 8.1329 -2.4953 0.1655 0 8
12.3200 8.3324 -2.4953 0.1655 0 8
12.9283 9.0507 -2.6477 0.1655 0 7
12.7809 9.2578 -2.6477 0.1655 0 7
10.1139 -9.8980 -2.4953 0.1736 0 8
10.2721 -9.7338 -2.4953 0.1736 0 8
10.4275 -9.5671 -2.4953 0.1736 0 8
10.5803 -9.3978 -2.4953 0.1736 0 8
10.7303 -9.2262 -2.4953 0.1736 0 8
10.8775 -9.0521 -2.4953 0.1736 0 8
11.0219 -8.8757 -2.4953 0.1736 0 8
11.1635 -8.6971 -2.4953 0.1736 0 8
11.3021 -8.5161 -2.4953 0.1736 0 8
11.4378 -8.3329 -2.4953 0.1736 0 8
11.5706 -8.1476 -2.4953 0.1736 0 8
11.7003 -7.9602 -2.4953 0.1736 0 8
11.8270 -7.7707 -2.4953 0.1736 0 8
11.9507 -7.5791 -2.4953 0.1736 0 8
12.0712 -7.3857 -2.4953 0.1736 0 8
12.1886 -7.1902 -2.4953 0.1736 0 8
12.3028 -6.9930 -2.4953 0.1736 0 8
12.4139 -6.7939 -2.4953 0.1736 0 8
12.5217 -6.5930 -2.4953 0.1736 0 8
12.6263 -6.3905 -2.4953 0.1736 0 8
12.7276 -6.1863 -2.4953 0.1736 0 8
12.8256 -5.9804 -2.4953 0.1736 0 8
12.9203 -5.7731 -2.4953 0.1736 0 8
13.0116 -5.5642 -2.4953 0.1736 0 8
13.0995 -5.3539 -2.4953 0.1736 0 8
13.1841 -5.1422 -2.4953 0.1736 0 8
13.2652 -4.9291 -2.4953 0.1736 0 8
13.3429 -4.7148 -2.4953 0.1736 0 8
13.4171 -4.4993 -2.4953 0.1736 0 8
13.4878 -4.2826 -2.4953 0.1736 0 8
13.5551 -4.0647 -2.4953 0.1736 0 8
13.6188 -3.8459 -2.4953 0.1736 0 8
13.6790 -3.6260 -2.4953 0.1736 0 8
13.7356 -3.4052 -2.4953 0.1736 0 8
13.7887 -3.1835 -2.4953 0.1736 0 8
13.8382 -2.9609 -2.4953 0.1736 0 8
13.8841 -2.7376 -2.4953 0.1736 0 8
13.9264 -2.5136 -2.4953 0.1736 0 8
13.9650 -2.2890 -2.4953 0.1736 0 8
14.0001 -2.0637 -2.4953 0.1736 0 8
14.0315 -1.8379 -2.4953 0.1736 0 8
14.0593 -1.6117 -2.4953 0.1736 0 8
8.4210 -0.8281 -1.4920 0.0865 25 10
8.0429 -0.6603 -1.4230 0.3633 25 10
7.8739 -0.5189 -1.3914 0.3576 25 10
7.8246 -0.3892 -1.3814 0.3417 25 10
7.7782 -0.2614 -1.3723 0.3523 25 10
7.7665 -0.1358 -1.3697 0.3702 25 10
7.7566 -0.0106 -1.3677 0.3707 25 10
7.7649 0.1144 -1.3693 0.3703 25 10
7.7751 0.2399 -1.3716 0.3524 25 10
7.8149 0.3672 -1.3795 0.3422 25 10
7.8664 0.4967 -1.3898 0.3580 25 10
8.0095 0.6355 -1.4167 0.3649 25 10
8.2755 0.7909 -1.4658 0.3410 25 10
14.0637 1.5731 -2.4953 0.1736 0 8
14.0365 1.7994 -2.4953 0.1736 0 8
14.0057 2.0253 -2.4953 0.1736 0 8
13.9713 2.2506 -2.4953 0.1736 0 8
13.9332 2.4754 -2.4953 0.1736 0 8
13.8915 2.6995 -2.4953 0.1736 0 8
13.8462 2.9229 -2.4953 0.1736 0 8
13.7974 3.1456 -2.4953 0.1736 0 8
13.7449 3.3674 -2.4953 0.1736 0 8
13.6889 3.5884 -2.4953 0.1736 0 8
13.6293 3.8085 -2.4953 0.1736 0 8
13.5662 4.0275 -2.4953 0.1736 0 8
13.4995 4.2455 -2.4953 0.1736 0 8
13.4294 4.4624 -2.4953 0.1736 0 8
13.3558 4.6782 -2.4953 0.1736 0 8
13.2787 4.8927 -2.4953 0.1736 0 8
13.1981 5.1060 -2.4953 0.1736 0 8
13.1142 5.3179 -2.4953 0.1736 0 8
13.0268 5.5285 -2.4953 0.1736 0 8
12.9361 5.7376 -2.4953 0.1736 0 8
12.8420 5.9452 -2.4953 0.1736 0 8
12.7445 6.1513 -2.4953 0.1736 0 8
12.6438 6.3558 -2.4953 0.1736 0 8
12.5398 6.5586 -2.4953 0.1736 0 8
12.4325 6.7598 -2.4953 0.1736 0 8
12.3220 6.9592 -2.4953 0.1736 0 8
12.2083 7.1568 -2.4953 0.1736 0 8
12.0914 7.3525 -2.4953 0.1736 0 8
11.9714 7.5463 -2.4953 0.1736 0 8
11.8483 7.7382 -2.4953 0.1736 0 8
11.7221 7.9280 -2.4953 0.1736 0 8
11.5929 8.1158 -2.4953 0.1736 0 8
11.4607 8.3015 -2.4953 0.1736 0 8
9.6445 -9.4386 -2.4953 0.1818 0 8
9.7953 -9.2820 -2.4953 0.1818 0 8
9.9435 -9.1230 -2.4953 0.1818 0 8
10.0892 -8.9617 -2.4953 0.1818 0 8
10.2323 -8.7980 -2.4953 0.1818 0 8
10.3727 -8.6320 -2.4953 0.1818 0 8
10.5104 -8.4638 -2.4953 0.1818 0 8
10.6453 -8.2934 -2.4953 0.1818 0 8
10.7775 -8.1208 -2.4953 0.1818 0 8
10.9070 -7.9462 -2.4953 0.1818 0 8
11.0335 -7.7695 -2.4953 0.1818 0 8
11.1573 -7.5907 -2.4953 0.1818 0 8
11.2781 -7.4100 -2.4953 0.1818 0 8
11.3960 -7.2274 -2.4953 0.1818 0 8
11.5109 -7.0429 -2.4953 0.1818 0 8
11.6229 -6.8565 -2.4953 0.1818 0 8
11.7318 -6.6684 -2.4953 0.1818 0 8
11.8377 -6.4786 -2.4953 0.1818 0 8
11.9405 -6.2870 -2.4953 0.1818 0 8
12.0403 -6.0939 -2.4953 0.1818 0 8
12.1369 -5.8991 -2.4953 0.1818 0 8
12.2303 -5.7029 -2.4953 0.1818 0 8
12.3206 -5.5051 -2.4953 0.1818 0 8
12.4077 -5.3059 -2.4953 0.1818 0 8
12.4915 -5.1054 -2.4953 0.1818 0 8
12.5722 -4.9035 -2.4953 0.1818 0 8
12.6495 -4.7003 -2.4953 0.1818 0 8
12.7236 -4.4960 -2.4953 0.1818 0 8
12.7944 -4.2904 -2.4953 0.1818 0 8
12.8618 -4.0838 -2.4953 0.1818 0 8
12.9259 -3.8761 -2.4953 0.1818 0 8
12.9867 -3.6674 -2.4953 0.1818 0 8
13.0441 -3.4577 -2.4953 0.1818 0 8
13.0981 -3.2471 -2.4953 0.1818 0 8
13.1487 -3.0357 -2.4953 0.1818 0 8
13.1959 -2.8235 -2.4953 0.1818 0 8
13.2397 -2.6106 -2.4953 0.1818 0 8
13.2800 -2.3970 -2.4953 0.1818 0 8
13.3169 -2.1827 -2.4953 0.1818 0 8
13.3503 -1.9679 -2.4953 0.1818 0 8
13.3803 -1.7526 -2.4953 0.1818 0 8
13.4068 -1.5369 -2.4953 0.1818 0 8
8.1633 -0.8028 -1.5168 0.2652 25 10
7.9011 -0.6487 -1.4659 0.3692 25 10
7.7370 -0.5099 -1.4337 0.8754 25 10
7.6936 -0.3827 -1.4244 0.9181 25 10
7.6619 -0.2575 -1.4176 0.9856 25 10
7.6487 -0.1337 -1.4145 0.9877 25 10
7.6358 -0.0105 -1.4119 0.9968 25 10
7.6465 0.1127 -1.4141 0.9881 25 10
7.6597 0.2363 -1.4170 0.9860 25 10
7.6864 0.3612 -1.4229 0.9191 25 10
7.7289 0.4881 -1.4320 0.9132 25 10
7.8688 0.6243 -1.4596 0.3708 25 10
8.1096 0.7750 -1.5064 0.2670 25 10
13.4109 1.5001 -2.4953 0.1818 0 8
13.3850 1.7159 -2.4953 0.1818 0 8
13.3557 1.9313 -2.4953 0.1818 0 8
13.3228 2.1462 -2.4953 0.1818 0 8
13.2865 2.3605 -2.4953 0.1818 0 8
13.2468 2.5742 -2.4953 0.1818 0 8
13.2036 2.7873 -2.4953 0.1818 0 8
13.1570 2.9996 -2.4953 0.1818 0 8
13.1069 3.2112 -2.4953 0.1818 0 8
13.0535 3.4219 -2.4953 0.1818 0 8
12.9967 3.6317 -2.4953 0.1818 0 8
12.9365 3.8406 -2.4953 0.1818 0 8
12.8730 4.0485 -2.4953 0.1818 0 8
12.8061 4.2553 -2.4953 0.1818 0 8
12.7359 4.4610 -2.4953 0.1818 0 8
12.6624 4.6656 -2.4953 0.1818 0 8
12.5856 4.8690 -2.4953 0.1818 0 8
12.5055 5.0711 -2.4953 0.1818 0 8
12.4222 5.2719 -2.4953 0.1818 0 8
12.3357 5.4713 -2.4953 0.1818 0 8
12.2459 5.6693 -2.4953 0.1818 0 8
12.1530 5.8658 -2.4953 0.1818 0 8
12.0570 6.0608 -2.4953 0.1818 0 8
11.9578 6.2542 -2.4953 0.1818 0 8
11.8555 6.4461 -2.4953 0.1818 0 8
11.7501 6.6362 -2.4953 0.1818 0 8
11.6417 6.8246 -2.4953 0.1818 0 8
11.5302 7.0112 -2.4953 0.1818 0 8
11.4158 7.1961 -2.4953 0.1818 0 8
11.2984 7.3790 -2.4953 0.1818 0 8
11.1781 7.5601 -2.4953 0.1818 0 8
11.0548 7.7391 -2.4953 0.1818 0 8
10.9287 7.9162 -2.4953 0.1818 0 8
9.2155 -9.0187 -2.4953 0.1900 0 8
9.3596 -8.8691 -2.4953 0.1900 0 8
9.5012 -8.7172 -2.4953 0.1900 0 8
9.6404 -8.5630 -2.4953 0.1900 0 8
9.7771 -8.4066 -2.4953 0.1900 0 8
9.9112 -8.2480 -2.4953 0.1900 0 8
10.0428 -8.0873 -2.4953 0.1900 0 8
10.1718 -7.9245 -2.4953 0.1900 0 8
10.2981 -7.7596 -2.4953 0.1900 0 8
10.4218 -7.5927 -2.4953 0.1900 0 8
10.5427 -7.4238 -2.4953 0.1900 0 8
10.6609 -7.2530 -2.4953 0.1900 0 8
10.7764 -7.0804 -2.4953 0.1900 0 8
10.8890 -6.9059 -2.4953 0.1900 0 8
10.9989 -6.7296 -2.4953 0.1900 0 8
11.1058 -6.5515 -2.4953 0.1900 0 8
11.2099 -6.3718 -2.4953 0.1900 0 8
11.3111 -6.1904 -2.4953 0.1900 0 8
11.4094 -6.0074 -2.4953 0.1900 0 8
11.5047 -5.8228 -2.4953 0.1900 0 8
11.5970 -5.6367 -2.4953 0.1900 0 8
11.6863 -5.4492 -2.4953 0.1900 0 8
11.7725 -5.2602 -2.4953 0.1900 0 8
11.8557 -5.0699 -2.4953 0.1900 0 8
11.9358 -4.8783 -2.4953 0.1900 0 8
12.0129 -4.6854 -2.4953 0.1900 0 8
12.0868 -4.4912 -2.4953 0.1900 0 8
12.1576 -4.2960 -2.4953 0.1900 0 8
12.2252 -4.0996 -2.4953 0.1900 0 8
12.2896 -3.9021 -2.4953 0.1900 0 8
12.3509 -3.7036 -2.4953 0.1900 0 8
12.4090 -3.5042 -2.4953 0.1900 0 8
12.4638 -3.3039 -2.4953 0.1900 0 8
12.5154 -3.1027 -2.4953 0.1900 0 8
12.5638 -2.9007 -2.4953 0.1900 0 8
12.6089 -2.6979 -2.4953 0.1900 0 8
12.6507 -2.4944 -2.4953 0.1900 0 8
12.6892 -2.2903 -2.4953 0.1900 0 8
12.7245 -2.0856 -2.4953 0.1900 0 8
12.7564 -1.8804 -2.4953 0.1900 0 8
12.7850 -1.6747 -2.4953 0.1900 0 8
12.8104 -1.4685 -2.4953 0.1900 0 8
8.0045 -0.7872 -1.5565 0.1875 25 10
7.8054 -0.6408 -1.5156 0.7046 25 10
7.7146 -0.5084 -1.4962 0.8766 25 10
7.6711 -0.3816 -1.4863 0.9193 25 10
7.6441 -0.2569 -1.4801 0.9864 25 10
7.6310 -0.1334 -1.4770 0.9885 25 10
7.6207 -0.0105 -1.4747 0.9972 25 10
7.6288 0.1124 -1.4765 0.9888 25 10
7.6419 0.2358 -1.4795 0.9867 25 10
7.6640 0.3601 -1.4847 0.9203 25 10
7.7062 0.4866 -1.4943 0.9145 25 10
7.7874 0.6178 -1.5117 0.7063 25 10
7.9278 0.7577 -1.5412 0.2727 25 10
12.8143 1.4333 -2.4953 0.1900 0 8
12.7896 1.6396 -2.4953 0.1900 0 8
12.7615 1.8454 -2.4953 0.1900 0 8
12.7301 2.0507 -2.4953 0.1900 0 8
12.6955 2.2555 -2.4953 0.1900 0 8
12.6575 2.4597 -2.4953 0.1900 0 8
12.6162 2.6633 -2.4953 0.1900 0 8
12.5717 2.8662 -2.4953 0.1900 0 8
12.5239 3.0683 -2.4953 0.1900 0 8
12.4728 3.2696 -2.4953 0.1900 0 8
12.4185 3.4701 -2.4953 0.1900 0 8
12.3610 3.6697 -2.4953 0.1900 0 8
12.3003 3.8684 -2.4953 0.1900 0 8
12.2364 4.0660 -2.4953 0.1900 0 8
12.1693 4.2626 -2.4953 0.1900 0 8
12.0991 4.4581 -2.4953 0.1900 0 8
12.0257 4.6524 -2.4953 0.1900 0 8
11.9492 4.8455 -2.4953 0.1900 0 8
11.8696 5.0373 -2.4953 0.1900 0 8
11.7869 5.2279 -2.4953 0.1900 0 8
11.7012 5.4171 -2.4953 0.1900 0 8
11.6124 5.6049 -2.4953 0.1900 0 8
11.5206 5.7912 -2.4953 0.1900 0 8
11.4258 5.9760 -2.4953 0.1900 0 8
11.3281 6.1593 -2.4953 0.1900 0 8
11.2274 6.3410 -2.4953 0.1900 0 8
11.1238 6.5210 -2.4953 0.1900 0 8
11.0173 6.6993 -2.4953 0.1900 0 8
10.9079 6.8760 -2.4953 0.1900 0 8
10.7958 7.0508 -2.4953 0.1900 0 8
10.6808 7.2237 -2.4953 0.1900 0 8
10.5630 7.3949 -2.4953 0.1900 0 8
10.4426 7.5641 -2.4953 0.1900 0 8
8.8218 -8.6334 -2.4953 0.1981 0 8
8.9597 -8.4902 -2.4953 0.1981 0 8
9.0953 -8.3448 -2.4953 0.1981 0 8
9.2285 -8.1972 -2.4953 0.1981 0 8
9.3594 -8.0474 -2.4953 0.1981 0 8
9.4878 -7.8956 -2.4953 0.1981 0 8
9.6138 -7.7418 -2.4953 0.1981 0 8
9.7372 -7.5859 -2.4953 0.1981 0 8
9.8581 -7.4281 -2.4953 0.1981 0 8
9.9765 -7.2683 -2.4953 0.1981 0 8
10.0923 -7.1067 -2.4953 0.1981 0 8
10.2055 -6.9432 -2.4953 0.1981 0 8
10.3160 -6.7779 -2.4953 0.1981 0 8
10.4238 -6.6108 -2.4953 0.1981 0 8
10.5290 -6.4421 -2.4953 0.1981 0 8
10.6314 -6.2716 -2.4953 0.1981 0 8
10.7310 -6.0996 -2.4953 0.1981 0 8
10.8279 -5.9259 -2.4953 0.1981 0 8
10.9219 -5.7507 -2.4953 0.1981 0 8
11.0132 -5.5740 -2.4953 0.1981 0 8
11.1015 -5.3959 -2.4953 0.1981 0 8
11.1870 -5.2164 -2.4953 0.1981 0 8
11.2696 -5.0355 -2.4953 0.1981 0 8
11.3492 -4.8533 -2.4953 0.1981 0 8
11.4259 -4.6699 -2.4953 0.1981 0 8
11.4997 -4.4852 -2.4953 0.1981 0 8
11.5704 -4.2994 -2.4953 0.1981 0 8
11.6382 -4.1124 -2.4953 0.1981 0 8
11.7029 -3.9244 -2.4953 0.1981 0 8
11.7646 -3.7354 -2.4953 0.1981 0 8
11.8233 -3.5454 -2.4953 0.1981 0 8
11.8788 -3.3545 -2.4953 0.1981 0 8
11.9313 -3.1627 -2.4953 0.1981 0 8
11.9807 -2.9701 -2.4953 0.1981 0 8
12.0270 -2.7767 -2.4953 0.1981 0 8
12.0702 -2.5826 -2.4953 0.1981 0 8
12.1102 -2.3879 -2.4953 0.1981 0 8
12.1471 -2.1925 -2.4953 0.1981 0 8
12.1809 -1.9965 -2.4953 0.1981 0 8
12.2114 -1.8001 -2.4953 0.1981 0 8
12.2388 -1.6031 -2.4953 0.1981 0 8
12.2631 -1.4058 -2.4953 0.1981 0 8
7.9630 -0.7831 -1.6175 0.1881 25 10
7.7695 -0.6379 -1.5759 0.7066 25 10
7.6923 -0.5070 -1.5584 0.8777 25 10
7.6487 -0.3804 -1.5481 0.9205 25 10
7.6263 -0.2563 -1.5426 0.9870 25 10
7.6133 -0.1331 -1.5393 0.9891 25 10
7.6056 -0.0104 -1.5375 0.9975 25 10
7.6113 0.1122 -1.5388 0.9967 25 10
7.6241 0.2352 -1.5420 0.9874 25 10
7.6426 0.3591 -1.5467 0.9667 25 10
7.6835 0.4852 -1.5564 0.9157 25 10
7.7517 0.6150 -1.5720 0.7084 25 10
7.8719 0.7523 -1.5986 0.3043 25 10
12.2669 1.3721 -2.4953 0.1981 0 8
12.2432 1.5695 -2.4953 0.1981 0 8
12.2163 1.7665 -2.4953 0.1981 0 8
12.1863 1.9631 -2.4953 0.1981 0 8
12.1531 2.1591 -2.4953 0.1981 0 8
12.1167 2.3546 -2.4953 0.1981 0 8
12.0772 2.5495 -2.4953 0.1981 0 8
12.0346 2.7437 -2.4953 0.1981 0 8
11.9888 2.9372 -2.4953 0.1981 0 8
11.9400 3.1300 -2.4953 0.1981 0 8
11.8880 3.3219 -2.4953 0.1981 0 8
11.8329 3.5130 -2.4953 0.1981 0 8
11.7748 3.7031 -2.4953 0.1981 0 8
11.7136 3.8923 -2.4953 0.1981 0 8
11.6494 4.0805 -2.4953 0.1981 0 8
11.5822 4.2676 -2.4953 0.1981 0 8
11.5119 4.4536 -2.4953 0.1981 0 8
11.4387 4.6385 -2.4953 0.1981 0 8
11.3625 4.8221 -2.4953 0.1981 0 8
11.2833 5.0045 -2.4953 0.1981 0 8
11.2013 5.1856 -2.4953 0.1981 0 8
11.1163 5.3654 -2.4953 0.1981 0 8
11.0284 5.5438 -2.4953 0.1981 0 8
10.9377 5.7207 -2.4953 0.1981 0 8
10.8441 5.8962 -2.4953 0.1981 0 8
10.7477 6.0701 -2.4953 0.1981 0 8
10.6486 6.2424 -2.4953 0.1981 0 8
10.5466 6.4131 -2.4953 0.1981 0 8
10.4419 6.5822 -2.4953 0.1981 0 8
10.3346 6.7495 -2.4953 0.1981 0 8
10.2245 6.9151 -2.4953 0.1981 0 8
10.1118 7.0789 -2.4953 0.1981 0 8
9.9964 7.2409 -2.4953 0.1981 0 8
8.4592 -8.2785 -2.4953 0.2063 0 8
8.5914 -8.1412 -2.4953 0.2063 0 8
8.7214 -8.0018 -2.4953 0.2063 0 8
8.8492 -7.8602 -2.4953 0.2063 0 8
8.9747 -7.7167 -2.4953 0.2063 0 8
9.0978 -7.5711 -2.4953 0.2063 0 8
9.2186 -7.4236 -2.4953 0.2063 0 8
9.3370 -7.2741 -2.4953 0.2063 0 8
9.4529 -7.1228 -2.4953 0.2063 0 8
9.5665 -6.9696 -2.4953 0.2063 0 8
9.6775 -6.8146 -2.4953 0.2063 0 8
9.7860 -6.6578 -2.4953 0.2063 0 8
9.8920 -6.4993 -2.4953 0.2063 0 8
9.9954 -6.3391 -2.4953 0.2063 0 8
10.0962 -6.1773 -2.4953 0.2063 0 8
10.1944 -6.0138 -2.4953 0.2063 0 8
10.2899 -5.8488 -2.4953 0.2063 0 8
10.3828 -5.6823 -2.4953 0.2063 0 8
10.4730 -5.5143 -2.4953 0.2063 0 8
10.5605 -5.3449 -2.4953 0.2063 0 8
10.6452 -5.1741 -2.4953 0.2063 0 8
10.7272 -5.0020 -2.4953 0.2063 0 8
10.8064 -4.8285 -2.4953 0.2063 0 8
10.8827 -4.6538 -2.4953 0.2063 0 8
10.9563 -4.4779 -2.4953 0.2063 0 8
11.0270 -4.3008 -2.4953 0.2063 0 8
11.0948 -4.1227 -2.4953 0.2063 0 8
11.1598 -3.9434 -2.4953 0.2063 0 8
11.2219 -3.7631 -2.4953 0.2063 0 8
11.2811 -3.5819 -2.4953 0.2063 0 8
11.3373 -3.3997 -2.4953 0.2063 0 8
11.3906 -3.2166 -2.4953 0.2063 0 8
11.4409 -3.0327 -2.4953 0.2063 0 8
11.4883 -2.8480 -2.4953 0.2063 0 8
11.5327 -2.6626 -2.4953 0.2063 0 8
11.5741 -2.4765 -2.4953 0.2063 0 8
11.6125 -2.2897 -2.4953 0.2063 0 8
11.6478 -2.1024 -2.4953 0.2063 0 8
11.6802 -1.9145 -2.4953 0.2063 0 8
11.7095 -1.7261 -2.4953 0.2063 0 8
11.7358 -1.5372 -2.4953 0.2063 0 8
11.7590 -1.3480 -2.4953 0.2063 0 8
7.9219 -0.7791 -1.6781 0.1888 25 10
7.7339 -0.6350 -1.6359 0.7087 25 10
7.6701 -0.5055 -1.6205 0.8787 25 10
7.6287 -0.3795 -1.6103 0.9666 25 10
7.6086 -0.2557 -1.6049 0.9876 25 10
7.5974 -0.1328 -1.6019 0.9968 25 10
7.5905 -0.0104 -1.6002 0.9978 25 10
7.5962 0.1120 -1.6016 0.9970 25 10
7.6063 0.2347 -1.6043 0.9880 25 10
7.6245 0.3583 -1.6092 0.9673 25 10
7.6609 0.4838 -1.6183 0.9168 25 10
7.7163 0.6122 -1.6319 0.8726 25 10
7.8538 0.7506 -1.6633 0.3045 25 10
11.7627 1.3157 -2.4953 0.2063 0 8
11.7400 1.5050 -2.4953 0.2063 0 8
11.7142 1.6939 -2.4953 0.2063 0 8
11.6854 1.8824 -2.4953 0.2063 0 8
11.6536 2.0704 -2.4953 0.2063 0 8
11.6187 2.2579 -2.4953 0.2063 0 8
11.5808 2.4447 -2.4953 0.2063 0 8
11.5399 2.6309 -2.4953 0.2063 0 8
11.4961 2.8165 -2.4953 0.2063 0 8
11.4492 3.0013 -2.4953 0.2063 0 8
11.3994 3.1853 -2.4953 0.2063 0 8
11.3466 3.3686 -2.4953 0.2063 0 8
11.2908 3.5509 -2.4953 0.2063 0 8
11.2322 3.7323 -2.4953 0.2063 0 8
11.1706 3.9128 -2.4953 0.2063 0 8
11.1061 4.0922 -2.4953 0.2063 0 8
11.0388 4.2706 -2.4953 0.2063 0 8
10.9685 4.4478 -2.4953 0.2063 0 8
10.8955 4.6239 -2.4953 0.2063 0 8
10.8196 4.7988 -2.4953 0.2063 0 8
10.7409 4.9725 -2.4953 0.2063 0 8
10.6594 5.1449 -2.4953 0.2063 0 8
10.5751 5.3159 -2.4953 0.2063 0 8
10.4881 5.4856 -2.4953 0.2063 0 8
10.3984 5.6538 -2.4953 0.2063 0 8
10.3060 5.8206 -2.4953 0.2063 0 8
10.2109 5.9858 -2.4953 0.2063 0 8
10.1131 6.1495 -2.4953 0.2063 0 8
10.0127 6.3116 -2.4953 0.2063 0 8
9.9098 6.4721 -2.4953 0.2063 0 8
9.8042 6.6309 -2.4953 0.2063 0 8
9.6961 6.7880 -2.4953 0.2063 0 8
9.5855 6.9433 -2.4953 0.2063 0 8
8.1241 -7.9506 -2.4953 0.2144 0 8
8.2511 -7.8187 -2.4953 0.2144 0 8
8.3760 -7.6848 -2.4953 0.2144 0 8
8.4987 -7.5489 -2.4953 0.2144 0 8
8.6192 -7.4110 -2.4953 0.2144 0 8
8.7374 -7.2712 -2.4953 0.2144 0 8
8.8534 -7.1295 -2.4953 0.2144 0 8
8.9671 -6.9859 -2.4953 0.2144 0 8
9.0785 -6.8406 -2.4953 0.2144 0 8
9.1875 -6.6935 -2.4953 0.2144 0 8
9.2941 -6.5446 -2.4953 0.2144 0 8
9.3983 -6.3940 -2.4953 0.2144 0 8
9.5001 -6.2418 -2.4953 0.2144 0 8
9.5994 -6.0880 -2.4953 0.2144 0 8
9.6962 -5.9326 -2.4953 0.2144 0 8
9.7906 -5.7756 -2.4953 0.2144 0 8
9.8823 -5.6171 -2.4953 0.2144 0 8
9.9715 -5.4572 -2.4953 0.2144 0 8
10.0581 -5.2959 -2.4953 0.2144 0 8
10.1421 -5.1332 -2.4953 0.2144 0 8
10.2235 -4.9691 -2.4953 0.2144 0 8
10.3022 -4.8038 -2.4953 0.2144 0 8
10.3783 -4.6372 -2.4953 0.2144 0 8
10.4516 -4.4695 -2.4953 0.2144 0 8
10.5223 -4.3005 -2.4953 0.2144 0 8
10.5902 -4.1305 -2.4953 0.2144 0 8
10.6553 -3.9593 -2.4953 0.2144 0 8
10.7177 -3.7872 -2.4953 0.2144 0 8
10.7773 -3.6141 -2.4953 0.2144 0 8
10.8342 -3.4400 -2.4953 0.2144 0 8
10.8882 -3.2650 -2.4953 0.2144 0 8
10.9393 -3.0892 -2.4953 0.2144 0 8
10.9877 -2.9126 -2.4953 0.2144 0 8
11.0332 -2.7352 -2.4953 0.2144 0 8
11.0758 -2.5571 -2.4953 0.2144 0 8
11.1156 -2.3784 -2.4953 0.2144 0 8
11.1524 -2.1990 -2.4953 0.2144 0 8
11.1864 -2.0191 -2.4953 0.2144 0 8
11.2175 -1.8386 -2.4953 0.2144 0 8
11.2456 -1.6577 -2.4953 0.2144 0 8
11.2709 -1.4763 -2.4953 0.2144 0 8
11.2932 -1.2946 -2.4953 0.2144 0 8
7.9000 -0.7769 -1.7425 0.3021 25 10
7.7033 -0.6325 -1.6967 0.8723 25 10
7.6479 -0.5040 -1.6825 0.8797 25 10
7.6106 -0.3786 -1.6727 0.9672 25 10
7.5908 -0.2551 -1.6672 0.9882 25 10
7.5823 -0.1326 -1.6647 0.9970 25 10
7.5754 -0.0104 -1.6629 0.9980 25 10
7.5811 0.1117 -1.6644 0.9972 25 10
7.5886 0.2342 -1.6666 0.9886 25 10
7.6064 0.3574 -1.6716 0.9679 25 10
7.6385 0.4824 -1.6801 0.8809 25 10
7.6938 0.6104 -1.6942 0.8736 25 10
7.8358 0.7489 -1.7279 0.3047 25 10
11.2967 1.2636 -2.4953 0.2144 0 8
11.2749 1.4454 -2.4953 0.2144 0 8
11.2501 1.6268 -2.4953 0.2144 0 8
11.2225 1.8078 -2.4953 0.2144 0 8
11.1919 1.9884 -2.4953 0.2144 0 8
11.1584 2.1684 -2.4953 0.2144 0 8
11.1220 2.3479 -2.4953 0.2144 0 8
11.0828 2.5267 -2.4953 0.2144 0 8
11.0406 2.7049 -2.4953 0.2144 0 8
10.9956 2.8824 -2.4953 0.2144 0 8
10.9478 3.0592 -2.4953 0.2144 0 8
10.8971 3.2351 -2.4953 0.2144 0 8
10.8436 3.4102 -2.4953 0.2144 0 8
10.7872 3.5845 -2.4953 0.2144 0 8
10.7281 3.7578 -2.4953 0.2144 0 8
10.6662 3.9301 -2.4953 0.2144 0 8
10.6015 4.1014 -2.4953 0.2144 0 8
10.5340 4.2716 -2.4953 0.2144 0 8
10.4638 4.4408 -2.4953 0.2144 0 8
10.3910 4.6087 -2.4953 0.2144 0 8
10.3154 4.7755 -2.4953 0.2144 0 8
10.2371 4.9411 -2.4953 0.2144 0 8
10.1562 5.1053 -2.4953 0.2144 0 8
10.0726 5.2683 -2.4953 0.2144 0 8
9.9865 5.4298 -2.4953 0.2144 0 8
9.8977 5.5900 -2.4953 0.2144 0 8
9.8064 5.7487 -2.4953 0.2144 0 8
9.7125 5.9059 -2.4953 0.2144 0 8
9.6161 6.0616 -2.4953 0.2144 0 8
9.5172 6.2157 -2.4953 0.2144 0 8
9.4158 6.3682 -2.4953 0.2144 0 8
9.3120 6.5191 -2.4953 0.2144 0 8
9.2058 6.6682 -2.4953 0.2144 0 8
7.8134 -7.6466 -2.4953 0.2225 0 8
7.9356 -7.5197 -2.4953 0.2225 0 8
8.0557 -7.3909 -2.4953 0.2225 0 8
8.1737 -7.2602 -2.4953 0.2225 0 8
8.2896 -7.1276 -2.4953 0.2225 0 8
8.4033 -6.9931 -2.4953 0.2225 0 8
8.5149 -6.8569 -2.4953 0.2225 0 8
8.6242 -6.7188 -2.4953 0.2225 0 8
8.7313 -6.5790 -2.4953 0.2225 0 8
8.8362 -6.4375 -2.4953 0.2225 0 8
8.9387 -6.2944 -2.4953 0.2225 0 8
9.0390 -6.1495 -2.4953 0.2225 0 8
9.1368 -6.0031 -2.4953 0.2225 0 8
9.2323 -5.8552 -2.4953 0.2225 0 8
9.3255 -5.7057 -2.4953 0.2225 0 8
9.4162 -5.5547 -2.4953 0.2225 0 8
9.5044 -5.4023 -2.4953 0.2225 0 8
9.5902 -5.2485 -2.4953 0.2225 0 8
9.6735 -5.0934 -2.4953 0.2225 0 8
9.7543 -4.9369 -2.4953 0.2225 0 8
9.8326 -4.7791 -2.4953 0.2225 0 8
9.9083 -4.6201 -2.4953 0.2225 0 8
9.9814 -4.4599 -2.4953 0.2225 0 8
10.0520 -4.2986 -2.4953 0.2225 0 8
10.1199 -4.1361 -2.4953 0.2225 0 8
10.1852 -3.9725 -2.4953 0.2225 0 8
10.2479 -3.8079 -2.4953 0.2225 0 8
10.3079 -3.6424 -2.4953 0.2225 0 8
10.3652 -3.4759 -2.4953 0.2225 0 8
10.4199 -3.3084 -2.4953 0.2225 0 8
10.4718 -3.1402 -2.4953 0.2225 0 8
10.5210 -2.9711 -2.4953 0.2225 0 8
10.5675 -2.8012 -2.4953 0.2225 0 8
10.6113 -2.6306 -2.4953 0.2225 0 8
10.6523 -2.4593 -2.4953 0.2225 0 8
10.6905 -2.2874 -2.4953 0.2225 0 8
10.7260 -2.1149 -2.4953 0.2225 0 8
10.7587 -1.9419 -2.4953 0.2225 0 8
10.7885 -1.7683 -2.4953 0.2225 0 8
10.8156 -1.5943 -2.4953 0.2225 0 8
10.8399 -1.4199 -2.4953 0.2225 0 8
10.8614 -1.2451 -2.4953 0.2225 0 8
7.8816 -0.7751 -1.8076 0.3023 25 10
7.6808 -0.6306 -1.7590 0.8732 25 10
7.6257 -0.5026 -1.7443 0.8806 25 10
7.5925 -0.3777 -1.7351 0.9677 25 10
7.5739 -0.2545 -1.7297 0.9958 25 10
7.5671 -0.1323 -1.7274 0.9971 25 10
7.5603 -0.0104 -1.7256 0.9982 25 10
7.5660 0.1115 -1.7271 0.9973 25 10
7.5728 0.2337 -1.7293 0.9960 25 10
7.5883 0.3566 -1.7339 0.9684 25 10
7.6164 0.4810 -1.7419 0.8818 25 10
7.6714 0.6086 -1.7564 0.8745 25 10
7.8178 0.7472 -1.7925 0.3048 25 10
10.8647 1.2153 -2.4953 0.2225 0 8
10.8438 1.3901 -2.4953 0.2225 0 8
10.8200 1.5646 -2.4953 0.2225 0 8
10.7934 1.7387 -2.4953 0.2225 0 8
10.7639 1.9123 -2.4953 0.2225 0 8
10.7317 2.0855 -2.4953 0.2225 0 8
10.6968 2.2581 -2.4953 0.2225 0 8
10.6590 2.4301 -2.4953 0.2225 0 8
10.6185 2.6015 -2.4953 0.2225 0 8
10.5752 2.7722 -2.4953 0.2225 0 8
10.5292 2.9422 -2.4953 0.2225 0 8
10.4804 3.1114 -2.4953 0.2225 0 8
10.4289 3.2798 -2.4953 0.2225 0 8
10.3747 3.4474 -2.4953 0.2225 0 8
10.3179 3.6141 -2.4953 0.2225 0 8
10.2583 3.7798 -2.4953 0.2225 0 8
10.1961 3.9446 -2.4953 0.2225 0 8
10.1312 4.1083 -2.4953 0.2225 0 8
10.0637 4.2709 -2.4953 0.2225 0 8
9.9936 4.4325 -2.4953 0.2225 0 8
9.9209 4.5929 -2.4953 0.2225 0 8
9.8457 4.7521 -2.4953 0.2225 0 8
9.7678 4.9101 -2.4953 0.2225 0 8
9.6875 5.0668 -2.4953 0.2225 0 8
9.6046 5.2222 -2.4953 0.2225 0 8
9.5192 5.3762 -2.4953 0.2225 0 8
9.4314 5.5289 -2.4953 0.2225 0 8
9.3411 5.6801 -2.4953 0.2225 0 8
9.2484 5.8298 -2.4953 0.2225 0 8
9.1533 5.9780 -2.4953 0.2225 0 8
9.0558 6.1247 -2.4953 0.2225 0 8
8.9560 6.2698 -2.4953 0.2225 0 8
8.8538 6.4132 -2.4953 0.2225 0 8
7.5246 -7.3639 -2.4953 0.2306 0 8
7.6422 -7.2418 -2.4953 0.2306 0 8
7.7579 -7.1177 -2.4953 0.2306 0 8
7.8715 -6.9918 -2.4953 0.2306 0 8
7.9831 -6.8641 -2.4953 0.2306 0 8
8.0927 -6.7346 -2.4953 0.2306 0 8
8.2001 -6.6034 -2.4953 0.2306 0 8
8.3054 -6.4704 -2.4953 0.2306 0 8
8.4086 -6.3358 -2.4953 0.2306 0 8
8.5095 -6.1996 -2.4953 0.2306 0 8
8.6083 -6.0617 -2.4953 0.2306 0 8
8.7048 -5.9222 -2.4953 0.2306 0 8
8.7991 -5.7812 -2.4953 0.2306 0 8
8.8911 -5.6387 -2.4953 0.2306 0 8
8.9808 -5.4948 -2.4953 0.2306 0 8
9.0681 -5.3494 -2.4953 0.2306 0 8
9.1531 -5.2027 -2.4953 0.2306 0 8
9.2357 -5.0545 -2.4953 0.2306 0 8
9.3159 -4.9051 -2.4953 0.2306 0 8
9.3938 -4.7547 -2.4953 0.2306 0 8
9.4691 -4.6025 -2.4953 0.2306 0 8
9.5420 -4.4493 -2.4953 0.2306 0 8
9.6125 -4.2951 -2.4953 0.2306 0 8
9.6804 -4.1397 -2.4953 0.2306 0 8
9.7458 -3.9832 -2.4953 0.2306 0 8
9.8087 -3.8257 -2.4953 0.2306 0 8
9.8691 -3.6672 -2.4953 0.2306 0 8
9.9269 -3.5077 -2.4953 0.2306 0 8
9.9821 -3.3474 -2.4953 0.2306 0 8
10.0347 -3.1861 -2.4953 0.2306 0 8
10.0847 -3.0241 -2.4953 0.2306 0 8
10.1321 -2.8612 -2.4953 0.2306 0 8
10.1769 -2.6977 -2.4953 0.2306 0 8
10.2190 -2.5334 -2.4953 0.2306 0 8
10.2585 -2.3684 -2.4953 0.2306 0 8
10.2953 -2.2029 -2.4953 0.2306 0 8
10.3295 -2.0368 -2.4953 0.2306 0 8
10.3610 -1.8701 -2.4953 0.2306 0 8
10.3897 -1.7030 -2.4953 0.2306 0 8
10.4158 -1.5354 -2.4953 0.2306 0 8
10.4392 -1.3674 -2.4953 0.2306 0 8
10.4599 -1.1991 -2.4953 0.2306 0 8
7.8943 -0.7763 -1.8800 0.4548 25 10
7.6696 -0.6297 -1.8238 0.8513 25 10
7.6141 -0.5018 -1.8085 0.8585 25 10
7.5811 -0.3771 -1.7990 0.9383 25 10
7.5633 -0.2542 -1.7935 0.9666 25 10
7.5560 -0.1321 -1.7911 0.9679 25 10
7.5499 -0.0104 -1.7894 0.9299 25 10
7.5548 0.1113 -1.7907 0.9681 25 10
7.5621 0.2333 -1.7931 0.9668 25 10
7.5767 0.3560 -1.7977 0.9390 25 10
7.6048 0.4802 -1.8059 0.8597 25 10
7.6600 0.6077 -1.8212 0.8526 25 10
7.8333 0.7486 -1.8650 0.2796 25 10
10.4631 1.1703 -2.4953 0.2306 0 8
10.4429 1.3387 -2.4953 0.2306 0 8
10.4200 1.5068 -2.4953 0.2306 0 8
10.3944 1.6744 -2.4953 0.2306 0 8
10.3661 1.8417 -2.4953 0.2306 0 8
10.3350 2.0084 -2.4953 0.2306 0 8
10.3014 2.1746 -2.4953 0.2306 0 8
10.2650 2.3403 -2.4953 0.2306 0 8
10.2260 2.5053 -2.4953 0.2306 0 8
10.1843 2.6697 -2.4953 0.2306 0 8
10.1399 2.8334 -2.4953 0.2306 0 8
10.0930 2.9964 -2.4953 0.2306 0 8
10.0434 3.1586 -2.4953 0.2306 0 8
9.9912 3.3200 -2.4953 0.2306 0 8
9.9365 3.4805 -2.4953 0.2306 0 8
9.8791 3.6401 -2.4953 0.2306 0 8
9.8192 3.7987 -2.4953 0.2306 0 8
9.7567 3.9564 -2.4953 0.2306 0 8
9.6917 4.1131 -2.4953 0.2306 0 8
9.6242 4.2687 -2.4953 0.2306 0 8
9.5542 4.4231 -2.4953 0.2306 0 8
9.4817 4.5765 -2.4953 0.2306 0 8
9.4068 4.7286 -2.4953 0.2306 0 8
9.3294 4.8795 -2.4953 0.2306 0 8
9.2496 5.0292 -2.4953 0.2306 0 8
9.1673 5.1775 -2.4953 0.2306 0 8
9.0828 5.3245 -2.4953 0.2306 0 8
8.9958 5.4701 -2.4953 0.2306 0 8
8.9065 5.6143 -2.4953 0.2306 0 8
8.8149 5.7571 -2.4953 0.2306 0 8
8.7210 5.8983 -2.4953 0.2306 0 8
8.6249 6.0380 -2.4953 0.2306 0 8
8.5265 6.1762 -2.4953 0.2306 0 8
7.2553 -7.1004 -2.4953 0.2387 0 8
7.3688 -6.9826 -2.4953 0.2387 0 8
7.4803 -6.8630 -2.4953 0.2387 0 8
7.5899 -6.7416 -2.4953 0.2387 0 8
7.6975 -6.6185 -2.4953 0.2387 0 8
7.8031 -6.4936 -2.4953 0.2387 0 8
7.9067 -6.3671 -2.4953 0.2387 0 8
8.0082 -6.2389 -2.4953 0.2387 0 8
8.1077 -6.1091 -2.4953 0.2387 0 8
8.2050 -5.9777 -2.4953 0.2387 0 8
8.3003 -5.8448 -2.4953 0.2387 0 8
8.3933 -5.7103 -2.4953 0.2387 0 8
8.4842 -5.5744 -2.4953 0.2387 0 8
8.5729 -5.4370 -2.4953 0.2387 0 8
8.6594 -5.2982 -2.4953 0.2387 0 8
8.7436 -5.1580 -2.4953 0.2387 0 8
8.8256 -5.0165 -2.4953 0.2387 0 8
8.9052 -4.8737 -2.4953 0.2387 0 8
8.9826 -4.7296 -2.4953 0.2387 0 8
9.0576 -4.5843 -2.4953 0.2387 0 8
9.1303 -4.4378 -2.4953 0.2387 0 8
9.2006 -4.2901 -2.4953 0.2387 0 8
9.2685 -4.1414 -2.4953 0.2387 0 8
9.3340 -3.9915 -2.4953 0.2387 0 8
9.3971 -3.8407 -2.4953 0.2387 0 8
9.4577 -3.6888 -2.4953 0.2387 0 8
9.5159 -3.5360 -2.4953 0.2387 0 8
9.5716 -3.3822 -2.4953 0.2387 0 8
9.6249 -3.2276 -2.4953 0.2387 0 8
9.6756 -3.0721 -2.4953 0.2387 0 8
9.7239 -2.9159 -2.4953 0.2387 0 8
9.7696 -2.7589 -2.4953 0.2387 0 8
9.8127 -2.6011 -2.4953 0.2387 0 8
9.8534 -2.4427 -2.4953 0.2387 0 8
9.8914 -2.2837 -2.4953 0.2387 0 8
9.9269 -2.1241 -2.4953 0.2387 0 8
9.9599 -1.9639 -2.4953 0.2387 0 8
9.9902 -1.8032 -2.4953 0.2387 0 8
10.0180 -1.6420 -2.4953 0.2387 0 8
10.0431 -1.4804 -2.4953 0.2387 0 8
10.0657 -1.3185 -2.4953 0.2387 0 8
10.0856 -1.1562 -2.4953 0.2387 0 8
7.8796 -0.7749 -1.9462 0.4548 25 10
7.6778 -0.6304 -1.8935 0.7658 25 10
7.6167 -0.5020 -1.8763 0.8565 25 10
7.5821 -0.3771 -1.8660 0.9363 25 10
7.5640 -0.2542 -1.8603 0.9645 25 10
7.5567 -0.1321 -1.8577 0.9659 25 10
7.5598 -0.0104 -1.8582 0.9268 25 10
7.5569 0.1114 -1.8577 0.9271 25 10
7.5627 0.2334 -1.8598 0.9648 25 10
7.5777 0.3561 -1.8647 0.9370 25 10
7.6074 0.4804 -1.8736 0.8577 25 10
7.6651 0.6081 -1.8900 0.7672 25 10
7.8408 0.7494 -1.9361 0.4572 25 10
10.0887 1.1285 -2.4953 0.2387 0 8
10.0692 1.2908 -2.4953 0.2387 0 8
10.0471 1.4529 -2.4953 0.2387 0 8
10.0224 1.6145 -2.4953 0.2387 0 8
9.9951 1.7758 -2.4953 0.2387 0 8
9.9652 1.9365 -2.4953 0.2387 0 8
9.9327 2.0968 -2.4953 0.2387 0 8
9.8977 2.2565 -2.4953 0.2387 0 8
9.8600 2.4157 -2.4953 0.2387 0 8
9.8198 2.5742 -2.4953 0.2387 0 8
9.7771 2.7320 -2.4953 0.2387 0 8
9.7318 2.8892 -2.4953 0.2387 0 8
9.6840 3.0456 -2.4953 0.2387 0 8
9.6337 3.2012 -2.4953 0.2387 0 8
9.5809 3.3559 -2.4953 0.2387 0 8
9.5256 3.5098 -2.4953 0.2387 0 8
9.4678 3.6628 -2.4953 0.2387 0 8
9.4076 3.8148 -2.4953 0.2387 0 8
9.3449 3.9659 -2.4953 0.2387 0 8
9.2798 4.1159 -2.4953 0.2387 0 8
9.2123 4.2649 -2.4953 0.2387 0 8
9.1424 4.4127 -2.4953 0.2387 0 8
9.0702 4.5594 -2.4953 0.2387 0 8
8.9955 4.7049 -2.4953 0.2387 0 8
8.9186 4.8492 -2.4953 0.2387 0 8
8.8393 4.9922 -2.4953 0.2387 0 8
8.7577 5.1340 -2.4953 0.2387 0 8
8.6739 5.2744 -2.4953 0.2387 0 8
8.5878 5.4134 -2.4953 0.2387 0 8
8.4995 5.5511 -2.4953 0.2387 0 8
8.4090 5.6873 -2.4953 0.2387 0 8
8.3163 5.8220 -2.4953 0.2387 0 8
8.2214 5.9552 -2.4953 0.2387 0 8
7.0037 -6.8541 -2.4953 0.2468 0 8
7.1132 -6.7404 -2.4953 0.2468 0 8
7.2208 -6.6250 -2.4953 0.2468 0 8
7.3266 -6.5078 -2.4953 0.2468 0 8
7.4305 -6.3889 -2.4953 0.2468 0 8
7.5325 -6.2684 -2.4953 0.2468 0 8
7.6325 -6.1463 -2.4953 0.2468 0 8
7.7305 -6.0225 -2.4953 0.2468 0 8
7.8265 -5.8972 -2.4953 0.2468 0 8
7.9205 -5.7704 -2.4953 0.2468 0 8
8.0124 -5.6421 -2.4953 0.2468 0 8
8.1022 -5.5123 -2.4953 0.2468 0 8
8.1900 -5.3810 -2.4953 0.2468 0 8
8.2756 -5.2484 -2.4953 0.2468 0 8
8.3591 -5.1144 -2.4953 0.2468 0 8
8.4404 -4.9791 -2.4953 0.2468 0 8
8.5195 -4.8425 -2.4953 0.2468 0 8
8.5964 -4.7046 -2.4953 0.2468 0 8
8.6710 -4.5655 -2.4953 0.2468 0 8
8.7435 -4.4253 -2.4953 0.2468 0 8
8.8136 -4.2839 -2.4953 0.2468 0 8
8.8815 -4.1413 -2.4953 0.2468 0 8
8.9470 -3.9977 -2.4953 0.2468 0 8
9.0103 -3.8531 -2.4953 0.2468 0 8
9.0712 -3.7074 -2.4953 0.2468 0 8
9.1297 -3.5608 -2.4953 0.2468 0 8
9.1859 -3.4133 -2.4953 0.2468 0 8
9.2397 -3.2649 -2.4953 0.2468 0 8
9.2911 -3.1156 -2.4953 0.2468 0 8
9.3400 -2.9656 -2.4953 0.2468 0 8
9.3866 -2.8147 -2.4953 0.2468 0 8
9.4307 -2.6632 -2.4953 0.2468 0 8
9.4724 -2.5109 -2.4953 0.2468 0 8
9.5116 -2.3580 -2.4953 0.2468 0 8
9.5484 -2.2045 -2.4953 0.2468 0 8
9.5826 -2.0504 -2.4953 0.2468 0 8
9.6144 -1.8958 -2.4953 0.2468 0 8
9.6437 -1.7406 -2.4953 0.2468 0 8
9.6705 -1.5851 -2.4953 0.2468 0 8
9.6948 -1.4291 -2.4953 0.2468 0 8
9.7165 -1.2727 -2.4953 0.2468 0 8
9.7358 -1.1161 -2.4953 0.2468 0 8
7.8774 -0.7747 -2.0155 0.3986 25 10
7.6911 -0.6315 -1.9650 0.7628 25 10
7.6194 -0.5021 -1.9443 0.8544 25 10
7.5846 -0.3773 -1.9337 0.9177 25 10
7.5646 -0.2542 -1.9273 0.9624 25 10
7.5662 -0.1323 -1.9269 0.9240 25 10
7.5698 -0.0104 -1.9275 0.9237 25 10
7.5668 0.1115 -1.9270 0.9240 25 10
7.5634 0.2334 -1.9268 0.9627 25 10
7.5795 0.3562 -1.9321 0.9184 25 10
7.6100 0.4806 -1.9416 0.8556 25 10
7.6783 0.6092 -1.9613 0.7643 25 10
7.8357 0.7489 -2.0043 0.4008 25 10
9.7388 1.0893 -2.4953 0.2468 0 8
9.7200 1.2461 -2.4953 0.2468 0 8
9.6987 1.4025 -2.4953 0.2468 0 8
9.6748 1.5585 -2.4953 0.2468 0 8
9.6485 1.7142 -2.4953 0.2468 0 8
9.6196 1.8694 -2.4953 0.2468 0 8
9.5882 2.0241 -2.4953 0.2468 0 8
9.5544 2.1783 -2.4953 0.2468 0 8
9.5181 2.3319 -2.4953 0.2468 0 8
9.4793 2.4849 -2.4953 0.2468 0 8
9.4380 2.6373 -2.4953 0.2468 0 8
9.3943 2.7890 -2.4953 0.2468 0 8
9.3481 2.9399 -2.4953 0.2468 0 8
9.2996 3.0901 -2.4953 0.2468 0 8
9.2486 3.2395 -2.4953 0.2468 0 8
9.1952 3.3881 -2.4953 0.2468 0 8
9.1394 3.5358 -2.4953 0.2468 0 8
9.0813 3.6825 -2.4953 0.2468 0 8
9.0208 3.8283 -2.4953 0.2468 0 8
8.9580 3.9732 -2.4953 0.2468 0 8
8.8928 4.1169 -2.4953 0.2468 0 8
8.8253 4.2597 -2.4953 0.2468 0 8
8.7556 4.4013 -2.4953 0.2468 0 8
8.6835 4.5417 -2.4953 0.2468 0 8
8.6092 4.6810 -2.4953 0.2468 0 8
8.5327 4.8191 -2.4953 0.2468 0 8
8.4540 4.9559 -2.4953 0.2468 0 8
8.3731 5.0915 -2.4953 0.2468 0 8
8.2900 5.2257 -2.4953 0.2468 0 8
8.2047 5.3585 -2.4953 0.2468 0 8
8.1173 5.4900 -2.4953 0.2468 0 8
8.0278 5.6200 -2.4953 0.2468 0 8
7.9363 5.7486 -2.4953 0.2468 0 8
6.7680 -6.6235 -2.4953 0.2548 0 8
6.8738 -6.5136 -2.4953 0.2548 0 8
6.9778 -6.4020 -2.4953 0.2548 0 8
7.0800 -6.2888 -2.4953 0.2548 0 8
7.1804 -6.1739 -2.4953 0.2548 0 8
7.2789 -6.0574 -2.4953 0.2548 0 8
7.3756 -5.9394 -2.4953 0.2548 0 8
7.4703 -5.8198 -2.4953 0.2548 0 8
7.5631 -5.6987 -2.4953 0.2548 0 8
7.6539 -5.5762 -2.4953 0.2548 0 8
7.7427 -5.4522 -2.4953 0.2548 0 8
7.8295 -5.3267 -2.4953 0.2548 0 8
7.9143 -5.1999 -2.4953 0.2548 0 8
7.9970 -5.0718 -2.4953 0.2548 0 8
8.0777 -4.9423 -2.4953 0.2548 0 8
8.1563 -4.8115 -2.4953 0.2548 0 8
8.2327 -4.6795 -2.4953 0.2548 0 8
8.3070 -4.5463 -2.4953 0.2548 0 8
8.3792 -4.4119 -2.4953 0.2548 0 8
8.4492 -4.2763 -2.4953 0.2548 0 8
8.5170 -4.1397 -2.4953 0.2548 0 8
8.5825 -4.0019 -2.4953 0.2548 0 8
8.6459 -3.8632 -2.4953 0.2548 0 8
