ply
format ascii 1.0
element vertex 1367
property float32 x
property float32 y
property float32 z
property float32 CosAngle
property uint32 ObjIdx
property uint32 ObjTag
end_header
37.3737 2.7390 -2.4953 0.0664 0 8
37.3246 3.3422 -2.4953 0.0664 0 8
37.2657 3.9444 -2.4953 0.0664 0 8
37.1972 4.5457 -2.4953 0.0664 0 8
37.1189 5.1457 -2.4953 0.0664 0 8
37.0310 5.7444 -2.4953 0.0664 0 8
36.9334 6.3416 -2.4953 0.0664 0 8
36.8262 6.9372 -2.4953 0.0664 0 8
36.7094 7.5310 -2.4953 0.0664 0 8
36.5830 8.1227 -2.4953 0.0664 0 8
38.6731 9.2445 -2.6477 0.0664 0 7
38.5188 9.8678 -2.6477 0.0664 0 7
38.3544 10.4885 -2.6477 0.0664 0 7
38.1800 11.1064 -2.6477 0.0664 0 7
37.9957 11.7215 -2.6477 0.0664 0 7
37.8015 12.3335 -2.6477 0.0664 0 7
37.5974 12.9423 -2.6477 0.0664 0 7
37.3835 13.5477 -2.6477 0.0664 0 7
37.1599 14.1496 -2.6477 0.0664 0 7
22.0432 -24.9558 -2.4953 0.0747 0 8
22.4433 -24.5966 -2.4953 0.0747 0 8
22.8376 -24.2310 -2.4953 0.0747 0 8
23.2259 -23.8591 -2.4953 0.0747 0 8
23.6081 -23.4805 -2.4953 0.0747 0 8
23.9842 -23.0966 -2.4953 0.0747 0 8
24.3540 -22.7063 -2.4953 0.0747 0 8
24.7175 -22.3101 -2.4953 0.0747 0 8
25.0745 -21.9081 -2.4953 0.0747 0 8
25.4250 -21.5003 -2.4953 0.0747 0 8
25.7689 -21.0870 -2.4953 0.0747 0 8
26.1060 -20.6681 -2.4953 0.0747 0 8
26.4364 -20.2439 -2.4953 0.0747 0 8
26.7598 -19.8144 -2.4953 0.0747 0 8
27.0763 -19.3797 -2.4953 0.0747 0 8
27.3857 -18.9400 -2.4953 0.0747 0 8
27.6879 -18.4953 -2.4953 0.0747 0 8
27.9830 -18.0458 -2.4953 0.0747 0 8
28.2707 -17.5916 -2.4953 0.0747 0 8
28.5511 -17.1328 -2.4953 0.0747 0 8
28.8240 -16.6698 -2.4953 0.0747 0 8
29.0894 -16.2019 -2.4953 0.0747 0 8
29.3473 -15.7301 -2.4953 0.0747 0 8
29.5974 -15.2541 -2.4953 0.0747 0 8
29.8399 -14.7742 -2.4953 0.0747 0 8
30.0746 -14.2904 -2.4953 0.0747 0 8
30.3014 -13.8029 -2.4953 0.0747 0 8
30.5203 -13.3119 -2.4953 0.0747 0 8
30.7313 -12.8177 -2.4953 0.0747 0 8
30.9343 -12.3194 -2.4953 0.0747 0 8
31.1292 -11.8183 -2.4953 0.0747 0 8
31.3159 -11.3141 -2.4953 0.0747 0 8
31.4946 -10.8069 -2.4953 0.0747 0 8
31.6649 -10.2970 -2.4953 0.0747 0 8
31.8271 -9.7843 -2.4953 0.0747 0 8
31.9809 -9.2691 -2.4953 0.0747 0 8
32.1264 -8.7515 -2.4953 0.0747 0 8
32.2636 -8.2316 -2.4953 0.0747 0 8
32.3923 -7.7096 -2.4953 0.0747 0 8
32.5125 -7.1855 -2.4953 0.0747 0 8
32.6243 -6.6596 -2.4953 0.0747 0 8
32.7276 -6.1319 -2.4953 0.0747 0 8
32.8224 -5.6026 -2.4953 0.0747 0 8
32.9085 -5.0719 -2.4953 0.0747 0 8
32.9862 -4.5398 -2.4953 0.0747 0 8
33.0552 -4.0066 -2.4953 0.0747 0 8
33.1156 -3.4723 -2.4953 0.0747 0 8
33.1673 -2.9371 -2.4953 0.0747 0 8
33.2104 -2.4012 -2.4953 0.0747 0 8
33.2448 -1.8646 -2.4953 0.0747 0 8
33.2706 -1.3275 -2.4953 0.0747 0 8
33.2877 -0.7901 -2.4953 0.0747 0 8
33.2961 -0.2525 -2.4953 0.0747 0 8
33.2959 0.2852 -2.4953 0.0747 0 8
33.2869 0.8228 -2.4953 0.0747 0 8
33.2693 1.3602 -2.4953 0.0747 0 8
33.2430 1.8972 -2.4953 0.0747 0 8
33.2080 2.4338 -2.4953 0.0747 0 8
33.1644 2.9697 -2.4953 0.0747 0 8
33.1121 3.5048 -2.4953 0.0747 0 8
33.0512 4.0390 -2.4953 0.0747 0 8
32.9817 4.5722 -2.4953 0.0747 0 8
32.9036 5.1042 -2.4953 0.0747 0 8
32.8168 5.6348 -2.4953 0.0747 0 8
32.7216 6.1640 -2.4953 0.0747 0 8
32.6178 6.6916 -2.4953 0.0747 0 8
32.5055 7.2174 -2.4953 0.0747 0 8
32.3847 7.7413 -2.4953 0.0747 0 8
32.2555 8.2632 -2.4953 0.0747 0 8
34.0794 9.3194 -2.6477 0.0747 0 7
33.9245 9.8685 -2.6477 0.0747 0 7
33.7607 10.4150 -2.6477 0.0747 0 7
33.5882 10.9588 -2.6477 0.0747 0 7
33.4068 11.4998 -2.6477 0.0747 0 6
33.2168 12.0377 -2.6477 0.0747 0 7
33.0181 12.5725 -2.6477 0.0747 0 7
19.8302 -22.4503 -2.4953 0.0830 0 8
20.1901 -22.1272 -2.4953 0.0830 0 8
20.5448 -21.7983 -2.4953 0.0830 0 8
20.8941 -21.4637 -2.4953 0.0830 0 8
21.2380 -21.1235 -2.4953 0.0830 0 8
21.5763 -20.7778 -2.4953 0.0830 0 8
21.9090 -20.4267 -2.4953 0.0830 0 8
22.2360 -20.0703 -2.4953 0.0830 0 8
22.5572 -19.7086 -2.4953 0.0830 0 8
22.8725 -19.3418 -2.4953 0.0830 0 8
23.1818 -18.9699 -2.4953 0.0830 0 8
23.4851 -18.5931 -2.4953 0.0830 0 8
23.7823 -18.2115 -2.4953 0.0830 0 8
24.0732 -17.8251 -2.4953 0.0830 0 8
24.3579 -17.4341 -2.4953 0.0830 0 8
24.6363 -17.0385 -2.4953 0.0830 0 8
24.9082 -16.6384 -2.4953 0.0830 0 8
25.1736 -16.2341 -2.4953 0.0830 0 8
25.4325 -15.8255 -2.4953 0.0830 0 8
25.6847 -15.4127 -2.4953 0.0830 0 8
25.9302 -14.9960 -2.4953 0.0830 0 8
26.1690 -14.5753 -2.4953 0.0830 0 8
26.4009 -14.1508 -2.4953 0.0830 0 8
26.6260 -13.7227 -2.4953 0.0830 0 8
26.8441 -13.2909 -2.4953 0.0830 0 8
27.0552 -12.8557 -2.4953 0.0830 0 8
27.2593 -12.4172 -2.4953 0.0830 0 8
27.4562 -11.9754 -2.4953 0.0830 0 8
27.6460 -11.5305 -2.4953 0.0830 0 8
27.8286 -11.0826 -2.4953 0.0830 0 8
28.0039 -10.6318 -2.4953 0.0830 0 8
28.1720 -10.1782 -2.4953 0.0830 0 8
28.3326 -9.7220 -2.4953 0.0830 0 8
28.4859 -9.2632 -2.4953 0.0830 0 8
28.6318 -8.8020 -2.4953 0.0830 0 8
28.7702 -8.3385 -2.4953 0.0830 0 8
28.9011 -7.8729 -2.4953 0.0830 0 8
29.0244 -7.4052 -2.4953 0.0830 0 8
29.1402 -6.9355 -2.4953 0.0830 0 8
29.2484 -6.4641 -2.4953 0.0830 0 8
29.3490 -5.9910 -2.4953 0.0830 0 8
29.4419 -5.5163 -2.4953 0.0830 0 8
29.5271 -5.0401 -2.4953 0.0830 0 8
29.6047 -4.5627 -2.4953 0.0830 0 8
29.6745 -4.0841 -2.4953 0.0830 0 8
29.7366 -3.6044 -2.4953 0.0830 0 8
29.7909 -3.1237 -2.4953 0.0830 0 8
29.8375 -2.6423 -2.4953 0.0830 0 8
29.8762 -2.1601 -2.4953 0.0830 0 8
29.9072 -1.6774 -2.4953 0.0830 0 8
29.9304 -1.1943 -2.4953 0.0830 0 8
29.9458 -0.7108 -2.4953 0.0830 0 8
29.9534 -0.2272 -2.4953 0.0830 0 8
29.9531 0.2565 -2.4953 0.0830 0 8
29.9451 0.7402 -2.4953 0.0830 0 8
29.9292 1.2236 -2.4953 0.0830 0 8
29.9056 1.7067 -2.4953 0.0830 0 8
29.8741 2.1894 -2.4953 0.0830 0 8
29.8348 2.6715 -2.4953 0.0830 0 8
29.7878 3.1529 -2.4953 0.0830 0 8
29.7330 3.6335 -2.4953 0.0830 0 8
29.6705 4.1132 -2.4953 0.0830 0 8
29.6002 4.5917 -2.4953 0.0830 0 8
29.5222 5.0691 -2.4953 0.0830 0 8
29.4365 5.5452 -2.4953 0.0830 0 8
29.3431 6.0198 -2.4953 0.0830 0 8
29.2421 6.4928 -2.4953 0.0830 0 8
29.1334 6.9641 -2.4953 0.0830 0 8
29.0172 7.4337 -2.4953 0.0830 0 8
28.8933 7.9012 -2.4953 0.0830 0 8
28.7620 8.3668 -2.4953 0.0830 0 8
30.3713 9.3694 -2.6477 0.0830 0 7
30.2161 9.8586 -2.6477 0.0830 0 7
30.0529 10.3452 -2.6477 0.0830 0 7
29.8820 10.8292 -2.6477 0.0830 0 7
29.7032 11.3103 -2.6477 0.0830 0 7
18.0187 -20.3995 -2.4953 0.0913 0 8
18.3458 -20.1059 -2.4953 0.0913 0 8
18.6680 -19.8070 -2.4953 0.0913 0 8
18.9854 -19.5030 -2.4953 0.0913 0 8
19.2979 -19.1939 -2.4953 0.0913 0 8
19.6053 -18.8798 -2.4953 0.0913 0 8
19.9076 -18.5608 -2.4953 0.0913 0 8
20.2047 -18.2369 -2.4953 0.0913 0 8
20.4966 -17.9083 -2.4953 0.0913 0 8
20.7831 -17.5749 -2.4953 0.0913 0 8
21.0642 -17.2371 -2.4953 0.0913 0 8
21.3398 -16.8947 -2.4953 0.0913 0 8
21.6098 -16.5479 -2.4953 0.0913 0 8
21.8742 -16.1968 -2.4953 0.0913 0 8
22.1329 -15.8415 -2.4953 0.0913 0 8
22.3858 -15.4820 -2.4953 0.0913 0 8
22.6328 -15.1185 -2.4953 0.0913 0 8
22.8740 -14.7511 -2.4953 0.0913 0 8
23.1092 -14.3798 -2.4953 0.0913 0 8
23.3384 -14.0048 -2.4953 0.0913 0 8
23.5615 -13.6261 -2.4953 0.0913 0 8
23.7785 -13.2439 -2.4953 0.0913 0 8
23.9892 -12.8582 -2.4953 0.0913 0 8
24.1937 -12.4691 -2.4953 0.0913 0 8
24.3919 -12.0768 -2.4953 0.0913 0 8
24.5837 -11.6814 -2.4953 0.0913 0 8
24.7692 -11.2829 -2.4953 0.0913 0 8
24.9481 -10.8815 -2.4953 0.0913 0 8
25.1206 -10.4772 -2.4953 0.0913 0 8
25.2865 -10.0702 -2.4953 0.0913 0 8
25.4458 -9.6606 -2.4953 0.0913 0 8
25.5985 -9.2484 -2.4953 0.0913 0 8
25.7445 -8.8339 -2.4953 0.0913 0 8
25.8838 -8.4170 -2.4953 0.0913 0 8
26.0163 -7.9980 -2.4953 0.0913 0 8
26.1420 -7.5768 -2.4953 0.0913 0 8
26.2610 -7.1537 -2.4953 0.0913 0 8
26.3731 -6.7287 -2.4953 0.0913 0 8
26.4783 -6.3020 -2.4953 0.0913 0 8
26.5766 -5.8736 -2.4953 0.0913 0 8
26.6680 -5.4437 -2.4953 0.0913 0 8
26.7524 -5.0124 -2.4953 0.0913 0 8
26.8299 -4.5797 -2.4953 0.0913 0 8
26.9003 -4.1459 -2.4953 0.0913 0 8
26.9637 -3.7110 -2.4953 0.0913 0 8
27.0202 -3.2751 -2.4953 0.0913 0 8
27.0695 -2.8384 -2.4953 0.0913 0 8
27.1118 -2.4009 -2.4953 0.0913 0 8
27.1471 -1.9628 -2.4953 0.0913 0 8
27.1752 -1.5242 -2.4953 0.0913 0 8
27.1963 -1.0852 -2.4953 0.0913 0 8
27.2103 -0.6459 -2.4953 0.0913 0 8
27.2171 -0.2064 -2.4953 0.0913 0 8
27.2169 0.2331 -2.4953 0.0913 0 8
27.2096 0.6726 -2.4953 0.0913 0 8
27.1952 1.1118 -2.4953 0.0913 0 8
27.1737 1.5508 -2.4953 0.0913 0 8
27.1451 1.9894 -2.4953 0.0913 0 8
27.1094 2.4275 -2.4953 0.0913 0 8
27.0667 2.8649 -2.4953 0.0913 0 8
27.0169 3.3016 -2.4953 0.0913 0 8
26.9601 3.7374 -2.4953 0.0913 0 8
26.8962 4.1723 -2.4953 0.0913 0 8
26.8253 4.6060 -2.4953 0.0913 0 8
26.7475 5.0386 -2.4953 0.0913 0 8
26.6626 5.4699 -2.4953 0.0913 0 8
26.5708 5.8997 -2.4953 0.0913 0 8
26.4721 6.3280 -2.4953 0.0913 0 8
26.3665 6.7546 -2.4953 0.0913 0 8
26.2540 7.1795 -2.4953 0.0913 0 8
26.1346 7.6025 -2.4953 0.0913 0 8
26.0084 8.0235 -2.4953 0.0913 0 8
25.8754 8.4424 -2.4953 0.0913 0 8
27.3076 9.4002 -2.6477 0.0913 0 7
27.1523 9.8399 -2.6477 0.0913 0 7
26.9898 10.2771 -2.6477 0.0913 0 7
16.5084 -18.6896 -2.4953 0.0996 0 8
16.8080 -18.4206 -2.4953 0.0996 0 8
17.1033 -18.1468 -2.4953 0.0996 0 8
17.3940 -17.8683 -2.4953 0.0996 0 8
17.6803 -17.5851 -2.4953 0.0996 0 8
17.9620 -17.2973 -2.4953 0.0996 0 8
18.2390 -17.0050 -2.4953 0.0996 0 8
18.5112 -16.7083 -2.4953 0.0996 0 8
18.7785 -16.4072 -2.4953 0.0996 0 8
19.0410 -16.1018 -2.4953 0.0996 0 8
19.2986 -15.7922 -2.4953 0.0996 0 8
19.5511 -15.4786 -2.4953 0.0996 0 8
19.7984 -15.1608 -2.4953 0.0996 0 8
20.0407 -14.8392 -2.4953 0.0996 0 8
20.2777 -14.5136 -2.4953 0.0996 0 8
20.5094 -14.1843 -2.4953 0.0996 0 8
20.7357 -13.8513 -2.4953 0.0996 0 8
20.9567 -13.5147 -2.4953 0.0996 0 8
21.1722 -13.1745 -2.4953 0.0996 0 8
21.3822 -12.8309 -2.4953 0.0996 0 8
21.5866 -12.4840 -2.4953 0.0996 0 8
21.7853 -12.1338 -2.4953 0.0996 0 8
21.9784 -11.7804 -2.4953 0.0996 0 8
22.1658 -11.4239 -2.4953 0.0996 0 8
22.3474 -11.0645 -2.4953 0.0996 0 8
22.5231 -10.7022 -2.4953 0.0996 0 8
22.6930 -10.3372 -2.4953 0.0996 0 8
22.8570 -9.9694 -2.4953 0.0996 0 8
23.0150 -9.5990 -2.4953 0.0996 0 8
23.1670 -9.2261 -2.4953 0.0996 0 8
23.3129 -8.8508 -2.4953 0.0996 0 8
23.4528 -8.4732 -2.4953 0.0996 0 8
23.5866 -8.0934 -2.4953 0.0996 0 8
23.7142 -7.7115 -2.4953 0.0996 0 8
23.8356 -7.3276 -2.4953 0.0996 0 8
23.9508 -6.9417 -2.4953 0.0996 0 8
24.0598 -6.5541 -2.4953 0.0996 0 8
24.1625 -6.1647 -2.4953 0.0996 0 8
24.2589 -5.7738 -2.4953 0.0996 0 8
24.3489 -5.3813 -2.4953 0.0996 0 8
24.4327 -4.9874 -2.4953 0.0996 0 8
24.5100 -4.5922 -2.4953 0.0996 0 8
24.5810 -4.1959 -2.4953 0.0996 0 8
24.6455 -3.7984 -2.4953 0.0996 0 8
24.7036 -3.3999 -2.4953 0.0996 0 8
24.7553 -3.0006 -2.4953 0.0996 0 8
24.8005 -2.6004 -2.4953 0.0996 0 8
24.8393 -2.1996 -2.4953 0.0996 0 8
24.8716 -1.7983 -2.4953 0.0996 0 8
24.8974 -1.3964 -2.4953 0.0996 0 8
24.9167 -0.9942 -2.4953 0.0996 0 8
24.9295 -0.5917 -2.4953 0.0996 0 8
10.1800 -0.0772 -1.0187 0.0215 25 10
24.9356 0.2136 -2.4953 0.0996 0 8
24.9289 0.6162 -2.4953 0.0996 0 8
24.9157 1.0186 -2.4953 0.0996 0 8
24.8960 1.4208 -2.4953 0.0996 0 8
24.8698 1.8227 -2.4953 0.0996 0 8
24.8371 2.2240 -2.4953 0.0996 0 8
24.7980 2.6248 -2.4953 0.0996 0 8
24.7523 3.0249 -2.4953 0.0996 0 8
24.7003 3.4242 -2.4953 0.0996 0 8
24.6418 3.8226 -2.4953 0.0996 0 8
24.5768 4.2200 -2.4953 0.0996 0 8
24.5055 4.6163 -2.4953 0.0996 0 8
24.4278 5.0114 -2.4953 0.0996 0 8
24.3437 5.4052 -2.4953 0.0996 0 8
24.2532 5.7976 -2.4953 0.0996 0 8
24.1564 6.1884 -2.4953 0.0996 0 8
24.0533 6.5777 -2.4953 0.0996 0 8
23.9440 6.9652 -2.4953 0.0996 0 8
23.8284 7.3509 -2.4953 0.0996 0 8
23.7066 7.7348 -2.4953 0.0996 0 8
23.5786 8.1165 -2.4953 0.0996 0 8
23.4445 8.4962 -2.4953 0.0996 0 8
24.7275 9.4156 -2.6477 0.0996 0 7
15.2297 -17.2420 -2.4953 0.1078 0 8
15.5061 -16.9938 -2.4953 0.1078 0 8
15.7785 -16.7412 -2.4953 0.1078 0 8
16.0467 -16.4842 -2.4953 0.1078 0 8
16.3109 -16.2230 -2.4953 0.1078 0 8
16.5707 -15.9575 -2.4953 0.1078 0 8
16.8262 -15.6878 -2.4953 0.1078 0 8
17.0773 -15.4141 -2.4953 0.1078 0 8
17.3240 -15.1363 -2.4953 0.1078 0 8
17.5661 -14.8546 -2.4953 0.1078 0 8
17.8037 -14.5690 -2.4953 0.1078 0 8
18.0367 -14.2796 -2.4953 0.1078 0 8
18.2649 -13.9865 -2.4953 0.1078 0 8
18.4883 -13.6897 -2.4953 0.1078 0 8
18.7070 -13.3894 -2.4953 0.1078 0 8
18.9207 -13.0856 -2.4953 0.1078 0 8
19.1296 -12.7784 -2.4953 0.1078 0 8
19.3334 -12.4678 -2.4953 0.1078 0 8
19.5322 -12.1540 -2.4953 0.1078 0 8
19.7259 -11.8370 -2.4953 0.1078 0 8
19.9145 -11.5170 -2.4953 0.1078 0 8
20.0979 -11.1939 -2.4953 0.1078 0 8
20.2760 -10.8679 -2.4953 0.1078 0 8
20.4489 -10.5391 -2.4953 0.1078 0 8
20.6164 -10.2075 -2.4953 0.1078 0 8
20.7785 -9.8733 -2.4953 0.1078 0 8
20.9352 -9.5365 -2.4953 0.1078 0 8
21.0865 -9.1972 -2.4953 0.1078 0 8
21.2323 -8.8555 -2.4953 0.1078 0 8
21.3725 -8.5115 -2.4953 0.1078 0 8
21.5071 -8.1652 -2.4953 0.1078 0 8
21.6362 -7.8169 -2.4953 0.1078 0 8
21.7596 -7.4665 -2.4953 0.1078 0 8
21.8773 -7.1142 -2.4953 0.1078 0 8
21.9893 -6.7600 -2.4953 0.1078 0 8
22.0956 -6.4040 -2.4953 0.1078 0 8
22.1961 -6.0464 -2.4953 0.1078 0 8
22.2909 -5.6872 -2.4953 0.1078 0 8
22.3798 -5.3265 -2.4953 0.1078 0 8
22.4629 -4.9645 -2.4953 0.1078 0 8
22.5401 -4.6011 -2.4953 0.1078 0 8
22.6115 -4.2365 -2.4953 0.1078 0 8
22.6770 -3.8708 -2.4953 0.1078 0 8
22.7365 -3.5042 -2.4953 0.1078 0 8
22.7901 -3.1366 -2.4953 0.1078 0 8
22.8378 -2.7682 -2.4953 0.1078 0 8
22.8795 -2.3990 -2.4953 0.1078 0 8
22.9153 -2.0293 -2.4953 0.1078 0 8
22.9451 -1.6590 -2.4953 0.1078 0 8
9.5805 -0.5373 -1.0408 0.1154 25 10
9.4292 -0.3762 -1.0236 0.1461 25 10
9.3120 -0.2210 -1.0103 0.1523 25 10
9.2600 -0.0702 -1.0044 0.1531 25 10
9.2632 0.0793 -1.0048 0.1531 25 10
9.3151 0.2303 -1.0107 0.1522 25 10
9.4371 0.3858 -1.0245 0.1460 25 10
9.6116 0.5485 -1.0442 0.1088 25 10
22.9434 1.6815 -2.4953 0.1078 0 8
22.9133 2.0517 -2.4953 0.1078 0 8
22.8772 2.4215 -2.4953 0.1078 0 8
22.8351 2.7906 -2.4953 0.1078 0 8
22.7870 3.1589 -2.4953 0.1078 0 8
22.7331 3.5265 -2.4953 0.1078 0 8
22.6732 3.8931 -2.4953 0.1078 0 8
22.6073 4.2587 -2.4953 0.1078 0 8
22.5356 4.6232 -2.4953 0.1078 0 8
22.4580 4.9865 -2.4953 0.1078 0 8
22.3746 5.3485 -2.4953 0.1078 0 8
22.2853 5.7091 -2.4953 0.1078 0 8
22.1902 6.0682 -2.4953 0.1078 0 8
22.0893 6.4257 -2.4953 0.1078 0 8
21.9827 6.7816 -2.4953 0.1078 0 8
21.8703 7.1356 -2.4953 0.1078 0 8
21.7522 7.4879 -2.4953 0.1078 0 8
21.6285 7.8381 -2.4953 0.1078 0 8
21.4991 8.1863 -2.4953 0.1078 0 8
14.1330 -16.0004 -2.4953 0.1161 0 8
14.3895 -15.7701 -2.4953 0.1161 0 8
14.6423 -15.5357 -2.4953 0.1161 0 8
14.8912 -15.2972 -2.4953 0.1161 0 8
15.1363 -15.0548 -2.4953 0.1161 0 8
15.3774 -14.8084 -2.4953 0.1161 0 8
15.6146 -14.5582 -2.4953 0.1161 0 8
15.8476 -14.3041 -2.4953 0.1161 0 8
16.0765 -14.0464 -2.4953 0.1161 0 8
16.3012 -13.7849 -2.4953 0.1161 0 8
16.5217 -13.5199 -2.4953 0.1161 0 8
16.7379 -13.2514 -2.4953 0.1161 0 8
16.9497 -12.9794 -2.4953 0.1161 0 8
17.1570 -12.7040 -2.4953 0.1161 0 8
17.3599 -12.4253 -2.4953 0.1161 0 8
17.5583 -12.1433 -2.4953 0.1161 0 8
17.7521 -11.8582 -2.4953 0.1161 0 8
17.9413 -11.5700 -2.4953 0.1161 0 8
18.1257 -11.2788 -2.4953 0.1161 0 8
18.3055 -10.9847 -2.4953 0.1161 0 8
18.4805 -10.6876 -2.4953 0.1161 0 8
18.6507 -10.3878 -2.4953 0.1161 0 8
18.8160 -10.0853 -2.4953 0.1161 0 8
18.9764 -9.7802 -2.4953 0.1161 0 8
19.1318 -9.4725 -2.4953 0.1161 0 8
19.2823 -9.1623 -2.4953 0.1161 0 8
19.4277 -8.8497 -2.4953 0.1161 0 8
19.5681 -8.5349 -2.4953 0.1161 0 8
19.7034 -8.2178 -2.4953 0.1161 0 8
19.8335 -7.8986 -2.4953 0.1161 0 8
19.9584 -7.5773 -2.4953 0.1161 0 8
20.0782 -7.2540 -2.4953 0.1161 0 8
20.1927 -6.9289 -2.4953 0.1161 0 8
20.3020 -6.6019 -2.4953 0.1161 0 8
20.4059 -6.2732 -2.4953 0.1161 0 8
20.5045 -5.9429 -2.4953 0.1161 0 8
20.5978 -5.6110 -2.4953 0.1161 0 8
20.6858 -5.2777 -2.4953 0.1161 0 8
20.7683 -4.9430 -2.4953 0.1161 0 8
20.8454 -4.6070 -2.4953 0.1161 0 8
20.9171 -4.2698 -2.4953 0.1161 0 8
20.9833 -3.9315 -2.4953 0.1161 0 8
21.0440 -3.5921 -2.4953 0.1161 0 8
21.0993 -3.2518 -2.4953 0.1161 0 8
21.1490 -2.9107 -2.4953 0.1161 0 8
21.1933 -2.5688 -2.4953 0.1161 0 8
21.2320 -2.2263 -2.4953 0.1161 0 8
21.2652 -1.8831 -2.4953 0.1161 0 8
21.2928 -1.5395 -2.4953 0.1161 0 8
9.0555 -0.5079 -1.0601 0.3104 25 10
9.0036 -0.3593 -1.0532 0.3124 25 10
8.9594 -0.2127 -1.0475 0.3210 25 10
8.9372 -0.0678 -1.0446 0.3183 25 10
8.9385 0.0766 -1.0448 0.3183 25 10
8.9609 0.2215 -1.0477 0.3209 25 10
9.0067 0.3682 -1.0536 0.3123 25 10
9.0587 0.5170 -1.0605 0.3108 25 10
21.2913 1.5604 -2.4953 0.1161 0 8
21.2633 1.9040 -2.4953 0.1161 0 8
21.2298 2.2471 -2.4953 0.1161 0 8
21.1908 2.5896 -2.4953 0.1161 0 8
21.1462 2.9315 -2.4953 0.1161 0 8
21.0961 3.2725 -2.4953 0.1161 0 8
21.0405 3.6128 -2.4953 0.1161 0 8
20.9794 3.9520 -2.4953 0.1161 0 8
20.9129 4.2903 -2.4953 0.1161 0 8
20.8409 4.6274 -2.4953 0.1161 0 8
20.7634 4.9633 -2.4953 0.1161 0 8
20.6806 5.2980 -2.4953 0.1161 0 8
20.5923 5.6312 -2.4953 0.1161 0 8
20.4987 5.9630 -2.4953 0.1161 0 8
20.3997 6.2932 -2.4953 0.1161 0 8
20.2955 6.6218 -2.4953 0.1161 0 8
20.1859 6.9487 -2.4953 0.1161 0 8
20.0711 7.2737 -2.4953 0.1161 0 8
19.9510 7.5969 -2.4953 0.1161 0 8
13.1819 -14.9237 -2.4953 0.1243 0 8
13.4212 -14.7089 -2.4953 0.1243 0 8
13.6570 -14.4902 -2.4953 0.1243 0 8
13.8892 -14.2678 -2.4953 0.1243 0 8
14.1178 -14.0417 -2.4953 0.1243 0 8
14.3426 -13.8119 -2.4953 0.1243 0 8
14.5638 -13.5785 -2.4953 0.1243 0 8
14.7812 -13.3415 -2.4953 0.1243 0 8
14.9947 -13.1011 -2.4953 0.1243 0 8
15.2043 -12.8573 -2.4953 0.1243 0 8
15.4099 -12.6101 -2.4953 0.1243 0 8
15.6115 -12.3596 -2.4953 0.1243 0 8
15.8091 -12.1059 -2.4953 0.1243 0 8
16.0025 -11.8491 -2.4953 0.1243 0 8
16.1917 -11.5891 -2.4953 0.1243 0 8
16.3767 -11.3262 -2.4953 0.1243 0 8
16.5575 -11.0602 -2.4953 0.1243 0 8
16.7339 -10.7914 -2.4953 0.1243 0 8
16.9060 -10.5198 -2.4953 0.1243 0 8
17.0737 -10.2455 -2.4953 0.1243 0 8
17.2369 -9.9684 -2.4953 0.1243 0 8
17.3956 -9.6888 -2.4953 0.1243 0 8
17.5498 -9.4066 -2.4953 0.1243 0 8
17.6994 -9.1220 -2.4953 0.1243 0 8
17.8444 -8.8350 -2.4953 0.1243 0 8
17.9847 -8.5457 -2.4953 0.1243 0 8
18.1204 -8.2542 -2.4953 0.1243 0 8
18.2513 -7.9605 -2.4953 0.1243 0 8
18.3774 -7.6648 -2.4953 0.1243 0 8
18.4988 -7.3670 -2.4953 0.1243 0 8
18.6154 -7.0674 -2.4953 0.1243 0 8
18.7271 -6.7659 -2.4953 0.1243 0 8
18.8339 -6.4626 -2.4953 0.1243 0 8
18.9358 -6.1576 -2.4953 0.1243 0 8
19.0327 -5.8511 -2.4953 0.1243 0 8
19.1247 -5.5430 -2.4953 0.1243 0 8
19.2117 -5.2334 -2.4953 0.1243 0 8
19.2937 -4.9225 -2.4953 0.1243 0 8
19.3707 -4.6103 -2.4953 0.1243 0 8
19.4426 -4.2969 -2.4953 0.1243 0 8
19.5095 -3.9824 -2.4953 0.1243 0 8
19.5712 -3.6669 -2.4953 0.1243 0 8
19.6279 -3.3504 -2.4953 0.1243 0 8
19.6794 -3.0330 -2.4953 0.1243 0 8
19.7259 -2.7148 -2.4953 0.1243 0 8
19.7671 -2.3960 -2.4953 0.1243 0 8
19.8032 -2.0765 -2.4953 0.1243 0 8
19.8342 -1.7564 -2.4953 0.1243 0 8
19.8600 -1.4359 -2.4953 0.1243 0 8
8.8246 -0.4949 -1.1076 0.3188 25 10
8.7750 -0.3501 -1.1005 0.3202 25 10
8.7369 -0.2074 -1.0952 0.3288 25 10
8.7134 -0.0661 -1.0920 0.3298 25 10
8.7149 0.0746 -1.0922 0.3297 25 10
8.7384 0.2160 -1.0954 0.3288 25 10
8.7780 0.3589 -1.1009 0.3201 25 10
8.8276 0.5038 -1.1080 0.3186 25 10
19.8585 1.4554 -2.4953 0.1243 0 8
19.8324 1.7759 -2.4953 0.1243 0 8
19.8012 2.0959 -2.4953 0.1243 0 8
19.7648 2.4154 -2.4953 0.1243 0 8
19.7232 2.7342 -2.4953 0.1243 0 8
19.6765 3.0523 -2.4953 0.1243 0 8
19.6246 3.3696 -2.4953 0.1243 0 8
19.5676 3.6861 -2.4953 0.1243 0 8
19.5056 4.0016 -2.4953 0.1243 0 8
19.4384 4.3160 -2.4953 0.1243 0 8
19.3662 4.6294 -2.4953 0.1243 0 8
19.2889 4.9415 -2.4953 0.1243 0 8
19.2066 5.2523 -2.4953 0.1243 0 8
19.1193 5.5617 -2.4953 0.1243 0 8
19.0270 5.8697 -2.4953 0.1243 0 8
18.9297 6.1762 -2.4953 0.1243 0 8
18.8275 6.4811 -2.4953 0.1243 0 8
18.7204 6.7842 -2.4953 0.1243 0 8
18.6084 7.0856 -2.4953 0.1243 0 8
12.3492 -13.9809 -2.4953 0.1326 0 8
12.5733 -13.7796 -2.4953 0.1326 0 8
12.7942 -13.5748 -2.4953 0.1326 0 8
13.0117 -13.3665 -2.4953 0.1326 0 8
13.2259 -13.1546 -2.4953 0.1326 0 8
13.4366 -12.9393 -2.4953 0.1326 0 8
13.6437 -12.7205 -2.4953 0.1326 0 8
13.8474 -12.4987 -2.4953 0.1326 0 8
14.0474 -12.2735 -2.4953 0.1326 0 8
14.2437 -12.0450 -2.4953 0.1326 0 8
14.4364 -11.8135 -2.4953 0.1326 0 8
14.6253 -11.5788 -2.4953 0.1326 0 8
14.8103 -11.3411 -2.4953 0.1326 0 8
14.9915 -11.1005 -2.4953 0.1326 0 8
15.1688 -10.8570 -2.4953 0.1326 0 8
15.3421 -10.6106 -2.4953 0.1326 0 8
15.5115 -10.3615 -2.4953 0.1326 0 8
15.6768 -10.1097 -2.4953 0.1326 0 8
15.8380 -9.8552 -2.4953 0.1326 0 8
15.9951 -9.5982 -2.4953 0.1326 0 8
16.1479 -9.3387 -2.4953 0.1326 0 8
16.2966 -9.0767 -2.4953 0.1326 0 8
16.4411 -8.8124 -2.4953 0.1326 0 8
16.5812 -8.5457 -2.4953 0.1326 0 8
16.7171 -8.2769 -2.4953 0.1326 0 8
16.8485 -8.0059 -2.4953 0.1326 0 8
16.9756 -7.7328 -2.4953 0.1326 0 8
17.0983 -7.4576 -2.4953 0.1326 0 8
17.2165 -7.1806 -2.4953 0.1326 0 8
17.3302 -6.9016 -2.4953 0.1326 0 8
17.4393 -6.6209 -2.4953 0.1326 0 8
17.5440 -6.3384 -2.4953 0.1326 0 8
17.6440 -6.0543 -2.4953 0.1326 0 8
17.7395 -5.7686 -2.4953 0.1326 0 8
17.8304 -5.4814 -2.4953 0.1326 0 8
17.9165 -5.1928 -2.4953 0.1326 0 8
17.9981 -4.9028 -2.4953 0.1326 0 8
18.0749 -4.6115 -2.4953 0.1326 0 8
18.1470 -4.3191 -2.4953 0.1326 0 8
18.2144 -4.0255 -2.4953 0.1326 0 8
18.2770 -3.7309 -2.4953 0.1326 0 8
18.3349 -3.4352 -2.4953 0.1326 0 8
18.3879 -3.1387 -2.4953 0.1326 0 8
18.4362 -2.8414 -2.4953 0.1326 0 8
18.4797 -2.5433 -2.4953 0.1326 0 8
18.5183 -2.2446 -2.4953 0.1326 0 8
18.5522 -1.9453 -2.4953 0.1326 0 8
18.5812 -1.6455 -2.4953 0.1326 0 8
8.7435 -0.6322 -1.1726 0.1006 25 10
8.6086 -0.4828 -1.1534 0.4031 25 10
8.5691 -0.3419 -1.1472 0.4052 25 10
8.5431 -0.2028 -1.1431 0.4223 25 10
8.5253 -0.0647 -1.1404 0.4232 25 10
8.5264 0.0730 -1.1406 0.4232 25 10
8.5442 0.2112 -1.1433 0.4242 25 10
8.5716 0.3504 -1.1475 0.4051 25 10
8.6110 0.4914 -1.1537 0.4029 25 10
8.8173 0.6462 -1.1826 0.0997 25 10
18.5796 1.6637 -2.4953 0.1326 0 8
18.5503 1.9635 -2.4953 0.1326 0 8
18.5161 2.2628 -2.4953 0.1326 0 8
18.4772 2.5615 -2.4953 0.1326 0 8
18.4334 2.8595 -2.4953 0.1326 0 8
18.3848 3.1568 -2.4953 0.1326 0 8
18.3314 3.4532 -2.4953 0.1326 0 8
18.2733 3.7488 -2.4953 0.1326 0 8
18.2104 4.0434 -2.4953 0.1326 0 8
18.1427 4.3369 -2.4953 0.1326 0 8
18.0703 4.6293 -2.4953 0.1326 0 8
17.9932 4.9205 -2.4953 0.1326 0 8
17.9114 5.2104 -2.4953 0.1326 0 8
17.8249 5.4989 -2.4953 0.1326 0 8
17.7338 5.7860 -2.4953 0.1326 0 8
17.6381 6.0716 -2.4953 0.1326 0 8
17.5378 6.3556 -2.4953 0.1326 0 8
17.4328 6.6380 -2.4953 0.1326 0 8
11.6139 -13.1484 -2.4953 0.1408 0 8
11.8247 -12.9591 -2.4953 0.1408 0 8
12.0324 -12.7665 -2.4953 0.1408 0 8
12.2369 -12.5705 -2.4953 0.1408 0 8
12.4383 -12.3713 -2.4953 0.1408 0 8
12.6365 -12.1688 -2.4953 0.1408 0 8
12.8313 -11.9632 -2.4953 0.1408 0 8
13.0228 -11.7545 -2.4953 0.1408 0 8
13.2109 -11.5426 -2.4953 0.1408 0 8
13.3956 -11.3278 -2.4953 0.1408 0 8
13.5768 -11.1100 -2.4953 0.1408 0 8
13.7544 -10.8893 -2.4953 0.1408 0 8
13.9284 -10.6658 -2.4953 0.1408 0 8
14.0989 -10.4395 -2.4953 0.1408 0 8
14.2656 -10.2105 -2.4953 0.1408 0 8
14.4286 -9.9788 -2.4953 0.1408 0 8
14.5878 -9.7445 -2.4953 0.1408 0 8
14.7433 -9.5077 -2.4953 0.1408 0 8
14.8949 -9.2684 -2.4953 0.1408 0 8
15.0426 -9.0267 -2.4953 0.1408 0 8
15.1864 -8.7826 -2.4953 0.1408 0 8
15.3263 -8.5362 -2.4953 0.1408 0 8
15.4621 -8.2876 -2.4953 0.1408 0 8
15.5939 -8.0369 -2.4953 0.1408 0 8
15.7216 -7.7840 -2.4953 0.1408 0 8
15.8453 -7.5292 -2.4953 0.1408 0 8
15.9648 -7.2723 -2.4953 0.1408 0 8
16.0801 -7.0136 -2.4953 0.1408 0 8
16.1913 -6.7530 -2.4953 0.1408 0 8
16.2982 -6.4907 -2.4953 0.1408 0 8
16.4009 -6.2267 -2.4953 0.1408 0 8
16.4993 -5.9610 -2.4953 0.1408 0 8
16.5934 -5.6938 -2.4953 0.1408 0 8
16.6832 -5.4251 -2.4953 0.1408 0 8
16.7686 -5.1550 -2.4953 0.1408 0 8
16.8497 -4.8836 -2.4953 0.1408 0 8
16.9263 -4.6109 -2.4953 0.1408 0 8
16.9986 -4.3370 -2.4953 0.1408 0 8
17.0664 -4.0619 -2.4953 0.1408 0 8
17.1298 -3.7858 -2.4953 0.1408 0 8
17.1887 -3.5087 -2.4953 0.1408 0 8
17.2431 -3.2307 -2.4953 0.1408 0 8
17.2930 -2.9518 -2.4953 0.1408 0 8
17.3384 -2.6722 -2.4953 0.1408 0 8
17.3793 -2.3919 -2.4953 0.1408 0 8
17.4157 -2.1109 -2.4953 0.1408 0 8
17.4475 -1.8294 -2.4953 0.1408 0 8
17.4747 -1.5475 -2.4953 0.1408 0 8
8.5035 -0.6148 -1.2127 0.3652 25 10
8.4429 -0.4735 -1.2028 0.4232 25 10
8.4090 -0.3355 -1.1970 0.4253 25 10
8.3852 -0.1990 -1.1930 0.4317 25 10
8.3675 -0.0635 -1.1902 0.4327 25 10
8.3686 0.0717 -1.1904 0.4327 25 10
8.3863 0.2073 -1.1932 0.4316 25 10
8.4111 0.3439 -1.1974 0.4251 25 10
8.4450 0.4820 -1.2031 0.4231 25 10
8.5098 0.6237 -1.2136 0.3649 25 10
17.4732 1.5646 -2.4953 0.1408 0 8
17.4457 1.8466 -2.4953 0.1408 0 8
17.4136 2.1280 -2.4953 0.1408 0 8
17.3770 2.4089 -2.4953 0.1408 0 8
17.3358 2.6892 -2.4953 0.1408 0 8
17.2901 2.9688 -2.4953 0.1408 0 8
17.2399 3.2476 -2.4953 0.1408 0 8
17.1852 3.5256 -2.4953 0.1408 0 8
17.1260 3.8026 -2.4953 0.1408 0 8
17.0624 4.0786 -2.4953 0.1408 0 8
16.9943 4.3536 -2.4953 0.1408 0 8
16.9218 4.6275 -2.4953 0.1408 0 8
16.8449 4.9001 -2.4953 0.1408 0 8
16.7636 5.1715 -2.4953 0.1408 0 8
16.6779 5.4415 -2.4953 0.1408 0 8
16.5878 5.7101 -2.4953 0.1408 0 8
16.4935 5.9772 -2.4953 0.1408 0 8
16.3948 6.2427 -2.4953 0.1408 0 8
10.9597 -12.4078 -2.4953 0.1490 0 8
11.1586 -12.2292 -2.4953 0.1490 0 8
11.3547 -12.0474 -2.4953 0.1490 0 8
11.5477 -11.8625 -2.4953 0.1490 0 8
11.7378 -11.6745 -2.4953 0.1490 0 8
11.9247 -11.4835 -2.4953 0.1490 0 8
12.1086 -11.2894 -2.4953 0.1490 0 8
12.2893 -11.0924 -2.4953 0.1490 0 8
12.4668 -10.8925 -2.4953 0.1490 0 8
12.6411 -10.6898 -2.4953 0.1490 0 8
12.8121 -10.4843 -2.4953 0.1490 0 8
12.9797 -10.2760 -2.4953 0.1490 0 8
13.1439 -10.0651 -2.4953 0.1490 0 8
13.3048 -9.8515 -2.4953 0.1490 0 8
13.4621 -9.6354 -2.4953 0.1490 0 8
13.6159 -9.4168 -2.4953 0.1490 0 8
13.7662 -9.1957 -2.4953 0.1490 0 8
13.9129 -8.9722 -2.4953 0.1490 0 8
14.0560 -8.7464 -2.4953 0.1490 0 8
14.1954 -8.5183 -2.4953 0.1490 0 8
14.3311 -8.2879 -2.4953 0.1490 0 8
14.4630 -8.0554 -2.4953 0.1490 0 8
14.5912 -7.8209 -2.4953 0.1490 0 8
14.7156 -7.5842 -2.4953 0.1490 0 8
14.8361 -7.3456 -2.4953 0.1490 0 8
14.9528 -7.1051 -2.4953 0.1490 0 8
15.0656 -6.8627 -2.4953 0.1490 0 8
15.1745 -6.6185 -2.4953 0.1490 0 8
15.2794 -6.3727 -2.4953 0.1490 0 8
15.3803 -6.1251 -2.4953 0.1490 0 8
15.4772 -5.8759 -2.4953 0.1490 0 8
15.5700 -5.6253 -2.4953 0.1490 0 8
15.6588 -5.3731 -2.4953 0.1490 0 8
15.7435 -5.1196 -2.4953 0.1490 0 8
15.8242 -4.8647 -2.4953 0.1490 0 8
15.9007 -4.6085 -2.4953 0.1490 0 8
15.9730 -4.3512 -2.4953 0.1490 0 8
16.0412 -4.0927 -2.4953 0.1490 0 8
16.1052 -3.8331 -2.4953 0.1490 0 8
16.1650 -3.5726 -2.4953 0.1490 0 8
16.2205 -3.3111 -2.4953 0.1490 0 8
16.2719 -3.0487 -2.4953 0.1490 0 8
16.3190 -2.7856 -2.4953 0.1490 0 8
16.3619 -2.5217 -2.4953 0.1490 0 8
16.4004 -2.2572 -2.4953 0.1490 0 8
16.4348 -1.9920 -2.4953 0.1490 0 8
16.4648 -1.7264 -2.4953 0.1490 0 8
16.4905 -1.4603 -2.4953 0.1490 0 8
8.3599 -0.6044 -1.2633 0.4881 25 10
8.3113 -0.4662 -1.2547 0.5126 25 10
8.2745 -0.3302 -1.2482 0.5072 25 10
8.2519 -0.1959 -1.2441 0.5208 25 10
8.2377 -0.0625 -1.2417 0.5145 25 10
8.2386 0.0706 -1.2418 0.5145 25 10
8.2528 0.2040 -1.2443 0.5208 25 10
8.2769 0.3384 -1.2486 0.5071 25 10
8.3135 0.4745 -1.2551 0.5125 25 10
8.3640 0.6130 -1.2641 0.4878 25 10
16.4891 1.4765 -2.4953 0.1490 0 8
16.4631 1.7426 -2.4953 0.1490 0 8
16.4328 2.0082 -2.4953 0.1490 0 8
16.3982 2.2733 -2.4953 0.1490 0 8
16.3594 2.5378 -2.4953 0.1490 0 8
16.3163 2.8016 -2.4953 0.1490 0 8
16.2689 3.0647 -2.4953 0.1490 0 8
16.2173 3.3270 -2.4953 0.1490 0 8
16.1614 3.5884 -2.4953 0.1490 0 8
16.1014 3.8489 -2.4953 0.1490 0 8
16.0371 4.1084 -2.4953 0.1490 0 8
15.9687 4.3668 -2.4953 0.1490 0 8
15.8961 4.6241 -2.4953 0.1490 0 8
15.8194 4.8802 -2.4953 0.1490 0 8
15.7385 5.1350 -2.4953 0.1490 0 8
15.6535 5.3885 -2.4953 0.1490 0 8
15.5645 5.6405 -2.4953 0.1490 0 8
15.4714 5.8911 -2.4953 0.1490 0 8
10.3740 -11.7447 -2.4953 0.1573 0 8
10.5623 -11.5756 -2.4953 0.1573 0 8
10.7478 -11.4035 -2.4953 0.1573 0 8
10.9305 -11.2285 -2.4953 0.1573 0 8
11.1104 -11.0505 -2.4953 0.1573 0 8
11.2874 -10.8697 -2.4953 0.1573 0 8
11.4614 -10.6860 -2.4953 0.1573 0 8
11.6325 -10.4996 -2.4953 0.1573 0 8
11.8005 -10.3104 -2.4953 0.1573 0 8
11.9655 -10.1185 -2.4953 0.1573 0 8
12.1273 -9.9239 -2.4953 0.1573 0 8
12.2860 -9.7268 -2.4953 0.1573 0 8
12.4414 -9.5271 -2.4953 0.1573 0 8
12.5937 -9.3250 -2.4953 0.1573 0 8
12.7426 -9.1204 -2.4953 0.1573 0 8
12.8882 -8.9135 -2.4953 0.1573 0 8
13.0304 -8.7042 -2.4953 0.1573 0 8
13.1693 -8.4927 -2.4953 0.1573 0 8
13.3047 -8.2789 -2.4953 0.1573 0 8
13.4367 -8.0630 -2.4953 0.1573 0 8
13.5651 -7.8450 -2.4953 0.1573 0 8
13.6900 -7.6249 -2.4953 0.1573 0 8
13.8114 -7.4029 -2.4953 0.1573 0 8
13.9291 -7.1789 -2.4953 0.1573 0 8
14.0432 -6.9530 -2.4953 0.1573 0 8
14.1536 -6.7253 -2.4953 0.1573 0 8
14.2604 -6.4959 -2.4953 0.1573 0 8
14.3634 -6.2648 -2.4953 0.1573 0 8
14.4627 -6.0321 -2.4953 0.1573 0 8
14.5582 -5.7977 -2.4953 0.1573 0 8
14.6500 -5.5619 -2.4953 0.1573 0 8
14.7379 -5.3246 -2.4953 0.1573 0 8
14.8219 -5.0859 -2.4953 0.1573 0 8
14.9021 -4.8459 -2.4953 0.1573 0 8
14.9784 -4.6047 -2.4953 0.1573 0 8
15.0508 -4.3622 -2.4953 0.1573 0 8
15.1193 -4.1186 -2.4953 0.1573 0 8
15.1838 -3.8739 -2.4953 0.1573 0 8
15.2444 -3.6283 -2.4953 0.1573 0 8
15.3010 -3.3816 -2.4953 0.1573 0 8
15.3536 -3.1341 -2.4953 0.1573 0 8
15.4022 -2.8858 -2.4953 0.1573 0 8
15.4468 -2.6367 -2.4953 0.1573 0 8
15.4874 -2.3869 -2.4953 0.1573 0 8
15.5239 -2.1365 -2.4953 0.1573 0 8
15.5564 -1.8856 -2.4953 0.1573 0 8
15.5848 -1.6341 -2.4953 0.1573 0 8
8.6405 -0.7652 -1.3813 0.0218 25 10
8.2337 -0.5953 -1.3145 0.4950 25 10
8.1887 -0.4593 -1.3060 0.5115 25 10
8.1513 -0.3252 -1.2990 0.5142 25 10
8.1312 -0.1930 -1.2951 0.5279 25 10
8.1159 -0.0615 -1.2924 0.5290 25 10
8.1169 0.0695 -1.2925 0.5290 25 10
8.1321 0.2010 -1.2953 0.5278 25 10
8.1536 0.3333 -1.2994 0.5141 25 10
8.1910 0.4675 -1.3064 0.5113 25 10
8.2378 0.6037 -1.3153 0.4947 25 10
8.9586 0.8022 -1.4322 0.0977 25 10
15.5832 1.6494 -2.4953 0.1573 0 8
15.5545 1.9008 -2.4953 0.1573 0 8
15.5218 2.1518 -2.4953 0.1573 0 8
15.4850 2.4021 -2.4953 0.1573 0 8
15.4442 2.6519 -2.4953 0.1573 0 8
15.3994 2.9009 -2.4953 0.1573 0 8
15.3505 3.1492 -2.4953 0.1573 0 8
15.2977 3.3966 -2.4953 0.1573 0 8
15.2408 3.6432 -2.4953 0.1573 0 8
15.1800 3.8888 -2.4953 0.1573 0 8
15.1152 4.1334 -2.4953 0.1573 0 8
15.0465 4.3770 -2.4953 0.1573 0 8
14.9739 4.6194 -2.4953 0.1573 0 8
14.8973 4.8606 -2.4953 0.1573 0 8
14.8169 5.1005 -2.4953 0.1573 0 8
14.7326 5.3391 -2.4953 0.1573 0 8
14.6445 5.5763 -2.4953 0.1573 0 8
9.8463 -11.1473 -2.4953 0.1655 0 8
10.0250 -10.9868 -2.4953 0.1655 0 8
10.2011 -10.8235 -2.4953 0.1655 0 8
10.3746 -10.6574 -2.4953 0.1655 0 8
10.5453 -10.4885 -2.4953 0.1655 0 8
10.7133 -10.3168 -2.4953 0.1655 0 8
10.8785 -10.1425 -2.4953 0.1655 0 8
11.0408 -9.9655 -2.4953 0.1655 0 8
11.2003 -9.7859 -2.4953 0.1655 0 8
11.3569 -9.6038 -2.4953 0.1655 0 8
11.5105 -9.4192 -2.4953 0.1655 0 8
11.6611 -9.2321 -2.4953 0.1655 0 8
11.8086 -9.0426 -2.4953 0.1655 0 8
11.9531 -8.8507 -2.4953 0.1655 0 8
12.0945 -8.6565 -2.4953 0.1655 0 8
12.2327 -8.4601 -2.4953 0.1655 0 8
12.3677 -8.2615 -2.4953 0.1655 0 8
12.4995 -8.0607 -2.4953 0.1655 0 8
12.6280 -7.8578 -2.4953 0.1655 0 8
12.7532 -7.6529 -2.4953 0.1655 0 8
12.8751 -7.4460 -2.4953 0.1655 0 8
12.9937 -7.2371 -2.4953 0.1655 0 8
13.1089 -7.0263 -2.4953 0.1655 0 8
13.2206 -6.8137 -2.4953 0.1655 0 8
13.3289 -6.5994 -2.4953 0.1655 0 8
13.4337 -6.3833 -2.4953 0.1655 0 8
13.5351 -6.1655 -2.4953 0.1655 0 8
13.6329 -5.9462 -2.4953 0.1655 0 8
13.7271 -5.7252 -2.4953 0.1655 0 8
13.8178 -5.5028 -2.4953 0.1655 0 8
13.9048 -5.2790 -2.4953 0.1655 0 8
13.9882 -5.0538 -2.4953 0.1655 0 8
14.0680 -4.8273 -2.4953 0.1655 0 8
14.1441 -4.5995 -2.4953 0.1655 0 8
14.2166 -4.3705 -2.4953 0.1655 0 8
14.2853 -4.1403 -2.4953 0.1655 0 8
14.3503 -3.9091 -2.4953 0.1655 0 8
14.4115 -3.6769 -2.4953 0.1655 0 8
14.4690 -3.4437 -2.4953 0.1655 0 8
14.5227 -3.2096 -2.4953 0.1655 0 8
14.5727 -2.9747 -2.4953 0.1655 0 8
14.6188 -2.7390 -2.4953 0.1655 0 8
14.6611 -2.5026 -2.4953 0.1655 0 8
14.6996 -2.2655 -2.4953 0.1655 0 8
14.7343 -2.0279 -2.4953 0.1655 0 8
14.7651 -1.7897 -2.4953 0.1655 0 8
14.7921 -1.5510 -2.4953 0.1655 0 8
8.3049 -0.7354 -1.3988 0.3405 25 10
8.0940 -0.5852 -1.3615 0.3436 25 10
8.0301 -0.4504 -1.3493 0.3513 25 10
7.9795 -0.3184 -1.3398 0.3357 25 10
7.9534 -0.1888 -1.3347 0.3451 25 10
7.9372 -0.0602 -1.3317 0.3628 25 10
7.9378 0.0680 -1.3318 0.3628 25 10
7.9546 0.1966 -1.3349 0.3450 25 10
7.9832 0.3264 -1.3405 0.3356 25 10
8.0330 0.4584 -1.3499 0.3512 25 10
8.1003 0.5937 -1.3626 0.3433 25 10
8.3206 0.7451 -1.4015 0.3399 25 10
14.7906 1.5655 -2.4953 0.1655 0 8
14.7634 1.8042 -2.4953 0.1655 0 8
14.7323 2.0423 -2.4953 0.1655 0 8
14.6974 2.2799 -2.4953 0.1655 0 8
14.6587 2.5170 -2.4953 0.1655 0 8
14.6161 2.7533 -2.4953 0.1655 0 8
14.5697 2.9890 -2.4953 0.1655 0 8
14.5196 3.2239 -2.4953 0.1655 0 8
14.4656 3.4579 -2.4953 0.1655 0 8
14.4079 3.6910 -2.4953 0.1655 0 8
14.3464 3.9232 -2.4953 0.1655 0 8
14.2812 4.1544 -2.4953 0.1655 0 8
14.2123 4.3844 -2.4953 0.1655 0 8
14.1396 4.6133 -2.4953 0.1655 0 8
14.0633 4.8411 -2.4953 0.1655 0 8
13.9833 5.0675 -2.4953 0.1655 0 8
13.8996 5.2926 -2.4953 0.1655 0 8
9.3685 -10.6063 -2.4953 0.1736 0 8
9.5385 -10.4536 -2.4953 0.1736 0 8
9.7061 -10.2983 -2.4953 0.1736 0 8
9.8711 -10.1402 -2.4953 0.1736 0 8
10.0335 -9.9795 -2.4953 0.1736 0 8
10.1934 -9.8162 -2.4953 0.1736 0 8
10.3505 -9.6503 -2.4953 0.1736 0 8
10.5050 -9.4819 -2.4953 0.1736 0 8
10.6568 -9.3110 -2.4953 0.1736 0 8
10.8057 -9.1377 -2.4953 0.1736 0 8
10.9519 -8.9620 -2.4953 0.1736 0 8
11.0952 -8.7840 -2.4953 0.1736 0 8
11.2356 -8.6037 -2.4953 0.1736 0 8
11.3730 -8.4212 -2.4953 0.1736 0 8
11.5075 -8.2364 -2.4953 0.1736 0 8
11.6390 -8.0496 -2.4953 0.1736 0 8
11.7675 -7.8606 -2.4953 0.1736 0 8
11.8929 -7.6695 -2.4953 0.1736 0 8
12.0151 -7.4765 -2.4953 0.1736 0 8
12.1343 -7.2815 -2.4953 0.1736 0 8
12.2503 -7.0846 -2.4953 0.1736 0 8
12.3631 -6.8859 -2.4953 0.1736 0 8
12.4727 -6.6853 -2.4953 0.1736 0 8
12.5790 -6.4831 -2.4953 0.1736 0 8
12.6821 -6.2791 -2.4953 0.1736 0 8
12.7818 -6.0735 -2.4953 0.1736 0 8
12.8782 -5.8663 -2.4953 0.1736 0 8
12.9713 -5.6576 -2.4953 0.1736 0 8
13.0609 -5.4474 -2.4953 0.1736 0 8
13.1472 -5.2358 -2.4953 0.1736 0 8
13.2300 -5.0228 -2.4953 0.1736 0 8
13.3094 -4.8085 -2.4953 0.1736 0 8
13.3853 -4.5930 -2.4953 0.1736 0 8
13.4577 -4.3762 -2.4953 0.1736 0 8
13.5266 -4.1584 -2.4953 0.1736 0 8
13.5920 -3.9394 -2.4953 0.1736 0 8
13.6539 -3.7194 -2.4953 0.1736 0 8
13.7121 -3.4985 -2.4953 0.1736 0 8
13.7668 -3.2766 -2.4953 0.1736 0 8
13.8180 -3.0539 -2.4953 0.1736 0 8
13.8655 -2.8303 -2.4953 0.1736 0 8
13.9094 -2.6061 -2.4953 0.1736 0 8
13.9496 -2.3811 -2.4953 0.1736 0 8
13.9863 -2.1556 -2.4953 0.1736 0 8
14.0192 -1.9294 -2.4953 0.1736 0 8
14.0486 -1.7028 -2.4953 0.1736 0 8
14.0742 -1.4757 -2.4953 0.1736 0 8
8.1600 -0.7226 -1.4445 0.2659 25 10
7.9253 -0.5730 -1.4011 0.3690 25 10
7.8470 -0.4401 -1.3858 0.3406 25 10
7.7898 -0.3108 -1.3746 0.3434 25 10
7.7701 -0.1844 -1.3705 0.3700 25 10
7.7605 -0.0589 -1.3684 0.3705 25 10
7.7612 0.0665 -1.3686 0.3705 25 10
7.7707 0.1921 -1.3706 0.3699 25 10
7.7933 0.3186 -1.3753 0.3432 25 10
7.8500 0.4480 -1.3864 0.3588 25 10
7.9370 0.5817 -1.4033 0.3684 25 10
8.1794 0.7324 -1.4480 0.2653 25 10
14.0728 1.4896 -2.4953 0.1736 0 8
14.0469 1.7166 -2.4953 0.1736 0 8
14.0173 1.9432 -2.4953 0.1736 0 8
13.9841 2.1693 -2.4953 0.1736 0 8
13.9473 2.3948 -2.4953 0.1736 0 8
13.9068 2.6197 -2.4953 0.1736 0 8
13.8627 2.8439 -2.4953 0.1736 0 8
13.8149 3.0674 -2.4953 0.1736 0 8
13.7636 3.2901 -2.4953 0.1736 0 8
13.7087 3.5119 -2.4953 0.1736 0 8
13.6502 3.7328 -2.4953 0.1736 0 8
13.5881 3.9527 -2.4953 0.1736 0 8
13.5225 4.1716 -2.4953 0.1736 0 8
13.4534 4.3894 -2.4953 0.1736 0 8
13.3808 4.6061 -2.4953 0.1736 0 8
13.3047 4.8216 -2.4953 0.1736 0 8
13.2251 5.0358 -2.4953 0.1736 0 8
8.9336 -10.1140 -2.4953 0.1818 0 8
9.0958 -9.9685 -2.4953 0.1818 0 8
9.2556 -9.8203 -2.4953 0.1818 0 8
9.4129 -9.6696 -2.4953 0.1818 0 8
9.5679 -9.5163 -2.4953 0.1818 0 8
9.7203 -9.3606 -2.4953 0.1818 0 8
9.8701 -9.2024 -2.4953 0.1818 0 8
10.0175 -9.0418 -2.4953 0.1818 0 8
10.1622 -8.8789 -2.4953 0.1818 0 8
10.3042 -8.7136 -2.4953 0.1818 0 8
10.4436 -8.5461 -2.4953 0.1818 0 8
10.5802 -8.3763 -2.4953 0.1818 0 8
10.7141 -8.2044 -2.4953 0.1818 0 8
10.8452 -8.0303 -2.4953 0.1818 0 8
10.9734 -7.8542 -2.4953 0.1818 0 8
11.0988 -7.6759 -2.4953 0.1818 0 8
11.2213 -7.4957 -2.4953 0.1818 0 8
11.3409 -7.3136 -2.4953 0.1818 0 8
11.4575 -7.1295 -2.4953 0.1818 0 8
11.5711 -6.9435 -2.4953 0.1818 0 8
11.6817 -6.7558 -2.4953 0.1818 0 8
11.7893 -6.5663 -2.4953 0.1818 0 8
11.8938 -6.3750 -2.4953 0.1818 0 8
11.9952 -6.1822 -2.4953 0.1818 0 8
12.0934 -5.9877 -2.4953 0.1818 0 8
12.1886 -5.7916 -2.4953 0.1818 0 8
12.2805 -5.5940 -2.4953 0.1818 0 8
12.3692 -5.3950 -2.4953 0.1818 0 8
12.4547 -5.1946 -2.4953 0.1818 0 8
12.5370 -4.9928 -2.4953 0.1818 0 8
12.6160 -4.7897 -2.4953 0.1818 0 8
12.6917 -4.5853 -2.4953 0.1818 0 8
12.7640 -4.3798 -2.4953 0.1818 0 8
12.8331 -4.1731 -2.4953 0.1818 0 8
12.8988 -3.9654 -2.4953 0.1818 0 8
12.9612 -3.7566 -2.4953 0.1818 0 8
13.0201 -3.5468 -2.4953 0.1818 0 8
13.0757 -3.3361 -2.4953 0.1818 0 8
13.1279 -3.1245 -2.4953 0.1818 0 8
13.1766 -2.9121 -2.4953 0.1818 0 8
13.2219 -2.6990 -2.4953 0.1818 0 8
13.2638 -2.4851 -2.4953 0.1818 0 8
13.3022 -2.2706 -2.4953 0.1818 0 8
13.3371 -2.0555 -2.4953 0.1818 0 8
13.3686 -1.8399 -2.4953 0.1818 0 8
13.3965 -1.6238 -2.4953 0.1818 0 8
13.4210 -1.4073 -2.4953 0.1818 0 8
7.9774 -0.7064 -1.4809 0.3655 25 10
7.7877 -0.5631 -1.4438 0.3749 25 10
7.7103 -0.4324 -1.4279 0.9158 25 10
7.6680 -0.3060 -1.4190 0.9669 25 10
7.6539 -0.1817 -1.4157 0.9869 25 10
7.6406 -0.0579 -1.4129 0.9889 25 10
7.6414 0.0654 -1.4130 0.9888 25 10
7.6547 0.1892 -1.4159 0.9868 25 10
7.6704 0.3136 -1.4195 0.9212 25 10
7.7129 0.4402 -1.4285 0.9154 25 10
7.7990 0.5716 -1.4460 0.3743 25 10
7.9951 0.7159 -1.4843 0.2710 25 10
13.4196 1.4204 -2.4953 0.1818 0 8
13.3949 1.6369 -2.4953 0.1818 0 8
13.3667 1.8530 -2.4953 0.1818 0 8
13.3351 2.0686 -2.4953 0.1818 0 8
13.2999 2.2837 -2.4953 0.1818 0 8
13.2613 2.4981 -2.4953 0.1818 0 8
13.2193 2.7119 -2.4953 0.1818 0 8
13.1738 2.9250 -2.4953 0.1818 0 8
13.1248 3.1374 -2.4953 0.1818 0 8
13.0724 3.3489 -2.4953 0.1818 0 8
13.0166 3.5596 -2.4953 0.1818 0 8
12.9575 3.7693 -2.4953 0.1818 0 8
12.8949 3.9780 -2.4953 0.1818 0 8
12.8290 4.1857 -2.4953 0.1818 0 8
12.7597 4.3923 -2.4953 0.1818 0 8
12.6872 4.5978 -2.4953 0.1818 0 8
12.6113 4.8021 -2.4953 0.1818 0 8
8.5362 -9.6641 -2.4953 0.1900 0 8
8.6912 -9.5250 -2.4953 0.1900 0 8
8.8438 -9.3834 -2.4953 0.1900 0 8
8.9942 -9.2394 -2.4953 0.1900 0 8
9.1422 -9.0930 -2.4953 0.1900 0 8
9.2879 -8.9441 -2.4953 0.1900 0 8
9.4311 -8.7930 -2.4953 0.1900 0 8
9.5718 -8.6396 -2.4953 0.1900 0 8
9.7101 -8.4839 -2.4953 0.1900 0 8
9.8458 -8.3260 -2.4953 0.1900 0 8
9.9790 -8.1659 -2.4953 0.1900 0 8
10.1095 -8.0037 -2.4953 0.1900 0 8
10.2375 -7.8394 -2.4953 0.1900 0 8
10.3627 -7.6731 -2.4953 0.1900 0 8
10.4853 -7.5048 -2.4953 0.1900 0 8
10.6051 -7.3345 -2.4953 0.1900 0 8
10.7221 -7.1623 -2.4953 0.1900 0 8
10.8364 -6.9882 -2.4953 0.1900 0 8
10.9478 -6.8123 -2.4953 0.1900 0 8
11.0564 -6.6346 -2.4953 0.1900 0 8
11.1621 -6.4552 -2.4953 0.1900 0 8
11.2648 -6.2742 -2.4953 0.1900 0 8
11.3647 -6.0914 -2.4953 0.1900 0 8
11.4616 -5.9071 -2.4953 0.1900 0 8
11.5555 -5.7213 -2.4953 0.1900 0 8
11.6463 -5.5340 -2.4953 0.1900 0 8
11.7342 -5.3452 -2.4953 0.1900 0 8
11.8190 -5.1550 -2.4953 0.1900 0 8
11.9007 -4.9635 -2.4953 0.1900 0 8
11.9793 -4.7707 -2.4953 0.1900 0 8
12.0547 -4.5766 -2.4953 0.1900 0 8
12.1271 -4.3814 -2.4953 0.1900 0 8
12.1962 -4.1850 -2.4953 0.1900 0 8
12.2622 -3.9875 -2.4953 0.1900 0 8
12.3250 -3.7890 -2.4953 0.1900 0 8
12.3846 -3.5895 -2.4953 0.1900 0 8
12.4409 -3.3890 -2.4953 0.1900 0 8
12.4940 -3.1877 -2.4953 0.1900 0 8
12.5439 -2.9855 -2.4953 0.1900 0 8
12.5904 -2.7826 -2.4953 0.1900 0 8
12.6337 -2.5789 -2.4953 0.1900 0 8
12.6737 -2.3746 -2.4953 0.1900 0 8
12.7104 -2.1696 -2.4953 0.1900 0 8
12.7438 -1.9641 -2.4953 0.1900 0 8
12.7738 -1.7580 -2.4953 0.1900 0 8
12.8006 -1.5516 -2.4953 0.1900 0 8
8.3573 -0.8763 -1.6261 0.0221 25 10
7.8477 -0.6950 -1.5246 0.7004 25 10
7.7420 -0.5598 -1.5021 0.7109 25 10
7.6877 -0.4312 -1.4900 0.9170 25 10
7.6499 -0.3052 -1.4816 0.9676 25 10
7.6361 -0.1813 -1.4781 0.9877 25 10
7.6234 -0.0578 -1.4753 0.9968 25 10
7.6238 0.0653 -1.4754 0.9968 25 10
7.6369 0.1888 -1.4783 0.9876 25 10
7.6514 0.3128 -1.4819 0.9674 25 10
7.6903 0.4389 -1.4906 0.9167 25 10
7.7483 0.5679 -1.5035 0.7102 25 10
7.8542 0.7033 -1.5260 0.6997 25 10
12.8226 1.3572 -2.4953 0.1900 0 8
12.7990 1.5641 -2.4953 0.1900 0 8
12.7721 1.7706 -2.4953 0.1900 0 8
12.7419 1.9766 -2.4953 0.1900 0 8
12.7083 2.1821 -2.4953 0.1900 0 8
12.6714 2.3870 -2.4953 0.1900 0 8
12.6312 2.5913 -2.4953 0.1900 0 8
12.5877 2.7949 -2.4953 0.1900 0 8
12.5409 2.9978 -2.4953 0.1900 0 8
12.4909 3.1999 -2.4953 0.1900 0 8
12.4376 3.4012 -2.4953 0.1900 0 8
12.3810 3.6016 -2.4953 0.1900 0 8
12.3213 3.8011 -2.4953 0.1900 0 8
12.2583 3.9995 -2.4953 0.1900 0 8
12.1921 4.1969 -2.4953 0.1900 0 8
12.1228 4.3933 -2.4953 0.1900 0 8
12.0502 4.5884 -2.4953 0.1900 0 8
8.1715 -9.2512 -2.4953 0.1981 0 8
8.3199 -9.1181 -2.4953 0.1981 0 8
8.4660 -8.9825 -2.4953 0.1981 0 8
8.6099 -8.8447 -2.4953 0.1981 0 8
8.7516 -8.7045 -2.4953 0.1981 0 8
8.8911 -8.5620 -2.4953 0.1981 0 8
9.0282 -8.4173 -2.4953 0.1981 0 8
9.1629 -8.2705 -2.4953 0.1981 0 8
9.2952 -8.1214 -2.4953 0.1981 0 8
9.4252 -7.9703 -2.4953 0.1981 0 8
9.5526 -7.8170 -2.4953 0.1981 0 8
9.6776 -7.6618 -2.4953 0.1981 0 8
9.8001 -7.5045 -2.4953 0.1981 0 8
9.9200 -7.3453 -2.4953 0.1981 0 8
10.0373 -7.1841 -2.4953 0.1981 0 8
10.1520 -7.0211 -2.4953 0.1981 0 8
10.2640 -6.8563 -2.4953 0.1981 0 8
10.3734 -6.6897 -2.4953 0.1981 0 8
10.4801 -6.5213 -2.4953 0.1981 0 8
10.5840 -6.3512 -2.4953 0.1981 0 8
10.6852 -6.1795 -2.4953 0.1981 0 8
10.7836 -6.0061 -2.4953 0.1981 0 8
10.8792 -5.8312 -2.4953 0.1981 0 8
10.9719 -5.6548 -2.4953 0.1981 0 8
11.0618 -5.4769 -2.4953 0.1981 0 8
11.1488 -5.2975 -2.4953 0.1981 0 8
11.2329 -5.1168 -2.4953 0.1981 0 8
11.3140 -4.9348 -2.4953 0.1981 0 8
11.3922 -4.7514 -2.4953 0.1981 0 8
11.4675 -4.5669 -2.4953 0.1981 0 8
11.5397 -4.3811 -2.4953 0.1981 0 8
11.6090 -4.1942 -2.4953 0.1981 0 8
11.6752 -4.0062 -2.4953 0.1981 0 8
11.7383 -3.8171 -2.4953 0.1981 0 8
11.7985 -3.6271 -2.4953 0.1981 0 8
11.8555 -3.4361 -2.4953 0.1981 0 8
11.9094 -3.2442 -2.4953 0.1981 0 8
11.9603 -3.0515 -2.4953 0.1981 0 8
12.0080 -2.8580 -2.4953 0.1981 0 8
12.0526 -2.6637 -2.4953 0.1981 0 8
12.0940 -2.4687 -2.4953 0.1981 0 8
12.1323 -2.2731 -2.4953 0.1981 0 8
12.1674 -2.0769 -2.4953 0.1981 0 8
12.1994 -1.8802 -2.4953 0.1981 0 8
12.2281 -1.6829 -2.4953 0.1981 0 8
12.2537 -1.4853 -2.4953 0.1981 0 8
8.2253 -0.8625 -1.6719 0.1877 25 10
7.8114 -0.6917 -1.5853 0.7025 25 10
7.7144 -0.5578 -1.5636 0.8748 25 10
7.6652 -0.4299 -1.5520 0.9182 25 10
7.6318 -0.3045 -1.5440 0.9683 25 10
7.6183 -0.1808 -1.5405 0.9884 25 10
7.6083 -0.0577 -1.5381 0.9972 25 10
7.6087 0.0652 -1.5382 0.9971 25 10
7.6191 0.1883 -1.5407 0.9882 25 10
7.6333 0.3121 -1.5444 0.9681 25 10
7.6677 0.4376 -1.5526 0.9179 25 10
7.7178 0.5656 -1.5644 0.8743 25 10
7.8179 0.7000 -1.5867 0.7018 25 10
8.2659 0.8749 -1.6803 0.1868 25 10
12.2522 1.4973 -2.4953 0.1981 0 8
12.2265 1.6949 -2.4953 0.1981 0 8
12.1975 1.8921 -2.4953 0.1981 0 8
12.1654 2.0889 -2.4953 0.1981 0 8
12.1300 2.2850 -2.4953 0.1981 0 8
12.0916 2.4806 -2.4953 0.1981 0 8
12.0499 2.6755 -2.4953 0.1981 0 8
12.0052 2.8697 -2.4953 0.1981 0 8
11.9573 3.0632 -2.4953 0.1981 0 8
11.9062 3.2559 -2.4953 0.1981 0 8
11.8521 3.4477 -2.4953 0.1981 0 8
11.7949 3.6387 -2.4953 0.1981 0 8
11.7346 3.8286 -2.4953 0.1981 0 8
11.6712 4.0176 -2.4953 0.1981 0 8
11.6048 4.2056 -2.4953 0.1981 0 8
11.5354 4.3924 -2.4953 0.1981 0 8
7.8357 -8.8710 -2.4953 0.2063 0 8
7.9779 -8.7433 -2.4953 0.2063 0 8
8.1180 -8.6133 -2.4953 0.2063 0 8
8.2560 -8.4811 -2.4953 0.2063 0 8
8.3919 -8.3467 -2.4953 0.2063 0 8
8.5256 -8.2101 -2.4953 0.2063 0 8
8.6571 -8.0714 -2.4953 0.2063 0 8
8.7863 -7.9305 -2.4953 0.2063 0 8
8.9132 -7.7876 -2.4953 0.2063 0 8
9.0378 -7.6427 -2.4953 0.2063 0 8
9.1600 -7.4957 -2.4953 0.2063 0 8
9.2799 -7.3469 -2.4953 0.2063 0 8
9.3973 -7.1960 -2.4953 0.2063 0 8
9.5122 -7.0434 -2.4953 0.2063 0 8
9.6247 -6.8889 -2.4953 0.2063 0 8
9.7347 -6.7325 -2.4953 0.2063 0 8
9.8422 -6.5745 -2.4953 0.2063 0 8
9.9470 -6.4147 -2.4953 0.2063 0 8
10.0493 -6.2532 -2.4953 0.2063 0 8
10.1490 -6.0901 -2.4953 0.2063 0 8
10.2460 -5.9255 -2.4953 0.2063 0 8
10.3404 -5.7593 -2.4953 0.2063 0 8
10.4320 -5.5915 -2.4953 0.2063 0 8
10.5209 -5.4223 -2.4953 0.2063 0 8
10.6071 -5.2518 -2.4953 0.2063 0 8
10.6905 -5.0798 -2.4953 0.2063 0 8
10.7712 -4.9065 -2.4953 0.2063 0 8
10.8490 -4.7319 -2.4953 0.2063 0 8
10.9240 -4.5561 -2.4953 0.2063 0 8
10.9961 -4.3791 -2.4953 0.2063 0 8
11.0654 -4.2010 -2.4953 0.2063 0 8
11.1318 -4.0218 -2.4953 0.2063 0 8
11.1953 -3.8415 -2.4953 0.2063 0 8
11.2559 -3.6602 -2.4953 0.2063 0 8
11.3135 -3.4780 -2.4953 0.2063 0 8
11.3682 -3.2949 -2.4953 0.2063 0 8
11.4199 -3.1109 -2.4953 0.2063 0 8
11.4687 -2.9261 -2.4953 0.2063 0 8
11.5144 -2.7405 -2.4953 0.2063 0 8
11.5572 -2.5542 -2.4953 0.2063 0 8
11.5969 -2.3673 -2.4953 0.2063 0 8
11.6336 -2.1797 -2.4953 0.2063 0 8
11.6673 -1.9915 -2.4953 0.2063 0 8
11.6979 -1.8029 -2.4953 0.2063 0 8
11.7255 -1.6138 -2.4953 0.2063 0 8
11.7500 -1.4242 -2.4953 0.2063 0 8
8.1810 -0.8578 -1.7342 0.1884 25 10
7.7753 -0.6885 -1.6456 0.7045 25 10
7.6920 -0.5561 -1.6259 0.8758 25 10
7.6427 -0.4287 -1.6138 0.9194 25 10
7.6138 -0.3038 -1.6064 0.9690 25 10
7.6006 -0.1804 -1.6028 0.9890 25 10
7.5931 -0.0576 -1.6008 0.9974 25 10
7.5936 0.0650 -1.6009 0.9974 25 10
7.6014 0.1879 -1.6030 0.9888 25 10
7.6153 0.3113 -1.6068 0.9687 25 10
7.6452 0.4363 -1.6144 0.9190 25 10
7.6954 0.5640 -1.6267 0.8753 25 10
7.7817 0.6968 -1.6471 0.7039 25 10
8.2211 0.8702 -1.7429 0.1875 25 10
11.7486 1.4357 -2.4953 0.2063 0 8
11.7239 1.6253 -2.4953 0.2063 0 8
11.6962 1.8144 -2.4953 0.2063 0 8
11.6653 2.0030 -2.4953 0.2063 0 8
11.6315 2.1911 -2.4953 0.2063 0 8
11.5946 2.3786 -2.4953 0.2063 0 8
11.5546 2.5655 -2.4953 0.2063 0 8
11.5117 2.7518 -2.4953 0.2063 0 8
11.4658 2.9373 -2.4953 0.2063 0 8
11.4169 3.1221 -2.4953 0.2063 0 8
11.3649 3.3060 -2.4953 0.2063 0 8
11.3101 3.4891 -2.4953 0.2063 0 8
11.2523 3.6713 -2.4953 0.2063 0 8
11.1915 3.8525 -2.4953 0.2063 0 8
11.1279 4.0327 -2.4953 0.2063 0 8
11.0613 4.2119 -2.4953 0.2063 0 8
7.5253 -8.5196 -2.4953 0.2144 0 8
7.6618 -8.3969 -2.4953 0.2144 0 8
7.7964 -8.2721 -2.4953 0.2144 0 8
7.9290 -8.1451 -2.4953 0.2144 0 8
8.0595 -8.0161 -2.4953 0.2144 0 8
8.1879 -7.8849 -2.4953 0.2144 0 8
8.3141 -7.7516 -2.4953 0.2144 0 8
8.4382 -7.6164 -2.4953 0.2144 0 8
8.5601 -7.4791 -2.4953 0.2144 0 8
8.6797 -7.3399 -2.4953 0.2144 0 8
8.7971 -7.1988 -2.4953 0.2144 0 8
8.9122 -7.0558 -2.4953 0.2144 0 8
9.0250 -6.9110 -2.4953 0.2144 0 8
9.1354 -6.7643 -2.4953 0.2144 0 8
9.2435 -6.6160 -2.4953 0.2144 0 8
9.3491 -6.4658 -2.4953 0.2144 0 8
9.4523 -6.3140 -2.4953 0.2144 0 8
9.5530 -6.1606 -2.4953 0.2144 0 8
9.6512 -6.0055 -2.4953 0.2144 0 8
9.7469 -5.8489 -2.4953 0.2144 0 8
9.8401 -5.6907 -2.4953 0.2144 0 8
9.9307 -5.5311 -2.4953 0.2144 0 8
10.0187 -5.3700 -2.4953 0.2144 0 8
10.1042 -5.2075 -2.4953 0.2144 0 8
10.1869 -5.0437 -2.4953 0.2144 0 8
10.2670 -4.8786 -2.4953 0.2144 0 8
10.3445 -4.7121 -2.4953 0.2144 0 8
10.4192 -4.5445 -2.4953 0.2144 0 8
10.4912 -4.3756 -2.4953 0.2144 0 8
10.5605 -4.2057 -2.4953 0.2144 0 8
10.6271 -4.0346 -2.4953 0.2144 0 8
10.6908 -3.8625 -2.4953 0.2144 0 8
10.7518 -3.6893 -2.4953 0.2144 0 8
10.8100 -3.5152 -2.4953 0.2144 0 8
10.8653 -3.3402 -2.4953 0.2144 0 8
10.9178 -3.1643 -2.4953 0.2144 0 8
10.9675 -2.9876 -2.4953 0.2144 0 8
11.0143 -2.8102 -2.4953 0.2144 0 8
11.0583 -2.6319 -2.4953 0.2144 0 8
11.0993 -2.4530 -2.4953 0.2144 0 8
11.1375 -2.2735 -2.4953 0.2144 0 8
11.1727 -2.0933 -2.4953 0.2144 0 8
11.2051 -1.9127 -2.4953 0.2144 0 8
11.2345 -1.7315 -2.4953 0.2144 0 8
11.2610 -1.5498 -2.4953 0.2144 0 8
11.2846 -1.3678 -2.4953 0.2144 0 8
8.1369 -0.8532 -1.7960 0.1891 25 10
7.7395 -0.6854 -1.7056 0.7065 25 10
7.6697 -0.5545 -1.6880 0.8768 25 10
7.6203 -0.4274 -1.6754 0.9204 25 10
7.5958 -0.3031 -1.6687 0.9873 25 10
7.5849 -0.1800 -1.6655 0.9965 25 10
7.5780 -0.0575 -1.6635 0.9976 25 10
7.5785 0.0649 -1.6637 0.9976 25 10
7.5853 0.1875 -1.6656 0.9964 25 10
7.5972 0.3106 -1.6691 0.9693 25 10
