ply
format ascii 1.0
element vertex 1331
property float32 x
property float32 y
property float32 z
property float32 CosAngle
property uint32 ObjIdx
property uint32 ObjTag
end_header
-30.2053 -98.5150 -2.5697 0.0214 0 8
-28.6458 -99.0688 -2.5718 0.0213 0 8
-27.0744 -99.5907 -2.5738 0.0213 0 8
-25.4928 -100.0846 -2.5756 0.0213 0 8
-23.9018 -100.5512 -2.5775 0.0213 0 8
-22.3007 -100.9851 -2.5791 0.0213 0 8
-20.6910 -101.3888 -2.5806 0.0213 0 8
-19.0738 -101.7655 -2.5821 0.0213 0 8
-17.4486 -102.1098 -2.5834 0.0212 0 8
-15.8164 -102.4222 -2.5845 0.0212 0 8
-14.1784 -102.7064 -2.5856 0.0212 0 8
-12.5345 -102.9573 -2.5865 0.0212 0 8
-10.8858 -103.1783 -2.5874 0.0212 0 8
-9.2330 -103.3709 -2.5882 0.0212 0 8
-7.5763 -103.5287 -2.5887 0.0212 0 8
-5.9166 -103.6556 -2.5892 0.0212 0 8
-4.2548 -103.7546 -2.5896 0.0212 0 8
-2.5911 -103.8188 -2.5899 0.0212 0 8
-0.9264 -103.8516 -2.5900 0.0212 0 8
0.7387 -103.8579 -2.5901 0.0212 0 8
2.4035 -103.8279 -2.5900 0.0212 0 8
4.0674 -103.7667 -2.5898 0.0212 0 8
5.7298 -103.6769 -2.5895 0.0212 0 8
7.3899 -103.5530 -2.5890 0.0212 0 8
9.0470 -103.3977 -2.5884 0.0212 0 8
10.7007 -103.2118 -2.5877 0.0212 0 8
12.3501 -102.9944 -2.5869 0.0213 0 8
13.9946 -102.7461 -2.5860 0.0213 0 8
15.6338 -102.4673 -2.5849 0.0213 0 8
17.2668 -102.1579 -2.5838 0.0213 0 8
18.8931 -101.8177 -2.5825 0.0213 0 8
20.5120 -101.4475 -2.5811 0.0213 0 8
22.1229 -101.0469 -2.5796 0.0213 0 8
23.7252 -100.6166 -2.5780 0.0213 0 8
25.3185 -100.1569 -2.5763 0.0213 0 8
26.9019 -99.6676 -2.5745 0.0214 0 8
28.4749 -99.1489 -2.5726 0.0214 0 8
30.0370 -98.6017 -2.5705 0.0214 0 8
31.5876 -98.0259 -2.5684 0.0214 0 8
33.1260 -97.4214 -2.5661 0.0214 0 8
34.6518 -96.7892 -2.5638 0.0214 0 8
36.1645 -96.1293 -2.5613 0.0215 0 8
37.6634 -95.4417 -2.5588 0.0215 0 8
39.1480 -94.7272 -2.5561 0.0215 0 8
40.6179 -93.9863 -2.5534 0.0215 0 8
42.0725 -93.2192 -2.5505 0.0216 0 8
43.5112 -92.4258 -2.5476 0.0216 0 8
44.9337 -91.6069 -2.5446 0.0216 0 8
46.3396 -90.7630 -2.5414 0.0216 0 8
47.7282 -89.8944 -2.5382 0.0217 0 8
49.0989 -89.0011 -2.5349 0.0217 0 8
50.4518 -88.0844 -2.5315 0.0217 0 8
51.7860 -87.1440 -2.5280 0.0218 0 8
53.1013 -86.1806 -2.5244 0.0218 0 8
54.3974 -85.1948 -2.5208 0.0218 0 8
55.6736 -84.1869 -2.5170 0.0218 0 8
56.9298 -83.1574 -2.5132 0.0219 0 8
58.1654 -82.1066 -2.5093 0.0219 0 8
59.3801 -81.0352 -2.5054 0.0219 0 8
60.5738 -79.9436 -2.5013 0.0220 0 8
61.7459 -78.8323 -2.4972 0.0220 0 8
62.9527 -77.7717 -2.4953 0.0249 0 8
64.1915 -76.7525 -2.4953 0.0249 0 8
65.4137 -75.7134 -2.4953 0.0249 0 8
66.6191 -74.6551 -2.4953 0.0249 0 8
67.8075 -73.5774 -2.4953 0.0249 0 8
68.9783 -72.4809 -2.4953 0.0249 0 8
70.6137 -71.8565 -2.5124 0.7798 0 8
72.6427 -71.5883 -2.5435 0.7855 0 8
74.6406 -71.2349 -2.5731 0.8060 0 8
76.6117 -70.8043 -2.6016 0.8139 0 8
78.5546 -70.2986 -2.6289 0.8425 0 8
80.1757 -69.4670 -2.6456 0.0395 0 8
81.3439 -68.2270 -2.6477 0.0249 0 7
82.4272 -66.9141 -2.6477 0.0249 0 7
83.4894 -65.5841 -2.6477 0.0249 0 7
-39.6938 -69.0122 -2.6477 0.0332 0 7
-38.5823 -69.6397 -2.6477 0.0332 0 7
-37.4608 -70.2493 -2.6477 0.0332 0 7
-36.3298 -70.8409 -2.6477 0.0332 0 7
-35.1894 -71.4142 -2.6477 0.0332 0 7
-34.0400 -71.9692 -2.6477 0.0332 0 7
-32.8216 -72.3729 -2.6428 0.0486 0 8
-31.4986 -72.5247 -2.6296 0.9033 0 8
-30.1214 -72.5137 -2.6113 0.9096 0 8
-28.7627 -72.5028 -2.5940 0.9157 0 8
-27.4217 -72.4919 -2.5776 0.9216 0 8
-26.0971 -72.4810 -2.5620 0.9272 0 8
-24.7881 -72.4701 -2.5472 0.9325 0 8
-23.4938 -72.4592 -2.5332 0.9377 0 8
-22.2131 -72.4482 -2.5201 0.9426 0 8
-20.9453 -72.4373 -2.5077 0.9472 0 8
-19.6911 -72.4318 -2.4963 0.7034 0 8
-18.5199 -72.7092 -2.4953 0.0332 0 8
-17.3519 -72.9968 -2.4953 0.0332 0 8
-16.1794 -73.2656 -2.4953 0.0332 0 8
-15.0027 -73.5155 -2.4953 0.0332 0 8
-13.8222 -73.7466 -2.4953 0.0332 0 8
-12.6381 -73.9588 -2.4953 0.0332 0 8
-11.4508 -74.1519 -2.4953 0.0332 0 8
-10.2605 -74.3259 -2.4953 0.0332 0 8
-9.0676 -74.4809 -2.4953 0.0332 0 8
-7.8724 -74.6167 -2.4953 0.0332 0 8
-6.6751 -74.7333 -2.4953 0.0332 0 8
-5.4762 -74.8307 -2.4953 0.0332 0 8
-4.2757 -74.9089 -2.4953 0.0332 0 8
-3.0743 -74.9678 -2.4953 0.0332 0 8
-1.8720 -75.0074 -2.4953 0.0332 0 8
-0.6693 -75.0278 -2.4953 0.0332 0 8
0.5336 -75.0289 -2.4953 0.0332 0 8
1.7364 -75.0107 -2.4953 0.0332 0 8
2.9388 -74.9732 -2.4953 0.0332 0 8
4.1403 -74.9165 -2.4953 0.0332 0 8
5.3409 -74.8405 -2.4953 0.0332 0 8
6.5400 -74.7452 -2.4953 0.0332 0 8
7.7375 -74.6308 -2.4953 0.0332 0 8
8.9330 -74.4971 -2.4953 0.0332 0 8
10.1261 -74.3444 -2.4953 0.0332 0 8
11.3167 -74.1724 -2.4953 0.0332 0 8
12.5044 -73.9815 -2.4953 0.0332 0 8
13.6889 -73.7715 -2.4953 0.0332 0 8
14.8698 -73.5426 -2.4953 0.0332 0 8
16.0469 -73.2947 -2.4953 0.0332 0 8
17.2199 -73.0280 -2.4953 0.0332 0 8
18.3885 -72.7426 -2.4953 0.0332 0 8
19.5523 -72.4385 -2.4953 0.0332 0 8
20.7173 -72.1373 -2.4960 0.7028 0 8
21.9729 -72.1300 -2.5076 0.9460 0 8
23.2424 -72.1282 -2.5202 0.9413 0 8
24.5250 -72.1263 -2.5336 0.9363 0 8
25.8214 -72.1242 -2.5477 0.9312 0 8
27.1328 -72.1220 -2.5627 0.9257 0 8
28.4599 -72.1196 -2.5785 0.9200 0 8
29.8038 -72.1170 -2.5951 0.9141 0 8
31.1655 -72.1143 -2.6127 0.9080 0 8
32.5460 -72.1115 -2.6311 0.9016 0 8
33.8549 -71.9139 -2.6434 0.0486 0 8
35.0602 -71.4776 -2.6477 0.0332 0 7
36.2017 -70.9064 -2.6477 0.0332 0 7
37.3338 -70.3169 -2.6477 0.0332 0 7
38.4563 -69.7094 -2.6477 0.0332 0 6
39.5690 -69.0839 -2.6477 0.0332 0 7
40.6714 -68.4406 -2.6477 0.0332 0 7
41.7634 -67.7798 -2.6477 0.0332 0 7
42.8447 -67.1015 -2.6477 0.0332 0 7
43.9150 -66.4060 -2.6477 0.0332 0 7
44.9739 -65.6935 -2.6477 0.0332 0 7
46.0213 -64.9640 -2.6477 0.0332 0 7
47.0569 -64.2179 -2.6477 0.0332 0 7
48.0804 -63.4552 -2.6477 0.0332 0 7
49.0915 -62.6762 -2.6477 0.0332 0 7
50.0900 -61.8811 -2.6477 0.0332 0 7
51.0756 -61.0701 -2.6477 0.0332 0 7
52.0482 -60.2434 -2.6477 0.0332 0 7
53.0073 -59.4013 -2.6477 0.0332 0 7
53.9528 -58.5438 -2.6477 0.0332 0 7
54.8844 -57.6713 -2.6477 0.0332 0 7
55.8019 -56.7841 -2.6477 0.0332 0 7
53.4412 -52.6655 -2.4953 0.0332 0 8
54.2786 -51.8020 -2.4953 0.0332 0 8
55.1021 -50.9252 -2.4953 0.0332 0 8
55.9115 -50.0352 -2.4953 0.0332 0 8
56.7065 -49.1324 -2.4953 0.0332 0 8
57.4869 -48.2170 -2.4953 0.0332 0 8
58.2525 -47.2892 -2.4953 0.0332 0 8
59.0031 -46.3492 -2.4953 0.0332 0 8
-29.9210 -52.0212 -2.4953 0.0415 0 8
-29.0832 -52.4942 -2.4953 0.0415 0 8
-28.2379 -52.9537 -2.4953 0.0415 0 8
-27.3902 -53.4091 -2.4957 0.6545 0 8
-28.1457 -57.1197 -2.6477 0.0415 0 7
-27.2264 -57.5635 -2.6477 0.0415 0 7
-26.3000 -57.9926 -2.6477 0.0415 0 7
-25.3669 -58.4067 -2.6477 0.0415 0 7
-24.4273 -58.8059 -2.6477 0.0415 0 7
-23.4814 -59.1900 -2.6477 0.0415 0 7
-22.5295 -59.5588 -2.6477 0.0415 0 7
-21.5717 -59.9124 -2.6477 0.0415 0 7
-20.6085 -60.2505 -2.6477 0.0415 0 7
-19.6399 -60.5731 -2.6477 0.0415 0 7
-18.6663 -60.8802 -2.6477 0.0415 0 7
-17.6878 -61.1716 -2.6477 0.0415 0 7
-16.7049 -61.4474 -2.6477 0.0415 0 7
-15.7176 -61.7073 -2.6477 0.0415 0 7
-14.7263 -61.9513 -2.6477 0.0415 0 7
-13.7312 -62.1794 -2.6477 0.0415 0 7
-12.7326 -62.3916 -2.6477 0.0415 0 7
-11.7307 -62.5877 -2.6477 0.0415 0 7
-10.7258 -62.7677 -2.6477 0.0415 0 6
-9.7181 -62.9316 -2.6477 0.0415 0 6
-8.7080 -63.0793 -2.6477 0.0415 0 7
-7.6956 -63.2108 -2.6477 0.0415 0 7
-6.6812 -63.3261 -2.6477 0.0415 0 7
-5.6651 -63.4250 -2.6477 0.0415 0 7
-4.6476 -63.5077 -2.6477 0.0415 0 7
-3.6288 -63.5741 -2.6477 0.0415 0 7
-2.6091 -63.6241 -2.6477 0.0415 0 7
-1.5888 -63.6577 -2.6477 0.0415 0 7
-0.5680 -63.6750 -2.6477 0.0415 0 7
0.4529 -63.6759 -2.6477 0.0415 0 7
1.4737 -63.6605 -2.6477 0.0415 0 7
2.4941 -63.6287 -2.6477 0.0415 0 7
3.5138 -63.5805 -2.6477 0.0415 0 7
4.5327 -63.5160 -2.6477 0.0415 0 7
5.5504 -63.4352 -2.6477 0.0415 0 7
6.5667 -63.3380 -2.6477 0.0415 0 7
7.5813 -63.2246 -2.6477 0.0415 0 7
8.5939 -63.0950 -2.6477 0.0415 0 7
9.6043 -62.9491 -2.6477 0.0415 0 7
10.6123 -62.7870 -2.6477 0.0415 0 6
11.6170 -62.6088 -2.6477 0.0415 0 7
12.6198 -62.4145 -2.6477 0.0415 0 7
13.6188 -62.2042 -2.6477 0.0415 0 7
14.6143 -61.9778 -2.6477 0.0415 0 7
15.6060 -61.7356 -2.6477 0.0415 0 7
16.5938 -61.4774 -2.6477 0.0415 0 7
17.5772 -61.2035 -2.6477 0.0415 0 7
18.5562 -60.9139 -2.6477 0.0415 0 7
19.5303 -60.6086 -2.6477 0.0415 0 7
20.4995 -60.2877 -2.6477 0.0415 0 7
21.4634 -59.9513 -2.6477 0.0415 0 7
22.4217 -59.5995 -2.6477 0.0415 0 7
23.3743 -59.2323 -2.6477 0.0415 0 7
24.3209 -58.8500 -2.6477 0.0415 0 7
25.2613 -58.4525 -2.6477 0.0415 0 7
26.1952 -58.0400 -2.6477 0.0415 0 7
27.1223 -57.6126 -2.6477 0.0415 0 7
28.0424 -57.1704 -2.6477 0.0415 0 7
28.9554 -56.7135 -2.6477 0.0415 0 7
28.1421 -53.0047 -2.4953 0.0415 0 8
28.9882 -52.5467 -2.4953 0.0415 0 8
29.8269 -52.0752 -2.4953 0.0415 0 8
30.6580 -51.5903 -2.4953 0.0415 0 8
31.4811 -51.0922 -2.4953 0.0415 0 8
32.2962 -50.5809 -2.4953 0.0415 0 8
33.1029 -50.0566 -2.4953 0.0415 0 8
33.9012 -49.5195 -2.4953 0.0415 0 8
34.6907 -48.9696 -2.4953 0.0415 0 8
35.4713 -48.4072 -2.4953 0.0415 0 8
36.2428 -47.8323 -2.4953 0.0415 0 8
37.0050 -47.2451 -2.4953 0.0415 0 8
37.7577 -46.6458 -2.4953 0.0415 0 22
38.5006 -46.0345 -2.4953 0.0415 0 22
39.2337 -45.4113 -2.4953 0.0415 0 22
39.9567 -44.7765 -2.4953 0.0415 0 8
40.6694 -44.1301 -2.4953 0.0415 0 8
41.3717 -43.4725 -2.4953 0.0415 0 8
42.0633 -42.8036 -2.4953 0.0415 0 8
42.7441 -42.1237 -2.4953 0.0415 0 8
43.4140 -41.4331 -2.4953 0.0415 0 8
44.0726 -40.7318 -2.4953 0.0415 0 8
44.7200 -40.0199 -2.4953 0.0415 0 8
45.3558 -39.2979 -2.4953 0.0415 0 8
45.9800 -38.5656 -2.4953 0.0415 0 8
46.5924 -37.8234 -2.4953 0.0415 0 8
47.1928 -37.0717 -2.4953 0.0415 0 8
-24.9279 -43.3399 -2.4953 0.0498 0 8
-24.2298 -43.7340 -2.4953 0.0498 0 8
-23.5256 -44.1168 -2.4953 0.0498 0 8
-22.8153 -44.4883 -2.4953 0.0498 0 8
-22.0991 -44.8484 -2.4953 0.0498 0 8
-21.3773 -45.1969 -2.4953 0.0498 0 22
-20.6499 -45.5338 -2.4953 0.0498 0 22
-19.9173 -45.8590 -2.4953 0.0498 0 22
-19.1795 -46.1724 -2.4953 0.0498 0 22
-18.4368 -46.4740 -2.4953 0.0498 0 22
-17.6894 -46.7636 -2.4953 0.0498 0 22
-16.9374 -47.0412 -2.4953 0.0498 0 22
-16.1811 -47.3067 -2.4953 0.0498 0 8
-15.4206 -47.5600 -2.4953 0.0498 0 8
-14.6561 -47.8011 -2.4953 0.0498 0 8
-13.8879 -48.0299 -2.4953 0.0498 0 8
-13.1161 -48.2464 -2.4953 0.0498 0 8
-12.3409 -48.4505 -2.4953 0.0498 0 8
-11.5626 -48.6421 -2.4953 0.0498 0 8
-10.7813 -48.8212 -2.4953 0.0498 0 8
-9.9972 -48.9878 -2.4953 0.0498 0 8
-9.2106 -49.1418 -2.4953 0.0498 0 8
-8.4215 -49.2831 -2.4953 0.0498 0 8
-7.6304 -49.4118 -2.4953 0.0498 0 8
-6.8372 -49.5278 -2.4953 0.0498 0 8
-6.0423 -49.6310 -2.4953 0.0498 0 8
-5.2459 -49.7215 -2.4953 0.0498 0 8
-4.4480 -49.7992 -2.4953 0.0498 0 8
-3.6491 -49.8641 -2.4953 0.0498 0 8
-2.8492 -49.9162 -2.4953 0.0498 0 8
-2.0486 -49.9555 -2.4953 0.0498 0 8
-1.2475 -49.9819 -2.4953 0.0498 0 8
-0.4460 -49.9955 -2.4953 0.0498 0 8
0.3556 -49.9962 -2.4953 0.0498 0 8
1.1571 -49.9841 -2.4953 0.0498 0 8
1.9583 -49.9591 -2.4953 0.0498 0 8
2.7589 -49.9213 -2.4953 0.0498 0 8
3.5589 -49.8706 -2.4953 0.0498 0 8
4.3580 -49.8072 -2.4953 0.0498 0 8
5.1559 -49.7309 -2.4953 0.0498 0 8
5.9526 -49.6419 -2.4953 0.0498 0 8
6.7476 -49.5401 -2.4953 0.0498 0 8
7.5410 -49.4255 -2.4953 0.0498 0 8
8.3324 -49.2983 -2.4953 0.0498 0 8
9.1217 -49.1583 -2.4953 0.0498 0 8
9.9086 -49.0058 -2.4953 0.0498 0 8
10.6930 -48.8406 -2.4953 0.0498 0 8
11.4746 -48.6629 -2.4953 0.0498 0 8
12.2533 -48.4727 -2.4953 0.0498 0 8
13.0289 -48.2700 -2.4953 0.0498 0 8
13.8010 -48.0550 -2.4953 0.0498 0 8
14.5697 -47.8275 -2.4953 0.0498 0 8
15.3346 -47.5878 -2.4953 0.0498 0 8
16.0955 -47.3358 -2.4953 0.0498 0 8
16.8523 -47.0717 -2.4953 0.0498 0 8
17.6048 -46.7955 -2.4953 0.0498 0 22
18.3528 -46.5072 -2.4953 0.0498 0 22
19.0960 -46.2070 -2.4953 0.0498 0 22
19.8343 -45.8950 -2.4953 0.0498 0 22
20.5676 -45.5711 -2.4953 0.0498 0 22
21.2955 -45.2355 -2.4953 0.0498 0 22
22.0180 -44.8883 -2.4953 0.0498 0 8
22.7348 -44.5295 -2.4953 0.0498 0 8
23.4458 -44.1593 -2.4953 0.0498 0 8
24.1507 -43.7777 -2.4953 0.0498 0 8
24.8495 -43.3849 -2.4953 0.0498 0 8
25.5418 -42.9810 -2.4953 0.0498 0 8
26.2276 -42.5660 -2.4953 0.0498 0 8
26.9066 -42.1400 -2.4953 0.0498 0 8
27.5788 -41.7032 -2.4953 0.0498 0 8
28.2438 -41.2557 -2.4953 0.0498 0 8
28.9016 -40.7976 -2.4953 0.0498 0 8
29.5519 -40.3291 -2.4953 0.0498 0 8
30.1947 -39.8501 -2.4953 0.0498 0 8
30.8296 -39.3609 -2.4953 0.0498 0 8
31.4567 -38.8616 -2.4953 0.0498 0 8
32.0757 -38.3523 -2.4953 0.0498 0 8
32.6865 -37.8331 -2.4953 0.0498 0 8
33.2888 -37.3042 -2.4953 0.0498 0 8
33.8826 -36.7657 -2.4953 0.0498 0 8
34.4676 -36.2178 -2.4953 0.0498 0 8
35.0438 -35.6606 -2.4953 0.0498 0 8
35.6111 -35.0940 -2.4953 0.0498 0 8
36.1691 -34.5188 -2.4953 0.0498 0 8
36.7178 -33.9345 -2.4953 0.0498 0 8
37.2571 -33.3415 -2.4953 0.0498 0 8
37.7869 -32.7399 -2.4953 0.0498 0 8
38.3069 -32.1299 -2.4953 0.0498 0 8
38.8171 -31.5116 -2.4953 0.0498 0 8
39.3173 -30.8852 -2.4953 0.0498 0 8
-21.3604 -37.1374 -2.4953 0.0581 0 8
-20.7622 -37.4751 -2.4953 0.0581 0 8
-20.1587 -37.8031 -2.4953 0.0581 0 8
-19.5501 -38.1215 -2.4953 0.0581 0 8
-18.9364 -38.4300 -2.4953 0.0581 0 8
-18.3179 -38.7286 -2.4953 0.0581 0 8
-17.6946 -39.0173 -2.4953 0.0581 0 8
-17.0668 -39.2960 -2.4953 0.0581 0 8
-16.4347 -39.5646 -2.4953 0.0581 0 8
-15.7983 -39.8230 -2.4953 0.0581 0 8
-15.1578 -40.0711 -2.4953 0.0581 0 8
-14.5134 -40.3090 -2.4953 0.0581 0 8
-13.8653 -40.5365 -2.4953 0.0581 0 8
-13.2137 -40.7535 -2.4953 0.0581 0 8
-12.5586 -40.9601 -2.4953 0.0581 0 8
-11.9004 -41.1562 -2.4953 0.0581 0 8
-11.2390 -41.3417 -2.4953 0.0581 0 8
-10.5745 -41.5172 -2.4953 0.0581 0 8
-9.9078 -41.6808 -2.4953 0.0581 0 8
-9.2383 -41.8346 -2.4953 0.0581 0 8
-8.5665 -41.9765 -2.4953 0.0581 0 8
-7.8924 -42.1089 -2.4953 0.0581 0 8
-7.2163 -42.2301 -2.4953 0.0581 0 8
-6.5384 -42.3403 -2.4953 0.0581 0 8
-5.8587 -42.4397 -2.4953 0.0581 0 8
-5.1776 -42.5282 -2.4953 0.0581 0 8
-4.4951 -42.6057 -2.4953 0.0581 0 8
-3.8115 -42.6723 -2.4953 0.0581 0 8
-3.1269 -42.7279 -2.4953 0.0581 0 8
-2.4414 -42.7726 -2.4953 0.0581 0 8
-1.7554 -42.8062 -2.4953 0.0581 0 8
-1.0689 -42.8288 -2.4953 0.0581 0 8
-0.3822 -42.8405 -2.4953 0.0581 0 8
0.3047 -42.8411 -2.4953 0.0581 0 8
0.9915 -42.8307 -2.4953 0.0581 0 8
1.6780 -42.8093 -2.4953 0.0581 0 8
2.3641 -42.7769 -2.4953 0.0581 0 8
3.0496 -42.7335 -2.4953 0.0581 0 8
3.7343 -42.6791 -2.4953 0.0581 0 8
4.4180 -42.6138 -2.4953 0.0581 0 8
5.1007 -42.5375 -2.4953 0.0581 0 8
5.7820 -42.4502 -2.4953 0.0581 0 8
6.4618 -42.3521 -2.4953 0.0581 0 8
7.1399 -42.2430 -2.4953 0.0581 0 8
7.8163 -42.1231 -2.4953 0.0581 0 8
8.4906 -41.9924 -2.4953 0.0581 0 8
9.1627 -41.8509 -2.4953 0.0581 0 8
9.8325 -41.6986 -2.4953 0.0581 0 8
10.4997 -41.5356 -2.4953 0.0581 0 8
11.1643 -41.3620 -2.4953 0.0581 0 8
11.8259 -41.1777 -2.4953 0.0581 0 8
12.4846 -40.9828 -2.4953 0.0581 0 8
13.1400 -40.7774 -2.4953 0.0581 0 8
13.7920 -40.5615 -2.4953 0.0581 0 8
14.4405 -40.3351 -2.4953 0.0581 0 8
15.0853 -40.0984 -2.4953 0.0581 0 8
15.7262 -39.8514 -2.4953 0.0581 0 8
16.3631 -39.5942 -2.4953 0.0581 0 8
16.9958 -39.3268 -2.4953 0.0581 0 8
17.6241 -39.0493 -2.4953 0.0581 0 8
18.2478 -38.7617 -2.4953 0.0581 0 8
18.8669 -38.4642 -2.4953 0.0581 0 8
19.4811 -38.1568 -2.4953 0.0581 0 8
20.0904 -37.8395 -2.4953 0.0581 0 8
20.6944 -37.5126 -2.4953 0.0581 0 8
21.2932 -37.1760 -2.4953 0.0581 0 8
21.8864 -36.8298 -2.4953 0.0581 0 8
22.4741 -36.4742 -2.4953 0.0581 0 8
23.0560 -36.1092 -2.4953 0.0581 0 8
23.6319 -35.7350 -2.4953 0.0581 0 8
24.2017 -35.3515 -2.4953 0.0581 0 8
24.7654 -34.9590 -2.4953 0.0581 0 8
25.3226 -34.5574 -2.4953 0.0581 0 8
25.8734 -34.1470 -2.4953 0.0581 0 8
26.4175 -33.7278 -2.4953 0.0581 0 8
26.9548 -33.3000 -2.4953 0.0581 0 8
27.4852 -32.8636 -2.4953 0.0581 0 8
28.0086 -32.4187 -2.4953 0.0581 0 8
28.5247 -31.9655 -2.4953 0.0581 0 8
29.0335 -31.5041 -2.4953 0.0581 0 8
29.5348 -31.0346 -2.4953 0.0581 0 8
30.0286 -30.5571 -2.4953 0.0581 0 8
30.5146 -30.0717 -2.4953 0.0581 0 8
30.9928 -29.5787 -2.4953 0.0581 0 8
31.4630 -29.0780 -2.4953 0.0581 0 8
31.9252 -28.5699 -2.4953 0.0581 0 8
32.3791 -28.0544 -2.4953 0.0581 0 8
32.8247 -27.5317 -2.4953 0.0581 0 8
33.2619 -27.0019 -2.4953 0.0581 0 8
33.6905 -26.4651 -2.4953 0.0581 0 8
-18.6838 -32.4840 -2.4953 0.0664 0 8
-18.1606 -32.7793 -2.4953 0.0664 0 8
-17.6328 -33.0663 -2.4953 0.0664 0 8
-17.1004 -33.3447 -2.4953 0.0664 0 8
-16.5636 -33.6146 -2.4953 0.0664 0 8
-16.0226 -33.8758 -2.4953 0.0664 0 8
-15.4774 -34.1283 -2.4953 0.0664 0 8
-14.9283 -34.3721 -2.4953 0.0664 0 8
-14.3753 -34.6070 -2.4953 0.0664 0 8
-13.8187 -34.8330 -2.4953 0.0664 0 8
-13.2581 -35.0510 -2.4953 0.0664 0 8
-12.6948 -35.2581 -2.4953 0.0664 0 8
-12.1280 -35.4571 -2.4953 0.0664 0 8
-11.5580 -35.6470 -2.4953 0.0664 0 8
-10.9850 -35.8277 -2.4953 0.0664 0 8
-10.4092 -35.9992 -2.4953 0.0664 0 8
-9.8307 -36.1614 -2.4953 0.0664 0 8
-9.2497 -36.3144 -2.4953 0.0664 0 8
-8.6664 -36.4580 -2.4953 0.0664 0 8
-8.0807 -36.5923 -2.4953 0.0664 0 8
-7.4931 -36.7171 -2.4953 0.0664 0 8
-6.9035 -36.8325 -2.4953 0.0664 0 8
-6.3121 -36.9385 -2.4953 0.0664 0 8
-5.7191 -37.0349 -2.4953 0.0664 0 8
-5.1246 -37.1219 -2.4953 0.0664 0 8
-4.5288 -37.1992 -2.4953 0.0664 0 8
-3.9319 -37.2671 -2.4953 0.0664 0 8
-3.3339 -37.3253 -2.4953 0.0664 0 8
-2.7351 -37.3740 -2.4953 0.0664 0 8
-2.1355 -37.4130 -2.4953 0.0664 0 8
-1.5355 -37.4424 -2.4953 0.0664 0 8
-0.9350 -37.4622 -2.4953 0.0664 0 8
-0.3343 -37.4724 -2.4953 0.0664 0 8
0.2665 -37.4730 -2.4953 0.0664 0 8
0.8673 -37.4639 -2.4953 0.0664 0 8
1.4677 -37.4452 -2.4953 0.0664 0 8
2.0679 -37.4168 -2.4953 0.0664 0 8
2.6675 -37.3788 -2.4953 0.0664 0 8
3.2664 -37.3313 -2.4953 0.0664 0 8
3.8645 -37.2741 -2.4953 0.0664 0 8
4.4615 -37.2073 -2.4953 0.0664 0 8
5.0575 -37.1311 -2.4953 0.0664 0 8
5.6521 -37.0452 -2.4953 0.0664 0 8
6.2453 -36.9498 -2.4953 0.0664 0 8
6.8369 -36.8450 -2.4953 0.0664 0 8
7.4267 -36.7306 -2.4953 0.0664 0 8
8.0146 -36.6068 -2.4953 0.0664 0 8
8.6004 -36.4736 -2.4953 0.0664 0 8
9.1841 -36.3311 -2.4953 0.0664 0 8
9.7653 -36.1792 -2.4953 0.0664 0 8
10.3441 -36.0180 -2.4953 0.0664 0 8
10.9202 -35.8475 -2.4953 0.0664 0 8
11.4935 -35.6678 -2.4953 0.0664 0 8
12.0638 -35.4790 -2.4953 0.0664 0 8
12.6311 -35.2810 -2.4953 0.0664 0 8
13.1951 -35.0740 -2.4953 0.0664 0 8
13.7557 -34.8579 -2.4953 0.0664 0 8
14.3127 -34.6329 -2.4953 0.0664 0 8
14.8661 -34.3990 -2.4953 0.0664 0 8
15.4157 -34.1562 -2.4953 0.0664 0 8
15.9613 -33.9047 -2.4953 0.0664 0 8
16.5028 -33.6445 -2.4953 0.0664 0 8
17.0401 -33.3756 -2.4953 0.0664 0 8
17.5730 -33.0981 -2.4953 0.0664 0 8
18.1013 -32.8121 -2.4953 0.0664 0 8
18.6251 -32.5177 -2.4953 0.0664 0 8
19.1440 -32.2149 -2.4953 0.0664 0 8
19.6580 -31.9039 -2.4953 0.0664 0 8
20.1670 -31.5846 -2.4953 0.0664 0 8
20.6707 -31.2572 -2.4953 0.0664 0 8
21.1692 -30.9218 -2.4953 0.0664 0 8
21.6622 -30.5785 -2.4953 0.0664 0 8
22.1496 -30.2273 -2.4953 0.0664 0 8
22.6314 -29.8683 -2.4953 0.0664 0 8
23.1073 -29.5016 -2.4953 0.0664 0 8
23.5773 -29.1274 -2.4953 0.0664 0 8
24.0412 -28.7456 -2.4953 0.0664 0 8
24.4990 -28.3565 -2.4953 0.0664 0 8
24.9505 -27.9601 -2.4953 0.0664 0 8
25.3955 -27.5565 -2.4953 0.0664 0 8
25.8340 -27.1458 -2.4953 0.0664 0 8
26.2659 -26.7282 -2.4953 0.0664 0 8
26.6910 -26.3036 -2.4953 0.0664 0 8
27.1093 -25.8724 -2.4953 0.0664 0 8
27.5206 -25.4344 -2.4953 0.0664 0 8
27.9248 -24.9900 -2.4953 0.0664 0 8
28.3219 -24.5390 -2.4953 0.0664 0 8
28.7116 -24.0818 -2.4953 0.0664 0 8
29.0940 -23.6184 -2.4953 0.0664 0 8
29.4689 -23.1490 -2.4953 0.0664 0 8
-16.6013 -28.8633 -2.4953 0.0747 0 8
-16.1365 -29.1258 -2.4953 0.0747 0 8
-15.6674 -29.3807 -2.4953 0.0747 0 8
-15.1944 -29.6281 -2.4953 0.0747 0 8
-14.7175 -29.8679 -2.4953 0.0747 0 8
-14.2367 -30.1000 -2.4953 0.0747 0 8
-13.7523 -30.3244 -2.4953 0.0747 0 8
-13.2644 -30.5410 -2.4953 0.0747 0 8
-12.7731 -30.7497 -2.4953 0.0747 0 8
-12.2785 -30.9505 -2.4953 0.0747 0 8
-11.7807 -31.1434 -2.4953 0.0747 0 8
-11.2799 -31.3283 -2.4953 0.0747 0 8
-10.7762 -31.5051 -2.4953 0.0747 0 8
-10.2698 -31.6736 -2.4953 0.0747 0 8
-9.7606 -31.8344 -2.4953 0.0747 0 8
-9.2490 -31.9866 -2.4953 0.0747 0 8
-8.7350 -32.1309 -2.4953 0.0747 0 8
-8.2188 -32.2668 -2.4953 0.0747 0 8
-7.7004 -32.3944 -2.4953 0.0747 0 8
-7.1801 -32.5137 -2.4953 0.0747 0 8
-6.6579 -32.6247 -2.4953 0.0747 0 8
-6.1340 -32.7274 -2.4953 0.0747 0 8
-5.6085 -32.8214 -2.4953 0.0747 0 8
-5.0816 -32.9070 -2.4953 0.0747 0 8
-4.5534 -32.9843 -2.4953 0.0747 0 8
-4.0240 -33.0530 -2.4953 0.0747 0 8
-3.4936 -33.1133 -2.4953 0.0747 0 8
-2.9623 -33.1651 -2.4953 0.0747 0 8
-2.4302 -33.2084 -2.4953 0.0747 0 8
-1.8975 -33.2430 -2.4953 0.0747 0 8
-1.3643 -33.2691 -2.4953 0.0747 0 8
-0.8308 -33.2867 -2.4953 0.0747 0 8
-0.2970 -33.2958 -2.4953 0.0747 0 8
0.2368 -33.2963 -2.4953 0.0747 0 8
0.7706 -33.2882 -2.4953 0.0747 0 8
1.3042 -33.2716 -2.4953 0.0747 0 8
1.8374 -33.2464 -2.4953 0.0747 0 8
2.3702 -33.2126 -2.4953 0.0747 0 8
2.9023 -33.1704 -2.4953 0.0747 0 8
3.4337 -33.1196 -2.4953 0.0747 0 8
3.9643 -33.0603 -2.4953 0.0747 0 8
4.4938 -32.9925 -2.4953 0.0747 0 8
5.0221 -32.9162 -2.4953 0.0747 0 8
5.5492 -32.8314 -2.4953 0.0747 0 8
6.0748 -32.7382 -2.4953 0.0747 0 8
6.5989 -32.6366 -2.4953 0.0747 0 8
7.1213 -32.5267 -2.4953 0.0747 0 8
7.6418 -32.4083 -2.4953 0.0747 0 8
8.1604 -32.2816 -2.4953 0.0747 0 8
8.6769 -32.1467 -2.4953 0.0747 0 8
9.1912 -32.0034 -2.4953 0.0747 0 8
9.7030 -31.8520 -2.4953 0.0747 0 8
10.2125 -31.6923 -2.4953 0.0747 0 8
10.7192 -31.5245 -2.4953 0.0747 0 8
11.2232 -31.3486 -2.4953 0.0747 0 8
11.7244 -31.1647 -2.4953 0.0747 0 8
12.2225 -30.9727 -2.4953 0.0747 0 8
12.7175 -30.7728 -2.4953 0.0747 0 8
13.2092 -30.5649 -2.4953 0.0747 0 8
13.6975 -30.3492 -2.4953 0.0747 0 8
14.1823 -30.1257 -2.4953 0.0747 0 8
14.6634 -29.8945 -2.4953 0.0747 0 8
15.1408 -29.6556 -2.4953 0.0747 0 8
15.6143 -29.4090 -2.4953 0.0747 0 8
16.0838 -29.1549 -2.4953 0.0747 0 8
16.5491 -28.8933 -2.4953 0.0747 0 8
17.0102 -28.6243 -2.4953 0.0747 0 8
17.4669 -28.3479 -2.4953 0.0747 0 8
17.9192 -28.0642 -2.4953 0.0747 0 8
18.3668 -27.7733 -2.4953 0.0747 0 8
18.8097 -27.4753 -2.4953 0.0747 0 8
19.2477 -27.1702 -2.4953 0.0747 0 8
19.6808 -26.8582 -2.4953 0.0747 0 8
20.1089 -26.5392 -2.4953 0.0747 0 8
20.5318 -26.2134 -2.4953 0.0747 0 8
20.9494 -25.8809 -2.4953 0.0747 0 8
21.3616 -25.5417 -2.4953 0.0747 0 8
21.7684 -25.1959 -2.4953 0.0747 0 8
22.1695 -24.8437 -2.4953 0.0747 0 8
22.5650 -24.4851 -2.4953 0.0747 0 8
22.9546 -24.1202 -2.4953 0.0747 0 8
23.3383 -23.7491 -2.4953 0.0747 0 8
23.7161 -23.3719 -2.4953 0.0747 0 8
24.0877 -22.9886 -2.4953 0.0747 0 8
24.4532 -22.5995 -2.4953 0.0747 0 8
24.8123 -22.2046 -2.4953 0.0747 0 8
25.1651 -21.8039 -2.4953 0.0747 0 8
25.5115 -21.3977 -2.4953 0.0747 0 8
25.8512 -20.9859 -2.4953 0.0747 0 8
26.1844 -20.5688 -2.4953 0.0747 0 8
-14.9346 -25.9656 -2.4953 0.0830 0 8
-14.5164 -26.2017 -2.4953 0.0830 0 8
-14.0945 -26.4310 -2.4953 0.0830 0 8
-13.6690 -26.6536 -2.4953 0.0830 0 8
-13.2399 -26.8693 -2.4953 0.0830 0 8
-12.8074 -27.0781 -2.4953 0.0830 0 8
-12.3717 -27.2800 -2.4953 0.0830 0 8
-11.9327 -27.4748 -2.4953 0.0830 0 8
-11.4907 -27.6626 -2.4953 0.0830 0 8
-11.0458 -27.8432 -2.4953 0.0830 0 8
-10.5980 -28.0168 -2.4953 0.0830 0 8
-10.1474 -28.1831 -2.4953 0.0830 0 8
-9.6943 -28.3421 -2.4953 0.0830 0 8
-9.2387 -28.4939 -2.4953 0.0830 0 8
-8.7807 -28.6383 -2.4953 0.0830 0 8
-8.3204 -28.7754 -2.4953 0.0830 0 8
-7.8581 -28.9051 -2.4953 0.0830 0 8
-7.3936 -29.0274 -2.4953 0.0830 0 8
-6.9273 -29.1422 -2.4953 0.0830 0 8
-6.4592 -29.2495 -2.4953 0.0830 0 8
-5.9895 -29.3493 -2.4953 0.0830 0 8
-5.5182 -29.4416 -2.4953 0.0830 0 8
-5.0455 -29.5262 -2.4953 0.0830 0 8
-4.5715 -29.6033 -2.4953 0.0830 0 8
-4.0963 -29.6728 -2.4953 0.0830 0 8
-3.6200 -29.7347 -2.4953 0.0830 0 8
-3.1429 -29.7889 -2.4953 0.0830 0 8
-2.6649 -29.8354 -2.4953 0.0830 0 8
-2.1862 -29.8743 -2.4953 0.0830 0 8
-1.7070 -29.9055 -2.4953 0.0830 0 8
-1.2273 -29.9291 -2.4953 0.0830 0 8
-0.7474 -29.9449 -2.4953 0.0830 0 8
-0.2672 -29.9530 -2.4953 0.0830 0 8
0.2130 -29.9535 -2.4953 0.0830 0 8
0.6932 -29.9462 -2.4953 0.0830 0 8
1.1732 -29.9312 -2.4953 0.0830 0 8
1.6529 -29.9086 -2.4953 0.0830 0 8
2.1322 -29.8782 -2.4953 0.0830 0 8
2.6109 -29.8402 -2.4953 0.0830 0 8
3.0890 -29.7945 -2.4953 0.0830 0 8
3.5663 -29.7412 -2.4953 0.0830 0 8
4.0426 -29.6803 -2.4953 0.0830 0 8
4.5179 -29.6115 -2.4953 0.0830 0 8
4.9921 -29.5353 -2.4953 0.0830 0 8
5.4649 -29.4515 -2.4953 0.0830 0 8
5.9364 -29.3601 -2.4953 0.0830 0 8
6.4063 -29.2611 -2.4953 0.0830 0 8
6.8746 -29.1548 -2.4953 0.0830 0 8
7.3412 -29.0407 -2.4953 0.0830 0 8
7.8058 -28.9193 -2.4953 0.0830 0 8
8.2684 -28.7904 -2.4953 0.0830 0 8
8.7289 -28.6542 -2.4953 0.0830 0 8
9.1872 -28.5105 -2.4953 0.0830 0 8
9.6431 -28.3596 -2.4953 0.0830 0 8
10.0965 -28.2014 -2.4953 0.0830 0 8
10.5473 -28.0359 -2.4953 0.0830 0 8
10.9954 -27.8632 -2.4953 0.0830 0 8
11.4407 -27.6833 -2.4953 0.0830 0 8
11.8830 -27.4963 -2.4953 0.0830 0 8
12.3223 -27.3023 -2.4953 0.0830 0 8
12.7584 -27.1012 -2.4953 0.0830 0 8
13.1913 -26.8932 -2.4953 0.0830 0 8
13.6207 -26.6783 -2.4953 0.0830 0 8
14.0467 -26.4565 -2.4953 0.0830 0 8
14.4691 -26.2284 -2.4953 0.0830 0 8
14.8877 -25.9925 -2.4953 0.0830 0 8
15.3025 -25.7505 -2.4953 0.0830 0 8
15.7133 -25.5019 -2.4953 0.0830 0 8
16.1202 -25.2467 -2.4953 0.0830 0 8
16.5228 -24.9850 -2.4953 0.0830 0 8
16.9213 -24.7169 -2.4953 0.0830 0 8
17.3154 -24.4425 -2.4953 0.0830 0 8
17.7050 -24.1617 -2.4953 0.0830 0 8
18.0901 -23.8748 -2.4953 0.0830 0 8
18.4705 -23.5817 -2.4953 0.0830 0 8
18.8462 -23.2825 -2.4953 0.0830 0 8
19.2170 -22.9774 -2.4953 0.0830 0 8
19.5829 -22.6664 -2.4953 0.0830 0 8
19.9438 -22.3495 -2.4953 0.0830 0 8
20.2995 -22.0269 -2.4953 0.0830 0 8
20.6501 -21.6986 -2.4953 0.0830 0 8
20.9953 -21.3648 -2.4953 0.0830 0 8
21.3351 -21.0254 -2.4953 0.0830 0 8
21.6694 -20.6807 -2.4953 0.0830 0 8
21.9982 -20.3306 -2.4953 0.0830 0 8
22.3213 -19.9754 -2.4953 0.0830 0 8
22.6387 -19.6149 -2.4953 0.0830 0 8
22.9502 -19.2495 -2.4953 0.0830 0 8
23.2559 -18.8790 -2.4953 0.0830 0 8
23.5556 -18.5038 -2.4953 0.0830 0 8
-13.5704 -23.5936 -2.4953 0.0913 0 8
-13.1904 -23.8082 -2.4953 0.0913 0 8
-12.8070 -24.0166 -2.4953 0.0913 0 8
-12.4203 -24.2188 -2.4953 0.0913 0 8
-12.0304 -24.4148 -2.4953 0.0913 0 8
-11.6375 -24.6046 -2.4953 0.0913 0 8
-11.2415 -24.7884 -2.4953 0.0913 0 8
-10.8427 -24.9650 -2.4953 0.0913 0 8
-10.4411 -25.1356 -2.4953 0.0913 0 8
-10.0367 -25.2998 -2.4953 0.0913 0 8
-9.6299 -25.4572 -2.4953 0.0913 0 8
-9.2205 -25.6085 -2.4953 0.0913 0 8
-8.8087 -25.7531 -2.4953 0.0913 0 8
-8.3947 -25.8910 -2.4953 0.0913 0 8
-7.9786 -26.0222 -2.4953 0.0913 0 8
-7.5604 -26.1468 -2.4953 0.0913 0 8
-7.1402 -26.2647 -2.4953 0.0913 0 8
-6.7182 -26.3757 -2.4953 0.0913 0 8
-6.2945 -26.4801 -2.4953 0.0913 0 8
-5.8692 -26.5776 -2.4953 0.0913 0 8
-5.4423 -26.6683 -2.4953 0.0913 0 8
-5.0141 -26.7521 -2.4953 0.0913 0 8
-4.5846 -26.8290 -2.4953 0.0913 0 8
-4.1539 -26.8991 -2.4953 0.0913 0 8
-3.7221 -26.9622 -2.4953 0.0913 0 8
-3.2894 -27.0184 -2.4953 0.0913 0 8
-2.8558 -27.0678 -2.4953 0.0913 0 8
-2.4214 -27.1100 -2.4953 0.0913 0 8
-1.9865 -27.1453 -2.4953 0.0913 0 8
-1.5511 -27.1737 -2.4953 0.0913 0 8
-1.1152 -27.1951 -2.4953 0.0913 0 8
-0.6791 -27.2094 -2.4953 0.0913 0 8
-0.2428 -27.2168 -2.4953 0.0913 0 8
0.1936 -27.2172 -2.4953 0.0913 0 8
0.6299 -27.2106 -2.4953 0.0913 0 8
1.0661 -27.1970 -2.4953 0.0913 0 8
1.5019 -27.1764 -2.4953 0.0913 0 8
1.9374 -27.1489 -2.4953 0.0913 0 8
2.3724 -27.1143 -2.4953 0.0913 0 8
2.8068 -27.0728 -2.4953 0.0913 0 8
3.2405 -27.0243 -2.4953 0.0913 0 8
3.6733 -26.9689 -2.4953 0.0913 0 8
4.1052 -26.9065 -2.4953 0.0913 0 8
4.5360 -26.8373 -2.4953 0.0913 0 8
4.9657 -26.7611 -2.4953 0.0913 0 8
5.3941 -26.6780 -2.4953 0.0913 0 8
5.8211 -26.5881 -2.4953 0.0913 0 8
6.2466 -26.4914 -2.4953 0.0913 0 8
6.6705 -26.3878 -2.4953 0.0913 0 8
7.0927 -26.2775 -2.4953 0.0913 0 8
7.5131 -26.1604 -2.4953 0.0913 0 8
7.9315 -26.0366 -2.4953 0.0913 0 8
8.3479 -25.9061 -2.4953 0.0913 0 8
8.7622 -25.7690 -2.4953 0.0913 0 8
9.1742 -25.6252 -2.4953 0.0913 0 8
9.5838 -25.4748 -2.4953 0.0913 0 8
9.9910 -25.3179 -2.4953 0.0913 0 8
10.3956 -25.1545 -2.4953 0.0913 0 8
10.7975 -24.9846 -2.4953 0.0913 0 8
11.1967 -24.8082 -2.4953 0.0913 0 8
11.5930 -24.6256 -2.4953 0.0913 0 8
11.9863 -24.4365 -2.4953 0.0913 0 8
12.3765 -24.2412 -2.4953 0.0913 0 8
12.7635 -24.0397 -2.4953 0.0913 0 8
13.1473 -23.8320 -2.4953 0.0913 0 8
13.5277 -23.6181 -2.4953 0.0913 0 8
13.9046 -23.3982 -2.4953 0.0913 0 8
14.2780 -23.1728 -2.4953 0.0913 0 8
14.6476 -22.9404 -2.4953 0.0913 0 8
15.0135 -22.7026 -2.4953 0.0913 0 8
15.3755 -22.4590 -2.4953 0.0913 0 8
15.7336 -22.2096 -2.4953 0.0913 0 8
16.0876 -21.9546 -2.4953 0.0913 0 8
16.4375 -21.6938 -2.4953 0.0913 0 8
16.7832 -21.4275 -2.4953 0.0913 0 8
17.1246 -21.1557 -2.4953 0.0913 0 8
17.4615 -20.8784 -2.4953 0.0913 0 8
17.7940 -20.5958 -2.4953 0.0913 0 8
18.1219 -20.3079 -2.4953 0.0913 0 8
18.4452 -20.0147 -2.4953 0.0913 0 8
18.7637 -19.7165 -2.4953 0.0913 0 8
19.0773 -19.4131 -2.4953 0.0913 0 8
19.3862 -19.1048 -2.4953 0.0913 0 8
19.6899 -18.7915 -2.4953 0.0913 0 8
19.9887 -18.4734 -2.4953 0.0913 0 8
20.2823 -18.1506 -2.4953 0.0913 0 8
20.5706 -17.8231 -2.4953 0.0913 0 8
20.8537 -17.4910 -2.4953 0.0913 0 8
21.1315 -17.1545 -2.4953 0.0913 0 8
21.4038 -16.8135 -2.4953 0.0913 0 8
-12.4329 -21.6160 -2.4953 0.0996 0 8
-12.0848 -21.8126 -2.4953 0.0996 0 8
-11.7335 -22.0035 -2.4953 0.0996 0 8
-11.3792 -22.1888 -2.4953 0.0996 0 8
-11.0220 -22.3684 -2.4953 0.0996 0 8
-10.6620 -22.5422 -2.4953 0.0996 0 8
-10.2993 -22.7102 -2.4953 0.0996 0 8
-9.9338 -22.8724 -2.4953 0.0996 0 8
-9.5659 -23.0287 -2.4953 0.0996 0 8
-9.1955 -23.1791 -2.4953 0.0996 0 8
-8.8227 -23.3236 -2.4953 0.0996 0 8
-8.4476 -23.4620 -2.4953 0.0996 0 8
-8.0704 -23.5944 -2.4953 0.0996 0 8
-7.6911 -23.7208 -2.4953 0.0996 0 8
-7.3098 -23.8410 -2.4953 0.0996 0 8
-6.9267 -23.9552 -2.4953 0.0996 0 8
-6.5417 -24.0631 -2.4953 0.0996 0 8
-6.1551 -24.1649 -2.4953 0.0996 0 8
-5.7669 -24.2605 -2.4953 0.0996 0 8
-5.3772 -24.3498 -2.4953 0.0996 0 8
-4.9862 -24.4329 -2.4953 0.0996 0 8
-4.5938 -24.5097 -2.4953 0.0996 0 8
-4.2003 -24.5802 -2.4953 0.0996 0 8
-3.8057 -24.6444 -2.4953 0.0996 0 8
-3.4101 -24.7022 -2.4953 0.0996 0 8
-3.0136 -24.7537 -2.4953 0.0996 0 8
-2.6164 -24.7989 -2.4953 0.0996 0 8
-2.2185 -24.8376 -2.4953 0.0996 0 8
-1.8200 -24.8700 -2.4953 0.0996 0 8
-1.4211 -24.8960 -2.4953 0.0996 0 8
-1.0217 -24.9156 -2.4953 0.0996 0 8
-0.6222 -24.9287 -2.4953 0.0996 0 8
-0.2224 -24.9355 -2.4953 0.0996 0 8
0.1774 -24.9359 -2.4953 0.0996 0 8
0.5771 -24.9298 -2.4953 0.0996 0 8
0.9767 -24.9174 -2.4953 0.0996 0 8
1.3760 -24.8985 -2.4953 0.0996 0 8
1.7750 -24.8732 -2.4953 0.0996 0 8
2.1736 -24.8416 -2.4953 0.0996 0 8
2.5716 -24.8036 -2.4953 0.0996 0 8
2.9689 -24.7591 -2.4953 0.0996 0 8
3.3654 -24.7084 -2.4953 0.0996 0 8
3.7611 -24.6512 -2.4953 0.0996 0 8
4.1558 -24.5878 -2.4953 0.0996 0 8
4.5495 -24.5180 -2.4953 0.0996 0 8
4.9420 -24.4419 -2.4953 0.0996 0 8
5.3332 -24.3595 -2.4953 0.0996 0 8
5.7230 -24.2709 -2.4953 0.0996 0 8
6.1114 -24.1760 -2.4953 0.0996 0 8
6.4982 -24.0749 -2.4953 0.0996 0 8
6.8833 -23.9676 -2.4953 0.0996 0 8
7.2667 -23.8542 -2.4953 0.0996 0 8
7.6482 -23.7347 -2.4953 0.0996 0 8
8.0277 -23.6090 -2.4953 0.0996 0 8
8.4052 -23.4773 -2.4953 0.0996 0 8
8.7805 -23.3395 -2.4953 0.0996 0 8
9.1535 -23.1957 -2.4953 0.0996 0 8
9.5242 -23.0460 -2.4953 0.0996 0 8
9.8925 -22.8903 -2.4953 0.0996 0 8
10.2582 -22.7288 -2.4953 0.0996 0 8
10.6212 -22.5614 -2.4953 0.0996 0 8
10.9816 -22.3883 -2.4953 0.0996 0 8
11.3391 -22.2093 -2.4953 0.0996 0 8
11.6937 -22.0247 -2.4953 0.0996 0 8
12.0453 -21.8344 -2.4953 0.0996 0 8
12.3938 -21.6385 -2.4953 0.0996 0 8
12.7391 -21.4370 -2.4953 0.0996 0 8
13.0811 -21.2300 -2.4953 0.0996 0 8
13.4198 -21.0176 -2.4953 0.0996 0 8
13.7551 -20.7997 -2.4953 0.0996 0 8
14.0867 -20.5765 -2.4953 0.0996 0 8
14.4148 -20.3480 -2.4953 0.0996 0 8
14.7392 -20.1143 -2.4953 0.0996 0 8
15.0597 -19.8754 -2.4953 0.0996 0 8
15.3764 -19.6315 -2.4953 0.0996 0 8
15.6892 -19.3824 -2.4953 0.0996 0 8
15.9979 -19.1284 -2.4953 0.0996 0 8
16.3025 -18.8695 -2.4953 0.0996 0 8
16.6029 -18.6057 -2.4953 0.0996 0 8
16.8991 -18.3371 -2.4953 0.0996 0 8
17.1909 -18.0638 -2.4953 0.0996 0 8
17.4783 -17.7859 -2.4953 0.0996 0 8
17.7612 -17.5034 -2.4953 0.0996 0 8
18.0395 -17.2164 -2.4953 0.0996 0 8
18.3132 -16.9250 -2.4953 0.0996 0 8
18.5822 -16.6292 -2.4953 0.0996 0 8
18.8464 -16.3292 -2.4953 0.0996 0 8
19.1058 -16.0249 -2.4953 0.0996 0 8
19.3602 -15.7166 -2.4953 0.0996 0 8
19.6097 -15.4042 -2.4953 0.0996 0 8
-11.4699 -19.9417 -2.4953 0.1078 0 8
-11.1487 -20.1230 -2.4953 0.1078 0 8
-10.8246 -20.2991 -2.4953 0.1078 0 8
-10.4978 -20.4701 -2.4953 0.1078 0 8
-10.1683 -20.6357 -2.4953 0.1078 0 8
-9.8362 -20.7961 -2.4953 0.1078 0 8
-9.5015 -20.9511 -2.4953 0.1078 0 8
-9.1644 -21.1008 -2.4953 0.1078 0 8
-8.8249 -21.2450 -2.4953 0.1078 0 8
-8.4832 -21.3837 -2.4953 0.1078 0 8
-8.1393 -21.5170 -2.4953 0.1078 0 8
-7.7933 -21.6447 -2.4953 0.1078 0 8
-7.4453 -21.7669 -2.4953 0.1078 0 8
-7.0954 -21.8834 -2.4953 0.1078 0 8
-6.7436 -21.9945 -2.4953 0.1078 0 8
-6.3901 -22.0996 -2.4953 0.1078 0 8
-6.0350 -22.1992 -2.4953 0.1078 0 8
-5.6783 -22.2931 -2.4953 0.1078 0 8
-5.3202 -22.3813 -2.4953 0.1078 0 8
-4.9607 -22.4637 -2.4953 0.1078 0 8
-4.5999 -22.5404 -2.4953 0.1078 0 8
-4.2380 -22.6112 -2.4953 0.1078 0 8
-3.8749 -22.6763 -2.4953 0.1078 0 8
-3.5109 -22.7355 -2.4953 0.1078 0 8
-3.1459 -22.7888 -2.4953 0.1078 0 8
-2.7802 -22.8363 -2.4953 0.1078 0 8
-2.4137 -22.8780 -2.4953 0.1078 0 8
-2.0466 -22.9137 -2.4953 0.1078 0 8
-1.6790 -22.9436 -2.4953 0.1078 0 8
-1.3110 -22.9676 -2.4953 0.1078 0 8
-0.9426 -22.9856 -2.4953 0.1078 0 8
-0.5740 -22.9978 -2.4953 0.1078 0 8
-0.2052 -23.0040 -2.4953 0.1078 0 8
0.1636 -23.0044 -2.4953 0.1078 0 8
0.5324 -22.9988 -2.4953 0.1078 0 8
0.9010 -22.9873 -2.4953 0.1078 0 8
1.2695 -22.9699 -2.4953 0.1078 0 8
1.6375 -22.9466 -2.4953 0.1078 0 8
2.0052 -22.9174 -2.4953 0.1078 0 8
2.3724 -22.8823 -2.4953 0.1078 0 8
2.7389 -22.8413 -2.4953 0.1078 0 8
3.1047 -22.7945 -2.4953 0.1078 0 8
3.4698 -22.7418 -2.4953 0.1078 0 8
3.8339 -22.6832 -2.4953 0.1078 0 8
4.1971 -22.6188 -2.4953 0.1078 0 8
4.5592 -22.5487 -2.4953 0.1078 0 8
4.9201 -22.4727 -2.4953 0.1078 0 8
5.2797 -22.3909 -2.4953 0.1078 0 8
5.6380 -22.3034 -2.4953 0.1078 0 8
5.9949 -22.2101 -2.4953 0.1078 0 8
6.3502 -22.1112 -2.4953 0.1078 0 8
6.7038 -22.0065 -2.4953 0.1078 0 8
7.0558 -21.8962 -2.4953 0.1078 0 8
7.4059 -21.7803 -2.4953 0.1078 0 8
7.7541 -21.6587 -2.4953 0.1078 0 8
8.1004 -21.5317 -2.4953 0.1078 0 8
8.4445 -21.3990 -2.4953 0.1078 0 8
8.7865 -21.2609 -2.4953 0.1078 0 8
9.1262 -21.1173 -2.4953 0.1078 0 8
9.4636 -20.9683 -2.4953 0.1078 0 8
9.7985 -20.8139 -2.4953 0.1078 0 8
10.1310 -20.6541 -2.4953 0.1078 0 8
10.4608 -20.4890 -2.4953 0.1078 0 8
10.7879 -20.3187 -2.4953 0.1078 0 8
11.1123 -20.1431 -2.4953 0.1078 0 8
11.4338 -19.9624 -2.4953 0.1078 0 8
11.7524 -19.7765 -2.4953 0.1078 0 8
12.0679 -19.5855 -2.4953 0.1078 0 8
12.3803 -19.3896 -2.4953 0.1078 0 8
12.6896 -19.1886 -2.4953 0.1078 0 8
12.9956 -18.9827 -2.4953 0.1078 0 8
13.2983 -18.7719 -2.4953 0.1078 0 8
13.5975 -18.5563 -2.4953 0.1078 0 8
13.8932 -18.3359 -2.4953 0.1078 0 8
14.1854 -18.1108 -2.4953 0.1078 0 8
14.4739 -17.8811 -2.4953 0.1078 0 8
14.7587 -17.6467 -2.4953 0.1078 0 8
15.0398 -17.4079 -2.4953 0.1078 0 8
15.3169 -17.1645 -2.4953 0.1078 0 8
15.5901 -16.9167 -2.4953 0.1078 0 8
15.8593 -16.6646 -2.4953 0.1078 0 8
16.1244 -16.4082 -2.4953 0.1078 0 8
16.3854 -16.1476 -2.4953 0.1078 0 8
16.6422 -15.8829 -2.4953 0.1078 0 8
16.8947 -15.6140 -2.4953 0.1078 0 8
17.1428 -15.3412 -2.4953 0.1078 0 8
17.3866 -15.0643 -2.4953 0.1078 0 8
17.6259 -14.7837 -2.4953 0.1078 0 8
17.8606 -14.4992 -2.4953 0.1078 0 8
18.0908 -14.2110 -2.4953 0.1078 0 8
-10.6439 -18.5057 -2.4953 0.1161 0 8
-10.3459 -18.6740 -2.4953 0.1161 0 8
-10.0452 -18.8374 -2.4953 0.1161 0 8
-9.7419 -18.9960 -2.4953 0.1161 0 8
-9.4361 -19.1498 -2.4953 0.1161 0 8
-9.1279 -19.2986 -2.4953 0.1161 0 8
-8.8173 -19.4425 -2.4953 0.1161 0 8
-8.5045 -19.5813 -2.4953 0.1161 0 8
-8.1894 -19.7151 -2.4953 0.1161 0 8
-7.8723 -19.8439 -2.4953 0.1161 0 8
-7.5532 -19.9676 -2.4953 0.1161 0 8
-7.2321 -20.0861 -2.4953 0.1161 0 8
-6.9091 -20.1995 -2.4953 0.1161 0 8
-6.5844 -20.3076 -2.4953 0.1161 0 8
-6.2580 -20.4106 -2.4953 0.1161 0 8
-5.9300 -20.5083 -2.4953 0.1161 0 8
-5.6004 -20.6007 -2.4953 0.1161 0 8
-5.2695 -20.6878 -2.4953 0.1161 0 8
-4.9371 -20.7697 -2.4953 0.1161 0 8
-4.6035 -20.8461 -2.4953 0.1161 0 8
-4.2687 -20.9173 -2.4953 0.1161 0 8
-3.9328 -20.9830 -2.4953 0.1161 0 8
-3.5959 -21.0434 -2.4953 0.1161 0 8
-3.2581 -21.0983 -2.4953 0.1161 0 8
-2.9194 -21.1478 -2.4953 0.1161 0 8
-2.5800 -21.1919 -2.4953 0.1161 0 8
-2.2399 -21.2306 -2.4953 0.1161 0 8
-1.8993 -21.2637 -2.4953 0.1161 0 8
-1.5581 -21.2915 -2.4953 0.1161 0 8
-1.2166 -21.3137 -2.4953 0.1161 0 8
-0.8747 -21.3305 -2.4953 0.1161 0 8
-0.5327 -21.3418 -2.4953 0.1161 0 8
-0.1904 -21.3476 -2.4953 0.1161 0 8
0.1518 -21.3479 -2.4953 0.1161 0 8
0.4941 -21.3427 -2.4953 0.1161 0 8
0.8362 -21.3320 -2.4953 0.1161 0 8
1.1780 -21.3159 -2.4953 0.1161 0 8
1.5196 -21.2943 -2.4953 0.1161 0 8
1.8608 -21.2671 -2.4953 0.1161 0 8
2.2015 -21.2346 -2.4953 0.1161 0 8
2.5417 -21.1966 -2.4953 0.1161 0 8
2.8812 -21.1531 -2.4953 0.1161 0 8
3.2199 -21.1042 -2.4953 0.1161 0 8
3.5579 -21.0499 -2.4953 0.1161 0 8
3.8949 -20.9901 -2.4953 0.1161 0 8
4.2309 -20.9250 -2.4953 0.1161 0 8
4.5658 -20.8544 -2.4953 0.1161 0 8
4.8996 -20.7786 -2.4953 0.1161 0 8
5.2320 -20.6973 -2.4953 0.1161 0 8
5.5632 -20.6108 -2.4953 0.1161 0 8
5.8929 -20.5190 -2.4953 0.1161 0 8
6.2211 -20.4219 -2.4953 0.1161 0 8
6.5477 -20.3196 -2.4953 0.1161 0 8
6.8726 -20.2119 -2.4953 0.1161 0 8
7.1958 -20.0991 -2.4953 0.1161 0 8
7.5171 -19.9812 -2.4953 0.1161 0 8
7.8364 -19.8581 -2.4953 0.1161 0 8
8.1538 -19.7299 -2.4953 0.1161 0 8
8.4690 -19.5967 -2.4953 0.1161 0 8
8.7821 -19.4584 -2.4953 0.1161 0 8
9.0930 -19.3151 -2.4953 0.1161 0 8
9.4014 -19.1668 -2.4953 0.1161 0 8
9.7075 -19.0136 -2.4953 0.1161 0 8
10.0111 -18.8556 -2.4953 0.1161 0 8
10.3121 -18.6926 -2.4953 0.1161 0 8
10.6105 -18.5249 -2.4953 0.1161 0 8
10.9061 -18.3524 -2.4953 0.1161 0 8
11.1989 -18.1752 -2.4953 0.1161 0 8
11.4889 -17.9933 -2.4953 0.1161 0 8
11.7758 -17.8068 -2.4953 0.1161 0 8
12.0598 -17.6158 -2.4953 0.1161 0 8
12.3407 -17.4202 -2.4953 0.1161 0 8
12.6184 -17.2201 -2.4953 0.1161 0 8
12.8928 -17.0156 -2.4953 0.1161 0 8
13.1639 -16.8067 -2.4953 0.1161 0 8
13.4317 -16.5935 -2.4953 0.1161 0 8
13.6960 -16.3760 -2.4953 0.1161 0 8
13.9568 -16.1543 -2.4953 0.1161 0 8
14.2140 -15.9285 -2.4953 0.1161 0 8
14.4675 -15.6986 -2.4953 0.1161 0 8
14.7173 -15.4646 -2.4953 0.1161 0 8
14.9633 -15.2267 -2.4953 0.1161 0 8
15.2055 -14.9848 -2.4953 0.1161 0 8
15.4438 -14.7391 -2.4953 0.1161 0 8
15.6781 -14.4897 -2.4953 0.1161 0 8
15.9084 -14.2365 -2.4953 0.1161 0 8
16.1346 -13.9796 -2.4953 0.1161 0 8
16.3567 -13.7191 -2.4953 0.1161 0 8
16.5745 -13.4551 -2.4953 0.1161 0 8
16.7881 -13.1877 -2.4953 0.1161 0 8
-9.9277 -17.2604 -2.4953 0.1243 0 8
-9.6497 -17.4173 -2.4953 0.1243 0 8
-9.3692 -17.5698 -2.4953 0.1243 0 8
-9.0863 -17.7177 -2.4953 0.1243 0 8
-8.8011 -17.8611 -2.4953 0.1243 0 8
-8.5136 -17.9999 -2.4953 0.1243 0 8
-8.2240 -18.1341 -2.4953 0.1243 0 8
-7.9322 -18.2636 -2.4953 0.1243 0 8
-7.6383 -18.3885 -2.4953 0.1243 0 8
-7.3426 -18.5085 -2.4953 0.1243 0 8
-7.0449 -18.6239 -2.4953 0.1243 0 8
-6.7454 -18.7344 -2.4953 0.1243 0 8
-6.4442 -18.8402 -2.4953 0.1243 0 8
-6.1413 -18.9411 -2.4953 0.1243 0 8
-5.8369 -19.0371 -2.4953 0.1243 0 8
-5.5309 -19.1282 -2.4953 0.1243 0 8
-5.2236 -19.2144 -2.4953 0.1243 0 8
-4.9149 -19.2957 -2.4953 0.1243 0 8
-4.6049 -19.3720 -2.4953 0.1243 0 8
-4.2937 -19.4433 -2.4953 0.1243 0 8
-3.9815 -19.5097 -2.4953 0.1243 0 8
-3.6682 -19.5710 -2.4953 0.1243 0 8
-3.3539 -19.6273 -2.4953 0.1243 0 8
-3.0388 -19.6785 -2.4953 0.1243 0 8
-2.7230 -19.7247 -2.4953 0.1243 0 8
-2.4064 -19.7659 -2.4953 0.1243 0 8
-2.0892 -19.8019 -2.4953 0.1243 0 8
-1.7715 -19.8328 -2.4953 0.1243 0 8
-1.4533 -19.8587 -2.4953 0.1243 0 8
-1.1347 -19.8794 -2.4953 0.1243 0 8
-0.8159 -19.8951 -2.4953 0.1243 0 8
-0.4968 -19.9056 -2.4953 0.1243 0 8
-0.1776 -19.9110 -2.4953 0.1243 0 8
0.1416 -19.9113 -2.4953 0.1243 0 8
0.4608 -19.9065 -2.4953 0.1243 0 8
0.7799 -19.8965 -2.4953 0.1243 0 8
1.0988 -19.8815 -2.4953 0.1243 0 8
1.4174 -19.8613 -2.4953 0.1243 0 8
1.7356 -19.8360 -2.4953 0.1243 0 8
2.0534 -19.8056 -2.4953 0.1243 0 8
2.3706 -19.7702 -2.4953 0.1243 0 8
2.6873 -19.7296 -2.4953 0.1243 0 8
3.0033 -19.6840 -2.4953 0.1243 0 8
3.3184 -19.6333 -2.4953 0.1243 0 8
3.6328 -19.5776 -2.4953 0.1243 0 8
3.9462 -19.5168 -2.4953 0.1243 0 8
4.2586 -19.4511 -2.4953 0.1243 0 8
4.5698 -19.3803 -2.4953 0.1243 0 8
4.8800 -19.3045 -2.4953 0.1243 0 8
5.1888 -19.2238 -2.4953 0.1243 0 8
5.4963 -19.1382 -2.4953 0.1243 0 8
5.8025 -19.0476 -2.4953 0.1243 0 8
6.1071 -18.9521 -2.4953 0.1243 0 8
6.4101 -18.8518 -2.4953 0.1243 0 8
6.7115 -18.7466 -2.4953 0.1243 0 8
7.0112 -18.6366 -2.4953 0.1243 0 8
7.3091 -18.5218 -2.4953 0.1243 0 8
7.6051 -18.4022 -2.4953 0.1243 0 8
7.8991 -18.2779 -2.4953 0.1243 0 8
8.1912 -18.1490 -2.4953 0.1243 0 8
8.4811 -18.0153 -2.4953 0.1243 0 8
8.7688 -17.8770 -2.4953 0.1243 0 8
9.0543 -17.7341 -2.4953 0.1243 0 8
9.3374 -17.5867 -2.4953 0.1243 0 8
9.6182 -17.4347 -2.4953 0.1243 0 8
9.8964 -17.2783 -2.4953 0.1243 0 8
10.1722 -17.1174 -2.4953 0.1243 0 8
10.4453 -16.9521 -2.4953 0.1243 0 8
10.7157 -16.7825 -2.4953 0.1243 0 8
10.9834 -16.6086 -2.4953 0.1243 0 8
11.2483 -16.4303 -2.4953 0.1243 0 8
11.5102 -16.2479 -2.4953 0.1243 0 8
11.7692 -16.0613 -2.4953 0.1243 0 8
12.0252 -15.8705 -2.4953 0.1243 0 8
12.2781 -15.6757 -2.4953 0.1243 0 8
12.5278 -15.4769 -2.4953 0.1243 0 8
12.7743 -15.2740 -2.4953 0.1243 0 8
13.0176 -15.0673 -2.4953 0.1243 0 8
13.2575 -14.8566 -2.4953 0.1243 0 8
13.4939 -14.6422 -2.4953 0.1243 0 8
13.7269 -14.4240 -2.4953 0.1243 0 8
13.9564 -14.2020 -2.4953 0.1243 0 8
14.1823 -13.9765 -2.4953 0.1243 0 8
14.4046 -13.7473 -2.4953 0.1243 0 8
14.6231 -13.5146 -2.4953 0.1243 0 8
14.8379 -13.2784 -2.4953 0.1243 0 8
15.0489 -13.0388 -2.4953 0.1243 0 8
15.2560 -12.7959 -2.4953 0.1243 0 8
15.4591 -12.5497 -2.4953 0.1243 0 8
15.6584 -12.3002 -2.4953 0.1243 0 8
-9.3005 -16.1700 -2.4953 0.1326 0 8
-9.0401 -16.3170 -2.4953 0.1326 0 8
-8.7773 -16.4598 -2.4953 0.1326 0 8
-8.5123 -16.5984 -2.4953 0.1326 0 8
-8.2451 -16.7328 -2.4953 0.1326 0 8
-7.9758 -16.8628 -2.4953 0.1326 0 8
-7.7044 -16.9885 -2.4953 0.1326 0 8
-7.4311 -17.1098 -2.4953 0.1326 0 8
-7.1558 -17.2268 -2.4953 0.1326 0 8
-6.8787 -17.3393 -2.4953 0.1326 0 8
-6.5998 -17.4473 -2.4953 0.1326 0 8
-6.3193 -17.5509 -2.4953 0.1326 0 8
-6.0371 -17.6500 -2.4953 0.1326 0 8
-5.7534 -17.7445 -2.4953 0.1326 0 8
-5.4682 -17.8344 -2.4953 0.1326 0 8
-5.1815 -17.9198 -2.4953 0.1326 0 8
-4.8936 -18.0006 -2.4953 0.1326 0 8
-4.6044 -18.0767 -2.4953 0.1326 0 8
-4.3140 -18.1482 -2.4953 0.1326 0 8
-4.0225 -18.2150 -2.4953 0.1326 0 8
-3.7299 -18.2772 -2.4953 0.1326 0 8
-3.4364 -18.3346 -2.4953 0.1326 0 8
-3.1420 -18.3874 -2.4953 0.1326 0 8
-2.8469 -18.4354 -2.4953 0.1326 0 8
-2.5509 -18.4786 -2.4953 0.1326 0 8
-2.2544 -18.5172 -2.4953 0.1326 0 8
-1.9572 -18.5509 -2.4953 0.1326 0 8
-1.6595 -18.5799 -2.4953 0.1326 0 8
-1.3615 -18.6041 -2.4953 0.1326 0 8
-1.0630 -18.6236 -2.4953 0.1326 0 8
-0.7643 -18.6382 -2.4953 0.1326 0 8
-0.4654 -18.6481 -2.4953 0.1326 0 8
-0.1664 -18.6531 -2.4953 0.1326 0 8
0.1327 -18.6534 -2.4953 0.1326 0 8
0.4317 -18.6489 -2.4953 0.1326 0 8
0.7306 -18.6396 -2.4953 0.1326 0 8
1.0294 -18.6255 -2.4953 0.1326 0 8
1.3278 -18.6065 -2.4953 0.1326 0 8
1.6260 -18.5829 -2.4953 0.1326 0 8
1.9237 -18.5544 -2.4953 0.1326 0 8
2.2209 -18.5212 -2.4953 0.1326 0 8
2.5175 -18.4832 -2.4953 0.1326 0 8
2.8135 -18.4405 -2.4953 0.1326 0 8
3.1088 -18.3930 -2.4953 0.1326 0 8
3.4033 -18.3408 -2.4953 0.1326 0 8
3.6969 -18.2839 -2.4953 0.1326 0 8
3.9895 -18.2223 -2.4953 0.1326 0 8
4.2812 -18.1560 -2.4953 0.1326 0 8
4.5717 -18.0850 -2.4953 0.1326 0 8
4.8610 -18.0094 -2.4953 0.1326 0 8
5.1491 -17.9291 -2.4953 0.1326 0 8
5.4359 -17.8443 -2.4953 0.1326 0 8
5.7213 -17.7548 -2.4953 0.1326 0 8
6.0052 -17.6608 -2.4953 0.1326 0 8
6.2875 -17.5623 -2.4953 0.1326 0 8
6.5683 -17.4592 -2.4953 0.1326 0 8
6.8473 -17.3517 -2.4953 0.1326 0 8
7.1246 -17.2397 -2.4953 0.1326 0 8
7.4001 -17.1232 -2.4953 0.1326 0 8
7.6737 -17.0024 -2.4953 0.1326 0 8
7.9453 -16.8772 -2.4953 0.1326 0 8
8.2148 -16.7477 -2.4953 0.1326 0 8
8.4823 -16.6138 -2.4953 0.1326 0 8
8.7475 -16.4757 -2.4953 0.1326 0 8
9.0105 -16.3333 -2.4953 0.1326 0 8
9.2712 -16.1868 -2.4953 0.1326 0 8
9.5296 -16.0360 -2.4953 0.1326 0 8
9.7854 -15.8812 -2.4953 0.1326 0 8
10.0388 -15.7223 -2.4953 0.1326 0 8
10.2895 -15.5593 -2.4953 0.1326 0 8
10.5377 -15.3924 -2.4953 0.1326 0 8
10.7831 -15.2215 -2.4953 0.1326 0 8
11.0257 -15.0466 -2.4953 0.1326 0 8
11.2655 -14.8679 -2.4953 0.1326 0 8
11.5024 -14.6854 -2.4953 0.1326 0 8
11.7364 -14.4991 -2.4953 0.1326 0 8
11.9673 -14.3091 -2.4953 0.1326 0 8
12.1952 -14.1154 -2.4953 0.1326 0 8
12.4199 -13.9181 -2.4953 0.1326 0 8
12.6415 -13.7172 -2.4953 0.1326 0 8
12.8597 -13.5127 -2.4953 0.1326 0 8
13.0747 -13.3048 -2.4953 0.1326 0 8
13.2864 -13.0935 -2.4953 0.1326 0 8
13.4946 -12.8788 -2.4953 0.1326 0 8
13.6993 -12.6608 -2.4953 0.1326 0 8
13.9005 -12.4396 -2.4953 0.1326 0 8
14.0982 -12.2151 -2.4953 0.1326 0 8
14.2922 -11.9875 -2.4953 0.1326 0 8
14.4825 -11.7569 -2.4953 0.1326 0 8
14.6691 -11.5232 -2.4953 0.1326 0 8
-8.7467 -15.2071 -2.4953 0.1408 0 8
-8.5018 -15.3454 -2.4953 0.1408 0 8
-8.2547 -15.4797 -2.4953 0.1408 0 8
-8.0054 -15.6101 -2.4953 0.1408 0 8
-7.7541 -15.7364 -2.4953 0.1408 0 8
-7.5009 -15.8587 -2.4953 0.1408 0 8
-7.2456 -15.9769 -2.4953 0.1408 0 8
-6.9886 -16.0910 -2.4953 0.1408 0 8
-6.7297 -16.2010 -2.4953 0.1408 0 8
-6.4691 -16.3068 -2.4953 0.1408 0 8
-6.2069 -16.4084 -2.4953 0.1408 0 8
-5.9430 -16.5058 -2.4953 0.1408 0 8
-5.6776 -16.5990 -2.4953 0.1408 0 8
-5.4108 -16.6879 -2.4953 0.1408 0 8
-5.1425 -16.7725 -2.4953 0.1408 0 8
-4.8730 -16.8527 -2.4953 0.1408 0 8
-4.6022 -16.9287 -2.4953 0.1408 0 8
-4.3302 -17.0003 -2.4953 0.1408 0 8
-4.0571 -17.0676 -2.4953 0.1408 0 8
-3.7829 -17.1304 -2.4953 0.1408 0 8
-3.5078 -17.1888 -2.4953 0.1408 0 8
-3.2318 -17.2429 -2.4953 0.1408 0 8
-2.9550 -17.2925 -2.4953 0.1408 0 8
-2.6773 -17.3376 -2.4953 0.1408 0 8
-2.3990 -17.3783 -2.4953 0.1408 0 8
-2.1201 -17.4145 -2.4953 0.1408 0 8
-1.8407 -17.4463 -2.4953 0.1408 0 8
-1.5607 -17.4736 -2.4953 0.1408 0 8
-1.2804 -17.4963 -2.4953 0.1408 0 8
-0.9997 -17.5146 -2.4953 0.1408 0 8
-0.7188 -17.5284 -2.4953 0.1408 0 8
-0.4377 -17.5377 -2.4953 0.1408 0 8
-0.1565 -17.5424 -2.4953 0.1408 0 8
0.1248 -17.5427 -2.4953 0.1408 0 8
0.4060 -17.5384 -2.4953 0.1408 0 8
0.6871 -17.5297 -2.4953 0.1408 0 8
0.9681 -17.5164 -2.4953 0.1408 0 8
1.2488 -17.4986 -2.4953 0.1408 0 8
1.5291 -17.4764 -2.4953 0.1408 0 8
1.8091 -17.4496 -2.4953 0.1408 0 8
2.0886 -17.4183 -2.4953 0.1408 0 8
2.3676 -17.3826 -2.4953 0.1408 0 8
2.6460 -17.3424 -2.4953 0.1408 0 8
2.9237 -17.2978 -2.4953 0.1408 0 8
3.2006 -17.2487 -2.4953 0.1408 0 8
3.4767 -17.1952 -2.4953 0.1408 0 8
3.7520 -17.1372 -2.4953 0.1408 0 8
4.0262 -17.0749 -2.4953 0.1408 0 8
4.2995 -17.0081 -2.4953 0.1408 0 8
4.5716 -16.9370 -2.4953 0.1408 0 8
4.8425 -16.8615 -2.4953 0.1408 0 8
5.1122 -16.7817 -2.4953 0.1408 0 8
5.3806 -16.6976 -2.4953 0.1408 0 8
5.6476 -16.6092 -2.4953 0.1408 0 8
5.9131 -16.5165 -2.4953 0.1408 0 8
6.1772 -16.4196 -2.4953 0.1408 0 8
6.4396 -16.3184 -2.4953 0.1408 0 8
6.7004 -16.2131 -2.4953 0.1408 0 8
6.9595 -16.1036 -2.4953 0.1408 0 8
7.2167 -15.9900 -2.4953 0.1408 0 8
7.4722 -15.8722 -2.4953 0.1408 0 8
7.7257 -15.7504 -2.4953 0.1408 0 8
7.9772 -15.6245 -2.4953 0.1408 0 8
8.2267 -15.4946 -2.4953 0.1408 0 8
8.4740 -15.3607 -2.4953 0.1408 0 8
8.7192 -15.2229 -2.4953 0.1408 0 8
8.9621 -15.0812 -2.4953 0.1408 0 8
9.2027 -14.9356 -2.4953 0.1408 0 8
9.4410 -14.7861 -2.4953 0.1408 0 8
9.6768 -14.6328 -2.4953 0.1408 0 8
9.9102 -14.4758 -2.4953 0.1408 0 8
10.1410 -14.3151 -2.4953 0.1408 0 8
10.3692 -14.1507 -2.4953 0.1408 0 8
10.5947 -13.9826 -2.4953 0.1408 0 8
10.8175 -13.8110 -2.4953 0.1408 0 8
11.0375 -13.6358 -2.4953 0.1408 0 8
11.2547 -13.4571 -2.4953 0.1408 0 8
11.4690 -13.2749 -2.4953 0.1408 0 8
11.6804 -13.0893 -2.4953 0.1408 0 8
11.8887 -12.9004 -2.4953 0.1408 0 8
12.0940 -12.7081 -2.4953 0.1408 0 8
12.2962 -12.5126 -2.4953 0.1408 0 8
12.4952 -12.3139 -2.4953 0.1408 0 8
12.6910 -12.1119 -2.4953 0.1408 0 8
12.8836 -11.9069 -2.4953 0.1408 0 8
