ply
format ascii 1.0
element vertex 1375
property float32 x
property float32 y
property float32 z
property float32 CosAngle
property uint32 ObjIdx
property uint32 ObjTag
end_header
-16.6283 17.8703 -2.6477 0.1078 0 7
-16.9151 17.5991 -2.6477 0.1078 0 7
-17.1973 17.3234 -2.6477 0.1078 0 7
-17.4751 17.0431 -2.6477 0.1078 0 7
-17.7483 16.7584 -2.6477 0.1078 0 7
-18.0169 16.4693 -2.6477 0.1078 0 7
-18.2808 16.1759 -2.6477 0.1078 0 7
-18.5399 15.8783 -2.6477 0.1078 0 7
-18.7942 15.5765 -2.6477 0.1078 0 7
-19.0435 15.2707 -2.6477 0.1078 0 7
-19.2879 14.9608 -2.6477 0.1078 0 7
-19.5272 14.6471 -2.6477 0.1078 0 7
-19.7614 14.3295 -2.6477 0.1078 0 7
8.6246 19.6000 -2.5029 0.1161 0 14
8.3066 19.7368 -2.5029 0.1161 0 14
7.9865 19.8685 -2.5029 0.1161 0 14
7.6643 19.9950 -2.5029 0.1161 0 14
7.3400 20.1163 -2.5029 0.1161 0 14
7.0139 20.2323 -2.5029 0.1161 0 14
6.6859 20.3431 -2.5029 0.1161 0 14
6.3562 20.4485 -2.5029 0.1161 0 14
6.0248 20.5486 -2.5029 0.1161 0 14
5.6918 20.6433 -2.5029 0.1161 0 14
5.3574 20.7326 -2.5029 0.1161 0 14
5.0215 20.8165 -2.5029 0.1161 0 14
4.6844 20.8949 -2.5029 0.1161 0 14
4.3460 20.9679 -2.5029 0.1161 0 14
4.0065 21.0354 -2.5029 0.1161 0 14
3.6659 21.0975 -2.5029 0.1161 0 14
3.3244 21.1540 -2.5029 0.1161 0 14
2.9820 21.2049 -2.5029 0.1161 0 14
2.6388 21.2504 -2.5029 0.1161 0 14
2.2950 21.2903 -2.5029 0.1161 0 14
1.9505 21.3246 -2.5029 0.1161 0 14
1.6055 21.3533 -2.5029 0.1161 0 14
1.2601 21.3765 -2.5029 0.1161 0 14
0.9144 21.3941 -2.5029 0.1161 0 14
0.5685 21.4060 -2.5029 0.1161 0 14
0.2224 21.4124 -2.5029 0.1161 0 14
-0.1238 21.4132 -2.5029 0.1161 0 14
-0.4699 21.4084 -2.5029 0.1161 0 14
-0.8160 21.3980 -2.5029 0.1161 0 14
-1.1618 21.3821 -2.5029 0.1161 0 14
-1.5073 21.3605 -2.5029 0.1161 0 14
-1.8523 21.3333 -2.5029 0.1161 0 14
-2.1970 21.3006 -2.5029 0.1161 0 14
-2.5410 21.2623 -2.5029 0.1161 0 14
-2.8844 21.2184 -2.5029 0.1161 0 14
-3.2270 21.1690 -2.5029 0.1161 0 14
-3.5688 21.1141 -2.5029 0.1161 0 14
-3.9096 21.0537 -2.5029 0.1161 0 14
-4.2495 20.9877 -2.5029 0.1161 0 14
-4.5882 20.9163 -2.5029 0.1161 0 14
-4.9257 20.8394 -2.5029 0.1161 0 14
-5.2619 20.7570 -2.5029 0.1161 0 14
-5.5968 20.6692 -2.5029 0.1161 0 14
-5.9302 20.5761 -2.5029 0.1161 0 14
-6.2620 20.4775 -2.5029 0.1161 0 14
-6.5922 20.3736 -2.5029 0.1161 0 14
-6.9207 20.2644 -2.5029 0.1161 0 14
-7.2474 20.1499 -2.5029 0.1161 0 14
-7.5722 20.0301 -2.5029 0.1161 0 14
-7.8950 19.9051 -2.5029 0.1161 0 14
-8.2157 19.7748 -2.5029 0.1161 0 14
-8.5343 19.6395 -2.5029 0.1161 0 14
-8.8506 19.4989 -2.5029 0.1161 0 14
-9.1647 19.3533 -2.5029 0.1161 0 14
-9.4763 19.2026 -2.5029 0.1161 0 14
-9.7855 19.0469 -2.5029 0.1161 0 8
-10.1170 18.9327 -2.5091 0.7025 0 8
-10.5105 18.9265 -2.5304 0.8763 0 8
-10.9114 18.9212 -2.5530 0.8685 0 8
-11.3196 18.9157 -2.5766 0.8606 0 8
-11.7354 18.9100 -2.6013 0.8524 0 8
-12.1593 18.9040 -2.6272 0.8440 0 8
-12.5606 18.8509 -2.6477 0.1161 0 7
-12.8636 18.6454 -2.6477 0.1161 0 7
-13.1634 18.4350 -2.6477 0.1161 0 6
-13.4597 18.2198 -2.6477 0.1161 0 7
-13.7524 17.9999 -2.6477 0.1161 0 7
-14.0416 17.7752 -2.6477 0.1161 0 7
-14.3271 17.5459 -2.6477 0.1161 0 7
-14.6089 17.3120 -2.6477 0.1161 0 7
-14.8868 17.0736 -2.6477 0.1161 0 7
-15.1609 16.8307 -2.6477 0.1161 0 7
-15.4310 16.5834 -2.6477 0.1161 0 7
-15.6970 16.3318 -2.6477 0.1161 0 7
-15.9590 16.0760 -2.6477 0.1161 0 7
-16.2168 15.8159 -2.6477 0.1161 0 7
-16.4703 15.5517 -2.6477 0.1161 0 7
-16.7196 15.2834 -2.6477 0.1161 0 7
-16.9644 15.0111 -2.6477 0.1161 0 7
-17.2049 14.7349 -2.6477 0.1161 0 7
-17.4408 14.4549 -2.6477 0.1161 0 7
-17.6722 14.1710 -2.6477 0.1161 0 7
-17.8990 13.8835 -2.6477 0.1161 0 7
-18.1211 13.5924 -2.6477 0.1161 0 7
-18.3384 13.2976 -2.6477 0.1161 0 7
8.3459 18.9666 -2.5968 0.9146 0 8
7.9834 18.9689 -2.5791 0.9208 0 8
7.6257 18.9710 -2.5623 0.9269 0 8
7.2725 18.9730 -2.5463 0.9327 0 8
6.9235 18.9748 -2.5312 0.9383 0 8
6.5785 18.9765 -2.5169 0.9436 0 8
6.2390 18.9832 -2.5041 0.7539 0 8
5.9285 19.0724 -2.5029 0.1243 0 8
5.6194 19.1658 -2.5029 0.1243 0 14
5.3088 19.2541 -2.5029 0.1243 0 14
4.9969 19.3374 -2.5029 0.1243 0 14
4.6836 19.4157 -2.5029 0.1243 0 14
4.3692 19.4888 -2.5029 0.1243 0 14
4.0535 19.5569 -2.5029 0.1243 0 14
3.7369 19.6199 -2.5029 0.1243 0 14
3.4192 19.6777 -2.5029 0.1243 0 14
3.1007 19.7304 -2.5029 0.1243 0 14
2.7813 19.7780 -2.5029 0.1243 0 14
2.4612 19.8204 -2.5029 0.1243 0 14
2.1405 19.8576 -2.5029 0.1243 0 14
1.8192 19.8896 -2.5029 0.1243 0 14
1.4975 19.9164 -2.5029 0.1243 0 14
1.1753 19.9380 -2.5029 0.1243 0 14
0.8529 19.9544 -2.5029 0.1243 0 14
0.5302 19.9656 -2.5029 0.1243 0 14
0.2074 19.9715 -2.5029 0.1243 0 14
-0.1155 19.9723 -2.5029 0.1243 0 14
-0.4383 19.9678 -2.5029 0.1243 0 14
-0.7610 19.9581 -2.5029 0.1243 0 14
-1.0836 19.9432 -2.5029 0.1243 0 14
-1.4058 19.9231 -2.5029 0.1243 0 14
-1.7277 19.8977 -2.5029 0.1243 0 14
-2.0491 19.8672 -2.5029 0.1243 0 14
-2.3700 19.8315 -2.5029 0.1243 0 14
-2.6903 19.7906 -2.5029 0.1243 0 14
-3.0099 19.7445 -2.5029 0.1243 0 14
-3.3286 19.6933 -2.5029 0.1243 0 14
-3.6466 19.6369 -2.5029 0.1243 0 14
-3.9635 19.5754 -2.5029 0.1243 0 14
-4.2794 19.5087 -2.5029 0.1243 0 14
-4.5942 19.4370 -2.5029 0.1243 0 14
-4.9078 19.3602 -2.5029 0.1243 0 14
-5.2202 19.2783 -2.5029 0.1243 0 14
-5.5311 19.1914 -2.5029 0.1243 0 14
-5.8416 19.1028 -2.5033 0.7594 0 8
-6.1486 19.0026 -2.5029 0.1243 0 8
-6.4695 18.9434 -2.5085 0.7525 0 8
-6.8116 18.9383 -2.5221 0.9416 0 8
-7.1580 18.9347 -2.5367 0.9362 0 8
-7.5085 18.9308 -2.5521 0.9306 0 8
-7.8634 18.9268 -2.5684 0.9247 0 8
-8.2228 18.9227 -2.5855 0.9185 0 8
-8.5871 18.9183 -2.6036 0.9122 0 8
-8.9565 18.9138 -2.6225 0.9056 0 8
-9.3315 18.9090 -2.6424 0.8988 0 8
-9.6550 18.7928 -2.6477 0.1243 0 7
-9.9575 18.6343 -2.6477 0.1243 0 7
-10.2575 18.4709 -2.6477 0.1243 0 7
-10.5547 18.3027 -2.6477 0.1243 0 7
-10.8492 18.1297 -2.6477 0.1243 0 7
-11.1408 17.9519 -2.6477 0.1243 0 7
-11.4296 17.7695 -2.6477 0.1243 0 7
-11.7153 17.5824 -2.6477 0.1243 0 7
-11.9980 17.3907 -2.6477 0.1243 0 7
-12.2776 17.1945 -2.6477 0.1243 0 7
-12.5539 16.9938 -2.6477 0.1243 0 7
-12.8270 16.7886 -2.6477 0.1243 0 7
-13.0967 16.5791 -2.6477 0.1243 0 7
-13.3630 16.3652 -2.6477 0.1243 0 7
-13.6258 16.1470 -2.6477 0.1243 0 7
-13.8850 15.9247 -2.6477 0.1243 0 7
-14.1406 15.6981 -2.6477 0.1243 0 7
-14.3926 15.4675 -2.6477 0.1243 0 7
-14.6407 15.2328 -2.6477 0.1243 0 7
-14.8850 14.9941 -2.6477 0.1243 0 7
-15.1255 14.7516 -2.6477 0.1243 0 7
-15.3620 14.5051 -2.6477 0.1243 0 7
-15.5944 14.2549 -2.6477 0.1243 0 7
-15.8228 14.0010 -2.6477 0.1243 0 7
-16.0471 13.7433 -2.6477 0.1243 0 7
-16.2672 13.4821 -2.6477 0.1243 0 7
-16.4830 13.2174 -2.6477 0.1243 0 7
-16.6945 12.9492 -2.6477 0.1243 0 7
-16.9016 12.6777 -2.6477 0.1243 0 7
-17.1044 12.4028 -2.6477 0.1243 0 7
7.9719 18.1168 -2.6477 0.1326 0 7
7.6780 18.2433 -2.6477 0.1326 0 7
7.3821 18.3650 -2.6477 0.1326 0 7
7.0843 18.4820 -2.6477 0.1326 0 6
6.7846 18.5941 -2.6477 0.1326 0 7
6.4831 18.7013 -2.6477 0.1326 0 7
6.1800 18.8037 -2.6477 0.1326 0 7
5.8752 18.9011 -2.6477 0.1326 0 7
5.5563 18.9506 -2.6417 0.9586 0 8
5.2255 18.9518 -2.6297 0.9630 0 8
4.8975 18.9530 -2.6186 0.9671 0 8
4.5723 18.9540 -2.6081 0.9709 0 8
4.2495 18.9549 -2.5985 0.9745 0 8
3.9289 18.9557 -2.5895 0.9779 0 8
3.6105 18.9563 -2.5813 0.9810 0 8
3.2940 18.9568 -2.5738 0.9839 0 8
2.9792 18.9572 -2.5670 0.9865 0 8
2.6659 18.9575 -2.5608 0.9889 0 8
2.3541 18.9576 -2.5554 0.9910 0 8
2.0435 18.9577 -2.5506 0.9928 0 8
1.7340 18.9576 -2.5465 0.9944 0 8
1.4254 18.9573 -2.5430 0.9958 0 8
1.1175 18.9570 -2.5402 0.9969 0 8
0.8102 18.9565 -2.5381 0.9977 0 8
0.5034 18.9560 -2.5366 0.9983 0 8
0.1968 18.9553 -2.5357 0.9987 0 8
-0.1096 18.9565 -2.5358 0.9970 0 8
-0.4161 18.9552 -2.5362 0.9986 0 8
-0.7227 18.9535 -2.5372 0.9982 0 8
-1.0297 18.9516 -2.5388 0.9976 0 8
-1.3372 18.9500 -2.5412 0.9965 0 8
-1.6453 18.9486 -2.5442 0.9953 0 8
-1.9542 18.9470 -2.5479 0.9939 0 8
-2.2641 18.9454 -2.5523 0.9922 0 8
-2.5751 18.9436 -2.5573 0.9902 0 8
-2.8875 18.9417 -2.5630 0.9880 0 8
-3.2012 18.9396 -2.5694 0.9856 0 8
-3.5167 18.9374 -2.5765 0.9829 0 8
-3.8339 18.9351 -2.5843 0.9799 0 8
-4.1531 18.9326 -2.5928 0.9767 0 8
-4.4744 18.9300 -2.6020 0.9732 0 8
-4.7981 18.9273 -2.6119 0.9695 0 8
-5.1243 18.9244 -2.6226 0.9656 0 8
-5.4533 18.9214 -2.6341 0.9614 0 8
-5.7852 18.9182 -2.6463 0.9569 0 8
-6.0934 18.8319 -2.6477 0.1326 0 7
-6.3970 18.7310 -2.6477 0.1326 0 7
-6.6990 18.6251 -2.6477 0.1326 0 7
-6.9991 18.5144 -2.6477 0.1326 0 7
-7.2975 18.3988 -2.6477 0.1326 0 6
-7.5940 18.2785 -2.6477 0.1326 0 7
-7.8885 18.1533 -2.6477 0.1326 0 7
-8.1809 18.0234 -2.6477 0.1326 0 7
-8.4712 17.8888 -2.6477 0.1326 0 7
-8.7592 17.7495 -2.6477 0.1326 0 7
-9.0450 17.6056 -2.6477 0.1326 0 7
-9.3284 17.4571 -2.6477 0.1326 0 7
-9.6094 17.3040 -2.6477 0.1326 0 7
-9.8879 17.1464 -2.6477 0.1326 0 7
-10.1638 16.9843 -2.6477 0.1326 0 7
-10.4370 16.8178 -2.6477 0.1326 0 7
-10.7075 16.6469 -2.6477 0.1326 0 7
-10.9752 16.4716 -2.6477 0.1326 0 7
-11.2401 16.2921 -2.6477 0.1326 0 7
-11.5019 16.1082 -2.6477 0.1326 0 7
-11.7608 15.9202 -2.6477 0.1326 0 7
-12.0166 15.7280 -2.6477 0.1326 0 7
-12.2693 15.5317 -2.6477 0.1326 0 7
-12.5188 15.3313 -2.6477 0.1326 0 7
-12.7650 15.1270 -2.6477 0.1326 0 7
-13.0079 14.9186 -2.6477 0.1326 0 7
-13.2473 14.7064 -2.6477 0.1326 0 7
-13.4833 14.4903 -2.6477 0.1326 0 7
-13.7158 14.2705 -2.6477 0.1326 0 7
-13.9447 14.0469 -2.6477 0.1326 0 7
-14.1699 13.8196 -2.6477 0.1326 0 7
-14.3915 13.5888 -2.6477 0.1326 0 7
-14.6093 13.3544 -2.6477 0.1326 0 7
-14.8232 13.1165 -2.6477 0.1326 0 7
-15.0333 12.8751 -2.6477 0.1326 0 7
-15.2395 12.6304 -2.6477 0.1326 0 7
-15.4417 12.3824 -2.6477 0.1326 0 7
-15.6398 12.1312 -2.6477 0.1326 0 7
-15.8339 11.8768 -2.6477 0.1326 0 7
-16.0238 11.6193 -2.6477 0.1326 0 7
7.4972 17.0380 -2.6477 0.1408 0 7
7.2208 17.1570 -2.6477 0.1408 0 7
6.9425 17.2715 -2.6477 0.1408 0 7
6.6624 17.3814 -2.6477 0.1408 0 7
6.3806 17.4869 -2.6477 0.1408 0 7
6.0971 17.5877 -2.6477 0.1408 0 7
5.8120 17.6840 -2.6477 0.1408 0 7
5.5254 17.7756 -2.6477 0.1408 0 7
5.2373 17.8626 -2.6477 0.1408 0 7
4.9479 17.9450 -2.6477 0.1408 0 7
4.6571 18.0226 -2.6477 0.1408 0 7
4.3652 18.0955 -2.6477 0.1408 0 7
4.0721 18.1637 -2.6477 0.1408 0 7
3.7779 18.2272 -2.6477 0.1408 0 7
3.4828 18.2859 -2.6477 0.1408 0 7
3.1867 18.3398 -2.6477 0.1408 0 7
2.8900 18.3889 -2.6477 0.1408 0 6
2.5922 18.4332 -2.6477 0.1408 0 6
2.2939 18.4727 -2.6477 0.1408 0 6
1.9950 18.5074 -2.6477 0.1408 0 7
1.6955 18.5372 -2.6477 0.1408 0 7
1.3957 18.5622 -2.6477 0.1408 0 7
1.0954 18.5823 -2.6477 0.1408 0 7
0.7949 18.5976 -2.6477 0.1408 0 7
0.4941 18.6080 -2.6477 0.1408 0 7
0.1932 18.6136 -2.6477 0.1408 0 7
-0.1076 18.6143 -2.6477 0.1408 0 7
-0.4085 18.6101 -2.6477 0.1408 0 7
-0.7093 18.6011 -2.6477 0.1408 0 7
-1.0099 18.5872 -2.6477 0.1408 0 7
-1.3102 18.5684 -2.6477 0.1408 0 7
-1.6102 18.5448 -2.6477 0.1408 0 7
-1.9098 18.5163 -2.6477 0.1408 0 7
-2.2089 18.4831 -2.6477 0.1408 0 6
-2.5073 18.4449 -2.6477 0.1408 0 6
-2.8052 18.4020 -2.6477 0.1408 0 6
-3.1023 18.3542 -2.6477 0.1408 0 7
-3.3986 18.3017 -2.6477 0.1408 0 7
-3.6940 18.2444 -2.6477 0.1408 0 7
-3.9885 18.1823 -2.6477 0.1408 0 7
-4.2819 18.1154 -2.6477 0.1408 0 7
-4.5741 18.0439 -2.6477 0.1408 0 7
-4.8652 17.9675 -2.6477 0.1408 0 7
-5.1550 17.8865 -2.6477 0.1408 0 7
-5.4435 17.8009 -2.6477 0.1408 0 7
-5.7305 17.7106 -2.6477 0.1408 0 7
-6.0161 17.6156 -2.6477 0.1408 0 7
-6.3001 17.5160 -2.6477 0.1408 0 7
-6.5824 17.4119 -2.6477 0.1408 0 7
-6.8630 17.3032 -2.6477 0.1408 0 7
-7.1418 17.1900 -2.6477 0.1408 0 7
-7.4187 17.0723 -2.6477 0.1408 0 7
-7.6938 16.9502 -2.6477 0.1408 0 7
-7.9668 16.8236 -2.6477 0.1408 0 7
-8.2377 16.6926 -2.6477 0.1408 0 7
-8.5064 16.5573 -2.6477 0.1408 0 7
-8.7730 16.4176 -2.6477 0.1408 0 7
-9.0372 16.2736 -2.6477 0.1408 0 7
-9.2991 16.1254 -2.6477 0.1408 0 7
-9.5586 15.9730 -2.6477 0.1408 0 7
-9.8155 15.8164 -2.6477 0.1408 0 7
-10.0699 15.6556 -2.6477 0.1408 0 7
-10.3217 15.4908 -2.6477 0.1408 0 7
-10.5708 15.3219 -2.6477 0.1408 0 7
-10.8170 15.1491 -2.6477 0.1408 0 7
-11.0605 14.9722 -2.6477 0.1408 0 7
-11.3011 14.7915 -2.6477 0.1408 0 7
-11.5387 14.6069 -2.6477 0.1408 0 7
-11.7734 14.4184 -2.6477 0.1408 0 7
-12.0049 14.2262 -2.6477 0.1408 0 7
-12.2333 14.0303 -2.6477 0.1408 0 7
-12.4585 13.8307 -2.6477 0.1408 0 7
-12.6805 13.6275 -2.6477 0.1408 0 7
-12.8991 13.4207 -2.6477 0.1408 0 7
-13.1143 13.2105 -2.6477 0.1408 0 7
-13.3262 12.9967 -2.6477 0.1408 0 7
-13.5345 12.7796 -2.6477 0.1408 0 7
-13.7394 12.5592 -2.6477 0.1408 0 7
-13.9406 12.3354 -2.6477 0.1408 0 7
-14.1382 12.1085 -2.6477 0.1408 0 7
-14.3321 11.8783 -2.6477 0.1408 0 7
-14.5222 11.6451 -2.6477 0.1408 0 7
-14.7085 11.4088 -2.6477 0.1408 0 6
-14.8911 11.1696 -2.6477 0.1408 0 7
-15.0697 10.9274 -2.6477 0.1408 0 7
7.0750 16.0784 -2.6477 0.1490 0 7
6.8141 16.1906 -2.6477 0.1490 0 7
6.5515 16.2987 -2.6477 0.1490 0 7
6.2872 16.4025 -2.6477 0.1490 0 7
6.0212 16.5020 -2.6477 0.1490 0 7
5.7537 16.5971 -2.6477 0.1490 0 7
5.4846 16.6880 -2.6477 0.1490 0 7
5.2141 16.7744 -2.6477 0.1490 0 7
4.9423 16.8565 -2.6477 0.1490 0 7
4.6692 16.9342 -2.6477 0.1490 0 7
4.3948 17.0075 -2.6477 0.1490 0 7
4.1193 17.0763 -2.6477 0.1490 0 7
3.8427 17.1407 -2.6477 0.1490 0 7
3.5651 17.2006 -2.6477 0.1490 0 7
3.2866 17.2559 -2.6477 0.1490 0 7
3.0072 17.3068 -2.6477 0.1490 0 7
2.7271 17.3532 -2.6477 0.1490 0 7
2.4462 17.3950 -2.6477 0.1490 0 7
2.1647 17.4323 -2.6477 0.1490 0 7
1.8826 17.4650 -2.6477 0.1490 0 7
1.6000 17.4931 -2.6477 0.1490 0 7
1.3171 17.5167 -2.6477 0.1490 0 7
1.0337 17.5357 -2.6477 0.1490 0 7
0.7501 17.5501 -2.6477 0.1490 0 7
0.4663 17.5600 -2.6477 0.1490 0 7
0.1824 17.5652 -2.6477 0.1490 0 7
-0.1016 17.5659 -2.6477 0.1490 0 7
-0.3855 17.5619 -2.6477 0.1490 0 7
-0.6694 17.5534 -2.6477 0.1490 0 7
-0.9530 17.5403 -2.6477 0.1490 0 7
-1.2364 17.5226 -2.6477 0.1490 0 7
-1.5195 17.5003 -2.6477 0.1490 0 7
-1.8022 17.4734 -2.6477 0.1490 0 7
-2.0845 17.4420 -2.6477 0.1490 0 7
-2.3661 17.4061 -2.6477 0.1490 0 7
-2.6472 17.3655 -2.6477 0.1490 0 7
-2.9276 17.3205 -2.6477 0.1490 0 7
-3.2072 17.2709 -2.6477 0.1490 0 7
-3.4860 17.2168 -2.6477 0.1490 0 7
-3.7638 17.1582 -2.6477 0.1490 0 7
-4.0407 17.0951 -2.6477 0.1490 0 7
-4.3165 17.0275 -2.6477 0.1490 0 7
-4.5912 16.9555 -2.6477 0.1490 0 7
-4.8647 16.8791 -2.6477 0.1490 0 7
-5.1369 16.7983 -2.6477 0.1490 0 7
-5.4078 16.7130 -2.6477 0.1490 0 7
-5.6772 16.6234 -2.6477 0.1490 0 7
-5.9452 16.5295 -2.6477 0.1490 0 7
-6.2116 16.4312 -2.6477 0.1490 0 7
-6.4764 16.3287 -2.6477 0.1490 0 7
-6.7396 16.2218 -2.6477 0.1490 0 7
-7.0009 16.1108 -2.6477 0.1490 0 7
-7.2604 15.9955 -2.6477 0.1490 0 7
-7.5180 15.8760 -2.6477 0.1490 0 7
-7.7737 15.7524 -2.6477 0.1490 0 7
-8.0273 15.6247 -2.6477 0.1490 0 7
-8.2788 15.4929 -2.6477 0.1490 0 7
-8.5282 15.3570 -2.6477 0.1490 0 7
-8.7754 15.2172 -2.6477 0.1490 0 7
-9.0202 15.0733 -2.6477 0.1490 0 7
-9.2627 14.9255 -2.6477 0.1490 0 7
-9.5028 14.7739 -2.6477 0.1490 0 7
-9.7403 14.6183 -2.6477 0.1490 0 7
-9.9754 14.4590 -2.6477 0.1490 0 7
-10.2078 14.2958 -2.6477 0.1490 0 7
-10.4376 14.1289 -2.6477 0.1490 0 7
-10.6646 13.9584 -2.6477 0.1490 0 7
-10.8888 13.7841 -2.6477 0.1490 0 7
-11.1102 13.6063 -2.6477 0.1490 0 7
-11.3287 13.4249 -2.6477 0.1490 0 7
-11.5443 13.2401 -2.6477 0.1490 0 7
-11.7568 13.0517 -2.6477 0.1490 0 7
-11.9662 12.8600 -2.6477 0.1490 0 7
-12.1726 12.6648 -2.6477 0.1490 0 7
-12.3757 12.4664 -2.6477 0.1490 0 7
-12.5756 12.2647 -2.6477 0.1490 0 7
-12.7722 12.0598 -2.6477 0.1490 0 7
-12.9655 11.8518 -2.6477 0.1490 0 7
-13.1554 11.6407 -2.6477 0.1490 0 7
-13.3419 11.4265 -2.6477 0.1490 0 6
-13.5248 11.2093 -2.6477 0.1490 0 7
-13.7043 10.9892 -2.6477 0.1490 0 7
-13.8801 10.7662 -2.6477 0.1490 0 7
-14.0523 10.5405 -2.6477 0.1490 0 7
-14.2209 10.3119 -2.6477 0.1490 0 7
6.6968 15.2190 -2.6477 0.1573 0 7
6.4499 15.3253 -2.6477 0.1573 0 7
6.2014 15.4276 -2.6477 0.1573 0 7
5.9512 15.5258 -2.6477 0.1573 0 7
5.6994 15.6200 -2.6477 0.1573 0 7
5.4462 15.7101 -2.6477 0.1573 0 7
5.1915 15.7960 -2.6477 0.1573 0 7
4.9355 15.8779 -2.6477 0.1573 0 7
4.6782 15.9556 -2.6477 0.1573 0 7
4.4196 16.0292 -2.6477 0.1573 0 7
4.1599 16.0985 -2.6477 0.1573 0 7
3.8991 16.1636 -2.6477 0.1573 0 7
3.6373 16.2246 -2.6477 0.1573 0 7
3.3746 16.2812 -2.6477 0.1573 0 7
3.1110 16.3337 -2.6477 0.1573 0 7
2.8465 16.3818 -2.6477 0.1573 0 7
2.5813 16.4257 -2.6477 0.1573 0 7
2.3155 16.4653 -2.6477 0.1573 0 7
2.0490 16.5006 -2.6477 0.1573 0 7
1.7820 16.5315 -2.6477 0.1573 0 7
1.5145 16.5582 -2.6477 0.1573 0 7
1.2467 16.5805 -2.6477 0.1573 0 7
0.9785 16.5985 -2.6477 0.1573 0 7
0.7100 16.6121 -2.6477 0.1573 0 7
0.4414 16.6214 -2.6477 0.1573 0 7
0.1727 16.6264 -2.6477 0.1573 0 7
-0.0961 16.6270 -2.6477 0.1573 0 7
-0.3649 16.6233 -2.6477 0.1573 0 7
-0.6336 16.6152 -2.6477 0.1573 0 7
-0.9021 16.6028 -2.6477 0.1573 0 7
-1.1704 16.5860 -2.6477 0.1573 0 7
-1.4383 16.5650 -2.6477 0.1573 0 7
-1.7059 16.5395 -2.6477 0.1573 0 7
-1.9730 16.5098 -2.6477 0.1573 0 7
-2.2397 16.4758 -2.6477 0.1573 0 7
-2.5057 16.4374 -2.6477 0.1573 0 7
-2.7711 16.3947 -2.6477 0.1573 0 7
-3.0358 16.3478 -2.6477 0.1573 0 7
-3.2996 16.2966 -2.6477 0.1573 0 7
-3.5626 16.2411 -2.6477 0.1573 0 7
-3.8247 16.1814 -2.6477 0.1573 0 7
-4.0858 16.1175 -2.6477 0.1573 0 7
-4.3458 16.0493 -2.6477 0.1573 0 7
-4.6047 15.9770 -2.6477 0.1573 0 7
-4.8624 15.9004 -2.6477 0.1573 0 7
-5.1187 15.8198 -2.6477 0.1573 0 7
-5.3738 15.7350 -2.6477 0.1573 0 7
-5.6275 15.6460 -2.6477 0.1573 0 7
-5.8796 15.5530 -2.6477 0.1573 0 7
-6.1303 15.4559 -2.6477 0.1573 0 7
-6.3793 15.3548 -2.6477 0.1573 0 7
-6.6267 15.2497 -2.6477 0.1573 0 7
-6.8724 15.1406 -2.6477 0.1573 0 7
-7.1162 15.0275 -2.6477 0.1573 0 7
-7.3582 14.9105 -2.6477 0.1573 0 6
-7.5983 14.7896 -2.6477 0.1573 0 7
-7.8364 14.6649 -2.6477 0.1573 0 7
-8.0724 14.5363 -2.6477 0.1573 0 7
-8.3063 14.4039 -2.6477 0.1573 0 7
-8.5381 14.2677 -2.6477 0.1573 0 7
-8.7676 14.1278 -2.6477 0.1573 0 7
-8.9949 13.9842 -2.6477 0.1573 0 7
-9.2197 13.8370 -2.6477 0.1573 0 7
-9.4422 13.6862 -2.6477 0.1573 0 7
-9.6622 13.5317 -2.6477 0.1573 0 7
-9.8797 13.3738 -2.6477 0.1573 0 7
-10.0946 13.2123 -2.6477 0.1573 0 7
-10.3069 13.0474 -2.6477 0.1573 0 7
-10.5164 12.8791 -2.6477 0.1573 0 7
-10.7233 12.7074 -2.6477 0.1573 0 7
-10.9273 12.5324 -2.6477 0.1573 0 7
-11.1284 12.3541 -2.6477 0.1573 0 7
-11.3267 12.1726 -2.6477 0.1573 0 7
-11.5220 11.9879 -2.6477 0.1573 0 7
-11.7143 11.8001 -2.6477 0.1573 0 7
-11.9035 11.6092 -2.6477 0.1573 0 7
-12.0896 11.4153 -2.6477 0.1573 0 6
-12.2725 11.2184 -2.6477 0.1573 0 7
-12.4523 11.0185 -2.6477 0.1573 0 7
-12.6288 10.8158 -2.6477 0.1573 0 7
-12.8020 10.6102 -2.6477 0.1573 0 7
-12.9718 10.4019 -2.6477 0.1573 0 7
-13.1383 10.1908 -2.6477 0.1573 0 7
-13.3013 9.9771 -2.6477 0.1573 0 7
-13.4608 9.7608 -2.6477 0.1573 0 7
6.3562 14.4450 -2.6477 0.1655 0 7
6.1219 14.5458 -2.6477 0.1655 0 7
5.8859 14.6429 -2.6477 0.1655 0 7
5.6485 14.7361 -2.6477 0.1655 0 7
5.4095 14.8255 -2.6477 0.1655 0 7
5.1692 14.9110 -2.6477 0.1655 0 7
4.9275 14.9926 -2.6477 0.1655 0 7
4.6844 15.0703 -2.6477 0.1655 0 7
4.4402 15.1441 -2.6477 0.1655 0 7
4.1948 15.2139 -2.6477 0.1655 0 7
3.9483 15.2797 -2.6477 0.1655 0 7
3.7008 15.3415 -2.6477 0.1655 0 7
3.4523 15.3993 -2.6477 0.1655 0 7
3.2030 15.4531 -2.6477 0.1655 0 7
2.9527 15.5029 -2.6477 0.1655 0 7
2.7017 15.5486 -2.6477 0.1655 0 7
2.4500 15.5902 -2.6477 0.1655 0 7
2.1977 15.6278 -2.6477 0.1655 0 7
1.9448 15.6613 -2.6477 0.1655 0 7
1.6914 15.6907 -2.6477 0.1655 0 7
1.4375 15.7160 -2.6477 0.1655 0 7
1.1833 15.7372 -2.6477 0.1655 0 7
0.9287 15.7542 -2.6477 0.1655 0 7
0.6739 15.7672 -2.6477 0.1655 0 7
0.4189 15.7760 -2.6477 0.1655 0 7
0.1639 15.7807 -2.6477 0.1655 0 7
-0.0913 15.7813 -2.6477 0.1655 0 7
-0.3463 15.7778 -2.6477 0.1655 0 7
-0.6014 15.7701 -2.6477 0.1655 0 7
-0.8562 15.7583 -2.6477 0.1655 0 7
-1.1108 15.7424 -2.6477 0.1655 0 7
-1.3652 15.7224 -2.6477 0.1655 0 7
-1.6191 15.6983 -2.6477 0.1655 0 7
-1.8727 15.6701 -2.6477 0.1655 0 7
-2.1258 15.6378 -2.6477 0.1655 0 7
-2.3783 15.6013 -2.6477 0.1655 0 7
-2.6302 15.5609 -2.6477 0.1655 0 7
-2.8814 15.5163 -2.6477 0.1655 0 7
-3.1318 15.4677 -2.6477 0.1655 0 7
-3.3814 15.4150 -2.6477 0.1655 0 7
-3.6302 15.3584 -2.6477 0.1655 0 7
-3.8780 15.2977 -2.6477 0.1655 0 7
-4.1248 15.2330 -2.6477 0.1655 0 7
-4.3705 15.1643 -2.6477 0.1655 0 7
-4.6150 15.0917 -2.6477 0.1655 0 7
-4.8584 15.0151 -2.6477 0.1655 0 7
-5.1005 14.9346 -2.6477 0.1655 0 7
-5.3412 14.8502 -2.6477 0.1655 0 7
-5.5806 14.7619 -2.6477 0.1655 0 7
-5.8185 14.6698 -2.6477 0.1655 0 7
-6.0549 14.5738 -2.6477 0.1655 0 7
-6.2897 14.4741 -2.6477 0.1655 0 7
-6.5228 14.3705 -2.6477 0.1655 0 7
-6.7543 14.2632 -2.6477 0.1655 0 7
-6.9840 14.1521 -2.6477 0.1655 0 7
-7.2118 14.0374 -2.6477 0.1655 0 7
-7.4378 13.9190 -2.6477 0.1655 0 7
-7.6618 13.7969 -2.6477 0.1655 0 7
-7.8839 13.6712 -2.6477 0.1655 0 7
-8.1038 13.5420 -2.6477 0.1655 0 7
-8.3217 13.4092 -2.6477 0.1655 0 7
-8.5374 13.2730 -2.6477 0.1655 0 7
-8.7508 13.1332 -2.6477 0.1655 0 7
-8.9620 12.9900 -2.6477 0.1655 0 7
-9.1708 12.8435 -2.6477 0.1655 0 7
-9.3772 12.6935 -2.6477 0.1655 0 7
-9.5812 12.5403 -2.6477 0.1655 0 7
-9.7826 12.3838 -2.6477 0.1655 0 7
-9.9815 12.2240 -2.6477 0.1655 0 7
-10.1778 12.0611 -2.6477 0.1655 0 7
-10.3715 11.8950 -2.6477 0.1655 0 7
-10.5624 11.7258 -2.6477 0.1655 0 7
-10.7506 11.5535 -2.6477 0.1655 0 7
-10.9359 11.3782 -2.6477 0.1655 0 6
-11.1184 11.1999 -2.6477 0.1655 0 7
-11.2980 11.0187 -2.6477 0.1655 0 7
-11.4747 10.8347 -2.6477 0.1655 0 7
-11.6483 10.6478 -2.6477 0.1655 0 7
-11.8189 10.4581 -2.6477 0.1655 0 7
-11.9864 10.2656 -2.6477 0.1655 0 7
-12.1508 10.0705 -2.6477 0.1655 0 7
-12.3120 9.8728 -2.6477 0.1655 0 7
-12.4700 9.6725 -2.6477 0.1655 0 7
-12.6247 9.4696 -2.6477 0.1655 0 7
-12.7762 9.2643 -2.6477 0.1655 0 7
6.0477 13.7439 -2.6477 0.1736 0 7
5.8248 13.8399 -2.6477 0.1736 0 7
5.6003 13.9323 -2.6477 0.1736 0 7
5.3743 14.0210 -2.6477 0.1736 0 7
5.1470 14.1060 -2.6477 0.1736 0 7
4.9183 14.1874 -2.6477 0.1736 0 7
4.6883 14.2650 -2.6477 0.1736 0 7
4.4571 14.3389 -2.6477 0.1736 0 7
4.2247 14.4091 -2.6477 0.1736 0 7
3.9912 14.4755 -2.6477 0.1736 0 7
3.7567 14.5381 -2.6477 0.1736 0 7
3.5212 14.5970 -2.6477 0.1736 0 7
3.2848 14.6520 -2.6477 0.1736 0 7
3.0475 14.7032 -2.6477 0.1736 0 7
2.8094 14.7505 -2.6477 0.1736 0 7
2.5706 14.7940 -2.6477 0.1736 0 7
2.3311 14.8336 -2.6477 0.1736 0 7
2.0910 14.8694 -2.6477 0.1736 0 7
1.8504 14.9012 -2.6477 0.1736 0 7
1.6093 14.9292 -2.6477 0.1736 0 7
1.3677 14.9533 -2.6477 0.1736 0 7
1.1258 14.9734 -2.6477 0.1736 0 7
0.8836 14.9897 -2.6477 0.1736 0 7
0.6412 15.0020 -2.6477 0.1736 0 7
0.3986 15.0104 -2.6477 0.1736 0 7
0.1559 15.0149 -2.6477 0.1736 0 7
-0.0868 15.0154 -2.6477 0.1736 0 7
-0.3295 15.0121 -2.6477 0.1736 0 7
-0.5722 15.0048 -2.6477 0.1736 0 7
-0.8146 14.9936 -2.6477 0.1736 0 7
-1.0569 14.9784 -2.6477 0.1736 0 6
-1.2989 14.9594 -2.6477 0.1736 0 6
-1.5406 14.9365 -2.6477 0.1736 0 6
-1.7817 14.9096 -2.6477 0.1736 0 7
-2.0225 14.8788 -2.6477 0.1736 0 7
-2.2629 14.8442 -2.6477 0.1736 0 7
-2.5025 14.8057 -2.6477 0.1736 0 7
-2.7415 14.7633 -2.6477 0.1736 0 7
-2.9798 14.7171 -2.6477 0.1736 0 7
-3.2173 14.6669 -2.6477 0.1736 0 7
-3.4540 14.6130 -2.6477 0.1736 0 7
-3.6898 14.5553 -2.6477 0.1736 0 7
-3.9246 14.4937 -2.6477 0.1736 0 7
-4.1584 14.4284 -2.6477 0.1736 0 7
-4.3911 14.3593 -2.6477 0.1736 0 7
-4.6226 14.2864 -2.6477 0.1736 0 7
-4.8530 14.2099 -2.6477 0.1736 0 7
-5.0820 14.1295 -2.6477 0.1736 0 7
-5.3098 14.0455 -2.6477 0.1736 0 7
-5.5361 13.9579 -2.6477 0.1736 0 7
-5.7610 13.8666 -2.6477 0.1736 0 7
-5.9844 13.7716 -2.6477 0.1736 0 7
-6.2063 13.6731 -2.6477 0.1736 0 7
-6.4265 13.5710 -2.6477 0.1736 0 7
-6.6450 13.4653 -2.6477 0.1736 0 7
-6.8618 13.3561 -2.6477 0.1736 0 7
-7.0768 13.2435 -2.6477 0.1736 0 7
-7.2900 13.1273 -2.6477 0.1736 0 7
-7.5012 13.0078 -2.6477 0.1736 0 7
-7.7106 12.8848 -2.6477 0.1736 0 7
-7.9178 12.7585 -2.6477 0.1736 0 7
-8.1230 12.6288 -2.6477 0.1736 0 7
-8.3261 12.4959 -2.6477 0.1736 0 7
-8.5270 12.3596 -2.6477 0.1736 0 7
-8.7257 12.2202 -2.6477 0.1736 0 7
-8.9221 12.0775 -2.6477 0.1736 0 7
-9.1162 11.9317 -2.6477 0.1736 0 7
-9.3079 11.7828 -2.6477 0.1736 0 7
-9.4971 11.6308 -2.6477 0.1736 0 7
-9.6839 11.4758 -2.6477 0.1736 0 7
-9.8682 11.3177 -2.6477 0.1736 0 7
-10.0498 11.1567 -2.6477 0.1736 0 7
-10.2289 10.9928 -2.6477 0.1736 0 7
-10.4052 10.8260 -2.6477 0.1736 0 7
-10.5789 10.6564 -2.6477 0.1736 0 7
-10.7497 10.4840 -2.6477 0.1736 0 7
-10.9178 10.3089 -2.6477 0.1736 0 7
-11.0830 10.1310 -2.6477 0.1736 0 7
-11.2453 9.9505 -2.6477 0.1736 0 7
-11.4047 9.7674 -2.6477 0.1736 0 7
-11.5611 9.5818 -2.6477 0.1736 0 7
-11.7145 9.3937 -2.6477 0.1736 0 7
-11.8648 9.2031 -2.6477 0.1736 0 7
-12.0121 9.0101 -2.6477 0.1736 0 7
-11.4564 8.3073 -2.4953 0.1736 0 8
5.7670 13.1060 -2.6477 0.1818 0 7
5.5544 13.1975 -2.6477 0.1818 0 7
5.3404 13.2856 -2.6477 0.1818 0 7
5.1249 13.3702 -2.6477 0.1818 0 7
4.9081 13.4513 -2.6477 0.1818 0 7
4.6900 13.5289 -2.6477 0.1818 0 7
4.4707 13.6029 -2.6477 0.1818 0 7
4.2502 13.6734 -2.6477 0.1818 0 7
4.0286 13.7403 -2.6477 0.1818 0 7
3.8060 13.8037 -2.6477 0.1818 0 7
3.5824 13.8634 -2.6477 0.1818 0 7
3.3578 13.9195 -2.6477 0.1818 0 7
3.1323 13.9720 -2.6477 0.1818 0 7
2.9061 14.0208 -2.6477 0.1818 0 7
2.6790 14.0659 -2.6477 0.1818 0 7
2.4513 14.1074 -2.6477 0.1818 0 7
2.2229 14.1452 -2.6477 0.1818 0 7
1.9940 14.1792 -2.6477 0.1818 0 7
1.7645 14.2096 -2.6477 0.1818 0 7
1.5346 14.2363 -2.6477 0.1818 0 7
1.3043 14.2592 -2.6477 0.1818 0 7
1.0736 14.2785 -2.6477 0.1818 0 7
0.8426 14.2939 -2.6477 0.1818 0 7
0.6114 14.3057 -2.6477 0.1818 0 7
0.3801 14.3137 -2.6477 0.1818 0 7
0.1487 14.3180 -2.6477 0.1818 0 7
-0.0828 14.3185 -2.6477 0.1818 0 7
-0.3142 14.3153 -2.6477 0.1818 0 7
-0.5456 14.3084 -2.6477 0.1818 0 7
-0.7768 14.2977 -2.6477 0.1818 0 7
-1.0079 14.2832 -2.6477 0.1818 0 7
-1.2386 14.2651 -2.6477 0.1818 0 7
-1.4691 14.2432 -2.6477 0.1818 0 7
-1.6991 14.2176 -2.6477 0.1818 0 7
-1.9287 14.1883 -2.6477 0.1818 0 7
-2.1578 14.1552 -2.6477 0.1818 0 7
-2.3864 14.1185 -2.6477 0.1818 0 7
-2.6143 14.0781 -2.6477 0.1818 0 7
-2.8415 14.0340 -2.6477 0.1818 0 7
-3.0680 13.9862 -2.6477 0.1818 0 7
-3.2937 13.9348 -2.6477 0.1818 0 7
-3.5185 13.8797 -2.6477 0.1818 0 7
-3.7424 13.8210 -2.6477 0.1818 0 7
-3.9654 13.7587 -2.6477 0.1818 0 7
-4.1873 13.6928 -2.6477 0.1818 0 7
-4.4081 13.6234 -2.6477 0.1818 0 7
-4.6277 13.5503 -2.6477 0.1818 0 7
-4.8462 13.4737 -2.6477 0.1818 0 7
-5.0633 13.3936 -2.6477 0.1818 0 7
-5.2792 13.3101 -2.6477 0.1818 0 7
-5.4936 13.2230 -2.6477 0.1818 0 7
-5.7067 13.1324 -2.6477 0.1818 0 7
-5.9182 13.0385 -2.6477 0.1818 0 7
-6.1282 12.9411 -2.6477 0.1818 0 7
-6.3366 12.8403 -2.6477 0.1818 0 7
-6.5434 12.7362 -2.6477 0.1818 0 7
-6.7484 12.6288 -2.6477 0.1818 0 7
-6.9516 12.5181 -2.6477 0.1818 0 7
-7.1531 12.4040 -2.6477 0.1818 0 7
-7.3527 12.2868 -2.6477 0.1818 0 7
-7.5503 12.1663 -2.6477 0.1818 0 7
-7.7460 12.0427 -2.6477 0.1818 0 7
-7.9397 11.9159 -2.6477 0.1818 0 7
-8.1313 11.7860 -2.6477 0.1818 0 7
-8.3207 11.6530 -2.6477 0.1818 0 7
-8.5080 11.5170 -2.6477 0.1818 0 7
-8.6931 11.3779 -2.6477 0.1818 0 6
-8.8759 11.2359 -2.6477 0.1818 0 7
-9.0563 11.0910 -2.6477 0.1818 0 7
-9.2344 10.9431 -2.6477 0.1818 0 7
-9.4101 10.7924 -2.6477 0.1818 0 7
-9.5834 10.6389 -2.6477 0.1818 0 7
-9.7541 10.4826 -2.6477 0.1818 0 7
-9.9223 10.3235 -2.6477 0.1818 0 7
-10.0879 10.1618 -2.6477 0.1818 0 7
-10.2508 9.9974 -2.6477 0.1818 0 7
-10.4111 9.8304 -2.6477 0.1818 0 7
-10.5686 9.6608 -2.6477 0.1818 0 7
-10.7234 9.4887 -2.6477 0.1818 0 7
-10.8754 9.3141 -2.6477 0.1818 0 7
-11.0246 9.1371 -2.6477 0.1818 0 7
-11.1708 8.9577 -2.6477 0.1818 0 7
-10.6629 8.2708 -2.4953 0.1818 0 8
-10.7952 8.0973 -2.4953 0.1818 0 8
-10.9247 7.9218 -2.4953 0.1818 0 8
5.5105 12.5230 -2.6477 0.1900 0 7
5.3073 12.6104 -2.6477 0.1900 0 7
5.1028 12.6946 -2.6477 0.1900 0 7
4.8969 12.7754 -2.6477 0.1900 0 7
4.6898 12.8529 -2.6477 0.1900 0 7
4.4814 12.9270 -2.6477 0.1900 0 7
4.2718 12.9978 -2.6477 0.1900 0 7
4.0612 13.0652 -2.6477 0.1900 0 7
3.8494 13.1291 -2.6477 0.1900 0 7
3.6367 13.1896 -2.6477 0.1900 0 7
3.4230 13.2467 -2.6477 0.1900 0 7
3.2084 13.3003 -2.6477 0.1900 0 7
2.9930 13.3504 -2.6477 0.1900 0 7
2.7768 13.3970 -2.6477 0.1900 0 7
2.5599 13.4402 -2.6477 0.1900 0 7
2.3423 13.4798 -2.6477 0.1900 0 7
2.1241 13.5159 -2.6477 0.1900 0 7
1.9053 13.5485 -2.6477 0.1900 0 7
1.6860 13.5775 -2.6477 0.1900 0 7
1.4663 13.6030 -2.6477 0.1900 0 7
1.2462 13.6249 -2.6477 0.1900 0 7
1.0258 13.6433 -2.6477 0.1900 0 7
0.8051 13.6581 -2.6477 0.1900 0 7
0.5842 13.6693 -2.6477 0.1900 0 7
0.3632 13.6770 -2.6477 0.1900 0 7
0.1421 13.6810 -2.6477 0.1900 0 7
-0.0791 13.6816 -2.6477 0.1900 0 7
-0.3003 13.6785 -2.6477 0.1900 0 7
-0.5213 13.6719 -2.6477 0.1900 0 7
-0.7423 13.6616 -2.6477 0.1900 0 7
-0.9630 13.6478 -2.6477 0.1900 0 7
-1.1835 13.6305 -2.6477 0.1900 0 7
-1.4037 13.6096 -2.6477 0.1900 0 7
-1.6235 13.5851 -2.6477 0.1900 0 7
-1.8429 13.5571 -2.6477 0.1900 0 7
-2.0618 13.5255 -2.6477 0.1900 0 7
-2.2802 13.4904 -2.6477 0.1900 0 7
-2.4980 13.4518 -2.6477 0.1900 0 7
-2.7151 13.4097 -2.6477 0.1900 0 7
-2.9315 13.3640 -2.6477 0.1900 0 7
-3.1472 13.3149 -2.6477 0.1900 0 7
-3.3620 13.2623 -2.6477 0.1900 0 7
-3.5760 13.2062 -2.6477 0.1900 0 7
-3.7890 13.1467 -2.6477 0.1900 0 7
-4.0010 13.0837 -2.6477 0.1900 0 7
-4.2120 13.0173 -2.6477 0.1900 0 7
-4.4218 12.9475 -2.6477 0.1900 0 7
-4.6306 12.8744 -2.6477 0.1900 0 7
-4.8381 12.7978 -2.6477 0.1900 0 7
-5.0443 12.7179 -2.6477 0.1900 0 7
-5.2492 12.6347 -2.6477 0.1900 0 7
-5.4528 12.5482 -2.6477 0.1900 0 7
-5.6549 12.4584 -2.6477 0.1900 0 7
-5.8556 12.3654 -2.6477 0.1900 0 7
-6.0547 12.2691 -2.6477 0.1900 0 7
-6.2523 12.1696 -2.6477 0.1900 0 7
-6.4482 12.0670 -2.6477 0.1900 0 7
-6.6424 11.9612 -2.6477 0.1900 0 7
-6.8349 11.8522 -2.6477 0.1900 0 7
-7.0256 11.7402 -2.6477 0.1900 0 7
-7.2144 11.6251 -2.6477 0.1900 0 7
-7.4014 11.5070 -2.6477 0.1900 0 7
-7.5865 11.3858 -2.6477 0.1900 0 6
-7.7695 11.2617 -2.6477 0.1900 0 7
-7.9506 11.1346 -2.6477 0.1900 0 7
-8.1295 11.0046 -2.6477 0.1900 0 7
-8.3064 10.8718 -2.6477 0.1900 0 7
-8.4810 10.7361 -2.6477 0.1900 0 7
-8.6535 10.5976 -2.6477 0.1900 0 7
-8.8236 10.4563 -2.6477 0.1900 0 7
-8.9915 10.3123 -2.6477 0.1900 0 7
-9.1570 10.1656 -2.6477 0.1900 0 7
-9.3202 10.0163 -2.6477 0.1900 0 7
-9.4809 9.8643 -2.6477 0.1900 0 7
-9.6391 9.7097 -2.6477 0.1900 0 7
-9.7948 9.5527 -2.6477 0.1900 0 7
-9.9479 9.3931 -2.6477 0.1900 0 7
-10.0985 9.2310 -2.6477 0.1900 0 7
-10.2464 9.0666 -2.6477 0.1900 0 7
-9.7935 8.3875 -2.4953 0.1900 0 8
-9.9278 8.2281 -2.4953 0.1900 0 8
-10.0595 8.0665 -2.4953 0.1900 0 8
-10.1886 7.9029 -2.4953 0.1900 0 8
-10.3150 7.7371 -2.4953 0.1900 0 8
-10.4387 7.5694 -2.4953 0.1900 0 8
5.2751 11.9880 -2.6477 0.1981 0 7
5.0806 12.0717 -2.6477 0.1981 0 7
4.8848 12.1523 -2.6477 0.1981 0 7
4.6877 12.2296 -2.6477 0.1981 0 7
4.4894 12.3038 -2.6477 0.1981 0 7
4.2899 12.3748 -2.6477 0.1981 0 7
4.0893 12.4425 -2.6477 0.1981 0 7
3.8877 12.5070 -2.6477 0.1981 0 7
3.6850 12.5682 -2.6477 0.1981 0 7
3.4813 12.6261 -2.6477 0.1981 0 7
3.2768 12.6807 -2.6477 0.1981 0 7
3.0713 12.7321 -2.6477 0.1981 0 7
2.8651 12.7800 -2.6477 0.1981 0 7
2.6582 12.8247 -2.6477 0.1981 0 7
2.4505 12.8660 -2.6477 0.1981 0 7
2.2422 12.9039 -2.6477 0.1981 0 7
2.0333 12.9385 -2.6477 0.1981 0 7
1.8239 12.9697 -2.6477 0.1981 0 7
1.6140 12.9974 -2.6477 0.1981 0 7
1.4037 13.0218 -2.6477 0.1981 0 7
1.1930 13.0428 -2.6477 0.1981 0 7
0.9820 13.0604 -2.6477 0.1981 0 7
0.7707 13.0746 -2.6477 0.1981 0 7
0.5593 13.0853 -2.6477 0.1981 0 7
0.3477 13.0927 -2.6477 0.1981 0 7
0.1360 13.0966 -2.6477 0.1981 0 7
-0.0757 13.0971 -2.6477 0.1981 0 7
-0.2874 13.0941 -2.6477 0.1981 0 7
-0.4991 13.0878 -2.6477 0.1981 0 7
-0.7106 13.0780 -2.6477 0.1981 0 7
-0.9219 13.0648 -2.6477 0.1981 0 7
-1.1330 13.0482 -2.6477 0.1981 0 7
-1.3437 13.0282 -2.6477 0.1981 0 7
-1.5542 13.0047 -2.6477 0.1981 0 7
-1.7642 12.9779 -2.6477 0.1981 0 7
-1.9737 12.9477 -2.6477 0.1981 0 7
-2.1828 12.9141 -2.6477 0.1981 0 7
-2.3913 12.8771 -2.6477 0.1981 0 7
-2.5991 12.8368 -2.6477 0.1981 0 7
-2.8063 12.7931 -2.6477 0.1981 0 7
-3.0127 12.7461 -2.6477 0.1981 0 7
-3.2184 12.6957 -2.6477 0.1981 0 7
-3.4232 12.6420 -2.6477 0.1981 0 7
-3.6271 12.5850 -2.6477 0.1981 0 7
-3.8301 12.5247 -2.6477 0.1981 0 7
-4.0320 12.4612 -2.6477 0.1981 0 7
-4.2329 12.3944 -2.6477 0.1981 0 7
-4.4327 12.3243 -2.6477 0.1981 0 7
-4.6314 12.2511 -2.6477 0.1981 0 7
-4.8288 12.1746 -2.6477 0.1981 0 7
-5.0250 12.0950 -2.6477 0.1981 0 7
-5.2198 12.0121 -2.6477 0.1981 0 7
-5.4133 11.9262 -2.6477 0.1981 0 7
-5.6054 11.8371 -2.6477 0.1981 0 7
-5.7961 11.7450 -2.6477 0.1981 0 7
-5.9852 11.6497 -2.6477 0.1981 0 7
-6.1727 11.5515 -2.6477 0.1981 0 7
-6.3586 11.4502 -2.6477 0.1981 0 6
-6.5429 11.3459 -2.6477 0.1981 0 7
-6.7254 11.2386 -2.6477 0.1981 0 7
-6.9062 11.1285 -2.6477 0.1981 0 7
-7.0852 11.0154 -2.6477 0.1981 0 7
-7.2624 10.8994 -2.6477 0.1981 0 7
-7.4376 10.7806 -2.6477 0.1981 0 7
-7.6109 10.6589 -2.6477 0.1981 0 7
-7.7822 10.5345 -2.6477 0.1981 0 7
-7.9515 10.4073 -2.6477 0.1981 0 7
-8.1187 10.2774 -2.6477 0.1981 0 7
-8.2838 10.1448 -2.6477 0.1981 0 7
-8.4467 10.0096 -2.6477 0.1981 0 7
-8.6074 9.8717 -2.6477 0.1981 0 7
-8.7658 9.7313 -2.6477 0.1981 0 7
-8.9220 9.5883 -2.6477 0.1981 0 7
-9.0758 9.4429 -2.6477 0.1981 0 7
-9.2273 9.2949 -2.6477 0.1981 0 7
-9.3763 9.1445 -2.6477 0.1981 0 7
-9.5229 8.9918 -2.6477 0.1981 0 7
-9.1106 8.3280 -2.4953 0.1981 0 8
-9.2440 8.1797 -2.4953 0.1981 0 8
-9.3751 8.0292 -2.4953 0.1981 0 8
-9.5036 7.8766 -2.4953 0.1981 0 8
-9.6297 7.7219 -2.4953 0.1981 0 8
-9.7533 7.5652 -2.4953 0.1981 0 8
-9.8743 7.4066 -2.4953 0.1981 0 8
-9.9927 7.2460 -2.4953 0.1981 0 8
5.0583 11.4953 -2.6477 0.2063 0 6
4.8718 11.5755 -2.6477 0.2063 0 7
4.6840 11.6528 -2.6477 0.2063 0 7
4.4950 11.7270 -2.6477 0.2063 0 7
4.3049 11.7981 -2.6477 0.2063 0 7
4.1136 11.8661 -2.6477 0.2063 0 7
3.9212 11.9311 -2.6477 0.2063 0 7
3.7279 11.9929 -2.6477 0.2063 0 7
3.5335 12.0516 -2.6477 0.2063 0 7
3.3382 12.1071 -2.6477 0.2063 0 7
3.1421 12.1595 -2.6477 0.2063 0 7
2.9451 12.2087 -2.6477 0.2063 0 7
2.7474 12.2547 -2.6477 0.2063 0 7
2.5489 12.2976 -2.6477 0.2063 0 7
2.3498 12.3372 -2.6477 0.2063 0 7
2.1500 12.3735 -2.6477 0.2063 0 7
1.9497 12.4067 -2.6477 0.2063 0 7
1.7489 12.4366 -2.6477 0.2063 0 7
1.5477 12.4632 -2.6477 0.2063 0 7
1.3460 12.4866 -2.6477 0.2063 0 7
1.1440 12.5067 -2.6477 0.2063 0 7
0.9416 12.5236 -2.6477 0.2063 0 7
0.7391 12.5372 -2.6477 0.2063 0 7
0.5363 12.5475 -2.6477 0.2063 0 7
0.3334 12.5545 -2.6477 0.2063 0 7
0.1304 12.5583 -2.6477 0.2063 0 7
-0.0726 12.5587 -2.6477 0.2063 0 7
-0.2756 12.5559 -2.6477 0.2063 0 7
-0.4786 12.5498 -2.6477 0.2063 0 7
-0.6814 12.5404 -2.6477 0.2063 0 7
-0.8840 12.5278 -2.6477 0.2063 0 7
-1.0864 12.5119 -2.6477 0.2063 0 7
-1.2885 12.4927 -2.6477 0.2063 0 7
-1.4903 12.4702 -2.6477 0.2063 0 7
-1.6917 12.4445 -2.6477 0.2063 0 7
-1.8926 12.4155 -2.6477 0.2063 0 7
-2.0931 12.3833 -2.6477 0.2063 0 7
-2.2930 12.3478 -2.6477 0.2063 0 7
-2.4923 12.3092 -2.6477 0.2063 0 7
-2.6909 12.2673 -2.6477 0.2063 0 7
-2.8889 12.2222 -2.6477 0.2063 0 7
-3.0861 12.1739 -2.6477 0.2063 0 7
-3.2825 12.1224 -2.6477 0.2063 0 7
-3.4780 12.0677 -2.6477 0.2063 0 7
-3.6726 12.0099 -2.6477 0.2063 0 7
-3.8663 11.9490 -2.6477 0.2063 0 7
-4.0589 11.8849 -2.6477 0.2063 0 7
-4.2505 11.8178 -2.6477 0.2063 0 7
-4.4410 11.7475 -2.6477 0.2063 0 7
-4.6303 11.6742 -2.6477 0.2063 0 7
-4.8184 11.5978 -2.6477 0.2063 0 7
-5.0053 11.5184 -2.6477 0.2063 0 7
-5.1908 11.4360 -2.6477 0.2063 0 6
-5.3750 11.3506 -2.6477 0.2063 0 7
-5.5578 11.2622 -2.6477 0.2063 0 7
-5.7392 11.1709 -2.6477 0.2063 0 7
-5.9190 11.0767 -2.6477 0.2063 0 7
-6.0973 10.9795 -2.6477 0.2063 0 7
-6.2739 10.8795 -2.6477 0.2063 0 7
-6.4490 10.7767 -2.6477 0.2063 0 7
-6.6224 10.6710 -2.6477 0.2063 0 7
-6.7940 10.5626 -2.6477 0.2063 0 7
-6.9639 10.4514 -2.6477 0.2063 0 7
-7.1319 10.3374 -2.6477 0.2063 0 7
-7.2981 10.2208 -2.6477 0.2063 0 7
-7.4623 10.1015 -2.6477 0.2063 0 7
-7.6247 9.9795 -2.6477 0.2063 0 7
-7.7850 9.8550 -2.6477 0.2063 0 7
-7.9433 9.7279 -2.6477 0.2063 0 7
-8.0995 9.5982 -2.6477 0.2063 0 7
-8.2536 9.4660 -2.6477 0.2063 0 7
-8.4055 9.3313 -2.6477 0.2063 0 7
-8.5553 9.1942 -2.6477 0.2063 0 7
-8.7028 9.0547 -2.6477 0.2063 0 7
-8.3387 8.3998 -2.4953 0.2063 0 8
-8.4734 8.2640 -2.4953 0.2063 0 8
-8.6059 8.1259 -2.4953 0.2063 0 8
-8.7361 7.9857 -2.4953 0.2063 0 8
-8.8641 7.8435 -2.4953 0.2063 0 8
-8.9897 7.6991 -2.4953 0.2063 0 8
-9.1130 7.5528 -2.4953 0.2063 0 8
-9.2339 7.4045 -2.4953 0.2063 0 8
-9.3524 7.2543 -2.4953 0.2063 0 8
-9.4684 7.1021 -2.4953 0.2063 0 8
-9.5820 6.9482 -2.4953 0.2063 0 8
4.8579 11.0399 -2.6477 0.2144 0 7
4.6788 11.1170 -2.6477 0.2144 0 7
4.4985 11.1911 -2.6477 0.2144 0 7
4.3170 11.2624 -2.6477 0.2144 0 7
4.1343 11.3307 -2.6477 0.2144 0 7
3.9507 11.3961 -2.6477 0.2144 0 6
3.7660 11.4584 -2.6477 0.2144 0 6
3.5802 11.5178 -2.6477 0.2144 0 7
3.3935 11.5742 -2.6477 0.2144 0 7
3.2060 11.6275 -2.6477 0.2144 0 7
3.0176 11.6778 -2.6477 0.2144 0 7
2.8284 11.7251 -2.6477 0.2144 0 7
2.6385 11.7693 -2.6477 0.2144 0 7
2.4479 11.8104 -2.6477 0.2144 0 7
2.2567 11.8484 -2.6477 0.2144 0 7
2.0649 11.8834 -2.6477 0.2144 0 7
1.8725 11.9152 -2.6477 0.2144 0 7
1.6796 11.9439 -2.6477 0.2144 0 7
1.4863 11.9695 -2.6477 0.2144 0 7
1.2927 11.9919 -2.6477 0.2144 0 7
1.0986 12.0113 -2.6477 0.2144 0 7
0.9043 12.0275 -2.6477 0.2144 0 7
0.7098 12.0405 -2.6477 0.2144 0 7
0.5151 12.0504 -2.6477 0.2144 0 7
0.3202 12.0572 -2.6477 0.2144 0 7
0.1252 12.0608 -2.6477 0.2144 0 7
-0.0697 12.0612 -2.6477 0.2144 0 7
-0.2647 12.0585 -2.6477 0.2144 0 7
-0.4596 12.0527 -2.6477 0.2144 0 7
-0.6544 12.0437 -2.6477 0.2144 0 7
-0.8490 12.0315 -2.6477 0.2144 0 7
-1.0434 12.0162 -2.6477 0.2144 0 7
-1.2375 11.9978 -2.6477 0.2144 0 7
-1.4312 11.9762 -2.6477 0.2144 0 7
-1.6247 11.9515 -2.6477 0.2144 0 7
-1.8176 11.9237 -2.6477 0.2144 0 7
-2.0102 11.8927 -2.6477 0.2144 0 7
-2.2021 11.8587 -2.6477 0.2144 0 7
-2.3936 11.8215 -2.6477 0.2144 0 7
-2.5843 11.7813 -2.6477 0.2144 0 7
-2.7745 11.7380 -2.6477 0.2144 0 7
-2.9638 11.6916 -2.6477 0.2144 0 7
-3.1524 11.6422 -2.6477 0.2144 0 7
-3.3402 11.5897 -2.6477 0.2144 0 7
-3.5271 11.5342 -2.6477 0.2144 0 7
-3.7131 11.4756 -2.6477 0.2144 0 6
-3.8982 11.4141 -2.6477 0.2144 0 6
-4.0822 11.3496 -2.6477 0.2144 0 7
-4.2651 11.2821 -2.6477 0.2144 0 7
-4.4469 11.2117 -2.6477 0.2144 0 7
-4.6276 11.1384 -2.6477 0.2144 0 7
-4.8070 11.0621 -2.6477 0.2144 0 7
-4.9852 10.9830 -2.6477 0.2144 0 7
-5.1621 10.9009 -2.6477 0.2144 0 7
-5.3376 10.8161 -2.6477 0.2144 0 7
-5.5118 10.7284 -2.6477 0.2144 0 7
-5.6845 10.6379 -2.6477 0.2144 0 7
-5.8557 10.5446 -2.6477 0.2144 0 7
-6.0254 10.4486 -2.6477 0.2144 0 7
-6.1935 10.3498 -2.6477 0.2144 0 7
-6.3600 10.2483 -2.6477 0.2144 0 7
-6.5249 10.1442 -2.6477 0.2144 0 7
-6.6880 10.0374 -2.6477 0.2144 0 7
-6.8494 9.9279 -2.6477 0.2144 0 7
-7.0090 9.8159 -2.6477 0.2144 0 7
-7.1667 9.7013 -2.6477 0.2144 0 7
-7.3226 9.5842 -2.6477 0.2144 0 7
-7.4766 9.4646 -2.6477 0.2144 0 7
-7.6286 9.3425 -2.6477 0.2144 0 7
-7.7786 9.2180 -2.6477 0.2144 0 7
-7.9266 9.0910 -2.6477 0.2144 0 7
-8.0725 8.9617 -2.6477 0.2144 0 7
-7.7434 8.3218 -2.4953 0.2144 0 8
-7.8769 8.1955 -2.4953 0.2144 0 8
-8.0084 8.0671 -2.4953 0.2144 0 8
-8.1378 7.9366 -2.4953 0.2144 0 8
-8.2650 7.8040 -2.4953 0.2144 0 8
-8.3901 7.6694 -2.4953 0.2144 0 8
-8.5129 7.5327 -2.4953 0.2144 0 8
-8.6336 7.3941 -2.4953 0.2144 0 8
-8.7520 7.2536 -2.4953 0.2144 0 8
-8.8681 7.1112 -2.4953 0.2144 0 8
-8.9819 6.9669 -2.4953 0.2144 0 8
-9.0934 6.8208 -2.4953 0.2144 0 8
-9.2024 6.6729 -2.4953 0.2144 0 8
4.6721 10.6177 -2.6477 0.2225 0 7
4.4999 10.6919 -2.6477 0.2225 0 7
4.3264 10.7632 -2.6477 0.2225 0 7
4.1519 10.8317 -2.6477 0.2225 0 7
3.9763 10.8974 -2.6477 0.2225 0 7
3.7996 10.9603 -2.6477 0.2225 0 7
3.6219 11.0203 -2.6477 0.2225 0 7
3.4433 11.0774 -2.6477 0.2225 0 7
3.2638 11.1316 -2.6477 0.2225 0 7
3.0834 11.1829 -2.6477 0.2225 0 7
2.9022 11.2313 -2.6477 0.2225 0 7
2.7203 11.2767 -2.6477 0.2225 0 7
2.5376 11.3192 -2.6477 0.2225 0 7
2.3543 11.3588 -2.6477 0.2225 0 7
2.1704 11.3954 -2.6477 0.2225 0 6
1.9859 11.4290 -2.6477 0.2225 0 6
1.8009 11.4596 -2.6477 0.2225 0 6
1.6154 11.4872 -2.6477 0.2225 0 6
1.4295 11.5118 -2.6477 0.2225 0 7
1.2432 11.5334 -2.6477 0.2225 0 7
1.0566 11.5520 -2.6477 0.2225 0 7
0.8697 11.5676 -2.6477 0.2225 0 7
0.6826 11.5801 -2.6477 0.2225 0 7
0.4954 11.5896 -2.6477 0.2225 0 7
0.3079 11.5961 -2.6477 0.2225 0 7
0.1205 11.5996 -2.6477 0.2225 0 7
-0.0671 11.6000 -2.6477 0.2225 0 7
-0.2546 11.5974 -2.6477 0.2225 0 7
-0.4420 11.5918 -2.6477 0.2225 0 7
-0.6293 11.5831 -2.6477 0.2225 0 7
-0.8165 11.5714 -2.6477 0.2225 0 7
-1.0035 11.5567 -2.6477 0.2225 0 7
-1.1901 11.5390 -2.6477 0.2225 0 7
-1.3765 11.5183 -2.6477 0.2225 0 7
-1.5625 11.4945 -2.6477 0.2225 0 7
-1.7481 11.4677 -2.6477 0.2225 0 6
-1.9332 11.4380 -2.6477 0.2225 0 6
-2.1179 11.4052 -2.6477 0.2225 0 6
-2.3020 11.3695 -2.6477 0.2225 0 6
-2.4855 11.3308 -2.6477 0.2225 0 7
-2.6684 11.2891 -2.6477 0.2225 0 7
-2.8505 11.2445 -2.6477 0.2225 0 7
-3.0319 11.1970 -2.6477 0.2225 0 7
-3.2125 11.1465 -2.6477 0.2225 0 7
-3.3923 11.0931 -2.6477 0.2225 0 7
-3.5711 11.0368 -2.6477 0.2225 0 7
-3.7491 10.9777 -2.6477 0.2225 0 7
-3.9261 10.9156 -2.6477 0.2225 0 7
-4.1020 10.8507 -2.6477 0.2225 0 7
-4.2769 10.7830 -2.6477 0.2225 0 7
-4.4506 10.7125 -2.6477 0.2225 0 7
-4.6232 10.6391 -2.6477 0.2225 0 7
-4.7946 10.5630 -2.6477 0.2225 0 7
-4.9647 10.4841 -2.6477 0.2225 0 7
-5.1335 10.4025 -2.6477 0.2225 0 7
-5.3010 10.3181 -2.6477 0.2225 0 7
-5.4671 10.2311 -2.6477 0.2225 0 7
-5.6318 10.1414 -2.6477 0.2225 0 7
-5.7950 10.0490 -2.6477 0.2225 0 7
-5.9567 9.9540 -2.6477 0.2225 0 7
-6.1168 9.8564 -2.6477 0.2225 0 7
-6.2754 9.7563 -2.6477 0.2225 0 7
-6.4323 9.6535 -2.6477 0.2225 0 7
-6.5875 9.5483 -2.6477 0.2225 0 7
-6.7410 9.4406 -2.6477 0.2225 0 7
-6.8927 9.3304 -2.6477 0.2225 0 7
-7.0426 9.2177 -2.6477 0.2225 0 7
-7.1907 9.1027 -2.6477 0.2225 0 7
-7.3369 8.9853 -2.6477 0.2225 0 7
-7.0506 8.3552 -2.4953 0.2225 0 8
-7.1847 8.2401 -2.4953 0.2225 0 8
-7.3170 8.1229 -2.4953 0.2225 0 8
-7.4473 8.0035 -2.4953 0.2225 0 8
-7.5757 7.8821 -2.4953 0.2225 0 8
-7.7022 7.7586 -2.4953 0.2225 0 8
-7.8266 7.6331 -2.4953 0.2225 0 8
-7.9489 7.5056 -2.4953 0.2225 0 8
-8.0692 7.3761 -2.4953 0.2225 0 8
-8.1874 7.2447 -2.4953 0.2225 0 8
-8.3035 7.1114 -2.4953 0.2225 0 8
-8.4173 6.9762 -2.4953 0.2225 0 8
-8.5290 6.8393 -2.4953 0.2225 0 8
-8.6385 6.7005 -2.4953 0.2225 0 8
-8.7456 6.5600 -2.4953 0.2225 0 8
-8.8505 6.4177 -2.4953 0.2225 0 8
4.4994 10.2252 -2.6477 0.2306 0 7
4.3335 10.2966 -2.6477 0.2306 0 7
4.1665 10.3653 -2.6477 0.2306 0 7
3.9984 10.4313 -2.6477 0.2306 0 7
3.8293 10.4946 -2.6477 0.2306 0 7
3.6591 10.5551 -2.6477 0.2306 0 7
3.4880 10.6129 -2.6477 0.2306 0 7
3.3160 10.6679 -2.6477 0.2306 0 7
3.1431 10.7201 -2.6477 0.2306 0 7
2.9694 10.7695 -2.6477 0.2306 0 7
2.7949 10.8161 -2.6477 0.2306 0 7
2.6197 10.8599 -2.6477 0.2306 0 7
2.4438 10.9008 -2.6477 0.2306 0 7
2.2673 10.9389 -2.6477 0.2306 0 7
2.0902 10.9741 -2.6477 0.2306 0 7
1.9125 11.0065 -2.6477 0.2306 0 7
1.7343 11.0360 -2.6477 0.2306 0 7
1.5557 11.0626 -2.6477 0.2306 0 7
1.3767 11.0863 -2.6477 0.2306 0 7
1.1973 11.1071 -2.6477 0.2306 0 7
1.0176 11.1250 -2.6477 0.2306 0 7
0.8376 11.1400 -2.6477 0.2306 0 7
0.6574 11.1520 -2.6477 0.2306 0 7
0.4770 11.1612 -2.6477 0.2306 0 7
0.2966 11.1675 -2.6477 0.2306 0 7
0.1160 11.1708 -2.6477 0.2306 0 7
-0.0646 11.1712 -2.6477 0.2306 0 7
-0.2452 11.1687 -2.6477 0.2306 0 7
-0.4257 11.1633 -2.6477 0.2306 0 7
-0.6061 11.1550 -2.6477 0.2306 0 7
-0.7863 11.1437 -2.6477 0.2306 0 7
-0.9664 11.1295 -2.6477 0.2306 0 7
-1.1462 11.1125 -2.6477 0.2306 0 7
-1.3256 11.0925 -2.6477 0.2306 0 7
-1.5048 11.0696 -2.6477 0.2306 0 7
-1.6835 11.0438 -2.6477 0.2306 0 7
-1.8618 11.0152 -2.6477 0.2306 0 7
-2.0396 10.9836 -2.6477 0.2306 0 7
-2.2169 10.9492 -2.6477 0.2306 0 7
-2.3936 10.9120 -2.6477 0.2306 0 7
-2.5697 10.8718 -2.6477 0.2306 0 7
-2.7451 10.8289 -2.6477 0.2306 0 7
-2.9198 10.7831 -2.6477 0.2306 0 7
-3.0938 10.7345 -2.6477 0.2306 0 7
-3.2669 10.6831 -2.6477 0.2306 0 7
-3.4391 10.6289 -2.6477 0.2306 0 7
-3.6105 10.5719 -2.6477 0.2306 0 7
-3.7809 10.5121 -2.6477 0.2306 0 7
-3.9504 10.4496 -2.6477 0.2306 0 7
-4.1188 10.3844 -2.6477 0.2306 0 7
-4.2861 10.3165 -2.6477 0.2306 0 7
-4.4523 10.2458 -2.6477 0.2306 0 7
-4.6174 10.1725 -2.6477 0.2306 0 7
-4.7812 10.0966 -2.6477 0.2306 0 7
-4.9438 10.0180 -2.6477 0.2306 0 7
-5.1051 9.9367 -2.6477 0.2306 0 7
-5.2650 9.8529 -2.6477 0.2306 0 7
-5.4236 9.7665 -2.6477 0.2306 0 7
-5.5808 9.6776 -2.6477 0.2306 0 7
-5.7365 9.5861 -2.6477 0.2306 0 7
-5.8907 9.4921 -2.6477 0.2306 0 7
-6.0434 9.3956 -2.6477 0.2306 0 7
-6.1945 9.2967 -2.6477 0.2306 0 7
-6.3440 9.1954 -2.6477 0.2306 0 7
-6.4918 9.0916 -2.6477 0.2306 0 7
-6.6379 8.9855 -2.6477 0.2306 0 7
-6.3919 8.3660 -2.4953 0.2306 0 8
-6.5263 8.2616 -2.4953 0.2306 0 8
-6.6590 8.1550 -2.4953 0.2306 0 8
-6.7900 8.0463 -2.4953 0.2306 0 8
-6.9191 7.9355 -2.4953 0.2306 0 8
-7.0465 7.8226 -2.4953 0.2306 0 8
-7.1720 7.7077 -2.4953 0.2306 0 8
-7.2957 7.5908 -2.4953 0.2306 0 8
-7.4175 7.4718 -2.4953 0.2306 0 8
-7.5373 7.3509 -2.4953 0.2306 0 8
-7.6551 7.2281 -2.4953 0.2306 0 8
-7.7710 7.1035 -2.4953 0.2306 0 8
-7.8848 6.9769 -2.4953 0.2306 0 8
-7.9965 6.8485 -2.4953 0.2306 0 8
-8.1062 6.7184 -2.4953 0.2306 0 8
-8.2137 6.5864 -2.4953 0.2306 0 8
-8.3191 6.4528 -2.4953 0.2306 0 8
-8.4224 6.3175 -2.4953 0.2306 0 8
-8.5234 6.1805 -2.4953 0.2306 0 8
4.3384 9.8594 -2.6477 0.2387 0 7
4.1785 9.9282 -2.6477 0.2387 0 7
4.0174 9.9944 -2.6477 0.2387 0 7
3.8553 10.0581 -2.6477 0.2387 0 7
3.6922 10.1191 -2.6477 0.2387 0 7
3.5282 10.1774 -2.6477 0.2387 0 7
3.3632 10.2332 -2.6477 0.2387 0 7
3.1973 10.2862 -2.6477 0.2387 0 7
3.0306 10.3365 -2.6477 0.2387 0 7
2.8632 10.3842 -2.6477 0.2387 0 7
2.6949 10.4291 -2.6477 0.2387 0 7
2.5260 10.4713 -2.6477 0.2387 0 7
2.3564 10.5108 -2.6477 0.2387 0 7
2.1862 10.5475 -2.6477 0.2387 0 7
2.0154 10.5814 -2.6477 0.2387 0 7
1.8441 10.6126 -2.6477 0.2387 0 7
1.6723 10.6411 -2.6477 0.2387 0 7
1.5000 10.6667 -2.6477 0.2387 0 7
1.3274 10.6896 -2.6477 0.2387 0 7
1.1544 10.7096 -2.6477 0.2387 0 7
0.9812 10.7269 -2.6477 0.2387 0 7
0.8076 10.7413 -2.6477 0.2387 0 7
0.6339 10.7530 -2.6477 0.2387 0 7
0.4600 10.7618 -2.6477 0.2387 0 7
0.2859 10.7679 -2.6477 0.2387 0 7
0.1118 10.7711 -2.6477 0.2387 0 7
-0.0623 10.7715 -2.6477 0.2387 0 7
-0.2364 10.7691 -2.6477 0.2387 0 7
-0.4105 10.7638 -2.6477 0.2387 0 7
-0.5844 10.7558 -2.6477 0.2387 0 7
-0.7582 10.7449 -2.6477 0.2387 0 7
-0.9318 10.7313 -2.6477 0.2387 0 7
-1.1051 10.7148 -2.6477 0.2387 0 7
-1.2782 10.6955 -2.6477 0.2387 0 7
-1.4509 10.6735 -2.6477 0.2387 0 7
-1.6233 10.6486 -2.6477 0.2387 0 7
-1.7952 10.6210 -2.6477 0.2387 0 7
-1.9667 10.5906 -2.6477 0.2387 0 7
-2.1376 10.5574 -2.6477 0.2387 0 7
-2.3080 10.5215 -2.6477 0.2387 0 7
-2.4778 10.4828 -2.6477 0.2387 0 7
-2.6469 10.4414 -2.6477 0.2387 0 7
-2.8153 10.3972 -2.6477 0.2387 0 7
-2.9830 10.3504 -2.6477 0.2387 0 7
-3.1500 10.3008 -2.6477 0.2387 0 7
-3.3161 10.2485 -2.6477 0.2387 0 7
-3.4813 10.1936 -2.6477 0.2387 0 7
-3.6456 10.1360 -2.6477 0.2387 0 7
-3.8090 10.0757 -2.6477 0.2387 0 7
-3.9714 10.0128 -2.6477 0.2387 0 7
-4.1327 9.9473 -2.6477 0.2387 0 7
-4.2930 9.8792 -2.6477 0.2387 0 7
-4.4521 9.8085 -2.6477 0.2387 0 7
-4.6101 9.7353 -2.6477 0.2387 0 7
-4.7669 9.6595 -2.6477 0.2387 0 7
-4.9224 9.5812 -2.6477 0.2387 0 7
-5.0766 9.5003 -2.6477 0.2387 0 7
-5.2296 9.4170 -2.6477 0.2387 0 7
-5.3811 9.3313 -2.6477 0.2387 0 7
-5.5312 9.2430 -2.6477 0.2387 0 7
-5.6799 9.1524 -2.6477 0.2387 0 7
-5.8271 9.0594 -2.6477 0.2387 0 7
-5.9728 8.9640 -2.6477 0.2387 0 7
-5.7649 8.3560 -2.4953 0.2387 0 8
-5.8992 8.2617 -2.4953 0.2387 0 8
-6.0320 8.1652 -2.4953 0.2387 0 8
-6.1632 8.0667 -2.4953 0.2387 0 8
-6.2928 7.9660 -2.4953 0.2387 0 8
-6.4207 7.8632 -2.4953 0.2387 0 8
-6.5470 7.7584 -2.4953 0.2387 0 8
-6.6715 7.6515 -2.4953 0.2387 0 8
-6.7944 7.5427 -2.4953 0.2387 0 8
-6.9154 7.4319 -2.4953 0.2387 0 8
-7.0346 7.3191 -2.4953 0.2387 0 8
-7.1520 7.2045 -2.4953 0.2387 0 8
-7.2676 7.0879 -2.4953 0.2387 0 8
-7.3812 6.9695 -2.4953 0.2387 0 8
-7.4929 6.8493 -2.4953 0.2387 0 8
-7.6026 6.7272 -2.4953 0.2387 0 8
-7.7104 6.6035 -2.4953 0.2387 0 8
-7.8161 6.4780 -2.4953 0.2387 0 8
-7.9198 6.3508 -2.4953 0.2387 0 8
-8.0214 6.2219 -2.4953 0.2387 0 8
-8.1210 6.0914 -2.4953 0.2387 0 8
-8.2184 5.9594 -2.4953 0.2387 0 8
4.1879 9.5174 -2.6477 0.2468 0 7
4.0335 9.5838 -2.6477 0.2468 0 7
