ply
format ascii 1.0
element vertex 1425
property float32 x
property float32 y
property float32 z
property float32 CosAngle
property uint32 ObjIdx
property uint32 ObjTag
end_header
9.9958 -1.7722 -2.4953 0.2387 0 8
10.0230 -1.6111 -2.4953 0.2387 0 8
10.0476 -1.4497 -2.4953 0.2387 0 8
10.0696 -1.2878 -2.4953 0.2387 0 8
10.0890 -1.1257 -2.4953 0.2387 0 8
7.8372 -0.7470 -1.9351 0.4574 25 10
7.6640 -0.6062 -1.8897 0.7673 25 10
7.6066 -0.4787 -1.8734 0.8578 25 10
7.5774 -0.3545 -1.8646 0.9370 25 10
7.5626 -0.2320 -1.8598 0.9648 25 10
7.5569 -0.1101 -1.8577 0.9271 25 10
7.5598 0.0115 -1.8582 0.9268 25 10
7.5567 0.1331 -1.8577 0.9658 25 10
7.5640 0.2550 -1.8603 0.9645 25 10
7.5823 0.3778 -1.8660 0.9363 25 10
7.6170 0.5025 -1.8763 0.8565 25 10
7.6780 0.6307 -1.8936 0.7657 25 10
7.8800 0.7751 -1.9462 0.4548 25 10
10.0856 1.1562 -2.4953 0.2387 0 8
10.0657 1.3183 -2.4953 0.2387 0 8
10.0432 1.4801 -2.4953 0.2387 0 8
10.0180 1.6415 -2.4953 0.2387 0 8
9.9903 1.8025 -2.4953 0.2387 0 8
9.9600 1.9630 -2.4953 0.2387 0 8
9.9272 2.1230 -2.4953 0.2387 0 8
9.8917 2.2824 -2.4953 0.2387 0 8
9.8537 2.4413 -2.4953 0.2387 0 8
9.8132 2.5995 -2.4953 0.2387 0 8
9.7701 2.7570 -2.4953 0.2387 0 8
9.7245 2.9139 -2.4953 0.2387 0 8
9.6763 3.0700 -2.4953 0.2387 0 8
9.6257 3.2252 -2.4953 0.2387 0 8
9.5725 3.3797 -2.4953 0.2387 0 8
9.5169 3.5333 -2.4953 0.2387 0 8
9.4588 3.6859 -2.4953 0.2387 0 8
9.3983 3.8376 -2.4953 0.2387 0 8
9.3354 3.9883 -2.4953 0.2387 0 8
9.2700 4.1380 -2.4953 0.2387 0 8
9.2022 4.2866 -2.4953 0.2387 0 8
9.1320 4.4341 -2.4953 0.2387 0 8
9.0595 4.5805 -2.4953 0.2387 0 8
8.9847 4.7256 -2.4953 0.2387 0 8
8.9075 4.8696 -2.4953 0.2387 0 8
8.8280 5.0123 -2.4953 0.2387 0 8
8.7462 5.1537 -2.4953 0.2387 0 8
8.6621 5.2937 -2.4953 0.2387 0 8
8.5758 5.4324 -2.4953 0.2387 0 8
8.4873 5.5697 -2.4953 0.2387 0 8
8.3966 5.7055 -2.4953 0.2387 0 8
8.3037 5.8398 -2.4953 0.2387 0 8
8.2087 5.9727 -2.4953 0.2387 0 8
8.1115 6.1040 -2.4953 0.2387 0 8
8.0123 6.2337 -2.4953 0.2387 0 8
7.9110 6.3618 -2.4953 0.2387 0 8
7.8076 6.4883 -2.4953 0.2387 0 8
7.7022 6.6130 -2.4953 0.2387 0 8
7.5948 6.7361 -2.4953 0.2387 0 8
7.4854 6.8574 -2.4953 0.2387 0 8
7.3741 6.9770 -2.4953 0.2387 0 8
7.2609 7.0947 -2.4953 0.2387 0 8
7.1458 7.2106 -2.4953 0.2387 0 8
7.0289 7.3246 -2.4953 0.2387 0 8
6.9101 7.4368 -2.4953 0.2387 0 8
6.7896 7.5470 -2.4953 0.2387 0 8
6.6673 7.6553 -2.4953 0.2387 0 8
6.5433 7.7615 -2.4953 0.2387 0 8
6.4175 7.8658 -2.4953 0.2387 0 8
6.2902 7.9680 -2.4953 0.2387 0 8
6.1611 8.0682 -2.4953 0.2387 0 8
6.0305 8.1663 -2.4953 0.2387 0 8
5.8984 8.2623 -2.4953 0.2387 0 8
5.7647 8.3561 -2.4953 0.2387 0 8
5.6295 8.4478 -2.4953 0.2387 0 8
5.8283 9.0587 -2.6477 0.2387 0 7
5.6818 9.1512 -2.6477 0.2387 0 7
5.5339 9.2415 -2.6477 0.2387 0 7
5.3845 9.3293 -2.6477 0.2387 0 7
5.2337 9.4147 -2.6477 0.2387 0 7
5.0815 9.4977 -2.6477 0.2387 0 7
4.9280 9.5783 -2.6477 0.2387 0 7
4.7733 9.6563 -2.6477 0.2387 0 7
4.6173 9.7319 -2.6477 0.2387 0 7
4.4601 9.8049 -2.6477 0.2387 0 7
4.3018 9.8754 -2.6477 0.2387 0 7
4.1424 9.9433 -2.6477 0.2387 0 7
3.9819 10.0087 -2.6477 0.2387 0 7
3.8203 10.0714 -2.6477 0.2387 0 7
3.6578 10.1316 -2.6477 0.2387 0 7
3.4943 10.1891 -2.6477 0.2387 0 7
3.3299 10.2440 -2.6477 0.2387 0 7
3.1647 10.2963 -2.6477 0.2387 0 7
2.9986 10.3459 -2.6477 0.2387 0 7
2.8318 10.3928 -2.6477 0.2387 0 7
2.6642 10.4370 -2.6477 0.2387 0 7
2.4959 10.4785 -2.6477 0.2387 0 7
2.3270 10.5173 -2.6477 0.2387 0 7
2.1575 10.5534 -2.6477 0.2387 0 7
1.9874 10.5867 -2.6477 0.2387 0 7
1.8168 10.6173 -2.6477 0.2387 0 7
1.6458 10.6452 -2.6477 0.2387 0 7
1.4743 10.6703 -2.6477 0.2387 0 7
1.3024 10.6926 -2.6477 0.2387 0 7
1.1302 10.7122 -2.6477 0.2387 0 7
0.9577 10.7290 -2.6477 0.2387 0 7
0.7850 10.7430 -2.6477 0.2387 0 7
0.6121 10.7543 -2.6477 0.2387 0 7
0.4389 10.7627 -2.6477 0.2387 0 7
0.2657 10.7684 -2.6477 0.2387 0 7
0.0924 10.7713 -2.6477 0.2387 0 7
-0.0809 10.7714 -2.6477 0.2387 0 7
-0.2542 10.7687 -2.6477 0.2387 0 7
-0.4274 10.7632 -2.6477 0.2387 0 7
-0.6005 10.7549 -2.6477 0.2387 0 7
-0.7735 10.7439 -2.6477 0.2387 0 7
-0.9462 10.7300 -2.6477 0.2387 0 7
-1.1187 10.7134 -2.6477 0.2387 0 7
-1.2909 10.6940 -2.6477 0.2387 0 7
-1.4628 10.6719 -2.6477 0.2387 0 7
-1.6343 10.6469 -2.6477 0.2387 0 7
-1.8054 10.6193 -2.6477 0.2387 0 7
-1.9761 10.5889 -2.6477 0.2387 0 7
-2.1462 10.5557 -2.6477 0.2387 0 7
-2.3157 10.5198 -2.6477 0.2387 0 7
-2.4847 10.4812 -2.6477 0.2387 0 7
-2.6530 10.4398 -2.6477 0.2387 0 7
-2.8206 10.3958 -2.6477 0.2387 0 7
-2.9875 10.3491 -2.6477 0.2387 0 7
-3.1536 10.2997 -2.6477 0.2387 0 7
-3.3189 10.2476 -2.6477 0.2387 0 7
-3.4834 10.1929 -2.6477 0.2387 0 7
-3.6469 10.1355 -2.6477 0.2387 0 7
-3.8095 10.0755 -2.6477 0.2387 0 7
-3.9711 10.0129 -2.6477 0.2387 0 7
-4.1317 9.9477 -2.6477 0.2387 0 7
-4.2912 9.8800 -2.6477 0.2387 0 7
-4.4496 9.8097 -2.6477 0.2387 0 7
-4.6069 9.7368 -2.6477 0.2387 0 7
-4.7629 9.6614 -2.6477 0.2387 0 7
-4.9177 9.5835 -2.6477 0.2387 0 7
8.2092 -5.3516 -2.4953 0.2468 0 8
8.2942 -5.2189 -2.4953 0.2468 0 8
8.3771 -5.0847 -2.4953 0.2468 0 8
8.4579 -4.9493 -2.4953 0.2468 0 8
8.5364 -4.8126 -2.4953 0.2468 0 8
8.6127 -4.6746 -2.4953 0.2468 0 8
8.6868 -4.5354 -2.4953 0.2468 0 8
8.7587 -4.3951 -2.4953 0.2468 0 8
8.8282 -4.2536 -2.4953 0.2468 0 8
8.8955 -4.1110 -2.4953 0.2468 0 8
8.9605 -3.9674 -2.4953 0.2468 0 8
9.0232 -3.8227 -2.4953 0.2468 0 8
9.0835 -3.6770 -2.4953 0.2468 0 8
9.1415 -3.5304 -2.4953 0.2468 0 8
9.1971 -3.3829 -2.4953 0.2468 0 8
9.2504 -3.2344 -2.4953 0.2468 0 8
9.3012 -3.0852 -2.4953 0.2468 0 8
9.3496 -2.9351 -2.4953 0.2468 0 8
9.3957 -2.7843 -2.4953 0.2468 0 8
9.4392 -2.6328 -2.4953 0.2468 0 8
9.4804 -2.4806 -2.4953 0.2468 0 8
9.5191 -2.3278 -2.4953 0.2468 0 8
9.5553 -2.1743 -2.4953 0.2468 0 8
9.5890 -2.0203 -2.4953 0.2468 0 8
9.6203 -1.8657 -2.4953 0.2468 0 8
9.6491 -1.7107 -2.4953 0.2468 0 8
9.6753 -1.5553 -2.4953 0.2468 0 8
9.6991 -1.3994 -2.4953 0.2468 0 8
9.7204 -1.2432 -2.4953 0.2468 0 8
9.7391 -1.0866 -2.4953 0.2468 0 8
7.8318 -0.7464 -2.0033 0.4011 25 10
7.6772 -0.6072 -1.9610 0.7644 25 10
7.6095 -0.4788 -1.9415 0.9140 25 10
7.5791 -0.3546 -1.9320 0.9185 25 10
7.5634 -0.2320 -1.9268 0.9240 25 10
7.5669 -0.1103 -1.9270 0.9239 25 10
7.5698 0.0115 -1.9275 0.9237 25 10
7.5662 0.1332 -1.9269 0.9240 25 10
7.5647 0.2550 -1.9273 0.9624 25 10
7.5848 0.3779 -1.9337 0.9177 25 10
7.6196 0.5027 -1.9444 0.8544 25 10
7.6913 0.6318 -1.9650 0.7628 25 10
7.8778 0.7749 -2.0156 0.3986 25 10
9.7358 1.1161 -2.4953 0.2468 0 8
9.7166 1.2726 -2.4953 0.2468 0 8
9.6948 1.4288 -2.4953 0.2468 0 8
9.6706 1.5846 -2.4953 0.2468 0 8
9.6438 1.7400 -2.4953 0.2468 0 8
9.6146 1.8949 -2.4953 0.2468 0 8
9.5829 2.0493 -2.4953 0.2468 0 8
9.5486 2.2033 -2.4953 0.2468 0 8
9.5120 2.3566 -2.4953 0.2468 0 8
9.4728 2.5093 -2.4953 0.2468 0 8
9.4312 2.6614 -2.4953 0.2468 0 8
9.3872 2.8128 -2.4953 0.2468 0 8
9.3407 2.9635 -2.4953 0.2468 0 8
9.2918 3.1134 -2.4953 0.2468 0 8
9.2405 3.2625 -2.4953 0.2468 0 8
9.1868 3.4107 -2.4953 0.2468 0 8
9.1308 3.5581 -2.4953 0.2468 0 8
9.0724 3.7045 -2.4953 0.2468 0 8
9.0116 3.8500 -2.4953 0.2468 0 8
8.9485 3.9945 -2.4953 0.2468 0 8
8.8830 4.1379 -2.4953 0.2468 0 8
8.8153 4.2803 -2.4953 0.2468 0 8
8.7453 4.4216 -2.4953 0.2468 0 8
8.6730 4.5617 -2.4953 0.2468 0 8
8.5985 4.7007 -2.4953 0.2468 0 8
8.5218 4.8384 -2.4953 0.2468 0 8
8.4428 4.9749 -2.4953 0.2468 0 8
8.3617 5.1101 -2.4953 0.2468 0 8
8.2784 5.2440 -2.4953 0.2468 0 8
8.1930 5.3765 -2.4953 0.2468 0 8
8.1054 5.5076 -2.4953 0.2468 0 8
8.0157 5.6373 -2.4953 0.2468 0 8
7.9240 5.7655 -2.4953 0.2468 0 8
7.8302 5.8923 -2.4953 0.2468 0 8
7.7344 6.0175 -2.4953 0.2468 0 8
7.6366 6.1411 -2.4953 0.2468 0 8
7.5368 6.2632 -2.4953 0.2468 0 8
7.4350 6.3837 -2.4953 0.2468 0 8
7.3314 6.5025 -2.4953 0.2468 0 8
7.2258 6.6196 -2.4953 0.2468 0 8
7.1184 6.7350 -2.4953 0.2468 0 8
7.0091 6.8486 -2.4953 0.2468 0 8
6.8980 6.9605 -2.4953 0.2468 0 8
6.7851 7.0706 -2.4953 0.2468 0 8
6.6705 7.1788 -2.4953 0.2468 0 8
6.5541 7.2852 -2.4953 0.2468 0 8
6.4361 7.3897 -2.4953 0.2468 0 8
6.3163 7.4923 -2.4953 0.2468 0 8
6.1950 7.5930 -2.4953 0.2468 0 8
6.0720 7.6917 -2.4953 0.2468 0 8
5.9475 7.7884 -2.4953 0.2468 0 8
5.8214 7.8831 -2.4953 0.2468 0 8
5.6938 7.9757 -2.4953 0.2468 0 8
5.5647 8.0663 -2.4953 0.2468 0 8
5.4342 8.1548 -2.4953 0.2468 0 8
5.3023 8.2411 -2.4953 0.2468 0 8
5.1706 8.3278 -2.4960 0.7556 0 8
5.0344 8.4075 -2.4953 0.2468 0 8
5.1977 9.0057 -2.6477 0.2468 0 7
5.0521 9.0882 -2.6477 0.2468 0 7
4.9053 9.1683 -2.6477 0.2468 0 7
4.7571 9.2461 -2.6477 0.2468 0 7
4.6077 9.3214 -2.6477 0.2468 0 7
4.4572 9.3943 -2.6477 0.2468 0 7
4.3055 9.4648 -2.6477 0.2468 0 7
4.1526 9.5329 -2.6477 0.2468 0 7
3.9987 9.5984 -2.6477 0.2468 0 7
3.8438 9.6615 -2.6477 0.2468 0 7
3.6878 9.7221 -2.6477 0.2468 0 7
3.5309 9.7802 -2.6477 0.2468 0 7
3.3731 9.8357 -2.6477 0.2468 0 7
3.2144 9.8887 -2.6477 0.2468 0 7
3.0549 9.9392 -2.6477 0.2468 0 7
2.8946 9.9870 -2.6477 0.2468 0 7
2.7336 10.0323 -2.6477 0.2468 0 7
2.5718 10.0750 -2.6477 0.2468 0 7
2.4094 10.1151 -2.6477 0.2468 0 7
2.2463 10.1525 -2.6477 0.2468 0 7
2.0827 10.1873 -2.6477 0.2468 0 7
1.9185 10.2195 -2.6477 0.2468 0 7
1.7538 10.2491 -2.6477 0.2468 0 7
1.5887 10.2760 -2.6477 0.2468 0 7
1.4232 10.3002 -2.6477 0.2468 0 7
1.2573 10.3218 -2.6477 0.2468 0 7
1.0910 10.3407 -2.6477 0.2468 0 7
0.9245 10.3569 -2.6477 0.2468 0 7
0.7578 10.3704 -2.6477 0.2468 0 7
0.5908 10.3813 -2.6477 0.2468 0 7
0.4237 10.3894 -2.6477 0.2468 0 7
0.2565 10.3949 -2.6477 0.2468 0 7
0.0892 10.3977 -2.6477 0.2468 0 7
-0.0781 10.3978 -2.6477 0.2468 0 7
-0.2453 10.3952 -2.6477 0.2468 0 7
-0.4126 10.3899 -2.6477 0.2468 0 7
-0.5797 10.3819 -2.6477 0.2468 0 7
-0.7466 10.3712 -2.6477 0.2468 0 7
-0.9134 10.3579 -2.6477 0.2468 0 7
-1.0799 10.3418 -2.6477 0.2468 0 7
-1.2462 10.3231 -2.6477 0.2468 0 7
-1.4121 10.3017 -2.6477 0.2468 0 7
-1.5777 10.2777 -2.6477 0.2468 0 7
-1.7428 10.2510 -2.6477 0.2468 0 7
-1.9075 10.2216 -2.6477 0.2468 0 7
-2.0717 10.1896 -2.6477 0.2468 0 7
-2.2354 10.1549 -2.6477 0.2468 0 7
-2.3985 10.1176 -2.6477 0.2468 0 7
-2.5610 10.0777 -2.6477 0.2468 0 7
-2.7228 10.0352 -2.6477 0.2468 0 7
-2.8839 9.9901 -2.6477 0.2468 0 7
-3.0442 9.9424 -2.6477 0.2468 0 7
-3.2038 9.8922 -2.6477 0.2468 0 7
-3.3625 9.8394 -2.6477 0.2468 0 7
-3.5204 9.7840 -2.6477 0.2468 0 7
-3.6774 9.7261 -2.6477 0.2468 0 7
-3.8334 9.6657 -2.6477 0.2468 0 7
-3.9884 9.6027 -2.6477 0.2468 0 7
-4.1424 9.5373 -2.6477 0.2468 0 7
-4.2953 9.4694 -2.6477 0.2468 0 7
-4.4471 9.3991 -2.6477 0.2468 0 7
-4.5977 9.3263 -2.6477 0.2468 0 7
-4.7472 9.2512 -2.6477 0.2468 0 7
7.9329 -5.1715 -2.4953 0.2548 0 8
8.0151 -5.0432 -2.4953 0.2548 0 8
8.0952 -4.9136 -2.4953 0.2548 0 8
8.1732 -4.7827 -2.4953 0.2548 0 8
8.2491 -4.6506 -2.4953 0.2548 0 8
8.3228 -4.5173 -2.4953 0.2548 0 8
8.3944 -4.3828 -2.4953 0.2548 0 8
8.4639 -4.2472 -2.4953 0.2548 0 8
8.5311 -4.1104 -2.4953 0.2548 0 8
8.5961 -3.9726 -2.4953 0.2548 0 8
8.6589 -3.8338 -2.4953 0.2548 0 8
8.7195 -3.6940 -2.4953 0.2548 0 8
8.7778 -3.5532 -2.4953 0.2548 0 8
8.8338 -3.4116 -2.4953 0.2548 0 8
8.8876 -3.2690 -2.4953 0.2548 0 8
8.9390 -3.1256 -2.4953 0.2548 0 8
8.9882 -2.9814 -2.4953 0.2548 0 8
9.0350 -2.8364 -2.4953 0.2548 0 8
9.0794 -2.6906 -2.4953 0.2548 0 8
9.1215 -2.5442 -2.4953 0.2548 0 8
9.1613 -2.3971 -2.4953 0.2548 0 8
9.1987 -2.2494 -2.4953 0.2548 0 8
9.2337 -2.1011 -2.4953 0.2548 0 8
9.2663 -1.9523 -2.4953 0.2548 0 8
9.2965 -1.8030 -2.4953 0.2548 0 8
9.3243 -1.6536 -2.4953 0.2548 0 8
9.3497 -1.5029 -2.4953 0.2548 0 8
9.3727 -1.3523 -2.4953 0.2548 0 8
9.3932 -1.2013 -2.4953 0.2548 0 8
9.4113 -1.0500 -2.4953 0.2548 0 8
7.8747 -0.7505 -2.0844 0.5453 25 10
7.6990 -0.6090 -2.0350 0.7169 25 10
7.6215 -0.4796 -2.0122 0.8124 25 10
7.5881 -0.3550 -2.0017 0.8459 25 10
7.5757 -0.2324 -1.9971 0.8886 25 10
7.5794 -0.1105 -1.9974 0.8885 25 10
7.5798 0.0115 -1.9973 0.9288 25 10
7.5787 0.1334 -1.9973 0.8885 25 10
7.5750 0.2553 -1.9971 0.8886 25 10
7.5941 0.3784 -2.0035 0.8451 25 10
7.6358 0.5037 -2.0164 0.7235 25 10
7.7137 0.6337 -2.0394 0.7211 25 10
7.9065 0.7777 -2.0934 0.5429 25 10
9.4081 1.0786 -2.4953 0.2548 0 8
9.3895 1.2298 -2.4953 0.2548 0 8
9.3685 1.3807 -2.4953 0.2548 0 8
9.3451 1.5312 -2.4953 0.2548 0 8
9.3192 1.6814 -2.4953 0.2548 0 8
9.2910 1.8311 -2.4953 0.2548 0 8
9.2603 1.9804 -2.4953 0.2548 0 8
9.2273 2.1291 -2.4953 0.2548 0 8
9.1918 2.2773 -2.4953 0.2548 0 8
9.1540 2.4249 -2.4953 0.2548 0 8
9.1138 2.5718 -2.4953 0.2548 0 8
9.0712 2.7181 -2.4953 0.2548 0 8
9.0263 2.8637 -2.4953 0.2548 0 8
8.9791 3.0086 -2.4953 0.2548 0 8
8.9295 3.1527 -2.4953 0.2548 0 8
8.8776 3.2959 -2.4953 0.2548 0 8
8.8235 3.4383 -2.4953 0.2548 0 8
8.7670 3.5798 -2.4953 0.2548 0 8
8.7083 3.7204 -2.4953 0.2548 0 8
8.6473 3.8600 -2.4953 0.2548 0 8
8.5841 3.9987 -2.4953 0.2548 0 8
8.5186 4.1363 -2.4953 0.2548 0 8
8.4510 4.2728 -2.4953 0.2548 0 8
8.3811 4.4082 -2.4953 0.2548 0 8
8.3091 4.5425 -2.4953 0.2548 0 8
8.2350 4.6756 -2.4953 0.2548 0 8
8.1587 4.8075 -2.4953 0.2548 0 8
8.0803 4.9381 -2.4953 0.2548 0 8
7.9998 5.0675 -2.4953 0.2548 0 8
7.9172 5.1955 -2.4953 0.2548 0 8
7.8326 5.3222 -2.4953 0.2548 0 8
7.7459 5.4476 -2.4953 0.2548 0 8
7.6573 5.5715 -2.4953 0.2548 0 8
7.5667 5.6939 -2.4953 0.2548 0 8
7.4741 5.8150 -2.4953 0.2548 0 8
7.3795 5.9344 -2.4953 0.2548 0 8
7.2831 6.0524 -2.4953 0.2548 0 8
7.1848 6.1688 -2.4953 0.2548 0 8
7.0846 6.2836 -2.4953 0.2548 0 8
6.9826 6.3968 -2.4953 0.2548 0 8
6.8788 6.5083 -2.4953 0.2548 0 8
6.7732 6.6181 -2.4953 0.2548 0 8
6.6658 6.7262 -2.4953 0.2548 0 8
6.5567 6.8326 -2.4953 0.2548 0 8
6.4460 6.9372 -2.4953 0.2548 0 8
6.3335 7.0400 -2.4953 0.2548 0 8
6.2194 7.1410 -2.4953 0.2548 0 8
6.1037 7.2402 -2.4953 0.2548 0 8
5.9864 7.3374 -2.4953 0.2548 0 8
5.8676 7.4328 -2.4953 0.2548 0 8
5.7473 7.5262 -2.4953 0.2548 0 8
5.6254 7.6177 -2.4953 0.2548 0 8
5.5022 7.7072 -2.4953 0.2548 0 8
5.3774 7.7948 -2.4953 0.2548 0 8
5.2513 7.8803 -2.4953 0.2548 0 8
5.1239 7.9638 -2.4953 0.2548 0 8
4.9951 8.0452 -2.4953 0.2548 0 8
4.8650 8.1245 -2.4953 0.2548 0 8
4.7337 8.2017 -2.4953 0.2548 0 8
4.6011 8.2768 -2.4953 0.2548 0 8
4.4673 8.3498 -2.4953 0.2548 0 8
4.3324 8.4206 -2.4953 0.2548 0 8
4.4527 9.0077 -2.6477 0.2548 0 7
4.3072 9.0781 -2.6477 0.2548 0 7
4.1605 9.1462 -2.6477 0.2548 0 7
4.0128 9.2120 -2.6477 0.2548 0 7
3.8641 9.2754 -2.6477 0.2548 0 7
3.7144 9.3363 -2.6477 0.2548 0 7
3.5637 9.3949 -2.6477 0.2548 0 7
3.4121 9.4510 -2.6477 0.2548 0 7
3.2596 9.5047 -2.6477 0.2548 0 7
3.1062 9.5559 -2.6477 0.2548 0 7
2.9521 9.6046 -2.6477 0.2548 0 7
2.7972 9.6509 -2.6477 0.2548 0 7
2.6415 9.6946 -2.6477 0.2548 0 7
2.4852 9.7359 -2.6477 0.2548 0 7
2.3283 9.7746 -2.6477 0.2548 0 7
2.1707 9.8108 -2.6477 0.2548 0 7
2.0126 9.8445 -2.6477 0.2548 0 7
1.8539 9.8756 -2.6477 0.2548 0 7
1.6948 9.9041 -2.6477 0.2548 0 7
1.5352 9.9301 -2.6477 0.2548 0 7
1.3753 9.9535 -2.6477 0.2548 0 7
1.2149 9.9744 -2.6477 0.2548 0 7
1.0543 9.9926 -2.6477 0.2548 0 7
0.8934 10.0083 -2.6477 0.2548 0 7
0.7323 10.0214 -2.6477 0.2548 0 7
0.5709 10.0318 -2.6477 0.2548 0 7
0.4095 10.0397 -2.6477 0.2548 0 7
0.2479 10.0450 -2.6477 0.2548 0 7
0.0862 10.0477 -2.6477 0.2548 0 7
-0.0754 10.0478 -2.6477 0.2548 0 7
-0.2371 10.0453 -2.6477 0.2548 0 7
-0.3987 10.0402 -2.6477 0.2548 0 7
-0.5602 10.0325 -2.6477 0.2548 0 7
-0.7215 10.0221 -2.6477 0.2548 0 7
-0.8827 10.0092 -2.6477 0.2548 0 7
-1.0436 9.9937 -2.6477 0.2548 0 7
-1.2042 9.9757 -2.6477 0.2548 0 7
-1.3646 9.9550 -2.6477 0.2548 0 7
-1.5246 9.9317 -2.6477 0.2548 0 7
-1.6842 9.9059 -2.6477 0.2548 0 7
-1.8433 9.8776 -2.6477 0.2548 0 7
-2.0020 9.8466 -2.6477 0.2548 0 7
-2.1602 9.8131 -2.6477 0.2548 0 7
-2.3178 9.7771 -2.6477 0.2548 0 7
-2.4748 9.7386 -2.6477 0.2548 0 7
-2.6311 9.6975 -2.6477 0.2548 0 7
-2.7868 9.6539 -2.6477 0.2548 0 7
-2.9418 9.6078 -2.6477 0.2548 0 7
-3.0960 9.5592 -2.6477 0.2548 0 7
-3.2494 9.5082 -2.6477 0.2548 0 7
-3.4019 9.4547 -2.6477 0.2548 0 7
-3.5536 9.3987 -2.6477 0.2548 0 7
-3.7044 9.3403 -2.6477 0.2548 0 7
-3.8541 9.2795 -2.6477 0.2548 0 7
-4.0029 9.2163 -2.6477 0.2548 0 7
-4.1507 9.1507 -2.6477 0.2548 0 7
-4.2974 9.0827 -2.6477 0.2548 0 7
-4.4430 9.0124 -2.6477 0.2548 0 7
-4.3234 8.4252 -2.4953 0.2548 0 8
7.6735 -5.0024 -2.4953 0.2628 0 8
7.7530 -4.8783 -2.4953 0.2628 0 8
7.8305 -4.7529 -2.4953 0.2628 0 8
7.9059 -4.6263 -2.4953 0.2628 0 8
7.9793 -4.4985 -2.4953 0.2628 0 8
8.0507 -4.3696 -2.4953 0.2628 0 8
8.1199 -4.2395 -2.4953 0.2628 0 8
8.1871 -4.1083 -2.4953 0.2628 0 8
8.2521 -3.9760 -2.4953 0.2628 0 8
8.3150 -3.8427 -2.4953 0.2628 0 8
8.3758 -3.7085 -2.4953 0.2628 0 8
8.4344 -3.5732 -2.4953 0.2628 0 8
8.4908 -3.4371 -2.4953 0.2628 0 8
8.5450 -3.3000 -2.4953 0.2628 0 8
8.5970 -3.1621 -2.4953 0.2628 0 8
8.6467 -3.0234 -2.4953 0.2628 0 8
8.6942 -2.8839 -2.4953 0.2628 0 8
8.7395 -2.7436 -2.4953 0.2628 0 8
8.7825 -2.6026 -2.4953 0.2628 0 8
8.8233 -2.4610 -2.4953 0.2628 0 8
8.8617 -2.3187 -2.4953 0.2628 0 8
8.8979 -2.1759 -2.4953 0.2628 0 8
8.9317 -2.0324 -2.4953 0.2628 0 8
8.9633 -1.8885 -2.4953 0.2628 0 8
8.9925 -1.7440 -2.4953 0.2628 0 8
9.0194 -1.5991 -2.4953 0.2628 0 8
9.0439 -1.4538 -2.4953 0.2628 0 8
9.0662 -1.3081 -2.4953 0.2628 0 8
9.0860 -1.1620 -2.4953 0.2628 0 8
9.1036 -1.0157 -2.4953 0.2628 0 8
7.8875 -0.7518 -2.1584 0.5432 25 10
7.7221 -0.6108 -2.1101 0.7189 25 10
7.6446 -0.4810 -2.0866 0.7212 25 10
7.6060 -0.3559 -2.0742 0.8420 25 10
7.5917 -0.2329 -2.0690 0.8847 25 10
7.5921 -0.1107 -2.0684 0.9252 25 10
7.5882 0.0115 -2.0671 0.9257 25 10
7.5930 0.1337 -2.0687 0.9250 25 10
7.5910 0.2559 -2.0690 0.8847 25 10
7.6123 0.3793 -2.0762 0.8122 25 10
7.6592 0.5053 -2.0910 0.7197 25 10
7.7368 0.6356 -2.1147 0.7173 25 10
7.9194 0.7790 -2.1677 0.5409 25 10
9.1004 1.0433 -2.4953 0.2628 0 8
9.0825 1.1896 -2.4953 0.2628 0 8
9.0622 1.3355 -2.4953 0.2628 0 8
9.0395 1.4812 -2.4953 0.2628 0 8
9.0145 1.6264 -2.4953 0.2628 0 8
8.9872 1.7712 -2.4953 0.2628 0 8
8.9575 1.9156 -2.4953 0.2628 0 8
8.9255 2.0595 -2.4953 0.2628 0 8
8.8912 2.2028 -2.4953 0.2628 0 8
8.8546 2.3456 -2.4953 0.2628 0 8
8.8158 2.4877 -2.4953 0.2628 0 8
8.7746 2.6293 -2.4953 0.2628 0 8
8.7312 2.7701 -2.4953 0.2628 0 8
8.6855 2.9102 -2.4953 0.2628 0 8
8.6375 3.0496 -2.4953 0.2628 0 8
8.5873 3.1881 -2.4953 0.2628 0 8
8.5349 3.3259 -2.4953 0.2628 0 8
8.4803 3.4628 -2.4953 0.2628 0 8
8.4235 3.5988 -2.4953 0.2628 0 8
8.3645 3.7338 -2.4953 0.2628 0 8
8.3034 3.8679 -2.4953 0.2628 0 8
8.2400 4.0010 -2.4953 0.2628 0 8
8.1746 4.1331 -2.4953 0.2628 0 8
8.1071 4.2641 -2.4953 0.2628 0 8
8.0374 4.3939 -2.4953 0.2628 0 8
7.9657 4.5227 -2.4953 0.2628 0 8
7.8919 4.6503 -2.4953 0.2628 0 8
7.8160 4.7766 -2.4953 0.2628 0 8
7.7382 4.9018 -2.4953 0.2628 0 8
7.6583 5.0256 -2.4953 0.2628 0 8
7.5764 5.1482 -2.4953 0.2628 0 8
7.4926 5.2694 -2.4953 0.2628 0 8
7.4069 5.3893 -2.4953 0.2628 0 8
7.3192 5.5078 -2.4953 0.2628 0 8
7.2297 5.6248 -2.4953 0.2628 0 8
7.1382 5.7404 -2.4953 0.2628 0 8
7.0450 5.8545 -2.4953 0.2628 0 8
6.9498 5.9671 -2.4953 0.2628 0 8
6.8529 6.0781 -2.4953 0.2628 0 8
6.7543 6.1876 -2.4953 0.2628 0 8
6.6538 6.2955 -2.4953 0.2628 0 8
6.5517 6.4017 -2.4953 0.2628 0 8
6.4478 6.5063 -2.4953 0.2628 0 8
6.3423 6.6092 -2.4953 0.2628 0 8
6.2352 6.7104 -2.4953 0.2628 0 8
6.1264 6.8098 -2.4953 0.2628 0 8
6.0160 6.9075 -2.4953 0.2628 0 8
5.9041 7.0034 -2.4953 0.2628 0 8
5.7907 7.0975 -2.4953 0.2628 0 8
5.6757 7.1897 -2.4953 0.2628 0 8
5.5593 7.2801 -2.4953 0.2628 0 8
5.4415 7.3686 -2.4953 0.2628 0 8
5.3222 7.4552 -2.4953 0.2628 0 8
5.2016 7.5399 -2.4953 0.2628 0 8
5.0796 7.6226 -2.4953 0.2628 0 8
4.9563 7.7033 -2.4953 0.2628 0 8
4.8317 7.7821 -2.4953 0.2628 0 8
4.7059 7.8588 -2.4953 0.2628 0 8
4.5789 7.9335 -2.4953 0.2628 0 8
4.4506 8.0061 -2.4953 0.2628 0 8
4.3212 8.0767 -2.4953 0.2628 0 8
4.1907 8.1452 -2.4953 0.2628 0 8
4.0591 8.2116 -2.4953 0.2628 0 8
3.9265 8.2758 -2.4953 0.2628 0 8
3.7928 8.3379 -2.4953 0.2628 0 8
3.6582 8.3979 -2.4953 0.2628 0 8
3.5226 8.4556 -2.4953 0.2628 0 8
3.5929 9.0310 -2.6477 0.2628 0 7
3.4472 9.0877 -2.6477 0.2628 0 7
3.3005 9.1420 -2.6477 0.2628 0 7
3.1530 9.1939 -2.6477 0.2628 0 7
3.0047 9.2434 -2.6477 0.2628 0 7
2.8556 9.2906 -2.6477 0.2628 0 7
2.7057 9.3353 -2.6477 0.2628 0 7
2.5552 9.3776 -2.6477 0.2628 0 7
2.4040 9.4175 -2.6477 0.2628 0 7
2.2521 9.4550 -2.6477 0.2628 0 7
2.0997 9.4900 -2.6477 0.2628 0 7
1.9468 9.5225 -2.6477 0.2628 0 7
1.7933 9.5526 -2.6477 0.2628 0 7
1.6394 9.5802 -2.6477 0.2628 0 7
1.4850 9.6054 -2.6477 0.2628 0 7
1.3303 9.6280 -2.6477 0.2628 0 7
1.1752 9.6482 -2.6477 0.2628 0 7
1.0198 9.6658 -2.6477 0.2628 0 7
0.8642 9.6810 -2.6477 0.2628 0 7
0.7083 9.6937 -2.6477 0.2628 0 7
0.5523 9.7038 -2.6477 0.2628 0 7
0.3961 9.7114 -2.6477 0.2628 0 7
0.2398 9.7165 -2.6477 0.2628 0 7
0.0834 9.7191 -2.6477 0.2628 0 7
-0.0730 9.7192 -2.6477 0.2628 0 7
-0.2293 9.7168 -2.6477 0.2628 0 7
-0.3856 9.7118 -2.6477 0.2628 0 7
-0.5418 9.7044 -2.6477 0.2628 0 7
-0.6979 9.6944 -2.6477 0.2628 0 7
-0.8538 9.6819 -2.6477 0.2628 0 7
-1.0095 9.6669 -2.6477 0.2628 0 7
-1.1648 9.6494 -2.6477 0.2628 0 7
-1.3199 9.6295 -2.6477 0.2628 0 7
-1.4747 9.6070 -2.6477 0.2628 0 7
-1.6291 9.5820 -2.6477 0.2628 0 7
-1.7830 9.5546 -2.6477 0.2628 0 7
-1.9365 9.5246 -2.6477 0.2628 0 7
-2.0895 9.4922 -2.6477 0.2628 0 7
-2.2420 9.4574 -2.6477 0.2628 0 7
-2.3938 9.4201 -2.6477 0.2628 0 7
-2.5451 9.3804 -2.6477 0.2628 0 7
-2.6957 9.3382 -2.6477 0.2628 0 7
-2.8456 9.2936 -2.6477 0.2628 0 7
-2.9947 9.2466 -2.6477 0.2628 0 7
-3.1431 9.1973 -2.6477 0.2628 0 7
-3.2907 9.1455 -2.6477 0.2628 0 7
-3.4374 9.0914 -2.6477 0.2628 0 7
-3.5832 9.0349 -2.6477 0.2628 0 7
-3.7281 8.9761 -2.6477 0.2628 0 7
-3.6492 8.4018 -2.4953 0.2628 0 8
-3.7839 8.3420 -2.4953 0.2628 0 8
-3.9176 8.2800 -2.4953 0.2628 0 8
-4.0503 8.2159 -2.4953 0.2628 0 8
-4.1820 8.1497 -2.4953 0.2628 0 8
7.4294 -4.8433 -2.4953 0.2708 0 8
7.5064 -4.7231 -2.4953 0.2708 0 8
7.5814 -4.6018 -2.4953 0.2708 0 8
7.6545 -4.4792 -2.4953 0.2708 0 8
7.7256 -4.3554 -2.4953 0.2708 0 8
7.7946 -4.2306 -2.4953 0.2708 0 8
7.8617 -4.1046 -2.4953 0.2708 0 8
7.9267 -3.9776 -2.4953 0.2708 0 8
7.9897 -3.8496 -2.4953 0.2708 0 8
8.0506 -3.7205 -2.4953 0.2708 0 8
8.1094 -3.5905 -2.4953 0.2708 0 8
8.1661 -3.4596 -2.4953 0.2708 0 8
8.2207 -3.3277 -2.4953 0.2708 0 8
8.2732 -3.1951 -2.4953 0.2708 0 8
8.3235 -3.0615 -2.4953 0.2708 0 8
8.3717 -2.9272 -2.4953 0.2708 0 8
8.4177 -2.7921 -2.4953 0.2708 0 8
8.4616 -2.6564 -2.4953 0.2708 0 8
8.5032 -2.5199 -2.4953 0.2708 0 8
8.5426 -2.3827 -2.4953 0.2708 0 8
8.5799 -2.2450 -2.4953 0.2708 0 8
8.6149 -2.1067 -2.4953 0.2708 0 8
8.6477 -1.9678 -2.4953 0.2708 0 8
8.6782 -1.8284 -2.4953 0.2708 0 8
8.7065 -1.6885 -2.4953 0.2708 0 8
8.7325 -1.5482 -2.4953 0.2708 0 8
8.7563 -1.4075 -2.4953 0.2708 0 8
8.7778 -1.2665 -2.4953 0.2708 0 8
8.7971 -1.1251 -2.4953 0.2708 0 8
8.8140 -0.9834 -2.4953 0.2708 0 8
8.3331 -0.7942 -2.3552 0.6463 25 10
7.7454 -0.6126 -2.1860 0.7150 25 10
7.6681 -0.4825 -2.1617 0.7173 25 10
7.6269 -0.3568 -2.1482 0.8089 25 10
7.6055 -0.2333 -2.1409 0.9211 25 10
7.6006 -0.1108 -2.1387 0.9220 25 10
7.5967 0.0115 -2.1374 0.9226 25 10
7.6015 0.1338 -2.1391 0.9219 25 10
7.6064 0.2564 -2.1413 0.9209 25 10
7.6340 0.3804 -2.1506 0.8080 25 10
7.6826 0.5068 -2.1662 0.7216 25 10
7.7659 0.6380 -2.1923 0.5511 25 10
8.3336 0.8198 -2.3560 0.6461 25 10
8.8110 1.0101 -2.4953 0.2708 0 8
8.7936 1.1517 -2.4953 0.2708 0 8
8.7740 1.2931 -2.4953 0.2708 0 8
8.7520 1.4341 -2.4953 0.2708 0 8
8.7278 1.5747 -2.4953 0.2708 0 8
8.7013 1.7149 -2.4953 0.2708 0 8
8.6726 1.8547 -2.4953 0.2708 0 8
8.6417 1.9940 -2.4953 0.2708 0 8
8.6085 2.1328 -2.4953 0.2708 0 8
8.5730 2.2710 -2.4953 0.2708 0 8
8.5354 2.4086 -2.4953 0.2708 0 8
8.4955 2.5456 -2.4953 0.2708 0 8
8.4535 2.6820 -2.4953 0.2708 0 8
8.4092 2.8176 -2.4953 0.2708 0 8
8.3628 2.9526 -2.4953 0.2708 0 8
8.3142 3.0867 -2.4953 0.2708 0 8
8.2635 3.2201 -2.4953 0.2708 0 8
8.2106 3.3526 -2.4953 0.2708 0 8
8.1556 3.4843 -2.4953 0.2708 0 8
8.0985 3.6151 -2.4953 0.2708 0 8
8.0393 3.7449 -2.4953 0.2708 0 8
7.9780 3.8738 -2.4953 0.2708 0 8
7.9146 4.0016 -2.4953 0.2708 0 8
7.8492 4.1284 -2.4953 0.2708 0 8
7.7818 4.2542 -2.4953 0.2708 0 8
7.7123 4.3788 -2.4953 0.2708 0 8
7.6409 4.5024 -2.4953 0.2708 0 8
7.5674 4.6247 -2.4953 0.2708 0 8
7.4921 4.7459 -2.4953 0.2708 0 8
7.4147 4.8658 -2.4953 0.2708 0 8
7.3355 4.9845 -2.4953 0.2708 0 8
7.2543 5.1018 -2.4953 0.2708 0 8
7.1713 5.2179 -2.4953 0.2708 0 8
7.0864 5.3326 -2.4953 0.2708 0 8
6.9997 5.4459 -2.4953 0.2708 0 8
6.9112 5.5578 -2.4953 0.2708 0 8
6.8209 5.6683 -2.4953 0.2708 0 8
6.7288 5.7773 -2.4953 0.2708 0 8
6.6350 5.8848 -2.4953 0.2708 0 8
6.5394 5.9908 -2.4953 0.2708 0 8
6.4422 6.0952 -2.4953 0.2708 0 8
6.3433 6.1981 -2.4953 0.2708 0 8
6.2428 6.2994 -2.4953 0.2708 0 8
6.1406 6.3990 -2.4953 0.2708 0 8
6.0369 6.4969 -2.4953 0.2708 0 8
5.9316 6.5932 -2.4953 0.2708 0 8
5.8247 6.6878 -2.4953 0.2708 0 8
5.7164 6.7807 -2.4953 0.2708 0 8
5.6065 6.8718 -2.4953 0.2708 0 8
5.4952 6.9611 -2.4953 0.2708 0 8
5.3825 7.0486 -2.4953 0.2708 0 8
5.2684 7.1343 -2.4953 0.2708 0 8
5.1530 7.2181 -2.4953 0.2708 0 8
5.0362 7.3001 -2.4953 0.2708 0 8
4.9181 7.3802 -2.4953 0.2708 0 8
4.7987 7.4583 -2.4953 0.2708 0 8
4.6781 7.5346 -2.4953 0.2708 0 8
4.5562 7.6089 -2.4953 0.2708 0 8
4.4332 7.6812 -2.4953 0.2708 0 8
4.3091 7.7515 -2.4953 0.2708 0 8
4.1838 7.8198 -2.4953 0.2708 0 8
4.0574 7.8861 -2.4953 0.2708 0 8
3.9300 7.9504 -2.4953 0.2708 0 8
3.8016 8.0126 -2.4953 0.2708 0 8
3.6722 8.0727 -2.4953 0.2708 0 8
3.5419 8.1308 -2.4953 0.2708 0 8
3.4106 8.1867 -2.4953 0.2708 0 8
3.2784 8.2405 -2.4953 0.2708 0 8
3.1454 8.2922 -2.4953 0.2708 0 8
3.0116 8.3417 -2.4953 0.2708 0 8
2.8770 8.3891 -2.4953 0.2708 0 8
2.7417 8.4343 -2.4953 0.2708 0 8
2.7647 8.9951 -2.6477 0.2708 0 7
2.6197 9.0384 -2.6477 0.2708 0 7
2.4739 9.0794 -2.6477 0.2708 0 7
2.3275 9.1180 -2.6477 0.2708 0 7
2.1805 9.1543 -2.6477 0.2708 0 7
2.0329 9.1882 -2.6477 0.2708 0 7
1.8848 9.2197 -2.6477 0.2708 0 7
1.7363 9.2488 -2.6477 0.2708 0 7
1.5872 9.2756 -2.6477 0.2708 0 7
1.4378 9.2999 -2.6477 0.2708 0 7
1.2880 9.3218 -2.6477 0.2708 0 7
1.1378 9.3413 -2.6477 0.2708 0 7
0.9874 9.3584 -2.6477 0.2708 0 7
0.8367 9.3731 -2.6477 0.2708 0 7
0.6858 9.3854 -2.6477 0.2708 0 7
0.5347 9.3952 -2.6477 0.2708 0 7
0.3835 9.4026 -2.6477 0.2708 0 7
0.2321 9.4075 -2.6477 0.2708 0 7
0.0808 9.4100 -2.6477 0.2708 0 7
-0.0707 9.4101 -2.6477 0.2708 0 7
-0.2220 9.4078 -2.6477 0.2708 0 7
-0.3734 9.4030 -2.6477 0.2708 0 7
-0.5246 9.3957 -2.6477 0.2708 0 7
-0.6757 9.3861 -2.6477 0.2708 0 7
-0.8266 9.3740 -2.6477 0.2708 0 7
-0.9773 9.3595 -2.6477 0.2708 0 7
-1.1278 9.3426 -2.6477 0.2708 0 7
-1.2780 9.3232 -2.6477 0.2708 0 7
-1.4278 9.3014 -2.6477 0.2708 0 7
-1.5773 9.2773 -2.6477 0.2708 0 7
-1.7263 9.2507 -2.6477 0.2708 0 7
-1.8749 9.2217 -2.6477 0.2708 0 7
-2.0231 9.1904 -2.6477 0.2708 0 7
-2.1707 9.1566 -2.6477 0.2708 0 7
-2.3177 9.1205 -2.6477 0.2708 0 7
-2.4641 9.0820 -2.6477 0.2708 0 7
-2.6100 9.0412 -2.6477 0.2708 0 7
-2.7551 8.9980 -2.6477 0.2708 0 7
-2.7326 8.4372 -2.4953 0.2708 0 8
-2.8680 8.3922 -2.4953 0.2708 0 8
-3.0026 8.3450 -2.4953 0.2708 0 8
-3.1365 8.2956 -2.4953 0.2708 0 8
-3.2696 8.2440 -2.4953 0.2708 0 8
-3.4018 8.1904 -2.4953 0.2708 0 8
-3.5331 8.1346 -2.4953 0.2708 0 8
-3.6635 8.0767 -2.4953 0.2708 0 8
-3.7930 8.0167 -2.4953 0.2708 0 8
-3.9215 7.9546 -2.4953 0.2708 0 8
-4.0490 7.8905 -2.4953 0.2708 0 8
7.1994 -4.6933 -2.4953 0.2788 0 8
7.2740 -4.5769 -2.4953 0.2788 0 8
7.3467 -4.4593 -2.4953 0.2788 0 8
7.4175 -4.3405 -2.4953 0.2788 0 8
7.4863 -4.2206 -2.4953 0.2788 0 8
7.5533 -4.0996 -2.4953 0.2788 0 8
7.6183 -3.9775 -2.4953 0.2788 0 8
7.6813 -3.8544 -2.4953 0.2788 0 8
7.7423 -3.7304 -2.4953 0.2788 0 8
7.8013 -3.6053 -2.4953 0.2788 0 8
7.8583 -3.4793 -2.4953 0.2788 0 8
7.9133 -3.3525 -2.4953 0.2788 0 8
7.9662 -3.2247 -2.4953 0.2788 0 8
8.0170 -3.0961 -2.4953 0.2788 0 8
8.0658 -2.9667 -2.4953 0.2788 0 8
8.1125 -2.8366 -2.4953 0.2788 0 8
8.1571 -2.7057 -2.4953 0.2788 0 8
8.1996 -2.5741 -2.4953 0.2788 0 8
8.2399 -2.4418 -2.4953 0.2788 0 8
8.2781 -2.3090 -2.4953 0.2788 0 8
8.3142 -2.1755 -2.4953 0.2788 0 8
8.3481 -2.0414 -2.4953 0.2788 0 8
8.3799 -1.9068 -2.4953 0.2788 0 8
8.4095 -1.7718 -2.4953 0.2788 0 8
8.4369 -1.6362 -2.4953 0.2788 0 8
8.4621 -1.5003 -2.4953 0.2788 0 8
8.4852 -1.3640 -2.4953 0.2788 0 8
8.5060 -1.2273 -2.4953 0.2788 0 8
8.5247 -1.0902 -2.4953 0.2788 0 8
8.5411 -0.9529 -2.4953 0.2788 0 8
8.5553 -0.8154 -2.4953 0.2788 0 8
8.5673 -0.6777 -2.4953 0.2788 0 8
8.5771 -0.5397 -2.4953 0.2788 0 8
8.5847 -0.4017 -2.4953 0.2788 0 8
8.5901 -0.2635 -2.4953 0.2788 0 8
8.5932 -0.1252 -2.4953 0.2788 0 8
8.5941 0.0130 -2.4953 0.2788 0 8
8.5928 0.1513 -2.4953 0.2788 0 8
8.5892 0.2895 -2.4953 0.2788 0 8
8.5835 0.4277 -2.4953 0.2788 0 8
8.5755 0.5657 -2.4953 0.2788 0 8
8.4693 0.6957 -2.4673 0.2999 25 10
8.5528 0.8413 -2.4953 0.2788 0 8
8.5382 0.9788 -2.4953 0.2788 0 8
8.5213 1.1161 -2.4953 0.2788 0 8
8.5023 1.2530 -2.4953 0.2788 0 8
8.4810 1.3897 -2.4953 0.2788 0 8
8.4576 1.5259 -2.4953 0.2788 0 8
8.4319 1.6618 -2.4953 0.2788 0 8
8.4041 1.7973 -2.4953 0.2788 0 8
8.3741 1.9322 -2.4953 0.2788 0 8
8.3419 2.0667 -2.4953 0.2788 0 8
8.3076 2.2007 -2.4953 0.2788 0 8
8.2711 2.3340 -2.4953 0.2788 0 8
8.2325 2.4668 -2.4953 0.2788 0 8
8.1917 2.5989 -2.4953 0.2788 0 8
8.1488 2.7304 -2.4953 0.2788 0 8
8.1039 2.8612 -2.4953 0.2788 0 8
8.0568 2.9912 -2.4953 0.2788 0 8
8.0076 3.1204 -2.4953 0.2788 0 8
7.9564 3.2488 -2.4953 0.2788 0 8
7.9031 3.3764 -2.4953 0.2788 0 8
7.8477 3.5031 -2.4953 0.2788 0 8
7.7903 3.6289 -2.4953 0.2788 0 8
7.7310 3.7538 -2.4953 0.2788 0 8
7.6696 3.8777 -2.4953 0.2788 0 8
7.6062 4.0006 -2.4953 0.2788 0 8
7.5408 4.1225 -2.4953 0.2788 0 8
7.4735 4.2433 -2.4953 0.2788 0 8
7.4043 4.3629 -2.4953 0.2788 0 8
7.3331 4.4815 -2.4953 0.2788 0 8
7.2601 4.5989 -2.4953 0.2788 0 8
7.1851 4.7151 -2.4953 0.2788 0 8
7.1084 4.8301 -2.4953 0.2788 0 8
7.0297 4.9439 -2.4953 0.2788 0 8
6.9493 5.0563 -2.4953 0.2788 0 8
6.8670 5.1675 -2.4953 0.2788 0 8
6.7830 5.2773 -2.4953 0.2788 0 8
6.6972 5.3857 -2.4953 0.2788 0 8
6.6097 5.4928 -2.4953 0.2788 0 8
6.5205 5.5984 -2.4953 0.2788 0 8
6.4295 5.7026 -2.4953 0.2788 0 8
6.3370 5.8053 -2.4953 0.2788 0 8
6.2427 5.9065 -2.4953 0.2788 0 8
6.1469 6.0062 -2.4953 0.2788 0 8
6.0495 6.1043 -2.4953 0.2788 0 8
5.9505 6.2008 -2.4953 0.2788 0 8
5.8499 6.2958 -2.4953 0.2788 0 8
5.7479 6.3891 -2.4953 0.2788 0 8
5.6444 6.4807 -2.4953 0.2788 0 8
5.5394 6.5707 -2.4953 0.2788 0 8
5.4329 6.6590 -2.4953 0.2788 0 8
5.3251 6.7455 -2.4953 0.2788 0 8
5.2159 6.8303 -2.4953 0.2788 0 8
5.1053 6.9134 -2.4953 0.2788 0 8
4.9934 6.9946 -2.4953 0.2788 0 8
4.8802 7.0740 -2.4953 0.2788 0 8
4.7658 7.1516 -2.4953 0.2788 0 8
4.6501 7.2274 -2.4953 0.2788 0 8
4.5332 7.3013 -2.4953 0.2788 0 8
4.4152 7.3733 -2.4953 0.2788 0 8
4.2960 7.4433 -2.4953 0.2788 0 8
4.1756 7.5115 -2.4953 0.2788 0 8
4.0543 7.5777 -2.4953 0.2788 0 8
3.9318 7.6420 -2.4953 0.2788 0 8
3.8083 7.7042 -2.4953 0.2788 0 8
3.6839 7.7645 -2.4953 0.2788 0 8
3.5585 7.8228 -2.4953 0.2788 0 8
3.4322 7.8790 -2.4953 0.2788 0 8
3.3050 7.9332 -2.4953 0.2788 0 8
3.1769 7.9854 -2.4953 0.2788 0 8
3.0480 8.0354 -2.4953 0.2788 0 8
2.9183 8.0834 -2.4953 0.2788 0 8
2.7879 8.1293 -2.4953 0.2788 0 8
2.6568 8.1731 -2.4953 0.2788 0 8
2.5249 8.2148 -2.4953 0.2788 0 8
2.3924 8.2544 -2.4953 0.2788 0 8
2.2593 8.2918 -2.4953 0.2788 0 8
2.1259 8.3281 -2.4956 0.2792 0 8
1.9918 8.3619 -2.4958 0.2792 0 8
1.8571 8.3935 -2.4960 0.2791 0 8
1.7218 8.4221 -2.4959 0.3395 0 8
1.5862 8.4493 -2.4961 0.2461 0 8
1.5381 8.9883 -2.6477 0.2788 0 7
1.3933 9.0119 -2.6477 0.2788 0 7
1.2481 9.0332 -2.6477 0.2788 0 7
1.1026 9.0521 -2.6477 0.2788 0 7
0.9568 9.0687 -2.6477 0.2788 0 7
0.8108 9.0829 -2.6477 0.2788 0 7
0.6646 9.0948 -2.6477 0.2788 0 7
0.5181 9.1043 -2.6477 0.2788 0 7
0.3716 9.1114 -2.6477 0.2788 0 7
0.2250 9.1162 -2.6477 0.2788 0 7
0.0783 9.1187 -2.6477 0.2788 0 7
-0.0685 9.1187 -2.6477 0.2788 0 7
-0.2152 9.1165 -2.6477 0.2788 0 7
-0.3618 9.1118 -2.6477 0.2788 0 7
-0.5084 9.1048 -2.6477 0.2788 0 7
-0.6548 9.0955 -2.6477 0.2788 0 7
-0.8010 9.0837 -2.6477 0.2788 0 7
-0.9471 9.0697 -2.6477 0.2788 0 7
-1.0929 9.0533 -2.6477 0.2788 0 7
-1.2384 9.0345 -2.6477 0.2788 0 7
-1.3836 9.0134 -2.6477 0.2788 0 7
-1.5284 8.9900 -2.6477 0.2788 0 7
-1.6729 8.9642 -2.6477 0.2788 0 7
-1.7123 8.4218 -2.4953 0.2788 0 8
-1.8476 8.3932 -2.4953 0.2788 0 8
-1.9824 8.3623 -2.4953 0.2788 0 8
-2.1167 8.3294 -2.4953 0.2788 0 8
-2.2504 8.2942 -2.4953 0.2788 0 8
-2.3836 8.2570 -2.4953 0.2788 0 8
-2.5161 8.2175 -2.4953 0.2788 0 8
-2.6480 8.1760 -2.4953 0.2788 0 8
-2.7792 8.1323 -2.4953 0.2788 0 8
-2.9097 8.0866 -2.4953 0.2788 0 8
-3.0394 8.0387 -2.4953 0.2788 0 8
-3.1683 7.9888 -2.4953 0.2788 0 8
-3.2964 7.9368 -2.4953 0.2788 0 8
-3.4237 7.8827 -2.4953 0.2788 0 8
-3.5501 7.8266 -2.4953 0.2788 0 8
-3.6756 7.7685 -2.4953 0.2788 0 8
-3.8001 7.7083 -2.4953 0.2788 0 8
-3.9236 7.6462 -2.4953 0.2788 0 8
6.9822 -4.5517 -2.4953 0.2868 0 8
7.0545 -4.4388 -2.4953 0.2868 0 8
7.1250 -4.3247 -2.4953 0.2868 0 8
7.1937 -4.2095 -2.4953 0.2868 0 8
7.2605 -4.0932 -2.4953 0.2868 0 8
7.3254 -3.9759 -2.4953 0.2868 0 8
7.3884 -3.8575 -2.4953 0.2868 0 8
7.4495 -3.7381 -2.4953 0.2868 0 8
7.5087 -3.6178 -2.4953 0.2868 0 8
7.5659 -3.4965 -2.4953 0.2868 0 8
7.6212 -3.3743 -2.4953 0.2868 0 8
7.6745 -3.2513 -2.4953 0.2868 0 8
7.7258 -3.1274 -2.4953 0.2868 0 8
7.7751 -3.0027 -2.4953 0.2868 0 8
7.8224 -2.8772 -2.4953 0.2868 0 8
7.8677 -2.7510 -2.4953 0.2868 0 8
7.9109 -2.6240 -2.4953 0.2868 0 8
7.9521 -2.4964 -2.4953 0.2868 0 8
7.9913 -2.3682 -2.4953 0.2868 0 8
8.0283 -2.2393 -2.4953 0.2868 0 8
8.0633 -2.1098 -2.4953 0.2868 0 8
8.0962 -1.9798 -2.4953 0.2868 0 8
8.1270 -1.8493 -2.4953 0.2868 0 8
8.1557 -1.7183 -2.4953 0.2868 0 8
8.1823 -1.5869 -2.4953 0.2868 0 8
8.2068 -1.4550 -2.4953 0.2868 0 8
8.2291 -1.3228 -2.4953 0.2868 0 8
8.2494 -1.1902 -2.4953 0.2868 0 8
8.2674 -1.0573 -2.4953 0.2868 0 8
8.2834 -0.9242 -2.4953 0.2868 0 8
8.2972 -0.7908 -2.4953 0.2868 0 8
8.3088 -0.6572 -2.4953 0.2868 0 8
8.3183 -0.5234 -2.4953 0.2868 0 8
8.3257 -0.3895 -2.4953 0.2868 0 8
8.3309 -0.2555 -2.4953 0.2868 0 8
8.3339 -0.1215 -2.4953 0.2868 0 8
8.3348 0.0126 -2.4953 0.2868 0 8
8.3335 0.1467 -2.4953 0.2868 0 8
8.3301 0.2808 -2.4953 0.2868 0 8
8.3245 0.4148 -2.4953 0.2868 0 8
8.3167 0.5486 -2.4953 0.2868 0 8
8.3068 0.6824 -2.4953 0.2868 0 8
8.2947 0.8159 -2.4953 0.2868 0 8
8.2805 0.9493 -2.4953 0.2868 0 8
8.2642 1.0824 -2.4953 0.2868 0 8
8.2457 1.2152 -2.4953 0.2868 0 8
8.2251 1.3477 -2.4953 0.2868 0 8
8.2024 1.4799 -2.4953 0.2868 0 8
8.1775 1.6117 -2.4953 0.2868 0 8
8.1505 1.7430 -2.4953 0.2868 0 8
8.1214 1.8739 -2.4953 0.2868 0 8
8.0902 2.0044 -2.4953 0.2868 0 8
8.0569 2.1343 -2.4953 0.2868 0 8
8.0215 2.2636 -2.4953 0.2868 0 8
7.9841 2.3924 -2.4953 0.2868 0 8
7.9445 2.5205 -2.4953 0.2868 0 8
7.9030 2.6480 -2.4953 0.2868 0 8
7.8593 2.7748 -2.4953 0.2868 0 8
7.8137 2.9009 -2.4953 0.2868 0 8
7.7660 3.0262 -2.4953 0.2868 0 8
7.7163 3.1508 -2.4953 0.2868 0 8
7.6646 3.2745 -2.4953 0.2868 0 8
7.6109 3.3974 -2.4953 0.2868 0 8
7.5553 3.5194 -2.4953 0.2868 0 8
7.4977 3.6405 -2.4953 0.2868 0 8
7.4381 3.7607 -2.4953 0.2868 0 8
7.3767 3.8799 -2.4953 0.2868 0 8
7.3133 3.9981 -2.4953 0.2868 0 8
7.2480 4.1152 -2.4953 0.2868 0 8
7.1809 4.2313 -2.4953 0.2868 0 8
7.1119 4.3463 -2.4953 0.2868 0 8
7.0410 4.4601 -2.4953 0.2868 0 8
6.9683 4.5728 -2.4953 0.2868 0 8
6.8939 4.6844 -2.4953 0.2868 0 8
6.8176 4.7947 -2.4953 0.2868 0 8
6.7396 4.9037 -2.4953 0.2868 0 8
6.6598 5.0115 -2.4953 0.2868 0 8
6.5783 5.1180 -2.4953 0.2868 0 8
6.4951 5.2232 -2.4953 0.2868 0 8
6.4102 5.3270 -2.4953 0.2868 0 8
6.3237 5.4295 -2.4953 0.2868 0 8
6.2355 5.5305 -2.4953 0.2868 0 8
6.1457 5.6301 -2.4953 0.2868 0 8
6.0544 5.7283 -2.4953 0.2868 0 8
5.9614 5.8250 -2.4953 0.2868 0 8
5.8669 5.9201 -2.4953 0.2868 0 8
5.7709 6.0137 -2.4953 0.2868 0 8
5.6734 6.1058 -2.4953 0.2868 0 8
5.5745 6.1963 -2.4953 0.2868 0 8
5.4740 6.2852 -2.4953 0.2868 0 8
5.3722 6.3724 -2.4953 0.2868 0 8
5.2690 6.4581 -2.4953 0.2868 0 8
5.1644 6.5420 -2.4953 0.2868 0 8
5.0585 6.6242 -2.4953 0.2868 0 8
4.9512 6.7048 -2.4953 0.2868 0 8
4.8427 6.7836 -2.4953 0.2868 0 8
4.7330 6.8606 -2.4953 0.2868 0 8
4.6220 6.9358 -2.4953 0.2868 0 8
4.5098 7.0093 -2.4953 0.2868 0 8
4.3964 7.0810 -2.4953 0.2868 0 8
4.2819 7.1508 -2.4953 0.2868 0 8
4.1663 7.2187 -2.4953 0.2868 0 8
4.0496 7.2848 -2.4953 0.2868 0 8
3.9319 7.3491 -2.4953 0.2868 0 8
3.8132 7.4114 -2.4953 0.2868 0 8
3.6934 7.4718 -2.4953 0.2868 0 8
3.5727 7.5302 -2.4953 0.2868 0 8
3.4511 7.5867 -2.4953 0.2868 0 8
3.3286 7.6413 -2.4953 0.2868 0 8
3.2052 7.6938 -2.4953 0.2868 0 8
3.0810 7.7444 -2.4953 0.2868 0 8
2.9560 7.7930 -2.4953 0.2868 0 8
2.8303 7.8395 -2.4953 0.2868 0 8
2.7038 7.8840 -2.4953 0.2868 0 8
2.5766 7.9265 -2.4953 0.2868 0 8
2.4487 7.9670 -2.4953 0.2868 0 8
2.3202 8.0053 -2.4953 0.2868 0 8
2.1911 8.0416 -2.4953 0.2868 0 8
2.0615 8.0758 -2.4953 0.2868 0 8
1.9313 8.1079 -2.4953 0.2868 0 8
1.8006 8.1380 -2.4953 0.2868 0 8
1.6694 8.1659 -2.4953 0.2868 0 8
1.5378 8.1917 -2.4953 0.2868 0 8
1.4058 8.2154 -2.4953 0.2868 0 8
1.2735 8.2369 -2.4953 0.2868 0 8
1.1408 8.2563 -2.4953 0.2868 0 8
1.0078 8.2736 -2.4953 0.2868 0 8
0.8745 8.2888 -2.4953 0.2868 0 8
0.7411 8.3018 -2.4953 0.2868 0 8
0.6080 8.3210 -2.4978 0.2869 0 8
0.4741 8.3303 -2.4980 0.2869 0 8
0.3399 8.3359 -2.4977 0.3490 0 8
0.2057 8.3385 -2.4971 0.3491 0 8
0.0716 8.3393 -2.4967 0.3491 0 8
-0.0626 8.3383 -2.4964 0.3492 0 8
-0.1967 8.3356 -2.4962 0.3492 0 8
-0.3308 8.3311 -2.4961 0.3492 0 8
-0.4648 8.3248 -2.4962 0.3492 0 8
-0.5987 8.3168 -2.4963 0.3492 0 8
-0.7327 8.3089 -2.4972 0.8775 0 8
-0.8656 8.2897 -2.4953 0.2868 0 8
-0.9989 8.2747 -2.4953 0.2868 0 8
-1.1319 8.2576 -2.4953 0.2868 0 8
-1.2646 8.2383 -2.4953 0.2868 0 8
-1.3970 8.2169 -2.4953 0.2868 0 8
-1.5290 8.1933 -2.4953 0.2868 0 8
-1.6606 8.1677 -2.4953 0.2868 0 8
-1.7918 8.1399 -2.4953 0.2868 0 8
-1.9226 8.1100 -2.4953 0.2868 0 8
-2.0528 8.0780 -2.4953 0.2868 0 8
-2.1825 8.0440 -2.4953 0.2868 0 8
-2.3116 8.0078 -2.4953 0.2868 0 8
-2.4402 7.9696 -2.4953 0.2868 0 8
-2.5681 7.9293 -2.4953 0.2868 0 8
-2.6953 7.8869 -2.4953 0.2868 0 8
-2.8219 7.8426 -2.4953 0.2868 0 8
-2.9477 7.7961 -2.4953 0.2868 0 8
-3.0727 7.7477 -2.4953 0.2868 0 8
-3.1970 7.6973 -2.4953 0.2868 0 8
-3.3204 7.6448 -2.4953 0.2868 0 8
-3.4430 7.5904 -2.4953 0.2868 0 8
-3.5647 7.5340 -2.4953 0.2868 0 8
-3.6854 7.4757 -2.4953 0.2868 0 8
-3.8052 7.4155 -2.4953 0.2868 0 8
6.7767 -4.4177 -2.4953 0.2948 0 8
6.8469 -4.3081 -2.4953 0.2948 0 8
6.9153 -4.1974 -2.4953 0.2948 0 8
6.9819 -4.0856 -2.4953 0.2948 0 8
7.0468 -3.9728 -2.4953 0.2948 0 8
7.1098 -3.8589 -2.4953 0.2948 0 8
7.1709 -3.7440 -2.4953 0.2948 0 8
7.2302 -3.6281 -2.4953 0.2948 0 8
7.2877 -3.5113 -2.4953 0.2948 0 8
7.3432 -3.3936 -2.4953 0.2948 0 8
7.3969 -3.2750 -2.4953 0.2948 0 8
7.4486 -3.1556 -2.4953 0.2948 0 8
7.4984 -3.0354 -2.4953 0.2948 0 8
7.5463 -2.9143 -2.4953 0.2948 0 8
7.5922 -2.7925 -2.4953 0.2948 0 8
7.6361 -2.6700 -2.4953 0.2948 0 8
7.6781 -2.5468 -2.4953 0.2948 0 8
7.7181 -2.4230 -2.4953 0.2948 0 8
7.7561 -2.2985 -2.4953 0.2948 0 8
7.7920 -2.1734 -2.4953 0.2948 0 8
7.8260 -2.0477 -2.4953 0.2948 0 8
7.8579 -1.9216 -2.4953 0.2948 0 8
7.8878 -1.7949 -2.4953 0.2948 0 8
7.9157 -1.6677 -2.4953 0.2948 0 8
7.9415 -1.5402 -2.4953 0.2948 0 8
7.9653 -1.4122 -2.4953 0.2948 0 8
7.9869 -1.2839 -2.4953 0.2948 0 8
8.0066 -1.1552 -2.4953 0.2948 0 8
8.0241 -1.0262 -2.4953 0.2948 0 8
8.0396 -0.8970 -2.4953 0.2948 0 8
8.0530 -0.7675 -2.4953 0.2948 0 8
8.0643 -0.6379 -2.4953 0.2948 0 8
8.0735 -0.5080 -2.4953 0.2948 0 8
8.0806 -0.3781 -2.4953 0.2948 0 8
8.0857 -0.2480 -2.4953 0.2948 0 8
8.0886 -0.1179 -2.4953 0.2948 0 8
8.0895 0.0123 -2.4953 0.2948 0 8
8.0882 0.1424 -2.4953 0.2948 0 8
8.0849 0.2725 -2.4953 0.2948 0 8
8.0794 0.4026 -2.4953 0.2948 0 8
8.0719 0.5325 -2.4953 0.2948 0 8
8.0623 0.6623 -2.4953 0.2948 0 8
8.0506 0.7919 -2.4953 0.2948 0 8
8.0368 0.9214 -2.4953 0.2948 0 8
8.0210 1.0505 -2.4953 0.2948 0 8
8.0030 1.1795 -2.4953 0.2948 0 8
7.9830 1.3081 -2.4953 0.2948 0 8
7.9609 1.4363 -2.4953 0.2948 0 8
7.9368 1.5642 -2.4953 0.2948 0 8
7.9106 1.6917 -2.4953 0.2948 0 8
7.8824 1.8188 -2.4953 0.2948 0 8
7.8521 1.9454 -2.4953 0.2948 0 8
7.8198 2.0714 -2.4953 0.2948 0 8
7.7854 2.1970 -2.4953 0.2948 0 8
7.7491 2.3220 -2.4953 0.2948 0 8
7.7107 2.4463 -2.4953 0.2948 0 8
7.6703 2.5701 -2.4953 0.2948 0 8
7.6280 2.6931 -2.4953 0.2948 0 8
7.5837 2.8155 -2.4953 0.2948 0 8
7.5374 2.9372 -2.4953 0.2948 0 8
7.4892 3.0581 -2.4953 0.2948 0 8
7.4390 3.1782 -2.4953 0.2948 0 8
7.3869 3.2974 -2.4953 0.2948 0 8
7.3329 3.4159 -2.4953 0.2948 0 8
7.2770 3.5334 -2.4953 0.2948 0 8
7.2192 3.6500 -2.4953 0.2948 0 8
7.1595 3.7657 -2.4953 0.2948 0 8
7.0980 3.8804 -2.4953 0.2948 0 8
7.0347 3.9941 -2.4953 0.2948 0 8
6.9695 4.1068 -2.4953 0.2948 0 8
6.9025 4.2184 -2.4953 0.2948 0 8
6.8338 4.3289 -2.4953 0.2948 0 8
6.7632 4.4383 -2.4953 0.2948 0 8
6.6910 4.5465 -2.4953 0.2948 0 8
6.6169 4.6536 -2.4953 0.2948 0 8
6.5412 4.7594 -2.4953 0.2948 0 8
6.4638 4.8640 -2.4953 0.2948 0 8
6.3847 4.9674 -2.4953 0.2948 0 8
6.3040 5.0695 -2.4953 0.2948 0 8
6.2216 5.1703 -2.4953 0.2948 0 8
6.1376 5.2697 -2.4953 0.2948 0 8
6.0520 5.3678 -2.4953 0.2948 0 8
5.9649 5.4644 -2.4953 0.2948 0 8
5.8762 5.5597 -2.4953 0.2948 0 8
5.7860 5.6535 -2.4953 0.2948 0 8
5.6943 5.7459 -2.4953 0.2948 0 8
5.6011 5.8367 -2.4953 0.2948 0 8
5.5064 5.9261 -2.4953 0.2948 0 8
5.4104 6.0139 -2.4953 0.2948 0 8
5.3129 6.1002 -2.4953 0.2948 0 8
5.2141 6.1849 -2.4953 0.2948 0 8
5.1139 6.2680 -2.4953 0.2948 0 8
5.0124 6.3494 -2.4953 0.2948 0 8
4.9096 6.4293 -2.4953 0.2948 0 8
4.8055 6.5074 -2.4953 0.2948 0 8
4.7002 6.5839 -2.4953 0.2948 0 8
4.5937 6.6587 -2.4953 0.2948 0 8
4.4859 6.7317 -2.4953 0.2948 0 8
4.3771 6.8030 -2.4953 0.2948 0 8
4.2670 6.8726 -2.4953 0.2948 0 8
4.1559 6.9403 -2.4953 0.2948 0 8
4.0437 7.0063 -2.4953 0.2948 0 8
3.9305 7.0704 -2.4953 0.2948 0 8
3.8162 7.1328 -2.4953 0.2948 0 8
3.7009 7.1932 -2.4953 0.2948 0 8
3.5847 7.2518 -2.4953 0.2948 0 8
3.4676 7.3086 -2.4953 0.2948 0 8
3.3496 7.3634 -2.4953 0.2948 0 8
3.2307 7.4164 -2.4953 0.2948 0 8
3.1109 7.4674 -2.4953 0.2948 0 8
2.9904 7.5165 -2.4953 0.2948 0 8
2.8690 7.5636 -2.4953 0.2948 0 8
2.7470 7.6088 -2.4953 0.2948 0 8
2.6242 7.6520 -2.4953 0.2948 0 8
2.5008 7.6932 -2.4953 0.2948 0 8
2.3767 7.7325 -2.4953 0.2948 0 8
2.2519 7.7697 -2.4953 0.2948 0 8
2.1266 7.8049 -2.4953 0.2948 0 8
2.0008 7.8381 -2.4953 0.2948 0 8
1.8744 7.8693 -2.4953 0.2948 0 8
1.7476 7.8985 -2.4953 0.2948 0 8
1.6203 7.9255 -2.4953 0.2948 0 8
1.4926 7.9506 -2.4953 0.2948 0 8
1.3644 7.9736 -2.4953 0.2948 0 8
1.2360 7.9945 -2.4953 0.2948 0 8
1.1072 8.0133 -2.4953 0.2948 0 8
0.9781 8.0301 -2.4953 0.2948 0 8
0.8488 8.0448 -2.4953 0.2948 0 8
0.7193 8.0574 -2.4953 0.2948 0 8
0.5895 8.0680 -2.4953 0.2948 0 8
0.4596 8.0764 -2.4953 0.2948 0 8
0.3296 8.0828 -2.4953 0.2948 0 8
0.1996 8.0870 -2.4953 0.2948 0 8
0.0694 8.0892 -2.4953 0.2948 0 8
-0.0607 8.0892 -2.4953 0.2948 0 8
-0.1909 8.0872 -2.4953 0.2948 0 8
-0.3210 8.0831 -2.4953 0.2948 0 8
-0.4510 8.0769 -2.4953 0.2948 0 8
-0.5809 8.0686 -2.4953 0.2948 0 8
-0.7106 8.0582 -2.4953 0.2948 0 8
-0.8402 8.0457 -2.4953 0.2948 0 8
-0.9695 8.0312 -2.4953 0.2948 0 8
-1.0986 8.0145 -2.4953 0.2948 0 8
-1.2274 7.9958 -2.4953 0.2948 0 8
-1.3559 7.9750 -2.4953 0.2948 0 8
-1.4840 7.9522 -2.4953 0.2948 0 8
-1.6118 7.9273 -2.4953 0.2948 0 8
-1.7391 7.9003 -2.4953 0.2948 0 8
-1.8660 7.8713 -2.4953 0.2948 0 8
-1.9924 7.8403 -2.4953 0.2948 0 8
-2.1183 7.8072 -2.4953 0.2948 0 8
-2.2436 7.7721 -2.4953 0.2948 0 8
-2.3683 7.7350 -2.4953 0.2948 0 8
-2.4925 7.6959 -2.4953 0.2948 0 8
-2.6160 7.6548 -2.4953 0.2948 0 8
-2.7388 7.6117 -2.4953 0.2948 0 8
-2.8609 7.5667 -2.4953 0.2948 0 8
-2.9823 7.5197 -2.4953 0.2948 0 8
-3.1029 7.4707 -2.4953 0.2948 0 8
-3.2227 7.4198 -2.4953 0.2948 0 8
-3.3416 7.3670 -2.4953 0.2948 0 8
-3.4597 7.3123 -2.4953 0.2948 0 8
-3.5769 7.2557 -2.4953 0.2948 0 8
-3.6932 7.1972 -2.4953 0.2948 0 8
6.5819 -4.2908 -2.4953 0.3027 0 8
6.6501 -4.1843 -2.4953 0.3027 0 8
6.7166 -4.0768 -2.4953 0.3027 0 8
6.7813 -3.9682 -2.4953 0.3027 0 8
6.8443 -3.8586 -2.4953 0.3027 0 8
6.9055 -3.7480 -2.4953 0.3027 0 8
6.9649 -3.6364 -2.4953 0.3027 0 8
7.0225 -3.5239 -2.4953 0.3027 0 8
7.0783 -3.4104 -2.4953 0.3027 0 8
7.1322 -3.2961 -2.4953 0.3027 0 8
7.1843 -3.1809 -2.4953 0.3027 0 8
7.2346 -3.0649 -2.4953 0.3027 0 8
7.2830 -2.9481 -2.4953 0.3027 0 8
7.3294 -2.8306 -2.4953 0.3027 0 8
7.3740 -2.7123 -2.4953 0.3027 0 8
7.4167 -2.5933 -2.4953 0.3027 0 8
7.4575 -2.4736 -2.4953 0.3027 0 8
7.4963 -2.3533 -2.4953 0.3027 0 8
7.5332 -2.2324 -2.4953 0.3027 0 8
7.5682 -2.1109 -2.4953 0.3027 0 8
7.6011 -1.9889 -2.4953 0.3027 0 8
7.6321 -1.8663 -2.4953 0.3027 0 8
7.6612 -1.7433 -2.4953 0.3027 0 8
7.6882 -1.6198 -2.4953 0.3027 0 8
7.7133 -1.4959 -2.4953 0.3027 0 8
7.7364 -1.3716 -2.4953 0.3027 0 8
7.7574 -1.2470 -2.4953 0.3027 0 8
7.7765 -1.1220 -2.4953 0.3027 0 8
7.7935 -0.9967 -2.4953 0.3027 0 8
7.8086 -0.8712 -2.4953 0.3027 0 8
7.8216 -0.7455 -2.4953 0.3027 0 8
7.8326 -0.6195 -2.4953 0.3027 0 8
7.8415 -0.4934 -2.4953 0.3027 0 8
7.8484 -0.3672 -2.4953 0.3027 0 8
7.8533 -0.2409 -2.4953 0.3027 0 8
7.8562 -0.1145 -2.4953 0.3027 0 8
7.8570 0.0119 -2.4953 0.3027 0 8
7.8558 0.1383 -2.4953 0.3027 0 8
7.8526 0.2647 -2.4953 0.3027 0 8
7.8473 0.3910 -2.4953 0.3027 0 8
7.8400 0.5172 -2.4953 0.3027 0 8
7.8307 0.6433 -2.4953 0.3027 0 8
7.8193 0.7692 -2.4953 0.3027 0 8
7.8059 0.8949 -2.4953 0.3027 0 8
7.7905 1.0204 -2.4953 0.3027 0 8
7.7731 1.1456 -2.4953 0.3027 0 8
7.7536 1.2705 -2.4953 0.3027 0 8
7.7322 1.3951 -2.4953 0.3027 0 8
7.7087 1.5193 -2.4953 0.3027 0 8
7.6833 1.6431 -2.4953 0.3027 0 8
7.6559 1.7665 -2.4953 0.3027 0 8
7.6265 1.8895 -2.4953 0.3027 0 8
7.5951 2.0119 -2.4953 0.3027 0 8
7.5617 2.1339 -2.4953 0.3027 0 8
7.5264 2.2552 -2.4953 0.3027 0 8
7.4891 2.3760 -2.4953 0.3027 0 8
7.4500 2.4962 -2.4953 0.3027 0 8
7.4088 2.6158 -2.4953 0.3027 0 8
7.3658 2.7346 -2.4953 0.3027 0 8
7.3208 2.8528 -2.4953 0.3027 0 8
7.2740 2.9702 -2.4953 0.3027 0 8
7.2253 3.0868 -2.4953 0.3027 0 8
7.1747 3.2027 -2.4953 0.3027 0 8
7.1222 3.3177 -2.4953 0.3027 0 8
7.0679 3.4319 -2.4953 0.3027 0 8
7.0118 3.5451 -2.4953 0.3027 0 8
6.9538 3.6575 -2.4953 0.3027 0 8
6.8941 3.7689 -2.4953 0.3027 0 8
6.8325 3.8793 -2.4953 0.3027 0 8
6.7692 3.9888 -2.4953 0.3027 0 8
6.7042 4.0971 -2.4953 0.3027 0 8
6.6374 4.2045 -2.4953 0.3027 0 8
6.5689 4.3107 -2.4953 0.3027 0 8
6.4987 4.4159 -2.4953 0.3027 0 8
6.4268 4.5198 -2.4953 0.3027 0 8
6.3533 4.6227 -2.4953 0.3027 0 8
6.2781 4.7243 -2.4953 0.3027 0 8
6.2012 4.8247 -2.4953 0.3027 0 8
6.1228 4.9238 -2.4953 0.3027 0 8
6.0428 5.0217 -2.4953 0.3027 0 8
5.9612 5.1183 -2.4953 0.3027 0 8
5.8781 5.2135 -2.4953 0.3027 0 8
5.7935 5.3074 -2.4953 0.3027 0 8
5.7073 5.3999 -2.4953 0.3027 0 8
5.6197 5.4911 -2.4953 0.3027 0 8
5.5306 5.5808 -2.4953 0.3027 0 8
5.4401 5.6690 -2.4953 0.3027 0 8
5.3482 5.7558 -2.4953 0.3027 0 8
5.2549 5.8411 -2.4953 0.3027 0 8
5.1603 5.9249 -2.4953 0.3027 0 8
5.0643 6.0072 -2.4953 0.3027 0 8
4.9670 6.0879 -2.4953 0.3027 0 8
4.8684 6.1670 -2.4953 0.3027 0 8
4.7685 6.2445 -2.4953 0.3027 0 8
4.6674 6.3204 -2.4953 0.3027 0 8
4.5651 6.3947 -2.4953 0.3027 0 8
4.4617 6.4673 -2.4953 0.3027 0 8
4.3570 6.5383 -2.4953 0.3027 0 8
4.2513 6.6075 -2.4953 0.3027 0 8
4.1444 6.6751 -2.4953 0.3027 0 8
4.0365 6.7409 -2.4953 0.3027 0 8
3.9275 6.8050 -2.4953 0.3027 0 8
3.8175 6.8673 -2.4953 0.3027 0 8
3.7065 6.9278 -2.4953 0.3027 0 8
3.5946 6.9865 -2.4953 0.3027 0 8
3.4817 7.0435 -2.4953 0.3027 0 8
3.3680 7.0986 -2.4953 0.3027 0 8
3.2533 7.1518 -2.4953 0.3027 0 8
3.1378 7.2033 -2.4953 0.3027 0 8
3.0215 7.2528 -2.4953 0.3027 0 8
2.9044 7.3005 -2.4953 0.3027 0 8
2.7866 7.3463 -2.4953 0.3027 0 8
2.6681 7.3902 -2.4953 0.3027 0 8
2.5488 7.4321 -2.4953 0.3027 0 8
2.4289 7.4722 -2.4953 0.3027 0 8
2.3084 7.5103 -2.4953 0.3027 0 8
2.1872 7.5464 -2.4953 0.3027 0 8
2.0655 7.5807 -2.4953 0.3027 0 8
1.9433 7.6129 -2.4953 0.3027 0 8
1.8206 7.6432 -2.4953 0.3027 0 8
1.6974 7.6715 -2.4953 0.3027 0 8
1.5737 7.6978 -2.4953 0.3027 0 8
1.4497 7.7221 -2.4953 0.3027 0 8
1.3252 7.7445 -2.4953 0.3027 0 8
1.2005 7.7648 -2.4953 0.3027 0 8
1.0754 7.7831 -2.4953 0.3027 0 8
0.9500 7.7994 -2.4953 0.3027 0 8
0.8244 7.8137 -2.4953 0.3027 0 8
0.6986 7.8259 -2.4953 0.3027 0 8
0.5726 7.8361 -2.4953 0.3027 0 8
0.4464 7.8443 -2.4953 0.3027 0 8
0.3202 7.8505 -2.4953 0.3027 0 8
0.1938 7.8546 -2.4953 0.3027 0 8
0.0674 7.8567 -2.4953 0.3027 0 8
-0.0590 7.8568 -2.4953 0.3027 0 8
-0.1854 7.8548 -2.4953 0.3027 0 8
-0.3117 7.8508 -2.4953 0.3027 0 8
-0.4380 7.8448 -2.4953 0.3027 0 8
