ply
format ascii 1.0
element vertex 1378
property float32 x
property float32 y
property float32 z
property float32 CosAngle
property uint32 ObjIdx
property uint32 ObjTag
end_header
32.7463 50.2906 -2.4953 0.0415 0 8
31.9338 50.8105 -2.4953 0.0415 0 8
31.1129 51.3172 -2.4953 0.0415 0 8
30.2840 51.8107 -2.4953 0.0415 0 8
29.4473 52.2908 -2.4953 0.0415 0 8
28.6030 52.7574 -2.4953 0.0415 0 8
27.7513 53.2103 -2.4953 0.0415 0 8
26.8924 53.6495 -2.4953 0.0415 0 8
26.0266 54.0748 -2.4953 0.0415 0 8
25.1541 54.4862 -2.4953 0.0415 0 8
24.2751 54.8835 -2.4953 0.0415 0 8
23.3897 55.2666 -2.4953 0.0415 0 8
22.4984 55.6354 -2.4953 0.0415 0 8
21.6012 55.9898 -2.4953 0.0415 0 8
20.6985 56.3298 -2.4953 0.0415 0 8
19.7904 56.6552 -2.4953 0.0415 0 8
18.8772 56.9660 -2.4953 0.0415 0 8
17.9591 57.2621 -2.4953 0.0415 0 8
17.0364 57.5433 -2.4953 0.0415 0 8
16.1092 57.8097 -2.4953 0.0415 0 8
15.1779 58.0612 -2.4953 0.0415 0 8
14.2427 58.2977 -2.4953 0.0415 0 8
13.3038 58.5191 -2.4953 0.0415 0 8
12.3615 58.7253 -2.4953 0.0415 0 8
11.4160 58.9164 -2.4953 0.0415 0 8
10.4675 59.0923 -2.4953 0.0415 0 8
9.5163 59.2529 -2.4953 0.0415 0 8
8.5627 59.3983 -2.4953 0.0415 0 8
7.6068 59.5282 -2.4953 0.0415 0 8
6.6490 59.6428 -2.4953 0.0415 0 8
5.6894 59.7420 -2.4953 0.0415 0 8
4.7285 59.8257 -2.4953 0.0415 0 8
3.7662 59.8940 -2.4953 0.0415 0 8
2.8030 59.9468 -2.4953 0.0415 0 8
1.8391 59.9841 -2.4953 0.0415 0 8
0.8747 60.0059 -2.4953 0.0415 0 8
-0.0900 60.0122 -2.4953 0.0415 0 8
-1.0545 60.0030 -2.4953 0.0415 0 8
-2.0189 59.9783 -2.4953 0.0415 0 8
-2.9827 59.9381 -2.4953 0.0415 0 8
-3.9457 59.8824 -2.4953 0.0415 0 8
-4.9077 59.8113 -2.4953 0.0415 0 8
-5.8685 59.7246 -2.4953 0.0415 0 8
-6.8277 59.6226 -2.4953 0.0415 0 8
-7.7852 59.5051 -2.4953 0.0415 0 8
-8.7406 59.3723 -2.4953 0.0415 0 8
45.2208 21.6822 -2.5029 0.0498 0 14
44.8665 22.4062 -2.5029 0.0498 0 8
47.0747 24.4621 -2.6477 0.0498 0 7
46.6754 25.2156 -2.6477 0.0498 0 7
46.2640 25.9626 -2.6477 0.0498 0 7
45.8407 26.7029 -2.6477 0.0498 0 7
45.4056 27.4363 -2.6477 0.0498 0 7
44.9587 28.1625 -2.6477 0.0498 0 7
44.5002 28.8816 -2.6477 0.0498 0 7
44.0303 29.5931 -2.6477 0.0498 0 7
43.5489 30.2970 -2.6477 0.0498 0 7
43.0563 30.9931 -2.6477 0.0498 0 7
42.5526 31.6812 -2.6477 0.0498 0 7
42.0379 32.3610 -2.6477 0.0498 0 7
41.5123 33.0326 -2.6477 0.0498 0 7
40.9760 33.6955 -2.6477 0.0498 0 7
40.4290 34.3498 -2.6477 0.0498 0 6
39.8717 34.9953 -2.6477 0.0498 0 6
39.3040 35.6316 -2.6477 0.0498 0 7
38.7262 36.2588 -2.6477 0.0498 0 6
38.1384 36.8766 -2.6477 0.0498 0 7
37.5408 37.4848 -2.6477 0.0498 0 7
36.9334 38.0834 -2.6477 0.0498 0 7
36.3165 38.6721 -2.6477 0.0498 0 7
33.6358 36.9916 -2.4953 0.0498 0 8
33.0370 37.5274 -2.4953 0.0498 0 8
32.4295 38.0536 -2.4953 0.0498 0 8
31.8136 38.5700 -2.4953 0.0498 0 8
31.1895 39.0764 -2.4953 0.0498 0 8
30.5574 39.5726 -2.4953 0.0498 0 8
29.9173 40.0587 -2.4953 0.0498 0 8
29.2696 40.5344 -2.4953 0.0498 0 8
28.6143 40.9996 -2.4953 0.0498 0 8
27.9516 41.4543 -2.4953 0.0498 0 8
27.2817 41.8982 -2.4953 0.0498 0 8
26.6047 42.3313 -2.4953 0.0498 0 8
25.9208 42.7534 -2.4953 0.0498 0 8
25.2303 43.1646 -2.4953 0.0498 0 8
24.5332 43.5645 -2.4953 0.0498 0 8
23.8298 43.9533 -2.4953 0.0498 0 8
23.1202 44.3306 -2.4953 0.0498 0 8
22.4047 44.6965 -2.4953 0.0498 0 8
21.6833 45.0509 -2.4953 0.0498 0 8
20.9564 45.3936 -2.4953 0.0498 0 8
20.2241 45.7245 -2.4953 0.0498 0 8
19.4865 46.0437 -2.4953 0.0498 0 8
18.7439 46.3510 -2.4953 0.0498 0 8
17.9964 46.6463 -2.4953 0.0498 0 8
17.2443 46.9295 -2.4953 0.0498 0 8
16.4878 47.2006 -2.4953 0.0498 0 8
15.7270 47.4596 -2.4953 0.0498 0 8
14.9621 47.7062 -2.4953 0.0498 0 8
14.1934 47.9405 -2.4953 0.0498 0 8
13.4209 48.1625 -2.4953 0.0498 0 8
12.6451 48.3720 -2.4953 0.0498 0 8
11.8659 48.5690 -2.4953 0.0498 0 8
11.0837 48.7535 -2.4953 0.0498 0 8
10.2986 48.9253 -2.4953 0.0498 0 8
9.5109 49.0845 -2.4953 0.0498 0 8
8.7207 49.2311 -2.4953 0.0498 0 8
7.9283 49.3649 -2.4953 0.0498 0 8
7.1337 49.4859 -2.4953 0.0498 0 8
6.3374 49.5942 -2.4953 0.0498 0 8
5.5394 49.6897 -2.4953 0.0498 0 8
4.7400 49.7723 -2.4953 0.0498 0 8
3.9394 49.8420 -2.4953 0.0498 0 8
3.1377 49.8989 -2.4953 0.0498 0 8
2.3352 49.9429 -2.4953 0.0498 0 8
1.5322 49.9740 -2.4953 0.0498 0 8
0.7287 49.9922 -2.4953 0.0498 0 8
-0.0749 49.9974 -2.4953 0.0498 0 8
-0.8786 49.9898 -2.4953 0.0498 0 8
-1.6820 49.9692 -2.4953 0.0498 0 8
-2.4849 49.9357 -2.4953 0.0498 0 8
-3.2873 49.8893 -2.4953 0.0498 0 8
-4.0887 49.8300 -2.4953 0.0498 0 8
-4.8891 49.7578 -2.4953 0.0498 0 8
-5.6883 49.6728 -2.4953 0.0498 0 8
-6.4860 49.5750 -2.4953 0.0498 0 8
-7.2820 49.4643 -2.4953 0.0498 0 8
39.7505 19.0593 -2.5676 0.4325 0 8
38.4455 19.1996 -2.5029 0.0581 0 8
38.1319 19.8151 -2.5029 0.0581 0 14
37.8085 20.4254 -2.5029 0.0581 0 14
37.4753 21.0305 -2.5029 0.0581 0 14
37.1324 21.6302 -2.5029 0.0581 0 14
36.7799 22.2242 -2.5029 0.0581 0 14
38.5245 24.1322 -2.6477 0.0581 0 7
38.1317 24.7483 -2.6477 0.0581 0 7
37.7290 25.3580 -2.6477 0.0581 0 7
37.3165 25.9611 -2.6477 0.0581 0 7
36.8944 26.5576 -2.6477 0.0581 0 7
36.4627 27.1472 -2.6477 0.0581 0 7
36.0217 27.7298 -2.6477 0.0581 0 7
35.5713 28.3052 -2.6477 0.0581 0 7
35.1118 28.8733 -2.6477 0.0581 0 7
34.6431 29.4339 -2.6477 0.0581 0 7
34.1655 29.9870 -2.6477 0.0581 0 7
33.6791 30.5323 -2.6477 0.0581 0 7
33.1840 31.0697 -2.6477 0.0581 0 7
32.6803 31.5990 -2.6477 0.0581 0 7
32.1682 32.1202 -2.6477 0.0581 0 7
31.6477 32.6332 -2.6477 0.0581 0 7
31.1191 33.1376 -2.6477 0.0581 0 7
30.4978 33.5405 -2.6403 0.0657 0 8
29.1982 33.1669 -2.5737 0.5752 0 8
28.1341 33.0134 -2.5263 0.6885 0 8
27.2606 33.0501 -2.4953 0.0581 0 8
26.7259 33.4840 -2.4953 0.0581 0 8
26.1842 33.9093 -2.4953 0.0581 0 8
25.6358 34.3258 -2.4953 0.0581 0 8
25.0808 34.7334 -2.4953 0.0581 0 8
24.5192 35.1320 -2.4953 0.0581 0 8
23.9514 35.5216 -2.4953 0.0581 0 8
23.3773 35.9020 -2.4953 0.0581 0 8
22.7972 36.2731 -2.4953 0.0581 0 8
22.2112 36.6349 -2.4953 0.0581 0 8
21.6195 36.9872 -2.4953 0.0581 0 8
21.0222 37.3299 -2.4953 0.0581 0 8
20.4194 37.6630 -2.4953 0.0581 0 8
19.8114 37.9863 -2.4953 0.0581 0 8
19.1983 38.2999 -2.4953 0.0581 0 8
18.5802 38.6035 -2.4953 0.0581 0 8
17.9573 38.8972 -2.4953 0.0581 0 8
17.3297 39.1808 -2.4953 0.0581 0 8
16.6977 39.4543 -2.4953 0.0581 0 8
16.0614 39.7176 -2.4953 0.0581 0 8
15.4209 39.9706 -2.4953 0.0581 0 8
14.7764 40.2133 -2.4953 0.0581 0 8
14.1282 40.4456 -2.4953 0.0581 0 8
13.4762 40.6675 -2.4953 0.0581 0 8
12.8208 40.8788 -2.4953 0.0581 0 8
12.1621 41.0796 -2.4953 0.0581 0 8
11.5002 41.2698 -2.4953 0.0581 0 8
10.8354 41.4493 -2.4953 0.0581 0 8
10.1678 41.6181 -2.4953 0.0581 0 8
9.4975 41.7762 -2.4953 0.0581 0 8
8.8248 41.9234 -2.4953 0.0581 0 8
8.1498 42.0599 -2.4953 0.0581 0 8
7.4727 42.1854 -2.4953 0.0581 0 8
6.7936 42.3001 -2.4953 0.0581 0 8
6.1128 42.4038 -2.4953 0.0581 0 8
5.4304 42.4966 -2.4953 0.0581 0 8
4.7467 42.5784 -2.4953 0.0581 0 8
4.0616 42.6492 -2.4953 0.0581 0 8
3.3756 42.7090 -2.4953 0.0581 0 8
2.6887 42.7577 -2.4953 0.0581 0 8
2.0010 42.7954 -2.4953 0.0581 0 8
1.3129 42.8221 -2.4953 0.0581 0 8
0.6244 42.8376 -2.4953 0.0581 0 8
-0.0642 42.8421 -2.4953 0.0581 0 8
-0.7528 42.8356 -2.4953 0.0581 0 8
-1.4412 42.8179 -2.4953 0.0581 0 8
-2.1293 42.7892 -2.4953 0.0581 0 8
-2.8168 42.7495 -2.4953 0.0581 0 8
-3.5036 42.6987 -2.4953 0.0581 0 8
-4.1894 42.6368 -2.4953 0.0581 0 8
-4.8742 42.5640 -2.4953 0.0581 0 8
-5.5578 42.4802 -2.4953 0.0581 0 8
-6.2399 42.3853 -2.4953 0.0581 0 8
35.8543 17.1912 -2.6477 0.0664 0 7
35.5734 17.7653 -2.6477 0.0664 0 7
35.2832 18.3348 -2.6477 0.0664 0 7
34.9839 18.8995 -2.6477 0.0664 0 7
33.9263 19.0389 -2.5905 0.4899 0 8
32.7005 19.0485 -2.5199 0.5036 0 8
32.1713 19.4395 -2.5029 0.0664 0 14
31.8546 19.9541 -2.5029 0.0664 0 14
31.5298 20.4635 -2.5029 0.0664 0 14
31.1968 20.9677 -2.5029 0.0664 0 14
30.8557 21.4664 -2.5029 0.0664 0 14
30.5067 21.9596 -2.5029 0.0664 0 14
30.1498 22.4471 -2.5029 0.0664 0 8
31.5080 24.2551 -2.6477 0.0664 0 7
31.1141 24.7584 -2.6477 0.0664 0 7
30.7121 25.2554 -2.6477 0.0664 0 7
30.3022 25.7458 -2.6477 0.0664 0 7
29.8845 26.2295 -2.6477 0.0664 0 7
29.4590 26.7065 -2.6477 0.0664 0 7
29.0259 27.1765 -2.6477 0.0664 0 7
28.5853 27.6395 -2.6477 0.0664 0 7
28.1374 28.0955 -2.6477 0.0664 0 7
27.6821 28.5441 -2.6477 0.0664 0 7
27.2198 28.9854 -2.6477 0.0664 0 7
26.7504 29.4191 -2.6477 0.0664 0 7
26.2740 29.8453 -2.6477 0.0664 0 7
25.7909 30.2638 -2.6477 0.0664 0 7
25.3011 30.6744 -2.6477 0.0664 0 7
24.8048 31.0772 -2.6477 0.0664 0 7
24.3021 31.4718 -2.6477 0.0664 0 7
23.7931 31.8584 -2.6477 0.0664 0 7
23.2779 32.2367 -2.6477 0.0664 0 7
22.7436 32.5878 -2.6461 0.0803 0 8
22.1742 32.8859 -2.6411 0.0804 0 8
21.4534 32.9473 -2.6180 0.8328 0 8
20.7088 32.9502 -2.5914 0.8413 0 8
19.9789 32.9529 -2.5660 0.8496 0 8
19.2628 32.9554 -2.5418 0.8577 0 8
18.5600 32.9577 -2.5186 0.8656 0 8
17.8722 32.9647 -2.4969 0.6662 0 8
17.3290 33.2265 -2.4953 0.0664 0 8
16.7927 33.5008 -2.4953 0.0664 0 8
16.2520 33.7663 -2.4953 0.0664 0 8
15.7071 34.0232 -2.4953 0.0664 0 8
15.1582 34.2713 -2.4953 0.0664 0 8
14.6054 34.5105 -2.4953 0.0664 0 8
14.0488 34.7408 -2.4953 0.0664 0 8
13.4886 34.9621 -2.4953 0.0664 0 8
12.9249 35.1744 -2.4953 0.0664 0 8
12.3578 35.3776 -2.4953 0.0664 0 8
11.7876 35.5717 -2.4953 0.0664 0 8
11.2143 35.7566 -2.4953 0.0664 0 8
10.6381 35.9322 -2.4953 0.0664 0 8
10.0592 36.0986 -2.4953 0.0664 0 8
9.4777 36.2556 -2.4953 0.0664 0 8
8.8937 36.4032 -2.4953 0.0664 0 8
8.3074 36.5415 -2.4953 0.0664 0 8
7.7190 36.6703 -2.4953 0.0664 0 8
7.1286 36.7896 -2.4953 0.0664 0 8
6.5363 36.8995 -2.4953 0.0664 0 8
5.9423 36.9998 -2.4953 0.0664 0 8
5.3469 37.0905 -2.4953 0.0664 0 8
4.7500 37.1717 -2.4953 0.0664 0 8
4.1519 37.2432 -2.4953 0.0664 0 8
3.5527 37.3051 -2.4953 0.0664 0 8
2.9526 37.3574 -2.4953 0.0664 0 8
2.3518 37.4000 -2.4953 0.0664 0 8
1.7503 37.4330 -2.4953 0.0664 0 8
1.1484 37.4563 -2.4953 0.0664 0 8
0.5462 37.4699 -2.4953 0.0664 0 8
-0.0562 37.4739 -2.4953 0.0664 0 8
-0.6585 37.4681 -2.4953 0.0664 0 8
-1.2607 37.4527 -2.4953 0.0664 0 8
-1.8625 37.4276 -2.4953 0.0664 0 8
-2.4639 37.3928 -2.4953 0.0664 0 8
-3.0646 37.3484 -2.4953 0.0664 0 8
-3.6645 37.2943 -2.4953 0.0664 0 8
-4.2635 37.2306 -2.4953 0.0664 0 8
-4.8614 37.1572 -2.4953 0.0664 0 8
-5.4580 37.0743 -2.4953 0.0664 0 8
31.8580 15.2751 -2.6477 0.0747 0 7
31.6084 15.7852 -2.6477 0.0747 0 7
31.3506 16.2912 -2.6477 0.0747 0 7
31.0847 16.7930 -2.6477 0.0747 0 7
30.8107 17.2905 -2.6477 0.0747 0 7
30.5288 17.7835 -2.6477 0.0747 0 7
30.2390 18.2719 -2.6477 0.0747 0 7
29.9414 18.7556 -2.6477 0.0747 0 7
29.3070 19.0209 -2.6183 0.5451 0 8
28.3132 19.0296 -2.5565 0.5583 0 8
27.4166 19.0738 -2.5029 0.0747 0 8
27.1065 19.5120 -2.5029 0.0747 0 14
26.7893 19.9452 -2.5029 0.0747 0 14
26.4653 20.3732 -2.5029 0.0747 0 14
26.1344 20.7959 -2.5029 0.0747 0 14
25.7968 21.2133 -2.5029 0.0747 0 14
25.4525 21.6252 -2.5029 0.0747 0 14
25.1016 22.0316 -2.5029 0.0747 0 14
24.7442 22.4322 -2.5029 0.0747 0 8
25.7907 24.1475 -2.6477 0.0747 0 7
25.3993 24.5589 -2.6477 0.0747 0 7
25.0012 24.9640 -2.6477 0.0747 0 7
24.5967 25.3626 -2.6477 0.0747 0 7
24.1859 25.7547 -2.6477 0.0747 0 7
23.7688 26.1401 -2.6477 0.0747 0 7
23.3456 26.5188 -2.6477 0.0747 0 7
22.9163 26.8906 -2.6477 0.0747 0 7
22.4811 27.2555 -2.6477 0.0747 0 7
22.0401 27.6133 -2.6477 0.0747 0 7
21.5934 27.9640 -2.6477 0.0747 0 7
21.1411 28.3075 -2.6477 0.0747 0 7
20.6834 28.6436 -2.6477 0.0747 0 7
20.2203 28.9724 -2.6477 0.0747 0 7
19.7520 29.2937 -2.6477 0.0747 0 7
19.2786 29.6074 -2.6477 0.0747 0 7
18.8002 29.9134 -2.6477 0.0747 0 7
18.3170 30.2117 -2.6477 0.0747 0 7
17.8290 30.5023 -2.6477 0.0747 0 7
17.3364 30.7849 -2.6477 0.0747 0 7
16.8393 31.0596 -2.6477 0.0747 0 7
16.3379 31.3263 -2.6477 0.0747 0 7
15.8323 31.5848 -2.6477 0.0747 0 7
15.3225 31.8352 -2.6477 0.0747 0 7
14.8088 32.0774 -2.6477 0.0747 0 7
14.2913 32.3113 -2.6477 0.0747 0 7
13.7654 32.5257 -2.6468 0.0903 0 8
13.2255 32.7049 -2.6437 0.0904 0 8
12.6840 32.8767 -2.6408 0.0905 0 8
12.0963 32.9194 -2.6282 0.9330 0 8
11.4996 32.9206 -2.6132 0.9384 0 8
10.9094 32.9215 -2.5991 0.9435 0 8
10.3254 32.9224 -2.5857 0.9484 0 8
9.7473 32.9231 -2.5731 0.9530 0 8
9.1745 32.9237 -2.5613 0.9574 0 8
8.6068 32.9242 -2.5502 0.9616 0 8
8.0438 32.9245 -2.5399 0.9655 0 8
7.4852 32.9248 -2.5303 0.9691 0 8
6.9306 32.9249 -2.5214 0.9725 0 8
6.3797 32.9248 -2.5133 0.9757 0 8
5.8322 32.9247 -2.5058 0.9786 0 8
5.2883 32.9274 -2.4992 0.7486 0 8
4.7509 32.9564 -2.4953 0.0747 0 8
4.2205 33.0285 -2.4953 0.0747 0 8
3.6891 33.0921 -2.4953 0.0747 0 8
3.1567 33.1471 -2.4953 0.0747 0 8
2.6235 33.1936 -2.4953 0.0747 0 8
2.0896 33.2315 -2.4953 0.0747 0 8
1.5552 33.2608 -2.4953 0.0747 0 8
1.0204 33.2815 -2.4953 0.0747 0 8
0.4853 33.2936 -2.4953 0.0747 0 8
-0.0499 33.2971 -2.4953 0.0747 0 8
-0.5851 33.2920 -2.4953 0.0747 0 8
-1.1201 33.2782 -2.4953 0.0747 0 8
-1.6549 33.2559 -2.4953 0.0747 0 8
-2.1892 33.2251 -2.4953 0.0747 0 8
-2.7230 33.1856 -2.4953 0.0747 0 8
-3.2561 33.1375 -2.4953 0.0747 0 8
-3.7883 33.0809 -2.4953 0.0747 0 8
-4.3195 33.0157 -2.4953 0.0747 0 8
-4.8496 32.9420 -2.4953 0.0747 0 8
28.6596 13.7415 -2.6477 0.0830 0 7
28.4350 14.2004 -2.6477 0.0830 0 7
28.2031 14.6556 -2.6477 0.0830 0 7
27.9639 15.1071 -2.6477 0.0830 0 7
27.7175 15.5546 -2.6477 0.0830 0 7
27.4639 15.9981 -2.6477 0.0830 0 7
27.2032 16.4375 -2.6477 0.0830 0 7
26.9354 16.8726 -2.6477 0.0830 0 7
26.6607 17.3034 -2.6477 0.0830 0 7
26.3792 17.7297 -2.6477 0.0830 0 7
26.0908 18.1514 -2.6477 0.0830 0 7
25.7957 18.5684 -2.6477 0.0830 0 7
25.4939 18.9807 -2.6477 0.0830 0 7
24.6973 19.0121 -2.5963 0.6107 0 8
23.9020 19.0195 -2.5446 0.6231 0 8
23.2069 19.0836 -2.5029 0.0830 0 8
22.8971 19.4542 -2.5029 0.0830 0 14
22.5815 19.8197 -2.5029 0.0830 0 14
22.2600 20.1801 -2.5029 0.0830 0 14
21.9327 20.5353 -2.5029 0.0830 0 14
21.5998 20.8852 -2.5029 0.0830 0 14
21.2613 21.2297 -2.5029 0.0830 0 14
20.9174 21.5687 -2.5029 0.0830 0 14
20.5680 21.9021 -2.5029 0.0830 0 14
20.2133 22.2299 -2.5029 0.0830 0 14
21.0018 23.8564 -2.6477 0.0830 0 7
20.6156 24.1909 -2.6477 0.0830 0 7
20.2241 24.5192 -2.6477 0.0830 0 7
19.8273 24.8411 -2.6477 0.0830 0 7
19.4255 25.1566 -2.6477 0.0830 0 7
19.0186 25.4656 -2.6477 0.0830 0 7
18.6069 25.7680 -2.6477 0.0830 0 7
18.1903 26.0637 -2.6477 0.0830 0 7
17.7690 26.3527 -2.6477 0.0830 0 7
17.3431 26.6349 -2.6477 0.0830 0 7
16.9128 26.9102 -2.6477 0.0830 0 7
16.4780 27.1786 -2.6477 0.0830 0 7
16.0390 27.4400 -2.6477 0.0830 0 7
15.5959 27.6942 -2.6477 0.0830 0 7
15.1487 27.9414 -2.6477 0.0830 0 7
14.6976 28.1812 -2.6477 0.0830 0 7
14.2428 28.4138 -2.6477 0.0830 0 7
13.7842 28.6391 -2.6477 0.0830 0 7
13.3221 28.8570 -2.6477 0.0830 0 7
12.8566 29.0674 -2.6477 0.0830 0 7
12.3877 29.2703 -2.6477 0.0830 0 7
11.9156 29.4656 -2.6477 0.0830 0 7
11.4404 29.6533 -2.6477 0.0830 0 7
10.9623 29.8334 -2.6477 0.0830 0 7
10.4814 30.0057 -2.6477 0.0830 0 6
9.9977 30.1703 -2.6477 0.0830 0 7
9.5115 30.3271 -2.6477 0.0830 0 7
9.0228 30.4761 -2.6477 0.0830 0 7
8.5318 30.6172 -2.6477 0.0830 0 7
8.0385 30.7504 -2.6477 0.0830 0 7
7.5432 30.8756 -2.6477 0.0830 0 7
7.0460 30.9929 -2.6477 0.0830 0 7
6.5469 31.1021 -2.6477 0.0830 0 7
6.0461 31.2033 -2.6477 0.0830 0 7
5.5438 31.2965 -2.6477 0.0830 0 7
5.0400 31.3815 -2.6477 0.0830 0 7
4.5350 31.4585 -2.6477 0.0830 0 7
4.0287 31.5273 -2.6477 0.0830 0 7
3.5214 31.5880 -2.6477 0.0830 0 7
3.0132 31.6405 -2.6477 0.0830 0 7
2.5043 31.6849 -2.6477 0.0830 0 7
1.9947 31.7210 -2.6477 0.0830 0 7
1.4845 31.7490 -2.6477 0.0830 0 7
0.9740 31.7688 -2.6477 0.0830 0 7
0.4633 31.7803 -2.6477 0.0830 0 7
-0.0476 31.7837 -2.6477 0.0830 0 7
-0.5585 31.7788 -2.6477 0.0830 0 7
-1.0692 31.7657 -2.6477 0.0830 0 7
-1.5797 31.7444 -2.6477 0.0830 0 7
-2.0897 31.7149 -2.6477 0.0830 0 7
-2.5992 31.6772 -2.6477 0.0830 0 7
-3.1081 31.6314 -2.6477 0.0830 0 7
-3.6161 31.5773 -2.6477 0.0830 0 7
-4.1232 31.5151 -2.6477 0.0830 0 7
-4.6292 31.4448 -2.6477 0.0830 0 7
26.0416 12.4862 -2.6477 0.0913 0 7
25.8375 12.9032 -2.6477 0.0913 0 7
25.6268 13.3168 -2.6477 0.0913 0 7
25.4094 13.7270 -2.6477 0.0913 0 7
25.1855 14.1337 -2.6477 0.0913 0 7
24.9551 14.5367 -2.6477 0.0913 0 7
24.7182 14.9359 -2.6477 0.0913 0 7
24.4749 15.3313 -2.6477 0.0913 0 7
24.2253 15.7227 -2.6477 0.0913 0 7
23.9695 16.1101 -2.6477 0.0913 0 7
23.7074 16.4933 -2.6477 0.0913 0 7
23.4392 16.8722 -2.6477 0.0913 0 7
23.1650 17.2468 -2.6477 0.0913 0 7
22.8848 17.6169 -2.6477 0.0913 0 7
22.5987 17.9825 -2.6477 0.0913 0 7
22.3067 18.3434 -2.6477 0.0913 0 7
22.0090 18.6996 -2.6477 0.0913 0 7
21.6425 18.9956 -2.6400 0.6605 0 8
20.9607 19.0022 -2.5937 0.6723 0 8
20.3021 19.0086 -2.5497 0.6839 0 8
19.6672 19.0165 -2.5081 0.5526 0 8
19.3191 19.2903 -2.5029 0.0913 0 14
19.0066 19.5984 -2.5029 0.0913 0 14
18.6891 19.9014 -2.5029 0.0913 0 14
18.3668 20.1992 -2.5029 0.0913 0 14
18.0398 20.4918 -2.5029 0.0913 0 14
17.7080 20.7791 -2.5029 0.0913 0 14
17.3717 21.0611 -2.5029 0.0913 0 14
17.0310 21.3376 -2.5029 0.0913 0 14
16.6858 21.6086 -2.5029 0.0913 0 14
16.3363 21.8740 -2.5029 0.0913 0 14
15.9826 22.1337 -2.5029 0.0913 0 14
15.6248 22.3878 -2.5029 0.0913 0 8
16.1458 23.9454 -2.6477 0.0913 0 7
15.7588 24.2018 -2.6477 0.0913 0 7
15.3678 24.4520 -2.6477 0.0913 0 7
14.9728 24.6959 -2.6477 0.0913 0 7
14.5739 24.9333 -2.6477 0.0913 0 7
14.1712 25.1644 -2.6477 0.0913 0 7
13.7649 25.3889 -2.6477 0.0913 0 7
13.3550 25.6069 -2.6477 0.0913 0 7
12.9417 25.8182 -2.6477 0.0913 0 7
12.5250 26.0229 -2.6477 0.0913 0 7
12.1051 26.2209 -2.6477 0.0913 0 7
11.6821 26.4121 -2.6477 0.0913 0 7
11.2561 26.5964 -2.6477 0.0913 0 7
10.8271 26.7739 -2.6477 0.0913 0 7
10.3953 26.9445 -2.6477 0.0913 0 7
9.9609 27.1081 -2.6477 0.0913 0 7
9.5239 27.2647 -2.6477 0.0913 0 7
9.0844 27.4143 -2.6477 0.0913 0 7
8.6426 27.5568 -2.6477 0.0913 0 7
8.1986 27.6921 -2.6477 0.0913 0 7
7.7524 27.8203 -2.6477 0.0913 0 7
7.3042 27.9413 -2.6477 0.0913 0 7
6.8542 28.0551 -2.6477 0.0913 0 7
6.4023 28.1617 -2.6477 0.0913 0 7
5.9488 28.2609 -2.6477 0.0913 0 7
5.4938 28.3529 -2.6477 0.0913 0 7
5.0374 28.4376 -2.6477 0.0913 0 7
4.5796 28.5148 -2.6477 0.0913 0 7
4.1207 28.5848 -2.6477 0.0913 0 7
3.6607 28.6473 -2.6477 0.0913 0 7
3.1998 28.7025 -2.6477 0.0913 0 7
2.7380 28.7502 -2.6477 0.0913 0 7
2.2755 28.7905 -2.6477 0.0913 0 7
1.8124 28.8233 -2.6477 0.0913 0 7
1.3489 28.8487 -2.6477 0.0913 0 7
0.8850 28.8667 -2.6477 0.0913 0 7
0.4209 28.8772 -2.6477 0.0913 0 7
-0.0433 28.8802 -2.6477 0.0913 0 7
-0.5075 28.8758 -2.6477 0.0913 0 7
-0.9716 28.8639 -2.6477 0.0913 0 7
-1.4354 28.8446 -2.6477 0.0913 0 7
-1.8988 28.8178 -2.6477 0.0913 0 7
-2.3618 28.7835 -2.6477 0.0913 0 7
-2.8241 28.7418 -2.6477 0.0913 0 7
-3.2858 28.6927 -2.6477 0.0913 0 7
-3.7465 28.6362 -2.6477 0.0913 0 7
-4.2063 28.5723 -2.6477 0.0913 0 7
23.8588 11.4396 -2.6477 0.0996 0 6
23.6718 11.8216 -2.6477 0.0996 0 7
23.4787 12.2006 -2.6477 0.0996 0 7
23.2796 12.5764 -2.6477 0.0996 0 7
23.0744 12.9490 -2.6477 0.0996 0 7
22.8633 13.3182 -2.6477 0.0996 0 7
22.6463 13.6840 -2.6477 0.0996 0 7
22.4234 14.0462 -2.6477 0.0996 0 7
22.1947 14.4049 -2.6477 0.0996 0 7
21.9603 14.7597 -2.6477 0.0996 0 7
21.7202 15.1108 -2.6477 0.0996 0 7
21.4746 15.4580 -2.6477 0.0996 0 7
21.2233 15.8011 -2.6477 0.0996 0 7
20.9666 16.1402 -2.6477 0.0996 0 7
20.7045 16.4752 -2.6477 0.0996 0 7
20.4370 16.8058 -2.6477 0.0996 0 7
20.1642 17.1322 -2.6477 0.0996 0 7
19.8862 17.4541 -2.6477 0.0996 0 7
19.6031 17.7715 -2.6477 0.0996 0 7
19.3149 18.0843 -2.6477 0.0996 0 7
19.0217 18.3924 -2.6477 0.0996 0 7
18.7236 18.6957 -2.6477 0.0996 0 7
18.4121 18.9854 -2.6464 0.7186 0 8
17.8343 18.9911 -2.6069 0.7295 0 8
17.2732 18.9965 -2.5692 0.7402 0 8
16.7279 19.0017 -2.5332 0.7507 0 8
16.2237 19.0374 -2.5029 0.0996 0 8
15.9156 19.2957 -2.5029 0.0996 0 14
15.6034 19.5491 -2.5029 0.0996 0 14
15.2872 19.7973 -2.5029 0.0996 0 14
14.9670 20.0405 -2.5029 0.0996 0 14
14.6430 20.2785 -2.5029 0.0996 0 14
14.3151 20.5112 -2.5029 0.0996 0 14
13.9836 20.7387 -2.5029 0.0996 0 14
13.6484 20.9608 -2.5029 0.0996 0 14
13.3098 21.1774 -2.5029 0.0996 0 14
12.9676 21.3886 -2.5029 0.0996 0 14
12.6222 21.5943 -2.5029 0.0996 0 14
12.2734 21.7944 -2.5029 0.0996 0 14
11.9215 21.9889 -2.5029 0.0996 0 14
11.5665 22.1776 -2.5029 0.0996 0 14
11.2086 22.3607 -2.5029 0.0996 0 8
11.4752 23.8417 -2.6477 0.0996 0 7
11.0905 24.0231 -2.6477 0.0996 0 7
10.7029 24.1982 -2.6477 0.0996 0 7
10.3126 24.3671 -2.6477 0.0996 0 7
9.9196 24.5297 -2.6477 0.0996 0 7
9.5240 24.6860 -2.6477 0.0996 0 7
9.1260 24.8359 -2.6477 0.0996 0 7
8.7256 24.9794 -2.6477 0.0996 0 7
8.3230 25.1164 -2.6477 0.0996 0 7
7.9182 25.2469 -2.6477 0.0996 0 7
7.5114 25.3710 -2.6477 0.0996 0 7
7.1026 25.4884 -2.6477 0.0996 0 7
6.6920 25.5993 -2.6477 0.0996 0 7
6.2796 25.7035 -2.6477 0.0996 0 7
5.8657 25.8012 -2.6477 0.0996 0 7
5.4502 25.8921 -2.6477 0.0996 0 7
5.0333 25.9764 -2.6477 0.0996 0 7
4.6151 26.0539 -2.6477 0.0996 0 7
4.1958 26.1247 -2.6477 0.0996 0 7
3.7753 26.1888 -2.6477 0.0996 0 7
3.3539 26.2461 -2.6477 0.0996 0 7
2.9316 26.2966 -2.6477 0.0996 0 7
2.5085 26.3403 -2.6477 0.0996 0 7
2.0848 26.3773 -2.6477 0.0996 0 7
1.6605 26.4074 -2.6477 0.0996 0 7
1.2358 26.4306 -2.6477 0.0996 0 7
0.8109 26.4471 -2.6477 0.0996 0 7
0.3856 26.4567 -2.6477 0.0996 0 7
-0.0397 26.4595 -2.6477 0.0996 0 6
-0.4650 26.4554 -2.6477 0.0996 0 6
-0.8901 26.4445 -2.6477 0.0996 0 6
-1.3151 26.4268 -2.6477 0.0996 0 6
-1.7397 26.4023 -2.6477 0.0996 0 7
-2.1638 26.3709 -2.6477 0.0996 0 7
-2.5874 26.3327 -2.6477 0.0996 0 7
-3.0103 26.2877 -2.6477 0.0996 0 7
-3.4325 26.2359 -2.6477 0.0996 0 7
-3.8538 26.1774 -2.6477 0.0996 0 7
22.0107 10.5535 -2.6477 0.1078 0 7
21.8382 10.9060 -2.6477 0.1078 0 7
21.6601 11.2556 -2.6477 0.1078 0 7
21.4764 11.6023 -2.6477 0.1078 0 7
21.2871 11.9460 -2.6477 0.1078 0 7
21.0924 12.2866 -2.6477 0.1078 0 7
20.8921 12.6241 -2.6477 0.1078 0 7
20.6865 12.9582 -2.6477 0.1078 0 7
20.4756 13.2891 -2.6477 0.1078 0 7
20.2593 13.6165 -2.6477 0.1078 0 7
20.0378 13.9403 -2.6477 0.1078 0 7
19.8112 14.2606 -2.6477 0.1078 0 7
19.5794 14.5772 -2.6477 0.1078 0 7
19.3426 14.8900 -2.6477 0.1078 0 7
19.1007 15.1990 -2.6477 0.1078 0 7
18.8540 15.5041 -2.6477 0.1078 0 7
18.6023 15.8051 -2.6477 0.1078 0 7
18.3459 16.1021 -2.6477 0.1078 0 7
18.0847 16.3949 -2.6477 0.1078 0 7
17.8188 16.6835 -2.6477 0.1078 0 7
17.5483 16.9677 -2.6477 0.1078 0 7
17.2733 17.2476 -2.6477 0.1078 0 7
16.9939 17.5230 -2.6477 0.1078 0 7
16.7100 17.7939 -2.6477 0.1078 0 7
16.4219 18.0602 -2.6477 0.1078 0 7
16.1294 18.3218 -2.6477 0.1078 0 7
15.8328 18.5787 -2.6477 0.1078 0 7
15.5322 18.8308 -2.6477 0.1078 0 7
15.1481 18.9786 -2.6339 0.7820 0 8
14.6586 18.9833 -2.6015 0.7917 0 8
14.1807 18.9877 -2.5705 0.8012 0 8
13.7139 18.9919 -2.5409 0.8106 0 8
13.2575 18.9959 -2.5126 0.8197 0 8
12.9004 19.1323 -2.5029 0.1078 0 8
12.5912 19.3372 -2.5029 0.1078 0 14
12.2788 19.5371 -2.5029 0.1078 0 14
11.9632 19.7319 -2.5029 0.1078 0 14
11.6445 19.9216 -2.5029 0.1078 0 14
11.3227 20.1062 -2.5029 0.1078 0 14
10.9981 20.2856 -2.5029 0.1078 0 14
10.6706 20.4598 -2.5029 0.1078 0 14
10.3404 20.6287 -2.5029 0.1078 0 14
10.0075 20.7922 -2.5029 0.1078 0 14
9.6720 20.9504 -2.5029 0.1078 0 14
9.3340 21.1031 -2.5029 0.1078 0 14
8.9935 21.2504 -2.5029 0.1078 0 14
8.6508 21.3923 -2.5029 0.1078 0 14
8.3058 21.5285 -2.5029 0.1078 0 14
7.9587 21.6593 -2.5029 0.1078 0 14
7.6096 21.7844 -2.5029 0.1078 0 14
7.2584 21.9039 -2.5029 0.1078 0 14
6.9054 22.0177 -2.5029 0.1078 0 14
6.5506 22.1259 -2.5029 0.1078 0 14
6.1941 22.2283 -2.5029 0.1078 0 14
5.8360 22.3250 -2.5029 0.1078 0 8
5.4764 22.4159 -2.5029 0.1078 0 8
5.4113 23.8026 -2.6477 0.1078 0 7
5.0280 23.8865 -2.6477 0.1078 0 7
4.6435 23.9643 -2.6477 0.1078 0 7
4.2577 24.0358 -2.6477 0.1078 0 7
3.8708 24.1011 -2.6477 0.1078 0 7
3.4829 24.1602 -2.6477 0.1078 0 7
3.0941 24.2131 -2.6477 0.1078 0 7
2.7045 24.2597 -2.6477 0.1078 0 7
2.3142 24.3001 -2.6477 0.1078 0 7
1.9233 24.3341 -2.6477 0.1078 0 7
1.5319 24.3619 -2.6477 0.1078 0 7
1.1401 24.3834 -2.6477 0.1078 0 7
0.7480 24.3985 -2.6477 0.1078 0 7
0.3558 24.4074 -2.6477 0.1078 0 7
-0.0366 24.4100 -2.6477 0.1078 0 7
-0.4289 24.4062 -2.6477 0.1078 0 7
-0.8212 24.3962 -2.6477 0.1078 0 7
-1.2132 24.3798 -2.6477 0.1078 0 7
-1.6049 24.3572 -2.6477 0.1078 0 7
-1.9962 24.3282 -2.6477 0.1078 0 7
-2.3870 24.2930 -2.6477 0.1078 0 7
-2.7772 24.2515 -2.6477 0.1078 0 7
-3.1666 24.2037 -2.6477 0.1078 0 7
-3.5553 24.1497 -2.6477 0.1078 0 7
20.4257 9.7936 -2.6477 0.1161 0 7
20.2657 10.1206 -2.6477 0.1161 0 7
20.1004 10.4451 -2.6477 0.1161 0 7
19.9299 10.7668 -2.6477 0.1161 0 7
19.7543 11.0858 -2.6477 0.1161 0 7
19.5735 11.4019 -2.6477 0.1161 0 7
19.3877 11.7150 -2.6477 0.1161 0 7
19.1969 12.0251 -2.6477 0.1161 0 7
19.0011 12.3321 -2.6477 0.1161 0 7
18.8005 12.6360 -2.6477 0.1161 0 7
18.5949 12.9365 -2.6477 0.1161 0 7
18.3846 13.2337 -2.6477 0.1161 0 7
18.1695 13.5275 -2.6477 0.1161 0 7
17.9497 13.8178 -2.6477 0.1161 0 7
17.7253 14.1046 -2.6477 0.1161 0 7
17.4963 14.3877 -2.6477 0.1161 0 7
17.2628 14.6670 -2.6477 0.1161 0 7
17.0248 14.9426 -2.6477 0.1161 0 7
16.7824 15.2143 -2.6477 0.1161 0 7
16.5357 15.4821 -2.6477 0.1161 0 7
16.2847 15.7459 -2.6477 0.1161 0 7
16.0295 16.0056 -2.6477 0.1161 0 7
15.7702 16.2612 -2.6477 0.1161 0 7
15.5068 16.5126 -2.6477 0.1161 0 7
15.2393 16.7597 -2.6477 0.1161 0 7
14.9680 17.0025 -2.6477 0.1161 0 7
14.6927 17.2409 -2.6477 0.1161 0 7
14.4137 17.4748 -2.6477 0.1161 0 7
14.1310 17.7043 -2.6477 0.1161 0 7
13.8446 17.9291 -2.6477 0.1161 0 7
13.5546 18.1493 -2.6477 0.1161 0 7
13.2611 18.3648 -2.6477 0.1161 0 7
12.9642 18.5756 -2.6477 0.1161 0 7
12.6640 18.7816 -2.6477 0.1161 0 7
12.3513 18.9687 -2.6457 0.8381 0 8
11.9239 18.9724 -2.6192 0.8466 0 8
11.5049 18.9760 -2.5938 0.8549 0 8
11.0937 18.9793 -2.5695 0.8629 0 8
10.6899 18.9825 -2.5464 0.8708 0 8
10.2932 18.9855 -2.5242 0.8784 0 8
9.9059 18.9936 -2.5038 0.7039 0 8
9.5970 19.1458 -2.5032 0.7091 0 8
9.2868 19.2950 -2.5029 0.1161 0 14
8.9755 19.4418 -2.5029 0.1161 0 14
8.6618 19.5835 -2.5029 0.1161 0 14
8.3459 19.7202 -2.5029 0.1161 0 14
8.0279 19.8518 -2.5029 0.1161 0 14
7.7077 19.9783 -2.5029 0.1161 0 14
7.3856 20.0996 -2.5029 0.1161 0 14
7.0616 20.2157 -2.5029 0.1161 0 14
6.7358 20.3266 -2.5029 0.1161 0 14
6.4082 20.4323 -2.5029 0.1161 0 14
6.0789 20.5326 -2.5029 0.1161 0 14
5.7481 20.6277 -2.5029 0.1161 0 14
5.4158 20.7174 -2.5029 0.1161 0 14
5.0821 20.8018 -2.5029 0.1161 0 14
4.7471 20.8808 -2.5029 0.1161 0 14
4.4108 20.9544 -2.5029 0.1161 0 14
4.0735 21.0226 -2.5029 0.1161 0 14
3.7350 21.0853 -2.5029 0.1161 0 14
3.3956 21.1427 -2.5029 0.1161 0 14
3.0553 21.1945 -2.5029 0.1161 0 14
2.7143 21.2409 -2.5029 0.1161 0 14
2.3725 21.2818 -2.5029 0.1161 0 14
2.0301 21.3171 -2.5029 0.1161 0 14
1.6872 21.3470 -2.5029 0.1161 0 14
1.3439 21.3714 -2.5029 0.1161 0 14
1.0002 21.3902 -2.5029 0.1161 0 14
0.6562 21.4035 -2.5029 0.1161 0 14
0.3121 21.4113 -2.5029 0.1161 0 14
-0.0321 21.4136 -2.5029 0.1161 0 14
-0.3763 21.4103 -2.5029 0.1161 0 14
-0.7204 21.4015 -2.5029 0.1161 0 14
-1.0643 21.3871 -2.5029 0.1161 0 14
-1.4079 21.3673 -2.5029 0.1161 0 14
-1.7512 21.3419 -2.5029 0.1161 0 14
-2.0940 21.3110 -2.5029 0.1161 0 14
-2.4363 21.2746 -2.5029 0.1161 0 14
-2.7779 21.2326 -2.5029 0.1161 0 14
-3.1188 21.1853 -2.5029 0.1161 0 14
19.0512 9.1345 -2.6477 0.1243 0 7
18.9019 9.4396 -2.6477 0.1243 0 7
18.7478 9.7422 -2.6477 0.1243 0 7
18.5888 10.0423 -2.6477 0.1243 0 7
18.4249 10.3398 -2.6477 0.1243 0 7
18.2564 10.6346 -2.6477 0.1243 0 7
18.0831 10.9267 -2.6477 0.1243 0 7
17.9051 11.2159 -2.6477 0.1243 0 7
17.7224 11.5023 -2.6477 0.1243 0 6
17.5353 11.7856 -2.6477 0.1243 0 7
17.3436 12.0660 -2.6477 0.1243 0 7
17.1474 12.3432 -2.6477 0.1243 0 7
16.9468 12.6172 -2.6477 0.1243 0 7
16.7418 12.8880 -2.6477 0.1243 0 7
16.5325 13.1554 -2.6477 0.1243 0 7
16.3189 13.4195 -2.6477 0.1243 0 7
16.1011 13.6800 -2.6477 0.1243 0 7
15.8791 13.9371 -2.6477 0.1243 0 7
15.6531 14.1905 -2.6477 0.1243 0 7
15.4229 14.4403 -2.6477 0.1243 0 7
15.1889 14.6863 -2.6477 0.1243 0 7
14.9509 14.9286 -2.6477 0.1243 0 6
14.7089 15.1669 -2.6477 0.1243 0 7
14.4633 15.4014 -2.6477 0.1243 0 7
14.2138 15.6319 -2.6477 0.1243 0 7
13.9607 15.8583 -2.6477 0.1243 0 7
13.7040 16.0807 -2.6477 0.1243 0 7
13.4438 16.2989 -2.6477 0.1243 0 7
13.1800 16.5129 -2.6477 0.1243 0 7
12.9129 16.7226 -2.6477 0.1243 0 7
12.6425 16.9280 -2.6477 0.1243 0 7
12.3687 17.1290 -2.6477 0.1243 0 7
12.0918 17.3256 -2.6477 0.1243 0 7
11.8118 17.5177 -2.6477 0.1243 0 7
11.5287 17.7053 -2.6477 0.1243 0 7
11.2426 17.8883 -2.6477 0.1243 0 7
10.9536 18.0667 -2.6477 0.1243 0 7
10.6618 18.2405 -2.6477 0.1243 0 7
10.3672 18.4095 -2.6477 0.1243 0 6
10.0700 18.5738 -2.6477 0.1243 0 7
9.7701 18.7332 -2.6477 0.1243 0 7
9.4678 18.8878 -2.6477 0.1243 0 7
9.1262 18.9613 -2.6371 0.9006 0 8
8.7549 18.9639 -2.6175 0.9073 0 8
8.3888 18.9663 -2.5989 0.9138 0 8
8.0278 18.9686 -2.5812 0.9201 0 8
7.6716 18.9707 -2.5644 0.9261 0 8
7.3198 18.9727 -2.5484 0.9319 0 8
6.9722 18.9746 -2.5333 0.9375 0 8
6.6286 18.9763 -2.5189 0.9428 0 8
6.2900 18.9815 -2.5059 0.7533 0 8
5.9769 19.0573 -2.5029 0.1243 0 8
5.6698 19.1509 -2.5029 0.1243 0 14
5.3613 19.2396 -2.5029 0.1243 0 14
5.0513 19.3233 -2.5029 0.1243 0 14
4.7401 19.4020 -2.5029 0.1243 0 14
4.4276 19.4756 -2.5029 0.1243 0 14
4.1140 19.5443 -2.5029 0.1243 0 14
3.7993 19.6079 -2.5029 0.1243 0 14
3.4837 19.6664 -2.5029 0.1243 0 14
3.1671 19.7199 -2.5029 0.1243 0 14
2.8497 19.7683 -2.5029 0.1243 0 14
2.5316 19.8115 -2.5029 0.1243 0 14
2.2128 19.8496 -2.5029 0.1243 0 14
1.8935 19.8826 -2.5029 0.1243 0 14
1.5737 19.9105 -2.5029 0.1243 0 14
1.2534 19.9332 -2.5029 0.1243 0 14
0.9329 19.9508 -2.5029 0.1243 0 14
0.6121 19.9632 -2.5029 0.1243 0 14
0.2911 19.9705 -2.5029 0.1243 0 14
-0.0299 19.9726 -2.5029 0.1243 0 14
-0.3510 19.9695 -2.5029 0.1243 0 14
-0.6719 19.9613 -2.5029 0.1243 0 14
-0.9927 19.9479 -2.5029 0.1243 0 14
-1.3132 19.9294 -2.5029 0.1243 0 14
-1.6333 19.9057 -2.5029 0.1243 0 14
-1.9531 19.8769 -2.5029 0.1243 0 14
-2.2723 19.8429 -2.5029 0.1243 0 14
-2.5910 19.8038 -2.5029 0.1243 0 14
-2.9090 19.7596 -2.5029 0.1243 0 14
16.8204 8.0649 -2.4953 0.1326 0 8
16.6886 8.3342 -2.4953 0.1326 0 8
17.5634 9.1267 -2.6477 0.1326 0 7
17.4144 9.4079 -2.6477 0.1326 0 7
17.2609 9.6866 -2.6477 0.1326 0 7
17.1030 9.9628 -2.6477 0.1326 0 7
16.9407 10.2364 -2.6477 0.1326 0 7
16.7739 10.5074 -2.6477 0.1326 0 7
16.6029 10.7756 -2.6477 0.1326 0 7
16.4275 11.0411 -2.6477 0.1326 0 7
16.2479 11.3037 -2.6477 0.1326 0 7
16.0642 11.5634 -2.6477 0.1326 0 7
15.8762 11.8201 -2.6477 0.1326 0 7
15.6842 12.0738 -2.6477 0.1326 0 7
15.4881 12.3243 -2.6477 0.1326 0 7
15.2880 12.5717 -2.6477 0.1326 0 7
15.0839 12.8158 -2.6477 0.1326 0 7
14.8760 13.0566 -2.6477 0.1326 0 7
14.6642 13.2940 -2.6477 0.1326 0 7
14.4486 13.5280 -2.6477 0.1326 0 7
14.2293 13.7585 -2.6477 0.1326 0 7
14.0063 13.9855 -2.6477 0.1326 0 7
13.7797 14.2088 -2.6477 0.1326 0 7
13.5495 14.4284 -2.6477 0.1326 0 7
13.3159 14.6444 -2.6477 0.1326 0 7
13.0788 14.8565 -2.6477 0.1326 0 7
12.8383 15.0648 -2.6477 0.1326 0 7
12.5945 15.2692 -2.6477 0.1326 0 7
12.3474 15.4697 -2.6477 0.1326 0 7
12.0972 15.6662 -2.6477 0.1326 0 7
11.8438 15.8586 -2.6477 0.1326 0 7
11.5874 16.0469 -2.6477 0.1326 0 7
11.3279 16.2311 -2.6477 0.1326 0 7
11.0656 16.4111 -2.6477 0.1326 0 7
10.8004 16.5868 -2.6477 0.1326 0 7
10.5324 16.7582 -2.6477 0.1326 0 7
10.2616 16.9254 -2.6477 0.1326 0 7
9.9882 17.0881 -2.6477 0.1326 0 7
9.7123 17.2465 -2.6477 0.1326 0 7
9.4338 17.4003 -2.6477 0.1326 0 7
9.1529 17.5498 -2.6477 0.1326 0 7
8.8696 17.6946 -2.6477 0.1326 0 7
8.5841 17.8349 -2.6477 0.1326 0 7
8.2963 17.9706 -2.6477 0.1326 0 7
8.0064 18.1016 -2.6477 0.1326 0 7
7.7144 18.2279 -2.6477 0.1326 0 7
7.4204 18.3496 -2.6477 0.1326 0 7
7.1246 18.4665 -2.6477 0.1326 0 6
6.8267 18.5786 -2.6477 0.1326 0 7
6.5272 18.6860 -2.6477 0.1326 0 7
6.2261 18.7885 -2.6477 0.1326 0 7
5.9233 18.8861 -2.6477 0.1326 0 7
5.6105 18.9503 -2.6437 0.9579 0 8
5.2811 18.9516 -2.6317 0.9622 0 8
4.9545 18.9528 -2.6204 0.9664 0 8
4.6306 18.9538 -2.6100 0.9703 0 8
4.3092 18.9548 -2.6002 0.9739 0 8
3.9901 18.9555 -2.5912 0.9773 0 8
3.6731 18.9562 -2.5829 0.9804 0 8
3.3580 18.9567 -2.5753 0.9833 0 8
3.0446 18.9572 -2.5683 0.9860 0 8
2.7328 18.9574 -2.5621 0.9884 0 8
2.4225 18.9576 -2.5565 0.9905 0 8
2.1134 18.9577 -2.5516 0.9924 0 8
1.8054 18.9576 -2.5474 0.9941 0 8
1.4984 18.9574 -2.5438 0.9955 0 8
1.1920 18.9571 -2.5408 0.9966 0 8
0.8864 18.9567 -2.5385 0.9975 0 8
0.5812 18.9561 -2.5369 0.9982 0 8
0.2763 18.9555 -2.5359 0.9986 0 8
-0.0284 18.9566 -2.5358 0.9970 0 8
-0.3331 18.9557 -2.5360 0.9987 0 8
-0.6380 18.9540 -2.5368 0.9983 0 8
-0.9431 18.9521 -2.5383 0.9978 0 8
-1.2487 18.9504 -2.5404 0.9968 0 8
-1.5548 18.9490 -2.5433 0.9957 0 8
-1.8618 18.9475 -2.5468 0.9943 0 8
-2.1696 18.9459 -2.5509 0.9927 0 8
-2.4785 18.9441 -2.5557 0.9909 0 8
-2.7886 18.9423 -2.5612 0.9887 0 8
15.8188 7.5847 -2.4953 0.1408 0 8
15.6948 7.8380 -2.4953 0.1408 0 8
15.5668 8.0892 -2.4953 0.1408 0 8
15.4348 8.3384 -2.4953 0.1408 0 8
16.2331 9.1098 -2.6477 0.1408 0 7
16.0846 9.3695 -2.6477 0.1408 0 7
15.9319 9.6269 -2.6477 0.1408 0 7
15.7751 9.8817 -2.6477 0.1408 0 7
15.6143 10.1340 -2.6477 0.1408 0 7
15.4494 10.3837 -2.6477 0.1408 0 7
15.2805 10.6306 -2.6477 0.1408 0 7
15.1076 10.8749 -2.6477 0.1408 0 7
14.9309 11.1163 -2.6477 0.1408 0 7
14.7503 11.3549 -2.6477 0.1408 0 7
14.5658 11.5905 -2.6477 0.1408 0 7
14.3777 11.8231 -2.6477 0.1408 0 7
14.1858 12.0527 -2.6477 0.1408 0 7
13.9902 12.2791 -2.6477 0.1408 0 7
13.7910 12.5024 -2.6477 0.1408 0 7
13.5883 12.7225 -2.6477 0.1408 0 7
13.3820 12.9393 -2.6477 0.1408 0 7
13.1723 13.1527 -2.6477 0.1408 0 7
12.9592 13.3627 -2.6477 0.1408 0 7
12.7427 13.5693 -2.6477 0.1408 0 7
12.5230 13.7723 -2.6477 0.1408 0 7
12.3000 13.9719 -2.6477 0.1408 0 7
12.0738 14.1678 -2.6477 0.1408 0 7
11.8445 14.3600 -2.6477 0.1408 0 7
11.6122 14.5485 -2.6477 0.1408 0 7
11.3768 14.7333 -2.6477 0.1408 0 7
11.1385 14.9143 -2.6477 0.1408 0 7
10.8974 15.0914 -2.6477 0.1408 0 7
10.6534 15.2646 -2.6477 0.1408 0 7
10.4067 15.4339 -2.6477 0.1408 0 7
10.1573 15.5991 -2.6477 0.1408 0 7
9.9052 15.7604 -2.6477 0.1408 0 7
9.6506 15.9176 -2.6477 0.1408 0 7
9.3935 16.0706 -2.6477 0.1408 0 7
9.1340 16.2195 -2.6477 0.1408 0 7
8.8721 16.3643 -2.6477 0.1408 0 7
8.6079 16.5048 -2.6477 0.1408 0 7
8.3415 16.6410 -2.6477 0.1408 0 7
8.0729 16.7729 -2.6477 0.1408 0 7
7.8023 16.9005 -2.6477 0.1408 0 7
7.5296 17.0237 -2.6477 0.1408 0 7
7.2550 17.1426 -2.6477 0.1408 0 7
6.9785 17.2570 -2.6477 0.1408 0 7
6.7003 17.3669 -2.6477 0.1408 0 7
6.4202 17.4724 -2.6477 0.1408 0 7
6.1386 17.5733 -2.6477 0.1408 0 7
5.8553 17.6697 -2.6477 0.1408 0 7
5.5705 17.7615 -2.6477 0.1408 0 7
5.2843 17.8488 -2.6477 0.1408 0 7
4.9968 17.9314 -2.6477 0.1408 0 7
4.7079 18.0094 -2.6477 0.1408 0 7
4.4178 18.0827 -2.6477 0.1408 0 7
4.1266 18.1514 -2.6477 0.1408 0 7
3.8343 18.2154 -2.6477 0.1408 0 7
3.5410 18.2747 -2.6477 0.1408 0 7
3.2468 18.3292 -2.6477 0.1408 0 7
2.9518 18.3791 -2.6477 0.1408 0 7
2.6560 18.4241 -2.6477 0.1408 0 6
2.3595 18.4644 -2.6477 0.1408 0 6
2.0624 18.5000 -2.6477 0.1408 0 6
1.7648 18.5307 -2.6477 0.1408 0 7
1.4667 18.5567 -2.6477 0.1408 0 7
1.1682 18.5779 -2.6477 0.1408 0 7
0.8694 18.5943 -2.6477 0.1408 0 7
0.5704 18.6058 -2.6477 0.1408 0 7
0.2712 18.6126 -2.6477 0.1408 0 7
-0.0279 18.6146 -2.6477 0.1408 0 7
-0.3271 18.6117 -2.6477 0.1408 0 7
-0.6262 18.6040 -2.6477 0.1408 0 7
-0.9252 18.5916 -2.6477 0.1408 0 7
-1.2239 18.5743 -2.6477 0.1408 0 7
-1.5223 18.5522 -2.6477 0.1408 0 7
-1.8203 18.5254 -2.6477 0.1408 0 7
-2.1178 18.4937 -2.6477 0.1408 0 7
-2.4148 18.4573 -2.6477 0.1408 0 6
-2.7112 18.4161 -2.6477 0.1408 0 6
14.9278 7.1575 -2.4953 0.1490 0 8
14.8108 7.3965 -2.4953 0.1490 0 8
14.6900 7.6336 -2.4953 0.1490 0 8
14.5654 7.8687 -2.4953 0.1490 0 8
14.4371 8.1019 -2.4953 0.1490 0 8
14.3050 8.3329 -2.4953 0.1490 0 8
15.0346 9.0846 -2.6477 0.1490 0 7
14.8866 9.3251 -2.6477 0.1490 0 7
14.7348 9.5632 -2.6477 0.1490 0 7
14.5792 9.7988 -2.6477 0.1490 0 7
14.4198 10.0319 -2.6477 0.1490 0 7
14.2567 10.2624 -2.6477 0.1490 0 7
14.0899 10.4902 -2.6477 0.1490 0 7
13.9195 10.7153 -2.6477 0.1490 0 7
13.7454 10.9377 -2.6477 0.1490 0 7
13.5679 11.1572 -2.6477 0.1490 0 7
13.3868 11.3738 -2.6477 0.1490 0 7
13.2022 11.5875 -2.6477 0.1490 0 7
13.0142 11.7983 -2.6477 0.1490 0 7
12.8229 12.0059 -2.6477 0.1490 0 7
12.6283 12.2105 -2.6477 0.1490 0 7
12.4304 12.4119 -2.6477 0.1490 0 7
12.2293 12.6101 -2.6477 0.1490 0 7
12.0250 12.8050 -2.6477 0.1490 0 7
11.8176 12.9966 -2.6477 0.1490 0 7
11.6072 13.1849 -2.6477 0.1490 0 7
11.3938 13.3698 -2.6477 0.1490 0 7
11.1774 13.5512 -2.6477 0.1490 0 7
10.9581 13.7291 -2.6477 0.1490 0 7
10.7360 13.9035 -2.6477 0.1490 0 7
10.5112 14.0742 -2.6477 0.1490 0 7
10.2836 14.2414 -2.6477 0.1490 0 7
10.0534 14.4048 -2.6477 0.1490 0 7
9.8205 14.5646 -2.6477 0.1490 0 7
9.5852 14.7205 -2.6477 0.1490 0 7
9.3473 14.8727 -2.6477 0.1490 0 7
9.1070 15.0210 -2.6477 0.1490 0 7
8.8644 15.1655 -2.6477 0.1490 0 7
8.6195 15.3060 -2.6477 0.1490 0 7
8.3724 15.4426 -2.6477 0.1490 0 7
8.1231 15.5751 -2.6477 0.1490 0 7
7.8717 15.7037 -2.6477 0.1490 0 7
7.6182 15.8282 -2.6477 0.1490 0 7
7.3628 15.9486 -2.6477 0.1490 0 7
7.1055 16.0649 -2.6477 0.1490 0 7
6.8464 16.1770 -2.6477 0.1490 0 7
6.5855 16.2850 -2.6477 0.1490 0 7
6.3229 16.3887 -2.6477 0.1490 0 7
6.0586 16.4883 -2.6477 0.1490 0 7
5.7928 16.5835 -2.6477 0.1490 0 7
5.5255 16.6745 -2.6477 0.1490 0 7
5.2568 16.7611 -2.6477 0.1490 0 7
4.9867 16.8435 -2.6477 0.1490 0 7
4.7153 16.9214 -2.6477 0.1490 0 7
4.4427 16.9950 -2.6477 0.1490 0 7
4.1690 17.0643 -2.6477 0.1490 0 7
3.8942 17.1291 -2.6477 0.1490 0 7
3.6183 17.1894 -2.6477 0.1490 0 7
3.3416 17.2454 -2.6477 0.1490 0 7
3.0639 17.2969 -2.6477 0.1490 0 7
2.7855 17.3439 -2.6477 0.1490 0 7
2.5064 17.3864 -2.6477 0.1490 0 7
2.2266 17.4245 -2.6477 0.1490 0 7
1.9462 17.4580 -2.6477 0.1490 0 7
1.6654 17.4870 -2.6477 0.1490 0 7
1.3841 17.5115 -2.6477 0.1490 0 7
1.1024 17.5315 -2.6477 0.1490 0 7
0.8205 17.5470 -2.6477 0.1490 0 7
0.5383 17.5579 -2.6477 0.1490 0 7
0.2560 17.5643 -2.6477 0.1490 0 7
-0.0263 17.5661 -2.6477 0.1490 0 7
-0.3087 17.5634 -2.6477 0.1490 0 7
-0.5909 17.5562 -2.6477 0.1490 0 7
-0.8731 17.5444 -2.6477 0.1490 0 7
-1.1549 17.5281 -2.6477 0.1490 0 7
-1.4365 17.5073 -2.6477 0.1490 0 7
-1.7178 17.4820 -2.6477 0.1490 0 7
-1.9985 17.4521 -2.6477 0.1490 0 7
-2.2788 17.4177 -2.6477 0.1490 0 7
-2.5585 17.3788 -2.6477 0.1490 0 7
14.1300 6.7749 -2.4953 0.1573 0 8
14.0192 7.0012 -2.4953 0.1573 0 8
13.9049 7.2256 -2.4953 0.1573 0 8
13.7870 7.4482 -2.4953 0.1573 0 8
13.6655 7.6688 -2.4953 0.1573 0 8
13.5404 7.8875 -2.4953 0.1573 0 8
13.4119 8.1041 -2.4953 0.1573 0 8
13.2799 8.3187 -2.4953 0.1573 0 8
13.9473 9.0521 -2.6477 0.1573 0 7
13.8000 9.2751 -2.6477 0.1573 0 7
13.6491 9.4957 -2.6477 0.1573 0 7
13.4947 9.7139 -2.6477 0.1573 0 7
13.3368 9.9295 -2.6477 0.1573 0 7
13.1755 10.1426 -2.6477 0.1573 0 7
13.0108 10.3531 -2.6477 0.1573 0 7
12.8427 10.5609 -2.6477 0.1573 0 7
12.6713 10.7659 -2.6477 0.1573 0 7
12.4966 10.9682 -2.6477 0.1573 0 7
12.3187 11.1677 -2.6477 0.1573 0 7
12.1376 11.3642 -2.6477 0.1573 0 7
11.9534 11.5579 -2.6477 0.1573 0 7
11.7660 11.7485 -2.6477 0.1573 0 7
11.5757 11.9361 -2.6477 0.1573 0 7
11.3823 12.1206 -2.6477 0.1573 0 7
11.1860 12.3020 -2.6477 0.1573 0 7
10.9868 12.4802 -2.6477 0.1573 0 7
10.7848 12.6552 -2.6477 0.1573 0 7
10.5800 12.8269 -2.6477 0.1573 0 7
10.3725 12.9953 -2.6477 0.1573 0 7
10.1622 13.1604 -2.6477 0.1573 0 7
9.9494 13.3220 -2.6477 0.1573 0 7
9.7340 13.4802 -2.6477 0.1573 0 7
9.5160 13.6349 -2.6477 0.1573 0 7
9.2957 13.7861 -2.6477 0.1573 0 7
9.0729 13.9338 -2.6477 0.1573 0 7
8.8477 14.0778 -2.6477 0.1573 0 7
8.6203 14.2182 -2.6477 0.1573 0 7
8.3906 14.3549 -2.6477 0.1573 0 7
8.1588 14.4879 -2.6477 0.1573 0 7
7.9249 14.6172 -2.6477 0.1573 0 7
7.6889 14.7427 -2.6477 0.1573 0 7
7.4510 14.8644 -2.6477 0.1573 0 7
7.2111 14.9822 -2.6477 0.1573 0 6
6.9693 15.0962 -2.6477 0.1573 0 7
6.7258 15.2063 -2.6477 0.1573 0 7
6.4805 15.3124 -2.6477 0.1573 0 7
6.2335 15.4146 -2.6477 0.1573 0 7
5.9849 15.5128 -2.6477 0.1573 0 7
5.7348 15.6070 -2.6477 0.1573 0 7
5.4832 15.6972 -2.6477 0.1573 0 7
5.2302 15.7833 -2.6477 0.1573 0 7
4.9758 15.8653 -2.6477 0.1573 0 7
4.7202 15.9432 -2.6477 0.1573 0 7
4.4633 16.0170 -2.6477 0.1573 0 7
4.2053 16.0867 -2.6477 0.1573 0 7
3.9462 16.1522 -2.6477 0.1573 0 7
3.6860 16.2136 -2.6477 0.1573 0 7
3.4249 16.2707 -2.6477 0.1573 0 7
3.1630 16.3237 -2.6477 0.1573 0 7
2.9002 16.3724 -2.6477 0.1573 0 7
2.6366 16.4169 -2.6477 0.1573 0 7
2.3724 16.4572 -2.6477 0.1573 0 7
2.1076 16.4932 -2.6477 0.1573 0 7
1.8422 16.5249 -2.6477 0.1573 0 7
1.5763 16.5524 -2.6477 0.1573 0 7
1.3101 16.5756 -2.6477 0.1573 0 7
1.0435 16.5945 -2.6477 0.1573 0 7
0.7766 16.6091 -2.6477 0.1573 0 7
0.5095 16.6195 -2.6477 0.1573 0 7
0.2423 16.6255 -2.6477 0.1573 0 7
-0.0249 16.6273 -2.6477 0.1573 0 7
-0.2922 16.6247 -2.6477 0.1573 0 7
-0.5594 16.6179 -2.6477 0.1573 0 7
-0.8264 16.6067 -2.6477 0.1573 0 7
-1.0932 16.5913 -2.6477 0.1573 0 7
-1.3598 16.5716 -2.6477 0.1573 0 7
-1.6260 16.5476 -2.6477 0.1573 0 7
-1.8917 16.5193 -2.6477 0.1573 0 7
-2.1570 16.4868 -2.6477 0.1573 0 7
-2.4217 16.4500 -2.6477 0.1573 0 7
13.4113 6.4303 -2.4953 0.1655 0 8
13.3062 6.6451 -2.4953 0.1655 0 8
13.1976 6.8581 -2.4953 0.1655 0 8
13.0857 7.0693 -2.4953 0.1655 0 8
12.9704 7.2788 -2.4953 0.1655 0 8
12.8517 7.4863 -2.4953 0.1655 0 8
12.7297 7.6919 -2.4953 0.1655 0 8
12.6044 7.8955 -2.4953 0.1655 0 8
12.4759 8.0971 -2.4953 0.1655 0 8
12.3441 8.2966 -2.4953 0.1655 0 8
12.9549 9.0127 -2.6477 0.1655 0 7
12.8083 9.2198 -2.6477 0.1655 0 7
12.6585 9.4245 -2.6477 0.1655 0 7
12.5054 9.6267 -2.6477 0.1655 0 7
12.3490 9.8265 -2.6477 0.1655 0 7
12.1895 10.0237 -2.6477 0.1655 0 7
12.0268 10.2183 -2.6477 0.1655 0 7
11.8610 10.4103 -2.6477 0.1655 0 7
11.6921 10.5997 -2.6477 0.1655 0 7
11.5202 10.7862 -2.6477 0.1655 0 7
11.3454 10.9700 -2.6477 0.1655 0 7
11.1676 11.1509 -2.6477 0.1655 0 7
10.9869 11.3290 -2.6477 0.1655 0 7
10.8034 11.5041 -2.6477 0.1655 0 6
10.6171 11.6763 -2.6477 0.1655 0 7
10.4280 11.8454 -2.6477 0.1655 0 7
10.2363 12.0115 -2.6477 0.1655 0 7
10.0419 12.1745 -2.6477 0.1655 0 7
9.8449 12.3344 -2.6477 0.1655 0 7
9.6454 12.4910 -2.6477 0.1655 0 7
9.4433 12.6444 -2.6477 0.1655 0 7
9.2389 12.7946 -2.6477 0.1655 0 7
9.0320 12.9414 -2.6477 0.1655 0 7
8.8228 13.0849 -2.6477 0.1655 0 7
8.6114 13.2250 -2.6477 0.1655 0 7
8.3977 13.3618 -2.6477 0.1655 0 7
8.1818 13.4950 -2.6477 0.1655 0 7
7.9639 13.6248 -2.6477 0.1655 0 7
7.7438 13.7510 -2.6477 0.1655 0 7
7.5218 13.8737 -2.6477 0.1655 0 7
7.2978 13.9928 -2.6477 0.1655 0 7
7.0720 14.1083 -2.6477 0.1655 0 7
6.8443 14.2202 -2.6477 0.1655 0 7
6.6148 14.3284 -2.6477 0.1655 0 7
6.3837 14.4328 -2.6477 0.1655 0 7
6.1509 14.5336 -2.6477 0.1655 0 7
5.9165 14.6306 -2.6477 0.1655 0 7
5.6805 14.7238 -2.6477 0.1655 0 7
5.4431 14.8132 -2.6477 0.1655 0 7
5.2044 14.8988 -2.6477 0.1655 0 7
4.9642 14.9805 -2.6477 0.1655 0 7
4.7227 15.0583 -2.6477 0.1655 0 7
4.4801 15.1323 -2.6477 0.1655 0 7
4.2363 15.2024 -2.6477 0.1655 0 7
3.9914 15.2685 -2.6477 0.1655 0 7
3.7454 15.3307 -2.6477 0.1655 0 7
3.4985 15.3889 -2.6477 0.1655 0 7
3.2507 15.4431 -2.6477 0.1655 0 7
3.0021 15.4934 -2.6477 0.1655 0 7
2.7527 15.5397 -2.6477 0.1655 0 7
2.5025 15.5819 -2.6477 0.1655 0 7
2.2517 15.6201 -2.6477 0.1655 0 7
2.0004 15.6543 -2.6477 0.1655 0 7
1.7485 15.6844 -2.6477 0.1655 0 7
1.4962 15.7105 -2.6477 0.1655 0 7
1.2435 15.7325 -2.6477 0.1655 0 7
0.9904 15.7505 -2.6477 0.1655 0 7
0.7371 15.7644 -2.6477 0.1655 0 7
0.4836 15.7742 -2.6477 0.1655 0 7
0.2300 15.7799 -2.6477 0.1655 0 7
-0.0237 15.7816 -2.6477 0.1655 0 7
-0.2773 15.7791 -2.6477 0.1655 0 7
-0.5309 15.7726 -2.6477 0.1655 0 7
-0.7844 15.7621 -2.6477 0.1655 0 7
-1.0376 15.7474 -2.6477 0.1655 0 7
-1.2906 15.7287 -2.6477 0.1655 0 7
-1.5433 15.7059 -2.6477 0.1655 0 7
-1.7955 15.6791 -2.6477 0.1655 0 7
-2.0473 15.6482 -2.6477 0.1655 0 7
-2.2985 15.6133 -2.6477 0.1655 0 7
12.7604 6.1183 -2.4953 0.1736 0 8
12.6604 6.3226 -2.4953 0.1736 0 8
12.5572 6.5253 -2.4953 0.1736 0 8
12.4507 6.7263 -2.4953 0.1736 0 8
12.3409 6.9255 -2.4953 0.1736 0 8
12.2280 7.1230 -2.4953 0.1736 0 8
12.1120 7.3186 -2.4953 0.1736 0 8
11.9927 7.5124 -2.4953 0.1736 0 8
11.8704 7.7042 -2.4953 0.1736 0 8
11.7451 7.8940 -2.4953 0.1736 0 8
11.6167 8.0817 -2.4953 0.1736 0 8
11.4853 8.2674 -2.4953 0.1736 0 8
11.3509 8.4510 -2.4953 0.1736 0 8
11.8985 9.1595 -2.6477 0.1736 0 7
11.7497 9.3496 -2.6477 0.1736 0 7
11.5979 9.5373 -2.6477 0.1736 0 7
11.4431 9.7224 -2.6477 0.1736 0 7
11.2854 9.9051 -2.6477 0.1736 0 7
11.1247 10.0853 -2.6477 0.1736 0 7
10.9612 10.2628 -2.6477 0.1736 0 7
10.7948 10.4376 -2.6477 0.1736 0 7
10.6256 10.6098 -2.6477 0.1736 0 7
10.4537 10.7792 -2.6477 0.1736 0 7
10.2791 10.9458 -2.6477 0.1736 0 7
10.1018 11.1096 -2.6477 0.1736 0 7
9.9219 11.2706 -2.6477 0.1736 0 7
9.7395 11.4286 -2.6477 0.1736 0 6
9.5545 11.5837 -2.6477 0.1736 0 7
9.3671 11.7358 -2.6477 0.1736 0 7
9.1773 11.8848 -2.6477 0.1736 0 7
8.9851 12.0308 -2.6477 0.1736 0 7
8.7905 12.1737 -2.6477 0.1736 0 7
8.5937 12.3134 -2.6477 0.1736 0 7
8.3947 12.4499 -2.6477 0.1736 0 7
8.1935 12.5832 -2.6477 0.1736 0 7
7.9902 12.7133 -2.6477 0.1736 0 7
7.7848 12.8401 -2.6477 0.1736 0 7
7.5774 12.9636 -2.6477 0.1736 0 7
7.3680 13.0837 -2.6477 0.1736 0 7
7.1568 13.2004 -2.6477 0.1736 0 7
6.9437 13.3138 -2.6477 0.1736 0 7
6.7288 13.4237 -2.6477 0.1736 0 7
6.5121 13.5301 -2.6477 0.1736 0 7
6.2938 13.6330 -2.6477 0.1736 0 7
6.0739 13.7324 -2.6477 0.1736 0 7
5.8524 13.8283 -2.6477 0.1736 0 7
5.6293 13.9205 -2.6477 0.1736 0 7
5.4048 14.0092 -2.6477 0.1736 0 7
5.1790 14.0943 -2.6477 0.1736 0 7
4.9518 14.1757 -2.6477 0.1736 0 7
4.7233 14.2535 -2.6477 0.1736 0 7
4.4935 14.3276 -2.6477 0.1736 0 7
4.2627 14.3979 -2.6477 0.1736 0 7
4.0307 14.4646 -2.6477 0.1736 0 7
3.7977 14.5275 -2.6477 0.1736 0 7
3.5637 14.5867 -2.6477 0.1736 0 7
3.3288 14.6421 -2.6477 0.1736 0 7
3.0930 14.6937 -2.6477 0.1736 0 7
2.8564 14.7415 -2.6477 0.1736 0 7
2.6191 14.7855 -2.6477 0.1736 0 7
2.3811 14.8257 -2.6477 0.1736 0 7
2.1425 14.8621 -2.6477 0.1736 0 7
1.9033 14.8946 -2.6477 0.1736 0 7
1.6636 14.9232 -2.6477 0.1736 0 7
1.4236 14.9481 -2.6477 0.1736 0 7
1.1831 14.9690 -2.6477 0.1736 0 7
0.9423 14.9861 -2.6477 0.1736 0 7
0.7013 14.9993 -2.6477 0.1736 0 7
0.4602 15.0086 -2.6477 0.1736 0 7
0.2188 15.0141 -2.6477 0.1736 0 7
-0.0225 15.0157 -2.6477 0.1736 0 7
-0.2639 15.0134 -2.6477 0.1736 0 7
-0.5051 15.0072 -2.6477 0.1736 0 7
-0.7463 14.9971 -2.6477 0.1736 0 7
-0.9873 14.9832 -2.6477 0.1736 0 6
-1.2280 14.9654 -2.6477 0.1736 0 6
-1.4684 14.9437 -2.6477 0.1736 0 6
-1.7083 14.9182 -2.6477 0.1736 0 7
-1.9478 14.8888 -2.6477 0.1736 0 7
-2.1870 14.8556 -2.6477 0.1736 0 7
12.1682 5.8343 -2.4953 0.1818 0 8
12.0728 6.0291 -2.4953 0.1818 0 8
11.9744 6.2224 -2.4953 0.1818 0 8
11.8728 6.4141 -2.4953 0.1818 0 8
11.7682 6.6041 -2.4953 0.1818 0 8
11.6605 6.7924 -2.4953 0.1818 0 8
11.5498 6.9790 -2.4953 0.1818 0 8
11.4361 7.1637 -2.4953 0.1818 0 8
11.3195 7.3466 -2.4953 0.1818 0 8
11.2000 7.5276 -2.4953 0.1818 0 8
11.0775 7.7066 -2.4953 0.1818 0 8
10.9522 7.8837 -2.4953 0.1818 0 8
10.8241 8.0587 -2.4953 0.1818 0 8
10.6931 8.2317 -2.4953 0.1818 0 8
10.5595 8.4025 -2.4953 0.1818 0 8
11.0596 9.0946 -2.6477 0.1818 0 7
10.9120 9.2712 -2.6477 0.1818 0 7
10.7616 9.4454 -2.6477 0.1818 0 7
10.6084 9.6172 -2.6477 0.1818 0 7
10.4524 9.7864 -2.6477 0.1818 0 7
10.2938 9.9532 -2.6477 0.1818 0 7
10.1324 10.1173 -2.6477 0.1818 0 7
9.9685 10.2789 -2.6477 0.1818 0 7
9.8020 10.4378 -2.6477 0.1818 0 7
9.6330 10.5940 -2.6477 0.1818 0 7
9.4614 10.7475 -2.6477 0.1818 0 7
9.2875 10.8982 -2.6477 0.1818 0 7
9.1111 11.0460 -2.6477 0.1818 0 7
8.9324 11.1911 -2.6477 0.1818 0 7
8.7513 11.3332 -2.6477 0.1818 0 7
8.5680 11.4724 -2.6477 0.1818 0 6
8.3825 11.6086 -2.6477 0.1818 0 7
8.1948 11.7419 -2.6477 0.1818 0 7
8.0050 11.8721 -2.6477 0.1818 0 7
7.8132 11.9992 -2.6477 0.1818 0 7
7.6193 12.1232 -2.6477 0.1818 0 7
7.4235 12.2442 -2.6477 0.1818 0 7
7.2257 12.3619 -2.6477 0.1818 0 7
7.0261 12.4764 -2.6477 0.1818 0 7
6.8246 12.5878 -2.6477 0.1818 0 7
6.6214 12.6958 -2.6477 0.1818 0 7
6.4165 12.8006 -2.6477 0.1818 0 7
6.2099 12.9021 -2.6477 0.1818 0 7
6.0017 13.0003 -2.6477 0.1818 0 7
5.7920 13.0950 -2.6477 0.1818 0 7
5.5807 13.1865 -2.6477 0.1818 0 7
5.3681 13.2744 -2.6477 0.1818 0 7
5.1540 13.3590 -2.6477 0.1818 0 7
4.9386 13.4401 -2.6477 0.1818 0 7
4.7219 13.5178 -2.6477 0.1818 0 7
4.5040 13.5919 -2.6477 0.1818 0 7
4.2850 13.6626 -2.6477 0.1818 0 7
