ply
format ascii 1.0
element vertex 1325
property float32 x
property float32 y
property float32 z
property float32 CosAngle
property uint32 ObjIdx
property uint32 ObjTag
end_header
-1.0001 -103.8506 -2.5900 0.0212 0 8
0.6667 -103.8582 -2.5901 0.0212 0 8
2.3332 -103.8298 -2.5900 0.0212 0 8
3.9987 -103.7698 -2.5898 0.0212 0 8
5.6629 -103.6811 -2.5895 0.0212 0 8
7.3247 -103.5585 -2.5890 0.0212 0 8
8.9836 -103.4042 -2.5884 0.0212 0 8
10.6391 -103.2192 -2.5878 0.0212 0 8
12.2903 -103.0028 -2.5869 0.0212 0 8
13.9366 -102.7553 -2.5860 0.0213 0 8
15.5776 -102.4774 -2.5850 0.0213 0 8
17.2125 -102.1686 -2.5838 0.0213 0 8
18.8405 -101.8291 -2.5826 0.0213 0 8
20.4614 -101.4596 -2.5812 0.0213 0 8
22.0741 -101.0595 -2.5797 0.0213 0 8
23.6783 -100.6296 -2.5781 0.0213 0 8
25.2734 -100.1704 -2.5764 0.0213 0 8
26.8587 -99.6814 -2.5746 0.0214 0 8
28.4335 -99.1629 -2.5726 0.0214 0 8
29.9975 -98.6161 -2.5706 0.0214 0 8
31.5499 -98.0403 -2.5684 0.0214 0 8
33.0901 -97.4358 -2.5662 0.0214 0 8
34.6178 -96.8036 -2.5638 0.0214 0 8
36.1323 -96.1438 -2.5614 0.0215 0 8
37.6329 -95.4560 -2.5588 0.0215 0 8
39.1192 -94.7414 -2.5562 0.0215 0 8
40.5909 -94.0003 -2.5534 0.0215 0 8
42.0473 -93.2328 -2.5506 0.0216 0 8
43.4877 -92.4389 -2.5476 0.0216 0 8
-57.7755 -54.7748 -2.6477 0.0332 0 7
-56.8891 -55.6949 -2.6477 0.0332 0 7
-55.9879 -56.6007 -2.6477 0.0332 0 7
-55.0724 -57.4919 -2.6477 0.0332 0 7
-54.1427 -58.3682 -2.6477 0.0332 0 7
-53.1991 -59.2296 -2.6477 0.0332 0 7
-52.2417 -60.0757 -2.6477 0.0332 0 7
-51.2709 -60.9063 -2.6477 0.0332 0 7
-50.2869 -61.7213 -2.6477 0.0332 0 7
-49.2899 -62.5204 -2.6477 0.0332 0 7
-48.2802 -63.3033 -2.6477 0.0332 0 7
-47.2581 -64.0699 -2.6477 0.0332 0 7
-46.2239 -64.8200 -2.6477 0.0332 0 7
-45.1778 -65.5535 -2.6477 0.0332 0 7
-44.1199 -66.2700 -2.6477 0.0332 0 7
-43.0508 -66.9695 -2.6477 0.0332 0 7
-41.9705 -67.6518 -2.6477 0.0332 0 7
-40.8794 -68.3166 -2.6477 0.0332 0 7
-39.7779 -68.9638 -2.6477 0.0332 0 7
-38.6660 -69.5933 -2.6477 0.0332 0 7
-37.5442 -70.2048 -2.6477 0.0332 0 7
-36.4127 -70.7983 -2.6477 0.0332 0 7
-35.2719 -71.3735 -2.6477 0.0332 0 7
-34.1219 -71.9304 -2.6477 0.0332 0 7
-32.9083 -72.3480 -2.6433 0.0486 0 8
-31.5944 -72.5255 -2.6309 0.9029 0 8
-30.2145 -72.5145 -2.6126 0.9092 0 8
-28.8533 -72.5035 -2.5951 0.9153 0 8
-27.5097 -72.4926 -2.5786 0.9212 0 8
-26.1828 -72.4817 -2.5629 0.9268 0 8
-24.8715 -72.4707 -2.5481 0.9322 0 8
-23.5750 -72.4598 -2.5341 0.9374 0 8
-22.2922 -72.4489 -2.5209 0.9423 0 8
-21.0225 -72.4380 -2.5084 0.9469 0 8
-19.7661 -72.4319 -2.4969 0.7032 0 8
-18.5889 -72.6916 -2.4953 0.0332 0 8
-17.4199 -72.9806 -2.4953 0.0332 0 8
-16.2465 -73.2507 -2.4953 0.0332 0 8
-15.0689 -73.5020 -2.4953 0.0332 0 8
-13.8874 -73.7344 -2.4953 0.0332 0 8
-12.7024 -73.9478 -2.4953 0.0332 0 8
-11.5140 -74.1421 -2.4953 0.0332 0 8
-10.3227 -74.3173 -2.4953 0.0332 0 8
-9.1287 -74.4734 -2.4953 0.0332 0 8
-7.9324 -74.6103 -2.4953 0.0332 0 8
-6.7341 -74.7280 -2.4953 0.0332 0 8
-5.5340 -74.8264 -2.4953 0.0332 0 8
-4.3325 -74.9056 -2.4953 0.0332 0 8
-3.1299 -74.9655 -2.4953 0.0332 0 8
-1.9264 -75.0060 -2.4953 0.0332 0 8
-0.7225 -75.0273 -2.4953 0.0332 0 8
0.4816 -75.0292 -2.4953 0.0332 0 8
1.6856 -75.0118 -2.4953 0.0332 0 8
2.8892 -74.9752 -2.4953 0.0332 0 8
4.0920 -74.9191 -2.4953 0.0332 0 8
5.2937 -74.8438 -2.4953 0.0332 0 8
6.4941 -74.7492 -2.4953 0.0332 0 8
7.6929 -74.6354 -2.4953 0.0332 0 8
8.8896 -74.5023 -2.4953 0.0332 0 8
10.0841 -74.3501 -2.4953 0.0332 0 8
11.2759 -74.1786 -2.4953 0.0332 0 8
12.4649 -73.9881 -2.4953 0.0332 0 8
13.6506 -73.7786 -2.4953 0.0332 0 8
14.8328 -73.5500 -2.4953 0.0332 0 8
16.0113 -73.3025 -2.4953 0.0332 0 8
17.1855 -73.0361 -2.4953 0.0332 0 8
18.3554 -72.7509 -2.4953 0.0332 0 8
19.5205 -72.4470 -2.4953 0.0332 0 8
20.6844 -72.1376 -2.4957 0.7029 0 8
21.9409 -72.1301 -2.5073 0.9461 0 8
23.2113 -72.1283 -2.5199 0.9414 0 8
24.4948 -72.1263 -2.5332 0.9365 0 8
25.7923 -72.1243 -2.5474 0.9313 0 8
27.1045 -72.1220 -2.5623 0.9258 0 8
28.4326 -72.1196 -2.5781 0.9202 0 8
29.7776 -72.1171 -2.5948 0.9143 0 8
31.1402 -72.1144 -2.6123 0.9081 0 8
32.5218 -72.1115 -2.6308 0.9017 0 8
33.8346 -71.9200 -2.6433 0.0486 0 8
-46.2109 -43.8108 -2.6477 0.0415 0 7
-45.5019 -44.5467 -2.6477 0.0415 0 7
-44.7811 -45.2712 -2.6477 0.0415 0 7
-44.0488 -45.9840 -2.6477 0.0415 0 7
-43.3053 -46.6849 -2.6477 0.0415 0 7
-42.5505 -47.3739 -2.6477 0.0415 0 6
-41.7847 -48.0507 -2.6477 0.0415 0 6
-41.0082 -48.7150 -2.6477 0.0415 0 7
-40.2212 -49.3668 -2.6477 0.0415 0 7
-37.1546 -47.1276 -2.4953 0.0415 0 8
-36.3934 -47.7178 -2.4953 0.0415 0 8
-35.6230 -48.2957 -2.4953 0.0415 0 8
-34.8434 -48.8611 -2.4953 0.0415 0 8
-34.0549 -49.4140 -2.4953 0.0415 0 8
-33.2574 -49.9541 -2.4953 0.0415 0 8
-32.4515 -50.4814 -2.4953 0.0415 0 8
-31.6372 -50.9957 -2.4953 0.0415 0 8
-30.8148 -51.4967 -2.4953 0.0415 0 8
-29.9844 -51.9846 -2.4953 0.0415 0 8
-29.1463 -52.4592 -2.4953 0.0415 0 8
-28.3007 -52.9202 -2.4953 0.0415 0 8
-27.4478 -53.3675 -2.4953 0.0415 0 8
-28.2117 -57.0870 -2.6477 0.0415 0 7
-27.2919 -57.5324 -2.6477 0.0415 0 7
-26.3651 -57.9630 -2.6477 0.0415 0 7
-25.4316 -58.3786 -2.6477 0.0415 0 7
-24.4914 -58.7792 -2.6477 0.0415 0 7
-23.5450 -59.1647 -2.6477 0.0415 0 7
-22.5925 -59.5349 -2.6477 0.0415 0 6
-21.6342 -59.8898 -2.6477 0.0415 0 7
-20.6704 -60.2293 -2.6477 0.0415 0 7
-19.7011 -60.5532 -2.6477 0.0415 0 7
-18.7269 -60.8616 -2.6477 0.0415 0 7
-17.7478 -61.1543 -2.6477 0.0415 0 7
-16.7641 -61.4312 -2.6477 0.0415 0 7
-15.7761 -61.6923 -2.6477 0.0415 0 7
-14.7840 -61.9376 -2.6477 0.0415 0 7
-13.7882 -62.1668 -2.6477 0.0415 0 7
-12.7888 -62.3801 -2.6477 0.0415 0 7
-11.7860 -62.5773 -2.6477 0.0415 0 7
-10.7803 -62.7584 -2.6477 0.0415 0 6
-9.7718 -62.9233 -2.6477 0.0415 0 6
-8.7607 -63.0720 -2.6477 0.0415 0 7
-7.7474 -63.2045 -2.6477 0.0415 0 7
-6.7322 -63.3207 -2.6477 0.0415 0 7
-5.7151 -63.4206 -2.6477 0.0415 0 7
-4.6966 -63.5041 -2.6477 0.0415 0 7
-3.6769 -63.5713 -2.6477 0.0415 0 7
-2.6563 -63.6221 -2.6477 0.0415 0 7
-1.6349 -63.6566 -2.6477 0.0415 0 7
-0.6132 -63.6746 -2.6477 0.0415 0 7
0.4087 -63.6762 -2.6477 0.0415 0 7
1.4305 -63.6615 -2.6477 0.0415 0 7
2.4520 -63.6303 -2.6477 0.0415 0 7
3.4728 -63.5828 -2.6477 0.0415 0 7
4.4927 -63.5189 -2.6477 0.0415 0 7
5.5115 -63.4386 -2.6477 0.0415 0 7
6.5288 -63.3420 -2.6477 0.0415 0 7
7.5445 -63.2290 -2.6477 0.0415 0 7
8.5582 -63.0998 -2.6477 0.0415 0 7
9.5697 -62.9544 -2.6477 0.0415 0 7
10.5788 -62.7927 -2.6477 0.0415 0 6
11.5848 -62.6148 -2.6477 0.0415 0 7
12.5884 -62.4208 -2.6477 0.0415 0 7
13.5885 -62.2108 -2.6477 0.0415 0 7
14.5851 -61.9847 -2.6477 0.0415 0 7
15.5779 -61.7427 -2.6477 0.0415 0 7
16.5668 -61.4847 -2.6477 0.0415 0 7
17.5513 -61.2110 -2.6477 0.0415 0 7
18.5314 -60.9214 -2.6477 0.0415 0 7
19.5066 -60.6162 -2.6477 0.0415 0 7
20.4769 -60.2953 -2.6477 0.0415 0 7
21.4418 -59.9590 -2.6477 0.0415 0 7
22.4013 -59.6072 -2.6477 0.0415 0 7
23.3549 -59.2400 -2.6477 0.0415 0 7
24.3026 -58.8576 -2.6477 0.0415 0 7
25.2440 -58.4600 -2.6477 0.0415 0 7
26.1789 -58.0473 -2.6477 0.0415 0 7
27.1071 -57.6198 -2.6477 0.0415 0 7
-36.2832 -34.3988 -2.4953 0.0498 0 8
-35.7265 -34.9766 -2.4953 0.0498 0 8
-35.1606 -35.5454 -2.4953 0.0498 0 8
-34.5857 -36.1051 -2.4953 0.0498 0 8
-34.0018 -36.6555 -2.4953 0.0498 0 8
-33.4092 -37.1964 -2.4953 0.0498 0 8
-32.8080 -37.7278 -2.4953 0.0498 0 8
-32.1983 -38.2494 -2.4953 0.0498 0 8
-31.5803 -38.7612 -2.4953 0.0498 0 8
-30.9542 -39.2630 -2.4953 0.0498 0 8
-30.3202 -39.7547 -2.4953 0.0498 0 8
-29.6783 -40.2361 -2.4953 0.0498 0 8
-29.0288 -40.7072 -2.4953 0.0498 0 8
-28.3718 -41.1678 -2.4953 0.0498 0 8
-27.7075 -41.6178 -2.4953 0.0498 0 8
-27.0360 -42.0571 -2.4953 0.0498 0 8
-26.3576 -42.4855 -2.4953 0.0498 0 8
-25.6724 -42.9031 -2.4953 0.0498 0 8
-24.9806 -43.3095 -2.4953 0.0498 0 8
-24.2824 -43.7048 -2.4953 0.0498 0 8
-23.5779 -44.0889 -2.4953 0.0498 0 8
-22.8673 -44.4616 -2.4953 0.0498 0 8
-22.1509 -44.8228 -2.4953 0.0498 0 8
-21.4287 -45.1725 -2.4953 0.0498 0 22
-20.7010 -45.5106 -2.4953 0.0498 0 22
-19.9680 -45.8369 -2.4953 0.0498 0 22
-19.2299 -46.1515 -2.4953 0.0498 0 22
-18.4868 -46.4541 -2.4953 0.0498 0 22
-17.7389 -46.7448 -2.4953 0.0498 0 22
-16.9865 -47.0235 -2.4953 0.0498 0 22
-16.2297 -47.2900 -2.4953 0.0498 0 8
-15.4687 -47.5444 -2.4953 0.0498 0 8
-14.7037 -47.7865 -2.4953 0.0498 0 8
-13.9350 -48.0163 -2.4953 0.0498 0 8
-13.1626 -48.2337 -2.4953 0.0498 0 8
-12.3869 -48.4388 -2.4953 0.0498 0 8
-11.6079 -48.6313 -2.4953 0.0498 0 8
-10.8260 -48.8113 -2.4953 0.0498 0 8
-10.0413 -48.9788 -2.4953 0.0498 0 8
-9.2540 -49.1336 -2.4953 0.0498 0 8
-8.4643 -49.2758 -2.4953 0.0498 0 8
-7.6725 -49.4053 -2.4953 0.0498 0 8
-6.8786 -49.5220 -2.4953 0.0498 0 8
-6.0830 -49.6260 -2.4953 0.0498 0 8
-5.2859 -49.7173 -2.4953 0.0498 0 8
-4.4873 -49.7957 -2.4953 0.0498 0 8
-3.6876 -49.8613 -2.4953 0.0498 0 8
-2.8870 -49.9141 -2.4953 0.0498 0 8
-2.0856 -49.9540 -2.4953 0.0498 0 8
-1.2837 -49.9810 -2.4953 0.0498 0 8
-0.4815 -49.9952 -2.4953 0.0498 0 8
0.3209 -49.9964 -2.4953 0.0498 0 8
1.1232 -49.9849 -2.4953 0.0498 0 8
1.9252 -49.9604 -2.4953 0.0498 0 8
2.7267 -49.9231 -2.4953 0.0498 0 8
3.5275 -49.8729 -2.4953 0.0498 0 8
4.3274 -49.8098 -2.4953 0.0498 0 8
5.1262 -49.7340 -2.4953 0.0498 0 8
5.9237 -49.6453 -2.4953 0.0498 0 8
6.7196 -49.5439 -2.4953 0.0498 0 8
7.5138 -49.4297 -2.4953 0.0498 0 8
8.3061 -49.3027 -2.4953 0.0498 0 8
9.0962 -49.1631 -2.4953 0.0498 0 8
9.8840 -49.0108 -2.4953 0.0498 0 8
10.6693 -48.8458 -2.4953 0.0498 0 8
11.4517 -48.6683 -2.4953 0.0498 0 8
12.2313 -48.4783 -2.4953 0.0498 0 8
13.0077 -48.2757 -2.4953 0.0498 0 8
13.7807 -48.0608 -2.4953 0.0498 0 8
14.5502 -47.8334 -2.4953 0.0498 0 8
15.3159 -47.5938 -2.4953 0.0498 0 8
16.0777 -47.3419 -2.4953 0.0498 0 8
16.8354 -47.0778 -2.4953 0.0498 0 8
17.5887 -46.8015 -2.4953 0.0498 0 22
18.3375 -46.5133 -2.4953 0.0498 0 22
19.0816 -46.2130 -2.4953 0.0498 0 22
19.8208 -45.9008 -2.4953 0.0498 0 22
20.5548 -45.5768 -2.4953 0.0498 0 22
21.2836 -45.2411 -2.4953 0.0498 0 22
-31.0906 -29.4758 -2.4953 0.0581 0 8
-30.6136 -29.9710 -2.4953 0.0581 0 8
-30.1287 -30.4584 -2.4953 0.0581 0 8
-29.6360 -30.9380 -2.4953 0.0581 0 8
-29.1357 -31.4096 -2.4953 0.0581 0 8
-28.6279 -31.8731 -2.4953 0.0581 0 8
-28.1127 -32.3284 -2.4953 0.0581 0 8
-27.5903 -32.7754 -2.4953 0.0581 0 8
-27.0608 -33.2140 -2.4953 0.0581 0 8
-26.5243 -33.6439 -2.4953 0.0581 0 8
-25.9809 -34.0653 -2.4953 0.0581 0 8
-25.4309 -34.4778 -2.4953 0.0581 0 8
-24.8744 -34.8815 -2.4953 0.0581 0 8
-24.3114 -35.2762 -2.4953 0.0581 0 8
-23.7422 -35.6618 -2.4953 0.0581 0 8
-23.1668 -36.0382 -2.4953 0.0581 0 8
-22.5855 -36.4053 -2.4953 0.0581 0 8
-21.9984 -36.7631 -2.4953 0.0581 0 8
-21.4056 -37.1114 -2.4953 0.0581 0 8
-20.8073 -37.4501 -2.4953 0.0581 0 8
-20.2036 -37.7792 -2.4953 0.0581 0 8
-19.5947 -38.0986 -2.4953 0.0581 0 8
-18.9808 -38.4081 -2.4953 0.0581 0 8
-18.3620 -38.7078 -2.4953 0.0581 0 8
-17.7384 -38.9974 -2.4953 0.0581 0 8
-17.1103 -39.2771 -2.4953 0.0581 0 8
-16.4778 -39.5466 -2.4953 0.0581 0 8
-15.8411 -39.8059 -2.4953 0.0581 0 8
-15.2002 -40.0550 -2.4953 0.0581 0 8
-14.5555 -40.2938 -2.4953 0.0581 0 8
-13.9070 -40.5222 -2.4953 0.0581 0 8
-13.2549 -40.7402 -2.4953 0.0581 0 8
-12.5994 -40.9476 -2.4953 0.0581 0 8
-11.9407 -41.1445 -2.4953 0.0581 0 8
-11.2789 -41.3309 -2.4953 0.0581 0 8
-10.6141 -41.5067 -2.4953 0.0581 0 8
-9.9467 -41.6715 -2.4953 0.0581 0 8
-9.2767 -41.8258 -2.4953 0.0581 0 8
-8.6043 -41.9691 -2.4953 0.0581 0 8
-7.9296 -42.1019 -2.4953 0.0581 0 8
-7.2530 -42.2238 -2.4953 0.0581 0 8
-6.5744 -42.3347 -2.4953 0.0581 0 8
-5.8942 -42.4348 -2.4953 0.0581 0 8
-5.2125 -42.5239 -2.4953 0.0581 0 8
-4.5294 -42.6021 -2.4953 0.0581 0 8
-3.8451 -42.6693 -2.4953 0.0581 0 8
-3.1599 -42.7255 -2.4953 0.0581 0 8
-2.4738 -42.7707 -2.4953 0.0581 0 8
-1.7871 -42.8049 -2.4953 0.0581 0 8
-1.1000 -42.8281 -2.4953 0.0581 0 8
-0.4126 -42.8402 -2.4953 0.0581 0 8
0.2750 -42.8413 -2.4953 0.0581 0 8
0.9625 -42.8314 -2.4953 0.0581 0 8
1.6497 -42.8104 -2.4953 0.0581 0 8
2.3365 -42.7784 -2.4953 0.0581 0 8
3.0227 -42.7354 -2.4953 0.0581 0 8
3.7081 -42.6814 -2.4953 0.0581 0 8
4.3926 -42.6164 -2.4953 0.0581 0 8
5.0759 -42.5404 -2.4953 0.0581 0 8
5.7579 -42.4535 -2.4953 0.0581 0 8
6.4385 -42.3556 -2.4953 0.0581 0 8
7.1174 -42.2468 -2.4953 0.0581 0 8
7.7944 -42.1272 -2.4953 0.0581 0 8
8.4695 -41.9967 -2.4953 0.0581 0 8
9.1423 -41.8554 -2.4953 0.0581 0 8
9.8128 -41.7032 -2.4953 0.0581 0 8
10.4808 -41.5404 -2.4953 0.0581 0 8
11.1461 -41.3669 -2.4953 0.0581 0 8
11.8085 -41.1827 -2.4953 0.0581 0 8
12.4679 -40.9879 -2.4953 0.0581 0 8
13.1240 -40.7825 -2.4953 0.0581 0 8
13.7768 -40.5666 -2.4953 0.0581 0 8
14.4261 -40.3403 -2.4953 0.0581 0 8
15.0715 -40.1036 -2.4953 0.0581 0 8
15.7132 -39.8566 -2.4953 0.0581 0 8
16.3508 -39.5993 -2.4953 0.0581 0 8
16.9841 -39.3318 -2.4953 0.0581 0 8
17.6131 -39.0542 -2.4953 0.0581 0 8
18.2376 -38.7665 -2.4953 0.0581 0 8
-27.1948 -25.7824 -2.4953 0.0664 0 8
-26.7776 -26.2155 -2.4953 0.0664 0 8
-26.3535 -26.6419 -2.4953 0.0664 0 8
-25.9225 -27.0613 -2.4953 0.0664 0 8
-25.4849 -27.4738 -2.4953 0.0664 0 8
-25.0407 -27.8793 -2.4953 0.0664 0 8
-24.5901 -28.2776 -2.4953 0.0664 0 8
-24.1331 -28.6685 -2.4953 0.0664 0 8
-23.6700 -29.0521 -2.4953 0.0664 0 8
-23.2007 -29.4282 -2.4953 0.0664 0 8
-22.7254 -29.7968 -2.4953 0.0664 0 8
-22.2443 -30.1576 -2.4953 0.0664 0 8
-21.7575 -30.5107 -2.4953 0.0664 0 8
-21.2651 -30.8559 -2.4953 0.0664 0 8
-20.7672 -31.1932 -2.4953 0.0664 0 8
-20.2639 -31.5225 -2.4953 0.0664 0 8
-19.7555 -31.8436 -2.4953 0.0664 0 8
-19.2419 -32.1565 -2.4953 0.0664 0 8
-18.7234 -32.4612 -2.4953 0.0664 0 8
-18.2000 -32.7575 -2.4953 0.0664 0 8
-17.6720 -33.0453 -2.4953 0.0664 0 8
-17.1394 -33.3247 -2.4953 0.0664 0 8
-16.6024 -33.5954 -2.4953 0.0664 0 8
-16.0611 -33.8575 -2.4953 0.0664 0 8
-15.5157 -34.1109 -2.4953 0.0664 0 8
-14.9663 -34.3555 -2.4953 0.0664 0 8
-14.4131 -34.5913 -2.4953 0.0664 0 8
-13.8561 -34.8181 -2.4953 0.0664 0 8
-13.2955 -35.0362 -2.4953 0.0664 0 8
-12.7316 -35.2448 -2.4953 0.0664 0 8
-12.1644 -35.4446 -2.4953 0.0664 0 8
-11.5940 -35.6353 -2.4953 0.0664 0 8
-11.0207 -35.8167 -2.4953 0.0664 0 8
-10.4446 -35.9884 -2.4953 0.0664 0 8
-9.8656 -36.1520 -2.4953 0.0664 0 8
-9.2842 -36.3056 -2.4953 0.0664 0 8
-8.7003 -36.4499 -2.4953 0.0664 0 8
-8.1143 -36.5849 -2.4953 0.0664 0 8
-7.5261 -36.7104 -2.4953 0.0664 0 8
-6.9360 -36.8264 -2.4953 0.0664 0 8
-6.3441 -36.9330 -2.4953 0.0664 0 8
-5.7506 -37.0300 -2.4953 0.0664 0 8
-5.1556 -37.1176 -2.4953 0.0664 0 8
-4.5593 -37.1955 -2.4953 0.0664 0 8
-3.9618 -37.2639 -2.4953 0.0664 0 8
-3.3633 -37.3227 -2.4953 0.0664 0 8
-2.7639 -37.3718 -2.4953 0.0664 0 8
-2.1638 -37.4114 -2.4953 0.0664 0 8
-1.5632 -37.4413 -2.4953 0.0664 0 8
-0.9622 -37.4615 -2.4953 0.0664 0 8
-0.3609 -37.4722 -2.4953 0.0664 0 8
0.2405 -37.4731 -2.4953 0.0664 0 8
0.8419 -37.4644 -2.4953 0.0664 0 8
1.4430 -37.4461 -2.4953 0.0664 0 8
2.0437 -37.4181 -2.4953 0.0664 0 8
2.6439 -37.3805 -2.4953 0.0664 0 8
3.2435 -37.3333 -2.4953 0.0664 0 8
3.8422 -37.2764 -2.4953 0.0664 0 8
4.4399 -37.2098 -2.4953 0.0664 0 8
5.0365 -37.1339 -2.4953 0.0664 0 8
5.6317 -37.0483 -2.4953 0.0664 0 8
6.2255 -36.9532 -2.4953 0.0664 0 8
6.8178 -36.8485 -2.4953 0.0664 0 8
7.4082 -36.7343 -2.4953 0.0664 0 8
7.9968 -36.6107 -2.4953 0.0664 0 8
8.5833 -36.4777 -2.4953 0.0664 0 8
9.1675 -36.3352 -2.4953 0.0664 0 8
9.7495 -36.1834 -2.4953 0.0664 0 8
10.3289 -36.0223 -2.4953 0.0664 0 8
10.9056 -35.8519 -2.4953 0.0664 0 8
11.4795 -35.6723 -2.4953 0.0664 0 8
12.0505 -35.4835 -2.4953 0.0664 0 8
12.6184 -35.2855 -2.4953 0.0664 0 8
13.1830 -35.0785 -2.4953 0.0664 0 8
13.7443 -34.8624 -2.4953 0.0664 0 8
14.3020 -34.6374 -2.4953 0.0664 0 8
14.8560 -34.4034 -2.4953 0.0664 0 8
15.4061 -34.1606 -2.4953 0.0664 0 8
15.9524 -33.9089 -2.4953 0.0664 0 8
-24.1637 -22.9087 -2.4953 0.0747 0 8
-23.7930 -23.2936 -2.4953 0.0747 0 8
-23.4161 -23.6724 -2.4953 0.0747 0 8
-23.0332 -24.0451 -2.4953 0.0747 0 8
-22.6444 -24.4116 -2.4953 0.0747 0 8
-22.2497 -24.7719 -2.4953 0.0747 0 8
-21.8493 -25.1258 -2.4953 0.0747 0 8
-21.4433 -25.4732 -2.4953 0.0747 0 8
-21.0317 -25.8140 -2.4953 0.0747 0 8
-20.6148 -26.1482 -2.4953 0.0747 0 8
-20.1925 -26.4757 -2.4953 0.0747 0 8
-19.7650 -26.7963 -2.4953 0.0747 0 8
-19.3325 -27.1100 -2.4953 0.0747 0 8
-18.8949 -27.4168 -2.4953 0.0747 0 8
-18.4525 -27.7164 -2.4953 0.0747 0 8
-18.0053 -28.0090 -2.4953 0.0747 0 8
-17.5535 -28.2943 -2.4953 0.0747 0 8
-17.0972 -28.5724 -2.4953 0.0747 0 8
-16.6365 -28.8431 -2.4953 0.0747 0 8
-16.1715 -29.1064 -2.4953 0.0747 0 8
-15.7023 -29.3621 -2.4953 0.0747 0 8
-15.2291 -29.6103 -2.4953 0.0747 0 8
-14.7519 -29.8509 -2.4953 0.0747 0 8
-14.2710 -30.0838 -2.4953 0.0747 0 8
-13.7864 -30.3090 -2.4953 0.0747 0 8
-13.2982 -30.5263 -2.4953 0.0747 0 8
-12.8066 -30.7358 -2.4953 0.0747 0 8
-12.3117 -30.9373 -2.4953 0.0747 0 8
-11.8137 -31.1309 -2.4953 0.0747 0 8
-11.3126 -31.3165 -2.4953 0.0747 0 8
-10.8086 -31.4940 -2.4953 0.0747 0 8
-10.3018 -31.6632 -2.4953 0.0747 0 8
-9.7923 -31.8246 -2.4953 0.0747 0 8
-9.2803 -31.9777 -2.4953 0.0747 0 8
-8.7660 -32.1225 -2.4953 0.0747 0 8
-8.2493 -32.2590 -2.4953 0.0747 0 8
-7.7306 -32.3873 -2.4953 0.0747 0 8
-7.2099 -32.5071 -2.4953 0.0747 0 8
-6.6873 -32.6187 -2.4953 0.0747 0 8
-6.1629 -32.7218 -2.4953 0.0747 0 8
-5.6370 -32.8165 -2.4953 0.0747 0 8
-5.1097 -32.9027 -2.4953 0.0747 0 8
-4.5810 -32.9805 -2.4953 0.0747 0 8
-4.0511 -33.0497 -2.4953 0.0747 0 8
-3.5205 -33.1031 -2.4953 0.0747 0 8
-2.9884 -33.1627 -2.4953 0.0747 0 8
-2.4559 -33.2065 -2.4953 0.0747 0 8
-1.9227 -33.2415 -2.4953 0.0747 0 8
-1.3890 -33.2681 -2.4953 0.0747 0 8
-0.8549 -33.2861 -2.4953 0.0747 0 8
-0.3206 -33.2955 -2.4953 0.0747 0 8
0.2137 -33.2964 -2.4953 0.0747 0 8
0.7480 -33.2887 -2.4953 0.0747 0 8
1.2821 -33.2724 -2.4953 0.0747 0 8
1.8159 -33.2475 -2.4953 0.0747 0 8
2.3492 -33.2141 -2.4953 0.0747 0 8
2.8820 -33.1721 -2.4953 0.0747 0 8
3.4139 -33.1216 -2.4953 0.0747 0 8
3.9450 -33.0626 -2.4953 0.0747 0 8
4.4751 -32.9950 -2.4953 0.0747 0 8
5.0040 -32.9189 -2.4953 0.0747 0 8
5.5316 -32.8344 -2.4953 0.0747 0 8
6.0579 -32.7414 -2.4953 0.0747 0 8
6.5825 -32.6400 -2.4953 0.0747 0 8
7.1055 -32.5301 -2.4953 0.0747 0 8
7.6266 -32.4119 -2.4953 0.0747 0 8
8.1457 -32.2853 -2.4953 0.0747 0 8
8.6628 -32.1505 -2.4953 0.0747 0 8
9.1776 -32.0073 -2.4953 0.0747 0 8
9.6901 -31.8559 -2.4953 0.0747 0 8
10.2000 -31.6963 -2.4953 0.0747 0 8
10.7074 -31.5285 -2.4953 0.0747 0 8
11.2120 -31.3526 -2.4953 0.0747 0 8
11.7137 -31.1687 -2.4953 0.0747 0 8
12.2123 -30.9767 -2.4953 0.0747 0 8
12.7079 -30.7767 -2.4953 0.0747 0 8
13.2001 -30.5688 -2.4953 0.0747 0 8
13.6890 -30.3531 -2.4953 0.0747 0 8
14.1743 -30.1295 -2.4953 0.0747 0 8
-21.7378 -20.6088 -2.4953 0.0830 0 8
-21.4043 -20.9550 -2.4953 0.0830 0 8
-21.0652 -21.2958 -2.4953 0.0830 0 8
-20.7208 -21.6311 -2.4953 0.0830 0 8
-20.3710 -21.9608 -2.4953 0.0830 0 8
-20.0159 -22.2849 -2.4953 0.0830 0 8
-19.6557 -22.6033 -2.4953 0.0830 0 8
-19.2905 -22.9158 -2.4953 0.0830 0 8
-18.9202 -23.2224 -2.4953 0.0830 0 8
-18.5451 -23.5230 -2.4953 0.0830 0 8
-18.1653 -23.8176 -2.4953 0.0830 0 8
-17.7808 -24.1057 -2.4953 0.0830 0 8
-17.3916 -24.3883 -2.4953 0.0830 0 8
-16.9980 -24.6642 -2.4953 0.0830 0 8
-16.6000 -24.9338 -2.4953 0.0830 0 8
-16.1977 -25.1970 -2.4953 0.0830 0 8
-15.7912 -25.4537 -2.4953 0.0830 0 8
-15.3807 -25.7039 -2.4953 0.0830 0 8
-14.9663 -25.9474 -2.4953 0.0830 0 8
-14.5479 -26.1842 -2.4953 0.0830 0 8
-14.1259 -26.4143 -2.4953 0.0830 0 8
-13.7001 -26.6376 -2.4953 0.0830 0 8
-13.2709 -26.8540 -2.4953 0.0830 0 8
-12.8382 -27.0635 -2.4953 0.0830 0 8
-12.4023 -27.2661 -2.4953 0.0830 0 8
-11.9631 -27.4616 -2.4953 0.0830 0 8
-11.5209 -27.6500 -2.4953 0.0830 0 8
-11.0757 -27.8314 -2.4953 0.0830 0 8
-10.6276 -28.0055 -2.4953 0.0830 0 8
-10.1768 -28.1725 -2.4953 0.0830 0 8
-9.7234 -28.3321 -2.4953 0.0830 0 8
-9.2675 -28.4845 -2.4953 0.0830 0 8
-8.8092 -28.6296 -2.4953 0.0830 0 8
-8.3486 -28.7673 -2.4953 0.0830 0 8
-7.8859 -28.8975 -2.4953 0.0830 0 8
-7.4212 -29.0204 -2.4953 0.0830 0 8
-6.9545 -29.1357 -2.4953 0.0830 0 8
-6.4860 -29.2436 -2.4953 0.0830 0 8
-6.0159 -29.3439 -2.4953 0.0830 0 8
-5.5442 -29.4367 -2.4953 0.0830 0 8
-5.0711 -29.5218 -2.4953 0.0830 0 8
-4.5967 -29.5994 -2.4953 0.0830 0 8
-4.1211 -29.6694 -2.4953 0.0830 0 8
-3.6444 -29.7317 -2.4953 0.0830 0 8
-3.1668 -29.7863 -2.4953 0.0830 0 8
-2.6884 -29.8333 -2.4953 0.0830 0 8
-2.2093 -29.8726 -2.4953 0.0830 0 8
-1.7296 -29.9042 -2.4953 0.0830 0 8
-1.2495 -29.9281 -2.4953 0.0830 0 8
-0.7691 -29.9443 -2.4953 0.0830 0 8
-0.2884 -29.9528 -2.4953 0.0830 0 8
0.1923 -29.9536 -2.4953 0.0830 0 8
0.6729 -29.9467 -2.4953 0.0830 0 8
1.1534 -29.9320 -2.4953 0.0830 0 8
1.6336 -29.9096 -2.4953 0.0830 0 8
2.1134 -29.8796 -2.4953 0.0830 0 8
2.5926 -29.8418 -2.4953 0.0830 0 8
3.0712 -29.7964 -2.4953 0.0830 0 8
3.5489 -29.7432 -2.4953 0.0830 0 8
4.0258 -29.6825 -2.4953 0.0830 0 8
4.5016 -29.6140 -2.4953 0.0830 0 8
4.9763 -29.5380 -2.4953 0.0830 0 8
5.4497 -29.4543 -2.4953 0.0830 0 8
5.9217 -29.3631 -2.4953 0.0830 0 8
6.3921 -29.2642 -2.4953 0.0830 0 8
6.8609 -29.1580 -2.4953 0.0830 0 8
7.3279 -29.0440 -2.4953 0.0830 0 8
7.7931 -28.9227 -2.4953 0.0830 0 8
8.2562 -28.7939 -2.4953 0.0830 0 8
8.7172 -28.6577 -2.4953 0.0830 0 8
9.1760 -28.5141 -2.4953 0.0830 0 8
9.6324 -28.3632 -2.4953 0.0830 0 8
10.0863 -28.2050 -2.4953 0.0830 0 8
10.5377 -28.0395 -2.4953 0.0830 0 8
10.9863 -27.8668 -2.4953 0.0830 0 8
11.4321 -27.6869 -2.4953 0.0830 0 8
11.8749 -27.4999 -2.4953 0.0830 0 8
12.3147 -27.3057 -2.4953 0.0830 0 8
12.7513 -27.1046 -2.4953 0.0830 0 8
-19.7521 -18.7262 -2.4953 0.0913 0 8
-19.4490 -19.0408 -2.4953 0.0913 0 8
-19.1409 -19.3504 -2.4953 0.0913 0 8
-18.8279 -19.6551 -2.4953 0.0913 0 8
-18.5101 -19.9547 -2.4953 0.0913 0 8
-18.1875 -20.2492 -2.4953 0.0913 0 8
-17.8602 -20.5385 -2.4953 0.0913 0 8
-17.5283 -20.8224 -2.4953 0.0913 0 8
-17.1921 -21.1004 -2.4953 0.0913 0 8
-16.8510 -21.3742 -2.4953 0.0913 0 8
-16.5059 -21.6419 -2.4953 0.0913 0 8
-16.1564 -21.9040 -2.4953 0.0913 0 8
-15.8029 -22.1604 -2.4953 0.0913 0 8
-15.4452 -22.4112 -2.4953 0.0913 0 8
-15.0836 -22.6561 -2.4953 0.0913 0 8
-14.7180 -22.8953 -2.4953 0.0913 0 8
-14.3487 -23.1285 -2.4953 0.0913 0 8
-13.9757 -23.3558 -2.4953 0.0913 0 8
-13.5991 -23.5771 -2.4953 0.0913 0 8
-13.2190 -23.7923 -2.4953 0.0913 0 8
-12.8355 -24.0014 -2.4953 0.0913 0 8
-12.4486 -24.2043 -2.4953 0.0913 0 8
-12.0586 -24.4009 -2.4953 0.0913 0 8
-11.6655 -24.5913 -2.4953 0.0913 0 8
-11.2693 -24.7754 -2.4953 0.0913 0 8
-10.8703 -24.9530 -2.4953 0.0913 0 8
-10.4685 -25.1242 -2.4953 0.0913 0 8
-10.0639 -25.2890 -2.4953 0.0913 0 8
-9.6568 -25.4471 -2.4953 0.0913 0 8
-9.2472 -25.5989 -2.4953 0.0913 0 8
-8.8352 -25.7440 -2.4953 0.0913 0 8
-8.4209 -25.8825 -2.4953 0.0913 0 8
-8.0045 -26.0143 -2.4953 0.0913 0 8
-7.5860 -26.1394 -2.4953 0.0913 0 8
-7.1655 -26.2578 -2.4953 0.0913 0 8
-6.7432 -26.3694 -2.4953 0.0913 0 8
-6.3192 -26.4742 -2.4953 0.0913 0 8
-5.8935 -26.5722 -2.4953 0.0913 0 8
-5.4663 -26.6633 -2.4953 0.0913 0 8
-5.0378 -26.7476 -2.4953 0.0913 0 8
-4.6079 -26.8250 -2.4953 0.0913 0 8
-4.1768 -26.8955 -2.4953 0.0913 0 8
-3.7446 -26.9591 -2.4953 0.0913 0 8
-3.3115 -27.0157 -2.4953 0.0913 0 8
-2.8775 -27.0654 -2.4953 0.0913 0 8
-2.4428 -27.1081 -2.4953 0.0913 0 8
-2.0075 -27.1438 -2.4953 0.0913 0 8
-1.5716 -27.1725 -2.4953 0.0913 0 8
-1.1354 -27.1942 -2.4953 0.0913 0 8
-0.6988 -27.2089 -2.4953 0.0913 0 8
-0.2621 -27.2166 -2.4953 0.0913 0 8
0.1747 -27.2174 -2.4953 0.0913 0 8
0.6115 -27.2110 -2.4953 0.0913 0 8
1.0481 -27.1977 -2.4953 0.0913 0 8
1.4844 -27.1774 -2.4953 0.0913 0 8
1.9203 -27.1501 -2.4953 0.0913 0 8
2.3558 -27.1158 -2.4953 0.0913 0 8
2.7906 -27.0745 -2.4953 0.0913 0 8
3.2248 -27.0262 -2.4953 0.0913 0 8
3.6581 -26.9710 -2.4953 0.0913 0 8
4.0904 -26.9088 -2.4953 0.0913 0 8
4.5217 -26.8397 -2.4953 0.0913 0 8
4.9518 -26.7637 -2.4953 0.0913 0 8
5.3807 -26.6808 -2.4953 0.0913 0 8
5.8082 -26.5910 -2.4953 0.0913 0 8
6.2342 -26.4943 -2.4953 0.0913 0 8
6.6585 -26.3909 -2.4953 0.0913 0 8
7.0812 -26.2806 -2.4953 0.0913 0 8
7.5020 -26.1636 -2.4953 0.0913 0 8
7.9209 -26.0399 -2.4953 0.0913 0 8
8.3378 -25.9094 -2.4953 0.0913 0 8
8.7525 -25.7722 -2.4953 0.0913 0 8
9.1650 -25.6285 -2.4953 0.0913 0 8
9.5751 -25.4781 -2.4953 0.0913 0 8
9.9827 -25.3212 -2.4953 0.0913 0 8
10.3878 -25.1577 -2.4953 0.0913 0 8
10.7901 -24.9878 -2.4953 0.0913 0 8
11.1897 -24.8114 -2.4953 0.0913 0 8
11.5865 -24.6286 -2.4953 0.0913 0 8
-18.0964 -17.1566 -2.4953 0.0996 0 8
-17.8188 -17.4448 -2.4953 0.0996 0 8
-17.5365 -17.7284 -2.4953 0.0996 0 8
-17.2498 -18.0076 -2.4953 0.0996 0 8
-16.9586 -18.2821 -2.4953 0.0996 0 8
-16.6630 -18.5519 -2.4953 0.0996 0 8
-16.3631 -18.8169 -2.4953 0.0996 0 8
-16.0591 -19.0771 -2.4953 0.0996 0 8
-15.7509 -19.3323 -2.4953 0.0996 0 8
-15.4386 -19.5826 -2.4953 0.0996 0 8
-15.1223 -19.8279 -2.4953 0.0996 0 8
-14.8022 -20.0680 -2.4953 0.0996 0 8
-14.4783 -20.3029 -2.4953 0.0996 0 8
-14.1506 -20.5327 -2.4953 0.0996 0 8
-13.8193 -20.7571 -2.4953 0.0996 0 8
-13.4844 -20.9762 -2.4953 0.0996 0 8
-13.1460 -21.1899 -2.4953 0.0996 0 8
-12.8042 -21.3981 -2.4953 0.0996 0 8
-12.4592 -21.6009 -2.4953 0.0996 0 8
-12.1110 -21.7980 -2.4953 0.0996 0 8
-11.7596 -21.9896 -2.4953 0.0996 0 8
-11.4052 -22.1755 -2.4953 0.0996 0 8
-11.0479 -22.3556 -2.4953 0.0996 0 8
-10.6877 -22.5300 -2.4953 0.0996 0 8
-10.3247 -22.6986 -2.4953 0.0996 0 8
-9.9592 -22.8614 -2.4953 0.0996 0 8
-9.5910 -23.0183 -2.4953 0.0996 0 8
-9.2204 -23.1692 -2.4953 0.0996 0 8
-8.8474 -23.3142 -2.4953 0.0996 0 8
-8.4721 -23.4532 -2.4953 0.0996 0 8
-8.0946 -23.5861 -2.4953 0.0996 0 8
-7.7151 -23.7130 -2.4953 0.0996 0 8
-7.3335 -23.8338 -2.4953 0.0996 0 8
-6.9501 -23.9484 -2.4953 0.0996 0 8
-6.5649 -24.0568 -2.4953 0.0996 0 8
-6.1780 -24.1591 -2.4953 0.0996 0 8
-5.7895 -24.2551 -2.4953 0.0996 0 8
-5.3995 -24.3449 -2.4953 0.0996 0 8
-5.0082 -24.4284 -2.4953 0.0996 0 8
-4.6155 -24.5056 -2.4953 0.0996 0 8
-4.2216 -24.5766 -2.4953 0.0996 0 8
-3.8267 -24.6411 -2.4953 0.0996 0 8
-3.4308 -24.6994 -2.4953 0.0996 0 8
-3.0339 -24.7522 -2.4953 0.0996 0 8
-2.6363 -24.7967 -2.4953 0.0996 0 8
-2.2381 -24.8359 -2.4953 0.0996 0 8
-1.8392 -24.8686 -2.4953 0.0996 0 8
-1.4399 -24.8949 -2.4953 0.0996 0 8
-1.0402 -24.9148 -2.4953 0.0996 0 8
-0.6402 -24.9283 -2.4953 0.0996 0 8
-0.2401 -24.9353 -2.4953 0.0996 0 8
0.1601 -24.9360 -2.4953 0.0996 0 8
0.5602 -24.9302 -2.4953 0.0996 0 8
0.9602 -24.9180 -2.4953 0.0996 0 8
1.3600 -24.8994 -2.4953 0.0996 0 8
1.7594 -24.8744 -2.4953 0.0996 0 8
2.1583 -24.8429 -2.4953 0.0996 0 8
2.5567 -24.8051 -2.4953 0.0996 0 8
2.9545 -24.7609 -2.4953 0.0996 0 8
3.3514 -24.7102 -2.4953 0.0996 0 8
3.7475 -24.6532 -2.4953 0.0996 0 8
4.1427 -24.5900 -2.4953 0.0996 0 8
4.5368 -24.5203 -2.4953 0.0996 0 8
4.9297 -24.4444 -2.4953 0.0996 0 8
5.3213 -24.3621 -2.4953 0.0996 0 8
5.7116 -24.2736 -2.4953 0.0996 0 8
6.1004 -24.1788 -2.4953 0.0996 0 8
6.4876 -24.0778 -2.4953 0.0996 0 8
6.8732 -23.9706 -2.4953 0.0996 0 8
7.2570 -23.8572 -2.4953 0.0996 0 8
7.6389 -23.7376 -2.4953 0.0996 0 8
8.0189 -23.6120 -2.4953 0.0996 0 8
8.3968 -23.4803 -2.4953 0.0996 0 8
8.7725 -23.3425 -2.4953 0.0996 0 8
9.1459 -23.1987 -2.4953 0.0996 0 8
9.5170 -23.0490 -2.4953 0.0996 0 8
9.8857 -22.8933 -2.4953 0.0996 0 8
10.2518 -22.7317 -2.4953 0.0996 0 8
10.6153 -22.5642 -2.4953 0.0996 0 8
-16.6947 -15.8276 -2.4953 0.1078 0 8
-16.4386 -16.0935 -2.4953 0.1078 0 8
-16.1782 -16.3552 -2.4953 0.1078 0 8
-15.9136 -16.6128 -2.4953 0.1078 0 8
-15.6450 -16.8660 -2.4953 0.1078 0 8
-15.3723 -17.1149 -2.4953 0.1078 0 8
-15.0957 -17.3594 -2.4953 0.1078 0 8
-14.8152 -17.5994 -2.4953 0.1078 0 8
-14.5308 -17.8349 -2.4953 0.1078 0 8
-14.2427 -18.0658 -2.4953 0.1078 0 8
-13.9510 -18.2920 -2.4953 0.1078 0 8
-13.6556 -18.5135 -2.4953 0.1078 0 8
-13.3568 -18.7303 -2.4953 0.1078 0 8
-13.0545 -18.9422 -2.4953 0.1078 0 8
-12.7488 -19.1493 -2.4953 0.1078 0 8
-12.4399 -19.3514 -2.4953 0.1078 0 8
-12.1277 -19.5485 -2.4953 0.1078 0 8
-11.8125 -19.7407 -2.4953 0.1078 0 8
-11.4942 -19.9277 -2.4953 0.1078 0 8
-11.1729 -20.1096 -2.4953 0.1078 0 8
-10.8487 -20.2863 -2.4953 0.1078 0 8
-10.5218 -20.4578 -2.4953 0.1078 0 8
-10.1921 -20.6240 -2.4953 0.1078 0 8
-9.8598 -20.7849 -2.4953 0.1078 0 8
-9.5250 -20.9404 -2.4953 0.1078 0 8
-9.1877 -21.0906 -2.4953 0.1078 0 8
-8.8481 -21.2353 -2.4953 0.1078 0 8
-8.5062 -21.3746 -2.4953 0.1078 0 8
-8.1621 -21.5083 -2.4953 0.1078 0 8
-7.8159 -21.6366 -2.4953 0.1078 0 8
-7.4676 -21.7592 -2.4953 0.1078 0 8
-7.1175 -21.8762 -2.4953 0.1078 0 8
-6.7655 -21.9876 -2.4953 0.1078 0 8
-6.4118 -22.0934 -2.4953 0.1078 0 8
-6.0564 -22.1934 -2.4953 0.1078 0 8
-5.6995 -22.2878 -2.4953 0.1078 0 8
-5.3411 -22.3763 -2.4953 0.1078 0 8
-4.9813 -22.4592 -2.4953 0.1078 0 8
-4.6202 -22.5362 -2.4953 0.1078 0 8
-4.2580 -22.6075 -2.4953 0.1078 0 8
-3.8946 -22.6729 -2.4953 0.1078 0 8
-3.5303 -22.7325 -2.4953 0.1078 0 8
-3.1650 -22.7862 -2.4953 0.1078 0 8
-2.7989 -22.8341 -2.4953 0.1078 0 8
-2.4321 -22.8760 -2.4953 0.1078 0 8
-2.0647 -22.9121 -2.4953 0.1078 0 8
-1.6968 -22.9423 -2.4953 0.1078 0 8
-1.3284 -22.9666 -2.4953 0.1078 0 8
-0.9596 -22.9849 -2.4953 0.1078 0 8
-0.5907 -22.9974 -2.4953 0.1078 0 8
-0.2215 -23.0039 -2.4953 0.1078 0 8
0.1477 -23.0045 -2.4953 0.1078 0 8
0.5168 -22.9992 -2.4953 0.1078 0 8
0.8858 -22.9879 -2.4953 0.1078 0 8
1.2546 -22.9707 -2.4953 0.1078 0 8
1.6231 -22.9476 -2.4953 0.1078 0 8
1.9911 -22.9186 -2.4953 0.1078 0 8
2.3587 -22.8837 -2.4953 0.1078 0 8
2.7256 -22.8429 -2.4953 0.1078 0 8
3.0918 -22.7962 -2.4953 0.1078 0 8
3.4573 -22.7437 -2.4953 0.1078 0 8
3.8218 -22.6853 -2.4953 0.1078 0 8
4.1854 -22.6210 -2.4953 0.1078 0 8
4.5479 -22.5509 -2.4953 0.1078 0 8
4.9092 -22.4751 -2.4953 0.1078 0 8
5.2692 -22.3934 -2.4953 0.1078 0 8
5.6279 -22.3059 -2.4953 0.1078 0 8
5.9851 -22.2127 -2.4953 0.1078 0 8
6.3408 -22.1138 -2.4953 0.1078 0 8
6.6949 -22.0092 -2.4953 0.1078 0 8
7.0472 -21.8990 -2.4953 0.1078 0 8
7.3977 -21.7831 -2.4953 0.1078 0 8
7.7464 -21.6615 -2.4953 0.1078 0 8
8.0930 -21.5344 -2.4953 0.1078 0 8
8.4375 -21.4018 -2.4953 0.1078 0 8
8.7799 -21.2636 -2.4953 0.1078 0 8
9.1200 -21.1200 -2.4953 0.1078 0 8
9.4577 -20.9709 -2.4953 0.1078 0 8
9.7930 -20.8164 -2.4953 0.1078 0 8
-15.4925 -14.6879 -2.4953 0.1161 0 8
-15.2549 -14.9346 -2.4953 0.1161 0 8
-15.0132 -15.1775 -2.4953 0.1161 0 8
-14.7677 -15.4165 -2.4953 0.1161 0 8
-14.5184 -15.6515 -2.4953 0.1161 0 8
-14.2654 -15.8825 -2.4953 0.1161 0 8
-14.0087 -16.1094 -2.4953 0.1161 0 8
-13.7483 -16.3321 -2.4953 0.1161 0 8
-13.4845 -16.5506 -2.4953 0.1161 0 8
-13.2171 -16.7649 -2.4953 0.1161 0 8
-12.9464 -16.9748 -2.4953 0.1161 0 8
-12.6723 -17.1804 -2.4953 0.1161 0 8
-12.3950 -17.3816 -2.4953 0.1161 0 8
-12.1145 -17.5782 -2.4953 0.1161 0 8
-11.8308 -17.7704 -2.4953 0.1161 0 8
-11.5441 -17.9579 -2.4953 0.1161 0 8
-11.2544 -18.1409 -2.4953 0.1161 0 8
-10.9619 -18.3192 -2.4953 0.1161 0 8
-10.6665 -18.4927 -2.4953 0.1161 0 8
-10.3683 -18.6615 -2.4953 0.1161 0 8
-10.0675 -18.8254 -2.4953 0.1161 0 8
-9.7641 -18.9846 -2.4953 0.1161 0 8
-9.4582 -19.1389 -2.4953 0.1161 0 8
-9.1498 -19.2882 -2.4953 0.1161 0 8
-8.8391 -19.4326 -2.4953 0.1161 0 8
-8.5261 -19.5719 -2.4953 0.1161 0 8
-8.2110 -19.7062 -2.4953 0.1161 0 8
-7.8937 -19.8354 -2.4953 0.1161 0 8
-7.5743 -19.9596 -2.4953 0.1161 0 8
-7.2530 -20.0785 -2.4953 0.1161 0 8
-6.9299 -20.1923 -2.4953 0.1161 0 8
-6.6050 -20.3010 -2.4953 0.1161 0 8
-6.2783 -20.4043 -2.4953 0.1161 0 8
-5.9501 -20.5025 -2.4953 0.1161 0 8
-5.6203 -20.5953 -2.4953 0.1161 0 8
-5.2891 -20.6828 -2.4953 0.1161 0 8
-4.9565 -20.7651 -2.4953 0.1161 0 8
-4.6226 -20.8419 -2.4953 0.1161 0 8
-4.2875 -20.9134 -2.4953 0.1161 0 8
-3.9514 -20.9795 -2.4953 0.1161 0 8
-3.6142 -21.0402 -2.4953 0.1161 0 8
-3.2761 -21.0955 -2.4953 0.1161 0 8
-2.9371 -21.1454 -2.4953 0.1161 0 8
-2.5974 -21.1898 -2.4953 0.1161 0 8
-2.2570 -21.2288 -2.4953 0.1161 0 8
-1.9160 -21.2622 -2.4953 0.1161 0 8
-1.5746 -21.2903 -2.4953 0.1161 0 8
-1.2327 -21.3128 -2.4953 0.1161 0 8
-0.8905 -21.3298 -2.4953 0.1161 0 8
-0.5481 -21.3414 -2.4953 0.1161 0 8
-0.2056 -21.3474 -2.4953 0.1161 0 8
0.1370 -21.3480 -2.4953 0.1161 0 8
0.4796 -21.3430 -2.4953 0.1161 0 8
0.8220 -21.3326 -2.4953 0.1161 0 8
1.1643 -21.3166 -2.4953 0.1161 0 8
1.5062 -21.2952 -2.4953 0.1161 0 8
1.8478 -21.2683 -2.4953 0.1161 0 8
2.1888 -21.2359 -2.4953 0.1161 0 8
2.5293 -21.1980 -2.4953 0.1161 0 8
2.8692 -21.1547 -2.4953 0.1161 0 8
3.2083 -21.1059 -2.4953 0.1161 0 8
3.5466 -21.0516 -2.4953 0.1161 0 8
3.8840 -20.9921 -2.4953 0.1161 0 8
4.2204 -20.9271 -2.4953 0.1161 0 8
4.5557 -20.8567 -2.4953 0.1161 0 8
4.8898 -20.7809 -2.4953 0.1161 0 8
5.2226 -20.6997 -2.4953 0.1161 0 8
5.5541 -20.6132 -2.4953 0.1161 0 8
5.8842 -20.5215 -2.4953 0.1161 0 8
6.2128 -20.4244 -2.4953 0.1161 0 8
6.5398 -20.3221 -2.4953 0.1161 0 8
6.8650 -20.2145 -2.4953 0.1161 0 8
7.1885 -20.1017 -2.4953 0.1161 0 8
7.5102 -19.9838 -2.4953 0.1161 0 8
7.8299 -19.8607 -2.4953 0.1161 0 8
8.1476 -19.7325 -2.4953 0.1161 0 8
8.4633 -19.5992 -2.4953 0.1161 0 8
8.7767 -19.4608 -2.4953 0.1161 0 8
9.0879 -19.3175 -2.4953 0.1161 0 8
-14.4500 -13.6995 -2.4953 0.1243 0 8
-14.2283 -13.9296 -2.4953 0.1243 0 8
-14.0029 -14.1562 -2.4953 0.1243 0 8
-13.7740 -14.3791 -2.4953 0.1243 0 8
-13.5414 -14.5983 -2.4953 0.1243 0 8
-13.3054 -14.8137 -2.4953 0.1243 0 8
-13.0660 -15.0253 -2.4953 0.1243 0 8
-12.8232 -15.2331 -2.4953 0.1243 0 8
-12.5771 -15.4369 -2.4953 0.1243 0 8
-12.3277 -15.6367 -2.4953 0.1243 0 8
-12.0752 -15.8325 -2.4953 0.1243 0 8
-11.8196 -16.0243 -2.4953 0.1243 0 8
-11.5609 -16.2119 -2.4953 0.1243 0 8
-11.2992 -16.3953 -2.4953 0.1243 0 8
-11.0347 -16.5745 -2.4953 0.1243 0 8
-10.7673 -16.7495 -2.4953 0.1243 0 8
-10.4971 -16.9201 -2.4953 0.1243 0 8
-10.2242 -17.0864 -2.4953 0.1243 0 8
-9.9487 -17.2483 -2.4953 0.1243 0 8
-9.6706 -17.4057 -2.4953 0.1243 0 8
-9.3900 -17.5587 -2.4953 0.1243 0 8
-9.1070 -17.7071 -2.4953 0.1243 0 8
-8.8217 -17.8510 -2.4953 0.1243 0 8
-8.5341 -17.9902 -2.4953 0.1243 0 8
-8.2443 -18.1249 -2.4953 0.1243 0 8
-7.9524 -18.2548 -2.4953 0.1243 0 8
-7.6584 -18.3801 -2.4953 0.1243 0 8
-7.3625 -18.5006 -2.4953 0.1243 0 8
-7.0646 -18.6164 -2.4953 0.1243 0 8
-6.7650 -18.7274 -2.4953 0.1243 0 8
-6.4636 -18.8335 -2.4953 0.1243 0 8
-6.1605 -18.9348 -2.4953 0.1243 0 8
-5.8558 -19.0313 -2.4953 0.1243 0 8
-5.5497 -19.1228 -2.4953 0.1243 0 8
-5.2421 -19.2094 -2.4953 0.1243 0 8
-4.9331 -19.2910 -2.4953 0.1243 0 8
-4.6229 -19.3677 -2.4953 0.1243 0 8
-4.3115 -19.4394 -2.4953 0.1243 0 8
-3.9990 -19.5061 -2.4953 0.1243 0 8
-3.6855 -19.5677 -2.4953 0.1243 0 8
-3.3710 -19.6244 -2.4953 0.1243 0 8
-3.0556 -19.6759 -2.4953 0.1243 0 8
-2.7395 -19.7224 -2.4953 0.1243 0 8
-2.4226 -19.7639 -2.4953 0.1243 0 8
-2.1051 -19.8002 -2.4953 0.1243 0 8
-1.7871 -19.8314 -2.4953 0.1243 0 8
-1.4686 -19.8576 -2.4953 0.1243 0 8
-1.1498 -19.8786 -2.4953 0.1243 0 8
-0.8306 -19.8945 -2.4953 0.1243 0 8
-0.5112 -19.9052 -2.4953 0.1243 0 8
-0.1917 -19.9109 -2.4953 0.1243 0 8
0.1278 -19.9114 -2.4953 0.1243 0 8
0.4473 -19.9068 -2.4953 0.1243 0 8
0.7667 -19.8970 -2.4953 0.1243 0 8
1.0859 -19.8822 -2.4953 0.1243 0 8
1.4049 -19.8622 -2.4953 0.1243 0 8
1.7234 -19.8371 -2.4953 0.1243 0 8
2.0415 -19.8069 -2.4953 0.1243 0 8
2.3591 -19.7715 -2.4953 0.1243 0 8
2.6761 -19.7311 -2.4953 0.1243 0 8
2.9924 -19.6857 -2.4953 0.1243 0 8
3.3079 -19.6351 -2.4953 0.1243 0 8
3.6226 -19.5795 -2.4953 0.1243 0 8
3.9364 -19.5188 -2.4953 0.1243 0 8
4.2491 -19.4531 -2.4953 0.1243 0 8
4.5607 -19.3824 -2.4953 0.1243 0 8
4.8712 -19.3068 -2.4953 0.1243 0 8
5.1804 -19.2261 -2.4953 0.1243 0 8
5.4882 -19.1405 -2.4953 0.1243 0 8
5.7947 -19.0500 -2.4953 0.1243 0 8
6.0997 -18.9545 -2.4953 0.1243 0 8
6.4031 -18.8542 -2.4953 0.1243 0 8
6.7048 -18.7490 -2.4953 0.1243 0 8
7.0048 -18.6390 -2.4953 0.1243 0 8
7.3030 -18.5242 -2.4953 0.1243 0 8
7.5994 -18.4046 -2.4953 0.1243 0 8
7.8937 -18.2803 -2.4953 0.1243 0 8
8.1861 -18.1512 -2.4953 0.1243 0 8
8.4763 -18.0175 -2.4953 0.1243 0 8
-13.5371 -12.8341 -2.4953 0.1326 0 8
-13.3295 -13.0496 -2.4953 0.1326 0 8
-13.1183 -13.2619 -2.4953 0.1326 0 8
-12.9038 -13.4707 -2.4953 0.1326 0 8
-12.6860 -13.6760 -2.4953 0.1326 0 8
-12.4649 -13.8778 -2.4953 0.1326 0 8
-12.2405 -14.0761 -2.4953 0.1326 0 8
-12.0131 -14.2707 -2.4953 0.1326 0 8
-11.7825 -14.4617 -2.4953 0.1326 0 8
-11.5489 -14.6489 -2.4953 0.1326 0 8
-11.3123 -14.8323 -2.4953 0.1326 0 8
-11.0729 -15.0120 -2.4953 0.1326 0 8
-10.8305 -15.1877 -2.4953 0.1326 0 8
-10.5854 -15.3596 -2.4953 0.1326 0 8
-10.3376 -15.5275 -2.4953 0.1326 0 8
-10.0871 -15.6914 -2.4953 0.1326 0 8
-9.8339 -15.8512 -2.4953 0.1326 0 8
-9.5783 -16.0070 -2.4953 0.1326 0 8
-9.3202 -16.1586 -2.4953 0.1326 0 8
-9.0597 -16.3061 -2.4953 0.1326 0 8
-8.7968 -16.4494 -2.4953 0.1326 0 8
-8.5317 -16.5885 -2.4953 0.1326 0 8
-8.2644 -16.7232 -2.4953 0.1326 0 8
-7.9950 -16.8537 -2.4953 0.1326 0 8
-7.7235 -16.9799 -2.4953 0.1326 0 8
-7.4500 -17.1016 -2.4953 0.1326 0 8
-7.1746 -17.2190 -2.4953 0.1326 0 8
-6.8973 -17.3319 -2.4953 0.1326 0 8
-6.6183 -17.4403 -2.4953 0.1326 0 8
-6.3376 -17.5443 -2.4953 0.1326 0 8
-6.0552 -17.6437 -2.4953 0.1326 0 8
-5.7713 -17.7386 -2.4953 0.1326 0 8
-5.4859 -17.8290 -2.4953 0.1326 0 8
-5.1991 -17.9147 -2.4953 0.1326 0 8
-4.9109 -17.9958 -2.4953 0.1326 0 8
-4.6215 -18.0723 -2.4953 0.1326 0 8
-4.3309 -18.1442 -2.4953 0.1326 0 8
-4.0392 -18.2113 -2.4953 0.1326 0 8
-3.7464 -18.2738 -2.4953 0.1326 0 8
-3.4526 -18.3316 -2.4953 0.1326 0 8
-3.1580 -18.3846 -2.4953 0.1326 0 8
-2.8626 -18.4329 -2.4953 0.1326 0 8
-2.5664 -18.4765 -2.4953 0.1326 0 8
-2.2696 -18.5153 -2.4953 0.1326 0 8
-1.9721 -18.5493 -2.4953 0.1326 0 8
-1.6742 -18.5786 -2.4953 0.1326 0 8
-1.3758 -18.6031 -2.4953 0.1326 0 8
-1.0771 -18.6228 -2.4953 0.1326 0 8
-0.7781 -18.6376 -2.4953 0.1326 0 8
-0.4789 -18.6477 -2.4953 0.1326 0 8
-0.1796 -18.6530 -2.4953 0.1326 0 8
0.1197 -18.6536 -2.4953 0.1326 0 8
0.4191 -18.6492 -2.4953 0.1326 0 8
0.7183 -18.6400 -2.4953 0.1326 0 8
1.0173 -18.6261 -2.4953 0.1326 0 8
1.3161 -18.6074 -2.4953 0.1326 0 8
1.6145 -18.5839 -2.4953 0.1326 0 8
1.9126 -18.5556 -2.4953 0.1326 0 8
2.2101 -18.5225 -2.4953 0.1326 0 8
2.5071 -18.4846 -2.4953 0.1326 0 8
2.8034 -18.4420 -2.4953 0.1326 0 8
3.0990 -18.3947 -2.4953 0.1326 0 8
3.3938 -18.3426 -2.4953 0.1326 0 8
3.6877 -18.2857 -2.4953 0.1326 0 8
3.9807 -18.2242 -2.4953 0.1326 0 8
4.2726 -18.1580 -2.4953 0.1326 0 8
4.5634 -18.0871 -2.4953 0.1326 0 8
4.8531 -18.0115 -2.4953 0.1326 0 8
5.1415 -17.9313 -2.4953 0.1326 0 8
5.4286 -17.8465 -2.4953 0.1326 0 8
5.7143 -17.7571 -2.4953 0.1326 0 8
5.9985 -17.6631 -2.4953 0.1326 0 8
6.2812 -17.5645 -2.4953 0.1326 0 8
6.5623 -17.4615 -2.4953 0.1326 0 8
6.8417 -17.3539 -2.4953 0.1326 0 8
7.1193 -17.2419 -2.4953 0.1326 0 8
7.3951 -17.1254 -2.4953 0.1326 0 8
7.6689 -17.0046 -2.4953 0.1326 0 8
7.9408 -16.8793 -2.4953 0.1326 0 8
-12.7311 -12.0699 -2.4953 0.1408 0 8
-12.5357 -12.2726 -2.4953 0.1408 0 8
-12.3372 -12.4722 -2.4953 0.1408 0 8
-12.1354 -12.6686 -2.4953 0.1408 0 8
-11.9306 -12.8617 -2.4953 0.1408 0 8
-11.7226 -13.0515 -2.4953 0.1408 0 8
-11.5117 -13.2379 -2.4953 0.1408 0 8
-11.2977 -13.4210 -2.4953 0.1408 0 8
-11.0809 -13.6005 -2.4953 0.1408 0 8
-10.8612 -13.7766 -2.4953 0.1408 0 8
-10.6387 -13.9491 -2.4953 0.1408 0 8
-10.4135 -14.1181 -2.4953 0.1408 0 8
-10.1856 -14.2834 -2.4953 0.1408 0 8
-9.9551 -14.4450 -2.4953 0.1408 0 8
-9.7220 -14.6029 -2.4953 0.1408 0 8
-9.4864 -14.7570 -2.4953 0.1408 0 8
-9.2484 -14.9073 -2.4953 0.1408 0 8
-9.0080 -15.0538 -2.4953 0.1408 0 8
-8.7652 -15.1965 -2.4953 0.1408 0 8
-8.5202 -15.3352 -2.4953 0.1408 0 8
-8.2730 -15.4699 -2.4953 0.1408 0 8
-8.0237 -15.6007 -2.4953 0.1408 0 8
-7.7723 -15.7275 -2.4953 0.1408 0 8
-7.5189 -15.8501 -2.4953 0.1408 0 8
-7.2636 -15.9688 -2.4953 0.1408 0 8
-7.0064 -16.0833 -2.4953 0.1408 0 8
-6.7474 -16.1936 -2.4953 0.1408 0 8
-6.4866 -16.2998 -2.4953 0.1408 0 8
-6.2242 -16.4018 -2.4953 0.1408 0 8
-5.9602 -16.4996 -2.4953 0.1408 0 8
-5.6947 -16.5931 -2.4953 0.1408 0 8
-5.4277 -16.6824 -2.4953 0.1408 0 8
-5.1592 -16.7673 -2.4953 0.1408 0 8
-4.8895 -16.8480 -2.4953 0.1408 0 8
-4.6185 -16.9243 -2.4953 0.1408 0 8
-4.3463 -16.9962 -2.4953 0.1408 0 8
-4.0730 -17.0638 -2.4953 0.1408 0 8
-3.7986 -17.1269 -2.4953 0.1408 0 8
-3.5233 -17.1857 -2.4953 0.1408 0 8
-3.2470 -17.2400 -2.4953 0.1408 0 8
-2.9700 -17.2899 -2.4953 0.1408 0 8
-2.6921 -17.3353 -2.4953 0.1408 0 8
-2.4136 -17.3763 -2.4953 0.1408 0 8
-2.1344 -17.4128 -2.4953 0.1408 0 8
-1.8547 -17.4448 -2.4953 0.1408 0 8
-1.5745 -17.4723 -2.4953 0.1408 0 8
-1.2939 -17.4953 -2.4953 0.1408 0 8
-1.0130 -17.5139 -2.4953 0.1408 0 8
-0.7318 -17.5279 -2.4953 0.1408 0 8
-0.4504 -17.5373 -2.4953 0.1408 0 8
-0.1689 -17.5423 -2.4953 0.1408 0 8
0.1126 -17.5428 -2.4953 0.1408 0 8
0.3941 -17.5387 -2.4953 0.1408 0 8
0.6755 -17.5301 -2.4953 0.1408 0 8
0.9568 -17.5170 -2.4953 0.1408 0 8
1.2377 -17.4994 -2.4953 0.1408 0 8
1.5184 -17.4773 -2.4953 0.1408 0 8
1.7987 -17.4507 -2.4953 0.1408 0 8
2.0785 -17.4196 -2.4953 0.1408 0 8
2.3578 -17.3840 -2.4953 0.1408 0 8
2.6364 -17.3439 -2.4953 0.1408 0 8
2.9144 -17.2993 -2.4953 0.1408 0 8
3.1917 -17.2503 -2.4953 0.1408 0 8
3.4681 -17.1969 -2.4953 0.1408 0 8
3.7436 -17.1390 -2.4953 0.1408 0 8
4.0182 -17.0767 -2.4953 0.1408 0 8
4.2917 -17.0101 -2.4953 0.1408 0 8
4.5641 -16.9390 -2.4953 0.1408 0 8
4.8354 -16.8636 -2.4953 0.1408 0 8
5.1054 -16.7838 -2.4953 0.1408 0 8
5.3741 -16.6997 -2.4953 0.1408 0 8
5.6414 -16.6113 -2.4953 0.1408 0 8
5.9072 -16.5187 -2.4953 0.1408 0 8
6.1715 -16.4217 -2.4953 0.1408 0 8
6.4343 -16.3206 -2.4953 0.1408 0 8
6.6954 -16.2152 -2.4953 0.1408 0 8
6.9547 -16.1057 -2.4953 0.1408 0 8
7.2123 -15.9920 -2.4953 0.1408 0 8
7.4680 -15.8742 -2.4953 0.1408 0 8
-12.0140 -11.3900 -2.4953 0.1490 0 8
-11.8297 -11.5814 -2.4953 0.1490 0 8
-11.6423 -11.7697 -2.4953 0.1490 0 8
-11.4519 -11.9550 -2.4953 0.1490 0 8
-11.2586 -12.1373 -2.4953 0.1490 0 8
-11.0624 -12.3164 -2.4953 0.1490 0 8
-10.8633 -12.4923 -2.4953 0.1490 0 8
-10.6614 -12.6650 -2.4953 0.1490 0 8
-10.4568 -12.8344 -2.4953 0.1490 0 8
-10.2495 -13.0007 -2.4953 0.1490 0 8
-10.0395 -13.1635 -2.4953 0.1490 0 8
-9.8270 -13.3229 -2.4953 0.1490 0 8
-9.6119 -13.4789 -2.4953 0.1490 0 8
-9.3944 -13.6314 -2.4953 0.1490 0 8
-9.1744 -13.7804 -2.4953 0.1490 0 8
-8.9521 -13.9258 -2.4953 0.1490 0 8
-8.7275 -14.0677 -2.4953 0.1490 0 8
-8.5006 -14.2060 -2.4953 0.1490 0 8
-8.2715 -14.3405 -2.4953 0.1490 0 8
-8.0403 -14.4714 -2.4953 0.1490 0 8
-7.8071 -14.5986 -2.4953 0.1490 0 8
-7.5718 -14.7220 -2.4953 0.1490 0 8
-7.3345 -14.8416 -2.4953 0.1490 0 8
-7.0954 -14.9575 -2.4953 0.1490 0 8
-6.8545 -15.0694 -2.4953 0.1490 0 8
-6.6118 -15.1774 -2.4953 0.1490 0 8
-6.3673 -15.2816 -2.4953 0.1490 0 8
-6.1213 -15.3818 -2.4953 0.1490 0 8
-5.8737 -15.4780 -2.4953 0.1490 0 8
-5.6245 -15.5703 -2.4953 0.1490 0 8
-5.3739 -15.6585 -2.4953 0.1490 0 8
-5.1219 -15.7428 -2.4953 0.1490 0 8
-4.8687 -15.8229 -2.4953 0.1490 0 8
-4.6141 -15.8990 -2.4953 0.1490 0 8
-4.3584 -15.9710 -2.4953 0.1490 0 8
-4.1015 -16.0389 -2.4953 0.1490 0 8
-3.8436 -16.1027 -2.4953 0.1490 0 8
-3.5847 -16.1623 -2.4953 0.1490 0 8
-3.3248 -16.2177 -2.4953 0.1490 0 8
-3.0642 -16.2690 -2.4953 0.1490 0 8
-2.8027 -16.3161 -2.4953 0.1490 0 8
-2.5405 -16.3589 -2.4953 0.1490 0 8
-2.2776 -16.3976 -2.4953 0.1490 0 8
-2.0142 -16.4320 -2.4953 0.1490 0 8
-1.7502 -16.4623 -2.4953 0.1490 0 8
-1.4858 -16.4882 -2.4953 0.1490 0 8
-1.2210 -16.5099 -2.4953 0.1490 0 8
-0.9559 -16.5274 -2.4953 0.1490 0 8
-0.6906 -16.5406 -2.4953 0.1490 0 8
-0.4251 -16.5496 -2.4953 0.1490 0 8
-0.1594 -16.5543 -2.4953 0.1490 0 8
0.1063 -16.5547 -2.4953 0.1490 0 8
0.3719 -16.5509 -2.4953 0.1490 0 8
0.6375 -16.5428 -2.4953 0.1490 0 8
0.9029 -16.5304 -2.4953 0.1490 0 8
1.1680 -16.5138 -2.4953 0.1490 0 8
1.4329 -16.4929 -2.4953 0.1490 0 8
1.6974 -16.4678 -2.4953 0.1490 0 8
1.9614 -16.4384 -2.4953 0.1490 0 8
2.2250 -16.4048 -2.4953 0.1490 0 8
2.4880 -16.3670 -2.4953 0.1490 0 8
2.7503 -16.3250 -2.4953 0.1490 0 8
3.0119 -16.2787 -2.4953 0.1490 0 8
3.2728 -16.2283 -2.4953 0.1490 0 8
3.5328 -16.1737 -2.4953 0.1490 0 8
3.7919 -16.1149 -2.4953 0.1490 0 8
4.0500 -16.0520 -2.4953 0.1490 0 8
4.3071 -15.9849 -2.4953 0.1490 0 8
4.5630 -15.9138 -2.4953 0.1490 0 8
4.8178 -15.8385 -2.4953 0.1490 0 8
5.0714 -15.7591 -2.4953 0.1490 0 8
5.3236 -15.6757 -2.4953 0.1490 0 8
5.5745 -15.5883 -2.4953 0.1490 0 8
5.8239 -15.4968 -2.4953 0.1490 0 8
6.0719 -15.4014 -2.4953 0.1490 0 8
6.3182 -15.3019 -2.4953 0.1490 0 8
6.5630 -15.1986 -2.4953 0.1490 0 8
6.8061 -15.0913 -2.4953 0.1490 0 8
7.0474 -14.9801 -2.4953 0.1490 0 8
-11.3719 -10.7813 -2.4953 0.1573 0 8
-11.1974 -10.9624 -2.4953 0.1573 0 8
-11.0201 -11.1407 -2.4953 0.1573 0 8
-10.8399 -11.3161 -2.4953 0.1573 0 8
-10.6569 -11.4886 -2.4953 0.1573 0 8
-10.4711 -11.6581 -2.4953 0.1573 0 8
-10.2827 -11.8246 -2.4953 0.1573 0 8
-10.0916 -11.9881 -2.4953 0.1573 0 8
-9.8979 -12.1485 -2.4953 0.1573 0 8
-9.7017 -12.3058 -2.4953 0.1573 0 8
-9.5030 -12.4599 -2.4953 0.1573 0 8
-9.3018 -12.6108 -2.4953 0.1573 0 8
-9.0982 -12.7585 -2.4953 0.1573 0 8
-8.8923 -12.9028 -2.4953 0.1573 0 8
-8.6841 -13.0439 -2.4953 0.1573 0 8
-8.4736 -13.1815 -2.4953 0.1573 0 8
-8.2610 -13.3158 -2.4953 0.1573 0 8
-8.0463 -13.4467 -2.4953 0.1573 0 8
-7.8294 -13.5741 -2.4953 0.1573 0 8
-7.6106 -13.6980 -2.4953 0.1573 0 8
-7.3898 -13.8183 -2.4953 0.1573 0 8
-7.1671 -13.9352 -2.4953 0.1573 0 8
-6.9425 -14.0484 -2.4953 0.1573 0 8
-6.7162 -14.1580 -2.4953 0.1573 0 8
-6.4881 -14.2639 -2.4953 0.1573 0 8
-6.2584 -14.3662 -2.4953 0.1573 0 8
-6.0270 -14.4648 -2.4953 0.1573 0 8
-5.7941 -14.5597 -2.4953 0.1573 0 8
-5.5597 -14.6508 -2.4953 0.1573 0 8
-5.3239 -14.7381 -2.4953 0.1573 0 8
-5.0867 -14.8217 -2.4953 0.1573 0 8
-4.8482 -14.9014 -2.4953 0.1573 0 8
-4.6084 -14.9773 -2.4953 0.1573 0 8
-4.3675 -15.0493 -2.4953 0.1573 0 8
-4.1254 -15.1174 -2.4953 0.1573 0 8
-3.8823 -15.1817 -2.4953 0.1573 0 8
-3.6382 -15.2420 -2.4953 0.1573 0 8
-3.3931 -15.2985 -2.4953 0.1573 0 8
-3.1471 -15.3509 -2.4953 0.1573 0 8
-2.9004 -15.3995 -2.4953 0.1573 0 8
-2.6529 -15.4440 -2.4953 0.1573 0 8
-2.4047 -15.4846 -2.4953 0.1573 0 8
-2.1559 -15.5212 -2.4953 0.1573 0 8
-1.9065 -15.5538 -2.4953 0.1573 0 8
-1.6567 -15.5824 -2.4953 0.1573 0 8
-1.4064 -15.6070 -2.4953 0.1573 0 8
-1.1558 -15.6275 -2.4953 0.1573 0 8
-0.9048 -15.6441 -2.4953 0.1573 0 8
-0.6537 -15.6566 -2.4953 0.1573 0 8
-0.4023 -15.6651 -2.4953 0.1573 0 8
-0.1509 -15.6695 -2.4953 0.1573 0 8
0.1006 -15.6699 -2.4953 0.1573 0 8
0.3520 -15.6663 -2.4953 0.1573 0 8
0.6034 -15.6586 -2.4953 0.1573 0 8
0.8546 -15.6469 -2.4953 0.1573 0 8
1.1056 -15.6312 -2.4953 0.1573 0 8
1.3563 -15.6114 -2.4953 0.1573 0 8
1.6067 -15.5876 -2.4953 0.1573 0 8
1.8566 -15.5598 -2.4953 0.1573 0 8
2.1061 -15.5281 -2.4953 0.1573 0 8
2.3550 -15.4923 -2.4953 0.1573 0 8
2.6033 -15.4525 -2.4953 0.1573 0 8
2.8509 -15.4087 -2.4953 0.1573 0 8
3.0978 -15.3610 -2.4953 0.1573 0 8
3.3440 -15.3093 -2.4953 0.1573 0 8
3.5892 -15.2536 -2.4953 0.1573 0 8
3.8335 -15.1941 -2.4953 0.1573 0 8
4.0769 -15.1306 -2.4953 0.1573 0 8
4.3192 -15.0632 -2.4953 0.1573 0 8
4.5603 -14.9920 -2.4953 0.1573 0 8
4.8003 -14.9169 -2.4953 0.1573 0 8
5.0391 -14.8379 -2.4953 0.1573 0 8
5.2766 -14.7551 -2.4953 0.1573 0 8
5.5127 -14.6686 -2.4953 0.1573 0 8
5.7473 -14.5782 -2.4953 0.1573 0 8
5.9806 -14.4841 -2.4953 0.1573 0 8
6.2122 -14.3862 -2.4953 0.1573 0 8
6.4423 -14.2847 -2.4953 0.1573 0 8
6.6707 -14.1795 -2.4953 0.1573 0 8
-10.7935 -10.2329 -2.4953 0.1655 0 8
-10.6279 -10.4048 -2.4953 0.1655 0 8
-10.4595 -10.5740 -2.4953 0.1655 0 8
-10.2885 -10.7405 -2.4953 0.1655 0 8
-10.1148 -10.9042 -2.4953 0.1655 0 8
-9.9385 -11.0651 -2.4953 0.1655 0 8
-9.7597 -11.2232 -2.4953 0.1655 0 8
-9.5783 -11.3784 -2.4953 0.1655 0 8
-9.3945 -11.5306 -2.4953 0.1655 0 8
-9.2082 -11.6799 -2.4953 0.1655 0 8
-9.0196 -11.8262 -2.4953 0.1655 0 8
-8.8287 -11.9694 -2.4953 0.1655 0 8
-8.6354 -12.1095 -2.4953 0.1655 0 8
-8.4400 -12.2465 -2.4953 0.1655 0 8
-8.2424 -12.3804 -2.4953 0.1655 0 8
-8.0426 -12.5111 -2.4953 0.1655 0 8
-7.8408 -12.6385 -2.4953 0.1655 0 8
-7.6370 -12.7627 -2.4953 0.1655 0 8
-7.4312 -12.8837 -2.4953 0.1655 0 8
-7.2235 -13.0013 -2.4953 0.1655 0 8
-7.0139 -13.1155 -2.4953 0.1655 0 8
-6.8025 -13.2264 -2.4953 0.1655 0 8
-6.5894 -13.3338 -2.4953 0.1655 0 8
-6.3746 -13.4379 -2.4953 0.1655 0 8
-6.1581 -13.5384 -2.4953 0.1655 0 8
-5.9401 -13.6355 -2.4953 0.1655 0 8
-5.7205 -13.7291 -2.4953 0.1655 0 8
-5.4994 -13.8191 -2.4953 0.1655 0 8
-5.2769 -13.9056 -2.4953 0.1655 0 8
-5.0531 -13.9885 -2.4953 0.1655 0 8
-4.8280 -14.0678 -2.4953 0.1655 0 8
-4.6016 -14.1434 -2.4953 0.1655 0 8
