ply
format ascii 1.0
element vertex 1384
property float32 x
property float32 y
property float32 z
property float32 CosAngle
property uint32 ObjIdx
property uint32 ObjTag
end_header
17.4286 -2.0016 -2.4953 0.1408 0 8
17.4584 -1.7217 -2.4953 0.1408 0 8
17.4838 -1.4413 -2.4953 0.1408 0 8
8.4710 -0.5617 -1.2075 0.3878 25 10
8.4306 -0.4232 -1.2007 0.4240 25 10
8.3968 -0.2865 -1.1950 0.4260 25 10
8.3791 -0.1514 -1.1920 0.4321 25 10
8.3613 -0.0169 -1.1893 0.4331 25 10
8.3746 0.1175 -1.1913 0.4323 25 10
8.3920 0.2525 -1.1942 0.4313 25 10
8.4222 0.3887 -1.1992 0.4245 25 10
8.4559 0.5264 -1.2051 0.4097 25 10
8.8401 0.6928 -1.2612 0.0993 25 10
17.4652 1.6512 -2.4953 0.1408 0 8
17.4365 1.9312 -2.4953 0.1408 0 8
17.4033 2.2108 -2.4953 0.1408 0 8
17.3656 2.4898 -2.4953 0.1408 0 8
17.3234 2.7681 -2.4953 0.1408 0 8
17.2767 3.0457 -2.4953 0.1408 0 8
17.2256 3.3226 -2.4953 0.1408 0 8
17.1701 3.5985 -2.4953 0.1408 0 8
17.1101 3.8736 -2.4953 0.1408 0 8
17.0458 4.1476 -2.4953 0.1408 0 8
16.9770 4.4206 -2.4953 0.1408 0 8
16.9039 4.6925 -2.4953 0.1408 0 8
16.8264 4.9631 -2.4953 0.1408 0 8
16.7446 5.2325 -2.4953 0.1408 0 8
16.6585 5.5005 -2.4953 0.1408 0 8
16.5681 5.7671 -2.4953 0.1408 0 8
16.4734 6.0322 -2.4953 0.1408 0 8
16.3745 6.2957 -2.4953 0.1408 0 8
16.2714 6.5577 -2.4953 0.1408 0 8
16.1641 6.8179 -2.4953 0.1408 0 8
16.0526 7.0764 -2.4953 0.1408 0 8
15.9370 7.3331 -2.4953 0.1408 0 8
15.8173 7.5879 -2.4953 0.1408 0 8
15.6935 7.8407 -2.4953 0.1408 0 8
15.5656 8.0915 -2.4953 0.1408 0 8
15.4338 8.3402 -2.4953 0.1408 0 8
16.2323 9.1113 -2.6477 0.1408 0 7
16.0840 9.3706 -2.6477 0.1408 0 7
15.9316 9.6274 -2.6477 0.1408 0 7
15.7750 9.8818 -2.6477 0.1408 0 7
15.6144 10.1337 -2.6477 0.1408 0 7
15.4498 10.3829 -2.6477 0.1408 0 7
15.2812 10.6295 -2.6477 0.1408 0 7
15.1087 10.8734 -2.6477 0.1408 0 7
14.9323 11.1144 -2.6477 0.1408 0 7
6.8930 -15.0518 -2.4953 0.1490 0 8
7.1337 -14.9392 -2.4953 0.1490 0 8
7.3725 -14.8228 -2.4953 0.1490 0 8
7.6094 -14.7026 -2.4953 0.1490 0 8
7.8443 -14.5786 -2.4953 0.1490 0 8
8.0772 -14.4509 -2.4953 0.1490 0 8
8.3081 -14.3194 -2.4953 0.1490 0 8
8.5368 -14.1842 -2.4953 0.1490 0 8
8.7633 -14.0454 -2.4953 0.1490 0 8
8.9875 -13.9030 -2.4953 0.1490 0 8
9.2095 -13.7570 -2.4953 0.1490 0 8
9.4290 -13.6074 -2.4953 0.1490 0 8
9.6462 -13.4544 -2.4953 0.1490 0 8
9.8608 -13.2979 -2.4953 0.1490 0 8
10.0729 -13.1379 -2.4953 0.1490 0 8
10.2824 -12.9746 -2.4953 0.1490 0 8
10.4893 -12.8080 -2.4953 0.1490 0 8
10.6935 -12.6380 -2.4953 0.1490 0 8
10.8949 -12.4648 -2.4953 0.1490 0 8
11.0935 -12.2883 -2.4953 0.1490 0 8
11.2893 -12.1088 -2.4953 0.1490 0 8
11.4821 -11.9261 -2.4953 0.1490 0 8
11.6720 -11.7403 -2.4953 0.1490 0 8
11.8589 -11.5515 -2.4953 0.1490 0 8
12.0427 -11.3597 -2.4953 0.1490 0 8
12.2234 -11.1650 -2.4953 0.1490 0 8
12.4010 -10.9674 -2.4953 0.1490 0 8
12.5754 -10.7670 -2.4953 0.1490 0 8
12.7466 -10.5638 -2.4953 0.1490 0 8
12.9144 -10.3579 -2.4953 0.1490 0 8
13.0790 -10.1494 -2.4953 0.1490 0 8
13.2401 -9.9382 -2.4953 0.1490 0 8
13.3979 -9.7245 -2.4953 0.1490 0 8
13.5522 -9.5082 -2.4953 0.1490 0 8
13.7030 -9.2896 -2.4953 0.1490 0 8
13.8503 -9.0685 -2.4953 0.1490 0 8
13.9941 -8.8451 -2.4953 0.1490 0 8
14.1342 -8.6194 -2.4953 0.1490 0 8
14.2707 -8.3915 -2.4953 0.1490 0 8
14.4035 -8.1614 -2.4953 0.1490 0 8
14.5326 -7.9292 -2.4953 0.1490 0 8
14.6580 -7.6950 -2.4953 0.1490 0 8
14.7796 -7.4588 -2.4953 0.1490 0 8
14.8973 -7.2207 -2.4953 0.1490 0 8
15.0113 -6.9807 -2.4953 0.1490 0 8
15.1214 -6.7389 -2.4953 0.1490 0 8
15.2276 -6.4954 -2.4953 0.1490 0 8
15.3298 -6.2503 -2.4953 0.1490 0 8
15.4281 -6.0035 -2.4953 0.1490 0 8
15.5225 -5.7551 -2.4953 0.1490 0 8
15.6128 -5.5053 -2.4953 0.1490 0 8
15.6992 -5.2541 -2.4953 0.1490 0 8
15.7815 -5.0015 -2.4953 0.1490 0 8
15.8597 -4.7476 -2.4953 0.1490 0 8
15.9338 -4.4925 -2.4953 0.1490 0 8
16.0039 -4.2363 -2.4953 0.1490 0 8
16.0698 -3.9789 -2.4953 0.1490 0 8
16.1315 -3.7206 -2.4953 0.1490 0 8
16.1892 -3.4612 -2.4953 0.1490 0 8
16.2426 -3.2010 -2.4953 0.1490 0 8
16.2919 -2.9400 -2.4953 0.1490 0 8
16.3370 -2.6782 -2.4953 0.1490 0 8
16.3778 -2.4157 -2.4953 0.1490 0 8
16.4145 -2.1526 -2.4953 0.1490 0 8
16.4469 -1.8889 -2.4953 0.1490 0 8
16.4751 -1.6247 -2.4953 0.1490 0 8
8.6086 -0.7097 -1.3019 0.1659 25 10
8.3351 -0.5526 -1.2591 0.4898 25 10
8.2982 -0.4166 -1.2523 0.5136 25 10
8.2618 -0.2819 -1.2460 0.5201 25 10
8.2468 -0.1490 -1.2432 0.5139 25 10
8.2328 -0.0166 -1.2409 0.5148 25 10
8.2433 0.1156 -1.2426 0.5141 25 10
8.2579 0.2484 -1.2452 0.5204 25 10
8.2891 0.3826 -1.2507 0.5143 25 10
8.3251 0.5182 -1.2572 0.5116 25 10
8.4342 0.6610 -1.2752 0.0868 25 10
16.4815 1.5582 -2.4953 0.1490 0 8
16.4544 1.8225 -2.4953 0.1490 0 8
16.4231 2.0863 -2.4953 0.1490 0 8
16.3875 2.3495 -2.4953 0.1490 0 8
16.3476 2.6122 -2.4953 0.1490 0 8
16.3036 2.8742 -2.4953 0.1490 0 8
16.2554 3.1354 -2.4953 0.1490 0 8
16.2030 3.3958 -2.4953 0.1490 0 8
16.1464 3.6554 -2.4953 0.1490 0 8
16.0857 3.9140 -2.4953 0.1490 0 8
16.0208 4.1716 -2.4953 0.1490 0 8
15.9518 4.4282 -2.4953 0.1490 0 8
15.8787 4.6836 -2.4953 0.1490 0 8
15.8015 4.9377 -2.4953 0.1490 0 8
15.7202 5.1907 -2.4953 0.1490 0 8
15.6349 5.4422 -2.4953 0.1490 0 8
15.5456 5.6924 -2.4953 0.1490 0 8
15.4522 5.9411 -2.4953 0.1490 0 8
15.3549 6.1883 -2.4953 0.1490 0 8
15.2537 6.4339 -2.4953 0.1490 0 8
15.1485 6.6778 -2.4953 0.1490 0 8
15.0393 6.9201 -2.4953 0.1490 0 8
14.9264 7.1605 -2.4953 0.1490 0 8
14.8095 7.3991 -2.4953 0.1490 0 8
14.6889 7.6358 -2.4953 0.1490 0 8
14.5645 7.8705 -2.4953 0.1490 0 8
14.4363 8.1032 -2.4953 0.1490 0 8
14.3044 8.3338 -2.4953 0.1490 0 8
15.0343 9.0852 -2.6477 0.1490 0 7
14.8865 9.3253 -2.6477 0.1490 0 7
14.7350 9.5629 -2.6477 0.1490 0 7
14.5796 9.7981 -2.6477 0.1490 0 7
14.4205 10.0308 -2.6477 0.1490 0 7
14.2577 10.2609 -2.6477 0.1490 0 7
14.0912 10.4884 -2.6477 0.1490 0 7
6.5246 -14.2473 -2.4953 0.1573 0 8
6.7524 -14.1408 -2.4953 0.1573 0 8
6.9784 -14.0306 -2.4953 0.1573 0 8
7.2027 -13.9168 -2.4953 0.1573 0 8
7.4251 -13.7994 -2.4953 0.1573 0 8
7.6455 -13.6785 -2.4953 0.1573 0 8
7.8640 -13.5541 -2.4953 0.1573 0 8
8.0805 -13.4261 -2.4953 0.1573 0 8
8.2949 -13.2947 -2.4953 0.1573 0 8
8.5072 -13.1599 -2.4953 0.1573 0 8
8.7173 -13.0217 -2.4953 0.1573 0 8
8.9251 -12.8802 -2.4953 0.1573 0 8
9.1306 -12.7353 -2.4953 0.1573 0 8
9.3338 -12.5872 -2.4953 0.1573 0 8
9.5346 -12.4362 -2.4953 0.1573 0 8
9.7329 -12.2812 -2.4953 0.1573 0 8
9.9287 -12.1234 -2.4953 0.1573 0 8
10.1219 -11.9625 -2.4953 0.1573 0 8
10.3126 -11.7986 -2.4953 0.1573 0 8
10.5006 -11.6316 -2.4953 0.1573 0 8
10.6859 -11.4616 -2.4953 0.1573 0 8
10.8684 -11.2886 -2.4953 0.1573 0 8
11.0482 -11.1128 -2.4953 0.1573 0 8
11.2251 -10.9341 -2.4953 0.1573 0 8
11.3991 -10.7526 -2.4953 0.1573 0 8
11.5701 -10.5683 -2.4953 0.1573 0 8
11.7382 -10.3812 -2.4953 0.1573 0 8
11.9033 -10.1915 -2.4953 0.1573 0 8
12.0653 -9.9992 -2.4953 0.1573 0 8
12.2242 -9.8043 -2.4953 0.1573 0 8
12.3799 -9.6069 -2.4953 0.1573 0 8
12.5325 -9.4070 -2.4953 0.1573 0 8
12.6818 -9.2047 -2.4953 0.1573 0 8
12.8279 -9.0001 -2.4953 0.1573 0 8
12.9707 -8.7931 -2.4953 0.1573 0 8
13.1101 -8.5838 -2.4953 0.1573 0 8
13.2468 -8.3832 -2.4953 0.1572 0 8
13.3788 -8.1587 -2.4953 0.1573 0 8
13.5080 -7.9430 -2.4953 0.1573 0 8
13.6337 -7.7252 -2.4953 0.1573 0 8
13.7559 -7.5054 -2.4953 0.1573 0 8
13.8745 -7.2837 -2.4953 0.1573 0 8
13.9896 -7.0602 -2.4953 0.1573 0 8
14.1011 -6.8348 -2.4953 0.1573 0 8
14.2090 -6.6076 -2.4953 0.1573 0 8
14.3132 -6.3788 -2.4953 0.1573 0 8
14.4137 -6.1483 -2.4953 0.1573 0 8
14.5105 -5.9162 -2.4953 0.1573 0 8
14.6036 -5.6826 -2.4953 0.1573 0 8
14.6929 -5.4475 -2.4953 0.1573 0 8
14.7784 -5.2111 -2.4953 0.1573 0 8
14.8601 -4.9733 -2.4953 0.1573 0 8
14.9380 -4.7342 -2.4953 0.1573 0 8
15.0120 -4.4939 -2.4953 0.1573 0 8
15.0822 -4.2524 -2.4953 0.1573 0 8
15.1485 -4.0099 -2.4953 0.1573 0 8
15.2109 -3.7663 -2.4953 0.1573 0 8
15.2694 -3.5217 -2.4953 0.1573 0 8
15.3239 -3.2762 -2.4953 0.1573 0 8
15.3745 -3.0299 -2.4953 0.1573 0 8
15.4211 -2.7828 -2.4953 0.1573 0 8
15.4638 -2.5350 -2.4953 0.1573 0 8
15.5025 -2.2866 -2.4953 0.1573 0 8
15.5372 -2.0375 -2.4953 0.1573 0 8
15.5679 -1.7879 -2.4953 0.1573 0 8
15.5946 -1.5379 -2.4953 0.1573 0 8
8.3482 -0.6882 -1.3338 0.3394 25 10
8.2111 -0.5444 -1.3104 0.5179 25 10
8.1751 -0.4104 -1.3034 0.5125 25 10
8.1407 -0.2778 -1.2971 0.5271 25 10
8.1259 -0.1468 -1.2941 0.5283 25 10
8.1105 -0.0164 -1.2915 0.5219 25 10
8.1221 0.1139 -1.2935 0.5286 25 10
8.1371 0.2448 -1.2963 0.5274 25 10
8.1658 0.3769 -1.3017 0.5132 25 10
8.2024 0.5106 -1.3087 0.5186 25 10
8.2836 0.6492 -1.3231 0.3422 25 10
15.6007 1.4749 -2.4953 0.1573 0 8
15.5750 1.7251 -2.4953 0.1573 0 8
15.5453 1.9748 -2.4953 0.1573 0 8
15.5116 2.2240 -2.4953 0.1573 0 8
15.4739 2.4726 -2.4953 0.1573 0 8
15.4323 2.7205 -2.4953 0.1573 0 8
15.3866 2.9678 -2.4953 0.1573 0 8
15.3370 3.2143 -2.4953 0.1573 0 8
15.2835 3.4600 -2.4953 0.1573 0 8
15.2260 3.7048 -2.4953 0.1573 0 8
15.1646 3.9487 -2.4953 0.1573 0 8
15.0992 4.1915 -2.4953 0.1573 0 8
15.0300 4.4332 -2.4953 0.1573 0 8
14.9570 4.6738 -2.4953 0.1573 0 8
14.8800 4.9132 -2.4953 0.1573 0 8
14.7993 5.1514 -2.4953 0.1573 0 8
14.7147 5.3882 -2.4953 0.1573 0 8
14.6264 5.6236 -2.4953 0.1573 0 8
14.5343 5.8576 -2.4953 0.1573 0 8
14.4384 6.0900 -2.4953 0.1573 0 8
14.3388 6.3209 -2.4953 0.1573 0 8
14.2355 6.5502 -2.4953 0.1573 0 8
14.1286 6.7778 -2.4953 0.1573 0 8
14.0180 7.0036 -2.4953 0.1573 0 8
13.9038 7.2277 -2.4953 0.1573 0 8
13.7861 7.4498 -2.4953 0.1573 0 8
13.6648 7.6701 -2.4953 0.1573 0 8
13.5399 7.8884 -2.4953 0.1573 0 8
13.4116 8.1046 -2.4953 0.1573 0 8
13.2798 8.3188 -2.4953 0.1573 0 8
13.9474 9.0518 -2.6477 0.1573 0 7
13.8004 9.2745 -2.6477 0.1573 0 7
13.6498 9.4947 -2.6477 0.1573 0 7
13.4957 9.7125 -2.6477 0.1573 0 7
13.3381 9.9278 -2.6477 0.1573 0 7
6.1928 -13.5226 -2.4953 0.1655 0 8
6.4090 -13.4215 -2.4953 0.1655 0 8
6.6235 -13.3169 -2.4953 0.1655 0 8
6.8363 -13.2089 -2.4953 0.1655 0 8
7.0474 -13.0975 -2.4953 0.1655 0 8
7.2567 -12.9828 -2.4953 0.1655 0 8
7.4641 -12.8647 -2.4953 0.1655 0 8
7.6695 -12.7432 -2.4953 0.1655 0 8
7.8730 -12.6185 -2.4953 0.1655 0 8
8.0745 -12.4906 -2.4953 0.1655 0 8
8.2739 -12.3594 -2.4953 0.1655 0 8
8.4711 -12.2250 -2.4953 0.1655 0 8
8.6662 -12.0875 -2.4953 0.1655 0 8
8.8590 -11.9469 -2.4953 0.1655 0 8
9.0496 -11.8032 -2.4953 0.1655 0 8
9.2378 -11.6565 -2.4953 0.1655 0 8
9.4237 -11.5068 -2.4953 0.1655 0 8
9.6071 -11.3541 -2.4953 0.1655 0 8
9.7881 -11.1985 -2.4953 0.1655 0 8
9.9665 -11.0399 -2.4953 0.1655 0 8
10.1424 -10.8786 -2.4953 0.1655 0 8
10.3156 -10.7145 -2.4953 0.1655 0 8
10.4862 -10.5476 -2.4953 0.1655 0 8
10.6541 -10.3779 -2.4953 0.1655 0 8
10.8193 -10.2056 -2.4953 0.1655 0 8
10.9816 -10.0307 -2.4953 0.1655 0 8
11.1412 -9.8532 -2.4953 0.1655 0 8
11.2978 -9.6732 -2.4953 0.1655 0 8
11.4516 -9.4906 -2.4953 0.1655 0 8
11.6024 -9.3057 -2.4953 0.1655 0 8
11.7503 -9.1183 -2.4953 0.1655 0 8
11.8951 -8.9286 -2.4953 0.1655 0 8
12.0368 -8.7366 -2.4953 0.1655 0 8
12.1754 -8.5423 -2.4953 0.1655 0 8
12.3109 -8.3458 -2.4953 0.1655 0 8
12.4433 -8.1472 -2.4953 0.1655 0 8
12.5724 -7.9465 -2.4953 0.1655 0 8
12.6983 -7.7437 -2.4953 0.1655 0 8
12.8209 -7.5390 -2.4953 0.1655 0 8
12.9402 -7.3323 -2.4953 0.1655 0 8
13.0562 -7.1237 -2.4953 0.1655 0 8
13.1688 -6.9133 -2.4953 0.1655 0 8
13.2781 -6.7011 -2.4953 0.1655 0 8
13.3839 -6.4871 -2.4953 0.1655 0 8
13.4863 -6.2715 -2.4953 0.1655 0 8
13.5852 -6.0543 -2.4953 0.1655 0 8
13.6806 -5.8356 -2.4953 0.1655 0 8
13.7724 -5.6153 -2.4953 0.1655 0 8
13.8608 -5.3936 -2.4953 0.1655 0 8
13.9455 -5.1705 -2.4953 0.1655 0 8
14.0267 -4.9460 -2.4953 0.1655 0 8
14.1043 -4.7203 -2.4953 0.1655 0 8
14.1782 -4.4934 -2.4953 0.1655 0 8
14.2485 -4.2653 -2.4953 0.1655 0 8
14.3151 -4.0361 -2.4953 0.1655 0 8
14.3780 -3.8059 -2.4953 0.1655 0 8
14.4372 -3.5747 -2.4953 0.1655 0 8
14.4927 -3.3426 -2.4953 0.1655 0 8
14.5445 -3.1096 -2.4953 0.1655 0 8
14.5925 -2.8758 -2.4953 0.1655 0 8
14.6368 -2.6413 -2.4953 0.1655 0 8
14.6773 -2.4061 -2.4953 0.1655 0 8
14.7140 -2.1703 -2.4953 0.1655 0 8
14.7469 -1.9339 -2.4953 0.1655 0 8
14.7761 -1.6970 -2.4953 0.1655 0 8
14.8014 -1.4597 -2.4953 0.1655 0 8
8.2091 -0.6768 -1.3819 0.3447 25 10
8.0592 -0.5344 -1.3551 0.3498 25 10
8.0133 -0.4023 -1.3461 0.3522 25 10
7.9657 -0.2718 -1.3372 0.3445 25 10
7.9465 -0.1436 -1.3334 0.3454 25 10
7.9335 -0.0160 -1.3310 0.3630 25 10
7.9416 0.1114 -1.3325 0.3457 25 10
7.9609 0.2395 -1.3362 0.3447 25 10
8.0017 0.3693 -1.3439 0.3527 25 10
8.0477 0.5010 -1.3528 0.3504 25 10
8.1467 0.6385 -1.3710 0.3474 25 10
8.6825 0.8209 -1.4632 0.0216 25 10
14.7828 1.6373 -2.4953 0.1655 0 8
14.7546 1.8743 -2.4953 0.1655 0 8
14.7226 2.1108 -2.4953 0.1655 0 8
14.6869 2.3468 -2.4953 0.1655 0 8
14.6473 2.5822 -2.4953 0.1655 0 8
14.6040 2.8169 -2.4953 0.1655 0 8
14.5569 3.0508 -2.4953 0.1655 0 8
14.5061 3.2840 -2.4953 0.1655 0 8
14.4515 3.5164 -2.4953 0.1655 0 8
14.3932 3.7478 -2.4953 0.1655 0 8
14.3313 3.9783 -2.4953 0.1655 0 8
14.2656 4.2078 -2.4953 0.1655 0 8
14.1962 4.4361 -2.4953 0.1655 0 8
14.1232 4.6633 -2.4953 0.1655 0 8
14.0466 4.8894 -2.4953 0.1655 0 8
13.9663 5.1141 -2.4953 0.1655 0 8
13.8824 5.3376 -2.4953 0.1655 0 8
13.7950 5.5596 -2.4953 0.1655 0 8
13.7040 5.7803 -2.4953 0.1655 0 8
13.6095 5.9994 -2.4953 0.1655 0 8
13.5115 6.2170 -2.4953 0.1655 0 8
13.4100 6.4330 -2.4953 0.1655 0 8
13.3050 6.6474 -2.4953 0.1655 0 8
13.1966 6.8600 -2.4953 0.1655 0 8
13.0849 7.0709 -2.4953 0.1655 0 8
12.9697 7.2800 -2.4953 0.1655 0 8
12.8512 7.4871 -2.4953 0.1655 0 8
12.7294 7.6924 -2.4953 0.1655 0 8
12.6044 7.8957 -2.4953 0.1655 0 8
12.4761 8.0969 -2.4953 0.1655 0 8
12.3445 8.2960 -2.4953 0.1655 0 8
12.9555 9.0118 -2.6477 0.1655 0 7
12.8093 9.2185 -2.6477 0.1655 0 7
12.6597 9.4229 -2.6477 0.1655 0 7
5.8922 -12.8664 -2.4953 0.1736 0 8
6.0979 -12.7702 -2.4953 0.1736 0 8
6.3021 -12.6707 -2.4953 0.1736 0 8
6.5046 -12.5679 -2.4953 0.1736 0 8
6.7054 -12.4619 -2.4953 0.1736 0 8
6.9045 -12.3527 -2.4953 0.1736 0 8
7.1018 -12.2403 -2.4953 0.1736 0 8
7.2973 -12.1248 -2.4953 0.1736 0 8
7.4909 -12.0062 -2.4953 0.1736 0 8
7.6826 -11.8844 -2.4953 0.1736 0 8
7.8723 -11.7596 -2.4953 0.1736 0 8
8.0600 -11.6318 -2.4953 0.1736 0 8
8.2456 -11.5009 -2.4953 0.1736 0 8
8.4291 -11.3671 -2.4953 0.1736 0 8
8.6104 -11.2304 -2.4953 0.1736 0 8
8.7895 -11.0908 -2.4953 0.1736 0 8
8.9663 -10.9484 -2.4953 0.1736 0 8
9.1409 -10.8031 -2.4953 0.1736 0 8
9.3130 -10.6550 -2.4953 0.1736 0 8
9.4828 -10.5042 -2.4953 0.1736 0 8
9.6502 -10.3507 -2.4953 0.1736 0 8
9.8150 -10.1945 -2.4953 0.1736 0 8
9.9773 -10.0357 -2.4953 0.1736 0 8
10.1371 -9.8743 -2.4953 0.1736 0 8
10.2942 -9.7104 -2.4953 0.1736 0 8
10.4487 -9.5439 -2.4953 0.1736 0 8
10.6005 -9.3750 -2.4953 0.1736 0 8
10.7496 -9.2037 -2.4953 0.1736 0 8
10.8959 -9.0301 -2.4953 0.1736 0 8
11.0394 -8.8541 -2.4953 0.1736 0 8
11.1800 -8.6758 -2.4953 0.1736 0 8
11.3178 -8.4953 -2.4953 0.1736 0 8
11.4526 -8.3126 -2.4953 0.1736 0 8
11.5846 -8.1277 -2.4953 0.1736 0 8
11.7135 -7.9408 -2.4953 0.1736 0 8
11.8394 -7.7518 -2.4953 0.1736 0 8
11.9622 -7.5608 -2.4953 0.1736 0 8
12.0820 -7.3679 -2.4953 0.1736 0 8
12.1987 -7.1731 -2.4953 0.1736 0 8
12.3122 -6.9764 -2.4953 0.1736 0 8
12.4226 -6.7780 -2.4953 0.1736 0 8
12.5298 -6.5778 -2.4953 0.1736 0 8
12.6337 -6.3759 -2.4953 0.1736 0 8
12.7344 -6.1723 -2.4953 0.1736 0 8
12.8318 -5.9672 -2.4953 0.1736 0 8
12.9259 -5.7605 -2.4953 0.1736 0 8
13.0166 -5.5524 -2.4953 0.1736 0 8
13.1041 -5.3428 -2.4953 0.1736 0 8
13.1881 -5.1318 -2.4953 0.1736 0 8
13.2688 -4.9195 -2.4953 0.1736 0 8
13.3460 -4.7060 -2.4953 0.1736 0 8
13.4198 -4.4912 -2.4953 0.1736 0 8
13.4901 -4.2753 -2.4953 0.1736 0 8
13.5570 -4.0583 -2.4953 0.1736 0 8
13.6204 -3.8403 -2.4953 0.1736 0 8
13.6802 -3.6212 -2.4953 0.1736 0 8
13.7366 -3.4012 -2.4953 0.1736 0 8
13.7894 -3.1804 -2.4953 0.1736 0 8
13.8386 -2.9587 -2.4953 0.1736 0 8
13.8843 -2.7363 -2.4953 0.1736 0 8
13.9265 -2.5131 -2.4953 0.1736 0 8
13.9650 -2.2893 -2.4953 0.1736 0 8
13.9999 -2.0649 -2.4953 0.1736 0 8
14.0313 -1.8400 -2.4953 0.1736 0 8
14.0590 -1.6146 -2.4953 0.1736 0 8
8.4415 -0.8325 -1.4957 0.0862 25 10
8.0470 -0.6634 -1.4237 0.3631 25 10
7.8759 -0.5222 -1.3918 0.3527 25 10
7.8262 -0.3929 -1.3817 0.3417 25 10
7.7787 -0.2655 -1.3724 0.3522 25 10
7.7669 -0.1403 -1.3697 0.3702 25 10
7.7570 -0.0157 -1.3678 0.3707 25 10
7.7645 0.1089 -1.3692 0.3703 25 10
7.7743 0.2339 -1.3714 0.3525 25 10
7.8119 0.3606 -1.3789 0.3423 25 10
7.8640 0.4895 -1.3893 0.3581 25 10
7.9978 0.6268 -1.4146 0.3654 25 10
8.2594 0.7809 -1.4628 0.3417 25 10
14.0654 1.5579 -2.4953 0.1736 0 8
14.0386 1.7834 -2.4953 0.1736 0 8
14.0081 2.0084 -2.4953 0.1736 0 8
13.9741 2.2329 -2.4953 0.1736 0 8
13.9365 2.4569 -2.4953 0.1736 0 8
13.8953 2.6802 -2.4953 0.1736 0 8
13.8505 2.9028 -2.4953 0.1736 0 8
13.8021 3.1247 -2.4953 0.1736 0 8
13.7502 3.3457 -2.4953 0.1736 0 8
13.6947 3.5659 -2.4953 0.1736 0 8
13.6358 3.7852 -2.4953 0.1736 0 8
13.5733 4.0035 -2.4953 0.1736 0 8
13.5073 4.2208 -2.4953 0.1736 0 8
13.4378 4.4370 -2.4953 0.1736 0 8
13.3649 4.6521 -2.4953 0.1736 0 8
13.2885 4.8659 -2.4953 0.1736 0 8
13.2087 5.0785 -2.4953 0.1736 0 8
13.1255 5.2898 -2.4953 0.1736 0 8
13.0390 5.4998 -2.4953 0.1736 0 8
12.9490 5.7083 -2.4953 0.1736 0 8
12.8558 5.9153 -2.4953 0.1736 0 8
12.7592 6.1209 -2.4953 0.1736 0 8
12.6593 6.3248 -2.4953 0.1736 0 8
12.5562 6.5271 -2.4953 0.1736 0 8
12.4499 6.7278 -2.4953 0.1736 0 8
12.3403 6.9267 -2.4953 0.1736 0 8
12.2276 7.1238 -2.4953 0.1736 0 8
12.1117 7.3191 -2.4953 0.1736 0 8
11.9927 7.5125 -2.4953 0.1736 0 8
11.8706 7.7040 -2.4953 0.1736 0 8
11.7454 7.8934 -2.4953 0.1736 0 8
11.6173 8.0809 -2.4953 0.1736 0 8
11.4861 8.2663 -2.4953 0.1736 0 8
11.3520 8.4495 -2.4953 0.1736 0 8
5.6188 -12.2692 -2.4953 0.1818 0 8
5.8149 -12.1775 -2.4953 0.1818 0 8
6.0096 -12.0826 -2.4953 0.1818 0 8
6.2027 -11.9846 -2.4953 0.1818 0 8
6.3942 -11.8835 -2.4953 0.1818 0 8
6.5840 -11.7794 -2.4953 0.1818 0 8
6.7722 -11.6722 -2.4953 0.1818 0 8
6.9586 -11.5621 -2.4953 0.1818 0 8
7.1433 -11.4489 -2.4953 0.1818 0 8
7.3260 -11.3328 -2.4953 0.1818 0 8
7.5070 -11.2138 -2.4953 0.1818 0 8
7.6859 -11.0919 -2.4953 0.1818 0 8
7.8629 -10.9671 -2.4953 0.1818 0 8
8.0379 -10.8396 -2.4953 0.1818 0 8
8.2108 -10.7092 -2.4953 0.1818 0 8
8.3816 -10.5761 -2.4953 0.1818 0 8
8.5502 -10.4402 -2.4953 0.1818 0 8
8.7166 -10.3017 -2.4953 0.1818 0 8
8.8808 -10.1605 -2.4953 0.1818 0 8
9.0427 -10.0167 -2.4953 0.1818 0 8
9.2023 -9.8703 -2.4953 0.1818 0 8
9.3594 -9.7213 -2.4953 0.1818 0 8
9.5142 -9.5699 -2.4953 0.1818 0 8
9.6666 -9.4160 -2.4953 0.1818 0 8
9.8164 -9.2597 -2.4953 0.1818 0 8
9.9637 -9.1010 -2.4953 0.1818 0 8
10.1085 -8.9399 -2.4953 0.1818 0 8
10.2506 -8.7766 -2.4953 0.1818 0 8
10.3901 -8.6109 -2.4953 0.1818 0 8
10.5270 -8.4431 -2.4953 0.1818 0 8
10.6611 -8.2731 -2.4953 0.1818 0 8
10.7925 -8.1010 -2.4953 0.1818 0 8
10.9211 -7.9268 -2.4953 0.1818 0 8
11.0469 -7.7505 -2.4953 0.1818 0 8
11.1698 -7.5722 -2.4953 0.1818 0 8
11.2899 -7.3920 -2.4953 0.1818 0 8
11.4070 -7.2099 -2.4953 0.1818 0 8
11.5213 -7.0260 -2.4953 0.1818 0 8
11.6325 -6.8402 -2.4953 0.1818 0 8
11.7408 -6.6526 -2.4953 0.1818 0 8
11.8460 -6.4634 -2.4953 0.1818 0 8
11.9482 -6.2725 -2.4953 0.1818 0 8
12.0473 -6.0799 -2.4953 0.1818 0 8
12.1433 -5.8858 -2.4953 0.1818 0 8
12.2362 -5.6902 -2.4953 0.1818 0 8
12.3259 -5.4931 -2.4953 0.1818 0 8
12.4125 -5.2947 -2.4953 0.1818 0 8
12.4959 -5.0948 -2.4953 0.1818 0 8
12.5760 -4.8936 -2.4953 0.1818 0 8
12.6529 -4.6912 -2.4953 0.1818 0 8
12.7266 -4.4876 -2.4953 0.1818 0 8
12.7969 -4.2828 -2.4953 0.1818 0 8
12.8640 -4.0769 -2.4953 0.1818 0 8
12.9278 -3.8700 -2.4953 0.1818 0 8
12.9882 -3.6620 -2.4953 0.1818 0 8
13.0453 -3.4531 -2.4953 0.1818 0 8
13.0990 -3.2434 -2.4953 0.1818 0 8
13.1494 -3.0328 -2.4953 0.1818 0 8
13.1963 -2.8214 -2.4953 0.1818 0 8
13.2399 -2.6093 -2.4953 0.1818 0 8
13.2801 -2.3965 -2.4953 0.1818 0 8
13.3168 -2.1831 -2.4953 0.1818 0 8
13.3501 -1.9691 -2.4953 0.1818 0 8
13.3800 -1.7546 -2.4953 0.1818 0 8
13.4065 -1.5397 -2.4953 0.1818 0 8
8.1687 -0.8056 -1.5178 0.2650 25 10
7.9051 -0.6517 -1.4667 0.3691 25 10
7.7388 -0.5131 -1.4341 0.7126 25 10
7.6948 -0.3863 -1.4246 0.9179 25 10
7.6624 -0.2615 -1.4177 0.9855 25 10
7.6492 -0.1382 -1.4146 0.9877 25 10
7.6361 -0.0154 -1.4120 0.9968 25 10
7.6459 0.1073 -1.4139 0.9881 25 10
7.6591 0.2304 -1.4169 0.9861 25 10
7.6842 0.3547 -1.4224 0.9194 25 10
7.7265 0.4810 -1.4315 0.9135 25 10
7.8576 0.6158 -1.4574 0.3714 25 10
8.0899 0.7648 -1.5026 0.2677 25 10
13.4126 1.4856 -2.4953 0.1818 0 8
13.3870 1.7006 -2.4953 0.1818 0 8
13.3580 1.9152 -2.4953 0.1818 0 8
13.3255 2.1293 -2.4953 0.1818 0 8
13.2896 2.3428 -2.4953 0.1818 0 8
13.2503 2.5558 -2.4953 0.1818 0 8
13.2076 2.7681 -2.4953 0.1818 0 8
13.1615 2.9796 -2.4953 0.1818 0 8
13.1120 3.1905 -2.4953 0.1818 0 8
13.0591 3.4004 -2.4953 0.1818 0 8
13.0029 3.6095 -2.4953 0.1818 0 8
12.9433 3.8177 -2.4953 0.1818 0 8
12.8804 4.0249 -2.4953 0.1818 0 8
12.8141 4.2311 -2.4953 0.1818 0 8
12.7446 4.4362 -2.4953 0.1818 0 8
12.6717 4.6401 -2.4953 0.1818 0 8
12.5957 4.8428 -2.4953 0.1818 0 8
12.5163 5.0443 -2.4953 0.1818 0 8
12.4338 5.2445 -2.4953 0.1818 0 8
12.3480 5.4433 -2.4953 0.1818 0 8
12.2591 5.6408 -2.4953 0.1818 0 8
12.1670 5.8368 -2.4953 0.1818 0 8
12.0718 6.0312 -2.4953 0.1818 0 8
11.9734 6.2242 -2.4953 0.1818 0 8
11.8720 6.4155 -2.4953 0.1818 0 8
11.7675 6.6052 -2.4953 0.1818 0 8
11.6600 6.7932 -2.4953 0.1818 0 8
11.5495 6.9794 -2.4953 0.1818 0 8
11.4361 7.1638 -2.4953 0.1818 0 8
11.3196 7.3464 -2.4953 0.1818 0 8
11.2003 7.5271 -2.4953 0.1818 0 8
11.0781 7.7058 -2.4953 0.1818 0 8
10.9530 7.8826 -2.4953 0.1818 0 8
10.8251 8.0573 -2.4953 0.1818 0 8
5.3688 -11.7234 -2.4953 0.1900 0 8
5.5562 -11.6357 -2.4953 0.1900 0 8
5.7422 -11.5451 -2.4953 0.1900 0 8
5.9267 -11.4515 -2.4953 0.1900 0 8
6.1097 -11.3549 -2.4953 0.1900 0 8
6.2911 -11.2554 -2.4953 0.1900 0 8
6.4709 -11.1530 -2.4953 0.1900 0 8
6.6491 -11.0477 -2.4953 0.1900 0 8
6.8255 -10.9396 -2.4953 0.1900 0 8
7.0001 -10.8287 -2.4953 0.1900 0 8
7.1730 -10.7149 -2.4953 0.1900 0 8
7.3440 -10.5985 -2.4953 0.1900 0 8
7.5131 -10.4793 -2.4953 0.1900 0 8
7.6803 -10.3574 -2.4953 0.1900 0 8
7.8455 -10.2328 -2.4953 0.1900 0 8
8.0087 -10.1056 -2.4953 0.1900 0 8
8.1698 -9.9758 -2.4953 0.1900 0 8
8.3289 -9.8434 -2.4953 0.1900 0 8
8.4857 -9.7085 -2.4953 0.1900 0 8
8.6404 -9.5710 -2.4953 0.1900 0 8
8.7929 -9.4312 -2.4953 0.1900 0 8
8.9431 -9.2889 -2.4953 0.1900 0 8
9.0910 -9.1442 -2.4953 0.1900 0 8
9.2366 -8.9971 -2.4953 0.1900 0 8
9.3797 -8.8478 -2.4953 0.1900 0 8
9.5205 -8.6961 -2.4953 0.1900 0 8
9.6588 -8.5422 -2.4953 0.1900 0 8
9.7946 -8.3861 -2.4953 0.1900 0 8
9.9279 -8.2279 -2.4953 0.1900 0 8
10.0587 -8.0675 -2.4953 0.1900 0 8
10.1868 -7.9051 -2.4953 0.1900 0 8
10.3124 -7.7406 -2.4953 0.1900 0 8
10.4353 -7.5741 -2.4953 0.1900 0 8
10.5554 -7.4057 -2.4953 0.1900 0 8
10.6729 -7.2354 -2.4953 0.1900 0 8
10.7876 -7.0632 -2.4953 0.1900 0 8
10.8996 -6.8892 -2.4953 0.1900 0 8
11.0087 -6.7134 -2.4953 0.1900 0 8
11.1150 -6.5359 -2.4953 0.1900 0 8
11.2185 -6.3567 -2.4953 0.1900 0 8
11.3190 -6.1759 -2.4953 0.1900 0 8
11.4167 -5.9934 -2.4953 0.1900 0 8
11.5114 -5.8095 -2.4953 0.1900 0 8
11.6031 -5.6240 -2.4953 0.1900 0 8
11.6919 -5.4371 -2.4953 0.1900 0 8
11.7776 -5.2488 -2.4953 0.1900 0 8
11.8603 -5.0591 -2.4953 0.1900 0 8
11.9400 -4.8682 -2.4953 0.1900 0 8
12.0166 -4.6759 -2.4953 0.1900 0 8
12.0900 -4.4825 -2.4953 0.1900 0 8
12.1604 -4.2879 -2.4953 0.1900 0 8
12.2276 -4.0923 -2.4953 0.1900 0 8
12.2917 -3.8955 -2.4953 0.1900 0 8
12.3527 -3.6978 -2.4953 0.1900 0 8
12.4104 -3.4991 -2.4953 0.1900 0 8
12.4650 -3.2995 -2.4953 0.1900 0 8
12.5163 -3.0991 -2.4953 0.1900 0 8
12.5644 -2.8978 -2.4953 0.1900 0 8
12.6093 -2.6959 -2.4953 0.1900 0 8
12.6509 -2.4932 -2.4953 0.1900 0 8
12.6893 -2.2899 -2.4953 0.1900 0 8
12.7244 -2.0859 -2.4953 0.1900 0 8
12.7562 -1.8815 -2.4953 0.1900 0 8
12.7848 -1.6766 -2.4953 0.1900 0 8
12.8101 -1.4712 -2.4953 0.1900 0 8
8.0155 -0.7905 -1.5587 0.1872 25 10
7.8076 -0.6437 -1.5160 0.7043 25 10
7.7160 -0.5116 -1.4965 0.8764 25 10
7.6723 -0.3852 -1.4866 0.9192 25 10
7.6445 -0.2609 -1.4802 0.9863 25 10
7.6315 -0.1379 -1.4771 0.9884 25 10
7.6210 -0.0154 -1.4748 0.9972 25 10
7.6282 0.1070 -1.4763 0.9889 25 10
7.6413 0.2299 -1.4794 0.9868 25 10
7.6618 0.3536 -1.4843 0.9206 25 10
7.7038 0.4796 -1.4937 0.9148 25 10
7.7812 0.6099 -1.5104 0.7070 25 10
7.9089 0.7477 -1.5373 0.2734 25 10
12.8159 1.4195 -2.4953 0.1900 0 8
12.7915 1.6249 -2.4953 0.1900 0 8
12.7637 1.8300 -2.4953 0.1900 0 8
12.7327 2.0346 -2.4953 0.1900 0 8
12.6985 2.2386 -2.4953 0.1900 0 8
12.6609 2.4421 -2.4953 0.1900 0 8
12.6201 2.6449 -2.4953 0.1900 0 8
12.5760 2.8471 -2.4953 0.1900 0 8
12.5287 3.0485 -2.4953 0.1900 0 8
12.4782 3.2492 -2.4953 0.1900 0 8
12.4244 3.4490 -2.4953 0.1900 0 8
12.3675 3.6479 -2.4953 0.1900 0 8
12.3074 3.8459 -2.4953 0.1900 0 8
12.2441 4.0429 -2.4953 0.1900 0 8
12.1776 4.2388 -2.4953 0.1900 0 8
12.1080 4.4337 -2.4953 0.1900 0 8
12.0353 4.6274 -2.4953 0.1900 0 8
11.9595 4.8199 -2.4953 0.1900 0 8
11.8807 5.0112 -2.4953 0.1900 0 8
11.7987 5.2012 -2.4953 0.1900 0 8
11.7137 5.3898 -2.4953 0.1900 0 8
11.6257 5.5771 -2.4953 0.1900 0 8
11.5348 5.7629 -2.4953 0.1900 0 8
11.4408 5.9473 -2.4953 0.1900 0 8
11.3439 6.1301 -2.4953 0.1900 0 8
11.2441 6.3113 -2.4953 0.1900 0 8
11.1413 6.4910 -2.4953 0.1900 0 8
11.0358 6.6689 -2.4953 0.1900 0 8
10.9273 6.8451 -2.4953 0.1900 0 8
10.8161 7.0196 -2.4953 0.1900 0 8
10.7020 7.1922 -2.4953 0.1900 0 8
10.5853 7.3630 -2.4953 0.1900 0 8
10.4658 7.5319 -2.4953 0.1900 0 8
10.3435 7.6989 -2.4953 0.1900 0 8
5.1394 -11.2225 -2.4953 0.1981 0 8
5.3189 -11.1386 -2.4953 0.1981 0 8
5.4969 -11.0519 -2.4953 0.1981 0 8
5.6735 -10.9622 -2.4953 0.1981 0 8
5.8487 -10.8698 -2.4953 0.1981 0 8
6.0224 -10.7745 -2.4953 0.1981 0 8
6.1945 -10.6765 -2.4953 0.1981 0 8
6.3650 -10.5757 -2.4953 0.1981 0 8
6.5339 -10.4722 -2.4953 0.1981 0 8
6.7011 -10.3660 -2.4953 0.1981 0 8
6.8666 -10.2572 -2.4953 0.1981 0 8
7.0303 -10.1457 -2.4953 0.1981 0 8
7.1922 -10.0316 -2.4953 0.1981 0 8
7.3522 -9.9149 -2.4953 0.1981 0 8
7.5103 -9.7956 -2.4953 0.1981 0 8
7.6666 -9.6738 -2.4953 0.1981 0 8
7.8208 -9.5496 -2.4953 0.1981 0 8
7.9730 -9.4229 -2.4953 0.1981 0 8
8.1232 -9.2937 -2.4953 0.1981 0 8
8.2713 -9.1622 -2.4953 0.1981 0 8
8.4172 -9.0283 -2.4953 0.1981 0 8
8.5610 -8.8920 -2.4953 0.1981 0 8
8.7026 -8.7535 -2.4953 0.1981 0 8
8.8419 -8.6127 -2.4953 0.1981 0 8
8.9790 -8.4698 -2.4953 0.1981 0 8
9.1138 -8.3246 -2.4953 0.1981 0 8
9.2462 -8.1773 -2.4953 0.1981 0 8
9.3762 -8.0279 -2.4953 0.1981 0 8
9.5038 -7.8764 -2.4953 0.1981 0 8
9.6290 -7.7229 -2.4953 0.1981 0 8
9.7516 -7.5674 -2.4953 0.1981 0 8
9.8718 -7.4099 -2.4953 0.1981 0 8
9.9894 -7.2505 -2.4953 0.1981 0 8
10.1045 -7.0893 -2.4953 0.1981 0 8
10.2170 -6.9263 -2.4953 0.1981 0 8
10.3268 -6.7614 -2.4953 0.1981 0 8
10.4339 -6.5949 -2.4953 0.1981 0 8
10.5384 -6.4266 -2.4953 0.1981 0 8
10.6402 -6.2567 -2.4953 0.1981 0 8
10.7392 -6.0851 -2.4953 0.1981 0 8
10.8355 -5.9120 -2.4953 0.1981 0 8
10.9289 -5.7374 -2.4953 0.1981 0 8
11.0196 -5.5613 -2.4953 0.1981 0 8
11.1074 -5.3837 -2.4953 0.1981 0 8
11.1924 -5.2048 -2.4953 0.1981 0 8
11.2745 -5.0245 -2.4953 0.1981 0 8
11.3536 -4.8430 -2.4953 0.1981 0 8
11.4299 -4.6602 -2.4953 0.1981 0 8
11.5032 -4.4762 -2.4953 0.1981 0 8
11.5735 -4.2910 -2.4953 0.1981 0 8
11.6409 -4.1048 -2.4953 0.1981 0 8
11.7053 -3.9174 -2.4953 0.1981 0 8
11.7666 -3.7291 -2.4953 0.1981 0 8
11.8249 -3.5398 -2.4953 0.1981 0 8
11.8802 -3.3496 -2.4953 0.1981 0 8
11.9324 -3.1586 -2.4953 0.1981 0 8
11.9816 -2.9667 -2.4953 0.1981 0 8
12.0276 -2.7740 -2.4953 0.1981 0 8
12.0706 -2.5807 -2.4953 0.1981 0 8
12.1105 -2.3867 -2.4953 0.1981 0 8
12.1472 -2.1920 -2.4953 0.1981 0 8
12.1808 -1.9968 -2.4953 0.1981 0 8
12.2113 -1.8011 -2.4953 0.1981 0 8
12.2386 -1.6049 -2.4953 0.1981 0 8
12.2628 -1.4084 -2.4953 0.1981 0 8
7.9739 -0.7864 -1.6198 0.1879 25 10
7.7717 -0.6407 -1.5764 0.7064 25 10
7.6937 -0.5101 -1.5587 0.8775 25 10
7.6499 -0.3840 -1.5484 0.9204 25 10
7.6267 -0.2603 -1.5427 0.9870 25 10
7.6137 -0.1376 -1.5394 0.9891 25 10
7.6059 -0.0154 -1.5376 0.9975 25 10
7.6110 0.1068 -1.5388 0.9967 25 10
7.6235 0.2293 -1.5418 0.9875 25 10
7.6413 0.3527 -1.5464 0.9669 25 10
7.6812 0.4781 -1.5558 0.9160 25 10
7.7455 0.6071 -1.5706 0.7090 25 10
7.8506 0.7422 -1.5941 0.6986 25 10
12.2684 1.3588 -2.4953 0.1981 0 8
12.2450 1.5555 -2.4953 0.1981 0 8
12.2185 1.7518 -2.4953 0.1981 0 8
12.1888 1.9476 -2.4953 0.1981 0 8
12.1559 2.1430 -2.4953 0.1981 0 8
12.1200 2.3378 -2.4953 0.1981 0 8
12.0809 2.5319 -2.4953 0.1981 0 8
12.0387 2.7255 -2.4953 0.1981 0 8
11.9935 2.9183 -2.4953 0.1981 0 8
11.9451 3.1104 -2.4953 0.1981 0 8
11.8936 3.3016 -2.4953 0.1981 0 8
11.8391 3.4920 -2.4953 0.1981 0 8
11.7816 3.6816 -2.4953 0.1981 0 8
11.7210 3.8701 -2.4953 0.1981 0 8
11.6574 4.0577 -2.4953 0.1981 0 8
11.5908 4.2443 -2.4953 0.1981 0 8
11.5212 4.4297 -2.4953 0.1981 0 8
11.4486 4.6140 -2.4953 0.1981 0 8
11.3731 4.7971 -2.4953 0.1981 0 8
11.2946 4.9790 -2.4953 0.1981 0 8
11.2133 5.1596 -2.4953 0.1981 0 8
11.1291 5.3388 -2.4953 0.1981 0 8
11.0420 5.5167 -2.4953 0.1981 0 8
10.9520 5.6932 -2.4953 0.1981 0 8
10.8593 5.8682 -2.4953 0.1981 0 8
10.7637 6.0417 -2.4953 0.1981 0 8
10.6654 6.2136 -2.4953 0.1981 0 8
10.5643 6.3840 -2.4953 0.1981 0 8
10.4605 6.5527 -2.4953 0.1981 0 8
10.3540 6.7197 -2.4953 0.1981 0 8
10.2448 6.8850 -2.4953 0.1981 0 8
10.1330 7.0485 -2.4953 0.1981 0 8
10.0186 7.2102 -2.4953 0.1981 0 8
9.9016 7.3700 -2.4953 0.1981 0 8
4.9282 -10.7613 -2.4953 0.2063 0 8
5.1002 -10.6808 -2.4953 0.2063 0 8
5.2710 -10.5976 -2.4953 0.2063 0 8
5.4403 -10.5116 -2.4953 0.2063 0 8
5.6083 -10.4230 -2.4953 0.2063 0 8
5.7748 -10.3317 -2.4953 0.2063 0 8
5.9399 -10.2377 -2.4953 0.2063 0 8
6.1034 -10.1410 -2.4953 0.2063 0 8
6.2653 -10.0418 -2.4953 0.2063 0 8
6.4257 -9.9400 -2.4953 0.2063 0 8
6.5843 -9.8356 -2.4953 0.2063 0 8
6.7413 -9.7287 -2.4953 0.2063 0 8
6.8965 -9.6192 -2.4953 0.2063 0 8
7.0500 -9.5073 -2.4953 0.2063 0 8
7.2016 -9.3930 -2.4953 0.2063 0 8
7.3514 -9.2762 -2.4953 0.2063 0 8
7.4993 -9.1571 -2.4953 0.2063 0 8
7.6453 -9.0355 -2.4953 0.2063 0 8
7.7893 -8.9117 -2.4953 0.2063 0 8
7.9313 -8.7856 -2.4953 0.2063 0 8
8.0713 -8.6572 -2.4953 0.2063 0 8
8.2091 -8.5265 -2.4953 0.2063 0 8
8.3449 -8.3937 -2.4953 0.2063 0 8
8.4785 -8.2587 -2.4953 0.2063 0 8
8.6099 -8.1216 -2.4953 0.2063 0 8
8.7392 -7.9824 -2.4953 0.2063 0 8
8.8661 -7.8412 -2.4953 0.2063 0 8
8.9908 -7.6979 -2.4953 0.2063 0 8
9.1132 -7.5526 -2.4953 0.2063 0 8
9.2332 -7.4054 -2.4953 0.2063 0 8
9.3508 -7.2563 -2.4953 0.2063 0 8
9.4661 -7.1053 -2.4953 0.2063 0 8
9.5788 -6.9525 -2.4953 0.2063 0 8
9.6892 -6.7979 -2.4953 0.2063 0 8
9.7970 -6.6416 -2.4953 0.2063 0 8
9.9023 -6.4835 -2.4953 0.2063 0 8
10.0051 -6.3238 -2.4953 0.2063 0 8
10.1053 -6.1624 -2.4953 0.2063 0 8
10.2028 -5.9995 -2.4953 0.2063 0 8
10.2978 -5.8350 -2.4953 0.2063 0 8
10.3901 -5.6690 -2.4953 0.2063 0 8
10.4797 -5.5016 -2.4953 0.2063 0 8
10.5667 -5.3327 -2.4953 0.2063 0 8
10.6509 -5.1624 -2.4953 0.2063 0 8
10.7323 -4.9909 -2.4953 0.2063 0 8
10.8110 -4.8180 -2.4953 0.2063 0 8
10.8870 -4.6439 -2.4953 0.2063 0 8
10.9601 -4.4686 -2.4953 0.2063 0 8
11.0304 -4.2922 -2.4953 0.2063 0 8
11.0978 -4.1146 -2.4953 0.2063 0 8
11.1624 -3.9360 -2.4953 0.2063 0 8
11.2241 -3.7564 -2.4953 0.2063 0 8
11.2830 -3.5758 -2.4953 0.2063 0 8
11.3389 -3.3943 -2.4953 0.2063 0 8
11.3919 -3.2119 -2.4953 0.2063 0 8
11.4420 -3.0287 -2.4953 0.2063 0 8
11.4891 -2.8447 -2.4953 0.2063 0 8
11.5333 -2.6600 -2.4953 0.2063 0 8
11.5745 -2.4746 -2.4953 0.2063 0 8
11.6127 -2.2886 -2.4953 0.2063 0 8
11.6479 -2.1019 -2.4953 0.2063 0 8
11.6801 -1.9148 -2.4953 0.2063 0 8
11.7094 -1.7271 -2.4953 0.2063 0 8
11.7356 -1.5390 -2.4953 0.2063 0 8
11.7587 -1.3505 -2.4953 0.2063 0 8
7.9327 -0.7823 -1.6805 0.1885 25 10
7.7360 -0.6377 -1.6364 0.7085 25 10
7.6714 -0.5086 -1.6208 0.8785 25 10
7.6294 -0.3830 -1.6104 0.9665 25 10
7.6090 -0.2597 -1.6051 0.9876 25 10
7.5976 -0.1373 -1.6020 0.9967 25 10
7.5907 -0.0153 -1.6003 0.9978 25 10
7.5959 0.1066 -1.6015 0.9970 25 10
7.6057 0.2288 -1.6042 0.9881 25 10
7.6232 0.3518 -1.6088 0.9675 25 10
7.6586 0.4767 -1.6177 0.9171 25 10
7.7130 0.6045 -1.6310 0.8730 25 10
7.8302 0.7403 -1.6581 0.3055 25 10
11.7641 1.3030 -2.4953 0.2063 0 8
11.7417 1.4916 -2.4953 0.2063 0 8
11.7162 1.6798 -2.4953 0.2063 0 8
11.6878 1.8676 -2.4953 0.2063 0 8
11.6563 2.0549 -2.4953 0.2063 0 8
11.6218 2.2417 -2.4953 0.2063 0 8
11.5844 2.4279 -2.4953 0.2063 0 8
11.5439 2.6134 -2.4953 0.2063 0 8
11.5005 2.7983 -2.4953 0.2063 0 8
11.4541 2.9825 -2.4953 0.2063 0 8
11.4048 3.1659 -2.4953 0.2063 0 8
11.3525 3.3485 -2.4953 0.2063 0 8
11.2973 3.5302 -2.4953 0.2063 0 8
11.2392 3.7111 -2.4953 0.2063 0 8
11.1782 3.8909 -2.4953 0.2063 0 8
11.1143 4.0698 -2.4953 0.2063 0 8
11.0476 4.2476 -2.4953 0.2063 0 8
10.9780 4.4243 -2.4953 0.2063 0 8
10.9056 4.5999 -2.4953 0.2063 0 8
10.8304 4.7743 -2.4953 0.2063 0 8
10.7524 4.9475 -2.4953 0.2063 0 8
10.6716 5.1194 -2.4953 0.2063 0 8
10.5881 5.2900 -2.4953 0.2063 0 8
10.5019 5.4592 -2.4953 0.2063 0 8
10.4129 5.6270 -2.4953 0.2063 0 8
10.3213 5.7934 -2.4953 0.2063 0 8
10.2270 5.9582 -2.4953 0.2063 0 8
10.1301 6.1216 -2.4953 0.2063 0 8
10.0305 6.2833 -2.4953 0.2063 0 8
9.9284 6.4435 -2.4953 0.2063 0 8
9.8237 6.6020 -2.4953 0.2063 0 8
9.7165 6.7588 -2.4953 0.2063 0 8
9.6068 6.9138 -2.4953 0.2063 0 8
9.4947 7.0671 -2.4953 0.2063 0 8
4.7330 -10.3350 -2.4953 0.2144 0 8
4.8982 -10.2577 -2.4953 0.2144 0 8
5.0621 -10.1778 -2.4953 0.2144 0 8
5.2248 -10.0952 -2.4953 0.2144 0 8
5.3861 -10.0101 -2.4953 0.2144 0 8
5.5461 -9.9224 -2.4953 0.2144 0 8
5.7046 -9.8321 -2.4953 0.2144 0 8
5.8616 -9.7393 -2.4953 0.2144 0 8
6.0171 -9.6440 -2.4953 0.2144 0 8
6.1711 -9.5462 -2.4953 0.2144 0 8
6.3235 -9.4459 -2.4953 0.2144 0 8
6.4742 -9.3433 -2.4953 0.2144 0 8
6.6233 -9.2382 -2.4953 0.2144 0 8
6.7707 -9.1307 -2.4953 0.2144 0 8
6.9164 -9.0209 -2.4953 0.2144 0 8
7.0602 -8.9087 -2.4953 0.2144 0 8
7.2023 -8.7943 -2.4953 0.2144 0 8
7.3424 -8.6776 -2.4953 0.2144 0 8
7.4807 -8.5587 -2.4953 0.2144 0 8
7.6171 -8.4375 -2.4953 0.2144 0 8
7.7515 -8.3142 -2.4953 0.2144 0 8
7.8839 -8.1888 -2.4953 0.2144 0 8
8.0143 -8.0612 -2.4953 0.2144 0 8
8.1426 -7.9316 -2.4953 0.2144 0 8
8.2689 -7.7999 -2.4953 0.2144 0 8
8.3930 -7.6662 -2.4953 0.2144 0 8
8.5149 -7.5305 -2.4953 0.2144 0 8
8.6346 -7.3929 -2.4953 0.2144 0 8
8.7522 -7.2534 -2.4953 0.2144 0 8
8.8674 -7.1121 -2.4953 0.2144 0 8
8.9804 -6.9689 -2.4953 0.2144 0 8
9.0911 -6.8239 -2.4953 0.2144 0 8
9.1994 -6.6771 -2.4953 0.2144 0 8
9.3053 -6.5286 -2.4953 0.2144 0 8
9.4089 -6.3785 -2.4953 0.2144 0 8
9.5100 -6.2267 -2.4953 0.2144 0 8
9.6087 -6.0733 -2.4953 0.2144 0 8
9.7049 -5.9183 -2.4953 0.2144 0 8
9.7987 -5.7618 -2.4953 0.2144 0 8
9.8899 -5.6038 -2.4953 0.2144 0 8
9.9785 -5.4444 -2.4953 0.2144 0 8
10.0646 -5.2836 -2.4953 0.2144 0 8
10.1481 -5.1214 -2.4953 0.2144 0 8
10.2289 -4.9579 -2.4953 0.2144 0 8
10.3072 -4.7932 -2.4953 0.2144 0 8
10.3828 -4.6272 -2.4953 0.2144 0 8
10.4557 -4.4600 -2.4953 0.2144 0 8
10.5259 -4.2916 -2.4953 0.2144 0 8
10.5934 -4.1222 -2.4953 0.2144 0 8
10.6582 -3.9516 -2.4953 0.2144 0 8
10.7202 -3.7801 -2.4953 0.2144 0 8
10.7795 -3.6076 -2.4953 0.2144 0 8
10.8360 -3.4342 -2.4953 0.2144 0 8
10.8897 -3.2599 -2.4953 0.2144 0 8
10.9406 -3.0847 -2.4953 0.2144 0 8
10.9887 -2.9087 -2.4953 0.2144 0 8
11.0340 -2.7320 -2.4953 0.2144 0 8
11.0764 -2.5546 -2.4953 0.2144 0 8
11.1159 -2.3766 -2.4953 0.2144 0 8
11.1527 -2.1979 -2.4953 0.2144 0 8
11.1865 -2.0187 -2.4953 0.2144 0 8
11.2174 -1.8389 -2.4953 0.2144 0 8
11.2455 -1.6587 -2.4953 0.2144 0 8
11.2707 -1.4780 -2.4953 0.2144 0 8
11.2929 -1.2970 -2.4953 0.2144 0 8
7.9064 -0.7797 -1.7440 0.3019 25 10
7.7045 -0.6351 -1.6970 0.8721 25 10
7.6492 -0.5072 -1.6828 0.8795 25 10
7.6112 -0.3821 -1.6729 0.9671 25 10
7.5912 -0.2591 -1.6674 0.9881 25 10
7.5825 -0.1370 -1.6648 0.9969 25 10
7.5756 -0.0153 -1.6630 0.9980 25 10
7.5808 0.1064 -1.6643 0.9972 25 10
7.5880 0.2283 -1.6664 0.9887 25 10
7.6052 0.3510 -1.6712 0.9681 25 10
7.6361 0.4753 -1.6795 0.9182 25 10
7.6905 0.6027 -1.6934 0.8740 25 10
7.8123 0.7386 -1.7226 0.3056 25 10
11.2981 1.2514 -2.4953 0.2144 0 8
11.2765 1.4325 -2.4953 0.2144 0 8
11.2521 1.6133 -2.4953 0.2144 0 8
11.2248 1.7936 -2.4953 0.2144 0 8
11.1945 1.9735 -2.4953 0.2144 0 8
11.1614 2.1529 -2.4953 0.2144 0 8
11.1255 2.3317 -2.4953 0.2144 0 8
11.0866 2.5099 -2.4953 0.2144 0 8
11.0449 2.6875 -2.4953 0.2144 0 8
11.0004 2.8644 -2.4953 0.2144 0 8
10.9530 3.0405 -2.4953 0.2144 0 8
10.9028 3.2159 -2.4953 0.2144 0 8
10.8498 3.3904 -2.4953 0.2144 0 8
10.7940 3.5641 -2.4953 0.2144 0 8
10.7354 3.7368 -2.4953 0.2144 0 8
10.6740 3.9086 -2.4953 0.2144 0 8
10.6100 4.0794 -2.4953 0.2144 0 8
10.5431 4.2491 -2.4953 0.2144 0 8
10.4736 4.4177 -2.4953 0.2144 0 8
10.4014 4.5852 -2.4953 0.2144 0 8
10.3264 4.7515 -2.4953 0.2144 0 8
10.2489 4.9166 -2.4953 0.2144 0 8
10.1687 5.0804 -2.4953 0.2144 0 8
10.0858 5.2429 -2.4953 0.2144 0 8
10.0004 5.4041 -2.4953 0.2144 0 8
9.9124 5.5639 -2.4953 0.2144 0 8
9.8218 5.7222 -2.4953 0.2144 0 8
9.7288 5.8791 -2.4953 0.2144 0 8
9.6332 6.0344 -2.4953 0.2144 0 8
9.5351 6.1882 -2.4953 0.2144 0 8
9.4346 6.3404 -2.4953 0.2144 0 8
9.3316 6.4910 -2.4953 0.2144 0 8
9.2263 6.6399 -2.4953 0.2144 0 8
9.1185 6.7871 -2.4953 0.2144 0 8
4.5520 -9.9398 -2.4953 0.2225 0 8
4.7109 -9.8654 -2.4953 0.2225 0 8
4.8686 -9.7886 -2.4953 0.2225 0 8
5.0250 -9.7092 -2.4953 0.2225 0 8
5.1802 -9.6273 -2.4953 0.2225 0 8
5.3340 -9.5430 -2.4953 0.2225 0 8
5.4864 -9.4561 -2.4953 0.2225 0 8
5.6375 -9.3669 -2.4953 0.2225 0 8
5.7870 -9.2752 -2.4953 0.2225 0 8
5.9351 -9.1812 -2.4953 0.2225 0 8
6.0817 -9.0847 -2.4953 0.2225 0 8
6.2267 -8.9860 -2.4953 0.2225 0 8
6.3701 -8.8849 -2.4953 0.2225 0 8
6.5118 -8.7816 -2.4953 0.2225 0 8
6.6519 -8.6759 -2.4953 0.2225 0 8
6.7902 -8.5681 -2.4953 0.2225 0 8
6.9269 -8.4580 -2.4953 0.2225 0 8
7.0617 -8.3458 -2.4953 0.2225 0 8
7.1947 -8.2314 -2.4953 0.2225 0 8
7.3258 -8.1149 -2.4953 0.2225 0 8
7.4551 -7.9963 -2.4953 0.2225 0 8
7.5825 -7.8756 -2.4953 0.2225 0 8
7.7079 -7.7530 -2.4953 0.2225 0 8
7.8313 -7.6283 -2.4953 0.2225 0 8
7.9527 -7.5016 -2.4953 0.2225 0 8
8.0720 -7.3731 -2.4953 0.2225 0 8
8.1893 -7.2426 -2.4953 0.2225 0 8
8.3045 -7.1102 -2.4953 0.2225 0 8
8.4175 -6.9761 -2.4953 0.2225 0 8
8.5283 -6.8401 -2.4953 0.2225 0 8
8.6370 -6.7024 -2.4953 0.2225 0 8
8.7434 -6.5629 -2.4953 0.2225 0 8
8.8476 -6.4218 -2.4953 0.2225 0 8
8.9495 -6.2790 -2.4953 0.2225 0 8
9.0491 -6.1346 -2.4953 0.2225 0 8
9.1464 -5.9886 -2.4953 0.2225 0 8
9.2413 -5.8410 -2.4953 0.2225 0 8
9.3338 -5.6920 -2.4953 0.2225 0 8
9.4240 -5.5415 -2.4953 0.2225 0 8
9.5117 -5.3896 -2.4953 0.2225 0 8
9.5969 -5.2362 -2.4953 0.2225 0 8
9.6797 -5.0816 -2.4953 0.2225 0 8
9.7600 -4.9256 -2.4953 0.2225 0 8
9.8378 -4.7684 -2.4953 0.2225 0 8
9.9131 -4.6099 -2.4953 0.2225 0 8
9.9857 -4.4502 -2.4953 0.2225 0 8
10.0559 -4.2894 -2.4953 0.2225 0 8
10.1234 -4.1275 -2.4953 0.2225 0 8
10.1883 -3.9645 -2.4953 0.2225 0 8
10.2506 -3.8005 -2.4953 0.2225 0 8
10.3103 -3.6356 -2.4953 0.2225 0 8
10.3673 -3.4697 -2.4953 0.2225 0 8
10.4216 -3.3029 -2.4953 0.2225 0 8
10.4733 -3.1352 -2.4953 0.2225 0 8
10.5223 -2.9667 -2.4953 0.2225 0 8
10.5685 -2.7975 -2.4953 0.2225 0 8
10.6120 -2.6276 -2.4953 0.2225 0 8
10.6528 -2.4570 -2.4953 0.2225 0 8
10.6909 -2.2857 -2.4953 0.2225 0 8
10.7262 -2.1139 -2.4953 0.2225 0 8
10.7587 -1.9415 -2.4953 0.2225 0 8
10.7885 -1.7686 -2.4953 0.2225 0 8
10.8155 -1.5952 -2.4953 0.2225 0 8
10.8397 -1.4215 -2.4953 0.2225 0 8
10.8611 -1.2474 -2.4953 0.2225 0 8
7.8881 -0.7779 -1.8091 0.3020 25 10
7.6820 -0.6333 -1.7593 0.8731 25 10
7.6271 -0.5057 -1.7446 0.8804 25 10
7.5932 -0.3812 -1.7353 0.9676 25 10
7.5741 -0.2585 -1.7298 0.9958 25 10
7.5674 -0.1367 -1.7275 0.9971 25 10
7.5606 -0.0153 -1.7256 0.9981 25 10
7.5657 0.1061 -1.7270 0.9973 25 10
7.5725 0.2278 -1.7291 0.9961 25 10
7.5871 0.3502 -1.7335 0.9686 25 10
7.6136 0.4739 -1.7411 0.9192 25 10
7.6681 0.6010 -1.7556 0.8749 25 10
7.7944 0.7369 -1.7869 0.3058 25 10
10.8661 1.2035 -2.4953 0.2225 0 8
10.8453 1.3777 -2.4953 0.2225 0 8
10.8218 1.5516 -2.4953 0.2225 0 8
10.7955 1.7250 -2.4953 0.2225 0 8
10.7665 1.8980 -2.4953 0.2225 0 8
10.7346 2.0705 -2.4953 0.2225 0 8
10.7000 2.2425 -2.4953 0.2225 0 8
10.6627 2.4139 -2.4953 0.2225 0 8
10.6226 2.5847 -2.4953 0.2225 0 8
10.5797 2.7548 -2.4953 0.2225 0 8
10.5342 2.9242 -2.4953 0.2225 0 8
10.4859 3.0929 -2.4953 0.2225 0 8
10.4349 3.2608 -2.4953 0.2225 0 8
10.3812 3.4278 -2.4953 0.2225 0 8
10.3249 3.5939 -2.4953 0.2225 0 8
10.2659 3.7591 -2.4953 0.2225 0 8
10.2042 3.9234 -2.4953 0.2225 0 8
10.1400 4.0866 -2.4953 0.2225 0 8
10.0731 4.2488 -2.4953 0.2225 0 8
10.0036 4.4099 -2.4953 0.2225 0 8
9.9316 4.5698 -2.4953 0.2225 0 8
9.8570 4.7286 -2.4953 0.2225 0 8
9.7798 4.8862 -2.4953 0.2225 0 8
9.7002 5.0425 -2.4953 0.2225 0 8
9.6180 5.1975 -2.4953 0.2225 0 8
9.5334 5.3511 -2.4953 0.2225 0 8
9.4463 5.5034 -2.4953 0.2225 0 8
9.3568 5.6543 -2.4953 0.2225 0 8
9.2648 5.8037 -2.4953 0.2225 0 8
9.1705 5.9516 -2.4953 0.2225 0 8
9.0738 6.0980 -2.4953 0.2225 0 8
8.9748 6.2428 -2.4953 0.2225 0 8
8.8735 6.3860 -2.4953 0.2225 0 8
8.7699 6.5276 -2.4953 0.2225 0 8
4.3837 -9.5723 -2.4953 0.2306 0 8
4.5367 -9.5008 -2.4953 0.2306 0 8
4.6886 -9.4268 -2.4953 0.2306 0 8
4.8393 -9.3503 -2.4953 0.2306 0 8
4.9887 -9.2714 -2.4953 0.2306 0 8
5.1368 -9.1902 -2.4953 0.2306 0 8
5.2836 -9.1066 -2.4953 0.2306 0 8
5.4291 -9.0206 -2.4953 0.2306 0 8
5.5731 -8.9324 -2.4953 0.2306 0 8
5.7157 -8.8418 -2.4953 0.2306 0 8
5.8569 -8.7489 -2.4953 0.2306 0 8
5.9965 -8.6538 -2.4953 0.2306 0 8
6.1346 -8.5565 -2.4953 0.2306 0 8
6.2711 -8.4570 -2.4953 0.2306 0 8
6.4060 -8.3552 -2.4953 0.2306 0 8
6.5392 -8.2514 -2.4953 0.2306 0 8
6.6708 -8.1454 -2.4953 0.2306 0 8
6.8006 -8.0373 -2.4953 0.2306 0 8
6.9287 -7.9271 -2.4953 0.2306 0 8
7.0550 -7.8149 -2.4953 0.2306 0 8
7.1795 -7.7007 -2.4953 0.2306 0 8
7.3022 -7.5845 -2.4953 0.2306 0 8
7.4229 -7.4664 -2.4953 0.2306 0 8
7.5418 -7.3463 -2.4953 0.2306 0 8
7.6587 -7.2243 -2.4953 0.2306 0 8
7.7736 -7.1005 -2.4953 0.2306 0 8
7.8866 -6.9749 -2.4953 0.2306 0 8
7.9975 -6.8474 -2.4953 0.2306 0 8
8.1063 -6.7182 -2.4953 0.2306 0 8
8.2131 -6.5873 -2.4953 0.2306 0 8
8.3177 -6.4546 -2.4953 0.2306 0 8
8.4202 -6.3203 -2.4953 0.2306 0 8
8.5206 -6.1844 -2.4953 0.2306 0 8
8.6187 -6.0469 -2.4953 0.2306 0 8
8.7146 -5.9078 -2.4953 0.2306 0 8
8.8083 -5.7672 -2.4953 0.2306 0 8
8.8997 -5.6251 -2.4953 0.2306 0 8
8.9888 -5.4816 -2.4953 0.2306 0 8
9.0756 -5.3367 -2.4953 0.2306 0 8
9.1601 -5.1903 -2.4953 0.2306 0 8
9.2422 -5.0427 -2.4953 0.2306 0 8
9.3219 -4.8937 -2.4953 0.2306 0 8
9.3992 -4.7435 -2.4953 0.2306 0 8
9.4741 -4.5921 -2.4953 0.2306 0 8
9.5466 -4.4395 -2.4953 0.2306 0 8
9.6166 -4.2857 -2.4953 0.2306 0 8
9.6842 -4.1309 -2.4953 0.2306 0 8
9.7492 -3.9749 -2.4953 0.2306 0 8
9.8117 -3.8180 -2.4953 0.2306 0 8
9.8717 -3.6600 -2.4953 0.2306 0 8
9.9292 -3.5012 -2.4953 0.2306 0 8
9.9841 -3.3414 -2.4953 0.2306 0 8
10.0364 -3.1808 -2.4953 0.2306 0 8
10.0862 -3.0193 -2.4953 0.2306 0 8
10.1333 -2.8571 -2.4953 0.2306 0 8
10.1778 -2.6941 -2.4953 0.2306 0 8
10.2198 -2.5304 -2.4953 0.2306 0 8
10.2591 -2.3661 -2.4953 0.2306 0 8
10.2957 -2.2012 -2.4953 0.2306 0 8
10.3297 -2.0357 -2.4953 0.2306 0 8
10.3610 -1.8697 -2.4953 0.2306 0 8
10.3897 -1.7032 -2.4953 0.2306 0 8
10.4157 -1.5363 -2.4953 0.2306 0 8
10.4390 -1.3689 -2.4953 0.2306 0 8
10.4596 -1.2013 -2.4953 0.2306 0 8
7.8982 -0.7789 -1.8810 0.4546 25 10
7.6707 -0.6324 -1.8242 0.8512 25 10
7.6155 -0.5049 -1.8089 0.8584 25 10
7.5818 -0.3806 -1.7992 0.9382 25 10
7.5636 -0.2581 -1.7936 0.9665 25 10
7.5563 -0.1365 -1.7912 0.9678 25 10
7.5498 -0.0152 -1.7893 0.9299 25 10
7.5545 0.1060 -1.7906 0.9681 25 10
7.5617 0.2275 -1.7930 0.9669 25 10
7.5754 0.3496 -1.7973 0.9392 25 10
7.6020 0.4732 -1.8052 0.9187 25 10
7.6567 0.6001 -1.8202 0.8530 25 10
7.8082 0.7382 -1.8588 0.2806 25 10
10.4644 1.1590 -2.4953 0.2306 0 8
10.4444 1.3268 -2.4953 0.2306 0 8
10.4218 1.4942 -2.4953 0.2306 0 8
10.3965 1.6613 -2.4953 0.2306 0 8
10.3685 1.8279 -2.4953 0.2306 0 8
10.3378 1.9940 -2.4953 0.2306 0 8
10.3045 2.1596 -2.4953 0.2306 0 8
10.2685 2.3247 -2.4953 0.2306 0 8
10.2299 2.4892 -2.4953 0.2306 0 8
10.1886 2.6530 -2.4953 0.2306 0 8
10.1448 2.8161 -2.4953 0.2306 0 8
10.0983 2.9786 -2.4953 0.2306 0 8
10.0492 3.1402 -2.4953 0.2306 0 8
9.9975 3.3011 -2.4953 0.2306 0 8
9.9432 3.4611 -2.4953 0.2306 0 8
9.8864 3.6202 -2.4953 0.2306 0 8
9.8271 3.7783 -2.4953 0.2306 0 8
9.7652 3.9355 -2.4953 0.2306 0 8
9.7007 4.0917 -2.4953 0.2306 0 8
9.6338 4.2469 -2.4953 0.2306 0 8
9.5645 4.4009 -2.4953 0.2306 0 8
9.4926 4.5538 -2.4953 0.2306 0 8
9.4183 4.7055 -2.4953 0.2306 0 8
9.3416 4.8561 -2.4953 0.2306 0 8
9.2625 5.0053 -2.4953 0.2306 0 8
9.1810 5.1533 -2.4953 0.2306 0 8
9.0971 5.3000 -2.4953 0.2306 0 8
9.0109 5.4453 -2.4953 0.2306 0 8
8.9223 5.5892 -2.4953 0.2306 0 8
8.8315 5.7316 -2.4953 0.2306 0 8
8.7384 5.8726 -2.4953 0.2306 0 8
8.6430 6.0120 -2.4953 0.2306 0 8
8.5455 6.1500 -2.4953 0.2306 0 8
8.4457 6.2863 -2.4953 0.2306 0 8
4.2268 -9.2298 -2.4953 0.2387 0 8
4.3744 -9.1608 -2.4953 0.2387 0 8
4.5208 -9.0894 -2.4953 0.2387 0 8
4.6661 -9.0157 -2.4953 0.2387 0 8
4.8102 -8.9397 -2.4953 0.2387 0 8
4.9530 -8.8613 -2.4953 0.2387 0 8
5.0946 -8.7807 -2.4953 0.2387 0 8
5.2348 -8.6979 -2.4953 0.2387 0 8
5.3737 -8.6127 -2.4953 0.2387 0 8
5.5112 -8.5254 -2.4953 0.2387 0 8
5.6473 -8.4359 -2.4953 0.2387 0 8
5.7819 -8.3442 -2.4953 0.2387 0 8
5.9151 -8.2503 -2.4953 0.2387 0 8
6.0467 -8.1543 -2.4953 0.2387 0 8
6.1768 -8.0563 -2.4953 0.2387 0 8
6.3052 -7.9561 -2.4953 0.2387 0 8
6.4321 -7.8539 -2.4953 0.2387 0 8
6.5573 -7.7497 -2.4953 0.2387 0 8
6.6808 -7.6435 -2.4953 0.2387 0 8
6.8026 -7.5353 -2.4953 0.2387 0 8
6.9226 -7.4252 -2.4953 0.2387 0 8
7.0409 -7.3131 -2.4953 0.2387 0 8
7.1573 -7.1992 -2.4953 0.2387 0 8
7.2719 -7.0834 -2.4953 0.2387 0 8
7.3846 -6.9658 -2.4953 0.2387 0 8
7.4955 -6.8464 -2.4953 0.2387 0 8
7.6044 -6.7253 -2.4953 0.2387 0 8
7.7113 -6.6024 -2.4953 0.2387 0 8
7.8163 -6.4778 -2.4953 0.2387 0 8
7.9192 -6.3515 -2.4953 0.2387 0 8
8.0201 -6.2237 -2.4953 0.2387 0 8
8.1189 -6.0942 -2.4953 0.2387 0 8
8.2157 -5.9631 -2.4953 0.2387 0 8
8.3103 -5.8305 -2.4953 0.2387 0 8
8.4028 -5.6964 -2.4953 0.2387 0 8
8.4931 -5.5608 -2.4953 0.2387 0 8
8.5812 -5.4238 -2.4953 0.2387 0 8
8.6672 -5.2855 -2.4953 0.2387 0 8
8.7509 -5.1457 -2.4953 0.2387 0 8
8.8323 -5.0046 -2.4953 0.2387 0 8
8.9115 -4.8622 -2.4953 0.2387 0 8
8.9883 -4.7186 -2.4953 0.2387 0 8
9.0629 -4.5738 -2.4953 0.2387 0 8
9.1351 -4.4278 -2.4953 0.2387 0 8
9.2050 -4.2806 -2.4953 0.2387 0 8
9.2725 -4.1324 -2.4953 0.2387 0 8
9.3376 -3.9830 -2.4953 0.2387 0 8
9.4003 -3.8327 -2.4953 0.2387 0 8
9.4606 -3.6814 -2.4953 0.2387 0 8
9.5185 -3.5291 -2.4953 0.2387 0 8
9.5739 -3.3759 -2.4953 0.2387 0 8
9.6268 -3.2218 -2.4953 0.2387 0 8
9.6773 -3.0669 -2.4953 0.2387 0 8
9.7252 -2.9113 -2.4953 0.2387 0 8
9.7707 -2.7548 -2.4953 0.2387 0 8
9.8136 -2.5977 -2.4953 0.2387 0 8
9.8541 -2.4399 -2.4953 0.2387 0 8
9.8919 -2.2815 -2.4953 0.2387 0 8
9.9273 -2.1224 -2.4953 0.2387 0 8
9.9601 -1.9629 -2.4953 0.2387 0 8
9.9903 -1.8028 -2.4953 0.2387 0 8
10.0179 -1.6423 -2.4953 0.2387 0 8
10.0430 -1.4813 -2.4953 0.2387 0 8
10.0655 -1.3200 -2.4953 0.2387 0 8
10.0853 -1.1583 -2.4953 0.2387 0 8
7.8835 -0.7775 -1.9472 0.4545 25 10
7.6793 -0.6331 -1.8940 0.7656 25 10
7.6181 -0.5051 -1.8766 0.8563 25 10
7.5829 -0.3807 -1.8662 0.9362 25 10
7.5642 -0.2581 -1.8604 0.9645 25 10
7.5569 -0.1365 -1.8578 0.9658 25 10
7.5597 -0.0153 -1.8582 0.9269 25 10
7.5570 0.1060 -1.8577 0.9271 25 10
7.5624 0.2275 -1.8597 0.9648 25 10
7.5764 0.3497 -1.8643 0.9372 25 10
7.6051 0.4734 -1.8730 0.9165 25 10
7.6607 0.6004 -1.8888 0.7677 25 10
7.8265 0.7399 -1.9323 0.4580 25 10
10.0899 1.1176 -2.4953 0.2387 0 8
10.0707 1.2793 -2.4953 0.2387 0 8
10.0489 1.4407 -2.4953 0.2387 0 8
10.0245 1.6018 -2.4953 0.2387 0 8
9.9975 1.7625 -2.4953 0.2387 0 8
9.9679 1.9227 -2.4953 0.2387 0 8
9.9358 2.0823 -2.4953 0.2387 0 8
9.9011 2.2415 -2.4953 0.2387 0 8
9.8638 2.4001 -2.4953 0.2387 0 8
9.8241 2.5581 -2.4953 0.2387 0 8
9.7817 2.7154 -2.4953 0.2387 0 8
9.7369 2.8720 -2.4953 0.2387 0 8
9.6896 3.0279 -2.4953 0.2387 0 8
9.6397 3.1829 -2.4953 0.2387 0 8
9.5874 3.3372 -2.4953 0.2387 0 8
9.5326 3.4906 -2.4953 0.2387 0 8
9.4754 3.6431 -2.4953 0.2387 0 8
9.4157 3.7947 -2.4953 0.2387 0 8
9.3536 3.9453 -2.4953 0.2387 0 8
9.2891 4.0949 -2.4953 0.2387 0 8
9.2222 4.2434 -2.4953 0.2387 0 8
9.1529 4.3909 -2.4953 0.2387 0 8
9.0813 4.5372 -2.4953 0.2387 0 8
9.0073 4.6823 -2.4953 0.2387 0 8
8.9310 4.8262 -2.4953 0.2387 0 8
8.8524 4.9689 -2.4953 0.2387 0 8
