ply
format ascii 1.0
element vertex 1423
property float32 x
property float32 y
property float32 z
property float32 CosAngle
property uint32 ObjIdx
property uint32 ObjTag
end_header
8.8669 -3.3247 -2.4953 0.2548 0 8
8.9192 -3.1817 -2.4953 0.2548 0 8
8.9692 -3.0379 -2.4953 0.2548 0 8
9.0169 -2.8934 -2.4953 0.2548 0 8
9.0622 -2.7481 -2.4953 0.2548 0 8
9.1052 -2.6020 -2.4953 0.2548 0 8
9.1459 -2.4554 -2.4953 0.2548 0 8
9.1841 -2.3080 -2.4953 0.2548 0 8
9.2200 -2.1601 -2.4953 0.2548 0 8
9.2536 -2.0116 -2.4953 0.2548 0 8
9.2847 -1.8626 -2.4953 0.2548 0 8
9.3135 -1.7132 -2.4953 0.2548 0 8
9.3398 -1.5632 -2.4953 0.2548 0 8
9.3637 -1.4129 -2.4953 0.2548 0 8
9.3852 -1.2622 -2.4953 0.2548 0 8
9.4043 -1.1112 -2.4953 0.2548 0 8
7.9433 -0.8093 -2.1039 0.5402 25 10
7.7335 -0.6625 -2.0452 0.4056 25 10
7.6527 -0.5319 -2.0214 0.7217 25 10
7.6010 -0.4056 -2.0057 0.8441 25 10
7.5742 -0.2822 -1.9972 0.8885 25 10
7.5779 -0.1604 -1.9972 0.8885 25 10
7.5808 -0.0386 -1.9976 0.9287 25 10
7.5803 0.0833 -1.9975 0.8884 25 10
7.5765 0.2051 -1.9971 0.8886 25 10
7.5810 0.3272 -1.9995 0.8468 25 10
7.6129 0.4513 -2.0095 0.8135 25 10
7.6812 0.5793 -2.0298 0.7187 25 10
7.8209 0.7165 -2.0694 0.4009 25 10
8.2637 0.8912 -2.1901 0.8932 25 10
9.3976 1.1666 -2.4953 0.2548 0 8
9.3776 1.3175 -2.4953 0.2548 0 8
9.3552 1.4680 -2.4953 0.2548 0 8
9.3304 1.6182 -2.4953 0.2548 0 8
9.3032 1.7680 -2.4953 0.2548 0 8
9.2736 1.9173 -2.4953 0.2548 0 8
9.2416 2.0661 -2.4953 0.2548 0 8
9.2072 2.2144 -2.4953 0.2548 0 8
9.1704 2.3621 -2.4953 0.2548 0 8
9.1312 2.5092 -2.4953 0.2548 0 8
9.0897 2.6557 -2.4953 0.2548 0 8
9.0459 2.8014 -2.4953 0.2548 0 8
8.9997 2.9465 -2.4953 0.2548 0 8
8.9511 3.0907 -2.4953 0.2548 0 8
8.9003 3.2342 -2.4953 0.2548 0 8
8.8472 3.3769 -2.4953 0.2548 0 8
8.7917 3.5186 -2.4953 0.2548 0 8
8.7340 3.6595 -2.4953 0.2548 0 8
8.6741 3.7994 -2.4953 0.2548 0 8
8.6119 3.9383 -2.4953 0.2548 0 8
8.5475 4.0762 -2.4953 0.2548 0 8
8.4809 4.2131 -2.4953 0.2548 0 8
8.4120 4.3489 -2.4953 0.2548 0 8
8.3411 4.4835 -2.4953 0.2548 0 8
8.2679 4.6170 -2.4953 0.2548 0 8
8.1926 4.7493 -2.4953 0.2548 0 8
8.1152 4.8804 -2.4953 0.2548 0 8
8.0357 5.0102 -2.4953 0.2548 0 8
7.9542 5.1387 -2.4953 0.2548 0 8
7.8705 5.2659 -2.4953 0.2548 0 8
7.7849 5.3918 -2.4953 0.2548 0 8
7.6972 5.5162 -2.4953 0.2548 0 8
7.1214 -5.7613 -2.4953 0.2628 0 8
7.2130 -5.6461 -2.4953 0.2628 0 8
7.3029 -5.5294 -2.4953 0.2628 0 8
7.3908 -5.4113 -2.4953 0.2628 0 8
7.4768 -5.2918 -2.4953 0.2628 0 8
7.5609 -5.1710 -2.4953 0.2628 0 8
7.6431 -5.0488 -2.4953 0.2628 0 8
7.7232 -4.9253 -2.4953 0.2628 0 8
7.8014 -4.8005 -2.4953 0.2628 0 8
7.8775 -4.6745 -2.4953 0.2628 0 8
7.9517 -4.5473 -2.4953 0.2628 0 8
8.0237 -4.4189 -2.4953 0.2628 0 8
8.0937 -4.2893 -2.4953 0.2628 0 8
8.1616 -4.1587 -2.4953 0.2628 0 8
8.2274 -4.0269 -2.4953 0.2628 0 8
8.2911 -3.8942 -2.4953 0.2628 0 8
8.3526 -3.7604 -2.4953 0.2628 0 8
8.4120 -3.6257 -2.4953 0.2628 0 8
8.4692 -3.4900 -2.4953 0.2628 0 8
8.5242 -3.3534 -2.4953 0.2628 0 8
8.5770 -3.2159 -2.4953 0.2628 0 8
8.6275 -3.0777 -2.4953 0.2628 0 8
8.6759 -2.9386 -2.4953 0.2628 0 8
8.7220 -2.7988 -2.4953 0.2628 0 8
8.7659 -2.6582 -2.4953 0.2628 0 8
8.8075 -2.5170 -2.4953 0.2628 0 8
8.8468 -2.3751 -2.4953 0.2628 0 8
8.8838 -2.2326 -2.4953 0.2628 0 8
8.9185 -2.0895 -2.4953 0.2628 0 8
8.9510 -1.9459 -2.4953 0.2628 0 8
8.9811 -1.8017 -2.4953 0.2628 0 8
9.0089 -1.6571 -2.4953 0.2628 0 8
9.0344 -1.5121 -2.4953 0.2628 0 8
9.0575 -1.3667 -2.4953 0.2628 0 8
9.0783 -1.2209 -2.4953 0.2628 0 8
9.0968 -1.0749 -2.4953 0.2628 0 8
7.9890 -0.8140 -2.1875 0.1966 25 10
7.7772 -0.6663 -2.1263 0.4025 25 10
7.6762 -0.5335 -2.0961 0.7179 25 10
7.6206 -0.4067 -2.0789 0.8112 25 10
7.5902 -0.2828 -2.0691 0.8847 25 10
7.5939 -0.1608 -2.0691 0.8847 25 10
7.5893 -0.0386 -2.0674 0.9256 25 10
7.5910 0.0834 -2.0680 0.9253 25 10
7.5925 0.2055 -2.0690 0.8847 25 10
7.5989 0.3280 -2.0719 0.8429 25 10
7.6346 0.4525 -2.0834 0.8094 25 10
7.7045 0.5811 -2.1047 0.7207 25 10
7.8494 0.7191 -2.1472 0.5460 25 10
8.2792 0.8929 -2.2684 0.8896 25 10
9.0903 1.1284 -2.4953 0.2628 0 8
9.0710 1.2744 -2.4953 0.2628 0 8
9.0493 1.4200 -2.4953 0.2628 0 8
9.0253 1.5653 -2.4953 0.2628 0 8
8.9990 1.7102 -2.4953 0.2628 0 8
8.9703 1.8546 -2.4953 0.2628 0 8
8.9394 1.9986 -2.4953 0.2628 0 8
8.9061 2.1420 -2.4953 0.2628 0 8
8.8705 2.2849 -2.4953 0.2628 0 8
8.8326 2.4272 -2.4953 0.2628 0 8
8.7925 2.5688 -2.4953 0.2628 0 8
8.7500 2.7098 -2.4953 0.2628 0 8
8.7054 2.8501 -2.4953 0.2628 0 8
8.6584 2.9897 -2.4953 0.2628 0 8
8.6093 3.1285 -2.4953 0.2628 0 8
8.5579 3.2664 -2.4953 0.2628 0 8
8.5042 3.4036 -2.4953 0.2628 0 8
8.4484 3.5398 -2.4953 0.2628 0 8
8.3904 3.6752 -2.4953 0.2628 0 8
8.3303 3.8095 -2.4953 0.2628 0 8
8.2680 3.9430 -2.4953 0.2628 0 8
8.2035 4.0753 -2.4953 0.2628 0 8
8.1370 4.2067 -2.4953 0.2628 0 8
8.0683 4.3369 -2.4953 0.2628 0 8
7.9975 4.4661 -2.4953 0.2628 0 8
7.9247 4.5940 -2.4953 0.2628 0 8
7.8499 4.7208 -2.4953 0.2628 0 8
7.7730 4.8464 -2.4953 0.2628 0 8
7.6941 4.9707 -2.4953 0.2628 0 8
7.6132 5.0937 -2.4953 0.2628 0 8
7.5303 5.2154 -2.4953 0.2628 0 8
7.4455 5.3358 -2.4953 0.2628 0 8
6.8949 -5.5781 -2.4953 0.2708 0 8
6.9836 -5.4665 -2.4953 0.2708 0 8
7.0706 -5.3536 -2.4953 0.2708 0 8
7.1557 -5.2392 -2.4953 0.2708 0 8
7.2390 -5.1235 -2.4953 0.2708 0 8
7.3204 -5.0065 -2.4953 0.2708 0 8
7.4000 -4.8882 -2.4953 0.2708 0 8
7.4776 -4.7686 -2.4953 0.2708 0 8
7.5533 -4.6478 -2.4953 0.2708 0 8
7.6270 -4.5258 -2.4953 0.2708 0 8
7.6988 -4.4026 -2.4953 0.2708 0 8
7.7685 -4.2783 -2.4953 0.2708 0 8
7.8363 -4.1529 -2.4953 0.2708 0 8
7.9020 -4.0264 -2.4953 0.2708 0 8
7.9657 -3.8989 -2.4953 0.2708 0 8
8.0274 -3.7703 -2.4953 0.2708 0 8
8.0870 -3.6408 -2.4953 0.2708 0 8
8.1444 -3.5103 -2.4953 0.2708 0 8
8.1998 -3.3790 -2.4953 0.2708 0 8
8.2531 -3.2467 -2.4953 0.2708 0 8
8.3042 -3.1137 -2.4953 0.2708 0 8
8.3531 -2.9798 -2.4953 0.2708 0 8
8.4000 -2.8451 -2.4953 0.2708 0 8
8.4446 -2.7097 -2.4953 0.2708 0 8
8.4871 -2.5737 -2.4953 0.2708 0 8
8.5273 -2.4369 -2.4953 0.2708 0 8
8.5654 -2.2995 -2.4953 0.2708 0 8
8.6013 -2.1616 -2.4953 0.2708 0 8
8.6349 -2.0230 -2.4953 0.2708 0 8
8.6663 -1.8840 -2.4953 0.2708 0 8
8.6955 -1.7444 -2.4953 0.2708 0 8
8.7224 -1.6044 -2.4953 0.2708 0 8
8.7470 -1.4640 -2.4953 0.2708 0 8
8.7695 -1.3232 -2.4953 0.2708 0 8
8.7896 -1.1821 -2.4953 0.2708 0 8
8.8075 -1.0407 -2.4953 0.2708 0 8
8.3343 -0.8492 -2.3570 0.6458 25 10
8.3314 -0.7138 -2.3527 0.6470 25 10
7.6994 -0.5351 -2.1715 0.7198 25 10
7.6424 -0.4078 -2.1533 0.8070 25 10
7.6063 -0.2834 -2.1416 0.8808 25 10
7.6026 -0.1609 -2.1395 0.9217 25 10
7.5977 -0.0387 -2.1377 0.9224 25 10
7.5995 0.0835 -2.1383 0.9222 25 10
7.6044 0.2058 -2.1403 0.9213 25 10
7.6184 0.3288 -2.1455 0.8099 25 10
7.6565 0.4538 -2.1580 0.8052 25 10
7.7277 0.5829 -2.1804 0.7169 25 10
8.3324 0.7633 -2.3542 0.6466 25 10
8.3355 0.8989 -2.3588 0.6453 25 10
8.8012 1.0925 -2.4953 0.2708 0 8
8.7825 1.2339 -2.4953 0.2708 0 8
8.7615 1.3749 -2.4953 0.2708 0 8
8.7383 1.5155 -2.4953 0.2708 0 8
8.7128 1.6558 -2.4953 0.2708 0 8
8.6850 1.7956 -2.4953 0.2708 0 8
8.6551 1.9350 -2.4953 0.2708 0 8
8.6228 2.0739 -2.4953 0.2708 0 8
8.5884 2.2122 -2.4953 0.2708 0 8
8.5517 2.3500 -2.4953 0.2708 0 8
8.5128 2.4871 -2.4953 0.2708 0 8
8.4718 2.6236 -2.4953 0.2708 0 8
8.4285 2.7595 -2.4953 0.2708 0 8
8.3831 2.8946 -2.4953 0.2708 0 8
8.3354 3.0290 -2.4953 0.2708 0 8
8.2857 3.1625 -2.4953 0.2708 0 8
8.2338 3.2953 -2.4953 0.2708 0 8
8.1797 3.4272 -2.4953 0.2708 0 8
8.1236 3.5583 -2.4953 0.2708 0 8
8.0654 3.6884 -2.4953 0.2708 0 8
8.0050 3.8176 -2.4953 0.2708 0 8
7.9426 3.9457 -2.4953 0.2708 0 8
7.8782 4.0729 -2.4953 0.2708 0 8
7.8117 4.1990 -2.4953 0.2708 0 8
7.7432 4.3240 -2.4953 0.2708 0 8
7.6727 4.4479 -2.4953 0.2708 0 8
7.6002 4.5707 -2.4953 0.2708 0 8
7.5258 4.6922 -2.4953 0.2708 0 8
7.4494 4.8126 -2.4953 0.2708 0 8
7.3710 4.9317 -2.4953 0.2708 0 8
7.2908 5.0496 -2.4953 0.2708 0 8
7.2087 5.1661 -2.4953 0.2708 0 8
6.6814 -5.4054 -2.4953 0.2788 0 8
6.7674 -5.2973 -2.4953 0.2788 0 8
6.8517 -5.1878 -2.4953 0.2788 0 8
6.9342 -5.0770 -2.4953 0.2788 0 8
7.0149 -4.9649 -2.4953 0.2788 0 8
7.0938 -4.8515 -2.4953 0.2788 0 8
7.1708 -4.7369 -2.4953 0.2788 0 8
7.2461 -4.6210 -2.4953 0.2788 0 8
7.3194 -4.5039 -2.4953 0.2788 0 8
7.3908 -4.3857 -2.4953 0.2788 0 8
7.4604 -4.2663 -2.4953 0.2788 0 8
7.5280 -4.1458 -2.4953 0.2788 0 8
7.5937 -4.0243 -2.4953 0.2788 0 8
7.6574 -3.9017 -2.4953 0.2788 0 8
7.7191 -3.7781 -2.4953 0.2788 0 8
7.7788 -3.6536 -2.4953 0.2788 0 8
7.8365 -3.5281 -2.4953 0.2788 0 8
7.8922 -3.4016 -2.4953 0.2788 0 8
7.9459 -3.2744 -2.4953 0.2788 0 8
7.9975 -3.1462 -2.4953 0.2788 0 8
8.0470 -3.0173 -2.4953 0.2788 0 8
8.0945 -2.8875 -2.4953 0.2788 0 8
8.1399 -2.7570 -2.4953 0.2788 0 8
8.1831 -2.6258 -2.4953 0.2788 0 8
8.2243 -2.4940 -2.4953 0.2788 0 8
8.2633 -2.3615 -2.4953 0.2788 0 8
8.3002 -2.2283 -2.4953 0.2788 0 8
8.3349 -2.0946 -2.4953 0.2788 0 8
8.3675 -1.9604 -2.4953 0.2788 0 8
8.3980 -1.8256 -2.4953 0.2788 0 8
8.4262 -1.6904 -2.4953 0.2788 0 8
8.4523 -1.5547 -2.4953 0.2788 0 8
8.4762 -1.4187 -2.4953 0.2788 0 8
8.4979 -1.2823 -2.4953 0.2788 0 8
8.5174 -1.1455 -2.4953 0.2788 0 8
8.5347 -1.0084 -2.4953 0.2788 0 8
8.5498 -0.8711 -2.4953 0.2788 0 8
8.4712 -0.7257 -2.4686 0.2997 25 10
8.5734 -0.5959 -2.4953 0.2788 0 8
8.5819 -0.4580 -2.4953 0.2788 0 8
8.5882 -0.3200 -2.4953 0.2788 0 8
8.5922 -0.1819 -2.4953 0.2788 0 8
8.5940 -0.0438 -2.4953 0.2788 0 8
8.5936 0.0944 -2.4953 0.2788 0 8
8.5910 0.2325 -2.4953 0.2788 0 8
8.5861 0.3706 -2.4953 0.2788 0 8
8.5791 0.5085 -2.4953 0.2788 0 8
8.5698 0.6464 -2.4953 0.2788 0 8
8.5583 0.7840 -2.4953 0.2788 0 8
8.5446 0.9215 -2.4953 0.2788 0 8
8.5286 1.0587 -2.4953 0.2788 0 8
8.5105 1.1957 -2.4953 0.2788 0 8
8.4902 1.3323 -2.4953 0.2788 0 8
8.4677 1.4686 -2.4953 0.2788 0 8
8.4430 1.6045 -2.4953 0.2788 0 8
8.4161 1.7400 -2.4953 0.2788 0 8
8.3871 1.8751 -2.4953 0.2788 0 8
8.3558 2.0096 -2.4953 0.2788 0 8
8.3225 2.1437 -2.4953 0.2788 0 8
8.2869 2.2772 -2.4953 0.2788 0 8
8.2492 2.4101 -2.4953 0.2788 0 8
8.2094 2.5424 -2.4953 0.2788 0 8
8.1675 2.6740 -2.4953 0.2788 0 8
8.1235 2.8050 -2.4953 0.2788 0 8
8.0773 2.9352 -2.4953 0.2788 0 8
8.0291 3.0646 -2.4953 0.2788 0 8
7.9788 3.1933 -2.4953 0.2788 0 8
7.9265 3.3211 -2.4953 0.2788 0 8
7.8721 3.4481 -2.4953 0.2788 0 8
7.8156 3.5742 -2.4953 0.2788 0 8
7.7572 3.6993 -2.4953 0.2788 0 8
7.6967 3.8236 -2.4953 0.2788 0 8
7.6342 3.9468 -2.4953 0.2788 0 8
7.5698 4.0690 -2.4953 0.2788 0 8
7.5034 4.1901 -2.4953 0.2788 0 8
7.4351 4.3102 -2.4953 0.2788 0 8
7.3649 4.4292 -2.4953 0.2788 0 8
7.2927 4.5470 -2.4953 0.2788 0 8
7.2187 4.6636 -2.4953 0.2788 0 8
7.1428 4.7790 -2.4953 0.2788 0 8
7.0651 4.8932 -2.4953 0.2788 0 8
6.9855 5.0061 -2.4953 0.2788 0 8
6.4798 -5.2423 -2.4953 0.2868 0 8
6.5632 -5.1374 -2.4953 0.2868 0 8
6.6449 -5.0313 -2.4953 0.2868 0 8
6.7249 -4.9238 -2.4953 0.2868 0 8
6.8032 -4.8151 -2.4953 0.2868 0 8
6.8797 -4.7051 -2.4953 0.2868 0 8
6.9545 -4.5939 -2.4953 0.2868 0 8
7.0274 -4.4815 -2.4953 0.2868 0 8
7.0985 -4.3680 -2.4953 0.2868 0 8
7.1678 -4.2533 -2.4953 0.2868 0 8
7.2353 -4.1376 -2.4953 0.2868 0 8
7.3008 -4.0207 -2.4953 0.2868 0 8
7.3645 -3.9029 -2.4953 0.2868 0 8
7.4263 -3.7840 -2.4953 0.2868 0 8
7.4862 -3.6641 -2.4953 0.2868 0 8
7.5441 -3.5433 -2.4953 0.2868 0 8
7.6001 -3.4216 -2.4953 0.2868 0 8
7.6541 -3.2990 -2.4953 0.2868 0 8
7.7061 -3.1755 -2.4953 0.2868 0 8
7.7562 -3.0513 -2.4953 0.2868 0 8
7.8042 -2.9262 -2.4953 0.2868 0 8
7.8503 -2.8004 -2.4953 0.2868 0 8
7.8943 -2.6738 -2.4953 0.2868 0 8
7.9362 -2.5466 -2.4953 0.2868 0 8
7.9761 -2.4187 -2.4953 0.2868 0 8
8.0140 -2.2902 -2.4953 0.2868 0 8
8.0497 -2.1611 -2.4953 0.2868 0 8
8.0834 -2.0314 -2.4953 0.2868 0 8
8.1150 -1.9012 -2.4953 0.2868 0 8
8.1446 -1.7705 -2.4953 0.2868 0 8
8.1720 -1.6394 -2.4953 0.2868 0 8
8.1973 -1.5078 -2.4953 0.2868 0 8
8.2204 -1.3759 -2.4953 0.2868 0 8
8.2415 -1.2436 -2.4953 0.2868 0 8
8.2604 -1.1109 -2.4953 0.2868 0 8
8.2772 -0.9780 -2.4953 0.2868 0 8
8.2919 -0.8448 -2.4953 0.2868 0 8
8.3044 -0.7115 -2.4953 0.2868 0 8
8.3147 -0.5779 -2.4953 0.2868 0 8
8.3229 -0.4442 -2.4953 0.2868 0 8
8.3290 -0.3103 -2.4953 0.2868 0 8
8.3329 -0.1764 -2.4953 0.2868 0 8
8.3347 -0.0424 -2.4953 0.2868 0 8
8.3343 0.0915 -2.4953 0.2868 0 8
8.3317 0.2255 -2.4953 0.2868 0 8
8.3270 0.3594 -2.4953 0.2868 0 8
8.3202 0.4932 -2.4953 0.2868 0 8
8.3112 0.6269 -2.4953 0.2868 0 8
8.3000 0.7604 -2.4953 0.2868 0 8
8.2867 0.8937 -2.4953 0.2868 0 8
8.2713 1.0268 -2.4953 0.2868 0 8
8.2537 1.1596 -2.4953 0.2868 0 8
8.2340 1.2921 -2.4953 0.2868 0 8
8.2122 1.4243 -2.4953 0.2868 0 8
8.1882 1.5561 -2.4953 0.2868 0 8
8.1622 1.6875 -2.4953 0.2868 0 8
8.1340 1.8185 -2.4953 0.2868 0 8
8.1037 1.9490 -2.4953 0.2868 0 8
8.0713 2.0790 -2.4953 0.2868 0 8
8.0369 2.2085 -2.4953 0.2868 0 8
8.0003 2.3374 -2.4953 0.2868 0 8
7.9617 2.4657 -2.4953 0.2868 0 8
7.9211 2.5933 -2.4953 0.2868 0 8
7.8784 2.7203 -2.4953 0.2868 0 8
7.8336 2.8466 -2.4953 0.2868 0 8
7.7868 2.9721 -2.4953 0.2868 0 8
7.7381 3.0969 -2.4953 0.2868 0 8
7.6873 3.2209 -2.4953 0.2868 0 8
7.6345 3.3440 -2.4953 0.2868 0 8
7.5798 3.4663 -2.4953 0.2868 0 8
7.5231 3.5877 -2.4953 0.2868 0 8
7.4645 3.7082 -2.4953 0.2868 0 8
7.4039 3.8277 -2.4953 0.2868 0 8
7.3414 3.9462 -2.4953 0.2868 0 8
7.2770 4.0637 -2.4953 0.2868 0 8
7.2108 4.1801 -2.4953 0.2868 0 8
7.1426 4.2955 -2.4953 0.2868 0 8
7.0727 4.4098 -2.4953 0.2868 0 8
7.0009 4.5229 -2.4953 0.2868 0 8
6.9273 4.6348 -2.4953 0.2868 0 8
6.8519 4.7456 -2.4953 0.2868 0 8
6.7747 4.8551 -2.4953 0.2868 0 8
6.2890 -5.0880 -2.4953 0.2948 0 8
6.3700 -4.9862 -2.4953 0.2948 0 8
6.4493 -4.8832 -2.4953 0.2948 0 8
6.5270 -4.7789 -2.4953 0.2948 0 8
6.6030 -4.6734 -2.4953 0.2948 0 8
6.6772 -4.5666 -2.4953 0.2948 0 8
6.7498 -4.4587 -2.4953 0.2948 0 8
6.8206 -4.3496 -2.4953 0.2948 0 8
6.8896 -4.2394 -2.4953 0.2948 0 8
6.9569 -4.1282 -2.4953 0.2948 0 8
7.0223 -4.0158 -2.4953 0.2948 0 8
7.0860 -3.9024 -2.4953 0.2948 0 8
7.1478 -3.7880 -2.4953 0.2948 0 8
7.2077 -3.6726 -2.4953 0.2948 0 8
7.2658 -3.5563 -2.4953 0.2948 0 8
7.3221 -3.4390 -2.4953 0.2948 0 8
7.3764 -3.3209 -2.4953 0.2948 0 8
7.4288 -3.2019 -2.4953 0.2948 0 8
7.4793 -3.0821 -2.4953 0.2948 0 8
7.5279 -2.9615 -2.4953 0.2948 0 8
7.5745 -2.8401 -2.4953 0.2948 0 8
7.6192 -2.7180 -2.4953 0.2948 0 8
7.6619 -2.5951 -2.4953 0.2948 0 8
7.7026 -2.4717 -2.4953 0.2948 0 8
7.7414 -2.3475 -2.4953 0.2948 0 8
7.7781 -2.2228 -2.4953 0.2948 0 8
7.8128 -2.0975 -2.4953 0.2948 0 8
7.8455 -1.9716 -2.4953 0.2948 0 8
7.8762 -1.8453 -2.4953 0.2948 0 8
7.9048 -1.7184 -2.4953 0.2948 0 8
7.9314 -1.5911 -2.4953 0.2948 0 8
7.9560 -1.4635 -2.4953 0.2948 0 8
7.9785 -1.3354 -2.4953 0.2948 0 8
7.9989 -1.2070 -2.4953 0.2948 0 8
8.0173 -1.0782 -2.4953 0.2948 0 8
8.0336 -0.9492 -2.4953 0.2948 0 8
8.0478 -0.8200 -2.4953 0.2948 0 8
8.0599 -0.6905 -2.4953 0.2948 0 8
8.0700 -0.5609 -2.4953 0.2948 0 8
8.0780 -0.4311 -2.4953 0.2948 0 8
8.0839 -0.3012 -2.4953 0.2948 0 8
8.0877 -0.1712 -2.4953 0.2948 0 8
8.0894 -0.0412 -2.4953 0.2948 0 8
8.0890 0.0888 -2.4953 0.2948 0 8
8.0865 0.2189 -2.4953 0.2948 0 8
8.0819 0.3488 -2.4953 0.2948 0 8
8.0753 0.4787 -2.4953 0.2948 0 8
8.0666 0.6084 -2.4953 0.2948 0 8
8.0557 0.7380 -2.4953 0.2948 0 8
8.0428 0.8674 -2.4953 0.2948 0 8
8.0279 0.9965 -2.4953 0.2948 0 8
8.0108 1.1255 -2.4953 0.2948 0 8
7.9917 1.2541 -2.4953 0.2948 0 8
7.9705 1.3824 -2.4953 0.2948 0 8
7.9472 1.5103 -2.4953 0.2948 0 8
7.9219 1.6379 -2.4953 0.2948 0 8
7.8946 1.7650 -2.4953 0.2948 0 8
7.8652 1.8916 -2.4953 0.2948 0 8
7.8338 2.0178 -2.4953 0.2948 0 8
7.8003 2.1435 -2.4953 0.2948 0 8
7.7649 2.2686 -2.4953 0.2948 0 8
7.7274 2.3931 -2.4953 0.2948 0 8
7.6879 2.5170 -2.4953 0.2948 0 8
7.6465 2.6402 -2.4953 0.2948 0 8
7.6031 2.7628 -2.4953 0.2948 0 8
7.5577 2.8847 -2.4953 0.2948 0 8
7.5103 3.0058 -2.4953 0.2948 0 8
7.4610 3.1261 -2.4953 0.2948 0 8
7.4098 3.2456 -2.4953 0.2948 0 8
7.3567 3.3643 -2.4953 0.2948 0 8
7.3017 3.4821 -2.4953 0.2948 0 8
7.2448 3.5990 -2.4953 0.2948 0 8
7.1860 3.7150 -2.4953 0.2948 0 8
7.1253 3.8301 -2.4953 0.2948 0 8
7.0628 3.9441 -2.4953 0.2948 0 8
6.9985 4.0571 -2.4953 0.2948 0 8
6.9324 4.1691 -2.4953 0.2948 0 8
6.8645 4.2800 -2.4953 0.2948 0 8
6.7948 4.3898 -2.4953 0.2948 0 8
6.7234 4.4984 -2.4953 0.2948 0 8
6.6502 4.6059 -2.4953 0.2948 0 8
6.5753 4.7122 -2.4953 0.2948 0 8
6.1083 -4.9418 -2.4953 0.3027 0 8
6.1870 -4.8429 -2.4953 0.3027 0 8
6.2640 -4.7429 -2.4953 0.3027 0 8
6.3395 -4.6416 -2.4953 0.3027 0 8
6.4132 -4.5391 -2.4953 0.3027 0 8
6.4854 -4.4354 -2.4953 0.3027 0 8
6.5558 -4.3306 -2.4953 0.3027 0 8
6.6246 -4.2247 -2.4953 0.3027 0 8
6.6916 -4.1176 -2.4953 0.3027 0 8
6.7570 -4.0095 -2.4953 0.3027 0 8
6.8205 -3.9004 -2.4953 0.3027 0 8
6.8824 -3.7903 -2.4953 0.3027 0 8
6.9424 -3.6792 -2.4953 0.3027 0 8
7.0006 -3.5671 -2.4953 0.3027 0 8
7.0571 -3.4541 -2.4953 0.3027 0 8
7.1117 -3.3402 -2.4953 0.3027 0 8
7.1644 -3.2255 -2.4953 0.3027 0 8
7.2154 -3.1099 -2.4953 0.3027 0 8
7.2644 -2.9935 -2.4953 0.3027 0 8
7.3116 -2.8764 -2.4953 0.3027 0 8
7.3569 -2.7585 -2.4953 0.3027 0 8
7.4003 -2.6399 -2.4953 0.3027 0 8
7.4417 -2.5206 -2.4953 0.3027 0 8
7.4813 -2.4006 -2.4953 0.3027 0 8
7.5189 -2.2801 -2.4953 0.3027 0 8
7.5546 -2.1589 -2.4953 0.3027 0 8
7.5883 -2.0372 -2.4953 0.3027 0 8
7.6201 -1.9150 -2.4953 0.3027 0 8
7.6499 -1.7922 -2.4953 0.3027 0 8
7.6777 -1.6691 -2.4953 0.3027 0 8
7.7035 -1.5454 -2.4953 0.3027 0 8
7.7274 -1.4214 -2.4953 0.3027 0 8
7.7492 -1.2970 -2.4953 0.3027 0 8
7.7691 -1.1723 -2.4953 0.3027 0 8
7.7869 -1.0473 -2.4953 0.3027 0 8
7.8028 -0.9220 -2.4953 0.3027 0 8
7.8166 -0.7964 -2.4953 0.3027 0 8
7.8284 -0.6707 -2.4953 0.3027 0 8
7.8381 -0.5448 -2.4953 0.3027 0 8
7.8459 -0.4187 -2.4953 0.3027 0 8
7.8516 -0.2925 -2.4953 0.3027 0 8
7.8553 -0.1663 -2.4953 0.3027 0 8
7.8569 -0.0400 -2.4953 0.3027 0 8
7.8566 0.0863 -2.4953 0.3027 0 8
7.8542 0.2126 -2.4953 0.3027 0 8
7.8497 0.3388 -2.4953 0.3027 0 8
7.8433 0.4649 -2.4953 0.3027 0 8
7.8348 0.5909 -2.4953 0.3027 0 8
7.8243 0.7168 -2.4953 0.3027 0 8
7.8117 0.8425 -2.4953 0.3027 0 8
7.7972 0.9679 -2.4953 0.3027 0 8
7.7806 1.0931 -2.4953 0.3027 0 8
7.7620 1.2180 -2.4953 0.3027 0 8
7.7415 1.3426 -2.4953 0.3027 0 8
7.7189 1.4669 -2.4953 0.3027 0 8
7.6943 1.5908 -2.4953 0.3027 0 8
7.6677 1.7143 -2.4953 0.3027 0 8
7.6392 1.8373 -2.4953 0.3027 0 8
7.6087 1.9598 -2.4953 0.3027 0 8
7.5762 2.0819 -2.4953 0.3027 0 8
7.5417 2.2034 -2.4953 0.3027 0 8
7.5054 2.3243 -2.4953 0.3027 0 8
7.4670 2.4447 -2.4953 0.3027 0 8
7.4268 2.5644 -2.4953 0.3027 0 8
7.3846 2.6834 -2.4953 0.3027 0 8
7.3405 2.8018 -2.4953 0.3027 0 8
7.2945 2.9194 -2.4953 0.3027 0 8
7.2466 3.0363 -2.4953 0.3027 0 8
7.1969 3.1524 -2.4953 0.3027 0 8
7.1453 3.2676 -2.4953 0.3027 0 8
7.0919 3.3821 -2.4953 0.3027 0 8
7.0366 3.4956 -2.4953 0.3027 0 8
6.9795 3.6083 -2.4953 0.3027 0 8
6.9206 3.7200 -2.4953 0.3027 0 8
6.8599 3.8308 -2.4953 0.3027 0 8
6.7974 3.9405 -2.4953 0.3027 0 8
6.7332 4.0493 -2.4953 0.3027 0 8
6.6673 4.1570 -2.4953 0.3027 0 8
6.5996 4.2636 -2.4953 0.3027 0 8
6.5302 4.3691 -2.4953 0.3027 0 8
6.4591 4.4735 -2.4953 0.3027 0 8
6.3864 4.5768 -2.4953 0.3027 0 8
5.9368 -4.8030 -2.4953 0.3106 0 8
6.0133 -4.7070 -2.4953 0.3106 0 8
6.0882 -4.6097 -2.4953 0.3106 0 8
6.1615 -4.5113 -2.4953 0.3106 0 8
6.2332 -4.4116 -2.4953 0.3106 0 8
6.3033 -4.3109 -2.4953 0.3106 0 8
6.3718 -4.2090 -2.4953 0.3106 0 8
6.4386 -4.1060 -2.4953 0.3106 0 8
6.5038 -4.0020 -2.4953 0.3106 0 8
6.5673 -3.8970 -2.4953 0.3106 0 8
6.6290 -3.7909 -2.4953 0.3106 0 8
6.6891 -3.6839 -2.4953 0.3106 0 8
6.7475 -3.5759 -2.4953 0.3106 0 8
6.8041 -3.4669 -2.4953 0.3106 0 8
6.8589 -3.3571 -2.4953 0.3106 0 8
6.9120 -3.2464 -2.4953 0.3106 0 8
6.9633 -3.1349 -2.4953 0.3106 0 8
7.0128 -3.0226 -2.4953 0.3106 0 8
7.0605 -2.9095 -2.4953 0.3106 0 8
7.1063 -2.7956 -2.4953 0.3106 0 8
7.1503 -2.6810 -2.4953 0.3106 0 8
7.1925 -2.5658 -2.4953 0.3106 0 8
7.2328 -2.4498 -2.4953 0.3106 0 8
7.2713 -2.3332 -2.4953 0.3106 0 8
7.3078 -2.2161 -2.4953 0.3106 0 8
7.3425 -2.0983 -2.4953 0.3106 0 8
7.3753 -1.9800 -2.4953 0.3106 0 8
7.4062 -1.8612 -2.4953 0.3106 0 8
7.4351 -1.7419 -2.4953 0.3106 0 8
7.4622 -1.6222 -2.4953 0.3106 0 8
7.4873 -1.5020 -2.4953 0.3106 0 8
7.5104 -1.3815 -2.4953 0.3106 0 8
7.5317 -1.2606 -2.4953 0.3106 0 8
7.5510 -1.1394 -2.4953 0.3106 0 8
7.5683 -1.0179 -2.4953 0.3106 0 8
7.5837 -0.8961 -2.4953 0.3106 0 8
7.5971 -0.7741 -2.4953 0.3106 0 8
7.6086 -0.6518 -2.4953 0.3106 0 8
7.6181 -0.5295 -2.4953 0.3106 0 8
7.6256 -0.4069 -2.4953 0.3106 0 8
7.6311 -0.2843 -2.4953 0.3106 0 8
7.6347 -0.1616 -2.4953 0.3106 0 8
7.6363 -0.0389 -2.4953 0.3106 0 8
7.6360 0.0839 -2.4953 0.3106 0 8
7.6336 0.2066 -2.4953 0.3106 0 8
7.6293 0.3293 -2.4953 0.3106 0 8
7.6231 0.4519 -2.4953 0.3106 0 8
7.6148 0.5743 -2.4953 0.3106 0 8
7.6046 0.6967 -2.4953 0.3106 0 8
7.5924 0.8188 -2.4953 0.3106 0 8
7.5783 0.9407 -2.4953 0.3106 0 8
7.5622 1.0624 -2.4953 0.3106 0 8
7.5441 1.1838 -2.4953 0.3106 0 8
7.5241 1.3050 -2.4953 0.3106 0 8
7.5022 1.4257 -2.4953 0.3106 0 8
7.4783 1.5461 -2.4953 0.3106 0 8
7.4525 1.6661 -2.4953 0.3106 0 8
7.4247 1.7857 -2.4953 0.3106 0 8
7.3951 1.9048 -2.4953 0.3106 0 8
7.3635 2.0234 -2.4953 0.3106 0 8
7.3300 2.1415 -2.4953 0.3106 0 8
7.2946 2.2591 -2.4953 0.3106 0 8
7.2574 2.3760 -2.4953 0.3106 0 8
7.2183 2.4924 -2.4953 0.3106 0 8
7.1773 2.6081 -2.4953 0.3106 0 8
7.1344 2.7231 -2.4953 0.3106 0 8
7.0897 2.8374 -2.4953 0.3106 0 8
7.0432 2.9510 -2.4953 0.3106 0 8
6.9949 3.0639 -2.4953 0.3106 0 8
6.9447 3.1759 -2.4953 0.3106 0 8
6.8928 3.2871 -2.4953 0.3106 0 8
6.8390 3.3975 -2.4953 0.3106 0 8
6.7835 3.5070 -2.4953 0.3106 0 8
6.7263 3.6156 -2.4953 0.3106 0 8
6.6673 3.7232 -2.4953 0.3106 0 8
6.6066 3.8299 -2.4953 0.3106 0 8
6.5442 3.9356 -2.4953 0.3106 0 8
6.4801 4.0403 -2.4953 0.3106 0 8
6.4143 4.1439 -2.4953 0.3106 0 8
6.3469 4.2465 -2.4953 0.3106 0 8
6.2778 4.3480 -2.4953 0.3106 0 8
6.2071 4.4483 -2.4953 0.3106 0 8
5.7739 -4.6712 -2.4953 0.3185 0 8
5.8482 -4.5778 -2.4953 0.3185 0 8
5.9210 -4.4832 -2.4953 0.3185 0 8
5.9923 -4.3874 -2.4953 0.3185 0 8
6.0621 -4.2905 -2.4953 0.3185 0 8
6.1302 -4.1925 -2.4953 0.3185 0 8
6.1968 -4.0935 -2.4953 0.3185 0 8
6.2618 -3.9933 -2.4953 0.3185 0 8
6.3252 -3.8922 -2.4953 0.3185 0 8
6.3870 -3.7900 -2.4953 0.3185 0 8
6.4471 -3.6868 -2.4953 0.3185 0 8
6.5055 -3.5827 -2.4953 0.3185 0 8
6.5622 -3.4777 -2.4953 0.3185 0 8
6.6173 -3.3718 -2.4953 0.3185 0 8
6.6706 -3.2650 -2.4953 0.3185 0 8
6.7222 -3.1573 -2.4953 0.3185 0 8
6.7721 -3.0489 -2.4953 0.3185 0 8
6.8203 -2.9396 -2.4953 0.3185 0 8
6.8666 -2.8296 -2.4953 0.3185 0 8
6.9112 -2.7189 -2.4953 0.3185 0 8
6.9540 -2.6074 -2.4953 0.3185 0 8
6.9950 -2.4953 -2.4953 0.3185 0 8
7.0343 -2.3826 -2.4953 0.3185 0 8
7.0716 -2.2692 -2.4953 0.3185 0 8
7.1072 -2.1552 -2.4953 0.3185 0 8
7.1409 -2.0407 -2.4953 0.3185 0 8
7.1728 -1.9257 -2.4953 0.3185 0 8
7.2028 -1.8101 -2.4953 0.3185 0 8
7.2310 -1.6941 -2.4953 0.3185 0 8
7.2573 -1.5777 -2.4953 0.3185 0 8
7.2817 -1.4608 -2.4953 0.3185 0 8
7.3043 -1.3436 -2.4953 0.3185 0 8
7.3249 -1.2260 -2.4953 0.3185 0 8
7.3437 -1.1081 -2.4953 0.3185 0 8
7.3605 -0.9899 -2.4953 0.3185 0 8
7.3755 -0.8715 -2.4953 0.3185 0 8
7.3885 -0.7528 -2.4953 0.3185 0 8
7.3997 -0.6339 -2.4953 0.3185 0 8
7.4089 -0.5149 -2.4953 0.3185 0 8
7.4162 -0.3958 -2.4953 0.3185 0 8
7.4216 -0.2765 -2.4953 0.3185 0 8
7.4251 -0.1572 -2.4953 0.3185 0 8
7.4267 -0.0378 -2.4953 0.3185 0 8
7.4264 0.0816 -2.4953 0.3185 0 8
7.4241 0.2009 -2.4953 0.3185 0 8
7.4199 0.3202 -2.4953 0.3185 0 8
7.4138 0.4395 -2.4953 0.3185 0 8
7.4058 0.5586 -2.4953 0.3185 0 8
7.3958 0.6775 -2.4953 0.3185 0 8
7.3840 0.7963 -2.4953 0.3185 0 8
7.3702 0.9149 -2.4953 0.3185 0 8
7.3546 1.0333 -2.4953 0.3185 0 8
7.3370 1.1513 -2.4953 0.3185 0 8
7.3176 1.2691 -2.4953 0.3185 0 8
7.2962 1.3866 -2.4953 0.3185 0 8
7.2730 1.5037 -2.4953 0.3185 0 8
7.2479 1.6204 -2.4953 0.3185 0 8
7.2209 1.7367 -2.4953 0.3185 0 8
7.1920 1.8525 -2.4953 0.3185 0 8
7.1613 1.9679 -2.4953 0.3185 0 8
7.1288 2.0827 -2.4953 0.3185 0 8
7.0944 2.1971 -2.4953 0.3185 0 8
7.0582 2.3108 -2.4953 0.3185 0 8
7.0201 2.4240 -2.4953 0.3185 0 8
6.9802 2.5365 -2.4953 0.3185 0 8
6.9386 2.6484 -2.4953 0.3185 0 8
6.8951 2.7595 -2.4953 0.3185 0 8
6.8498 2.8700 -2.4953 0.3185 0 8
6.8028 2.9798 -2.4953 0.3185 0 8
6.7540 3.0887 -2.4953 0.3185 0 8
6.7035 3.1969 -2.4953 0.3185 0 8
6.6513 3.3042 -2.4953 0.3185 0 8
6.5973 3.4107 -2.4953 0.3185 0 8
6.5416 3.5163 -2.4953 0.3185 0 8
6.4843 3.6210 -2.4953 0.3185 0 8
6.4252 3.7248 -2.4953 0.3185 0 8
6.3645 3.8276 -2.4953 0.3185 0 8
6.3022 3.9294 -2.4953 0.3185 0 8
6.2382 4.0302 -2.4953 0.3185 0 8
6.1726 4.1299 -2.4953 0.3185 0 8
6.1054 4.2286 -2.4953 0.3185 0 8
6.0367 4.3262 -2.4953 0.3185 0 8
5.6187 -4.5457 -2.4953 0.3264 0 8
5.6911 -4.4548 -2.4953 0.3264 0 8
5.7620 -4.3627 -2.4953 0.3264 0 8
5.8313 -4.2695 -2.4953 0.3264 0 8
5.8992 -4.1753 -2.4953 0.3264 0 8
5.9656 -4.0799 -2.4953 0.3264 0 8
6.0304 -3.9835 -2.4953 0.3264 0 8
6.0936 -3.8860 -2.4953 0.3264 0 8
6.1553 -3.7876 -2.4953 0.3264 0 8
6.2154 -3.6882 -2.4953 0.3264 0 8
6.2739 -3.5878 -2.4953 0.3264 0 8
6.3307 -3.4865 -2.4953 0.3264 0 8
6.3859 -3.3843 -2.4953 0.3264 0 8
6.4395 -3.2812 -2.4953 0.3264 0 8
6.4914 -3.1773 -2.4953 0.3264 0 8
6.5417 -3.0725 -2.4953 0.3264 0 8
6.5902 -2.9670 -2.4953 0.3264 0 8
6.6370 -2.8606 -2.4953 0.3264 0 8
6.6822 -2.7536 -2.4953 0.3264 0 8
6.7256 -2.6458 -2.4953 0.3264 0 8
6.7672 -2.5374 -2.4953 0.3264 0 8
6.8071 -2.4283 -2.4953 0.3264 0 8
6.8453 -2.3185 -2.4953 0.3264 0 8
6.8817 -2.2082 -2.4953 0.3264 0 8
6.9163 -2.0973 -2.4953 0.3264 0 8
6.9491 -1.9859 -2.4953 0.3264 0 8
6.9801 -1.8739 -2.4953 0.3264 0 8
7.0093 -1.7615 -2.4953 0.3264 0 8
7.0367 -1.6486 -2.4953 0.3264 0 8
7.0623 -1.5353 -2.4953 0.3264 0 8
7.0861 -1.4216 -2.4953 0.3264 0 8
7.1080 -1.3075 -2.4953 0.3264 0 8
7.1281 -1.1931 -2.4953 0.3264 0 8
7.1464 -1.0783 -2.4953 0.3264 0 8
7.1628 -0.9633 -2.4953 0.3264 0 8
7.1773 -0.8481 -2.4953 0.3264 0 8
7.1901 -0.7326 -2.4953 0.3264 0 8
7.2009 -0.6169 -2.4953 0.3264 0 8
7.2099 -0.5011 -2.4953 0.3264 0 8
7.2170 -0.3851 -2.4953 0.3264 0 8
7.2223 -0.2691 -2.4953 0.3264 0 8
7.2257 -0.1530 -2.4953 0.3264 0 8
7.2272 -0.0368 -2.4953 0.3264 0 8
7.2268 0.0794 -2.4953 0.3264 0 8
7.2246 0.1955 -2.4953 0.3264 0 8
7.2206 0.3116 -2.4953 0.3264 0 8
7.2146 0.4277 -2.4953 0.3264 0 8
7.2068 0.5436 -2.4953 0.3264 0 8
7.1971 0.6593 -2.4953 0.3264 0 8
7.1856 0.7749 -2.4953 0.3264 0 8
7.1722 0.8903 -2.4953 0.3264 0 8
7.1570 1.0055 -2.4953 0.3264 0 8
7.1399 1.1204 -2.4953 0.3264 0 8
7.1210 1.2350 -2.4953 0.3264 0 8
7.1002 1.3493 -2.4953 0.3264 0 8
7.0776 1.4633 -2.4953 0.3264 0 8
7.0532 1.5769 -2.4953 0.3264 0 8
7.0269 1.6900 -2.4953 0.3264 0 8
6.9988 1.8028 -2.4953 0.3264 0 8
6.9689 1.9150 -2.4953 0.3264 0 8
6.9373 2.0268 -2.4953 0.3264 0 8
6.9038 2.1380 -2.4953 0.3264 0 8
6.8685 2.2487 -2.4953 0.3264 0 8
6.8315 2.3588 -2.4953 0.3264 0 8
6.7927 2.4683 -2.4953 0.3264 0 8
6.7521 2.5772 -2.4953 0.3264 0 8
6.7099 2.6854 -2.4953 0.3264 0 8
6.6658 2.7929 -2.4953 0.3264 0 8
6.6201 2.8997 -2.4953 0.3264 0 8
6.5726 3.0057 -2.4953 0.3264 0 8
6.5234 3.1110 -2.4953 0.3264 0 8
6.4726 3.2154 -2.4953 0.3264 0 8
6.4201 3.3191 -2.4953 0.3264 0 8
6.3659 3.4218 -2.4953 0.3264 0 8
6.3101 3.5237 -2.4953 0.3264 0 8
6.2526 3.6247 -2.4953 0.3264 0 8
6.1935 3.7247 -2.4953 0.3264 0 8
6.1329 3.8238 -2.4953 0.3264 0 8
6.0706 3.9219 -2.4953 0.3264 0 8
6.0068 4.0190 -2.4953 0.3264 0 8
5.9414 4.1150 -2.4953 0.3264 0 8
5.8745 4.2100 -2.4953 0.3264 0 8
5.4709 -4.4261 -2.4953 0.3342 0 8
5.5414 -4.3376 -2.4953 0.3342 0 8
5.6104 -4.2479 -2.4953 0.3342 0 8
5.6779 -4.1572 -2.4953 0.3342 0 8
5.7440 -4.0654 -2.4953 0.3342 0 8
5.8086 -3.9726 -2.4953 0.3342 0 8
5.8717 -3.8787 -2.4953 0.3342 0 8
5.9333 -3.7838 -2.4953 0.3342 0 8
5.9934 -3.6879 -2.4953 0.3342 0 8
6.0519 -3.5911 -2.4953 0.3342 0 8
6.1088 -3.4934 -2.4953 0.3342 0 8
6.1642 -3.3948 -2.4953 0.3342 0 8
6.2179 -3.2952 -2.4953 0.3342 0 8
6.2701 -3.1949 -2.4953 0.3342 0 8
6.3206 -3.0937 -2.4953 0.3342 0 8
6.3696 -2.9917 -2.4953 0.3342 0 8
6.4168 -2.8889 -2.4953 0.3342 0 8
6.4624 -2.7854 -2.4953 0.3342 0 8
6.5064 -2.6811 -2.4953 0.3342 0 8
6.5486 -2.5762 -2.4953 0.3342 0 8
6.5892 -2.4706 -2.4953 0.3342 0 8
6.6280 -2.3644 -2.4953 0.3342 0 8
6.6652 -2.2576 -2.4953 0.3342 0 8
6.7006 -2.1501 -2.4953 0.3342 0 8
6.7343 -2.0421 -2.4953 0.3342 0 8
6.7663 -1.9336 -2.4953 0.3342 0 8
6.7965 -1.8246 -2.4953 0.3342 0 8
6.8249 -1.7151 -2.4953 0.3342 0 8
6.8516 -1.6052 -2.4953 0.3342 0 8
6.8765 -1.4949 -2.4953 0.3342 0 8
6.8997 -1.3842 -2.4953 0.3342 0 8
6.9210 -1.2731 -2.4953 0.3342 0 8
6.9406 -1.1617 -2.4953 0.3342 0 8
6.9584 -1.0500 -2.4953 0.3342 0 8
6.9743 -0.9380 -2.4953 0.3342 0 8
6.9885 -0.8257 -2.4953 0.3342 0 8
7.0009 -0.7133 -2.4953 0.3342 0 8
7.0115 -0.6007 -2.4953 0.3342 0 8
7.0202 -0.4879 -2.4953 0.3342 0 8
7.0271 -0.3750 -2.4953 0.3342 0 8
7.0323 -0.2620 -2.4953 0.3342 0 8
7.0356 -0.1489 -2.4953 0.3342 0 8
7.0370 -0.0358 -2.4953 0.3342 0 8
7.0367 0.0773 -2.4953 0.3342 0 8
7.0346 0.1904 -2.4953 0.3342 0 8
7.0306 0.3034 -2.4953 0.3342 0 8
7.0248 0.4164 -2.4953 0.3342 0 8
7.0172 0.5293 -2.4953 0.3342 0 8
7.0078 0.6420 -2.4953 0.3342 0 8
6.9966 0.7545 -2.4953 0.3342 0 8
6.9835 0.8669 -2.4953 0.3342 0 8
6.9687 0.9791 -2.4953 0.3342 0 8
6.9521 1.0909 -2.4953 0.3342 0 8
6.9336 1.2025 -2.4953 0.3342 0 8
6.9134 1.3138 -2.4953 0.3342 0 8
6.8914 1.4248 -2.4953 0.3342 0 8
6.8676 1.5354 -2.4953 0.3342 0 8
6.8420 1.6456 -2.4953 0.3342 0 8
6.8147 1.7553 -2.4953 0.3342 0 8
6.7856 1.8646 -2.4953 0.3342 0 8
6.7548 1.9735 -2.4953 0.3342 0 8
6.7222 2.0818 -2.4953 0.3342 0 8
6.6878 2.1896 -2.4953 0.3342 0 8
6.6518 2.2968 -2.4953 0.3342 0 8
6.6140 2.4034 -2.4953 0.3342 0 8
6.5745 2.5094 -2.4953 0.3342 0 8
6.5333 2.6148 -2.4953 0.3342 0 8
6.4904 2.7194 -2.4953 0.3342 0 8
6.4459 2.8234 -2.4953 0.3342 0 8
6.3997 2.9267 -2.4953 0.3342 0 8
6.3518 3.0291 -2.4953 0.3342 0 8
6.3023 3.1309 -2.4953 0.3342 0 8
6.2512 3.2317 -2.4953 0.3342 0 8
6.1984 3.3318 -2.4953 0.3342 0 8
6.1441 3.4310 -2.4953 0.3342 0 8
6.0881 3.5293 -2.4953 0.3342 0 8
6.0306 3.6267 -2.4953 0.3342 0 8
5.9715 3.7232 -2.4953 0.3342 0 8
5.9109 3.8187 -2.4953 0.3342 0 8
5.8488 3.9132 -2.4953 0.3342 0 8
5.7851 4.0067 -2.4953 0.3342 0 8
5.7200 4.0992 -2.4953 0.3342 0 8
5.3299 -4.3120 -2.4953 0.3420 0 8
5.3985 -4.2257 -2.4953 0.3420 0 8
5.4657 -4.1384 -2.4953 0.3420 0 8
5.5315 -4.0500 -2.4953 0.3420 0 8
5.5959 -3.9606 -2.4953 0.3420 0 8
5.6589 -3.8701 -2.4953 0.3420 0 8
5.7203 -3.7787 -2.4953 0.3420 0 8
5.7803 -3.6863 -2.4953 0.3420 0 8
5.8388 -3.5929 -2.4953 0.3420 0 8
5.8958 -3.4985 -2.4953 0.3420 0 8
5.9513 -3.4033 -2.4953 0.3420 0 8
6.0052 -3.3072 -2.4953 0.3420 0 8
6.0576 -3.2103 -2.4953 0.3420 0 8
6.1084 -3.1125 -2.4953 0.3420 0 8
6.1577 -3.0139 -2.4953 0.3420 0 8
6.2053 -2.9145 -2.4953 0.3420 0 8
6.2514 -2.8144 -2.4953 0.3420 0 8
6.2958 -2.7136 -2.4953 0.3420 0 8
6.3386 -2.6120 -2.4953 0.3420 0 8
6.3798 -2.5098 -2.4953 0.3420 0 8
6.4193 -2.4069 -2.4953 0.3420 0 8
6.4572 -2.3034 -2.4953 0.3420 0 8
6.4933 -2.1993 -2.4953 0.3420 0 8
6.5279 -2.0947 -2.4953 0.3420 0 8
6.5607 -1.9895 -2.4953 0.3420 0 8
6.5918 -1.8838 -2.4953 0.3420 0 8
6.6212 -1.7776 -2.4953 0.3420 0 8
6.6490 -1.6709 -2.4953 0.3420 0 8
6.6750 -1.5638 -2.4953 0.3420 0 8
6.6992 -1.4563 -2.4953 0.3420 0 8
6.7218 -1.3485 -2.4953 0.3420 0 8
6.7426 -1.2403 -2.4953 0.3420 0 8
6.7616 -1.1317 -2.4953 0.3420 0 8
6.7790 -1.0229 -2.4953 0.3420 0 8
6.7945 -0.9138 -2.4953 0.3420 0 8
6.8083 -0.8045 -2.4953 0.3420 0 8
6.8204 -0.6949 -2.4953 0.3420 0 8
6.8307 -0.5852 -2.4953 0.3420 0 8
6.8392 -0.4753 -2.4953 0.3420 0 8
6.8460 -0.3653 -2.4953 0.3420 0 8
6.8509 -0.2552 -2.4953 0.3420 0 8
6.8542 -0.1451 -2.4953 0.3420 0 8
6.8556 -0.0349 -2.4953 0.3420 0 8
6.8553 0.0753 -2.4953 0.3420 0 8
6.8532 0.1855 -2.4953 0.3420 0 8
6.8493 0.2956 -2.4953 0.3420 0 8
6.8437 0.4057 -2.4953 0.3420 0 8
6.8363 0.5156 -2.4953 0.3420 0 8
6.8271 0.6254 -2.4953 0.3420 0 8
6.8162 0.7351 -2.4953 0.3420 0 8
6.8035 0.8446 -2.4953 0.3420 0 8
6.7890 0.9538 -2.4953 0.3420 0 8
6.7728 1.0628 -2.4953 0.3420 0 8
6.7549 1.1715 -2.4953 0.3420 0 8
6.7352 1.2800 -2.4953 0.3420 0 8
6.7137 1.3881 -2.4953 0.3420 0 8
6.6905 1.4958 -2.4953 0.3420 0 8
6.6656 1.6031 -2.4953 0.3420 0 8
6.6390 1.7101 -2.4953 0.3420 0 8
6.6107 1.8166 -2.4953 0.3420 0 8
6.5806 1.9226 -2.4953 0.3420 0 8
6.5488 2.0281 -2.4953 0.3420 0 8
6.5154 2.1331 -2.4953 0.3420 0 8
6.4803 2.2376 -2.4953 0.3420 0 8
6.4435 2.3414 -2.4953 0.3420 0 8
6.4050 2.4447 -2.4953 0.3420 0 8
6.3649 2.5473 -2.4953 0.3420 0 8
6.3231 2.6493 -2.4953 0.3420 0 8
6.2797 2.7506 -2.4953 0.3420 0 8
6.2347 2.8512 -2.4953 0.3420 0 8
6.1880 2.9510 -2.4953 0.3420 0 8
6.1398 3.0501 -2.4953 0.3420 0 8
6.0900 3.1484 -2.4953 0.3420 0 8
6.0386 3.2459 -2.4953 0.3420 0 8
5.9856 3.3426 -2.4953 0.3420 0 8
5.9311 3.4383 -2.4953 0.3420 0 8
5.8751 3.5332 -2.4953 0.3420 0 8
5.8176 3.6272 -2.4953 0.3420 0 8
5.7585 3.7202 -2.4953 0.3420 0 8
5.6980 3.8123 -2.4953 0.3420 0 8
5.6360 3.9034 -2.4953 0.3420 0 8
5.5725 3.9935 -2.4953 0.3420 0 8
5.1951 -4.2030 -2.4953 0.3498 0 8
5.2620 -4.1189 -2.4953 0.3498 0 8
5.3275 -4.0338 -2.4953 0.3498 0 8
5.3917 -3.9476 -2.4953 0.3498 0 8
5.4544 -3.8605 -2.4953 0.3498 0 8
5.5158 -3.7723 -2.4953 0.3498 0 8
5.5757 -3.6832 -2.4953 0.3498 0 8
5.6342 -3.5931 -2.4953 0.3498 0 8
5.6912 -3.5020 -2.4953 0.3498 0 8
5.7468 -3.4101 -2.4953 0.3498 0 8
5.8008 -3.3173 -2.4953 0.3498 0 8
5.8534 -3.2236 -2.4953 0.3498 0 8
5.9045 -3.1291 -2.4953 0.3498 0 8
5.9540 -3.0338 -2.4953 0.3498 0 8
6.0020 -2.9377 -2.4953 0.3498 0 8
6.0484 -2.8408 -2.4953 0.3498 0 8
6.0933 -2.7433 -2.4953 0.3498 0 8
6.1366 -2.6450 -2.4953 0.3498 0 8
6.1784 -2.5460 -2.4953 0.3498 0 8
6.2185 -2.4463 -2.4953 0.3498 0 8
6.2570 -2.3461 -2.4953 0.3498 0 8
6.2939 -2.2452 -2.4953 0.3498 0 8
6.3292 -2.1437 -2.4953 0.3498 0 8
6.3628 -2.0417 -2.4953 0.3498 0 8
6.3948 -1.9392 -2.4953 0.3498 0 8
6.4252 -1.8362 -2.4953 0.3498 0 8
6.4538 -1.7326 -2.4953 0.3498 0 8
6.4809 -1.6287 -2.4953 0.3498 0 8
6.5062 -1.5243 -2.4953 0.3498 0 8
6.5299 -1.4195 -2.4953 0.3498 0 8
6.5518 -1.3144 -2.4953 0.3498 0 8
6.5721 -1.2089 -2.4953 0.3498 0 8
6.5907 -1.1031 -2.4953 0.3498 0 8
6.6076 -0.9970 -2.4953 0.3498 0 8
6.6227 -0.8907 -2.4953 0.3498 0 8
6.6362 -0.7841 -2.4953 0.3498 0 8
6.6480 -0.6773 -2.4953 0.3498 0 8
6.6580 -0.5704 -2.4953 0.3498 0 8
6.6663 -0.4633 -2.4953 0.3498 0 8
6.6729 -0.3561 -2.4953 0.3498 0 8
6.6777 -0.2488 -2.4953 0.3498 0 8
6.6809 -0.1414 -2.4953 0.3498 0 8
6.6823 -0.0340 -2.4953 0.3498 0 8
6.6820 0.0734 -2.4953 0.3498 0 8
6.6799 0.1808 -2.4953 0.3498 0 8
6.6762 0.2881 -2.4953 0.3498 0 8
6.6707 0.3954 -2.4953 0.3498 0 8
6.6634 0.5026 -2.4953 0.3498 0 8
6.6545 0.6096 -2.4953 0.3498 0 8
6.6438 0.7165 -2.4953 0.3498 0 8
6.6315 0.8232 -2.4953 0.3498 0 8
6.6174 0.9297 -2.4953 0.3498 0 8
6.6016 1.0359 -2.4953 0.3498 0 8
6.5841 1.1419 -2.4953 0.3498 0 8
6.5649 1.2476 -2.4953 0.3498 0 8
6.5440 1.3530 -2.4953 0.3498 0 8
6.5214 1.4580 -2.4953 0.3498 0 8
6.4971 1.5626 -2.4953 0.3498 0 8
6.4711 1.6668 -2.4953 0.3498 0 8
6.4435 1.7706 -2.4953 0.3498 0 8
6.4142 1.8740 -2.4953 0.3498 0 8
6.3833 1.9768 -2.4953 0.3498 0 8
6.3507 2.0792 -2.4953 0.3498 0 8
6.3164 2.1810 -2.4953 0.3498 0 8
6.2806 2.2822 -2.4953 0.3498 0 8
6.2431 2.3829 -2.4953 0.3498 0 8
6.2040 2.4829 -2.4953 0.3498 0 8
6.1632 2.5823 -2.4953 0.3498 0 8
6.1209 2.6811 -2.4953 0.3498 0 8
6.0771 2.7791 -2.4953 0.3498 0 8
6.0316 2.8764 -2.4953 0.3498 0 8
5.9846 2.9730 -2.4953 0.3498 0 8
5.9360 3.0688 -2.4953 0.3498 0 8
5.8859 3.1638 -2.4953 0.3498 0 8
5.8343 3.2580 -2.4953 0.3498 0 8
5.7812 3.3514 -2.4953 0.3498 0 8
5.7266 3.4439 -2.4953 0.3498 0 8
5.6705 3.5355 -2.4953 0.3498 0 8
5.6129 3.6262 -2.4953 0.3498 0 8
5.5539 3.7159 -2.4953 0.3498 0 8
5.4935 3.8047 -2.4953 0.3498 0 8
5.4316 3.8925 -2.4953 0.3498 0 8
5.0662 -4.0987 -2.4953 0.3576 0 8
5.1315 -4.0167 -2.4953 0.3576 0 8
5.1954 -3.9337 -2.4953 0.3576 0 8
5.2579 -3.8497 -2.4953 0.3576 0 8
5.3191 -3.7647 -2.4953 0.3576 0 8
5.3789 -3.6787 -2.4953 0.3576 0 8
5.4374 -3.5918 -2.4953 0.3576 0 8
5.4944 -3.5039 -2.4953 0.3576 0 8
5.5500 -3.4151 -2.4953 0.3576 0 8
5.6042 -3.3255 -2.4953 0.3576 0 8
5.6569 -3.2350 -2.4953 0.3576 0 8
5.7082 -3.1436 -2.4953 0.3576 0 8
5.7580 -3.0515 -2.4953 0.3576 0 8
5.8063 -2.9585 -2.4953 0.3576 0 8
5.8531 -2.8648 -2.4953 0.3576 0 8
5.8984 -2.7704 -2.4953 0.3576 0 8
5.9422 -2.6752 -2.4953 0.3576 0 8
5.9844 -2.5793 -2.4953 0.3576 0 8
6.0251 -2.4828 -2.4953 0.3576 0 8
6.0642 -2.3857 -2.4953 0.3576 0 8
6.1018 -2.2879 -2.4953 0.3576 0 8
6.1378 -2.1895 -2.4953 0.3576 0 8
6.1722 -2.0906 -2.4953 0.3576 0 8
6.2050 -1.9911 -2.4953 0.3576 0 8
6.2362 -1.8911 -2.4953 0.3576 0 8
6.2658 -1.7906 -2.4953 0.3576 0 8
6.2937 -1.6897 -2.4953 0.3576 0 8
6.3201 -1.5883 -2.4953 0.3576 0 8
6.3448 -1.4865 -2.4953 0.3576 0 8
6.3679 -1.3843 -2.4953 0.3576 0 8
6.3893 -1.2818 -2.4953 0.3576 0 8
6.4091 -1.1789 -2.4953 0.3576 0 8
6.4272 -1.0757 -2.4953 0.3576 0 8
6.4436 -0.9723 -2.4953 0.3576 0 8
6.4584 -0.8686 -2.4953 0.3576 0 8
6.4716 -0.7647 -2.4953 0.3576 0 8
6.4830 -0.6605 -2.4953 0.3576 0 8
6.4928 -0.5563 -2.4953 0.3576 0 8
6.5009 -0.4518 -2.4953 0.3576 0 8
6.5073 -0.3473 -2.4953 0.3576 0 8
6.5121 -0.2426 -2.4953 0.3576 0 8
6.5151 -0.1379 -2.4953 0.3576 0 8
6.5165 -0.0332 -2.4953 0.3576 0 8
6.5162 0.0716 -2.4953 0.3576 0 8
6.5142 0.1763 -2.4953 0.3576 0 8
6.5105 0.2810 -2.4953 0.3576 0 8
6.5052 0.3856 -2.4953 0.3576 0 8
6.4981 0.4901 -2.4953 0.3576 0 8
6.4894 0.5945 -2.4953 0.3576 0 8
6.4790 0.6987 -2.4953 0.3576 0 8
6.4670 0.8028 -2.4953 0.3576 0 8
6.4532 0.9066 -2.4953 0.3576 0 8
6.4378 1.0102 -2.4953 0.3576 0 8
6.4207 1.1136 -2.4953 0.3576 0 8
6.4020 1.2166 -2.4953 0.3576 0 8
6.3816 1.3194 -2.4953 0.3576 0 8
6.3596 1.4218 -2.4953 0.3576 0 8
6.3359 1.5238 -2.4953 0.3576 0 8
6.3106 1.6255 -2.4953 0.3576 0 8
6.2837 1.7267 -2.4953 0.3576 0 8
6.2551 1.8275 -2.4953 0.3576 0 8
6.2249 1.9278 -2.4953 0.3576 0 8
6.1931 2.0276 -2.4953 0.3576 0 8
6.1597 2.1269 -2.4953 0.3576 0 8
6.1247 2.2256 -2.4953 0.3576 0 8
6.0882 2.3238 -2.4953 0.3576 0 8
6.0500 2.4213 -2.4953 0.3576 0 8
6.0103 2.5183 -2.4953 0.3576 0 8
5.9691 2.6146 -2.4953 0.3576 0 8
5.9263 2.7102 -2.4953 0.3576 0 8
5.8820 2.8051 -2.4953 0.3576 0 8
5.8361 2.8993 -2.4953 0.3576 0 8
5.7888 2.9927 -2.4953 0.3576 0 8
5.7399 3.0854 -2.4953 0.3576 0 8
5.6896 3.1772 -2.4953 0.3576 0 8
5.6378 3.2683 -2.4953 0.3576 0 8
5.5845 3.3585 -2.4953 0.3576 0 8
5.5298 3.4478 -2.4953 0.3576 0 8
5.4737 3.5362 -2.4953 0.3576 0 8
5.4161 3.6238 -2.4953 0.3576 0 8
5.3572 3.7103 -2.4953 0.3576 0 8
5.2968 3.7960 -2.4953 0.3576 0 8
4.9428 -3.9988 -2.4953 0.3653 0 8
5.0065 -3.9189 -2.4953 0.3653 0 8
5.0688 -3.8379 -2.4953 0.3653 0 8
5.1298 -3.7559 -2.4953 0.3653 0 8
5.1895 -3.6730 -2.4953 0.3653 0 8
5.2479 -3.5891 -2.4953 0.3653 0 8
5.3049 -3.5043 -2.4953 0.3653 0 8
5.3606 -3.4186 -2.4953 0.3653 0 8
5.4148 -3.3320 -2.4953 0.3653 0 8
5.4677 -3.2445 -2.4953 0.3653 0 8
5.5191 -3.1562 -2.4953 0.3653 0 8
5.5691 -3.0671 -2.4953 0.3653 0 8
5.6177 -2.9771 -2.4953 0.3653 0 8
5.6649 -2.8865 -2.4953 0.3653 0 8
5.7105 -2.7950 -2.4953 0.3653 0 8
5.7547 -2.7029 -2.4953 0.3653 0 8
5.7974 -2.6100 -2.4953 0.3653 0 8
5.8386 -2.5165 -2.4953 0.3653 0 8
5.8783 -2.4223 -2.4953 0.3653 0 8
5.9165 -2.3275 -2.4953 0.3653 0 8
5.9531 -2.2321 -2.4953 0.3653 0 8
5.9882 -2.1362 -2.4953 0.3653 0 8
6.0218 -2.0396 -2.4953 0.3653 0 8
6.0538 -1.9426 -2.4953 0.3653 0 8
6.0843 -1.8450 -2.4953 0.3653 0 8
6.1131 -1.7470 -2.4953 0.3653 0 8
6.1404 -1.6485 -2.4953 0.3653 0 8
6.1661 -1.5496 -2.4953 0.3653 0 8
6.1902 -1.4503 -2.4953 0.3653 0 8
6.2127 -1.3506 -2.4953 0.3653 0 8
6.2336 -1.2505 -2.4953 0.3653 0 8
6.2529 -1.1502 -2.4953 0.3653 0 8
6.2706 -1.0495 -2.4953 0.3653 0 8
6.2867 -0.9486 -2.4953 0.3653 0 8
6.3011 -0.8474 -2.4953 0.3653 0 8
6.3139 -0.7460 -2.4953 0.3653 0 8
6.3251 -0.6445 -2.4953 0.3653 0 8
6.3346 -0.5427 -2.4953 0.3653 0 8
6.3425 -0.4408 -2.4953 0.3653 0 8
6.3488 -0.3388 -2.4953 0.3653 0 8
6.3534 -0.2367 -2.4953 0.3653 0 8
6.3564 -0.1346 -2.4953 0.3653 0 8
6.3578 -0.0324 -2.4953 0.3653 0 8
6.3575 0.0698 -2.4953 0.3653 0 8
6.3555 0.1720 -2.4953 0.3653 0 8
6.3519 0.2741 -2.4953 0.3653 0 8
6.3467 0.3762 -2.4953 0.3653 0 8
6.3398 0.4782 -2.4953 0.3653 0 8
6.3313 0.5800 -2.4953 0.3653 0 8
6.3212 0.6817 -2.4953 0.3653 0 8
6.3094 0.7832 -2.4953 0.3653 0 8
6.2960 0.8845 -2.4953 0.3653 0 8
6.2810 0.9856 -2.4953 0.3653 0 8
6.2643 1.0865 -2.4953 0.3653 0 8
6.2461 1.1870 -2.4953 0.3653 0 8
6.2262 1.2873 -2.4953 0.3653 0 8
6.2047 1.3872 -2.4953 0.3653 0 8
6.1816 1.4867 -2.4953 0.3653 0 8
6.1569 1.5859 -2.4953 0.3653 0 8
6.1306 1.6846 -2.4953 0.3653 0 8
6.1027 1.7830 -2.4953 0.3653 0 8
6.0733 1.8808 -2.4953 0.3653 0 8
6.0423 1.9782 -2.4953 0.3653 0 8
6.0097 2.0751 -2.4953 0.3653 0 8
5.9755 2.1714 -2.4953 0.3653 0 8
5.9399 2.2672 -2.4953 0.3653 0 8
5.9027 2.3624 -2.4953 0.3653 0 8
5.8639 2.4569 -2.4953 0.3653 0 8
5.8237 2.5509 -2.4953 0.3653 0 8
5.7819 2.6441 -2.4953 0.3653 0 8
5.7387 2.7367 -2.4953 0.3653 0 8
5.6939 2.8286 -2.4953 0.3653 0 8
5.6477 2.9198 -2.4953 0.3653 0 8
5.6001 3.0102 -2.4953 0.3653 0 8
5.5510 3.0998 -2.4953 0.3653 0 8
5.5004 3.1886 -2.4953 0.3653 0 8
5.4485 3.2766 -2.4953 0.3653 0 8
5.3951 3.3638 -2.4953 0.3653 0 8
5.3403 3.4501 -2.4953 0.3653 0 8
5.2842 3.5355 -2.4953 0.3653 0 8
5.2267 3.6200 -2.4953 0.3653 0 8
5.1678 3.7035 -2.4953 0.3653 0 8
4.8245 -3.9031 -2.4953 0.3731 0 8
4.8866 -3.8251 -2.4953 0.3731 0 8
4.9475 -3.7461 -2.4953 0.3731 0 8
5.0071 -3.6660 -2.4953 0.3731 0 8
5.0653 -3.5851 -2.4953 0.3731 0 8
5.1223 -3.5032 -2.4953 0.3731 0 8
5.1780 -3.4204 -2.4953 0.3731 0 8
5.2323 -3.3367 -2.4953 0.3731 0 8
5.2852 -3.2522 -2.4953 0.3731 0 8
5.3368 -3.1668 -2.4953 0.3731 0 8
5.3870 -3.0806 -2.4953 0.3731 0 8
5.4359 -2.9937 -2.4953 0.3731 0 8
5.4833 -2.9059 -2.4953 0.3731 0 8
5.5293 -2.8174 -2.4953 0.3731 0 8
5.5739 -2.7281 -2.4953 0.3731 0 8
5.6170 -2.6382 -2.4953 0.3731 0 8
5.6587 -2.5476 -2.4953 0.3731 0 8
5.6989 -2.4563 -2.4953 0.3731 0 8
5.7376 -2.3644 -2.4953 0.3731 0 8
5.7749 -2.2718 -2.4953 0.3731 0 8
5.8107 -2.1787 -2.4953 0.3731 0 8
5.8449 -2.0850 -2.4953 0.3731 0 8
5.8777 -1.9908 -2.4953 0.3731 0 8
5.9089 -1.8961 -2.4953 0.3731 0 8
5.9386 -1.8009 -2.4953 0.3731 0 8
5.9668 -1.7052 -2.4953 0.3731 0 8
5.9935 -1.6090 -2.4953 0.3731 0 8
6.0186 -1.5125 -2.4953 0.3731 0 8
6.0421 -1.4156 -2.4953 0.3731 0 8
6.0641 -1.3183 -2.4953 0.3731 0 8
6.0845 -1.2206 -2.4953 0.3731 0 8
6.1033 -1.1227 -2.4953 0.3731 0 8
6.1206 -1.0244 -2.4953 0.3731 0 8
6.1362 -0.9259 -2.4953 0.3731 0 8
6.1503 -0.8272 -2.4953 0.3731 0 8
6.1628 -0.7282 -2.4953 0.3731 0 8
6.1737 -0.6290 -2.4953 0.3731 0 8
6.1830 -0.5297 -2.4953 0.3731 0 8
6.1908 -0.4303 -2.4953 0.3731 0 8
6.1969 -0.3307 -2.4953 0.3731 0 8
6.2014 -0.2310 -2.4953 0.3731 0 8
6.2043 -0.1313 -2.4953 0.3731 0 8
6.2056 -0.0316 -2.4953 0.3731 0 8
6.2053 0.0682 -2.4953 0.3731 0 8
6.2034 0.1679 -2.4953 0.3731 0 8
6.1999 0.2676 -2.4953 0.3731 0 8
6.1948 0.3672 -2.4953 0.3731 0 8
6.1881 0.4667 -2.4953 0.3731 0 8
6.1798 0.5661 -2.4953 0.3731 0 8
6.1699 0.6654 -2.4953 0.3731 0 8
6.1584 0.7645 -2.4953 0.3731 0 8
6.1453 0.8634 -2.4953 0.3731 0 8
6.1307 0.9620 -2.4953 0.3731 0 8
6.1144 1.0605 -2.4953 0.3731 0 8
6.0966 1.1586 -2.4953 0.3731 0 8
6.0772 1.2565 -2.4953 0.3731 0 8
6.0562 1.3540 -2.4953 0.3731 0 8
6.0336 1.4511 -2.4953 0.3731 0 8
6.0095 1.5479 -2.4953 0.3731 0 8
5.9839 1.6443 -2.4953 0.3731 0 8
5.9567 1.7403 -2.4953 0.3731 0 8
5.9279 1.8358 -2.4953 0.3731 0 8
5.8977 1.9309 -2.4953 0.3731 0 8
5.8659 2.0254 -2.4953 0.3731 0 8
5.8325 2.1194 -2.4953 0.3731 0 8
5.7977 2.2129 -2.4953 0.3731 0 8
5.7614 2.3058 -2.4953 0.3731 0 8
5.7236 2.3981 -2.4953 0.3731 0 8
5.6843 2.4898 -2.4953 0.3731 0 8
5.6436 2.5809 -2.4953 0.3731 0 8
5.6013 2.6712 -2.4953 0.3731 0 8
5.5577 2.7609 -2.4953 0.3731 0 8
5.5126 2.8499 -2.4953 0.3731 0 8
5.4661 2.9382 -2.4953 0.3731 0 8
5.4181 3.0256 -2.4953 0.3731 0 8
5.3688 3.1123 -2.4953 0.3731 0 8
5.3181 3.1982 -2.4953 0.3731 0 8
5.2660 3.2833 -2.4953 0.3731 0 8
5.2125 3.3675 -2.4953 0.3731 0 8
5.1577 3.4509 -2.4953 0.3731 0 8
5.1016 3.5333 -2.4953 0.3731 0 8
5.0441 3.6149 -2.4953 0.3731 0 8
4.7110 -3.8113 -2.4953 0.3808 0 8
4.7717 -3.7351 -2.4953 0.3808 0 8
4.8311 -3.6579 -2.4953 0.3808 0 8
4.8893 -3.5798 -2.4953 0.3808 0 8
4.9462 -3.5007 -2.4953 0.3808 0 8
5.0018 -3.4208 -2.4953 0.3808 0 8
5.0561 -3.3399 -2.4953 0.3808 0 8
5.1092 -3.2582 -2.4953 0.3808 0 8
5.1609 -3.1757 -2.4953 0.3808 0 8
5.2113 -3.0923 -2.4953 0.3808 0 8
5.2603 -3.0082 -2.4953 0.3808 0 8
5.3080 -2.9232 -2.4953 0.3808 0 8
5.3543 -2.8375 -2.4953 0.3808 0 8
5.3992 -2.7511 -2.4953 0.3808 0 8
5.4427 -2.6640 -2.4953 0.3808 0 8
5.4848 -2.5761 -2.4953 0.3808 0 8
5.5255 -2.4876 -2.4953 0.3808 0 8
5.5648 -2.3985 -2.4953 0.3808 0 8
5.6026 -2.3087 -2.4953 0.3808 0 8
5.6390 -2.2184 -2.4953 0.3808 0 8
5.6740 -2.1275 -2.4953 0.3808 0 8
5.7074 -2.0360 -2.4953 0.3808 0 8
5.7394 -1.9440 -2.4953 0.3808 0 8
5.7699 -1.8515 -2.4953 0.3808 0 8
5.7989 -1.7585 -2.4953 0.3808 0 8
5.8265 -1.6651 -2.4953 0.3808 0 8
5.8525 -1.5712 -2.4953 0.3808 0 8
5.8770 -1.4769 -2.4953 0.3808 0 8
5.8999 -1.3823 -2.4953 0.3808 0 8
5.9214 -1.2873 -2.4953 0.3808 0 8
5.9413 -1.1919 -2.4953 0.3808 0 8
5.9597 -1.0963 -2.4953 0.3808 0 8
5.9766 -1.0003 -2.4953 0.3808 0 8
5.9919 -0.9041 -2.4953 0.3808 0 8
6.0056 -0.8077 -2.4953 0.3808 0 8
6.0178 -0.7111 -2.4953 0.3808 0 8
6.0285 -0.6142 -2.4953 0.3808 0 8
6.0376 -0.5173 -2.4953 0.3808 0 8
6.0451 -0.4201 -2.4953 0.3808 0 8
6.0511 -0.3229 -2.4953 0.3808 0 8
6.0555 -0.2256 -2.4953 0.3808 0 8
6.0583 -0.1282 -2.4953 0.3808 0 8
6.0596 -0.0309 -2.4953 0.3808 0 8
6.0593 0.0666 -2.4953 0.3808 0 8
6.0575 0.1639 -2.4953 0.3808 0 8
6.0541 0.2613 -2.4953 0.3808 0 8
6.0491 0.3586 -2.4953 0.3808 0 8
6.0425 0.4558 -2.4953 0.3808 0 8
6.0344 0.5528 -2.4953 0.3808 0 8
6.0248 0.6497 -2.4953 0.3808 0 8
6.0135 0.7465 -2.4953 0.3808 0 8
6.0008 0.8431 -2.4953 0.3808 0 8
5.9864 0.9394 -2.4953 0.3808 0 8
5.9706 1.0355 -2.4953 0.3808 0 8
5.9531 1.1313 -2.4953 0.3808 0 8
5.9342 1.2269 -2.4953 0.3808 0 8
5.9137 1.3221 -2.4953 0.3808 0 8
5.8917 1.4170 -2.4953 0.3808 0 8
5.8682 1.5115 -2.4953 0.3808 0 8
5.8431 1.6056 -2.4953 0.3808 0 8
5.8165 1.6994 -2.4953 0.3808 0 8
5.7885 1.7926 -2.4953 0.3808 0 8
5.7589 1.8854 -2.4953 0.3808 0 8
5.7279 1.9778 -2.4953 0.3808 0 8
5.6953 2.0696 -2.4953 0.3808 0 8
5.6613 2.1609 -2.4953 0.3808 0 8
5.6259 2.2516 -2.4953 0.3808 0 8
5.5889 2.3417 -2.4953 0.3808 0 8
5.5506 2.4312 -2.4953 0.3808 0 8
5.5108 2.5202 -2.4953 0.3808 0 8
5.4696 2.6084 -2.4953 0.3808 0 8
5.4269 2.6960 -2.4953 0.3808 0 8
5.3829 2.7829 -2.4953 0.3808 0 8
5.3375 2.8690 -2.4953 0.3808 0 8
5.2907 2.9545 -2.4953 0.3808 0 8
5.2425 3.0391 -2.4953 0.3808 0 8
5.1930 3.1230 -2.4953 0.3808 0 8
5.1421 3.2061 -2.4953 0.3808 0 8
5.0899 3.2883 -2.4953 0.3808 0 8
5.0364 3.3697 -2.4953 0.3808 0 8
4.9816 3.4502 -2.4953 0.3808 0 8
4.9255 3.5298 -2.4953 0.3808 0 8
4.6020 -3.7231 -2.4953 0.3884 0 8
4.6613 -3.6487 -2.4953 0.3884 0 8
4.7193 -3.5733 -2.4953 0.3884 0 8
4.7761 -3.4970 -2.4953 0.3884 0 8
4.8317 -3.4197 -2.4953 0.3884 0 8
4.8861 -3.3416 -2.4953 0.3884 0 8
4.9392 -3.2627 -2.4953 0.3884 0 8
4.9910 -3.1829 -2.4953 0.3884 0 8
5.0415 -3.1022 -2.4953 0.3884 0 8
5.0907 -3.0208 -2.4953 0.3884 0 8
5.1386 -2.9386 -2.4953 0.3884 0 8
5.1852 -2.8556 -2.4953 0.3884 0 8
5.2304 -2.7719 -2.4953 0.3884 0 8
5.2743 -2.6874 -2.4953 0.3884 0 8
5.3168 -2.6023 -2.4953 0.3884 0 8
5.3579 -2.5165 -2.4953 0.3884 0 8
5.3977 -2.4301 -2.4953 0.3884 0 8
5.4360 -2.3430 -2.4953 0.3884 0 8
5.4730 -2.2553 -2.4953 0.3884 0 8
5.5086 -2.1671 -2.4953 0.3884 0 8
5.5427 -2.0782 -2.4953 0.3884 0 8
5.5754 -1.9889 -2.4953 0.3884 0 8
5.6066 -1.8990 -2.4953 0.3884 0 8
5.6364 -1.8086 -2.4953 0.3884 0 8
5.6648 -1.7178 -2.4953 0.3884 0 8
5.6916 -1.6265 -2.4953 0.3884 0 8
5.7170 -1.5348 -2.4953 0.3884 0 8
5.7410 -1.4427 -2.4953 0.3884 0 8
5.7634 -1.3503 -2.4953 0.3884 0 8
5.7844 -1.2575 -2.4953 0.3884 0 8
5.8038 -1.1643 -2.4953 0.3884 0 8
5.8218 -1.0709 -2.4953 0.3884 0 8
5.8383 -0.9772 -2.4953 0.3884 0 8
5.8532 -0.8832 -2.4953 0.3884 0 8
5.8667 -0.7890 -2.4953 0.3884 0 8
5.8786 -0.6946 -2.4953 0.3884 0 8
5.8890 -0.6000 -2.4953 0.3884 0 8
5.8979 -0.5053 -2.4953 0.3884 0 8
5.9052 -0.4104 -2.4953 0.3884 0 8
5.9111 -0.3154 -2.4953 0.3884 0 8
5.9154 -0.2204 -2.4953 0.3884 0 8
5.9182 -0.1253 -2.4953 0.3884 0 8
5.9194 -0.0301 -2.4953 0.3884 0 8
5.9191 0.0650 -2.4953 0.3884 0 8
5.9173 0.1601 -2.4953 0.3884 0 8
5.9140 0.2552 -2.4953 0.3884 0 8
5.9091 0.3503 -2.4953 0.3884 0 8
5.9027 0.4452 -2.4953 0.3884 0 8
5.8948 0.5400 -2.4953 0.3884 0 8
