ply
format ascii 1.0
element vertex 1321
property float32 x
property float32 y
property float32 z
property float32 CosAngle
property uint32 ObjIdx
property uint32 ObjTag
end_header
-34.3741 36.3066 -2.4953 0.0498 0 8
-34.9536 35.7491 -2.4953 0.0498 0 8
-37.6937 37.3310 -2.6477 0.0498 0 6
-38.2892 36.7200 -2.6477 0.0498 0 7
-38.8747 36.0995 -2.6477 0.0498 0 6
-39.4503 35.4696 -2.6477 0.0498 0 7
-40.0157 34.8303 -2.6477 0.0498 0 7
-40.5707 34.1825 -2.6477 0.0498 0 7
-41.1152 33.5255 -2.6477 0.0498 0 7
-41.6491 32.8599 -2.6477 0.0498 0 7
-42.1721 32.1859 -2.6477 0.0498 0 7
-42.6843 31.5035 -2.6477 0.0498 0 7
-43.1854 30.8129 -2.6477 0.0498 0 7
-43.6754 30.1144 -2.6477 0.0498 0 7
-44.1541 29.4081 -2.6477 0.0498 0 7
-44.6214 28.6941 -2.6477 0.0498 0 7
-45.0770 27.9728 -2.6477 0.0498 0 7
-45.5211 27.2442 -2.6477 0.0498 0 7
-45.9534 26.5086 -2.6477 0.0498 0 7
-46.3738 25.7661 -2.6477 0.0498 0 7
-46.7822 25.0169 -2.6477 0.0498 0 7
-47.1785 24.2613 -2.6477 0.0498 0 7
-47.5626 23.4994 -2.6477 0.0498 0 7
-47.9343 22.7315 -2.6477 0.0498 0 7
-48.2937 21.9576 -2.6477 0.0498 0 7
-48.6406 21.1780 -2.6477 0.0498 0 7
-48.9749 20.3930 -2.6477 0.0498 0 6
-49.2966 19.6028 -2.6477 0.0498 0 7
-49.6055 18.8074 -2.6477 0.0498 0 7
-49.9015 18.0071 -2.6477 0.0498 0 7
-50.1847 17.2023 -2.6477 0.0498 0 7
-50.4548 16.3929 -2.6477 0.0498 0 7
-50.7119 15.5794 -2.6477 0.0498 0 7
-50.9560 14.7618 -2.6477 0.0498 0 6
-51.1868 13.9404 -2.6477 0.0498 0 7
-51.4044 13.1153 -2.6477 0.0498 0 6
-51.6086 12.2869 -2.6477 0.0498 0 7
-51.7996 11.4553 -2.6477 0.0498 0 7
-51.9771 10.6208 -2.6477 0.0498 0 7
-52.1412 9.7834 -2.6477 0.0498 0 7
-52.2918 8.9436 -2.6477 0.0498 0 7
-52.4289 8.1014 -2.6477 0.0498 0 7
-52.5524 7.2572 -2.6477 0.0498 0 7
-52.6623 6.4111 -2.6477 0.0498 0 7
-52.7585 5.5632 -2.6477 0.0498 0 7
-52.8412 4.7140 -2.6477 0.0498 0 7
-52.9102 3.8636 -2.6477 0.0498 0 6
-52.9655 3.0122 -2.6477 0.0498 0 6
-53.0071 2.1599 -2.6477 0.0498 0 6
-53.0350 1.3072 -2.6477 0.0498 0 7
-53.0492 0.4540 -2.6477 0.0498 0 7
-53.0496 -0.3992 -2.6477 0.0498 0 6
-53.0363 -1.2524 -2.6477 0.0498 0 7
-53.0093 -2.1051 -2.6477 0.0498 0 7
-52.9686 -2.9574 -2.6477 0.0498 0 7
-52.9142 -3.8089 -2.6477 0.0498 0 7
-52.8461 -4.6594 -2.6477 0.0498 0 7
-52.7643 -5.5087 -2.6477 0.0498 0 7
-52.6689 -6.3566 -2.6477 0.0498 0 7
-52.5599 -7.2029 -2.6477 0.0498 0 7
-52.4372 -8.0473 -2.6477 0.0498 0 7
-52.3010 -8.8895 -2.6477 0.0498 0 7
-52.1513 -9.7296 -2.6477 0.0498 0 7
-51.9881 -10.5670 -2.6477 0.0498 0 7
-51.8114 -11.4018 -2.6477 0.0498 0 7
-51.6213 -12.2336 -2.6477 0.0498 0 7
-51.4179 -13.0622 -2.6477 0.0498 0 7
-51.2011 -13.8875 -2.6477 0.0498 0 7
-50.9712 -14.7091 -2.6477 0.0498 0 7
-50.7280 -15.5270 -2.6477 0.0498 0 7
-50.4718 -16.3408 -2.6477 0.0498 0 7
-50.2024 -17.1504 -2.6477 0.0498 0 7
-49.9201 -17.9556 -2.6477 0.0498 0 7
-49.6249 -18.7561 -2.6477 0.0498 0 7
-49.3168 -19.5518 -2.6477 0.0498 0 7
-48.9960 -20.3424 -2.6477 0.0498 0 7
-48.6625 -21.1278 -2.6477 0.0498 0 7
-48.3164 -21.9076 -2.6477 0.0498 0 7
-47.9578 -22.6819 -2.6477 0.0498 0 7
-47.5868 -23.4502 -2.6477 0.0498 0 7
-47.2035 -24.2126 -2.6477 0.0498 0 6
-46.8080 -24.9686 -2.6477 0.0498 0 7
-46.4004 -25.7182 -2.6477 0.0498 0 7
-45.9808 -26.4611 -2.6477 0.0498 0 7
-45.5492 -27.1972 -2.6477 0.0498 0 7
-45.1059 -27.9262 -2.6477 0.0498 0 7
-44.6510 -28.6480 -2.6477 0.0498 0 7
-44.1845 -29.3624 -2.6477 0.0498 0 7
-43.7065 -30.0692 -2.6477 0.0498 0 7
-43.2173 -30.7683 -2.6477 0.0498 0 7
-42.7168 -31.4594 -2.6477 0.0498 0 7
-42.2054 -32.1423 -2.6477 0.0498 0 7
-41.6830 -32.8169 -2.6477 0.0498 0 7
-41.1498 -33.4830 -2.6477 0.0498 0 7
-40.6060 -34.1405 -2.6477 0.0498 0 7
-40.0517 -34.7892 -2.6477 0.0498 0 7
-37.2141 -33.3895 -2.4953 0.0498 0 8
-36.6723 -33.9837 -2.4953 0.0498 0 8
-36.1210 -34.5691 -2.4953 0.0498 0 8
-35.5604 -35.1455 -2.4953 0.0498 0 8
-34.9905 -35.7129 -2.4953 0.0498 0 8
-34.4116 -36.2711 -2.4953 0.0498 0 8
-33.8238 -36.8198 -2.4953 0.0498 0 8
-33.2273 -37.3590 -2.4953 0.0498 0 8
-32.6222 -37.8885 -2.4953 0.0498 0 8
-32.0086 -38.4083 -2.4953 0.0498 0 8
-31.3867 -38.9181 -2.4953 0.0498 0 8
-30.7567 -39.4179 -2.4953 0.0498 0 8
-30.1188 -39.9075 -2.4953 0.0498 0 8
-29.4731 -40.3867 -2.4953 0.0498 0 8
-28.8198 -40.8555 -2.4953 0.0498 0 8
-28.1590 -41.3137 -2.4953 0.0498 0 8
-27.4909 -41.7612 -2.4953 0.0498 0 8
-26.8157 -42.1979 -2.4953 0.0498 0 8
-26.1336 -42.6237 -2.4953 0.0498 0 8
-25.4447 -43.0385 -2.4953 0.0498 0 8
-24.7492 -43.4422 -2.4953 0.0498 0 8
-24.0473 -43.8346 -2.4953 0.0498 0 8
-23.3392 -44.2157 -2.4953 0.0498 0 8
-22.6251 -44.5854 -2.4953 0.0498 0 8
-21.9051 -44.9434 -2.4953 0.0498 0 8
-21.1795 -45.2899 -2.4953 0.0498 0 22
-20.4484 -45.6247 -2.4953 0.0498 0 22
-19.7119 -45.9477 -2.4953 0.0498 0 22
-9.6548 41.7401 -2.4953 0.0581 0 8
-10.3249 41.5795 -2.4953 0.0581 0 8
-10.9922 41.4080 -2.4953 0.0581 0 8
-11.6568 41.2259 -2.4953 0.0581 0 8
-12.3183 41.0331 -2.4953 0.0581 0 8
-12.9766 40.8296 -2.4953 0.0581 0 8
-13.6316 40.6157 -2.4953 0.0581 0 8
-14.2830 40.3912 -2.4953 0.0581 0 8
-14.9308 40.1562 -2.4953 0.0581 0 8
-15.5747 39.9109 -2.4953 0.0581 0 8
-16.2145 39.6553 -2.4953 0.0581 0 8
-16.8502 39.3894 -2.4953 0.0581 0 8
-17.4815 39.1133 -2.4953 0.0581 0 8
-18.1083 38.8271 -2.4953 0.0581 0 8
-18.7304 38.5308 -2.4953 0.0581 0 8
-19.3477 38.2246 -2.4953 0.0581 0 8
-19.9599 37.9085 -2.4953 0.0581 0 8
-20.5670 37.5826 -2.4953 0.0581 0 8
-21.1688 37.2469 -2.4953 0.0581 0 8
-21.7651 36.9017 -2.4953 0.0581 0 8
-22.3558 36.5468 -2.4953 0.0581 0 8
-22.9407 36.1826 -2.4953 0.0581 0 8
-23.5196 35.8090 -2.4953 0.0581 0 8
-24.0925 35.4261 -2.4953 0.0581 0 8
-24.6591 35.0340 -2.4953 0.0581 0 8
-25.2193 34.6329 -2.4953 0.0581 0 8
-25.7731 34.2228 -2.4953 0.0581 0 8
-26.3201 33.8039 -2.4953 0.0581 0 8
-26.8604 33.3762 -2.4953 0.0581 0 8
-27.3937 32.9399 -2.4953 0.0581 0 8
-28.2054 32.8274 -2.5208 0.7569 0 8
-29.1281 32.8183 -2.5557 0.7465 0 8
-30.0998 32.8339 -2.5943 0.6663 0 8
-31.1745 32.9271 -2.6410 0.0674 0 8
-31.7806 32.5038 -2.6477 0.0581 0 7
-32.2992 31.9885 -2.6477 0.0581 0 7
-32.8095 31.4649 -2.6477 0.0581 0 7
-33.3113 30.9332 -2.6477 0.0581 0 7
-33.8045 30.3934 -2.6477 0.0581 0 7
-34.2889 29.8458 -2.6477 0.0581 0 7
-34.7645 29.2905 -2.6477 0.0581 0 7
-35.2311 28.7276 -2.6477 0.0581 0 7
-35.6885 28.1572 -2.6477 0.0581 0 7
-36.1368 27.5797 -2.6477 0.0581 0 7
-36.5756 26.9949 -2.6477 0.0581 0 7
-37.0050 26.4031 -2.6477 0.0581 0 6
-37.4249 25.8047 -2.6477 0.0581 0 7
-37.8350 25.1994 -2.6477 0.0581 0 7
-38.2355 24.5876 -2.6477 0.0581 0 7
-38.6259 23.9695 -2.6477 0.0581 0 7
-39.0064 23.3452 -2.6477 0.0581 0 6
-39.3769 22.7149 -2.6477 0.0581 0 7
-39.7371 22.0786 -2.6477 0.0581 0 7
-40.0870 21.4367 -2.6477 0.0581 0 7
-40.4266 20.7892 -2.6477 0.0581 0 7
-40.7557 20.1363 -2.6477 0.0581 0 7
-41.0743 19.4783 -2.6477 0.0581 0 7
-41.3823 18.8152 -2.6477 0.0581 0 7
-41.6795 18.1472 -2.6477 0.0581 0 7
-41.9660 17.4745 -2.6477 0.0581 0 7
-42.2416 16.7973 -2.6477 0.0581 0 7
-42.5063 16.1158 -2.6477 0.0581 0 7
-42.7600 15.4301 -2.6477 0.0581 0 7
-43.0026 14.7404 -2.6477 0.0581 0 6
-43.2341 14.0469 -2.6477 0.0581 0 7
-43.4544 13.3498 -2.6477 0.0581 0 7
-43.6635 12.6492 -2.6477 0.0581 0 7
-43.8613 11.9453 -2.6477 0.0581 0 7
-44.0477 11.2384 -2.6477 0.0581 0 7
-44.2228 10.5285 -2.6477 0.0581 0 7
-44.3864 9.8159 -2.6477 0.0581 0 7
-44.5385 9.1008 -2.6477 0.0581 0 7
-44.6791 8.3833 -2.6477 0.0581 0 7
-44.8081 7.6636 -2.6477 0.0581 0 7
-44.9256 6.9420 -2.6477 0.0581 0 7
-45.0314 6.2186 -2.6477 0.0581 0 7
-45.1256 5.4936 -2.6477 0.0581 0 7
-45.2081 4.7671 -2.6477 0.0581 0 7
-45.2790 4.0394 -2.6477 0.0581 0 7
-45.3381 3.3107 -2.6477 0.0581 0 7
-45.3855 2.5811 -2.6477 0.0581 0 7
-45.4211 1.8508 -2.6477 0.0581 0 7
-45.4450 1.1201 -2.6477 0.0581 0 7
-45.4571 0.3891 -2.6477 0.0581 0 7
-45.4575 -0.3421 -2.6477 0.0581 0 7
-45.4461 -1.0731 -2.6477 0.0581 0 7
-45.4230 -1.8039 -2.6477 0.0581 0 7
-45.3881 -2.5342 -2.6477 0.0581 0 7
-45.3415 -3.2638 -2.6477 0.0581 0 7
-45.2831 -3.9926 -2.6477 0.0581 0 7
-45.2131 -4.7204 -2.6477 0.0581 0 7
-45.1313 -5.4469 -2.6477 0.0581 0 7
-45.0378 -6.1720 -2.6477 0.0581 0 7
-44.9328 -6.8956 -2.6477 0.0581 0 7
-44.8161 -7.6173 -2.6477 0.0581 0 7
-44.6877 -8.3371 -2.6477 0.0581 0 7
-44.5479 -9.0547 -2.6477 0.0581 0 7
-44.3965 -9.7700 -2.6477 0.0581 0 7
-44.2336 -10.4828 -2.6477 0.0581 0 7
-44.0593 -11.1928 -2.6477 0.0581 0 7
-43.8736 -11.9000 -2.6477 0.0581 0 7
-43.6765 -12.6040 -2.6477 0.0581 0 7
-43.4682 -13.3049 -2.6477 0.0581 0 7
-43.2486 -14.0022 -2.6477 0.0581 0 7
-43.0178 -14.6960 -2.6477 0.0581 0 7
-42.7759 -15.3859 -2.6477 0.0581 0 7
-42.5229 -16.0719 -2.6477 0.0581 0 7
-42.2589 -16.7537 -2.6477 0.0581 0 7
-41.9840 -17.4311 -2.6477 0.0581 0 7
-41.6982 -18.1041 -2.6477 0.0581 0 7
-41.4017 -18.7724 -2.6477 0.0581 0 7
-41.0944 -19.4358 -2.6477 0.0581 0 7
-40.7765 -20.0942 -2.6477 0.0581 0 7
-40.4481 -20.7474 -2.6477 0.0581 0 7
-40.1092 -21.3953 -2.6477 0.0581 0 6
-37.4713 -20.7691 -2.4953 0.0581 0 8
-37.1324 -21.3690 -2.4953 0.0581 0 8
-36.7840 -21.9635 -2.4953 0.0581 0 8
-36.4259 -22.5522 -2.4953 0.0581 0 8
-36.0585 -23.1351 -2.4953 0.0581 0 8
-35.6818 -23.7121 -2.4953 0.0581 0 8
-35.2958 -24.2828 -2.4953 0.0581 0 8
-34.9007 -24.8474 -2.4953 0.0581 0 8
-34.4966 -25.4055 -2.4953 0.0581 0 8
-34.0836 -25.9570 -2.4953 0.0581 0 8
-33.6617 -26.5017 -2.4953 0.0581 0 8
-33.2311 -27.0397 -2.4953 0.0581 0 8
-32.7920 -27.5707 -2.4953 0.0581 0 8
-32.3443 -28.0945 -2.4953 0.0581 0 8
-31.8883 -28.6110 -2.4953 0.0581 0 8
-31.4240 -29.1202 -2.4953 0.0581 0 8
-30.9516 -29.6218 -2.4953 0.0581 0 8
-30.4712 -30.1158 -2.4953 0.0581 0 8
-29.9829 -30.6019 -2.4953 0.0581 0 8
-29.4869 -31.0802 -2.4953 0.0581 0 8
-28.9832 -31.5504 -2.4953 0.0581 0 8
-28.4720 -32.0124 -2.4953 0.0581 0 8
-27.9535 -32.4662 -2.4953 0.0581 0 8
-27.4277 -32.9116 -2.4953 0.0581 0 8
-26.8949 -33.3484 -2.4953 0.0581 0 8
-26.3550 -33.7767 -2.4953 0.0581 0 8
-25.8084 -34.1962 -2.4953 0.0581 0 8
-25.2551 -34.6068 -2.4953 0.0581 0 8
-24.6953 -35.0085 -2.4953 0.0581 0 8
-24.1291 -35.4011 -2.4953 0.0581 0 8
-23.5566 -35.7846 -2.4953 0.0581 0 8
-22.9780 -36.1589 -2.4953 0.0581 0 8
-22.3935 -36.5237 -2.4953 0.0581 0 8
-21.8032 -36.8792 -2.4953 0.0581 0 8
-21.2073 -37.2250 -2.4953 0.0581 0 8
-20.6059 -37.5613 -2.4953 0.0581 0 8
-19.9991 -37.8878 -2.4953 0.0581 0 8
-19.3872 -38.2046 -2.4953 0.0581 0 8
-18.7702 -38.5114 -2.4953 0.0581 0 8
-18.1484 -38.8083 -2.4953 0.0581 0 8
-17.5219 -39.0952 -2.4953 0.0581 0 8
-16.8909 -39.3719 -2.4953 0.0581 0 8
-8.4450 36.5099 -2.4953 0.0664 0 8
-9.0311 36.3694 -2.4953 0.0664 0 8
-9.6149 36.2194 -2.4953 0.0664 0 8
-10.1961 36.0601 -2.4953 0.0664 0 8
-10.7748 35.8915 -2.4953 0.0664 0 8
-11.3506 35.7135 -2.4953 0.0664 0 8
-11.9235 35.5264 -2.4953 0.0664 0 8
-12.4933 35.3300 -2.4953 0.0664 0 8
-13.0599 35.1245 -2.4953 0.0664 0 8
-13.6231 34.9099 -2.4953 0.0664 0 8
-14.1828 34.6863 -2.4953 0.0664 0 8
-14.7388 34.4538 -2.4953 0.0664 0 8
-15.2910 34.2123 -2.4953 0.0664 0 8
-15.8393 33.9619 -2.4953 0.0664 0 8
-16.3834 33.7028 -2.4953 0.0664 0 8
-16.9233 33.4349 -2.4953 0.0664 0 8
-17.4589 33.1584 -2.4953 0.0664 0 8
-17.9899 32.8733 -2.4953 0.0664 0 8
-18.6725 32.8547 -2.5163 0.8664 0 8
-19.3745 32.8484 -2.5394 0.8585 0 8
-20.0895 32.8420 -2.5635 0.8505 0 8
-20.8184 32.8353 -2.5888 0.8422 0 8
-21.5619 32.8283 -2.6153 0.8336 0 8
-22.3007 32.7913 -2.6406 0.0804 0 8
-22.8690 32.4907 -2.6456 0.0803 0 8
-23.4066 32.1434 -2.6477 0.0664 0 7
-23.9205 31.7629 -2.6477 0.0664 0 7
-24.4282 31.3740 -2.6477 0.0664 0 7
-24.9296 30.9771 -2.6477 0.0664 0 7
-25.4246 30.5722 -2.6477 0.0664 0 7
-25.9130 30.1593 -2.6477 0.0664 0 7
-26.3947 29.7386 -2.6477 0.0664 0 7
-26.8696 29.3103 -2.6477 0.0664 0 7
-27.3375 28.8744 -2.6477 0.0664 0 7
-27.7983 28.4310 -2.6477 0.0664 0 7
-28.2520 27.9802 -2.6477 0.0664 0 7
-28.6983 27.5222 -2.6477 0.0664 0 7
-29.1372 27.0571 -2.6477 0.0664 0 7
-29.5686 26.5850 -2.6477 0.0664 0 7
-29.9924 26.1060 -2.6477 0.0664 0 7
-30.4084 25.6203 -2.6477 0.0664 0 7
-30.8165 25.1279 -2.6477 0.0664 0 7
-31.2166 24.6290 -2.6477 0.0664 0 7
-31.6087 24.1238 -2.6477 0.0664 0 7
-31.9926 23.6124 -2.6477 0.0664 0 7
-30.5982 21.8319 -2.5029 0.0664 0 14
-30.9454 21.3370 -2.5029 0.0664 0 14
-31.2845 20.8366 -2.5029 0.0664 0 14
-31.6156 20.3307 -2.5029 0.0664 0 14
-31.9385 19.8196 -2.5029 0.0664 0 14
-34.1188 20.4200 -2.6477 0.0664 0 7
-34.4428 19.8686 -2.6477 0.0664 0 7
-34.7579 19.3121 -2.6477 0.0664 0 7
-35.0640 18.7506 -2.6477 0.0664 0 7
-35.3610 18.1843 -2.6477 0.0664 0 7
-35.6489 17.6132 -2.6477 0.0664 0 7
-35.9276 17.0376 -2.6477 0.0664 0 7
-36.1969 16.4576 -2.6477 0.0664 0 7
-36.4569 15.8733 -2.6477 0.0664 0 7
-36.7075 15.2849 -2.6477 0.0664 0 7
-36.9486 14.6926 -2.6477 0.0664 0 6
-37.1801 14.0965 -2.6477 0.0664 0 7
-37.4020 13.4966 -2.6477 0.0664 0 7
-37.6142 12.8934 -2.6477 0.0664 0 7
-37.8167 12.2868 -2.6477 0.0664 0 7
-38.0094 11.6770 -2.6477 0.0664 0 6
-38.1923 11.0642 -2.6477 0.0664 0 7
-38.3653 10.4485 -2.6477 0.0664 0 7
-38.5284 9.8301 -2.6477 0.0664 0 7
-38.6815 9.2093 -2.6477 0.0664 0 7
-38.8246 8.5859 -2.6477 0.0664 0 7
-38.9577 7.9605 -2.6477 0.0664 0 7
-39.0807 7.3328 -2.6477 0.0664 0 7
-39.1935 6.7034 -2.6477 0.0664 0 7
-39.2963 6.0722 -2.6477 0.0664 0 7
-39.3888 5.4394 -2.6477 0.0664 0 7
-39.4712 4.8052 -2.6477 0.0664 0 7
-39.5434 4.1698 -2.6477 0.0664 0 6
-39.6053 3.5333 -2.6477 0.0664 0 6
-39.6570 2.8958 -2.6477 0.0664 0 6
-39.6985 2.2577 -2.6477 0.0664 0 6
-37.4428 1.5257 -2.4953 0.0664 0 8
-37.4625 0.9234 -2.4953 0.0664 0 8
-37.4725 0.3207 -2.4953 0.0664 0 8
-37.4728 -0.2820 -2.4953 0.0664 0 8
-37.4635 -0.8846 -2.4953 0.0664 0 8
-37.4444 -1.4870 -2.4953 0.0664 0 8
-37.4156 -2.0890 -2.4953 0.0664 0 8
-37.3772 -2.6905 -2.4953 0.0664 0 8
-37.3291 -3.2913 -2.4953 0.0664 0 8
-37.2713 -3.8912 -2.4953 0.0664 0 8
-37.2039 -4.4902 -2.4953 0.0664 0 8
-37.1269 -5.0879 -2.4953 0.0664 0 8
-37.0403 -5.6844 -2.4953 0.0664 0 8
-36.9441 -6.2793 -2.4953 0.0664 0 8
-36.8383 -6.8727 -2.4953 0.0664 0 8
-36.7230 -7.4643 -2.4953 0.0664 0 8
-36.5982 -8.0539 -2.4953 0.0664 0 8
-36.4639 -8.6415 -2.4953 0.0664 0 8
-36.3202 -9.2268 -2.4953 0.0664 0 8
-36.1671 -9.8097 -2.4953 0.0664 0 8
-36.0047 -10.3901 -2.4953 0.0664 0 8
-35.8329 -10.9679 -2.4953 0.0664 0 8
-35.6519 -11.5427 -2.4953 0.0664 0 8
-35.4617 -12.1146 -2.4953 0.0664 0 8
-35.2623 -12.6833 -2.4953 0.0664 0 8
-35.0537 -13.2488 -2.4953 0.0664 0 8
-34.8361 -13.8109 -2.4953 0.0664 0 8
-34.6095 -14.3693 -2.4953 0.0664 0 8
-34.3739 -14.9241 -2.4953 0.0664 0 8
-34.1294 -15.4750 -2.4953 0.0664 0 8
-33.8761 -16.0219 -2.4953 0.0664 0 8
-33.6141 -16.5646 -2.4953 0.0664 0 8
-33.3433 -17.1031 -2.4953 0.0664 0 8
-33.0639 -17.6371 -2.4953 0.0664 0 8
-32.7760 -18.1666 -2.4953 0.0664 0 8
-32.4796 -18.6914 -2.4953 0.0664 0 8
-32.1748 -19.2114 -2.4953 0.0664 0 8
-31.8616 -19.7264 -2.4953 0.0664 0 8
-31.5403 -20.2362 -2.4953 0.0664 0 8
-31.2107 -20.7410 -2.4953 0.0664 0 8
-30.8731 -21.2401 -2.4953 0.0664 0 8
-30.5275 -21.7339 -2.4953 0.0664 0 8
-30.1741 -22.2221 -2.4953 0.0664 0 8
-29.8128 -22.7045 -2.4953 0.0664 0 8
-29.4438 -23.1810 -2.4953 0.0664 0 8
-29.0671 -23.6515 -2.4953 0.0664 0 8
-28.6830 -24.1159 -2.4953 0.0664 0 8
-28.2914 -24.5741 -2.4953 0.0664 0 8
-27.8925 -25.0260 -2.4953 0.0664 0 8
-27.4865 -25.4713 -2.4953 0.0664 0 8
-27.0733 -25.9101 -2.4953 0.0664 0 8
-26.6530 -26.3422 -2.4953 0.0664 0 8
-26.2259 -26.7674 -2.4953 0.0664 0 8
-25.7920 -27.1857 -2.4953 0.0664 0 8
-25.3515 -27.5970 -2.4953 0.0664 0 8
-24.9044 -28.0012 -2.4953 0.0664 0 8
-24.4508 -28.3981 -2.4953 0.0664 0 8
-23.9909 -28.7876 -2.4953 0.0664 0 8
-23.5248 -29.1698 -2.4953 0.0664 0 8
-23.0527 -29.5443 -2.4953 0.0664 0 8
-22.5745 -29.9113 -2.4953 0.0664 0 8
-22.0906 -30.2705 -2.4953 0.0664 0 8
-21.6009 -30.6218 -2.4953 0.0664 0 8
-21.1056 -30.9653 -2.4953 0.0664 0 8
-20.6049 -31.3007 -2.4953 0.0664 0 8
-20.0988 -31.6280 -2.4953 0.0664 0 8
-19.5875 -31.9472 -2.4953 0.0664 0 8
-19.0712 -32.2581 -2.4953 0.0664 0 8
-18.5499 -32.5606 -2.4953 0.0664 0 8
-18.0239 -32.8547 -2.4953 0.0664 0 8
-17.4931 -33.1404 -2.4953 0.0664 0 8
-16.9579 -33.4174 -2.4953 0.0664 0 8
-16.4182 -33.6858 -2.4953 0.0664 0 8
-15.8744 -33.9455 -2.4953 0.0664 0 8
-15.3264 -34.1964 -2.4953 0.0664 0 8
-14.7744 -34.4385 -2.4953 0.0664 0 8
-7.6061 32.8830 -2.5293 0.9695 0 8
-8.1646 32.8797 -2.5388 0.9659 0 8
-8.7274 32.8762 -2.5491 0.9620 0 8
-9.2949 32.8726 -2.5600 0.9579 0 8
-9.8674 32.8689 -2.5718 0.9535 0 8
-10.4452 32.8649 -2.5843 0.9489 0 8
-11.0289 32.8609 -2.5976 0.9440 0 8
-11.6187 32.8566 -2.6117 0.9389 0 8
-12.2150 32.8522 -2.6266 0.9336 0 8
-12.8090 32.8238 -2.6405 0.0905 0 8
-13.3500 32.6497 -2.6434 0.0904 0 8
-13.8894 32.4682 -2.6464 0.0903 0 8
-14.4165 32.2556 -2.6477 0.0747 0 7
-14.9334 32.0196 -2.6477 0.0747 0 7
-15.4465 31.7753 -2.6477 0.0747 0 7
-15.9555 31.5227 -2.6477 0.0747 0 7
-16.4604 31.2621 -2.6477 0.0747 0 7
-16.9610 30.9933 -2.6477 0.0747 0 7
-17.4573 30.7165 -2.6477 0.0747 0 7
-17.9491 30.4317 -2.6477 0.0747 0 7
-18.4362 30.1392 -2.6477 0.0747 0 7
-18.9185 29.8387 -2.6477 0.0747 0 6
-19.3959 29.5306 -2.6477 0.0747 0 7
-19.8684 29.2149 -2.6477 0.0747 0 7
-20.3357 28.8916 -2.6477 0.0747 0 7
-20.7977 28.5608 -2.6477 0.0747 0 7
-21.2543 28.2226 -2.6477 0.0747 0 7
-21.7055 27.8771 -2.6477 0.0747 0 7
-22.1510 27.5244 -2.6477 0.0747 0 7
-22.5908 27.1646 -2.6477 0.0747 0 7
-23.0248 26.7978 -2.6477 0.0747 0 7
-23.4528 26.4240 -2.6477 0.0747 0 6
-23.8747 26.0434 -2.6477 0.0747 0 7
-24.2905 25.6561 -2.6477 0.0747 0 7
-24.7000 25.2621 -2.6477 0.0747 0 7
-25.1031 24.8616 -2.6477 0.0747 0 7
-25.4996 24.4546 -2.6477 0.0747 0 7
-25.8896 24.0414 -2.6477 0.0747 0 7
-24.8363 22.3302 -2.5029 0.0747 0 8
-25.1922 21.9279 -2.5029 0.0747 0 14
-25.5416 21.5199 -2.5029 0.0747 0 14
-25.8844 21.1063 -2.5029 0.0747 0 14
-26.2205 20.6873 -2.5029 0.0747 0 14
-26.5498 20.2629 -2.5029 0.0747 0 14
-26.8723 19.8333 -2.5029 0.0747 0 14
-27.1878 19.3985 -2.5029 0.0747 0 14
-27.4962 18.9588 -2.5029 0.0747 0 8
-28.3365 18.8731 -2.5514 0.5594 0 8
-29.3269 18.8589 -2.6129 0.5462 0 8
-30.0203 18.6292 -2.6477 0.0747 0 7
-30.3159 18.1440 -2.6477 0.0747 0 7
-30.6038 17.6541 -2.6477 0.0747 0 7
-30.8838 17.1596 -2.6477 0.0747 0 6
-31.1558 16.6607 -2.6477 0.0747 0 7
-31.4197 16.1574 -2.6477 0.0747 0 7
-31.6755 15.6500 -2.6477 0.0747 0 7
-31.9231 15.1386 -2.6477 0.0747 0 7
-32.1624 14.6232 -2.6477 0.0747 0 7
-32.3935 14.1041 -2.6477 0.0747 0 7
-32.6161 13.5813 -2.6477 0.0747 0 7
-32.8303 13.0550 -2.6477 0.0747 0 7
-33.0360 12.5253 -2.6477 0.0747 0 7
-33.2332 11.9923 -2.6477 0.0747 0 7
-33.4218 11.4563 -2.6477 0.0747 0 7
-33.6017 10.9173 -2.6477 0.0747 0 7
-33.7729 10.3755 -2.6477 0.0747 0 7
-33.9355 9.8310 -2.6477 0.0747 0 7
-34.0891 9.2840 -2.6477 0.0747 0 7
-34.2340 8.7345 -2.6477 0.0747 0 7
-32.3917 7.7118 -2.4953 0.0747 0 8
-32.5116 7.1898 -2.4953 0.0747 0 8
-32.6230 6.6660 -2.4953 0.0747 0 8
-32.7260 6.1405 -2.4953 0.0747 0 8
-32.8205 5.6134 -2.4953 0.0747 0 8
-32.9065 5.0848 -2.4953 0.0747 0 8
-32.9841 4.5549 -2.4953 0.0747 0 8
-33.0530 4.0238 -2.4953 0.0747 0 8
-33.1135 3.4918 -2.4953 0.0747 0 8
-33.1654 2.9587 -2.4953 0.0747 0 8
-33.2087 2.4250 -2.4953 0.0747 0 8
-33.2434 1.8905 -2.4953 0.0747 0 8
-33.2695 1.3557 -2.4953 0.0747 0 8
-33.2870 0.8204 -2.4953 0.0747 0 8
-33.2959 0.2850 -2.4953 0.0747 0 8
-33.2962 -0.2506 -2.4953 0.0747 0 8
-33.2878 -0.7860 -2.4953 0.0747 0 8
-33.2709 -1.3213 -2.4953 0.0747 0 8
-33.2453 -1.8562 -2.4953 0.0747 0 8
-33.2112 -2.3906 -2.4953 0.0747 0 8
-33.1684 -2.9245 -2.4953 0.0747 0 8
-33.1171 -3.4575 -2.4953 0.0747 0 8
-33.0572 -3.9897 -2.4953 0.0747 0 8
-32.9888 -4.5208 -2.4953 0.0747 0 8
-32.9118 -5.0508 -2.4953 0.0747 0 8
-32.8263 -5.5794 -2.4953 0.0747 0 8
-32.7323 -6.1067 -2.4953 0.0747 0 8
-32.6299 -6.6323 -2.4953 0.0747 0 8
-32.5190 -7.1562 -2.4953 0.0747 0 8
-32.3997 -7.6783 -2.4953 0.0747 0 8
-32.2720 -8.1984 -2.4953 0.0747 0 8
-32.1360 -8.7164 -2.4953 0.0747 0 8
-31.9917 -9.2320 -2.4953 0.0747 0 8
-31.8390 -9.7454 -2.4953 0.0747 0 8
-31.6782 -10.2562 -2.4953 0.0747 0 8
-31.5091 -10.7643 -2.4953 0.0747 0 8
-31.3319 -11.2691 -2.4953 0.0747 0 8
-31.1467 -11.7723 -2.4953 0.0747 0 8
-30.9533 -12.2715 -2.4953 0.0747 0 8
-30.7519 -12.7677 -2.4953 0.0747 0 8
-30.5426 -13.2607 -2.4953 0.0747 0 8
-30.3254 -13.7502 -2.4953 0.0747 0 8
-30.1003 -14.2361 -2.4953 0.0747 0 8
-29.8675 -14.7184 -2.4953 0.0747 0 8
-29.6269 -15.1968 -2.4953 0.0747 0 8
-29.3787 -15.6713 -2.4953 0.0747 0 8
-29.1228 -16.1418 -2.4953 0.0747 0 8
-28.8595 -16.6081 -2.4953 0.0747 0 8
-28.5886 -17.0701 -2.4953 0.0747 0 8
-28.3104 -17.5277 -2.4953 0.0747 0 8
-28.0248 -17.9807 -2.4953 0.0747 0 8
-27.7320 -18.4291 -2.4953 0.0747 0 8
-27.4320 -18.8727 -2.4953 0.0747 0 8
-27.1250 -19.3115 -2.4953 0.0747 0 8
-26.8109 -19.7452 -2.4953 0.0747 0 8
-26.4899 -20.1738 -2.4953 0.0747 0 8
-26.1620 -20.5973 -2.4953 0.0747 0 8
-25.8273 -21.0153 -2.4953 0.0747 0 8
-25.4860 -21.4280 -2.4953 0.0747 0 8
-25.1381 -21.8351 -2.4953 0.0747 0 8
-24.7837 -22.2366 -2.4953 0.0747 0 8
-24.4228 -22.6323 -2.4953 0.0747 0 8
-24.0557 -23.0222 -2.4953 0.0747 0 8
-23.6823 -23.4061 -2.4953 0.0747 0 8
-23.3028 -23.7839 -2.4953 0.0747 0 8
-22.9173 -24.1556 -2.4953 0.0747 0 8
-22.5259 -24.5211 -2.4953 0.0747 0 8
-22.1286 -24.8802 -2.4953 0.0747 0 8
-21.7256 -25.2328 -2.4953 0.0747 0 8
-21.3169 -25.5790 -2.4953 0.0747 0 8
-20.9028 -25.9185 -2.4953 0.0747 0 8
-20.4832 -26.2513 -2.4953 0.0747 0 8
-20.0584 -26.5774 -2.4953 0.0747 0 8
-19.6284 -26.8965 -2.4953 0.0747 0 8
-19.1933 -27.2087 -2.4953 0.0747 0 8
-18.7532 -27.5139 -2.4953 0.0747 0 8
-18.3083 -27.8119 -2.4953 0.0747 0 8
-17.8586 -28.1028 -2.4953 0.0747 0 8
-17.4043 -28.3864 -2.4953 0.0747 0 8
-16.9456 -28.6626 -2.4953 0.0747 0 8
-16.4824 -28.9314 -2.4953 0.0747 0 8
-16.0149 -29.1928 -2.4953 0.0747 0 8
-15.5430 -29.4474 -2.4953 0.0747 0 8
-15.0678 -29.6927 -2.4953 0.0747 0 8
-14.5883 -29.9312 -2.4953 0.0747 0 8
-14.1048 -30.1626 -2.4953 0.0747 0 8
-13.6181 -30.3849 -2.4953 0.0747 0 8
-13.1277 -30.6000 -2.4953 0.0747 0 8
-7.1627 30.9661 -2.6477 0.0830 0 7
-7.6598 30.8469 -2.6477 0.0830 0 7
-8.1549 30.7197 -2.6477 0.0830 0 7
-8.6479 30.5846 -2.6477 0.0830 0 7
-9.1387 30.4415 -2.6477 0.0830 0 7
-9.6271 30.2906 -2.6477 0.0830 0 7
-10.1130 30.1319 -2.6477 0.0830 0 7
-10.5963 29.9653 -2.6477 0.0830 0 7
-11.0768 29.7911 -2.6477 0.0830 0 7
-11.5545 29.6091 -2.6477 0.0830 0 7
-12.0292 29.4194 -2.6477 0.0830 0 7
-12.5008 29.2221 -2.6477 0.0830 0 7
-12.9691 29.0173 -2.6477 0.0830 0 7
-13.4342 28.8050 -2.6477 0.0830 0 7
-13.8957 28.5852 -2.6477 0.0830 0 7
-14.3536 28.3580 -2.6477 0.0830 0 7
-14.8078 28.1235 -2.6477 0.0830 0 7
-15.2582 27.8817 -2.6477 0.0830 0 7
-15.7047 27.6327 -2.6477 0.0830 0 7
-16.1471 27.3765 -2.6477 0.0830 0 7
-16.5853 27.1133 -2.6477 0.0830 0 7
-17.0192 26.8431 -2.6477 0.0830 0 7
-17.4487 26.5659 -2.6477 0.0830 0 7
-17.8737 26.2818 -2.6477 0.0830 0 7
-18.2941 25.9910 -2.6477 0.0830 0 7
-18.7097 25.6934 -2.6477 0.0830 0 7
-19.1205 25.3892 -2.6477 0.0830 0 7
-19.5263 25.0784 -2.6477 0.0830 0 7
-19.9271 24.7611 -2.6477 0.0830 0 7
-20.3228 24.4374 -2.6477 0.0830 0 7
-20.7132 24.1074 -2.6477 0.0830 0 7
-21.0982 23.7712 -2.6477 0.0830 0 7
-20.3034 22.1476 -2.5029 0.0830 0 14
-20.6569 21.8182 -2.5029 0.0830 0 14
-21.0051 21.4832 -2.5029 0.0830 0 14
-21.3480 21.1426 -2.5029 0.0830 0 14
-21.6852 20.7965 -2.5029 0.0830 0 14
-22.0169 20.4451 -2.5029 0.0830 0 14
-22.3428 20.0883 -2.5029 0.0830 0 14
-22.6630 19.7264 -2.5029 0.0830 0 14
-22.9774 19.3594 -2.5029 0.0830 0 14
-23.2857 18.9873 -2.5029 0.0830 0 8
-23.9392 18.8874 -2.5402 0.6242 0 8
-24.7322 18.8756 -2.5917 0.6118 0 8
-25.5580 18.8633 -2.6461 0.5992 0 8
-25.8730 18.4605 -2.6477 0.0830 0 7
-26.1666 18.0420 -2.6477 0.0830 0 7
-26.4534 17.6188 -2.6477 0.0830 0 7
-26.7333 17.1911 -2.6477 0.0830 0 7
-27.0063 16.7589 -2.6477 0.0830 0 7
-27.2724 16.3224 -2.6477 0.0830 0 7
-27.5313 15.8817 -2.6477 0.0830 0 7
-27.7832 15.4368 -2.6477 0.0830 0 7
-28.0279 14.9880 -2.6477 0.0830 0 7
-28.2653 14.5353 -2.6477 0.0830 0 7
-28.4954 14.0788 -2.6477 0.0830 0 7
-28.7182 13.6187 -2.6477 0.0830 0 7
-28.9335 13.1551 -2.6477 0.0830 0 7
-29.1413 12.6881 -2.6477 0.0830 0 7
-29.3416 12.2178 -2.6477 0.0830 0 7
-29.5343 11.7443 -2.6477 0.0830 0 7
-29.7194 11.2678 -2.6477 0.0830 0 7
-29.8967 10.7883 -2.6477 0.0830 0 7
-30.0664 10.3062 -2.6477 0.0830 0 7
-30.2282 9.8213 -2.6477 0.0830 0 7
-30.3823 9.3338 -2.6477 0.0830 0 7
-28.7712 8.3349 -2.4953 0.0830 0 8
-28.9016 7.8712 -2.4953 0.0830 0 8
-29.0244 7.4053 -2.4953 0.0830 0 8
-29.1398 6.9375 -2.4953 0.0830 0 8
-29.2476 6.4680 -2.4953 0.0830 0 8
-29.3478 5.9968 -2.4953 0.0830 0 8
-29.4405 5.5240 -2.4953 0.0830 0 8
-29.5255 5.0498 -2.4953 0.0830 0 8
-29.6029 4.5744 -2.4953 0.0830 0 8
-29.6726 4.0976 -2.4953 0.0830 0 8
-29.7347 3.6199 -2.4953 0.0830 0 8
-29.7891 3.1412 -2.4953 0.0830 0 8
-29.8357 2.6617 -2.4953 0.0830 0 8
-29.8747 2.1815 -2.4953 0.0830 0 8
-29.9059 1.7008 -2.4953 0.0830 0 8
-29.9294 1.2196 -2.4953 0.0830 0 8
-29.9451 0.7381 -2.4953 0.0830 0 8
-29.9531 0.2564 -2.4953 0.0830 0 8
-29.9534 -0.2254 -2.4953 0.0830 0 8
-29.9459 -0.7071 -2.4953 0.0830 0 8
-29.9306 -1.1886 -2.4953 0.0830 0 8
-29.9076 -1.6698 -2.4953 0.0830 0 8
-29.8769 -2.1506 -2.4953 0.0830 0 8
-29.8385 -2.6309 -2.4953 0.0830 0 8
-29.7923 -3.1104 -2.4953 0.0830 0 8
-29.7384 -3.5891 -2.4953 0.0830 0 8
-29.6768 -4.0670 -2.4953 0.0830 0 8
-29.6076 -4.5437 -2.4953 0.0830 0 8
-29.5307 -5.0193 -2.4953 0.0830 0 8
-29.4461 -5.4936 -2.4953 0.0830 0 8
-29.3540 -5.9664 -2.4953 0.0830 0 8
-29.2542 -6.4378 -2.4953 0.0830 0 8
-29.1469 -6.9074 -2.4953 0.0830 0 8
-29.0321 -7.3753 -2.4953 0.0830 0 8
-28.9097 -7.8413 -2.4953 0.0830 0 8
-28.7798 -8.3052 -2.4953 0.0830 0 8
-28.6425 -8.7670 -2.4953 0.0830 0 8
-28.4978 -9.2265 -2.4953 0.0830 0 8
-28.3458 -9.6836 -2.4953 0.0830 0 8
-28.1864 -10.1382 -2.4953 0.0830 0 8
-28.0197 -10.5903 -2.4953 0.0830 0 8
-27.8457 -11.0395 -2.4953 0.0830 0 8
-27.6646 -11.4859 -2.4953 0.0830 0 8
-27.4763 -11.9294 -2.4953 0.0830 0 8
-27.2809 -12.3697 -2.4953 0.0830 0 8
-27.0784 -12.8069 -2.4953 0.0830 0 8
-26.8689 -13.2407 -2.4953 0.0830 0 8
-26.6525 -13.6711 -2.4953 0.0830 0 8
-26.4292 -14.0980 -2.4953 0.0830 0 8
-26.1990 -14.5212 -2.4953 0.0830 0 8
-25.9621 -14.9407 -2.4953 0.0830 0 8
-25.7184 -15.3563 -2.4953 0.0830 0 8
-25.4681 -15.7680 -2.4953 0.0830 0 8
-25.2113 -16.1755 -2.4953 0.0830 0 8
-24.9479 -16.5789 -2.4953 0.0830 0 8
-24.6780 -16.9780 -2.4953 0.0830 0 8
-24.4018 -17.3727 -2.4953 0.0830 0 8
-24.1192 -17.7629 -2.4953 0.0830 0 8
-23.8304 -18.1485 -2.4953 0.0830 0 8
-23.5354 -18.5294 -2.4953 0.0830 0 8
-23.2344 -18.9055 -2.4953 0.0830 0 8
-22.9273 -19.2767 -2.4953 0.0830 0 8
-22.6143 -19.6430 -2.4953 0.0830 0 8
-22.2955 -20.0042 -2.4953 0.0830 0 8
-21.9709 -20.3601 -2.4953 0.0830 0 8
-21.6406 -20.7108 -2.4953 0.0830 0 8
-21.3047 -21.0562 -2.4953 0.0830 0 8
-20.9633 -21.3961 -2.4953 0.0830 0 8
-20.6165 -21.7305 -2.4953 0.0830 0 8
-20.2644 -22.0593 -2.4953 0.0830 0 8
-19.9070 -22.3823 -2.4953 0.0830 0 8
-19.5444 -22.6996 -2.4953 0.0830 0 8
-19.1768 -23.0110 -2.4953 0.0830 0 8
-18.8042 -23.3164 -2.4953 0.0830 0 8
-18.4268 -23.6158 -2.4953 0.0830 0 8
-18.0446 -23.9091 -2.4953 0.0830 0 8
-17.6578 -24.1962 -2.4953 0.0830 0 8
-17.2663 -24.4771 -2.4953 0.0830 0 8
-16.8705 -24.7516 -2.4953 0.0830 0 8
-16.4702 -25.0197 -2.4953 0.0830 0 8
-16.0657 -25.2814 -2.4953 0.0830 0 8
-15.6571 -25.5364 -2.4953 0.0830 0 8
-15.2443 -25.7850 -2.4953 0.0830 0 8
-14.8276 -26.0268 -2.4953 0.0830 0 8
-14.4071 -26.2619 -2.4953 0.0830 0 8
-13.9829 -26.4903 -2.4953 0.0830 0 8
-13.5550 -26.7117 -2.4953 0.0830 0 8
-13.1237 -26.9263 -2.4953 0.0830 0 8
-12.6889 -27.1339 -2.4953 0.0830 0 8
-12.2509 -27.3346 -2.4953 0.0830 0 8
-11.8097 -27.5279 -2.4953 0.0830 0 8
-6.5084 28.1374 -2.6477 0.0913 0 7
-6.9601 28.0290 -2.6477 0.0913 0 7
-7.4100 27.9135 -2.6477 0.0913 0 7
-7.8579 27.7907 -2.6477 0.0913 0 7
-8.3039 27.6607 -2.6477 0.0913 0 7
-8.7476 27.5236 -2.6477 0.0913 0 7
-9.1892 27.3793 -2.6477 0.0913 0 7
-9.6283 27.2280 -2.6477 0.0913 0 7
-10.0650 27.0697 -2.6477 0.0913 0 7
-10.4990 26.9043 -2.6477 0.0913 0 7
-10.9304 26.7319 -2.6477 0.0913 0 7
-11.3589 26.5527 -2.6477 0.0913 0 7
-11.7844 26.3666 -2.6477 0.0913 0 7
-12.2069 26.1737 -2.6477 0.0913 0 7
-12.6263 25.9739 -2.6477 0.0913 0 7
-13.0424 25.7675 -2.6477 0.0913 0 7
-13.4551 25.5544 -2.6477 0.0913 0 7
-13.8644 25.3347 -2.6477 0.0913 0 7
-14.2701 25.1085 -2.6477 0.0913 0 7
-14.6720 24.8757 -2.6477 0.0913 0 7
-15.0702 24.6365 -2.6477 0.0913 0 7
-15.4645 24.3910 -2.6477 0.0913 0 7
-15.8547 24.1391 -2.6477 0.0913 0 7
-16.2409 23.8810 -2.6477 0.0913 0 7
-15.7139 22.3253 -2.5029 0.0913 0 8
-16.0709 22.0697 -2.5029 0.0913 0 14
-16.4238 21.8084 -2.5029 0.0913 0 14
-16.7724 21.5414 -2.5029 0.0913 0 14
-17.1167 21.2689 -2.5029 0.0913 0 14
-17.4565 20.9908 -2.5029 0.0913 0 14
-17.7919 20.7074 -2.5029 0.0913 0 14
-18.1226 20.4186 -2.5029 0.0913 0 14
-18.4487 20.1244 -2.5029 0.0913 0 14
-18.7699 19.8251 -2.5029 0.0913 0 14
-19.0863 19.5207 -2.5029 0.0913 0 14
-19.3978 19.2112 -2.5029 0.0913 0 14
-19.7185 18.9104 -2.5047 0.5534 0 8
-20.3490 18.8963 -2.5459 0.6849 0 8
-21.0060 18.8864 -2.5897 0.6733 0 8
-21.6860 18.8759 -2.6358 0.6615 0 8
-22.0861 18.6084 -2.6477 0.0913 0 7
-22.3825 18.2508 -2.6477 0.0913 0 7
-22.6732 17.8885 -2.6477 0.0913 0 7
-22.9579 17.5215 -2.6477 0.0913 0 7
-23.2367 17.1500 -2.6477 0.0913 0 7
-23.5096 16.7741 -2.6477 0.0913 0 7
-23.7763 16.3939 -2.6477 0.0913 0 7
-24.0369 16.0093 -2.6477 0.0913 0 7
-24.2912 15.6207 -2.6477 0.0913 0 7
-24.5393 15.2280 -2.6477 0.0913 0 7
-24.7810 14.8314 -2.6477 0.0913 0 7
-25.0164 14.4309 -2.6477 0.0913 0 7
-25.2452 14.0267 -2.6477 0.0913 0 7
-25.4676 13.6189 -2.6477 0.0913 0 7
-25.6833 13.2075 -2.6477 0.0913 0 7
-25.8924 12.7927 -2.6477 0.0913 0 7
-26.0948 12.3747 -2.6477 0.0913 0 7
-26.2904 11.9534 -2.6477 0.0913 0 7
-26.4793 11.5290 -2.6477 0.0913 0 7
-26.6613 11.1017 -2.6477 0.0913 0 7
-26.8363 10.6715 -2.6477 0.0913 0 7
-27.0045 10.2385 -2.6477 0.0913 0 7
-27.1657 9.8028 -2.6477 0.0913 0 7
-27.3198 9.3647 -2.6477 0.0913 0 7
-27.4669 8.9241 -2.6477 0.0913 0 7
-26.0178 7.9930 -2.4953 0.0913 0 8
-26.1430 7.5735 -2.4953 0.0913 0 8
-26.2614 7.1521 -2.4953 0.0913 0 8
-26.3730 6.7288 -2.4953 0.0913 0 8
-26.4779 6.3038 -2.4953 0.0913 0 8
-26.5758 5.8772 -2.4953 0.0913 0 8
-26.6669 5.4490 -2.4953 0.0913 0 8
-26.7511 5.0194 -2.4953 0.0913 0 8
-26.8283 4.5885 -2.4953 0.0913 0 8
-26.8987 4.1564 -2.4953 0.0913 0 8
-26.9620 3.7233 -2.4953 0.0913 0 8
-27.0184 3.2892 -2.4953 0.0913 0 8
-27.0678 2.8542 -2.4953 0.0913 0 8
-27.1102 2.4185 -2.4953 0.0913 0 8
-27.1456 1.9822 -2.4953 0.0913 0 8
-27.1740 1.5454 -2.4953 0.0913 0 8
-27.1953 1.1082 -2.4953 0.0913 0 8
-27.2096 0.6706 -2.4953 0.0913 0 8
-27.2169 0.2329 -2.4953 0.0913 0 8
-27.2171 -0.2048 -2.4953 0.0913 0 8
-27.2103 -0.6425 -2.4953 0.0913 0 8
-27.1965 -1.0800 -2.4953 0.0913 0 8
-27.1756 -1.5173 -2.4953 0.0913 0 8
-27.1477 -1.9542 -2.4953 0.0913 0 8
-27.1127 -2.3905 -2.4953 0.0913 0 8
-27.0708 -2.8263 -2.4953 0.0913 0 8
-27.0218 -3.2613 -2.4953 0.0913 0 8
-26.9659 -3.6954 -2.4953 0.0913 0 8
-26.9030 -4.1287 -2.4953 0.0913 0 8
-26.8331 -4.5608 -2.4953 0.0913 0 8
-26.7563 -4.9918 -2.4953 0.0913 0 8
-26.6725 -5.4214 -2.4953 0.0913 0 8
-26.5819 -5.8497 -2.4953 0.0913 0 8
-26.4844 -6.2765 -2.4953 0.0913 0 8
-26.3800 -6.7016 -2.4953 0.0913 0 8
-26.2688 -7.1250 -2.4953 0.0913 0 8
-26.1508 -7.5465 -2.4953 0.0913 0 8
-26.0261 -7.9661 -2.4953 0.0913 0 8
-25.8946 -8.3837 -2.4953 0.0913 0 8
-25.7564 -8.7990 -2.4953 0.0913 0 8
-25.6115 -9.2121 -2.4953 0.0913 0 8
-25.4601 -9.6228 -2.4953 0.0913 0 8
-25.3020 -10.0310 -2.4953 0.0913 0 8
-25.1374 -10.4367 -2.4953 0.0913 0 8
-24.9663 -10.8396 -2.4953 0.0913 0 8
-24.7888 -11.2397 -2.4953 0.0913 0 8
-24.6048 -11.6370 -2.4953 0.0913 0 8
-24.4145 -12.0312 -2.4953 0.0913 0 8
-24.2178 -12.4223 -2.4953 0.0913 0 8
-24.0149 -12.8102 -2.4953 0.0913 0 8
-23.8058 -13.1947 -2.4953 0.0913 0 8
-23.5905 -13.5759 -2.4953 0.0913 0 8
-23.3691 -13.9535 -2.4953 0.0913 0 8
-23.1416 -14.3276 -2.4953 0.0913 0 8
-22.9082 -14.6979 -2.4953 0.0913 0 8
-22.6689 -15.0644 -2.4953 0.0913 0 8
-22.4237 -15.4270 -2.4953 0.0913 0 8
-22.1727 -15.7857 -2.4953 0.0913 0 8
-21.9159 -16.1403 -2.4953 0.0913 0 8
-21.6535 -16.4906 -2.4953 0.0913 0 8
-21.3855 -16.8367 -2.4953 0.0913 0 8
-21.1119 -17.1785 -2.4953 0.0913 0 8
-20.8329 -17.5158 -2.4953 0.0913 0 8
-20.5485 -17.8486 -2.4953 0.0913 0 8
-20.2588 -18.1768 -2.4953 0.0913 0 8
-19.9639 -18.5002 -2.4953 0.0913 0 8
-19.6637 -18.8189 -2.4953 0.0913 0 8
-19.3585 -19.1327 -2.4953 0.0913 0 8
-19.0483 -19.4416 -2.4953 0.0913 0 8
-18.7332 -19.7454 -2.4953 0.0913 0 8
-18.4132 -20.0442 -2.4953 0.0913 0 8
-18.0885 -20.3377 -2.4953 0.0913 0 8
-17.7590 -20.6260 -2.4953 0.0913 0 8
-17.4250 -20.9089 -2.4953 0.0913 0 8
-17.0865 -21.1865 -2.4953 0.0913 0 8
-16.7435 -21.4585 -2.4953 0.0913 0 8
-16.3963 -21.7250 -2.4953 0.0913 0 8
-16.0447 -21.9859 -2.4953 0.0913 0 8
-15.6891 -22.2411 -2.4953 0.0913 0 8
-15.3294 -22.4906 -2.4953 0.0913 0 8
-14.9657 -22.7342 -2.4953 0.0913 0 8
-14.5981 -22.9719 -2.4953 0.0913 0 8
-14.2268 -23.2038 -2.4953 0.0913 0 8
-13.8517 -23.4296 -2.4953 0.0913 0 8
-13.4731 -23.6493 -2.4953 0.0913 0 8
-13.0910 -23.8629 -2.4953 0.0913 0 8
-12.7055 -24.0704 -2.4953 0.0913 0 8
-12.3168 -24.2716 -2.4953 0.0913 0 8
-11.9248 -24.4666 -2.4953 0.0913 0 8
-11.5298 -24.6552 -2.4953 0.0913 0 8
-11.1318 -24.8374 -2.4953 0.0913 0 8
-10.7309 -25.0132 -2.4953 0.0913 0 8
-5.9629 25.7789 -2.6477 0.0996 0 7
-6.3767 25.6796 -2.6477 0.0996 0 7
-6.7888 25.5738 -2.6477 0.0996 0 7
-7.1993 25.4612 -2.6477 0.0996 0 7
-7.6078 25.3422 -2.6477 0.0996 0 7
-8.0144 25.2166 -2.6477 0.0996 0 7
-8.4189 25.0844 -2.6477 0.0996 0 7
-8.8213 24.9457 -2.6477 0.0996 0 7
-9.2213 24.8007 -2.6477 0.0996 0 7
-9.6190 24.6492 -2.6477 0.0996 0 7
-10.0142 24.4913 -2.6477 0.0996 0 7
-10.4068 24.3271 -2.6477 0.0996 0 7
-10.7966 24.1565 -2.6477 0.0996 0 7
-11.1838 23.9798 -2.6477 0.0996 0 7
-11.5680 23.7968 -2.6477 0.0996 0 7
-11.2958 22.3168 -2.5029 0.0996 0 8
-11.6532 22.1322 -2.5029 0.0996 0 14
-12.0077 21.9419 -2.5029 0.0996 0 14
-12.3590 21.7460 -2.5029 0.0996 0 14
-12.7072 21.5444 -2.5029 0.0996 0 14
-13.0520 21.3372 -2.5029 0.0996 0 14
-13.3935 21.1246 -2.5029 0.0996 0 14
-13.7315 20.9064 -2.5029 0.0996 0 14
-14.0660 20.6829 -2.5029 0.0996 0 14
-14.3968 20.4540 -2.5029 0.0996 0 14
-14.7239 20.2198 -2.5029 0.0996 0 14
-15.0472 19.9804 -2.5029 0.0996 0 14
-15.3665 19.7358 -2.5029 0.0996 0 14
-15.6820 19.4861 -2.5029 0.0996 0 14
-15.9933 19.2314 -2.5029 0.0996 0 14
-16.3006 18.9717 -2.5029 0.0996 0 8
-16.7829 18.9092 -2.5299 0.7517 0 8
-17.3271 18.9010 -2.5658 0.7412 0 8
-17.8869 18.8925 -2.6034 0.7305 0 8
-18.4634 18.8836 -2.6427 0.7196 0 8
-18.7999 18.6191 -2.6477 0.0996 0 7
-19.0969 18.3143 -2.6477 0.0996 0 7
-19.3890 18.0048 -2.6477 0.0996 0 7
-19.6760 17.6907 -2.6477 0.0996 0 7
-19.9580 17.3719 -2.6477 0.0996 0 7
-20.2348 17.0487 -2.6477 0.0996 0 7
-20.5064 16.7210 -2.6477 0.0996 0 7
-20.7727 16.3891 -2.6477 0.0996 0 7
-21.0336 16.0529 -2.6477 0.0996 0 7
-21.2890 15.7125 -2.6477 0.0996 0 7
-21.5389 15.3681 -2.6477 0.0996 0 7
-21.7833 15.0197 -2.6477 0.0996 0 7
-22.0221 14.6674 -2.6477 0.0996 0 7
-22.2551 14.3114 -2.6477 0.0996 0 7
-22.4824 13.9516 -2.6477 0.0996 0 7
-22.7039 13.5882 -2.6477 0.0996 0 7
-22.9195 13.2213 -2.6477 0.0996 0 7
-23.1292 12.8510 -2.6477 0.0996 0 7
-23.3329 12.4773 -2.6477 0.0996 0 7
-23.5305 12.1005 -2.6477 0.0996 0 7
-23.7221 11.7205 -2.6477 0.0996 0 7
-23.9075 11.3374 -2.6477 0.0996 0 6
-24.0867 10.9515 -2.6477 0.0996 0 7
-24.2598 10.5627 -2.6477 0.0996 0 7
-24.4265 10.1711 -2.6477 0.0996 0 7
-24.5869 9.7770 -2.6477 0.0996 0 7
-24.7410 9.3803 -2.6477 0.0996 0 7
-24.8886 8.9812 -2.6477 0.0996 0 7
-23.5891 8.0859 -2.4953 0.0996 0 8
-23.7161 7.7055 -2.4953 0.0996 0 8
-23.8370 7.3230 -2.4953 0.0996 0 8
-23.9517 6.9387 -2.4953 0.0996 0 8
-24.0602 6.5526 -2.4953 0.0996 0 8
-24.1625 6.1648 -2.4953 0.0996 0 8
-24.2585 5.7754 -2.4953 0.0996 0 8
-24.3482 5.3845 -2.4953 0.0996 0 8
-24.4317 4.9923 -2.4953 0.0996 0 8
-24.5088 4.5987 -2.4953 0.0996 0 8
-24.5796 4.2039 -2.4953 0.0996 0 8
-24.6440 3.8081 -2.4953 0.0996 0 8
-24.7021 3.4112 -2.4953 0.0996 0 8
-24.7537 3.0135 -2.4953 0.0996 0 8
-24.7990 2.6150 -2.4953 0.0996 0 8
-24.8379 2.2158 -2.4953 0.0996 0 8
-24.8703 1.8161 -2.4953 0.0996 0 8
-24.8963 1.4159 -2.4953 0.0996 0 8
-24.9158 1.0153 -2.4953 0.0996 0 8
-24.9289 0.6144 -2.4953 0.0996 0 8
-24.9356 0.2134 -2.4953 0.0996 0 8
-24.9358 -0.1877 -2.4953 0.0996 0 8
-24.9296 -0.5887 -2.4953 0.0996 0 8
-24.9169 -0.9895 -2.4953 0.0996 0 8
-24.8977 -1.3901 -2.4953 0.0996 0 8
-24.8721 -1.7904 -2.4953 0.0996 0 8
-24.8401 -2.1902 -2.4953 0.0996 0 8
-24.8017 -2.5894 -2.4953 0.0996 0 8
-24.7568 -2.9879 -2.4953 0.0996 0 8
-24.7056 -3.3857 -2.4953 0.0996 0 8
-24.6479 -3.7826 -2.4953 0.0996 0 8
-24.5839 -4.1785 -2.4953 0.0996 0 8
-24.5135 -4.5733 -2.4953 0.0996 0 8
-24.4368 -4.9670 -2.4953 0.0996 0 8
-24.3538 -5.3594 -2.4953 0.0996 0 8
-24.2644 -5.7504 -2.4953 0.0996 0 8
-24.1688 -6.1398 -2.4953 0.0996 0 8
-24.0669 -6.5277 -2.4953 0.0996 0 8
-23.9588 -6.9140 -2.4953 0.0996 0 8
-23.8445 -7.2984 -2.4953 0.0996 0 8
-23.7241 -7.6809 -2.4953 0.0996 0 8
-23.5975 -8.0615 -2.4953 0.0996 0 8
-23.4648 -8.4400 -2.4953 0.0996 0 8
-23.3260 -8.8162 -2.4953 0.0996 0 8
-23.1812 -9.1902 -2.4953 0.0996 0 8
-23.0304 -9.5619 -2.4953 0.0996 0 8
-22.8736 -9.9310 -2.4953 0.0996 0 8
-22.7110 -10.2976 -2.4953 0.0996 0 8
-22.5424 -10.6615 -2.4953 0.0996 0 8
-22.3680 -11.0227 -2.4953 0.0996 0 8
-22.1879 -11.3810 -2.4953 0.0996 0 8
-22.0020 -11.7364 -2.4953 0.0996 0 8
-21.8104 -12.0887 -2.4953 0.0996 0 8
-21.6131 -12.4379 -2.4953 0.0996 0 8
-21.4103 -12.7839 -2.4953 0.0996 0 8
-21.2019 -13.1266 -2.4953 0.0996 0 8
-20.9881 -13.4659 -2.4953 0.0996 0 8
-20.7688 -13.8017 -2.4953 0.0996 0 8
-20.5441 -14.1339 -2.4953 0.0996 0 8
-20.3141 -14.4625 -2.4953 0.0996 0 8
-20.0789 -14.7874 -2.4953 0.0996 0 8
-19.8385 -15.1084 -2.4953 0.0996 0 8
-19.5930 -15.4255 -2.4953 0.0996 0 8
-19.3423 -15.7386 -2.4953 0.0996 0 8
-19.0867 -16.0476 -2.4953 0.0996 0 8
-18.8262 -16.3525 -2.4953 0.0996 0 8
-18.5607 -16.6532 -2.4953 0.0996 0 8
-18.2905 -16.9495 -2.4953 0.0996 0 8
-18.0155 -17.2415 -2.4953 0.0996 0 8
-17.7359 -17.5290 -2.4953 0.0996 0 8
-17.4517 -17.8120 -2.4953 0.0996 0 8
-17.1630 -18.0904 -2.4953 0.0996 0 8
-16.8698 -18.3640 -2.4953 0.0996 0 8
-16.5723 -18.6330 -2.4953 0.0996 0 8
-16.2705 -18.8971 -2.4953 0.0996 0 8
-15.9644 -19.1563 -2.4953 0.0996 0 8
-15.6543 -19.4106 -2.4953 0.0996 0 8
-15.3401 -19.6599 -2.4953 0.0996 0 8
-15.0219 -19.9041 -2.4953 0.0996 0 8
-14.6999 -20.1431 -2.4953 0.0996 0 8
-14.3740 -20.3769 -2.4953 0.0996 0 8
-14.0444 -20.6054 -2.4953 0.0996 0 8
-13.7112 -20.8286 -2.4953 0.0996 0 8
-13.3745 -21.0464 -2.4953 0.0996 0 8
-13.0343 -21.2588 -2.4953 0.0996 0 8
-12.6907 -21.4657 -2.4953 0.0996 0 8
-12.3438 -21.6670 -2.4953 0.0996 0 8
-11.9937 -21.8627 -2.4953 0.0996 0 8
-11.6406 -22.0528 -2.4953 0.0996 0 8
-11.2844 -22.2372 -2.4953 0.0996 0 8
-10.9253 -22.4158 -2.4953 0.0996 0 8
-10.5634 -22.5886 -2.4953 0.0996 0 8
-10.1987 -22.7556 -2.4953 0.0996 0 8
-9.8314 -22.9166 -2.4953 0.0996 0 8
-5.5010 23.7821 -2.6477 0.1078 0 7
-5.8827 23.6905 -2.6477 0.1078 0 7
-5.9205 22.3028 -2.5029 0.1078 0 8
-6.2785 22.2046 -2.5029 0.1078 0 14
-6.6348 22.1008 -2.5029 0.1078 0 14
-6.9893 21.9912 -2.5029 0.1078 0 14
-7.3421 21.8760 -2.5029 0.1078 0 14
-7.6930 21.7551 -2.5029 0.1078 0 14
-8.0419 21.6285 -2.5029 0.1078 0 14
-8.3887 21.4964 -2.5029 0.1078 0 14
-8.7333 21.3587 -2.5029 0.1078 0 14
-9.0757 21.2155 -2.5029 0.1078 0 14
-9.4157 21.0668 -2.5029 0.1078 0 14
-9.7533 20.9126 -2.5029 0.1078 0 14
-10.0884 20.7531 -2.5029 0.1078 0 14
-10.4208 20.5881 -2.5029 0.1078 0 14
-10.7506 20.4179 -2.5029 0.1078 0 14
-11.0776 20.2423 -2.5029 0.1078 0 14
-11.4017 20.0616 -2.5029 0.1078 0 14
-11.7229 19.8756 -2.5029 0.1078 0 14
-12.0410 19.6845 -2.5029 0.1078 0 14
-12.3561 19.4883 -2.5029 0.1078 0 14
-12.6679 19.2870 -2.5029 0.1078 0 14
-12.9780 19.0831 -2.5032 0.6587 0 8
-13.3191 18.9229 -2.5100 0.6522 0 8
-13.7745 18.9160 -2.5381 0.8115 0 8
-14.2405 18.9093 -2.5676 0.8021 0 8
-14.7175 18.9022 -2.5984 0.7926 0 8
-15.2062 18.8949 -2.6307 0.7829 0 8
-15.6080 18.7680 -2.6477 0.1078 0 7
-15.9078 18.5146 -2.6477 0.1078 0 7
-16.2035 18.2563 -2.6477 0.1078 0 7
-16.4950 17.9934 -2.6477 0.1078 0 7
-16.7823 17.7258 -2.6477 0.1078 0 7
-17.0652 17.4536 -2.6477 0.1078 0 7
-17.3437 17.1768 -2.6477 0.1078 0 7
-17.6177 16.8957 -2.6477 0.1078 0 7
-17.8871 16.6102 -2.6477 0.1078 0 7
-18.1520 16.3204 -2.6477 0.1078 0 7
-18.4121 16.0263 -2.6477 0.1078 0 7
-18.6675 15.7281 -2.6477 0.1078 0 7
-18.9180 15.4258 -2.6477 0.1078 0 7
-19.1637 15.1196 -2.6477 0.1078 0 7
-19.4043 14.8094 -2.6477 0.1078 0 7
-19.6400 14.4955 -2.6477 0.1078 0 7
-19.8706 14.1777 -2.6477 0.1078 0 7
-20.0960 13.8563 -2.6477 0.1078 0 7
-20.3163 13.5313 -2.6477 0.1078 0 7
-20.5313 13.2028 -2.6477 0.1078 0 7
-20.7410 12.8709 -2.6477 0.1078 0 7
-20.9453 12.5357 -2.6477 0.1078 0 7
-21.1442 12.1972 -2.6477 0.1078 0 7
-21.3376 11.8556 -2.6477 0.1078 0 7
-21.5255 11.5108 -2.6477 0.1078 0 7
-21.7079 11.1632 -2.6477 0.1078 0 7
-21.8846 10.8126 -2.6477 0.1078 0 7
-22.0557 10.4592 -2.6477 0.1078 0 7
-22.2210 10.1032 -2.6477 0.1078 0 7
-22.3806 9.7445 -2.6477 0.1078 0 7
-22.5345 9.3833 -2.6477 0.1078 0 7
-22.6825 9.0197 -2.6477 0.1078 0 7
-21.5108 8.1556 -2.4953 0.1078 0 8
-21.6392 7.8086 -2.4953 0.1078 0 8
-21.7620 7.4596 -2.4953 0.1078 0 8
-21.8791 7.1086 -2.4953 0.1078 0 8
-21.9906 6.7558 -2.4953 0.1078 0 8
-22.0964 6.4013 -2.4953 0.1078 0 8
-22.1965 6.0451 -2.4953 0.1078 0 8
-22.2909 5.6873 -2.4953 0.1078 0 8
-22.3794 5.3281 -2.4953 0.1078 0 8
-22.4622 4.9675 -2.4953 0.1078 0 8
-22.5392 4.6056 -2.4953 0.1078 0 8
-22.6104 4.2425 -2.4953 0.1078 0 8
-22.6757 3.8783 -2.4953 0.1078 0 8
-22.7351 3.5131 -2.4953 0.1078 0 8
-22.7887 3.1470 -2.4953 0.1078 0 8
-22.8364 2.7801 -2.4953 0.1078 0 8
-22.8781 2.4125 -2.4953 0.1078 0 8
-22.9140 2.0442 -2.4953 0.1078 0 8
-22.9439 1.6754 -2.4953 0.1078 0 8
-22.9678 1.3062 -2.4953 0.1078 0 8
-22.9859 0.9366 -2.4953 0.1078 0 8
-22.9980 0.5668 -2.4953 0.1078 0 8
-23.0041 0.1969 -2.4953 0.1078 0 8
-23.0043 -0.1731 -2.4953 0.1078 0 8
-22.9985 -0.5431 -2.4953 0.1078 0 8
-22.9868 -0.9129 -2.4953 0.1078 0 8
-22.9692 -1.2824 -2.4953 0.1078 0 8
-22.9456 -1.6517 -2.4953 0.1078 0 8
-22.9161 -2.0205 -2.4953 0.1078 0 8
-22.8806 -2.3888 -2.4953 0.1078 0 8
-22.8392 -2.7565 -2.4953 0.1078 0 8
-22.7919 -3.1234 -2.4953 0.1078 0 8
-22.7387 -3.4896 -2.4953 0.1078 0 8
-22.6797 -3.8548 -2.4953 0.1078 0 8
-22.6148 -4.2191 -2.4953 0.1078 0 8
-22.5440 -4.5823 -2.4953 0.1078 0 8
-22.4674 -4.9442 -2.4953 0.1078 0 8
-22.3849 -5.3049 -2.4953 0.1078 0 8
-22.2967 -5.6643 -2.4953 0.1078 0 8
-22.2027 -6.0221 -2.4953 0.1078 0 8
-22.1030 -6.3784 -2.4953 0.1078 0 8
-21.9976 -6.7331 -2.4953 0.1078 0 8
-21.8865 -7.0860 -2.4953 0.1078 0 8
-21.7697 -7.4371 -2.4953 0.1078 0 8
-21.6472 -7.7862 -2.4953 0.1078 0 8
-21.5192 -8.1334 -2.4953 0.1078 0 8
-21.3856 -8.4784 -2.4953 0.1078 0 8
-21.2465 -8.8212 -2.4953 0.1078 0 8
-21.1019 -9.1618 -2.4953 0.1078 0 8
-20.9518 -9.5000 -2.4953 0.1078 0 8
-20.7963 -9.8357 -2.4953 0.1078 0 8
-20.6354 -10.1689 -2.4953 0.1078 0 8
-20.4692 -10.4995 -2.4953 0.1078 0 8
-20.2977 -10.8273 -2.4953 0.1078 0 8
-20.1210 -11.1524 -2.4953 0.1078 0 8
-19.9390 -11.4745 -2.4953 0.1078 0 8
-19.7519 -11.7937 -2.4953 0.1078 0 8
-19.5596 -12.1099 -2.4953 0.1078 0 8
-19.3623 -12.4229 -2.4953 0.1078 0 8
-19.1600 -12.7327 -2.4953 0.1078 0 8
-18.9528 -13.0391 -2.4953 0.1078 0 8
-18.7406 -13.3423 -2.4953 0.1078 0 8
-18.5236 -13.6420 -2.4953 0.1078 0 8
-18.3018 -13.9381 -2.4953 0.1078 0 8
-18.0753 -14.2306 -2.4953 0.1078 0 8
-17.8441 -14.5195 -2.4953 0.1078 0 8
-17.6083 -14.8046 -2.4953 0.1078 0 8
-17.3679 -15.0859 -2.4953 0.1078 0 8
-17.1230 -15.3633 -2.4953 0.1078 0 8
-16.8737 -15.6367 -2.4953 0.1078 0 8
-16.6201 -15.9060 -2.4953 0.1078 0 8
-16.3621 -16.1712 -2.4953 0.1078 0 8
-16.0999 -16.4323 -2.4953 0.1078 0 8
-15.8336 -16.6891 -2.4953 0.1078 0 8
-15.5631 -16.9416 -2.4953 0.1078 0 8
-15.2886 -17.1897 -2.4953 0.1078 0 8
-15.0102 -17.4334 -2.4953 0.1078 0 8
-14.7279 -17.6725 -2.4953 0.1078 0 8
-14.4417 -17.9071 -2.4953 0.1078 0 8
-14.1518 -18.1376 -2.4953 0.1078 0 8
-13.8583 -18.3623 -2.4953 0.1078 0 8
-13.5612 -18.5828 -2.4953 0.1078 0 8
-13.2606 -18.7985 -2.4953 0.1078 0 8
-12.9566 -19.0093 -2.4953 0.1078 0 8
-12.6492 -19.2153 -2.4953 0.1078 0 8
-12.3385 -19.4162 -2.4953 0.1078 0 8
-12.0247 -19.6121 -2.4953 0.1078 0 8
-11.7077 -19.8030 -2.4953 0.1078 0 8
-11.3877 -19.9887 -2.4953 0.1078 0 8
-11.0647 -20.1693 -2.4953 0.1078 0 8
-10.7389 -20.3446 -2.4953 0.1078 0 8
-10.4103 -20.5147 -2.4953 0.1078 0 8
-10.0790 -20.6795 -2.4953 0.1078 0 8
-9.7452 -20.8389 -2.4953 0.1078 0 8
-9.4087 -20.9929 -2.4953 0.1078 0 8
-9.0699 -21.1415 -2.4953 0.1078 0 8
-4.8257 20.8628 -2.5029 0.1161 0 14
-5.1606 20.7825 -2.5029 0.1161 0 14
-5.4942 20.6968 -2.5029 0.1161 0 14
-5.8264 20.6057 -2.5029 0.1161 0 14
-6.1570 20.5093 -2.5029 0.1161 0 14
-6.4860 20.4077 -2.5029 0.1161 0 14
-6.8134 20.3007 -2.5029 0.1161 0 14
-7.1390 20.1885 -2.5029 0.1161 0 14
-7.4628 20.0711 -2.5029 0.1161 0 14
-7.7846 19.9485 -2.5029 0.1161 0 14
-8.1044 19.8207 -2.5029 0.1161 0 14
-8.4222 19.6878 -2.5029 0.1161 0 14
-8.7377 19.5498 -2.5029 0.1161 0 14
-9.0510 19.4067 -2.5029 0.1161 0 14
-9.3619 19.2587 -2.5029 0.1161 0 14
-9.6705 19.1056 -2.5029 0.1161 0 14
-9.9765 18.9476 -2.5029 0.1161 0 8
-10.3586 18.9285 -2.5220 0.8792 0 8
-10.7548 18.9233 -2.5441 0.8716 0 8
-11.1580 18.9179 -2.5671 0.8637 0 8
-11.5687 18.9123 -2.5913 0.8557 0 8
-11.9872 18.9064 -2.6166 0.8474 0 8
-12.4139 18.9004 -2.6430 0.8389 0 8
-12.7386 18.7311 -2.6477 0.1161 0 7
-13.0382 18.5238 -2.6477 0.1161 0 7
-13.3344 18.3117 -2.6477 0.1161 0 7
-13.6272 18.0949 -2.6477 0.1161 0 7
-13.9164 17.8734 -2.6477 0.1161 0 7
-14.2021 17.6473 -2.6477 0.1161 0 7
-14.4841 17.4166 -2.6477 0.1161 0 7
-14.7623 17.1814 -2.6477 0.1161 0 7
-15.0367 16.9417 -2.6477 0.1161 0 7
-15.3073 16.6977 -2.6477 0.1161 0 7
-15.5738 16.4494 -2.6477 0.1161 0 7
-15.8364 16.1968 -2.6477 0.1161 0 7
-16.0948 15.9400 -2.6477 0.1161 0 7
-16.3491 15.6791 -2.6477 0.1161 0 7
-16.5991 15.4141 -2.6477 0.1161 0 7
-16.8449 15.1451 -2.6477 0.1161 0 7
-17.0863 14.8723 -2.6477 0.1161 0 7
-17.3233 14.5956 -2.6477 0.1161 0 7
-17.5557 14.3151 -2.6477 0.1161 0 7
-17.7837 14.0309 -2.6477 0.1161 0 7
-18.0071 13.7430 -2.6477 0.1161 0 7
-18.2258 13.4517 -2.6477 0.1161 0 7
-18.4397 13.1568 -2.6477 0.1161 0 7
-18.6489 12.8585 -2.6477 0.1161 0 7
-18.8533 12.5570 -2.6477 0.1161 0 7
-19.0529 12.2521 -2.6477 0.1161 0 7
-19.2474 11.9441 -2.6477 0.1161 0 7
-19.4370 11.6330 -2.6477 0.1161 0 7
-19.6216 11.3189 -2.6477 0.1161 0 6
-19.8011 11.0019 -2.6477 0.1161 0 7
-19.9755 10.6820 -2.6477 0.1161 0 7
-20.1447 10.3593 -2.6477 0.1161 0 7
-20.3087 10.0340 -2.6477 0.1161 0 7
-20.4675 9.7061 -2.6477 0.1161 0 7
-20.6209 9.3757 -2.6477 0.1161 0 7
-20.7691 9.0428 -2.6477 0.1161 0 7
-19.7081 8.2064 -2.4953 0.1161 0 8
-19.8375 7.8884 -2.4953 0.1161 0 8
-19.9618 7.5683 -2.4953 0.1161 0 8
-20.0810 7.2463 -2.4953 0.1161 0 8
-20.1949 6.9224 -2.4953 0.1161 0 8
-20.3036 6.5967 -2.4953 0.1161 0 8
-20.4071 6.2693 -2.4953 0.1161 0 8
-20.5053 5.9403 -2.4953 0.1161 0 8
-20.5982 5.6098 -2.4953 0.1161 0 8
-20.6857 5.2778 -2.4953 0.1161 0 8
-20.7679 4.9444 -2.4953 0.1161 0 8
-20.8448 4.6098 -2.4953 0.1161 0 8
-20.9162 4.2739 -2.4953 0.1161 0 8
-20.9822 3.9370 -2.4953 0.1161 0 8
-21.0428 3.5990 -2.4953 0.1161 0 8
-21.0980 3.2601 -2.4953 0.1161 0 8
-21.1477 2.9204 -2.4953 0.1161 0 8
-21.1919 2.5799 -2.4953 0.1161 0 8
-21.2307 2.2387 -2.4953 0.1161 0 8
-21.2640 1.8970 -2.4953 0.1161 0 8
-21.2917 1.5548 -2.4953 0.1161 0 8
-21.3140 1.2121 -2.4953 0.1161 0 8
-21.3307 0.8692 -2.4953 0.1161 0 8
-21.3419 0.5260 -2.4953 0.1161 0 8
-21.3476 0.1827 -2.4953 0.1161 0 8
-21.3478 -0.1607 -2.4953 0.1161 0 8
-21.3425 -0.5040 -2.4953 0.1161 0 8
-21.3316 -0.8471 -2.4953 0.1161 0 8
-21.3152 -1.1901 -2.4953 0.1161 0 8
-21.2933 -1.5328 -2.4953 0.1161 0 8
-21.2659 -1.8750 -2.4953 0.1161 0 8
-21.2330 -2.2168 -2.4953 0.1161 0 8
-21.1946 -2.5580 -2.4953 0.1161 0 8
-21.1507 -2.8985 -2.4953 0.1161 0 8
-21.1014 -3.2383 -2.4953 0.1161 0 8
-21.0466 -3.5773 -2.4953 0.1161 0 8
-20.9863 -3.9153 -2.4953 0.1161 0 8
-20.9206 -4.2523 -2.4953 0.1161 0 8
-20.8495 -4.5882 -2.4953 0.1161 0 8
