ply
format ascii 1.0
element vertex 1359
property float32 x
property float32 y
property float32 z
property float32 CosAngle
property uint32 ObjIdx
property uint32 ObjTag
end_header
47.5982 63.8176 -2.6477 0.0332 0 7
46.5647 64.5756 -2.6477 0.0332 0 7
45.5191 65.3169 -2.6477 0.0332 0 7
44.4617 66.0412 -2.6477 0.0332 0 7
43.3927 66.7485 -2.6477 0.0332 0 7
42.3125 67.4384 -2.6477 0.0332 0 7
41.2214 68.1108 -2.6477 0.0332 0 7
40.1195 68.7656 -2.6477 0.0332 0 7
39.0072 69.4026 -2.6477 0.0332 0 7
37.8849 70.0216 -2.6477 0.0332 0 7
36.7527 70.6224 -2.6477 0.0332 0 7
35.6110 71.2049 -2.6477 0.0332 0 7
34.4600 71.7690 -2.6477 0.0332 0 7
33.3002 72.3145 -2.6477 0.0332 0 7
32.1317 72.8412 -2.6477 0.0332 0 7
30.9549 73.3490 -2.6477 0.0332 0 7
29.7700 73.8378 -2.6477 0.0332 0 7
28.5437 74.2197 -2.6445 0.0490 0 8
27.2770 74.4834 -2.6379 0.9284 0 8
25.9252 74.4845 -2.6229 0.9338 0 8
24.5884 74.4854 -2.6086 0.9389 0 8
23.2658 74.4862 -2.5952 0.9437 0 8
21.9563 74.4869 -2.5826 0.9483 0 8
20.6591 74.4874 -2.5707 0.9527 0 8
19.3733 74.4878 -2.5596 0.9568 0 8
18.0983 74.4881 -2.5493 0.9607 0 8
16.8332 74.4883 -2.5397 0.9643 0 8
15.5771 74.4883 -2.5308 0.9677 0 8
14.3295 74.4882 -2.5226 0.9709 0 8
13.0896 74.4880 -2.5152 0.9737 0 8
11.8567 74.4877 -2.5084 0.9764 0 8
10.6302 74.4877 -2.5023 0.7229 0 8
9.4096 74.4914 -2.4970 0.7244 0 8
8.2033 74.5810 -2.4953 0.0332 0 8
7.0017 74.7034 -2.4953 0.0332 0 8
5.7982 74.8064 -2.4953 0.0332 0 8
4.5931 74.8901 -2.4953 0.0332 0 8
3.3869 74.9543 -2.4953 0.0332 0 8
2.1798 74.9991 -2.4953 0.0332 0 8
0.9721 75.0245 -2.4953 0.0332 0 8
-0.2358 75.0304 -2.4953 0.0332 0 8
-1.4437 75.0169 -2.4953 0.0332 0 8
-2.6512 74.9839 -2.4953 0.0332 0 8
-3.8580 74.9315 -2.4953 0.0332 0 8
-5.0639 74.8597 -2.4953 0.0332 0 8
-6.2683 74.7685 -2.4953 0.0332 0 8
-7.4712 74.6579 -2.4953 0.0332 0 8
-8.6723 74.5279 -2.4953 0.0332 0 8
-9.8824 74.4656 -2.4982 0.7245 0 8
-11.1041 74.4592 -2.5036 0.9782 0 8
-12.3322 74.4565 -2.5099 0.9758 0 8
-13.5666 74.4536 -2.5168 0.9731 0 8
-14.8083 74.4506 -2.5245 0.9702 0 8
-16.0578 74.4475 -2.5328 0.9670 0 8
-17.3158 74.4442 -2.5419 0.9635 0 8
-18.5832 74.4408 -2.5516 0.9598 0 8
-19.8606 74.4372 -2.5621 0.9559 0 8
-21.1489 74.4334 -2.5734 0.9517 0 8
-22.4489 74.4296 -2.5854 0.9473 0 8
-23.7614 74.4255 -2.5982 0.9426 0 8
-25.0872 74.4213 -2.6118 0.9377 0 8
-26.4273 74.4169 -2.6263 0.9326 0 8
-27.7720 74.3836 -2.6405 0.0491 0 8
-29.0232 74.0733 -2.6458 0.0490 0 8
-30.2336 73.6492 -2.6477 0.0332 0 7
-31.4154 73.1530 -2.6477 0.0332 0 6
-32.5890 72.6377 -2.6477 0.0332 0 7
-33.7541 72.1037 -2.6477 0.0332 0 6
-34.9105 71.5509 -2.6477 0.0332 0 7
-36.0580 70.9796 -2.6477 0.0332 0 7
-37.1960 70.3900 -2.6477 0.0332 0 7
-38.3243 69.7820 -2.6477 0.0332 0 7
-39.4428 69.1560 -2.6477 0.0332 0 7
-40.5510 68.5120 -2.6477 0.0332 0 7
-41.6487 67.8503 -2.6477 0.0332 0 7
-42.7357 67.1710 -2.6477 0.0332 0 7
-43.8115 66.4743 -2.6477 0.0332 0 7
-44.8760 65.7604 -2.6477 0.0332 0 7
-45.9288 65.0294 -2.6477 0.0332 0 7
-46.9697 64.2816 -2.6477 0.0332 0 6
-47.9985 63.5171 -2.6477 0.0332 0 7
-49.0148 62.7362 -2.6477 0.0332 0 7
-50.0185 61.9390 -2.6477 0.0332 0 7
-51.0091 61.1257 -2.6477 0.0332 0 7
-51.9866 60.2966 -2.6477 0.0332 0 7
-52.9506 59.4518 -2.6477 0.0332 0 7
-53.9008 58.5916 -2.6477 0.0332 0 6
-54.8371 57.7163 -2.6477 0.0332 0 7
-55.7591 56.8261 -2.6477 0.0332 0 7
-56.3510 55.6093 -2.6329 0.7075 0 8
-56.3633 53.8583 -2.5926 0.7185 0 8
39.6943 49.7915 -2.6477 0.0415 0 7
38.8876 50.4241 -2.6477 0.0415 0 7
38.0707 51.0436 -2.6477 0.0415 0 7
35.1003 48.6769 -2.4953 0.0415 0 8
34.3121 49.2357 -2.4953 0.0415 0 8
33.5150 49.7817 -2.4953 0.0415 0 8
32.7093 50.3148 -2.4953 0.0415 0 8
31.8950 50.8348 -2.4953 0.0415 0 8
31.0725 51.3417 -2.4953 0.0415 0 8
30.2419 51.8353 -2.4953 0.0415 0 8
29.4035 52.3154 -2.4953 0.0415 0 8
28.5575 52.7820 -2.4953 0.0415 0 8
27.7041 53.2349 -2.4953 0.0415 0 8
26.8434 53.6740 -2.4953 0.0415 0 8
25.9759 54.0992 -2.4953 0.0415 0 8
25.1016 54.5104 -2.4953 0.0415 0 8
24.2207 54.9074 -2.4953 0.0415 0 8
23.3337 55.2903 -2.4953 0.0415 0 8
22.4405 55.6587 -2.4953 0.0415 0 8
21.5416 56.0128 -2.4953 0.0415 0 8
20.6371 56.3523 -2.4953 0.0415 0 8
19.7272 56.6772 -2.4953 0.0415 0 8
18.8122 56.9875 -2.4953 0.0415 0 8
17.8923 57.2830 -2.4953 0.0415 0 8
16.9678 57.5636 -2.4953 0.0415 0 8
16.0389 57.8293 -2.4953 0.0415 0 8
15.1059 58.0800 -2.4953 0.0415 0 8
14.1689 58.3156 -2.4953 0.0415 0 8
13.2282 58.5362 -2.4953 0.0415 0 8
12.2841 58.7416 -2.4953 0.0415 0 8
11.3369 58.9317 -2.4953 0.0415 0 8
10.3867 59.1066 -2.4953 0.0415 0 8
9.4338 59.2661 -2.4953 0.0415 0 8
8.4784 59.4103 -2.4953 0.0415 0 8
7.5209 59.5391 -2.4953 0.0415 0 8
6.5614 59.6525 -2.4953 0.0415 0 8
5.6002 59.7504 -2.4953 0.0415 0 8
4.6376 59.8328 -2.4953 0.0415 0 8
3.6737 59.8997 -2.4953 0.0415 0 8
2.7089 59.9511 -2.4953 0.0415 0 8
1.7434 59.9869 -2.4953 0.0415 0 8
0.7775 60.0072 -2.4953 0.0415 0 8
-0.1887 60.0120 -2.4953 0.0415 0 8
-1.1547 60.0011 -2.4953 0.0415 0 8
-2.1206 59.9748 -2.4953 0.0415 0 8
-3.0858 59.9329 -2.4953 0.0415 0 8
-4.0503 59.8754 -2.4953 0.0415 0 8
-5.0136 59.8025 -2.4953 0.0415 0 8
-5.9757 59.7140 -2.4953 0.0415 0 8
-6.9363 59.6101 -2.4953 0.0415 0 8
-7.8951 59.4907 -2.4953 0.0415 0 8
-8.8518 59.3559 -2.4953 0.0415 0 8
-9.8062 59.2057 -2.4953 0.0415 0 8
-10.7581 59.0401 -2.4953 0.0415 0 8
-11.7072 58.8593 -2.4953 0.0415 0 8
-12.6532 58.6632 -2.4953 0.0415 0 8
-13.5960 58.4519 -2.4953 0.0415 0 8
-14.5352 58.2254 -2.4953 0.0415 0 8
-15.4707 57.9839 -2.4953 0.0415 0 8
-16.4022 57.7273 -2.4953 0.0415 0 8
-17.3294 57.4558 -2.4953 0.0415 0 8
-18.2521 57.1693 -2.4953 0.0415 0 8
-19.1701 56.8681 -2.4953 0.0415 0 8
-20.0831 56.5521 -2.4953 0.0415 0 8
-20.9909 56.2215 -2.4953 0.0415 0 8
-21.8933 55.8762 -2.4953 0.0415 0 8
-22.7900 55.5166 -2.4953 0.0415 0 8
-23.6808 55.1425 -2.4953 0.0415 0 8
-24.5655 54.7541 -2.4953 0.0415 0 8
-25.4438 54.3515 -2.4953 0.0415 0 8
-26.3155 53.9349 -2.4953 0.0415 0 8
-27.1804 53.5042 -2.4953 0.0415 0 8
-28.0382 53.0597 -2.4953 0.0415 0 8
-28.8887 52.6014 -2.4953 0.0415 0 8
-29.7319 52.1295 -2.4953 0.0415 0 8
-30.5672 51.6441 -2.4953 0.0415 0 8
-31.3947 51.1453 -2.4953 0.0415 0 8
-32.2140 50.6333 -2.4953 0.0415 0 8
-33.0250 50.1081 -2.4953 0.0415 0 8
-33.8274 49.5700 -2.4953 0.0415 0 8
-34.6210 49.0190 -2.4953 0.0415 0 8
-35.4056 48.4553 -2.4953 0.0415 0 8
-36.1811 47.8790 -2.4953 0.0415 0 8
-36.9472 47.2903 -2.4953 0.0415 0 8
-40.0066 49.5410 -2.6477 0.0415 0 7
-40.7989 48.8905 -2.6477 0.0415 0 7
-41.5807 48.2273 -2.6477 0.0415 0 7
-42.3518 47.5516 -2.6477 0.0415 0 7
-43.1118 46.8637 -2.6477 0.0415 0 7
-43.8606 46.1636 -2.6477 0.0415 0 7
-44.5981 45.4515 -2.6477 0.0415 0 7
-45.3241 44.7276 -2.6477 0.0415 0 7
-46.0383 43.9921 -2.6477 0.0415 0 7
31.1666 39.0947 -2.4953 0.0498 0 8
30.5332 39.5913 -2.4953 0.0498 0 8
29.8919 40.0777 -2.4953 0.0498 0 8
29.2428 40.5538 -2.4953 0.0498 0 8
28.5862 41.0193 -2.4953 0.0498 0 8
27.9221 41.4741 -2.4953 0.0498 0 8
27.2508 41.9183 -2.4953 0.0498 0 8
26.5724 42.3515 -2.4953 0.0498 0 8
25.8872 42.7739 -2.4953 0.0498 0 8
25.1952 43.1851 -2.4953 0.0498 0 8
24.4967 43.5851 -2.4953 0.0498 0 8
23.7918 43.9738 -2.4953 0.0498 0 8
23.0808 44.3511 -2.4953 0.0498 0 8
22.3638 44.7170 -2.4953 0.0498 0 8
21.6410 45.0712 -2.4953 0.0498 0 8
20.9127 45.4138 -2.4953 0.0498 0 8
20.1788 45.7445 -2.4953 0.0498 0 8
19.4398 46.0634 -2.4953 0.0498 0 8
18.6957 46.3704 -2.4953 0.0498 0 8
17.9468 46.6654 -2.4953 0.0498 0 8
17.1932 46.9483 -2.4953 0.0498 0 8
16.4351 47.2190 -2.4953 0.0498 0 8
15.6728 47.4775 -2.4953 0.0498 0 8
14.9065 47.7236 -2.4953 0.0498 0 8
14.1363 47.9574 -2.4953 0.0498 0 8
13.3624 48.1788 -2.4953 0.0498 0 8
12.5850 48.3877 -2.4953 0.0498 0 8
11.8044 48.5840 -2.4953 0.0498 0 8
11.0207 48.7677 -2.4953 0.0498 0 8
10.2342 48.9388 -2.4953 0.0498 0 8
9.4450 49.0972 -2.4953 0.0498 0 8
8.6534 49.2429 -2.4953 0.0498 0 8
7.8595 49.3759 -2.4953 0.0498 0 8
7.0636 49.4960 -2.4953 0.0498 0 8
6.2658 49.6033 -2.4953 0.0498 0 8
5.4665 49.6977 -2.4953 0.0498 0 8
4.6656 49.7793 -2.4953 0.0498 0 8
3.8637 49.8480 -2.4953 0.0498 0 8
3.0607 49.9037 -2.4953 0.0498 0 8
2.2569 49.9465 -2.4953 0.0498 0 8
1.4525 49.9764 -2.4953 0.0498 0 8
0.6477 49.9933 -2.4953 0.0498 0 8
-0.1572 49.9972 -2.4953 0.0498 0 8
-0.9620 49.9882 -2.4953 0.0498 0 8
-1.7667 49.9662 -2.4953 0.0498 0 8
-2.5708 49.9313 -2.4953 0.0498 0 8
-3.3743 49.8835 -2.4953 0.0498 0 8
-4.1770 49.8227 -2.4953 0.0498 0 8
-4.9785 49.7490 -2.4953 0.0498 0 8
-5.7788 49.6624 -2.4953 0.0498 0 8
-6.5775 49.5629 -2.4953 0.0498 0 8
-7.3746 49.4506 -2.4953 0.0498 0 8
-8.1698 49.3255 -2.4953 0.0498 0 8
-8.9628 49.1876 -2.4953 0.0498 0 8
-9.7535 49.0369 -2.4953 0.0498 0 8
-10.5416 48.8735 -2.4953 0.0498 0 8
-11.3271 48.6975 -2.4953 0.0498 0 8
-12.1096 48.5088 -2.4953 0.0498 0 8
-12.8890 48.3076 -2.4953 0.0498 0 8
-13.6650 48.0938 -2.4953 0.0498 0 8
-14.4375 47.8676 -2.4953 0.0498 0 8
-15.2062 47.6290 -2.4953 0.0498 0 8
-15.9710 47.3780 -2.4953 0.0498 0 8
-16.7317 47.1147 -2.4953 0.0498 0 8
-17.4880 46.8393 -2.4953 0.0498 0 8
-18.2398 46.5517 -2.4953 0.0498 0 8
-18.9868 46.2520 -2.4953 0.0498 0 8
-19.7290 45.9403 -2.4953 0.0498 0 8
-20.4660 45.6168 -2.4953 0.0498 0 8
-21.1977 45.2814 -2.4953 0.0498 0 8
-21.9240 44.9343 -2.4953 0.0498 0 8
-22.6445 44.5755 -2.4953 0.0498 0 8
-23.3592 44.2052 -2.4953 0.0498 0 8
-24.0678 43.8234 -2.4953 0.0498 0 8
-24.7702 43.4302 -2.4953 0.0498 0 8
-25.4662 43.0258 -2.4953 0.0498 0 8
-26.1556 42.6102 -2.4953 0.0498 0 8
-26.8381 42.1837 -2.4953 0.0498 0 8
-27.5138 41.7461 -2.4953 0.0498 0 8
-28.1823 41.2978 -2.4953 0.0498 0 8
-28.8435 40.8387 -2.4953 0.0498 0 8
-29.4972 40.3691 -2.4953 0.0498 0 8
-30.1432 39.8890 -2.4953 0.0498 0 8
-30.7815 39.3986 -2.4953 0.0498 0 8
-31.4118 38.8979 -2.4953 0.0498 0 8
-32.0339 38.3872 -2.4953 0.0498 0 8
-32.6478 37.8665 -2.4953 0.0498 0 8
-33.2531 37.3360 -2.4953 0.0498 0 8
-33.8498 36.7959 -2.4953 0.0498 0 8
-34.4379 36.2461 -2.4953 0.0498 0 8
-35.0169 35.6870 -2.4953 0.0498 0 8
-37.7604 37.2635 -2.6477 0.0498 0 6
-38.3554 36.6508 -2.6477 0.0498 0 7
26.7063 33.4997 -2.4953 0.0581 0 8
26.1635 33.9253 -2.4953 0.0581 0 8
25.6140 34.3421 -2.4953 0.0581 0 8
25.0578 34.7500 -2.4953 0.0581 0 8
24.4951 35.1489 -2.4953 0.0581 0 8
23.9261 35.5387 -2.4953 0.0581 0 8
23.3508 35.9192 -2.4953 0.0581 0 8
22.7696 36.2905 -2.4953 0.0581 0 8
22.1824 36.6524 -2.4953 0.0581 0 8
21.5894 37.0047 -2.4953 0.0581 0 8
20.9909 37.3475 -2.4953 0.0581 0 8
20.3869 37.6806 -2.4953 0.0581 0 8
19.7777 38.0039 -2.4953 0.0581 0 8
19.1633 38.3174 -2.4953 0.0581 0 8
18.5439 38.6209 -2.4953 0.0581 0 8
17.9198 38.9144 -2.4953 0.0581 0 8
17.2910 39.1979 -2.4953 0.0581 0 8
16.6577 39.4712 -2.4953 0.0581 0 8
16.0201 39.7342 -2.4953 0.0581 0 8
15.3783 39.9870 -2.4953 0.0581 0 8
14.7326 40.2294 -2.4953 0.0581 0 8
14.0831 40.4613 -2.4953 0.0581 0 8
13.4298 40.6828 -2.4953 0.0581 0 8
12.7732 40.8937 -2.4953 0.0581 0 8
12.1132 41.0941 -2.4953 0.0581 0 8
11.4500 41.2838 -2.4953 0.0581 0 8
10.7839 41.4628 -2.4953 0.0581 0 8
10.1150 41.6310 -2.4953 0.0581 0 8
9.4435 41.7884 -2.4953 0.0581 0 8
8.7695 41.9350 -2.4953 0.0581 0 8
8.0933 42.0708 -2.4953 0.0581 0 8
7.4150 42.1956 -2.4953 0.0581 0 8
6.7347 42.3095 -2.4953 0.0581 0 8
6.0527 42.4125 -2.4953 0.0581 0 8
5.3691 42.5044 -2.4953 0.0581 0 8
4.6841 42.5853 -2.4953 0.0581 0 8
3.9979 42.6552 -2.4953 0.0581 0 8
3.3107 42.7141 -2.4953 0.0581 0 8
2.6226 42.7618 -2.4953 0.0581 0 8
1.9339 42.7985 -2.4953 0.0581 0 8
1.2446 42.8241 -2.4953 0.0581 0 8
0.5550 42.8386 -2.4953 0.0581 0 8
-0.1347 42.8420 -2.4953 0.0581 0 8
-0.8243 42.8343 -2.4953 0.0581 0 8
-1.5138 42.8154 -2.4953 0.0581 0 8
-2.2029 42.7855 -2.4953 0.0581 0 8
-2.8914 42.7445 -2.4953 0.0581 0 8
-3.5792 42.6924 -2.4953 0.0581 0 8
-4.2660 42.6293 -2.4953 0.0581 0 8
-4.9518 42.5550 -2.4953 0.0581 0 8
-5.6362 42.4698 -2.4953 0.0581 0 8
-6.3192 42.3736 -2.4953 0.0581 0 8
-7.0005 42.2664 -2.4953 0.0581 0 8
-7.6801 42.1482 -2.4953 0.0581 0 8
-8.3576 42.0191 -2.4953 0.0581 0 8
-9.0330 41.8791 -2.4953 0.0581 0 8
-9.7060 41.7282 -2.4953 0.0581 0 8
-10.3766 41.5666 -2.4953 0.0581 0 8
-11.0444 41.3941 -2.4953 0.0581 0 8
-11.7093 41.2110 -2.4953 0.0581 0 8
-12.3713 41.0171 -2.4953 0.0581 0 8
-13.0300 40.8126 -2.4953 0.0581 0 8
-13.6853 40.5976 -2.4953 0.0581 0 8
-14.3371 40.3720 -2.4953 0.0581 0 8
-14.9852 40.1360 -2.4953 0.0581 0 8
-15.6294 39.8895 -2.4953 0.0581 0 8
-16.2696 39.6327 -2.4953 0.0581 0 8
-16.9055 39.3657 -2.4953 0.0581 0 8
-17.5370 39.0884 -2.4953 0.0581 0 8
-18.1641 38.8010 -2.4953 0.0581 0 8
-18.7864 38.5036 -2.4953 0.0581 0 8
-19.4038 38.1961 -2.4953 0.0581 0 8
-20.0162 37.8788 -2.4953 0.0581 0 8
-20.6234 37.5517 -2.4953 0.0581 0 8
-21.2253 37.2148 -2.4953 0.0581 0 8
-21.8217 36.8683 -2.4953 0.0581 0 8
-22.4124 36.5122 -2.4953 0.0581 0 8
-22.9973 36.1466 -2.4953 0.0581 0 8
-23.5762 35.7717 -2.4953 0.0581 0 8
-24.1490 35.3875 -2.4953 0.0581 0 8
-24.7156 34.9942 -2.4953 0.0581 0 8
-25.2758 34.5917 -2.4953 0.0581 0 8
-25.8293 34.1804 -2.4953 0.0581 0 8
-26.3763 33.7601 -2.4953 0.0581 0 8
-26.9164 33.3311 -2.4953 0.0581 0 8
-27.4494 32.8934 -2.4953 0.0581 0 8
-28.3023 32.8264 -2.5244 0.7558 0 8
-29.2287 32.8173 -2.5596 0.7454 0 8
-30.2147 32.8442 -2.5993 0.6650 0 8
-31.2438 32.8843 -2.6419 0.0674 0 8
-31.8382 32.4474 -2.6477 0.0581 0 7
-32.3564 31.9306 -2.6477 0.0581 0 7
-32.8663 31.4056 -2.6477 0.0581 0 7
24.7866 31.0917 -2.6477 0.0664 0 7
24.2828 31.4867 -2.6477 0.0664 0 7
23.7728 31.8735 -2.6477 0.0664 0 7
23.2566 32.2521 -2.6477 0.0664 0 7
22.7193 32.6007 -2.6459 0.0803 0 8
22.1489 32.8989 -2.6408 0.0804 0 8
21.4189 32.9475 -2.6167 0.8332 0 8
20.6739 32.9503 -2.5902 0.8417 0 8
19.9435 32.9530 -2.5648 0.8500 0 8
19.2270 32.9555 -2.5406 0.8581 0 8
18.5237 32.9578 -2.5174 0.8660 0 8
17.8360 32.9657 -2.4958 0.6665 0 8
17.2994 33.2419 -2.4953 0.0664 0 8
16.7621 33.5161 -2.4953 0.0664 0 8
16.2203 33.7816 -2.4953 0.0664 0 8
15.6744 34.0383 -2.4953 0.0664 0 8
15.1243 34.2863 -2.4953 0.0664 0 8
14.5704 34.5253 -2.4953 0.0664 0 8
14.0127 34.7554 -2.4953 0.0664 0 8
13.4514 34.9765 -2.4953 0.0664 0 8
12.8866 35.1885 -2.4953 0.0664 0 8
12.3184 35.3914 -2.4953 0.0664 0 8
11.7470 35.5851 -2.4953 0.0664 0 8
11.1726 35.7696 -2.4953 0.0664 0 8
10.5954 35.9448 -2.4953 0.0664 0 8
10.0153 36.1108 -2.4953 0.0664 0 8
9.4327 36.2673 -2.4953 0.0664 0 8
8.8476 36.4145 -2.4953 0.0664 0 8
8.2602 36.5522 -2.4953 0.0664 0 8
7.6707 36.6804 -2.4953 0.0664 0 8
7.0792 36.7992 -2.4953 0.0664 0 8
6.4858 36.9084 -2.4953 0.0664 0 8
5.8908 37.0080 -2.4953 0.0664 0 8
5.2943 37.0980 -2.4953 0.0664 0 8
4.6963 37.1785 -2.4953 0.0664 0 8
4.0972 37.2492 -2.4953 0.0664 0 8
3.4970 37.3104 -2.4953 0.0664 0 8
2.8959 37.3619 -2.4953 0.0664 0 8
2.2940 37.4036 -2.4953 0.0664 0 8
1.6916 37.4357 -2.4953 0.0664 0 8
1.0887 37.4581 -2.4953 0.0664 0 8
0.4855 37.4708 -2.4953 0.0664 0 8
-0.1178 37.4737 -2.4953 0.0664 0 8
-0.7211 37.4670 -2.4953 0.0664 0 8
-1.3242 37.4505 -2.4953 0.0664 0 8
-1.9269 37.4243 -2.4953 0.0664 0 8
-2.5291 37.3885 -2.4953 0.0664 0 8
-3.1307 37.3429 -2.4953 0.0664 0 8
-3.7315 37.2877 -2.4953 0.0664 0 8
-4.3313 37.2228 -2.4953 0.0664 0 8
-4.9300 37.1482 -2.4953 0.0664 0 8
-5.5274 37.0640 -2.4953 0.0664 0 8
-6.1234 36.9702 -2.4953 0.0664 0 8
-6.7177 36.8669 -2.4953 0.0664 0 8
-7.3104 36.7539 -2.4953 0.0664 0 8
-7.9011 36.6315 -2.4953 0.0664 0 8
-8.4898 36.4995 -2.4953 0.0664 0 8
-9.0763 36.3581 -2.4953 0.0664 0 8
-9.6605 36.2073 -2.4953 0.0664 0 8
-10.2421 36.0471 -2.4953 0.0664 0 8
-10.8211 35.8775 -2.4953 0.0664 0 8
-11.3973 35.6987 -2.4953 0.0664 0 8
-11.9705 35.5106 -2.4953 0.0664 0 8
-12.5406 35.3133 -2.4953 0.0664 0 8
-13.1075 35.1068 -2.4953 0.0664 0 8
-13.6710 34.8912 -2.4953 0.0664 0 8
-14.2309 34.6666 -2.4953 0.0664 0 8
-14.7872 34.4330 -2.4953 0.0664 0 8
-15.3396 34.1905 -2.4953 0.0664 0 8
-15.8880 33.9391 -2.4953 0.0664 0 8
-16.4324 33.6789 -2.4953 0.0664 0 8
-16.9724 33.4100 -2.4953 0.0664 0 8
-17.5081 33.1325 -2.4953 0.0664 0 8
-18.0495 32.8651 -2.4967 0.6663 0 8
-18.7382 32.8541 -2.5185 0.8657 0 8
-19.4420 32.8478 -2.5416 0.8578 0 8
-20.1591 32.8413 -2.5659 0.8497 0 8
-20.8901 32.8346 -2.5913 0.8413 0 8
-21.6358 32.8276 -2.6179 0.8328 0 8
-22.3572 32.7619 -2.6411 0.0804 0 8
-22.9258 32.4601 -2.6461 0.0803 0 8
-23.4589 32.1053 -2.6477 0.0664 0 7
-23.9727 31.7234 -2.6477 0.0664 0 7
-24.4803 31.3334 -2.6477 0.0664 0 7
-24.9816 30.9352 -2.6477 0.0664 0 7
-25.4764 30.5290 -2.6477 0.0664 0 7
-25.9646 30.1149 -2.6477 0.0664 0 7
-26.4460 29.6930 -2.6477 0.0664 0 7
-26.9206 29.2634 -2.6477 0.0664 0 7
-27.3882 28.8263 -2.6477 0.0664 0 7
-27.8487 28.3816 -2.6477 0.0664 0 7
-28.3021 27.9296 -2.6477 0.0664 0 7
-28.7480 27.4703 -2.6477 0.0664 0 7
22.0239 27.6262 -2.6477 0.0747 0 7
21.5763 27.9772 -2.6477 0.0747 0 7
21.1231 28.3209 -2.6477 0.0747 0 7
20.6644 28.6573 -2.6477 0.0747 0 7
20.2004 28.9863 -2.6477 0.0747 0 7
19.7312 29.3077 -2.6477 0.0747 0 7
19.2568 29.6216 -2.6477 0.0747 0 7
18.7774 29.9277 -2.6477 0.0747 0 6
18.2932 30.2262 -2.6477 0.0747 0 7
17.8042 30.5167 -2.6477 0.0747 0 7
17.3106 30.7994 -2.6477 0.0747 0 7
16.8125 31.0741 -2.6477 0.0747 0 7
16.3101 31.3407 -2.6477 0.0747 0 7
15.8034 31.5993 -2.6477 0.0747 0 7
15.2927 31.8496 -2.6477 0.0747 0 7
14.7779 32.0916 -2.6477 0.0747 0 7
14.2594 32.3254 -2.6477 0.0747 0 7
13.7314 32.5372 -2.6466 0.0903 0 8
13.1906 32.7162 -2.6435 0.0904 0 8
12.6481 32.8878 -2.6406 0.0905 0 8
12.0556 32.9195 -2.6272 0.9334 0 8
11.4584 32.9206 -2.6122 0.9388 0 8
10.8678 32.9216 -2.5981 0.9439 0 8
10.2833 32.9224 -2.5847 0.9487 0 8
9.7047 32.9232 -2.5722 0.9534 0 8
9.1314 32.9237 -2.5604 0.9577 0 8
8.5632 32.9242 -2.5494 0.9619 0 8
7.9996 32.9245 -2.5391 0.9658 0 8
7.4405 32.9248 -2.5296 0.9694 0 8
6.8853 32.9249 -2.5207 0.9728 0 8
6.3339 32.9248 -2.5126 0.9760 0 8
5.7858 32.9247 -2.5052 0.9789 0 8
5.2413 32.9278 -2.4987 0.7488 0 8
4.7042 32.9631 -2.4953 0.0747 0 8
4.1729 33.0346 -2.4953 0.0747 0 8
3.6405 33.0975 -2.4953 0.0747 0 8
3.1072 33.1518 -2.4953 0.0747 0 8
2.5731 33.1975 -2.4953 0.0747 0 8
2.0383 33.2346 -2.4953 0.0747 0 8
1.5030 33.2632 -2.4953 0.0747 0 8
0.9673 33.2830 -2.4953 0.0747 0 8
0.4314 33.2943 -2.4953 0.0747 0 8
-0.1047 33.2969 -2.4953 0.0747 0 8
-0.6407 33.2909 -2.4953 0.0747 0 8
-1.1766 33.2763 -2.4953 0.0747 0 8
-1.7121 33.2531 -2.4953 0.0747 0 8
-2.2472 33.2212 -2.4953 0.0747 0 8
-2.7818 33.1807 -2.4953 0.0747 0 8
-3.3156 33.1316 -2.4953 0.0747 0 8
-3.8485 33.0739 -2.4953 0.0747 0 8
-4.3805 33.0077 -2.4953 0.0747 0 8
-4.9112 32.9329 -2.4953 0.0747 0 8
-5.4489 32.8978 -2.4989 0.7489 0 8
-5.9934 32.8919 -2.5055 0.9787 0 8
-6.5417 32.8890 -2.5130 0.9758 0 8
-7.0932 32.8859 -2.5211 0.9727 0 8
-7.6486 32.8828 -2.5300 0.9693 0 8
-8.2079 32.8794 -2.5396 0.9656 0 8
-8.7716 32.8760 -2.5499 0.9617 0 8
-9.3401 32.8723 -2.5609 0.9575 0 8
-9.9136 32.8685 -2.5728 0.9532 0 8
-10.4925 32.8646 -2.5853 0.9485 0 8
-11.0772 32.8605 -2.5987 0.9436 0 8
-11.6681 32.8562 -2.6129 0.9385 0 8
-12.2656 32.8518 -2.6279 0.9331 0 8
-12.8552 32.8092 -2.6407 0.0905 0 8
-13.3967 32.6343 -2.6436 0.0904 0 8
-13.9364 32.4520 -2.6467 0.0903 0 8
-14.4623 32.2351 -2.6477 0.0747 0 7
-14.9794 31.9981 -2.6477 0.0747 0 7
-15.4926 31.7528 -2.6477 0.0747 0 7
-16.0018 31.4993 -2.6477 0.0747 0 7
-16.5068 31.2376 -2.6477 0.0747 0 7
-17.0075 30.9678 -2.6477 0.0747 0 7
-17.5039 30.6900 -2.6477 0.0747 0 7
-17.9957 30.4042 -2.6477 0.0747 0 7
-18.4828 30.1105 -2.6477 0.0747 0 7
-18.9652 29.8091 -2.6477 0.0747 0 7
-19.4426 29.4999 -2.6477 0.0747 0 7
-19.9150 29.1831 -2.6477 0.0747 0 7
-20.3822 28.8587 -2.6477 0.0747 0 7
-20.8442 28.5268 -2.6477 0.0747 0 7
-21.3008 28.1876 -2.6477 0.0747 0 7
-21.7518 27.8410 -2.6477 0.0747 0 7
-22.1972 27.4872 -2.6477 0.0747 0 7
-22.6368 27.1263 -2.6477 0.0747 0 7
-23.0706 26.7584 -2.6477 0.0747 0 7
-23.4984 26.3835 -2.6477 0.0747 0 6
-23.9201 26.0018 -2.6477 0.0747 0 7
-24.3356 25.6133 -2.6477 0.0747 0 7
-24.7447 25.2182 -2.6477 0.0747 0 7
-25.1475 24.8166 -2.6477 0.0747 0 7
-25.5438 24.4085 -2.6477 0.0747 0 7
19.8128 24.8527 -2.6477 0.0830 0 7
19.4101 25.1684 -2.6477 0.0830 0 7
19.0024 25.4776 -2.6477 0.0830 0 7
18.5898 25.7802 -2.6477 0.0830 0 7
18.1724 26.0762 -2.6477 0.0830 0 7
17.7502 26.3654 -2.6477 0.0830 0 7
17.3235 26.6477 -2.6477 0.0830 0 7
16.8922 26.9231 -2.6477 0.0830 0 7
16.4566 27.1916 -2.6477 0.0830 0 7
16.0167 27.4530 -2.6477 0.0830 0 7
15.5727 27.7073 -2.6477 0.0830 0 7
15.1246 27.9544 -2.6477 0.0830 0 7
14.6726 28.1943 -2.6477 0.0830 0 7
14.2168 28.4268 -2.6477 0.0830 0 7
13.7573 28.6520 -2.6477 0.0830 0 7
13.2943 28.8698 -2.6477 0.0830 0 7
12.8278 29.0801 -2.6477 0.0830 0 7
12.3580 29.2828 -2.6477 0.0830 0 7
11.8850 29.4780 -2.6477 0.0830 0 7
11.4089 29.6655 -2.6477 0.0830 0 7
10.9298 29.8453 -2.6477 0.0830 0 7
10.4479 30.0174 -2.6477 0.0830 0 6
9.9633 30.1817 -2.6477 0.0830 0 7
9.4761 30.3382 -2.6477 0.0830 0 7
8.9865 30.4868 -2.6477 0.0830 0 7
8.4945 30.6275 -2.6477 0.0830 0 7
8.0004 30.7603 -2.6477 0.0830 0 7
7.5041 30.8851 -2.6477 0.0830 0 7
7.0059 31.0019 -2.6477 0.0830 0 7
6.5059 31.1107 -2.6477 0.0830 0 7
6.0042 31.2114 -2.6477 0.0830 0 7
5.5010 31.3040 -2.6477 0.0830 0 7
4.9963 31.3885 -2.6477 0.0830 0 7
4.4904 31.4649 -2.6477 0.0830 0 7
3.9832 31.5331 -2.6477 0.0830 0 7
3.4751 31.5931 -2.6477 0.0830 0 7
2.9660 31.6450 -2.6477 0.0830 0 7
2.4561 31.6886 -2.6477 0.0830 0 7
1.9457 31.7241 -2.6477 0.0830 0 7
1.4347 31.7513 -2.6477 0.0830 0 7
0.9234 31.7703 -2.6477 0.0830 0 7
0.4118 31.7810 -2.6477 0.0830 0 7
-0.0999 31.7835 -2.6477 0.0830 0 7
-0.6116 31.7778 -2.6477 0.0830 0 7
-1.1231 31.7638 -2.6477 0.0830 0 7
-1.6343 31.7416 -2.6477 0.0830 0 7
-2.1451 31.7112 -2.6477 0.0830 0 7
-2.6553 31.6726 -2.6477 0.0830 0 7
-3.1649 31.6257 -2.6477 0.0830 0 7
-3.6736 31.5707 -2.6477 0.0830 0 7
-4.1814 31.5074 -2.6477 0.0830 0 7
-4.6881 31.4360 -2.6477 0.0830 0 7
-5.1936 31.3565 -2.6477 0.0830 0 7
-5.6977 31.2688 -2.6477 0.0830 0 7
-6.2003 31.1730 -2.6477 0.0830 0 7
-6.7014 31.0692 -2.6477 0.0830 0 7
-7.2007 30.9573 -2.6477 0.0830 0 7
-7.6981 30.8373 -2.6477 0.0830 0 7
-8.1936 30.7094 -2.6477 0.0830 0 7
-8.6869 30.5735 -2.6477 0.0830 0 7
-9.1780 30.4297 -2.6477 0.0830 0 7
-9.6667 30.2780 -2.6477 0.0830 0 7
-10.1529 30.1185 -2.6477 0.0830 0 7
-10.6366 29.9511 -2.6477 0.0830 0 6
-11.1172 29.7760 -2.6477 0.0830 0 7
-11.5951 29.5932 -2.6477 0.0830 0 7
-12.0701 29.4027 -2.6477 0.0830 0 7
-12.5418 29.2045 -2.6477 0.0830 0 7
-13.0104 28.9989 -2.6477 0.0830 0 7
-13.4755 28.7856 -2.6477 0.0830 0 7
-13.9372 28.5650 -2.6477 0.0830 0 7
-14.3953 28.3369 -2.6477 0.0830 0 7
-14.8496 28.1015 -2.6477 0.0830 0 7
-15.3001 27.8588 -2.6477 0.0830 0 7
-15.7466 27.6088 -2.6477 0.0830 0 7
-16.1890 27.3518 -2.6477 0.0830 0 7
-16.6272 27.0876 -2.6477 0.0830 0 7
-17.0612 26.8164 -2.6477 0.0830 0 7
-17.4907 26.5383 -2.6477 0.0830 0 7
-17.9156 26.2532 -2.6477 0.0830 0 7
-18.3360 25.9614 -2.6477 0.0830 0 7
-18.7515 25.6629 -2.6477 0.0830 0 7
-19.1622 25.3577 -2.6477 0.0830 0 7
-19.5680 25.0459 -2.6477 0.0830 0 7
-19.9687 24.7276 -2.6477 0.0830 0 7
-20.3642 24.4030 -2.6477 0.0830 0 7
-20.7544 24.0719 -2.6477 0.0830 0 7
-21.1392 23.7347 -2.6477 0.0830 0 7
-20.3419 22.1122 -2.5029 0.0830 0 14
-20.6953 21.7819 -2.5029 0.0830 0 14
-21.0432 21.4459 -2.5029 0.0830 0 14
-21.3858 21.1043 -2.5029 0.0830 0 14
-21.7227 20.7573 -2.5029 0.0830 0 14
17.0185 21.3475 -2.5029 0.0913 0 14
16.6726 21.6188 -2.5029 0.0913 0 14
16.3224 21.8844 -2.5029 0.0913 0 14
15.9680 22.1443 -2.5029 0.0913 0 14
15.6094 22.3985 -2.5029 0.0913 0 8
16.1288 23.9569 -2.6477 0.0913 0 7
15.7410 24.2134 -2.6477 0.0913 0 7
15.3491 24.4637 -2.6477 0.0913 0 7
14.9533 24.7076 -2.6477 0.0913 0 7
14.5536 24.9452 -2.6477 0.0913 0 7
14.1501 25.1762 -2.6477 0.0913 0 7
13.7430 25.4008 -2.6477 0.0913 0 7
13.3323 25.6187 -2.6477 0.0913 0 7
12.9181 25.8301 -2.6477 0.0913 0 7
12.5006 26.0347 -2.6477 0.0913 0 7
12.0799 26.2325 -2.6477 0.0913 0 7
11.6560 26.4236 -2.6477 0.0913 0 7
11.2291 26.6078 -2.6477 0.0913 0 7
10.7993 26.7852 -2.6477 0.0913 0 7
10.3667 26.9556 -2.6477 0.0913 0 7
9.9314 27.1190 -2.6477 0.0913 0 7
9.4935 27.2753 -2.6477 0.0913 0 7
9.0532 27.4246 -2.6477 0.0913 0 7
8.6105 27.5668 -2.6477 0.0913 0 7
8.1656 27.7019 -2.6477 0.0913 0 7
7.7186 27.8297 -2.6477 0.0913 0 7
7.2695 27.9504 -2.6477 0.0913 0 7
6.8186 28.0638 -2.6477 0.0913 0 7
6.3660 28.1699 -2.6477 0.0913 0 7
5.9116 28.2688 -2.6477 0.0913 0 7
5.4558 28.3603 -2.6477 0.0913 0 7
4.9985 28.4444 -2.6477 0.0913 0 7
4.5399 28.5212 -2.6477 0.0913 0 7
4.0802 28.5906 -2.6477 0.0913 0 7
3.6193 28.6526 -2.6477 0.0913 0 7
3.1576 28.7071 -2.6477 0.0913 0 7
2.6950 28.7542 -2.6477 0.0913 0 7
2.2318 28.7939 -2.6477 0.0913 0 7
1.7679 28.8261 -2.6477 0.0913 0 7
1.3036 28.8508 -2.6477 0.0913 0 7
0.8390 28.8681 -2.6477 0.0913 0 7
0.3742 28.8778 -2.6477 0.0913 0 7
-0.0908 28.8801 -2.6477 0.0913 0 7
-0.5557 28.8749 -2.6477 0.0913 0 7
-1.0205 28.8622 -2.6477 0.0913 0 7
-1.4850 28.8421 -2.6477 0.0913 0 7
-1.9491 28.8144 -2.6477 0.0913 0 7
-2.4128 28.7793 -2.6477 0.0913 0 7
-2.8758 28.7367 -2.6477 0.0913 0 7
-3.3380 28.6867 -2.6477 0.0913 0 7
-3.7994 28.6293 -2.6477 0.0913 0 7
-4.2598 28.5644 -2.6477 0.0913 0 7
-4.7191 28.4921 -2.6477 0.0913 0 7
-5.1772 28.4124 -2.6477 0.0913 0 7
-5.6339 28.3254 -2.6477 0.0913 0 7
-6.0892 28.2310 -2.6477 0.0913 0 7
-6.5429 28.1293 -2.6477 0.0913 0 7
-6.9949 28.0204 -2.6477 0.0913 0 7
-7.4451 27.9041 -2.6477 0.0913 0 7
-7.8934 27.7806 -2.6477 0.0913 0 7
-8.3396 27.6500 -2.6477 0.0913 0 7
-8.7836 27.5121 -2.6477 0.0913 0 7
-9.2254 27.3672 -2.6477 0.0913 0 7
-9.6648 27.2151 -2.6477 0.0913 0 7
-10.1017 27.0560 -2.6477 0.0913 0 7
-10.5359 26.8898 -2.6477 0.0913 0 7
-10.9675 26.7167 -2.6477 0.0913 0 7
-11.3961 26.5367 -2.6477 0.0913 0 7
-11.8219 26.3498 -2.6477 0.0913 0 7
-12.2445 26.1561 -2.6477 0.0913 0 7
-12.6640 25.9556 -2.6477 0.0913 0 7
-13.0803 25.7483 -2.6477 0.0913 0 7
-13.4931 25.5344 -2.6477 0.0913 0 7
-13.9024 25.3139 -2.6477 0.0913 0 7
-14.3081 25.0868 -2.6477 0.0913 0 7
-14.7102 24.8532 -2.6477 0.0913 0 7
-15.1084 24.6132 -2.6477 0.0913 0 7
-15.5026 24.3667 -2.6477 0.0913 0 7
-15.8929 24.1140 -2.6477 0.0913 0 7
-16.2791 23.8550 -2.6477 0.0913 0 7
-15.7499 22.2999 -2.5029 0.0913 0 8
-16.1069 22.0435 -2.5029 0.0913 0 14
-16.4597 21.7813 -2.5029 0.0913 0 14
-16.8082 21.5135 -2.5029 0.0913 0 14
-17.1524 21.2401 -2.5029 0.0913 0 14
-17.4921 20.9612 -2.5029 0.0913 0 14
-17.8273 20.6769 -2.5029 0.0913 0 14
-18.1578 20.3872 -2.5029 0.0913 0 14
-18.4837 20.0923 -2.5029 0.0913 0 14
-18.8048 19.7921 -2.5029 0.0913 0 14
-19.1209 19.4868 -2.5029 0.0913 0 14
-19.4322 19.1764 -2.5029 0.0913 0 14
-19.7854 18.9061 -2.5089 0.5524 0 8
15.5920 19.5582 -2.5029 0.0996 0 14
15.2751 19.8067 -2.5029 0.0996 0 14
14.9543 20.0500 -2.5029 0.0996 0 14
14.6295 20.2882 -2.5029 0.0996 0 14
14.3010 20.5210 -2.5029 0.0996 0 14
13.9688 20.7486 -2.5029 0.0996 0 14
13.6330 20.9708 -2.5029 0.0996 0 14
13.2936 21.1876 -2.5029 0.0996 0 14
12.9508 21.3988 -2.5029 0.0996 0 14
12.6046 21.6046 -2.5029 0.0996 0 14
12.2552 21.8047 -2.5029 0.0996 0 14
11.9025 21.9991 -2.5029 0.0996 0 14
11.5468 22.1879 -2.5029 0.0996 0 14
11.1881 22.3709 -2.5029 0.0996 0 8
11.4528 23.8524 -2.6477 0.0996 0 7
11.0673 24.0337 -2.6477 0.0996 0 7
10.6790 24.2088 -2.6477 0.0996 0 7
10.2879 24.3776 -2.6477 0.0996 0 7
9.8941 24.5400 -2.6477 0.0996 0 7
9.4977 24.6961 -2.6477 0.0996 0 7
9.0989 24.8458 -2.6477 0.0996 0 7
8.6977 24.9891 -2.6477 0.0996 0 7
8.2943 25.1259 -2.6477 0.0996 0 7
7.8888 25.2562 -2.6477 0.0996 0 7
7.4811 25.3799 -2.6477 0.0996 0 7
7.0716 25.4970 -2.6477 0.0996 0 7
6.6602 25.6076 -2.6477 0.0996 0 7
6.2471 25.7115 -2.6477 0.0996 0 7
5.8324 25.8087 -2.6477 0.0996 0 7
5.4161 25.8993 -2.6477 0.0996 0 7
4.9985 25.9831 -2.6477 0.0996 0 7
4.5795 26.0602 -2.6477 0.0996 0 7
4.1594 26.1305 -2.6477 0.0996 0 7
3.7382 26.1941 -2.6477 0.0996 0 7
3.3160 26.2509 -2.6477 0.0996 0 7
2.8929 26.3009 -2.6477 0.0996 0 7
2.4691 26.3440 -2.6477 0.0996 0 7
2.0447 26.3804 -2.6477 0.0996 0 7
1.6198 26.4099 -2.6477 0.0996 0 7
1.1944 26.4325 -2.6477 0.0996 0 7
0.7687 26.4483 -2.6477 0.0996 0 7
0.3428 26.4573 -2.6477 0.0996 0 6
-0.0832 26.4594 -2.6477 0.0996 0 6
-0.5091 26.4546 -2.6477 0.0996 0 6
-0.9350 26.4430 -2.6477 0.0996 0 6
-1.3605 26.4245 -2.6477 0.0996 0 6
-1.7858 26.3992 -2.6477 0.0996 0 7
-2.2105 26.3670 -2.6477 0.0996 0 7
-2.6347 26.3280 -2.6477 0.0996 0 7
-3.0582 26.2822 -2.6477 0.0996 0 7
-3.4809 26.2295 -2.6477 0.0996 0 7
-3.9028 26.1701 -2.6477 0.0996 0 7
-4.3236 26.1038 -2.6477 0.0996 0 7
-4.7432 26.0309 -2.6477 0.0996 0 7
-5.1617 25.9511 -2.6477 0.0996 0 7
-5.5788 25.8647 -2.6477 0.0996 0 7
-5.9945 25.7715 -2.6477 0.0996 0 7
-6.4086 25.6717 -2.6477 0.0996 0 7
-6.8210 25.5652 -2.6477 0.0996 0 7
-7.2318 25.4521 -2.6477 0.0996 0 7
-7.6406 25.3323 -2.6477 0.0996 0 7
-8.0474 25.2061 -2.6477 0.0996 0 7
-8.4521 25.0732 -2.6477 0.0996 0 7
-8.8547 24.9339 -2.6477 0.0996 0 7
-9.2549 24.7881 -2.6477 0.0996 0 7
-9.6528 24.6359 -2.6477 0.0996 0 7
-10.0482 24.4773 -2.6477 0.0996 0 7
-10.4409 24.3124 -2.6477 0.0996 0 7
-10.8309 24.1411 -2.6477 0.0996 0 7
-11.2182 23.9636 -2.6477 0.0996 0 7
-11.6025 23.7800 -2.6477 0.0996 0 7
-11.3286 22.3001 -2.5029 0.0996 0 8
-11.6861 22.1149 -2.5029 0.0996 0 14
-12.0406 21.9239 -2.5029 0.0996 0 14
-12.3920 21.7272 -2.5029 0.0996 0 14
-12.7402 21.5249 -2.5029 0.0996 0 14
-13.0851 21.3170 -2.5029 0.0996 0 14
-13.4265 21.1036 -2.5029 0.0996 0 14
-13.7645 20.8846 -2.5029 0.0996 0 14
-14.0990 20.6604 -2.5029 0.0996 0 14
-14.4298 20.4307 -2.5029 0.0996 0 14
-14.7568 20.1958 -2.5029 0.0996 0 14
-15.0800 19.9556 -2.5029 0.0996 0 14
-15.3993 19.7103 -2.5029 0.0996 0 14
-15.7146 19.4598 -2.5029 0.0996 0 14
-16.0259 19.2043 -2.5029 0.0996 0 14
-16.3330 18.9438 -2.5029 0.0996 0 8
-16.8406 18.9083 -2.5337 0.7506 0 8
-17.3870 18.9001 -2.5698 0.7400 0 8
-17.9491 18.8915 -2.6076 0.7293 0 8
-18.5281 18.8826 -2.6472 0.7184 0 8
-18.8332 18.5854 -2.6477 0.0996 0 7
-19.1300 18.2798 -2.6477 0.0996 0 7
15.1301 18.9788 -2.6327 0.7823 0 8
14.6402 18.9835 -2.6003 0.7921 0 8
14.1621 18.9879 -2.5693 0.8016 0 8
13.6949 18.9920 -2.5397 0.8109 0 8
13.2383 18.9960 -2.5114 0.8201 0 8
12.8950 19.1537 -2.5045 0.6583 0 8
12.5770 19.3464 -2.5029 0.1078 0 14
12.2639 19.5464 -2.5029 0.1078 0 14
11.9476 19.7413 -2.5029 0.1078 0 14
11.6283 19.9311 -2.5029 0.1078 0 14
11.3059 20.1157 -2.5029 0.1078 0 14
10.9806 20.2951 -2.5029 0.1078 0 14
10.6524 20.4693 -2.5029 0.1078 0 14
10.3215 20.6381 -2.5029 0.1078 0 14
9.9879 20.8016 -2.5029 0.1078 0 14
9.6518 20.9597 -2.5029 0.1078 0 14
9.3131 21.1124 -2.5029 0.1078 0 14
8.9720 21.2596 -2.5029 0.1078 0 14
8.6286 21.4012 -2.5029 0.1078 0 14
8.2829 21.5374 -2.5029 0.1078 0 14
7.9351 21.6679 -2.5029 0.1078 0 14
7.5853 21.7929 -2.5029 0.1078 0 14
7.2334 21.9122 -2.5029 0.1078 0 14
6.8797 22.0258 -2.5029 0.1078 0 14
6.5243 22.1337 -2.5029 0.1078 0 14
6.1671 22.2358 -2.5029 0.1078 0 14
5.8083 22.3322 -2.5029 0.1078 0 8
5.7632 23.7199 -2.6477 0.1078 0 7
5.3806 23.8096 -2.6477 0.1078 0 7
4.9966 23.8931 -2.6477 0.1078 0 7
4.6113 23.9705 -2.6477 0.1078 0 7
4.2248 24.0416 -2.6477 0.1078 0 7
3.8372 24.1065 -2.6477 0.1078 0 7
3.4486 24.1652 -2.6477 0.1078 0 7
3.0591 24.2175 -2.6477 0.1078 0 7
2.6689 24.2637 -2.6477 0.1078 0 7
2.2779 24.3035 -2.6477 0.1078 0 7
1.8863 24.3370 -2.6477 0.1078 0 7
1.4943 24.3642 -2.6477 0.1078 0 7
1.1019 24.3851 -2.6477 0.1078 0 7
0.7091 24.3997 -2.6477 0.1078 0 7
0.3162 24.4080 -2.6477 0.1078 0 7
-0.0767 24.4099 -2.6477 0.1078 0 7
-0.4697 24.4055 -2.6477 0.1078 0 7
-0.8625 24.3948 -2.6477 0.1078 0 7
-1.2552 24.3777 -2.6477 0.1078 0 7
-1.6474 24.3543 -2.6477 0.1078 0 7
-2.0393 24.3247 -2.6477 0.1078 0 7
-2.4306 24.2887 -2.6477 0.1078 0 7
-2.8213 24.2464 -2.6477 0.1078 0 7
-3.2113 24.1978 -2.6477 0.1078 0 7
-3.6005 24.1430 -2.6477 0.1078 0 7
-3.9887 24.0819 -2.6477 0.1078 0 7
-4.3758 24.0146 -2.6477 0.1078 0 7
-4.7619 23.9410 -2.6477 0.1078 0 7
-5.1467 23.8613 -2.6477 0.1078 0 7
-5.5302 23.7753 -2.6477 0.1078 0 7
-5.9122 23.6832 -2.6477 0.1078 0 7
-5.9486 22.2953 -2.5029 0.1078 0 8
-6.3068 22.1966 -2.5029 0.1078 0 14
-6.6633 22.0922 -2.5029 0.1078 0 14
-7.0181 21.9821 -2.5029 0.1078 0 14
-7.3711 21.8662 -2.5029 0.1078 0 14
-7.7221 21.7447 -2.5029 0.1078 0 14
-8.0712 21.6176 -2.5029 0.1078 0 14
-8.4182 21.4849 -2.5029 0.1078 0 14
-8.7630 21.3466 -2.5029 0.1078 0 14
-9.1055 21.2027 -2.5029 0.1078 0 14
-9.4456 21.0534 -2.5029 0.1078 0 14
-9.7833 20.8986 -2.5029 0.1078 0 14
-10.1185 20.7384 -2.5029 0.1078 0 14
-10.4511 20.5728 -2.5029 0.1078 0 14
-10.7809 20.4019 -2.5029 0.1078 0 14
-11.1080 20.2257 -2.5029 0.1078 0 14
-11.4321 20.0442 -2.5029 0.1078 0 14
-11.7534 19.8576 -2.5029 0.1078 0 14
-12.0715 19.6658 -2.5029 0.1078 0 14
-12.3865 19.4689 -2.5029 0.1078 0 14
-12.6984 19.2670 -2.5029 0.1078 0 14
-13.0069 19.0601 -2.5029 0.1078 0 8
-13.3641 18.9219 -2.5127 0.8197 0 8
-13.8212 18.9153 -2.5410 0.8105 0 8
-14.2888 18.9086 -2.5707 0.8012 0 8
-14.7674 18.9015 -2.6017 0.7916 0 8
-15.2578 18.8941 -2.6342 0.7819 0 8
-15.6397 18.7416 -2.6477 0.1078 0 7
-15.9395 18.4873 -2.6477 0.1078 0 7
-16.2350 18.2283 -2.6477 0.1078 0 7
-16.5264 17.9646 -2.6477 0.1078 0 7
-16.8134 17.6962 -2.6477 0.1078 0 7
-17.0961 17.4233 -2.6477 0.1078 0 7
-17.3744 17.1458 -2.6477 0.1078 0 7
-17.6482 16.8638 -2.6477 0.1078 0 7
14.1206 17.7125 -2.6477 0.1161 0 7
13.8336 17.9376 -2.6477 0.1161 0 7
13.5431 18.1579 -2.6477 0.1161 0 7
13.2490 18.3736 -2.6477 0.1161 0 7
12.9515 18.5845 -2.6477 0.1161 0 7
12.6506 18.7906 -2.6477 0.1161 0 7
12.3315 18.9689 -2.6445 0.8385 0 8
11.9039 18.9726 -2.6179 0.8470 0 8
11.4845 18.9761 -2.5926 0.8553 0 8
11.0731 18.9795 -2.5683 0.8633 0 8
10.6691 18.9826 -2.5452 0.8712 0 8
10.2721 18.9856 -2.5231 0.8788 0 8
9.8854 18.9953 -2.5029 0.1161 0 8
9.5783 19.1520 -2.5029 0.1161 0 14
9.2687 19.3037 -2.5029 0.1161 0 14
8.9567 19.4504 -2.5029 0.1161 0 14
8.6425 19.5921 -2.5029 0.1161 0 14
8.3259 19.7287 -2.5029 0.1161 0 14
8.0072 19.8602 -2.5029 0.1161 0 14
7.6865 19.9865 -2.5029 0.1161 0 14
7.3637 20.1076 -2.5029 0.1161 0 14
7.0391 20.2236 -2.5029 0.1161 0 14
6.7126 20.3343 -2.5029 0.1161 0 14
6.3843 20.4397 -2.5029 0.1161 0 14
6.0545 20.5398 -2.5029 0.1161 0 14
5.7230 20.6347 -2.5029 0.1161 0 14
5.3901 20.7241 -2.5029 0.1161 0 14
5.0557 20.8082 -2.5029 0.1161 0 14
4.7201 20.8869 -2.5029 0.1161 0 14
4.3832 20.9602 -2.5029 0.1161 0 14
4.0452 21.0280 -2.5029 0.1161 0 14
3.7062 21.0904 -2.5029 0.1161 0 14
3.3662 21.1474 -2.5029 0.1161 0 14
3.0253 21.1988 -2.5029 0.1161 0 14
2.6836 21.2448 -2.5029 0.1161 0 14
2.3412 21.2852 -2.5029 0.1161 0 14
1.9983 21.3202 -2.5029 0.1161 0 14
1.6548 21.3496 -2.5029 0.1161 0 14
1.3109 21.3734 -2.5029 0.1161 0 14
0.9666 21.3918 -2.5029 0.1161 0 14
0.6221 21.4046 -2.5029 0.1161 0 14
0.2774 21.4118 -2.5029 0.1161 0 14
-0.0673 21.4135 -2.5029 0.1161 0 14
-0.4120 21.4096 -2.5029 0.1161 0 14
-0.7567 21.4002 -2.5029 0.1161 0 14
-1.1011 21.3853 -2.5029 0.1161 0 14
-1.4452 21.3648 -2.5029 0.1161 0 14
-1.7890 21.3387 -2.5029 0.1161 0 14
-2.1323 21.3072 -2.5029 0.1161 0 14
-2.4750 21.2701 -2.5029 0.1161 0 14
-2.8171 21.2275 -2.5029 0.1161 0 14
-3.1585 21.1794 -2.5029 0.1161 0 14
-3.4991 21.1258 -2.5029 0.1161 0 14
-3.8387 21.0667 -2.5029 0.1161 0 14
-4.1774 21.0022 -2.5029 0.1161 0 14
-4.5149 20.9322 -2.5029 0.1161 0 14
-4.8513 20.8568 -2.5029 0.1161 0 14
-5.1865 20.7760 -2.5029 0.1161 0 14
-5.5203 20.6898 -2.5029 0.1161 0 14
-5.8526 20.5983 -2.5029 0.1161 0 14
-6.1835 20.5014 -2.5029 0.1161 0 14
-6.5127 20.3992 -2.5029 0.1161 0 14
-6.8403 20.2917 -2.5029 0.1161 0 14
-7.1661 20.1789 -2.5029 0.1161 0 14
-7.4900 20.0610 -2.5029 0.1161 0 14
-7.8120 19.9378 -2.5029 0.1161 0 14
-8.1319 19.8094 -2.5029 0.1161 0 14
-8.4498 19.6760 -2.5029 0.1161 0 14
-8.7655 19.5374 -2.5029 0.1161 0 14
-9.0789 19.3937 -2.5029 0.1161 0 14
-9.3899 19.2451 -2.5029 0.1161 0 14
-9.6985 19.0914 -2.5029 0.1161 0 14
-10.0076 18.9385 -2.5036 0.7040 0 8
-10.3953 18.9280 -2.5241 0.8785 0 8
-10.7925 18.9228 -2.5462 0.8708 0 8
-11.1969 18.9174 -2.5694 0.8630 0 8
-11.6086 18.9117 -2.5937 0.8549 0 8
-12.0283 18.9059 -2.6191 0.8466 0 8
-12.4563 18.8998 -2.6457 0.8381 0 8
-12.7685 18.7107 -2.6477 0.1161 0 7
-13.0680 18.5027 -2.6477 0.1161 0 7
-13.3642 18.2900 -2.6477 0.1161 0 7
-13.6569 18.0724 -2.6477 0.1161 0 7
-13.9461 17.8502 -2.6477 0.1161 0 7
-14.2317 17.6234 -2.6477 0.1161 0 7
-14.5136 17.3920 -2.6477 0.1161 0 7
-14.7917 17.1561 -2.6477 0.1161 0 7
-15.0660 16.9157 -2.6477 0.1161 0 7
-15.3363 16.6710 -2.6477 0.1161 0 7
-15.6027 16.4219 -2.6477 0.1161 0 7
-15.8651 16.1686 -2.6477 0.1161 0 7
-16.1233 15.9111 -2.6477 0.1161 0 7
-16.3774 15.6495 -2.6477 0.1161 0 7
13.1704 16.5206 -2.6477 0.1243 0 7
12.9027 16.7305 -2.6477 0.1243 0 7
12.6317 16.9360 -2.6477 0.1243 0 7
12.3574 17.1372 -2.6477 0.1243 0 7
12.0799 17.3339 -2.6477 0.1243 0 7
11.7993 17.5261 -2.6477 0.1243 0 7
11.5156 17.7138 -2.6477 0.1243 0 7
11.2290 17.8969 -2.6477 0.1243 0 7
10.9394 18.0754 -2.6477 0.1243 0 7
10.6470 18.2491 -2.6477 0.1243 0 7
10.3518 18.4182 -2.6477 0.1243 0 6
10.0539 18.5824 -2.6477 0.1243 0 7
9.7535 18.7419 -2.6477 0.1243 0 7
9.4505 18.8965 -2.6477 0.1243 0 7
9.1044 18.9615 -2.6359 0.9010 0 8
8.7328 18.9641 -2.6164 0.9077 0 8
8.3665 18.9665 -2.5978 0.9142 0 8
8.0052 18.9688 -2.5801 0.9205 0 8
7.6487 18.9709 -2.5633 0.9265 0 8
7.2966 18.9728 -2.5474 0.9323 0 8
6.9488 18.9747 -2.5323 0.9379 0 8
6.6049 18.9764 -2.5180 0.9432 0 8
6.2663 18.9823 -2.5050 0.7536 0 8
5.9547 19.0643 -2.5029 0.1243 0 8
5.6470 19.1577 -2.5029 0.1243 0 14
5.3379 19.2461 -2.5029 0.1243 0 14
5.0274 19.3295 -2.5029 0.1243 0 14
4.7155 19.4079 -2.5029 0.1243 0 14
4.4025 19.4813 -2.5029 0.1243 0 14
4.0883 19.5497 -2.5029 0.1243 0 14
3.7730 19.6130 -2.5029 0.1243 0 14
3.4568 19.6712 -2.5029 0.1243 0 14
3.1396 19.7243 -2.5029 0.1243 0 14
2.8217 19.7723 -2.5029 0.1243 0 14
2.5030 19.8151 -2.5029 0.1243 0 14
2.1837 19.8529 -2.5029 0.1243 0 14
1.8638 19.8854 -2.5029 0.1243 0 14
1.5434 19.9129 -2.5029 0.1243 0 14
1.2227 19.9351 -2.5029 0.1243 0 14
0.9016 19.9522 -2.5029 0.1243 0 14
0.5802 19.9642 -2.5029 0.1243 0 14
0.2588 19.9709 -2.5029 0.1243 0 14
-0.0628 19.9725 -2.5029 0.1243 0 14
-0.3843 19.9689 -2.5029 0.1243 0 14
-0.7057 19.9601 -2.5029 0.1243 0 14
-1.0270 19.9462 -2.5029 0.1243 0 14
-1.3480 19.9271 -2.5029 0.1243 0 14
-1.6686 19.9028 -2.5029 0.1243 0 14
-1.9888 19.8733 -2.5029 0.1243 0 14
-2.3085 19.8387 -2.5029 0.1243 0 14
-2.6275 19.7990 -2.5029 0.1243 0 14
-2.9460 19.7541 -2.5029 0.1243 0 14
-3.2636 19.7042 -2.5029 0.1243 0 14
-3.5804 19.6491 -2.5029 0.1243 0 14
-3.8962 19.5889 -2.5029 0.1243 0 14
-4.2111 19.5236 -2.5029 0.1243 0 14
-4.5249 19.4533 -2.5029 0.1243 0 14
-4.8375 19.3779 -2.5029 0.1243 0 14
-5.1488 19.2975 -2.5029 0.1243 0 14
-5.4588 19.2121 -2.5029 0.1243 0 14
-5.7674 19.1218 -2.5029 0.1243 0 14
-6.0745 19.0264 -2.5029 0.1243 0 8
-6.3868 18.9466 -2.5056 0.7534 0 8
-6.7258 18.9392 -2.5186 0.9429 0 8
-7.0698 18.9356 -2.5329 0.9376 0 8
-7.4178 18.9318 -2.5481 0.9320 0 8
-7.7701 18.9279 -2.5641 0.9262 0 8
-8.1268 18.9238 -2.5809 0.9202 0 8
-8.4882 18.9195 -2.5986 0.9139 0 8
-8.8548 18.9150 -2.6172 0.9074 0 8
-9.2266 18.9104 -2.6368 0.9007 0 8
-9.5691 18.8367 -2.6477 0.1243 0 7
-9.8711 18.6802 -2.6477 0.1243 0 7
-10.1706 18.5189 -2.6477 0.1243 0 7
-10.4672 18.3527 -2.6477 0.1243 0 6
-10.7615 18.1818 -2.6477 0.1243 0 7
-11.0528 18.0062 -2.6477 0.1243 0 7
-11.3413 17.8260 -2.6477 0.1243 0 7
-11.6268 17.6411 -2.6477 0.1243 0 7
-11.9093 17.4516 -2.6477 0.1243 0 7
-12.1887 17.2576 -2.6477 0.1243 0 7
-12.4649 17.0592 -2.6477 0.1243 0 7
-12.7379 16.8563 -2.6477 0.1243 0 7
-13.0076 16.6490 -2.6477 0.1243 0 7
-13.2740 16.4375 -2.6477 0.1243 0 7
-13.5369 16.2216 -2.6477 0.1243 0 7
-13.7963 16.0016 -2.6477 0.1243 0 7
-14.0521 15.7774 -2.6477 0.1243 0 7
-14.3043 15.5492 -2.6477 0.1243 0 7
-14.5528 15.3169 -2.6477 0.1243 0 7
-14.7974 15.0806 -2.6477 0.1243 0 7
-15.0383 14.8404 -2.6477 0.1243 0 6
-15.2753 14.5964 -2.6477 0.1243 0 7
12.3384 15.4769 -2.6477 0.1326 0 7
12.0876 15.6735 -2.6477 0.1326 0 7
11.8337 15.8661 -2.6477 0.1326 0 7
11.5767 16.0546 -2.6477 0.1326 0 7
11.3168 16.2389 -2.6477 0.1326 0 7
11.0539 16.4189 -2.6477 0.1326 0 7
10.7881 16.5948 -2.6477 0.1326 0 7
10.5196 16.7663 -2.6477 0.1326 0 7
10.2483 16.9335 -2.6477 0.1326 0 7
9.9744 17.0963 -2.6477 0.1326 0 7
9.6978 17.2546 -2.6477 0.1326 0 7
9.4188 17.4085 -2.6477 0.1326 0 7
9.1373 17.5579 -2.6477 0.1326 0 7
8.8535 17.7027 -2.6477 0.1326 0 7
8.5673 17.8430 -2.6477 0.1326 0 7
8.2790 17.9785 -2.6477 0.1326 0 7
7.9885 18.1095 -2.6477 0.1326 0 7
7.6959 18.2358 -2.6477 0.1326 0 7
7.4013 18.3573 -2.6477 0.1326 0 7
7.1048 18.4741 -2.6477 0.1326 0 6
6.8065 18.5861 -2.6477 0.1326 0 7
6.5064 18.6932 -2.6477 0.1326 0 7
6.2046 18.7955 -2.6477 0.1326 0 7
5.9012 18.8930 -2.6477 0.1326 0 7
5.5860 18.9504 -2.6428 0.9582 0 8
5.2563 18.9517 -2.6308 0.9626 0 8
4.9294 18.9529 -2.6196 0.9667 0 8
4.6052 18.9539 -2.6092 0.9705 0 8
4.2835 18.9548 -2.5995 0.9742 0 8
3.9640 18.9556 -2.5905 0.9775 0 8
3.6467 18.9563 -2.5822 0.9807 0 8
3.3312 18.9568 -2.5746 0.9836 0 8
3.0175 18.9572 -2.5678 0.9862 0 8
2.7054 18.9575 -2.5616 0.9886 0 8
2.3947 18.9576 -2.5561 0.9907 0 8
2.0852 18.9577 -2.5512 0.9926 0 8
1.7768 18.9576 -2.5470 0.9942 0 8
1.4694 18.9574 -2.5435 0.9956 0 8
1.1627 18.9571 -2.5406 0.9967 0 8
0.8566 18.9566 -2.5384 0.9976 0 8
0.5509 18.9561 -2.5368 0.9982 0 8
0.2456 18.9554 -2.5358 0.9986 0 8
-0.0596 18.9566 -2.5358 0.9970 0 8
-0.3648 18.9555 -2.5361 0.9986 0 8
-0.6702 18.9538 -2.5370 0.9983 0 8
-0.9758 18.9519 -2.5385 0.9977 0 8
-1.2819 18.9502 -2.5407 0.9967 0 8
-1.5886 18.9489 -2.5436 0.9956 0 8
-1.8961 18.9473 -2.5472 0.9942 0 8
-2.2045 18.9457 -2.5514 0.9925 0 8
-2.5141 18.9439 -2.5563 0.9906 0 8
-2.8248 18.9420 -2.5618 0.9885 0 8
-3.1370 18.9400 -2.5681 0.9861 0 8
-3.4508 18.9379 -2.5750 0.9834 0 8
-3.7663 18.9356 -2.5826 0.9805 0 8
-4.0837 18.9332 -2.5909 0.9774 0 8
-4.4033 18.9306 -2.5999 0.9740 0 8
-4.7251 18.9279 -2.6096 0.9704 0 8
-5.0494 18.9251 -2.6201 0.9665 0 8
-5.3764 18.9221 -2.6313 0.9624 0 8
-5.7062 18.9189 -2.6433 0.9580 0 8
-6.0199 18.8555 -2.6477 0.1326 0 7
-6.3227 18.7562 -2.6477 0.1326 0 7
-6.6238 18.6520 -2.6477 0.1326 0 7
-6.9232 18.5429 -2.6477 0.1326 0 7
-7.2207 18.4291 -2.6477 0.1326 0 6
-7.5166 18.3104 -2.6477 0.1326 0 7
-7.8104 18.1870 -2.6477 0.1326 0 7
-8.1022 18.0589 -2.6477 0.1326 0 7
-8.3918 17.9261 -2.6477 0.1326 0 7
-8.6793 17.7887 -2.6477 0.1326 0 7
-8.9646 17.6467 -2.6477 0.1326 0 7
-9.2475 17.5001 -2.6477 0.1326 0 7
-9.5281 17.3490 -2.6477 0.1326 0 7
-9.8061 17.1933 -2.6477 0.1326 0 7
-10.0817 17.0332 -2.6477 0.1326 0 7
-10.3546 16.8687 -2.6477 0.1326 0 7
-10.6248 16.6998 -2.6477 0.1326 0 7
-10.8923 16.5266 -2.6477 0.1326 0 7
-11.1569 16.3491 -2.6477 0.1326 0 7
-11.4186 16.1674 -2.6477 0.1326 0 7
-11.6775 15.9815 -2.6477 0.1326 0 7
-11.9332 15.7914 -2.6477 0.1326 0 7
-12.1859 15.5973 -2.6477 0.1326 0 7
-12.4354 15.3990 -2.6477 0.1326 0 7
-12.6817 15.1969 -2.6477 0.1326 0 7
-12.9247 14.9907 -2.6477 0.1326 0 7
-13.1644 14.7807 -2.6477 0.1326 0 7
-13.4006 14.5668 -2.6477 0.1326 0 7
-13.6334 14.3492 -2.6477 0.1326 0 7
-13.8626 14.1279 -2.6477 0.1326 0 7
-14.0883 13.9029 -2.6477 0.1326 0 7
-14.3103 13.6743 -2.6477 0.1326 0 7
11.6037 14.5553 -2.6477 0.1408 0 7
11.3678 14.7403 -2.6477 0.1408 0 7
11.1291 14.9214 -2.6477 0.1408 0 7
10.8874 15.0986 -2.6477 0.1408 0 7
10.6429 15.2719 -2.6477 0.1408 0 7
10.3957 15.4413 -2.6477 0.1408 0 7
10.1458 15.6066 -2.6477 0.1408 0 7
9.8932 15.7679 -2.6477 0.1408 0 7
9.6381 15.9251 -2.6477 0.1408 0 7
9.3804 16.0783 -2.6477 0.1408 0 7
9.1204 16.2272 -2.6477 0.1408 0 7
8.8580 16.3719 -2.6477 0.1408 0 7
8.5932 16.5124 -2.6477 0.1408 0 7
8.3263 16.6486 -2.6477 0.1408 0 7
8.0572 16.7805 -2.6477 0.1408 0 7
7.7860 16.9080 -2.6477 0.1408 0 7
7.5128 17.0312 -2.6477 0.1408 0 7
7.2376 17.1499 -2.6477 0.1408 0 7
6.9606 17.2642 -2.6477 0.1408 0 7
6.6818 17.3740 -2.6477 0.1408 0 7
6.4012 17.4793 -2.6477 0.1408 0 7
6.1190 17.5801 -2.6477 0.1408 0 7
5.8352 17.6764 -2.6477 0.1408 0 7
5.5498 17.7680 -2.6477 0.1408 0 7
5.2631 17.8550 -2.6477 0.1408 0 7
4.9749 17.9375 -2.6477 0.1408 0 7
4.6855 18.0152 -2.6477 0.1408 0 7
4.3949 18.0883 -2.6477 0.1408 0 7
4.1031 18.1567 -2.6477 0.1408 0 7
3.8103 18.2204 -2.6477 0.1408 0 7
3.5165 18.2794 -2.6477 0.1408 0 7
3.2217 18.3337 -2.6477 0.1408 0 7
2.9263 18.3832 -2.6477 0.1408 0 6
2.6298 18.4279 -2.6477 0.1408 0 6
2.3328 18.4678 -2.6477 0.1408 0 6
2.0352 18.5030 -2.6477 0.1408 0 7
1.7371 18.5334 -2.6477 0.1408 0 7
1.4385 18.5589 -2.6477 0.1408 0 7
1.1395 18.5797 -2.6477 0.1408 0 7
0.8403 18.5956 -2.6477 0.1408 0 7
0.5407 18.6067 -2.6477 0.1408 0 7
0.2411 18.6130 -2.6477 0.1408 0 7
-0.0585 18.6145 -2.6477 0.1408 0 7
-0.3582 18.6111 -2.6477 0.1408 0 7
-0.6578 18.6030 -2.6477 0.1408 0 7
-0.9571 18.5900 -2.6477 0.1408 0 7
-1.2563 18.5721 -2.6477 0.1408 0 7
-1.5551 18.5495 -2.6477 0.1408 0 7
-1.8535 18.5221 -2.6477 0.1408 0 7
-2.1515 18.4898 -2.6477 0.1408 0 6
-2.4489 18.4528 -2.6477 0.1408 0 6
-2.7456 18.4110 -2.6477 0.1408 0 6
-3.0417 18.3644 -2.6477 0.1408 0 7
-3.3369 18.3130 -2.6477 0.1408 0 7
-3.6313 18.2569 -2.6477 0.1408 0 7
-3.9248 18.1961 -2.6477 0.1408 0 7
-4.2172 18.1306 -2.6477 0.1408 0 7
-4.5085 18.0603 -2.6477 0.1408 0 7
-4.7987 17.9854 -2.6477 0.1408 0 7
-5.0876 17.9058 -2.6477 0.1408 0 7
-5.3752 17.8216 -2.6477 0.1408 0 7
-5.6614 17.7328 -2.6477 0.1408 0 7
-5.9462 17.6393 -2.6477 0.1408 0 7
-6.2294 17.5413 -2.6477 0.1408 0 7
-6.5110 17.4387 -2.6477 0.1408 0 7
-6.7909 17.3317 -2.6477 0.1408 0 7
-7.0690 17.2201 -2.6477 0.1408 0 7
-7.3453 17.1041 -2.6477 0.1408 0 7
-7.6197 16.9836 -2.6477 0.1408 0 7
-7.8921 16.8587 -2.6477 0.1408 0 7
-8.1625 16.7295 -2.6477 0.1408 0 7
-8.4308 16.5959 -2.6477 0.1408 0 7
-8.6969 16.4580 -2.6477 0.1408 0 7
-8.9607 16.3159 -2.6477 0.1408 0 7
-9.2222 16.1695 -2.6477 0.1408 0 7
-9.4813 16.0190 -2.6477 0.1408 0 7
-9.7380 15.8642 -2.6477 0.1408 0 7
-9.9921 15.7054 -2.6477 0.1408 0 7
-10.2437 15.5425 -2.6477 0.1408 0 7
-10.4926 15.3756 -2.6477 0.1408 0 7
-10.7387 15.2047 -2.6477 0.1408 0 7
-10.9821 15.0298 -2.6477 0.1408 0 7
-11.2226 14.8511 -2.6477 0.1408 0 7
-11.4603 14.6685 -2.6477 0.1408 0 7
-11.6949 14.4821 -2.6477 0.1408 0 7
-11.9266 14.2919 -2.6477 0.1408 0 7
-12.1551 14.0981 -2.6477 0.1408 0 7
-12.3805 13.9006 -2.6477 0.1408 0 7
-12.6027 13.6995 -2.6477 0.1408 0 7
-12.8216 13.4948 -2.6477 0.1408 0 7
-13.0372 13.2866 -2.6477 0.1408 0 7
-13.2494 13.0750 -2.6477 0.1408 0 7
-13.4582 12.8600 -2.6477 0.1408 0 7
10.9501 13.7355 -2.6477 0.1490 0 7
10.7276 13.9100 -2.6477 0.1490 0 7
10.5022 14.0809 -2.6477 0.1490 0 7
10.2742 14.2482 -2.6477 0.1490 0 7
10.0435 14.4117 -2.6477 0.1490 0 7
9.8102 14.5716 -2.6477 0.1490 0 7
9.5743 14.7276 -2.6477 0.1490 0 7
9.3360 14.8798 -2.6477 0.1490 0 7
9.0952 15.0282 -2.6477 0.1490 0 7
8.8521 15.1727 -2.6477 0.1490 0 7
8.6067 15.3132 -2.6477 0.1490 0 7
8.3590 15.4498 -2.6477 0.1490 0 7
8.1092 15.5824 -2.6477 0.1490 0 7
7.8573 15.7109 -2.6477 0.1490 0 7
7.6034 15.8353 -2.6477 0.1490 0 7
7.3475 15.9557 -2.6477 0.1490 0 7
7.0896 16.0719 -2.6477 0.1490 0 7
6.8300 16.1840 -2.6477 0.1490 0 7
6.5686 16.2918 -2.6477 0.1490 0 7
6.3054 16.3955 -2.6477 0.1490 0 7
6.0407 16.4948 -2.6477 0.1490 0 7
5.7743 16.5900 -2.6477 0.1490 0 7
5.5065 16.6808 -2.6477 0.1490 0 7
5.2373 16.7672 -2.6477 0.1490 0 7
4.9666 16.8494 -2.6477 0.1490 0 7
4.6947 16.9272 -2.6477 0.1490 0 7
4.4216 17.0005 -2.6477 0.1490 0 7
4.1474 17.0695 -2.6477 0.1490 0 7
3.8720 17.1341 -2.6477 0.1490 0 7
3.5957 17.1942 -2.6477 0.1490 0 7
3.3184 17.2499 -2.6477 0.1490 0 7
3.0403 17.3010 -2.6477 0.1490 0 7
2.7614 17.3477 -2.6477 0.1490 0 7
2.4817 17.3900 -2.6477 0.1490 0 7
2.2014 17.4277 -2.6477 0.1490 0 7
1.9206 17.4608 -2.6477 0.1490 0 7
1.6392 17.4895 -2.6477 0.1490 0 7
1.3575 17.5136 -2.6477 0.1490 0 7
1.0753 17.5332 -2.6477 0.1490 0 7
0.7929 17.5482 -2.6477 0.1490 0 7
0.5103 17.5587 -2.6477 0.1490 0 7
0.2276 17.5647 -2.6477 0.1490 0 7
-0.0552 17.5661 -2.6477 0.1490 0 7
-0.3380 17.5629 -2.6477 0.1490 0 7
-0.6207 17.5552 -2.6477 0.1490 0 7
-0.9032 17.5429 -2.6477 0.1490 0 7
-1.1855 17.5261 -2.6477 0.1490 0 7
-1.4675 17.5047 -2.6477 0.1490 0 7
-1.7492 17.4788 -2.6477 0.1490 0 7
-2.0303 17.4484 -2.6477 0.1490 0 7
-2.3110 17.4135 -2.6477 0.1490 0 7
-2.5910 17.3740 -2.6477 0.1490 0 7
-2.8704 17.3300 -2.6477 0.1490 0 7
-3.1490 17.2816 -2.6477 0.1490 0 7
-3.4268 17.2286 -2.6477 0.1490 0 7
-3.7037 17.1713 -2.6477 0.1490 0 7
-3.9797 17.1094 -2.6477 0.1490 0 7
-4.2546 17.0431 -2.6477 0.1490 0 7
-4.5284 16.9724 -2.6477 0.1490 0 7
