ply
format ascii 1.0
element vertex 1316
property float32 x
property float32 y
property float32 z
property float32 CosAngle
property uint32 ObjIdx
property uint32 ObjTag
end_header
-76.3551 64.6637 -2.4953 0.0249 0 14
-77.3855 63.4268 -2.4953 0.0249 0 14
-78.3957 62.1737 -2.4953 0.0249 0 14
-79.3860 60.9044 -2.4953 0.0249 0 14
-80.3556 59.6193 -2.4953 0.0249 0 14
-81.3041 58.3189 -2.4953 0.0249 0 14
-82.2321 57.0033 -2.4953 0.0249 0 14
-83.1386 55.6729 -2.4953 0.0249 0 14
-84.0267 54.3280 -2.4953 0.0249 0 14
-84.8866 52.9694 -2.4953 0.0249 0 14
-85.7278 51.5968 -2.4953 0.0249 0 14
-86.5468 50.2109 -2.4953 0.0249 0 14
-87.3435 48.8120 -2.4953 0.0249 0 14
-88.1174 47.4006 -2.4953 0.0249 0 14
-88.8686 45.9767 -2.4953 0.0249 0 14
-89.5967 44.5411 -2.4953 0.0249 0 14
-90.3017 43.0939 -2.4953 0.0249 0 14
-90.9834 41.6355 -2.4953 0.0249 0 14
-91.6414 40.1663 -2.4953 0.0249 0 14
-92.2758 38.6868 -2.4953 0.0249 0 8
-92.8862 37.1973 -2.4953 0.0249 0 8
-93.4726 35.6981 -2.4953 0.0249 0 8
-94.0348 34.1898 -2.4953 0.0249 0 8
-100.3488 34.6679 -2.6477 0.0249 0 7
-100.8936 33.0490 -2.6477 0.0249 0 7
-101.4122 31.4215 -2.6477 0.0249 0 7
-101.9046 29.7860 -2.6477 0.0249 0 7
-102.3706 28.1426 -2.6477 0.0249 0 7
-102.8101 26.4920 -2.6477 0.0249 0 7
-103.2230 24.8346 -2.6477 0.0249 0 7
-103.6092 23.1707 -2.6477 0.0249 0 7
-103.9686 21.5008 -2.6477 0.0249 0 7
-104.3010 19.8254 -2.6477 0.0249 0 7
-104.6065 18.1447 -2.6477 0.0249 0 7
-104.8848 16.4595 -2.6477 0.0249 0 7
-105.1361 14.7699 -2.6477 0.0249 0 7
-105.3601 13.0766 -2.6477 0.0249 0 7
-105.5568 11.3798 -2.6477 0.0249 0 7
-105.7263 9.6801 -2.6477 0.0249 0 7
-105.8683 7.9780 -2.6477 0.0249 0 7
-105.9830 6.2736 -2.6477 0.0249 0 7
-106.0702 4.5678 -2.6477 0.0249 0 6
-106.1299 2.8608 -2.6477 0.0249 0 6
-106.1622 1.1529 -2.6477 0.0249 0 7
-106.1670 -0.5552 -2.6477 0.0249 0 7
-106.1444 -2.2632 -2.6477 0.0249 0 7
-106.0942 -3.9706 -2.6477 0.0249 0 7
-106.0166 -5.6769 -2.6477 0.0249 0 7
-105.9116 -7.3818 -2.6477 0.0249 0 7
-105.7791 -9.0848 -2.6477 0.0249 0 7
-105.6192 -10.7854 -2.6477 0.0249 0 7
-105.4320 -12.4832 -2.6477 0.0249 0 7
-105.2176 -14.1777 -2.6477 0.0249 0 7
-104.9759 -15.8687 -2.6477 0.0249 0 7
-98.6853 -16.5459 -2.4954 0.7162 0 8
-98.4011 -18.1304 -2.4953 0.0249 0 8
-98.0967 -19.7112 -2.4953 0.0249 0 8
-97.7668 -21.2869 -2.4953 0.0249 0 8
-97.4117 -22.8570 -2.4953 0.0249 0 8
-97.0314 -24.4212 -2.4953 0.0249 0 8
-96.6259 -25.9791 -2.4953 0.0249 0 8
-96.1955 -27.5303 -2.4953 0.0249 0 8
-95.7401 -29.0744 -2.4953 0.0249 0 8
-95.2600 -30.6108 -2.4953 0.0249 0 8
-94.7552 -32.1394 -2.4953 0.0249 0 8
-94.2259 -33.6596 -2.4953 0.0249 0 8
-93.6722 -35.1712 -2.4953 0.0249 0 8
-93.0942 -36.6737 -2.4953 0.0249 0 8
-92.4921 -38.1667 -2.4953 0.0249 0 8
-91.8661 -39.6498 -2.4953 0.0249 0 8
-91.2163 -41.1226 -2.4953 0.0249 0 8
-90.5429 -42.5847 -2.4953 0.0249 0 8
-89.8461 -44.0359 -2.4953 0.0249 0 8
-89.1260 -45.4757 -2.4953 0.0249 0 8
-88.3829 -46.9037 -2.4953 0.0249 0 8
-92.9681 -51.2707 -2.6477 0.0249 0 7
-92.1312 -52.7597 -2.6477 0.0249 0 7
-91.2704 -54.2352 -2.6477 0.0249 0 7
-90.3861 -55.6965 -2.6477 0.0249 0 7
-89.4783 -57.1434 -2.6477 0.0249 0 7
-88.5476 -58.5755 -2.6477 0.0249 0 7
-87.5936 -59.9926 -2.6477 0.0249 0 7
-86.6171 -61.3940 -2.6477 0.0249 0 7
-85.6182 -62.7795 -2.6477 0.0249 0 7
-84.5971 -64.1488 -2.6477 0.0249 0 7
-83.5541 -65.5016 -2.6477 0.0249 0 7
-82.4895 -66.8373 -2.6477 0.0249 0 7
-81.4036 -68.1558 -2.6477 0.0249 0 7
-80.2965 -69.4566 -2.6477 0.0249 0 7
-79.1686 -70.7395 -2.6477 0.0249 0 7
-77.9829 -71.9694 -2.6464 0.0383 0 8
-76.1792 -72.6087 -2.6245 0.7591 0 8
-73.9884 -72.8279 -2.5891 0.7339 0 8
-71.7516 -72.9360 -2.5515 0.7263 0 8
-69.4841 -72.9421 -2.5123 0.7092 0 8
-67.8387 -73.5486 -2.4953 0.0249 0 8
-66.6467 -74.6305 -2.4953 0.0249 0 8
-65.4374 -75.6930 -2.4953 0.0249 0 8
-64.2111 -76.7360 -2.4953 0.0249 0 8
-62.9683 -77.7591 -2.4953 0.0249 0 8
-61.7091 -78.7622 -2.4953 0.0249 0 8
-60.5106 -79.8459 -2.4984 0.0219 0 8
-59.3181 -80.9454 -2.5027 0.0219 0 8
-58.1042 -82.0246 -2.5068 0.0219 0 8
-56.8689 -83.0832 -2.5108 0.0218 0 8
-55.6127 -84.1199 -2.5148 0.0218 0 8
-54.3357 -85.1347 -2.5187 0.0218 0 8
-53.0391 -86.1279 -2.5225 0.0217 0 8
-51.7229 -87.0985 -2.5262 0.0217 0 8
-50.3861 -88.0438 -2.5298 0.0217 0 8
-49.0317 -88.9675 -2.5333 0.0216 0 8
-47.6589 -89.8671 -2.5368 0.0216 0 8
-46.2670 -90.7401 -2.5401 0.0216 0 8
-44.8584 -91.5895 -2.5433 0.0216 0 8
-43.4331 -92.4143 -2.5465 0.0215 0 8
-41.9905 -93.2113 -2.5495 0.0215 0 8
-40.5318 -93.9825 -2.5524 0.0215 0 8
-39.0584 -94.7288 -2.5553 0.0215 0 8
-37.5693 -95.4464 -2.5580 0.0214 0 8
-36.0654 -96.1359 -2.5606 0.0214 0 8
-34.5486 -96.8004 -2.5632 0.0214 0 8
-33.0178 -97.4351 -2.5656 0.0214 0 8
-31.4737 -98.0399 -2.5679 0.0214 0 8
-29.9184 -98.6194 -2.5701 0.0213 0 8
-28.3511 -99.1692 -2.5722 0.0213 0 8
-26.7721 -99.6871 -2.5741 0.0213 0 8
-25.1831 -100.1780 -2.5760 0.0213 0 8
-23.5846 -100.6402 -2.5778 0.0213 0 8
-21.9760 -101.0691 -2.5794 0.0213 0 8
-20.3591 -101.4687 -2.5809 0.0213 0 8
-18.7346 -101.8405 -2.5824 0.0213 0 8
-17.1021 -102.1788 -2.5836 0.0212 0 8
-15.4628 -102.4859 -2.5848 0.0212 0 8
-13.8177 -102.7642 -2.5858 0.0212 0 8
-12.1669 -103.0090 -2.5867 0.0212 0 8
-10.5115 -103.2247 -2.5876 0.0212 0 8
-8.8519 -103.4100 -2.5883 0.0212 0 8
-7.1886 -103.5610 -2.5889 0.0212 0 8
-5.5226 -103.6819 -2.5893 0.0212 0 8
-3.8544 -103.7732 -2.5897 0.0212 0 8
-2.1846 -103.8296 -2.5899 0.0212 0 8
-0.5139 -103.8560 -2.5900 0.0212 0 8
1.1570 -103.8535 -2.5901 0.0212 0 8
2.8276 -103.8152 -2.5899 0.0212 0 8
4.4970 -103.7466 -2.5897 0.0212 0 8
6.1647 -103.6477 -2.5894 0.0212 0 8
7.8299 -103.5148 -2.5889 0.0212 0 8
9.4920 -103.3507 -2.5882 0.0212 0 8
11.1503 -103.1557 -2.5875 0.0212 0 8
12.8042 -102.9290 -2.5867 0.0213 0 8
14.4531 -102.6712 -2.5857 0.0213 0 8
16.0963 -102.3829 -2.5846 0.0213 0 8
17.7332 -102.0635 -2.5834 0.0213 0 8
19.3631 -101.7133 -2.5821 0.0213 0 8
20.9855 -101.3330 -2.5807 0.0213 0 8
22.5995 -100.9222 -2.5792 0.0213 0 8
24.2049 -100.4816 -2.5775 0.0213 0 8
25.8008 -100.0114 -2.5758 0.0213 0 8
27.3866 -99.5112 -2.5739 0.0214 0 8
28.9618 -98.9819 -2.5719 0.0214 0 8
30.5259 -98.4239 -2.5699 0.0214 0 8
32.0781 -97.8367 -2.5677 0.0214 0 8
33.6179 -97.2210 -2.5654 0.0214 0 8
35.1450 -96.5777 -2.5630 0.0215 0 8
36.6585 -95.9065 -2.5605 0.0215 0 8
38.1579 -95.2075 -2.5579 0.0215 0 8
39.6429 -94.4816 -2.5552 0.0215 0 8
41.1128 -93.7291 -2.5524 0.0215 0 8
-47.7279 63.7207 -2.6477 0.0332 0 7
-48.7469 62.9446 -2.6477 0.0332 0 7
-49.7533 62.1522 -2.6477 0.0332 0 7
-50.7467 61.3438 -2.6477 0.0332 0 7
-51.7270 60.5194 -2.6477 0.0332 0 7
-52.6940 59.6793 -2.6477 0.0332 0 7
-53.6473 58.8239 -2.6477 0.0332 0 7
-54.5867 57.9532 -2.6477 0.0332 0 7
-55.5120 57.0675 -2.6477 0.0332 0 7
-56.2839 56.0286 -2.6411 0.0453 0 8
-56.3600 54.3273 -2.6034 0.7155 0 8
-56.3721 52.6158 -2.5645 0.7264 0 8
-56.3836 50.9541 -2.5274 0.7370 0 8
-56.4694 49.4049 -2.4953 0.0332 0 8
-57.2569 48.4898 -2.4953 0.0332 0 8
-58.0297 47.5623 -2.4953 0.0332 0 8
-58.7873 46.6226 -2.4953 0.0332 0 8
-59.5298 45.6708 -2.4953 0.0332 0 8
-60.2569 44.7072 -2.4953 0.0332 0 8
-60.9683 43.7320 -2.4953 0.0332 0 8
-61.6640 42.7454 -2.4953 0.0332 0 8
-62.3436 41.7479 -2.4953 0.0332 0 8
-63.0073 40.7394 -2.4953 0.0332 0 14
-63.6545 39.7205 -2.4953 0.0332 0 14
-64.2853 38.6913 -2.4953 0.0332 0 8
-64.8995 37.6520 -2.4953 0.0332 0 8
-65.4969 36.6030 -2.4953 0.0332 0 8
-66.0772 35.5446 -2.4953 0.0332 0 8
-66.6406 34.4770 -2.4953 0.0332 0 8
-67.1866 33.4004 -2.4953 0.0332 0 8
-68.5516 32.7142 -2.5261 0.4318 0 8
-71.4358 32.6902 -2.6127 0.4175 0 8
-72.9169 31.9594 -2.6477 0.0332 0 7
-73.4217 30.7822 -2.6477 0.0332 0 7
-73.9074 29.5970 -2.6477 0.0332 0 7
-74.3740 28.4041 -2.6477 0.0332 0 7
-74.8213 27.2039 -2.6477 0.0332 0 7
-75.2493 25.9966 -2.6477 0.0332 0 7
-75.6578 24.7827 -2.6477 0.0332 0 7
-76.0467 23.5623 -2.6477 0.0332 0 7
-72.2374 21.1144 -2.5029 0.0332 0 14
-72.5677 19.9495 -2.5029 0.0332 0 14
-72.8793 18.7795 -2.5029 0.0332 0 8
-77.4046 18.6229 -2.6477 0.0332 0 7
-77.6942 17.3751 -2.6477 0.0332 0 7
-77.9637 16.1230 -2.6477 0.0332 0 7
-78.2130 14.8666 -2.6477 0.0332 0 7
-78.4420 13.6063 -2.6477 0.0332 0 7
-78.6508 12.3426 -2.6477 0.0332 0 7
-78.8392 11.0757 -2.6477 0.0332 0 7
-79.0072 9.8058 -2.6477 0.0332 0 7
-74.5985 8.0423 -2.4953 0.0332 0 8
-74.7183 6.8411 -2.4953 0.0332 0 8
-74.8187 5.6382 -2.4953 0.0332 0 8
-74.8997 4.4337 -2.4953 0.0332 0 8
-74.9613 3.2281 -2.4953 0.0332 0 8
-75.0035 2.0217 -2.4953 0.0332 0 8
-75.0264 0.8148 -2.4953 0.0332 0 8
-75.0298 -0.3923 -2.4953 0.0332 0 8
-75.0137 -1.5995 -2.4953 0.0332 0 8
-74.9783 -2.8061 -2.4953 0.0332 0 8
-74.9234 -4.0120 -2.4953 0.0332 0 8
-74.8492 -5.2168 -2.4953 0.0332 0 8
-74.7556 -6.4204 -2.4953 0.0332 0 8
-74.6426 -7.6222 -2.4953 0.0332 0 8
-74.5103 -8.8221 -2.4953 0.0332 0 8
-74.3588 -10.0196 -2.4953 0.0332 0 8
-74.1880 -11.2146 -2.4953 0.0332 0 8
-73.9979 -12.4067 -2.4953 0.0332 0 8
-73.7887 -13.5956 -2.4953 0.0332 0 8
-73.5605 -14.7810 -2.4953 0.0332 0 8
-73.3131 -15.9625 -2.4953 0.0332 0 8
-73.0468 -17.1399 -2.4953 0.0332 0 8
-72.7616 -18.3129 -2.4953 0.0332 0 8
-72.4576 -19.4812 -2.4953 0.0332 0 8
-72.1348 -20.6443 -2.4953 0.0332 0 8
-71.7933 -21.8022 -2.4953 0.0332 0 8
-71.4335 -22.9545 -2.4953 0.0332 0 8
-71.0548 -24.1006 -2.4953 0.0332 0 8
-70.6579 -25.2406 -2.4953 0.0332 0 8
-70.2426 -26.3741 -2.4953 0.0332 0 8
-69.8092 -27.5008 -2.4953 0.0332 0 8
-69.3577 -28.6203 -2.4953 0.0332 0 8
-68.8883 -29.7324 -2.4953 0.0332 0 8
-68.4011 -30.8369 -2.4953 0.0332 0 8
-67.8961 -31.9333 -2.4953 0.0332 0 8
-67.3736 -33.0215 -2.4953 0.0332 0 8
-66.8336 -34.1012 -2.4953 0.0332 0 8
-66.2763 -35.1720 -2.4953 0.0332 0 8
-65.7019 -36.2338 -2.4953 0.0332 0 8
-65.1104 -37.2861 -2.4953 0.0332 0 8
-64.5021 -38.3288 -2.4953 0.0332 0 8
-63.8772 -39.3615 -2.4953 0.0332 0 8
-63.2356 -40.3841 -2.4953 0.0332 0 8
-62.5777 -41.3962 -2.4953 0.0332 0 8
-61.9036 -42.3976 -2.4953 0.0332 0 8
-61.2135 -43.3880 -2.4953 0.0332 0 8
-60.5076 -44.3672 -2.4953 0.0332 0 8
-59.7860 -45.3349 -2.4953 0.0332 0 8
-59.0489 -46.2909 -2.4953 0.0332 0 8
-58.2965 -47.2349 -2.4953 0.0332 0 8
-57.5290 -48.1667 -2.4953 0.0332 0 8
-57.0016 -49.3065 -2.5065 0.4230 0 8
-59.3668 -53.0459 -2.6477 0.0332 0 7
-58.5057 -53.9942 -2.6477 0.0332 0 7
-57.6295 -54.9284 -2.6477 0.0332 0 7
-56.7383 -55.8484 -2.6477 0.0332 0 7
-55.8324 -56.7540 -2.6477 0.0332 0 7
-54.9122 -57.6449 -2.6477 0.0332 0 7
-53.9777 -58.5209 -2.6477 0.0332 0 7
-53.0292 -59.3817 -2.6477 0.0332 0 7
-52.0670 -60.2272 -2.6477 0.0332 0 7
-51.0913 -61.0571 -2.6477 0.0332 0 7
-50.1024 -61.8711 -2.6477 0.0332 0 7
-49.1005 -62.6692 -2.6477 0.0332 0 7
-48.0859 -63.4510 -2.6477 0.0332 0 7
-47.0589 -64.2164 -2.6477 0.0332 0 7
-46.0197 -64.9652 -2.6477 0.0332 0 7
-44.9685 -65.6972 -2.6477 0.0332 0 7
-43.9058 -66.4121 -2.6477 0.0332 0 7
-42.8317 -67.1099 -2.6477 0.0332 0 7
-41.7464 -67.7903 -2.6477 0.0332 0 7
-40.6504 -68.4531 -2.6477 0.0332 0 7
-39.5439 -69.0982 -2.6477 0.0332 0 7
-38.4271 -69.7255 -2.6477 0.0332 0 7
-37.3003 -70.3347 -2.6477 0.0332 0 7
-36.1639 -70.9257 -2.6477 0.0332 0 7
-35.0182 -71.4983 -2.6477 0.0332 0 7
-33.8634 -72.0524 -2.6477 0.0332 0 7
-32.6279 -72.4283 -2.6419 0.0486 0 8
-31.2769 -72.5229 -2.6266 0.9043 0 8
-29.8980 -72.5119 -2.6084 0.9106 0 8
-28.5376 -72.5010 -2.5912 0.9167 0 8
-27.1947 -72.4900 -2.5748 0.9225 0 8
-25.8682 -72.4791 -2.5593 0.9281 0 8
-24.5573 -72.4681 -2.5447 0.9335 0 8
-23.2609 -72.4572 -2.5308 0.9386 0 8
-21.9782 -72.4463 -2.5177 0.9434 0 8
-20.7082 -72.4353 -2.5055 0.9481 0 8
-19.4607 -72.4631 -2.4953 0.0332 0 8
-18.2924 -72.7668 -2.4953 0.0332 0 8
-17.1194 -73.0517 -2.4953 0.0332 0 8
-15.9419 -73.3176 -2.4953 0.0332 0 8
-14.7603 -73.5646 -2.4953 0.0332 0 8
-13.5749 -73.7926 -2.4953 0.0332 0 8
-12.3859 -74.0014 -2.4953 0.0332 0 8
-11.1937 -74.1911 -2.4953 0.0332 0 8
-9.9987 -74.3616 -2.4953 0.0332 0 8
-8.8011 -74.5128 -2.4953 0.0332 0 8
-7.6012 -74.6448 -2.4953 0.0332 0 8
-6.3993 -74.7574 -2.4953 0.0332 0 8
-5.1957 -74.8507 -2.4953 0.0332 0 8
-3.9908 -74.9246 -2.4953 0.0332 0 8
-2.7849 -74.9791 -2.4953 0.0332 0 8
-1.5783 -75.0142 -2.4953 0.0332 0 8
-0.3713 -75.0299 -2.4953 0.0332 0 8
0.8359 -75.0261 -2.4953 0.0332 0 8
2.0428 -75.0030 -2.4953 0.0332 0 8
3.2492 -74.9604 -2.4953 0.0332 0 8
4.4548 -74.8984 -2.4953 0.0332 0 8
5.6592 -74.8171 -2.4953 0.0332 0 8
6.8621 -74.7163 -2.4953 0.0332 0 8
8.0632 -74.5963 -2.4953 0.0332 0 8
9.2623 -74.4569 -2.4953 0.0332 0 8
10.4590 -74.2982 -2.4953 0.0332 0 8
11.6530 -74.1204 -2.4953 0.0332 0 8
12.8440 -73.9233 -2.4953 0.0332 0 8
14.0316 -73.7071 -2.4953 0.0332 0 8
15.2156 -73.4718 -2.4953 0.0332 0 8
16.3956 -73.2175 -2.4953 0.0332 0 8
17.5714 -72.9442 -2.4953 0.0332 0 8
18.7427 -72.6521 -2.4953 0.0332 0 8
19.9091 -72.3412 -2.4953 0.0332 0 8
21.1062 -72.1339 -2.4995 0.7018 0 8
22.3708 -72.1295 -2.5115 0.9446 0 8
23.6488 -72.1276 -2.5244 0.9398 0 8
24.9402 -72.1256 -2.5380 0.9347 0 8
26.2460 -72.1235 -2.5525 0.9294 0 8
27.5670 -72.1212 -2.5677 0.9239 0 8
28.9043 -72.1188 -2.5839 0.9181 0 8
30.2587 -72.1162 -2.6009 0.9121 0 8
31.6314 -72.1134 -2.6188 0.9059 0 8
-35.9771 48.0325 -2.4953 0.0415 0 8
-36.7452 47.4474 -2.4953 0.0415 0 8
-39.7944 49.7115 -2.6477 0.0415 0 7
-40.5890 49.0649 -2.6477 0.0415 0 7
-41.3731 48.4055 -2.6477 0.0415 0 7
-42.1465 47.7336 -2.6477 0.0415 0 7
-42.9090 47.0494 -2.6477 0.0415 0 7
-43.6604 46.3530 -2.6477 0.0415 0 7
-44.4005 45.6446 -2.6477 0.0415 0 7
-45.1291 44.9243 -2.6477 0.0415 0 7
-45.8460 44.1925 -2.6477 0.0415 0 7
-46.5510 43.4492 -2.6477 0.0415 0 7
-47.2440 42.6946 -2.6477 0.0415 0 7
-47.9248 41.9290 -2.6477 0.0415 0 7
-48.5931 41.1526 -2.6477 0.0415 0 7
-49.2489 40.3655 -2.6477 0.0415 0 7
-49.8920 39.5679 -2.6477 0.0415 0 7
-50.5221 38.7602 -2.6477 0.0415 0 7
-51.1391 37.9423 -2.6477 0.0415 0 7
-51.7429 37.1147 -2.6477 0.0415 0 7
-52.3333 36.2775 -2.6477 0.0415 0 7
-52.9102 35.4308 -2.6477 0.0415 0 6
-53.4734 34.5749 -2.6477 0.0415 0 7
-54.0227 33.7103 -2.6477 0.0415 0 7
-54.5580 32.8367 -2.6477 0.0415 0 7
-55.0793 31.9547 -2.6477 0.0415 0 7
-55.5862 31.0645 -2.6477 0.0415 0 7
-56.0788 30.1662 -2.6477 0.0415 0 7
-56.5569 29.2600 -2.6477 0.0415 0 7
-57.0203 28.3464 -2.6477 0.0415 0 6
-57.4689 27.4254 -2.6477 0.0415 0 7
-57.9027 26.4972 -2.6477 0.0415 0 7
-58.3215 25.5623 -2.6477 0.0415 0 7
-58.7252 24.6207 -2.6477 0.0415 0 7
-59.1137 23.6727 -2.6477 0.0415 0 7
-59.4869 22.7186 -2.6477 0.0415 0 7
-59.8447 21.7586 -2.6477 0.0415 0 7
-60.1870 20.7930 -2.6477 0.0415 0 7
-60.5138 19.8220 -2.6477 0.0415 0 7
-60.8248 18.8459 -2.6477 0.0415 0 7
-61.1202 17.8650 -2.6477 0.0415 0 7
-61.3997 16.8793 -2.6477 0.0415 0 7
-61.6633 15.8893 -2.6477 0.0415 0 7
-61.9109 14.8953 -2.6477 0.0415 0 7
-62.1426 13.8973 -2.6477 0.0415 0 7
-62.3581 12.8957 -2.6477 0.0415 0 7
-62.5575 11.8908 -2.6477 0.0415 0 7
-62.7407 10.8828 -2.6477 0.0415 0 7
-62.9077 9.8720 -2.6477 0.0415 0 7
-63.0584 8.8587 -2.6477 0.0415 0 7
-63.0150 7.8210 -2.6402 0.0445 0 8
-60.5636 6.5292 -2.5328 0.5117 0 8
-59.7623 5.4718 -2.4953 0.0415 0 8
-59.8426 4.5096 -2.4953 0.0415 0 8
-59.9074 3.5462 -2.4953 0.0415 0 8
-59.9567 2.5820 -2.4953 0.0415 0 8
-59.9905 1.6171 -2.4953 0.0415 0 8
-60.0087 0.6517 -2.4953 0.0415 0 8
-60.0114 -0.3138 -2.4953 0.0415 0 8
-59.9986 -1.2793 -2.4953 0.0415 0 8
-59.9703 -2.2444 -2.4953 0.0415 0 8
-59.9264 -3.2089 -2.4953 0.0415 0 8
-59.8670 -4.1726 -2.4953 0.0415 0 8
-59.7922 -5.1352 -2.4953 0.0415 0 8
-59.7018 -6.0965 -2.4953 0.0415 0 8
-59.5960 -7.0562 -2.4953 0.0415 0 8
-59.4748 -8.0140 -2.4953 0.0415 0 8
-59.3381 -8.9699 -2.4953 0.0415 0 8
-59.1861 -9.9233 -2.4953 0.0415 0 8
-59.0188 -10.8742 -2.4953 0.0415 0 8
-58.8362 -11.8224 -2.4953 0.0415 0 8
-58.6384 -12.7674 -2.4953 0.0415 0 8
-58.4254 -13.7091 -2.4953 0.0415 0 8
-58.1973 -14.6473 -2.4953 0.0415 0 8
-57.9541 -15.5817 -2.4953 0.0415 0 8
-57.6960 -16.5121 -2.4953 0.0415 0 8
-57.4228 -17.4382 -2.4953 0.0415 0 8
-57.1348 -18.3597 -2.4953 0.0415 0 8
-56.8321 -19.2765 -2.4953 0.0415 0 8
-56.5487 -20.2006 -2.4968 0.6966 0 8
-56.5334 -21.2267 -2.5109 0.9299 0 8
-56.5227 -22.2667 -2.5260 0.9243 0 8
-56.5118 -23.3195 -2.5419 0.9185 0 8
-56.5007 -24.3859 -2.5587 0.9125 0 8
-56.4892 -25.4667 -2.5764 0.9062 0 8
-56.4775 -26.5629 -2.5951 0.8997 0 8
-56.4655 -27.6752 -2.6146 0.8930 0 8
-56.4532 -28.8047 -2.6352 0.8860 0 8
-56.1809 -29.8145 -2.6445 0.0566 0 8
-55.7602 -30.7510 -2.6477 0.0415 0 7
-55.2583 -31.6441 -2.6477 0.0415 0 7
-54.7420 -32.5291 -2.6477 0.0415 0 7
-54.2116 -33.4055 -2.6477 0.0415 0 7
-53.6672 -34.2734 -2.6477 0.0415 0 7
-53.1088 -35.1323 -2.6477 0.0415 0 7
-52.5367 -35.9822 -2.6477 0.0415 0 7
-51.9510 -36.8228 -2.6477 0.0415 0 7
-51.3519 -37.6538 -2.6477 0.0415 0 7
-50.7395 -38.4751 -2.6477 0.0415 0 7
-50.1139 -39.2864 -2.6477 0.0415 0 7
-49.4754 -40.0876 -2.6477 0.0415 0 7
-48.8241 -40.8784 -2.6477 0.0415 0 7
-48.1601 -41.6586 -2.6477 0.0415 0 7
-47.4836 -42.4280 -2.6477 0.0415 0 7
-46.7949 -43.1864 -2.6477 0.0415 0 6
-46.0941 -43.9336 -2.6477 0.0415 0 7
-45.3813 -44.6695 -2.6477 0.0415 0 7
-44.6567 -45.3939 -2.6477 0.0415 0 7
-43.9207 -46.1064 -2.6477 0.0415 0 7
-43.1733 -46.8071 -2.6477 0.0415 0 7
-42.4146 -47.4956 -2.6477 0.0415 0 6
-41.6450 -48.1718 -2.6477 0.0415 0 6
-40.8646 -48.8356 -2.6477 0.0415 0 7
-40.0736 -49.4867 -2.6477 0.0415 0 7
-37.0118 -47.2398 -2.4953 0.0415 0 8
-36.2470 -47.8292 -2.4953 0.0415 0 8
-35.4728 -48.4061 -2.4953 0.0415 0 8
-34.6895 -48.9705 -2.4953 0.0415 0 8
-33.8971 -49.5223 -2.4953 0.0415 0 8
-33.0960 -50.0612 -2.4953 0.0415 0 8
-32.2864 -50.5872 -2.4953 0.0415 0 8
-31.4683 -51.1001 -2.4953 0.0415 0 8
-30.6421 -51.5997 -2.4953 0.0415 0 8
-29.8080 -52.0860 -2.4953 0.0415 0 8
-28.9662 -52.5589 -2.4953 0.0415 0 8
-28.1169 -53.0181 -2.4953 0.0415 0 8
-27.2603 -53.4635 -2.4953 0.0415 0 8
-28.0088 -57.1869 -2.6477 0.0415 0 7
-27.0851 -57.6301 -2.6477 0.0415 0 7
-26.1545 -58.0584 -2.6477 0.0415 0 7
-25.2170 -58.4716 -2.6477 0.0415 0 7
-24.2731 -58.8698 -2.6477 0.0415 0 7
-23.3228 -59.2526 -2.6477 0.0415 0 7
-22.3665 -59.6202 -2.6477 0.0415 0 7
-21.4045 -59.9723 -2.6477 0.0415 0 7
-20.4369 -60.3089 -2.6477 0.0415 0 7
-19.4640 -60.6299 -2.6477 0.0415 0 7
-18.4861 -60.9352 -2.6477 0.0415 0 7
-17.5033 -61.2247 -2.6477 0.0415 0 7
-16.5161 -61.4984 -2.6477 0.0415 0 7
-15.5245 -61.7561 -2.6477 0.0415 0 7
-14.5290 -61.9979 -2.6477 0.0415 0 7
-13.5297 -62.2236 -2.6477 0.0415 0 7
-12.5269 -62.4332 -2.6477 0.0415 0 7
-11.5208 -62.6267 -2.6477 0.0415 0 7
-10.5114 -62.8039 -2.6477 0.0415 0 7
-9.5000 -62.9649 -2.6477 0.0415 0 6
-8.4857 -63.1096 -2.6477 0.0415 0 7
-7.4693 -63.2379 -2.6477 0.0415 0 7
-6.4510 -63.3499 -2.6477 0.0415 0 7
-5.4310 -63.4455 -2.6477 0.0415 0 7
-4.4095 -63.5247 -2.6477 0.0415 0 7
-3.3870 -63.5874 -2.6477 0.0415 0 7
-2.3635 -63.6337 -2.6477 0.0415 0 7
-1.3395 -63.6634 -2.6477 0.0415 0 7
-0.3151 -63.6768 -2.6477 0.0415 0 7
0.7094 -63.6736 -2.6477 0.0415 0 7
1.7337 -63.6539 -2.6477 0.0415 0 7
2.7576 -63.6178 -2.6477 0.0415 0 7
3.7807 -63.5652 -2.6477 0.0415 0 7
4.8029 -63.4962 -2.6477 0.0415 0 7
5.8238 -63.4107 -2.6477 0.0415 0 7
6.8432 -63.3088 -2.6477 0.0415 0 7
7.8608 -63.1905 -2.6477 0.0415 0 7
8.8764 -63.0558 -2.6477 0.0415 0 7
9.8897 -62.9049 -2.6477 0.0415 0 7
10.9005 -62.7376 -2.6477 0.0415 0 6
11.9084 -62.5541 -2.6477 0.0415 0 6
12.9132 -62.3545 -2.6477 0.0415 0 7
13.9147 -62.1386 -2.6477 0.0415 0 7
14.9126 -61.9067 -2.6477 0.0415 0 7
15.9067 -61.6588 -2.6477 0.0415 0 7
16.8966 -61.3949 -2.6477 0.0415 0 7
17.8821 -61.1151 -2.6477 0.0415 0 7
18.8630 -60.8195 -2.6477 0.0415 0 7
19.8390 -60.5082 -2.6477 0.0415 0 7
20.8099 -60.1812 -2.6477 0.0415 0 7
21.7755 -59.8386 -2.6477 0.0415 0 7
22.7353 -59.4805 -2.6477 0.0415 0 7
23.6893 -59.1071 -2.6477 0.0415 0 7
24.6372 -58.7183 -2.6477 0.0415 0 7
25.5786 -58.3143 -2.6477 0.0415 0 7
-29.9733 40.0169 -2.4953 0.0498 0 8
-30.6132 39.5295 -2.4953 0.0498 0 8
-31.2452 39.0318 -2.4953 0.0498 0 8
-31.8691 38.5241 -2.4953 0.0498 0 8
-32.4847 38.0064 -2.4953 0.0498 0 8
-33.0920 37.4788 -2.4953 0.0498 0 8
-33.6907 36.9417 -2.4953 0.0498 0 8
-34.2806 36.3949 -2.4953 0.0498 0 8
-34.8617 35.8386 -2.4953 0.0498 0 8
-37.5980 37.4274 -2.6477 0.0498 0 6
-38.1953 36.8177 -2.6477 0.0498 0 7
-38.7826 36.1984 -2.6477 0.0498 0 6
-39.3600 35.5698 -2.6477 0.0498 0 7
-39.9271 34.9320 -2.6477 0.0498 0 7
-40.4839 34.2851 -2.6477 0.0498 0 7
-41.0303 33.6293 -2.6477 0.0498 0 7
-41.5660 32.9649 -2.6477 0.0498 0 7
-42.0910 32.2919 -2.6477 0.0498 0 7
-42.6051 31.6105 -2.6477 0.0498 0 7
-43.1081 30.9210 -2.6477 0.0498 0 7
-43.6000 30.2235 -2.6477 0.0498 0 7
-44.0806 29.5182 -2.6477 0.0498 0 7
-44.5498 28.8051 -2.6477 0.0498 0 7
-45.0074 28.0847 -2.6477 0.0498 0 6
-45.4534 27.3570 -2.6477 0.0498 0 7
-45.8877 26.6222 -2.6477 0.0498 0 7
-46.3101 25.8805 -2.6477 0.0498 0 7
-46.7204 25.1321 -2.6477 0.0498 0 6
-47.1187 24.3771 -2.6477 0.0498 0 7
-47.5048 23.6160 -2.6477 0.0498 0 7
-47.8786 22.8487 -2.6477 0.0498 0 7
-48.2400 22.0754 -2.6477 0.0498 0 7
-48.5889 21.2964 -2.6477 0.0498 0 7
-48.9252 20.5120 -2.6477 0.0498 0 7
-49.2489 19.7222 -2.6477 0.0498 0 7
-49.5598 18.9273 -2.6477 0.0498 0 7
-49.8579 18.1276 -2.6477 0.0498 0 7
-50.1431 17.3231 -2.6477 0.0498 0 7
-50.4153 16.5142 -2.6477 0.0498 0 7
-50.6744 15.7010 -2.6477 0.0498 0 7
-50.9205 14.8837 -2.6477 0.0498 0 7
-51.1533 14.0625 -2.6477 0.0498 0 7
-51.3730 13.2377 -2.6477 0.0498 0 7
-51.5793 12.4096 -2.6477 0.0498 0 7
-51.7723 11.5781 -2.6477 0.0498 0 6
-51.9518 10.7437 -2.6477 0.0498 0 7
-52.1179 9.9065 -2.6477 0.0498 0 7
-52.2706 9.0667 -2.6477 0.0498 0 7
-52.4097 8.2246 -2.6477 0.0498 0 7
-52.5352 7.3804 -2.6477 0.0498 0 7
-52.6472 6.5342 -2.6477 0.0498 0 7
-52.7455 5.6863 -2.6477 0.0498 0 7
-52.8301 4.8370 -2.6477 0.0498 0 7
-52.9011 3.9865 -2.6477 0.0498 0 6
-52.9584 3.1349 -2.6477 0.0498 0 6
-53.0020 2.2825 -2.6477 0.0498 0 6
-53.0318 1.4295 -2.6477 0.0498 0 7
-53.0480 0.5761 -2.6477 0.0498 0 7
-53.0504 -0.2774 -2.6477 0.0498 0 6
-53.0390 -1.1309 -2.6477 0.0498 0 7
-53.0140 -1.9840 -2.6477 0.0498 0 7
-52.9752 -2.8367 -2.6477 0.0498 0 7
-52.9227 -3.6886 -2.6477 0.0498 0 7
-52.8565 -4.5396 -2.6477 0.0498 0 7
-52.7766 -5.3893 -2.6477 0.0498 0 7
-52.6831 -6.2377 -2.6477 0.0498 0 7
-52.5759 -7.0844 -2.6477 0.0498 0 7
-52.4552 -7.9294 -2.6477 0.0498 0 7
-52.3208 -8.7723 -2.6477 0.0498 0 7
-52.1729 -9.6129 -2.6477 0.0498 0 7
-52.0115 -10.4510 -2.6477 0.0498 0 7
-51.8366 -11.2864 -2.6477 0.0498 0 7
-51.6483 -12.1189 -2.6477 0.0498 0 7
-51.4467 -12.9483 -2.6477 0.0498 0 7
-51.2317 -13.7743 -2.6477 0.0498 0 7
-51.0035 -14.5967 -2.6477 0.0498 0 7
-50.7620 -15.4154 -2.6477 0.0498 0 7
-50.5075 -16.2301 -2.6477 0.0498 0 7
-50.2398 -17.0405 -2.6477 0.0498 0 7
-49.9592 -17.8466 -2.6477 0.0498 0 7
-49.6656 -18.6480 -2.6477 0.0498 0 7
-49.3591 -19.4446 -2.6477 0.0498 0 7
-49.0399 -20.2362 -2.6477 0.0498 0 7
-48.7080 -21.0226 -2.6477 0.0498 0 7
-48.3635 -21.8035 -2.6477 0.0498 0 7
-48.0065 -22.5787 -2.6477 0.0498 0 7
-47.6370 -23.3481 -2.6477 0.0498 0 7
-47.2552 -24.1115 -2.6477 0.0498 0 7
-46.8612 -24.8687 -2.6477 0.0498 0 6
-46.4550 -25.6194 -2.6477 0.0498 0 7
-46.0368 -26.3634 -2.6477 0.0498 0 7
-45.6067 -27.1006 -2.6477 0.0498 0 7
-45.1649 -27.8308 -2.6477 0.0498 0 7
-44.7112 -28.5539 -2.6477 0.0498 0 7
-44.2461 -29.2695 -2.6477 0.0498 0 7
-43.7694 -29.9776 -2.6477 0.0498 0 7
-43.2815 -30.6778 -2.6477 0.0498 0 7
-42.7824 -31.3702 -2.6477 0.0498 0 7
-42.2721 -32.0544 -2.6477 0.0498 0 7
-41.7510 -32.7303 -2.6477 0.0498 0 7
-41.2190 -33.3978 -2.6477 0.0498 0 7
-40.6764 -34.0566 -2.6477 0.0498 0 7
-40.1232 -34.7066 -2.6477 0.0498 0 7
-37.2826 -33.3130 -2.4953 0.0498 0 8
-36.7418 -33.9086 -2.4953 0.0498 0 8
-36.1915 -34.4952 -2.4953 0.0498 0 8
-35.6319 -35.0730 -2.4953 0.0498 0 8
-35.0630 -35.6418 -2.4953 0.0498 0 8
-34.4850 -36.2012 -2.4953 0.0498 0 8
-33.8982 -36.7513 -2.4953 0.0498 0 8
-33.3025 -37.2919 -2.4953 0.0498 0 8
-32.6983 -37.8229 -2.4953 0.0498 0 8
-32.0855 -38.3441 -2.4953 0.0498 0 8
-31.4645 -38.8553 -2.4953 0.0498 0 8
-30.8353 -39.3565 -2.4953 0.0498 0 8
-30.1981 -39.8475 -2.4953 0.0498 0 8
-29.5531 -40.3281 -2.4953 0.0498 0 8
-28.9005 -40.7984 -2.4953 0.0498 0 8
-28.2404 -41.2580 -2.4953 0.0498 0 8
-27.5730 -41.7070 -2.4953 0.0498 0 8
-26.8985 -42.1452 -2.4953 0.0498 0 8
-26.2169 -42.5725 -2.4953 0.0498 0 8
-25.5286 -42.9888 -2.4953 0.0498 0 8
-24.8337 -43.3939 -2.4953 0.0498 0 8
-24.1324 -43.7879 -2.4953 0.0498 0 8
-23.4247 -44.1705 -2.4953 0.0498 0 8
-22.7111 -44.5416 -2.4953 0.0498 0 8
-21.9916 -44.9012 -2.4953 0.0498 0 8
-21.2663 -45.2492 -2.4953 0.0498 0 22
-20.5356 -45.5855 -2.4953 0.0498 0 22
-19.7996 -45.9100 -2.4953 0.0498 0 22
-19.0584 -46.2226 -2.4953 0.0498 0 22
-18.3123 -46.5232 -2.4953 0.0498 0 22
-17.5615 -46.8118 -2.4953 0.0498 0 22
-16.8061 -47.0883 -2.4953 0.0498 0 22
-16.0464 -47.3525 -2.4953 0.0498 0 8
-15.2825 -47.6046 -2.4953 0.0498 0 8
-14.5146 -47.8443 -2.4953 0.0498 0 8
-13.7430 -48.0716 -2.4953 0.0498 0 8
-12.9679 -48.2865 -2.4953 0.0498 0 8
-12.1893 -48.4888 -2.4953 0.0498 0 8
-11.4076 -48.6787 -2.4953 0.0498 0 8
-10.6230 -48.8559 -2.4953 0.0498 0 8
-9.8357 -49.0205 -2.4953 0.0498 0 8
-9.0457 -49.1724 -2.4953 0.0498 0 8
-8.2535 -49.3115 -2.4953 0.0498 0 8
-7.4590 -49.4379 -2.4953 0.0498 0 8
-6.6627 -49.5516 -2.4953 0.0498 0 8
-5.8647 -49.6523 -2.4953 0.0498 0 8
-5.0651 -49.7403 -2.4953 0.0498 0 8
-4.2642 -49.8153 -2.4953 0.0498 0 8
-3.4622 -49.8775 -2.4953 0.0498 0 8
-2.6593 -49.9267 -2.4953 0.0498 0 8
-1.8558 -49.9630 -2.4953 0.0498 0 8
-1.0517 -49.9864 -2.4953 0.0498 0 8
-0.2474 -49.9969 -2.4953 0.0498 0 8
0.5570 -49.9944 -2.4953 0.0498 0 8
1.3613 -49.9789 -2.4953 0.0498 0 8
2.1651 -49.9506 -2.4953 0.0498 0 8
2.9685 -49.9093 -2.4953 0.0498 0 8
3.7710 -49.8551 -2.4953 0.0498 0 8
4.5726 -49.7879 -2.4953 0.0498 0 8
5.3730 -49.7079 -2.4953 0.0498 0 8
6.1720 -49.6151 -2.4953 0.0498 0 8
6.9695 -49.5093 -2.4953 0.0498 0 8
7.7651 -49.3908 -2.4953 0.0498 0 8
8.5587 -49.2595 -2.4953 0.0498 0 8
9.3501 -49.1154 -2.4953 0.0498 0 8
10.1390 -48.9586 -2.4953 0.0498 0 8
10.9254 -48.7892 -2.4953 0.0498 0 8
11.7089 -48.6071 -2.4953 0.0498 0 8
12.4894 -48.4124 -2.4953 0.0498 0 8
13.2666 -48.2052 -2.4953 0.0498 0 8
14.0405 -47.9855 -2.4953 0.0498 0 8
14.8106 -47.7535 -2.4953 0.0498 0 8
15.5770 -47.5090 -2.4953 0.0498 0 8
16.3393 -47.2522 -2.4953 0.0498 0 8
17.0974 -46.9833 -2.4953 0.0498 0 22
17.8510 -46.7021 -2.4953 0.0498 0 22
18.6001 -46.4089 -2.4953 0.0498 0 22
19.3443 -46.1036 -2.4953 0.0498 0 22
20.0835 -45.7865 -2.4953 0.0498 0 22
-25.6837 34.2899 -2.4953 0.0581 0 8
-26.2321 33.8723 -2.4953 0.0581 0 8
-26.7736 33.4459 -2.4953 0.0581 0 8
-27.3082 33.0108 -2.4953 0.0581 0 8
-28.0594 32.8288 -2.5153 0.7586 0 8
-28.9783 32.8198 -2.5500 0.7482 0 8
-29.9362 32.8248 -2.5875 0.7152 0 8
-31.0375 32.9516 -2.6365 0.6056 0 8
-31.6971 32.5852 -2.6477 0.0581 0 7
-32.2172 32.0711 -2.6477 0.0581 0 7
-32.7290 31.5486 -2.6477 0.0581 0 7
-33.2323 31.0180 -2.6477 0.0581 0 7
-33.7270 30.4793 -2.6477 0.0581 0 7
-34.2130 29.9328 -2.6477 0.0581 0 7
-34.6902 29.3785 -2.6477 0.0581 0 7
-35.1584 28.8165 -2.6477 0.0581 0 7
-35.6174 28.2472 -2.6477 0.0581 0 7
-36.0672 27.6705 -2.6477 0.0581 0 7
-36.5077 27.0867 -2.6477 0.0581 0 7
-36.9388 26.4958 -2.6477 0.0581 0 6
-37.3603 25.8981 -2.6477 0.0581 0 7
-37.7721 25.2937 -2.6477 0.0581 0 7
-38.1741 24.6827 -2.6477 0.0581 0 7
-38.5663 24.0654 -2.6477 0.0581 0 7
-38.9484 23.4418 -2.6477 0.0581 0 6
-39.3206 22.8122 -2.6477 0.0581 0 7
-39.6825 22.1766 -2.6477 0.0581 0 7
-40.0341 21.5354 -2.6477 0.0581 0 7
-40.3754 20.8885 -2.6477 0.0581 0 7
-40.7062 20.2362 -2.6477 0.0581 0 7
-41.0265 19.5787 -2.6477 0.0581 0 6
-41.3362 18.9161 -2.6477 0.0581 0 7
-41.6352 18.2486 -2.6477 0.0581 0 7
-41.9234 17.5765 -2.6477 0.0581 0 7
-42.2007 16.8997 -2.6477 0.0581 0 7
-42.4672 16.2186 -2.6477 0.0581 0 7
-42.7226 15.5333 -2.6477 0.0581 0 7
-42.9670 14.8439 -2.6477 0.0581 0 6
-43.2002 14.1508 -2.6477 0.0581 0 7
-43.4223 13.4539 -2.6477 0.0581 0 7
-43.6331 12.7536 -2.6477 0.0581 0 7
-43.8326 12.0500 -2.6477 0.0581 0 7
-44.0208 11.3433 -2.6477 0.0581 0 7
-44.1976 10.6336 -2.6477 0.0581 0 7
-44.3630 9.9211 -2.6477 0.0581 0 7
-44.5168 9.2061 -2.6477 0.0581 0 7
-44.6592 8.4887 -2.6477 0.0581 0 7
-44.7900 7.7691 -2.6477 0.0581 0 7
-44.9092 7.0476 -2.6477 0.0581 0 7
-45.0167 6.3241 -2.6477 0.0581 0 7
-45.1127 5.5991 -2.6477 0.0581 0 7
-45.1969 4.8726 -2.6477 0.0581 0 7
-45.2694 4.1448 -2.6477 0.0581 0 7
-45.3303 3.4160 -2.6477 0.0581 0 7
-45.3794 2.6862 -2.6477 0.0581 0 7
-45.4167 1.9558 -2.6477 0.0581 0 7
-45.4423 1.2249 -2.6477 0.0581 0 7
-45.4561 0.4936 -2.6477 0.0581 0 7
-45.4582 -0.2377 -2.6477 0.0581 0 7
-45.4485 -0.9690 -2.6477 0.0581 0 7
-45.4270 -1.7001 -2.6477 0.0581 0 7
-45.3938 -2.4307 -2.6477 0.0581 0 7
-45.3488 -3.1607 -2.6477 0.0581 0 7
-45.2921 -3.8899 -2.6477 0.0581 0 7
-45.2236 -4.6180 -2.6477 0.0581 0 7
-45.1435 -5.3450 -2.6477 0.0581 0 7
-45.0516 -6.0706 -2.6477 0.0581 0 7
-44.9481 -6.7946 -2.6477 0.0581 0 7
-44.8330 -7.5168 -2.6477 0.0581 0 7
-44.7063 -8.2371 -2.6477 0.0581 0 7
-44.5680 -8.9553 -2.6477 0.0581 0 7
-44.4181 -9.6712 -2.6477 0.0581 0 7
-44.2568 -10.3846 -2.6477 0.0581 0 7
-44.0840 -11.0952 -2.6477 0.0581 0 7
-43.8998 -11.8030 -2.6477 0.0581 0 7
-43.7042 -12.5078 -2.6477 0.0581 0 7
-43.4973 -13.2093 -2.6477 0.0581 0 7
-43.2792 -13.9073 -2.6477 0.0581 0 7
-43.0498 -14.6018 -2.6477 0.0581 0 7
-42.8094 -15.2925 -2.6477 0.0581 0 7
-42.5578 -15.9792 -2.6477 0.0581 0 7
-42.2952 -16.6618 -2.6477 0.0581 0 7
-42.0217 -17.3402 -2.6477 0.0581 0 7
-41.7373 -18.0140 -2.6477 0.0581 0 7
-41.4421 -18.6831 -2.6477 0.0581 0 7
-41.1361 -19.3474 -2.6477 0.0581 0 7
-40.8195 -20.0067 -2.6477 0.0581 0 7
-40.4924 -20.6608 -2.6477 0.0581 0 7
-40.1547 -21.3096 -2.6477 0.0581 0 7
-37.5154 -20.6893 -2.4953 0.0581 0 8
-37.1777 -21.2902 -2.4953 0.0581 0 8
-36.8304 -21.8855 -2.4953 0.0581 0 8
-36.4735 -22.4752 -2.4953 0.0581 0 8
-36.1072 -23.0591 -2.4953 0.0581 0 8
-35.7316 -23.6370 -2.4953 0.0581 0 8
-35.3467 -24.2088 -2.4953 0.0581 0 8
-34.9526 -24.7743 -2.4953 0.0581 0 8
-34.5495 -25.3334 -2.4953 0.0581 0 8
-34.1375 -25.8860 -2.4953 0.0581 0 8
-33.7166 -26.4319 -2.4953 0.0581 0 8
-33.2870 -26.9709 -2.4953 0.0581 0 8
-32.8488 -27.5029 -2.4953 0.0581 0 8
-32.4020 -28.0278 -2.4953 0.0581 0 8
-31.9469 -28.5455 -2.4953 0.0581 0 8
-31.4835 -29.0558 -2.4953 0.0581 0 8
-31.0121 -29.5585 -2.4953 0.0581 0 8
-30.5325 -30.0536 -2.4953 0.0581 0 8
-30.0450 -30.5410 -2.4953 0.0581 0 8
-29.5498 -31.0204 -2.4953 0.0581 0 8
-29.0469 -31.4917 -2.4953 0.0581 0 8
-28.5365 -31.9550 -2.4953 0.0581 0 8
-28.0187 -32.4099 -2.4953 0.0581 0 8
-27.4937 -32.8565 -2.4953 0.0581 0 8
-26.9615 -33.2946 -2.4953 0.0581 0 8
-26.4223 -33.7241 -2.4953 0.0581 0 8
-25.8764 -34.1448 -2.4953 0.0581 0 8
-25.3237 -34.5567 -2.4953 0.0581 0 8
-24.7645 -34.9596 -2.4953 0.0581 0 8
-24.1988 -35.3535 -2.4953 0.0581 0 8
-23.6270 -35.7382 -2.4953 0.0581 0 8
-23.0489 -36.1137 -2.4953 0.0581 0 8
-22.4649 -36.4799 -2.4953 0.0581 0 8
-21.8751 -36.8366 -2.4953 0.0581 0 8
-21.2797 -37.1837 -2.4953 0.0581 0 8
-20.6787 -37.5212 -2.4953 0.0581 0 8
-20.0724 -37.8491 -2.4953 0.0581 0 8
-19.4608 -38.1671 -2.4953 0.0581 0 8
-18.8443 -38.4753 -2.4953 0.0581 0 8
-18.2228 -38.7735 -2.4953 0.0581 0 8
-17.5967 -39.0616 -2.4953 0.0581 0 8
-16.9660 -39.3396 -2.4953 0.0581 0 8
-16.3309 -39.6075 -2.4953 0.0581 0 8
-15.6916 -39.8651 -2.4953 0.0581 0 8
-15.0482 -40.1124 -2.4953 0.0581 0 8
-14.4009 -40.3493 -2.4953 0.0581 0 8
-13.7499 -40.5758 -2.4953 0.0581 0 8
-13.0953 -40.7917 -2.4953 0.0581 0 8
-12.4374 -40.9971 -2.4953 0.0581 0 8
-11.7762 -41.1919 -2.4953 0.0581 0 8
-11.1120 -41.3760 -2.4953 0.0581 0 8
-10.4449 -41.5495 -2.4953 0.0581 0 8
-9.7751 -41.7122 -2.4953 0.0581 0 8
-9.1027 -41.8640 -2.4953 0.0581 0 8
-8.4280 -42.0050 -2.4953 0.0581 0 8
-7.7512 -42.1352 -2.4953 0.0581 0 8
-7.0723 -42.2544 -2.4953 0.0581 0 8
-6.3916 -42.3627 -2.4953 0.0581 0 8
-5.7092 -42.4602 -2.4953 0.0581 0 8
-5.0254 -42.5464 -2.4953 0.0581 0 8
-4.3402 -42.6218 -2.4953 0.0581 0 8
-3.6540 -42.6861 -2.4953 0.0581 0 8
-2.9667 -42.7393 -2.4953 0.0581 0 8
-2.2788 -42.7815 -2.4953 0.0581 0 8
-1.5902 -42.8127 -2.4953 0.0581 0 8
-0.9012 -42.8327 -2.4953 0.0581 0 8
-0.2120 -42.8417 -2.4953 0.0581 0 8
0.4773 -42.8395 -2.4953 0.0581 0 8
1.1664 -42.8263 -2.4953 0.0581 0 8
1.8553 -42.8020 -2.4953 0.0581 0 8
2.5437 -42.7666 -2.4953 0.0581 0 8
3.2314 -42.7201 -2.4953 0.0581 0 8
3.9182 -42.6626 -2.4953 0.0581 0 8
4.6041 -42.5941 -2.4953 0.0581 0 8
5.2887 -42.5145 -2.4953 0.0581 0 8
5.9720 -42.4239 -2.4953 0.0581 0 8
6.6538 -42.3223 -2.4953 0.0581 0 8
7.3338 -42.2098 -2.4953 0.0581 0 8
8.0120 -42.0864 -2.4953 0.0581 0 8
8.6880 -41.9520 -2.4953 0.0581 0 8
9.3618 -41.8068 -2.4953 0.0581 0 8
10.0332 -41.6508 -2.4953 0.0581 0 8
10.7020 -41.4840 -2.4953 0.0581 0 8
11.3680 -41.3064 -2.4953 0.0581 0 8
12.0311 -41.1182 -2.4953 0.0581 0 8
12.6910 -40.9193 -2.4953 0.0581 0 8
13.3477 -40.7099 -2.4953 0.0581 0 8
14.0009 -40.4898 -2.4953 0.0581 0 8
14.6505 -40.2593 -2.4953 0.0581 0 8
15.2963 -40.0184 -2.4953 0.0581 0 8
15.9382 -39.7672 -2.4953 0.0581 0 8
16.5759 -39.5056 -2.4953 0.0581 0 8
17.2093 -39.2338 -2.4953 0.0581 0 8
-23.8376 31.8251 -2.6477 0.0664 0 7
-24.3465 31.4375 -2.6477 0.0664 0 7
-24.8491 31.0417 -2.6477 0.0664 0 7
-25.3453 30.6380 -2.6477 0.0664 0 7
-25.8349 30.2262 -2.6477 0.0664 0 7
-26.3179 29.8067 -2.6477 0.0664 0 6
-26.7940 29.3794 -2.6477 0.0664 0 7
-27.2632 28.9445 -2.6477 0.0664 0 7
-27.7253 28.5022 -2.6477 0.0664 0 7
-28.1803 28.0524 -2.6477 0.0664 0 7
-28.6280 27.5954 -2.6477 0.0664 0 7
-29.0682 27.1313 -2.6477 0.0664 0 7
-29.5009 26.6601 -2.6477 0.0664 0 7
-29.9260 26.1821 -2.6477 0.0664 0 7
-30.3434 25.6972 -2.6477 0.0664 0 7
-30.7529 25.2057 -2.6477 0.0664 0 7
-31.1544 24.7077 -2.6477 0.0664 0 7
-31.5479 24.2033 -2.6477 0.0664 0 7
-31.9332 23.6926 -2.6477 0.0664 0 7
-30.5434 21.9085 -2.5029 0.0664 0 14
-30.8919 21.4143 -2.5029 0.0664 0 14
-31.2324 20.9145 -2.5029 0.0664 0 14
-31.5649 20.4094 -2.5029 0.0664 0 14
-31.8892 19.8989 -2.5029 0.0664 0 14
-32.2052 19.3833 -2.5029 0.0664 0 8
-34.3936 19.9537 -2.6477 0.0664 0 7
-34.7101 19.3978 -2.6477 0.0664 0 7
-35.0177 18.8369 -2.6477 0.0664 0 7
-35.3162 18.2711 -2.6477 0.0664 0 7
-35.6056 17.7005 -2.6477 0.0664 0 7
-35.8858 17.1254 -2.6477 0.0664 0 7
-36.1566 16.5459 -2.6477 0.0664 0 7
-36.4181 15.9620 -2.6477 0.0664 0 7
-36.6702 15.3741 -2.6477 0.0664 0 7
-36.9128 14.7821 -2.6477 0.0664 0 6
-37.1459 14.1863 -2.6477 0.0664 0 7
-37.3693 13.5869 -2.6477 0.0664 0 7
-37.5830 12.9839 -2.6477 0.0664 0 7
-37.7871 12.3776 -2.6477 0.0664 0 7
-37.9813 11.7681 -2.6477 0.0664 0 7
-38.1657 11.1556 -2.6477 0.0664 0 7
-38.3402 10.5401 -2.6477 0.0664 0 7
-38.5049 9.9219 -2.6477 0.0664 0 7
-38.6595 9.3012 -2.6477 0.0664 0 7
-38.8041 8.6780 -2.6477 0.0664 0 7
-38.9387 8.0526 -2.6477 0.0664 0 7
-39.0632 7.4251 -2.6477 0.0664 0 7
-39.1776 6.7956 -2.6477 0.0664 0 7
-39.2819 6.1645 -2.6477 0.0664 0 7
-39.3760 5.5317 -2.6477 0.0664 0 7
-39.4599 4.8975 -2.6477 0.0664 0 7
-39.5336 4.2620 -2.6477 0.0664 0 7
-39.5970 3.6254 -2.6477 0.0664 0 6
-39.6502 2.9880 -2.6477 0.0664 0 6
-39.6932 2.3496 -2.6477 0.0664 0 6
-37.4392 1.6123 -2.4953 0.0664 0 8
-37.4603 1.0098 -2.4953 0.0664 0 8
-37.4717 0.4069 -2.4953 0.0664 0 8
-37.4734 -0.1960 -2.4953 0.0664 0 8
-37.4654 -0.7988 -2.4953 0.0664 0 8
-37.4477 -1.4015 -2.4953 0.0664 0 8
-37.4203 -2.0038 -2.4953 0.0664 0 8
-37.3832 -2.6055 -2.4953 0.0664 0 8
-37.3365 -3.2066 -2.4953 0.0664 0 8
-37.2800 -3.8069 -2.4953 0.0664 0 8
-37.2140 -4.4061 -2.4953 0.0664 0 8
-37.1383 -5.0043 -2.4953 0.0664 0 8
-37.0529 -5.6011 -2.4953 0.0664 0 8
-36.9580 -6.1965 -2.4953 0.0664 0 8
-36.8536 -6.7903 -2.4953 0.0664 0 8
-36.7395 -7.3823 -2.4953 0.0664 0 8
-36.6160 -7.9724 -2.4953 0.0664 0 8
-36.4830 -8.5605 -2.4953 0.0664 0 8
-36.3406 -9.1463 -2.4953 0.0664 0 8
-36.1887 -9.7298 -2.4953 0.0664 0 8
-36.0275 -10.3108 -2.4953 0.0664 0 8
-35.8570 -10.8890 -2.4953 0.0664 0 8
-35.6772 -11.4645 -2.4953 0.0664 0 8
-35.4881 -12.0370 -2.4953 0.0664 0 8
-35.2898 -12.6063 -2.4953 0.0664 0 8
-35.0825 -13.1725 -2.4953 0.0664 0 8
-34.8660 -13.7352 -2.4953 0.0664 0 8
-34.6405 -14.2943 -2.4953 0.0664 0 8
-34.4061 -14.8498 -2.4953 0.0664 0 8
-34.1627 -15.4014 -2.4953 0.0664 0 8
-33.9105 -15.9490 -2.4953 0.0664 0 8
-33.6495 -16.4925 -2.4953 0.0664 0 8
-33.3798 -17.0317 -2.4953 0.0664 0 8
-33.1015 -17.5665 -2.4953 0.0664 0 8
-32.8146 -18.0968 -2.4953 0.0664 0 8
-32.5192 -18.6224 -2.4953 0.0664 0 8
-32.2154 -19.1432 -2.4953 0.0664 0 8
-31.9033 -19.6590 -2.4953 0.0664 0 8
-31.5829 -20.1697 -2.4953 0.0664 0 8
-31.2543 -20.6748 -2.4953 0.0664 0 8
-30.9176 -21.1754 -2.4953 0.0664 0 8
-30.5729 -21.6641 -2.4953 0.0664 0 8
-30.2203 -22.1591 -2.4953 0.0664 0 8
-29.8599 -22.6424 -2.4953 0.0664 0 8
-29.4918 -23.1199 -2.4953 0.0664 0 8
-29.1160 -23.5913 -2.4953 0.0664 0 8
-28.7327 -24.0567 -2.4953 0.0664 0 8
-28.3420 -24.5159 -2.4953 0.0664 0 8
-27.9439 -24.9687 -2.4953 0.0664 0 8
-27.5385 -25.4150 -2.4953 0.0664 0 8
-27.1261 -25.8547 -2.4953 0.0664 0 8
-26.7067 -26.2878 -2.4953 0.0664 0 8
-26.2803 -26.7141 -2.4953 0.0664 0 8
-25.8471 -27.1334 -2.4953 0.0664 0 8
-25.4072 -27.5457 -2.4953 0.0664 0 8
-24.9608 -27.9509 -2.4953 0.0664 0 8
-24.5079 -28.3489 -2.4953 0.0664 0 8
-24.0486 -28.7395 -2.4953 0.0664 0 8
-23.5831 -29.1227 -2.4953 0.0664 0 8
-23.1115 -29.4983 -2.4953 0.0664 0 8
-22.6340 -29.8663 -2.4953 0.0664 0 8
-22.1506 -30.2266 -2.4953 0.0664 0 8
-21.6614 -30.5790 -2.4953 0.0664 0 8
-21.1666 -30.9236 -2.4953 0.0664 0 8
-20.6664 -31.2601 -2.4953 0.0664 0 8
-20.1608 -31.5885 -2.4953 0.0664 0 8
-19.6500 -31.9088 -2.4953 0.0664 0 8
-19.1341 -32.2208 -2.4953 0.0664 0 8
-18.6133 -32.5245 -2.4953 0.0664 0 8
-18.0876 -32.8197 -2.4953 0.0664 0 8
-17.5572 -33.1065 -2.4953 0.0664 0 8
-17.0223 -33.3846 -2.4953 0.0664 0 8
-16.4830 -33.6542 -2.4953 0.0664 0 8
-15.9395 -33.9150 -2.4953 0.0664 0 8
-15.3918 -34.1670 -2.4953 0.0664 0 8
-14.8401 -34.4102 -2.4953 0.0664 0 8
-14.2846 -34.6445 -2.4953 0.0664 0 8
-13.7254 -34.8699 -2.4953 0.0664 0 8
-13.1626 -35.0862 -2.4953 0.0664 0 8
-12.5964 -35.2934 -2.4953 0.0664 0 8
-12.0270 -35.4915 -2.4953 0.0664 0 8
-11.4545 -35.6804 -2.4953 0.0664 0 8
-10.8789 -35.8600 -2.4953 0.0664 0 8
-10.3006 -36.0304 -2.4953 0.0664 0 8
-9.7196 -36.1912 -2.4953 0.0664 0 8
-9.1361 -36.3432 -2.4953 0.0664 0 8
-8.5502 -36.4854 -2.4953 0.0664 0 8
-7.9621 -36.6183 -2.4953 0.0664 0 8
-7.3720 -36.7416 -2.4953 0.0664 0 8
-6.7799 -36.8555 -2.4953 0.0664 0 8
-6.1861 -36.9598 -2.4953 0.0664 0 8
-5.5907 -37.0545 -2.4953 0.0664 0 8
-4.9938 -37.1397 -2.4953 0.0664 0 8
-4.3957 -37.2152 -2.4953 0.0664 0 8
-3.7964 -37.2811 -2.4953 0.0664 0 8
-3.1961 -37.3374 -2.4953 0.0664 0 8
-2.5950 -37.3839 -2.4953 0.0664 0 8
-1.9932 -37.4209 -2.4953 0.0664 0 8
-1.3909 -37.4481 -2.4953 0.0664 0 8
-0.7883 -37.4656 -2.4953 0.0664 0 8
-0.1854 -37.4734 -2.4953 0.0664 0 8
0.4175 -37.4716 -2.4953 0.0664 0 8
1.0203 -37.4600 -2.4953 0.0664 0 8
1.6228 -37.4387 -2.4953 0.0664 0 8
2.2249 -37.4078 -2.4953 0.0664 0 8
2.8265 -37.3672 -2.4953 0.0664 0 8
3.4273 -37.3168 -2.4953 0.0664 0 8
4.0272 -37.2569 -2.4953 0.0664 0 8
4.6260 -37.1873 -2.4953 0.0664 0 8
5.2237 -37.1080 -2.4953 0.0664 0 8
5.8200 -37.0192 -2.4953 0.0664 0 8
6.4149 -36.9208 -2.4953 0.0664 0 8
7.0080 -36.8128 -2.4953 0.0664 0 8
7.5994 -36.6953 -2.4953 0.0664 0 8
8.1887 -36.5683 -2.4953 0.0664 0 8
8.7760 -36.4318 -2.4953 0.0664 0 8
9.3610 -36.2859 -2.4953 0.0664 0 8
9.9436 -36.1306 -2.4953 0.0664 0 8
10.5235 -35.9659 -2.4953 0.0664 0 8
11.1008 -35.7920 -2.4953 0.0664 0 8
11.6752 -35.6088 -2.4953 0.0664 0 8
12.2465 -35.4163 -2.4953 0.0664 0 8
12.8147 -35.2147 -2.4953 0.0664 0 8
13.3796 -35.0040 -2.4953 0.0664 0 8
13.9410 -34.7842 -2.4953 0.0664 0 8
14.4988 -34.5554 -2.4953 0.0664 0 8
15.0529 -34.3181 -2.4953 0.0664 0 8
-21.1806 28.2779 -2.6477 0.0747 0 7
-21.6328 27.9335 -2.6477 0.0747 0 7
-22.0795 27.5819 -2.6477 0.0747 0 7
-22.5203 27.2231 -2.6477 0.0747 0 7
-22.9554 26.8572 -2.6477 0.0747 0 7
-23.3845 26.4844 -2.6477 0.0747 0 7
-23.8076 26.1048 -2.6477 0.0747 0 7
-24.2245 25.7184 -2.6477 0.0747 0 7
-24.6351 25.3254 -2.6477 0.0747 0 7
-25.0393 24.9257 -2.6477 0.0747 0 7
-25.4371 24.5197 -2.6477 0.0747 0 7
-25.8283 24.1073 -2.6477 0.0747 0 7
-26.2128 23.6886 -2.6477 0.0747 0 7
-25.1365 21.9917 -2.5029 0.0747 0 14
-25.4870 21.5845 -2.5029 0.0747 0 14
-25.8310 21.1716 -2.5029 0.0747 0 14
-26.1683 20.7533 -2.5029 0.0747 0 14
-26.4988 20.3297 -2.5029 0.0747 0 14
-26.8224 19.9007 -2.5029 0.0747 0 14
-27.1391 19.4666 -2.5029 0.0747 0 14
-27.4487 19.0275 -2.5029 0.0747 0 8
-28.1871 18.8752 -2.5422 0.5614 0 8
-29.1705 18.8612 -2.6032 0.5483 0 8
-29.9738 18.7037 -2.6477 0.0747 0 7
-30.2709 18.2191 -2.6477 0.0747 0 7
-30.5601 17.7297 -2.6477 0.0747 0 7
-30.8414 17.2358 -2.6477 0.0747 0 6
-31.1146 16.7374 -2.6477 0.0747 0 7
-31.3799 16.2346 -2.6477 0.0747 0 7
-31.6370 15.7277 -2.6477 0.0747 0 7
-31.8860 15.2166 -2.6477 0.0747 0 7
-32.1266 14.7017 -2.6477 0.0747 0 7
-32.3590 14.1829 -2.6477 0.0747 0 7
-32.5830 13.6605 -2.6477 0.0747 0 7
-32.7986 13.1345 -2.6477 0.0747 0 7
-33.0056 12.6052 -2.6477 0.0747 0 7
-33.2041 12.0725 -2.6477 0.0747 0 7
-33.3941 11.5368 -2.6477 0.0747 0 7
-33.5754 10.9980 -2.6477 0.0747 0 7
-33.7479 10.4564 -2.6477 0.0747 0 6
-33.9118 9.9122 -2.6477 0.0747 0 7
-34.0669 9.3653 -2.6477 0.0747 0 7
-34.2131 8.8160 -2.6477 0.0747 0 7
-32.3733 7.7888 -2.4953 0.0747 0 8
-32.4944 7.2669 -2.4953 0.0747 0 8
-32.6071 6.7432 -2.4953 0.0747 0 8
-32.7114 6.2177 -2.4953 0.0747 0 8
-32.8072 5.6906 -2.4953 0.0747 0 8
-32.8945 5.1621 -2.4953 0.0747 0 8
-32.9733 4.6322 -2.4953 0.0747 0 8
-33.0435 4.1011 -2.4953 0.0747 0 8
-33.1053 3.5690 -2.4953 0.0747 0 8
-33.1584 3.0359 -2.4953 0.0747 0 8
-33.2030 2.5021 -2.4953 0.0747 0 8
-33.2389 1.9676 -2.4953 0.0747 0 8
-33.2663 1.4326 -2.4953 0.0747 0 8
-33.2850 0.8972 -2.4953 0.0747 0 8
-33.2951 0.3616 -2.4953 0.0747 0 8
-33.2966 -0.1741 -2.4953 0.0747 0 8
-33.2895 -0.7098 -2.4953 0.0747 0 8
-33.2738 -1.2453 -2.4953 0.0747 0 8
-33.2495 -1.7804 -2.4953 0.0747 0 8
-33.2165 -2.3151 -2.4953 0.0747 0 8
-33.1750 -2.8492 -2.4953 0.0747 0 8
-33.1248 -3.3826 -2.4953 0.0747 0 8
-33.0661 -3.9150 -2.4953 0.0747 0 8
-32.9989 -4.4465 -2.4953 0.0747 0 8
-32.9231 -4.9768 -2.4953 0.0747 0 8
-32.8387 -5.5058 -2.4953 0.0747 0 8
-32.7459 -6.0334 -2.4953 0.0747 0 8
-32.6446 -6.5595 -2.4953 0.0747 0 8
-32.5348 -7.0838 -2.4953 0.0747 0 8
-32.4167 -7.6063 -2.4953 0.0747 0 8
-32.2901 -8.1269 -2.4953 0.0747 0 8
-32.1552 -8.6453 -2.4953 0.0747 0 8
-32.0120 -9.1615 -2.4953 0.0747 0 8
-31.8604 -9.6754 -2.4953 0.0747 0 8
-31.7006 -10.1867 -2.4953 0.0747 0 8
-31.5326 -10.6954 -2.4953 0.0747 0 8
-31.3565 -11.2023 -2.4953 0.0747 0 8
-31.1722 -11.7045 -2.4953 0.0747 0 8
-30.9799 -12.2043 -2.4953 0.0747 0 8
-30.7795 -12.7011 -2.4953 0.0747 0 8
-30.5712 -13.1946 -2.4953 0.0747 0 8
-30.3550 -13.6848 -2.4953 0.0747 0 8
-30.1309 -14.1713 -2.4953 0.0747 0 8
-29.8990 -14.6543 -2.4953 0.0747 0 8
-29.6594 -15.1334 -2.4953 0.0747 0 8
-29.4120 -15.6086 -2.4953 0.0747 0 8
-29.1571 -16.0798 -2.4953 0.0747 0 8
-28.8946 -16.5468 -2.4953 0.0747 0 8
-28.6247 -17.0095 -2.4953 0.0747 0 8
-28.3474 -17.4678 -2.4953 0.0747 0 8
-28.0626 -17.9216 -2.4953 0.0747 0 8
-27.7707 -18.3708 -2.4953 0.0747 0 8
-27.4716 -18.8152 -2.4953 0.0747 0 8
-27.1653 -19.2547 -2.4953 0.0747 0 8
-26.8520 -19.6892 -2.4953 0.0747 0 8
-26.5318 -20.1187 -2.4953 0.0747 0 8
-26.2047 -20.5429 -2.4953 0.0747 0 8
-25.8708 -20.9619 -2.4953 0.0747 0 8
-25.5302 -21.3754 -2.4953 0.0747 0 8
-25.1830 -21.7833 -2.4953 0.0747 0 8
-24.8293 -22.1857 -2.4953 0.0747 0 8
-24.4691 -22.5823 -2.4953 0.0747 0 8
-24.1027 -22.9730 -2.4953 0.0747 0 8
-23.7300 -23.3578 -2.4953 0.0747 0 8
-23.3511 -23.7365 -2.4953 0.0747 0 8
-22.9662 -24.1091 -2.4953 0.0747 0 8
-22.5754 -24.4755 -2.4953 0.0747 0 8
-22.1787 -24.8355 -2.4953 0.0747 0 8
-21.7762 -25.1891 -2.4953 0.0747 0 8
-21.3682 -25.5362 -2.4953 0.0747 0 8
-20.9546 -25.8767 -2.4953 0.0747 0 8
-20.5355 -26.2105 -2.4953 0.0747 0 8
-20.1112 -26.5375 -2.4953 0.0747 0 8
-19.6817 -26.8576 -2.4953 0.0747 0 8
-19.2470 -27.1707 -2.4953 0.0747 0 8
-18.8074 -27.4768 -2.4953 0.0747 0 8
-18.3629 -27.7759 -2.4953 0.0747 0 8
-17.9137 -28.0677 -2.4953 0.0747 0 8
-17.4598 -28.3523 -2.4953 0.0747 0 8
-17.0014 -28.6295 -2.4953 0.0747 0 8
-16.5386 -28.8993 -2.4953 0.0747 0 8
-16.0716 -29.1616 -2.4953 0.0747 0 8
-15.6000 -29.4172 -2.4953 0.0747 0 8
-15.1250 -29.6636 -2.4953 0.0747 0 8
-14.6458 -29.9031 -2.4953 0.0747 0 8
-14.1629 -30.1349 -2.4953 0.0747 0 8
-13.6762 -30.3588 -2.4953 0.0747 0 8
-13.1860 -30.5749 -2.4953 0.0747 0 8
-12.6924 -30.7832 -2.4953 0.0747 0 8
-12.1955 -30.9833 -2.4953 0.0747 0 8
-11.6955 -31.1755 -2.4953 0.0747 0 8
-11.1924 -31.3596 -2.4953 0.0747 0 8
-10.6865 -31.5356 -2.4953 0.0747 0 8
-10.1778 -31.7035 -2.4953 0.0747 0 8
-9.6664 -31.8631 -2.4953 0.0747 0 8
-9.1525 -32.0150 -2.4953 0.0747 0 8
-8.6363 -32.1576 -2.4953 0.0747 0 8
-8.1178 -32.2924 -2.4953 0.0747 0 8
-7.5972 -32.4188 -2.4953 0.0747 0 8
-7.0747 -32.5368 -2.4953 0.0747 0 8
-6.5503 -32.6464 -2.4953 0.0747 0 8
-6.0242 -32.7476 -2.4953 0.0747 0 8
-5.4966 -32.8403 -2.4953 0.0747 0 8
-4.9675 -32.9245 -2.4953 0.0747 0 8
-4.4372 -33.0001 -2.4953 0.0747 0 8
-3.9057 -33.0672 -2.4953 0.0747 0 8
-3.3732 -33.1258 -2.4953 0.0747 0 8
-2.8399 -33.1758 -2.4953 0.0747 0 8
-2.3058 -33.2172 -2.4953 0.0747 0 8
-1.7711 -33.2500 -2.4953 0.0747 0 8
-1.2359 -33.2742 -2.4953 0.0747 0 8
-0.7004 -33.2897 -2.4953 0.0747 0 8
-0.1648 -33.2967 -2.4953 0.0747 0 8
0.3709 -33.2950 -2.4953 0.0747 0 8
0.9066 -33.2848 -2.4953 0.0747 0 8
1.4419 -33.2659 -2.4953 0.0747 0 8
1.9769 -33.2384 -2.4953 0.0747 0 8
2.5114 -33.2022 -2.4953 0.0747 0 8
3.0453 -33.1575 -2.4953 0.0747 0 8
3.5783 -33.1043 -2.4953 0.0747 0 8
4.1104 -33.0424 -2.4953 0.0747 0 8
4.6415 -32.9720 -2.4953 0.0747 0 8
5.1713 -32.8931 -2.4953 0.0747 0 8
5.6999 -32.8056 -2.4953 0.0747 0 8
6.2269 -32.7097 -2.4953 0.0747 0 8
6.7524 -32.6053 -2.4953 0.0747 0 8
7.2760 -32.4924 -2.4953 0.0747 0 8
7.7978 -32.3711 -2.4953 0.0747 0 8
8.3176 -32.2415 -2.4953 0.0747 0 8
8.8353 -32.1035 -2.4953 0.0747 0 8
9.3506 -31.9572 -2.4953 0.0747 0 8
9.8635 -31.8026 -2.4953 0.0747 0 8
10.3739 -31.6398 -2.4953 0.0747 0 8
10.8815 -31.4688 -2.4953 0.0747 0 8
11.3864 -31.2897 -2.4953 0.0747 0 8
11.8884 -31.1025 -2.4953 0.0747 0 8
12.3872 -30.9072 -2.4953 0.0747 0 8
12.8828 -30.7039 -2.4953 0.0747 0 8
13.3751 -30.4927 -2.4953 0.0747 0 8
-19.0542 25.4389 -2.6477 0.0830 0 7
-19.4610 25.1291 -2.6477 0.0830 0 7
-19.8628 24.8128 -2.6477 0.0830 0 7
-20.2594 24.4900 -2.6477 0.0830 0 7
-20.6508 24.1609 -2.6477 0.0830 0 7
-21.0368 23.8255 -2.6477 0.0830 0 7
-20.2526 22.2068 -2.5037 0.5807 0 8
-20.6008 21.8713 -2.5029 0.0830 0 14
-20.9500 21.5370 -2.5029 0.0830 0 14
-21.2938 21.1972 -2.5029 0.0830 0 14
-21.6320 20.8518 -2.5029 0.0830 0 14
-21.9647 20.5011 -2.5029 0.0830 0 14
-22.2917 20.1451 -2.5029 0.0830 0 14
-22.6129 19.7839 -2.5029 0.0830 0 14
-22.9282 19.4175 -2.5029 0.0830 0 14
-23.2471 19.0538 -2.5039 0.5069 0 8
-23.8177 18.8892 -2.5323 0.6261 0 8
-24.6059 18.8775 -2.5835 0.6137 0 8
-25.4268 18.8652 -2.6375 0.6012 0 8
-25.8267 18.5252 -2.6477 0.0830 0 7
-26.1214 18.1073 -2.6477 0.0830 0 7
-26.4093 17.6848 -2.6477 0.0830 0 7
-26.6904 17.2576 -2.6477 0.0830 0 7
-26.9646 16.8260 -2.6477 0.0830 0 7
-27.2318 16.3900 -2.6477 0.0830 0 7
-27.4920 15.9497 -2.6477 0.0830 0 7
-27.7450 15.5054 -2.6477 0.0830 0 7
-27.9909 15.0570 -2.6477 0.0830 0 7
-28.2295 14.6047 -2.6477 0.0830 0 7
-28.4608 14.1487 -2.6477 0.0830 0 7
-28.6848 13.6890 -2.6477 0.0830 0 7
-28.9013 13.2257 -2.6477 0.0830 0 7
-29.1103 12.7590 -2.6477 0.0830 0 7
-29.3118 12.2890 -2.6477 0.0830 0 7
-29.5057 11.8159 -2.6477 0.0830 0 7
-29.6920 11.3396 -2.6477 0.0830 0 6
-29.8706 10.8605 -2.6477 0.0830 0 7
-30.0415 10.3785 -2.6477 0.0830 0 7
-30.2045 9.8939 -2.6477 0.0830 0 7
-30.3598 9.4067 -2.6477 0.0830 0 7
-30.5072 8.9170 -2.6477 0.0830 0 7
-28.8827 7.9401 -2.4953 0.0830 0 8
-29.0067 7.4744 -2.4953 0.0830 0 8
-29.1232 7.0068 -2.4953 0.0830 0 8
-29.2321 6.5373 -2.4953 0.0830 0 8
-29.3335 6.0662 -2.4953 0.0830 0 8
-29.4273 5.5935 -2.4953 0.0830 0 8
-29.5135 5.1194 -2.4953 0.0830 0 8
-29.5921 4.6439 -2.4953 0.0830 0 8
-29.6629 4.1672 -2.4953 0.0830 0 8
-29.7261 3.6894 -2.4953 0.0830 0 8
-29.7817 3.2107 -2.4953 0.0830 0 8
-29.8294 2.7311 -2.4953 0.0830 0 8
-29.8695 2.2509 -2.4953 0.0830 0 8
-29.9019 1.7700 -2.4953 0.0830 0 8
-29.9265 1.2888 -2.4953 0.0830 0 8
