ply
format ascii 1.0
element vertex 1401
property float32 x
property float32 y
property float32 z
property float32 CosAngle
property uint32 ObjIdx
property uint32 ObjTag
end_header
0.9114 26.4438 -2.6477 0.0996 0 7
0.4856 26.4551 -2.6477 0.0996 0 7
0.0597 26.4594 -2.6477 0.0996 0 6
-0.3663 26.4570 -2.6477 0.0996 0 6
-0.7922 26.4477 -2.6477 0.0996 0 6
-1.2179 26.4315 -2.6477 0.0996 0 6
-1.6432 26.4084 -2.6477 0.0996 0 6
21.6493 7.7805 -2.4953 0.1078 0 8
21.5212 8.1280 -2.4953 0.1078 0 8
21.3876 8.4734 -2.4953 0.1078 0 8
22.5462 9.3551 -2.6477 0.1078 0 7
22.3926 9.7169 -2.6477 0.1078 0 7
22.2333 10.0761 -2.6477 0.1078 0 7
22.0682 10.4327 -2.6477 0.1078 0 7
21.8974 10.7866 -2.6477 0.1078 0 7
21.7209 11.1377 -2.6477 0.1078 0 7
21.5388 11.4860 -2.6477 0.1078 0 6
21.3511 11.8312 -2.6477 0.1078 0 7
21.1579 12.1734 -2.6477 0.1078 0 7
20.9592 12.5124 -2.6477 0.1078 0 7
20.7550 12.8482 -2.6477 0.1078 0 7
20.5455 13.1807 -2.6477 0.1078 0 7
20.3307 13.5097 -2.6477 0.1078 0 7
20.1105 13.8353 -2.6477 0.1078 0 7
19.8852 14.1572 -2.6477 0.1078 0 7
19.6547 14.4755 -2.6477 0.1078 0 7
19.4192 14.7900 -2.6477 0.1078 0 7
19.1785 15.1007 -2.6477 0.1078 0 7
18.9330 15.4075 -2.6477 0.1078 0 7
18.6825 15.7103 -2.6477 0.1078 0 7
18.4271 16.0090 -2.6477 0.1078 0 7
18.1670 16.3036 -2.6477 0.1078 0 7
17.9022 16.5939 -2.6477 0.1078 0 7
17.6328 16.8800 -2.6477 0.1078 0 7
17.3587 17.1616 -2.6477 0.1078 0 7
17.0802 17.4389 -2.6477 0.1078 0 7
16.7973 17.7116 -2.6477 0.1078 0 7
16.5100 17.9797 -2.6477 0.1078 0 7
16.2184 18.2431 -2.6477 0.1078 0 7
15.9226 18.5019 -2.6477 0.1078 0 6
15.6227 18.7558 -2.6477 0.1078 0 7
15.2964 18.9772 -2.6438 0.7790 0 8
14.8025 18.9819 -2.6109 0.7888 0 8
14.3205 18.9864 -2.5795 0.7984 0 8
13.8498 18.9907 -2.5495 0.8079 0 8
13.3897 18.9947 -2.5207 0.8171 0 8
12.9896 19.0719 -2.5029 0.1078 0 8
12.6809 19.2785 -2.5029 0.1078 0 14
12.3689 19.4801 -2.5029 0.1078 0 14
12.0537 19.6767 -2.5029 0.1078 0 14
11.7354 19.8682 -2.5029 0.1078 0 14
11.4140 20.0546 -2.5029 0.1078 0 14
11.0897 20.2357 -2.5029 0.1078 0 14
10.7625 20.4116 -2.5029 0.1078 0 14
10.4325 20.5822 -2.5029 0.1078 0 14
10.0998 20.7475 -2.5029 0.1078 0 14
9.7645 20.9074 -2.5029 0.1078 0 14
9.4266 21.0619 -2.5029 0.1078 0 14
9.0863 21.2109 -2.5029 0.1078 0 14
8.7437 21.3545 -2.5029 0.1078 0 14
8.3988 21.4925 -2.5029 0.1078 0 14
8.0517 21.6249 -2.5029 0.1078 0 14
7.7026 21.7517 -2.5029 0.1078 0 14
7.3514 21.8729 -2.5029 0.1078 0 14
6.9983 21.9884 -2.5029 0.1078 0 14
6.6434 22.0982 -2.5029 0.1078 0 14
6.2868 22.2023 -2.5029 0.1078 0 14
5.9286 22.3006 -2.5029 0.1078 0 8
5.5688 22.3932 -2.5029 0.1078 0 8
5.5088 23.7803 -2.6477 0.1078 0 7
5.1253 23.8659 -2.6477 0.1078 0 7
4.7405 23.9453 -2.6477 0.1078 0 7
4.3544 24.0185 -2.6477 0.1078 0 7
3.9671 24.0855 -2.6477 0.1078 0 7
3.5789 24.1462 -2.6477 0.1078 0 7
3.1897 24.2007 -2.6477 0.1078 0 7
2.7997 24.2489 -2.6477 0.1078 0 7
2.4090 24.2908 -2.6477 0.1078 0 7
2.0176 24.3265 -2.6477 0.1078 0 7
1.6257 24.3558 -2.6477 0.1078 0 7
1.2334 24.3788 -2.6477 0.1078 0 7
0.8408 24.3955 -2.6477 0.1078 0 7
0.4480 24.4059 -2.6477 0.1078 0 7
0.0550 24.4099 -2.6477 0.1078 0 7
-0.3379 24.4077 -2.6477 0.1078 0 7
-0.7308 24.3991 -2.6477 0.1078 0 7
-1.1235 24.3841 -2.6477 0.1078 0 7
-1.5159 24.3629 -2.6477 0.1078 0 7
20.0903 7.2203 -2.4953 0.1161 0 8
19.9715 7.5427 -2.4953 0.1161 0 8
19.8475 7.8633 -2.4953 0.1161 0 8
19.7183 8.1818 -2.4953 0.1161 0 8
19.5841 8.4981 -2.4953 0.1161 0 8
20.6323 9.3505 -2.6477 0.1161 0 7
20.4791 9.6815 -2.6477 0.1161 0 7
20.3206 10.0099 -2.6477 0.1161 0 7
20.1568 10.3357 -2.6477 0.1161 0 7
19.9878 10.6589 -2.6477 0.1161 0 7
19.8137 10.9793 -2.6477 0.1161 0 7
19.6343 11.2968 -2.6477 0.1161 0 7
19.4499 11.6114 -2.6477 0.1161 0 7
19.2605 11.9230 -2.6477 0.1161 0 7
19.0661 12.2316 -2.6477 0.1161 0 7
18.8667 12.5369 -2.6477 0.1161 0 7
18.6624 12.8390 -2.6477 0.1161 0 7
18.4533 13.1378 -2.6477 0.1161 0 7
18.2394 13.4331 -2.6477 0.1161 0 7
18.0208 13.7250 -2.6477 0.1161 0 7
17.7975 14.0133 -2.6477 0.1161 0 7
17.5696 14.2980 -2.6477 0.1161 0 7
17.3372 14.5790 -2.6477 0.1161 0 7
17.1002 14.8562 -2.6477 0.1161 0 7
16.8588 15.1296 -2.6477 0.1161 0 7
16.6131 15.3990 -2.6477 0.1161 0 7
16.3630 15.6645 -2.6477 0.1161 0 7
16.1088 15.9259 -2.6477 0.1161 0 7
15.8503 16.1831 -2.6477 0.1161 0 7
15.5877 16.4362 -2.6477 0.1161 0 7
15.3211 16.6850 -2.6477 0.1161 0 7
15.0505 16.9295 -2.6477 0.1161 0 7
14.7760 17.1696 -2.6477 0.1161 0 7
14.4977 17.4052 -2.6477 0.1161 0 7
14.2156 17.6364 -2.6477 0.1161 0 7
13.9299 17.8629 -2.6477 0.1161 0 7
13.6405 18.0849 -2.6477 0.1161 0 7
13.3476 18.3021 -2.6477 0.1161 0 7
13.0512 18.5146 -2.6477 0.1161 0 6
12.7515 18.7223 -2.6477 0.1161 0 7
12.4484 18.9251 -2.6477 0.1161 0 7
12.0458 18.9714 -2.6267 0.8442 0 8
11.6238 18.9750 -2.6009 0.8525 0 8
11.2097 18.9784 -2.5763 0.8607 0 8
10.8033 18.9816 -2.5528 0.8686 0 8
10.4040 18.9846 -2.5304 0.8763 0 8
10.0122 18.9887 -2.5091 0.7024 0 8
9.6812 19.1001 -2.5029 0.1161 0 8
9.3725 19.2535 -2.5029 0.1161 0 14
9.0613 19.4019 -2.5029 0.1161 0 14
8.7478 19.5453 -2.5029 0.1161 0 14
8.4320 19.6836 -2.5029 0.1161 0 14
8.1141 19.8168 -2.5029 0.1161 0 14
7.7940 19.9448 -2.5029 0.1161 0 14
7.4719 20.0677 -2.5029 0.1161 0 14
7.1479 20.1854 -2.5029 0.1161 0 14
6.8220 20.2978 -2.5029 0.1161 0 14
6.4944 20.4050 -2.5029 0.1161 0 14
6.1651 20.5069 -2.5029 0.1161 0 14
5.8341 20.6035 -2.5029 0.1161 0 14
5.5017 20.6948 -2.5029 0.1161 0 14
5.1678 20.7807 -2.5029 0.1161 0 14
4.8326 20.8612 -2.5029 0.1161 0 14
4.4962 20.9362 -2.5029 0.1161 0 14
4.1586 21.0059 -2.5029 0.1161 0 14
3.8198 21.0701 -2.5029 0.1161 0 14
3.4802 21.1289 -2.5029 0.1161 0 14
3.1396 21.1822 -2.5029 0.1161 0 14
2.7982 21.2300 -2.5029 0.1161 0 14
2.4560 21.2723 -2.5029 0.1161 0 14
2.1133 21.3091 -2.5029 0.1161 0 14
1.7700 21.3403 -2.5029 0.1161 0 14
1.4262 21.3660 -2.5029 0.1161 0 14
1.0820 21.3862 -2.5029 0.1161 0 14
0.7376 21.4009 -2.5029 0.1161 0 14
0.3930 21.4100 -2.5029 0.1161 0 14
0.0483 21.4135 -2.5029 0.1161 0 14
-0.2965 21.4115 -2.5029 0.1161 0 14
-0.6411 21.4040 -2.5029 0.1161 0 14
-0.9856 21.3909 -2.5029 0.1161 0 14
-1.3298 21.3723 -2.5029 0.1161 0 14
18.7384 6.7344 -2.4953 0.1243 0 8
18.6276 7.0352 -2.4953 0.1243 0 8
18.5119 7.3341 -2.4953 0.1243 0 8
18.3914 7.6312 -2.4953 0.1243 0 8
18.2662 7.9263 -2.4953 0.1243 0 8
18.1362 8.2193 -2.4953 0.1243 0 8
19.1010 9.0300 -2.6477 0.1243 0 7
18.9532 9.3363 -2.6477 0.1243 0 7
18.8004 9.6402 -2.6477 0.1243 0 7
18.6428 9.9416 -2.6477 0.1243 0 7
18.4803 10.2404 -2.6477 0.1243 0 7
18.3131 10.5366 -2.6477 0.1243 0 7
18.1411 10.8301 -2.6477 0.1243 0 7
17.9644 11.1207 -2.6477 0.1243 0 7
17.7830 11.4085 -2.6477 0.1243 0 7
17.5971 11.6932 -2.6477 0.1243 0 7
17.4065 11.9750 -2.6477 0.1243 0 7
17.2115 12.2537 -2.6477 0.1243 0 7
17.0120 12.5292 -2.6477 0.1243 0 7
16.8081 12.8014 -2.6477 0.1243 0 7
16.5999 13.0703 -2.6477 0.1243 0 7
16.3873 13.3359 -2.6477 0.1243 0 7
16.1705 13.5979 -2.6477 0.1243 0 7
15.9495 13.8565 -2.6477 0.1243 0 7
15.7243 14.1115 -2.6477 0.1243 0 7
15.4951 14.3628 -2.6477 0.1243 0 7
15.2619 14.6104 -2.6477 0.1243 0 7
15.0247 14.8542 -2.6477 0.1243 0 7
14.7837 15.0941 -2.6477 0.1243 0 7
14.5388 15.3301 -2.6477 0.1243 0 7
14.2901 15.5622 -2.6477 0.1243 0 7
14.0377 15.7902 -2.6477 0.1243 0 7
13.7817 16.0142 -2.6477 0.1243 0 7
13.5221 16.2340 -2.6477 0.1243 0 7
13.2590 16.4496 -2.6477 0.1243 0 7
12.9925 16.6609 -2.6477 0.1243 0 7
12.7226 16.8679 -2.6477 0.1243 0 7
12.4494 17.0705 -2.6477 0.1243 0 7
12.1730 17.2687 -2.6477 0.1243 0 7
11.8934 17.4624 -2.6477 0.1243 0 7
11.6108 17.6516 -2.6477 0.1243 0 7
11.3251 17.8362 -2.6477 0.1243 0 7
11.0365 18.0162 -2.6477 0.1243 0 7
10.7450 18.1916 -2.6477 0.1243 0 7
10.4508 18.3622 -2.6477 0.1243 0 7
10.1538 18.5281 -2.6477 0.1243 0 7
9.8542 18.6891 -2.6477 0.1243 0 7
9.5521 18.8453 -2.6477 0.1243 0 7
9.2299 18.9606 -2.6426 0.8987 0 8
8.8565 18.9632 -2.6228 0.9055 0 8
8.4884 18.9657 -2.6039 0.9121 0 8
8.1255 18.9680 -2.5859 0.9184 0 8
7.7675 18.9702 -2.5688 0.9245 0 8
7.4139 18.9722 -2.5526 0.9304 0 8
7.0647 18.9741 -2.5372 0.9360 0 8
6.7196 18.9758 -2.5227 0.9414 0 8
6.3786 18.9786 -2.5091 0.7524 0 8
6.0574 19.0319 -2.5029 0.1243 0 8
5.7524 19.1344 -2.5039 0.7593 0 8
5.4415 19.2170 -2.5029 0.1243 0 14
5.1315 19.3021 -2.5029 0.1243 0 14
4.8201 19.3823 -2.5029 0.1243 0 14
4.5074 19.4573 -2.5029 0.1243 0 14
4.1936 19.5274 -2.5029 0.1243 0 14
3.8787 19.5924 -2.5029 0.1243 0 14
3.5628 19.6523 -2.5029 0.1243 0 14
3.2460 19.7071 -2.5029 0.1243 0 14
2.9283 19.7568 -2.5029 0.1243 0 14
2.6099 19.8013 -2.5029 0.1243 0 14
2.2907 19.8408 -2.5029 0.1243 0 14
1.9711 19.8751 -2.5029 0.1243 0 14
1.6508 19.9043 -2.5029 0.1243 0 14
1.3302 19.9283 -2.5029 0.1243 0 14
1.0092 19.9471 -2.5029 0.1243 0 14
0.6880 19.9607 -2.5029 0.1243 0 14
0.3665 19.9692 -2.5029 0.1243 0 14
0.0450 19.9726 -2.5029 0.1243 0 14
-0.2765 19.9707 -2.5029 0.1243 0 14
-0.5980 19.9636 -2.5029 0.1243 0 14
-0.9193 19.9514 -2.5029 0.1243 0 14
-1.2403 19.9340 -2.5029 0.1243 0 14
17.5546 6.3089 -2.4953 0.1326 0 8
17.4508 6.5907 -2.4953 0.1326 0 8
17.3424 6.8708 -2.4953 0.1326 0 8
17.2296 7.1491 -2.4953 0.1326 0 8
17.1122 7.4255 -2.4953 0.1326 0 8
16.9905 7.7000 -2.4953 0.1326 0 8
16.8643 7.9726 -2.4953 0.1326 0 8
16.7338 8.2430 -2.4953 0.1326 0 8
17.6127 9.0312 -2.6477 0.1326 0 7
17.4650 9.3135 -2.6477 0.1326 0 7
17.3129 9.5935 -2.6477 0.1326 0 7
17.1562 9.8710 -2.6477 0.1326 0 7
16.9950 10.1459 -2.6477 0.1326 0 7
16.8295 10.4181 -2.6477 0.1326 0 7
16.6596 10.6877 -2.6477 0.1326 0 7
16.4854 10.9545 -2.6477 0.1326 0 7
16.3069 11.2185 -2.6477 0.1326 0 7
16.1242 11.4796 -2.6477 0.1326 0 6
15.9373 11.7376 -2.6477 0.1326 0 7
15.7463 11.9927 -2.6477 0.1326 0 7
15.5512 12.2446 -2.6477 0.1326 0 7
15.3521 12.4934 -2.6477 0.1326 0 7
15.1489 12.7389 -2.6477 0.1326 0 7
14.9419 12.9811 -2.6477 0.1326 0 7
14.7310 13.2200 -2.6477 0.1326 0 7
14.5163 13.4554 -2.6477 0.1326 0 7
14.2978 13.6874 -2.6477 0.1326 0 7
14.0756 13.9158 -2.6477 0.1326 0 7
13.8497 14.1406 -2.6477 0.1326 0 7
13.6203 14.3617 -2.6477 0.1326 0 7
13.3873 14.5791 -2.6477 0.1326 0 7
13.1509 14.7927 -2.6477 0.1326 0 7
12.9111 15.0025 -2.6477 0.1326 0 6
12.6678 15.2084 -2.6477 0.1326 0 7
12.4214 15.4104 -2.6477 0.1326 0 7
12.1717 15.6083 -2.6477 0.1326 0 7
11.9188 15.8022 -2.6477 0.1326 0 7
11.6629 15.9921 -2.6477 0.1326 0 7
11.4040 16.1777 -2.6477 0.1326 0 7
11.1420 16.3592 -2.6477 0.1326 0 7
10.8773 16.5365 -2.6477 0.1326 0 7
10.6096 16.7094 -2.6477 0.1326 0 7
10.3393 16.8781 -2.6477 0.1326 0 7
10.0662 17.0423 -2.6477 0.1326 0 7
9.7905 17.2022 -2.6477 0.1326 0 7
9.5124 17.3576 -2.6477 0.1326 0 7
9.2317 17.5084 -2.6477 0.1326 0 7
8.9486 17.6548 -2.6477 0.1326 0 7
8.6633 17.7966 -2.6477 0.1326 0 7
8.3756 17.9337 -2.6477 0.1326 0 7
8.0858 18.0662 -2.6477 0.1326 0 7
7.7940 18.1941 -2.6477 0.1326 0 7
7.5001 18.3172 -2.6477 0.1326 0 7
7.2042 18.4355 -2.6477 0.1326 0 6
6.9065 18.5491 -2.6477 0.1326 0 7
6.6070 18.6579 -2.6477 0.1326 0 7
6.3058 18.7618 -2.6477 0.1326 0 7
6.0029 18.8609 -2.6477 0.1326 0 7
5.6970 18.9500 -2.6469 0.9567 0 8
5.3663 18.9513 -2.6347 0.9611 0 8
5.0385 18.9525 -2.6233 0.9653 0 8
4.7135 18.9536 -2.6126 0.9693 0 8
4.3909 18.9545 -2.6026 0.9730 0 8
4.0708 18.9554 -2.5934 0.9764 0 8
3.7527 18.9561 -2.5849 0.9797 0 8
3.4367 18.9566 -2.5771 0.9826 0 8
3.1224 18.9571 -2.5700 0.9853 0 8
2.8098 18.9574 -2.5636 0.9878 0 8
2.4987 18.9576 -2.5578 0.9900 0 8
2.1888 18.9577 -2.5528 0.9920 0 8
1.8801 18.9576 -2.5483 0.9937 0 8
1.5723 18.9575 -2.5446 0.9952 0 8
1.2654 18.9572 -2.5415 0.9964 0 8
0.9591 18.9568 -2.5390 0.9974 0 8
0.6534 18.9563 -2.5372 0.9981 0 8
0.3479 18.9556 -2.5361 0.9985 0 8
0.0427 18.9549 -2.5355 0.9987 0 8
-0.2625 18.9561 -2.5359 0.9987 0 8
-0.5677 18.9544 -2.5366 0.9984 0 8
-0.8732 18.9525 -2.5379 0.9979 0 8
-1.1792 18.9507 -2.5399 0.9970 0 8
16.5093 5.9333 -2.4953 0.1408 0 8
16.4117 6.1983 -2.4953 0.1408 0 8
16.3098 6.4617 -2.4953 0.1408 0 8
16.2036 6.7234 -2.4953 0.1408 0 8
16.0933 6.9834 -2.4953 0.1408 0 8
15.9788 7.2415 -2.4953 0.1408 0 8
15.8601 7.4978 -2.4953 0.1408 0 8
15.7374 7.7522 -2.4953 0.1408 0 8
15.6105 8.0045 -2.4953 0.1408 0 8
15.4797 8.2548 -2.4953 0.1408 0 8
16.2819 9.0222 -2.6477 0.1408 0 7
16.1346 9.2832 -2.6477 0.1408 0 7
15.9831 9.5417 -2.6477 0.1408 0 7
15.8274 9.7978 -2.6477 0.1408 0 7
15.6676 10.0513 -2.6477 0.1408 0 7
15.5038 10.3022 -2.6477 0.1408 0 7
15.3359 10.5505 -2.6477 0.1408 0 7
15.1641 10.7960 -2.6477 0.1408 0 7
14.9883 11.0387 -2.6477 0.1408 0 7
14.8087 11.2786 -2.6477 0.1408 0 7
14.6252 11.5155 -2.6477 0.1408 0 6
14.4379 11.7495 -2.6477 0.1408 0 7
14.2469 11.9804 -2.6477 0.1408 0 7
14.0522 12.2082 -2.6477 0.1408 0 7
13.8538 12.4328 -2.6477 0.1408 0 7
13.6519 12.6542 -2.6477 0.1408 0 7
13.4464 12.8723 -2.6477 0.1408 0 7
13.2374 13.0871 -2.6477 0.1408 0 7
13.0250 13.2985 -2.6477 0.1408 0 7
12.8093 13.5065 -2.6477 0.1408 0 7
12.5902 13.7110 -2.6477 0.1408 0 7
12.3678 13.9119 -2.6477 0.1408 0 7
12.1423 14.1092 -2.6477 0.1408 0 7
11.9135 14.3028 -2.6477 0.1408 0 7
11.6817 14.4927 -2.6477 0.1408 0 7
11.4469 14.6789 -2.6477 0.1408 0 7
11.2091 14.8613 -2.6477 0.1408 0 7
10.9684 15.0398 -2.6477 0.1408 0 7
10.7249 15.2144 -2.6477 0.1408 0 7
10.4786 15.3851 -2.6477 0.1408 0 7
10.2296 15.5518 -2.6477 0.1408 0 7
9.9779 15.7145 -2.6477 0.1408 0 7
9.7236 15.8731 -2.6477 0.1408 0 7
9.4668 16.0275 -2.6477 0.1408 0 7
9.2076 16.1779 -2.6477 0.1408 0 7
8.9459 16.3240 -2.6477 0.1408 0 7
8.6820 16.4659 -2.6477 0.1408 0 7
8.4158 16.6035 -2.6477 0.1408 0 7
8.1474 16.7369 -2.6477 0.1408 0 7
7.8769 16.8659 -2.6477 0.1408 0 7
7.6044 16.9905 -2.6477 0.1408 0 7
7.3299 17.1107 -2.6477 0.1408 0 7
7.0535 17.2265 -2.6477 0.1408 0 7
6.7752 17.3378 -2.6477 0.1408 0 7
6.4953 17.4446 -2.6477 0.1408 0 7
6.2136 17.5469 -2.6477 0.1408 0 7
5.9303 17.6447 -2.6477 0.1408 0 7
5.6455 17.7378 -2.6477 0.1408 0 7
5.3592 17.8264 -2.6477 0.1408 0 7
5.0715 17.9104 -2.6477 0.1408 0 7
4.7826 17.9897 -2.6477 0.1408 0 7
4.4923 18.0644 -2.6477 0.1408 0 7
4.2009 18.1344 -2.6477 0.1408 0 7
3.9085 18.1996 -2.6477 0.1408 0 7
3.6150 18.2602 -2.6477 0.1408 0 7
3.3205 18.3160 -2.6477 0.1408 0 7
3.0253 18.3671 -2.6477 0.1408 0 7
2.7292 18.4134 -2.6477 0.1408 0 6
2.4324 18.4550 -2.6477 0.1408 0 6
2.1350 18.4917 -2.6477 0.1408 0 6
1.8370 18.5237 -2.6477 0.1408 0 7
1.5386 18.5509 -2.6477 0.1408 0 7
1.2398 18.5732 -2.6477 0.1408 0 7
0.9406 18.5908 -2.6477 0.1408 0 7
0.6412 18.6035 -2.6477 0.1408 0 7
0.3416 18.6114 -2.6477 0.1408 0 7
0.0420 18.6145 -2.6477 0.1408 0 7
-0.2577 18.6128 -2.6477 0.1408 0 7
-0.5573 18.6062 -2.6477 0.1408 0 7
-0.8568 18.5949 -2.6477 0.1408 0 7
-1.1560 18.5787 -2.6477 0.1408 0 7
15.5795 5.5991 -2.4953 0.1490 0 8
15.4873 5.8492 -2.4953 0.1490 0 8
15.3911 6.0977 -2.4953 0.1490 0 8
15.2910 6.3447 -2.4953 0.1490 0 8
15.1869 6.5900 -2.4953 0.1490 0 8
15.0788 6.8337 -2.4953 0.1490 0 8
14.9668 7.0755 -2.4953 0.1490 0 8
14.8510 7.3156 -2.4953 0.1490 0 8
14.7313 7.5537 -2.4953 0.1490 0 8
14.6078 7.7899 -2.4953 0.1490 0 8
14.4805 8.0240 -2.4953 0.1490 0 8
14.3494 8.2561 -2.4953 0.1490 0 8
14.2147 8.4860 -2.4953 0.1490 0 8
14.9359 9.2459 -2.6477 0.1490 0 7
14.7851 9.4852 -2.6477 0.1490 0 7
14.6305 9.7220 -2.6477 0.1490 0 7
14.4721 9.9563 -2.6477 0.1490 0 7
14.3100 10.1879 -2.6477 0.1490 0 7
14.1441 10.4170 -2.6477 0.1490 0 7
13.9746 10.6433 -2.6477 0.1490 0 7
13.8014 10.8669 -2.6477 0.1490 0 7
13.6247 11.0877 -2.6477 0.1490 0 7
13.4445 11.3056 -2.6477 0.1490 0 7
13.2607 11.5206 -2.6477 0.1490 0 6
13.0735 11.7325 -2.6477 0.1490 0 7
12.8830 11.9415 -2.6477 0.1490 0 7
12.6890 12.1473 -2.6477 0.1490 0 7
12.4919 12.3500 -2.6477 0.1490 0 7
12.2914 12.5495 -2.6477 0.1490 0 7
12.0878 12.7458 -2.6477 0.1490 0 7
11.8810 12.9387 -2.6477 0.1490 0 7
11.6712 13.1283 -2.6477 0.1490 0 7
11.4584 13.3145 -2.6477 0.1490 0 7
11.2425 13.4972 -2.6477 0.1490 0 7
11.0238 13.6765 -2.6477 0.1490 0 7
10.8022 13.8522 -2.6477 0.1490 0 7
10.5778 14.0243 -2.6477 0.1490 0 7
10.3507 14.1927 -2.6477 0.1490 0 7
10.1208 14.3575 -2.6477 0.1490 0 7
9.8884 14.5186 -2.6477 0.1490 0 7
9.6534 14.6759 -2.6477 0.1490 0 7
9.4159 14.8294 -2.6477 0.1490 0 7
9.1759 14.9790 -2.6477 0.1490 0 7
8.9336 15.1248 -2.6477 0.1490 0 7
8.6890 15.2667 -2.6477 0.1490 0 7
8.4421 15.4046 -2.6477 0.1490 0 7
8.1930 15.5385 -2.6477 0.1490 0 7
7.9418 15.6684 -2.6477 0.1490 0 7
7.6885 15.7942 -2.6477 0.1490 0 7
7.4333 15.9159 -2.6477 0.1490 0 7
7.1761 16.0335 -2.6477 0.1490 0 7
6.9170 16.1470 -2.6477 0.1490 0 7
6.6562 16.2562 -2.6477 0.1490 0 7
6.3936 16.3613 -2.6477 0.1490 0 7
6.1294 16.4621 -2.6477 0.1490 0 7
5.8636 16.5586 -2.6477 0.1490 0 7
5.5963 16.6509 -2.6477 0.1490 0 7
5.3275 16.7388 -2.6477 0.1490 0 7
5.0574 16.8224 -2.6477 0.1490 0 7
4.7859 16.9016 -2.6477 0.1490 0 7
4.5132 16.9765 -2.6477 0.1490 0 7
4.2393 17.0469 -2.6477 0.1490 0 7
3.9643 17.1130 -2.6477 0.1490 0 7
3.6883 17.1746 -2.6477 0.1490 0 7
3.4114 17.2317 -2.6477 0.1490 0 7
3.1335 17.2844 -2.6477 0.1490 0 7
2.8549 17.3326 -2.6477 0.1490 0 7
2.5755 17.3763 -2.6477 0.1490 0 7
2.2954 17.4155 -2.6477 0.1490 0 7
2.0147 17.4502 -2.6477 0.1490 0 7
1.7336 17.4804 -2.6477 0.1490 0 7
1.4519 17.5060 -2.6477 0.1490 0 7
1.1699 17.5271 -2.6477 0.1490 0 7
0.8876 17.5437 -2.6477 0.1490 0 7
0.6051 17.5557 -2.6477 0.1490 0 7
0.3224 17.5632 -2.6477 0.1490 0 7
0.0396 17.5661 -2.6477 0.1490 0 7
-0.2432 17.5645 -2.6477 0.1490 0 7
-0.5259 17.5583 -2.6477 0.1490 0 7
-0.8085 17.5475 -2.6477 0.1490 0 7
-1.0909 17.5322 -2.6477 0.1490 0 7
14.7468 5.2998 -2.4953 0.1573 0 8
14.6596 5.5365 -2.4953 0.1573 0 8
14.5685 5.7718 -2.4953 0.1573 0 8
14.4737 6.0056 -2.4953 0.1573 0 8
14.3752 6.2378 -2.4953 0.1573 0 8
14.2729 6.4684 -2.4953 0.1573 0 8
14.1669 6.6974 -2.4953 0.1573 0 8
14.0572 6.9246 -2.4953 0.1573 0 8
13.9440 7.1500 -2.4953 0.1573 0 8
13.8270 7.3735 -2.4953 0.1573 0 8
13.7065 7.5952 -2.4953 0.1573 0 8
13.5825 7.8148 -2.4953 0.1573 0 8
13.4549 8.0325 -2.4953 0.1573 0 8
13.3239 8.2480 -2.4953 0.1573 0 8
13.1894 8.4615 -2.4953 0.1573 0 8
13.8486 9.2024 -2.6477 0.1573 0 7
13.6986 9.4241 -2.6477 0.1573 0 7
13.5452 9.6434 -2.6477 0.1573 0 7
13.3882 9.8602 -2.6477 0.1573 0 7
13.2277 10.0745 -2.6477 0.1573 0 7
13.0638 10.2861 -2.6477 0.1573 0 7
12.8965 10.4951 -2.6477 0.1573 0 7
12.7259 10.7013 -2.6477 0.1573 0 7
12.5520 10.9048 -2.6477 0.1573 0 7
12.3748 11.1055 -2.6477 0.1573 0 7
12.1944 11.3032 -2.6477 0.1573 0 7
12.0109 11.4981 -2.6477 0.1573 0 6
11.8242 11.6899 -2.6477 0.1573 0 7
11.6345 11.8788 -2.6477 0.1573 0 7
11.4417 12.0645 -2.6477 0.1573 0 7
11.2460 12.2472 -2.6477 0.1573 0 7
11.0474 12.4266 -2.6477 0.1573 0 7
10.8459 12.6029 -2.6477 0.1573 0 7
10.6417 12.7758 -2.6477 0.1573 0 7
10.4346 12.9455 -2.6477 0.1573 0 7
10.2248 13.1118 -2.6477 0.1573 0 7
10.0124 13.2747 -2.6477 0.1573 0 7
9.7975 13.4342 -2.6477 0.1573 0 7
9.5799 13.5901 -2.6477 0.1573 0 7
9.3599 13.7426 -2.6477 0.1573 0 7
9.1375 13.8915 -2.6477 0.1573 0 7
8.9126 14.0368 -2.6477 0.1573 0 7
8.6855 14.1785 -2.6477 0.1573 0 7
8.4561 14.3164 -2.6477 0.1573 0 7
8.2246 14.4507 -2.6477 0.1573 0 7
7.9909 14.5813 -2.6477 0.1573 0 7
7.7551 14.7080 -2.6477 0.1573 0 7
7.5173 14.8309 -2.6477 0.1573 0 7
7.2776 14.9500 -2.6477 0.1573 0 6
7.0360 15.0653 -2.6477 0.1573 0 7
6.7925 15.1766 -2.6477 0.1573 0 7
6.5473 15.2840 -2.6477 0.1573 0 7
6.3004 15.3874 -2.6477 0.1573 0 7
6.0519 15.4868 -2.6477 0.1573 0 7
5.8018 15.5822 -2.6477 0.1573 0 7
5.5502 15.6736 -2.6477 0.1573 0 7
5.2972 15.7609 -2.6477 0.1573 0 7
5.0428 15.8442 -2.6477 0.1573 0 7
4.7871 15.9233 -2.6477 0.1573 0 7
4.5301 15.9983 -2.6477 0.1573 0 7
4.2720 16.0691 -2.6477 0.1573 0 7
4.0127 16.1358 -2.6477 0.1573 0 7
3.7524 16.1983 -2.6477 0.1573 0 7
3.4912 16.2566 -2.6477 0.1573 0 7
3.2290 16.3107 -2.6477 0.1573 0 7
2.9660 16.3606 -2.6477 0.1573 0 7
2.7023 16.4062 -2.6477 0.1573 0 7
2.4378 16.4476 -2.6477 0.1573 0 7
2.1727 16.4847 -2.6477 0.1573 0 7
1.9071 16.5176 -2.6477 0.1573 0 7
1.6409 16.5461 -2.6477 0.1573 0 7
1.3743 16.5704 -2.6477 0.1573 0 7
1.1074 16.5904 -2.6477 0.1573 0 7
0.8402 16.6061 -2.6477 0.1573 0 7
0.5727 16.6174 -2.6477 0.1573 0 7
0.3052 16.6245 -2.6477 0.1573 0 7
0.0375 16.6272 -2.6477 0.1573 0 7
-0.2302 16.6257 -2.6477 0.1573 0 7
-0.4978 16.6198 -2.6477 0.1573 0 7
-0.7653 16.6097 -2.6477 0.1573 0 7
-1.0326 16.5952 -2.6477 0.1573 0 7
13.9967 5.0303 -2.4953 0.1655 0 8
13.9139 5.2549 -2.4953 0.1655 0 8
13.8275 5.4783 -2.4953 0.1655 0 8
13.7375 5.7001 -2.4953 0.1655 0 8
13.6440 5.9205 -2.4953 0.1655 0 8
13.5469 6.1394 -2.4953 0.1655 0 8
13.4463 6.3567 -2.4953 0.1655 0 8
13.3423 6.5724 -2.4953 0.1655 0 8
13.2347 6.7863 -2.4953 0.1655 0 8
13.1238 6.9985 -2.4953 0.1655 0 8
13.0094 7.2088 -2.4953 0.1655 0 8
12.8917 7.4173 -2.4953 0.1655 0 8
12.7706 7.6239 -2.4953 0.1655 0 8
12.6462 7.8285 -2.4953 0.1655 0 8
12.5185 8.0311 -2.4953 0.1655 0 8
12.3876 8.2316 -2.4953 0.1655 0 8
12.2534 8.4299 -2.4953 0.1655 0 8
12.8562 9.1529 -2.6477 0.1655 0 7
12.7072 9.3587 -2.6477 0.1655 0 7
12.5549 9.5621 -2.6477 0.1655 0 7
12.3993 9.7629 -2.6477 0.1655 0 7
12.2406 9.9613 -2.6477 0.1655 0 7
12.0786 10.1570 -2.6477 0.1655 0 7
11.9135 10.3502 -2.6477 0.1655 0 7
11.7454 10.5406 -2.6477 0.1655 0 7
11.5742 10.7283 -2.6477 0.1655 0 7
11.3999 10.9133 -2.6477 0.1655 0 7
11.2228 11.0954 -2.6477 0.1655 0 7
11.0427 11.2746 -2.6477 0.1655 0 7
10.8598 11.4509 -2.6477 0.1655 0 6
10.6740 11.6242 -2.6477 0.1655 0 7
10.4855 11.7946 -2.6477 0.1655 0 7
10.2943 11.9618 -2.6477 0.1655 0 7
10.1004 12.1260 -2.6477 0.1655 0 7
9.9039 12.2870 -2.6477 0.1655 0 7
9.7048 12.4449 -2.6477 0.1655 0 7
9.5032 12.5995 -2.6477 0.1655 0 7
9.2991 12.7509 -2.6477 0.1655 0 7
9.0927 12.8989 -2.6477 0.1655 0 7
8.8838 13.0436 -2.6477 0.1655 0 7
8.6727 13.1849 -2.6477 0.1655 0 7
8.4593 13.3228 -2.6477 0.1655 0 7
8.2437 13.4573 -2.6477 0.1655 0 7
8.0260 13.5883 -2.6477 0.1655 0 7
7.8062 13.7157 -2.6477 0.1655 0 7
7.5844 13.8396 -2.6477 0.1655 0 7
7.3606 13.9599 -2.6477 0.1655 0 7
7.1350 14.0766 -2.6477 0.1655 0 7
6.9074 14.1896 -2.6477 0.1655 0 7
6.6781 14.2990 -2.6477 0.1655 0 7
6.4470 14.4046 -2.6477 0.1655 0 7
6.2143 14.5065 -2.6477 0.1655 0 7
5.9800 14.6047 -2.6477 0.1655 0 7
5.7441 14.6991 -2.6477 0.1655 0 7
5.5067 14.7897 -2.6477 0.1655 0 7
5.2679 14.8764 -2.6477 0.1655 0 7
5.0277 14.9593 -2.6477 0.1655 0 7
4.7863 15.0383 -2.6477 0.1655 0 7
4.5436 15.1134 -2.6477 0.1655 0 7
4.2997 15.1845 -2.6477 0.1655 0 7
4.0547 15.2518 -2.6477 0.1655 0 7
3.8086 15.3151 -2.6477 0.1655 0 7
3.5616 15.3744 -2.6477 0.1655 0 7
3.3136 15.4298 -2.6477 0.1655 0 7
3.0648 15.4811 -2.6477 0.1655 0 7
2.8152 15.5284 -2.6477 0.1655 0 7
2.5648 15.5718 -2.6477 0.1655 0 7
2.3138 15.6110 -2.6477 0.1655 0 7
2.0622 15.6463 -2.6477 0.1655 0 7
1.8101 15.6774 -2.6477 0.1655 0 7
1.5574 15.7045 -2.6477 0.1655 0 7
1.3044 15.7276 -2.6477 0.1655 0 7
1.0511 15.7465 -2.6477 0.1655 0 7
0.7974 15.7614 -2.6477 0.1655 0 7
0.5436 15.7722 -2.6477 0.1655 0 7
0.2896 15.7789 -2.6477 0.1655 0 7
0.0356 15.7815 -2.6477 0.1655 0 7
-0.2185 15.7801 -2.6477 0.1655 0 7
-0.4725 15.7745 -2.6477 0.1655 0 7
-0.7264 15.7648 -2.6477 0.1655 0 7
-0.9801 15.7511 -2.6477 0.1655 0 7
13.3175 4.7862 -2.4953 0.1736 0 8
13.2387 4.9999 -2.4953 0.1736 0 8
13.1565 5.2124 -2.4953 0.1736 0 8
13.0709 5.4235 -2.4953 0.1736 0 8
12.9819 5.6332 -2.4953 0.1736 0 8
12.8895 5.8415 -2.4953 0.1736 0 8
12.7938 6.0482 -2.4953 0.1736 0 8
12.6948 6.2534 -2.4953 0.1736 0 8
12.5924 6.4570 -2.4953 0.1736 0 8
12.4869 6.6588 -2.4953 0.1736 0 8
12.3780 6.8590 -2.4953 0.1736 0 8
12.2660 7.0574 -2.4953 0.1736 0 8
12.1508 7.2539 -2.4953 0.1736 0 8
12.0325 7.4486 -2.4953 0.1736 0 8
11.9110 7.6413 -2.4953 0.1736 0 8
11.7864 7.8321 -2.4953 0.1736 0 8
11.6588 8.0208 -2.4953 0.1736 0 8
11.5282 8.2075 -2.4953 0.1736 0 8
11.3946 8.3920 -2.4953 0.1736 0 8
11.9456 9.0980 -2.6477 0.1736 0 7
11.7976 9.2891 -2.6477 0.1736 0 7
11.6465 9.4778 -2.6477 0.1736 0 7
11.4924 9.6641 -2.6477 0.1736 0 7
11.3354 9.8479 -2.6477 0.1736 0 7
11.1754 10.0291 -2.6477 0.1736 0 7
11.0125 10.2077 -2.6477 0.1736 0 7
10.8467 10.3836 -2.6477 0.1736 0 7
10.6781 10.5569 -2.6477 0.1736 0 7
10.5068 10.7274 -2.6477 0.1736 0 7
10.3328 10.8952 -2.6477 0.1736 0 7
10.1560 11.0601 -2.6477 0.1736 0 7
9.9767 11.2222 -2.6477 0.1736 0 7
9.7947 11.3813 -2.6477 0.1736 0 7
9.6102 11.5375 -2.6477 0.1736 0 7
9.4232 11.6908 -2.6477 0.1736 0 7
9.2338 11.8409 -2.6477 0.1736 0 7
9.0420 11.9881 -2.6477 0.1736 0 7
8.8478 12.1321 -2.6477 0.1736 0 7
8.6514 12.2729 -2.6477 0.1736 0 7
8.4527 12.4106 -2.6477 0.1736 0 7
8.2518 12.5451 -2.6477 0.1736 0 7
8.0488 12.6763 -2.6477 0.1736 0 7
7.8437 12.8042 -2.6477 0.1736 0 7
7.6365 12.9288 -2.6477 0.1736 0 7
7.4274 13.0501 -2.6477 0.1736 0 7
7.2164 13.1680 -2.6477 0.1736 0 7
7.0034 13.2824 -2.6477 0.1736 0 7
6.7887 13.3934 -2.6477 0.1736 0 7
6.5722 13.5010 -2.6477 0.1736 0 7
6.3540 13.6051 -2.6477 0.1736 0 7
6.1342 13.7056 -2.6477 0.1736 0 7
5.9127 13.8026 -2.6477 0.1736 0 7
5.6898 13.8959 -2.6477 0.1736 0 7
5.4653 13.9857 -2.6477 0.1736 0 7
5.2395 14.0719 -2.6477 0.1736 0 7
5.0123 14.1544 -2.6477 0.1736 0 7
4.7838 14.2333 -2.6477 0.1736 0 7
4.5540 14.3085 -2.6477 0.1736 0 7
4.3231 14.3799 -2.6477 0.1736 0 7
4.0910 14.4476 -2.6477 0.1736 0 7
3.8579 14.5116 -2.6477 0.1736 0 7
3.6238 14.5718 -2.6477 0.1736 0 7
3.3887 14.6283 -2.6477 0.1736 0 7
3.1528 14.6810 -2.6477 0.1736 0 7
2.9161 14.7298 -2.6477 0.1736 0 7
2.6786 14.7748 -2.6477 0.1736 0 7
2.4404 14.8160 -2.6477 0.1736 0 7
2.2015 14.8534 -2.6477 0.1736 0 7
1.9621 14.8869 -2.6477 0.1736 0 7
1.7222 14.9166 -2.6477 0.1736 0 7
1.4819 14.9424 -2.6477 0.1736 0 7
1.2411 14.9643 -2.6477 0.1736 0 7
1.0001 14.9823 -2.6477 0.1736 0 7
0.7587 14.9965 -2.6477 0.1736 0 7
0.5172 15.0068 -2.6477 0.1736 0 7
0.2756 15.0132 -2.6477 0.1736 0 7
0.0339 15.0157 -2.6477 0.1736 0 7
-0.2079 15.0143 -2.6477 0.1736 0 7
-0.4496 15.0090 -2.6477 0.1736 0 7
-0.6911 14.9998 -2.6477 0.1736 0 7
-0.9325 14.9867 -2.6477 0.1736 0 6
12.6993 4.5640 -2.4953 0.1818 0 8
12.6242 4.7679 -2.4953 0.1818 0 8
12.5458 4.9705 -2.4953 0.1818 0 8
12.4642 5.1718 -2.4953 0.1818 0 8
12.3793 5.3718 -2.4953 0.1818 0 8
12.2912 5.5704 -2.4953 0.1818 0 8
12.2000 5.7675 -2.4953 0.1818 0 8
12.1055 5.9632 -2.4953 0.1818 0 8
12.0080 6.1573 -2.4953 0.1818 0 8
11.9073 6.3498 -2.4953 0.1818 0 8
11.8035 6.5406 -2.4953 0.1818 0 8
11.6967 6.7298 -2.4953 0.1818 0 8
11.5869 6.9172 -2.4953 0.1818 0 8
11.4740 7.1029 -2.4953 0.1818 0 8
11.3582 7.2867 -2.4953 0.1818 0 8
11.2394 7.4686 -2.4953 0.1818 0 8
11.1177 7.6485 -2.4953 0.1818 0 8
10.9931 7.8265 -2.4953 0.1818 0 8
10.8657 8.0025 -2.4953 0.1818 0 8
10.7355 8.1764 -2.4953 0.1818 0 8
10.6024 8.3481 -2.4953 0.1818 0 8
11.1060 9.0379 -2.6477 0.1818 0 7
10.9590 9.2156 -2.6477 0.1818 0 7
10.8092 9.3908 -2.6477 0.1818 0 7
10.6567 9.5636 -2.6477 0.1818 0 7
10.5013 9.7339 -2.6477 0.1818 0 7
10.3433 9.9017 -2.6477 0.1818 0 7
10.1825 10.0669 -2.6477 0.1818 0 7
10.0192 10.2295 -2.6477 0.1818 0 7
9.8532 10.3895 -2.6477 0.1818 0 7
9.6846 10.5468 -2.6477 0.1818 0 7
9.5136 10.7013 -2.6477 0.1818 0 7
9.3401 10.8531 -2.6477 0.1818 0 7
9.1642 11.0020 -2.6477 0.1818 0 7
8.9859 11.1482 -2.6477 0.1818 0 7
8.8052 11.2914 -2.6477 0.1818 0 7
8.6223 11.4316 -2.6477 0.1818 0 6
8.4372 11.5690 -2.6477 0.1818 0 7
8.2498 11.7033 -2.6477 0.1818 0 7
8.0604 11.8346 -2.6477 0.1818 0 7
7.8688 11.9628 -2.6477 0.1818 0 7
7.6752 12.0879 -2.6477 0.1818 0 7
7.4796 12.2099 -2.6477 0.1818 0 7
7.2821 12.3288 -2.6477 0.1818 0 7
7.0827 12.4444 -2.6477 0.1818 0 7
6.8814 12.5568 -2.6477 0.1818 0 7
6.6784 12.6659 -2.6477 0.1818 0 7
6.4736 12.7718 -2.6477 0.1818 0 7
6.2672 12.8744 -2.6477 0.1818 0 7
6.0591 12.9736 -2.6477 0.1818 0 7
5.8495 13.0695 -2.6477 0.1818 0 7
5.6383 13.1619 -2.6477 0.1818 0 7
5.4257 13.2510 -2.6477 0.1818 0 7
5.2117 13.3366 -2.6477 0.1818 0 7
4.9963 13.4188 -2.6477 0.1818 0 7
4.7796 13.4975 -2.6477 0.1818 0 7
4.5617 13.5727 -2.6477 0.1818 0 7
4.3426 13.6444 -2.6477 0.1818 0 7
4.1224 13.7125 -2.6477 0.1818 0 7
3.9011 13.7771 -2.6477 0.1818 0 7
3.6789 13.8381 -2.6477 0.1818 0 7
3.4556 13.8955 -2.6477 0.1818 0 7
3.2315 13.9494 -2.6477 0.1818 0 7
3.0065 13.9996 -2.6477 0.1818 0 7
2.7807 14.0462 -2.6477 0.1818 0 7
2.5542 14.0891 -2.6477 0.1818 0 7
2.3271 14.1284 -2.6477 0.1818 0 7
2.0993 14.1640 -2.6477 0.1818 0 7
1.8711 14.1960 -2.6477 0.1818 0 7
1.6423 14.2243 -2.6477 0.1818 0 7
1.4131 14.2489 -2.6477 0.1818 0 7
1.1835 14.2698 -2.6477 0.1818 0 7
0.9536 14.2870 -2.6477 0.1818 0 7
0.7235 14.3005 -2.6477 0.1818 0 7
0.4932 14.3103 -2.6477 0.1818 0 7
0.2628 14.3164 -2.6477 0.1818 0 7
0.0323 14.3187 -2.6477 0.1818 0 7
-0.1982 14.3174 -2.6477 0.1818 0 7
-0.4287 14.3123 -2.6477 0.1818 0 7
-0.6590 14.3036 -2.6477 0.1818 0 7
-0.8892 14.2911 -2.6477 0.1818 0 7
12.1344 4.3610 -2.4953 0.1900 0 8
12.0626 4.5558 -2.4953 0.1900 0 8
11.9877 4.7494 -2.4953 0.1900 0 8
11.9097 4.9417 -2.4953 0.1900 0 8
11.8286 5.1328 -2.4953 0.1900 0 8
11.7445 5.3226 -2.4953 0.1900 0 8
11.6573 5.5109 -2.4953 0.1900 0 8
11.5670 5.6979 -2.4953 0.1900 0 8
11.4738 5.8834 -2.4953 0.1900 0 8
11.3776 6.0673 -2.4953 0.1900 0 8
11.2784 6.2497 -2.4953 0.1900 0 8
11.1764 6.4304 -2.4953 0.1900 0 8
11.0714 6.6095 -2.4953 0.1900 0 8
10.9636 6.7869 -2.4953 0.1900 0 8
10.8529 6.9625 -2.4953 0.1900 0 8
10.7394 7.1363 -2.4953 0.1900 0 8
10.6231 7.3083 -2.4953 0.1900 0 8
10.5041 7.4784 -2.4953 0.1900 0 8
10.3824 7.6465 -2.4953 0.1900 0 8
10.2579 7.8126 -2.4953 0.1900 0 8
10.1308 7.9768 -2.4953 0.1900 0 8
10.0011 8.1388 -2.4953 0.1900 0 8
9.8688 8.2988 -2.4953 0.1900 0 8
9.7339 8.4566 -2.4953 0.1900 0 8
10.1826 9.1382 -2.6477 0.1900 0 7
10.0342 9.3009 -2.6477 0.1900 0 7
9.8832 9.4612 -2.6477 0.1900 0 7
9.7296 9.6191 -2.6477 0.1900 0 7
9.5734 9.7745 -2.6477 0.1900 0 7
9.4149 9.9273 -2.6477 0.1900 0 7
9.2538 10.0776 -2.6477 0.1900 0 7
9.0904 10.2253 -2.6477 0.1900 0 7
8.9246 10.3703 -2.6477 0.1900 0 7
8.7565 10.5126 -2.6477 0.1900 0 7
8.5861 10.6522 -2.6477 0.1900 0 7
8.4135 10.7891 -2.6477 0.1900 0 7
8.2388 10.9231 -2.6477 0.1900 0 7
8.0618 11.0543 -2.6477 0.1900 0 7
7.8828 11.1827 -2.6477 0.1900 0 7
7.7018 11.3081 -2.6477 0.1900 0 7
7.5188 11.4306 -2.6477 0.1900 0 6
7.3338 11.5502 -2.6477 0.1900 0 7
7.1469 11.6668 -2.6477 0.1900 0 7
6.9581 11.7803 -2.6477 0.1900 0 7
6.7676 11.8908 -2.6477 0.1900 0 7
6.5753 11.9982 -2.6477 0.1900 0 7
6.3813 12.1025 -2.6477 0.1900 0 7
6.1856 12.2037 -2.6477 0.1900 0 7
5.9884 12.3017 -2.6477 0.1900 0 7
5.7896 12.3965 -2.6477 0.1900 0 7
5.5892 12.4881 -2.6477 0.1900 0 7
5.3875 12.5764 -2.6477 0.1900 0 7
5.1843 12.6615 -2.6477 0.1900 0 7
4.9798 12.7433 -2.6477 0.1900 0 7
4.7740 12.8218 -2.6477 0.1900 0 7
4.5670 12.8970 -2.6477 0.1900 0 7
4.3588 12.9689 -2.6477 0.1900 0 7
4.1495 13.0374 -2.6477 0.1900 0 7
3.9390 13.1025 -2.6477 0.1900 0 7
3.7276 13.1642 -2.6477 0.1900 0 7
3.5152 13.2225 -2.6477 0.1900 0 7
3.3019 13.2774 -2.6477 0.1900 0 7
3.0877 13.3288 -2.6477 0.1900 0 7
2.8727 13.3768 -2.6477 0.1900 0 7
2.6570 13.4213 -2.6477 0.1900 0 7
2.4406 13.4623 -2.6477 0.1900 0 7
2.2236 13.4999 -2.6477 0.1900 0 7
2.0060 13.5339 -2.6477 0.1900 0 7
1.7878 13.5645 -2.6477 0.1900 0 7
1.5692 13.5915 -2.6477 0.1900 0 7
1.3502 13.6150 -2.6477 0.1900 0 7
1.1309 13.6350 -2.6477 0.1900 0 7
0.9112 13.6514 -2.6477 0.1900 0 7
0.6913 13.6643 -2.6477 0.1900 0 7
0.4713 13.6737 -2.6477 0.1900 0 7
0.2511 13.6795 -2.6477 0.1900 0 7
0.0308 13.6818 -2.6477 0.1900 0 7
-0.1894 13.6805 -2.6477 0.1900 0 7
-0.4096 13.6757 -2.6477 0.1900 0 7
-0.6297 13.6673 -2.6477 0.1900 0 7
-0.8497 13.6554 -2.6477 0.1900 0 7
11.6160 4.1747 -2.4953 0.1981 0 8
11.5473 4.3611 -2.4953 0.1981 0 8
11.4756 4.5464 -2.4953 0.1981 0 8
11.4009 4.7306 -2.4953 0.1981 0 8
11.3233 4.9135 -2.4953 0.1981 0 8
11.2427 5.0952 -2.4953 0.1981 0 8
11.1592 5.2755 -2.4953 0.1981 0 8
11.0729 5.4545 -2.4953 0.1981 0 8
10.9836 5.6320 -2.4953 0.1981 0 8
10.8915 5.8081 -2.4953 0.1981 0 8
10.7966 5.9827 -2.4953 0.1981 0 8
10.6989 6.1557 -2.4953 0.1981 0 8
10.5984 6.3272 -2.4953 0.1981 0 8
10.4952 6.4970 -2.4953 0.1981 0 8
10.3892 6.6651 -2.4953 0.1981 0 8
10.2806 6.8314 -2.4953 0.1981 0 8
10.1693 6.9961 -2.4953 0.1981 0 8
10.0553 7.1589 -2.4953 0.1981 0 8
9.9388 7.3198 -2.4953 0.1981 0 8
9.8197 7.4789 -2.4953 0.1981 0 8
9.6980 7.6360 -2.4953 0.1981 0 8
9.5738 7.7911 -2.4953 0.1981 0 8
9.4472 7.9442 -2.4953 0.1981 0 8
9.3180 8.0953 -2.4953 0.1981 0 8
9.1865 8.2442 -2.4953 0.1981 0 8
9.0526 8.3910 -2.4953 0.1981 0 8
9.4609 9.0570 -2.6477 0.1981 0 7
9.3139 9.2081 -2.6477 0.1981 0 7
9.1644 9.3569 -2.6477 0.1981 0 7
9.0126 9.5032 -2.6477 0.1981 0 7
8.8585 9.6471 -2.6477 0.1981 0 7
8.7020 9.7884 -2.6477 0.1981 0 7
8.5433 9.9272 -2.6477 0.1981 0 7
8.3824 10.0635 -2.6477 0.1981 0 7
8.2193 10.1971 -2.6477 0.1981 0 7
8.0541 10.3281 -2.6477 0.1981 0 7
7.8868 10.4564 -2.6477 0.1981 0 7
7.7174 10.5821 -2.6477 0.1981 0 7
7.5461 10.7049 -2.6477 0.1981 0 7
7.3728 10.8250 -2.6477 0.1981 0 7
7.1975 10.9423 -2.6477 0.1981 0 7
7.0205 11.0567 -2.6477 0.1981 0 7
6.8416 11.1683 -2.6477 0.1981 0 7
6.6609 11.2770 -2.6477 0.1981 0 7
6.4785 11.3828 -2.6477 0.1981 0 7
6.2944 11.4856 -2.6477 0.1981 0 6
6.1087 11.5854 -2.6477 0.1981 0 7
5.9214 11.6823 -2.6477 0.1981 0 7
5.7325 11.7761 -2.6477 0.1981 0 7
5.5422 11.8669 -2.6477 0.1981 0 7
5.3505 11.9545 -2.6477 0.1981 0 7
5.1573 12.0391 -2.6477 0.1981 0 7
4.9628 12.1206 -2.6477 0.1981 0 7
4.7671 12.1989 -2.6477 0.1981 0 7
4.5701 12.2741 -2.6477 0.1981 0 7
4.3719 12.3461 -2.6477 0.1981 0 7
4.1726 12.4148 -2.6477 0.1981 0 7
3.9722 12.4804 -2.6477 0.1981 0 7
3.7708 12.5427 -2.6477 0.1981 0 7
3.5683 12.6018 -2.6477 0.1981 0 7
3.3650 12.6576 -2.6477 0.1981 0 7
3.1608 12.7101 -2.6477 0.1981 0 7
2.9558 12.7594 -2.6477 0.1981 0 7
2.7500 12.8053 -2.6477 0.1981 0 7
2.5435 12.8479 -2.6477 0.1981 0 7
2.3363 12.8872 -2.6477 0.1981 0 7
2.1286 12.9231 -2.6477 0.1981 0 7
1.9203 12.9557 -2.6477 0.1981 0 7
1.7114 12.9850 -2.6477 0.1981 0 7
1.5022 13.0108 -2.6477 0.1981 0 7
1.2925 13.0333 -2.6477 0.1981 0 7
1.0826 13.0525 -2.6477 0.1981 0 7
0.8723 13.0682 -2.6477 0.1981 0 7
0.6618 13.0805 -2.6477 0.1981 0 7
0.4511 13.0895 -2.6477 0.1981 0 7
0.2404 13.0951 -2.6477 0.1981 0 7
0.0295 13.0972 -2.6477 0.1981 0 7
-0.1813 13.0960 -2.6477 0.1981 0 7
-0.3921 13.0914 -2.6477 0.1981 0 7
-0.6028 13.0834 -2.6477 0.1981 0 7
-0.8134 13.0720 -2.6477 0.1981 0 7
11.1385 4.0031 -2.4953 0.2063 0 8
11.0727 4.1819 -2.4953 0.2063 0 8
11.0039 4.3596 -2.4953 0.2063 0 8
10.9323 4.5362 -2.4953 0.2063 0 8
10.8579 4.7116 -2.4953 0.2063 0 8
10.7806 4.8857 -2.4953 0.2063 0 8
10.7006 5.0587 -2.4953 0.2063 0 8
10.6177 5.2303 -2.4953 0.2063 0 8
10.5322 5.4005 -2.4953 0.2063 0 8
10.4439 5.5694 -2.4953 0.2063 0 8
10.3528 5.7368 -2.4953 0.2063 0 8
10.2591 5.9027 -2.4953 0.2063 0 8
10.1628 6.0671 -2.4953 0.2063 0 8
10.0638 6.2299 -2.4953 0.2063 0 8
9.9622 6.3911 -2.4953 0.2063 0 8
9.8580 6.5507 -2.4953 0.2063 0 8
9.7513 6.7085 -2.4953 0.2063 0 8
9.6420 6.8646 -2.4953 0.2063 0 8
9.5303 7.0189 -2.4953 0.2063 0 8
9.4161 7.1715 -2.4953 0.2063 0 8
9.2994 7.3221 -2.4953 0.2063 0 8
9.1803 7.4709 -2.4953 0.2063 0 8
9.0589 7.6177 -2.4953 0.2063 0 8
8.9350 7.7625 -2.4953 0.2063 0 8
8.8089 7.9054 -2.4953 0.2063 0 8
8.6805 8.0462 -2.4953 0.2063 0 8
8.5499 8.1848 -2.4953 0.2063 0 8
8.4170 8.3214 -2.4953 0.2063 0 8
8.2819 8.4558 -2.4953 0.2063 0 8
8.6422 9.1126 -2.6477 0.2063 0 7
8.4944 9.2505 -2.6477 0.2063 0 7
8.3444 9.3861 -2.6477 0.2063 0 7
8.1922 9.5192 -2.6477 0.2063 0 7
8.0379 9.6499 -2.6477 0.2063 0 7
7.8815 9.7780 -2.6477 0.2063 0 7
7.7230 9.9036 -2.6477 0.2063 0 7
7.5626 10.0267 -2.6477 0.2063 0 7
7.4002 10.1471 -2.6477 0.2063 0 7
7.2359 10.2649 -2.6477 0.2063 0 7
7.0697 10.3801 -2.6477 0.2063 0 7
6.9017 10.4925 -2.6477 0.2063 0 7
6.7319 10.6023 -2.6477 0.2063 0 7
6.5603 10.7093 -2.6477 0.2063 0 7
6.3871 10.8135 -2.6477 0.2063 0 7
6.2122 10.9149 -2.6477 0.2063 0 7
6.0357 11.0135 -2.6477 0.2063 0 7
5.8576 11.1093 -2.6477 0.2063 0 7
5.6780 11.2021 -2.6477 0.2063 0 7
5.4969 11.2921 -2.6477 0.2063 0 7
5.3144 11.3791 -2.6477 0.2063 0 7
5.1306 11.4632 -2.6477 0.2063 0 6
4.9453 11.5443 -2.6477 0.2063 0 7
4.7589 11.6224 -2.6477 0.2063 0 7
4.5711 11.6975 -2.6477 0.2063 0 7
4.3822 11.7696 -2.6477 0.2063 0 7
4.1922 11.8386 -2.6477 0.2063 0 7
4.0011 11.9045 -2.6477 0.2063 0 7
3.8089 11.9674 -2.6477 0.2063 0 7
3.6158 12.0272 -2.6477 0.2063 0 7
3.4217 12.0838 -2.6477 0.2063 0 7
3.2267 12.1373 -2.6477 0.2063 0 7
3.0309 12.1877 -2.6477 0.2063 0 7
2.8343 12.2349 -2.6477 0.2063 0 7
2.6370 12.2790 -2.6477 0.2063 0 7
2.4390 12.3198 -2.6477 0.2063 0 7
2.2403 12.3575 -2.6477 0.2063 0 7
2.0411 12.3920 -2.6477 0.2063 0 7
1.8413 12.4232 -2.6477 0.2063 0 7
1.6411 12.4513 -2.6477 0.2063 0 7
1.4404 12.4761 -2.6477 0.2063 0 7
1.2394 12.4976 -2.6477 0.2063 0 7
1.0381 12.5160 -2.6477 0.2063 0 7
0.8364 12.5311 -2.6477 0.2063 0 7
0.6346 12.5429 -2.6477 0.2063 0 7
0.4326 12.5515 -2.6477 0.2063 0 7
0.2305 12.5568 -2.6477 0.2063 0 7
0.0283 12.5589 -2.6477 0.2063 0 7
-0.1739 12.5577 -2.6477 0.2063 0 7
-0.3760 12.5533 -2.6477 0.2063 0 7
-0.5780 12.5456 -2.6477 0.2063 0 7
-0.7799 12.5347 -2.6477 0.2063 0 7
10.6973 3.8445 -2.4953 0.2144 0 8
10.6340 4.0162 -2.4953 0.2144 0 8
10.5680 4.1869 -2.4953 0.2144 0 8
10.4992 4.3565 -2.4953 0.2144 0 8
10.4277 4.5249 -2.4953 0.2144 0 8
10.3535 4.6922 -2.4953 0.2144 0 8
10.2767 4.8583 -2.4953 0.2144 0 8
10.1971 5.0231 -2.4953 0.2144 0 8
10.1149 5.1866 -2.4953 0.2144 0 8
10.0301 5.3487 -2.4953 0.2144 0 8
9.9427 5.5095 -2.4953 0.2144 0 8
9.8527 5.6689 -2.4953 0.2144 0 8
9.7602 5.8267 -2.4953 0.2144 0 8
9.6651 5.9831 -2.4953 0.2144 0 8
9.5676 6.1379 -2.4953 0.2144 0 8
9.4675 6.2912 -2.4953 0.2144 0 8
9.3650 6.4428 -2.4953 0.2144 0 8
9.2601 6.5927 -2.4953 0.2144 0 8
9.1527 6.7409 -2.4953 0.2144 0 8
9.0430 6.8874 -2.4953 0.2144 0 8
8.9310 7.0320 -2.4953 0.2144 0 8
8.8166 7.1749 -2.4953 0.2144 0 8
8.7000 7.3159 -2.4953 0.2144 0 8
8.5811 7.4550 -2.4953 0.2144 0 8
8.4600 7.5922 -2.4953 0.2144 0 8
8.3366 7.7274 -2.4953 0.2144 0 8
8.2112 7.8606 -2.4953 0.2144 0 8
8.0836 7.9918 -2.4953 0.2144 0 8
7.9538 8.1209 -2.4953 0.2144 0 8
7.8221 8.2479 -2.4953 0.2144 0 8
7.6883 8.3727 -2.4953 0.2144 0 8
8.0138 9.0143 -2.6477 0.2144 0 7
7.8676 9.1421 -2.6477 0.2144 0 7
7.7194 9.2676 -2.6477 0.2144 0 7
7.5692 9.3906 -2.6477 0.2144 0 7
7.4171 9.5113 -2.6477 0.2144 0 7
7.2630 9.6294 -2.6477 0.2144 0 7
7.1071 9.7451 -2.6477 0.2144 0 7
6.9493 9.8583 -2.6477 0.2144 0 7
6.7897 9.9689 -2.6477 0.2144 0 7
6.6283 10.0769 -2.6477 0.2144 0 7
6.4652 10.1823 -2.6477 0.2144 0 7
6.3005 10.2850 -2.6477 0.2144 0 7
6.1341 10.3851 -2.6477 0.2144 0 7
5.9661 10.4825 -2.6477 0.2144 0 7
5.7966 10.5772 -2.6477 0.2144 0 7
5.6255 10.6692 -2.6477 0.2144 0 7
5.4531 10.7583 -2.6477 0.2144 0 7
5.2792 10.8447 -2.6477 0.2144 0 7
5.1039 10.9283 -2.6477 0.2144 0 7
4.9273 11.0091 -2.6477 0.2144 0 7
4.7494 11.0870 -2.6477 0.2144 0 7
4.5703 11.1620 -2.6477 0.2144 0 7
4.3901 11.2341 -2.6477 0.2144 0 7
4.2086 11.3033 -2.6477 0.2144 0 7
4.0261 11.3696 -2.6477 0.2144 0 7
3.8426 11.4330 -2.6477 0.2144 0 6
3.6580 11.4933 -2.6477 0.2144 0 6
3.4725 11.5507 -2.6477 0.2144 0 7
3.2861 11.6051 -2.6477 0.2144 0 7
3.0989 11.6565 -2.6477 0.2144 0 7
2.9108 11.7049 -2.6477 0.2144 0 7
2.7220 11.7503 -2.6477 0.2144 0 7
2.5325 11.7925 -2.6477 0.2144 0 7
2.3423 11.8318 -2.6477 0.2144 0 7
2.1516 11.8680 -2.6477 0.2144 0 7
1.9602 11.9011 -2.6477 0.2144 0 7
1.7684 11.9311 -2.6477 0.2144 0 7
1.5761 11.9580 -2.6477 0.2144 0 7
1.3834 11.9818 -2.6477 0.2144 0 7
1.1903 12.0025 -2.6477 0.2144 0 7
0.9969 12.0201 -2.6477 0.2144 0 7
0.8033 12.0346 -2.6477 0.2144 0 7
0.6095 12.0460 -2.6477 0.2144 0 7
0.4155 12.0543 -2.6477 0.2144 0 7
0.2214 12.0594 -2.6477 0.2144 0 7
0.0272 12.0614 -2.6477 0.2144 0 7
-0.1670 12.0603 -2.6477 0.2144 0 7
-0.3611 12.0560 -2.6477 0.2144 0 7
-0.5551 12.0486 -2.6477 0.2144 0 7
-0.7490 12.0381 -2.6477 0.2144 0 7
10.2883 3.6975 -2.4953 0.2225 0 8
10.2274 3.8626 -2.4953 0.2225 0 8
10.1639 4.0268 -2.4953 0.2225 0 8
10.0977 4.1899 -2.4953 0.2225 0 8
10.0290 4.3519 -2.4953 0.2225 0 8
9.9576 4.5128 -2.4953 0.2225 0 8
9.8837 4.6725 -2.4953 0.2225 0 8
9.8072 4.8310 -2.4953 0.2225 0 8
9.7282 4.9883 -2.4953 0.2225 0 8
9.6466 5.1442 -2.4953 0.2225 0 8
9.5625 5.2988 -2.4953 0.2225 0 8
9.4760 5.4521 -2.4953 0.2225 0 8
9.3870 5.6039 -2.4953 0.2225 0 8
9.2955 5.7543 -2.4953 0.2225 0 8
9.2017 5.9032 -2.4953 0.2225 0 8
9.1055 6.0506 -2.4953 0.2225 0 8
9.0069 6.1964 -2.4953 0.2225 0 8
8.9060 6.3406 -2.4953 0.2225 0 8
8.8028 6.4831 -2.4953 0.2225 0 8
8.6973 6.6240 -2.4953 0.2225 0 8
8.5895 6.7632 -2.4953 0.2225 0 8
8.4795 6.9006 -2.4953 0.2225 0 8
8.3673 7.0362 -2.4953 0.2225 0 8
8.2530 7.1700 -2.4953 0.2225 0 8
8.1365 7.3019 -2.4953 0.2225 0 8
8.0179 7.4319 -2.4953 0.2225 0 8
7.8972 7.5600 -2.4953 0.2225 0 8
7.7745 7.6862 -2.4953 0.2225 0 8
7.6497 7.8103 -2.4953 0.2225 0 8
7.5230 7.9325 -2.4953 0.2225 0 8
7.3943 8.0526 -2.4953 0.2225 0 8
7.2637 8.1706 -2.4953 0.2225 0 8
7.1312 8.2864 -2.4953 0.2225 0 8
6.9969 8.4002 -2.4953 0.2225 0 8
7.2798 9.0316 -2.6477 0.2225 0 7
7.1335 9.1476 -2.6477 0.2225 0 7
6.9853 9.2612 -2.6477 0.2225 0 7
6.8353 9.3725 -2.6477 0.2225 0 7
6.6835 9.4813 -2.6477 0.2225 0 7
6.5300 9.5877 -2.6477 0.2225 0 7
6.3748 9.6916 -2.6477 0.2225 0 7
6.2180 9.7929 -2.6477 0.2225 0 7
6.0595 9.8918 -2.6477 0.2225 0 7
5.8995 9.9880 -2.6477 0.2225 0 7
5.7380 10.0817 -2.6477 0.2225 0 7
5.5749 10.1728 -2.6477 0.2225 0 7
5.4104 10.2612 -2.6477 0.2225 0 7
5.2445 10.3470 -2.6477 0.2225 0 7
5.0773 10.4300 -2.6477 0.2225 0 7
4.9087 10.5104 -2.6477 0.2225 0 7
4.7389 10.5881 -2.6477 0.2225 0 7
4.5678 10.6630 -2.6477 0.2225 0 7
4.3956 10.7352 -2.6477 0.2225 0 7
4.2222 10.8045 -2.6477 0.2225 0 7
4.0477 10.8711 -2.6477 0.2225 0 7
3.8722 10.9349 -2.6477 0.2225 0 7
3.6956 10.9958 -2.6477 0.2225 0 7
3.5182 11.0538 -2.6477 0.2225 0 7
3.3397 11.1090 -2.6477 0.2225 0 7
3.1605 11.1614 -2.6477 0.2225 0 7
2.9804 11.2108 -2.6477 0.2225 0 7
2.7995 11.2573 -2.6477 0.2225 0 7
2.6179 11.3009 -2.6477 0.2225 0 7
2.4357 11.3416 -2.6477 0.2225 0 7
2.2528 11.3794 -2.6477 0.2225 0 6
2.0693 11.4141 -2.6477 0.2225 0 6
1.8853 11.4460 -2.6477 0.2225 0 6
1.7008 11.4748 -2.6477 0.2225 0 6
1.5158 11.5007 -2.6477 0.2225 0 7
1.3305 11.5237 -2.6477 0.2225 0 7
1.1448 11.5436 -2.6477 0.2225 0 7
0.9588 11.5605 -2.6477 0.2225 0 7
0.7726 11.5744 -2.6477 0.2225 0 7
0.5862 11.5854 -2.6477 0.2225 0 7
0.3996 11.5933 -2.6477 0.2225 0 7
0.2129 11.5983 -2.6477 0.2225 0 7
0.0262 11.6002 -2.6477 0.2225 0 7
-0.1606 11.5991 -2.6477 0.2225 0 7
-0.3473 11.5950 -2.6477 0.2225 0 7
-0.5339 11.5879 -2.6477 0.2225 0 7
-0.7204 11.5778 -2.6477 0.2225 0 7
9.9079 3.5608 -2.4953 0.2306 0 8
9.8493 3.7199 -2.4953 0.2306 0 8
9.7882 3.8779 -2.4953 0.2306 0 8
9.7245 4.0350 -2.4953 0.2306 0 8
9.6583 4.1910 -2.4953 0.2306 0 8
9.5895 4.3460 -2.4953 0.2306 0 8
9.5183 4.4998 -2.4953 0.2306 0 8
9.4447 4.6524 -2.4953 0.2306 0 8
9.3685 4.8039 -2.4953 0.2306 0 8
9.2900 4.9541 -2.4953 0.2306 0 8
9.2090 5.1030 -2.4953 0.2306 0 8
9.1257 5.2506 -2.4953 0.2306 0 8
9.0400 5.3968 -2.4953 0.2306 0 8
8.9519 5.5416 -2.4953 0.2306 0 8
8.8616 5.6850 -2.4953 0.2306 0 8
8.7689 5.8269 -2.4953 0.2306 0 8
8.6740 5.9673 -2.4953 0.2306 0 8
8.5768 6.1062 -2.4953 0.2306 0 8
8.4774 6.2435 -2.4953 0.2306 0 8
8.3758 6.3791 -2.4953 0.2306 0 8
8.2720 6.5131 -2.4953 0.2306 0 8
8.1661 6.6455 -2.4953 0.2306 0 8
8.0580 6.7761 -2.4953 0.2306 0 8
7.9479 6.9049 -2.4953 0.2306 0 8
7.8357 7.0320 -2.4953 0.2306 0 8
7.7215 7.1572 -2.4953 0.2306 0 8
7.6053 7.2806 -2.4953 0.2306 0 8
7.4871 7.4021 -2.4953 0.2306 0 8
7.3669 7.5216 -2.4953 0.2306 0 8
7.2449 7.6393 -2.4953 0.2306 0 8
7.1210 7.7549 -2.4953 0.2306 0 8
6.9952 7.8685 -2.4953 0.2306 0 8
6.8676 7.9801 -2.4953 0.2306 0 8
6.7383 8.0896 -2.4953 0.2306 0 8
6.6072 8.1971 -2.4953 0.2306 0 8
6.4744 8.3024 -2.4953 0.2306 0 8
6.3399 8.4055 -2.4953 0.2306 0 8
6.5826 9.0260 -2.6477 0.2306 0 7
6.4365 9.1308 -2.6477 0.2306 0 7
6.2887 9.2333 -2.6477 0.2306 0 7
6.1392 9.3333 -2.6477 0.2306 0 7
5.9881 9.4309 -2.6477 0.2306 0 7
5.8355 9.5261 -2.6477 0.2306 0 7
5.6814 9.6188 -2.6477 0.2306 0 7
5.5259 9.7090 -2.6477 0.2306 0 7
5.3688 9.7967 -2.6477 0.2306 0 7
5.2104 9.8819 -2.6477 0.2306 0 7
5.0507 9.9645 -2.6477 0.2306 0 7
4.8896 10.0445 -2.6477 0.2306 0 7
4.7273 10.1219 -2.6477 0.2306 0 7
4.5637 10.1967 -2.6477 0.2306 0 7
4.3990 10.2689 -2.6477 0.2306 0 7
4.2331 10.3383 -2.6477 0.2306 0 7
4.0661 10.4051 -2.6477 0.2306 0 7
3.8981 10.4693 -2.6477 0.2306 0 7
3.7290 10.5306 -2.6477 0.2306 0 7
3.5590 10.5893 -2.6477 0.2306 0 7
3.3881 10.6452 -2.6477 0.2306 0 7
3.2163 10.6984 -2.6477 0.2306 0 7
3.0436 10.7488 -2.6477 0.2306 0 7
2.8702 10.7964 -2.6477 0.2306 0 7
2.6960 10.8412 -2.6477 0.2306 0 7
2.5212 10.8832 -2.6477 0.2306 0 7
2.3456 10.9224 -2.6477 0.2306 0 7
2.1695 10.9587 -2.6477 0.2306 0 7
1.9928 10.9922 -2.6477 0.2306 0 7
1.8156 11.0229 -2.6477 0.2306 0 7
1.6379 11.0507 -2.6477 0.2306 0 7
1.4598 11.0756 -2.6477 0.2306 0 7
1.2813 11.0977 -2.6477 0.2306 0 7
1.1025 11.1169 -2.6477 0.2306 0 7
0.9234 11.1332 -2.6477 0.2306 0 7
0.7440 11.1466 -2.6477 0.2306 0 7
0.5645 11.1571 -2.6477 0.2306 0 7
0.3848 11.1648 -2.6477 0.2306 0 7
0.2050 11.1695 -2.6477 0.2306 0 7
0.0252 11.1714 -2.6477 0.2306 0 7
-0.1547 11.1703 -2.6477 0.2306 0 7
-0.3345 11.1664 -2.6477 0.2306 0 7
-0.5142 11.1596 -2.6477 0.2306 0 7
-0.6938 11.1498 -2.6477 0.2306 0 7
9.5534 3.4334 -2.4953 0.2387 0 8
9.4969 3.5867 -2.4953 0.2387 0 8
9.4379 3.7392 -2.4953 0.2387 0 8
9.3765 3.8906 -2.4953 0.2387 0 8
9.3127 4.0410 -2.4953 0.2387 0 8
9.2464 4.1904 -2.4953 0.2387 0 8
9.1777 4.3388 -2.4953 0.2387 0 8
9.1067 4.4859 -2.4953 0.2387 0 8
9.0333 4.6320 -2.4953 0.2387 0 8
8.9576 4.7768 -2.4953 0.2387 0 8
8.8795 4.9204 -2.4953 0.2387 0 8
8.7992 5.0627 -2.4953 0.2387 0 8
8.7165 5.2037 -2.4953 0.2387 0 8
8.6316 5.3433 -2.4953 0.2387 0 8
8.5445 5.4816 -2.4953 0.2387 0 8
8.4551 5.6184 -2.4953 0.2387 0 8
8.3636 5.7538 -2.4953 0.2387 0 8
8.2699 5.8877 -2.4953 0.2387 0 8
8.1740 6.0201 -2.4953 0.2387 0 8
8.0760 6.1509 -2.4953 0.2387 0 8
7.9760 6.2801 -2.4953 0.2387 0 8
7.8738 6.4077 -2.4953 0.2387 0 8
7.7697 6.5336 -2.4953 0.2387 0 8
7.6635 6.6578 -2.4953 0.2387 0 8
7.5553 6.7803 -2.4953 0.2387 0 8
7.4452 6.9011 -2.4953 0.2387 0 8
7.3331 7.0201 -2.4953 0.2387 0 8
7.2192 7.1372 -2.4953 0.2387 0 8
7.1033 7.2525 -2.4953 0.2387 0 8
6.9857 7.3659 -2.4953 0.2387 0 8
6.8662 7.4774 -2.4953 0.2387 0 8
6.7449 7.5870 -2.4953 0.2387 0 8
6.6219 7.6946 -2.4953 0.2387 0 8
6.4972 7.8002 -2.4953 0.2387 0 8
6.3707 7.9038 -2.4953 0.2387 0 8
6.2427 8.0053 -2.4953 0.2387 0 8
6.1130 8.1047 -2.4953 0.2387 0 8
5.9817 8.2021 -2.4953 0.2387 0 8
5.8489 8.2973 -2.4953 0.2387 0 8
5.7146 8.3904 -2.4953 0.2387 0 8
5.9195 8.9993 -2.6477 0.2387 0 7
5.7739 9.0935 -2.6477 0.2387 0 7
5.6267 9.1852 -2.6477 0.2387 0 7
5.4781 9.2746 -2.6477 0.2387 0 7
5.3281 9.3616 -2.6477 0.2387 0 7
5.1767 9.4462 -2.6477 0.2387 0 7
5.0240 9.5283 -2.6477 0.2387 0 7
4.8699 9.6079 -2.6477 0.2387 0 7
4.7146 9.6851 -2.6477 0.2387 0 7
4.5581 9.7597 -2.6477 0.2387 0 7
4.4004 9.8318 -2.6477 0.2387 0 7
4.2416 9.9014 -2.6477 0.2387 0 7
4.0816 9.9684 -2.6477 0.2387 0 7
3.9206 10.0328 -2.6477 0.2387 0 7
3.7586 10.0946 -2.6477 0.2387 0 7
3.5956 10.1538 -2.6477 0.2387 0 7
3.4317 10.2104 -2.6477 0.2387 0 7
3.2669 10.2643 -2.6477 0.2387 0 7
3.1012 10.3156 -2.6477 0.2387 0 7
2.9347 10.3642 -2.6477 0.2387 0 7
2.7675 10.4101 -2.6477 0.2387 0 7
2.5996 10.4533 -2.6477 0.2387 0 7
2.4309 10.4938 -2.6477 0.2387 0 7
2.2617 10.5315 -2.6477 0.2387 0 7
2.0919 10.5666 -2.6477 0.2387 0 7
1.9215 10.5989 -2.6477 0.2387 0 7
1.7506 10.6284 -2.6477 0.2387 0 7
1.5793 10.6553 -2.6477 0.2387 0 7
1.4076 10.6793 -2.6477 0.2387 0 7
1.2355 10.7006 -2.6477 0.2387 0 7
1.0630 10.7191 -2.6477 0.2387 0 7
0.8903 10.7348 -2.6477 0.2387 0 7
0.7174 10.7477 -2.6477 0.2387 0 7
0.5443 10.7579 -2.6477 0.2387 0 7
0.3710 10.7653 -2.6477 0.2387 0 7
0.1977 10.7698 -2.6477 0.2387 0 7
0.0243 10.7716 -2.6477 0.2387 0 7
-0.1491 10.7706 -2.6477 0.2387 0 7
-0.3225 10.7668 -2.6477 0.2387 0 7
-0.4958 10.7602 -2.6477 0.2387 0 7
-0.6689 10.7509 -2.6477 0.2387 0 7
9.2221 3.3143 -2.4953 0.2468 0 8
9.1675 3.4623 -2.4953 0.2468 0 8
9.1106 3.6095 -2.4953 0.2468 0 8
9.0513 3.7557 -2.4953 0.2468 0 8
8.9897 3.9009 -2.4953 0.2468 0 8
8.9257 4.0451 -2.4953 0.2468 0 8
8.8594 4.1883 -2.4953 0.2468 0 8
8.7909 4.3303 -2.4953 0.2468 0 8
8.7200 4.4713 -2.4953 0.2468 0 8
8.6469 4.6111 -2.4953 0.2468 0 8
8.5715 4.7497 -2.4953 0.2468 0 8
8.4940 4.8871 -2.4953 0.2468 0 8
8.4142 5.0232 -2.4953 0.2468 0 8
8.3322 5.1580 -2.4953 0.2468 0 8
8.2481 5.2915 -2.4953 0.2468 0 8
8.1619 5.4236 -2.4953 0.2468 0 8
8.0735 5.5542 -2.4953 0.2468 0 8
