ply
format ascii 1.0
element vertex 1328
property float32 x
property float32 y
property float32 z
property float32 CosAngle
property uint32 ObjIdx
property uint32 ObjTag
end_header
-13.6366 28.7097 -2.6477 0.0830 0 7
-14.0971 28.4864 -2.6477 0.0830 0 7
-14.5541 28.2556 -2.6477 0.0830 0 7
-15.0072 28.0176 -2.6477 0.0830 0 7
-15.4565 27.7723 -2.6477 0.0830 0 7
-15.9017 27.5198 -2.6477 0.0830 0 7
-16.3429 27.2601 -2.6477 0.0830 0 7
-16.7797 26.9934 -2.6477 0.0830 0 7
-17.2123 26.7197 -2.6477 0.0830 0 7
-17.6404 26.4390 -2.6477 0.0830 0 7
-18.0638 26.1515 -2.6477 0.0830 0 7
-18.4827 25.8572 -2.6477 0.0830 0 7
-18.8967 25.5562 -2.6477 0.0830 0 7
-19.3058 25.2486 -2.6477 0.0830 0 7
-19.7099 24.9344 -2.6477 0.0830 0 7
-20.1089 24.6137 -2.6477 0.0830 0 7
-20.5027 24.2867 -2.6477 0.0830 0 7
-20.8911 23.9534 -2.6477 0.0830 0 7
-20.1109 22.3226 -2.5029 0.0830 0 8
-20.4677 21.9958 -2.5029 0.0830 0 14
-20.8193 21.6633 -2.5029 0.0830 0 14
-21.1655 21.3252 -2.5029 0.0830 0 14
-21.5062 20.9816 -2.5029 0.0830 0 14
-21.8413 20.6326 -2.5029 0.0830 0 14
-22.1707 20.2782 -2.5029 0.0830 0 14
-22.4944 19.9185 -2.5029 0.0830 0 14
-22.8123 19.5536 -2.5029 0.0830 0 14
-23.1242 19.1837 -2.5029 0.0830 0 14
-23.5354 18.8933 -2.5141 0.6307 0 8
-24.3130 18.8819 -2.5644 0.6183 0 8
-25.1225 18.8698 -2.6174 0.6058 0 8
-25.7175 18.6766 -2.6477 0.0830 0 7
-26.0149 18.2600 -2.6477 0.0830 0 7
-26.3056 17.8387 -2.6477 0.0830 0 7
-26.5895 17.4127 -2.6477 0.0830 0 7
-26.8664 16.9823 -2.6477 0.0830 0 7
-27.1364 16.5474 -2.6477 0.0830 0 7
-27.3994 16.1082 -2.6477 0.0830 0 7
-27.6553 15.6649 -2.6477 0.0830 0 7
-27.9040 15.2175 -2.6477 0.0830 0 7
-28.1454 14.7661 -2.6477 0.0830 0 7
-28.3796 14.3110 -2.6477 0.0830 0 7
-28.6063 13.8521 -2.6477 0.0830 0 7
-28.8257 13.3896 -2.6477 0.0830 0 7
-29.0376 12.9236 -2.6477 0.0830 0 7
-29.2420 12.4543 -2.6477 0.0830 0 7
-29.4387 11.9818 -2.6477 0.0830 0 7
-29.6279 11.5061 -2.6477 0.0830 0 7
-29.8093 11.0275 -2.6477 0.0830 0 7
-29.9830 10.5462 -2.6477 0.0830 0 7
-30.1490 10.0618 -2.6477 0.0830 0 7
-30.3071 9.5750 -2.6477 0.0830 0 7
-30.4574 9.0857 -2.6477 0.0830 0 7
-28.8385 8.0993 -2.4953 0.0830 0 8
-28.9651 7.6338 -2.4953 0.0830 0 8
-29.0843 7.1663 -2.4953 0.0830 0 8
-29.1960 6.6970 -2.4953 0.0830 0 8
-29.3000 6.2259 -2.4953 0.0830 0 8
-29.3965 5.7534 -2.4953 0.0830 0 8
-29.4853 5.2792 -2.4953 0.0830 0 8
-29.5665 4.8037 -2.4953 0.0830 0 8
-29.6401 4.3269 -2.4953 0.0830 0 8
-29.7059 3.8490 -2.4953 0.0830 0 8
-29.7640 3.3701 -2.4953 0.0830 0 8
-29.8144 2.8904 -2.4953 0.0830 0 8
-29.8571 2.4098 -2.4953 0.0830 0 8
-29.8921 1.9287 -2.4953 0.0830 0 8
-29.9192 1.4471 -2.4953 0.0830 0 8
-29.9387 0.9650 -2.4953 0.0830 0 8
-29.9503 0.4828 -2.4953 0.0830 0 8
-29.9542 0.0004 -2.4953 0.0830 0 8
-29.9503 -0.4820 -2.4953 0.0830 0 8
-29.9387 -0.9643 -2.4953 0.0830 0 8
-29.9193 -1.4463 -2.4953 0.0830 0 8
-29.8921 -1.9280 -2.4953 0.0830 0 8
-29.8572 -2.4091 -2.4953 0.0830 0 8
-29.8145 -2.8896 -2.4953 0.0830 0 8
-29.7641 -3.3694 -2.4953 0.0830 0 8
-29.7060 -3.8483 -2.4953 0.0830 0 8
-29.6402 -4.3262 -2.4953 0.0830 0 8
-29.5667 -4.8029 -2.4953 0.0830 0 8
-29.4855 -5.2785 -2.4953 0.0830 0 8
-29.3966 -5.7526 -2.4953 0.0830 0 8
-29.3002 -6.2253 -2.4953 0.0830 0 8
-29.1961 -6.6963 -2.4953 0.0830 0 8
-29.0845 -7.1657 -2.4953 0.0830 0 8
-28.9653 -7.6331 -2.4953 0.0830 0 8
-28.8387 -8.0986 -2.4953 0.0830 0 8
-28.7045 -8.5620 -2.4953 0.0830 0 8
-28.5629 -9.0231 -2.4953 0.0830 0 8
-28.4139 -9.4819 -2.4953 0.0830 0 8
-28.2575 -9.9383 -2.4953 0.0830 0 8
-28.0938 -10.3921 -2.4953 0.0830 0 8
-27.9228 -10.8431 -2.4953 0.0830 0 8
-27.7445 -11.2914 -2.4953 0.0830 0 8
-27.5591 -11.7368 -2.4953 0.0830 0 8
-27.3665 -12.1790 -2.4953 0.0830 0 8
-27.1668 -12.6182 -2.4953 0.0830 0 8
-26.9601 -13.0541 -2.4953 0.0830 0 8
-26.7464 -13.4866 -2.4953 0.0830 0 8
-26.5257 -13.9155 -2.4953 0.0830 0 8
-26.2982 -14.3409 -2.4953 0.0830 0 8
-26.0638 -14.7626 -2.4953 0.0830 0 8
-25.8227 -15.1804 -2.4953 0.0830 0 8
-25.5749 -15.5943 -2.4953 0.0830 0 8
-25.3204 -16.0041 -2.4953 0.0830 0 8
-25.0594 -16.4098 -2.4953 0.0830 0 8
-24.7919 -16.8113 -2.4953 0.0830 0 8
-24.5179 -17.2083 -2.4953 0.0830 0 8
-24.2376 -17.6009 -2.4953 0.0830 0 8
-23.9510 -17.9890 -2.4953 0.0830 0 8
-23.6582 -18.3724 -2.4953 0.0830 0 8
-23.3593 -18.7510 -2.4953 0.0830 0 8
-23.0543 -19.1247 -2.4953 0.0830 0 8
-22.7433 -19.4935 -2.4953 0.0830 0 8
-22.4264 -19.8573 -2.4953 0.0830 0 8
-22.1037 -20.2159 -2.4953 0.0830 0 8
-21.7753 -20.5692 -2.4953 0.0830 0 8
-21.4412 -20.9172 -2.4953 0.0830 0 8
-21.1016 -21.2598 -2.4953 0.0830 0 8
-20.7565 -21.5969 -2.4953 0.0830 0 8
-20.4060 -21.9283 -2.4953 0.0830 0 8
-20.0502 -22.2541 -2.4953 0.0830 0 8
-19.6892 -22.5741 -2.4953 0.0830 0 8
-19.3231 -22.8883 -2.4953 0.0830 0 8
-18.9520 -23.1965 -2.4953 0.0830 0 8
-18.5760 -23.4987 -2.4953 0.0830 0 8
-18.1951 -23.7948 -2.4953 0.0830 0 8
-17.8092 -24.0856 -2.4953 0.0830 0 8
-17.4194 -24.3684 -2.4953 0.0830 0 8
-17.0247 -24.6458 -2.4953 0.0830 0 8
-16.6256 -24.9168 -2.4953 0.0830 0 8
-16.2222 -25.1813 -2.4953 0.0830 0 8
-15.8146 -25.4392 -2.4953 0.0830 0 8
-15.4028 -25.6906 -2.4953 0.0830 0 8
-14.9871 -25.9354 -2.4953 0.0830 0 8
-14.5675 -26.1733 -2.4953 0.0830 0 8
-14.1441 -26.4045 -2.4953 0.0830 0 8
-13.7170 -26.6289 -2.4953 0.0830 0 8
-13.2864 -26.8464 -2.4953 0.0830 0 8
-12.8523 -27.0568 -2.4953 0.0830 0 8
-12.4149 -27.2603 -2.4953 0.0830 0 8
-11.9743 -27.4567 -2.4953 0.0830 0 8
-11.5306 -27.6460 -2.4953 0.0830 0 8
-11.0839 -27.8281 -2.4953 0.0830 0 8
-10.6343 -28.0030 -2.4953 0.0830 0 8
-10.1819 -28.1706 -2.4953 0.0830 0 8
-9.7269 -28.3309 -2.4953 0.0830 0 8
-9.2694 -28.4839 -2.4953 0.0830 0 8
-8.8095 -28.6295 -2.4953 0.0830 0 8
-8.3473 -28.7676 -2.4953 0.0830 0 8
-7.8830 -28.8983 -2.4953 0.0830 0 8
-7.4166 -29.0215 -2.4953 0.0830 0 8
-6.9482 -29.1372 -2.4953 0.0830 0 8
-6.4781 -29.2453 -2.4953 0.0830 0 8
-6.0063 -29.3459 -2.4953 0.0830 0 8
-3.4955 28.6679 -2.6477 0.0913 0 7
-3.9568 28.6079 -2.6477 0.0913 0 7
-4.4170 28.5405 -2.6477 0.0913 0 7
-4.8760 28.4657 -2.6477 0.0913 0 7
-5.3338 28.3834 -2.6477 0.0913 0 7
-5.7902 28.2939 -2.6477 0.0913 0 7
-6.2451 28.1970 -2.6477 0.0913 0 7
-6.6984 28.0927 -2.6477 0.0913 0 7
-7.1499 27.9812 -2.6477 0.0913 0 7
-7.5996 27.8624 -2.6477 0.0913 0 7
-8.0473 27.7364 -2.6477 0.0913 0 7
-8.4930 27.6032 -2.6477 0.0913 0 7
-8.9364 27.4629 -2.6477 0.0913 0 7
-9.3775 27.3154 -2.6477 0.0913 0 7
-9.8162 27.1609 -2.6477 0.0913 0 7
-10.2523 26.9992 -2.6477 0.0913 0 7
-10.6858 26.8306 -2.6477 0.0913 0 7
-11.1165 26.6551 -2.6477 0.0913 0 7
-11.5443 26.4726 -2.6477 0.0913 0 7
-11.9691 26.2832 -2.6477 0.0913 0 7
-12.3909 26.0871 -2.6477 0.0913 0 7
-12.8094 25.8842 -2.6477 0.0913 0 7
-13.2246 25.6745 -2.6477 0.0913 0 7
-13.6363 25.4582 -2.6477 0.0913 0 7
-14.0445 25.2353 -2.6477 0.0913 0 7
-14.4491 25.0058 -2.6477 0.0913 0 7
-14.8500 24.7699 -2.6477 0.0913 0 7
-15.2469 24.5276 -2.6477 0.0913 0 7
-15.6400 24.2788 -2.6477 0.0913 0 7
-16.0289 24.0238 -2.6477 0.0913 0 7
-16.4137 23.7626 -2.6477 0.0913 0 7
-15.8819 22.2188 -2.5038 0.6386 0 8
-16.2315 21.9518 -2.5029 0.0913 0 14
-16.5830 21.6876 -2.5029 0.0913 0 14
-16.9301 21.4177 -2.5029 0.0913 0 14
-17.2728 21.1423 -2.5029 0.0913 0 14
-17.6110 20.8614 -2.5029 0.0913 0 14
-17.9447 20.5751 -2.5029 0.0913 0 14
-18.2737 20.2834 -2.5029 0.0913 0 14
-18.5980 19.9865 -2.5029 0.0913 0 14
-18.9175 19.6844 -2.5029 0.0913 0 14
-19.2320 19.3772 -2.5029 0.0913 0 14
-19.5416 19.0650 -2.5029 0.0913 0 14
-20.0087 18.9014 -2.5234 0.6910 0 8
-20.6548 18.8917 -2.5662 0.6795 0 8
-21.3233 18.8815 -2.6111 0.6678 0 8
-21.9274 18.7952 -2.6477 0.0913 0 7
-22.2272 18.4396 -2.6477 0.0913 0 7
-22.5213 18.0793 -2.6477 0.0913 0 7
-22.8096 17.7142 -2.6477 0.0913 0 7
-23.0919 17.3446 -2.6477 0.0913 0 7
-23.3682 16.9705 -2.6477 0.0913 0 7
-23.6385 16.5919 -2.6477 0.0913 0 7
-23.9026 16.2091 -2.6477 0.0913 0 7
-24.1605 15.8221 -2.6477 0.0913 0 7
-24.4122 15.4309 -2.6477 0.0913 0 7
-24.6575 15.0358 -2.6477 0.0913 0 7
-24.8965 14.6368 -2.6477 0.0913 0 7
-25.1290 14.2339 -2.6477 0.0913 0 7
-25.3549 13.8274 -2.6477 0.0913 0 7
-25.5743 13.4173 -2.6477 0.0913 0 7
-25.7871 13.0037 -2.6477 0.0913 0 7
-25.9932 12.5867 -2.6477 0.0913 0 7
-26.1925 12.1664 -2.6477 0.0913 0 7
-26.3850 11.7431 -2.6477 0.0913 0 7
-26.5707 11.3166 -2.6477 0.0913 0 6
-26.7495 10.8873 -2.6477 0.0913 0 7
-26.9214 10.4551 -2.6477 0.0913 0 7
-27.0863 10.0202 -2.6477 0.0913 0 7
-27.2441 9.5827 -2.6477 0.0913 0 7
-27.3949 9.1427 -2.6477 0.0913 0 7
-25.9535 8.1995 -2.4953 0.0913 0 8
-26.0822 7.7805 -2.4953 0.0913 0 8
-26.2041 7.3594 -2.4953 0.0913 0 8
-26.3192 6.9365 -2.4953 0.0913 0 8
-26.4275 6.5118 -2.4953 0.0913 0 8
-26.5289 6.0853 -2.4953 0.0913 0 8
-26.6235 5.6573 -2.4953 0.0913 0 8
-26.7111 5.2278 -2.4953 0.0913 0 8
-26.7919 4.7969 -2.4953 0.0913 0 8
-26.8656 4.3649 -2.4953 0.0913 0 8
-26.9325 3.9317 -2.4953 0.0913 0 8
-26.9923 3.4974 -2.4953 0.0913 0 8
-27.0451 3.0623 -2.4953 0.0913 0 8
-27.0909 2.6263 -2.4953 0.0913 0 8
-27.1297 2.1897 -2.4953 0.0913 0 8
-27.1614 1.7525 -2.4953 0.0913 0 8
-27.1861 1.3149 -2.4953 0.0913 0 8
-27.2038 0.8769 -2.4953 0.0913 0 8
-27.2144 0.4387 -2.4953 0.0913 0 8
-27.2179 0.0004 -2.4953 0.0913 0 8
-27.2144 -0.4380 -2.4953 0.0913 0 8
-27.2038 -0.8762 -2.4953 0.0913 0 8
-27.1862 -1.3142 -2.4953 0.0913 0 8
-27.1615 -1.7518 -2.4953 0.0913 0 8
-27.1297 -2.1890 -2.4953 0.0913 0 8
-27.0910 -2.6256 -2.4953 0.0913 0 8
-27.0452 -3.0616 -2.4953 0.0913 0 8
-26.9924 -3.4967 -2.4953 0.0913 0 8
-26.9326 -3.9310 -2.4953 0.0913 0 8
-26.8658 -4.3642 -2.4953 0.0913 0 8
-26.7920 -4.7963 -2.4953 0.0913 0 8
-26.7113 -5.2271 -2.4953 0.0913 0 8
-26.6236 -5.6566 -2.4953 0.0913 0 8
-26.5291 -6.0846 -2.4953 0.0913 0 8
-26.4276 -6.5111 -2.4953 0.0913 0 8
-26.3194 -6.9358 -2.4953 0.0913 0 8
-26.2043 -7.3588 -2.4953 0.0913 0 8
-26.0823 -7.7798 -2.4953 0.0913 0 8
-25.9537 -8.1989 -2.4953 0.0913 0 8
-25.8183 -8.6158 -2.4953 0.0913 0 8
-25.6762 -9.0304 -2.4953 0.0913 0 8
-25.5274 -9.4428 -2.4953 0.0913 0 8
-25.3720 -9.8526 -2.4953 0.0913 0 8
-25.2101 -10.2600 -2.4953 0.0913 0 8
-25.0416 -10.6646 -2.4953 0.0913 0 8
-24.8666 -11.0665 -2.4953 0.0913 0 8
-24.6851 -11.4655 -2.4953 0.0913 0 8
-24.4973 -11.8616 -2.4953 0.0913 0 8
-24.3031 -12.2545 -2.4953 0.0913 0 8
-24.1026 -12.6444 -2.4953 0.0913 0 8
-23.8958 -13.0309 -2.4953 0.0913 0 8
-23.6829 -13.4140 -2.4953 0.0913 0 8
-23.4638 -13.7937 -2.4953 0.0913 0 8
-23.2386 -14.1698 -2.4953 0.0913 0 8
-23.0074 -14.5422 -2.4953 0.0913 0 8
-22.7702 -14.9108 -2.4953 0.0913 0 8
-22.5298 -15.2683 -2.4953 0.0913 0 8
-22.2782 -15.6364 -2.4953 0.0913 0 8
-22.0235 -15.9931 -2.4953 0.0913 0 8
-21.7631 -16.3457 -2.4953 0.0913 0 8
-21.4971 -16.6940 -2.4953 0.0913 0 8
-21.2254 -17.0381 -2.4953 0.0913 0 8
-20.9483 -17.3777 -2.4953 0.0913 0 8
-20.6657 -17.7128 -2.4953 0.0913 0 8
-20.3778 -18.0433 -2.4953 0.0913 0 8
-20.0845 -18.3692 -2.4953 0.0913 0 8
-19.7861 -18.6902 -2.4953 0.0913 0 8
-19.4826 -19.0064 -2.4953 0.0913 0 8
-19.1740 -19.3177 -2.4953 0.0913 0 8
-18.8604 -19.6240 -2.4953 0.0913 0 8
-18.5419 -19.9252 -2.4953 0.0913 0 8
-18.2186 -20.2212 -2.4953 0.0913 0 8
-17.8906 -20.5120 -2.4953 0.0913 0 8
-17.5580 -20.7974 -2.4953 0.0913 0 8
-17.2209 -21.0771 -2.4953 0.0913 0 8
-16.8791 -21.3521 -2.4953 0.0913 0 8
-16.5330 -21.6211 -2.4953 0.0913 0 8
-16.1827 -21.8846 -2.4953 0.0913 0 8
-15.8281 -22.1424 -2.4953 0.0913 0 8
-15.4695 -22.3944 -2.4953 0.0913 0 8
-15.1069 -22.6406 -2.4953 0.0913 0 8
-14.7403 -22.8810 -2.4953 0.0913 0 8
-14.3699 -23.1154 -2.4953 0.0913 0 8
-13.9958 -23.3438 -2.4953 0.0913 0 8
-13.6180 -23.5662 -2.4953 0.0913 0 8
-13.2367 -23.7824 -2.4953 0.0913 0 8
-12.8520 -23.9925 -2.4953 0.0913 0 8
-12.4640 -24.1964 -2.4953 0.0913 0 8
-12.0727 -24.3940 -2.4953 0.0913 0 8
-11.6783 -24.5852 -2.4953 0.0913 0 8
-11.2808 -24.7701 -2.4953 0.0913 0 8
-10.8805 -24.9486 -2.4953 0.0913 0 8
-10.4773 -25.1205 -2.4953 0.0913 0 8
-10.0714 -25.2860 -2.4953 0.0913 0 8
-9.6628 -25.4451 -2.4953 0.0913 0 8
-9.2518 -25.5972 -2.4953 0.0913 0 8
-8.8384 -25.7429 -2.4953 0.0913 0 8
-8.4227 -25.8819 -2.4953 0.0913 0 8
-8.0048 -26.0142 -2.4953 0.0913 0 8
-7.5848 -26.1397 -2.4953 0.0913 0 8
-7.1629 -26.2585 -2.4953 0.0913 0 8
-6.7391 -26.3704 -2.4953 0.0913 0 8
-6.3135 -26.4755 -2.4953 0.0913 0 8
-5.8863 -26.5738 -2.4953 0.0913 0 8
-5.4576 -26.6651 -2.4953 0.0913 0 8
-3.2025 26.2650 -2.6477 0.0996 0 7
-3.6251 26.2100 -2.6477 0.0996 0 7
-4.0467 26.1482 -2.6477 0.0996 0 7
-4.4673 26.0797 -2.6477 0.0996 0 7
-4.8867 26.0043 -2.6477 0.0996 0 7
-5.3049 25.9222 -2.6477 0.0996 0 7
-5.7216 25.8334 -2.6477 0.0996 0 7
-6.1369 25.7380 -2.6477 0.0996 0 7
-6.5506 25.6358 -2.6477 0.0996 0 7
-6.9626 25.5270 -2.6477 0.0996 0 7
-7.3728 25.4116 -2.6477 0.0996 0 7
-7.7811 25.2895 -2.6477 0.0996 0 7
-8.1874 25.1609 -2.6477 0.0996 0 7
-8.5915 25.0258 -2.6477 0.0996 0 7
-8.9934 24.8842 -2.6477 0.0996 0 7
-9.3930 24.7362 -2.6477 0.0996 0 7
-9.7901 24.5817 -2.6477 0.0996 0 7
-10.1847 24.4208 -2.6477 0.0996 0 7
-10.5767 24.2537 -2.6477 0.0996 0 7
-10.9659 24.0802 -2.6477 0.0996 0 7
-11.3523 23.9005 -2.6477 0.0996 0 7
-11.7357 23.7145 -2.6477 0.0996 0 7
-11.4535 22.2362 -2.5029 0.0996 0 8
-11.8102 22.0489 -2.5029 0.0996 0 14
-12.1637 21.8558 -2.5029 0.0996 0 14
-12.5141 21.6571 -2.5029 0.0996 0 14
-12.8613 21.4528 -2.5029 0.0996 0 14
-13.2051 21.2429 -2.5029 0.0996 0 14
-13.5455 21.0274 -2.5029 0.0996 0 14
-13.8823 20.8065 -2.5029 0.0996 0 14
-14.2156 20.5803 -2.5029 0.0996 0 14
-14.5452 20.3487 -2.5029 0.0996 0 14
-14.8710 20.1118 -2.5029 0.0996 0 14
-15.1930 19.8697 -2.5029 0.0996 0 14
-15.5110 19.6225 -2.5029 0.0996 0 14
-15.8250 19.3702 -2.5029 0.0996 0 14
-16.1349 19.1128 -2.5029 0.0996 0 14
-16.4955 18.9134 -2.5113 0.7573 0 8
-17.0323 18.9054 -2.5463 0.7469 0 8
-17.5843 18.8971 -2.5830 0.7362 0 8
-18.1525 18.8884 -2.6214 0.7254 0 8
-18.6392 18.7799 -2.6477 0.0996 0 7
-18.9393 18.4773 -2.6477 0.0996 0 7
-19.2343 18.1699 -2.6477 0.0996 0 7
-19.5245 17.8578 -2.6477 0.0996 0 7
-19.8095 17.5411 -2.6477 0.0996 0 7
-20.0894 17.2198 -2.6477 0.0996 0 7
-20.3642 16.8940 -2.6477 0.0996 0 7
-20.6336 16.5639 -2.6477 0.0996 0 7
-20.8977 16.2294 -2.6477 0.0996 0 7
-21.1563 15.8908 -2.6477 0.0996 0 7
-21.4095 15.5480 -2.6477 0.0996 0 7
-21.6571 15.2012 -2.6477 0.0996 0 7
-21.8991 14.8504 -2.6477 0.0996 0 6
-22.1354 14.4959 -2.6477 0.0996 0 7
-22.3660 14.1375 -2.6477 0.0996 0 7
-22.5907 13.7755 -2.6477 0.0996 0 7
-22.8096 13.4099 -2.6477 0.0996 0 7
-23.0227 13.0408 -2.6477 0.0996 0 7
-23.2297 12.6684 -2.6477 0.0996 0 7
-23.4307 12.2926 -2.6477 0.0996 0 7
-23.6256 11.9137 -2.6477 0.0996 0 7
-23.8144 11.5317 -2.6477 0.0996 0 7
-23.9970 11.1467 -2.6477 0.0996 0 7
-24.1734 10.7587 -2.6477 0.0996 0 7
-24.3436 10.3681 -2.6477 0.0996 0 7
-24.5074 9.9747 -2.6477 0.0996 0 7
-24.6648 9.5787 -2.6477 0.0996 0 7
-24.8159 9.1803 -2.6477 0.0996 0 7
-23.5238 8.2741 -2.4953 0.0996 0 8
-23.6540 7.8942 -2.4953 0.0996 0 8
-23.7780 7.5122 -2.4953 0.0996 0 8
-23.8959 7.1283 -2.4953 0.0996 0 8
-24.0076 6.7426 -2.4953 0.0996 0 8
-24.1131 6.3551 -2.4953 0.0996 0 8
-24.2123 5.9659 -2.4953 0.0996 0 8
-24.3053 5.5752 -2.4953 0.0996 0 8
-24.3919 5.1831 -2.4953 0.0996 0 8
-24.4722 4.7896 -2.4953 0.0996 0 8
-24.5462 4.3949 -2.4953 0.0996 0 8
-24.6138 3.9990 -2.4953 0.0996 0 8
-24.6750 3.6021 -2.4953 0.0996 0 8
-24.7298 3.2043 -2.4953 0.0996 0 8
-24.7782 2.8056 -2.4953 0.0996 0 8
-24.8201 2.4062 -2.4953 0.0996 0 8
-24.8556 2.0062 -2.4953 0.0996 0 8
-24.8848 1.6056 -2.4953 0.0996 0 8
-24.9074 1.2047 -2.4953 0.0996 0 8
-24.9235 0.8034 -2.4953 0.0996 0 8
-24.9333 0.4019 -2.4953 0.0996 0 8
-24.9365 0.0003 -2.4953 0.0996 0 8
-24.9333 -0.4013 -2.4953 0.0996 0 8
-24.9236 -0.8028 -2.4953 0.0996 0 8
-24.9074 -1.2040 -2.4953 0.0996 0 8
-24.8848 -1.6050 -2.4953 0.0996 0 8
-24.8557 -2.0055 -2.4953 0.0996 0 8
-24.8202 -2.4056 -2.4953 0.0996 0 8
-24.7782 -2.8050 -2.4953 0.0996 0 8
-24.7299 -3.2036 -2.4953 0.0996 0 8
-24.6751 -3.6015 -2.4953 0.0996 0 8
-24.6139 -3.9984 -2.4953 0.0996 0 8
-24.5463 -4.3943 -2.4953 0.0996 0 8
-24.4723 -4.7890 -2.4953 0.0996 0 8
-24.3920 -5.1825 -2.4953 0.0996 0 8
-24.3054 -5.5746 -2.4953 0.0996 0 8
-24.2125 -5.9653 -2.4953 0.0996 0 8
-24.1133 -6.3545 -2.4953 0.0996 0 8
-24.0078 -6.7420 -2.4953 0.0996 0 8
-23.8961 -7.1277 -2.4953 0.0996 0 8
-23.7782 -7.5116 -2.4953 0.0996 0 8
-23.6542 -7.8936 -2.4953 0.0996 0 8
-23.5240 -8.2735 -2.4953 0.0996 0 8
-23.3877 -8.6513 -2.4953 0.0996 0 8
-23.2454 -9.0268 -2.4953 0.0996 0 8
-23.0970 -9.4000 -2.4953 0.0996 0 8
-22.9426 -9.7707 -2.4953 0.0996 0 8
-22.7823 -10.1389 -2.4953 0.0996 0 8
-22.6160 -10.5045 -2.4953 0.0996 0 8
-22.4439 -10.8673 -2.4953 0.0996 0 8
-22.2660 -11.2274 -2.4953 0.0996 0 8
-22.0823 -11.5845 -2.4953 0.0996 0 8
-21.8929 -11.9386 -2.4953 0.0996 0 8
-21.6978 -12.2896 -2.4953 0.0996 0 8
-21.4971 -12.6375 -2.4953 0.0996 0 8
-21.2907 -12.9820 -2.4953 0.0996 0 8
-21.0789 -13.3232 -2.4953 0.0996 0 8
-20.8616 -13.6610 -2.4953 0.0996 0 8
-20.6389 -13.9952 -2.4953 0.0996 0 8
-20.4109 -14.3257 -2.4953 0.0996 0 8
-20.1775 -14.6526 -2.4953 0.0996 0 8
-19.9389 -14.9756 -2.4953 0.0996 0 8
-19.6952 -15.2947 -2.4953 0.0996 0 8
-19.4463 -15.6099 -2.4953 0.0996 0 8
-19.1924 -15.9211 -2.4953 0.0996 0 8
-18.9335 -16.2281 -2.4953 0.0996 0 8
-18.6697 -16.5309 -2.4953 0.0996 0 8
-18.4011 -16.8294 -2.4953 0.0996 0 8
-18.1277 -17.1236 -2.4953 0.0996 0 8
-17.8495 -17.4133 -2.4953 0.0996 0 8
-17.5668 -17.6985 -2.4953 0.0996 0 8
-17.2795 -17.9791 -2.4953 0.0996 0 8
-16.9877 -18.2550 -2.4953 0.0996 0 8
-16.6915 -18.5263 -2.4953 0.0996 0 8
-16.3910 -18.7926 -2.4953 0.0996 0 8
-16.0862 -19.0542 -2.4953 0.0996 0 8
-15.7773 -19.3108 -2.4953 0.0996 0 8
-15.4643 -19.5624 -2.4953 0.0996 0 8
-15.1472 -19.8089 -2.4953 0.0996 0 8
-14.8262 -20.0502 -2.4953 0.0996 0 8
-14.5014 -20.2864 -2.4953 0.0996 0 8
-14.1729 -20.5173 -2.4953 0.0996 0 8
-13.8406 -20.7429 -2.4953 0.0996 0 8
-13.5048 -20.9631 -2.4953 0.0996 0 8
-13.1654 -21.1778 -2.4953 0.0996 0 8
-12.8226 -21.3871 -2.4953 0.0996 0 8
-12.4766 -21.5908 -2.4953 0.0996 0 8
-12.1272 -21.7890 -2.4953 0.0996 0 8
-11.7748 -21.9814 -2.4953 0.0996 0 8
-11.4192 -22.1682 -2.4953 0.0996 0 8
-11.0608 -22.3492 -2.4953 0.0996 0 8
-10.6994 -22.5245 -2.4953 0.0996 0 8
-10.3353 -22.6939 -2.4953 0.0996 0 8
-9.9685 -22.8574 -2.4953 0.0996 0 8
-9.5991 -23.0149 -2.4953 0.0996 0 8
-9.2272 -23.1665 -2.4953 0.0996 0 8
-8.8529 -23.3121 -2.4953 0.0996 0 8
-8.4763 -23.4517 -2.4953 0.0996 0 8
-8.0976 -23.5851 -2.4953 0.0996 0 8
-7.7167 -23.7125 -2.4953 0.0996 0 8
-7.3338 -23.8337 -2.4953 0.0996 0 8
-6.9491 -23.9487 -2.4953 0.0996 0 8
-6.5625 -24.0575 -2.4953 0.0996 0 8
-6.1742 -24.1600 -2.4953 0.0996 0 8
-5.7843 -24.2564 -2.4953 0.0996 0 8
-5.3929 -24.3464 -2.4953 0.0996 0 8
-5.0001 -24.4301 -2.4953 0.0996 0 8
-2.9545 24.2305 -2.6477 0.1078 0 7
-3.3443 24.1798 -2.6477 0.1078 0 7
-3.7333 24.1228 -2.6477 0.1078 0 7
-4.1213 24.0596 -2.6477 0.1078 0 7
-4.5082 23.9901 -2.6477 0.1078 0 7
-4.8940 23.9144 -2.6477 0.1078 0 7
-5.2785 23.8325 -2.6477 0.1078 0 7
-5.6616 23.7444 -2.6477 0.1078 0 7
-5.7128 22.3569 -2.5029 0.1078 0 8
-6.0721 22.2620 -2.5029 0.1078 0 8
-6.4298 22.1613 -2.5029 0.1078 0 14
-6.7859 22.0549 -2.5029 0.1078 0 14
-7.1402 21.9427 -2.5029 0.1078 0 14
-7.4926 21.8249 -2.5029 0.1078 0 14
-7.8431 21.7014 -2.5029 0.1078 0 14
-8.1916 21.5723 -2.5029 0.1078 0 14
-8.5379 21.4376 -2.5029 0.1078 0 14
-8.8820 21.2973 -2.5029 0.1078 0 14
-9.2239 21.1515 -2.5029 0.1078 0 14
-9.5633 21.0002 -2.5029 0.1078 0 14
-9.9002 20.8435 -2.5029 0.1078 0 14
-10.2346 20.6813 -2.5029 0.1078 0 14
-10.5664 20.5138 -2.5029 0.1078 0 14
-10.8954 20.3410 -2.5029 0.1078 0 14
-11.2215 20.1629 -2.5029 0.1078 0 14
-11.5448 19.9796 -2.5029 0.1078 0 14
-11.8651 19.7911 -2.5029 0.1078 0 14
-12.1822 19.5974 -2.5029 0.1078 0 14
-12.4963 19.3987 -2.5029 0.1078 0 14
-12.8070 19.1949 -2.5029 0.1078 0 14
-13.1145 18.9862 -2.5029 0.1078 0 8
-13.5237 18.9196 -2.5225 0.8165 0 8
-13.9846 18.9130 -2.5513 0.8073 0 8
-14.4561 18.9061 -2.5815 0.7978 0 8
-14.9390 18.8989 -2.6130 0.7882 0 8
-15.4339 18.8914 -2.6460 0.7784 0 8
-15.7461 18.6523 -2.6477 0.1078 0 7
-16.0446 18.3963 -2.6477 0.1078 0 6
-16.3386 18.1355 -2.6477 0.1078 0 7
-16.6286 17.8700 -2.6477 0.1078 0 7
-16.9142 17.5999 -2.6477 0.1078 0 7
-17.1954 17.3253 -2.6477 0.1078 0 7
-17.4722 17.0461 -2.6477 0.1078 0 7
-17.7445 16.7625 -2.6477 0.1078 0 7
-18.0121 16.4746 -2.6477 0.1078 0 7
-18.2751 16.1823 -2.6477 0.1078 0 7
-18.5333 15.8859 -2.6477 0.1078 0 7
-18.7868 15.5854 -2.6477 0.1078 0 7
-19.0353 15.2808 -2.6477 0.1078 0 7
-19.2789 14.9723 -2.6477 0.1078 0 7
-19.5176 14.6599 -2.6477 0.1078 0 7
-19.7511 14.3437 -2.6477 0.1078 0 7
-19.9795 14.0237 -2.6477 0.1078 0 7
-20.2028 13.7002 -2.6477 0.1078 0 7
-20.4208 13.3730 -2.6477 0.1078 0 7
-20.6335 13.0424 -2.6477 0.1078 0 7
-20.8409 12.7085 -2.6477 0.1078 0 7
-21.0429 12.3712 -2.6477 0.1078 0 7
-21.2394 12.0307 -2.6477 0.1078 0 7
-21.4304 11.6871 -2.6477 0.1078 0 7
-21.6158 11.3405 -2.6477 0.1078 0 6
-21.7956 10.9909 -2.6477 0.1078 0 7
-21.9698 10.6385 -2.6477 0.1078 0 7
-22.1383 10.2833 -2.6477 0.1078 0 7
-22.3010 9.9254 -2.6477 0.1078 0 7
-22.4579 9.5650 -2.6477 0.1078 0 7
-22.6091 9.2021 -2.6477 0.1078 0 7
-21.4446 8.3281 -2.4953 0.1078 0 8
-21.5759 7.9817 -2.4953 0.1078 0 8
-21.7017 7.6332 -2.4953 0.1078 0 8
-21.8218 7.2827 -2.4953 0.1078 0 8
-21.9362 6.9303 -2.4953 0.1078 0 8
-22.0450 6.5762 -2.4953 0.1078 0 8
-22.1480 6.2203 -2.4953 0.1078 0 8
-22.2453 5.8628 -2.4953 0.1078 0 8
-22.3369 5.5038 -2.4953 0.1078 0 8
-22.4226 5.1434 -2.4953 0.1078 0 8
-22.5025 4.7816 -2.4953 0.1078 0 8
-22.5766 4.4186 -2.4953 0.1078 0 8
-22.6448 4.0544 -2.4953 0.1078 0 8
-22.7072 3.6892 -2.4953 0.1078 0 8
-22.7637 3.3231 -2.4953 0.1078 0 8
-22.8142 2.9561 -2.4953 0.1078 0 8
-22.8589 2.5883 -2.4953 0.1078 0 8
-22.8976 2.2198 -2.4953 0.1078 0 8
-22.9304 1.8508 -2.4953 0.1078 0 8
-22.9572 1.4812 -2.4953 0.1078 0 8
-22.9781 1.1114 -2.4953 0.1078 0 8
-22.9930 0.7412 -2.4953 0.1078 0 8
-23.0020 0.3708 -2.4953 0.1078 0 8
-23.0050 0.0003 -2.4953 0.1078 0 8
-23.0020 -0.3702 -2.4953 0.1078 0 8
-22.9930 -0.7406 -2.4953 0.1078 0 8
-22.9781 -1.1108 -2.4953 0.1078 0 8
-22.9573 -1.4807 -2.4953 0.1078 0 8
-22.9304 -1.8502 -2.4953 0.1078 0 8
-22.8977 -2.2192 -2.4953 0.1078 0 8
-22.8590 -2.5877 -2.4953 0.1078 0 8
-22.8143 -2.9555 -2.4953 0.1078 0 8
-22.7638 -3.3225 -2.4953 0.1078 0 8
-22.7073 -3.6887 -2.4953 0.1078 0 8
-22.6450 -4.0539 -2.4953 0.1078 0 8
-22.5767 -4.4180 -2.4953 0.1078 0 8
-22.5027 -4.7810 -2.4953 0.1078 0 8
-22.4227 -5.1428 -2.4953 0.1078 0 8
-22.3370 -5.5033 -2.4953 0.1078 0 8
-22.2455 -5.8623 -2.4953 0.1078 0 8
-22.1482 -6.2197 -2.4953 0.1078 0 8
-22.0452 -6.5756 -2.4953 0.1078 0 8
-21.9364 -6.9298 -2.4953 0.1078 0 8
-21.8220 -7.2822 -2.4953 0.1078 0 8
-21.7019 -7.6326 -2.4953 0.1078 0 8
-21.5761 -7.9811 -2.4953 0.1078 0 8
-21.4448 -8.3276 -2.4953 0.1078 0 8
-21.3079 -8.6719 -2.4953 0.1078 0 8
-21.1655 -9.0139 -2.4953 0.1078 0 8
-21.0176 -9.3536 -2.4953 0.1078 0 8
-20.8642 -9.6908 -2.4953 0.1078 0 8
-20.7055 -10.0256 -2.4953 0.1078 0 8
-20.5413 -10.3577 -2.4953 0.1078 0 8
-20.3718 -10.6872 -2.4953 0.1078 0 8
-20.1971 -11.0139 -2.4953 0.1078 0 8
-20.0171 -11.3377 -2.4953 0.1078 0 8
-19.8319 -11.6586 -2.4953 0.1078 0 8
-19.6416 -11.9765 -2.4953 0.1078 0 8
-19.4462 -12.2912 -2.4953 0.1078 0 8
-19.2457 -12.6028 -2.4953 0.1078 0 8
-19.0402 -12.9111 -2.4953 0.1078 0 8
-18.8299 -13.2161 -2.4953 0.1078 0 8
-18.6146 -13.5176 -2.4953 0.1078 0 8
-18.3945 -13.8156 -2.4953 0.1078 0 8
-18.1696 -14.1100 -2.4953 0.1078 0 8
-17.9400 -14.4008 -2.4953 0.1078 0 8
-17.7058 -14.6879 -2.4953 0.1078 0 8
-17.4669 -14.9711 -2.4953 0.1078 0 8
-17.2236 -15.2505 -2.4953 0.1078 0 8
-16.9757 -15.5259 -2.4953 0.1078 0 8
-16.7235 -15.7972 -2.4953 0.1078 0 8
-16.4669 -16.0645 -2.4953 0.1078 0 8
-16.2061 -16.3276 -2.4953 0.1078 0 8
-15.9410 -16.5865 -2.4953 0.1078 0 8
-15.6719 -16.8410 -2.4953 0.1078 0 8
-15.3986 -17.0912 -2.4953 0.1078 0 8
-15.1214 -17.3370 -2.4953 0.1078 0 8
-14.8402 -17.5783 -2.4953 0.1078 0 8
-14.5552 -17.8150 -2.4953 0.1078 0 8
-14.2664 -18.0471 -2.4953 0.1078 0 8
-13.9739 -18.2745 -2.4953 0.1078 0 8
-13.6778 -18.4972 -2.4953 0.1078 0 8
-13.3782 -18.7150 -2.4953 0.1078 0 8
-13.0751 -18.9280 -2.4953 0.1078 0 8
-12.7685 -19.1362 -2.4953 0.1078 0 8
-12.4587 -19.3393 -2.4953 0.1078 0 8
-12.1456 -19.5374 -2.4953 0.1078 0 8
-11.8294 -19.7305 -2.4953 0.1078 0 8
-11.5101 -19.9185 -2.4953 0.1078 0 8
-11.1879 -20.1012 -2.4953 0.1078 0 8
-10.8627 -20.2788 -2.4953 0.1078 0 8
-10.5347 -20.4511 -2.4953 0.1078 0 8
-10.2040 -20.6181 -2.4953 0.1078 0 8
-9.8706 -20.7798 -2.4953 0.1078 0 8
-9.5347 -20.9360 -2.4953 0.1078 0 8
-9.1963 -21.0869 -2.4953 0.1078 0 8
-8.8555 -21.2322 -2.4953 0.1078 0 8
-8.5124 -21.3721 -2.4953 0.1078 0 8
-8.1672 -21.5064 -2.4953 0.1078 0 8
-7.8198 -21.6351 -2.4953 0.1078 0 8
-7.4703 -21.7583 -2.4953 0.1078 0 8
-7.1190 -21.8757 -2.4953 0.1078 0 8
-6.7658 -21.9876 -2.4953 0.1078 0 8
-6.4108 -22.0937 -2.4953 0.1078 0 8
-6.0541 -22.1940 -2.4953 0.1078 0 8
-5.6959 -22.2887 -2.4953 0.1078 0 8
-5.3363 -22.3775 -2.4953 0.1078 0 8
-4.9752 -22.4605 -2.4953 0.1078 0 8
-4.6128 -22.5377 -2.4953 0.1078 0 8
-2.5918 21.2562 -2.5029 0.1161 0 14
-2.9338 21.2117 -2.5029 0.1161 0 14
-3.2750 21.1617 -2.5029 0.1161 0 14
-3.6154 21.1062 -2.5029 0.1161 0 14
-3.9548 21.0452 -2.5029 0.1161 0 14
-4.2932 20.9788 -2.5029 0.1161 0 14
-4.6305 20.9069 -2.5029 0.1161 0 14
-4.9666 20.8297 -2.5029 0.1161 0 14
-5.3014 20.7470 -2.5029 0.1161 0 14
-5.6348 20.6589 -2.5029 0.1161 0 14
-5.9668 20.5655 -2.5029 0.1161 0 14
-6.2972 20.4667 -2.5029 0.1161 0 14
-6.6260 20.3627 -2.5029 0.1161 0 14
-6.9531 20.2533 -2.5029 0.1161 0 14
-7.2783 20.1387 -2.5029 0.1161 0 14
-7.6017 20.0189 -2.5029 0.1161 0 14
-7.9231 19.8939 -2.5029 0.1161 0 14
-8.2425 19.7637 -2.5029 0.1161 0 14
-8.5597 19.6284 -2.5029 0.1161 0 14
-8.8747 19.4880 -2.5029 0.1161 0 14
-9.1874 19.3426 -2.5029 0.1161 0 14
-9.4976 19.1921 -2.5029 0.1161 0 14
-9.8055 19.0367 -2.5029 0.1161 0 8
-10.1404 18.9315 -2.5102 0.7021 0 8
-10.5333 18.9262 -2.5317 0.8758 0 8
-10.9331 18.9209 -2.5542 0.8681 0 8
-11.3401 18.9154 -2.5778 0.8602 0 8
-11.7547 18.9097 -2.6025 0.8520 0 8
-12.1774 18.9037 -2.6283 0.8436 0 8
-12.5723 18.8431 -2.6477 0.1161 0 7
-12.8741 18.6382 -2.6477 0.1161 0 7
-13.1728 18.4284 -2.6477 0.1161 0 6
-13.4677 18.2139 -2.6477 0.1161 0 7
-13.7592 17.9947 -2.6477 0.1161 0 7
-14.0473 17.7708 -2.6477 0.1161 0 7
-14.3316 17.5422 -2.6477 0.1161 0 7
-14.6123 17.3092 -2.6477 0.1161 0 7
-14.8891 17.0716 -2.6477 0.1161 0 7
-15.1621 16.8296 -2.6477 0.1161 0 7
-15.4312 16.5832 -2.6477 0.1161 0 7
-15.6962 16.3326 -2.6477 0.1161 0 7
-15.9572 16.0777 -2.6477 0.1161 0 7
-16.2141 15.8186 -2.6477 0.1161 0 7
-16.4667 15.5555 -2.6477 0.1161 0 7
-16.7151 15.2883 -2.6477 0.1161 0 7
-16.9591 15.0171 -2.6477 0.1161 0 7
-17.1988 14.7420 -2.6477 0.1161 0 7
-17.4340 14.4631 -2.6477 0.1161 0 7
-17.6646 14.1805 -2.6477 0.1161 0 7
-17.8907 13.8942 -2.6477 0.1161 0 7
-18.1121 13.6043 -2.6477 0.1161 0 7
-18.3289 13.3108 -2.6477 0.1161 0 7
-18.5409 13.0139 -2.6477 0.1161 0 7
-18.7480 12.7136 -2.6477 0.1161 0 7
-18.9503 12.4101 -2.6477 0.1161 0 7
-19.1477 12.1033 -2.6477 0.1161 0 7
-19.3402 11.7933 -2.6477 0.1161 0 7
-19.5276 11.4804 -2.6477 0.1161 0 7
-19.7099 11.1644 -2.6477 0.1161 0 7
-19.8872 10.8455 -2.6477 0.1161 0 7
-20.0593 10.5238 -2.6477 0.1161 0 7
-20.2262 10.1994 -2.6477 0.1161 0 7
-20.3878 9.8724 -2.6477 0.1161 0 7
-20.5441 9.5428 -2.6477 0.1161 0 7
-20.6951 9.2107 -2.6477 0.1161 0 7
-19.6412 8.3653 -2.4953 0.1161 0 8
-19.7733 8.0479 -2.4953 0.1161 0 8
-19.9004 7.7284 -2.4953 0.1161 0 8
-20.0223 7.4069 -2.4953 0.1161 0 8
-20.1390 7.0835 -2.4953 0.1161 0 8
-20.2504 6.7583 -2.4953 0.1161 0 8
-20.3566 6.4313 -2.4953 0.1161 0 8
-20.4576 6.1026 -2.4953 0.1161 0 8
-20.5532 5.7724 -2.4953 0.1161 0 8
-20.6435 5.4406 -2.4953 0.1161 0 8
-20.7284 5.1075 -2.4953 0.1161 0 8
-20.8080 4.7730 -2.4953 0.1161 0 8
-20.8822 4.4373 -2.4953 0.1161 0 8
-20.9509 4.1004 -2.4953 0.1161 0 8
-21.0142 3.7625 -2.4953 0.1161 0 8
-21.0721 3.4236 -2.4953 0.1161 0 8
-21.1245 3.0838 -2.4953 0.1161 0 8
-21.1714 2.7432 -2.4953 0.1161 0 8
-21.2129 2.4019 -2.4953 0.1161 0 8
-21.2488 2.0600 -2.4953 0.1161 0 8
-21.2792 1.7175 -2.4953 0.1161 0 8
-21.3041 1.3746 -2.4953 0.1161 0 8
-21.3235 1.0313 -2.4953 0.1161 0 8
-21.3373 0.6878 -2.4953 0.1161 0 8
-21.3456 0.3441 -2.4953 0.1161 0 8
-21.3484 0.0003 -2.4953 0.1161 0 8
-21.3456 -0.3435 -2.4953 0.1161 0 8
-21.3373 -0.6873 -2.4953 0.1161 0 8
-21.3235 -1.0308 -2.4953 0.1161 0 8
-21.3041 -1.3741 -2.4953 0.1161 0 8
-21.2792 -1.7170 -2.4953 0.1161 0 8
-21.2488 -2.0594 -2.4953 0.1161 0 8
-21.2129 -2.4014 -2.4953 0.1161 0 8
-21.1715 -2.7427 -2.4953 0.1161 0 8
-21.1246 -3.0833 -2.4953 0.1161 0 8
-21.0722 -3.4231 -2.4953 0.1161 0 8
-21.0143 -3.7620 -2.4953 0.1161 0 8
-20.9510 -4.0999 -2.4953 0.1161 0 8
-20.8823 -4.4368 -2.4953 0.1161 0 8
-20.8081 -4.7725 -2.4953 0.1161 0 8
-20.7286 -5.1070 -2.4953 0.1161 0 8
-20.6436 -5.4401 -2.4953 0.1161 0 8
-20.5533 -5.7719 -2.4953 0.1161 0 8
-20.4577 -6.1021 -2.4953 0.1161 0 8
-20.3568 -6.4308 -2.4953 0.1161 0 8
-20.2506 -6.7578 -2.4953 0.1161 0 8
-20.1391 -7.0830 -2.4953 0.1161 0 8
-20.0225 -7.4064 -2.4953 0.1161 0 8
-19.9006 -7.7279 -2.4953 0.1161 0 8
-19.7736 -8.0474 -2.4953 0.1161 0 8
-19.6414 -8.3648 -2.4953 0.1161 0 8
-19.5041 -8.6800 -2.4953 0.1161 0 8
-19.3618 -8.9930 -2.4953 0.1161 0 8
-19.2145 -9.3036 -2.4953 0.1161 0 8
-19.0622 -9.6119 -2.4953 0.1161 0 8
-18.9049 -9.9176 -2.4953 0.1161 0 8
-18.7427 -10.2208 -2.4953 0.1161 0 8
-18.5757 -10.5213 -2.4953 0.1161 0 8
-18.4039 -10.8191 -2.4953 0.1161 0 8
-18.2272 -11.1141 -2.4953 0.1161 0 8
-18.0459 -11.4062 -2.4953 0.1161 0 8
-17.8599 -11.6953 -2.4953 0.1161 0 8
-17.6692 -11.9814 -2.4953 0.1161 0 8
-17.4739 -12.2644 -2.4953 0.1161 0 8
-17.2742 -12.5442 -2.4953 0.1161 0 8
-17.0699 -12.8208 -2.4953 0.1161 0 8
-16.8612 -13.0940 -2.4953 0.1161 0 8
-16.6482 -13.3638 -2.4953 0.1161 0 8
-16.4308 -13.6302 -2.4953 0.1161 0 8
-16.2092 -13.8931 -2.4953 0.1161 0 8
-15.9833 -14.1523 -2.4953 0.1161 0 8
-15.7533 -14.4079 -2.4953 0.1161 0 8
-15.5193 -14.6597 -2.4953 0.1161 0 8
-15.2812 -14.9077 -2.4953 0.1161 0 8
-15.0391 -15.1519 -2.4953 0.1161 0 8
-14.7931 -15.3921 -2.4953 0.1161 0 8
-14.5434 -15.6283 -2.4953 0.1161 0 8
-14.2898 -15.8605 -2.4953 0.1161 0 8
-14.0325 -16.0886 -2.4953 0.1161 0 8
-13.7716 -16.3125 -2.4953 0.1161 0 8
-13.5071 -16.5322 -2.4953 0.1161 0 8
-13.2391 -16.7475 -2.4953 0.1161 0 8
-12.9677 -16.9586 -2.4953 0.1161 0 8
-12.6929 -17.1652 -2.4953 0.1161 0 8
-12.4148 -17.3674 -2.4953 0.1161 0 8
-12.1335 -17.5651 -2.4953 0.1161 0 8
-11.8491 -17.7582 -2.4953 0.1161 0 8
-11.5616 -17.9467 -2.4953 0.1161 0 8
-11.2711 -18.1306 -2.4953 0.1161 0 8
-10.9776 -18.3097 -2.4953 0.1161 0 8
-10.6813 -18.4842 -2.4953 0.1161 0 8
-10.3822 -18.6538 -2.4953 0.1161 0 8
-10.0805 -18.8191 -2.4953 0.1161 0 8
-9.7761 -18.9785 -2.4953 0.1161 0 8
-9.4692 -19.1334 -2.4953 0.1161 0 8
-9.1599 -19.2834 -2.4953 0.1161 0 8
-8.8481 -19.4285 -2.4953 0.1161 0 8
-8.5341 -19.5684 -2.4953 0.1161 0 8
-8.2179 -19.7033 -2.4953 0.1161 0 8
-7.8995 -19.8331 -2.4953 0.1161 0 8
-7.5791 -19.9578 -2.4953 0.1161 0 8
-7.2567 -20.0772 -2.4953 0.1161 0 8
-6.9324 -20.1915 -2.4953 0.1161 0 8
-6.6063 -20.3005 -2.4953 0.1161 0 8
-6.2786 -20.4043 -2.4953 0.1161 0 8
-5.9492 -20.5027 -2.4953 0.1161 0 8
-5.6182 -20.5959 -2.4953 0.1161 0 8
-5.2858 -20.6837 -2.4953 0.1161 0 8
-4.9520 -20.7661 -2.4953 0.1161 0 8
-4.6169 -20.8432 -2.4953 0.1161 0 8
-4.2807 -20.9148 -2.4953 0.1161 0 8
-2.4174 19.8258 -2.5029 0.1243 0 14
-2.7364 19.7843 -2.5029 0.1243 0 14
-3.0546 19.7376 -2.5029 0.1243 0 14
-3.3721 19.6859 -2.5029 0.1243 0 14
-3.6887 19.6290 -2.5029 0.1243 0 14
-4.0043 19.5671 -2.5029 0.1243 0 14
-4.3189 19.5000 -2.5029 0.1243 0 14
-4.6324 19.4280 -2.5029 0.1243 0 14
-4.9447 19.3508 -2.5029 0.1243 0 14
-5.2556 19.2687 -2.5029 0.1243 0 14
-5.5653 19.1816 -2.5029 0.1243 0 14
-5.8772 19.1015 -2.5045 0.7591 0 8
-6.1801 18.9924 -2.5029 0.1243 0 8
-6.5029 18.9421 -2.5097 0.7522 0 8
-6.8444 18.9380 -2.5235 0.9411 0 8
-7.1899 18.9343 -2.5381 0.9357 0 8
-7.5394 18.9305 -2.5535 0.9301 0 8
-7.8933 18.9265 -2.5698 0.9242 0 8
-8.2517 18.9223 -2.5869 0.9180 0 8
-8.6151 18.9180 -2.6050 0.9117 0 8
-8.9835 18.9134 -2.6239 0.9051 0 8
-9.3574 18.9087 -2.6438 0.8983 0 8
-9.6747 18.7827 -2.6477 0.1243 0 7
-9.9759 18.6244 -2.6477 0.1243 0 7
-10.2746 18.4614 -2.6477 0.1243 0 6
-10.5705 18.2935 -2.6477 0.1243 0 7
-10.8638 18.1209 -2.6477 0.1243 0 7
-11.1542 17.9436 -2.6477 0.1243 0 7
-11.4417 17.7616 -2.6477 0.1243 0 7
-11.7263 17.5751 -2.6477 0.1243 0 7
-12.0078 17.3840 -2.6477 0.1243 0 7
-12.2862 17.1883 -2.6477 0.1243 0 7
-12.5614 16.9882 -2.6477 0.1243 0 7
-12.8333 16.7837 -2.6477 0.1243 0 7
-13.1020 16.5749 -2.6477 0.1243 0 7
-13.3672 16.3618 -2.6477 0.1243 0 7
-13.6290 16.1444 -2.6477 0.1243 0 7
-13.8872 15.9228 -2.6477 0.1243 0 7
-14.1418 15.6971 -2.6477 0.1243 0 7
-14.3928 15.4673 -2.6477 0.1243 0 7
-14.6400 15.2335 -2.6477 0.1243 0 7
-14.8834 14.9958 -2.6477 0.1243 0 7
-15.1230 14.7541 -2.6477 0.1243 0 7
-15.3586 14.5087 -2.6477 0.1243 0 7
-15.5903 14.2594 -2.6477 0.1243 0 7
-15.8179 14.0065 -2.6477 0.1243 0 7
-16.0414 13.7500 -2.6477 0.1243 0 7
-16.2608 13.4899 -2.6477 0.1243 0 7
-16.4759 13.2262 -2.6477 0.1243 0 7
-16.6868 12.9592 -2.6477 0.1243 0 7
-16.8933 12.6888 -2.6477 0.1243 0 7
-17.0955 12.4151 -2.6477 0.1243 0 7
-17.2932 12.1382 -2.6477 0.1243 0 7
-17.4864 11.8581 -2.6477 0.1243 0 7
-17.6751 11.5750 -2.6477 0.1243 0 7
-17.8592 11.2888 -2.6477 0.1243 0 7
-18.0387 10.9997 -2.6477 0.1243 0 7
-18.2135 10.7078 -2.6477 0.1243 0 7
-18.3836 10.4131 -2.6477 0.1243 0 7
-18.5489 10.1157 -2.6477 0.1243 0 7
-18.7094 9.8157 -2.6477 0.1243 0 7
-18.8650 9.5131 -2.6477 0.1243 0 7
-19.0158 9.2080 -2.6477 0.1243 0 7
-18.0587 8.3883 -2.4953 0.1243 0 8
-18.1914 8.0964 -2.4953 0.1243 0 8
-18.3195 7.8024 -2.4953 0.1243 0 8
-18.4427 7.5063 -2.4953 0.1243 0 8
-18.5612 7.2083 -2.4953 0.1243 0 8
-18.6749 6.9085 -2.4953 0.1243 0 8
-18.7837 6.6068 -2.4953 0.1243 0 8
-18.8877 6.3035 -2.4953 0.1243 0 8
-18.9868 5.9985 -2.4953 0.1243 0 8
-19.0809 5.6920 -2.4953 0.1243 0 8
-19.1701 5.3839 -2.4953 0.1243 0 8
-19.2543 5.0745 -2.4953 0.1243 0 8
-19.3335 4.7638 -2.4953 0.1243 0 8
-19.4078 4.4518 -2.4953 0.1243 0 8
-19.4769 4.1387 -2.4953 0.1243 0 8
-19.5411 3.8245 -2.4953 0.1243 0 8
-19.6001 3.5093 -2.4953 0.1243 0 8
-19.6541 3.1932 -2.4953 0.1243 0 8
-19.7030 2.8763 -2.4953 0.1243 0 8
-19.7467 2.5586 -2.4953 0.1243 0 8
-19.7854 2.2403 -2.4953 0.1243 0 8
-19.8189 1.9213 -2.4953 0.1243 0 8
-19.8473 1.6019 -2.4953 0.1243 0 8
-19.8705 1.2821 -2.4953 0.1243 0 8
-19.8885 0.9619 -2.4953 0.1243 0 8
-19.9015 0.6415 -2.4953 0.1243 0 8
-19.9092 0.3209 -2.4953 0.1243 0 8
-19.9118 0.0003 -2.4953 0.1243 0 8
-19.9092 -0.3204 -2.4953 0.1243 0 8
-19.9015 -0.6410 -2.4953 0.1243 0 8
-19.8886 -0.9614 -2.4953 0.1243 0 8
-19.8705 -1.2816 -2.4953 0.1243 0 8
-19.8473 -1.6014 -2.4953 0.1243 0 8
-19.8189 -1.9208 -2.4953 0.1243 0 8
-19.7854 -2.2398 -2.4953 0.1243 0 8
-19.7468 -2.5581 -2.4953 0.1243 0 8
-19.7030 -2.8758 -2.4953 0.1243 0 8
-19.6542 -3.1927 -2.4953 0.1243 0 8
-19.6002 -3.5088 -2.4953 0.1243 0 8
-19.5411 -3.8240 -2.4953 0.1243 0 8
-19.4770 -4.1382 -2.4953 0.1243 0 8
-19.4079 -4.4513 -2.4953 0.1243 0 8
-19.3337 -4.7633 -2.4953 0.1243 0 8
-19.2544 -5.0740 -2.4953 0.1243 0 8
-19.1702 -5.3835 -2.4953 0.1243 0 8
-19.0811 -5.6915 -2.4953 0.1243 0 8
-18.9869 -5.9980 -2.4953 0.1243 0 8
-18.8879 -6.3030 -2.4953 0.1243 0 8
-18.7839 -6.6064 -2.4953 0.1243 0 8
-18.6751 -6.9080 -2.4953 0.1243 0 8
-18.5614 -7.2079 -2.4953 0.1243 0 8
-18.4429 -7.5059 -2.4953 0.1243 0 8
-18.3197 -7.8019 -2.4953 0.1243 0 8
-18.1916 -8.0959 -2.4953 0.1243 0 8
-18.0589 -8.3878 -2.4953 0.1243 0 8
-17.9215 -8.6776 -2.4953 0.1243 0 8
-17.7794 -8.9651 -2.4953 0.1243 0 8
-17.6327 -9.2502 -2.4953 0.1243 0 8
-17.4814 -9.5330 -2.4953 0.1243 0 8
-17.3257 -9.8133 -2.4953 0.1243 0 8
-17.1654 -10.0910 -2.4953 0.1243 0 8
-17.0007 -10.3662 -2.4953 0.1243 0 8
-16.8315 -10.6386 -2.4953 0.1243 0 8
-16.6580 -10.9083 -2.4953 0.1243 0 8
-16.4802 -11.1751 -2.4953 0.1243 0 8
-16.2981 -11.4391 -2.4953 0.1243 0 8
-16.1117 -11.7001 -2.4953 0.1243 0 8
-15.9212 -11.9580 -2.4953 0.1243 0 8
-15.7266 -12.2129 -2.4953 0.1243 0 8
-15.5279 -12.4645 -2.4953 0.1243 0 8
-15.3251 -12.7130 -2.4953 0.1243 0 8
-15.1184 -12.9581 -2.4953 0.1243 0 8
-14.9078 -13.1999 -2.4953 0.1243 0 8
-14.6932 -13.4383 -2.4953 0.1243 0 8
-14.4749 -13.6732 -2.4953 0.1243 0 8
-14.2529 -13.9045 -2.4953 0.1243 0 8
-14.0271 -14.1323 -2.4953 0.1243 0 8
-13.7977 -14.3563 -2.4953 0.1243 0 8
-13.5647 -14.5767 -2.4953 0.1243 0 8
-13.3282 -14.7932 -2.4953 0.1243 0 8
-13.0882 -15.0059 -2.4953 0.1243 0 8
-12.8449 -15.2148 -2.4953 0.1243 0 8
-12.5982 -15.4197 -2.4953 0.1243 0 8
-12.3482 -15.6205 -2.4953 0.1243 0 8
-12.0951 -15.8174 -2.4953 0.1243 0 8
-11.8388 -16.0101 -2.4953 0.1243 0 8
-11.5794 -16.1987 -2.4953 0.1243 0 8
-11.3170 -16.3831 -2.4953 0.1243 0 8
-11.0517 -16.5632 -2.4953 0.1243 0 8
-10.7835 -16.7390 -2.4953 0.1243 0 8
-10.5126 -16.9105 -2.4953 0.1243 0 8
-10.2389 -17.0776 -2.4953 0.1243 0 8
-9.9625 -17.2403 -2.4953 0.1243 0 8
-9.6836 -17.3985 -2.4953 0.1243 0 8
-9.4021 -17.5522 -2.4953 0.1243 0 8
-9.1183 -17.7013 -2.4953 0.1243 0 8
-8.8320 -17.8459 -2.4953 0.1243 0 8
-8.5435 -17.9858 -2.4953 0.1243 0 8
-8.2527 -18.1210 -2.4953 0.1243 0 8
-7.9598 -18.2516 -2.4953 0.1243 0 8
-7.6648 -18.3774 -2.4953 0.1243 0 8
-7.3679 -18.4985 -2.4953 0.1243 0 8
-7.0690 -18.6147 -2.4953 0.1243 0 8
-6.7684 -18.7262 -2.4953 0.1243 0 8
-6.4659 -18.8327 -2.4953 0.1243 0 8
-6.1618 -18.9344 -2.4953 0.1243 0 8
-5.8561 -19.0312 -2.4953 0.1243 0 8
-5.5488 -19.1230 -2.4953 0.1243 0 8
-5.2401 -19.2099 -2.4953 0.1243 0 8
-4.9301 -19.2918 -2.4953 0.1243 0 8
-4.6188 -19.3687 -2.4953 0.1243 0 8
-4.3062 -19.4406 -2.4953 0.1243 0 8
-3.9926 -19.5074 -2.4953 0.1243 0 8
-2.3100 18.9451 -2.5530 0.9919 0 8
-2.6201 18.9433 -2.5581 0.9899 0 8
-2.9314 18.9414 -2.5639 0.9877 0 8
-3.2442 18.9393 -2.5704 0.9852 0 8
-3.5587 18.9371 -2.5775 0.9825 0 8
-3.8749 18.9348 -2.5853 0.9795 0 8
-4.1932 18.9323 -2.5939 0.9763 0 8
-4.5136 18.9297 -2.6032 0.9728 0 8
-4.8363 18.9270 -2.6131 0.9691 0 8
-5.1616 18.9241 -2.6239 0.9651 0 8
-5.4897 18.9210 -2.6354 0.9609 0 8
-5.8207 18.9178 -2.6477 0.9564 0 8
-6.1246 18.8218 -2.6477 0.1326 0 7
-6.4269 18.7207 -2.6477 0.1326 0 7
-6.7276 18.6148 -2.6477 0.1326 0 7
-7.0265 18.5040 -2.6477 0.1326 0 7
-7.3235 18.3885 -2.6477 0.1326 0 6
-7.6187 18.2681 -2.6477 0.1326 0 7
-7.9119 18.1431 -2.6477 0.1326 0 7
-8.2031 18.0133 -2.6477 0.1326 0 7
-8.4921 17.8789 -2.6477 0.1326 0 7
-8.7789 17.7398 -2.6477 0.1326 0 7
-9.0635 17.5961 -2.6477 0.1326 0 7
-9.3457 17.4479 -2.6477 0.1326 0 7
-9.6255 17.2951 -2.6477 0.1326 0 7
-9.9028 17.1378 -2.6477 0.1326 0 7
-10.1775 16.9761 -2.6477 0.1326 0 7
-10.4495 16.8100 -2.6477 0.1326 0 7
-10.7189 16.6396 -2.6477 0.1326 0 7
-10.9855 16.4648 -2.6477 0.1326 0 7
-11.2492 16.2857 -2.6477 0.1326 0 7
-11.5100 16.1025 -2.6477 0.1326 0 7
-11.7678 15.9150 -2.6477 0.1326 0 7
-12.0226 15.7234 -2.6477 0.1326 0 7
-12.2743 15.5278 -2.6477 0.1326 0 7
-12.5227 15.3281 -2.6477 0.1326 0 7
-12.7680 15.1245 -2.6477 0.1326 0 7
-13.0099 14.9169 -2.6477 0.1326 0 7
-13.2484 14.7054 -2.6477 0.1326 0 7
-13.4835 14.4902 -2.6477 0.1326 0 7
-13.7151 14.2711 -2.6477 0.1326 0 7
-13.9432 14.0484 -2.6477 0.1326 0 7
-14.1676 13.8220 -2.6477 0.1326 0 7
-14.3884 13.5921 -2.6477 0.1326 0 7
-14.6054 13.3586 -2.6477 0.1326 0 7
-14.8186 13.1217 -2.6477 0.1326 0 7
-15.0280 12.8813 -2.6477 0.1326 0 7
-15.2335 12.6377 -2.6477 0.1326 0 7
-15.4351 12.3907 -2.6477 0.1326 0 7
-15.6326 12.1405 -2.6477 0.1326 0 7
-15.8261 11.8872 -2.6477 0.1326 0 7
-16.0155 11.6308 -2.6477 0.1326 0 7
-16.2007 11.3714 -2.6477 0.1326 0 6
-16.3817 11.1090 -2.6477 0.1326 0 7
-16.5585 10.8437 -2.6477 0.1326 0 7
-16.7310 10.5756 -2.6477 0.1326 0 7
-16.8991 10.3048 -2.6477 0.1326 0 7
-17.0629 10.0313 -2.6477 0.1326 0 7
-17.2222 9.7553 -2.6477 0.1326 0 7
-17.3771 9.4766 -2.6477 0.1326 0 7
-17.5275 9.1956 -2.6477 0.1326 0 7
-16.6560 8.3991 -2.4953 0.1326 0 8
-16.7891 8.1298 -2.4953 0.1326 0 8
-16.9178 7.8584 -2.4953 0.1326 0 8
-17.0422 7.5849 -2.4953 0.1326 0 8
-17.1621 7.3095 -2.4953 0.1326 0 8
-17.2776 7.0321 -2.4953 0.1326 0 8
-17.3886 6.7530 -2.4953 0.1326 0 8
-17.4951 6.4721 -2.4953 0.1326 0 8
-17.5971 6.1895 -2.4953 0.1326 0 8
-17.6945 5.9053 -2.4953 0.1326 0 8
-17.7873 5.6196 -2.4953 0.1326 0 8
-17.8755 5.3324 -2.4953 0.1326 0 8
-17.9591 5.0438 -2.4953 0.1326 0 8
-18.0379 4.7540 -2.4953 0.1326 0 8
-18.1122 4.4629 -2.4953 0.1326 0 8
-18.1817 4.1706 -2.4953 0.1326 0 8
-18.2465 3.8772 -2.4953 0.1326 0 8
-18.3066 3.5829 -2.4953 0.1326 0 8
-18.3619 3.2876 -2.4953 0.1326 0 8
-18.4125 2.9915 -2.4953 0.1326 0 8
-18.4582 2.6946 -2.4953 0.1326 0 8
-18.4992 2.3970 -2.4953 0.1326 0 8
-18.5354 2.0987 -2.4953 0.1326 0 8
-18.5668 1.8000 -2.4953 0.1326 0 8
-18.5934 1.5007 -2.4953 0.1326 0 8
-18.6152 1.2011 -2.4953 0.1326 0 8
-18.6321 0.9012 -2.4953 0.1326 0 8
-18.6442 0.6010 -2.4953 0.1326 0 8
-18.6515 0.3006 -2.4953 0.1326 0 8
-18.6539 0.0002 -2.4953 0.1326 0 8
-18.6515 -0.3002 -2.4953 0.1326 0 8
-18.6442 -0.6005 -2.4953 0.1326 0 8
-18.6321 -0.9007 -2.4953 0.1326 0 8
-18.6152 -1.2006 -2.4953 0.1326 0 8
-18.5935 -1.5003 -2.4953 0.1326 0 8
-18.5669 -1.7995 -2.4953 0.1326 0 8
-18.5355 -2.0983 -2.4953 0.1326 0 8
-18.4993 -2.3965 -2.4953 0.1326 0 8
-18.4583 -2.6941 -2.4953 0.1326 0 8
-18.4125 -2.9910 -2.4953 0.1326 0 8
-18.3620 -3.2871 -2.4953 0.1326 0 8
-18.3067 -3.5824 -2.4953 0.1326 0 8
-18.2466 -3.8768 -2.4953 0.1326 0 8
-18.1818 -4.1701 -2.4953 0.1326 0 8
-18.1123 -4.4624 -2.4953 0.1326 0 8
-18.0381 -4.7535 -2.4953 0.1326 0 8
-17.9592 -5.0434 -2.4953 0.1326 0 8
-17.8756 -5.3319 -2.4953 0.1326 0 8
-17.7874 -5.6191 -2.4953 0.1326 0 8
-17.6946 -5.9048 -2.4953 0.1326 0 8
-17.5972 -6.1890 -2.4953 0.1326 0 8
-17.4953 -6.4716 -2.4953 0.1326 0 8
-17.3888 -6.7525 -2.4953 0.1326 0 8
-17.2778 -7.0317 -2.4953 0.1326 0 8
-17.1623 -7.3090 -2.4953 0.1326 0 8
-17.0424 -7.5845 -2.4953 0.1326 0 8
-16.9181 -7.8579 -2.4953 0.1326 0 8
-16.7893 -8.1294 -2.4953 0.1326 0 8
-16.6562 -8.3987 -2.4953 0.1326 0 8
-16.5188 -8.6659 -2.4953 0.1326 0 8
-16.3771 -8.9307 -2.4953 0.1326 0 8
-16.2311 -9.1933 -2.4953 0.1326 0 8
-16.0810 -9.4535 -2.4953 0.1326 0 8
-15.9267 -9.7113 -2.4953 0.1326 0 8
-15.7682 -9.9665 -2.4953 0.1326 0 8
-15.6057 -10.2192 -2.4953 0.1326 0 8
-15.4391 -10.4692 -2.4953 0.1326 0 8
-15.2684 -10.7164 -2.4953 0.1326 0 8
-15.0939 -10.9609 -2.4953 0.1326 0 8
-14.9154 -11.2026 -2.4953 0.1326 0 8
-14.7331 -11.4413 -2.4953 0.1326 0 8
-14.5469 -11.6771 -2.4953 0.1326 0 8
-14.3570 -11.9099 -2.4953 0.1326 0 8
-14.1633 -12.1395 -2.4953 0.1326 0 8
-13.9660 -12.3660 -2.4953 0.1326 0 8
-13.7650 -12.5894 -2.4953 0.1326 0 8
-13.5605 -12.8094 -2.4953 0.1326 0 8
-13.3525 -13.0261 -2.4953 0.1326 0 8
-13.1409 -13.2395 -2.4953 0.1326 0 8
-12.9260 -13.4494 -2.4953 0.1326 0 8
-12.7077 -13.6562 -2.4953 0.1326 0 8
-12.4862 -13.8587 -2.4953 0.1326 0 8
-12.2614 -14.0579 -2.4953 0.1326 0 8
-12.0334 -14.2536 -2.4953 0.1326 0 8
-11.8023 -14.4455 -2.4953 0.1326 0 8
-11.5681 -14.6337 -2.4953 0.1326 0 8
-11.3310 -14.8181 -2.4953 0.1326 0 8
-11.0909 -14.9987 -2.4953 0.1326 0 8
-10.8479 -15.1754 -2.4953 0.1326 0 8
-10.6021 -15.3481 -2.4953 0.1326 0 8
-10.3535 -15.5168 -2.4953 0.1326 0 8
-10.1023 -15.6816 -2.4953 0.1326 0 8
-9.8485 -15.8422 -2.4953 0.1326 0 8
-9.5920 -15.9987 -2.4953 0.1326 0 8
-9.3332 -16.1512 -2.4953 0.1326 0 8
-9.0718 -16.2994 -2.4953 0.1326 0 8
-8.8082 -16.4433 -2.4953 0.1326 0 8
-8.5422 -16.5831 -2.4953 0.1326 0 8
-8.2741 -16.7185 -2.4953 0.1326 0 8
-8.0037 -16.8496 -2.4953 0.1326 0 8
-7.7313 -16.9763 -2.4953 0.1326 0 8
-7.4570 -17.0986 -2.4953 0.1326 0 8
-7.1806 -17.2165 -2.4953 0.1326 0 8
-6.9024 -17.3298 -2.4953 0.1326 0 8
-6.6225 -17.4388 -2.4953 0.1326 0 8
-6.3408 -17.5431 -2.4953 0.1326 0 8
-6.0574 -17.6430 -2.4953 0.1326 0 8
-5.7725 -17.7382 -2.4953 0.1326 0 8
-5.4861 -17.8289 -2.4953 0.1326 0 8
-5.1983 -17.9149 -2.4953 0.1326 0 8
-4.9091 -17.9963 -2.4953 0.1326 0 8
-4.6186 -18.0731 -2.4953 0.1326 0 8
-4.3270 -18.1451 -2.4953 0.1326 0 8
-4.0342 -18.2124 -2.4953 0.1326 0 8
-3.7404 -18.2750 -2.4953 0.1326 0 8
-2.2530 18.4777 -2.6477 0.1408 0 6
-2.5503 18.4390 -2.6477 0.1408 0 6
-2.8469 18.3956 -2.6477 0.1408 0 6
-3.1428 18.3474 -2.6477 0.1408 0 7
-3.4379 18.2944 -2.6477 0.1408 0 7
-3.7320 18.2366 -2.6477 0.1408 0 7
-4.0253 18.1742 -2.6477 0.1408 0 7
-4.3174 18.1070 -2.6477 0.1408 0 7
-4.6085 18.0351 -2.6477 0.1408 0 7
-4.8983 17.9585 -2.6477 0.1408 0 7
-5.1869 17.8773 -2.6477 0.1408 0 7
-5.4741 17.7915 -2.6477 0.1408 0 7
-5.7599 17.7010 -2.6477 0.1408 0 7
-6.0442 17.6060 -2.6477 0.1408 0 7
-6.3270 17.5063 -2.6477 0.1408 0 7
-6.6081 17.4022 -2.6477 0.1408 0 7
-6.8875 17.2935 -2.6477 0.1408 0 7
-7.1651 17.1804 -2.6477 0.1408 0 7
-7.4408 17.0627 -2.6477 0.1408 0 7
-7.7146 16.9407 -2.6477 0.1408 0 7
-7.9865 16.8143 -2.6477 0.1408 0 7
-8.2562 16.6835 -2.6477 0.1408 0 7
-8.5238 16.5483 -2.6477 0.1408 0 7
-8.7892 16.4089 -2.6477 0.1408 0 7
-9.0523 16.2652 -2.6477 0.1408 0 7
-9.3131 16.1174 -2.6477 0.1408 0 7
-9.5714 15.9653 -2.6477 0.1408 0 7
-9.8273 15.8091 -2.6477 0.1408 0 7
-10.0806 15.6488 -2.6477 0.1408 0 7
-10.3313 15.4844 -2.6477 0.1408 0 7
-10.5794 15.3160 -2.6477 0.1408 0 7
-10.8246 15.1436 -2.6477 0.1408 0 7
-11.0671 14.9674 -2.6477 0.1408 0 7
-11.3067 14.7872 -2.6477 0.1408 0 7
-11.5434 14.6032 -2.6477 0.1408 0 7
-11.7771 14.4154 -2.6477 0.1408 0 7
-12.0077 14.2239 -2.6477 0.1408 0 7
-12.2352 14.0286 -2.6477 0.1408 0 7
-12.4595 13.8298 -2.6477 0.1408 0 7
-12.6806 13.6273 -2.6477 0.1408 0 7
-12.8984 13.4214 -2.6477 0.1408 0 7
-13.1129 13.2119 -2.6477 0.1408 0 7
-13.3240 12.9990 -2.6477 0.1408 0 7
-13.5316 12.7828 -2.6477 0.1408 0 7
-13.7357 12.5632 -2.6477 0.1408 0 7
-13.9362 12.3403 -2.6477 0.1408 0 7
-14.1332 12.1143 -2.6477 0.1408 0 7
-14.3264 11.8851 -2.6477 0.1408 0 7
-14.5160 11.6529 -2.6477 0.1408 0 7
-14.7017 11.4176 -2.6477 0.1408 0 6
-14.8837 11.1793 -2.6477 0.1408 0 7
-15.0618 10.9382 -2.6477 0.1408 0 7
-15.2360 10.6942 -2.6477 0.1408 0 7
-15.4063 10.4475 -2.6477 0.1408 0 7
-15.5725 10.1980 -2.6477 0.1408 0 7
-15.7347 9.9459 -2.6477 0.1408 0 7
-15.8929 9.6912 -2.6477 0.1408 0 7
-16.0469 9.4340 -2.6477 0.1408 0 7
-16.1967 9.1744 -2.6477 0.1408 0 7
-15.4017 8.3993 -2.4953 0.1408 0 8
-15.5350 8.1502 -2.4953 0.1408 0 8
-15.6642 7.8990 -2.4953 0.1408 0 8
-15.7894 7.6457 -2.4953 0.1408 0 8
-15.9105 7.3904 -2.4953 0.1408 0 8
-16.0274 7.1332 -2.4953 0.1408 0 8
-16.1402 6.8742 -2.4953 0.1408 0 8
-16.2488 6.6134 -2.4953 0.1408 0 8
-16.3532 6.3509 -2.4953 0.1408 0 8
-16.4534 6.0867 -2.4953 0.1408 0 8
-16.5493 5.8209 -2.4953 0.1408 0 8
-16.6409 5.5536 -2.4953 0.1408 0 8
-16.7281 5.2850 -2.4953 0.1408 0 8
-16.8111 5.0149 -2.4953 0.1408 0 8
-16.8897 4.7435 -2.4953 0.1408 0 8
-16.9639 4.4709 -2.4953 0.1408 0 8
-17.0337 4.1971 -2.4953 0.1408 0 8
-17.0990 3.9222 -2.4953 0.1408 0 8
-17.1600 3.6464 -2.4953 0.1408 0 8
-17.2165 3.3695 -2.4953 0.1408 0 8
-17.2685 3.0918 -2.4953 0.1408 0 8
-17.3161 2.8134 -2.4953 0.1408 0 8
-17.3591 2.5341 -2.4953 0.1408 0 8
-17.3977 2.2542 -2.4953 0.1408 0 8
-17.4317 1.9738 -2.4953 0.1408 0 8
-17.4613 1.6928 -2.4953 0.1408 0 8
-17.4863 1.4114 -2.4953 0.1408 0 8
-17.5067 1.1296 -2.4953 0.1408 0 8
-17.5226 0.8475 -2.4953 0.1408 0 8
-17.5340 0.5652 -2.4953 0.1408 0 8
-17.5408 0.2827 -2.4953 0.1408 0 8
-17.5431 0.0002 -2.4953 0.1408 0 8
-17.5409 -0.2823 -2.4953 0.1408 0 8
-17.5340 -0.5648 -2.4953 0.1408 0 8
-17.5227 -0.8470 -2.4953 0.1408 0 8
-17.5068 -1.1291 -2.4953 0.1408 0 8
-17.4863 -1.4109 -2.4953 0.1408 0 8
-17.4613 -1.6923 -2.4953 0.1408 0 8
-17.4318 -1.9733 -2.4953 0.1408 0 8
-17.3978 -2.2535 -2.4953 0.1408 0 8
-17.3592 -2.5337 -2.4953 0.1408 0 8
-17.3161 -2.8129 -2.4953 0.1408 0 8
-17.2686 -3.0914 -2.4953 0.1408 0 8
-17.2166 -3.3691 -2.4953 0.1408 0 8
-17.1601 -3.6459 -2.4953 0.1408 0 8
-17.0991 -3.9218 -2.4953 0.1408 0 8
-17.0338 -4.1967 -2.4953 0.1408 0 8
-16.9640 -4.4704 -2.4953 0.1408 0 8
-16.8896 -4.7437 -2.4953 0.1408 0 8
-16.8112 -5.0144 -2.4953 0.1408 0 8
-16.7283 -5.2845 -2.4953 0.1408 0 8
-16.6410 -5.5532 -2.4953 0.1408 0 8
-16.5494 -5.8205 -2.4953 0.1408 0 8
-16.4535 -6.0863 -2.4953 0.1408 0 8
-16.3534 -6.3504 -2.4953 0.1408 0 8
-16.2490 -6.6130 -2.4953 0.1408 0 8
-16.1404 -6.8738 -2.4953 0.1408 0 8
