ply
format ascii 1.0
element vertex 1320
property float32 x
property float32 y
property float32 z
property float32 CosAngle
property uint32 ObjIdx
property uint32 ObjTag
end_header
-25.9021 -42.7648 -2.4953 0.0498 0 8
-25.2122 -43.1751 -2.4953 0.0498 0 8
-24.5159 -43.5743 -2.4953 0.0498 0 8
-23.8133 -43.9622 -2.4953 0.0498 0 8
-23.1045 -44.3388 -2.4953 0.0498 0 8
-22.3898 -44.7040 -2.4953 0.0498 0 8
-21.6693 -45.0576 -2.4953 0.0498 0 22
-20.9433 -45.3996 -2.4953 0.0498 0 22
-20.2118 -45.7300 -2.4953 0.0498 0 22
-19.4751 -46.0485 -2.4953 0.0498 0 22
-18.7334 -46.3552 -2.4953 0.0498 0 22
-17.9869 -46.6500 -2.4953 0.0498 0 22
-17.2358 -46.9327 -2.4953 0.0498 0 22
-16.4802 -47.2033 -2.4953 0.0498 0 22
-15.7204 -47.4618 -2.4953 0.0498 0 8
-14.9564 -47.7080 -2.4953 0.0498 0 8
-14.1887 -47.9419 -2.4953 0.0498 0 8
-13.4173 -48.1635 -2.4953 0.0498 0 8
-12.6424 -48.3727 -2.4953 0.0498 0 8
-11.8643 -48.5694 -2.4953 0.0498 0 8
-11.0831 -48.7536 -2.4953 0.0498 0 8
-10.2991 -48.9252 -2.4953 0.0498 0 8
-9.5124 -49.0842 -2.4953 0.0498 0 8
-8.7233 -49.2306 -2.4953 0.0498 0 8
-7.9319 -49.3643 -2.4953 0.0498 0 8
-7.1385 -49.4852 -2.4953 0.0498 0 8
-6.3432 -49.5935 -2.4953 0.0498 0 8
-5.5463 -49.6889 -2.4953 0.0498 0 8
-4.7480 -49.7715 -2.4953 0.0498 0 8
-3.9484 -49.8413 -2.4953 0.0498 0 8
-3.1479 -49.8983 -2.4953 0.0498 0 8
-2.3464 -49.9424 -2.4953 0.0498 0 8
-1.5445 -49.9736 -2.4953 0.0498 0 8
-0.7421 -49.9920 -2.4953 0.0498 0 8
0.0605 -49.9974 -2.4953 0.0498 0 8
0.8631 -49.9900 -2.4953 0.0498 0 8
1.6654 -49.9697 -2.4953 0.0498 0 8
2.4673 -49.9366 -2.4953 0.0498 0 8
3.2686 -49.8905 -2.4953 0.0498 0 8
4.0690 -49.8316 -2.4953 0.0498 0 8
-14.6741 40.2508 -2.4953 0.0581 0 8
-15.3183 40.0100 -2.4953 0.0581 0 8
-15.9586 39.7590 -2.4953 0.0581 0 8
-16.5948 39.4977 -2.4953 0.0581 0 8
-17.2266 39.2262 -2.4953 0.0581 0 8
-17.8541 38.9446 -2.4953 0.0581 0 8
-18.4769 38.6530 -2.4953 0.0581 0 8
-19.0950 38.3514 -2.4953 0.0581 0 8
-19.7082 38.0400 -2.4953 0.0581 0 8
-20.3163 37.7187 -2.4953 0.0581 0 8
-20.9192 37.3877 -2.4953 0.0581 0 8
-21.5166 37.0471 -2.4953 0.0581 0 8
-22.1085 36.6969 -2.4953 0.0581 0 8
-22.6948 36.3373 -2.4953 0.0581 0 8
-23.2751 35.9683 -2.4953 0.0581 0 8
-23.8495 35.5901 -2.4953 0.0581 0 8
-24.4177 35.2027 -2.4953 0.0581 0 8
-24.9797 34.8062 -2.4953 0.0581 0 8
-25.5352 34.4007 -2.4953 0.0581 0 8
-26.0841 33.9864 -2.4953 0.0581 0 8
-26.6263 33.5633 -2.4953 0.0581 0 8
-27.1616 33.1316 -2.4953 0.0581 0 8
-27.8084 32.8312 -2.5059 0.7614 0 8
-28.7184 32.8223 -2.5401 0.7511 0 8
-29.6584 32.8183 -2.5763 0.7183 0 8
-30.7054 32.8995 -2.6211 0.6091 0 8
-31.5255 32.7094 -2.6459 0.0673 0 8
-32.0678 32.2205 -2.6477 0.0581 0 7
-32.5808 31.7016 -2.6477 0.0581 0 7
-33.0855 31.1745 -2.6477 0.0581 0 7
-33.5817 30.6394 -2.6477 0.0581 0 7
-34.0692 30.0964 -2.6477 0.0581 0 7
-34.5479 29.5456 -2.6477 0.0581 0 7
-35.0177 28.9872 -2.6477 0.0581 0 7
-35.4785 28.4214 -2.6477 0.0581 0 7
-35.9302 27.8482 -2.6477 0.0581 0 7
-36.3726 27.2679 -2.6477 0.0581 0 7
-36.8056 26.6805 -2.6477 0.0581 0 6
-37.2291 26.0863 -2.6477 0.0581 0 7
-37.6431 25.4853 -2.6477 0.0581 0 7
-38.0473 24.8778 -2.6477 0.0581 0 7
-38.4418 24.2638 -2.6477 0.0581 0 7
-38.8263 23.6436 -2.6477 0.0581 0 7
-39.2008 23.0173 -2.6477 0.0581 0 7
-39.5653 22.3851 -2.6477 0.0581 0 7
-39.9195 21.7471 -2.6477 0.0581 0 7
-40.2635 21.1035 -2.6477 0.0581 0 6
-40.5970 20.4544 -2.6477 0.0581 0 7
-40.9201 19.8001 -2.6477 0.0581 0 7
-41.2327 19.1407 -2.6477 0.0581 0 6
-41.5346 18.4764 -2.6477 0.0581 0 7
-41.8259 17.8073 -2.6477 0.0581 0 7
-42.1063 17.1336 -2.6477 0.0581 0 6
-42.3759 16.4554 -2.6477 0.0581 0 7
-42.6346 15.7731 -2.6477 0.0581 0 7
-42.8823 15.0867 -2.6477 0.0581 0 6
-43.1190 14.3964 -2.6477 0.0581 0 7
-43.3445 13.7024 -2.6477 0.0581 0 7
-43.5589 13.0049 -2.6477 0.0581 0 7
-43.7620 12.3040 -2.6477 0.0581 0 7
-43.9539 11.5999 -2.6477 0.0581 0 6
-44.1344 10.8929 -2.6477 0.0581 0 7
-44.3036 10.1830 -2.6477 0.0581 0 7
-44.4614 9.4705 -2.6477 0.0581 0 7
-44.6076 8.7556 -2.6477 0.0581 0 7
-44.7424 8.0384 -2.6477 0.0581 0 7
-44.8657 7.3192 -2.6477 0.0581 0 7
-44.9774 6.5980 -2.6477 0.0581 0 7
-45.0775 5.8752 -2.6477 0.0581 0 7
-45.1660 5.1508 -2.6477 0.0581 0 7
-45.2429 4.4252 -2.6477 0.0581 0 7
-45.3081 3.6983 -2.6477 0.0581 0 7
-45.3616 2.9705 -2.6477 0.0581 0 7
-45.4035 2.2420 -2.6477 0.0581 0 7
-45.4336 1.5129 -2.6477 0.0581 0 7
-45.4520 0.7834 -2.6477 0.0581 0 7
-45.4588 0.0537 -2.6477 0.0581 0 7
-45.4538 -0.6761 -2.6477 0.0581 0 7
-45.4371 -1.4056 -2.6477 0.0581 0 7
-45.4086 -2.1348 -2.6477 0.0581 0 7
-45.3685 -2.8634 -2.6477 0.0581 0 7
-45.3167 -3.5913 -2.6477 0.0581 0 7
-45.2532 -4.3183 -2.6477 0.0581 0 7
-45.1781 -5.0442 -2.6477 0.0581 0 7
-45.0913 -5.7687 -2.6477 0.0581 0 7
-44.9929 -6.4918 -2.6477 0.0581 0 7
-44.8829 -7.2132 -2.6477 0.0581 0 7
-44.7613 -7.9327 -2.6477 0.0581 0 7
-44.6282 -8.6502 -2.6477 0.0581 0 7
-44.4836 -9.3655 -2.6477 0.0581 0 7
-44.3275 -10.0784 -2.6477 0.0581 0 7
-44.1600 -10.7886 -2.6477 0.0581 0 7
-43.9811 -11.4961 -2.6477 0.0581 0 7
-43.7910 -12.2006 -2.6477 0.0581 0 7
-43.5895 -12.9020 -2.6477 0.0581 0 6
-43.3767 -13.6000 -2.6477 0.0581 0 7
-43.1528 -14.2946 -2.6477 0.0581 0 7
-42.9178 -14.9854 -2.6477 0.0581 0 7
-42.6717 -15.6724 -2.6477 0.0581 0 7
-42.4147 -16.3554 -2.6477 0.0581 0 7
-42.1467 -17.0341 -2.6477 0.0581 0 7
-41.8678 -17.7085 -2.6477 0.0581 0 7
-41.5782 -18.3782 -2.6477 0.0581 0 7
-41.2778 -19.0433 -2.6477 0.0581 0 7
-40.9668 -19.7035 -2.6477 0.0581 0 7
-40.6452 -20.3585 -2.6477 0.0581 0 7
-40.3132 -21.0083 -2.6477 0.0581 0 7
-39.9707 -21.6528 -2.6477 0.0581 0 7
-37.3376 -21.0085 -2.4953 0.0581 0 8
-36.9956 -21.6051 -2.4953 0.0581 0 8
-36.6440 -22.1962 -2.4953 0.0581 0 8
-36.2829 -22.7816 -2.4953 0.0581 0 8
-35.9126 -23.3611 -2.4953 0.0581 0 8
-35.5330 -23.9345 -2.4953 0.0581 0 8
-35.1442 -24.5018 -2.4953 0.0581 0 8
-34.7463 -25.0628 -2.4953 0.0581 0 8
-34.3396 -25.6173 -2.4953 0.0581 0 8
-33.9239 -26.1652 -2.4953 0.0581 0 8
-33.4995 -26.7065 -2.4953 0.0581 0 8
-33.0665 -27.2407 -2.4953 0.0581 0 8
-32.6250 -27.7680 -2.4953 0.0581 0 8
-32.1750 -28.2882 -2.4953 0.0581 0 8
-31.7168 -28.8010 -2.4953 0.0581 0 8
-31.2504 -29.3065 -2.4953 0.0581 0 8
-30.7759 -29.8043 -2.4953 0.0581 0 8
-30.2935 -30.2945 -2.4953 0.0581 0 8
-29.8033 -30.7768 -2.4953 0.0581 0 8
-29.3055 -31.2513 -2.4953 0.0581 0 8
-28.8001 -31.7176 -2.4953 0.0581 0 8
-28.2872 -32.1759 -2.4953 0.0581 0 8
-27.7671 -32.6258 -2.4953 0.0581 0 8
-27.2397 -33.0673 -2.4953 0.0581 0 8
-26.7054 -33.5003 -2.4953 0.0581 0 8
-26.1642 -33.9247 -2.4953 0.0581 0 8
-25.6163 -34.3403 -2.4953 0.0581 0 8
-25.0618 -34.7471 -2.4953 0.0581 0 8
-24.5008 -35.1449 -2.4953 0.0581 0 8
-23.9335 -35.5337 -2.4953 0.0581 0 8
-23.3600 -35.9133 -2.4953 0.0581 0 8
-22.7805 -36.2836 -2.4953 0.0581 0 8
-22.1951 -36.6446 -2.4953 0.0581 0 8
-21.6040 -36.9962 -2.4953 0.0581 0 8
-21.0074 -37.3382 -2.4953 0.0581 0 8
-20.4053 -37.6706 -2.4953 0.0581 0 8
-19.7980 -37.9933 -2.4953 0.0581 0 8
-19.1855 -38.3062 -2.4953 0.0581 0 8
-18.5681 -38.6093 -2.4953 0.0581 0 8
-17.9460 -38.9024 -2.4953 0.0581 0 8
-17.3192 -39.1854 -2.4953 0.0581 0 8
-16.6880 -39.4584 -2.4953 0.0581 0 8
-16.0524 -39.7212 -2.4953 0.0581 0 8
-15.4128 -39.9737 -2.4953 0.0581 0 8
-14.7691 -40.2160 -2.4953 0.0581 0 8
-14.1216 -40.4479 -2.4953 0.0581 0 8
-13.4706 -40.6694 -2.4953 0.0581 0 8
-12.8160 -40.8804 -2.4953 0.0581 0 8
-12.1581 -41.0808 -2.4953 0.0581 0 8
-11.4971 -41.2707 -2.4953 0.0581 0 8
-10.8331 -41.4499 -2.4953 0.0581 0 8
-10.1664 -41.6184 -2.4953 0.0581 0 8
-9.4970 -41.7763 -2.4953 0.0581 0 8
-8.8252 -41.9234 -2.4953 0.0581 0 8
-8.1511 -42.0596 -2.4953 0.0581 0 8
-7.4749 -42.1850 -2.4953 0.0581 0 8
-6.7967 -42.2996 -2.4953 0.0581 0 8
-6.1169 -42.4033 -2.4953 0.0581 0 8
-5.4354 -42.4960 -2.4953 0.0581 0 8
-4.7525 -42.5778 -2.4953 0.0581 0 8
-4.0685 -42.6486 -2.4953 0.0581 0 8
-3.3833 -42.7084 -2.4953 0.0581 0 8
-2.6974 -42.7572 -2.4953 0.0581 0 8
-2.0106 -42.7950 -2.4953 0.0581 0 8
-1.3234 -42.8217 -2.4953 0.0581 0 8
-0.6359 -42.8375 -2.4953 0.0581 0 8
0.0519 -42.8421 -2.4953 0.0581 0 8
0.7395 -42.8358 -2.4953 0.0581 0 8
1.4271 -42.8184 -2.4953 0.0581 0 8
2.1142 -42.7900 -2.4953 0.0581 0 8
2.8008 -42.7505 -2.4953 0.0581 0 8
3.4867 -42.7001 -2.4953 0.0581 0 8
-12.8354 35.2072 -2.4953 0.0664 0 8
-13.3989 34.9966 -2.4953 0.0664 0 8
-13.9589 34.7770 -2.4953 0.0664 0 8
-14.5154 34.5485 -2.4953 0.0664 0 8
-15.0681 34.3110 -2.4953 0.0664 0 8
-15.6169 34.0647 -2.4953 0.0664 0 8
-16.1617 33.8096 -2.4953 0.0664 0 8
-16.7024 33.5459 -2.4953 0.0664 0 8
-17.2387 33.2734 -2.4953 0.0664 0 8
-17.7706 32.9924 -2.4953 0.0664 0 8
-18.3842 32.8572 -2.5070 0.8696 0 8
-19.0796 32.8511 -2.5296 0.8619 0 8
-19.7877 32.8447 -2.5533 0.8539 0 8
-20.5093 32.8381 -2.5780 0.8457 0 8
-21.2452 32.8313 -2.6039 0.8373 0 8
-21.9960 32.8242 -2.6310 0.8286 0 8
-22.6264 32.6202 -2.6435 0.0804 0 8
-23.1841 32.3043 -2.6477 0.0664 0 7
-23.6997 31.9279 -2.6477 0.0664 0 7
-24.2091 31.5434 -2.6477 0.0664 0 7
-24.7123 31.1507 -2.6477 0.0664 0 7
-25.2092 30.7500 -2.6477 0.0664 0 7
-25.6996 30.3414 -2.6477 0.0664 0 7
-26.1833 29.9249 -2.6477 0.0664 0 7
-26.6603 29.5008 -2.6477 0.0664 0 7
-27.1304 29.0690 -2.6477 0.0664 0 7
-27.5935 28.6298 -2.6477 0.0664 0 7
-28.0495 28.1832 -2.6477 0.0664 0 7
-28.4983 27.7293 -2.6477 0.0664 0 7
-28.9398 27.2682 -2.6477 0.0664 0 7
-29.3738 26.8002 -2.6477 0.0664 0 7
-29.8002 26.3252 -2.6477 0.0664 0 6
-30.2189 25.8434 -2.6477 0.0664 0 7
-30.6299 25.3550 -2.6477 0.0664 0 7
-31.0329 24.8601 -2.6477 0.0664 0 7
-31.4280 24.3587 -2.6477 0.0664 0 7
-31.8150 23.8511 -2.6477 0.0664 0 7
-30.4333 22.0612 -2.5029 0.0664 0 14
-30.7835 21.5699 -2.5029 0.0664 0 14
-31.1258 21.0729 -2.5029 0.0664 0 14
-31.4600 20.5706 -2.5029 0.0664 0 14
-31.7862 20.0629 -2.5029 0.0664 0 14
-32.1041 19.5502 -2.5029 0.0664 0 14
-34.2888 20.1332 -2.6477 0.0664 0 7
-34.6076 19.5802 -2.6477 0.0664 0 7
-34.9175 19.0221 -2.6477 0.0664 0 7
-35.2183 18.4591 -2.6477 0.0664 0 7
-35.5101 17.8914 -2.6477 0.0664 0 7
-35.7927 17.3191 -2.6477 0.0664 0 7
-36.0661 16.7423 -2.6477 0.0664 0 7
-36.3302 16.1612 -2.6477 0.0664 0 7
-36.5849 15.5760 -2.6477 0.0664 0 7
-36.8303 14.9867 -2.6477 0.0664 0 6
-37.0661 14.3935 -2.6477 0.0664 0 7
-37.2924 13.7967 -2.6477 0.0664 0 7
-37.5090 13.1963 -2.6477 0.0664 0 7
-37.7160 12.5925 -2.6477 0.0664 0 7
-37.9133 11.9855 -2.6477 0.0664 0 7
-38.1008 11.3753 -2.6477 0.0664 0 7
-38.2785 10.7623 -2.6477 0.0664 0 7
-38.4463 10.1464 -2.6477 0.0664 0 7
-38.6042 9.5280 -2.6477 0.0664 0 7
-38.7522 8.9070 -2.6477 0.0664 0 7
-38.8902 8.2838 -2.6477 0.0664 0 7
-39.0181 7.6585 -2.6477 0.0664 0 7
-39.1361 7.0312 -2.6477 0.0664 0 7
-39.2439 6.4021 -2.6477 0.0664 0 7
-39.3416 5.7712 -2.6477 0.0664 0 7
-39.4292 5.1390 -2.6477 0.0664 0 7
-39.5066 4.5054 -2.6477 0.0664 0 7
-39.5738 3.8707 -2.6477 0.0664 0 6
-39.6308 3.2349 -2.6477 0.0664 0 6
-39.6777 2.5983 -2.6477 0.0664 0 6
-37.4283 1.8482 -2.4953 0.0664 0 8
-37.4531 1.2471 -2.4953 0.0664 0 8
-37.4683 0.6458 -2.4953 0.0664 0 8
-37.4739 0.0443 -2.4953 0.0664 0 8
-37.4698 -0.5573 -2.4953 0.0664 0 8
-37.4560 -1.1587 -2.4953 0.0664 0 8
-37.4326 -1.7598 -2.4953 0.0664 0 8
-37.3995 -2.3605 -2.4953 0.0664 0 8
-37.3568 -2.9605 -2.4953 0.0664 0 8
-37.3044 -3.5598 -2.4953 0.0664 0 8
-37.2425 -4.1582 -2.4953 0.0664 0 8
-37.1710 -4.7554 -2.4953 0.0664 0 8
-37.0898 -5.3515 -2.4953 0.0664 0 8
-36.9991 -5.9462 -2.4953 0.0664 0 8
-36.8989 -6.5393 -2.4953 0.0664 0 8
-36.7892 -7.1308 -2.4953 0.0664 0 8
-36.6700 -7.7205 -2.4953 0.0664 0 8
-36.5413 -8.3081 -2.4953 0.0664 0 8
-36.4033 -8.8936 -2.4953 0.0664 0 8
-36.2558 -9.4768 -2.4953 0.0664 0 8
-36.0990 -10.0576 -2.4953 0.0664 0 8
-35.9329 -10.6357 -2.4953 0.0664 0 8
-35.7576 -11.2112 -2.4953 0.0664 0 8
-35.5730 -11.7837 -2.4953 0.0664 0 8
-35.3792 -12.3532 -2.4953 0.0664 0 8
-35.1764 -12.9195 -2.4953 0.0664 0 8
-34.9645 -13.4825 -2.4953 0.0664 0 8
-34.7436 -14.0420 -2.4953 0.0664 0 8
-34.5137 -14.5979 -2.4953 0.0664 0 8
-34.2749 -15.1501 -2.4953 0.0664 0 8
-34.0273 -15.6983 -2.4953 0.0664 0 8
-33.7709 -16.2425 -2.4953 0.0664 0 8
-33.5058 -16.7825 -2.4953 0.0664 0 8
-33.2321 -17.3182 -2.4953 0.0664 0 8
-32.9498 -17.8494 -2.4953 0.0664 0 8
-32.6591 -18.3760 -2.4953 0.0664 0 8
-32.3599 -18.8979 -2.4953 0.0664 0 8
-32.0523 -19.4150 -2.4953 0.0664 0 8
-31.7366 -19.9270 -2.4953 0.0664 0 8
-31.4126 -20.4348 -2.4953 0.0664 0 8
-31.0805 -20.9353 -2.4953 0.0664 0 8
-30.7405 -21.4317 -2.4953 0.0664 0 8
-30.3925 -21.9223 -2.4953 0.0664 0 8
-30.0367 -22.4074 -2.4953 0.0664 0 8
-29.6731 -22.8867 -2.4953 0.0664 0 8
-29.3019 -23.3600 -2.4953 0.0664 0 8
-28.9232 -23.8274 -2.4953 0.0664 0 8
-28.5370 -24.2886 -2.4953 0.0664 0 8
-28.1434 -24.7436 -2.4953 0.0664 0 8
-27.7426 -25.1921 -2.4953 0.0664 0 8
-27.3346 -25.6342 -2.4953 0.0664 0 8
-26.9196 -26.0697 -2.4953 0.0664 0 8
-26.4977 -26.4984 -2.4953 0.0664 0 8
-26.0689 -26.9204 -2.4953 0.0664 0 8
-25.6334 -27.3354 -2.4953 0.0664 0 8
-25.1913 -27.7433 -2.4953 0.0664 0 8
-24.7427 -28.1441 -2.4953 0.0664 0 8
-24.2877 -28.5377 -2.4953 0.0664 0 8
-23.8265 -28.9239 -2.4953 0.0664 0 8
-23.3591 -29.3026 -2.4953 0.0664 0 8
-22.8858 -29.6738 -2.4953 0.0664 0 8
-22.4065 -30.0374 -2.4953 0.0664 0 8
-21.9214 -30.3931 -2.4953 0.0664 0 8
-21.4307 -30.7411 -2.4953 0.0664 0 8
-20.9345 -31.0812 -2.4953 0.0664 0 8
-20.4329 -31.4132 -2.4953 0.0664 0 8
-19.9260 -31.7372 -2.4953 0.0664 0 8
-19.4140 -32.0529 -2.4953 0.0664 0 8
-18.8970 -32.3604 -2.4953 0.0664 0 8
-18.3751 -32.6596 -2.4953 0.0664 0 8
-17.8484 -32.9504 -2.4953 0.0664 0 8
-17.3172 -33.2326 -2.4953 0.0664 0 8
-16.7815 -33.5063 -2.4953 0.0664 0 8
-16.2415 -33.7714 -2.4953 0.0664 0 8
-15.6973 -34.0277 -2.4953 0.0664 0 8
-15.1490 -34.2754 -2.4953 0.0664 0 8
-14.5969 -34.5141 -2.4953 0.0664 0 8
-14.0410 -34.7440 -2.4953 0.0664 0 8
-13.4815 -34.9649 -2.4953 0.0664 0 8
-12.9185 -35.1768 -2.4953 0.0664 0 8
-12.3522 -35.3796 -2.4953 0.0664 0 8
-11.7827 -35.5733 -2.4953 0.0664 0 8
-11.2101 -35.7579 -2.4953 0.0664 0 8
-10.6347 -35.9332 -2.4953 0.0664 0 8
-10.0565 -36.0993 -2.4953 0.0664 0 8
-9.4757 -36.2561 -2.4953 0.0664 0 8
-8.8925 -36.4034 -2.4953 0.0664 0 8
-8.3070 -36.5416 -2.4953 0.0664 0 8
-7.7194 -36.6702 -2.4953 0.0664 0 8
-7.1297 -36.7894 -2.4953 0.0664 0 8
-6.5383 -36.8991 -2.4953 0.0664 0 8
-5.9451 -36.9993 -2.4953 0.0664 0 8
-5.3504 -37.0900 -2.4953 0.0664 0 8
-4.7543 -37.1711 -2.4953 0.0664 0 8
-4.1570 -37.2426 -2.4953 0.0664 0 8
-3.5587 -37.3045 -2.4953 0.0664 0 8
-2.9594 -37.3569 -2.4953 0.0664 0 8
-2.3594 -37.3996 -2.4953 0.0664 0 8
-1.7587 -37.4326 -2.4953 0.0664 0 8
-1.1576 -37.4560 -2.4953 0.0664 0 8
-0.5562 -37.4698 -2.4953 0.0664 0 8
0.0453 -37.4739 -2.4953 0.0664 0 8
0.6469 -37.4683 -2.4953 0.0664 0 8
1.2483 -37.4531 -2.4953 0.0664 0 8
1.8493 -37.4282 -2.4953 0.0664 0 8
2.4499 -37.3937 -2.4953 0.0664 0 8
3.0498 -37.3496 -2.4953 0.0664 0 8
-11.9775 32.8540 -2.6206 0.9358 0 8
-12.5768 32.8494 -2.6360 0.9303 0 8
-13.1334 32.7203 -2.6422 0.0904 0 8
-13.6724 32.5421 -2.6452 0.0903 0 8
-14.2063 32.3487 -2.6477 0.0747 0 7
-14.7238 32.1165 -2.6477 0.0747 0 7
-15.2374 31.8760 -2.6477 0.0747 0 7
-15.7471 31.6273 -2.6477 0.0747 0 7
-16.2528 31.3705 -2.6477 0.0747 0 7
-16.7543 31.1055 -2.6477 0.0747 0 7
-17.2514 30.8326 -2.6477 0.0747 0 7
-17.7441 30.5517 -2.6477 0.0747 0 7
-18.2323 30.2629 -2.6477 0.0747 0 7
-18.7157 29.9663 -2.6477 0.0747 0 7
-19.1943 29.6621 -2.6477 0.0747 0 7
-19.6680 29.3501 -2.6477 0.0747 0 7
-20.1366 29.0306 -2.6477 0.0747 0 7
-20.6000 28.7036 -2.6477 0.0747 0 7
-21.0581 28.3693 -2.6477 0.0747 0 7
-21.5108 28.0276 -2.6477 0.0747 0 7
-21.9579 27.6787 -2.6477 0.0747 0 7
-22.3994 27.3227 -2.6477 0.0747 0 7
-22.8351 26.9596 -2.6477 0.0747 0 7
-23.2649 26.5896 -2.6477 0.0747 0 7
-23.6888 26.2126 -2.6477 0.0747 0 7
-24.1065 25.8290 -2.6477 0.0747 0 7
-24.5180 25.4388 -2.6477 0.0747 0 7
-24.9232 25.0419 -2.6477 0.0747 0 7
-25.3219 24.6386 -2.6477 0.0747 0 7
-25.7142 24.2290 -2.6477 0.0747 0 7
-26.0998 23.8131 -2.6477 0.0747 0 7
-25.0308 22.1120 -2.5029 0.0747 0 14
-25.3825 21.7073 -2.5029 0.0747 0 14
-25.7277 21.2971 -2.5029 0.0747 0 14
-26.0662 20.8813 -2.5029 0.0747 0 14
-26.3981 20.4602 -2.5029 0.0747 0 14
-26.7231 20.0338 -2.5029 0.0747 0 14
-27.0412 19.6023 -2.5029 0.0747 0 14
-27.3524 19.1657 -2.5029 0.0747 0 14
-27.8860 18.8795 -2.5237 0.5656 0 8
-28.8527 18.8657 -2.5834 0.5525 0 8
-29.8664 18.8512 -2.6467 0.5393 0 8
-30.1759 18.3759 -2.6477 0.0747 0 6
-30.4670 17.8891 -2.6477 0.0747 0 7
-30.7503 17.3978 -2.6477 0.0747 0 6
-31.0256 16.9019 -2.6477 0.0747 0 7
-31.2929 16.4017 -2.6477 0.0747 0 7
-31.5521 15.8973 -2.6477 0.0747 0 7
-31.8033 15.3887 -2.6477 0.0747 0 7
-32.0462 14.8762 -2.6477 0.0747 0 7
-32.2809 14.3599 -2.6477 0.0747 0 7
-32.5072 13.8399 -2.6477 0.0747 0 7
-32.7252 13.3163 -2.6477 0.0747 0 7
-32.9347 12.7892 -2.6477 0.0747 0 7
-33.1358 12.2589 -2.6477 0.0747 0 7
-33.3283 11.7255 -2.6477 0.0747 0 7
-33.5122 11.1890 -2.6477 0.0747 0 7
-33.6875 10.6496 -2.6477 0.0747 0 7
-33.8541 10.1074 -2.6477 0.0747 0 7
-34.0120 9.5627 -2.6477 0.0747 0 7
-34.1611 9.0155 -2.6477 0.0747 0 7
-34.3014 8.4660 -2.6477 0.0747 0 7
-32.4509 7.4587 -2.4953 0.0747 0 8
-32.5665 6.9368 -2.4953 0.0747 0 8
-32.6736 6.4132 -2.4953 0.0747 0 8
-32.7724 5.8879 -2.4953 0.0747 0 8
-32.8627 5.3610 -2.4953 0.0747 0 8
-32.9445 4.8328 -2.4953 0.0747 0 8
-33.0178 4.3034 -2.4953 0.0747 0 8
-33.0826 3.7728 -2.4953 0.0747 0 8
-33.1390 3.2413 -2.4953 0.0747 0 8
-33.1867 2.7089 -2.4953 0.0747 0 8
-33.2260 2.1758 -2.4953 0.0747 0 8
-33.2566 1.6422 -2.4953 0.0747 0 8
-33.2787 1.1081 -2.4953 0.0747 0 8
-33.2921 0.5738 -2.4953 0.0747 0 8
-33.2971 0.0393 -2.4953 0.0747 0 8
-33.2934 -0.4952 -2.4953 0.0747 0 8
-33.2812 -1.0296 -2.4953 0.0747 0 8
-33.2604 -1.5637 -2.4953 0.0747 0 8
-33.2310 -2.0974 -2.4953 0.0747 0 8
-33.1931 -2.6305 -2.4953 0.0747 0 8
-33.1465 -3.1630 -2.4953 0.0747 0 8
-33.0915 -3.6947 -2.4953 0.0747 0 8
-33.0279 -4.2254 -2.4953 0.0747 0 8
-32.9558 -4.7550 -2.4953 0.0747 0 8
-32.8753 -5.2834 -2.4953 0.0747 0 8
-32.7862 -5.8105 -2.4953 0.0747 0 8
-32.6887 -6.3360 -2.4953 0.0747 0 8
-32.5828 -6.8599 -2.4953 0.0747 0 8
-32.4685 -7.3821 -2.4953 0.0747 0 8
-32.3458 -7.9023 -2.4953 0.0747 0 8
-32.2148 -8.4205 -2.4953 0.0747 0 8
-32.0755 -8.9365 -2.4953 0.0747 0 8
-31.9279 -9.4503 -2.4953 0.0747 0 8
-31.7721 -9.9616 -2.4953 0.0747 0 8
-31.6081 -10.4703 -2.4953 0.0747 0 8
-31.4359 -10.9828 -2.4953 0.0747 0 8
-31.2557 -11.4797 -2.4953 0.0747 0 8
-31.0674 -11.9790 -2.4953 0.0747 0 8
-30.8711 -12.4769 -2.4953 0.0747 0 8
-30.6668 -12.9709 -2.4953 0.0747 0 8
-30.4547 -13.4615 -2.4953 0.0747 0 8
-30.2346 -13.9454 -2.4953 0.0747 0 8
-30.0068 -14.4322 -2.4953 0.0747 0 8
-29.7713 -14.9119 -2.4953 0.0747 0 8
-29.5281 -15.3879 -2.4953 0.0747 0 8
-29.2773 -15.8600 -2.4953 0.0747 0 8
-29.0189 -16.3279 -2.4953 0.0747 0 8
-28.7531 -16.7916 -2.4953 0.0747 0 8
-28.4799 -17.2510 -2.4953 0.0747 0 8
-28.1992 -17.7059 -2.4953 0.0747 0 8
-27.9114 -18.1563 -2.4953 0.0747 0 8
-27.6163 -18.6020 -2.4953 0.0747 0 8
-27.3142 -19.0429 -2.4953 0.0747 0 8
-27.0050 -19.4789 -2.4953 0.0747 0 8
-26.6888 -19.9099 -2.4953 0.0747 0 8
-26.3658 -20.3357 -2.4953 0.0747 0 8
-26.0359 -20.7563 -2.4953 0.0747 0 8
-25.6994 -21.1716 -2.4953 0.0747 0 8
-25.3563 -21.5814 -2.4953 0.0747 0 8
-25.0065 -21.9857 -2.4953 0.0747 0 8
-24.6504 -22.3842 -2.4953 0.0747 0 8
-24.2879 -22.7770 -2.4953 0.0747 0 8
-23.9192 -23.1640 -2.4953 0.0747 0 8
-23.5442 -23.5450 -2.4953 0.0747 0 8
-23.1633 -23.9199 -2.4953 0.0747 0 8
-22.7763 -24.2886 -2.4953 0.0747 0 8
-22.3835 -24.6511 -2.4953 0.0747 0 8
-21.9849 -25.0072 -2.4953 0.0747 0 8
-21.5807 -25.3569 -2.4953 0.0747 0 8
-21.1708 -25.7000 -2.4953 0.0747 0 8
-20.7555 -26.0366 -2.4953 0.0747 0 8
-20.3349 -26.3664 -2.4953 0.0747 0 8
-19.9091 -26.6894 -2.4953 0.0747 0 8
-19.4781 -27.0056 -2.4953 0.0747 0 8
-19.0421 -27.3147 -2.4953 0.0747 0 8
-18.6012 -27.6169 -2.4953 0.0747 0 8
-18.1555 -27.9119 -2.4953 0.0747 0 8
-17.7051 -28.1998 -2.4953 0.0747 0 8
-17.2501 -28.4803 -2.4953 0.0747 0 8
-16.7907 -28.7536 -2.4953 0.0747 0 8
-16.3270 -29.0194 -2.4953 0.0747 0 8
-15.8591 -29.2778 -2.4953 0.0747 0 8
-15.3871 -29.5285 -2.4953 0.0747 0 8
-14.9111 -29.7717 -2.4953 0.0747 0 8
-14.4312 -30.0073 -2.4953 0.0747 0 8
-13.9477 -30.2350 -2.4953 0.0747 0 8
-13.4605 -30.4550 -2.4953 0.0747 0 8
-12.9700 -30.6672 -2.4953 0.0747 0 8
-12.4760 -30.8714 -2.4953 0.0747 0 8
-11.9789 -31.0677 -2.4953 0.0747 0 8
-11.4784 -31.2570 -2.4953 0.0747 0 8
-10.9754 -31.4362 -2.4953 0.0747 0 8
-10.4694 -31.6084 -2.4953 0.0747 0 8
-9.9606 -31.7724 -2.4953 0.0747 0 8
-9.4493 -31.9281 -2.4953 0.0747 0 8
-8.9356 -32.0757 -2.4953 0.0747 0 8
-8.4196 -32.2150 -2.4953 0.0747 0 8
-7.9013 -32.3460 -2.4953 0.0747 0 8
-7.3811 -32.4687 -2.4953 0.0747 0 8
-6.8590 -32.5830 -2.4953 0.0747 0 8
-6.3350 -32.6889 -2.4953 0.0747 0 8
-5.8095 -32.7864 -2.4953 0.0747 0 8
-5.2824 -32.8754 -2.4953 0.0747 0 8
-4.7541 -32.9560 -2.4953 0.0747 0 8
-4.2244 -33.0280 -2.4953 0.0747 0 8
-3.6937 -33.0916 -2.4953 0.0747 0 8
-3.1620 -33.1466 -2.4953 0.0747 0 8
-2.6295 -33.1931 -2.4953 0.0747 0 8
-2.0964 -33.2310 -2.4953 0.0747 0 8
-1.5627 -33.2604 -2.4953 0.0747 0 8
-1.0286 -33.2812 -2.4953 0.0747 0 8
-0.4942 -33.2934 -2.4953 0.0747 0 8
0.0403 -33.2971 -2.4953 0.0747 0 8
0.5748 -33.2921 -2.4953 0.0747 0 8
1.1091 -33.2786 -2.4953 0.0747 0 8
1.6432 -33.2565 -2.4953 0.0747 0 8
2.1768 -33.2259 -2.4953 0.0747 0 8
2.7099 -33.1866 -2.4953 0.0747 0 8
-10.8864 29.8612 -2.6477 0.0830 0 6
-11.3643 29.6826 -2.6477 0.0830 0 7
-11.8393 29.4963 -2.6477 0.0830 0 7
-12.3113 29.3025 -2.6477 0.0830 0 7
-12.7801 29.1011 -2.6477 0.0830 0 7
-13.2456 28.8922 -2.6477 0.0830 0 7
-13.7076 28.6758 -2.6477 0.0830 0 7
-14.1662 28.4521 -2.6477 0.0830 0 7
-14.6211 28.2210 -2.6477 0.0830 0 7
-15.0722 27.9827 -2.6477 0.0830 0 7
-15.5195 27.7371 -2.6477 0.0830 0 7
-15.9627 27.4844 -2.6477 0.0830 0 7
-16.4018 27.2247 -2.6477 0.0830 0 7
-16.8368 26.9579 -2.6477 0.0830 0 7
-17.2673 26.6841 -2.6477 0.0830 0 7
-17.6934 26.4035 -2.6477 0.0830 0 7
-18.1150 26.1161 -2.6477 0.0830 0 7
-18.5319 25.8219 -2.6477 0.0830 0 7
-18.9440 25.5211 -2.6477 0.0830 0 7
-19.3512 25.2138 -2.6477 0.0830 0 7
-19.7534 24.8999 -2.6477 0.0830 0 7
-20.1506 24.5796 -2.6477 0.0830 0 7
-20.5426 24.2530 -2.6477 0.0830 0 7
-20.9292 23.9201 -2.6477 0.0830 0 7
-20.1452 22.2916 -2.5029 0.0830 0 8
-20.5004 21.9653 -2.5029 0.0830 0 14
-20.8504 21.6334 -2.5029 0.0830 0 14
-21.1950 21.2959 -2.5029 0.0830 0 14
-21.5341 20.9530 -2.5029 0.0830 0 14
-21.8676 20.6046 -2.5029 0.0830 0 14
-22.1956 20.2509 -2.5029 0.0830 0 14
-22.5178 19.8920 -2.5029 0.0830 0 14
-22.8342 19.5280 -2.5029 0.0830 0 14
-23.1447 19.1589 -2.5029 0.0830 0 14
-23.5837 18.8926 -2.5172 0.6299 0 8
-24.3607 18.8812 -2.5675 0.6175 0 8
-25.1695 18.8691 -2.6205 0.6051 0 8
-25.7336 18.6544 -2.6477 0.0830 0 7
-26.0297 18.2389 -2.6477 0.0830 0 7
-26.3191 17.8187 -2.6477 0.0830 0 7
-26.6018 17.3939 -2.6477 0.0830 0 7
-26.8776 16.9647 -2.6477 0.0830 0 7
-27.1464 16.5310 -2.6477 0.0830 0 7
-27.4083 16.0931 -2.6477 0.0830 0 7
-27.6631 15.6511 -2.6477 0.0830 0 7
-27.9108 15.2050 -2.6477 0.0830 0 7
-28.1512 14.7550 -2.6477 0.0830 0 7
-28.3845 14.3012 -2.6477 0.0830 0 7
-28.6104 13.8438 -2.6477 0.0830 0 7
-28.8289 13.3827 -2.6477 0.0830 0 7
-29.0400 12.9182 -2.6477 0.0830 0 7
-29.2436 12.4504 -2.6477 0.0830 0 7
-29.4397 11.9794 -2.6477 0.0830 0 7
-29.6282 11.5053 -2.6477 0.0830 0 7
-29.8091 11.0282 -2.6477 0.0830 0 7
-29.9823 10.5484 -2.6477 0.0830 0 7
-30.1477 10.0656 -2.6477 0.0830 0 7
-30.3054 9.5804 -2.6477 0.0830 0 7
-30.4553 9.0927 -2.6477 0.0830 0 7
-28.8362 8.1075 -2.4953 0.0830 0 8
-28.9626 7.6435 -2.4953 0.0830 0 8
-29.0815 7.1777 -2.4953 0.0830 0 8
-29.1930 6.7099 -2.4953 0.0830 0 8
-29.2970 6.2404 -2.4953 0.0830 0 8
-29.3934 5.7694 -2.4953 0.0830 0 8
-29.4822 5.2968 -2.4953 0.0830 0 8
-29.5634 4.8229 -2.4953 0.0830 0 8
-29.6370 4.3476 -2.4953 0.0830 0 8
-29.7030 3.8713 -2.4953 0.0830 0 8
-29.7613 3.3940 -2.4953 0.0830 0 8
-29.8120 2.9159 -2.4953 0.0830 0 8
-29.8549 2.4369 -2.4953 0.0830 0 8
-29.8902 1.9574 -2.4953 0.0830 0 8
-29.9178 1.4773 -2.4953 0.0830 0 8
-29.9376 0.9969 -2.4953 0.0830 0 8
-29.9498 0.5162 -2.4953 0.0830 0 8
-29.9542 0.0354 -2.4953 0.0830 0 8
-29.9509 -0.4455 -2.4953 0.0830 0 8
-29.9399 -0.9262 -2.4953 0.0830 0 8
-29.9212 -1.4067 -2.4953 0.0830 0 8
-29.8947 -1.8868 -2.4953 0.0830 0 8
-29.8606 -2.3664 -2.4953 0.0830 0 8
-29.8188 -2.8455 -2.4953 0.0830 0 8
-29.7692 -3.3238 -2.4953 0.0830 0 8
-29.7121 -3.8012 -2.4953 0.0830 0 8
-29.6472 -4.2776 -2.4953 0.0830 0 8
-29.5747 -4.7530 -2.4953 0.0830 0 8
-29.4946 -5.2271 -2.4953 0.0830 0 8
-29.4069 -5.6999 -2.4953 0.0830 0 8
-29.3116 -6.1712 -2.4953 0.0830 0 8
-29.2088 -6.6410 -2.4953 0.0830 0 8
-29.0984 -7.1090 -2.4953 0.0830 0 8
-28.9805 -7.5751 -2.4953 0.0830 0 8
-28.8552 -8.0394 -2.4953 0.0830 0 8
-28.7225 -8.5015 -2.4953 0.0830 0 8
-28.5823 -8.9615 -2.4953 0.0830 0 8
-28.4347 -9.4191 -2.4953 0.0830 0 8
-28.2799 -9.8744 -2.4953 0.0830 0 8
-28.1177 -10.3270 -2.4953 0.0830 0 8
-27.9483 -10.7771 -2.4953 0.0830 0 8
-27.7718 -11.2243 -2.4953 0.0830 0 8
-27.5880 -11.6687 -2.4953 0.0830 0 8
-27.3971 -12.1100 -2.4953 0.0830 0 8
-27.1992 -12.5482 -2.4953 0.0830 0 8
-26.9943 -12.9832 -2.4953 0.0830 0 8
-26.7824 -13.4149 -2.4953 0.0830 0 8
-26.5636 -13.8430 -2.4953 0.0830 0 8
-26.3380 -14.2677 -2.4953 0.0830 0 8
-26.1055 -14.6886 -2.4953 0.0830 0 8
-25.8664 -15.1058 -2.4953 0.0830 0 8
-25.6206 -15.5191 -2.4953 0.0830 0 8
-25.3682 -15.9283 -2.4953 0.0830 0 8
-25.1092 -16.3335 -2.4953 0.0830 0 8
-24.8438 -16.7344 -2.4953 0.0830 0 8
-24.5720 -17.1311 -2.4953 0.0830 0 8
-24.2938 -17.5233 -2.4953 0.0830 0 8
-24.0094 -17.9110 -2.4953 0.0830 0 8
-23.7188 -18.2941 -2.4953 0.0830 0 8
-23.4221 -18.6725 -2.4953 0.0830 0 8
-23.1193 -19.0461 -2.4953 0.0830 0 8
-22.8106 -19.4147 -2.4953 0.0830 0 8
-22.4960 -19.7784 -2.4953 0.0830 0 8
-22.1756 -20.1370 -2.4953 0.0830 0 8
-21.8495 -20.4903 -2.4953 0.0830 0 8
-21.5178 -20.8384 -2.4953 0.0830 0 8
-21.1805 -21.1812 -2.4953 0.0830 0 8
-20.8378 -21.5184 -2.4953 0.0830 0 8
-20.4897 -21.8501 -2.4953 0.0830 0 8
-20.1363 -22.1762 -2.4953 0.0830 0 8
-19.7777 -22.4966 -2.4953 0.0830 0 8
-19.4141 -22.8112 -2.4953 0.0830 0 8
-19.0454 -23.1199 -2.4953 0.0830 0 8
-18.6718 -23.4226 -2.4953 0.0830 0 8
-18.2934 -23.7193 -2.4953 0.0830 0 8
-17.9103 -24.0099 -2.4953 0.0830 0 8
-17.5226 -24.2943 -2.4953 0.0830 0 8
-17.1303 -24.5725 -2.4953 0.0830 0 8
-16.7337 -24.8443 -2.4953 0.0830 0 8
-16.3327 -25.1097 -2.4953 0.0830 0 8
-15.9276 -25.3686 -2.4953 0.0830 0 8
-15.5183 -25.6210 -2.4953 0.0830 0 8
-15.1050 -25.8668 -2.4953 0.0830 0 8
-14.6879 -26.1060 -2.4953 0.0830 0 8
-14.2669 -26.3384 -2.4953 0.0830 0 8
-13.8421 -26.5645 -2.4953 0.0830 0 8
-13.4141 -26.7828 -2.4953 0.0830 0 8
-12.9824 -26.9947 -2.4953 0.0830 0 8
-12.5474 -27.1996 -2.4953 0.0830 0 8
-12.1092 -27.3975 -2.4953 0.0830 0 8
-11.6678 -27.5883 -2.4953 0.0830 0 8
-11.2235 -27.7721 -2.4953 0.0830 0 8
-10.7762 -27.9487 -2.4953 0.0830 0 8
-10.3262 -28.1181 -2.4953 0.0830 0 8
-9.8735 -28.2802 -2.4953 0.0830 0 8
-9.4183 -28.4348 -2.4953 0.0830 0 8
-8.9606 -28.5826 -2.4953 0.0830 0 8
-8.5007 -28.7227 -2.4953 0.0830 0 8
-8.0385 -28.8555 -2.4953 0.0830 0 8
-7.5743 -28.9808 -2.4953 0.0830 0 8
-7.1081 -29.0986 -2.4953 0.0830 0 8
-6.6401 -29.2090 -2.4953 0.0830 0 8
-6.1704 -29.3118 -2.4953 0.0830 0 8
-5.6990 -29.4071 -2.4953 0.0830 0 8
-5.2263 -29.4948 -2.4953 0.0830 0 8
-4.7521 -29.5749 -2.4953 0.0830 0 8
-4.2768 -29.6473 -2.4953 0.0830 0 8
-3.8003 -29.7122 -2.4953 0.0830 0 8
-3.3229 -29.7693 -2.4953 0.0830 0 8
-2.8446 -29.8188 -2.4953 0.0830 0 8
-2.3655 -29.8607 -2.4953 0.0830 0 8
-1.8859 -29.8948 -2.4953 0.0830 0 8
-1.4058 -29.9212 -2.4953 0.0830 0 8
-0.9253 -29.9399 -2.4953 0.0830 0 8
-0.4446 -29.9509 -2.4953 0.0830 0 8
0.0363 -29.9542 -2.4953 0.0830 0 8
0.5171 -29.9498 -2.4953 0.0830 0 8
0.9978 -29.9376 -2.4953 0.0830 0 8
1.4782 -29.9177 -2.4953 0.0830 0 8
1.9583 -29.8901 -2.4953 0.0830 0 8
2.4378 -29.8549 -2.4953 0.0830 0 8
-9.8919 27.1334 -2.6477 0.0913 0 7
-10.3262 26.9711 -2.6477 0.0913 0 7
-10.7578 26.8018 -2.6477 0.0913 0 7
-11.1867 26.6257 -2.6477 0.0913 0 7
-11.6126 26.4427 -2.6477 0.0913 0 7
-12.0356 26.2529 -2.6477 0.0913 0 7
-12.4555 26.0563 -2.6477 0.0913 0 7
-12.8721 25.8530 -2.6477 0.0913 0 7
-13.2855 25.6430 -2.6477 0.0913 0 7
-13.6954 25.4265 -2.6477 0.0913 0 7
-14.1018 25.2034 -2.6477 0.0913 0 7
-14.5045 24.9737 -2.6477 0.0913 0 7
-14.9035 24.7377 -2.6477 0.0913 0 7
-15.2987 24.4953 -2.6477 0.0913 0 7
-15.6900 24.2465 -2.6477 0.0913 0 7
-16.0771 23.9916 -2.6477 0.0913 0 7
-16.4602 23.7304 -2.6477 0.0913 0 7
-15.9182 22.1801 -2.5029 0.0913 0 14
-16.2722 21.9217 -2.5029 0.0913 0 14
-16.6220 21.6577 -2.5029 0.0913 0 14
-16.9675 21.3881 -2.5029 0.0913 0 14
-17.3086 21.1130 -2.5029 0.0913 0 14
-17.6453 20.8324 -2.5029 0.0913 0 14
-17.9775 20.5465 -2.5029 0.0913 0 14
-18.3050 20.2552 -2.5029 0.0913 0 14
-18.6277 19.9588 -2.5029 0.0913 0 14
-18.9457 19.6572 -2.5029 0.0913 0 14
-19.2588 19.3506 -2.5029 0.0913 0 14
-19.5670 19.0389 -2.5029 0.0913 0 8
-20.0593 18.9007 -2.5267 0.6901 0 8
-20.7050 18.8909 -2.5695 0.6786 0 8
-21.3731 18.8808 -2.6145 0.6669 0 8
-21.9485 18.7705 -2.6477 0.0913 0 7
-22.2468 18.4158 -2.6477 0.0913 0 6
-22.5397 18.0563 -2.6477 0.0913 0 7
-22.8267 17.6922 -2.6477 0.0913 0 7
-23.1077 17.3235 -2.6477 0.0913 0 7
-23.3828 16.9503 -2.6477 0.0913 0 7
-23.6519 16.5728 -2.6477 0.0913 0 7
-23.9149 16.1910 -2.6477 0.0913 0 7
-24.1717 15.8050 -2.6477 0.0913 0 7
-24.4223 15.4150 -2.6477 0.0913 0 7
-24.6666 15.0209 -2.6477 0.0913 0 7
-24.9045 14.6230 -2.6477 0.0913 0 7
-25.1361 14.2214 -2.6477 0.0913 0 7
-25.3611 13.8160 -2.6477 0.0913 0 7
-25.5796 13.4072 -2.6477 0.0913 0 7
-25.7915 12.9948 -2.6477 0.0913 0 7
-25.9968 12.5791 -2.6477 0.0913 0 7
-26.1954 12.1602 -2.6477 0.0913 0 7
-26.3872 11.7382 -2.6477 0.0913 0 7
-26.5722 11.3131 -2.6477 0.0913 0 6
-26.7504 10.8851 -2.6477 0.0913 0 7
-26.9217 10.4543 -2.6477 0.0913 0 7
-27.0860 10.0208 -2.6477 0.0913 0 7
-27.2434 9.5847 -2.6477 0.0913 0 7
-27.3937 9.1461 -2.6477 0.0913 0 7
-25.9520 8.2042 -2.4953 0.0913 0 8
-26.0804 7.7865 -2.4953 0.0913 0 8
-26.2020 7.3669 -2.4953 0.0913 0 8
-26.3169 6.9453 -2.4953 0.0913 0 8
-26.4250 6.5220 -2.4953 0.0913 0 8
-26.5262 6.0970 -2.4953 0.0913 0 8
-26.6207 5.6704 -2.4953 0.0913 0 8
-26.7083 5.2423 -2.4953 0.0913 0 8
-26.7890 4.8129 -2.4953 0.0913 0 8
-26.8628 4.3823 -2.4953 0.0913 0 8
-26.9297 3.9505 -2.4953 0.0913 0 8
-26.9896 3.5177 -2.4953 0.0913 0 8
-27.0426 3.0840 -2.4953 0.0913 0 8
-27.0887 2.6495 -2.4953 0.0913 0 8
-27.1277 2.2143 -2.4953 0.0913 0 8
-27.1597 1.7786 -2.4953 0.0913 0 8
-27.1848 1.3424 -2.4953 0.0913 0 8
-27.2028 0.9058 -2.4953 0.0913 0 8
-27.2139 0.4690 -2.4953 0.0913 0 8
-27.2179 0.0321 -2.4953 0.0913 0 8
-27.2149 -0.4048 -2.4953 0.0913 0 8
-27.2049 -0.8416 -2.4953 0.0913 0 8
-27.1879 -1.2782 -2.4953 0.0913 0 8
-27.1639 -1.7144 -2.4953 0.0913 0 8
-27.1328 -2.1503 -2.4953 0.0913 0 8
-27.0948 -2.5855 -2.4953 0.0913 0 8
-27.0498 -3.0201 -2.4953 0.0913 0 8
-26.9979 -3.4540 -2.4953 0.0913 0 8
-26.9390 -3.8869 -2.4953 0.0913 0 8
-26.8731 -4.3188 -2.4953 0.0913 0 8
-26.8003 -4.7496 -2.4953 0.0913 0 8
-26.7206 -5.1792 -2.4953 0.0913 0 8
-26.6340 -5.6075 -2.4953 0.0913 0 8
-26.5406 -6.0343 -2.4953 0.0913 0 8
-26.4403 -6.4596 -2.4953 0.0913 0 8
-26.3332 -6.8832 -2.4953 0.0913 0 8
-26.2193 -7.3050 -2.4953 0.0913 0 8
-26.0987 -7.7249 -2.4953 0.0913 0 8
-25.9713 -8.1428 -2.4953 0.0913 0 8
-25.8372 -8.5587 -2.4953 0.0913 0 8
-25.6965 -8.9724 -2.4953 0.0913 0 8
-25.5492 -9.3837 -2.4953 0.0913 0 8
-25.3953 -9.7926 -2.4953 0.0913 0 8
-25.2348 -10.1990 -2.4953 0.0913 0 8
-25.0678 -10.6027 -2.4953 0.0913 0 8
-24.8944 -11.0037 -2.4953 0.0913 0 8
-24.7146 -11.4020 -2.4953 0.0913 0 8
-24.5284 -11.7972 -2.4953 0.0913 0 8
-24.3358 -12.1894 -2.4953 0.0913 0 8
-24.1370 -12.5785 -2.4953 0.0913 0 8
-23.9320 -12.9643 -2.4953 0.0913 0 8
-23.7208 -13.3468 -2.4953 0.0913 0 8
-23.5035 -13.7259 -2.4953 0.0913 0 8
-23.2801 -14.1014 -2.4953 0.0913 0 8
-23.0508 -14.4733 -2.4953 0.0913 0 8
-22.8155 -14.8414 -2.4953 0.0913 0 8
-22.5743 -15.2058 -2.4953 0.0913 0 8
-22.3273 -15.5662 -2.4953 0.0913 0 8
-22.0746 -15.9226 -2.4953 0.0913 0 8
-21.8161 -16.2749 -2.4953 0.0913 0 8
-21.5521 -16.6229 -2.4953 0.0913 0 8
-21.2825 -16.9668 -2.4953 0.0913 0 8
-21.0074 -17.3062 -2.4953 0.0913 0 8
-20.7269 -17.6412 -2.4953 0.0913 0 8
-20.4410 -17.9716 -2.4953 0.0913 0 8
-20.1495 -18.2985 -2.4953 0.0913 0 8
-19.8536 -18.6186 -2.4953 0.0913 0 8
-19.5522 -18.9348 -2.4953 0.0913 0 8
-19.2457 -19.2463 -2.4953 0.0913 0 8
-18.9342 -19.5527 -2.4953 0.0913 0 8
-18.6179 -19.8541 -2.4953 0.0913 0 8
-18.2969 -20.1504 -2.4953 0.0913 0 8
-17.9710 -20.4415 -2.4953 0.0913 0 8
-17.6406 -20.7274 -2.4953 0.0913 0 8
-17.3056 -21.0079 -2.4953 0.0913 0 8
-16.9661 -21.2830 -2.4953 0.0913 0 8
-16.6223 -21.5526 -2.4953 0.0913 0 8
-16.2742 -21.8166 -2.4953 0.0913 0 8
-15.9219 -22.0750 -2.4953 0.0913 0 8
-15.5655 -22.3278 -2.4953 0.0913 0 8
-15.2051 -22.5748 -2.4953 0.0913 0 8
-14.8408 -22.8159 -2.4953 0.0913 0 8
-14.4726 -23.0512 -2.4953 0.0913 0 8
-14.1007 -23.2806 -2.4953 0.0913 0 8
-13.7252 -23.5039 -2.4953 0.0913 0 8
-13.3461 -23.7212 -2.4953 0.0913 0 8
-12.9636 -23.9322 -2.4953 0.0913 0 8
-12.5778 -24.1374 -2.4953 0.0913 0 8
-12.1887 -24.3362 -2.4953 0.0913 0 8
-11.7965 -24.5287 -2.4953 0.0913 0 8
-11.4012 -24.7149 -2.4953 0.0913 0 8
-11.0030 -24.8948 -2.4953 0.0913 0 8
-10.6020 -25.0682 -2.4953 0.0913 0 8
-10.1982 -25.2351 -2.4953 0.0913 0 8
-9.7918 -25.3956 -2.4953 0.0913 0 8
-9.3829 -25.5495 -2.4953 0.0913 0 8
-8.9716 -25.6968 -2.4953 0.0913 0 8
-8.5579 -25.8375 -2.4953 0.0913 0 8
-8.1421 -25.9715 -2.4953 0.0913 0 8
-7.7241 -26.0989 -2.4953 0.0913 0 8
-7.3042 -26.2195 -2.4953 0.0913 0 8
-6.8824 -26.3334 -2.4953 0.0913 0 8
-6.4588 -26.4405 -2.4953 0.0913 0 8
-6.0335 -26.5408 -2.4953 0.0913 0 8
-5.6067 -26.6342 -2.4953 0.0913 0 8
-5.1784 -26.7208 -2.4953 0.0913 0 8
-4.7488 -26.8004 -2.4953 0.0913 0 8
-4.3180 -26.8732 -2.4953 0.0913 0 8
-3.8861 -26.9391 -2.4953 0.0913 0 8
-3.4531 -26.9980 -2.4953 0.0913 0 8
-3.0193 -27.0499 -2.4953 0.0913 0 8
-2.5847 -27.0949 -2.4953 0.0913 0 8
-2.1495 -27.1329 -2.4953 0.0913 0 8
-1.7136 -27.1639 -2.4953 0.0913 0 8
-1.2774 -27.1879 -2.4953 0.0913 0 8
-0.8408 -27.2049 -2.4953 0.0913 0 8
-0.4040 -27.2149 -2.4953 0.0913 0 8
0.0329 -27.2180 -2.4953 0.0913 0 8
0.4698 -27.2139 -2.4953 0.0913 0 8
0.9066 -27.2028 -2.4953 0.0913 0 8
1.3432 -27.1848 -2.4953 0.0913 0 8
1.7794 -27.1597 -2.4953 0.0913 0 8
2.2151 -27.1276 -2.4953 0.0913 0 8
-9.0628 24.8590 -2.6477 0.0996 0 7
-9.4607 24.7104 -2.6477 0.0996 0 7
-9.8561 24.5553 -2.6477 0.0996 0 7
-10.2490 24.3939 -2.6477 0.0996 0 7
-10.6392 24.2263 -2.6477 0.0996 0 7
-11.0268 24.0524 -2.6477 0.0996 0 7
-11.4114 23.8723 -2.6477 0.0996 0 7
-11.7932 23.6860 -2.6477 0.0996 0 7
-11.5063 22.2090 -2.5029 0.0996 0 14
-11.8613 22.0214 -2.5029 0.0996 0 14
-12.2133 21.8282 -2.5029 0.0996 0 14
-12.5621 21.6293 -2.5029 0.0996 0 14
-12.9077 21.4249 -2.5029 0.0996 0 14
-13.2499 21.2149 -2.5029 0.0996 0 14
-13.5888 20.9995 -2.5029 0.0996 0 14
-13.9241 20.7786 -2.5029 0.0996 0 14
-14.2559 20.5524 -2.5029 0.0996 0 14
-14.5839 20.3209 -2.5029 0.0996 0 14
-14.9083 20.0842 -2.5029 0.0996 0 14
-15.2287 19.8423 -2.5029 0.0996 0 14
-15.5453 19.5953 -2.5029 0.0996 0 14
-15.8578 19.3433 -2.5029 0.0996 0 14
-16.1663 19.0862 -2.5029 0.0996 0 14
-16.5479 18.9127 -2.5146 0.7562 0 8
-17.0844 18.9047 -2.5497 0.7458 0 8
-17.6361 18.8963 -2.5865 0.7353 0 8
-18.2040 18.8876 -2.6249 0.7245 0 8
-18.6652 18.7541 -2.6477 0.0996 0 7
-18.9638 18.4521 -2.6477 0.0996 0 7
-19.2576 18.1453 -2.6477 0.0996 0 7
-19.5464 17.8338 -2.6477 0.0996 0 7
-19.8301 17.5178 -2.6477 0.0996 0 7
-20.1088 17.1972 -2.6477 0.0996 0 7
-20.3822 16.8722 -2.6477 0.0996 0 7
-20.6504 16.5428 -2.6477 0.0996 0 7
-20.9133 16.2092 -2.6477 0.0996 0 7
-21.1708 15.8714 -2.6477 0.0996 0 7
-21.4229 15.5295 -2.6477 0.0996 0 7
-21.6694 15.1836 -2.6477 0.0996 0 7
-21.9103 14.8338 -2.6477 0.0996 0 6
-22.1456 14.4802 -2.6477 0.0996 0 7
-22.3752 14.1229 -2.6477 0.0996 0 7
-22.5990 13.7619 -2.6477 0.0996 0 7
-22.8170 13.3973 -2.6477 0.0996 0 7
-23.0292 13.0293 -2.6477 0.0996 0 7
-23.2353 12.6580 -2.6477 0.0996 0 7
-23.4355 12.2834 -2.6477 0.0996 0 7
-23.6297 11.9056 -2.6477 0.0996 0 7
-23.8178 11.5248 -2.6477 0.0996 0 7
-23.9997 11.1409 -2.6477 0.0996 0 7
-24.1754 10.7543 -2.6477 0.0996 0 7
-24.3449 10.3648 -2.6477 0.0996 0 7
-24.5082 9.9727 -2.6477 0.0996 0 7
-24.6651 9.5780 -2.6477 0.0996 0 7
-24.8157 9.1808 -2.6477 0.0996 0 7
-23.5232 8.2758 -2.4953 0.0996 0 8
-23.6530 7.8972 -2.4953 0.0996 0 8
-23.7767 7.5165 -2.4953 0.0996 0 8
-23.8943 7.1339 -2.4953 0.0996 0 8
-24.0057 6.7494 -2.4953 0.0996 0 8
-24.1110 6.3631 -2.4953 0.0996 0 8
-24.2100 5.9753 -2.4953 0.0996 0 8
-24.3028 5.5859 -2.4953 0.0996 0 8
-24.3894 5.1951 -2.4953 0.0996 0 8
-24.4696 4.8029 -2.4953 0.0996 0 8
-24.5435 4.4095 -2.4953 0.0996 0 8
-24.6112 4.0149 -2.4953 0.0996 0 8
-24.6724 3.6193 -2.4953 0.0996 0 8
-24.7274 3.2228 -2.4953 0.0996 0 8
-24.7759 2.8255 -2.4953 0.0996 0 8
-24.8180 2.4274 -2.4953 0.0996 0 8
-24.8538 2.0287 -2.4953 0.0996 0 8
-24.8832 1.6295 -2.4953 0.0996 0 8
-24.9062 1.2299 -2.4953 0.0996 0 8
-24.9227 0.8299 -2.4953 0.0996 0 8
-24.9328 0.4297 -2.4953 0.0996 0 8
-24.9365 0.0294 -2.4953 0.0996 0 8
-24.9337 -0.3709 -2.4953 0.0996 0 8
-24.9246 -0.7710 -2.4953 0.0996 0 8
-24.9090 -1.1710 -2.4953 0.0996 0 8
-24.8870 -1.5707 -2.4953 0.0996 0 8
-24.8586 -1.9700 -2.4953 0.0996 0 8
-24.8237 -2.3688 -2.4953 0.0996 0 8
-24.7825 -2.7670 -2.4953 0.0996 0 8
-24.7349 -3.1644 -2.4953 0.0996 0 8
-24.6809 -3.5611 -2.4953 0.0996 0 8
-24.6206 -3.9568 -2.4953 0.0996 0 8
-24.5539 -4.3515 -2.4953 0.0996 0 8
-24.4809 -4.7451 -2.4953 0.0996 0 8
-24.4015 -5.1375 -2.4953 0.0996 0 8
-24.3159 -5.5285 -2.4953 0.0996 0 8
-24.2241 -5.9181 -2.4953 0.0996 0 8
-24.1259 -6.3062 -2.4953 0.0996 0 8
-24.0216 -6.6927 -2.4953 0.0996 0 8
-23.9110 -7.0774 -2.4953 0.0996 0 8
-23.7944 -7.4603 -2.4953 0.0996 0 8
-23.6716 -7.8413 -2.4953 0.0996 0 8
-23.5426 -8.2203 -2.4953 0.0996 0 8
-23.4077 -8.5971 -2.4953 0.0996 0 8
-23.2666 -8.9718 -2.4953 0.0996 0 8
-23.1196 -9.3441 -2.4953 0.0996 0 8
-22.9667 -9.7140 -2.4953 0.0996 0 8
-22.8078 -10.0814 -2.4953 0.0996 0 8
-22.6430 -10.4462 -2.4953 0.0996 0 8
-22.4724 -10.8084 -2.4953 0.0996 0 8
-22.2960 -11.1677 -2.4953 0.0996 0 8
-22.1139 -11.5242 -2.4953 0.0996 0 8
-21.9260 -11.8777 -2.4953 0.0996 0 8
-21.7325 -12.2281 -2.4953 0.0996 0 8
-21.5334 -12.5754 -2.4953 0.0996 0 8
-21.3288 -12.9194 -2.4953 0.0996 0 8
-21.1187 -13.2601 -2.4953 0.0996 0 8
-20.9031 -13.5974 -2.4953 0.0996 0 8
-20.6821 -13.9312 -2.4953 0.0996 0 8
-20.4558 -14.2614 -2.4953 0.0996 0 8
-20.2243 -14.5879 -2.4953 0.0996 0 8
-19.9875 -14.9107 -2.4953 0.0996 0 8
-19.7456 -15.2296 -2.4953 0.0996 0 8
-19.4986 -15.5446 -2.4953 0.0996 0 8
-19.2465 -15.8556 -2.4953 0.0996 0 8
-18.9895 -16.1625 -2.4953 0.0996 0 8
-18.7276 -16.4653 -2.4953 0.0996 0 8
-18.4609 -16.7638 -2.4953 0.0996 0 8
-18.1895 -17.0579 -2.4953 0.0996 0 8
-17.9133 -17.3477 -2.4953 0.0996 0 8
-17.6325 -17.6330 -2.4953 0.0996 0 8
-17.3472 -17.9138 -2.4953 0.0996 0 8
-17.0574 -18.1900 -2.4953 0.0996 0 8
-16.7632 -18.4614 -2.4953 0.0996 0 8
-16.4647 -18.7281 -2.4953 0.0996 0 8
-16.1620 -18.9900 -2.4953 0.0996 0 8
-15.8549 -19.2473 -2.4953 0.0996 0 8
-15.5440 -19.4990 -2.4953 0.0996 0 8
-15.2290 -19.7460 -2.4953 0.0996 0 8
-14.9101 -19.9880 -2.4953 0.0996 0 8
-14.5873 -20.2247 -2.4953 0.0996 0 8
-14.2608 -20.4563 -2.4953 0.0996 0 8
-13.9306 -20.6825 -2.4953 0.0996 0 8
-13.5968 -20.9036 -2.4953 0.0996 0 8
-13.2595 -21.1191 -2.4953 0.0996 0 8
-12.9188 -21.3292 -2.4953 0.0996 0 8
-12.5747 -21.5338 -2.4953 0.0996 0 8
-12.2274 -21.7329 -2.4953 0.0996 0 8
-11.8770 -21.9264 -2.4953 0.0996 0 8
-11.5235 -22.1142 -2.4953 0.0996 0 8
-11.1670 -22.2963 -2.4953 0.0996 0 8
-10.8077 -22.4727 -2.4953 0.0996 0 8
-10.4456 -22.6433 -2.4953 0.0996 0 8
-10.0807 -22.8081 -2.4953 0.0996 0 8
-9.7133 -22.9669 -2.4953 0.0996 0 8
-9.3434 -23.1199 -2.4953 0.0996 0 8
-8.9711 -23.2669 -2.4953 0.0996 0 8
-8.5964 -23.4079 -2.4953 0.0996 0 8
-8.2196 -23.5429 -2.4953 0.0996 0 8
-7.8406 -23.6718 -2.4953 0.0996 0 8
-7.4596 -23.7946 -2.4953 0.0996 0 8
-7.0767 -23.9113 -2.4953 0.0996 0 8
-6.6920 -24.0218 -2.4953 0.0996 0 8
-6.3055 -24.1261 -2.4953 0.0996 0 8
-5.9174 -24.2242 -2.4953 0.0996 0 8
-5.5278 -24.3161 -2.4953 0.0996 0 8
-5.1367 -24.4017 -2.4953 0.0996 0 8
-4.7444 -24.4810 -2.4953 0.0996 0 8
-4.3508 -24.5540 -2.4953 0.0996 0 8
-3.9561 -24.6207 -2.4953 0.0996 0 8
-3.5604 -24.6810 -2.4953 0.0996 0 8
-3.1637 -24.7350 -2.4953 0.0996 0 8
-2.7662 -24.7826 -2.4953 0.0996 0 8
-2.3681 -24.8238 -2.4953 0.0996 0 8
-1.9693 -24.8586 -2.4953 0.0996 0 8
-1.5700 -24.8870 -2.4953 0.0996 0 8
-1.1703 -24.9090 -2.4953 0.0996 0 8
-0.7703 -24.9246 -2.4953 0.0996 0 8
-0.3701 -24.9338 -2.4953 0.0996 0 8
0.0302 -24.9365 -2.4953 0.0996 0 8
0.4305 -24.9328 -2.4953 0.0996 0 8
0.8306 -24.9227 -2.4953 0.0996 0 8
1.2306 -24.9061 -2.4953 0.0996 0 8
1.6302 -24.8832 -2.4953 0.0996 0 8
2.0294 -24.8538 -2.4953 0.0996 0 8
-7.9036 21.6794 -2.5029 0.1078 0 14
-8.2506 21.5498 -2.5029 0.1078 0 14
-8.5955 21.4146 -2.5029 0.1078 0 14
-8.9381 21.2738 -2.5029 0.1078 0 14
-9.2784 21.1276 -2.5029 0.1078 0 14
-9.6164 20.9759 -2.5029 0.1078 0 14
-9.9519 20.8189 -2.5029 0.1078 0 14
-10.2848 20.6564 -2.5029 0.1078 0 14
-10.6150 20.4887 -2.5029 0.1078 0 14
-10.9426 20.3156 -2.5029 0.1078 0 14
-11.2673 20.1374 -2.5029 0.1078 0 14
-11.5891 19.9539 -2.5029 0.1078 0 14
-11.9079 19.7653 -2.5029 0.1078 0 14
-12.2236 19.5716 -2.5029 0.1078 0 14
-12.5362 19.3729 -2.5029 0.1078 0 14
-12.8456 19.1692 -2.5029 0.1078 0 14
-13.1516 18.9605 -2.5029 0.1078 0 8
-13.5777 18.9188 -2.5258 0.8154 0 8
-14.0383 18.9122 -2.5547 0.8062 0 8
-14.5095 18.9053 -2.5849 0.7968 0 8
-14.9921 18.8981 -2.6165 0.7871 0 8
-15.4757 18.8772 -2.6477 0.1078 0 7
-15.7768 18.6264 -2.6477 0.1078 0 7
-16.0737 18.3707 -2.6477 0.1078 0 6
-16.3666 18.1103 -2.6477 0.1078 0 7
-16.6552 17.8453 -2.6477 0.1078 0 7
-16.9395 17.5756 -2.6477 0.1078 0 7
-17.2194 17.3014 -2.6477 0.1078 0 7
-17.4949 17.0228 -2.6477 0.1078 0 7
-17.7659 16.7398 -2.6477 0.1078 0 7
-18.0323 16.4524 -2.6477 0.1078 0 7
-18.2941 16.1609 -2.6477 0.1078 0 7
-18.5512 15.8651 -2.6477 0.1078 0 7
-18.8035 15.5653 -2.6477 0.1078 0 7
-19.0509 15.2614 -2.6477 0.1078 0 7
-19.2934 14.9537 -2.6477 0.1078 0 7
-19.5310 14.6420 -2.6477 0.1078 0 7
-19.7635 14.3266 -2.6477 0.1078 0 7
-19.9909 14.0075 -2.6477 0.1078 0 7
-20.2132 13.6848 -2.6477 0.1078 0 7
-20.4303 13.3586 -2.6477 0.1078 0 7
-20.6421 13.0289 -2.6477 0.1078 0 7
-20.8485 12.6959 -2.6477 0.1078 0 7
-21.0497 12.3596 -2.6477 0.1078 0 7
-21.2454 12.0201 -2.6477 0.1078 0 7
-21.4356 11.6775 -2.6477 0.1078 0 7
-21.6203 11.3319 -2.6477 0.1078 0 6
-21.7994 10.9834 -2.6477 0.1078 0 7
-21.9729 10.6321 -2.6477 0.1078 0 7
-22.1407 10.2780 -2.6477 0.1078 0 7
-22.3028 9.9213 -2.6477 0.1078 0 7
-22.4592 9.5620 -2.6477 0.1078 0 7
-22.6098 9.2002 -2.6477 0.1078 0 7
-21.4448 8.3275 -2.4953 0.1078 0 8
-21.5758 7.9822 -2.4953 0.1078 0 8
-21.7011 7.6348 -2.4953 0.1078 0 8
-21.8209 7.2855 -2.4953 0.1078 0 8
-21.9350 6.9343 -2.4953 0.1078 0 8
-22.0435 6.5813 -2.4953 0.1078 0 8
-22.1463 6.2266 -2.4953 0.1078 0 8
-22.2434 5.8703 -2.4953 0.1078 0 8
-22.3347 5.5125 -2.4953 0.1078 0 8
-22.4204 5.1532 -2.4953 0.1078 0 8
-22.5002 4.7927 -2.4953 0.1078 0 8
-22.5742 4.4309 -2.4953 0.1078 0 8
-22.6424 4.0679 -2.4953 0.1078 0 8
-22.7048 3.7040 -2.4953 0.1078 0 8
-22.7613 3.3390 -2.4953 0.1078 0 8
-22.8120 2.9732 -2.4953 0.1078 0 8
-22.8568 2.6066 -2.4953 0.1078 0 8
-22.8957 2.2394 -2.4953 0.1078 0 8
-22.9287 1.8716 -2.4953 0.1078 0 8
-22.9558 1.5033 -2.4953 0.1078 0 8
-22.9770 1.1346 -2.4953 0.1078 0 8
-22.9922 0.7656 -2.4953 0.1078 0 8
-23.0015 0.3964 -2.4953 0.1078 0 8
-23.0049 0.0272 -2.4953 0.1078 0 8
-23.0024 -0.3421 -2.4953 0.1078 0 8
-22.9940 -0.7113 -2.4953 0.1078 0 8
-22.9796 -1.0803 -2.4953 0.1078 0 8
-22.9593 -1.4491 -2.4953 0.1078 0 8
-22.9331 -1.8174 -2.4953 0.1078 0 8
-22.9009 -2.1853 -2.4953 0.1078 0 8
-22.8629 -2.5527 -2.4953 0.1078 0 8
-22.8190 -2.9193 -2.4953 0.1078 0 8
-22.7692 -3.2852 -2.4953 0.1078 0 8
-22.7135 -3.6503 -2.4953 0.1078 0 8
-22.6520 -4.0145 -2.4953 0.1078 0 8
-22.5846 -4.3776 -2.4953 0.1078 0 8
-22.5114 -4.7395 -2.4953 0.1078 0 8
-22.4325 -5.1003 -2.4953 0.1078 0 8
-22.3477 -5.4597 -2.4953 0.1078 0 8
-22.2572 -5.8177 -2.4953 0.1078 0 8
-22.1609 -6.1743 -2.4953 0.1078 0 8
-22.0590 -6.5292 -2.4953 0.1078 0 8
-21.9513 -6.8824 -2.4953 0.1078 0 8
-21.8380 -7.2339 -2.4953 0.1078 0 8
-21.7191 -7.5836 -2.4953 0.1078 0 8
-21.5945 -7.9312 -2.4953 0.1078 0 8
-21.4644 -8.2768 -2.4953 0.1078 0 8
-21.3288 -8.6203 -2.4953 0.1078 0 8
-21.1877 -8.9616 -2.4953 0.1078 0 8
-21.0411 -9.3005 -2.4953 0.1078 0 8
-20.8891 -9.6371 -2.4953 0.1078 0 8
-20.7317 -9.9712 -2.4953 0.1078 0 8
-20.5690 -10.3027 -2.4953 0.1078 0 8
-20.4010 -10.6315 -2.4953 0.1078 0 8
-20.2277 -10.9576 -2.4953 0.1078 0 8
-20.0492 -11.2809 -2.4953 0.1078 0 8
-19.8655 -11.6013 -2.4953 0.1078 0 8
-19.6767 -11.9187 -2.4953 0.1078 0 8
-19.4828 -12.2330 -2.4953 0.1078 0 8
-19.2840 -12.5442 -2.4953 0.1078 0 8
-19.0801 -12.8521 -2.4953 0.1078 0 8
-18.8714 -13.1567 -2.4953 0.1078 0 8
-18.6577 -13.4580 -2.4953 0.1078 0 8
-18.4393 -13.7557 -2.4953 0.1078 0 8
-18.2161 -14.0499 -2.4953 0.1078 0 8
-17.9882 -14.3406 -2.4953 0.1078 0 8
-17.7557 -14.6274 -2.4953 0.1078 0 8
-17.5186 -14.9106 -2.4953 0.1078 0 8
-17.2770 -15.1899 -2.4953 0.1078 0 8
-17.0310 -15.4653 -2.4953 0.1078 0 8
-16.7805 -15.7366 -2.4953 0.1078 0 8
-16.5258 -16.0040 -2.4953 0.1078 0 8
-16.2667 -16.2672 -2.4953 0.1078 0 8
-16.0035 -16.5262 -2.4953 0.1078 0 8
-15.7361 -16.7810 -2.4953 0.1078 0 8
-15.4648 -17.0314 -2.4953 0.1078 0 8
-15.1894 -17.2775 -2.4953 0.1078 0 8
-14.9101 -17.5191 -2.4953 0.1078 0 8
-14.6269 -17.7562 -2.4953 0.1078 0 8
-14.3400 -17.9887 -2.4953 0.1078 0 8
-14.0494 -18.2165 -2.4953 0.1078 0 8
-13.7552 -18.4397 -2.4953 0.1078 0 8
-13.4574 -18.6581 -2.4953 0.1078 0 8
-13.1562 -18.8718 -2.4953 0.1078 0 8
-12.8515 -19.0805 -2.4953 0.1078 0 8
-12.5436 -19.2843 -2.4953 0.1078 0 8
-12.2324 -19.4832 -2.4953 0.1078 0 8
-11.9182 -19.6765 -2.4953 0.1078 0 8
-11.6007 -19.8658 -2.4953 0.1078 0 8
-11.2803 -20.0495 -2.4953 0.1078 0 8
-10.9570 -20.2280 -2.4953 0.1078 0 8
-10.6309 -20.4013 -2.4953 0.1078 0 8
-10.3021 -20.5693 -2.4953 0.1078 0 8
-9.9705 -20.7320 -2.4953 0.1078 0 8
-9.6365 -20.8894 -2.4953 0.1078 0 8
-9.2999 -21.0414 -2.4953 0.1078 0 8
-8.9609 -21.1880 -2.4953 0.1078 0 8
-8.6197 -21.3291 -2.4953 0.1078 0 8
-8.2762 -21.4647 -2.4953 0.1078 0 8
-7.9306 -21.5948 -2.4953 0.1078 0 8
-7.5829 -21.7193 -2.4953 0.1078 0 8
-7.2333 -21.8382 -2.4953 0.1078 0 8
-6.8818 -21.9515 -2.4953 0.1078 0 8
-6.5285 -22.0592 -2.4953 0.1078 0 8
-6.1736 -22.1611 -2.4953 0.1078 0 8
-5.8171 -22.2573 -2.4953 0.1078 0 8
-5.4590 -22.3479 -2.4953 0.1078 0 8
-5.0996 -22.4326 -2.4953 0.1078 0 8
-4.7389 -22.5116 -2.4953 0.1078 0 8
-4.3769 -22.5847 -2.4953 0.1078 0 8
-4.0138 -22.6521 -2.4953 0.1078 0 8
-3.6496 -22.7136 -2.4953 0.1078 0 8
-3.2846 -22.7693 -2.4953 0.1078 0 8
-2.9186 -22.8191 -2.4953 0.1078 0 8
-2.5520 -22.8630 -2.4953 0.1078 0 8
-2.1847 -22.9010 -2.4953 0.1078 0 8
-1.8167 -22.9331 -2.4953 0.1078 0 8
-1.4484 -22.9593 -2.4953 0.1078 0 8
-1.0796 -22.9796 -2.4953 0.1078 0 8
-0.7106 -22.9940 -2.4953 0.1078 0 8
-0.3414 -23.0024 -2.4953 0.1078 0 8
0.0278 -23.0049 -2.4953 0.1078 0 8
0.3971 -23.0015 -2.4953 0.1078 0 8
0.7663 -22.9922 -2.4953 0.1078 0 8
1.1353 -22.9769 -2.4953 0.1078 0 8
1.5040 -22.9557 -2.4953 0.1078 0 8
1.8722 -22.9286 -2.4953 0.1078 0 8
-7.3345 20.1183 -2.5029 0.1161 0 14
-7.6565 19.9980 -2.5029 0.1161 0 14
-7.9765 19.8725 -2.5029 0.1161 0 14
-8.2945 19.7419 -2.5029 0.1161 0 14
-8.6103 19.6062 -2.5029 0.1161 0 14
-8.9239 19.4655 -2.5029 0.1161 0 14
-9.2352 19.3197 -2.5029 0.1161 0 14
-9.5442 19.1690 -2.5029 0.1161 0 14
-9.8507 19.0133 -2.5029 0.1161 0 8
-10.1965 18.9306 -2.5132 0.8823 0 8
-10.5892 18.9255 -2.5348 0.8748 0 8
-10.9887 18.9202 -2.5574 0.8670 0 8
-11.3954 18.9147 -2.5810 0.8591 0 8
-11.8097 18.9089 -2.6058 0.8509 0 8
-12.2321 18.9030 -2.6317 0.8425 0 8
-12.6101 18.8178 -2.6477 0.1161 0 7
-12.9106 18.6130 -2.6477 0.1161 0 7
-13.2078 18.4033 -2.6477 0.1161 0 6
-13.5014 18.1889 -2.6477 0.1161 0 7
-13.7916 17.9699 -2.6477 0.1161 0 7
