ply
format ascii 1.0
element vertex 1346
property float32 x
property float32 y
property float32 z
property float32 CosAngle
property uint32 ObjIdx
property uint32 ObjTag
end_header
-48.2507 22.0520 -2.6477 0.0498 0 7
-48.5996 21.2719 -2.6477 0.0498 0 7
-48.9360 20.4863 -2.6477 0.0498 0 6
-49.2597 19.6953 -2.6477 0.0498 0 7
-49.5705 18.8993 -2.6477 0.0498 0 7
-49.8685 18.0983 -2.6477 0.0498 0 7
-50.1536 17.2926 -2.6477 0.0498 0 7
-50.4257 16.4825 -2.6477 0.0498 0 7
-50.6846 15.6681 -2.6477 0.0498 0 7
-50.9304 14.8496 -2.6477 0.0498 0 7
-51.1630 14.0272 -2.6477 0.0498 0 7
-51.3824 13.2012 -2.6477 0.0498 0 7
-51.5883 12.3718 -2.6477 0.0498 0 7
-51.7810 11.5392 -2.6477 0.0498 0 6
-51.9601 10.7036 -2.6477 0.0498 0 7
-52.1258 9.8652 -2.6477 0.0498 0 7
-52.2779 9.0242 -2.6477 0.0498 0 7
-52.4165 8.1809 -2.6477 0.0498 0 7
-52.5415 7.3355 -2.6477 0.0498 0 7
-52.6529 6.4881 -2.6477 0.0498 0 7
-52.7505 5.6391 -2.6477 0.0498 0 7
-52.8345 4.7886 -2.6477 0.0498 0 7
-52.9048 3.9369 -2.6477 0.0498 0 6
-52.9614 3.0842 -2.6477 0.0498 0 6
-53.0042 2.2306 -2.6477 0.0498 0 6
-53.0333 1.3765 -2.6477 0.0498 0 7
-53.0485 0.5220 -2.6477 0.0498 0 7
-53.0501 -0.3326 -2.6477 0.0498 0 6
-12.1814 41.0739 -2.4953 0.0581 0 8
-12.8415 40.8723 -2.4953 0.0581 0 8
-13.4982 40.6602 -2.4953 0.0581 0 8
-14.1514 40.4375 -2.4953 0.0581 0 8
-14.8010 40.2043 -2.4953 0.0581 0 8
-15.4467 39.9606 -2.4953 0.0581 0 8
-16.0884 39.7066 -2.4953 0.0581 0 8
-16.7260 39.4423 -2.4953 0.0581 0 8
-17.3592 39.1677 -2.4953 0.0581 0 8
-17.9879 38.8830 -2.4953 0.0581 0 8
-18.6119 38.5882 -2.4953 0.0581 0 8
-19.2311 38.2834 -2.4953 0.0581 0 8
-19.8453 37.9686 -2.4953 0.0581 0 8
-20.4544 37.6440 -2.4953 0.0581 0 8
-21.0581 37.3096 -2.4953 0.0581 0 8
-21.6564 36.9656 -2.4953 0.0581 0 8
-22.2490 36.6119 -2.4953 0.0581 0 8
-22.8359 36.2488 -2.4953 0.0581 0 8
-23.4169 35.8762 -2.4953 0.0581 0 8
-23.9918 35.4943 -2.4953 0.0581 0 8
-24.5604 35.1033 -2.4953 0.0581 0 8
-25.1227 34.7031 -2.4953 0.0581 0 8
-25.6784 34.2939 -2.4953 0.0581 0 8
-26.2275 33.8758 -2.4953 0.0581 0 8
-26.7698 33.4489 -2.4953 0.0581 0 8
-27.3052 33.0133 -2.4953 0.0581 0 8
-28.0553 32.8288 -2.5152 0.7586 0 8
-28.9754 32.8198 -2.5499 0.7482 0 8
-29.9343 32.8247 -2.5874 0.7152 0 8
-31.0368 32.9515 -2.6365 0.6056 0 8
-31.6974 32.5849 -2.6477 0.0581 0 7
-32.2182 32.0700 -2.6477 0.0581 0 7
-32.7307 31.5469 -2.6477 0.0581 0 7
-33.2346 31.0156 -2.6477 0.0581 0 7
-33.7299 30.4762 -2.6477 0.0581 0 7
-34.2164 29.9289 -2.6477 0.0581 0 7
-34.6941 29.3738 -2.6477 0.0581 0 7
-35.1628 28.8111 -2.6477 0.0581 0 7
-35.6223 28.2409 -2.6477 0.0581 0 7
-36.0727 27.6634 -2.6477 0.0581 0 7
-36.5136 27.0788 -2.6477 0.0581 0 7
-36.9451 26.4871 -2.6477 0.0581 0 6
-37.3669 25.8885 -2.6477 0.0581 0 7
-37.7791 25.2832 -2.6477 0.0581 0 7
-38.1815 24.6714 -2.6477 0.0581 0 7
-38.5739 24.0531 -2.6477 0.0581 0 7
-38.9564 23.4286 -2.6477 0.0581 0 6
-39.3288 22.7980 -2.6477 0.0581 0 7
-39.6909 22.1615 -2.6477 0.0581 0 7
-40.0428 21.5193 -2.6477 0.0581 0 7
-40.3842 20.8714 -2.6477 0.0581 0 7
-40.7152 20.2182 -2.6477 0.0581 0 7
-41.0356 19.5597 -2.6477 0.0581 0 6
-41.3454 18.8961 -2.6477 0.0581 0 7
-41.6444 18.2276 -2.6477 0.0581 0 7
-41.9326 17.5544 -2.6477 0.0581 0 7
-42.2100 16.8767 -2.6477 0.0581 0 7
-42.4763 16.1945 -2.6477 0.0581 0 7
-42.7317 15.5082 -2.6477 0.0581 0 7
-42.9760 14.8178 -2.6477 0.0581 0 6
-43.2091 14.1236 -2.6477 0.0581 0 7
-43.4310 13.4258 -2.6477 0.0581 0 7
-43.6416 12.7244 -2.6477 0.0581 0 7
-43.8409 12.0197 -2.6477 0.0581 0 7
-44.0289 11.3120 -2.6477 0.0581 0 7
-44.2054 10.6012 -2.6477 0.0581 0 7
-44.3704 9.8878 -2.6477 0.0581 0 7
-44.5239 9.1717 -2.6477 0.0581 0 7
-44.6659 8.4533 -2.6477 0.0581 0 7
-44.7963 7.7327 -2.6477 0.0581 0 7
-44.9150 7.0101 -2.6477 0.0581 0 7
-45.0221 6.2857 -2.6477 0.0581 0 7
-45.1175 5.5596 -2.6477 0.0581 0 7
-45.2012 4.8321 -2.6477 0.0581 0 7
-45.2732 4.1033 -2.6477 0.0581 0 7
-45.3334 3.3735 -2.6477 0.0581 0 7
-45.3819 2.6428 -2.6477 0.0581 0 7
-45.4186 1.9114 -2.6477 0.0581 0 7
-45.4435 1.1795 -2.6477 0.0581 0 7
-45.4566 0.4473 -2.6477 0.0581 0 7
-45.4579 -0.2850 -2.6477 0.0581 0 7
-10.6551 35.9272 -2.4953 0.0664 0 8
-11.2324 35.7509 -2.4953 0.0664 0 8
-11.8068 35.5653 -2.4953 0.0664 0 8
-12.3782 35.3705 -2.4953 0.0664 0 8
-12.9464 35.1665 -2.4953 0.0664 0 8
-13.5112 34.9534 -2.4953 0.0664 0 8
-14.0725 34.7312 -2.4953 0.0664 0 8
-14.6302 34.5000 -2.4953 0.0664 0 8
-15.1840 34.2599 -2.4953 0.0664 0 8
-15.7339 34.0108 -2.4953 0.0664 0 8
-16.2798 33.7530 -2.4953 0.0664 0 8
-16.8214 33.4864 -2.4953 0.0664 0 8
-17.3586 33.2110 -2.4953 0.0664 0 8
-17.8913 32.9271 -2.4953 0.0664 0 8
-18.5443 32.8558 -2.5122 0.8678 0 8
-19.2450 32.8496 -2.5351 0.8600 0 8
-19.9588 32.8432 -2.5591 0.8519 0 8
-20.6863 32.8365 -2.5842 0.8437 0 8
-21.4283 32.8296 -2.6105 0.8352 0 8
-22.1857 32.8224 -2.6380 0.8265 0 8
-22.7697 32.5439 -2.6447 0.0803 0 8
-23.3168 32.2086 -2.6477 0.0664 0 7
-23.8326 31.8288 -2.6477 0.0664 0 7
-24.3423 31.4408 -2.6477 0.0664 0 7
-24.8456 31.0445 -2.6477 0.0664 0 7
-25.3425 30.6403 -2.6477 0.0664 0 7
-25.8328 30.2281 -2.6477 0.0664 0 7
-26.3163 29.8080 -2.6477 0.0664 0 6
-26.7931 29.3802 -2.6477 0.0664 0 7
-27.2629 28.9448 -2.6477 0.0664 0 7
-27.7256 28.5019 -2.6477 0.0664 0 7
-28.1812 28.0516 -2.6477 0.0664 0 7
-28.6294 27.5940 -2.6477 0.0664 0 7
-29.0702 27.1292 -2.6477 0.0664 0 7
-29.5034 26.6574 -2.6477 0.0664 0 7
-29.9290 26.1787 -2.6477 0.0664 0 7
-30.3468 25.6931 -2.6477 0.0664 0 7
-30.7568 25.2009 -2.6477 0.0664 0 7
-31.1587 24.7022 -2.6477 0.0664 0 7
-31.5526 24.1971 -2.6477 0.0664 0 7
-31.9383 23.6857 -2.6477 0.0664 0 7
-30.5486 21.9013 -2.5029 0.0664 0 14
-30.8975 21.4063 -2.5029 0.0664 0 14
-31.2383 20.9058 -2.5029 0.0664 0 14
-31.5710 20.3999 -2.5029 0.0664 0 14
-31.8955 19.8887 -2.5029 0.0664 0 14
-32.2118 19.3723 -2.5029 0.0664 0 8
-34.4007 19.9413 -2.6477 0.0664 0 7
-34.7175 19.3846 -2.6477 0.0664 0 7
-35.0253 18.8228 -2.6477 0.0664 0 7
-35.3239 18.2562 -2.6477 0.0664 0 7
-35.6134 17.6848 -2.6477 0.0664 0 7
-35.8937 17.1088 -2.6477 0.0664 0 7
-36.1646 16.5283 -2.6477 0.0664 0 7
-36.4262 15.9436 -2.6477 0.0664 0 7
-36.6783 15.3548 -2.6477 0.0664 0 7
-36.9209 14.7620 -2.6477 0.0664 0 6
-37.1539 14.1653 -2.6477 0.0664 0 7
-37.3773 13.5650 -2.6477 0.0664 0 7
-37.5909 12.9611 -2.6477 0.0664 0 7
-37.7948 12.3539 -2.6477 0.0664 0 7
-37.9889 11.7435 -2.6477 0.0664 0 7
-38.1732 11.1300 -2.6477 0.0664 0 7
-38.3475 10.5136 -2.6477 0.0664 0 7
-38.5119 9.8945 -2.6477 0.0664 0 7
-38.6663 9.2729 -2.6477 0.0664 0 7
-38.8106 8.6488 -2.6477 0.0664 0 7
-38.9449 8.0225 -2.6477 0.0664 0 7
-39.0691 7.3941 -2.6477 0.0664 0 7
-39.1831 6.7638 -2.6477 0.0664 0 7
-39.2870 6.1317 -2.6477 0.0664 0 7
-39.3807 5.4980 -2.6477 0.0664 0 7
-39.4642 4.8630 -2.6477 0.0664 0 7
-39.5374 4.2266 -2.6477 0.0664 0 6
-39.6003 3.5892 -2.6477 0.0664 0 6
-39.6530 2.9508 -2.6477 0.0664 0 6
-39.6954 2.3116 -2.6477 0.0664 0 6
-37.4408 1.5757 -2.4953 0.0664 0 8
-37.4613 0.9723 -2.4953 0.0664 0 8
-37.4721 0.3687 -2.4953 0.0664 0 8
-37.4732 -0.2350 -2.4953 0.0664 0 8
-9.7483 32.8697 -2.5693 0.9544 0 8
-10.3259 32.8658 -2.5816 0.9499 0 8
-10.9093 32.8617 -2.5948 0.9451 0 8
-11.4988 32.8575 -2.6088 0.9400 0 8
-12.0947 32.8531 -2.6235 0.9347 0 8
-12.6976 32.8485 -2.6392 0.9292 0 8
-13.2433 32.6847 -2.6428 0.0904 0 8
-13.7838 32.5043 -2.6458 0.0903 0 8
-14.3156 32.3005 -2.6477 0.0747 0 7
-14.8341 32.0657 -2.6477 0.0747 0 7
-15.3487 31.8226 -2.6477 0.0747 0 7
-15.8593 31.5712 -2.6477 0.0747 0 7
-16.3658 31.3117 -2.6477 0.0747 0 7
-16.8681 31.0439 -2.6477 0.0747 0 7
-17.3660 30.7682 -2.6477 0.0747 0 7
-17.8594 30.4845 -2.6477 0.0747 0 7
-18.3482 30.1928 -2.6477 0.0747 0 7
-18.8321 29.8933 -2.6477 0.0747 0 6
-19.3113 29.5861 -2.6477 0.0747 0 7
-19.7853 29.2712 -2.6477 0.0747 0 7
-20.2543 28.9487 -2.6477 0.0747 0 7
-20.7180 28.6186 -2.6477 0.0747 0 7
-21.1763 28.2812 -2.6477 0.0747 0 7
-21.6291 27.9364 -2.6477 0.0747 0 7
-22.0763 27.5844 -2.6477 0.0747 0 7
-22.5178 27.2252 -2.6477 0.0747 0 7
-22.9535 26.8589 -2.6477 0.0747 0 7
-23.3832 26.4856 -2.6477 0.0747 0 7
-23.8068 26.1055 -2.6477 0.0747 0 7
-24.2242 25.7186 -2.6477 0.0747 0 7
-24.6353 25.3251 -2.6477 0.0747 0 7
-25.0401 24.9250 -2.6477 0.0747 0 7
-25.4384 24.5184 -2.6477 0.0747 0 7
-25.8300 24.1054 -2.6477 0.0747 0 7
-26.2150 23.6862 -2.6477 0.0747 0 7
-25.1390 21.9889 -2.5029 0.0747 0 14
-25.4899 21.5810 -2.5029 0.0747 0 14
-25.8343 21.1676 -2.5029 0.0747 0 14
-26.1719 20.7487 -2.5029 0.0747 0 14
-26.5027 20.3244 -2.5029 0.0747 0 14
-26.8267 19.8949 -2.5029 0.0747 0 14
-27.1437 19.4602 -2.5029 0.0747 0 14
-27.4536 19.0204 -2.5029 0.0747 0 8
-28.2037 18.8750 -2.5432 0.5612 0 8
-29.1892 18.8609 -2.6043 0.5480 0 8
-29.9798 18.6942 -2.6477 0.0747 0 7
-30.2771 18.2088 -2.6477 0.0747 0 7
-30.5665 17.7187 -2.6477 0.0747 0 7
-30.8479 17.2240 -2.6477 0.0747 0 6
-31.1214 16.7248 -2.6477 0.0747 0 7
-31.3868 16.2213 -2.6477 0.0747 0 7
-31.6440 15.7136 -2.6477 0.0747 0 7
-31.8930 15.2018 -2.6477 0.0747 0 7
-32.1338 14.6861 -2.6477 0.0747 0 7
-32.3662 14.1666 -2.6477 0.0747 0 7
-32.5902 13.6434 -2.6477 0.0747 0 7
-32.8057 13.1166 -2.6477 0.0747 0 7
-33.0128 12.5864 -2.6477 0.0747 0 7
-33.2112 12.0530 -2.6477 0.0747 0 7
-33.4011 11.5165 -2.6477 0.0747 0 7
-33.5823 10.9769 -2.6477 0.0747 0 7
-33.7547 10.4346 -2.6477 0.0747 0 6
-33.9184 9.8894 -2.6477 0.0747 0 7
-34.0733 9.3418 -2.6477 0.0747 0 7
-34.2194 8.7917 -2.6477 0.0747 0 7
-32.3790 7.7651 -2.4953 0.0747 0 8
-32.4999 7.2425 -2.4953 0.0747 0 8
-32.6123 6.7180 -2.4953 0.0747 0 8
-32.7164 6.1918 -2.4953 0.0747 0 8
-32.8118 5.6640 -2.4953 0.0747 0 8
-32.8988 5.1346 -2.4953 0.0747 0 8
-32.9773 4.6040 -2.4953 0.0747 0 8
-33.0471 4.0722 -2.4953 0.0747 0 8
-33.1085 3.5394 -2.4953 0.0747 0 8
-33.1612 3.0055 -2.4953 0.0747 0 8
-33.2053 2.4710 -2.4953 0.0747 0 8
-33.2408 1.9357 -2.4953 0.0747 0 8
-33.2676 1.4000 -2.4953 0.0747 0 8
-33.2859 0.8640 -2.4953 0.0747 0 8
-33.2955 0.3276 -2.4953 0.0747 0 8
-33.2964 -0.2088 -2.4953 0.0747 0 8
-9.0371 30.4718 -2.6477 0.0830 0 7
-9.5268 30.3223 -2.6477 0.0830 0 7
-10.0140 30.1649 -2.6477 0.0830 0 7
-10.4987 29.9997 -2.6477 0.0830 0 7
-10.9806 29.8267 -2.6477 0.0830 0 7
-11.4596 29.6459 -2.6477 0.0830 0 7
-11.9357 29.4575 -2.6477 0.0830 0 7
-12.4086 29.2614 -2.6477 0.0830 0 7
-12.8784 29.0577 -2.6477 0.0830 0 7
-13.3448 28.8465 -2.6477 0.0830 0 7
-13.8078 28.6278 -2.6477 0.0830 0 7
-14.2671 28.4016 -2.6477 0.0830 0 7
-14.7228 28.1681 -2.6477 0.0830 0 7
-15.1746 27.9273 -2.6477 0.0830 0 7
-15.6225 27.6792 -2.6477 0.0830 0 7
-16.0664 27.4240 -2.6477 0.0830 0 7
-16.5061 27.1616 -2.6477 0.0830 0 7
-16.9415 26.8922 -2.6477 0.0830 0 7
-17.3725 26.6158 -2.6477 0.0830 0 7
-17.7990 26.3325 -2.6477 0.0830 0 7
-18.2208 26.0424 -2.6477 0.0830 0 7
-18.6380 25.7455 -2.6477 0.0830 0 7
-19.0503 25.4419 -2.6477 0.0830 0 7
-19.4577 25.1317 -2.6477 0.0830 0 7
-19.8599 24.8150 -2.6477 0.0830 0 7
-20.2571 24.4919 -2.6477 0.0830 0 7
-20.6490 24.1624 -2.6477 0.0830 0 7
-21.0356 23.8266 -2.6477 0.0830 0 7
-20.2514 22.2068 -2.5036 0.5807 0 8
-20.6006 21.8715 -2.5029 0.0830 0 14
-20.9502 21.5368 -2.5029 0.0830 0 14
-21.2944 21.1965 -2.5029 0.0830 0 14
-21.6331 20.8507 -2.5029 0.0830 0 14
-21.9662 20.4995 -2.5029 0.0830 0 14
-22.2935 20.1430 -2.5029 0.0830 0 14
-22.6151 19.7813 -2.5029 0.0830 0 14
-22.9309 19.4144 -2.5029 0.0830 0 14
-23.2539 19.0534 -2.5043 0.5068 0 8
-23.8261 18.8891 -2.5328 0.6260 0 8
-24.6158 18.8774 -2.5841 0.6136 0 8
-25.4381 18.8651 -2.6382 0.6010 0 8
-25.8311 18.5191 -2.6477 0.0830 0 7
-26.1261 18.1006 -2.6477 0.0830 0 7
-26.4142 17.6774 -2.6477 0.0830 0 7
-26.6956 17.2496 -2.6477 0.0830 0 7
-26.9700 16.8174 -2.6477 0.0830 0 7
-27.2374 16.3807 -2.6477 0.0830 0 7
-27.4977 15.9398 -2.6477 0.0830 0 7
-27.7509 15.4948 -2.6477 0.0830 0 7
-27.9969 15.0457 -2.6477 0.0830 0 7
-28.2357 14.5928 -2.6477 0.0830 0 7
-28.4671 14.1361 -2.6477 0.0830 0 7
-28.6911 13.6756 -2.6477 0.0830 0 7
-28.9077 13.2117 -2.6477 0.0830 0 7
-29.1168 12.7443 -2.6477 0.0830 0 7
-29.3183 12.2736 -2.6477 0.0830 0 7
-29.5122 11.7998 -2.6477 0.0830 0 7
-29.6984 11.3228 -2.6477 0.0830 0 6
-29.8770 10.8430 -2.6477 0.0830 0 7
-30.0478 10.3603 -2.6477 0.0830 0 7
-30.2108 9.8749 -2.6477 0.0830 0 7
-30.3659 9.3870 -2.6477 0.0830 0 7
-30.5132 8.8966 -2.6477 0.0830 0 7
-28.8882 7.9202 -2.4953 0.0830 0 8
-29.0120 7.4538 -2.4953 0.0830 0 8
-29.1283 6.9854 -2.4953 0.0830 0 8
-29.2371 6.5154 -2.4953 0.0830 0 8
-29.3382 6.0435 -2.4953 0.0830 0 8
-29.4318 5.5701 -2.4953 0.0830 0 8
-29.5177 5.0953 -2.4953 0.0830 0 8
-29.5959 4.6192 -2.4953 0.0830 0 8
-29.6665 4.1419 -2.4953 0.0830 0 8
-29.7294 3.6634 -2.4953 0.0830 0 8
-29.7845 3.1840 -2.4953 0.0830 0 8
-29.8319 2.7038 -2.4953 0.0830 0 8
-29.8716 2.2229 -2.4953 0.0830 0 8
-29.9036 1.7414 -2.4953 0.0830 0 8
-29.9277 1.2595 -2.4953 0.0830 0 8
-29.9441 0.7772 -2.4953 0.0830 0 8
-29.9528 0.2947 -2.4953 0.0830 0 8
-29.9536 -0.1878 -2.4953 0.0830 0 8
-8.2116 27.6883 -2.6477 0.0913 0 7
-8.6566 27.5524 -2.6477 0.0913 0 7
-9.0993 27.4094 -2.6477 0.0913 0 7
-9.5396 27.2592 -2.6477 0.0913 0 7
-9.9775 27.1020 -2.6477 0.0913 0 7
-10.4128 26.9378 -2.6477 0.0913 0 7
-10.8454 26.7665 -2.6477 0.0913 0 7
-11.2751 26.5884 -2.6477 0.0913 0 7
-11.7020 26.4033 -2.6477 0.0913 0 7
-12.1258 26.2114 -2.6477 0.0913 0 7
-12.5464 26.0126 -2.6477 0.0913 0 7
-12.9638 25.8071 -2.6477 0.0913 0 7
-13.3779 25.5950 -2.6477 0.0913 0 7
-13.7884 25.3761 -2.6477 0.0913 0 7
-14.1954 25.1507 -2.6477 0.0913 0 7
-14.5987 24.9188 -2.6477 0.0913 0 7
-14.9983 24.6804 -2.6477 0.0913 0 7
-15.3939 24.4356 -2.6477 0.0913 0 7
-15.7855 24.1844 -2.6477 0.0913 0 7
-16.1730 23.9270 -2.6477 0.0913 0 7
-16.5564 23.6634 -2.6477 0.0913 0 7
-16.0093 22.1144 -2.5029 0.0913 0 14
-16.3635 21.8537 -2.5029 0.0913 0 14
-16.7134 21.5872 -2.5029 0.0913 0 14
-17.0590 21.3152 -2.5029 0.0913 0 14
-17.4001 21.0376 -2.5029 0.0913 0 14
-17.7368 20.7546 -2.5029 0.0913 0 14
-18.0688 20.4662 -2.5029 0.0913 0 14
-18.3961 20.1725 -2.5029 0.0913 0 14
-18.7187 19.8735 -2.5029 0.0913 0 14
-19.0364 19.5694 -2.5029 0.0913 0 14
-19.3492 19.2602 -2.5029 0.0913 0 14
-19.6569 18.9460 -2.5029 0.0913 0 8
-20.2498 18.8978 -2.5393 0.6867 0 8
-20.9044 18.8879 -2.5829 0.6751 0 8
-21.5819 18.8775 -2.6287 0.6633 0 8
-22.0414 18.6614 -2.6477 0.0913 0 7
-22.3391 18.3039 -2.6477 0.0913 0 7
-22.6311 17.9416 -2.6477 0.0913 0 7
-22.9172 17.5748 -2.6477 0.0913 0 7
-23.1973 17.2033 -2.6477 0.0913 0 7
-23.4714 16.8274 -2.6477 0.0913 0 7
-23.7395 16.4471 -2.6477 0.0913 0 7
-24.0013 16.0626 -2.6477 0.0913 0 7
-24.2569 15.6739 -2.6477 0.0913 0 7
-24.5063 15.2811 -2.6477 0.0913 0 7
-24.7493 14.8843 -2.6477 0.0913 0 7
-24.9858 14.4837 -2.6477 0.0913 0 7
-25.2159 14.0794 -2.6477 0.0913 0 7
-25.4394 13.6713 -2.6477 0.0913 0 7
-25.6564 13.2598 -2.6477 0.0913 0 7
-25.8666 12.8447 -2.6477 0.0913 0 7
-26.0702 12.4264 -2.6477 0.0913 0 7
-26.2670 12.0048 -2.6477 0.0913 0 7
-26.4570 11.5801 -2.6477 0.0913 0 7
-26.6401 11.1524 -2.6477 0.0913 0 7
-26.8163 10.7219 -2.6477 0.0913 0 7
-26.9855 10.2885 -2.6477 0.0913 0 7
-27.1477 9.8525 -2.6477 0.0913 0 7
-27.3029 9.4139 -2.6477 0.0913 0 7
-27.4510 8.9728 -2.6477 0.0913 0 7
-26.0038 8.0385 -2.4953 0.0913 0 8
-26.1299 7.6186 -2.4953 0.0913 0 8
-26.2492 7.1967 -2.4953 0.0913 0 8
-26.3618 6.7729 -2.4953 0.0913 0 8
-26.4674 6.3474 -2.4953 0.0913 0 8
-26.5663 5.9202 -2.4953 0.0913 0 8
-26.6582 5.4915 -2.4953 0.0913 0 8
-26.7432 5.0613 -2.4953 0.0913 0 8
-26.8212 4.6299 -2.4953 0.0913 0 8
-26.8923 4.1972 -2.4953 0.0913 0 8
-26.9565 3.7635 -2.4953 0.0913 0 8
-27.0136 3.3287 -2.4953 0.0913 0 8
-27.0637 2.8932 -2.4953 0.0913 0 8
-27.1068 2.4568 -2.4953 0.0913 0 8
-27.1429 2.0198 -2.4953 0.0913 0 8
-27.1719 1.5823 -2.4953 0.0913 0 8
-27.1938 1.1444 -2.4953 0.0913 0 8
-27.2088 0.7062 -2.4953 0.0913 0 8
-27.2166 0.2678 -2.4953 0.0913 0 8
-27.2174 -0.1707 -2.4953 0.0913 0 8
-7.5233 25.3674 -2.6477 0.0996 0 7
-7.9310 25.2429 -2.6477 0.0996 0 7
-8.3366 25.1119 -2.6477 0.0996 0 7
-8.7400 24.9744 -2.6477 0.0996 0 7
-9.1412 24.8303 -2.6477 0.0996 0 7
-9.5400 24.6798 -2.6477 0.0996 0 7
-9.9363 24.5229 -2.6477 0.0996 0 7
-10.3300 24.3597 -2.6477 0.0996 0 7
-10.7211 24.1902 -2.6477 0.0996 0 7
-11.1094 24.0143 -2.6477 0.0996 0 7
-11.4948 23.8322 -2.6477 0.0996 0 7
-11.2277 22.3511 -2.5029 0.0996 0 8
-11.5863 22.1673 -2.5029 0.0996 0 14
-11.9419 21.9778 -2.5029 0.0996 0 14
-12.2944 21.7826 -2.5029 0.0996 0 14
-12.6437 21.5817 -2.5029 0.0996 0 14
-12.9897 21.3752 -2.5029 0.0996 0 14
-13.3324 21.1632 -2.5029 0.0996 0 14
-13.6715 20.9457 -2.5029 0.0996 0 14
-14.0072 20.7227 -2.5029 0.0996 0 14
-14.3392 20.4944 -2.5029 0.0996 0 14
-14.6674 20.2608 -2.5029 0.0996 0 14
-14.9919 20.0219 -2.5029 0.0996 0 14
-15.3125 19.7778 -2.5029 0.0996 0 14
-15.6291 19.5286 -2.5029 0.0996 0 14
-15.9417 19.2742 -2.5029 0.0996 0 14
-16.2501 19.0149 -2.5029 0.0996 0 8
-16.6953 18.9105 -2.5242 0.7534 0 8
-17.2379 18.9024 -2.5599 0.7429 0 8
-17.7960 18.8939 -2.5972 0.7322 0 8
-18.3707 18.8850 -2.6363 0.7213 0 8
-18.7528 18.6665 -2.6477 0.0996 0 7
-19.0510 18.3620 -2.6477 0.0996 0 6
-19.3443 18.0527 -2.6477 0.0996 0 7
-19.6326 17.7388 -2.6477 0.0996 0 7
-19.9158 17.4202 -2.6477 0.0996 0 7
-20.1939 17.0971 -2.6477 0.0996 0 7
-20.4667 16.7696 -2.6477 0.0996 0 7
-20.7342 16.4378 -2.6477 0.0996 0 7
-20.9963 16.1016 -2.6477 0.0996 0 7
-21.2529 15.7613 -2.6477 0.0996 0 7
-21.5040 15.4169 -2.6477 0.0996 0 7
-21.7496 15.0685 -2.6477 0.0996 0 7
-21.9895 14.7162 -2.6477 0.0996 0 7
-22.2237 14.3601 -2.6477 0.0996 0 7
-22.4522 14.0002 -2.6477 0.0996 0 7
-22.6748 13.6367 -2.6477 0.0996 0 7
-22.8915 13.2697 -2.6477 0.0996 0 7
-23.1023 12.8992 -2.6477 0.0996 0 7
-23.3071 12.5254 -2.6477 0.0996 0 7
-23.5058 12.1483 -2.6477 0.0996 0 7
-23.6985 11.7681 -2.6477 0.0996 0 7
-23.8849 11.3848 -2.6477 0.0996 0 6
-24.0653 10.9986 -2.6477 0.0996 0 7
-24.2393 10.6095 -2.6477 0.0996 0 7
-24.4071 10.2176 -2.6477 0.0996 0 7
-24.5685 9.8231 -2.6477 0.0996 0 7
-24.7236 9.4261 -2.6477 0.0996 0 7
-24.8722 9.0266 -2.6477 0.0996 0 7
-23.5745 8.1284 -2.4953 0.0996 0 8
-23.7024 7.7475 -2.4953 0.0996 0 8
-23.8242 7.3647 -2.4953 0.0996 0 8
-23.9397 6.9800 -2.4953 0.0996 0 8
-24.0490 6.5934 -2.4953 0.0996 0 8
-24.1521 6.2052 -2.4953 0.0996 0 8
-24.2489 5.8153 -2.4953 0.0996 0 8
-24.3395 5.4240 -2.4953 0.0996 0 8
-24.4237 5.0312 -2.4953 0.0996 0 8
-24.5016 4.6371 -2.4953 0.0996 0 8
-24.5731 4.2418 -2.4953 0.0996 0 8
-24.6382 3.8454 -2.4953 0.0996 0 8
-24.6970 3.4480 -2.4953 0.0996 0 8
-24.7493 3.0497 -2.4953 0.0996 0 8
-24.7952 2.6506 -2.4953 0.0996 0 8
-24.8347 2.2509 -2.4953 0.0996 0 8
-24.8678 1.8505 -2.4953 0.0996 0 8
-24.8943 1.4497 -2.4953 0.0996 0 8
-24.9144 1.0485 -2.4953 0.0996 0 8
-24.9281 0.6470 -2.4953 0.0996 0 8
-24.9353 0.2454 -2.4953 0.0996 0 8
-24.9360 -0.1563 -2.4953 0.0996 0 8
-6.5610 22.1228 -2.5029 0.1078 0 14
-6.9166 22.0142 -2.5029 0.1078 0 14
-7.2703 21.9000 -2.5029 0.1078 0 14
-7.6221 21.7800 -2.5029 0.1078 0 14
-7.9720 21.6544 -2.5029 0.1078 0 14
-8.3198 21.5232 -2.5029 0.1078 0 14
-8.6654 21.3864 -2.5029 0.1078 0 14
-9.0088 21.2440 -2.5029 0.1078 0 14
-9.3498 21.0961 -2.5029 0.1078 0 14
-9.6884 20.9428 -2.5029 0.1078 0 14
-10.0245 20.7840 -2.5029 0.1078 0 14
-10.3580 20.6198 -2.5029 0.1078 0 14
-10.6889 20.4503 -2.5029 0.1078 0 14
-11.0169 20.2754 -2.5029 0.1078 0 14
-11.3421 20.0953 -2.5029 0.1078 0 14
-11.6643 19.9100 -2.5029 0.1078 0 14
-11.9835 19.7195 -2.5029 0.1078 0 14
-12.2996 19.5239 -2.5029 0.1078 0 14
-12.6126 19.3233 -2.5029 0.1078 0 14
-12.9222 19.1176 -2.5029 0.1078 0 14
-13.2428 18.9275 -2.5056 0.6533 0 8
-13.6947 18.9172 -2.5331 0.8131 0 8
-14.1597 18.9104 -2.5624 0.8038 0 8
-14.6356 18.9034 -2.5931 0.7943 0 8
-15.1230 18.8961 -2.6252 0.7845 0 8
-15.5576 18.8099 -2.6477 0.1078 0 7
-15.8585 18.5568 -2.6477 0.1078 0 7
-16.1554 18.2989 -2.6477 0.1078 0 7
-16.4481 18.0363 -2.6477 0.1078 0 7
-16.7365 17.7690 -2.6477 0.1078 0 7
-17.0206 17.4971 -2.6477 0.1078 0 7
-17.3002 17.2206 -2.6477 0.1078 0 7
-17.5754 16.9397 -2.6477 0.1078 0 7
-17.8460 16.6544 -2.6477 0.1078 0 7
-18.1119 16.3648 -2.6477 0.1078 0 7
-18.3732 16.0709 -2.6477 0.1078 0 7
-18.6297 15.7728 -2.6477 0.1078 0 7
-18.8814 15.4707 -2.6477 0.1078 0 7
-19.1281 15.1645 -2.6477 0.1078 0 7
-19.3699 14.8544 -2.6477 0.1078 0 7
-19.6067 14.5405 -2.6477 0.1078 0 7
-19.8384 14.2228 -2.6477 0.1078 0 7
-20.0649 13.9013 -2.6477 0.1078 0 7
-20.2862 13.5763 -2.6477 0.1078 0 7
-20.5023 13.2478 -2.6477 0.1078 0 7
-20.7130 12.9158 -2.6477 0.1078 0 7
-20.9184 12.5804 -2.6477 0.1078 0 7
-21.1184 12.2418 -2.6477 0.1078 0 7
-21.3128 11.9001 -2.6477 0.1078 0 7
-21.5018 11.5552 -2.6477 0.1078 0 7
-21.6851 11.2073 -2.6477 0.1078 0 7
-21.8628 10.8565 -2.6477 0.1078 0 7
-22.0349 10.5030 -2.6477 0.1078 0 7
-22.2012 10.1466 -2.6477 0.1078 0 7
-22.3618 9.7877 -2.6477 0.1078 0 7
-22.5165 9.4262 -2.6477 0.1078 0 7
-22.6655 9.0623 -2.6477 0.1078 0 7
-21.4956 8.1954 -2.4953 0.1078 0 8
-21.6249 7.8481 -2.4953 0.1078 0 8
-21.7485 7.4987 -2.4953 0.1078 0 8
-21.8665 7.1474 -2.4953 0.1078 0 8
-21.9788 6.7943 -2.4953 0.1078 0 8
-22.0854 6.4393 -2.4953 0.1078 0 8
-22.1862 6.0827 -2.4953 0.1078 0 8
-22.2813 5.7245 -2.4953 0.1078 0 8
-22.3707 5.3649 -2.4953 0.1078 0 8
-22.4542 5.0038 -2.4953 0.1078 0 8
-22.5319 4.6415 -2.4953 0.1078 0 8
-22.6037 4.2779 -2.4953 0.1078 0 8
-22.6697 3.9132 -2.4953 0.1078 0 8
-22.7298 3.5475 -2.4953 0.1078 0 8
-22.7840 3.1809 -2.4953 0.1078 0 8
-22.8323 2.8135 -2.4953 0.1078 0 8
-22.8746 2.4453 -2.4953 0.1078 0 8
-22.9110 2.0765 -2.4953 0.1078 0 8
-22.9415 1.7072 -2.4953 0.1078 0 8
-22.9660 1.3374 -2.4953 0.1078 0 8
-22.9846 0.9673 -2.4953 0.1078 0 8
-22.9972 0.5969 -2.4953 0.1078 0 8
-23.0038 0.2264 -2.4953 0.1078 0 8
-23.0045 -0.1442 -2.4953 0.1078 0 8
-6.0886 20.5298 -2.5029 0.1161 0 14
-6.4185 20.4290 -2.5029 0.1161 0 14
-6.7468 20.3230 -2.5029 0.1161 0 14
-7.0733 20.2117 -2.5029 0.1161 0 14
-7.3979 20.0951 -2.5029 0.1161 0 14
-7.7207 19.9733 -2.5029 0.1161 0 14
-8.0414 19.8464 -2.5029 0.1161 0 14
-8.3601 19.7142 -2.5029 0.1161 0 14
-8.6765 19.5770 -2.5029 0.1161 0 14
-8.9908 19.4347 -2.5029 0.1161 0 14
-9.3027 19.2874 -2.5029 0.1161 0 14
-9.6122 19.1350 -2.5029 0.1161 0 14
-9.9192 18.9777 -2.5029 0.1161 0 8
-10.2855 18.9294 -2.5181 0.8806 0 8
-10.6811 18.9243 -2.5399 0.8730 0 8
-11.0837 18.9189 -2.5628 0.8652 0 8
-11.4936 18.9133 -2.5868 0.8572 0 8
-11.9113 18.9075 -2.6120 0.8489 0 8
-12.3373 18.9015 -2.6382 0.8405 0 8
-12.6853 18.7672 -2.6477 0.1161 0 7
-12.9860 18.5604 -2.6477 0.1161 0 7
-13.2833 18.3488 -2.6477 0.1161 0 6
-13.5772 18.1325 -2.6477 0.1161 0 7
-13.8675 17.9114 -2.6477 0.1161 0 7
-14.1542 17.6857 -2.6477 0.1161 0 7
-14.4373 17.4554 -2.6477 0.1161 0 7
-14.7166 17.2205 -2.6477 0.1161 0 7
-14.9921 16.9812 -2.6477 0.1161 0 7
-15.2637 16.7375 -2.6477 0.1161 0 7
-15.5313 16.4895 -2.6477 0.1161 0 7
-15.7949 16.2372 -2.6477 0.1161 0 7
-16.0544 15.9806 -2.6477 0.1161 0 7
-16.3098 15.7199 -2.6477 0.1161 0 7
-16.5609 15.4552 -2.6477 0.1161 0 7
-16.8077 15.1864 -2.6477 0.1161 0 7
-17.0501 14.9137 -2.6477 0.1161 0 7
-17.2882 14.6371 -2.6477 0.1161 0 7
-17.5217 14.3567 -2.6477 0.1161 0 7
-17.7507 14.0725 -2.6477 0.1161 0 7
-17.9751 13.7848 -2.6477 0.1161 0 7
-18.1948 13.4934 -2.6477 0.1161 0 7
-18.4098 13.1986 -2.6477 0.1161 0 7
-18.6201 12.9003 -2.6477 0.1161 0 7
-18.8255 12.5987 -2.6477 0.1161 0 7
-19.0260 12.2938 -2.6477 0.1161 0 7
-19.2215 11.9857 -2.6477 0.1161 0 7
-19.4121 11.6745 -2.6477 0.1161 0 7
-19.5977 11.3603 -2.6477 0.1161 0 6
-19.7781 11.0432 -2.6477 0.1161 0 7
-19.9534 10.7231 -2.6477 0.1161 0 7
-20.1236 10.4003 -2.6477 0.1161 0 7
-20.2885 10.0748 -2.6477 0.1161 0 7
-20.4482 9.7466 -2.6477 0.1161 0 7
-20.6025 9.4160 -2.6477 0.1161 0 7
-20.7515 9.0829 -2.6477 0.1161 0 7
-19.6924 8.2439 -2.4953 0.1161 0 8
-19.8227 7.9256 -2.4953 0.1161 0 8
-19.9478 7.6053 -2.4953 0.1161 0 8
-20.0677 7.2830 -2.4953 0.1161 0 8
-20.1824 6.9588 -2.4953 0.1161 0 8
-20.2919 6.6327 -2.4953 0.1161 0 8
-20.3961 6.3050 -2.4953 0.1161 0 8
-20.4950 5.9756 -2.4953 0.1161 0 8
-20.5886 5.6447 -2.4953 0.1161 0 8
-20.6769 5.3123 -2.4953 0.1161 0 8
-20.7598 4.9786 -2.4953 0.1161 0 8
-20.8373 4.6435 -2.4953 0.1161 0 8
-20.9094 4.3072 -2.4953 0.1161 0 8
-20.9760 3.9699 -2.4953 0.1161 0 8
-21.0373 3.6314 -2.4953 0.1161 0 8
-21.0930 3.2921 -2.4953 0.1161 0 8
-21.1433 2.9519 -2.4953 0.1161 0 8
-21.1881 2.6109 -2.4953 0.1161 0 8
-21.2275 2.2692 -2.4953 0.1161 0 8
-21.2613 1.9270 -2.4953 0.1161 0 8
-21.2895 1.5843 -2.4953 0.1161 0 8
-21.3123 1.2411 -2.4953 0.1161 0 8
-21.3295 0.8976 -2.4953 0.1161 0 8
-21.3412 0.5539 -2.4953 0.1161 0 8
-21.3474 0.2101 -2.4953 0.1161 0 8
-21.3480 -0.1339 -2.4953 0.1161 0 8
-5.6789 19.1482 -2.5029 0.1243 0 14
-5.9866 19.0543 -2.5029 0.1243 0 8
-6.2927 18.9554 -2.5029 0.1243 0 8
-6.6283 18.9402 -2.5147 0.9444 0 8
-6.9714 18.9366 -2.5288 0.9392 0 8
-7.3185 18.9329 -2.5437 0.9336 0 8
-7.6697 18.9290 -2.5594 0.9279 0 8
-8.0254 18.9250 -2.5760 0.9219 0 8
-8.3857 18.9207 -2.5935 0.9157 0 8
-8.7510 18.9163 -2.6119 0.9093 0 8
-9.1215 18.9117 -2.6312 0.9026 0 8
-9.4839 18.8797 -2.6477 0.1243 0 7
-9.7868 18.7245 -2.6477 0.1243 0 7
-10.0872 18.5644 -2.6477 0.1243 0 7
-10.3849 18.3995 -2.6477 0.1243 0 6
-10.6800 18.2298 -2.6477 0.1243 0 7
-10.9723 18.0554 -2.6477 0.1243 0 7
-11.2617 17.8763 -2.6477 0.1243 0 7
-11.5482 17.6926 -2.6477 0.1243 0 7
-11.8317 17.5043 -2.6477 0.1243 0 7
-12.1121 17.3114 -2.6477 0.1243 0 7
-12.3894 17.1141 -2.6477 0.1243 0 7
-12.6635 16.9123 -2.6477 0.1243 0 7
-12.9343 16.7061 -2.6477 0.1243 0 7
-13.2017 16.4956 -2.6477 0.1243 0 7
-13.4657 16.2807 -2.6477 0.1243 0 7
-13.7263 16.0617 -2.6477 0.1243 0 7
-13.9832 15.8385 -2.6477 0.1243 0 7
-14.2365 15.6112 -2.6477 0.1243 0 7
-14.4862 15.3799 -2.6477 0.1243 0 7
-14.7320 15.1445 -2.6477 0.1243 0 7
-14.9742 14.9052 -2.6477 0.1243 0 6
-15.2123 14.6621 -2.6477 0.1243 0 7
-15.4465 14.4151 -2.6477 0.1243 0 7
-15.6767 14.1644 -2.6477 0.1243 0 7
-15.9028 13.9101 -2.6477 0.1243 0 7
-16.1248 13.6521 -2.6477 0.1243 0 7
-16.3426 13.3906 -2.6477 0.1243 0 7
-16.5562 13.1256 -2.6477 0.1243 0 7
-16.7655 12.8572 -2.6477 0.1243 0 7
-16.9704 12.5854 -2.6477 0.1243 0 7
-17.1710 12.3104 -2.6477 0.1243 0 7
-17.3671 12.0322 -2.6477 0.1243 0 7
-17.5586 11.7509 -2.6477 0.1243 0 7
-17.7456 11.4665 -2.6477 0.1243 0 7
-17.9280 11.1792 -2.6477 0.1243 0 7
-18.1058 10.8889 -2.6477 0.1243 0 7
-18.2789 10.5958 -2.6477 0.1243 0 7
-18.4472 10.3000 -2.6477 0.1243 0 7
-18.6107 10.0015 -2.6477 0.1243 0 7
-18.7694 9.7004 -2.6477 0.1243 0 7
-18.9232 9.3968 -2.6477 0.1243 0 7
-19.0721 9.0908 -2.6477 0.1243 0 7
-18.1100 8.2768 -2.4953 0.1243 0 8
-18.2410 7.9840 -2.4953 0.1243 0 8
-18.3673 7.6892 -2.4953 0.1243 0 8
-18.4887 7.3923 -2.4953 0.1243 0 8
-18.6054 7.0935 -2.4953 0.1243 0 8
-18.7173 6.7929 -2.4953 0.1243 0 8
-18.8243 6.4905 -2.4953 0.1243 0 8
-18.9264 6.1864 -2.4953 0.1243 0 8
-19.0236 5.8807 -2.4953 0.1243 0 8
-19.1158 5.5735 -2.4953 0.1243 0 8
-19.2031 5.2649 -2.4953 0.1243 0 8
-19.2855 4.9548 -2.4953 0.1243 0 8
-19.3628 4.6435 -2.4953 0.1243 0 8
-19.4351 4.3310 -2.4953 0.1243 0 8
-19.5023 4.0174 -2.4953 0.1243 0 8
-19.5645 3.7027 -2.4953 0.1243 0 8
-19.6216 3.3871 -2.4953 0.1243 0 8
-19.6736 3.0705 -2.4953 0.1243 0 8
-19.7205 2.7532 -2.4953 0.1243 0 8
-19.7623 2.4352 -2.4953 0.1243 0 8
-19.7990 2.1165 -2.4953 0.1243 0 8
-19.8305 1.7973 -2.4953 0.1243 0 8
-19.8569 1.4777 -2.4953 0.1243 0 8
-19.8781 1.1576 -2.4953 0.1243 0 8
-19.8942 0.8372 -2.4953 0.1243 0 8
-19.9051 0.5166 -2.4953 0.1243 0 8
-19.9108 0.1959 -2.4953 0.1243 0 8
-19.9114 -0.1248 -2.4953 0.1243 0 8
-5.6111 18.9199 -2.6398 0.9593 0 8
-5.9328 18.8831 -2.6477 0.1326 0 7
-6.2362 18.7851 -2.6477 0.1326 0 7
-6.5380 18.6822 -2.6477 0.1326 0 7
-6.8381 18.5744 -2.6477 0.1326 0 7
-7.1364 18.4619 -2.6477 0.1326 0 6
-7.4329 18.3445 -2.6477 0.1326 0 7
-7.7274 18.2224 -2.6477 0.1326 0 7
-8.0200 18.0956 -2.6477 0.1326 0 7
-8.3104 17.9640 -2.6477 0.1326 0 7
-8.5987 17.8278 -2.6477 0.1326 0 7
-8.8848 17.6870 -2.6477 0.1326 0 7
-9.1686 17.5416 -2.6477 0.1326 0 7
-9.4499 17.3916 -2.6477 0.1326 0 7
-9.7289 17.2371 -2.6477 0.1326 0 7
-10.0053 17.0782 -2.6477 0.1326 0 7
-10.2791 16.9148 -2.6477 0.1326 0 7
-10.5502 16.7470 -2.6477 0.1326 0 7
-10.8187 16.5749 -2.6477 0.1326 0 7
-11.0842 16.3984 -2.6477 0.1326 0 7
-11.3470 16.2178 -2.6477 0.1326 0 7
-11.6067 16.0329 -2.6477 0.1326 0 7
-11.8635 15.8439 -2.6477 0.1326 0 7
-12.1172 15.6507 -2.6477 0.1326 0 7
-12.3677 15.4535 -2.6477 0.1326 0 7
-12.6151 15.2522 -2.6477 0.1326 0 7
-12.8591 15.0470 -2.6477 0.1326 0 7
-13.0998 14.8379 -2.6477 0.1326 0 7
-13.3372 14.6250 -2.6477 0.1326 0 7
-13.5710 14.4082 -2.6477 0.1326 0 7
-13.8013 14.1878 -2.6477 0.1326 0 7
-14.0281 13.9636 -2.6477 0.1326 0 7
-14.2512 13.7358 -2.6477 0.1326 0 7
-14.4706 13.5045 -2.6477 0.1326 0 7
-14.6863 13.2696 -2.6477 0.1326 0 7
-14.8981 13.0313 -2.6477 0.1326 0 7
-15.1061 12.7896 -2.6477 0.1326 0 7
-15.3102 12.5446 -2.6477 0.1326 0 7
-15.5103 12.2964 -2.6477 0.1326 0 7
-15.7064 12.0449 -2.6477 0.1326 0 7
-15.8984 11.7904 -2.6477 0.1326 0 7
-16.0862 11.5327 -2.6477 0.1326 0 7
-16.2699 11.2721 -2.6477 0.1326 0 7
-16.4494 11.0085 -2.6477 0.1326 0 7
-16.6246 10.7421 -2.6477 0.1326 0 7
-16.7955 10.4729 -2.6477 0.1326 0 7
-16.9620 10.2010 -2.6477 0.1326 0 7
-17.1241 9.9265 -2.6477 0.1326 0 7
-17.2818 9.6493 -2.6477 0.1326 0 7
-17.4350 9.3697 -2.6477 0.1326 0 7
-17.5837 9.0876 -2.6477 0.1326 0 7
-16.7073 8.2965 -2.4953 0.1326 0 8
-16.8388 8.0263 -2.4953 0.1326 0 8
-16.9660 7.7540 -2.4953 0.1326 0 8
-17.0887 7.4797 -2.4953 0.1326 0 8
-17.2069 7.2034 -2.4953 0.1326 0 8
-17.3207 6.9253 -2.4953 0.1326 0 8
-17.4300 6.6454 -2.4953 0.1326 0 8
-17.5348 6.3637 -2.4953 0.1326 0 8
-17.6351 6.0805 -2.4953 0.1326 0 8
-17.7307 5.7956 -2.4953 0.1326 0 8
-17.8218 5.5092 -2.4953 0.1326 0 8
-17.9082 5.2214 -2.4953 0.1326 0 8
-17.9900 4.9323 -2.4953 0.1326 0 8
-18.0671 4.6418 -2.4953 0.1326 0 8
-18.1396 4.3502 -2.4953 0.1326 0 8
-18.2073 4.0574 -2.4953 0.1326 0 8
-18.2703 3.7636 -2.4953 0.1326 0 8
-18.3285 3.4688 -2.4953 0.1326 0 8
-18.3820 3.1731 -2.4953 0.1326 0 8
-18.4308 2.8766 -2.4953 0.1326 0 8
-18.4747 2.5793 -2.4953 0.1326 0 8
-18.5139 2.2814 -2.4953 0.1326 0 8
-18.5482 1.9828 -2.4953 0.1326 0 8
-18.5777 1.6838 -2.4953 0.1326 0 8
-18.6025 1.3843 -2.4953 0.1326 0 8
-18.6223 1.0845 -2.4953 0.1326 0 8
-18.6374 0.7843 -2.4953 0.1326 0 8
-18.6476 0.4840 -2.4953 0.1326 0 8
-18.6530 0.1836 -2.4953 0.1326 0 8
-18.6535 -0.1170 -2.4953 0.1326 0 8
-5.2927 17.8463 -2.6477 0.1408 0 7
-5.5795 17.7587 -2.6477 0.1408 0 7
-5.8649 17.6665 -2.6477 0.1408 0 7
-6.1487 17.5698 -2.6477 0.1408 0 7
-6.4309 17.4684 -2.6477 0.1408 0 7
-6.7115 17.3626 -2.6477 0.1408 0 7
-6.9903 17.2522 -2.6477 0.1408 0 7
-7.2673 17.1374 -2.6477 0.1408 0 7
-7.5424 17.0181 -2.6477 0.1408 0 7
-7.8156 16.8944 -2.6477 0.1408 0 7
-8.0867 16.7663 -2.6477 0.1408 0 7
-8.3558 16.6338 -2.6477 0.1408 0 7
-8.6226 16.4971 -2.6477 0.1408 0 7
-8.8872 16.3560 -2.6477 0.1408 0 7
-9.1496 16.2107 -2.6477 0.1408 0 7
-9.4095 16.0612 -2.6477 0.1408 0 7
-9.6670 15.9076 -2.6477 0.1408 0 7
-9.9220 15.7498 -2.6477 0.1408 0 7
-10.1744 15.5879 -2.6477 0.1408 0 7
-10.4242 15.4220 -2.6477 0.1408 0 7
-10.6713 15.2521 -2.6477 0.1408 0 7
-10.9156 15.0782 -2.6477 0.1408 0 7
-11.1571 14.9004 -2.6477 0.1408 0 7
-11.3957 14.7188 -2.6477 0.1408 0 7
-11.6313 14.5333 -2.6477 0.1408 0 7
-11.8639 14.3440 -2.6477 0.1408 0 7
-12.0934 14.1510 -2.6477 0.1408 0 7
-12.3198 13.9544 -2.6477 0.1408 0 7
-12.5430 13.7541 -2.6477 0.1408 0 7
-12.7629 13.5503 -2.6477 0.1408 0 7
-12.9795 13.3429 -2.6477 0.1408 0 7
-13.1928 13.1321 -2.6477 0.1408 0 7
-13.4026 12.9179 -2.6477 0.1408 0 7
-13.6090 12.7003 -2.6477 0.1408 0 7
-13.8118 12.4795 -2.6477 0.1408 0 7
-14.0110 12.2554 -2.6477 0.1408 0 7
-14.2066 12.0281 -2.6477 0.1408 0 7
-14.3985 11.7976 -2.6477 0.1408 0 7
-14.5867 11.5642 -2.6477 0.1408 0 7
-14.7711 11.3277 -2.6477 0.1408 0 7
-14.9517 11.0883 -2.6477 0.1408 0 7
-15.1284 10.8460 -2.6477 0.1408 0 7
-15.3011 10.6009 -2.6477 0.1408 0 7
-15.4699 10.3530 -2.6477 0.1408 0 7
-15.6347 10.1025 -2.6477 0.1408 0 7
-15.7954 9.8493 -2.6477 0.1408 0 7
-15.9520 9.5936 -2.6477 0.1408 0 7
-16.1045 9.3354 -2.6477 0.1408 0 7
-16.2527 9.0748 -2.6477 0.1408 0 7
-15.4530 8.3046 -2.4953 0.1408 0 8
-15.5848 8.0545 -2.4953 0.1408 0 8
-15.7125 7.8024 -2.4953 0.1408 0 8
-15.8362 7.5483 -2.4953 0.1408 0 8
-15.9557 7.2922 -2.4953 0.1408 0 8
-16.0711 7.0343 -2.4953 0.1408 0 8
-16.1823 6.7745 -2.4953 0.1408 0 8
-16.2894 6.5129 -2.4953 0.1408 0 8
-16.3922 6.2497 -2.4953 0.1408 0 8
-16.4907 5.9848 -2.4953 0.1408 0 8
-16.5850 5.7184 -2.4953 0.1408 0 8
-16.6749 5.4505 -2.4953 0.1408 0 8
-16.7606 5.1812 -2.4953 0.1408 0 8
-16.8419 4.9105 -2.4953 0.1408 0 8
-16.9188 4.6386 -2.4953 0.1408 0 8
-16.9913 4.3654 -2.4953 0.1408 0 8
-17.0594 4.0912 -2.4953 0.1408 0 8
-17.1231 3.8158 -2.4953 0.1408 0 8
-17.1824 3.5395 -2.4953 0.1408 0 8
-17.2371 3.2622 -2.4953 0.1408 0 8
-17.2875 2.9842 -2.4953 0.1408 0 8
-17.3333 2.7053 -2.4953 0.1408 0 8
-17.3746 2.4257 -2.4953 0.1408 0 8
-17.4114 2.1455 -2.4953 0.1408 0 8
-17.4437 1.8648 -2.4953 0.1408 0 8
-17.4715 1.5835 -2.4953 0.1408 0 8
-17.4948 1.3019 -2.4953 0.1408 0 8
-17.5135 1.0199 -2.4953 0.1408 0 8
-17.5276 0.7376 -2.4953 0.1408 0 8
-17.5372 0.4552 -2.4953 0.1408 0 8
-17.5423 0.1726 -2.4953 0.1408 0 8
-17.5428 -0.1100 -2.4953 0.1408 0 8
-4.9946 16.8411 -2.6477 0.1490 0 7
-5.2653 16.7585 -2.6477 0.1490 0 7
-5.5345 16.6715 -2.6477 0.1490 0 7
-5.8024 16.5802 -2.6477 0.1490 0 7
-6.0687 16.4845 -2.6477 0.1490 0 7
-6.3335 16.3846 -2.6477 0.1490 0 7
-6.5966 16.2805 -2.6477 0.1490 0 7
-6.8580 16.1721 -2.6477 0.1490 0 7
-7.1176 16.0596 -2.6477 0.1490 0 7
-7.3754 15.9428 -2.6477 0.1490 0 7
-7.6312 15.8219 -2.6477 0.1490 0 7
-7.8851 15.6969 -2.6477 0.1490 0 7
-8.1370 15.5679 -2.6477 0.1490 0 7
-8.3867 15.4348 -2.6477 0.1490 0 7
-8.6342 15.2977 -2.6477 0.1490 0 7
-8.8795 15.1566 -2.6477 0.1490 0 7
-9.1226 15.0116 -2.6477 0.1490 0 7
-9.3632 14.8627 -2.6477 0.1490 0 7
-9.6014 14.7100 -2.6477 0.1490 0 7
-9.8371 14.5534 -2.6477 0.1490 0 7
-10.0703 14.3930 -2.6477 0.1490 0 7
-10.3008 14.2289 -2.6477 0.1490 0 7
-10.5287 14.0612 -2.6477 0.1490 0 7
-10.7538 13.8897 -2.6477 0.1490 0 7
-10.9762 13.7147 -2.6477 0.1490 0 7
-11.1957 13.5361 -2.6477 0.1490 0 7
-11.4123 13.3540 -2.6477 0.1490 0 7
-11.6259 13.1684 -2.6477 0.1490 0 7
-11.8365 12.9794 -2.6477 0.1490 0 7
-12.0441 12.7871 -2.6477 0.1490 0 7
-12.2485 12.5914 -2.6477 0.1490 0 7
-12.4497 12.3925 -2.6477 0.1490 0 7
-12.6477 12.1903 -2.6477 0.1490 0 7
-12.8425 11.9850 -2.6477 0.1490 0 7
-13.0339 11.7766 -2.6477 0.1490 0 7
-13.2219 11.5651 -2.6477 0.1490 0 7
-13.4065 11.3506 -2.6477 0.1490 0 6
-13.5876 11.1332 -2.6477 0.1490 0 7
-13.7652 10.9128 -2.6477 0.1490 0 7
-13.9392 10.6897 -2.6477 0.1490 0 7
-14.1095 10.4638 -2.6477 0.1490 0 7
-14.2763 10.2351 -2.6477 0.1490 0 7
-14.4393 10.0038 -2.6477 0.1490 0 7
-14.5986 9.7699 -2.6477 0.1490 0 7
-14.7541 9.5335 -2.6477 0.1490 0 7
-14.9057 9.2946 -2.6477 0.1490 0 7
-15.0535 9.0533 -2.6477 0.1490 0 7
-14.3226 8.3025 -2.4953 0.1490 0 8
-14.4545 8.0707 -2.4953 0.1490 0 8
-14.5827 7.8368 -2.4953 0.1490 0 8
-14.7070 7.6009 -2.4953 0.1490 0 8
-14.8275 7.3630 -2.4953 0.1490 0 8
-14.9442 7.1232 -2.4953 0.1490 0 8
-15.0570 6.8815 -2.4953 0.1490 0 8
-15.1659 6.6381 -2.4953 0.1490 0 8
-15.2709 6.3929 -2.4953 0.1490 0 8
-15.3719 6.1461 -2.4953 0.1490 0 8
-15.4689 5.8977 -2.4953 0.1490 0 8
-15.5619 5.6477 -2.4953 0.1490 0 8
-15.6508 5.3963 -2.4953 0.1490 0 8
-15.7357 5.1435 -2.4953 0.1490 0 8
-15.8166 4.8893 -2.4953 0.1490 0 8
-15.8933 4.6339 -2.4953 0.1490 0 8
-15.9659 4.3773 -2.4953 0.1490 0 8
-16.0343 4.1196 -2.4953 0.1490 0 8
-16.0986 3.8607 -2.4953 0.1490 0 8
-16.1587 3.6009 -2.4953 0.1490 0 8
-16.2146 3.3401 -2.4953 0.1490 0 8
-16.2663 3.0785 -2.4953 0.1490 0 8
-16.3138 2.8161 -2.4953 0.1490 0 8
-16.3570 2.5529 -2.4953 0.1490 0 8
-16.3960 2.2891 -2.4953 0.1490 0 8
-16.4308 2.0247 -2.4953 0.1490 0 8
-16.4612 1.7597 -2.4953 0.1490 0 8
-16.4875 1.4943 -2.4953 0.1490 0 8
-16.5094 1.2285 -2.4953 0.1490 0 8
-16.5270 0.9624 -2.4953 0.1490 0 8
-16.5404 0.6961 -2.4953 0.1490 0 8
-16.5495 0.4296 -2.4953 0.1490 0 8
-16.5542 0.1629 -2.4953 0.1490 0 8
-16.5547 -0.1038 -2.4953 0.1490 0 8
-4.7277 15.9410 -2.6477 0.1573 0 7
-4.9839 15.8628 -2.6477 0.1573 0 7
-5.2387 15.7804 -2.6477 0.1573 0 7
-5.4923 15.6940 -2.6477 0.1573 0 7
-5.7444 15.6035 -2.6477 0.1573 0 7
-5.9950 15.5089 -2.6477 0.1573 0 7
-6.2440 15.4104 -2.6477 0.1573 0 7
-6.4914 15.3078 -2.6477 0.1573 0 7
-6.7372 15.2012 -2.6477 0.1573 0 7
-6.9812 15.0907 -2.6477 0.1573 0 7
-7.2234 14.9763 -2.6477 0.1573 0 6
-7.4637 14.8580 -2.6477 0.1573 0 6
-7.7021 14.7358 -2.6477 0.1573 0 7
-7.9384 14.6099 -2.6477 0.1573 0 7
-8.1728 14.4801 -2.6477 0.1573 0 7
-8.4050 14.3465 -2.6477 0.1573 0 7
-8.6350 14.2093 -2.6477 0.1573 0 7
-8.8627 14.0683 -2.6477 0.1573 0 7
-9.0882 13.9238 -2.6477 0.1573 0 7
-9.3113 13.7755 -2.6477 0.1573 0 7
-9.5320 13.6238 -2.6477 0.1573 0 7
-9.7503 13.4685 -2.6477 0.1573 0 7
-9.9659 13.3096 -2.6477 0.1573 0 7
-10.1791 13.1474 -2.6477 0.1573 0 7
-10.3895 12.9817 -2.6477 0.1573 0 7
-10.5973 12.8127 -2.6477 0.1573 0 7
-10.8023 12.6403 -2.6477 0.1573 0 7
-11.0045 12.4646 -2.6477 0.1573 0 7
-11.2039 12.2857 -2.6477 0.1573 0 7
-11.4004 12.1037 -2.6477 0.1573 0 7
-11.5938 11.9185 -2.6477 0.1573 0 7
-11.7843 11.7301 -2.6477 0.1573 0 7
-11.9718 11.5388 -2.6477 0.1573 0 7
-12.1561 11.3444 -2.6477 0.1573 0 6
-12.3372 11.1472 -2.6477 0.1573 0 7
-12.5152 10.9470 -2.6477 0.1573 0 7
-12.6899 10.7439 -2.6477 0.1573 0 7
-12.8614 10.5381 -2.6477 0.1573 0 7
-13.0295 10.3296 -2.6477 0.1573 0 7
-13.1942 10.1183 -2.6477 0.1573 0 7
-13.3554 9.9045 -2.6477 0.1573 0 7
-13.5133 9.6881 -2.6477 0.1573 0 7
-13.6676 9.4691 -2.6477 0.1573 0 7
-13.8183 9.2477 -2.6477 0.1573 0 7
-13.9655 9.0240 -2.6477 0.1573 0 7
-13.2970 8.2914 -2.4953 0.1573 0 8
-13.4288 8.0761 -2.4953 0.1573 0 8
-13.5571 7.8588 -2.4953 0.1573 0 8
-13.6820 7.6394 -2.4953 0.1573 0 8
-13.8033 7.4180 -2.4953 0.1573 0 8
-13.9210 7.1946 -2.4953 0.1573 0 8
-14.0350 6.9695 -2.4953 0.1573 0 8
-14.1455 6.7425 -2.4953 0.1573 0 8
-14.2523 6.5137 -2.4953 0.1573 0 8
-14.3554 6.2833 -2.4953 0.1573 0 8
-14.4547 6.0512 -2.4953 0.1573 0 8
-14.5503 5.8176 -2.4953 0.1573 0 8
-14.6421 5.5825 -2.4953 0.1573 0 8
-14.7302 5.3459 -2.4953 0.1573 0 8
-14.8144 5.1079 -2.4953 0.1573 0 8
-14.8947 4.8686 -2.4953 0.1573 0 8
-14.9712 4.6280 -2.4953 0.1573 0 8
-15.0438 4.3863 -2.4953 0.1573 0 8
-15.1125 4.1434 -2.4953 0.1573 0 8
-15.1773 3.8994 -2.4953 0.1573 0 8
-15.2382 3.6544 -2.4953 0.1573 0 8
-15.2950 3.4084 -2.4953 0.1573 0 8
-15.3480 3.1616 -2.4953 0.1573 0 8
-15.3969 2.9140 -2.4953 0.1573 0 8
-15.4419 2.6656 -2.4953 0.1573 0 8
-15.4828 2.4165 -2.4953 0.1573 0 8
-15.5197 2.1667 -2.4953 0.1573 0 8
-15.5526 1.9165 -2.4953 0.1573 0 8
-15.5814 1.6657 -2.4953 0.1573 0 8
-15.6063 1.4145 -2.4953 0.1573 0 8
-15.6270 1.1629 -2.4953 0.1573 0 8
-15.6437 0.9110 -2.4953 0.1573 0 8
-15.6564 0.6589 -2.4953 0.1573 0 8
-15.6649 0.4066 -2.4953 0.1573 0 8
-15.6695 0.1542 -2.4953 0.1573 0 8
-15.6699 -0.0983 -2.4953 0.1573 0 8
-4.4872 15.1302 -2.6477 0.1655 0 7
-4.7304 15.0560 -2.6477 0.1655 0 7
-4.9723 14.9778 -2.6477 0.1655 0 7
-5.2129 14.8958 -2.6477 0.1655 0 7
-5.4522 14.8099 -2.6477 0.1655 0 7
-5.6900 14.7201 -2.6477 0.1655 0 7
-5.9264 14.6265 -2.6477 0.1655 0 7
-6.1613 14.5292 -2.6477 0.1655 0 7
-6.3945 14.4280 -2.6477 0.1655 0 7
-6.6261 14.3232 -2.6477 0.1655 0 7
-6.8560 14.2146 -2.6477 0.1655 0 7
-7.0841 14.1023 -2.6477 0.1655 0 7
-7.3103 13.9863 -2.6477 0.1655 0 7
-7.5347 13.8667 -2.6477 0.1655 0 7
-7.7571 13.7436 -2.6477 0.1655 0 7
-7.9775 13.6168 -2.6477 0.1655 0 7
-8.1958 13.4866 -2.6477 0.1655 0 7
-8.4120 13.3528 -2.6477 0.1655 0 7
-8.6260 13.2155 -2.6477 0.1655 0 7
-8.8377 13.0749 -2.6477 0.1655 0 7
-9.0472 12.9308 -2.6477 0.1655 0 7
-9.2543 12.7834 -2.6477 0.1655 0 7
-9.4590 12.6327 -2.6477 0.1655 0 7
-9.6613 12.4787 -2.6477 0.1655 0 7
-9.8611 12.3214 -2.6477 0.1655 0 7
-10.0583 12.1610 -2.6477 0.1655 0 7
-10.2529 11.9974 -2.6477 0.1655 0 7
-10.4448 11.8306 -2.6477 0.1655 0 7
-10.6340 11.6609 -2.6477 0.1655 0 7
-10.8205 11.4880 -2.6477 0.1655 0 7
-11.0041 11.3122 -2.6477 0.1655 0 7
-11.1850 11.1335 -2.6477 0.1655 0 7
-11.3628 10.9519 -2.6477 0.1655 0 7
-11.5378 10.7674 -2.6477 0.1655 0 7
-11.7097 10.5802 -2.6477 0.1655 0 7
-11.8786 10.3902 -2.6477 0.1655 0 7
-12.0445 10.1975 -2.6477 0.1655 0 7
-12.2072 10.0021 -2.6477 0.1655 0 7
-12.3667 9.8042 -2.6477 0.1655 0 7
-12.5231 9.6037 -2.6477 0.1655 0 7
-12.6761 9.4007 -2.6477 0.1655 0 7
-12.8259 9.1953 -2.6477 0.1655 0 7
-12.9724 8.9875 -2.6477 0.1655 0 7
-12.3694 8.2780 -2.4971 0.5065 0 8
-12.4922 8.0720 -2.4953 0.1655 0 8
-12.6206 7.8697 -2.4953 0.1655 0 8
-12.7457 7.6654 -2.4953 0.1655 0 8
-12.8676 7.4590 -2.4953 0.1655 0 8
-12.9861 7.2508 -2.4953 0.1655 0 8
-13.1012 7.0407 -2.4953 0.1655 0 8
-13.2129 6.8287 -2.4953 0.1655 0 8
-13.3212 6.6150 -2.4953 0.1655 0 8
-13.4260 6.3995 -2.4953 0.1655 0 8
-13.5274 6.1824 -2.4953 0.1655 0 8
-13.6252 5.9637 -2.4953 0.1655 0 8
-13.7195 5.7434 -2.4953 0.1655 0 8
-13.8102 5.5217 -2.4953 0.1655 0 8
-13.8974 5.2985 -2.4953 0.1655 0 8
-13.9809 5.0740 -2.4953 0.1655 0 8
-14.0608 4.8481 -2.4953 0.1655 0 8
-14.1371 4.6210 -2.4953 0.1655 0 8
-14.2097 4.3926 -2.4953 0.1655 0 8
-14.2786 4.1632 -2.4953 0.1655 0 8
-14.3439 3.9326 -2.4953 0.1655 0 8
-14.4053 3.7010 -2.4953 0.1655 0 8
-14.4631 3.4685 -2.4953 0.1655 0 8
-14.5171 3.2351 -2.4953 0.1655 0 8
-14.5673 3.0008 -2.4953 0.1655 0 8
-14.6138 2.7658 -2.4953 0.1655 0 8
-14.6564 2.5300 -2.4953 0.1655 0 8
-14.6953 2.2936 -2.4953 0.1655 0 8
-14.7303 2.0565 -2.4953 0.1655 0 8
-14.7615 1.8190 -2.4953 0.1655 0 8
-14.7889 1.5810 -2.4953 0.1655 0 8
-14.8125 1.3425 -2.4953 0.1655 0 8
-14.8322 1.1037 -2.4953 0.1655 0 8
-14.8480 0.8647 -2.4953 0.1655 0 8
-14.8600 0.6254 -2.4953 0.1655 0 8
-14.8682 0.3859 -2.4953 0.1655 0 8
-14.8725 0.1463 -2.4953 0.1655 0 8
-14.8729 -0.0933 -2.4953 0.1655 0 8
-4.2695 14.3959 -2.6477 0.1736 0 7
-4.5008 14.3253 -2.6477 0.1736 0 7
-4.7310 14.2509 -2.6477 0.1736 0 7
-4.9599 14.1729 -2.6477 0.1736 0 7
-5.1876 14.0911 -2.6477 0.1736 0 7
-5.4139 14.0057 -2.6477 0.1736 0 7
-5.6388 13.9167 -2.6477 0.1736 0 7
-5.8623 13.8241 -2.6477 0.1736 0 7
-6.0842 13.7278 -2.6477 0.1736 0 7
-6.3045 13.6281 -2.6477 0.1736 0 7
-6.5233 13.5247 -2.6477 0.1736 0 7
-6.7403 13.4179 -2.6477 0.1736 0 7
-6.9555 13.3076 -2.6477 0.1736 0 7
-7.1690 13.1938 -2.6477 0.1736 0 7
-7.3806 13.0766 -2.6477 0.1736 0 7
-7.5903 12.9560 -2.6477 0.1736 0 7
-7.7980 12.8321 -2.6477 0.1736 0 7
-8.0037 12.7048 -2.6477 0.1736 0 7
-8.2074 12.5742 -2.6477 0.1736 0 7
-8.4088 12.4404 -2.6477 0.1736 0 7
-8.6081 12.3033 -2.6477 0.1736 0 7
-8.8052 12.1630 -2.6477 0.1736 0 7
-9.0000 12.0196 -2.6477 0.1736 0 7
-9.1924 11.8731 -2.6477 0.1736 0 7
-9.3825 11.7235 -2.6477 0.1736 0 7
-9.5702 11.5708 -2.6477 0.1736 0 7
-9.7554 11.4151 -2.6477 0.1736 0 6
-9.9379 11.2565 -2.6477 0.1736 0 7
-10.1180 11.0949 -2.6477 0.1736 0 7
-10.2954 10.9305 -2.6477 0.1736 0 7
-10.4701 10.7633 -2.6477 0.1736 0 7
-10.6421 10.5932 -2.6477 0.1736 0 7
-10.8114 10.4204 -2.6477 0.1736 0 7
-10.9779 10.2449 -2.6477 0.1736 0 7
-11.1415 10.0667 -2.6477 0.1736 0 7
-11.3022 9.8859 -2.6477 0.1736 0 7
-11.4600 9.7026 -2.6477 0.1736 0 7
-11.6148 9.5167 -2.6477 0.1736 0 7
-11.7666 9.3284 -2.6477 0.1736 0 7
-11.9153 9.1376 -2.6477 0.1736 0 7
-12.0610 8.9445 -2.6477 0.1736 0 7
-11.5010 8.2455 -2.4953 0.1736 0 8
-11.6324 8.0591 -2.4953 0.1736 0 8
-11.7607 7.8707 -2.4953 0.1736 0 8
-11.8860 7.6802 -2.4953 0.1736 0 8
-12.0081 7.4878 -2.4953 0.1736 0 8
-12.1272 7.2934 -2.4953 0.1736 0 8
-12.2431 7.0971 -2.4953 0.1736 0 8
-12.3558 6.8989 -2.4953 0.1736 0 8
-12.4654 6.6990 -2.4953 0.1736 0 8
-12.5717 6.4973 -2.4953 0.1736 0 8
-12.6747 6.2939 -2.4953 0.1736 0 8
-12.7744 6.0890 -2.4953 0.1736 0 8
-12.8709 5.8824 -2.4953 0.1736 0 8
-12.9640 5.6743 -2.4953 0.1736 0 8
-13.0537 5.4647 -2.4953 0.1736 0 8
-13.1400 5.2537 -2.4953 0.1736 0 8
-13.2229 5.0414 -2.4953 0.1736 0 8
-13.3024 4.8277 -2.4953 0.1736 0 8
-13.3785 4.6128 -2.4953 0.1736 0 8
-13.4511 4.3967 -2.4953 0.1736 0 8
-13.5201 4.1795 -2.4953 0.1736 0 8
-13.5857 3.9611 -2.4953 0.1736 0 8
-13.6477 3.7418 -2.4953 0.1736 0 8
-13.7063 3.5214 -2.4953 0.1736 0 8
-13.7612 3.3002 -2.4953 0.1736 0 8
-13.8126 3.0781 -2.4953 0.1736 0 8
-13.8604 2.8552 -2.4953 0.1736 0 8
-13.9046 2.6315 -2.4953 0.1736 0 8
-13.9451 2.4072 -2.4953 0.1736 0 8
-13.9821 2.1823 -2.4953 0.1736 0 8
-14.0155 1.9567 -2.4953 0.1736 0 8
-14.0452 1.7307 -2.4953 0.1736 0 8
-14.0712 1.5042 -2.4953 0.1736 0 8
-14.0936 1.2774 -2.4953 0.1736 0 8
-14.1124 1.0502 -2.4953 0.1736 0 8
-14.1275 0.8227 -2.4953 0.1736 0 8
-14.1389 0.5950 -2.4953 0.1736 0 8
-14.1466 0.3672 -2.4953 0.1736 0 8
-14.1507 0.1392 -2.4953 0.1736 0 8
-14.1511 -0.0887 -2.4953 0.1736 0 8
-4.0713 13.7278 -2.6477 0.1818 0 7
-4.2919 13.6604 -2.6477 0.1818 0 7
-4.5114 13.5895 -2.6477 0.1818 0 7
-4.7297 13.5151 -2.6477 0.1818 0 7
-4.9468 13.4371 -2.6477 0.1818 0 7
-5.1626 13.3557 -2.6477 0.1818 0 7
-5.3771 13.2708 -2.6477 0.1818 0 7
-5.5902 13.1824 -2.6477 0.1818 0 7
-5.8018 13.0907 -2.6477 0.1818 0 7
-6.0119 12.9955 -2.6477 0.1818 0 7
-6.2205 12.8970 -2.6477 0.1818 0 7
-6.4274 12.7951 -2.6477 0.1818 0 7
-6.6327 12.6899 -2.6477 0.1818 0 7
-6.8363 12.5814 -2.6477 0.1818 0 7
-7.0381 12.4697 -2.6477 0.1818 0 7
-7.2380 12.3547 -2.6477 0.1818 0 7
-7.4361 12.2365 -2.6477 0.1818 0 7
-7.6323 12.1151 -2.6477 0.1818 0 7
-7.8264 11.9906 -2.6477 0.1818 0 7
-8.0186 11.8630 -2.6477 0.1818 0 7
-8.2086 11.7323 -2.6477 0.1818 0 7
-8.3965 11.5985 -2.6477 0.1818 0 7
-8.5822 11.4617 -2.6477 0.1818 0 6
-8.7658 11.3220 -2.6477 0.1818 0 7
-8.9470 11.1793 -2.6477 0.1818 0 7
-9.1260 11.0338 -2.6477 0.1818 0 7
-9.3025 10.8853 -2.6477 0.1818 0 7
-9.4767 10.7340 -2.6477 0.1818 0 7
-9.6484 10.5800 -2.6477 0.1818 0 7
-9.8175 10.4232 -2.6477 0.1818 0 7
-9.9842 10.2637 -2.6477 0.1818 0 7
-10.1482 10.1015 -2.6477 0.1818 0 7
-10.3096 9.9367 -2.6477 0.1818 0 7
-10.4683 9.7694 -2.6477 0.1818 0 7
-10.6243 9.5995 -2.6477 0.1818 0 7
-10.7776 9.4271 -2.6477 0.1818 0 7
-10.9281 9.2523 -2.6477 0.1818 0 7
-11.0757 9.0750 -2.6477 0.1818 0 7
-10.5746 8.3834 -2.4953 0.1818 0 8
-10.7083 8.2120 -2.4953 0.1818 0 8
-10.8392 8.0384 -2.4953 0.1818 0 8
-10.9672 7.8628 -2.4953 0.1818 0 8
-11.0925 7.6851 -2.4953 0.1818 0 8
-11.2148 7.5054 -2.4953 0.1818 0 8
-11.3343 7.3238 -2.4953 0.1818 0 8
-11.4508 7.1402 -2.4953 0.1818 0 8
-11.5643 6.9548 -2.4953 0.1818 0 8
-11.6749 6.7677 -2.4953 0.1818 0 8
-11.7824 6.5787 -2.4953 0.1818 0 8
-11.8868 6.3881 -2.4953 0.1818 0 8
-11.9882 6.1957 -2.4953 0.1818 0 8
-12.0864 6.0018 -2.4953 0.1818 0 8
-12.1815 5.8063 -2.4953 0.1818 0 8
-12.2735 5.6094 -2.4953 0.1818 0 8
-12.3623 5.4109 -2.4953 0.1818 0 8
-12.4478 5.2111 -2.4953 0.1818 0 8
-12.5301 5.0099 -2.4953 0.1818 0 8
-12.6092 4.8074 -2.4953 0.1818 0 8
-12.6850 4.6036 -2.4953 0.1818 0 8
-12.7575 4.3987 -2.4953 0.1818 0 8
-12.8267 4.1926 -2.4953 0.1818 0 8
-12.8926 3.9855 -2.4953 0.1818 0 8
-12.9551 3.7773 -2.4953 0.1818 0 8
-13.0143 3.5681 -2.4953 0.1818 0 8
-13.0701 3.3580 -2.4953 0.1818 0 8
-13.1225 3.1470 -2.4953 0.1818 0 8
-13.1715 2.9352 -2.4953 0.1818 0 8
-13.2171 2.7227 -2.4953 0.1818 0 8
-13.2592 2.5094 -2.4953 0.1818 0 8
-13.2979 2.2955 -2.4953 0.1818 0 8
-13.3332 2.0810 -2.4953 0.1818 0 8
-13.3649 1.8659 -2.4953 0.1818 0 8
-13.3933 1.6504 -2.4953 0.1818 0 8
-13.4181 1.4344 -2.4953 0.1818 0 8
-13.4395 1.2181 -2.4953 0.1818 0 8
-13.4574 1.0014 -2.4953 0.1818 0 8
-13.4718 0.7845 -2.4953 0.1818 0 8
-13.4827 0.5674 -2.4953 0.1818 0 8
-13.4900 0.3501 -2.4953 0.1818 0 8
-13.4939 0.1328 -2.4953 0.1818 0 8
-13.4943 -0.0846 -2.4953 0.1818 0 8
-3.8902 13.1171 -2.6477 0.1900 0 7
-4.1010 13.0527 -2.6477 0.1900 0 7
-4.3107 12.9850 -2.6477 0.1900 0 7
-4.5193 12.9138 -2.6477 0.1900 0 7
-4.7267 12.8394 -2.6477 0.1900 0 7
-4.9330 12.7616 -2.6477 0.1900 0 7
-5.1379 12.6804 -2.6477 0.1900 0 7
-5.3415 12.5960 -2.6477 0.1900 0 7
-5.5437 12.5083 -2.6477 0.1900 0 7
-5.7445 12.4174 -2.6477 0.1900 0 7
-5.9438 12.3233 -2.6477 0.1900 0 7
-6.1415 12.2259 -2.6477 0.1900 0 7
-6.3376 12.1254 -2.6477 0.1900 0 7
-6.5322 12.0217 -2.6477 0.1900 0 7
-6.7250 11.9150 -2.6477 0.1900 0 7
-6.9160 11.8051 -2.6477 0.1900 0 7
-7.1053 11.6921 -2.6477 0.1900 0 7
-7.2927 11.5762 -2.6477 0.1900 0 7
-7.4782 11.4572 -2.6477 0.1900 0 6
-7.6618 11.3352 -2.6477 0.1900 0 7
-7.8434 11.2103 -2.6477 0.1900 0 7
-8.0230 11.0825 -2.6477 0.1900 0 7
