ply
format ascii 1.0
element vertex 1316
property float32 x
property float32 y
property float32 z
property float32 CosAngle
property uint32 ObjIdx
property uint32 ObjTag
end_header
-81.5747 57.9402 -2.4953 0.0249 0 14
-82.4982 56.6174 -2.4953 0.0249 0 14
-83.4004 55.2799 -2.4953 0.0249 0 14
-84.2808 53.9281 -2.4953 0.0249 0 14
-85.1393 52.5622 -2.4953 0.0249 0 14
-85.9757 51.1826 -2.4953 0.0249 0 14
-86.7898 49.7898 -2.4953 0.0249 0 14
-87.5813 48.3840 -2.4953 0.0249 0 14
-88.3501 46.9656 -2.4953 0.0249 0 14
-89.0957 45.5350 -2.4953 0.0249 0 14
-89.8183 44.0926 -2.4953 0.0249 0 14
-90.5175 42.6387 -2.4953 0.0249 0 14
-91.1933 41.1737 -2.4953 0.0249 0 14
-91.8453 39.6980 -2.4953 0.0249 0 14
-92.4734 38.2121 -2.4953 0.0249 0 8
-93.0774 36.7162 -2.4953 0.0249 0 8
-93.6573 35.2107 -2.4953 0.0249 0 8
-94.2129 33.6961 -2.4953 0.0249 0 8
-100.5304 34.1377 -2.6477 0.0249 0 7
-101.0677 32.5124 -2.6477 0.0249 0 7
-101.5788 30.8786 -2.6477 0.0249 0 7
-102.0635 29.2369 -2.6477 0.0249 0 7
-102.5216 27.5875 -2.6477 0.0249 0 7
-102.9531 25.9310 -2.6477 0.0249 0 7
-103.3578 24.2677 -2.6477 0.0249 0 7
-103.7356 22.5981 -2.6477 0.0249 0 7
-104.0865 20.9226 -2.6477 0.0249 0 7
-104.4102 19.2417 -2.6477 0.0249 0 7
-104.7069 17.5557 -2.6477 0.0249 0 7
-104.9764 15.8653 -2.6477 0.0249 0 7
-105.2185 14.1706 -2.6477 0.0249 0 7
-105.4333 12.4724 -2.6477 0.0249 0 7
-105.6207 10.7708 -2.6477 0.0249 0 7
-105.7807 9.0665 -2.6477 0.0249 0 7
-105.9131 7.3598 -2.6477 0.0249 0 7
-106.0180 5.6512 -2.6477 0.0249 0 7
-106.0953 3.9411 -2.6477 0.0249 0 6
-106.1456 2.2301 -2.6477 0.0249 0 7
-106.1672 0.5184 -2.6477 0.0249 0 7
-106.1618 -1.1935 -2.6477 0.0249 0 7
-106.1287 -2.9050 -2.6477 0.0249 0 7
-106.0681 -4.6157 -2.6477 0.0249 0 7
-105.9799 -6.3253 -2.6477 0.0249 0 7
-105.8641 -8.0332 -2.6477 0.0249 0 7
-105.7209 -9.7390 -2.6477 0.0249 0 7
-105.5501 -11.4423 -2.6477 0.0249 0 7
-105.3519 -13.1426 -2.6477 0.0249 0 7
-105.1263 -14.8395 -2.6477 0.0249 0 7
-104.8734 -16.5325 -2.6477 0.0249 0 7
-98.5728 -17.1724 -2.4953 0.0249 0 8
-98.2831 -18.7595 -2.4953 0.0249 0 8
-97.9679 -20.3417 -2.4953 0.0249 0 8
-97.6272 -21.9186 -2.4953 0.0249 0 8
-97.2611 -23.4898 -2.4953 0.0249 0 8
-96.8697 -25.0549 -2.4953 0.0249 0 8
-96.4531 -26.6135 -2.4953 0.0249 0 8
-96.0115 -28.1651 -2.4953 0.0249 0 8
-95.5449 -29.7095 -2.4953 0.0249 0 8
-95.0535 -31.2461 -2.4953 0.0249 0 8
-94.5374 -32.7746 -2.4953 0.0249 0 8
-93.9967 -34.2945 -2.4953 0.0249 0 8
-93.4315 -35.8056 -2.4953 0.0249 0 8
-92.8421 -37.3073 -2.4953 0.0249 0 8
-92.2285 -38.7994 -2.4953 0.0249 0 8
-91.5910 -40.2813 -2.4953 0.0249 0 8
-90.9296 -41.7528 -2.4953 0.0249 0 8
-90.2446 -43.2134 -2.4953 0.0249 0 8
-89.5361 -44.6628 -2.4953 0.0249 0 8
-88.8044 -46.1006 -2.4953 0.0249 0 8
-93.4272 -50.4292 -2.6477 0.0249 0 7
-92.6020 -51.9290 -2.6477 0.0249 0 7
-91.7527 -53.4153 -2.6477 0.0249 0 7
-90.8796 -54.8877 -2.6477 0.0249 0 7
-89.9827 -56.3458 -2.6477 0.0249 0 7
-89.0626 -57.7893 -2.6477 0.0249 0 7
-88.1193 -59.2178 -2.6477 0.0249 0 7
-87.1530 -60.6308 -2.6477 0.0249 0 7
-86.1642 -62.0281 -2.6477 0.0249 0 7
-85.1529 -63.4092 -2.6477 0.0249 0 7
-84.1195 -64.7738 -2.6477 0.0249 0 7
-83.0642 -66.1218 -2.6477 0.0249 0 7
-81.9873 -67.4524 -2.6477 0.0249 0 7
-80.8891 -68.7655 -2.6477 0.0249 0 7
-79.7699 -70.0608 -2.6477 0.0249 0 7
-78.6299 -71.3378 -2.6477 0.0249 0 7
-77.2706 -72.4099 -2.6409 0.0381 0 8
-75.1429 -72.7266 -2.6079 0.7464 0 8
-72.9249 -72.8936 -2.5714 0.7390 0 8
-70.6620 -72.9469 -2.5327 0.7129 0 8
-68.4490 -72.9809 -2.4953 0.0249 0 8
-67.2635 -74.0750 -2.4953 0.0249 0 8
-66.0604 -75.1500 -2.4953 0.0249 0 8
-64.8401 -76.2053 -2.4953 0.0249 0 8
-63.6031 -77.2408 -2.4953 0.0249 0 8
-62.3494 -78.2562 -2.4953 0.0249 0 8
-61.1043 -79.2834 -2.4963 0.0220 0 8
-59.9202 -80.3953 -2.5005 0.0219 0 8
-58.7143 -81.4871 -2.5047 0.0219 0 8
-57.4870 -82.5584 -2.5088 0.0218 0 8
-56.2386 -83.6086 -2.5129 0.0218 0 8
-54.9687 -84.6359 -2.5168 0.0218 0 8
-53.6792 -85.6423 -2.5206 0.0217 0 8
-52.3697 -86.6262 -2.5244 0.0217 0 8
-51.0399 -87.5859 -2.5281 0.0217 0 8
-49.6912 -88.5223 -2.5316 0.0217 0 8
-56.3752 52.1596 -2.5542 0.7293 0 8
-56.3867 50.5075 -2.5175 0.7399 0 8
-56.6883 49.1534 -2.4953 0.0332 0 8
-57.4734 48.2331 -2.4953 0.0332 0 8
-58.2436 47.3001 -2.4953 0.0332 0 8
-58.9986 46.3549 -2.4953 0.0332 0 8
-59.7384 45.3977 -2.4953 0.0332 0 8
-60.4625 44.4286 -2.4953 0.0332 0 8
-61.1710 43.4480 -2.4953 0.0332 0 8
-61.8636 42.4561 -2.4953 0.0332 0 8
-62.5401 41.4531 -2.4953 0.0332 0 8
-63.2003 40.4394 -2.4953 0.0332 0 14
-63.8441 39.4152 -2.4953 0.0332 0 14
-64.4713 38.3806 -2.4953 0.0332 0 8
-65.0817 37.3362 -2.4953 0.0332 0 8
-65.6752 36.2821 -2.4953 0.0332 0 8
-66.2516 35.2184 -2.4953 0.0332 0 8
-66.8109 34.1469 -2.4953 0.0332 0 8
-67.3527 33.0640 -2.4953 0.0332 0 8
-69.4334 32.7069 -2.5525 0.4273 0 8
-72.3576 32.6694 -2.6403 0.0402 0 8
-73.0791 31.5868 -2.6477 0.0332 0 7
-73.5789 30.4045 -2.6477 0.0332 0 7
-74.0595 29.2142 -2.6477 0.0332 0 7
-74.5209 28.0164 -2.6477 0.0332 0 7
-74.9630 26.8112 -2.6477 0.0332 0 7
-75.3855 25.5991 -2.6477 0.0332 0 7
-75.7884 24.3803 -2.6477 0.0332 0 7
-72.0064 21.8890 -2.5029 0.0332 0 14
-72.3500 20.7252 -2.5029 0.0332 0 14
-72.6747 19.5560 -2.5029 0.0332 0 14
-74.4221 18.7449 -2.5523 0.2487 0 8
-77.5056 18.1978 -2.6477 0.0332 0 6
-77.7890 16.9458 -2.6477 0.0332 0 7
-78.0521 15.6894 -2.6477 0.0332 0 7
-78.2949 14.4289 -2.6477 0.0332 0 7
-78.5174 13.1647 -2.6477 0.0332 0 7
-78.7194 11.8970 -2.6477 0.0332 0 7
-78.9010 10.6263 -2.6477 0.0332 0 7
-79.0621 9.3528 -2.6477 0.0332 0 7
-74.6437 7.6119 -2.4953 0.0332 0 8
-74.7567 6.4074 -2.4953 0.0332 0 8
-74.8503 5.2013 -2.4953 0.0332 0 8
-74.9244 3.9938 -2.4953 0.0332 0 8
-74.9791 2.7852 -2.4953 0.0332 0 8
-75.0142 1.5760 -2.4953 0.0332 0 8
-75.0299 0.3663 -2.4953 0.0332 0 8
-75.0261 -0.8435 -2.4953 0.0332 0 8
-75.0027 -2.0530 -2.4953 0.0332 0 8
-74.9598 -3.2620 -2.4953 0.0332 0 8
-74.8975 -4.4701 -2.4953 0.0332 0 8
-74.8157 -5.6772 -2.4953 0.0332 0 8
-74.7144 -6.8827 -2.4953 0.0332 0 8
-74.5938 -8.0864 -2.4953 0.0332 0 8
-74.4537 -9.2881 -2.4953 0.0332 0 8
-74.2942 -10.4873 -2.4953 0.0332 0 8
-74.1155 -11.6838 -2.4953 0.0332 0 8
-73.9175 -12.8772 -2.4953 0.0332 0 8
-73.7003 -14.0673 -2.4953 0.0332 0 8
-73.4639 -15.2538 -2.4953 0.0332 0 8
-73.2084 -16.4362 -2.4953 0.0332 0 8
-72.9339 -17.6145 -2.4953 0.0332 0 8
-72.6404 -18.7881 -2.4953 0.0332 0 8
-72.3280 -19.9569 -2.4953 0.0332 0 8
-71.9969 -21.1204 -2.4953 0.0332 0 8
-71.6470 -22.2785 -2.4953 0.0332 0 8
-71.2785 -23.4307 -2.4953 0.0332 0 8
-70.8914 -24.5769 -2.4953 0.0332 0 8
-70.4860 -25.7167 -2.4953 0.0332 0 8
-70.0622 -26.8498 -2.4953 0.0332 0 8
-69.6202 -27.9759 -2.4953 0.0332 0 8
-69.1600 -29.0948 -2.4953 0.0332 0 8
-68.6820 -30.2060 -2.4953 0.0332 0 8
-68.1860 -31.3095 -2.4953 0.0332 0 8
-67.6724 -32.4048 -2.4953 0.0332 0 8
-67.1411 -33.4917 -2.4953 0.0332 0 8
-66.5924 -34.5698 -2.4953 0.0332 0 8
-66.0264 -35.6390 -2.4953 0.0332 0 8
-65.4432 -36.6990 -2.4953 0.0332 0 8
-64.8429 -37.7493 -2.4953 0.0332 0 8
-64.2259 -38.7899 -2.4953 0.0332 0 8
-63.5921 -39.8204 -2.4953 0.0332 0 8
-62.9418 -40.8405 -2.4953 0.0332 0 8
-62.2752 -41.8500 -2.4953 0.0332 0 8
-61.5923 -42.8487 -2.4953 0.0332 0 8
-60.8935 -43.8361 -2.4953 0.0332 0 8
-60.1788 -44.8122 -2.4953 0.0332 0 8
-59.4485 -45.7766 -2.4953 0.0332 0 8
-58.7026 -46.7292 -2.4953 0.0332 0 8
-57.9417 -47.6696 -2.4953 0.0332 0 8
-57.1655 -48.5976 -2.4953 0.0332 0 8
-57.8431 -50.8028 -2.5603 0.2399 0 8
-58.9628 -53.4946 -2.6477 0.0332 0 7
-58.0926 -54.4383 -2.6477 0.0332 0 7
-57.2074 -55.3678 -2.6477 0.0332 0 7
-56.3072 -56.2830 -2.6477 0.0332 0 7
-55.3924 -57.1836 -2.6477 0.0332 0 7
-54.4633 -58.0692 -2.6477 0.0332 0 7
-53.5200 -58.9398 -2.6477 0.0332 0 7
-52.5627 -59.7950 -2.6477 0.0332 0 7
-51.5918 -60.6348 -2.6477 0.0332 0 7
-50.6075 -61.4587 -2.6477 0.0332 0 7
-49.6100 -62.2667 -2.6477 0.0332 0 7
-48.5996 -63.0584 -2.6477 0.0332 0 7
-47.5766 -63.8338 -2.6477 0.0332 0 7
-46.5412 -64.5926 -2.6477 0.0332 0 7
-45.4937 -65.3346 -2.6477 0.0332 0 7
-44.4344 -66.0596 -2.6477 0.0332 0 7
-43.3636 -66.7674 -2.6477 0.0332 0 7
-42.2815 -67.4578 -2.6477 0.0332 0 7
-41.1883 -68.1308 -2.6477 0.0332 0 7
-40.0845 -68.7860 -2.6477 0.0332 0 7
-38.9702 -69.4234 -2.6477 0.0332 0 7
-46.7405 43.2453 -2.6477 0.0415 0 7
-47.4316 42.4861 -2.6477 0.0415 0 7
-48.1105 41.7158 -2.6477 0.0415 0 7
-48.7768 40.9347 -2.6477 0.0415 0 7
-49.4305 40.1429 -2.6477 0.0415 0 7
-50.0713 39.3408 -2.6477 0.0415 0 7
-50.6991 38.5283 -2.6477 0.0415 0 7
-51.3137 37.7059 -2.6477 0.0415 0 7
-51.9149 36.8737 -2.6477 0.0415 0 6
-52.5027 36.0319 -2.6477 0.0415 0 7
-53.0768 35.1807 -2.6477 0.0415 0 7
-53.6372 34.3203 -2.6477 0.0415 0 7
-54.1835 33.4511 -2.6477 0.0415 0 7
-54.7158 32.5731 -2.6477 0.0415 0 7
-55.2339 31.6867 -2.6477 0.0415 0 7
-55.7376 30.7921 -2.6477 0.0415 0 7
-56.2268 29.8894 -2.6477 0.0415 0 7
-56.7014 28.9789 -2.6477 0.0415 0 7
-57.1613 28.0611 -2.6477 0.0415 0 6
-57.6063 27.1357 -2.6477 0.0415 0 7
-58.0363 26.2034 -2.6477 0.0415 0 7
-58.4512 25.2642 -2.6477 0.0415 0 7
-58.8510 24.3186 -2.6477 0.0415 0 7
-59.2354 23.3666 -2.6477 0.0415 0 7
-59.6045 22.4085 -2.6477 0.0415 0 7
-59.9580 21.4445 -2.6477 0.0415 0 7
-60.2960 20.4750 -2.6477 0.0415 0 7
-60.6182 19.5002 -2.6477 0.0415 0 7
-60.9248 18.5203 -2.6477 0.0415 0 7
-61.2155 17.5356 -2.6477 0.0415 0 7
-61.4902 16.5464 -2.6477 0.0415 0 7
-61.7490 15.5528 -2.6477 0.0415 0 7
-61.9917 14.5552 -2.6477 0.0415 0 7
-62.2184 13.5538 -2.6477 0.0415 0 7
-62.4288 12.5489 -2.6477 0.0415 0 7
-62.6230 11.5408 -2.6477 0.0415 0 7
-62.8009 10.5295 -2.6477 0.0415 0 7
-62.9625 9.5156 -2.6477 0.0415 0 7
-63.1078 8.4993 -2.6477 0.0415 0 7
-61.8602 7.3179 -2.5900 0.3507 0 8
-60.0508 6.1238 -2.5098 0.5556 0 8
-59.7930 5.1249 -2.4953 0.0415 0 8
-59.8679 4.1602 -2.4953 0.0415 0 8
-59.9272 3.1943 -2.4953 0.0415 0 8
-59.9709 2.2278 -2.4953 0.0415 0 8
-59.9989 1.2606 -2.4953 0.0415 0 8
-60.0115 0.2930 -2.4953 0.0415 0 8
-60.0085 -0.6747 -2.4953 0.0415 0 8
-59.9898 -1.6421 -2.4953 0.0415 0 8
-59.9555 -2.6091 -2.4953 0.0415 0 8
-59.9057 -3.5754 -2.4953 0.0415 0 8
-59.8402 -4.5408 -2.4953 0.0415 0 8
-59.7592 -5.5050 -2.4953 0.0415 0 8
-59.6627 -6.4678 -2.4953 0.0415 0 8
-59.5507 -7.4289 -2.4953 0.0415 0 8
-59.4232 -8.3881 -2.4953 0.0415 0 8
-59.2802 -9.3451 -2.4953 0.0415 0 8
-59.1218 -10.2996 -2.4953 0.0415 0 8
-58.9481 -11.2515 -2.4953 0.0415 0 8
-58.7590 -12.2005 -2.4953 0.0415 0 8
-58.5547 -13.1463 -2.4953 0.0415 0 8
-58.3351 -14.0887 -2.4953 0.0415 0 8
-58.1003 -15.0274 -2.4953 0.0415 0 8
-57.8505 -15.9622 -2.4953 0.0415 0 8
-57.5856 -16.8928 -2.4953 0.0415 0 8
-57.3058 -17.8191 -2.4953 0.0415 0 8
-57.0110 -18.7407 -2.4953 0.0415 0 8
-56.7065 -19.6592 -2.4955 0.6985 0 8
-56.5398 -20.6284 -2.5025 0.6950 0 8
-56.5289 -21.6635 -2.5171 0.9276 0 8
-56.5182 -22.7111 -2.5326 0.9219 0 8
-56.5071 -23.7719 -2.5490 0.9160 0 8
-56.4958 -24.8466 -2.5662 0.9098 0 8
-56.4842 -25.9363 -2.5843 0.9034 0 8
-56.4724 -27.0417 -2.6034 0.8968 0 8
-56.4602 -28.1637 -2.6234 0.8900 0 8
-56.3787 -29.2676 -2.6412 0.0566 0 8
-56.0241 -30.2401 -2.6471 0.0565 0 8
-55.5407 -31.1459 -2.6477 0.0415 0 7
-55.0313 -32.0373 -2.6477 0.0415 0 7
-54.5076 -32.9204 -2.6477 0.0415 0 7
-53.9697 -33.7950 -2.6477 0.0415 0 6
-53.4178 -34.6608 -2.6477 0.0415 0 7
-52.8520 -35.5175 -2.6477 0.0415 0 7
-52.2725 -36.3650 -2.6477 0.0415 0 7
-51.6794 -37.2031 -2.6477 0.0415 0 7
-51.0729 -38.0315 -2.6477 0.0415 0 7
-50.4531 -38.8500 -2.6477 0.0415 0 6
-49.8201 -39.6584 -2.6477 0.0415 0 7
-49.1742 -40.4565 -2.6477 0.0415 0 7
-48.5155 -41.2441 -2.6477 0.0415 0 7
-47.8443 -42.0209 -2.6477 0.0415 0 7
-47.1605 -42.7869 -2.6477 0.0415 0 7
-46.4645 -43.5417 -2.6477 0.0415 0 7
-45.7565 -44.2851 -2.6477 0.0415 0 7
-45.0366 -45.0171 -2.6477 0.0415 0 6
-44.3048 -45.7374 -2.6477 0.0415 0 7
-43.5616 -46.4458 -2.6477 0.0415 0 7
-42.8072 -47.1421 -2.6477 0.0415 0 6
-42.0415 -47.8262 -2.6477 0.0415 0 7
-41.2649 -48.4978 -2.6477 0.0415 0 7
-40.4776 -49.1568 -2.6477 0.0415 0 7
-39.6798 -49.8031 -2.6477 0.0415 0 7
-36.6342 -47.5332 -2.4953 0.0415 0 8
-35.8630 -48.1177 -2.4953 0.0415 0 8
-35.0826 -48.6897 -2.4953 0.0415 0 8
-34.2930 -49.2490 -2.4953 0.0415 0 8
-33.4945 -49.7955 -2.4953 0.0415 0 8
-32.6873 -50.3290 -2.4953 0.0415 0 8
-31.8716 -50.8495 -2.4953 0.0415 0 8
-31.0476 -51.3568 -2.4953 0.0415 0 8
-30.2155 -51.8507 -2.4953 0.0415 0 8
-29.3756 -52.3311 -2.4953 0.0415 0 8
-38.9405 36.0286 -2.6477 0.0498 0 6
-39.5163 35.3961 -2.6477 0.0498 0 7
-40.0819 34.7543 -2.6477 0.0498 0 7
-40.6370 34.1036 -2.6477 0.0498 0 7
-41.1816 33.4439 -2.6477 0.0498 0 7
-41.7154 32.7756 -2.6477 0.0498 0 7
-42.2385 32.0988 -2.6477 0.0498 0 7
-42.7505 31.4136 -2.6477 0.0498 0 7
-43.2514 30.7203 -2.6477 0.0498 0 7
-43.7411 30.0189 -2.6477 0.0498 0 7
-44.2194 29.3098 -2.6477 0.0498 0 7
-44.6862 28.5930 -2.6477 0.0498 0 7
-45.1414 27.8688 -2.6477 0.0498 0 7
-45.5849 27.1373 -2.6477 0.0498 0 6
-46.0165 26.3989 -2.6477 0.0498 0 7
-46.4362 25.6535 -2.6477 0.0498 0 7
-46.8437 24.9015 -2.6477 0.0498 0 7
-47.2392 24.1429 -2.6477 0.0498 0 7
-47.6223 23.3782 -2.6477 0.0498 0 7
-47.9930 22.6073 -2.6477 0.0498 0 7
-48.3513 21.8306 -2.6477 0.0498 0 7
-48.6970 21.0482 -2.6477 0.0498 0 6
-49.0300 20.2604 -2.6477 0.0498 0 6
-49.3503 19.4672 -2.6477 0.0498 0 7
-49.6577 18.6690 -2.6477 0.0498 0 7
-49.9523 17.8659 -2.6477 0.0498 0 7
-50.2338 17.0582 -2.6477 0.0498 0 6
-50.5023 16.2461 -2.6477 0.0498 0 7
-50.7577 15.4297 -2.6477 0.0498 0 7
-50.9999 14.6093 -2.6477 0.0498 0 6
-51.2288 13.7851 -2.6477 0.0498 0 7
-51.4444 12.9574 -2.6477 0.0498 0 7
-51.6466 12.1263 -2.6477 0.0498 0 7
-51.8354 11.2920 -2.6477 0.0498 0 7
-52.0107 10.4548 -2.6477 0.0498 0 7
-52.1725 9.6148 -2.6477 0.0498 0 7
-52.3208 8.7724 -2.6477 0.0498 0 7
-52.4554 7.9277 -2.6477 0.0498 0 7
-52.5764 7.0809 -2.6477 0.0498 0 7
-52.6838 6.2323 -2.6477 0.0498 0 7
-52.7774 5.3821 -2.6477 0.0498 0 7
-52.8573 4.5304 -2.6477 0.0498 0 7
-52.9235 3.6776 -2.6477 0.0498 0 6
-52.9759 2.8238 -2.6477 0.0498 0 6
-53.0145 1.9693 -2.6477 0.0498 0 6
-53.0394 1.1143 -2.6477 0.0498 0 7
-53.0505 0.2590 -2.6477 0.0498 0 7
-53.0477 -0.5964 -2.6477 0.0498 0 7
-53.0312 -1.4516 -2.6477 0.0498 0 7
-53.0009 -2.3064 -2.6477 0.0498 0 7
-52.9569 -3.1606 -2.6477 0.0498 0 7
-52.8990 -4.0141 -2.6477 0.0498 0 7
-52.8274 -4.8665 -2.6477 0.0498 0 7
-52.7421 -5.7176 -2.6477 0.0498 0 7
-52.6431 -6.5672 -2.6477 0.0498 0 7
-52.5303 -7.4151 -2.6477 0.0498 0 7
-52.4040 -8.2611 -2.6477 0.0498 0 7
-52.2639 -9.1049 -2.6477 0.0498 0 7
-52.1104 -9.9464 -2.6477 0.0498 0 7
-51.9432 -10.7853 -2.6477 0.0498 0 7
-51.7626 -11.6214 -2.6477 0.0498 0 7
-51.5685 -12.4544 -2.6477 0.0498 0 7
-51.3609 -13.2843 -2.6477 0.0498 0 7
-51.1401 -14.1107 -2.6477 0.0498 0 7
-50.9059 -14.9333 -2.6477 0.0498 0 7
-50.6585 -15.7522 -2.6477 0.0498 0 7
-50.3980 -16.5669 -2.6477 0.0498 0 7
-50.1243 -17.3773 -2.6477 0.0498 0 7
-49.8376 -18.1832 -2.6477 0.0498 0 7
-49.5380 -18.9844 -2.6477 0.0498 0 7
-49.2255 -19.7806 -2.6477 0.0498 0 7
-48.9002 -20.5717 -2.6477 0.0498 0 7
-48.5621 -21.3574 -2.6477 0.0498 0 7
-48.2115 -22.1376 -2.6477 0.0498 0 7
-47.8483 -22.9121 -2.6477 0.0498 0 7
-47.4726 -23.6805 -2.6477 0.0498 0 7
-47.0847 -24.4428 -2.6477 0.0498 0 7
-46.6844 -25.1989 -2.6477 0.0498 0 7
-46.2721 -25.9483 -2.6477 0.0498 0 7
-45.8477 -26.6910 -2.6477 0.0498 0 7
-45.4114 -27.4267 -2.6477 0.0498 0 7
-44.9633 -28.1553 -2.6477 0.0498 0 7
-44.5035 -28.8766 -2.6477 0.0498 0 7
-44.0321 -29.5904 -2.6477 0.0498 0 7
-43.5493 -30.2966 -2.6477 0.0498 0 6
-43.0552 -30.9947 -2.6477 0.0498 0 7
-42.5499 -31.6848 -2.6477 0.0498 0 7
-42.0335 -32.3667 -2.6477 0.0498 0 7
-41.5062 -33.0402 -2.6477 0.0498 0 7
-40.9681 -33.7051 -2.6477 0.0498 0 7
-40.4193 -34.3613 -2.6477 0.0498 0 7
-39.8600 -35.0085 -2.6477 0.0498 0 7
-37.0288 -33.5948 -2.4953 0.0498 0 8
-36.4824 -34.1875 -2.4953 0.0498 0 8
-35.9265 -34.7712 -2.4953 0.0498 0 8
-35.3611 -35.3460 -2.4953 0.0498 0 8
-34.7867 -35.9115 -2.4953 0.0498 0 8
-34.2031 -36.4677 -2.4953 0.0498 0 8
-33.6107 -37.0144 -2.4953 0.0498 0 8
-33.0096 -37.5515 -2.4953 0.0498 0 8
-32.3998 -38.0789 -2.4953 0.0498 0 8
-31.7817 -38.5963 -2.4953 0.0498 0 8
-31.1552 -39.1036 -2.4953 0.0498 0 8
-30.5207 -39.6009 -2.4953 0.0498 0 8
-29.8783 -40.0879 -2.4953 0.0498 0 8
-29.2280 -40.5644 -2.4953 0.0498 0 8
-28.5702 -41.0304 -2.4953 0.0498 0 8
-27.9050 -41.4857 -2.4953 0.0498 0 8
-27.2325 -41.9302 -2.4953 0.0498 0 8
-26.5529 -42.3638 -2.4953 0.0498 0 8
-25.8664 -42.7864 -2.4953 0.0498 0 8
-25.1732 -43.1979 -2.4953 0.0498 0 8
-24.4735 -43.5981 -2.4953 0.0498 0 8
-33.3676 30.8724 -2.6477 0.0581 0 7
-33.8610 30.3304 -2.6477 0.0581 0 7
-34.3456 29.7805 -2.6477 0.0581 0 7
-34.8213 29.2229 -2.6477 0.0581 0 7
-35.2880 28.6577 -2.6477 0.0581 0 7
-35.7454 28.0850 -2.6477 0.0581 0 7
-36.1936 27.5050 -2.6477 0.0581 0 7
-36.6323 26.9179 -2.6477 0.0581 0 7
-37.0616 26.3238 -2.6477 0.0581 0 7
-37.4812 25.7228 -2.6477 0.0581 0 7
-37.8910 25.1151 -2.6477 0.0581 0 6
-38.2910 24.5010 -2.6477 0.0581 0 7
-38.6811 23.8804 -2.6477 0.0581 0 7
-39.0611 23.2536 -2.6477 0.0581 0 7
-39.4309 22.6208 -2.6477 0.0581 0 7
-39.7905 21.9822 -2.6477 0.0581 0 7
-40.1398 21.3377 -2.6477 0.0581 0 7
-40.4786 20.6878 -2.6477 0.0581 0 7
-40.8069 20.0324 -2.6477 0.0581 0 7
-41.1246 19.3719 -2.6477 0.0581 0 7
-41.4316 18.7063 -2.6477 0.0581 0 7
-41.7278 18.0359 -2.6477 0.0581 0 7
-42.0131 17.3608 -2.6477 0.0581 0 7
-42.2876 16.6812 -2.6477 0.0581 0 7
-42.5511 15.9972 -2.6477 0.0581 0 7
-42.8035 15.3090 -2.6477 0.0581 0 7
-43.0447 14.6170 -2.6477 0.0581 0 6
-43.2748 13.9210 -2.6477 0.0581 0 7
-43.4936 13.2215 -2.6477 0.0581 0 7
-43.7011 12.5185 -2.6477 0.0581 0 7
-43.8973 11.8123 -2.6477 0.0581 0 7
-44.0820 11.1030 -2.6477 0.0581 0 7
-44.2553 10.3908 -2.6477 0.0581 0 7
-44.4171 9.6760 -2.6477 0.0581 0 7
-44.5673 8.9586 -2.6477 0.0581 0 7
-44.7060 8.2388 -2.6477 0.0581 0 7
-44.8330 7.5169 -2.6477 0.0581 0 7
-44.9484 6.7931 -2.6477 0.0581 0 7
-45.0520 6.0675 -2.6477 0.0581 0 7
-45.1440 5.3404 -2.6477 0.0581 0 7
-45.2243 4.6118 -2.6477 0.0581 0 7
-45.2927 3.8821 -2.6477 0.0581 0 7
-45.3494 3.1513 -2.6477 0.0581 0 7
-45.3944 2.4197 -2.6477 0.0581 0 7
-45.4275 1.6875 -2.6477 0.0581 0 7
-45.4488 0.9549 -2.6477 0.0581 0 7
-45.4582 0.2219 -2.6477 0.0581 0 7
-45.4559 -0.5110 -2.6477 0.0581 0 7
-45.4418 -1.2439 -2.6477 0.0581 0 7
-45.4158 -1.9763 -2.6477 0.0581 0 7
-45.3780 -2.7083 -2.6477 0.0581 0 7
-45.3285 -3.4396 -2.6477 0.0581 0 7
-45.2671 -4.1700 -2.6477 0.0581 0 7
-45.1940 -4.8993 -2.6477 0.0581 0 7
-45.1091 -5.6274 -2.6477 0.0581 0 7
-45.0126 -6.3539 -2.6477 0.0581 0 7
-44.9042 -7.0788 -2.6477 0.0581 0 7
-44.7843 -7.8019 -2.6477 0.0581 0 7
-44.6527 -8.5230 -2.6477 0.0581 0 7
-44.5095 -9.2418 -2.6477 0.0581 0 7
-44.3547 -9.9582 -2.6477 0.0581 0 7
-44.1883 -10.6721 -2.6477 0.0581 0 7
-44.0105 -11.3831 -2.6477 0.0581 0 7
-43.8213 -12.0912 -2.6477 0.0581 0 7
-43.6206 -12.7962 -2.6477 0.0581 0 6
-43.4086 -13.4978 -2.6477 0.0581 0 7
-43.1854 -14.1959 -2.6477 0.0581 0 7
-42.9509 -14.8904 -2.6477 0.0581 0 7
-42.7052 -15.5809 -2.6477 0.0581 0 7
-42.4485 -16.2675 -2.6477 0.0581 0 7
-42.1807 -16.9497 -2.6477 0.0581 0 7
-41.9019 -17.6276 -2.6477 0.0581 0 7
-41.6123 -18.3009 -2.6477 0.0581 0 7
-41.3118 -18.9694 -2.6477 0.0581 0 7
-41.0005 -19.6330 -2.6477 0.0581 0 7
-40.6787 -20.2915 -2.6477 0.0581 0 7
-40.3462 -20.9448 -2.6477 0.0581 0 7
-40.0033 -21.5926 -2.6477 0.0581 0 6
-37.3677 -20.9549 -2.4953 0.0581 0 8
-37.0250 -21.5547 -2.4953 0.0581 0 8
-36.6726 -22.1488 -2.4953 0.0581 0 8
-36.3107 -22.7373 -2.4953 0.0581 0 8
-35.9394 -23.3197 -2.4953 0.0581 0 8
-35.5588 -23.8962 -2.4953 0.0581 0 8
-35.1689 -24.4663 -2.4953 0.0581 0 8
-34.7698 -25.0302 -2.4953 0.0581 0 8
-34.3618 -25.5875 -2.4953 0.0581 0 8
-33.9448 -26.1382 -2.4953 0.0581 0 8
-33.5189 -26.6821 -2.4953 0.0581 0 8
-33.0844 -27.2191 -2.4953 0.0581 0 8
-32.6412 -27.7490 -2.4953 0.0581 0 8
-32.1896 -28.2716 -2.4953 0.0581 0 8
-31.7295 -28.7870 -2.4953 0.0581 0 8
-31.2613 -29.2950 -2.4953 0.0581 0 8
-30.7849 -29.7950 -2.4953 0.0581 0 8
-30.3005 -30.2875 -2.4953 0.0581 0 8
-29.8082 -30.7721 -2.4953 0.0581 0 8
-29.3082 -31.2487 -2.4953 0.0581 0 8
-28.8006 -31.7171 -2.4953 0.0581 0 8
-28.2855 -32.1774 -2.4953 0.0581 0 8
-27.7630 -32.6293 -2.4953 0.0581 0 8
-27.2333 -33.0726 -2.4953 0.0581 0 8
-26.6965 -33.5074 -2.4953 0.0581 0 8
-26.1528 -33.9335 -2.4953 0.0581 0 8
-25.6023 -34.3508 -2.4953 0.0581 0 8
-25.0451 -34.7591 -2.4953 0.0581 0 8
-24.4814 -35.1584 -2.4953 0.0581 0 8
-23.9114 -35.5485 -2.4953 0.0581 0 8
-23.3352 -35.9294 -2.4953 0.0581 0 8
-22.7528 -36.3010 -2.4953 0.0581 0 8
-22.1646 -36.6631 -2.4953 0.0581 0 8
-21.5706 -37.0157 -2.4953 0.0581 0 8
-20.9710 -37.3587 -2.4953 0.0581 0 8
-29.1865 27.0040 -2.6477 0.0664 0 7
-29.6181 26.5299 -2.6477 0.0664 0 7
-30.0420 26.0489 -2.6477 0.0664 0 7
-30.4581 25.5612 -2.6477 0.0664 0 7
-30.8663 25.0668 -2.6477 0.0664 0 7
-31.2664 24.5659 -2.6477 0.0664 0 7
-31.6584 24.0585 -2.6477 0.0664 0 7
-30.2900 22.2575 -2.5029 0.0664 0 8
-30.6450 21.7662 -2.5029 0.0664 0 14
-30.9919 21.2693 -2.5029 0.0664 0 14
-31.3308 20.7669 -2.5029 0.0664 0 14
-31.6616 20.2590 -2.5029 0.0664 0 14
-31.9841 19.7460 -2.5029 0.0664 0 14
-34.1666 20.3399 -2.6477 0.0664 0 7
-34.4901 19.7864 -2.6477 0.0664 0 7
-34.8046 19.2277 -2.6477 0.0664 0 7
-35.1101 18.6641 -2.6477 0.0664 0 7
-35.4065 18.0955 -2.6477 0.0664 0 7
-35.6936 17.5223 -2.6477 0.0664 0 7
-35.9715 16.9445 -2.6477 0.0664 0 7
-36.2401 16.3624 -2.6477 0.0664 0 7
-36.4991 15.7759 -2.6477 0.0664 0 7
-36.7487 15.1854 -2.6477 0.0664 0 7
-36.9888 14.5910 -2.6477 0.0664 0 6
-37.2192 13.9927 -2.6477 0.0664 0 7
-37.4400 13.3908 -2.6477 0.0664 0 7
-37.6511 12.7854 -2.6477 0.0664 0 7
-37.8523 12.1767 -2.6477 0.0664 0 7
-38.0437 11.5648 -2.6477 0.0664 0 7
-38.2252 10.9499 -2.6477 0.0664 0 7
-38.3968 10.3322 -2.6477 0.0664 0 7
-38.5584 9.7118 -2.6477 0.0664 0 7
-38.7100 9.0888 -2.6477 0.0664 0 7
-38.8515 8.4635 -2.6477 0.0664 0 7
-38.9829 7.8360 -2.6477 0.0664 0 7
-39.1042 7.2065 -2.6477 0.0664 0 7
-39.2153 6.5750 -2.6477 0.0664 0 7
-39.3162 5.9419 -2.6477 0.0664 0 7
-39.4069 5.3072 -2.6477 0.0664 0 7
-39.4873 4.6712 -2.6477 0.0664 0 7
-39.5575 4.0339 -2.6477 0.0664 0 6
-39.6174 3.3956 -2.6477 0.0664 0 6
-39.6670 2.7564 -2.6477 0.0664 0 6
-39.7063 2.1165 -2.6477 0.0664 0 6
-37.4481 1.3911 -2.4953 0.0664 0 8
-37.4656 0.7871 -2.4953 0.0664 0 8
-37.4735 0.1829 -2.4953 0.0664 0 8
-37.4715 -0.4213 -2.4953 0.0664 0 8
-37.4599 -1.0254 -2.4953 0.0664 0 8
-37.4411 -1.6293 -2.4954 0.7517 0 8
-37.4073 -2.2326 -2.4953 0.0664 0 8
-37.3665 -2.8354 -2.4953 0.0664 0 8
-37.3159 -3.4375 -2.4953 0.0664 0 8
-37.2556 -4.0387 -2.4953 0.0664 0 8
-37.1857 -4.6389 -2.4953 0.0664 0 8
-37.1060 -5.2378 -2.4953 0.0664 0 8
-37.0168 -5.8354 -2.4953 0.0664 0 8
-36.9179 -6.4315 -2.4953 0.0664 0 8
-36.8094 -7.0259 -2.4953 0.0664 0 8
-36.6913 -7.6184 -2.4953 0.0664 0 8
-36.5637 -8.2090 -2.4953 0.0664 0 8
-36.4266 -8.7975 -2.4953 0.0664 0 8
-36.2800 -9.3837 -2.4953 0.0664 0 8
-36.1240 -9.9674 -2.4953 0.0664 0 8
-35.9586 -10.5485 -2.4953 0.0664 0 8
-35.7839 -11.1269 -2.4953 0.0664 0 8
-35.5998 -11.7024 -2.4953 0.0664 0 8
-35.4065 -12.2749 -2.4953 0.0664 0 8
-35.2040 -12.8441 -2.4953 0.0664 0 8
-34.9923 -13.4101 -2.4953 0.0664 0 8
-34.7716 -13.9725 -2.4953 0.0664 0 8
-34.5418 -14.5313 -2.4953 0.0664 0 8
-34.3030 -15.0863 -2.4953 0.0664 0 8
-34.0553 -15.6374 -2.4953 0.0664 0 8
-33.7988 -16.1845 -2.4953 0.0664 0 8
-33.5334 -16.7273 -2.4953 0.0664 0 8
-33.2594 -17.2658 -2.4953 0.0664 0 8
-32.9767 -17.7998 -2.4953 0.0664 0 8
-32.6854 -18.3292 -2.4953 0.0664 0 8
-32.3856 -18.8538 -2.4953 0.0664 0 8
-32.0774 -19.3735 -2.4953 0.0664 0 8
-31.7609 -19.8882 -2.4953 0.0664 0 8
-31.4361 -20.3977 -2.4953 0.0664 0 8
-31.1031 -20.9018 -2.4953 0.0664 0 8
-30.7621 -21.4006 -2.4953 0.0664 0 8
-30.4131 -21.8938 -2.4953 0.0664 0 8
-30.0561 -22.3813 -2.4953 0.0664 0 8
-29.6914 -22.8630 -2.4953 0.0664 0 8
-29.3189 -23.3388 -2.4953 0.0664 0 8
-28.9388 -23.8084 -2.4953 0.0664 0 8
-28.5511 -24.2719 -2.4953 0.0664 0 8
-28.1561 -24.7291 -2.4953 0.0664 0 8
-27.7537 -25.1799 -2.4953 0.0664 0 8
-27.3441 -25.6240 -2.4953 0.0664 0 8
-26.9275 -26.0616 -2.4953 0.0664 0 8
-26.5037 -26.4924 -2.4953 0.0664 0 8
-26.0732 -26.9162 -2.4953 0.0664 0 8
-25.6358 -27.3331 -2.4953 0.0664 0 8
-25.1918 -27.7429 -2.4953 0.0664 0 8
-24.7412 -28.1455 -2.4953 0.0664 0 8
-24.2842 -28.5407 -2.4953 0.0664 0 8
-23.8209 -28.9285 -2.4953 0.0664 0 8
-23.3514 -29.3088 -2.4953 0.0664 0 8
-22.8758 -29.6815 -2.4953 0.0664 0 8
-22.3942 -30.0465 -2.4953 0.0664 0 8
-21.9069 -30.4036 -2.4953 0.0664 0 8
-21.4138 -30.7529 -2.4953 0.0664 0 8
-20.9152 -31.0942 -2.4953 0.0664 0 8
-20.4112 -31.4273 -2.4953 0.0664 0 8
-19.9018 -31.7523 -2.4953 0.0664 0 8
-19.3873 -32.0691 -2.4953 0.0664 0 8
-18.8677 -32.3775 -2.4953 0.0664 0 8
-18.3432 -32.6775 -2.4953 0.0664 0 8
-25.9334 23.9942 -2.6477 0.0747 0 7
-24.8778 22.2839 -2.5029 0.0747 0 8
-25.2339 21.8799 -2.5029 0.0747 0 14
-25.5834 21.4702 -2.5029 0.0747 0 14
-25.9262 21.0549 -2.5029 0.0747 0 14
-26.2623 20.6342 -2.5029 0.0747 0 14
-26.5916 20.2081 -2.5029 0.0747 0 14
-26.9139 19.7767 -2.5029 0.0747 0 14
-27.2293 19.3402 -2.5029 0.0747 0 14
-27.5376 18.8987 -2.5029 0.0747 0 8
-28.4708 18.8712 -2.5597 0.5576 0 8
-29.4703 18.8569 -2.6219 0.5444 0 8
-30.0631 18.5599 -2.6477 0.0747 0 7
-30.3584 18.0728 -2.6477 0.0747 0 7
-30.6459 17.5810 -2.6477 0.0747 0 6
-30.9254 17.0846 -2.6477 0.0747 0 6
-31.1968 16.5838 -2.6477 0.0747 0 7
-31.4601 16.0786 -2.6477 0.0747 0 7
-31.7153 15.5693 -2.6477 0.0747 0 7
-31.9622 15.0559 -2.6477 0.0747 0 7
-32.2008 14.5386 -2.6477 0.0747 0 7
-32.4310 14.0176 -2.6477 0.0747 0 7
-32.6528 13.4929 -2.6477 0.0747 0 7
-32.8661 12.9647 -2.6477 0.0747 0 7
-33.0708 12.4331 -2.6477 0.0747 0 7
-33.2670 11.8982 -2.6477 0.0747 0 7
-33.4545 11.3603 -2.6477 0.0747 0 7
-33.6334 10.8195 -2.6477 0.0747 0 7
-33.8034 10.2758 -2.6477 0.0747 0 7
-33.9647 9.7294 -2.6477 0.0747 0 7
-34.1171 9.1806 -2.6477 0.0747 0 7
-34.2607 8.6293 -2.6477 0.0747 0 7
-32.4156 7.6109 -2.4953 0.0747 0 8
-32.5341 7.0873 -2.4953 0.0747 0 8
-32.6441 6.5618 -2.4953 0.0747 0 8
-32.7457 6.0347 -2.4953 0.0747 0 8
-32.8387 5.5059 -2.4953 0.0747 0 8
-32.9232 4.9757 -2.4953 0.0747 0 8
-32.9992 4.4443 -2.4953 0.0747 0 8
-33.0665 3.9117 -2.4953 0.0747 0 8
-33.1253 3.3780 -2.4953 0.0747 0 8
-33.1755 2.8435 -2.4953 0.0747 0 8
-33.2170 2.3082 -2.4953 0.0747 0 8
-33.2499 1.7723 -2.4953 0.0747 0 8
-33.2741 1.2360 -2.4953 0.0747 0 8
-33.2898 0.6994 -2.4953 0.0747 0 8
-33.2967 0.1626 -2.4953 0.0747 0 8
-33.2950 -0.3743 -2.4953 0.0747 0 8
-33.2846 -0.9111 -2.4953 0.0747 0 8
-33.2656 -1.4476 -2.4953 0.0747 0 8
-33.2379 -1.9838 -2.4953 0.0747 0 8
-33.2016 -2.5194 -2.4953 0.0747 0 8
-33.1567 -3.0544 -2.4953 0.0747 0 8
-33.1032 -3.5886 -2.4953 0.0747 0 8
-33.0410 -4.1219 -2.4953 0.0747 0 8
-32.9702 -4.6540 -2.4953 0.0747 0 8
-32.8909 -5.1850 -2.4953 0.0747 0 8
-32.8030 -5.7146 -2.4953 0.0747 0 8
-32.7066 -6.2428 -2.4953 0.0747 0 8
-32.6018 -6.7693 -2.4953 0.0747 0 8
-32.4884 -7.2941 -2.4953 0.0747 0 8
-32.3665 -7.8169 -2.4953 0.0747 0 8
-32.2363 -8.3378 -2.4953 0.0747 0 8
-32.0977 -8.8564 -2.4953 0.0747 0 8
-31.9507 -9.3728 -2.4953 0.0747 0 8
-31.7954 -9.8867 -2.4953 0.0747 0 8
-31.6319 -10.3981 -2.4953 0.0747 0 8
-31.4601 -10.9066 -2.4953 0.0747 0 8
-31.2802 -11.4118 -2.4953 0.0747 0 8
-31.0921 -11.9159 -2.4953 0.0747 0 8
-30.8960 -12.4151 -2.4953 0.0747 0 8
-30.6918 -12.9116 -2.4953 0.0747 0 8
-30.4796 -13.4048 -2.4953 0.0747 0 8
-30.2595 -13.8945 -2.4953 0.0747 0 8
-30.0316 -14.3806 -2.4953 0.0747 0 8
-29.7958 -14.8629 -2.4953 0.0747 0 8
-29.5523 -15.3414 -2.4953 0.0747 0 8
-29.3011 -15.8159 -2.4953 0.0747 0 8
-29.0423 -16.2862 -2.4953 0.0747 0 8
-28.7759 -16.7524 -2.4953 0.0747 0 8
-28.5021 -17.2142 -2.4953 0.0747 0 8
-28.2208 -17.6715 -2.4953 0.0747 0 8
-27.9323 -18.1242 -2.4953 0.0747 0 8
-27.6364 -18.5722 -2.4953 0.0747 0 8
-27.3334 -19.0153 -2.4953 0.0747 0 8
-27.0232 -19.4536 -2.4953 0.0747 0 8
-26.7061 -19.8867 -2.4953 0.0747 0 8
-26.3820 -20.3147 -2.4953 0.0747 0 8
-26.0510 -20.7374 -2.4953 0.0747 0 8
-25.7133 -21.1548 -2.4953 0.0747 0 8
-25.3688 -21.5666 -2.4953 0.0747 0 8
-25.0178 -21.9728 -2.4953 0.0747 0 8
-24.6603 -22.3733 -2.4953 0.0747 0 8
-24.2964 -22.7680 -2.4953 0.0747 0 8
-23.9261 -23.1568 -2.4953 0.0747 0 8
-23.5497 -23.5395 -2.4953 0.0747 0 8
-23.1671 -23.9162 -2.4953 0.0747 0 8
-22.7785 -24.2866 -2.4953 0.0747 0 8
-22.3839 -24.6507 -2.4953 0.0747 0 8
-21.9836 -25.0084 -2.4953 0.0747 0 8
-21.5775 -25.3596 -2.4953 0.0747 0 8
-21.1658 -25.7042 -2.4953 0.0747 0 8
-20.7486 -26.0421 -2.4953 0.0747 0 8
-20.3260 -26.3732 -2.4953 0.0747 0 8
-19.8982 -26.6975 -2.4953 0.0747 0 8
-19.4652 -27.0149 -2.4953 0.0747 0 8
-19.0271 -27.3252 -2.4953 0.0747 0 8
-18.5840 -27.6284 -2.4953 0.0747 0 8
-18.1362 -27.9245 -2.4953 0.0747 0 8
-17.6836 -28.2132 -2.4953 0.0747 0 8
-17.2264 -28.4947 -2.4953 0.0747 0 8
-16.7647 -28.7687 -2.4953 0.0747 0 8
-16.2987 -29.0353 -2.4953 0.0747 0 8
-22.0541 20.4049 -2.5029 0.0830 0 14
-22.3802 20.0467 -2.5029 0.0830 0 14
-22.7005 19.6832 -2.5029 0.0830 0 14
-23.0149 19.3147 -2.5029 0.0830 0 14
-23.3234 18.9411 -2.5029 0.0830 0 8
-24.0372 18.8859 -2.5465 0.6226 0 8
-24.8362 18.8741 -2.5986 0.6102 0 8
-25.6124 18.8203 -2.6477 0.0830 0 7
-25.9126 18.4050 -2.6477 0.0830 0 6
-26.2059 17.9848 -2.6477 0.0830 0 7
-26.4925 17.5599 -2.6477 0.0830 0 7
-26.7722 17.1305 -2.6477 0.0830 0 7
-27.0449 16.6966 -2.6477 0.0830 0 7
-27.3106 16.2584 -2.6477 0.0830 0 7
-27.5692 15.8160 -2.6477 0.0830 0 7
-27.8206 15.3694 -2.6477 0.0830 0 7
-28.0648 14.9188 -2.6477 0.0830 0 7
-28.3017 14.4644 -2.6477 0.0830 0 7
-28.5312 14.0062 -2.6477 0.0830 0 7
-28.7533 13.5444 -2.6477 0.0830 0 7
-28.9680 13.0790 -2.6477 0.0830 0 7
-29.1751 12.6103 -2.6477 0.0830 0 7
-29.3746 12.1383 -2.6477 0.0830 0 7
-29.5665 11.6631 -2.6477 0.0830 0 7
-29.7507 11.1848 -2.6477 0.0830 0 7
-29.9271 10.7037 -2.6477 0.0830 0 7
-30.0958 10.2198 -2.6477 0.0830 0 7
-30.2567 9.7333 -2.6477 0.0830 0 7
-30.4097 9.2441 -2.6477 0.0830 0 7
-28.7960 8.2488 -2.4953 0.0830 0 8
-28.9253 7.7834 -2.4953 0.0830 0 8
-29.0470 7.3161 -2.4953 0.0830 0 8
-29.1612 6.8467 -2.4953 0.0830 0 8
-29.2678 6.3757 -2.4953 0.0830 0 8
-29.3668 5.9030 -2.4953 0.0830 0 8
-29.4582 5.4288 -2.4953 0.0830 0 8
-29.5419 4.9531 -2.4953 0.0830 0 8
-29.6179 4.4762 -2.4953 0.0830 0 8
-29.6862 3.9981 -2.4953 0.0830 0 8
-29.7468 3.5189 -2.4953 0.0830 0 8
-29.7997 3.0389 -2.4953 0.0830 0 8
-29.8448 2.5580 -2.4953 0.0830 0 8
-29.8822 2.0765 -2.4953 0.0830 0 8
-29.9118 1.5944 -2.4953 0.0830 0 8
-29.9336 1.1119 -2.4953 0.0830 0 8
-29.9476 0.6292 -2.4953 0.0830 0 8
-29.9539 0.1462 -2.4953 0.0830 0 8
-29.9523 -0.3367 -2.4953 0.0830 0 8
-29.9430 -0.8196 -2.4953 0.0830 0 8
-29.9259 -1.3023 -2.4953 0.0830 0 8
-29.9010 -1.7846 -2.4953 0.0830 0 8
-29.8684 -2.2665 -2.4953 0.0830 0 8
-29.8279 -2.7477 -2.4953 0.0830 0 8
-29.7797 -3.2283 -2.4953 0.0830 0 8
-29.7238 -3.7080 -2.4953 0.0830 0 8
-29.6602 -4.1868 -2.4953 0.0830 0 8
-29.5888 -4.6645 -2.4953 0.0830 0 8
-29.5098 -5.1409 -2.4953 0.0830 0 8
-29.4230 -5.6160 -2.4953 0.0830 0 8
-29.3287 -6.0897 -2.4953 0.0830 0 8
-29.2267 -6.5618 -2.4953 0.0830 0 8
-29.1171 -7.0321 -2.4953 0.0830 0 8
-28.9999 -7.5007 -2.4953 0.0830 0 8
-28.8752 -7.9673 -2.4953 0.0830 0 8
-28.7430 -8.4318 -2.4953 0.0830 0 8
-28.6033 -8.8941 -2.4953 0.0830 0 8
-28.4562 -9.3541 -2.4953 0.0830 0 8
-28.3017 -9.8117 -2.4953 0.0830 0 8
-28.1398 -10.2668 -2.4953 0.0830 0 8
-27.9706 -10.7191 -2.4953 0.0830 0 8
-27.7942 -11.1687 -2.4953 0.0830 0 8
-27.6105 -11.6154 -2.4953 0.0830 0 8
-27.4196 -12.0590 -2.4953 0.0830 0 8
-27.2216 -12.4995 -2.4953 0.0830 0 8
-27.0166 -12.9368 -2.4953 0.0830 0 8
-26.8045 -13.3707 -2.4953 0.0830 0 8
-26.5854 -13.8012 -2.4953 0.0830 0 8
-26.3594 -14.2280 -2.4953 0.0830 0 8
-26.1266 -14.6512 -2.4953 0.0830 0 8
-25.8870 -15.0705 -2.4953 0.0830 0 8
-25.6406 -15.4859 -2.4953 0.0830 0 8
-25.3876 -15.8973 -2.4953 0.0830 0 8
-25.1280 -16.3046 -2.4953 0.0830 0 8
-24.8618 -16.7076 -2.4953 0.0830 0 8
-24.5892 -17.1063 -2.4953 0.0830 0 8
-24.3102 -17.5005 -2.4953 0.0830 0 8
-24.0249 -17.8902 -2.4953 0.0830 0 8
-23.7334 -18.2752 -2.4953 0.0830 0 8
-23.4356 -18.6555 -2.4953 0.0830 0 8
-23.1318 -19.0309 -2.4953 0.0830 0 8
-22.8219 -19.4014 -2.4953 0.0830 0 8
-22.5062 -19.7668 -2.4953 0.0830 0 8
-22.1845 -20.1272 -2.4953 0.0830 0 8
-21.8571 -20.4822 -2.4953 0.0830 0 8
-21.5241 -20.8319 -2.4953 0.0830 0 8
-21.1854 -21.1763 -2.4953 0.0830 0 8
-20.8412 -21.5151 -2.4953 0.0830 0 8
-20.4916 -21.8483 -2.4953 0.0830 0 8
-20.1367 -22.1759 -2.4953 0.0830 0 8
-19.7765 -22.4977 -2.4953 0.0830 0 8
-19.4112 -22.8136 -2.4953 0.0830 0 8
-19.0409 -23.1236 -2.4953 0.0830 0 8
-18.6656 -23.4276 -2.4953 0.0830 0 8
-18.2854 -23.7255 -2.4953 0.0830 0 8
-17.9005 -24.0172 -2.4953 0.0830 0 8
-17.5109 -24.3027 -2.4953 0.0830 0 8
-17.1168 -24.5819 -2.4953 0.0830 0 8
-16.7183 -24.8547 -2.4953 0.0830 0 8
-16.3154 -25.1210 -2.4953 0.0830 0 8
-15.9082 -25.3808 -2.4953 0.0830 0 8
-15.4969 -25.6340 -2.4953 0.0830 0 8
-15.0816 -25.8805 -2.4953 0.0830 0 8
-14.6624 -26.1203 -2.4953 0.0830 0 8
-20.4223 18.8952 -2.5507 0.6836 0 8
-21.0835 18.8852 -2.5949 0.6720 0 8
-21.7680 18.8747 -2.6414 0.6601 0 8
-22.1222 18.5655 -2.6477 0.0913 0 7
-22.4187 18.2064 -2.6477 0.0913 0 7
-22.7093 17.8426 -2.6477 0.0913 0 7
-22.9940 17.4741 -2.6477 0.0913 0 7
-23.2728 17.1011 -2.6477 0.0913 0 7
-23.5455 16.7237 -2.6477 0.0913 0 7
-23.8120 16.3419 -2.6477 0.0913 0 7
-24.0724 15.9558 -2.6477 0.0913 0 7
-24.3265 15.5656 -2.6477 0.0913 0 7
-24.5744 15.1714 -2.6477 0.0913 0 7
-24.8158 14.7732 -2.6477 0.0913 0 7
-25.0507 14.3712 -2.6477 0.0913 0 7
-25.2792 13.9654 -2.6477 0.0913 0 7
-25.5011 13.5560 -2.6477 0.0913 0 7
-25.7163 13.1431 -2.6477 0.0913 0 7
-25.9249 12.7267 -2.6477 0.0913 0 7
-26.1267 12.3071 -2.6477 0.0913 0 7
-26.3217 11.8843 -2.6477 0.0913 0 7
-26.5099 11.4583 -2.6477 0.0913 0 7
-26.6912 11.0294 -2.6477 0.0913 0 7
-26.8656 10.5977 -2.6477 0.0913 0 7
-27.0330 10.1631 -2.6477 0.0913 0 7
-27.1933 9.7259 -2.6477 0.0913 0 7
-27.3466 9.2862 -2.6477 0.0913 0 7
-25.9103 8.3351 -2.4953 0.0913 0 8
-26.0413 7.9162 -2.4953 0.0913 0 8
-26.1655 7.4953 -2.4953 0.0913 0 8
-26.2830 7.0725 -2.4953 0.0913 0 8
-26.3936 6.6478 -2.4953 0.0913 0 8
-26.4973 6.2214 -2.4953 0.0913 0 8
-26.5942 5.7934 -2.4953 0.0913 0 8
-26.6842 5.3638 -2.4953 0.0913 0 8
-26.7672 4.9329 -2.4953 0.0913 0 8
-26.8432 4.5007 -2.4953 0.0913 0 8
-26.9123 4.0673 -2.4953 0.0913 0 8
-26.9744 3.6329 -2.4953 0.0913 0 8
-27.0294 3.1975 -2.4953 0.0913 0 8
-27.0775 2.7613 -2.4953 0.0913 0 8
-27.1185 2.3243 -2.4953 0.0913 0 8
-27.1524 1.8868 -2.4953 0.0913 0 8
-27.1793 1.4488 -2.4953 0.0913 0 8
-27.1992 1.0104 -2.4953 0.0913 0 8
-27.2119 0.5717 -2.4953 0.0913 0 8
-27.2176 0.1329 -2.4953 0.0913 0 8
-27.2162 -0.3060 -2.4953 0.0913 0 8
-27.2077 -0.7448 -2.4953 0.0913 0 8
-27.1922 -1.1833 -2.4953 0.0913 0 8
-27.1696 -1.6216 -2.4953 0.0913 0 8
-27.1399 -2.0594 -2.4953 0.0913 0 8
-27.1032 -2.4967 -2.4953 0.0913 0 8
-27.0594 -2.9334 -2.4953 0.0913 0 8
-27.0086 -3.3693 -2.4953 0.0913 0 8
-26.9507 -3.8043 -2.4953 0.0913 0 8
-26.8859 -4.2384 -2.4953 0.0913 0 8
-26.8141 -4.6713 -2.4953 0.0913 0 8
-26.7353 -5.1030 -2.4953 0.0913 0 8
-26.6495 -5.5334 -2.4953 0.0913 0 8
-26.5568 -5.9624 -2.4953 0.0913 0 8
-26.4572 -6.3898 -2.4953 0.0913 0 8
-26.3508 -6.8155 -2.4953 0.0913 0 8
-26.2375 -7.2395 -2.4953 0.0913 0 8
-26.1173 -7.6616 -2.4953 0.0913 0 8
-25.9904 -8.0817 -2.4953 0.0913 0 8
-25.8567 -8.4996 -2.4953 0.0913 0 8
-25.7163 -8.9154 -2.4953 0.0913 0 8
-25.5693 -9.3289 -2.4953 0.0913 0 8
-25.4155 -9.7399 -2.4953 0.0913 0 8
-25.2552 -10.1484 -2.4953 0.0913 0 8
-25.0883 -10.5543 -2.4953 0.0913 0 8
-24.9148 -10.9574 -2.4953 0.0913 0 8
-24.7349 -11.3577 -2.4953 0.0913 0 8
-24.5486 -11.7551 -2.4953 0.0913 0 8
-24.3559 -12.1493 -2.4953 0.0913 0 8
-24.1568 -12.5404 -2.4953 0.0913 0 8
-23.9515 -12.9283 -2.4953 0.0913 0 8
-23.7399 -13.3128 -2.4953 0.0913 0 8
-23.5222 -13.6938 -2.4953 0.0913 0 8
-23.2984 -14.0713 -2.4953 0.0913 0 8
-23.0685 -14.4451 -2.4953 0.0913 0 8
-22.8326 -14.8152 -2.4953 0.0913 0 8
-22.5907 -15.1814 -2.4953 0.0913 0 8
-22.3430 -15.5436 -2.4953 0.0913 0 8
-22.0895 -15.9018 -2.4953 0.0913 0 8
-21.8303 -16.2559 -2.4953 0.0913 0 8
-21.5653 -16.6058 -2.4953 0.0913 0 8
-21.2948 -16.9513 -2.4953 0.0913 0 8
-21.0187 -17.2925 -2.4953 0.0913 0 8
-20.7372 -17.6291 -2.4953 0.0913 0 8
-20.4502 -17.9611 -2.4953 0.0913 0 8
-20.1572 -18.2905 -2.4953 0.0913 0 8
-19.8605 -18.6112 -2.4953 0.0913 0 8
-19.5578 -18.9290 -2.4953 0.0913 0 8
-19.2501 -19.2418 -2.4953 0.0913 0 8
-18.9374 -19.5497 -2.4953 0.0913 0 8
-18.6197 -19.8525 -2.4953 0.0913 0 8
-18.2972 -20.1501 -2.4953 0.0913 0 8
-17.9699 -20.4425 -2.4953 0.0913 0 8
-17.6380 -20.7296 -2.4953 0.0913 0 8
-17.3015 -21.0113 -2.4953 0.0913 0 8
-16.9605 -21.2875 -2.4953 0.0913 0 8
-16.6150 -21.5582 -2.4953 0.0913 0 8
-16.2653 -21.8233 -2.4953 0.0913 0 8
-15.9113 -22.0827 -2.4953 0.0913 0 8
-15.5532 -22.3363 -2.4953 0.0913 0 8
-15.1911 -22.5842 -2.4953 0.0913 0 8
-14.8250 -22.8262 -2.4953 0.0913 0 8
-14.4550 -23.0622 -2.4953 0.0913 0 8
-14.0813 -23.2923 -2.4953 0.0913 0 8
-13.7039 -23.5163 -2.4953 0.0913 0 8
-13.3230 -23.7342 -2.4953 0.0913 0 8
-19.4218 17.9695 -2.6477 0.0996 0 7
-19.7090 17.6540 -2.6477 0.0996 0 7
-19.9910 17.3339 -2.6477 0.0996 0 7
-20.2679 17.0093 -2.6477 0.0996 0 7
-20.5395 16.6803 -2.6477 0.0996 0 7
-20.8058 16.3470 -2.6477 0.0996 0 7
-21.0667 16.0094 -2.6477 0.0996 0 7
-21.3220 15.6677 -2.6477 0.0996 0 7
-21.5719 15.3219 -2.6477 0.0996 0 7
-21.8161 14.9721 -2.6477 0.0996 0 7
-22.0547 14.6184 -2.6477 0.0996 0 7
-22.2875 14.2609 -2.6477 0.0996 0 7
-22.5145 13.8997 -2.6477 0.0996 0 7
-22.7357 13.5349 -2.6477 0.0996 0 7
-22.9510 13.1666 -2.6477 0.0996 0 7
-23.1602 12.7948 -2.6477 0.0996 0 7
-23.3636 12.4197 -2.6477 0.0996 0 7
-23.5607 12.0414 -2.6477 0.0996 0 7
-23.7519 11.6600 -2.6477 0.0996 0 7
-23.9368 11.2755 -2.6477 0.0996 0 7
-24.1154 10.8881 -2.6477 0.0996 0 7
-24.2879 10.4979 -2.6477 0.0996 0 7
-24.4540 10.1049 -2.6477 0.0996 0 7
-24.6137 9.7094 -2.6477 0.0996 0 7
-24.7670 9.3112 -2.6477 0.0996 0 7
-24.9140 8.9107 -2.6477 0.0996 0 7
-23.6122 8.0181 -2.4953 0.0996 0 8
-23.7385 7.6364 -2.4953 0.0996 0 8
-23.8585 7.2527 -2.4953 0.0996 0 8
-23.9723 6.8671 -2.4953 0.0996 0 8
-24.0799 6.4797 -2.4953 0.0996 0 8
-24.1812 6.0906 -2.4953 0.0996 0 8
-24.2763 5.6999 -2.4953 0.0996 0 8
-24.3651 5.3078 -2.4953 0.0996 0 8
-24.4475 4.9142 -2.4953 0.0996 0 8
-24.5235 4.5194 -2.4953 0.0996 0 8
-24.5932 4.1234 -2.4953 0.0996 0 8
-24.6565 3.7264 -2.4953 0.0996 0 8
-24.7134 3.3284 -2.4953 0.0996 0 8
-24.7638 2.9295 -2.4953 0.0996 0 8
-24.8078 2.5298 -2.4953 0.0996 0 8
-24.8454 2.1295 -2.4953 0.0996 0 8
-24.8765 1.7286 -2.4953 0.0996 0 8
-24.9012 1.3273 -2.4953 0.0996 0 8
-24.9193 0.9257 -2.4953 0.0996 0 8
-24.9310 0.5238 -2.4953 0.0996 0 8
-24.9362 0.1217 -2.4953 0.0996 0 8
-24.9349 -0.2803 -2.4953 0.0996 0 8
-24.9272 -0.6823 -2.4953 0.0996 0 8
-24.9129 -1.0841 -2.4953 0.0996 0 8
-24.8922 -1.4857 -2.4953 0.0996 0 8
-24.8650 -1.8868 -2.4953 0.0996 0 8
-24.8314 -2.2875 -2.4953 0.0996 0 8
-24.7913 -2.6875 -2.4953 0.0996 0 8
-24.7447 -3.0869 -2.4953 0.0996 0 8
-24.6917 -3.4855 -2.4953 0.0996 0 8
-24.6323 -3.8831 -2.4953 0.0996 0 8
-24.5665 -4.2797 -2.4953 0.0996 0 8
-24.4943 -4.6753 -2.4953 0.0996 0 8
-24.4157 -5.0696 -2.4953 0.0996 0 8
-24.3308 -5.4626 -2.4953 0.0996 0 8
-24.2396 -5.8542 -2.4953 0.0996 0 8
-24.1420 -6.2442 -2.4953 0.0996 0 8
-24.0382 -6.6327 -2.4953 0.0996 0 8
-23.9282 -7.0194 -2.4953 0.0996 0 8
-23.8119 -7.4043 -2.4953 0.0996 0 8
-23.6894 -7.7872 -2.4953 0.0996 0 8
-23.5608 -8.1681 -2.4953 0.0996 0 8
-23.4260 -8.5469 -2.4953 0.0996 0 8
-23.2852 -8.9235 -2.4953 0.0996 0 8
-23.1383 -9.2978 -2.4953 0.0996 0 8
-22.9854 -9.6697 -2.4953 0.0996 0 8
-22.8265 -10.0390 -2.4953 0.0996 0 8
-22.6616 -10.4057 -2.4953 0.0996 0 8
-22.4909 -10.7697 -2.4953 0.0996 0 8
-22.3144 -11.1310 -2.4953 0.0996 0 8
-22.1320 -11.4893 -2.4953 0.0996 0 8
-21.9439 -11.8446 -2.4953 0.0996 0 8
-21.7500 -12.1969 -2.4953 0.0996 0 8
-21.5506 -12.5460 -2.4953 0.0996 0 8
-21.3455 -12.8918 -2.4953 0.0996 0 8
-21.1348 -13.2343 -2.4953 0.0996 0 8
-20.9187 -13.5734 -2.4953 0.0996 0 8
-20.6972 -13.9089 -2.4953 0.0996 0 8
-20.4702 -14.2408 -2.4953 0.0996 0 8
-20.2380 -14.5689 -2.4953 0.0996 0 8
-20.0004 -14.8933 -2.4953 0.0996 0 8
-19.7577 -15.2139 -2.4953 0.0996 0 8
-19.5098 -15.5305 -2.4953 0.0996 0 8
-19.2569 -15.8430 -2.4953 0.0996 0 8
-18.9990 -16.1514 -2.4953 0.0996 0 8
-18.7361 -16.4556 -2.4953 0.0996 0 8
-18.4683 -16.7556 -2.4953 0.0996 0 8
-18.1958 -17.0512 -2.4953 0.0996 0 8
-17.9185 -17.3423 -2.4953 0.0996 0 8
-17.6366 -17.6290 -2.4953 0.0996 0 8
-17.3500 -17.9110 -2.4953 0.0996 0 8
-17.0590 -18.1884 -2.4953 0.0996 0 8
-16.7635 -18.4611 -2.4953 0.0996 0 8
-16.4637 -18.7290 -2.4953 0.0996 0 8
-16.1596 -18.9920 -2.4953 0.0996 0 8
-15.8510 -19.2510 -2.4953 0.0996 0 8
-15.5388 -19.5032 -2.4953 0.0996 0 8
-15.2224 -19.7512 -2.4953 0.0996 0 8
-14.9019 -19.9940 -2.4953 0.0996 0 8
-14.5776 -20.2317 -2.4953 0.0996 0 8
-14.2495 -20.4641 -2.4953 0.0996 0 8
-13.9178 -20.6912 -2.4953 0.0996 0 8
-13.5824 -20.9129 -2.4953 0.0996 0 8
-13.2434 -21.1291 -2.4953 0.0996 0 8
-12.9010 -21.3399 -2.4953 0.0996 0 8
-12.5553 -21.5452 -2.4953 0.0996 0 8
-12.2062 -21.7448 -2.4953 0.0996 0 8
-17.9174 16.5776 -2.6477 0.1078 0 7
-18.1823 16.2865 -2.6477 0.1078 0 7
-18.4426 15.9912 -2.6477 0.1078 0 7
-18.6980 15.6918 -2.6477 0.1078 0 7
-18.9486 15.3883 -2.6477 0.1078 0 7
-19.1942 15.0808 -2.6477 0.1078 0 7
-19.4349 14.7694 -2.6477 0.1078 0 7
-19.6705 14.4541 -2.6477 0.1078 0 7
-19.9009 14.1351 -2.6477 0.1078 0 7
-20.1263 13.8124 -2.6477 0.1078 0 7
-20.3463 13.4861 -2.6477 0.1078 0 7
-20.5611 13.1563 -2.6477 0.1078 0 7
-20.7706 12.8231 -2.6477 0.1078 0 7
-20.9746 12.4865 -2.6477 0.1078 0 7
-21.1732 12.1467 -2.6477 0.1078 0 7
-21.3663 11.8038 -2.6477 0.1078 0 7
-21.5539 11.4577 -2.6477 0.1078 0 7
-21.7358 11.1087 -2.6477 0.1078 0 7
-21.9121 10.7568 -2.6477 0.1078 0 7
-22.0827 10.4021 -2.6477 0.1078 0 7
-22.2475 10.0447 -2.6477 0.1078 0 7
-22.4066 9.6847 -2.6477 0.1078 0 7
-22.5598 9.3222 -2.6477 0.1078 0 7
-22.7072 8.9573 -2.6477 0.1078 0 7
-21.5335 8.0956 -2.4953 0.1078 0 8
-21.6612 7.7473 -2.4953 0.1078 0 8
-21.7833 7.3971 -2.4953 0.1078 0 8
-21.8997 7.0449 -2.4953 0.1078 0 8
-22.0105 6.6909 -2.4953 0.1078 0 8
-22.1155 6.3351 -2.4953 0.1078 0 8
-22.2147 5.9778 -2.4953 0.1078 0 8
-22.3082 5.6188 -2.4953 0.1078 0 8
-22.3959 5.2584 -2.4953 0.1078 0 8
-22.4778 4.8966 -2.4953 0.1078 0 8
-22.5538 4.5336 -2.4953 0.1078 0 8
-22.6240 4.1694 -2.4953 0.1078 0 8
-22.6883 3.8040 -2.4953 0.1078 0 8
-22.7466 3.4377 -2.4953 0.1078 0 8
-22.7991 3.0705 -2.4953 0.1078 0 8
-22.8457 2.7026 -2.4953 0.1078 0 8
-22.8863 2.3339 -2.4953 0.1078 0 8
-22.9209 1.9646 -2.4953 0.1078 0 8
-22.9496 1.5947 -2.4953 0.1078 0 8
-22.9723 1.2245 -2.4953 0.1078 0 8
-22.9891 0.8540 -2.4953 0.1078 0 8
-22.9999 0.4832 -2.4953 0.1078 0 8
-23.0047 0.1123 -2.4953 0.1078 0 8
-23.0035 -0.2586 -2.4953 0.1078 0 8
-22.9963 -0.6295 -2.4953 0.1078 0 8
-22.9832 -1.0002 -2.4953 0.1078 0 8
-22.9641 -1.3706 -2.4953 0.1078 0 8
-22.9390 -1.7407 -2.4953 0.1078 0 8
-22.9080 -2.1103 -2.4953 0.1078 0 8
-22.8710 -2.4793 -2.4953 0.1078 0 8
-22.8280 -2.8478 -2.4953 0.1078 0 8
-22.7791 -3.2155 -2.4953 0.1078 0 8
-22.7243 -3.5823 -2.4953 0.1078 0 8
-22.6636 -3.9482 -2.4953 0.1078 0 8
-22.5970 -4.3131 -2.4953 0.1078 0 8
-22.5245 -4.6769 -2.4953 0.1078 0 8
-22.4462 -5.0395 -2.4953 0.1078 0 8
-22.3620 -5.4007 -2.4953 0.1078 0 8
-22.2720 -5.7606 -2.4953 0.1078 0 8
-22.1763 -6.1189 -2.4953 0.1078 0 8
-22.0747 -6.4757 -2.4953 0.1078 0 8
-21.9675 -6.8307 -2.4953 0.1078 0 8
-21.8545 -7.1840 -2.4953 0.1078 0 8
-21.7358 -7.5354 -2.4953 0.1078 0 8
-21.6115 -7.8849 -2.4953 0.1078 0 8
-21.4815 -8.2323 -2.4953 0.1078 0 8
-21.3460 -8.5776 -2.4953 0.1078 0 8
-21.2049 -8.9207 -2.4953 0.1078 0 8
-21.0584 -9.2614 -2.4953 0.1078 0 8
-20.9063 -9.5997 -2.4953 0.1078 0 8
-20.7488 -9.9355 -2.4953 0.1078 0 8
-20.5859 -10.2688 -2.4953 0.1078 0 8
-20.4177 -10.5993 -2.4953 0.1078 0 8
-20.2441 -10.9272 -2.4953 0.1078 0 8
-20.0653 -11.2522 -2.4953 0.1078 0 8
-19.8813 -11.5742 -2.4953 0.1078 0 8
-19.6921 -11.8933 -2.4953 0.1078 0 8
-19.4978 -12.2092 -2.4953 0.1078 0 8
-19.2984 -12.5220 -2.4953 0.1078 0 8
-19.0940 -12.8315 -2.4953 0.1078 0 8
-18.8846 -13.1377 -2.4953 0.1078 0 8
-18.6704 -13.4405 -2.4953 0.1078 0 8
-18.4512 -13.7397 -2.4953 0.1078 0 8
-18.2273 -14.0354 -2.4953 0.1078 0 8
-17.9986 -14.3275 -2.4953 0.1078 0 8
-17.7653 -14.6158 -2.4953 0.1078 0 8
-17.5273 -14.9004 -2.4953 0.1078 0 8
-17.2848 -15.1810 -2.4953 0.1078 0 8
-17.0378 -15.4577 -2.4953 0.1078 0 8
-16.7864 -15.7304 -2.4953 0.1078 0 8
-16.5306 -15.9990 -2.4953 0.1078 0 8
-16.2705 -16.2635 -2.4953 0.1078 0 8
-16.0061 -16.5237 -2.4953 0.1078 0 8
-15.7376 -16.7796 -2.4953 0.1078 0 8
-15.4651 -17.0311 -2.4953 0.1078 0 8
-15.1884 -17.2783 -2.4953 0.1078 0 8
-14.9079 -17.5209 -2.4953 0.1078 0 8
-14.6235 -17.7590 -2.4953 0.1078 0 8
-14.3352 -17.9925 -2.4953 0.1078 0 8
-14.0433 -18.2213 -2.4953 0.1078 0 8
-13.7477 -18.4453 -2.4953 0.1078 0 8
-13.4485 -18.6646 -2.4953 0.1078 0 8
-13.1458 -18.8790 -2.4953 0.1078 0 8
-12.8397 -19.0885 -2.4953 0.1078 0 8
-12.5303 -19.2930 -2.4953 0.1078 0 8
-12.2176 -19.4925 -2.4953 0.1078 0 8
-11.9017 -19.6871 -2.4953 0.1078 0 8
-11.5828 -19.8763 -2.4953 0.1078 0 8
-11.2608 -20.0605 -2.4953 0.1078 0 8
-16.6272 15.3838 -2.6477 0.1161 0 7
-16.8731 15.1138 -2.6477 0.1161 0 7
-17.1145 14.8397 -2.6477 0.1161 0 7
-17.3516 14.5619 -2.6477 0.1161 0 7
-17.5841 14.2802 -2.6477 0.1161 0 7
-17.8121 13.9948 -2.6477 0.1161 0 7
-18.0354 13.7058 -2.6477 0.1161 0 7
-18.2540 13.4133 -2.6477 0.1161 0 7
-18.4679 13.1172 -2.6477 0.1161 0 7
-18.6770 12.8178 -2.6477 0.1161 0 7
-18.8812 12.5150 -2.6477 0.1161 0 7
-19.0806 12.2089 -2.6477 0.1161 0 7
-19.2749 11.8997 -2.6477 0.1161 0 7
-19.4643 11.5874 -2.6477 0.1161 0 7
-19.6486 11.2720 -2.6477 0.1161 0 7
-19.8278 10.9538 -2.6477 0.1161 0 7
-20.0018 10.6327 -2.6477 0.1161 0 7
-20.1706 10.3088 -2.6477 0.1161 0 7
-20.3342 9.9822 -2.6477 0.1161 0 7
-20.4925 9.6531 -2.6477 0.1161 0 7
-20.6455 9.3214 -2.6477 0.1161 0 7
-20.7931 8.9873 -2.6477 0.1161 0 7
-19.7303 8.1530 -2.4953 0.1161 0 8
-19.8591 7.8338 -2.4953 0.1161 0 8
-19.9829 7.5126 -2.4953 0.1161 0 8
-20.1014 7.1894 -2.4953 0.1161 0 8
-20.2147 6.8644 -2.4953 0.1161 0 8
-20.3227 6.5376 -2.4953 0.1161 0 8
-20.4255 6.2091 -2.4953 0.1161 0 8
-20.5230 5.8790 -2.4953 0.1161 0 8
-20.6151 5.5473 -2.4953 0.1161 0 8
-20.7018 5.2142 -2.4953 0.1161 0 8
-20.7832 4.8798 -2.4953 0.1161 0 8
-20.8592 4.5440 -2.4953 0.1161 0 8
-20.9297 4.2071 -2.4953 0.1161 0 8
-20.9949 3.8691 -2.4953 0.1161 0 8
-21.0545 3.5301 -2.4953 0.1161 0 8
-21.1087 3.1902 -2.4953 0.1161 0 8
-21.1574 2.8494 -2.4953 0.1161 0 8
-21.2006 2.5080 -2.4953 0.1161 0 8
-21.2383 2.1658 -2.4953 0.1161 0 8
-21.2704 1.8231 -2.4953 0.1161 0 8
-21.2970 1.4799 -2.4953 0.1161 0 8
-21.3181 1.1363 -2.4953 0.1161 0 8
-21.3337 0.7925 -2.4953 0.1161 0 8
-21.3437 0.4484 -2.4953 0.1161 0 8
-21.3481 0.1042 -2.4953 0.1161 0 8
-21.3471 -0.2400 -2.4953 0.1161 0 8
-21.3404 -0.5841 -2.4953 0.1161 0 8
-21.3282 -0.9281 -2.4953 0.1161 0 8
-21.3105 -1.2719 -2.4953 0.1161 0 8
-21.2872 -1.6153 -2.4953 0.1161 0 8
-21.2584 -1.9583 -2.4953 0.1161 0 8
-21.2241 -2.3008 -2.4953 0.1161 0 8
-21.1842 -2.6427 -2.4953 0.1161 0 8
-21.1388 -2.9839 -2.4953 0.1161 0 8
-21.0880 -3.3244 -2.4953 0.1161 0 8
-21.0317 -3.6639 -2.4953 0.1161 0 8
-20.9698 -4.0026 -2.4953 0.1161 0 8
-20.9026 -4.3401 -2.4953 0.1161 0 8
-20.8299 -4.6766 -2.4953 0.1161 0 8
-20.7518 -5.0118 -2.4953 0.1161 0 8
-20.6683 -5.3458 -2.4953 0.1161 0 8
-20.5794 -5.6783 -2.4953 0.1161 0 8
-20.4852 -6.0094 -2.4953 0.1161 0 8
-20.3856 -6.3389 -2.4953 0.1161 0 8
-20.2808 -6.6667 -2.4953 0.1161 0 8
-20.1706 -6.9928 -2.4953 0.1161 0 8
-20.0553 -7.3171 -2.4953 0.1161 0 8
-19.9347 -7.6395 -2.4953 0.1161 0 8
-19.8089 -7.9599 -2.4953 0.1161 0 8
-19.6780 -8.2783 -2.4953 0.1161 0 8
-19.5420 -8.5945 -2.4953 0.1161 0 8
-19.4009 -8.9084 -2.4953 0.1161 0 8
-19.2547 -9.2201 -2.4953 0.1161 0 8
-19.1036 -9.5293 -2.4953 0.1161 0 8
-18.9474 -9.8361 -2.4953 0.1161 0 8
-18.7864 -10.1403 -2.4953 0.1161 0 8
-18.6204 -10.4419 -2.4953 0.1161 0 8
-18.4497 -10.7408 -2.4953 0.1161 0 8
-18.2741 -11.0368 -2.4953 0.1161 0 8
