ply
format ascii 1.0
element vertex 1350
property float32 x
property float32 y
property float32 z
property float32 CosAngle
property uint32 ObjIdx
property uint32 ObjTag
end_header
-26.9846 42.0902 -2.4953 0.0498 0 8
-27.6577 41.6509 -2.4953 0.0498 0 8
-28.3237 41.2009 -2.4953 0.0498 0 8
-28.9823 40.7403 -2.4953 0.0498 0 8
-29.6335 40.2692 -2.4953 0.0498 0 8
-30.2770 39.7876 -2.4953 0.0498 0 8
-30.9126 39.2958 -2.4953 0.0498 0 8
-31.5404 38.7937 -2.4953 0.0498 0 8
-32.1599 38.2817 -2.4953 0.0498 0 8
-32.7711 37.7598 -2.4953 0.0498 0 8
-33.3739 37.2281 -2.4953 0.0498 0 8
-33.9681 36.6868 -2.4953 0.0498 0 8
-34.5534 36.1360 -2.4953 0.0498 0 8
-35.1298 35.5759 -2.4953 0.0498 0 8
-37.8774 37.1446 -2.6477 0.0498 0 6
-38.4696 36.5309 -2.6477 0.0498 0 7
-39.0519 35.9078 -2.6477 0.0498 0 7
-39.6241 35.2754 -2.6477 0.0498 0 6
-40.1860 34.6338 -2.6477 0.0498 0 7
-40.7376 33.9834 -2.6477 0.0498 0 7
-41.2786 33.3241 -2.6477 0.0498 0 7
-41.8090 32.6562 -2.6477 0.0498 0 7
-42.3285 31.9799 -2.6477 0.0498 0 7
-42.8371 31.2954 -2.6477 0.0498 0 7
-43.3347 30.6027 -2.6477 0.0498 0 6
-43.8210 29.9021 -2.6477 0.0498 0 7
-44.2960 29.1938 -2.6477 0.0498 0 7
-44.7596 28.4780 -2.6477 0.0498 0 7
-45.2116 27.7548 -2.6477 0.0498 0 7
-45.6519 27.0244 -2.6477 0.0498 0 7
-46.0805 26.2870 -2.6477 0.0498 0 7
-46.4971 25.5429 -2.6477 0.0498 0 7
-46.9017 24.7922 -2.6477 0.0498 0 7
-47.2942 24.0350 -2.6477 0.0498 0 7
-47.6744 23.2716 -2.6477 0.0498 0 7
-48.0424 22.5022 -2.6477 0.0498 0 7
-48.3979 21.7270 -2.6477 0.0498 0 7
-48.7409 20.9462 -2.6477 0.0498 0 7
-49.0713 20.1600 -2.6477 0.0498 0 7
7.9003 42.1074 -2.4953 0.0581 0 8
7.2224 42.2290 -2.4953 0.0581 0 8
6.5426 42.3396 -2.4953 0.0581 0 8
5.8612 42.4394 -2.4953 0.0581 0 8
5.1782 42.5281 -2.4953 0.0581 0 8
4.4939 42.6059 -2.4953 0.0581 0 8
3.8084 42.6726 -2.4953 0.0581 0 8
3.1219 42.7283 -2.4953 0.0581 0 8
2.4346 42.7730 -2.4953 0.0581 0 8
1.7467 42.8066 -2.4953 0.0581 0 8
1.0584 42.8291 -2.4953 0.0581 0 8
0.3698 42.8406 -2.4953 0.0581 0 8
-0.3190 42.8410 -2.4953 0.0581 0 8
-1.0076 42.8303 -2.4953 0.0581 0 8
-1.6960 42.8086 -2.4953 0.0581 0 8
-2.3839 42.7758 -2.4953 0.0581 0 8
-3.0712 42.7320 -2.4953 0.0581 0 8
-3.7578 42.6771 -2.4953 0.0581 0 8
-4.4433 42.6111 -2.4953 0.0581 0 8
-5.1277 42.5342 -2.4953 0.0581 0 8
-5.8108 42.4463 -2.4953 0.0581 0 8
-6.4924 42.3474 -2.4953 0.0581 0 8
-7.1723 42.2376 -2.4953 0.0581 0 8
-7.8504 42.1168 -2.4953 0.0581 0 8
-8.5264 41.9852 -2.4953 0.0581 0 8
-9.2002 41.8427 -2.4953 0.0581 0 8
-9.8717 41.6894 -2.4953 0.0581 0 8
-10.5406 41.5253 -2.4953 0.0581 0 8
-11.2067 41.3505 -2.4953 0.0581 0 8
-11.8700 41.1650 -2.4953 0.0581 0 8
-12.5302 40.9689 -2.4953 0.0581 0 8
-13.1871 40.7621 -2.4953 0.0581 0 8
-13.8407 40.5449 -2.4953 0.0581 0 8
-14.4907 40.3172 -2.4953 0.0581 0 8
-15.1369 40.0790 -2.4953 0.0581 0 8
-15.7792 39.8305 -2.4953 0.0581 0 8
-16.4175 39.5717 -2.4953 0.0581 0 8
-17.0515 39.3027 -2.4953 0.0581 0 8
-17.6811 39.0235 -2.4953 0.0581 0 8
-18.3061 38.7342 -2.4953 0.0581 0 8
-18.9264 38.4349 -2.4953 0.0581 0 8
-19.5418 38.1257 -2.4953 0.0581 0 8
-20.1522 37.8066 -2.4953 0.0581 0 8
-20.7573 37.4778 -2.4953 0.0581 0 8
-21.3571 37.1393 -2.4953 0.0581 0 8
-21.9514 36.7912 -2.4953 0.0581 0 8
-22.5400 36.4335 -2.4953 0.0581 0 8
-23.1227 36.0665 -2.4953 0.0581 0 8
-23.6995 35.6901 -2.4953 0.0581 0 8
-24.2702 35.3045 -2.4953 0.0581 0 8
-24.8346 34.9099 -2.4953 0.0581 0 8
-25.3925 34.5061 -2.4953 0.0581 0 8
-25.9439 34.0935 -2.4953 0.0581 0 8
-26.4886 33.6720 -2.4953 0.0581 0 8
-27.0265 33.2418 -2.4953 0.0581 0 8
-27.5862 32.8374 -2.4979 0.5828 0 8
-28.4880 32.8246 -2.5314 0.7537 0 8
-29.4182 32.8155 -2.5669 0.7433 0 8
-30.4280 32.8634 -2.6085 0.6626 0 8
-31.3697 32.8065 -2.6437 0.0674 0 8
-31.9408 32.3464 -2.6477 0.0581 0 7
-32.4567 31.8287 -2.6477 0.0581 0 7
-32.9641 31.3029 -2.6477 0.0581 0 7
-33.4630 30.7689 -2.6477 0.0581 0 7
-33.9533 30.2270 -2.6477 0.0581 0 7
-34.4349 29.6773 -2.6477 0.0581 0 7
-34.9075 29.1199 -2.6477 0.0581 0 7
-35.3711 28.5550 -2.6477 0.0581 0 7
-35.8256 27.9827 -2.6477 0.0581 0 7
-36.2708 27.4032 -2.6477 0.0581 0 7
-36.7066 26.8166 -2.6477 0.0581 0 7
-37.1329 26.2230 -2.6477 0.0581 0 7
-37.5497 25.6228 -2.6477 0.0581 0 7
-37.9567 25.0158 -2.6477 0.0581 0 7
-38.3539 24.4024 -2.6477 0.0581 0 7
-38.7412 23.7827 -2.6477 0.0581 0 7
-39.1186 23.1569 -2.6477 0.0581 0 7
-39.4858 22.5250 -2.6477 0.0581 0 7
-39.8427 21.8874 -2.6477 0.0581 0 7
-40.1894 21.2441 -2.6477 0.0581 0 7
-40.5258 20.5953 -2.6477 0.0581 0 7
-40.8516 19.9411 -2.6477 0.0581 0 7
-41.1669 19.2819 -2.6477 0.0581 0 7
-41.4715 18.6176 -2.6477 0.0581 0 7
-41.7654 17.9485 -2.6477 0.0581 0 7
-42.0486 17.2748 -2.6477 0.0581 0 7
6.9104 36.8312 -2.4953 0.0664 0 8
6.3174 36.9376 -2.4953 0.0664 0 8
5.7228 37.0343 -2.4953 0.0664 0 8
5.1267 37.1216 -2.4953 0.0664 0 8
4.5293 37.1992 -2.4953 0.0664 0 8
3.9308 37.2672 -2.4953 0.0664 0 8
3.3312 37.3256 -2.4953 0.0664 0 8
2.7307 37.3743 -2.4953 0.0664 0 8
2.1296 37.4133 -2.4953 0.0664 0 8
1.5279 37.4428 -2.4953 0.0664 0 8
0.9258 37.4625 -2.4953 0.0664 0 8
0.3234 37.4725 -2.4953 0.0664 0 8
-0.2790 37.4729 -2.4953 0.0664 0 8
-0.8813 37.4635 -2.4953 0.0664 0 8
-1.4835 37.4445 -2.4953 0.0664 0 8
-2.0852 37.4158 -2.4953 0.0664 0 8
-2.6864 37.3775 -2.4953 0.0664 0 8
-3.2869 37.3295 -2.4953 0.0664 0 8
-3.8866 37.2718 -2.4953 0.0664 0 8
-4.4852 37.2045 -2.4953 0.0664 0 8
-5.0827 37.1276 -2.4953 0.0664 0 8
-5.6789 37.0411 -2.4953 0.0664 0 8
-6.2736 36.9450 -2.4953 0.0664 0 8
-6.8667 36.8394 -2.4953 0.0664 0 8
-7.4580 36.7243 -2.4953 0.0664 0 8
-8.0474 36.5996 -2.4953 0.0664 0 8
-8.6347 36.4655 -2.4953 0.0664 0 8
-9.2198 36.3220 -2.4953 0.0664 0 8
-9.8025 36.1691 -2.4953 0.0664 0 8
-10.3826 36.0069 -2.4953 0.0664 0 8
-10.9601 35.8353 -2.4953 0.0664 0 8
-11.5347 35.6545 -2.4953 0.0664 0 8
-12.1064 35.4645 -2.4953 0.0664 0 8
-12.6749 35.2653 -2.4953 0.0664 0 8
-13.2402 35.0570 -2.4953 0.0664 0 8
-13.8020 34.8396 -2.4953 0.0664 0 8
-14.3603 34.6132 -2.4953 0.0664 0 8
-14.9149 34.3779 -2.4953 0.0664 0 8
-15.4656 34.1337 -2.4953 0.0664 0 8
-16.0123 33.8807 -2.4953 0.0664 0 8
-16.5549 33.6189 -2.4953 0.0664 0 8
-17.0932 33.3484 -2.4953 0.0664 0 8
-17.6270 33.0693 -2.4953 0.0664 0 8
-18.1998 32.8601 -2.5012 0.6650 0 8
-18.8921 32.8527 -2.5235 0.8640 0 8
-19.5978 32.8464 -2.5469 0.8560 0 8
-20.3167 32.8399 -2.5713 0.8479 0 8
-21.0498 32.8331 -2.5970 0.8395 0 8
-21.7977 32.8261 -2.6238 0.8309 0 8
-22.4785 32.6983 -2.6421 0.0804 0 8
-23.0457 32.3953 -2.6472 0.0802 0 8
-23.5673 32.0258 -2.6477 0.0664 0 7
-24.0791 31.6428 -2.6477 0.0664 0 7
-24.5846 31.2516 -2.6477 0.0664 0 7
-25.0838 30.8524 -2.6477 0.0664 0 7
-25.5765 30.4452 -2.6477 0.0664 0 7
-26.0627 30.0301 -2.6477 0.0664 0 7
-26.5421 29.6072 -2.6477 0.0664 0 7
-27.0146 29.1767 -2.6477 0.0664 0 7
-27.4801 28.7387 -2.6477 0.0664 0 7
-27.9385 28.2933 -2.6477 0.0664 0 7
-28.3897 27.8404 -2.6477 0.0664 0 7
-28.8336 27.3805 -2.6477 0.0664 0 7
-29.2700 26.9135 -2.6477 0.0664 0 7
-29.6989 26.4395 -2.6477 0.0664 0 7
-30.1201 25.9586 -2.6477 0.0664 0 7
-30.5335 25.4711 -2.6477 0.0664 0 7
-30.9390 24.9769 -2.6477 0.0664 0 7
-31.3365 24.4763 -2.6477 0.0664 0 7
-31.7259 23.9694 -2.6477 0.0664 0 7
-30.3585 22.1789 -2.5035 0.4648 0 8
-30.7040 21.6830 -2.5029 0.0664 0 14
-31.0485 21.1865 -2.5029 0.0664 0 14
-31.3851 20.6847 -2.5029 0.0664 0 14
-31.7136 20.1775 -2.5029 0.0664 0 14
-32.0338 19.6651 -2.5029 0.0664 0 14
-34.2169 20.2552 -2.6477 0.0664 0 7
-34.5381 19.7026 -2.6477 0.0664 0 7
-34.8503 19.1448 -2.6477 0.0664 0 7
-35.1536 18.5821 -2.6477 0.0664 0 7
-35.4477 18.0146 -2.6477 0.0664 0 7
-35.7327 17.4424 -2.6477 0.0664 0 7
-36.0085 16.8658 -2.6477 0.0664 0 7
-36.2750 16.2848 -2.6477 0.0664 0 7
-36.5321 15.6995 -2.6477 0.0664 0 7
-36.7797 15.1102 -2.6477 0.0664 0 7
6.1774 32.9248 -2.5104 0.9768 0 8
5.6311 32.9246 -2.5032 0.9796 0 8
5.0884 32.9291 -2.4970 0.7493 0 8
4.5553 32.9840 -2.4953 0.0747 0 8
4.0245 33.0530 -2.4953 0.0747 0 8
3.4927 33.1134 -2.4953 0.0747 0 8
2.9599 33.1653 -2.4953 0.0747 0 8
2.4264 33.2086 -2.4953 0.0747 0 8
1.8922 33.2433 -2.4953 0.0747 0 8
1.3576 33.2694 -2.4953 0.0747 0 8
0.8226 33.2869 -2.4953 0.0747 0 8
0.2874 33.2959 -2.4953 0.0747 0 8
-0.2479 33.2962 -2.4953 0.0747 0 8
-0.7831 33.2879 -2.4953 0.0747 0 8
-1.3181 33.2710 -2.4953 0.0747 0 8
-1.8528 33.2455 -2.4953 0.0747 0 8
-2.3870 33.2114 -2.4953 0.0747 0 8
-2.9205 33.1688 -2.4953 0.0747 0 8
-3.4534 33.1175 -2.4953 0.0747 0 8
-3.9853 33.0577 -2.4953 0.0747 0 8
-4.5162 32.9894 -2.4953 0.0747 0 8
-5.0459 32.9125 -2.4953 0.0747 0 8
-5.5860 32.8959 -2.5005 0.7485 0 8
-6.1307 32.8912 -2.5073 0.9780 0 8
-6.6790 32.8882 -2.5149 0.9751 0 8
-7.2307 32.8852 -2.5233 0.9718 0 8
-7.7862 32.8820 -2.5323 0.9684 0 8
-8.3457 32.8786 -2.5420 0.9647 0 8
-8.9097 32.8751 -2.5525 0.9607 0 8
-9.4785 32.8714 -2.5637 0.9565 0 8
-10.0524 32.8676 -2.5757 0.9521 0 8
-10.6319 32.8636 -2.5885 0.9474 0 8
-11.2172 32.8595 -2.6020 0.9424 0 8
-11.8087 32.8552 -2.6164 0.9373 0 8
-12.4069 32.8507 -2.6315 0.9319 0 8
-12.9818 32.7691 -2.6414 0.0904 0 8
-13.5220 32.5927 -2.6443 0.0903 0 8
-14.0606 32.4089 -2.6474 0.0902 0 8
-14.5811 32.1816 -2.6477 0.0747 0 7
-15.0965 31.9430 -2.6477 0.0747 0 7
-15.6081 31.6962 -2.6477 0.0747 0 7
-16.1156 31.4412 -2.6477 0.0747 0 7
-16.6189 31.1781 -2.6477 0.0747 0 7
-17.1180 30.9069 -2.6477 0.0747 0 7
-17.6126 30.6277 -2.6477 0.0747 0 7
-18.1027 30.3406 -2.6477 0.0747 0 7
-18.5881 30.0457 -2.6477 0.0747 0 7
-19.0687 29.7430 -2.6477 0.0747 0 7
-19.5443 29.4326 -2.6477 0.0747 0 7
-20.0149 29.1147 -2.6477 0.0747 0 7
-20.4804 28.7892 -2.6477 0.0747 0 7
-20.9405 28.4562 -2.6477 0.0747 0 7
-21.3952 28.1159 -2.6477 0.0747 0 7
-21.8444 27.7683 -2.6477 0.0747 0 7
-22.2880 27.4136 -2.6477 0.0747 0 7
-22.7258 27.0518 -2.6477 0.0747 0 7
-23.1577 26.6829 -2.6477 0.0747 0 7
-23.5837 26.3072 -2.6477 0.0747 0 7
-24.0035 25.9247 -2.6477 0.0747 0 7
-24.4172 25.5356 -2.6477 0.0747 0 7
-24.8245 25.1397 -2.6477 0.0747 0 7
-25.2254 24.7374 -2.6477 0.0747 0 7
-25.6198 24.3287 -2.6477 0.0747 0 7
-26.0076 23.9137 -2.6477 0.0747 0 7
-24.9457 22.2079 -2.5029 0.0747 0 8
-25.2995 21.8040 -2.5029 0.0747 0 14
-25.6467 21.3945 -2.5029 0.0747 0 14
-25.9873 20.9795 -2.5029 0.0747 0 14
-26.3212 20.5590 -2.5029 0.0747 0 14
-26.6483 20.1332 -2.5029 0.0747 0 14
-26.9685 19.7023 -2.5029 0.0747 0 14
-27.2817 19.2662 -2.5029 0.0747 0 14
-27.6719 18.8825 -2.5105 0.4519 0 8
-28.6300 18.8689 -2.5696 0.5555 0 8
-29.6342 18.8545 -2.6322 0.5423 0 8
-30.1098 18.4840 -2.6477 0.0747 0 7
-30.4031 17.9976 -2.6477 0.0747 0 7
-30.6885 17.5065 -2.6477 0.0747 0 6
-30.9659 17.0109 -2.6477 0.0747 0 6
-31.2354 16.5110 -2.6477 0.0747 0 7
-31.4968 16.0067 -2.6477 0.0747 0 7
-31.7500 15.4983 -2.6477 0.0747 0 7
-31.9950 14.9859 -2.6477 0.0747 0 7
-32.2318 14.4697 -2.6477 0.0747 0 7
-32.4602 13.9497 -2.6477 0.0747 0 7
-32.6803 13.4260 -2.6477 0.0747 0 7
5.8611 31.2386 -2.6477 0.0830 0 7
5.3582 31.3288 -2.6477 0.0830 0 7
4.8538 31.4109 -2.6477 0.0830 0 7
4.3483 31.4848 -2.6477 0.0830 0 7
3.8416 31.5507 -2.6477 0.0830 0 7
3.3339 31.6083 -2.6477 0.0830 0 7
2.8254 31.6579 -2.6477 0.0830 0 7
2.3161 31.6992 -2.6477 0.0830 0 7
1.8062 31.7323 -2.6477 0.0830 0 7
1.2959 31.7573 -2.6477 0.0830 0 7
0.7852 31.7740 -2.6477 0.0830 0 7
0.2743 31.7825 -2.6477 0.0830 0 7
-0.2366 31.7828 -2.6477 0.0830 0 7
-0.7475 31.7749 -2.6477 0.0830 0 7
-1.2582 31.7588 -2.6477 0.0830 0 7
-1.7686 31.7344 -2.6477 0.0830 0 7
-2.2785 31.7019 -2.6477 0.0830 0 7
-2.7878 31.6612 -2.6477 0.0830 0 7
-3.2964 31.6123 -2.6477 0.0830 0 7
-3.8042 31.5552 -2.6477 0.0830 0 7
-4.3109 31.4900 -2.6477 0.0830 0 7
-4.8166 31.4166 -2.6477 0.0830 0 7
-5.3210 31.3351 -2.6477 0.0830 0 7
-5.8240 31.2455 -2.6477 0.0830 0 7
-6.3256 31.1479 -2.6477 0.0830 0 7
-6.8254 31.0422 -2.6477 0.0830 0 7
-7.3236 30.9284 -2.6477 0.0830 0 7
-7.8198 30.8067 -2.6477 0.0830 0 7
-8.3140 30.6770 -2.6477 0.0830 0 7
-8.8061 30.5394 -2.6477 0.0830 0 7
-9.2959 30.3939 -2.6477 0.0830 0 7
-9.7833 30.2405 -2.6477 0.0830 0 7
-10.2681 30.0794 -2.6477 0.0830 0 7
-10.7503 29.9104 -2.6477 0.0830 0 6
-11.2297 29.7337 -2.6477 0.0830 0 7
-11.7063 29.5494 -2.6477 0.0830 0 7
-12.1798 29.3574 -2.6477 0.0830 0 7
-12.6501 29.1578 -2.6477 0.0830 0 7
-13.1172 28.9507 -2.6477 0.0830 0 7
-13.5809 28.7361 -2.6477 0.0830 0 7
-14.0411 28.5140 -2.6477 0.0830 0 7
-14.4977 28.2846 -2.6477 0.0830 0 7
-14.9505 28.0479 -2.6477 0.0830 0 7
-15.3994 27.8040 -2.6477 0.0830 0 7
-15.8444 27.5528 -2.6477 0.0830 0 7
-16.2853 27.2946 -2.6477 0.0830 0 7
-16.7219 27.0292 -2.6477 0.0830 0 7
-17.1543 26.7570 -2.6477 0.0830 0 7
-17.5822 26.4777 -2.6477 0.0830 0 7
-18.0055 26.1917 -2.6477 0.0830 0 7
-18.4242 25.8989 -2.6477 0.0830 0 7
-18.8382 25.5993 -2.6477 0.0830 0 7
-19.2472 25.2932 -2.6477 0.0830 0 7
-19.6513 24.9805 -2.6477 0.0830 0 7
-20.0504 24.6614 -2.6477 0.0830 0 7
-20.4442 24.3359 -2.6477 0.0830 0 7
-20.8328 24.0041 -2.6477 0.0830 0 7
-21.2160 23.6661 -2.6477 0.0830 0 7
-20.4129 22.0467 -2.5029 0.0830 0 14
-20.7647 21.7157 -2.5029 0.0830 0 14
-21.1111 21.3791 -2.5029 0.0830 0 14
-21.4520 21.0370 -2.5029 0.0830 0 14
-21.7874 20.6894 -2.5029 0.0830 0 14
-22.1172 20.3365 -2.5029 0.0830 0 14
-22.4412 19.9783 -2.5029 0.0830 0 14
-22.7595 19.6150 -2.5029 0.0830 0 14
-23.0719 19.2466 -2.5029 0.0830 0 14
-23.4097 18.8986 -2.5063 0.5029 0 8
-24.1766 18.8839 -2.5555 0.6204 0 8
-24.9789 18.8720 -2.6079 0.6080 0 8
-25.6644 18.7495 -2.6477 0.0830 0 7
-25.9624 18.3345 -2.6477 0.0830 0 6
-26.2538 17.9148 -2.6477 0.0830 0 7
-26.5384 17.4904 -2.6477 0.0830 0 7
-26.8161 17.0616 -2.6477 0.0830 0 7
-27.0869 16.6283 -2.6477 0.0830 0 7
-27.3507 16.1907 -2.6477 0.0830 0 7
-27.6075 15.7490 -2.6477 0.0830 0 7
-27.8571 15.3031 -2.6477 0.0830 0 7
-28.0995 14.8533 -2.6477 0.0830 0 7
-28.3346 14.3997 -2.6477 0.0830 0 7
-28.5624 13.9424 -2.6477 0.0830 0 7
-28.7829 13.4814 -2.6477 0.0830 0 7
-28.9959 13.0170 -2.6477 0.0830 0 7
-29.2014 12.5492 -2.6477 0.0830 0 7
-29.3993 12.0781 -2.6477 0.0830 0 7
5.3257 28.3850 -2.6477 0.0913 0 7
4.8687 28.4669 -2.6477 0.0913 0 7
4.4104 28.5415 -2.6477 0.0913 0 7
3.9511 28.6087 -2.6477 0.0913 0 7
3.4907 28.6685 -2.6477 0.0913 0 7
3.0294 28.7209 -2.6477 0.0913 0 7
2.5673 28.7659 -2.6477 0.0913 0 7
2.1045 28.8035 -2.6477 0.0913 0 7
1.6412 28.8336 -2.6477 0.0913 0 7
1.1775 28.8562 -2.6477 0.0913 0 7
0.7135 28.8714 -2.6477 0.0913 0 7
0.2493 28.8792 -2.6477 0.0913 0 7
-0.2150 28.8795 -2.6477 0.0913 0 7
-0.6792 28.8723 -2.6477 0.0913 0 7
-1.1433 28.8576 -2.6477 0.0913 0 7
-1.6070 28.8355 -2.6477 0.0913 0 7
-2.0703 28.8060 -2.6477 0.0913 0 7
-2.5331 28.7690 -2.6477 0.0913 0 7
-2.9953 28.7245 -2.6477 0.0913 0 7
-3.4566 28.6727 -2.6477 0.0913 0 7
-3.9171 28.6134 -2.6477 0.0913 0 7
-4.3766 28.5467 -2.6477 0.0913 0 7
-4.8349 28.4727 -2.6477 0.0913 0 7
-5.2920 28.3913 -2.6477 0.0913 0 7
-5.7477 28.3025 -2.6477 0.0913 0 7
-6.2019 28.2065 -2.6477 0.0913 0 7
-6.6546 28.1031 -2.6477 0.0913 0 7
-7.1055 27.9925 -2.6477 0.0913 0 7
-7.5545 27.8747 -2.6477 0.0913 0 7
-8.0017 27.7497 -2.6477 0.0913 0 7
-8.4467 27.6174 -2.6477 0.0913 0 7
-8.8896 27.4781 -2.6477 0.0913 0 7
-9.3301 27.3316 -2.6477 0.0913 0 7
-9.7683 27.1781 -2.6477 0.0913 0 7
-10.2039 27.0176 -2.6477 0.0913 0 7
-10.6369 26.8501 -2.6477 0.0913 0 7
-11.0672 26.6756 -2.6477 0.0913 0 7
-11.4945 26.4942 -2.6477 0.0913 0 7
-11.9190 26.3060 -2.6477 0.0913 0 7
-12.3403 26.1111 -2.6477 0.0913 0 7
-12.7584 25.9093 -2.6477 0.0913 0 7
-13.1733 25.7009 -2.6477 0.0913 0 7
-13.5847 25.4858 -2.6477 0.0913 0 7
-13.9927 25.2641 -2.6477 0.0913 0 7
-14.3970 25.0359 -2.6477 0.0913 0 7
-14.7976 24.8012 -2.6477 0.0913 0 7
-15.1944 24.5601 -2.6477 0.0913 0 7
-15.5872 24.3127 -2.6477 0.0913 0 7
-15.9760 24.0590 -2.6477 0.0913 0 7
-16.3607 23.7991 -2.6477 0.0913 0 7
-15.8257 22.2462 -2.5029 0.0913 0 8
-16.1813 21.9889 -2.5029 0.0913 0 14
-16.5327 21.7259 -2.5029 0.0913 0 14
-16.8798 21.4574 -2.5029 0.0913 0 14
-17.2226 21.1832 -2.5029 0.0913 0 14
-17.5609 20.9037 -2.5029 0.0913 0 14
-17.8946 20.6186 -2.5029 0.0913 0 14
-18.2238 20.3283 -2.5029 0.0913 0 14
-18.5482 20.0327 -2.5029 0.0913 0 14
-18.8678 19.7320 -2.5029 0.0913 0 14
-19.1826 19.4261 -2.5029 0.0913 0 14
-19.4924 19.1152 -2.5029 0.0913 0 14
-19.9061 18.9029 -2.5167 0.6929 0 8
-20.5476 18.8933 -2.5590 0.6814 0 8
-21.2111 18.8832 -2.6035 0.6697 0 8
-21.8767 18.8542 -2.6477 0.0913 0 7
-22.1770 18.5001 -2.6477 0.0913 0 7
-22.4715 18.1412 -2.6477 0.0913 0 7
-22.7602 17.7776 -2.6477 0.0913 0 7
-23.0431 17.4094 -2.6477 0.0913 0 7
-23.3199 17.0367 -2.6477 0.0913 0 7
-23.5908 16.6597 -2.6477 0.0913 0 7
-23.8555 16.2783 -2.6477 0.0913 0 7
-24.1141 15.8927 -2.6477 0.0913 0 7
-24.3665 15.5030 -2.6477 0.0913 0 7
-24.6126 15.1093 -2.6477 0.0913 0 7
-24.8523 14.7117 -2.6477 0.0913 0 7
-25.0856 14.3103 -2.6477 0.0913 0 7
-25.3124 13.9052 -2.6477 0.0913 0 7
-25.5326 13.4965 -2.6477 0.0913 0 7
-25.7463 13.0843 -2.6477 0.0913 0 7
-25.9533 12.6687 -2.6477 0.0913 0 7
-26.1536 12.2499 -2.6477 0.0913 0 7
-26.3471 11.8279 -2.6477 0.0913 0 7
-26.5339 11.4028 -2.6477 0.0913 0 6
-26.7137 10.9748 -2.6477 0.0913 0 7
4.8793 26.0057 -2.6477 0.0996 0 7
4.4606 26.0808 -2.6477 0.0996 0 7
4.0408 26.1491 -2.6477 0.0996 0 7
3.6199 26.2107 -2.6477 0.0996 0 7
3.1981 26.2655 -2.6477 0.0996 0 7
2.7754 26.3135 -2.6477 0.0996 0 7
2.3521 26.3548 -2.6477 0.0996 0 7
1.9281 26.3892 -2.6477 0.0996 0 7
1.5036 26.4168 -2.6477 0.0996 0 7
1.0788 26.4375 -2.6477 0.0996 0 7
0.6537 26.4514 -2.6477 0.0996 0 7
0.2284 26.4585 -2.6477 0.0996 0 6
-0.1970 26.4588 -2.6477 0.0996 0 6
-0.6223 26.4522 -2.6477 0.0996 0 6
-1.0474 26.4388 -2.6477 0.0996 0 6
-1.4723 26.4185 -2.6477 0.0996 0 6
-1.8968 26.3914 -2.6477 0.0996 0 7
-2.3208 26.3575 -2.6477 0.0996 0 7
-2.7442 26.3168 -2.6477 0.0996 0 7
-3.1669 26.2693 -2.6477 0.0996 0 7
-3.5888 26.2150 -2.6477 0.0996 0 7
-4.0097 26.1539 -2.6477 0.0996 0 7
-4.4297 26.0861 -2.6477 0.0996 0 7
-4.8484 26.0115 -2.6477 0.0996 0 7
-5.2659 25.9302 -2.6477 0.0996 0 7
-5.6821 25.8422 -2.6477 0.0996 0 7
-6.0968 25.7475 -2.6477 0.0996 0 7
-6.5099 25.6462 -2.6477 0.0996 0 7
-6.9213 25.5382 -2.6477 0.0996 0 7
-7.3310 25.4237 -2.6477 0.0996 0 7
-7.7387 25.3025 -2.6477 0.0996 0 7
-8.1444 25.1749 -2.6477 0.0996 0 7
-8.5481 25.0407 -2.6477 0.0996 0 7
-8.9495 24.9000 -2.6477 0.0996 0 7
-9.3486 24.7530 -2.6477 0.0996 0 7
-9.7453 24.5995 -2.6477 0.0996 0 7
-10.1395 24.4396 -2.6477 0.0996 0 7
-10.5311 24.2735 -2.6477 0.0996 0 7
-10.9199 24.1011 -2.6477 0.0996 0 7
-11.3059 23.9224 -2.6477 0.0996 0 7
-11.6890 23.7376 -2.6477 0.0996 0 7
-11.4091 22.2590 -2.5029 0.0996 0 8
-11.7655 22.0727 -2.5029 0.0996 0 14
-12.1188 21.8808 -2.5029 0.0996 0 14
-12.4690 21.6831 -2.5029 0.0996 0 14
-12.8159 21.4798 -2.5029 0.0996 0 14
-13.1596 21.2710 -2.5029 0.0996 0 14
-13.4998 21.0568 -2.5029 0.0996 0 14
-13.8365 20.8371 -2.5029 0.0996 0 14
-14.1697 20.6119 -2.5029 0.0996 0 14
-14.4992 20.3815 -2.5029 0.0996 0 14
-14.8250 20.1458 -2.5029 0.0996 0 14
-15.1469 19.9048 -2.5029 0.0996 0 14
-15.4649 19.6588 -2.5029 0.0996 0 14
-15.7790 19.4077 -2.5029 0.0996 0 14
-16.0889 19.1515 -2.5029 0.0996 0 14
-16.4185 18.9178 -2.5065 0.6030 0 8
-16.9493 18.9067 -2.5408 0.7485 0 8
-17.4979 18.8984 -2.5772 0.7379 0 8
-18.0625 18.8898 -2.6153 0.7271 0 8
-18.5913 18.8274 -2.6477 0.0996 0 7
-18.8916 18.5261 -2.6477 0.0996 0 7
-19.1869 18.2200 -2.6477 0.0996 0 7
-19.4773 17.9092 -2.6477 0.0996 0 7
-19.7627 17.5938 -2.6477 0.0996 0 7
-20.0430 17.2738 -2.6477 0.0996 0 7
-20.3181 16.9494 -2.6477 0.0996 0 7
-20.5879 16.6206 -2.6477 0.0996 0 7
-20.8524 16.2875 -2.6477 0.0996 0 7
-21.1116 15.9501 -2.6477 0.0996 0 7
-21.3652 15.6087 -2.6477 0.0996 0 7
-21.6134 15.2633 -2.6477 0.0996 0 7
-21.8560 14.9138 -2.6477 0.0996 0 6
-22.0929 14.5606 -2.6477 0.0996 0 7
-22.3241 14.2035 -2.6477 0.0996 0 7
-22.5495 13.8429 -2.6477 0.0996 0 7
-22.7691 13.4786 -2.6477 0.0996 0 7
-22.9829 13.1108 -2.6477 0.0996 0 7
-23.1907 12.7397 -2.6477 0.0996 0 7
-23.3925 12.3652 -2.6477 0.0996 0 7
-23.5882 11.9876 -2.6477 0.0996 0 7
-23.7779 11.6068 -2.6477 0.0996 0 7
-23.9614 11.2231 -2.6477 0.0996 0 7
-24.1387 10.8365 -2.6477 0.0996 0 7
-24.3098 10.4470 -2.6477 0.0996 0 7
-24.4746 10.0549 -2.6477 0.0996 0 7
4.5013 23.9914 -2.6477 0.1078 0 7
4.1151 24.0606 -2.6477 0.1078 0 7
3.7278 24.1237 -2.6477 0.1078 0 7
3.3395 24.1805 -2.6477 0.1078 0 7
2.9504 24.2310 -2.6477 0.1078 0 7
2.5605 24.2753 -2.6477 0.1078 0 7
2.1699 24.3134 -2.6477 0.1078 0 7
1.7788 24.3451 -2.6477 0.1078 0 7
1.3872 24.3705 -2.6477 0.1078 0 7
0.9952 24.3897 -2.6477 0.1078 0 7
0.6030 24.4025 -2.6477 0.1078 0 7
0.2107 24.4091 -2.6477 0.1078 0 7
-0.1817 24.4093 -2.6477 0.1078 0 7
-0.5741 24.4032 -2.6477 0.1078 0 7
-0.9663 24.3909 -2.6477 0.1078 0 7
-1.3583 24.3722 -2.6477 0.1078 0 7
-1.7499 24.3472 -2.6477 0.1078 0 7
-2.1410 24.3159 -2.6477 0.1078 0 7
-2.5317 24.2784 -2.6477 0.1078 0 7
-2.9216 24.2345 -2.6477 0.1078 0 7
-3.3108 24.1844 -2.6477 0.1078 0 7
-3.6991 24.1281 -2.6477 0.1078 0 7
-4.0865 24.0655 -2.6477 0.1078 0 7
-4.4729 23.9967 -2.6477 0.1078 0 7
-4.8581 23.9217 -2.6477 0.1078 0 7
-5.2420 23.8405 -2.6477 0.1078 0 7
-5.6245 23.7532 -2.6477 0.1078 0 7
-5.6772 22.3659 -2.5029 0.1078 0 8
-6.0360 22.2718 -2.5029 0.1078 0 8
-6.3933 22.1719 -2.5029 0.1078 0 14
-6.7489 22.0662 -2.5029 0.1078 0 14
-7.1027 21.9549 -2.5029 0.1078 0 14
-7.4547 21.8379 -2.5029 0.1078 0 14
-7.8048 21.7152 -2.5029 0.1078 0 14
-8.1529 21.5869 -2.5029 0.1078 0 14
-8.4988 21.4531 -2.5029 0.1078 0 14
-8.8426 21.3137 -2.5029 0.1078 0 14
-9.1841 21.1688 -2.5029 0.1078 0 14
-9.5232 21.0184 -2.5029 0.1078 0 14
-9.8598 20.8626 -2.5029 0.1078 0 14
-10.1939 20.7014 -2.5029 0.1078 0 14
-10.5254 20.5349 -2.5029 0.1078 0 14
-10.8541 20.3630 -2.5029 0.1078 0 14
-11.1801 20.1859 -2.5029 0.1078 0 14
-11.5031 20.0036 -2.5029 0.1078 0 14
-11.8232 19.8161 -2.5029 0.1078 0 14
-12.1402 19.6234 -2.5029 0.1078 0 14
-12.4541 19.4258 -2.5029 0.1078 0 14
-12.7648 19.2230 -2.5029 0.1078 0 14
-13.0722 19.0154 -2.5029 0.1078 0 8
-13.4599 18.9205 -2.5186 0.8178 0 8
-13.9185 18.9139 -2.5471 0.8086 0 8
-14.3876 18.9071 -2.5770 0.7992 0 8
-14.8680 18.9000 -2.6083 0.7896 0 8
-15.3602 18.8925 -2.6410 0.7798 0 8
-15.7013 18.6901 -2.6477 0.1078 0 7
-15.9997 18.4352 -2.6477 0.1078 0 6
-16.2940 18.1756 -2.6477 0.1078 0 7
-16.5840 17.9114 -2.6477 0.1078 0 7
-16.8698 17.6425 -2.6477 0.1078 0 7
-17.1512 17.3690 -2.6477 0.1078 0 7
-17.4283 17.0910 -2.6477 0.1078 0 7
-17.7007 16.8087 -2.6477 0.1078 0 7
-17.9686 16.5220 -2.6477 0.1078 0 7
-18.2319 16.2310 -2.6477 0.1078 0 7
-18.4905 15.9358 -2.6477 0.1078 0 7
-18.7443 15.6365 -2.6477 0.1078 0 7
-18.9932 15.3332 -2.6477 0.1078 0 7
-19.2372 15.0259 -2.6477 0.1078 0 7
-19.4763 14.7147 -2.6477 0.1078 0 7
-19.7103 14.3997 -2.6477 0.1078 0 7
-19.9393 14.0810 -2.6477 0.1078 0 7
-20.1630 13.7586 -2.6477 0.1078 0 7
-20.3816 13.4327 -2.6477 0.1078 0 7
-20.5949 13.1034 -2.6477 0.1078 0 7
-20.8029 12.7706 -2.6477 0.1078 0 7
-21.0055 12.4345 -2.6477 0.1078 0 7
-21.2027 12.0953 -2.6477 0.1078 0 7
-21.3944 11.7529 -2.6477 0.1078 0 7
-21.5805 11.4074 -2.6477 0.1078 0 6
-21.7611 11.0590 -2.6477 0.1078 0 7
-21.9361 10.7078 -2.6477 0.1078 0 7
-22.1054 10.3538 -2.6477 0.1078 0 7
-22.2689 9.9971 -2.6477 0.1078 0 7
-22.4268 9.6378 -2.6477 0.1078 0 7
-22.5788 9.2760 -2.6477 0.1078 0 7
3.9488 21.0464 -2.5029 0.1161 0 14
3.6099 21.1071 -2.5029 0.1161 0 14
3.2702 21.1624 -2.5029 0.1161 0 14
2.9296 21.2123 -2.5029 0.1161 0 14
2.5882 21.2566 -2.5029 0.1161 0 14
2.2461 21.2955 -2.5029 0.1161 0 14
1.9035 21.3288 -2.5029 0.1161 0 14
1.5604 21.3567 -2.5029 0.1161 0 14
1.2169 21.3790 -2.5029 0.1161 0 14
0.8731 21.3958 -2.5029 0.1161 0 14
0.5290 21.4071 -2.5029 0.1161 0 14
0.1848 21.4128 -2.5029 0.1161 0 14
-0.1594 21.4130 -2.5029 0.1161 0 14
-0.5036 21.4077 -2.5029 0.1161 0 14
-0.8477 21.3968 -2.5029 0.1161 0 14
-1.1915 21.3804 -2.5029 0.1161 0 14
-1.5351 21.3585 -2.5029 0.1161 0 14
-1.8782 21.3311 -2.5029 0.1161 0 14
-2.2209 21.2981 -2.5029 0.1161 0 14
-2.5630 21.2597 -2.5029 0.1161 0 14
-2.9044 21.2157 -2.5029 0.1161 0 14
-3.2451 21.1663 -2.5029 0.1161 0 14
-3.5849 21.1114 -2.5029 0.1161 0 14
-3.9238 21.0510 -2.5029 0.1161 0 14
-4.2617 20.9852 -2.5029 0.1161 0 14
-4.5985 20.9140 -2.5029 0.1161 0 14
-4.9341 20.8374 -2.5029 0.1161 0 14
-5.2684 20.7554 -2.5029 0.1161 0 14
-5.6014 20.6680 -2.5029 0.1161 0 14
-5.9329 20.5753 -2.5029 0.1161 0 14
-6.2629 20.4773 -2.5029 0.1161 0 14
-6.5913 20.3739 -2.5029 0.1161 0 14
-6.9179 20.2653 -2.5029 0.1161 0 14
-7.2428 20.1515 -2.5029 0.1161 0 14
-7.5658 20.0325 -2.5029 0.1161 0 14
-7.8869 19.9083 -2.5029 0.1161 0 14
-8.2059 19.7789 -2.5029 0.1161 0 14
-8.5228 19.6444 -2.5029 0.1161 0 14
-8.8375 19.5049 -2.5029 0.1161 0 14
-9.1498 19.3603 -2.5029 0.1161 0 14
-9.4599 19.2107 -2.5029 0.1161 0 14
-9.7675 19.0562 -2.5029 0.1161 0 8
-10.0925 18.9340 -2.5078 0.7028 0 8
-10.4828 18.9269 -2.5289 0.8768 0 8
-10.8810 18.9216 -2.5512 0.8691 0 8
-11.2863 18.9162 -2.5746 0.8612 0 8
-11.6992 18.9105 -2.5991 0.8531 0 8
-12.1200 18.9046 -2.6247 0.8448 0 8
-12.5308 18.8707 -2.6477 0.1161 0 7
-12.8325 18.6668 -2.6477 0.1161 0 7
-13.1310 18.4581 -2.6477 0.1161 0 6
-13.4260 18.2447 -2.6477 0.1161 0 7
-13.7175 18.0265 -2.6477 0.1161 0 7
-14.0055 17.8037 -2.6477 0.1161 0 7
-14.2899 17.5762 -2.6477 0.1161 0 7
-14.5706 17.3442 -2.6477 0.1161 0 7
-14.8476 17.1077 -2.6477 0.1161 0 7
-15.1207 16.8668 -2.6477 0.1161 0 7
-15.3898 16.6216 -2.6477 0.1161 0 7
-15.6550 16.3721 -2.6477 0.1161 0 7
-15.9162 16.1183 -2.6477 0.1161 0 7
-16.1733 15.8603 -2.6477 0.1161 0 7
-16.4261 15.5983 -2.6477 0.1161 0 7
-16.6747 15.3323 -2.6477 0.1161 0 7
-16.9191 15.0622 -2.6477 0.1161 0 7
-17.1590 14.7883 -2.6477 0.1161 0 7
-17.3945 14.5105 -2.6477 0.1161 0 7
-17.6255 14.2290 -2.6477 0.1161 0 7
-17.8520 13.9439 -2.6477 0.1161 0 7
-18.0738 13.6551 -2.6477 0.1161 0 7
-18.2910 13.3628 -2.6477 0.1161 0 7
-18.5035 13.0670 -2.6477 0.1161 0 7
-18.7111 12.7679 -2.6477 0.1161 0 7
-18.9139 12.4655 -2.6477 0.1161 0 7
-19.1119 12.1598 -2.6477 0.1161 0 7
-19.3049 11.8510 -2.6477 0.1161 0 7
-19.4929 11.5391 -2.6477 0.1161 0 7
-19.6759 11.2243 -2.6477 0.1161 0 7
-19.8538 10.9066 -2.6477 0.1161 0 7
-20.0265 10.5860 -2.6477 0.1161 0 7
-20.1941 10.2627 -2.6477 0.1161 0 7
-20.3565 9.9367 -2.6477 0.1161 0 7
-20.5136 9.6082 -2.6477 0.1161 0 7
-20.6654 9.2772 -2.6477 0.1161 0 7
-20.8119 8.9438 -2.6477 0.1161 0 7
-19.7469 8.1126 -2.4953 0.1161 0 8
3.6830 19.6301 -2.5029 0.1243 0 14
3.3670 19.6867 -2.5029 0.1243 0 14
3.0501 19.7383 -2.5029 0.1243 0 14
2.7324 19.7848 -2.5029 0.1243 0 14
2.4140 19.8262 -2.5029 0.1243 0 14
2.0950 19.8624 -2.5029 0.1243 0 14
1.7754 19.8935 -2.5029 0.1243 0 14
1.4554 19.9195 -2.5029 0.1243 0 14
1.1350 19.9403 -2.5029 0.1243 0 14
0.8143 19.9560 -2.5029 0.1243 0 14
0.4934 19.9665 -2.5029 0.1243 0 14
0.1724 19.9719 -2.5029 0.1243 0 14
-0.1487 19.9720 -2.5029 0.1243 0 14
-0.4697 19.9671 -2.5029 0.1243 0 14
-0.7906 19.9569 -2.5029 0.1243 0 14
-1.1114 19.9417 -2.5029 0.1243 0 14
-1.4318 19.9212 -2.5029 0.1243 0 14
-1.7518 19.8956 -2.5029 0.1243 0 14
-2.0714 19.8649 -2.5029 0.1243 0 14
-2.3905 19.8290 -2.5029 0.1243 0 14
-2.7089 19.7880 -2.5029 0.1243 0 14
-3.0267 19.7419 -2.5029 0.1243 0 14
-3.3437 19.6907 -2.5029 0.1243 0 14
-3.6598 19.6344 -2.5029 0.1243 0 14
-3.9749 19.5731 -2.5029 0.1243 0 14
-4.2890 19.5066 -2.5029 0.1243 0 14
-4.6021 19.4352 -2.5029 0.1243 0 14
-4.9139 19.3587 -2.5029 0.1243 0 14
-5.2245 19.2772 -2.5029 0.1243 0 14
-5.5337 19.1907 -2.5029 0.1243 0 14
-5.8425 19.1027 -2.5033 0.7594 0 8
-6.1477 19.0029 -2.5029 0.1243 0 8
-6.4667 18.9435 -2.5084 0.7526 0 8
-6.8068 18.9384 -2.5219 0.9417 0 8
-7.1512 18.9347 -2.5364 0.9363 0 8
-7.4997 18.9309 -2.5517 0.9307 0 8
-7.8524 18.9270 -2.5679 0.9248 0 8
-8.2097 18.9228 -2.5849 0.9188 0 8
-8.5717 18.9185 -2.6028 0.9124 0 8
-8.9389 18.9140 -2.6216 0.9059 0 8
-9.3114 18.9093 -2.6414 0.8991 0 8
-9.6372 18.8020 -2.6477 0.1243 0 7
-9.9382 18.6446 -2.6477 0.1243 0 7
-10.2366 18.4824 -2.6477 0.1243 0 7
-10.5324 18.3155 -2.6477 0.1243 0 7
-10.8255 18.1438 -2.6477 0.1243 0 7
-11.1157 17.9674 -2.6477 0.1243 0 7
-11.4031 17.7864 -2.6477 0.1243 0 7
-11.6876 17.6008 -2.6477 0.1243 0 7
-11.9690 17.4107 -2.6477 0.1243 0 7
-12.2473 17.2160 -2.6477 0.1243 0 7
-12.5225 17.0169 -2.6477 0.1243 0 7
-12.7944 16.8134 -2.6477 0.1243 0 7
-13.0631 16.6056 -2.6477 0.1243 0 7
-13.3283 16.3934 -2.6477 0.1243 0 7
-13.5901 16.1771 -2.6477 0.1243 0 7
-13.8484 15.9565 -2.6477 0.1243 0 7
-14.1031 15.7318 -2.6477 0.1243 0 7
-14.3542 15.5031 -2.6477 0.1243 0 7
-14.6016 15.2703 -2.6477 0.1243 0 7
-14.8451 15.0337 -2.6477 0.1243 0 7
-15.0849 14.7930 -2.6477 0.1243 0 7
-15.3208 14.5486 -2.6477 0.1243 0 7
-15.5526 14.3005 -2.6477 0.1243 0 7
-15.7805 14.0486 -2.6477 0.1243 0 7
-16.0043 13.7931 -2.6477 0.1243 0 7
-16.2240 13.5341 -2.6477 0.1243 0 7
-16.4395 13.2715 -2.6477 0.1243 0 7
-16.6507 13.0055 -2.6477 0.1243 0 7
-16.8576 12.7362 -2.6477 0.1243 0 7
-17.0601 12.4636 -2.6477 0.1243 0 7
-17.2583 12.1877 -2.6477 0.1243 0 7
-17.4520 11.9087 -2.6477 0.1243 0 7
-17.6412 11.6266 -2.6477 0.1243 0 7
-17.8258 11.3415 -2.6477 0.1243 0 6
-18.0058 11.0535 -2.6477 0.1243 0 7
-18.1812 10.7626 -2.6477 0.1243 0 7
-18.3518 10.4690 -2.6477 0.1243 0 7
-18.5177 10.1726 -2.6477 0.1243 0 7
-18.6789 9.8736 -2.6477 0.1243 0 7
-18.8352 9.5721 -2.6477 0.1243 0 7
-18.9866 9.2681 -2.6477 0.1243 0 7
-19.1332 8.9616 -2.6477 0.1243 0 7
-18.1653 8.1549 -2.4953 0.1243 0 8
-18.2940 7.8618 -2.4953 0.1243 0 8
-18.4181 7.5667 -2.4953 0.1243 0 8
3.5567 18.9564 -2.5800 0.9815 0 8
3.2422 18.9569 -2.5726 0.9843 0 8
2.9294 18.9573 -2.5660 0.9869 0 8
2.6182 18.9575 -2.5600 0.9892 0 8
2.3083 18.9576 -2.5546 0.9913 0 8
1.9996 18.9576 -2.5500 0.9931 0 8
1.6919 18.9575 -2.5460 0.9946 0 8
1.3851 18.9573 -2.5426 0.9960 0 8
1.0790 18.9570 -2.5399 0.9970 0 8
0.7735 18.9565 -2.5379 0.9978 0 8
0.4684 18.9559 -2.5364 0.9984 0 8
0.1636 18.9552 -2.5357 0.9987 0 8
-0.1411 18.9564 -2.5358 0.9970 0 8
-0.4459 18.9551 -2.5363 0.9986 0 8
-0.7509 18.9533 -2.5373 0.9982 0 8
-1.0562 18.9514 -2.5390 0.9975 0 8
-1.3620 18.9499 -2.5414 0.9964 0 8
-1.6684 18.9485 -2.5445 0.9952 0 8
-1.9757 18.9469 -2.5482 0.9938 0 8
-2.2840 18.9453 -2.5526 0.9921 0 8
-2.5933 18.9435 -2.5576 0.9901 0 8
-2.9040 18.9415 -2.5634 0.9879 0 8
-3.2161 18.9395 -2.5697 0.9854 0 8
-3.5298 18.9373 -2.5768 0.9827 0 8
-3.8453 18.9350 -2.5846 0.9798 0 8
-4.1628 18.9325 -2.5930 0.9766 0 8
-4.4824 18.9300 -2.6022 0.9731 0 8
-4.8044 18.9272 -2.6121 0.9694 0 8
-5.1288 18.9244 -2.6228 0.9655 0 8
-5.4560 18.9213 -2.6342 0.9613 0 8
-5.7861 18.9182 -2.6463 0.9569 0 8
-6.0925 18.8322 -2.6477 0.1326 0 7
-6.3944 18.7318 -2.6477 0.1326 0 7
-6.6947 18.6266 -2.6477 0.1326 0 7
-6.9933 18.5166 -2.6477 0.1326 0 7
-7.2900 18.4018 -2.6477 0.1326 0 6
-7.5849 18.2822 -2.6477 0.1326 0 7
-7.8778 18.1579 -2.6477 0.1326 0 7
-8.1687 18.0289 -2.6477 0.1326 0 7
-8.4575 17.8953 -2.6477 0.1326 0 7
-8.7440 17.7570 -2.6477 0.1326 0 7
-9.0284 17.6142 -2.6477 0.1326 0 7
-9.3103 17.4668 -2.6477 0.1326 0 7
-9.5899 17.3148 -2.6477 0.1326 0 7
-9.8670 17.1584 -2.6477 0.1326 0 7
-10.1416 16.9976 -2.6477 0.1326 0 7
-10.4135 16.8323 -2.6477 0.1326 0 7
-10.6827 16.6628 -2.6477 0.1326 0 7
-10.9492 16.4889 -2.6477 0.1326 0 7
-11.2129 16.3108 -2.6477 0.1326 0 7
-11.4736 16.1284 -2.6477 0.1326 0 7
-11.7314 15.9419 -2.6477 0.1326 0 7
-11.9862 15.7512 -2.6477 0.1326 0 7
-12.2378 15.5565 -2.6477 0.1326 0 7
-12.4863 15.3578 -2.6477 0.1326 0 7
-12.7316 15.1551 -2.6477 0.1326 0 7
-12.9736 14.9485 -2.6477 0.1326 0 7
-13.2122 14.7380 -2.6477 0.1326 0 7
-13.4474 14.5237 -2.6477 0.1326 0 7
-13.6791 14.3057 -2.6477 0.1326 0 7
-13.9073 14.0839 -2.6477 0.1326 0 7
-14.1319 13.8585 -2.6477 0.1326 0 7
-14.3529 13.6296 -2.6477 0.1326 0 7
-14.5701 13.3971 -2.6477 0.1326 0 7
-14.7836 13.1611 -2.6477 0.1326 0 7
-14.9933 12.9218 -2.6477 0.1326 0 7
-15.1990 12.6791 -2.6477 0.1326 0 7
-15.4009 12.4331 -2.6477 0.1326 0 7
-15.5988 12.1839 -2.6477 0.1326 0 7
-15.7926 11.9316 -2.6477 0.1326 0 7
-15.9824 11.6762 -2.6477 0.1326 0 7
-16.1680 11.4178 -2.6477 0.1326 0 6
-16.3495 11.1564 -2.6477 0.1326 0 7
-16.5267 10.8921 -2.6477 0.1326 0 7
-16.6997 10.6250 -2.6477 0.1326 0 7
-16.8683 10.3552 -2.6477 0.1326 0 7
-17.0326 10.0827 -2.6477 0.1326 0 7
-17.1925 9.8076 -2.6477 0.1326 0 7
-17.3479 9.5300 -2.6477 0.1326 0 7
-17.4989 9.2499 -2.6477 0.1326 0 7
-17.6453 8.9674 -2.6477 0.1326 0 7
-16.7633 8.1828 -2.4953 0.1326 0 8
-16.8927 7.9122 -2.4953 0.1326 0 8
-17.0177 7.6397 -2.4953 0.1326 0 8
-17.1383 7.3651 -2.4953 0.1326 0 8
-17.2545 7.0887 -2.4953 0.1326 0 8
3.4326 18.2953 -2.6477 0.1408 0 7
3.1381 18.3482 -2.6477 0.1408 0 7
2.8427 18.3962 -2.6477 0.1408 0 6
2.5466 18.4396 -2.6477 0.1408 0 6
2.2499 18.4781 -2.6477 0.1408 0 6
1.9525 18.5119 -2.6477 0.1408 0 7
1.6547 18.5409 -2.6477 0.1408 0 7
1.3565 18.5651 -2.6477 0.1408 0 7
1.0578 18.5845 -2.6477 0.1408 0 7
0.7589 18.5991 -2.6477 0.1408 0 7
0.4598 18.6089 -2.6477 0.1408 0 7
0.1606 18.6139 -2.6477 0.1408 0 7
-0.1386 18.6141 -2.6477 0.1408 0 7
-0.4378 18.6094 -2.6477 0.1408 0 7
-0.7369 18.6000 -2.6477 0.1408 0 7
-1.0358 18.5857 -2.6477 0.1408 0 7
-1.3344 18.5667 -2.6477 0.1408 0 7
-1.6327 18.5428 -2.6477 0.1408 0 7
-1.9306 18.5142 -2.6477 0.1408 0 7
-2.2280 18.4808 -2.6477 0.1408 0 6
-2.5248 18.4426 -2.6477 0.1408 0 6
-2.8209 18.3996 -2.6477 0.1408 0 6
-3.1163 18.3519 -2.6477 0.1408 0 7
-3.4109 18.2994 -2.6477 0.1408 0 7
-3.7047 18.2422 -2.6477 0.1408 0 7
-3.9974 18.1803 -2.6477 0.1408 0 7
-4.2892 18.1137 -2.6477 0.1408 0 7
-4.5798 18.0424 -2.6477 0.1408 0 7
-4.8692 17.9664 -2.6477 0.1408 0 7
-5.1574 17.8859 -2.6477 0.1408 0 7
-5.4443 17.8006 -2.6477 0.1408 0 7
-5.7297 17.7108 -2.6477 0.1408 0 7
-6.0137 17.6164 -2.6477 0.1408 0 7
-6.2961 17.5175 -2.6477 0.1408 0 7
-6.5769 17.4140 -2.6477 0.1408 0 7
-6.8559 17.3060 -2.6477 0.1408 0 7
-7.1333 17.1936 -2.6477 0.1408 0 7
-7.4087 17.0767 -2.6477 0.1408 0 7
-7.6823 16.9554 -2.6477 0.1408 0 7
-7.9539 16.8297 -2.6477 0.1408 0 7
-8.2234 16.6997 -2.6477 0.1408 0 7
-8.4908 16.5653 -2.6477 0.1408 0 7
-8.7560 16.4267 -2.6477 0.1408 0 7
-9.0189 16.2838 -2.6477 0.1408 0 7
-9.2795 16.1367 -2.6477 0.1408 0 7
-9.5377 15.9855 -2.6477 0.1408 0 7
-9.7934 15.8301 -2.6477 0.1408 0 7
-10.0466 15.6706 -2.6477 0.1408 0 7
-10.2972 15.5071 -2.6477 0.1408 0 7
-10.5452 15.3395 -2.6477 0.1408 0 7
-10.7904 15.1680 -2.6477 0.1408 0 7
-11.0328 14.9926 -2.6477 0.1408 0 7
-11.2724 14.8133 -2.6477 0.1408 0 7
-11.5091 14.6302 -2.6477 0.1408 0 7
-11.7428 14.4433 -2.6477 0.1408 0 7
-11.9735 14.2527 -2.6477 0.1408 0 7
-12.2010 14.0584 -2.6477 0.1408 0 7
-12.4255 13.8604 -2.6477 0.1408 0 7
-12.6467 13.6589 -2.6477 0.1408 0 7
-12.8646 13.4538 -2.6477 0.1408 0 7
-13.0792 13.2453 -2.6477 0.1408 0 7
-13.2904 13.0333 -2.6477 0.1408 0 7
-13.4982 12.8180 -2.6477 0.1408 0 7
-13.7025 12.5993 -2.6477 0.1408 0 7
-13.9033 12.3774 -2.6477 0.1408 0 7
-14.1005 12.1523 -2.6477 0.1408 0 7
-14.2940 11.9241 -2.6477 0.1408 0 7
-14.4838 11.6928 -2.6477 0.1408 0 7
-14.6699 11.4584 -2.6477 0.1408 0 7
-14.8522 11.2211 -2.6477 0.1408 0 7
-15.0307 10.9809 -2.6477 0.1408 0 7
-15.2053 10.7379 -2.6477 0.1408 0 7
-15.3759 10.4921 -2.6477 0.1408 0 7
-15.5426 10.2435 -2.6477 0.1408 0 7
-15.7053 9.9924 -2.6477 0.1408 0 7
-15.8639 9.7386 -2.6477 0.1408 0 7
-16.0184 9.4823 -2.6477 0.1408 0 7
-16.1687 9.2236 -2.6477 0.1408 0 7
-16.3149 8.9625 -2.6477 0.1408 0 7
-15.5096 8.1984 -2.4953 0.1408 0 8
-15.6394 7.9480 -2.4953 0.1408 0 8
-15.7652 7.6955 -2.4953 0.1408 0 8
-15.8868 7.4411 -2.4953 0.1408 0 8
-16.0044 7.1848 -2.4953 0.1408 0 8
-16.1178 6.9266 -2.4953 0.1408 0 8
-16.2271 6.6666 -2.4953 0.1408 0 8
3.2393 17.2649 -2.6477 0.1490 0 7
2.9613 17.3147 -2.6477 0.1490 0 7
2.6826 17.3601 -2.6477 0.1490 0 7
2.4032 17.4010 -2.6477 0.1490 0 7
2.1232 17.4374 -2.6477 0.1490 0 7
1.8426 17.4692 -2.6477 0.1490 0 7
1.5615 17.4966 -2.6477 0.1490 0 7
1.2800 17.5194 -2.6477 0.1490 0 7
0.9982 17.5378 -2.6477 0.1490 0 7
0.7162 17.5515 -2.6477 0.1490 0 7
0.4340 17.5608 -2.6477 0.1490 0 7
0.1516 17.5655 -2.6477 0.1490 0 7
-0.1308 17.5657 -2.6477 0.1490 0 7
-0.4131 17.5613 -2.6477 0.1490 0 7
-0.6954 17.5524 -2.6477 0.1490 0 7
-0.9774 17.5389 -2.6477 0.1490 0 7
-1.2593 17.5209 -2.6477 0.1490 0 7
-1.5408 17.4984 -2.6477 0.1490 0 7
-1.8219 17.4714 -2.6477 0.1490 0 7
-2.1025 17.4399 -2.6477 0.1490 0 7
-2.3825 17.4038 -2.6477 0.1490 0 7
-2.6620 17.3633 -2.6477 0.1490 0 7
-2.9408 17.3182 -2.6477 0.1490 0 7
-3.2188 17.2687 -2.6477 0.1490 0 7
-3.4960 17.2147 -2.6477 0.1490 0 7
-3.7723 17.1563 -2.6477 0.1490 0 7
-4.0476 17.0935 -2.6477 0.1490 0 7
-4.3218 17.0262 -2.6477 0.1490 0 7
-4.5950 16.9545 -2.6477 0.1490 0 7
-4.8669 16.8785 -2.6477 0.1490 0 7
-5.1376 16.7980 -2.6477 0.1490 0 7
-5.4070 16.7133 -2.6477 0.1490 0 7
-5.6750 16.6242 -2.6477 0.1490 0 7
-5.9415 16.5308 -2.6477 0.1490 0 7
-6.2064 16.4332 -2.6477 0.1490 0 7
-6.4698 16.3313 -2.6477 0.1490 0 7
-6.7315 16.2252 -2.6477 0.1490 0 7
-6.9914 16.1149 -2.6477 0.1490 0 7
-7.2496 16.0004 -2.6477 0.1490 0 7
-7.5059 15.8818 -2.6477 0.1490 0 7
-7.7602 15.7591 -2.6477 0.1490 0 7
-8.0125 15.6323 -2.6477 0.1490 0 7
-8.2628 15.5015 -2.6477 0.1490 0 7
-8.5109 15.3666 -2.6477 0.1490 0 7
-8.7568 15.2278 -2.6477 0.1490 0 7
-9.0005 15.0851 -2.6477 0.1490 0 7
-9.2418 14.9385 -2.6477 0.1490 0 7
-9.4808 14.7880 -2.6477 0.1490 0 7
-9.7173 14.6337 -2.6477 0.1490 0 7
-9.9513 14.4756 -2.6477 0.1490 0 7
-10.1827 14.3137 -2.6477 0.1490 0 7
-10.4114 14.1482 -2.6477 0.1490 0 7
-10.6375 13.9790 -2.6477 0.1490 0 7
-10.8609 13.8062 -2.6477 0.1490 0 7
-11.0814 13.6298 -2.6477 0.1490 0 7
-11.2991 13.4499 -2.6477 0.1490 0 7
-11.5138 13.2665 -2.6477 0.1490 0 7
-11.7256 13.0797 -2.6477 0.1490 0 7
-11.9344 12.8896 -2.6477 0.1490 0 7
-12.1400 12.6960 -2.6477 0.1490 0 7
-12.3425 12.4993 -2.6477 0.1490 0 7
-12.5419 12.2992 -2.6477 0.1490 0 7
-12.7380 12.0960 -2.6477 0.1490 0 7
-12.9308 11.8897 -2.6477 0.1490 0 7
-13.1202 11.6803 -2.6477 0.1490 0 7
-13.3063 11.4679 -2.6477 0.1490 0 7
-13.4889 11.2525 -2.6477 0.1490 0 7
-13.6681 11.0342 -2.6477 0.1490 0 7
-13.8437 10.8130 -2.6477 0.1490 0 7
-14.0157 10.5891 -2.6477 0.1490 0 7
-14.1841 10.3624 -2.6477 0.1490 0 7
-14.3489 10.1331 -2.6477 0.1490 0 7
-14.5099 9.9011 -2.6477 0.1490 0 7
-14.6672 9.6666 -2.6477 0.1490 0 7
-14.8207 9.4296 -2.6477 0.1490 0 7
-14.9704 9.1901 -2.6477 0.1490 0 7
-15.1162 8.9483 -2.6477 0.1490 0 7
-14.3798 8.2031 -2.4953 0.1490 0 8
-14.5098 7.9709 -2.4953 0.1490 0 8
-14.6361 7.7366 -2.4953 0.1490 0 8
-14.7585 7.5003 -2.4953 0.1490 0 8
-14.8772 7.2621 -2.4953 0.1490 0 8
-14.9920 7.0220 -2.4953 0.1490 0 8
-15.1030 6.7801 -2.4953 0.1490 0 8
-15.2100 6.5364 -2.4953 0.1490 0 8
-15.3131 6.2911 -2.4953 0.1490 0 8
3.0662 16.3421 -2.6477 0.1573 0 7
2.8031 16.3893 -2.6477 0.1573 0 7
2.5392 16.4323 -2.6477 0.1573 0 7
2.2748 16.4710 -2.6477 0.1573 0 7
2.0097 16.5054 -2.6477 0.1573 0 7
1.7441 16.5356 -2.6477 0.1573 0 7
1.4781 16.5615 -2.6477 0.1573 0 7
1.2116 16.5831 -2.6477 0.1573 0 7
0.9449 16.6004 -2.6477 0.1573 0 7
0.6779 16.6135 -2.6477 0.1573 0 7
0.4108 16.6222 -2.6477 0.1573 0 7
0.1435 16.6267 -2.6477 0.1573 0 7
-0.1238 16.6268 -2.6477 0.1573 0 7
-0.3911 16.6227 -2.6477 0.1573 0 7
-0.6582 16.6143 -2.6477 0.1573 0 7
-0.9252 16.6015 -2.6477 0.1573 0 7
-1.1920 16.5845 -2.6477 0.1573 0 7
-1.4584 16.5632 -2.6477 0.1573 0 7
-1.7245 16.5376 -2.6477 0.1573 0 7
-1.9901 16.5078 -2.6477 0.1573 0 7
-2.2552 16.4736 -2.6477 0.1573 0 7
-2.5197 16.4353 -2.6477 0.1573 0 7
-2.7836 16.3926 -2.6477 0.1573 0 7
-3.0468 16.3458 -2.6477 0.1573 0 7
-3.3091 16.2947 -2.6477 0.1573 0 7
-3.5707 16.2394 -2.6477 0.1573 0 7
-3.8312 16.1799 -2.6477 0.1573 0 7
-4.0908 16.1162 -2.6477 0.1573 0 7
-4.3494 16.0483 -2.6477 0.1573 0 7
-4.6068 15.9764 -2.6477 0.1573 0 7
-4.8630 15.9002 -2.6477 0.1573 0 7
-5.1180 15.8200 -2.6477 0.1573 0 7
-5.3717 15.7357 -2.6477 0.1573 0 7
-5.6239 15.6473 -2.6477 0.1573 0 7
-5.8747 15.5549 -2.6477 0.1573 0 7
-6.1240 15.4584 -2.6477 0.1573 0 7
-6.3717 15.3580 -2.6477 0.1573 0 7
-6.6178 15.2536 -2.6477 0.1573 0 7
-6.8621 15.1452 -2.6477 0.1573 0 7
-7.1047 15.0330 -2.6477 0.1573 0 7
-7.3455 14.9168 -2.6477 0.1573 0 6
-7.5843 14.7968 -2.6477 0.1573 0 7
-7.8212 14.6730 -2.6477 0.1573 0 7
-8.0560 14.5453 -2.6477 0.1573 0 7
-8.2888 14.4140 -2.6477 0.1573 0 7
-8.5195 14.2789 -2.6477 0.1573 0 7
-8.7479 14.1401 -2.6477 0.1573 0 7
-8.9741 13.9976 -2.6477 0.1573 0 7
-9.1979 13.8515 -2.6477 0.1573 0 7
-9.4194 13.7019 -2.6477 0.1573 0 7
-9.6384 13.5487 -2.6477 0.1573 0 7
-9.8550 13.3920 -2.6477 0.1573 0 7
-10.0690 13.2319 -2.6477 0.1573 0 7
-10.2804 13.0683 -2.6477 0.1573 0 7
-10.4891 12.9013 -2.6477 0.1573 0 7
-10.6952 12.7311 -2.6477 0.1573 0 7
-10.8985 12.5575 -2.6477 0.1573 0 7
-11.0989 12.3807 -2.6477 0.1573 0 7
-11.2965 12.2006 -2.6477 0.1573 0 7
-11.4912 12.0175 -2.6477 0.1573 0 7
-11.6829 11.8312 -2.6477 0.1573 0 7
-11.8716 11.6419 -2.6477 0.1573 0 7
-12.0572 11.4495 -2.6477 0.1573 0 6
-12.2397 11.2542 -2.6477 0.1573 0 7
-12.4190 11.0560 -2.6477 0.1573 0 7
-12.5951 10.8549 -2.6477 0.1573 0 7
-12.7680 10.6511 -2.6477 0.1573 0 7
-12.9376 10.4444 -2.6477 0.1573 0 7
-13.1038 10.2351 -2.6477 0.1573 0 7
-13.2666 10.0231 -2.6477 0.1573 0 7
-13.4260 9.8086 -2.6477 0.1573 0 7
-13.5820 9.5915 -2.6477 0.1573 0 7
-13.7344 9.3719 -2.6477 0.1573 0 7
-13.8833 9.1499 -2.6477 0.1573 0 7
-13.2211 8.4118 -2.4953 0.1573 0 8
-13.3546 8.1982 -2.4953 0.1573 0 8
-13.4847 7.9825 -2.4953 0.1573 0 8
-13.6112 7.7647 -2.4953 0.1573 0 8
-13.7343 7.5449 -2.4953 0.1573 0 8
-13.8538 7.3231 -2.4953 0.1573 0 8
-13.9697 7.0995 -2.4953 0.1573 0 8
-14.0821 6.8740 -2.4953 0.1573 0 8
-14.1907 6.6467 -2.4953 0.1573 0 8
-14.2958 6.4177 -2.4953 0.1573 0 8
-14.3971 6.1871 -2.4953 0.1573 0 8
-14.4947 5.9548 -2.4953 0.1573 0 8
2.9102 15.5109 -2.6477 0.1655 0 7
2.6605 15.5557 -2.6477 0.1655 0 7
2.4101 15.5965 -2.6477 0.1655 0 7
2.1591 15.6332 -2.6477 0.1655 0 7
1.9075 15.6659 -2.6477 0.1655 0 7
1.6554 15.6945 -2.6477 0.1655 0 7
1.4029 15.7191 -2.6477 0.1655 0 7
1.1500 15.7396 -2.6477 0.1655 0 7
0.8968 15.7561 -2.6477 0.1655 0 7
0.6434 15.7685 -2.6477 0.1655 0 7
0.3899 15.7767 -2.6477 0.1655 0 7
0.1362 15.7810 -2.6477 0.1655 0 7
-0.1175 15.7811 -2.6477 0.1655 0 7
-0.3712 15.7772 -2.6477 0.1655 0 7
-0.6247 15.7692 -2.6477 0.1655 0 7
-0.8781 15.7571 -2.6477 0.1655 0 7
-1.1313 15.7410 -2.6477 0.1655 0 7
-1.3842 15.7207 -2.6477 0.1655 0 7
-1.6368 15.6965 -2.6477 0.1655 0 7
-1.8889 15.6681 -2.6477 0.1655 0 7
-2.1405 15.6357 -2.6477 0.1655 0 7
-2.3916 15.5993 -2.6477 0.1655 0 7
-2.6420 15.5588 -2.6477 0.1655 0 7
-2.8918 15.5144 -2.6477 0.1655 0 7
-3.1408 15.4659 -2.6477 0.1655 0 7
-3.3890 15.4134 -2.6477 0.1655 0 7
-3.6364 15.3569 -2.6477 0.1655 0 7
-3.8828 15.2965 -2.6477 0.1655 0 7
-4.1282 15.2321 -2.6477 0.1655 0 7
-4.3725 15.1638 -2.6477 0.1655 0 7
-4.6157 15.0915 -2.6477 0.1655 0 7
-4.8577 15.0154 -2.6477 0.1655 0 7
-5.0984 14.9353 -2.6477 0.1655 0 7
-5.3379 14.8514 -2.6477 0.1655 0 7
-5.5759 14.7637 -2.6477 0.1655 0 7
-5.8125 14.6722 -2.6477 0.1655 0 7
-6.0476 14.5768 -2.6477 0.1655 0 7
-6.2812 14.4777 -2.6477 0.1655 0 7
-6.5131 14.3749 -2.6477 0.1655 0 7
-6.7433 14.2683 -2.6477 0.1655 0 7
-6.9718 14.1581 -2.6477 0.1655 0 7
-7.1985 14.0442 -2.6477 0.1655 0 7
-7.4234 13.9267 -2.6477 0.1655 0 7
-7.6463 13.8055 -2.6477 0.1655 0 7
-7.8672 13.6808 -2.6477 0.1655 0 7
-8.0861 13.5526 -2.6477 0.1655 0 7
-8.3029 13.4208 -2.6477 0.1655 0 7
-8.5176 13.2856 -2.6477 0.1655 0 7
-8.7301 13.1470 -2.6477 0.1655 0 7
-8.9403 13.0050 -2.6477 0.1655 0 7
-9.1482 12.8596 -2.6477 0.1655 0 7
-9.3537 12.7109 -2.6477 0.1655 0 7
-9.5568 12.5588 -2.6477 0.1655 0 7
-9.7575 12.4036 -2.6477 0.1655 0 7
-9.9556 12.2451 -2.6477 0.1655 0 7
-10.1512 12.0835 -2.6477 0.1655 0 7
-10.3441 11.9188 -2.6477 0.1655 0 7
-10.5344 11.7509 -2.6477 0.1655 0 7
-10.7219 11.5801 -2.6477 0.1655 0 7
-10.9067 11.4062 -2.6477 0.1655 0 6
-11.0886 11.2294 -2.6477 0.1655 0 7
-11.2677 11.0497 -2.6477 0.1655 0 7
-11.4439 10.8672 -2.6477 0.1655 0 7
-11.6171 10.6818 -2.6477 0.1655 0 7
-11.7873 10.4937 -2.6477 0.1655 0 7
-11.9545 10.3028 -2.6477 0.1655 0 7
-12.1186 10.1093 -2.6477 0.1655 0 7
-12.2795 9.9132 -2.6477 0.1655 0 7
-12.4373 9.7145 -2.6477 0.1655 0 7
-12.5918 9.5133 -2.6477 0.1655 0 7
-12.7431 9.3097 -2.6477 0.1655 0 7
-12.8911 9.1036 -2.6477 0.1655 0 7
-12.2855 8.3832 -2.4953 0.1655 0 8
-12.4187 8.1847 -2.4953 0.1655 0 8
-12.5486 7.9840 -2.4953 0.1655 0 8
-12.6753 7.7812 -2.4953 0.1655 0 8
-12.7988 7.5765 -2.4953 0.1655 0 8
-12.9189 7.3697 -2.4953 0.1655 0 8
-13.0357 7.1611 -2.4953 0.1655 0 8
-13.1492 6.9506 -2.4953 0.1655 0 8
-13.2592 6.7384 -2.4953 0.1655 0 8
-13.3658 6.5243 -2.4953 0.1655 0 8
-13.4690 6.3086 -2.4953 0.1655 0 8
-13.5686 6.0913 -2.4953 0.1655 0 8
-13.6648 5.8724 -2.4953 0.1655 0 8
-13.7574 5.6520 -2.4953 0.1655 0 8
2.7690 14.7582 -2.6477 0.1736 0 7
2.5314 14.8008 -2.6477 0.1736 0 7
2.2931 14.8396 -2.6477 0.1736 0 7
2.0543 14.8745 -2.6477 0.1736 0 7
1.8149 14.9056 -2.6477 0.1736 0 7
1.5750 14.9329 -2.6477 0.1736 0 7
1.3348 14.9562 -2.6477 0.1736 0 7
1.0942 14.9758 -2.6477 0.1736 0 7
0.8533 14.9914 -2.6477 0.1736 0 7
0.6122 15.0032 -2.6477 0.1736 0 7
0.3710 15.0111 -2.6477 0.1736 0 7
0.1296 15.0151 -2.6477 0.1736 0 7
-0.1118 15.0153 -2.6477 0.1736 0 7
-0.3531 15.0115 -2.6477 0.1736 0 7
-0.5944 15.0039 -2.6477 0.1736 0 7
-0.8355 14.9924 -2.6477 0.1736 0 6
-1.0764 14.9771 -2.6477 0.1736 0 6
-1.3171 14.9578 -2.6477 0.1736 0 6
-1.5573 14.9347 -2.6477 0.1736 0 6
-1.7972 14.9078 -2.6477 0.1736 0 7
-2.0366 14.8769 -2.6477 0.1736 0 7
-2.2755 14.8423 -2.6477 0.1736 0 7
-2.5138 14.8038 -2.6477 0.1736 0 7
-2.7515 14.7615 -2.6477 0.1736 0 7
-2.9884 14.7153 -2.6477 0.1736 0 7
-3.2246 14.6654 -2.6477 0.1736 0 7
-3.4599 14.6116 -2.6477 0.1736 0 7
-3.6943 14.5541 -2.6477 0.1736 0 7
-3.9278 14.4929 -2.6477 0.1736 0 7
-4.1603 14.4279 -2.6477 0.1736 0 7
-4.3917 14.3591 -2.6477 0.1736 0 7
-4.6219 14.2867 -2.6477 0.1736 0 7
-4.8510 14.2105 -2.6477 0.1736 0 7
-5.0788 14.1307 -2.6477 0.1736 0 7
-5.3053 14.0472 -2.6477 0.1736 0 7
-5.5304 13.9601 -2.6477 0.1736 0 7
-5.7541 13.8694 -2.6477 0.1736 0 7
-5.9764 13.7751 -2.6477 0.1736 0 7
-6.1970 13.6773 -2.6477 0.1736 0 7
-6.4161 13.5759 -2.6477 0.1736 0 7
-6.6335 13.4710 -2.6477 0.1736 0 7
-6.8492 13.3626 -2.6477 0.1736 0 7
-7.0631 13.2508 -2.6477 0.1736 0 7
-7.2752 13.1355 -2.6477 0.1736 0 7
-7.4854 13.0169 -2.6477 0.1736 0 7
-7.6937 12.8949 -2.6477 0.1736 0 7
-7.9000 12.7695 -2.6477 0.1736 0 7
-8.1043 12.6409 -2.6477 0.1736 0 7
-8.3064 12.5090 -2.6477 0.1736 0 7
-8.5064 12.3738 -2.6477 0.1736 0 7
-8.7042 12.2355 -2.6477 0.1736 0 7
-8.8998 12.0940 -2.6477 0.1736 0 7
-9.0930 11.9494 -2.6477 0.1736 0 7
-9.2840 11.8017 -2.6477 0.1736 0 7
-9.4725 11.6509 -2.6477 0.1736 0 7
-9.6586 11.4971 -2.6477 0.1736 0 7
-9.8421 11.3403 -2.6477 0.1736 0 7
-10.0232 11.1807 -2.6477 0.1736 0 7
-10.2016 11.0181 -2.6477 0.1736 0 7
-10.3774 10.8527 -2.6477 0.1736 0 7
-10.5505 10.6845 -2.6477 0.1736 0 7
-10.7209 10.5135 -2.6477 0.1736 0 7
-10.8885 10.3398 -2.6477 0.1736 0 7
-11.0533 10.1634 -2.6477 0.1736 0 7
-11.2153 9.9844 -2.6477 0.1736 0 7
-11.3743 9.8028 -2.6477 0.1736 0 7
-11.5304 9.6187 -2.6477 0.1736 0 7
-11.6836 9.4321 -2.6477 0.1736 0 7
-11.8337 9.2431 -2.6477 0.1736 0 7
-11.9808 9.0517 -2.6477 0.1736 0 7
-11.4268 8.3480 -2.4953 0.1736 0 8
-11.5595 8.1633 -2.4953 0.1736 0 8
-11.6893 7.9764 -2.4953 0.1736 0 8
-11.8160 7.7875 -2.4953 0.1736 0 8
-11.9396 7.5965 -2.4953 0.1736 0 8
-12.0602 7.4036 -2.4953 0.1736 0 8
-12.1777 7.2088 -2.4953 0.1736 0 8
-12.2920 7.0121 -2.4953 0.1736 0 8
-12.4031 6.8136 -2.4953 0.1736 0 8
-12.5110 6.6133 -2.4953 0.1736 0 8
-12.6157 6.4113 -2.4953 0.1736 0 8
-12.7172 6.2077 -2.4953 0.1736 0 8
-12.8153 6.0025 -2.4953 0.1736 0 8
-12.9101 5.7957 -2.4953 0.1736 0 8
-13.0016 5.5874 -2.4953 0.1736 0 8
-13.0898 5.3777 -2.4953 0.1736 0 8
2.6405 14.0732 -2.6477 0.1818 0 7
2.4139 14.1138 -2.6477 0.1818 0 7
2.1867 14.1508 -2.6477 0.1818 0 7
1.9589 14.1841 -2.6477 0.1818 0 7
1.7307 14.2138 -2.6477 0.1818 0 7
1.5019 14.2398 -2.6477 0.1818 0 7
1.2728 14.2621 -2.6477 0.1818 0 7
1.0434 14.2807 -2.6477 0.1818 0 7
0.8137 14.2956 -2.6477 0.1818 0 7
0.5838 14.3069 -2.6477 0.1818 0 7
0.3537 14.3144 -2.6477 0.1818 0 7
0.1236 14.3182 -2.6477 0.1818 0 7
-0.1066 14.3184 -2.6477 0.1818 0 7
-0.3368 14.3148 -2.6477 0.1818 0 7
-0.5668 14.3075 -2.6477 0.1818 0 7
-0.7967 14.2966 -2.6477 0.1818 0 7
-1.0265 14.2819 -2.6477 0.1818 0 7
-1.2559 14.2636 -2.6477 0.1818 0 7
-1.4851 14.2415 -2.6477 0.1818 0 7
-1.7138 14.2158 -2.6477 0.1818 0 7
-1.9421 14.1864 -2.6477 0.1818 0 7
