ply
format ascii 1.0
element vertex 1375
property float32 x
property float32 y
property float32 z
property float32 CosAngle
property uint32 ObjIdx
property uint32 ObjTag
end_header
2.8281 37.3670 -2.4953 0.0664 0 8
2.2287 37.4076 -2.4953 0.0664 0 8
1.6288 37.4385 -2.4953 0.0664 0 8
1.0285 37.4598 -2.4953 0.0664 0 8
0.4279 37.4715 -2.4953 0.0664 0 8
-0.1728 37.4735 -2.4953 0.0664 0 8
-0.7735 37.4659 -2.4953 0.0664 0 8
-1.3739 37.4487 -2.4953 0.0664 0 8
-1.9741 37.4219 -2.4953 0.0664 0 8
-2.5737 37.3854 -2.4953 0.0664 0 8
-3.1726 37.3394 -2.4953 0.0664 0 8
-3.7707 37.2837 -2.4953 0.0664 0 8
-4.3679 37.2185 -2.4953 0.0664 0 8
-4.9639 37.1437 -2.4953 0.0664 0 8
-5.5587 37.0593 -2.4953 0.0664 0 8
-6.1520 36.9655 -2.4953 0.0664 0 8
-6.7438 36.8621 -2.4953 0.0664 0 8
-7.3338 36.7493 -2.4953 0.0664 0 8
-7.9219 36.6270 -2.4953 0.0664 0 8
-8.5080 36.4953 -2.4953 0.0664 0 8
-9.0920 36.3542 -2.4953 0.0664 0 8
-9.6735 36.2038 -2.4953 0.0664 0 8
-10.2526 36.0441 -2.4953 0.0664 0 8
-10.8291 35.8751 -2.4953 0.0664 0 8
-11.4028 35.6969 -2.4953 0.0664 0 8
-11.9735 35.5096 -2.4953 0.0664 0 8
-12.5412 35.3131 -2.4953 0.0664 0 8
-13.1056 35.1075 -2.4953 0.0664 0 8
-13.6667 34.8929 -2.4953 0.0664 0 8
-14.2242 34.6694 -2.4953 0.0664 0 8
-14.7781 34.4369 -2.4953 0.0664 0 8
-15.3283 34.1956 -2.4953 0.0664 0 8
-15.8744 33.9455 -2.4953 0.0664 0 8
-16.4165 33.6867 -2.4953 0.0664 0 8
-16.9544 33.4192 -2.4953 0.0664 0 8
-17.4879 33.1431 -2.4953 0.0664 0 8
28.9404 19.0241 -2.5954 0.5499 0 8
27.9661 19.0326 -2.5351 0.5630 0 8
27.3064 19.2312 -2.5029 0.0747 0 14
26.9946 19.6664 -2.5029 0.0747 0 14
26.6759 20.0966 -2.5029 0.0747 0 14
26.3504 20.5216 -2.5029 0.0747 0 14
26.0180 20.9414 -2.5029 0.0747 0 14
25.6790 21.3557 -2.5029 0.0747 0 14
25.3334 21.7646 -2.5029 0.0747 0 14
24.9812 22.1679 -2.5029 0.0747 0 14
26.0470 23.8708 -2.6477 0.0747 0 7
25.6610 24.2853 -2.6477 0.0747 0 7
25.2684 24.6935 -2.6477 0.0747 0 7
24.8693 25.0954 -2.6477 0.0747 0 7
24.4639 25.4908 -2.6477 0.0747 0 7
24.0521 25.8796 -2.6477 0.0747 0 7
23.6342 26.2619 -2.6477 0.0747 0 7
23.2102 26.6373 -2.6477 0.0747 0 7
22.7802 27.0060 -2.6477 0.0747 0 7
22.3444 27.3677 -2.6477 0.0747 0 7
21.9028 27.7223 -2.6477 0.0747 0 7
21.4556 28.0699 -2.6477 0.0747 0 7
21.0029 28.4102 -2.6477 0.0747 0 7
20.5448 28.7432 -2.6477 0.0747 0 7
20.0814 29.0688 -2.6477 0.0747 0 7
19.6129 29.3870 -2.6477 0.0747 0 7
19.1393 29.6976 -2.6477 0.0747 0 7
18.6608 30.0006 -2.6477 0.0747 0 6
18.1775 30.2959 -2.6477 0.0747 0 7
17.6896 30.5833 -2.6477 0.0747 0 7
17.1970 30.8630 -2.6477 0.0747 0 7
16.7001 31.1347 -2.6477 0.0747 0 7
16.1989 31.3984 -2.6477 0.0747 0 7
15.6935 31.6540 -2.6477 0.0747 0 7
15.1841 31.9015 -2.6477 0.0747 0 7
14.6707 32.1408 -2.6477 0.0747 0 7
14.1537 32.3718 -2.6477 0.0747 0 7
13.6241 32.5734 -2.6460 0.0903 0 8
13.0852 32.7501 -2.6429 0.0904 0 8
12.5444 32.9185 -2.6399 0.9289 0 8
11.9441 32.9197 -2.6244 0.9344 0 8
11.3508 32.9208 -2.6096 0.9397 0 8
10.7638 32.9218 -2.5957 0.9447 0 8
10.1829 32.9226 -2.5825 0.9495 0 8
9.6076 32.9233 -2.5702 0.9541 0 8
9.0377 32.9238 -2.5586 0.9584 0 8
8.4727 32.9243 -2.5477 0.9625 0 8
7.9123 32.9246 -2.5376 0.9664 0 8
7.3562 32.9248 -2.5282 0.9700 0 8
6.8040 32.9249 -2.5195 0.9733 0 8
6.2554 32.9248 -2.5115 0.9764 0 8
5.7101 32.9247 -2.5042 0.9793 0 8
5.1685 32.9284 -2.4979 0.7490 0 8
4.6352 32.9729 -2.4953 0.0747 0 8
4.1061 33.0430 -2.4953 0.0747 0 8
3.5759 33.1045 -2.4953 0.0747 0 8
3.0448 33.1576 -2.4953 0.0747 0 8
2.5129 33.2021 -2.4953 0.0747 0 8
1.9803 33.2382 -2.4953 0.0747 0 8
1.4473 33.2656 -2.4953 0.0747 0 8
0.9138 33.2846 -2.4953 0.0747 0 8
0.3802 33.2949 -2.4953 0.0747 0 8
-0.1535 33.2967 -2.4953 0.0747 0 8
-0.6873 33.2900 -2.4953 0.0747 0 8
-1.2208 33.2747 -2.4953 0.0747 0 8
-1.7540 33.2509 -2.4953 0.0747 0 8
-2.2868 33.2185 -2.4953 0.0747 0 8
-2.8190 33.1776 -2.4953 0.0747 0 8
-3.3505 33.1281 -2.4953 0.0747 0 8
-3.8810 33.0701 -2.4953 0.0747 0 8
-4.4107 33.0037 -2.4953 0.0747 0 8
-4.9391 32.9287 -2.4953 0.0747 0 8
-5.4750 32.8975 -2.4992 0.7488 0 8
-6.0174 32.8918 -2.5058 0.9786 0 8
-6.5634 32.8889 -2.5133 0.9757 0 8
-7.1128 32.8858 -2.5214 0.9726 0 8
-7.6658 32.8827 -2.5303 0.9692 0 8
-8.2229 32.8793 -2.5399 0.9655 0 8
-8.7843 32.8759 -2.5501 0.9616 0 8
-9.3504 32.8723 -2.5612 0.9575 0 8
-9.9215 32.8685 -2.5729 0.9531 0 8
-10.4980 32.8646 -2.5855 0.9485 0 8
-11.0803 32.8605 -2.5988 0.9436 0 8
-11.6687 32.8562 -2.6129 0.9385 0 8
-12.2636 32.8518 -2.6278 0.9332 0 8
-12.8511 32.8105 -2.6407 0.0905 0 8
-13.3902 32.6365 -2.6436 0.0904 0 8
-13.9276 32.4550 -2.6467 0.0903 0 8
-14.4516 32.2399 -2.6477 0.0747 0 7
-14.9666 32.0041 -2.6477 0.0747 0 7
-15.4776 31.7601 -2.6477 0.0747 0 7
-15.9848 31.5079 -2.6477 0.0747 0 7
-16.4878 31.2476 -2.6477 0.0747 0 7
26.5592 17.4588 -2.6477 0.0830 0 7
26.2760 17.8823 -2.6477 0.0830 0 7
25.9859 18.3012 -2.6477 0.0830 0 7
25.6892 18.7154 -2.6477 0.0830 0 7
25.2298 19.0071 -2.6314 0.6026 0 8
24.4155 19.0148 -2.5779 0.6151 0 8
23.6333 19.0220 -2.5272 0.6274 0 8
23.1009 19.2117 -2.5029 0.0830 0 14
22.7900 19.5796 -2.5029 0.0830 0 14
22.4732 19.9424 -2.5029 0.0830 0 14
22.1507 20.3000 -2.5029 0.0830 0 14
21.8224 20.6525 -2.5029 0.0830 0 14
21.4886 20.9996 -2.5029 0.0830 0 14
21.1492 21.3414 -2.5029 0.0830 0 14
20.8044 21.6777 -2.5029 0.0830 0 14
20.4542 22.0084 -2.5029 0.0830 0 14
20.0988 22.3334 -2.5029 0.0830 0 8
20.8800 23.9631 -2.6477 0.0830 0 7
20.4932 24.2947 -2.6477 0.0830 0 7
20.1011 24.6201 -2.6477 0.0830 0 7
19.7039 24.9391 -2.6477 0.0830 0 7
19.3016 25.2518 -2.6477 0.0830 0 7
18.8943 25.5579 -2.6477 0.0830 0 7
18.4822 25.8575 -2.6477 0.0830 0 7
18.0654 26.1504 -2.6477 0.0830 0 7
17.6439 26.4367 -2.6477 0.0830 0 7
17.2178 26.7161 -2.6477 0.0830 0 7
16.7874 26.9887 -2.6477 0.0830 0 7
16.3526 27.2543 -2.6477 0.0830 0 7
15.9136 27.5129 -2.6477 0.0830 0 7
15.4705 27.7645 -2.6477 0.0830 0 7
15.0235 28.0089 -2.6477 0.0830 0 7
14.5726 28.2461 -2.6477 0.0830 0 7
14.1179 28.4761 -2.6477 0.0830 0 7
13.6597 28.6987 -2.6477 0.0830 0 7
13.1979 28.9140 -2.6477 0.0830 0 7
12.7327 29.1218 -2.6477 0.0830 0 7
12.2642 29.3222 -2.6477 0.0830 0 7
11.7926 29.5150 -2.6477 0.0830 0 7
11.3180 29.7003 -2.6477 0.0830 0 7
10.8405 29.8779 -2.6477 0.0830 0 7
10.3602 30.0478 -2.6477 0.0830 0 7
9.8772 30.2100 -2.6477 0.0830 0 7
9.3917 30.3645 -2.6477 0.0830 0 7
8.9037 30.5111 -2.6477 0.0830 0 7
8.4135 30.6499 -2.6477 0.0830 0 7
7.9211 30.7808 -2.6477 0.0830 0 7
7.4267 30.9038 -2.6477 0.0830 0 7
6.9304 31.0189 -2.6477 0.0830 0 7
6.4322 31.1260 -2.6477 0.0830 0 7
5.9325 31.2251 -2.6477 0.0830 0 7
5.4312 31.3162 -2.6477 0.0830 0 7
4.9285 31.3992 -2.6477 0.0830 0 7
4.4245 31.4742 -2.6477 0.0830 0 7
3.9194 31.5411 -2.6477 0.0830 0 7
3.4134 31.5999 -2.6477 0.0830 0 7
2.9064 31.6505 -2.6477 0.0830 0 7
2.3987 31.6931 -2.6477 0.0830 0 7
1.8903 31.7274 -2.6477 0.0830 0 7
1.3815 31.7537 -2.6477 0.0830 0 7
0.8723 31.7717 -2.6477 0.0830 0 7
0.3629 31.7816 -2.6477 0.0830 0 7
-0.1466 31.7834 -2.6477 0.0830 0 7
-0.6560 31.7769 -2.6477 0.0830 0 7
-1.1653 31.7623 -2.6477 0.0830 0 7
-1.6743 31.7396 -2.6477 0.0830 0 7
-2.1829 31.7086 -2.6477 0.0830 0 7
-2.6909 31.6696 -2.6477 0.0830 0 7
-3.1982 31.6224 -2.6477 0.0830 0 7
-3.7046 31.5670 -2.6477 0.0830 0 7
-4.2102 31.5036 -2.6477 0.0830 0 7
-4.7146 31.4321 -2.6477 0.0830 0 7
-5.2179 31.3525 -2.6477 0.0830 0 7
-5.7198 31.2648 -2.6477 0.0830 0 7
-6.2202 31.1691 -2.6477 0.0830 0 7
-6.7190 31.0654 -2.6477 0.0830 0 7
-7.2161 30.9537 -2.6477 0.0830 0 7
-7.7114 30.8340 -2.6477 0.0830 0 7
-8.2047 30.7065 -2.6477 0.0830 0 7
-8.6958 30.5710 -2.6477 0.0830 0 7
-9.1847 30.4277 -2.6477 0.0830 0 7
-9.6713 30.2765 -2.6477 0.0830 0 7
-10.1554 30.1176 -2.6477 0.0830 0 7
-10.6369 29.9510 -2.6477 0.0830 0 6
-11.1156 29.7766 -2.6477 0.0830 0 7
-11.5915 29.5946 -2.6477 0.0830 0 7
-12.0644 29.4050 -2.6477 0.0830 0 7
-12.5342 29.2078 -2.6477 0.0830 0 7
-13.0008 29.0032 -2.6477 0.0830 0 7
-13.4640 28.7910 -2.6477 0.0830 0 7
-13.9237 28.5715 -2.6477 0.0830 0 7
-14.3800 28.3447 -2.6477 0.0830 0 7
-14.8325 28.1105 -2.6477 0.0830 0 7
24.1330 15.8640 -2.6477 0.0913 0 7
23.8757 16.2488 -2.6477 0.0913 0 7
23.6121 16.6294 -2.6477 0.0913 0 7
23.3425 17.0058 -2.6477 0.0913 0 7
23.0669 17.3777 -2.6477 0.0913 0 7
22.7854 17.7453 -2.6477 0.0913 0 7
22.4980 18.1082 -2.6477 0.0913 0 7
22.2050 18.4665 -2.6477 0.0913 0 6
21.9060 18.8201 -2.6477 0.0913 0 7
21.4089 18.9979 -2.6241 0.6645 0 8
20.7369 19.0044 -2.5787 0.6762 0 8
20.0875 19.0106 -2.5355 0.6877 0 8
19.5256 19.0813 -2.5029 0.0913 0 8
19.2172 19.3919 -2.5029 0.0913 0 14
18.9039 19.6974 -2.5029 0.0913 0 14
18.5857 19.9979 -2.5029 0.0913 0 14
18.2628 20.2933 -2.5029 0.0913 0 14
17.9351 20.5834 -2.5029 0.0913 0 14
17.6029 20.8683 -2.5029 0.0913 0 14
17.2661 21.1478 -2.5029 0.0913 0 14
16.9249 21.4218 -2.5029 0.0913 0 14
16.5793 21.6904 -2.5029 0.0913 0 14
16.2295 21.9533 -2.5029 0.0913 0 14
15.8756 22.2107 -2.5029 0.0913 0 14
16.4151 23.7616 -2.6477 0.0913 0 7
16.0321 24.0217 -2.6477 0.0913 0 7
15.6450 24.2756 -2.6477 0.0913 0 7
15.2538 24.5232 -2.6477 0.0913 0 7
14.8588 24.7646 -2.6477 0.0913 0 7
14.4599 24.9996 -2.6477 0.0913 0 7
14.0573 25.2282 -2.6477 0.0913 0 7
13.6511 25.4503 -2.6477 0.0913 0 7
13.2414 25.6658 -2.6477 0.0913 0 7
12.8283 25.8748 -2.6477 0.0913 0 7
12.4119 26.0771 -2.6477 0.0913 0 7
11.9922 26.2727 -2.6477 0.0913 0 7
11.5696 26.4616 -2.6477 0.0913 0 7
11.1439 26.6436 -2.6477 0.0913 0 7
10.7154 26.8188 -2.6477 0.0913 0 7
10.2841 26.9872 -2.6477 0.0913 0 7
9.8502 27.1485 -2.6477 0.0913 0 7
9.4138 27.3029 -2.6477 0.0913 0 7
8.9749 27.4503 -2.6477 0.0913 0 7
8.5337 27.5907 -2.6477 0.0913 0 7
8.0904 27.7239 -2.6477 0.0913 0 7
7.6449 27.8500 -2.6477 0.0913 0 7
7.1975 27.9690 -2.6477 0.0913 0 7
6.7483 28.0808 -2.6477 0.0913 0 7
6.2973 28.1853 -2.6477 0.0913 0 7
5.8446 28.2827 -2.6477 0.0913 0 7
5.3905 28.3727 -2.6477 0.0913 0 7
4.9350 28.4555 -2.6477 0.0913 0 7
4.4783 28.5309 -2.6477 0.0913 0 7
4.0204 28.5991 -2.6477 0.0913 0 7
3.5614 28.6598 -2.6477 0.0913 0 7
3.1016 28.7132 -2.6477 0.0913 0 7
2.6409 28.7593 -2.6477 0.0913 0 7
2.1795 28.7979 -2.6477 0.0913 0 7
1.7176 28.8291 -2.6477 0.0913 0 7
1.2553 28.8530 -2.6477 0.0913 0 7
0.7926 28.8694 -2.6477 0.0913 0 7
0.3298 28.8784 -2.6477 0.0913 0 7
-0.1332 28.8800 -2.6477 0.0913 0 7
-0.5961 28.8741 -2.6477 0.0913 0 7
-1.0589 28.8608 -2.6477 0.0913 0 7
-1.5214 28.8402 -2.6477 0.0913 0 7
-1.9835 28.8121 -2.6477 0.0913 0 7
-2.4450 28.7766 -2.6477 0.0913 0 7
-2.9060 28.7337 -2.6477 0.0913 0 7
-3.3662 28.6834 -2.6477 0.0913 0 7
-3.8256 28.6258 -2.6477 0.0913 0 7
-4.2840 28.5608 -2.6477 0.0913 0 7
-4.7412 28.4884 -2.6477 0.0913 0 7
-5.1973 28.4088 -2.6477 0.0913 0 7
-5.6520 28.3218 -2.6477 0.0913 0 7
-6.1053 28.2276 -2.6477 0.0913 0 7
-6.5569 28.1261 -2.6477 0.0913 0 7
-7.0070 28.0174 -2.6477 0.0913 0 7
-7.4552 27.9014 -2.6477 0.0913 0 7
-7.9015 27.7783 -2.6477 0.0913 0 7
-8.3457 27.6481 -2.6477 0.0913 0 7
-8.7878 27.5108 -2.6477 0.0913 0 7
-9.2277 27.3664 -2.6477 0.0913 0 7
-9.6652 27.2150 -2.6477 0.0913 0 7
-10.1002 27.0565 -2.6477 0.0913 0 7
-10.5326 26.8912 -2.6477 0.0913 0 7
-10.9623 26.7189 -2.6477 0.0913 0 7
-11.3892 26.5397 -2.6477 0.0913 0 7
-11.8131 26.3537 -2.6477 0.0913 0 7
-12.2340 26.1610 -2.6477 0.0913 0 7
-12.6518 25.9615 -2.6477 0.0913 0 7
-13.0664 25.7554 -2.6477 0.0913 0 7
-13.4775 25.5426 -2.6477 0.0913 0 7
22.1102 14.5342 -2.6477 0.0996 0 7
21.8744 14.8868 -2.6477 0.0996 0 7
21.6330 15.2355 -2.6477 0.0996 0 7
21.3860 15.5803 -2.6477 0.0996 0 7
21.1335 15.9211 -2.6477 0.0996 0 7
20.8755 16.2578 -2.6477 0.0996 0 7
20.6123 16.5904 -2.6477 0.0996 0 7
20.3437 16.9187 -2.6477 0.0996 0 7
20.0698 17.2426 -2.6477 0.0996 0 7
19.7909 17.5621 -2.6477 0.0996 0 7
19.5068 17.8771 -2.6477 0.0996 0 7
19.2177 18.1875 -2.6477 0.0996 0 7
18.9237 18.4932 -2.6477 0.0996 0 6
18.6249 18.7941 -2.6477 0.0996 0 7
18.2224 18.9873 -2.6334 0.7221 0 8
17.6517 18.9929 -2.5946 0.7329 0 8
17.0973 18.9982 -2.5575 0.7436 0 8
16.5583 19.0033 -2.5222 0.7540 0 8
16.1274 19.1191 -2.5029 0.0996 0 8
15.8189 19.3751 -2.5029 0.0996 0 14
15.5063 19.6262 -2.5029 0.0996 0 14
15.1897 19.8723 -2.5029 0.0996 0 14
14.8692 20.1132 -2.5029 0.0996 0 14
14.5449 20.3490 -2.5029 0.0996 0 14
14.2168 20.5795 -2.5029 0.0996 0 14
13.8851 20.8047 -2.5029 0.0996 0 14
13.5498 21.0246 -2.5029 0.0996 0 14
13.2111 21.2391 -2.5029 0.0996 0 14
12.8689 21.4482 -2.5029 0.0996 0 14
12.5234 21.6517 -2.5029 0.0996 0 14
12.1748 21.8497 -2.5029 0.0996 0 14
11.8230 22.0420 -2.5029 0.0996 0 14
11.4681 22.2287 -2.5029 0.0996 0 14
11.1103 22.4097 -2.5029 0.0996 0 8
11.3715 23.8913 -2.6477 0.0996 0 7
10.9871 24.0705 -2.6477 0.0996 0 7
10.5998 24.2436 -2.6477 0.0996 0 7
10.2098 24.4104 -2.6477 0.0996 0 7
9.8172 24.5709 -2.6477 0.0996 0 7
9.4221 24.7251 -2.6477 0.0996 0 7
9.0245 24.8729 -2.6477 0.0996 0 7
8.6247 25.0144 -2.6477 0.0996 0 7
8.2226 25.1494 -2.6477 0.0996 0 7
7.8184 25.2780 -2.6477 0.0996 0 7
7.4122 25.4001 -2.6477 0.0996 0 7
7.0041 25.5156 -2.6477 0.0996 0 7
6.5942 25.6246 -2.6477 0.0996 0 7
6.1826 25.7271 -2.6477 0.0996 0 7
5.7694 25.8229 -2.6477 0.0996 0 7
5.3547 25.9120 -2.6477 0.0996 0 7
4.9387 25.9945 -2.6477 0.0996 0 7
4.5214 26.0703 -2.6477 0.0996 0 7
4.1029 26.1395 -2.6477 0.0996 0 7
3.6834 26.2019 -2.6477 0.0996 0 7
3.2629 26.2576 -2.6477 0.0996 0 7
2.8416 26.3065 -2.6477 0.0996 0 7
2.4195 26.3487 -2.6477 0.0996 0 7
1.9969 26.3841 -2.6477 0.0996 0 7
1.5737 26.4127 -2.6477 0.0996 0 7
1.1501 26.4345 -2.6477 0.0996 0 7
0.7262 26.4495 -2.6477 0.0996 0 7
0.3021 26.4578 -2.6477 0.0996 0 6
-0.1220 26.4592 -2.6477 0.0996 0 6
-0.5461 26.4539 -2.6477 0.0996 0 6
-0.9701 26.4417 -2.6477 0.0996 0 6
-1.3938 26.4228 -2.6477 0.0996 0 6
-1.8173 26.3970 -2.6477 0.0996 0 7
-2.2401 26.3645 -2.6477 0.0996 0 7
-2.6624 26.3252 -2.6477 0.0996 0 7
-3.0841 26.2792 -2.6477 0.0996 0 7
-3.5049 26.2263 -2.6477 0.0996 0 7
-3.9249 26.1668 -2.6477 0.0996 0 7
-4.3438 26.1005 -2.6477 0.0996 0 7
-4.7616 26.0275 -2.6477 0.0996 0 7
-5.1783 25.9479 -2.6477 0.0996 0 7
-5.5935 25.8615 -2.6477 0.0996 0 7
-6.0073 25.7685 -2.6477 0.0996 0 7
-6.4196 25.6689 -2.6477 0.0996 0 7
-6.8303 25.5627 -2.6477 0.0996 0 7
-7.2392 25.4500 -2.6477 0.0996 0 7
-7.6462 25.3307 -2.6477 0.0996 0 7
-8.0512 25.2048 -2.6477 0.0996 0 7
-8.4542 25.0725 -2.6477 0.0996 0 7
-8.8551 24.9338 -2.6477 0.0996 0 7
-9.2536 24.7886 -2.6477 0.0996 0 7
-9.6497 24.6371 -2.6477 0.0996 0 7
-10.0434 24.4793 -2.6477 0.0996 0 7
-10.4345 24.3151 -2.6477 0.0996 0 7
-10.8230 24.1448 -2.6477 0.0996 0 7
-11.2086 23.9682 -2.6477 0.0996 0 7
-11.5914 23.7854 -2.6477 0.0996 0 7
-11.3165 22.3062 -2.5029 0.0996 0 8
-11.6727 22.1220 -2.5029 0.0996 0 14
20.3976 13.4084 -2.6477 0.1078 0 7
20.1800 13.7337 -2.6477 0.1078 0 7
19.9573 14.0554 -2.6477 0.1078 0 7
19.7294 14.3735 -2.6477 0.1078 0 7
19.4965 14.6879 -2.6477 0.1078 0 7
19.2586 14.9985 -2.6477 0.1078 0 7
19.0157 15.3053 -2.6477 0.1078 0 7
18.7679 15.6082 -2.6477 0.1078 0 7
18.5153 15.9070 -2.6477 0.1078 0 7
18.2579 16.2018 -2.6477 0.1078 0 7
17.9958 16.4923 -2.6477 0.1078 0 7
17.7292 16.7787 -2.6477 0.1078 0 7
17.4579 17.0607 -2.6477 0.1078 0 7
17.1822 17.3384 -2.6477 0.1078 0 7
16.9021 17.6116 -2.6477 0.1078 0 7
16.6176 17.8802 -2.6477 0.1078 0 7
16.3289 18.1443 -2.6477 0.1078 0 7
16.0359 18.4037 -2.6477 0.1078 0 7
15.7388 18.6584 -2.6477 0.1078 0 7
15.4377 18.9083 -2.6477 0.1078 0 7
14.9958 18.9801 -2.6237 0.7850 0 8
14.5112 18.9847 -2.5919 0.7946 0 8
14.0381 18.9890 -2.5614 0.8041 0 8
13.5757 18.9931 -2.5323 0.8133 0 8
13.1266 19.0014 -2.5050 0.6535 0 8
12.8096 19.1932 -2.5029 0.1078 0 14
12.5003 19.3961 -2.5029 0.1078 0 14
12.1878 19.5940 -2.5029 0.1078 0 14
11.8721 19.7868 -2.5029 0.1078 0 14
11.5534 19.9746 -2.5029 0.1078 0 14
11.2317 20.1572 -2.5029 0.1078 0 14
10.9072 20.3347 -2.5029 0.1078 0 14
10.5798 20.5069 -2.5029 0.1078 0 14
10.2497 20.6739 -2.5029 0.1078 0 14
9.9170 20.8355 -2.5029 0.1078 0 14
9.5818 20.9918 -2.5029 0.1078 0 14
9.2440 21.1427 -2.5029 0.1078 0 14
8.9039 21.2881 -2.5029 0.1078 0 14
8.5616 21.4281 -2.5029 0.1078 0 14
8.2170 21.5626 -2.5029 0.1078 0 14
7.8703 21.6916 -2.5029 0.1078 0 14
7.5216 21.8149 -2.5029 0.1078 0 14
7.1709 21.9327 -2.5029 0.1078 0 14
6.8184 22.0448 -2.5029 0.1078 0 14
6.4642 22.1513 -2.5029 0.1078 0 14
6.1083 22.2521 -2.5029 0.1078 0 14
5.7508 22.3471 -2.5029 0.1078 0 8
5.7037 23.7343 -2.6477 0.1078 0 7
5.3225 23.8226 -2.6477 0.1078 0 7
4.9400 23.9049 -2.6477 0.1078 0 7
4.5562 23.9810 -2.6477 0.1078 0 7
4.1712 24.0510 -2.6477 0.1078 0 7
3.7851 24.1147 -2.6477 0.1078 0 7
3.3981 24.1723 -2.6477 0.1078 0 7
3.0101 24.2237 -2.6477 0.1078 0 7
2.6215 24.2688 -2.6477 0.1078 0 7
2.2321 24.3077 -2.6477 0.1078 0 7
1.8422 24.3404 -2.6477 0.1078 0 7
1.4518 24.3668 -2.6477 0.1078 0 7
1.0610 24.3869 -2.6477 0.1078 0 7
0.6699 24.4008 -2.6477 0.1078 0 7
0.2787 24.4084 -2.6477 0.1078 0 7
-0.1126 24.4097 -2.6477 0.1078 0 7
-0.5038 24.4048 -2.6477 0.1078 0 7
-0.8950 24.3936 -2.6477 0.1078 0 7
-1.2859 24.3761 -2.6477 0.1078 0 7
-1.6764 24.3524 -2.6477 0.1078 0 7
-2.0666 24.3224 -2.6477 0.1078 0 7
-2.4562 24.2861 -2.6477 0.1078 0 7
-2.8452 24.2436 -2.6477 0.1078 0 7
-3.2334 24.1949 -2.6477 0.1078 0 7
-3.6209 24.1400 -2.6477 0.1078 0 7
-4.0074 24.0788 -2.6477 0.1078 0 7
-4.3928 24.0115 -2.6477 0.1078 0 7
-4.7772 23.9380 -2.6477 0.1078 0 7
-5.1603 23.8583 -2.6477 0.1078 0 7
-5.5420 23.7725 -2.6477 0.1078 0 7
-5.9224 23.6807 -2.6477 0.1078 0 7
-5.9567 22.2931 -2.5029 0.1078 0 8
-6.3132 22.1948 -2.5029 0.1078 0 14
-6.6682 22.0907 -2.5029 0.1078 0 14
-7.0214 21.9810 -2.5029 0.1078 0 14
-7.3729 21.8656 -2.5029 0.1078 0 14
-7.7224 21.7446 -2.5029 0.1078 0 14
-8.0700 21.6181 -2.5029 0.1078 0 14
-8.4155 21.4859 -2.5029 0.1078 0 14
-8.7588 21.3483 -2.5029 0.1078 0 14
-9.0999 21.2051 -2.5029 0.1078 0 14
-9.4386 21.0565 -2.5029 0.1078 0 14
-9.7750 20.9025 -2.5029 0.1078 0 14
-10.1088 20.7431 -2.5029 0.1078 0 14
-10.4400 20.5784 -2.5029 0.1078 0 14
-10.7685 20.4084 -2.5029 0.1078 0 14
18.9288 12.4429 -2.6477 0.1161 0 7
18.7269 12.7447 -2.6477 0.1161 0 7
18.5202 13.0433 -2.6477 0.1161 0 7
18.3087 13.3385 -2.6477 0.1161 0 7
18.0926 13.6302 -2.6477 0.1161 0 7
17.8718 13.9185 -2.6477 0.1161 0 7
17.6464 14.2032 -2.6477 0.1161 0 7
17.4164 14.4842 -2.6477 0.1161 0 7
17.1820 14.7616 -2.6477 0.1161 0 7
16.9432 15.0351 -2.6477 0.1161 0 7
16.7000 15.3048 -2.6477 0.1161 0 7
16.4525 15.5705 -2.6477 0.1161 0 7
16.2008 15.8322 -2.6477 0.1161 0 7
15.9449 16.0899 -2.6477 0.1161 0 7
15.6850 16.3434 -2.6477 0.1161 0 7
15.4210 16.5927 -2.6477 0.1161 0 7
15.1530 16.8378 -2.6477 0.1161 0 7
14.8812 17.0785 -2.6477 0.1161 0 7
14.6055 17.3149 -2.6477 0.1161 0 7
14.3261 17.5468 -2.6477 0.1161 0 7
14.0430 17.7741 -2.6477 0.1161 0 7
13.7563 17.9970 -2.6477 0.1161 0 7
13.4660 18.2152 -2.6477 0.1161 0 7
13.1723 18.4287 -2.6477 0.1161 0 6
12.8752 18.6374 -2.6477 0.1161 0 7
12.5748 18.8414 -2.6477 0.1161 0 7
12.2255 18.9698 -2.6378 0.8406 0 8
11.8018 18.9735 -2.6117 0.8490 0 8
11.3862 18.9769 -2.5867 0.8572 0 8
10.9783 18.9802 -2.5628 0.8652 0 8
10.5776 18.9833 -2.5400 0.8729 0 8
10.1839 18.9863 -2.5183 0.8805 0 8
9.8180 19.0302 -2.5029 0.1161 0 8
9.5117 19.1852 -2.5029 0.1161 0 14
9.2029 19.3352 -2.5029 0.1161 0 14
8.8918 19.4802 -2.5029 0.1161 0 14
8.5784 19.6202 -2.5029 0.1161 0 14
8.2628 19.7552 -2.5029 0.1161 0 14
7.9450 19.8851 -2.5029 0.1161 0 14
7.6253 20.0099 -2.5029 0.1161 0 14
7.3035 20.1296 -2.5029 0.1161 0 14
6.9799 20.2441 -2.5029 0.1161 0 14
6.6545 20.3534 -2.5029 0.1161 0 14
6.3274 20.4574 -2.5029 0.1161 0 14
5.9987 20.5562 -2.5029 0.1161 0 14
5.6684 20.6497 -2.5029 0.1161 0 14
5.3367 20.7379 -2.5029 0.1161 0 14
5.0036 20.8208 -2.5029 0.1161 0 14
4.6692 20.8983 -2.5029 0.1161 0 14
4.3336 20.9705 -2.5029 0.1161 0 14
3.9969 21.0373 -2.5029 0.1161 0 14
3.6591 21.0986 -2.5029 0.1161 0 14
3.3205 21.1546 -2.5029 0.1161 0 14
2.9809 21.2051 -2.5029 0.1161 0 14
2.6406 21.2502 -2.5029 0.1161 0 14
2.2997 21.2898 -2.5029 0.1161 0 14
1.9581 21.3239 -2.5029 0.1161 0 14
1.6160 21.3525 -2.5029 0.1161 0 14
1.2736 21.3757 -2.5029 0.1161 0 14
0.9308 21.3934 -2.5029 0.1161 0 14
0.5877 21.4055 -2.5029 0.1161 0 14
0.2445 21.4122 -2.5029 0.1161 0 14
-0.0988 21.4134 -2.5029 0.1161 0 14
-0.4420 21.4090 -2.5029 0.1161 0 14
-0.7851 21.3992 -2.5029 0.1161 0 14
-1.1280 21.3839 -2.5029 0.1161 0 14
-1.4707 21.3630 -2.5029 0.1161 0 14
-1.8129 21.3367 -2.5029 0.1161 0 14
-2.1547 21.3049 -2.5029 0.1161 0 14
-2.4959 21.2676 -2.5029 0.1161 0 14
-2.8365 21.2249 -2.5029 0.1161 0 14
-3.1764 21.1767 -2.5029 0.1161 0 14
-3.5154 21.1231 -2.5029 0.1161 0 14
-3.8536 21.0640 -2.5029 0.1161 0 14
-4.1907 20.9995 -2.5029 0.1161 0 14
-4.5268 20.9296 -2.5029 0.1161 0 14
-4.8617 20.8544 -2.5029 0.1161 0 14
-5.1954 20.7738 -2.5029 0.1161 0 14
-5.5277 20.6878 -2.5029 0.1161 0 14
-5.8586 20.5966 -2.5029 0.1161 0 14
-6.1880 20.5000 -2.5029 0.1161 0 14
-6.5158 20.3982 -2.5029 0.1161 0 14
-6.8420 20.2911 -2.5029 0.1161 0 14
-7.1664 20.1788 -2.5029 0.1161 0 14
-7.4889 20.0614 -2.5029 0.1161 0 14
-7.8095 19.9387 -2.5029 0.1161 0 14
-8.1281 19.8110 -2.5029 0.1161 0 14
-8.4446 19.6782 -2.5029 0.1161 0 14
-8.7590 19.5403 -2.5029 0.1161 0 14
-9.0711 19.3974 -2.5029 0.1161 0 14
-9.3808 19.2495 -2.5029 0.1161 0 14
-9.6882 19.0966 -2.5029 0.1161 0 14
-9.9933 18.9392 -2.5029 0.7042 0 8
17.6550 11.6056 -2.6477 0.1243 0 7
17.4667 11.8871 -2.6477 0.1243 0 7
17.2739 12.1656 -2.6477 0.1243 0 7
17.0767 12.4409 -2.6477 0.1243 0 7
16.8751 12.7130 -2.6477 0.1243 0 7
16.6691 12.9819 -2.6477 0.1243 0 7
16.4589 13.2474 -2.6477 0.1243 0 7
16.2444 13.5095 -2.6477 0.1243 0 7
16.0258 13.7682 -2.6477 0.1243 0 7
15.8030 14.0233 -2.6477 0.1243 0 7
15.5762 14.2749 -2.6477 0.1243 0 7
15.3454 14.5227 -2.6477 0.1243 0 7
15.1106 14.7668 -2.6477 0.1243 0 7
14.8720 15.0071 -2.6477 0.1243 0 6
14.6295 15.2436 -2.6477 0.1243 0 7
14.3833 15.4761 -2.6477 0.1243 0 7
14.1333 15.7047 -2.6477 0.1243 0 7
13.8798 15.9292 -2.6477 0.1243 0 7
13.6227 16.1497 -2.6477 0.1243 0 7
13.3620 16.3660 -2.6477 0.1243 0 7
13.0980 16.5781 -2.6477 0.1243 0 7
12.8305 16.7859 -2.6477 0.1243 0 7
12.5598 16.9894 -2.6477 0.1243 0 7
12.2859 17.1885 -2.6477 0.1243 0 7
12.0088 17.3833 -2.6477 0.1243 0 7
11.7286 17.5735 -2.6477 0.1243 0 7
11.4454 17.7593 -2.6477 0.1243 0 7
11.1592 17.9405 -2.6477 0.1243 0 7
10.8702 18.1170 -2.6477 0.1243 0 7
10.5784 18.2890 -2.6477 0.1243 0 7
10.2839 18.4562 -2.6477 0.1243 0 6
9.9867 18.6187 -2.6477 0.1243 0 7
9.6870 18.7763 -2.6477 0.1243 0 7
9.3848 18.9292 -2.6477 0.1243 0 7
9.0253 18.9620 -2.6317 0.9024 0 8
8.6564 18.9646 -2.6124 0.9091 0 8
8.2928 18.9670 -2.5941 0.9155 0 8
7.9340 18.9692 -2.5767 0.9217 0 8
7.5799 18.9713 -2.5601 0.9276 0 8
7.2302 18.9732 -2.5444 0.9334 0 8
6.8846 18.9750 -2.5296 0.9389 0 8
6.5430 18.9767 -2.5155 0.9441 0 8
6.2069 18.9842 -2.5030 0.7542 0 8
5.9016 19.0808 -2.5029 0.1243 0 8
5.5950 19.1729 -2.5029 0.1243 0 14
5.2870 19.2601 -2.5029 0.1243 0 14
4.9776 19.3424 -2.5029 0.1243 0 14
4.6669 19.4197 -2.5029 0.1243 0 14
4.3550 19.4920 -2.5029 0.1243 0 14
4.0420 19.5593 -2.5029 0.1243 0 14
3.7279 19.6216 -2.5029 0.1243 0 14
3.4129 19.6788 -2.5029 0.1243 0 14
3.0970 19.7310 -2.5029 0.1243 0 14
2.7803 19.7781 -2.5029 0.1243 0 14
2.4629 19.8202 -2.5029 0.1243 0 14
2.1449 19.8571 -2.5029 0.1243 0 14
1.8263 19.8889 -2.5029 0.1243 0 14
1.5073 19.9156 -2.5029 0.1243 0 14
1.1879 19.9372 -2.5029 0.1243 0 14
0.8681 19.9537 -2.5029 0.1243 0 14
0.5482 19.9651 -2.5029 0.1243 0 14
0.2281 19.9713 -2.5029 0.1243 0 14
-0.0921 19.9724 -2.5029 0.1243 0 14
-0.4122 19.9683 -2.5029 0.1243 0 14
-0.7323 19.9592 -2.5029 0.1243 0 14
-1.0521 19.9449 -2.5029 0.1243 0 14
-1.3717 19.9254 -2.5029 0.1243 0 14
-1.6909 19.9009 -2.5029 0.1243 0 14
-2.0097 19.8712 -2.5029 0.1243 0 14
-2.3280 19.8365 -2.5029 0.1243 0 14
-2.6457 19.7966 -2.5029 0.1243 0 14
-2.9626 19.7516 -2.5029 0.1243 0 14
-3.2789 19.7016 -2.5029 0.1243 0 14
-3.5943 19.6465 -2.5029 0.1243 0 14
-3.9087 19.5864 -2.5029 0.1243 0 14
-4.2222 19.5212 -2.5029 0.1243 0 14
-4.5346 19.4510 -2.5029 0.1243 0 14
-4.8458 19.3758 -2.5029 0.1243 0 14
-5.1557 19.2957 -2.5029 0.1243 0 14
-5.4644 19.2106 -2.5029 0.1243 0 14
-5.7716 19.1205 -2.5029 0.1243 0 14
-6.0774 19.0255 -2.5029 0.1243 0 8
-6.3886 18.9465 -2.5056 0.7534 0 8
-6.7261 18.9392 -2.5186 0.9429 0 8
-7.0687 18.9356 -2.5329 0.9376 0 8
-7.4151 18.9319 -2.5480 0.9321 0 8
-7.7658 18.9279 -2.5639 0.9263 0 8
-8.1209 18.9239 -2.5806 0.9203 0 8
-8.4808 18.9196 -2.5982 0.9140 0 8
-8.8456 18.9151 -2.6168 0.9076 0 8
-9.2157 18.9105 -2.6362 0.9009 0 8
-9.5590 18.8418 -2.6477 0.1243 0 7
-9.8598 18.6862 -2.6477 0.1243 0 7
16.5397 10.8724 -2.6477 0.1326 0 7
16.3633 11.1362 -2.6477 0.1326 0 7
16.1826 11.3970 -2.6477 0.1326 0 7
15.9979 11.6549 -2.6477 0.1326 0 7
15.8090 11.9099 -2.6477 0.1326 0 7
15.6161 12.1618 -2.6477 0.1326 0 7
15.4191 12.4105 -2.6477 0.1326 0 7
15.2182 12.6561 -2.6477 0.1326 0 7
15.0134 12.8984 -2.6477 0.1326 0 7
14.8047 13.1374 -2.6477 0.1326 0 7
14.5922 13.3731 -2.6477 0.1326 0 7
14.3759 13.6052 -2.6477 0.1326 0 7
14.1560 13.8339 -2.6477 0.1326 0 7
13.9324 14.0591 -2.6477 0.1326 0 7
13.7053 14.2806 -2.6477 0.1326 0 7
13.4746 14.4984 -2.6477 0.1326 0 7
13.2405 14.7126 -2.6477 0.1326 0 7
13.0029 14.9229 -2.6477 0.1326 0 6
12.7621 15.1294 -2.6477 0.1326 0 7
12.5179 15.3321 -2.6477 0.1326 0 7
12.2705 15.5308 -2.6477 0.1326 0 7
12.0200 15.7254 -2.6477 0.1326 0 7
11.7664 15.9161 -2.6477 0.1326 0 7
11.5097 16.1027 -2.6477 0.1326 0 7
11.2501 16.2851 -2.6477 0.1326 0 7
10.9876 16.4633 -2.6477 0.1326 0 7
10.7223 16.6374 -2.6477 0.1326 0 7
10.4543 16.8071 -2.6477 0.1326 0 7
10.1835 16.9725 -2.6477 0.1326 0 7
9.9101 17.1336 -2.6477 0.1326 0 7
9.6342 17.2902 -2.6477 0.1326 0 7
9.3558 17.4424 -2.6477 0.1326 0 7
9.0750 17.5902 -2.6477 0.1326 0 7
8.7919 17.7334 -2.6477 0.1326 0 7
8.5065 17.8720 -2.6477 0.1326 0 7
8.2189 18.0061 -2.6477 0.1326 0 7
7.9292 18.1355 -2.6477 0.1326 0 7
7.6375 18.2603 -2.6477 0.1326 0 7
7.3438 18.3804 -2.6477 0.1326 0 7
7.0483 18.4957 -2.6477 0.1326 0 6
6.7509 18.6063 -2.6477 0.1326 0 7
6.4518 18.7122 -2.6477 0.1326 0 7
6.1510 18.8132 -2.6477 0.1326 0 7
5.8486 18.9093 -2.6477 0.1326 0 7
5.5302 18.9507 -2.6407 0.9590 0 8
5.2024 18.9519 -2.6289 0.9633 0 8
4.8774 18.9531 -2.6179 0.9673 0 8
4.5550 18.9541 -2.6076 0.9711 0 8
4.2350 18.9550 -2.5981 0.9747 0 8
3.9172 18.9557 -2.5892 0.9780 0 8
3.6015 18.9563 -2.5811 0.9811 0 8
3.2877 18.9568 -2.5737 0.9839 0 8
2.9756 18.9572 -2.5669 0.9865 0 8
2.6650 18.9575 -2.5608 0.9889 0 8
2.3558 18.9576 -2.5554 0.9910 0 8
2.0478 18.9577 -2.5507 0.9928 0 8
1.7408 18.9576 -2.5466 0.9944 0 8
1.4348 18.9573 -2.5431 0.9958 0 8
1.1295 18.9570 -2.5403 0.9969 0 8
0.8247 18.9566 -2.5382 0.9977 0 8
0.5204 18.9560 -2.5366 0.9983 0 8
0.2164 18.9553 -2.5358 0.9986 0 8
-0.0874 18.9565 -2.5358 0.9970 0 8
-0.3913 18.9554 -2.5361 0.9986 0 8
-0.6954 18.9536 -2.5371 0.9983 0 8
-0.9997 18.9517 -2.5386 0.9976 0 8
-1.3046 18.9501 -2.5409 0.9966 0 8
-1.6100 18.9488 -2.5438 0.9955 0 8
-1.9163 18.9472 -2.5474 0.9941 0 8
-2.2234 18.9456 -2.5517 0.9924 0 8
-2.5317 18.9438 -2.5566 0.9905 0 8
-2.8412 18.9419 -2.5621 0.9884 0 8
-3.1521 18.9399 -2.5684 0.9860 0 8
-3.4646 18.9378 -2.5753 0.9833 0 8
-3.7788 18.9355 -2.5829 0.9804 0 8
-4.0950 18.9331 -2.5912 0.9773 0 8
-4.4132 18.9305 -2.6002 0.9739 0 8
-4.7337 18.9278 -2.6099 0.9703 0 8
-5.0567 18.9250 -2.6203 0.9664 0 8
-5.3823 18.9220 -2.6315 0.9623 0 8
-5.7108 18.9189 -2.6435 0.9579 0 8
-6.0228 18.8546 -2.6477 0.1326 0 7
-6.3242 18.7556 -2.6477 0.1326 0 7
-6.6241 18.6519 -2.6477 0.1326 0 7
-6.9222 18.5433 -2.6477 0.1326 0 7
-7.2184 18.4299 -2.6477 0.1326 0 6
-7.5130 18.3119 -2.6477 0.1326 0 7
-7.8056 18.1891 -2.6477 0.1326 0 7
-8.0962 18.0616 -2.6477 0.1326 0 7
-8.3846 17.9295 -2.6477 0.1326 0 7
-8.6710 17.7928 -2.6477 0.1326 0 7
-8.9551 17.6515 -2.6477 0.1326 0 7
-9.2369 17.5057 -2.6477 0.1326 0 7
15.5548 10.2250 -2.6477 0.1408 0 7
15.3889 10.4730 -2.6477 0.1408 0 7
15.2190 10.7184 -2.6477 0.1408 0 7
15.0453 10.9609 -2.6477 0.1408 0 7
14.8676 11.2007 -2.6477 0.1408 0 7
14.6862 11.4376 -2.6477 0.1408 0 6
14.5010 11.6715 -2.6477 0.1408 0 7
14.3120 11.9025 -2.6477 0.1408 0 7
14.1194 12.1304 -2.6477 0.1408 0 7
13.9231 12.3551 -2.6477 0.1408 0 7
13.7233 12.5767 -2.6477 0.1408 0 7
13.5199 12.7951 -2.6477 0.1408 0 7
13.3131 13.0102 -2.6477 0.1408 0 7
13.1028 13.2219 -2.6477 0.1408 0 7
12.8892 13.4302 -2.6477 0.1408 0 7
12.6723 13.6351 -2.6477 0.1408 0 7
12.4521 13.8365 -2.6477 0.1408 0 7
12.2287 14.0343 -2.6477 0.1408 0 7
12.0021 14.2285 -2.6477 0.1408 0 7
11.7725 14.4191 -2.6477 0.1408 0 7
11.5399 14.6060 -2.6477 0.1408 0 7
11.3043 14.7891 -2.6477 0.1408 0 7
11.0657 14.9684 -2.6477 0.1408 0 7
10.8244 15.1438 -2.6477 0.1408 0 7
10.5802 15.3154 -2.6477 0.1408 0 7
10.3334 15.4830 -2.6477 0.1408 0 7
10.0839 15.6467 -2.6477 0.1408 0 7
9.8318 15.8063 -2.6477 0.1408 0 7
9.5771 15.9619 -2.6477 0.1408 0 7
9.3200 16.1133 -2.6477 0.1408 0 7
9.0605 16.2607 -2.6477 0.1408 0 7
8.7987 16.4038 -2.6477 0.1408 0 7
8.5346 16.5427 -2.6477 0.1408 0 7
8.2684 16.6774 -2.6477 0.1408 0 7
8.0000 16.8078 -2.6477 0.1408 0 7
7.7295 16.9339 -2.6477 0.1408 0 7
7.4571 17.0556 -2.6477 0.1408 0 7
7.1827 17.1730 -2.6477 0.1408 0 7
6.9065 17.2859 -2.6477 0.1408 0 7
6.6286 17.3944 -2.6477 0.1408 0 7
6.3489 17.4984 -2.6477 0.1408 0 7
6.0676 17.5979 -2.6477 0.1408 0 7
5.7847 17.6929 -2.6477 0.1408 0 7
5.5004 17.7834 -2.6477 0.1408 0 7
5.2146 17.8693 -2.6477 0.1408 0 7
4.9275 17.9506 -2.6477 0.1408 0 7
4.6391 18.0272 -2.6477 0.1408 0 7
4.3495 18.0993 -2.6477 0.1408 0 7
4.0589 18.1667 -2.6477 0.1408 0 7
3.7671 18.2294 -2.6477 0.1408 0 7
3.4744 18.2875 -2.6477 0.1408 0 7
3.1808 18.3408 -2.6477 0.1408 0 7
2.8864 18.3894 -2.6477 0.1408 0 6
2.5913 18.4333 -2.6477 0.1408 0 6
2.2955 18.4725 -2.6477 0.1408 0 6
1.9991 18.5069 -2.6477 0.1408 0 7
1.7022 18.5366 -2.6477 0.1408 0 7
1.4048 18.5615 -2.6477 0.1408 0 7
1.1071 18.5816 -2.6477 0.1408 0 7
0.8091 18.5970 -2.6477 0.1408 0 7
0.5108 18.6076 -2.6477 0.1408 0 7
0.2125 18.6134 -2.6477 0.1408 0 7
-0.0858 18.6144 -2.6477 0.1408 0 7
-0.3842 18.6106 -2.6477 0.1408 0 7
-0.6825 18.6021 -2.6477 0.1408 0 7
-0.9806 18.5887 -2.6477 0.1408 0 7
-1.2784 18.5706 -2.6477 0.1408 0 7
-1.5759 18.5478 -2.6477 0.1408 0 7
-1.8730 18.5201 -2.6477 0.1408 0 7
-2.1697 18.4877 -2.6477 0.1408 0 6
-2.4657 18.4505 -2.6477 0.1408 0 6
-2.7612 18.4086 -2.6477 0.1408 0 6
-3.0559 18.3620 -2.6477 0.1408 0 7
-3.3499 18.3107 -2.6477 0.1408 0 7
-3.6430 18.2546 -2.6477 0.1408 0 7
-3.9351 18.1939 -2.6477 0.1408 0 7
-4.2262 18.1285 -2.6477 0.1408 0 7
-4.5163 18.0584 -2.6477 0.1408 0 7
-4.8052 17.9837 -2.6477 0.1408 0 7
-5.0928 17.9043 -2.6477 0.1408 0 7
-5.3792 17.8204 -2.6477 0.1408 0 7
-5.6641 17.7319 -2.6477 0.1408 0 7
-5.9476 17.6388 -2.6477 0.1408 0 7
-6.2296 17.5412 -2.6477 0.1408 0 7
-6.5100 17.4391 -2.6477 0.1408 0 7
-6.7887 17.3325 -2.6477 0.1408 0 7
-7.0657 17.2215 -2.6477 0.1408 0 7
-7.3408 17.1060 -2.6477 0.1408 0 7
-7.6141 16.9861 -2.6477 0.1408 0 7
-7.8854 16.8619 -2.6477 0.1408 0 7
-8.1546 16.7333 -2.6477 0.1408 0 7
-8.4218 16.6005 -2.6477 0.1408 0 7
-8.6869 16.4633 -2.6477 0.1408 0 7
14.6787 9.6491 -2.6477 0.1490 0 7
14.5221 9.8832 -2.6477 0.1490 0 7
14.3619 10.1147 -2.6477 0.1490 0 7
14.1979 10.3436 -2.6477 0.1490 0 7
14.0302 10.5698 -2.6477 0.1490 0 7
13.8590 10.7934 -2.6477 0.1490 0 7
13.6842 11.0141 -2.6477 0.1490 0 7
13.5059 11.2321 -2.6477 0.1490 0 7
13.3241 11.4471 -2.6477 0.1490 0 6
13.1389 11.6593 -2.6477 0.1490 0 7
12.9503 11.8684 -2.6477 0.1490 0 7
12.7584 12.0744 -2.6477 0.1490 0 7
12.5632 12.2774 -2.6477 0.1490 0 7
12.3648 12.4772 -2.6477 0.1490 0 7
12.1632 12.6738 -2.6477 0.1490 0 7
11.9585 12.8671 -2.6477 0.1490 0 7
11.7507 13.0572 -2.6477 0.1490 0 7
11.5399 13.2439 -2.6477 0.1490 0 7
11.3261 13.4271 -2.6477 0.1490 0 7
11.1094 13.6070 -2.6477 0.1490 0 7
10.8899 13.7833 -2.6477 0.1490 0 7
10.6676 13.9561 -2.6477 0.1490 0 7
10.4425 14.1253 -2.6477 0.1490 0 7
10.2147 14.2909 -2.6477 0.1490 0 7
9.9843 14.4528 -2.6477 0.1490 0 7
9.7514 14.6110 -2.6477 0.1490 0 7
9.5159 14.7654 -2.6477 0.1490 0 7
9.2780 14.9160 -2.6477 0.1490 0 7
9.0377 15.0628 -2.6477 0.1490 0 7
8.7951 15.2058 -2.6477 0.1490 0 7
8.5502 15.3448 -2.6477 0.1490 0 7
8.3031 15.4799 -2.6477 0.1490 0 7
8.0539 15.6110 -2.6477 0.1490 0 7
7.8027 15.7381 -2.6477 0.1490 0 7
7.5494 15.8612 -2.6477 0.1490 0 7
7.2942 15.9801 -2.6477 0.1490 0 7
7.0371 16.0950 -2.6477 0.1490 0 7
6.7782 16.2057 -2.6477 0.1490 0 7
6.5175 16.3123 -2.6477 0.1490 0 7
6.2552 16.4147 -2.6477 0.1490 0 7
5.9913 16.5128 -2.6477 0.1490 0 7
5.7258 16.6068 -2.6477 0.1490 0 7
5.4589 16.6964 -2.6477 0.1490 0 7
5.1906 16.7818 -2.6477 0.1490 0 7
4.9209 16.8628 -2.6477 0.1490 0 7
4.6499 16.9395 -2.6477 0.1490 0 7
4.3778 17.0119 -2.6477 0.1490 0 7
4.1046 17.0799 -2.6477 0.1490 0 7
3.8303 17.1435 -2.6477 0.1490 0 7
3.5550 17.2027 -2.6477 0.1490 0 7
3.2787 17.2574 -2.6477 0.1490 0 7
3.0017 17.3078 -2.6477 0.1490 0 7
2.7239 17.3537 -2.6477 0.1490 0 7
2.4453 17.3951 -2.6477 0.1490 0 7
2.1662 17.4321 -2.6477 0.1490 0 7
1.8865 17.4646 -2.6477 0.1490 0 7
1.6063 17.4925 -2.6477 0.1490 0 7
1.3257 17.5160 -2.6477 0.1490 0 7
1.0447 17.5350 -2.6477 0.1490 0 7
0.7635 17.5495 -2.6477 0.1490 0 7
0.4821 17.5595 -2.6477 0.1490 0 7
0.2006 17.5650 -2.6477 0.1490 0 7
-0.0810 17.5660 -2.6477 0.1490 0 7
-0.3626 17.5624 -2.6477 0.1490 0 7
-0.6440 17.5543 -2.6477 0.1490 0 7
-0.9254 17.5418 -2.6477 0.1490 0 7
-1.2064 17.5247 -2.6477 0.1490 0 7
-1.4872 17.5031 -2.6477 0.1490 0 7
-1.7676 17.4770 -2.6477 0.1490 0 7
-2.0475 17.4464 -2.6477 0.1490 0 7
-2.3269 17.4113 -2.6477 0.1490 0 7
-2.6057 17.3718 -2.6477 0.1490 0 7
-2.8838 17.3278 -2.6477 0.1490 0 7
-3.1612 17.2794 -2.6477 0.1490 0 7
-3.4378 17.2265 -2.6477 0.1490 0 7
-3.7135 17.1691 -2.6477 0.1490 0 7
-3.9882 17.1074 -2.6477 0.1490 0 7
-4.2619 17.0413 -2.6477 0.1490 0 7
-4.5345 16.9708 -2.6477 0.1490 0 7
-4.8060 16.8959 -2.6477 0.1490 0 7
-5.0762 16.8167 -2.6477 0.1490 0 7
-5.3451 16.7332 -2.6477 0.1490 0 7
-5.6127 16.6453 -2.6477 0.1490 0 7
-5.8788 16.5532 -2.6477 0.1490 0 7
-6.1433 16.4569 -2.6477 0.1490 0 7
-6.4063 16.3563 -2.6477 0.1490 0 7
-6.6677 16.2515 -2.6477 0.1490 0 7
-6.9274 16.1425 -2.6477 0.1490 0 7
-7.1852 16.0294 -2.6477 0.1490 0 7
-7.4412 15.9122 -2.6477 0.1490 0 7
-7.6954 15.7909 -2.6477 0.1490 0 7
-7.9475 15.6655 -2.6477 0.1490 0 7
-8.1976 15.5361 -2.6477 0.1490 0 7
13.8942 9.1334 -2.6477 0.1573 0 7
13.7460 9.3549 -2.6477 0.1573 0 7
13.5943 9.5741 -2.6477 0.1573 0 7
13.4390 9.7908 -2.6477 0.1573 0 7
13.2804 10.0049 -2.6477 0.1573 0 7
13.1183 10.2165 -2.6477 0.1573 0 7
12.9528 10.4255 -2.6477 0.1573 0 7
12.7841 10.6318 -2.6477 0.1573 0 7
12.6120 10.8353 -2.6477 0.1573 0 7
12.4367 11.0361 -2.6477 0.1573 0 7
12.2582 11.2340 -2.6477 0.1573 0 7
12.0765 11.4291 -2.6477 0.1573 0 6
11.8918 11.6212 -2.6477 0.1573 0 7
11.7040 11.8103 -2.6477 0.1573 0 7
11.5131 11.9964 -2.6477 0.1573 0 7
11.3194 12.1794 -2.6477 0.1573 0 7
11.1227 12.3593 -2.6477 0.1573 0 7
10.9231 12.5360 -2.6477 0.1573 0 7
10.7208 12.7095 -2.6477 0.1573 0 7
10.5157 12.8797 -2.6477 0.1573 0 7
10.3079 13.0466 -2.6477 0.1573 0 7
10.0974 13.2102 -2.6477 0.1573 0 7
9.8844 13.3703 -2.6477 0.1573 0 7
9.6688 13.5271 -2.6477 0.1573 0 7
9.4507 13.6803 -2.6477 0.1573 0 7
9.2302 13.8301 -2.6477 0.1573 0 7
9.0073 13.9762 -2.6477 0.1573 0 7
8.7821 14.1188 -2.6477 0.1573 0 7
8.5547 14.2578 -2.6477 0.1573 0 7
8.3250 14.3931 -2.6477 0.1573 0 7
8.0932 14.5247 -2.6477 0.1573 0 7
7.8594 14.6525 -2.6477 0.1573 0 7
7.6235 14.7766 -2.6477 0.1573 0 7
7.3856 14.8969 -2.6477 0.1573 0 6
7.1459 15.0134 -2.6477 0.1573 0 6
6.9043 15.1260 -2.6477 0.1573 0 7
6.6610 15.2348 -2.6477 0.1573 0 7
6.4159 15.3396 -2.6477 0.1573 0 7
6.1692 15.4405 -2.6477 0.1573 0 7
5.9209 15.5374 -2.6477 0.1573 0 7
5.6711 15.6303 -2.6477 0.1573 0 7
5.4198 15.7192 -2.6477 0.1573 0 7
5.1671 15.8040 -2.6477 0.1573 0 7
4.9131 15.8848 -2.6477 0.1573 0 7
4.6579 15.9615 -2.6477 0.1573 0 7
4.4014 16.0342 -2.6477 0.1573 0 7
4.1438 16.1026 -2.6477 0.1573 0 7
3.8852 16.1670 -2.6477 0.1573 0 7
3.6255 16.2272 -2.6477 0.1573 0 7
3.3649 16.2832 -2.6477 0.1573 0 7
3.1035 16.3351 -2.6477 0.1573 0 7
2.8413 16.3827 -2.6477 0.1573 0 7
2.5783 16.4262 -2.6477 0.1573 0 7
2.3147 16.4654 -2.6477 0.1573 0 7
2.0504 16.5004 -2.6477 0.1573 0 7
1.7857 16.5311 -2.6477 0.1573 0 7
1.5204 16.5576 -2.6477 0.1573 0 7
1.2548 16.5799 -2.6477 0.1573 0 7
0.9889 16.5979 -2.6477 0.1573 0 7
0.7227 16.6116 -2.6477 0.1573 0 7
0.4563 16.6210 -2.6477 0.1573 0 7
0.1899 16.6262 -2.6477 0.1573 0 7
-0.0767 16.6271 -2.6477 0.1573 0 7
-0.3432 16.6237 -2.6477 0.1573 0 7
-0.6096 16.6161 -2.6477 0.1573 0 7
-0.8759 16.6042 -2.6477 0.1573 0 7
-1.1419 16.5880 -2.6477 0.1573 0 7
-1.4077 16.5676 -2.6477 0.1573 0 7
-1.6731 16.5429 -2.6477 0.1573 0 7
-1.9380 16.5140 -2.6477 0.1573 0 7
-2.2025 16.4808 -2.6477 0.1573 0 7
-2.4664 16.4433 -2.6477 0.1573 0 7
-2.7297 16.4017 -2.6477 0.1573 0 7
-2.9922 16.3558 -2.6477 0.1573 0 7
-3.2540 16.3058 -2.6477 0.1573 0 7
-3.5150 16.2515 -2.6477 0.1573 0 7
-3.7750 16.1931 -2.6477 0.1573 0 7
-4.0341 16.1305 -2.6477 0.1573 0 7
-4.2922 16.0637 -2.6477 0.1573 0 7
-4.5491 15.9929 -2.6477 0.1573 0 7
-4.8049 15.9179 -2.6477 0.1573 0 7
-5.0594 15.8388 -2.6477 0.1573 0 7
-5.3127 15.7557 -2.6477 0.1573 0 7
-5.5646 15.6685 -2.6477 0.1573 0 7
-5.8150 15.5773 -2.6477 0.1573 0 7
-6.0639 15.4821 -2.6477 0.1573 0 7
-6.3113 15.3829 -2.6477 0.1573 0 7
-6.5571 15.2798 -2.6477 0.1573 0 7
-6.8012 15.1727 -2.6477 0.1573 0 7
-7.0435 15.0617 -2.6477 0.1573 0 7
-7.2841 14.9469 -2.6477 0.1573 0 6
-7.5227 14.8282 -2.6477 0.1573 0 7
-7.7595 14.7057 -2.6477 0.1573 0 7
12.4284 8.1699 -2.4953 0.1655 0 8
12.2958 8.3680 -2.4953 0.1655 0 8
12.9028 9.0871 -2.6477 0.1655 0 7
12.7555 9.2928 -2.6477 0.1655 0 7
12.6049 9.4960 -2.6477 0.1655 0 7
12.4511 9.6969 -2.6477 0.1655 0 7
12.2940 9.8952 -2.6477 0.1655 0 7
12.1338 10.0910 -2.6477 0.1655 0 7
11.9705 10.2842 -2.6477 0.1655 0 7
11.8041 10.4748 -2.6477 0.1655 0 7
11.6347 10.6626 -2.6477 0.1655 0 7
11.4623 10.8478 -2.6477 0.1655 0 7
11.2869 11.0301 -2.6477 0.1655 0 7
11.1087 11.2096 -2.6477 0.1655 0 7
10.9275 11.3862 -2.6477 0.1655 0 7
10.7436 11.5600 -2.6477 0.1655 0 7
10.5570 11.7307 -2.6477 0.1655 0 7
10.3676 11.8984 -2.6477 0.1655 0 7
10.1755 12.0631 -2.6477 0.1655 0 7
9.9808 12.2246 -2.6477 0.1655 0 7
9.7836 12.3830 -2.6477 0.1655 0 7
9.5838 12.5383 -2.6477 0.1655 0 7
9.3816 12.6903 -2.6477 0.1655 0 7
9.1770 12.8390 -2.6477 0.1655 0 7
8.9700 12.9845 -2.6477 0.1655 0 7
8.7607 13.1266 -2.6477 0.1655 0 7
8.5492 13.2654 -2.6477 0.1655 0 7
8.3354 13.4007 -2.6477 0.1655 0 7
8.1196 13.5326 -2.6477 0.1655 0 7
7.9016 13.6610 -2.6477 0.1655 0 7
7.6816 13.7859 -2.6477 0.1655 0 7
7.4596 13.9073 -2.6477 0.1655 0 7
7.2357 14.0251 -2.6477 0.1655 0 7
7.0100 14.1392 -2.6477 0.1655 0 7
6.7824 14.2498 -2.6477 0.1655 0 7
6.5531 14.3567 -2.6477 0.1655 0 7
6.3222 14.4599 -2.6477 0.1655 0 7
6.0896 14.5594 -2.6477 0.1655 0 7
5.8554 14.6551 -2.6477 0.1655 0 7
5.6197 14.7471 -2.6477 0.1655 0 7
5.3826 14.8353 -2.6477 0.1655 0 7
5.1441 14.9196 -2.6477 0.1655 0 7
4.9043 15.0002 -2.6477 0.1655 0 7
4.6632 15.0769 -2.6477 0.1655 0 7
4.4210 15.1497 -2.6477 0.1655 0 7
4.1776 15.2186 -2.6477 0.1655 0 7
3.9331 15.2836 -2.6477 0.1655 0 7
3.6876 15.3447 -2.6477 0.1655 0 7
3.4411 15.4018 -2.6477 0.1655 0 7
3.1938 15.4550 -2.6477 0.1655 0 7
2.9457 15.5042 -2.6477 0.1655 0 7
2.6967 15.5494 -2.6477 0.1655 0 7
2.4471 15.5907 -2.6477 0.1655 0 7
2.1969 15.6279 -2.6477 0.1655 0 7
1.9461 15.6611 -2.6477 0.1655 0 7
1.6948 15.6903 -2.6477 0.1655 0 7
1.4431 15.7155 -2.6477 0.1655 0 7
1.1910 15.7366 -2.6477 0.1655 0 7
0.9386 15.7536 -2.6477 0.1655 0 7
0.6860 15.7667 -2.6477 0.1655 0 7
0.4331 15.7756 -2.6477 0.1655 0 7
0.1802 15.7805 -2.6477 0.1655 0 7
-0.0728 15.7814 -2.6477 0.1655 0 7
-0.3257 15.7782 -2.6477 0.1655 0 7
-0.5786 15.7710 -2.6477 0.1655 0 7
-0.8313 15.7597 -2.6477 0.1655 0 7
-1.0839 15.7443 -2.6477 0.1655 0 7
-1.3361 15.7249 -2.6477 0.1655 0 7
-1.5880 15.7015 -2.6477 0.1655 0 7
-1.8395 15.6740 -2.6477 0.1655 0 7
-2.0905 15.6425 -2.6477 0.1655 0 7
-2.3410 15.6070 -2.6477 0.1655 0 7
-2.5908 15.5675 -2.6477 0.1655 0 7
-2.8400 15.5239 -2.6477 0.1655 0 7
-3.0885 15.4764 -2.6477 0.1655 0 7
-3.3362 15.4249 -2.6477 0.1655 0 7
-3.5830 15.3694 -2.6477 0.1655 0 7
-3.8289 15.3100 -2.6477 0.1655 0 7
-4.0739 15.2467 -2.6477 0.1655 0 7
-4.3177 15.1794 -2.6477 0.1655 0 7
-4.5605 15.1083 -2.6477 0.1655 0 7
-4.8021 15.0332 -2.6477 0.1655 0 7
-5.0425 14.9543 -2.6477 0.1655 0 7
-5.2815 14.8716 -2.6477 0.1655 0 7
-5.5192 14.7850 -2.6477 0.1655 0 7
-5.7555 14.6946 -2.6477 0.1655 0 7
-5.9903 14.6005 -2.6477 0.1655 0 7
-6.2236 14.5026 -2.6477 0.1655 0 7
-6.4553 14.4010 -2.6477 0.1655 0 7
-6.6853 14.2956 -2.6477 0.1655 0 7
-6.9136 14.1866 -2.6477 0.1655 0 7
-7.1401 14.0740 -2.6477 0.1655 0 7
-7.3648 13.9577 -2.6477 0.1655 0 7
11.8252 7.7734 -2.4953 0.1736 0 8
11.6991 7.9619 -2.4953 0.1736 0 8
11.5700 8.1484 -2.4953 0.1736 0 8
11.4379 8.3329 -2.4953 0.1736 0 8
11.9932 9.0352 -2.6477 0.1736 0 7
11.8468 9.2263 -2.6477 0.1736 0 7
11.6974 9.4150 -2.6477 0.1736 0 7
11.5450 9.6013 -2.6477 0.1736 0 7
11.3896 9.7851 -2.6477 0.1736 0 7
11.2313 9.9664 -2.6477 0.1736 0 7
11.0701 10.1452 -2.6477 0.1736 0 7
10.9060 10.3213 -2.6477 0.1736 0 7
10.7392 10.4948 -2.6477 0.1736 0 7
10.5696 10.6656 -2.6477 0.1736 0 7
10.3972 10.8337 -2.6477 0.1736 0 7
10.2222 10.9989 -2.6477 0.1736 0 7
10.0446 11.1614 -2.6477 0.1736 0 7
9.8644 11.3210 -2.6477 0.1736 0 7
9.6817 11.4776 -2.6477 0.1736 0 6
9.4964 11.6314 -2.6477 0.1736 0 7
9.3088 11.7821 -2.6477 0.1736 0 7
9.1187 11.9298 -2.6477 0.1736 0 7
8.9263 12.0744 -2.6477 0.1736 0 7
8.7316 12.2160 -2.6477 0.1736 0 7
8.5347 12.3544 -2.6477 0.1736 0 7
8.3356 12.4896 -2.6477 0.1736 0 7
8.1343 12.6216 -2.6477 0.1736 0 7
7.9309 12.7504 -2.6477 0.1736 0 7
7.7255 12.8759 -2.6477 0.1736 0 7
7.5181 12.9980 -2.6477 0.1736 0 7
7.3088 13.1169 -2.6477 0.1736 0 7
7.0976 13.2323 -2.6477 0.1736 0 7
6.8846 13.3444 -2.6477 0.1736 0 7
6.6698 13.4531 -2.6477 0.1736 0 7
6.4533 13.5582 -2.6477 0.1736 0 7
6.2351 13.6600 -2.6477 0.1736 0 7
6.0154 13.7581 -2.6477 0.1736 0 7
5.7940 13.8528 -2.6477 0.1736 0 7
5.5712 13.9439 -2.6477 0.1736 0 7
5.3470 14.0314 -2.6477 0.1736 0 7
5.1214 14.1153 -2.6477 0.1736 0 7
4.8945 14.1956 -2.6477 0.1736 0 7
4.6663 14.2722 -2.6477 0.1736 0 7
4.4369 14.3452 -2.6477 0.1736 0 7
4.2064 14.4145 -2.6477 0.1736 0 7
3.9748 14.4801 -2.6477 0.1736 0 7
3.7422 14.5419 -2.6477 0.1736 0 7
3.5086 14.6000 -2.6477 0.1736 0 7
3.2741 14.6544 -2.6477 0.1736 0 7
3.0388 14.7050 -2.6477 0.1736 0 7
2.8027 14.7518 -2.6477 0.1736 0 7
2.5659 14.7948 -2.6477 0.1736 0 7
2.3284 14.8341 -2.6477 0.1736 0 7
2.0903 14.8695 -2.6477 0.1736 0 7
1.8517 14.9011 -2.6477 0.1736 0 7
1.6126 14.9289 -2.6477 0.1736 0 7
1.3731 14.9528 -2.6477 0.1736 0 7
1.1332 14.9729 -2.6477 0.1736 0 7
0.8930 14.9891 -2.6477 0.1736 0 7
0.6527 15.0015 -2.6477 0.1736 0 7
0.4121 15.0100 -2.6477 0.1736 0 7
0.1715 15.0147 -2.6477 0.1736 0 7
-0.0692 15.0155 -2.6477 0.1736 0 7
-0.3099 15.0125 -2.6477 0.1736 0 7
-0.5505 15.0056 -2.6477 0.1736 0 7
-0.7910 14.9948 -2.6477 0.1736 0 7
-1.0313 14.9802 -2.6477 0.1736 0 6
-1.2713 14.9618 -2.6477 0.1736 0 6
-1.5109 14.9395 -2.6477 0.1736 0 6
-1.7501 14.9133 -2.6477 0.1736 0 7
-1.9890 14.8834 -2.6477 0.1736 0 7
-2.2274 14.8496 -2.6477 0.1736 0 7
-2.4651 14.8120 -2.6477 0.1736 0 7
-2.7022 14.7705 -2.6477 0.1736 0 7
-2.9386 14.7253 -2.6477 0.1736 0 7
-3.1743 14.6763 -2.6477 0.1736 0 7
-3.4091 14.6236 -2.6477 0.1736 0 7
-3.6431 14.5670 -2.6477 0.1736 0 7
-3.8762 14.5068 -2.6477 0.1736 0 7
-4.1082 14.4428 -2.6477 0.1736 0 7
-4.3392 14.3751 -2.6477 0.1736 0 7
-4.5691 14.3037 -2.6477 0.1736 0 7
-4.7977 14.2286 -2.6477 0.1736 0 7
-5.0252 14.1498 -2.6477 0.1736 0 7
-5.2514 14.0675 -2.6477 0.1736 0 7
-5.4762 13.9815 -2.6477 0.1736 0 7
-5.6996 13.8919 -2.6477 0.1736 0 7
-5.9216 13.7988 -2.6477 0.1736 0 7
-6.1420 13.7021 -2.6477 0.1736 0 7
-6.3608 13.6019 -2.6477 0.1736 0 7
-6.5781 13.4982 -2.6477 0.1736 0 7
-6.7936 13.3910 -2.6477 0.1736 0 7
-7.0074 13.2804 -2.6477 0.1736 0 7
11.2764 7.4126 -2.4953 0.1818 0 8
11.1561 7.5924 -2.4953 0.1818 0 8
11.0330 7.7702 -2.4953 0.1818 0 8
10.9070 7.9461 -2.4953 0.1818 0 8
10.7782 8.1199 -2.4953 0.1818 0 8
10.6467 8.2916 -2.4953 0.1818 0 8
10.5124 8.4612 -2.4953 0.1818 0 8
11.0091 9.1557 -2.6477 0.1818 0 7
10.8609 9.3310 -2.6477 0.1818 0 7
10.7100 9.5039 -2.6477 0.1818 0 7
10.5563 9.6743 -2.6477 0.1818 0 7
10.3998 9.8423 -2.6477 0.1818 0 7
10.2407 10.0077 -2.6477 0.1818 0 7
10.0790 10.1706 -2.6477 0.1818 0 7
9.9147 10.3308 -2.6477 0.1818 0 7
9.7478 10.4884 -2.6477 0.1818 0 7
9.5784 10.6434 -2.6477 0.1818 0 7
9.4066 10.7955 -2.6477 0.1818 0 7
9.2323 10.9450 -2.6477 0.1818 0 7
9.0557 11.0915 -2.6477 0.1818 0 7
8.8767 11.2352 -2.6477 0.1818 0 7
8.6955 11.3761 -2.6477 0.1818 0 7
8.5120 11.5140 -2.6477 0.1818 0 6
8.3264 11.6490 -2.6477 0.1818 0 7
8.1386 11.7810 -2.6477 0.1818 0 7
7.9487 11.9099 -2.6477 0.1818 0 7
7.7567 12.0358 -2.6477 0.1818 0 7
7.5628 12.1586 -2.6477 0.1818 0 7
7.3669 12.2782 -2.6477 0.1818 0 7
7.1692 12.3947 -2.6477 0.1818 0 7
6.9696 12.5081 -2.6477 0.1818 0 7
6.7682 12.6182 -2.6477 0.1818 0 7
6.5650 12.7251 -2.6477 0.1818 0 7
6.3602 12.8287 -2.6477 0.1818 0 7
6.1538 12.9290 -2.6477 0.1818 0 7
5.9457 13.0259 -2.6477 0.1818 0 7
5.7362 13.1196 -2.6477 0.1818 0 7
5.5251 13.2098 -2.6477 0.1818 0 7
5.3127 13.2967 -2.6477 0.1818 0 7
5.0988 13.3802 -2.6477 0.1818 0 7
4.8837 13.4602 -2.6477 0.1818 0 7
4.6673 13.5367 -2.6477 0.1818 0 7
4.4497 13.6098 -2.6477 0.1818 0 7
4.2310 13.6794 -2.6477 0.1818 0 7
4.0112 13.7454 -2.6477 0.1818 0 7
3.7903 13.8080 -2.6477 0.1818 0 7
3.5685 13.8670 -2.6477 0.1818 0 7
3.3458 13.9224 -2.6477 0.1818 0 7
3.1222 13.9742 -2.6477 0.1818 0 7
2.8978 14.0225 -2.6477 0.1818 0 7
2.6726 14.0671 -2.6477 0.1818 0 7
2.4468 14.1082 -2.6477 0.1818 0 7
2.2203 14.1456 -2.6477 0.1818 0 7
1.9933 14.1793 -2.6477 0.1818 0 7
1.7657 14.2095 -2.6477 0.1818 0 7
1.5377 14.2360 -2.6477 0.1818 0 7
1.3093 14.2588 -2.6477 0.1818 0 7
1.0806 14.2779 -2.6477 0.1818 0 7
0.8516 14.2934 -2.6477 0.1818 0 7
0.6224 14.3052 -2.6477 0.1818 0 7
0.3930 14.3134 -2.6477 0.1818 0 7
0.1635 14.3178 -2.6477 0.1818 0 7
-0.0660 14.3186 -2.6477 0.1818 0 7
-0.2955 14.3157 -2.6477 0.1818 0 7
-0.5250 14.3091 -2.6477 0.1818 0 7
-0.7543 14.2989 -2.6477 0.1818 0 7
-0.9834 14.2850 -2.6477 0.1818 0 7
-1.2122 14.2674 -2.6477 0.1818 0 7
-1.4408 14.2461 -2.6477 0.1818 0 7
-1.6690 14.2212 -2.6477 0.1818 0 7
-1.8967 14.1926 -2.6477 0.1818 0 7
-2.1240 14.1604 -2.6477 0.1818 0 7
-2.3507 14.1245 -2.6477 0.1818 0 7
-2.5768 14.0850 -2.6477 0.1818 0 7
-2.8023 14.0419 -2.6477 0.1818 0 7
-3.0270 13.9952 -2.6477 0.1818 0 7
-3.2509 13.9448 -2.6477 0.1818 0 7
-3.4740 13.8909 -2.6477 0.1818 0 7
-3.6963 13.8335 -2.6477 0.1818 0 7
-3.9175 13.7724 -2.6477 0.1818 0 7
-4.1378 13.7079 -2.6477 0.1818 0 7
-4.3570 13.6398 -2.6477 0.1818 0 7
-4.5751 13.5682 -2.6477 0.1818 0 7
-4.7920 13.4931 -2.6477 0.1818 0 7
-5.0076 13.4146 -2.6477 0.1818 0 7
-5.2220 13.3326 -2.6477 0.1818 0 7
-5.4351 13.2472 -2.6477 0.1818 0 7
-5.6467 13.1583 -2.6477 0.1818 0 7
-5.8569 13.0661 -2.6477 0.1818 0 7
-6.0656 12.9706 -2.6477 0.1818 0 7
-6.2727 12.8717 -2.6477 0.1818 0 7
-6.4783 12.7695 -2.6477 0.1818 0 7
-6.6821 12.6640 -2.6477 0.1818 0 7
10.7748 7.0828 -2.4953 0.1900 0 8
10.6598 7.2546 -2.4953 0.1900 0 8
10.5422 7.4246 -2.4953 0.1900 0 8
10.4218 7.5926 -2.4953 0.1900 0 8
10.2988 7.7587 -2.4953 0.1900 0 8
10.1731 7.9228 -2.4953 0.1900 0 8
10.0448 8.0848 -2.4953 0.1900 0 8
9.9139 8.2448 -2.4953 0.1900 0 8
9.7804 8.4027 -2.4953 0.1900 0 8
10.2335 9.0811 -2.6477 0.1900 0 7
10.0867 9.2439 -2.6477 0.1900 0 7
9.9372 9.4044 -2.6477 0.1900 0 7
9.7852 9.5625 -2.6477 0.1900 0 7
9.6306 9.7182 -2.6477 0.1900 0 7
9.4736 9.8713 -2.6477 0.1900 0 7
9.3142 10.0219 -2.6477 0.1900 0 7
9.1523 10.1699 -2.6477 0.1900 0 7
8.9881 10.3153 -2.6477 0.1900 0 7
8.8216 10.4580 -2.6477 0.1900 0 7
8.6528 10.5981 -2.6477 0.1900 0 7
8.4818 10.7354 -2.6477 0.1900 0 7
8.3087 10.8700 -2.6477 0.1900 0 7
8.1334 11.0018 -2.6477 0.1900 0 7
7.9560 11.1308 -2.6477 0.1900 0 7
7.7765 11.2569 -2.6477 0.1900 0 7
7.5951 11.3801 -2.6477 0.1900 0 7
7.4117 11.5004 -2.6477 0.1900 0 6
7.2264 11.6177 -2.6477 0.1900 0 7
7.0392 11.7320 -2.6477 0.1900 0 7
6.8503 11.8434 -2.6477 0.1900 0 7
6.6595 11.9516 -2.6477 0.1900 0 7
6.4671 12.0569 -2.6477 0.1900 0 7
6.2730 12.1590 -2.6477 0.1900 0 7
6.0773 12.2580 -2.6477 0.1900 0 7
5.8800 12.3538 -2.6477 0.1900 0 7
5.6812 12.4465 -2.6477 0.1900 0 7
5.4810 12.5359 -2.6477 0.1900 0 7
