ply
format ascii 1.0
element vertex 1378
property float32 x
property float32 y
property float32 z
property float32 CosAngle
property uint32 ObjIdx
property uint32 ObjTag
end_header
50.4519 36.0182 -2.5775 0.9878 0 8
49.8630 36.8163 -2.5772 0.9894 0 8
49.3754 37.6919 -2.5828 0.9699 0 8
48.9886 38.6527 -2.5946 0.9267 0 8
48.7159 39.7187 -2.6135 0.8605 0 8
48.5687 40.9098 -2.6404 0.0547 0 8
48.0402 41.7968 -2.6477 0.0415 0 7
47.3652 42.5601 -2.6477 0.0415 0 7
46.6781 43.3126 -2.6477 0.0415 0 7
45.9791 44.0539 -2.6477 0.0415 0 7
45.2683 44.7840 -2.6477 0.0415 0 7
44.5459 45.5027 -2.6477 0.0415 0 7
43.8121 46.2096 -2.6477 0.0415 0 7
43.0671 46.9047 -2.6477 0.0415 0 7
42.3111 47.5879 -2.6477 0.0415 0 6
41.5442 48.2588 -2.6477 0.0415 0 7
40.7666 48.9174 -2.6477 0.0415 0 7
39.9787 49.5634 -2.6477 0.0415 0 7
39.1805 50.1968 -2.6477 0.0415 0 7
38.3722 50.8173 -2.6477 0.0415 0 7
35.3926 48.4648 -2.4953 0.0415 0 8
34.6126 49.0249 -2.4953 0.0415 0 8
33.8237 49.5725 -2.4953 0.0415 0 8
33.0261 50.1073 -2.4953 0.0415 0 8
32.2201 50.6294 -2.4953 0.0415 0 8
31.4059 51.1385 -2.4953 0.0415 0 8
30.5836 51.6345 -2.4953 0.0415 0 8
29.7534 52.1172 -2.4953 0.0415 0 8
28.9157 52.5867 -2.4953 0.0415 0 8
28.0705 53.0426 -2.4953 0.0415 0 8
27.2182 53.4850 -2.4953 0.0415 0 8
26.3588 53.9137 -2.4953 0.0415 0 8
25.4928 54.3285 -2.4953 0.0415 0 8
24.6202 54.7295 -2.4953 0.0415 0 8
23.7413 55.1164 -2.4953 0.0415 0 8
22.8564 55.4893 -2.4953 0.0415 0 8
21.9655 55.8479 -2.4953 0.0415 0 8
21.0691 56.1922 -2.4953 0.0415 0 8
20.1673 56.5221 -2.4953 0.0415 0 8
19.2602 56.8376 -2.4953 0.0415 0 8
18.3483 57.1385 -2.4953 0.0415 0 8
17.4317 57.4248 -2.4953 0.0415 0 8
16.5106 57.6964 -2.4953 0.0415 0 8
15.5853 57.9532 -2.4953 0.0415 0 8
14.6560 58.1951 -2.4953 0.0415 0 8
13.7229 58.4222 -2.4953 0.0415 0 8
12.7863 58.6343 -2.4953 0.0415 0 8
11.8464 58.8314 -2.4953 0.0415 0 8
10.9035 59.0134 -2.4953 0.0415 0 8
9.9579 59.1803 -2.4953 0.0415 0 8
9.0096 59.3321 -2.4953 0.0415 0 8
8.0591 59.4687 -2.4953 0.0415 0 8
7.1065 59.5900 -2.4953 0.0415 0 8
6.1521 59.6961 -2.4953 0.0415 0 8
5.1961 59.7869 -2.4953 0.0415 0 8
4.2387 59.8624 -2.4953 0.0415 0 8
3.2803 59.9225 -2.4953 0.0415 0 8
2.3210 59.9674 -2.4953 0.0415 0 8
1.3612 59.9968 -2.4953 0.0415 0 8
0.4010 60.0109 -2.4953 0.0415 0 8
-0.5593 60.0097 -2.4953 0.0415 0 8
-1.5194 59.9930 -2.4953 0.0415 0 8
-2.4792 59.9610 -2.4953 0.0415 0 8
-3.4383 59.9137 -2.4953 0.0415 0 8
-4.3966 59.8510 -2.4953 0.0415 0 8
-5.3538 59.7730 -2.4953 0.0415 0 8
-6.3095 59.6797 -2.4953 0.0415 0 8
47.7779 19.0816 -2.5676 0.3708 0 8
46.2696 19.3433 -2.5029 0.0498 0 14
45.9542 20.0812 -2.5029 0.0498 0 14
45.6270 20.8139 -2.5029 0.0498 0 14
45.2881 21.5413 -2.5029 0.0498 0 14
44.9376 22.2632 -2.5029 0.0498 0 14
47.1541 24.3087 -2.6477 0.0498 0 7
46.7591 25.0601 -2.6477 0.0498 0 7
46.3521 25.8051 -2.6477 0.0498 0 7
45.9332 26.5435 -2.6477 0.0498 0 6
45.5026 27.2751 -2.6477 0.0498 0 7
45.0603 27.9997 -2.6477 0.0498 0 7
44.6065 28.7172 -2.6477 0.0498 0 7
44.1413 29.4272 -2.6477 0.0498 0 7
43.6648 30.1298 -2.6477 0.0498 0 7
43.1771 30.8246 -2.6477 0.0498 0 7
42.6783 31.5115 -2.6477 0.0498 0 7
42.1687 32.1904 -2.6477 0.0498 0 7
41.6482 32.8610 -2.6477 0.0498 0 7
41.1170 33.5233 -2.6477 0.0498 0 7
40.5754 34.1769 -2.6477 0.0498 0 6
40.0233 34.8218 -2.6477 0.0498 0 7
39.4610 35.4578 -2.6477 0.0498 0 6
38.8885 36.0846 -2.6477 0.0498 0 6
38.3062 36.7023 -2.6477 0.0498 0 7
37.7140 37.3105 -2.6477 0.0498 0 7
37.1121 37.9092 -2.6477 0.0498 0 7
36.5008 38.4982 -2.6477 0.0498 0 7
33.8149 36.8280 -2.4953 0.0498 0 8
33.2213 37.3644 -2.4953 0.0498 0 8
32.6191 37.8912 -2.4953 0.0498 0 8
32.0086 38.4083 -2.4953 0.0498 0 8
31.3898 38.9156 -2.4953 0.0498 0 8
30.7632 39.4129 -2.4953 0.0498 0 8
30.1285 39.9001 -2.4953 0.0498 0 8
29.4863 40.3770 -2.4953 0.0498 0 8
28.8365 40.8437 -2.4953 0.0498 0 8
28.1792 41.2999 -2.4953 0.0498 0 8
27.5148 41.7455 -2.4953 0.0498 0 8
26.8433 42.1804 -2.4953 0.0498 0 8
26.1649 42.6045 -2.4953 0.0498 0 8
25.4798 43.0177 -2.4953 0.0498 0 8
24.7882 43.4199 -2.4953 0.0498 0 8
24.0903 43.8110 -2.4953 0.0498 0 8
23.3861 44.1909 -2.4953 0.0498 0 8
22.6760 44.5595 -2.4953 0.0498 0 8
21.9601 44.9166 -2.4953 0.0498 0 8
21.2386 45.2622 -2.4953 0.0498 0 8
20.5116 45.5963 -2.4953 0.0498 0 8
19.7794 45.9187 -2.4953 0.0498 0 8
19.0421 46.2293 -2.4953 0.0498 0 8
18.2999 46.5280 -2.4953 0.0498 0 8
17.5531 46.8149 -2.4953 0.0498 0 8
16.8018 47.0898 -2.4953 0.0498 0 8
16.0461 47.3526 -2.4953 0.0498 0 8
15.2864 47.6033 -2.4953 0.0498 0 8
14.5227 47.8418 -2.4953 0.0498 0 8
13.7553 48.0681 -2.4953 0.0498 0 8
12.9844 48.2820 -2.4953 0.0498 0 8
12.2102 48.4836 -2.4953 0.0498 0 8
11.4328 48.6728 -2.4953 0.0498 0 8
10.6525 48.8495 -2.4953 0.0498 0 8
9.8695 49.0137 -2.4953 0.0498 0 8
9.0840 49.1653 -2.4953 0.0498 0 8
8.2961 49.3044 -2.4953 0.0498 0 8
7.5061 49.4308 -2.4953 0.0498 0 8
6.7142 49.5446 -2.4953 0.0498 0 8
5.9206 49.6457 -2.4953 0.0498 0 8
5.1254 49.7341 -2.4953 0.0498 0 8
4.3290 49.8097 -2.4953 0.0498 0 8
3.5314 49.8726 -2.4953 0.0498 0 8
2.7329 49.9227 -2.4953 0.0498 0 8
1.9337 49.9601 -2.4953 0.0498 0 8
1.1340 49.9846 -2.4953 0.0498 0 8
0.3341 49.9964 -2.4953 0.0498 0 8
-0.4659 49.9953 -2.4953 0.0498 0 8
-1.2659 49.9814 -2.4953 0.0498 0 8
-2.0655 49.9548 -2.4953 0.0498 0 8
-2.8646 49.9154 -2.4953 0.0498 0 8
-3.6629 49.8631 -2.4953 0.0498 0 8
-4.4603 49.7981 -2.4953 0.0498 0 8
-5.2566 49.7204 -2.4953 0.0498 0 8
42.2164 16.8604 -2.6477 0.0581 0 7
41.9413 17.5338 -2.6477 0.0581 0 7
41.6553 18.2026 -2.6477 0.0581 0 7
41.3587 18.8669 -2.6477 0.0581 0 7
40.0653 19.0571 -2.5841 0.4298 0 8
38.5064 19.0771 -2.5029 0.0581 0 8
38.1962 19.6908 -2.5029 0.0581 0 14
37.8763 20.2995 -2.5029 0.0581 0 14
37.5466 20.9029 -2.5029 0.0581 0 14
37.2073 21.5011 -2.5029 0.0581 0 14
36.8585 22.0937 -2.5029 0.0581 0 14
38.6116 23.9926 -2.6477 0.0581 0 7
38.2228 24.6074 -2.6477 0.0581 0 7
37.8241 25.2158 -2.6477 0.0581 0 7
37.4158 25.8178 -2.6477 0.0581 0 7
36.9979 26.4132 -2.6477 0.0581 0 7
36.5705 27.0018 -2.6477 0.0581 0 7
36.1338 27.5835 -2.6477 0.0581 0 7
35.6878 28.1582 -2.6477 0.0581 0 7
35.2327 28.7256 -2.6477 0.0581 0 7
34.7685 29.2857 -2.6477 0.0581 0 7
34.2954 29.8383 -2.6477 0.0581 0 7
33.8136 30.3833 -2.6477 0.0581 0 7
33.3231 30.9205 -2.6477 0.0581 0 7
32.8241 31.4497 -2.6477 0.0581 0 7
32.3166 31.9709 -2.6477 0.0581 0 7
31.8009 32.4839 -2.6477 0.0581 0 7
31.2771 32.9886 -2.6477 0.0581 0 7
30.6945 33.4296 -2.6433 0.0656 0 8
29.5645 33.2517 -2.5915 0.5713 0 8
28.4455 33.0431 -2.5394 0.6849 0 8
27.4914 32.9879 -2.5011 0.5667 0 8
26.8976 33.3462 -2.4953 0.0581 0 8
26.3606 33.7724 -2.4953 0.0581 0 8
25.8168 34.1898 -2.4953 0.0581 0 8
25.2664 34.5986 -2.4953 0.0581 0 8
24.7096 34.9984 -2.4953 0.0581 0 8
24.1464 35.3893 -2.4953 0.0581 0 8
23.5770 35.7711 -2.4953 0.0581 0 8
23.0016 36.1438 -2.4953 0.0581 0 8
22.4203 36.5073 -2.4953 0.0581 0 8
21.8333 36.8613 -2.4953 0.0581 0 8
21.2407 37.2060 -2.4953 0.0581 0 8
20.6426 37.5411 -2.4953 0.0581 0 8
20.0393 37.8666 -2.4953 0.0581 0 8
19.4308 38.1824 -2.4953 0.0581 0 8
18.8173 38.4884 -2.4953 0.0581 0 8
18.1991 38.7846 -2.4953 0.0581 0 8
17.5761 39.0709 -2.4953 0.0581 0 8
16.9487 39.3471 -2.4953 0.0581 0 8
16.3169 39.6133 -2.4953 0.0581 0 8
15.6810 39.8693 -2.4953 0.0581 0 8
15.0410 40.1151 -2.4953 0.0581 0 8
14.3972 40.3506 -2.4953 0.0581 0 8
13.7497 40.5758 -2.4953 0.0581 0 8
13.0987 40.7906 -2.4953 0.0581 0 8
12.4443 40.9950 -2.4953 0.0581 0 8
11.7868 41.1889 -2.4953 0.0581 0 8
11.1262 41.3722 -2.4953 0.0581 0 8
10.4627 41.5450 -2.4953 0.0581 0 8
9.7966 41.7071 -2.4953 0.0581 0 8
9.1280 41.8585 -2.4953 0.0581 0 8
8.4571 41.9992 -2.4953 0.0581 0 8
7.7839 42.1291 -2.4953 0.0581 0 8
7.1088 42.2483 -2.4953 0.0581 0 8
6.4319 42.3566 -2.4953 0.0581 0 8
5.7533 42.4541 -2.4953 0.0581 0 8
5.0733 42.5407 -2.4953 0.0581 0 8
4.3919 42.6165 -2.4953 0.0581 0 8
3.7094 42.6813 -2.4953 0.0581 0 8
3.0260 42.7352 -2.4953 0.0581 0 8
2.3418 42.7781 -2.4953 0.0581 0 8
1.6570 42.8101 -2.4953 0.0581 0 8
0.9717 42.8312 -2.4953 0.0581 0 8
0.2863 42.8412 -2.4953 0.0581 0 8
-0.3993 42.8403 -2.4953 0.0581 0 8
-1.0847 42.8284 -2.4953 0.0581 0 8
-1.7699 42.8056 -2.4953 0.0581 0 8
-2.4546 42.7718 -2.4953 0.0581 0 8
-3.1387 42.7271 -2.4953 0.0581 0 8
-3.8220 42.6714 -2.4953 0.0581 0 8
-4.5043 42.6047 -2.4953 0.0581 0 8
36.9265 14.7477 -2.6477 0.0664 0 7
36.6859 15.3367 -2.6477 0.0664 0 7
36.4358 15.9218 -2.6477 0.0664 0 7
36.1763 16.5028 -2.6477 0.0664 0 7
35.9076 17.0795 -2.6477 0.0664 0 7
35.6297 17.6519 -2.6477 0.0664 0 7
35.3427 18.2198 -2.6477 0.0664 0 7
35.0467 18.7830 -2.6477 0.0664 0 7
34.1945 19.0367 -2.6060 0.4869 0 8
32.9597 19.0465 -2.5348 0.5006 0 8
32.2400 19.3253 -2.5029 0.0664 0 14
31.9266 19.8387 -2.5029 0.0664 0 14
31.6051 20.3470 -2.5029 0.0664 0 14
31.2755 20.8501 -2.5029 0.0664 0 14
30.9379 21.3479 -2.5029 0.0664 0 14
30.5923 21.8402 -2.5029 0.0664 0 14
30.2389 22.3269 -2.5029 0.0664 0 14
31.6061 24.1272 -2.6477 0.0664 0 7
31.2160 24.6299 -2.6477 0.0664 0 7
30.8179 25.1262 -2.6477 0.0664 0 7
30.4119 25.6161 -2.6477 0.0664 0 7
29.9981 26.0995 -2.6477 0.0664 0 7
29.5766 26.5762 -2.6477 0.0664 0 7
29.1476 27.0460 -2.6477 0.0664 0 7
28.7111 27.5089 -2.6477 0.0664 0 7
28.2672 27.9648 -2.6477 0.0664 0 7
27.8161 28.4136 -2.6477 0.0664 0 7
27.3579 28.8550 -2.6477 0.0664 0 7
26.8927 29.2891 -2.6477 0.0664 0 7
26.4206 29.7161 -2.6477 0.0664 0 7
25.9417 30.1346 -2.6477 0.0664 0 7
25.4562 30.5459 -2.6477 0.0664 0 7
24.9642 30.9493 -2.6477 0.0664 0 7
24.4658 31.3448 -2.6477 0.0664 0 7
23.9611 31.7322 -2.6477 0.0664 0 7
23.4503 32.1116 -2.6477 0.0664 0 7
22.9334 32.4827 -2.6477 0.0664 0 7
22.3693 32.7848 -2.6428 0.0804 0 8
21.7152 32.9463 -2.6274 0.8298 0 8
20.9686 32.9492 -2.6006 0.8383 0 8
20.2369 32.9519 -2.5749 0.8467 0 8
19.5192 32.9545 -2.5504 0.8548 0 8
18.8149 32.9569 -2.5269 0.8628 0 8
18.1231 32.9591 -2.5045 0.8705 0 8
17.5283 33.1218 -2.4953 0.0664 0 8
16.9960 33.3980 -2.4953 0.0664 0 8
16.4595 33.6657 -2.4953 0.0664 0 8
15.9187 33.9248 -2.4953 0.0664 0 8
15.3738 34.1751 -2.4953 0.0664 0 8
14.8250 34.4168 -2.4953 0.0664 0 8
14.2724 34.6496 -2.4953 0.0664 0 8
13.7161 34.8735 -2.4953 0.0664 0 8
13.1563 35.0885 -2.4953 0.0664 0 8
12.5932 35.2946 -2.4953 0.0664 0 8
12.0268 35.4915 -2.4953 0.0664 0 8
11.4574 35.6794 -2.4953 0.0664 0 8
10.8850 35.8582 -2.4953 0.0664 0 8
10.3098 36.0278 -2.4953 0.0664 0 8
9.7320 36.1881 -2.4953 0.0664 0 8
9.1517 36.3392 -2.4953 0.0664 0 8
8.5691 36.4810 -2.4953 0.0664 0 8
7.9842 36.6135 -2.4953 0.0664 0 8
7.3974 36.7365 -2.4953 0.0664 0 8
6.8086 36.8502 -2.4953 0.0664 0 8
6.2181 36.9544 -2.4953 0.0664 0 8
5.6259 37.0492 -2.4953 0.0664 0 8
5.0324 37.1345 -2.4953 0.0664 0 8
4.4376 37.2102 -2.4953 0.0664 0 8
3.8416 37.2765 -2.4953 0.0664 0 8
3.2446 37.3332 -2.4953 0.0664 0 8
2.6468 37.3803 -2.4953 0.0664 0 8
2.0483 37.4179 -2.4953 0.0664 0 8
1.4493 37.4459 -2.4953 0.0664 0 8
0.8500 37.4643 -2.4953 0.0664 0 8
0.2504 37.4731 -2.4953 0.0664 0 8
-0.3492 37.4723 -2.4953 0.0664 0 8
-0.9488 37.4619 -2.4953 0.0664 0 8
-1.5481 37.4419 -2.4953 0.0664 0 8
-2.1470 37.4123 -2.4953 0.0664 0 8
-2.7454 37.3732 -2.4953 0.0664 0 8
-3.3431 37.3245 -2.4953 0.0664 0 8
-3.9399 37.2662 -2.4953 0.0664 0 8
32.8108 13.1040 -2.6477 0.0747 0 7
32.5969 13.6273 -2.6477 0.0747 0 7
32.3747 14.1472 -2.6477 0.0747 0 7
32.1441 14.6634 -2.6477 0.0747 0 7
31.9054 15.1759 -2.6477 0.0747 0 7
31.6585 15.6844 -2.6477 0.0747 0 7
31.4035 16.1890 -2.6477 0.0747 0 7
31.1404 16.6894 -2.6477 0.0747 0 7
30.8693 17.1856 -2.6477 0.0747 0 7
30.5904 17.6773 -2.6477 0.0747 0 7
30.3036 18.1646 -2.6477 0.0747 0 7
30.0091 18.6471 -2.6477 0.0747 0 7
29.5420 19.0188 -2.6330 0.5421 0 8
28.5417 19.0276 -2.5706 0.5552 0 8
27.5872 19.0358 -2.5118 0.5682 0 8
27.1825 19.4059 -2.5029 0.0747 0 14
26.8685 19.8384 -2.5029 0.0747 0 14
26.5476 20.2658 -2.5029 0.0747 0 14
26.2200 20.6880 -2.5029 0.0747 0 14
25.8856 21.1049 -2.5029 0.0747 0 14
25.5446 21.5164 -2.5029 0.0747 0 14
25.1970 21.9224 -2.5029 0.0747 0 14
24.8531 22.3319 -2.5039 0.5227 0 8
25.8988 24.0315 -2.6477 0.0747 0 7
25.5110 24.4428 -2.6477 0.0747 0 7
25.1166 24.8479 -2.6477 0.0747 0 7
24.7158 25.2466 -2.6477 0.0747 0 7
24.3086 25.6389 -2.6477 0.0747 0 7
23.8953 26.0245 -2.6477 0.0747 0 7
23.4758 26.4036 -2.6477 0.0747 0 7
23.0503 26.7758 -2.6477 0.0747 0 7
22.6189 27.1412 -2.6477 0.0747 0 7
22.1817 27.4997 -2.6477 0.0747 0 7
21.7388 27.8511 -2.6477 0.0747 0 7
21.2904 28.1954 -2.6477 0.0747 0 7
20.8365 28.5324 -2.6477 0.0747 0 7
20.3773 28.8622 -2.6477 0.0747 0 7
19.9129 29.1846 -2.6477 0.0747 0 7
19.4433 29.4995 -2.6477 0.0747 0 7
18.9688 29.8068 -2.6477 0.0747 0 7
18.4894 30.1065 -2.6477 0.0747 0 7
18.0053 30.3985 -2.6477 0.0747 0 7
17.5166 30.6827 -2.6477 0.0747 0 7
17.0234 30.9591 -2.6477 0.0747 0 7
16.5258 31.2275 -2.6477 0.0747 0 7
16.0240 31.4880 -2.6477 0.0747 0 7
15.5181 31.7403 -2.6477 0.0747 0 7
15.0083 31.9846 -2.6477 0.0747 0 7
14.4945 32.2206 -2.6477 0.0747 0 7
13.9771 32.4484 -2.6477 0.0747 0 7
13.4421 32.6339 -2.6449 0.0903 0 8
12.9037 32.8079 -2.6419 0.0904 0 8
12.3428 32.9189 -2.6346 0.9308 0 8
11.7460 32.9201 -2.6194 0.9362 0 8
11.1558 32.9211 -2.6049 0.9414 0 8
10.5719 32.9220 -2.5912 0.9464 0 8
9.9939 32.9228 -2.5784 0.9511 0 8
9.4215 32.9235 -2.5663 0.9555 0 8
8.8542 32.9240 -2.5550 0.9598 0 8
8.2917 32.9244 -2.5444 0.9638 0 8
7.7337 32.9247 -2.5345 0.9675 0 8
7.1799 32.9248 -2.5254 0.9710 0 8
6.6298 32.9249 -2.5169 0.9743 0 8
6.0833 32.9248 -2.5091 0.9773 0 8
5.5401 32.9252 -2.5021 0.7478 0 8
5.0004 32.9298 -2.4960 0.7496 0 8
4.4715 32.9955 -2.4953 0.0747 0 8
3.9429 33.0628 -2.4953 0.0747 0 8
3.4134 33.1217 -2.4953 0.0747 0 8
2.8830 33.1721 -2.4953 0.0747 0 8
2.3518 33.2139 -2.4953 0.0747 0 8
1.8200 33.2473 -2.4953 0.0747 0 8
1.2878 33.2722 -2.4953 0.0747 0 8
0.7552 33.2885 -2.4953 0.0747 0 8
0.2225 33.2963 -2.4953 0.0747 0 8
-0.3103 33.2957 -2.4953 0.0747 0 8
-0.8431 33.2864 -2.4953 0.0747 0 8
-1.3756 33.2687 -2.4953 0.0747 0 8
-1.9077 33.2424 -2.4953 0.0747 0 8
-2.4394 33.2076 -2.4953 0.0747 0 8
-2.9705 33.1643 -2.4953 0.0747 0 8
-3.5007 33.1126 -2.4953 0.0747 0 8
29.5167 11.7884 -2.6477 0.0830 0 7
29.3243 12.2592 -2.6477 0.0830 0 7
29.1244 12.7269 -2.6477 0.0830 0 7
28.9170 13.1913 -2.6477 0.0830 0 7
28.7022 13.6523 -2.6477 0.0830 0 7
28.4801 14.1098 -2.6477 0.0830 0 7
28.2507 14.5637 -2.6477 0.0830 0 7
28.0140 15.0139 -2.6477 0.0830 0 6
27.7702 15.4602 -2.6477 0.0830 0 7
27.5193 15.9026 -2.6477 0.0830 0 7
27.2613 16.3409 -2.6477 0.0830 0 7
26.9963 16.7750 -2.6477 0.0830 0 7
26.7244 17.2049 -2.6477 0.0830 0 7
26.4457 17.6308 -2.6477 0.0830 0 7
26.1602 18.0512 -2.6477 0.0830 0 7
25.8679 18.4675 -2.6477 0.0830 0 6
25.5692 18.8790 -2.6477 0.0830 0 7
24.9029 19.0102 -2.6098 0.6075 0 8
24.1030 19.0177 -2.5576 0.6199 0 8
23.3365 19.0265 -2.5082 0.5025 0 8
22.9800 19.3562 -2.5029 0.0830 0 14
22.6673 19.7214 -2.5029 0.0830 0 14
22.3489 20.0816 -2.5029 0.0830 0 14
22.0247 20.4367 -2.5029 0.0830 0 14
21.6948 20.7865 -2.5029 0.0830 0 14
21.3595 21.1309 -2.5029 0.0830 0 14
21.0186 21.4700 -2.5029 0.0830 0 14
20.6724 21.8036 -2.5029 0.0830 0 14
20.3208 22.1316 -2.5029 0.0830 0 14
19.9641 22.4539 -2.5029 0.0830 0 8
20.7361 24.0877 -2.6477 0.0830 0 7
20.3481 24.4164 -2.6477 0.0830 0 7
19.9548 24.7389 -2.6477 0.0830 0 7
19.5563 25.0550 -2.6477 0.0830 0 7
19.1529 25.3647 -2.6477 0.0830 0 7
18.7446 25.6679 -2.6477 0.0830 0 7
18.3315 25.9646 -2.6477 0.0830 0 7
17.9137 26.2546 -2.6477 0.0830 0 7
17.4913 26.5378 -2.6477 0.0830 0 7
17.0644 26.8143 -2.6477 0.0830 0 7
16.6332 27.0839 -2.6477 0.0830 0 7
16.1977 27.3466 -2.6477 0.0830 0 7
15.7580 27.6023 -2.6477 0.0830 0 7
15.3143 27.8509 -2.6477 0.0830 0 7
14.8667 28.0924 -2.6477 0.0830 0 7
14.4153 28.3267 -2.6477 0.0830 0 7
13.9602 28.5537 -2.6477 0.0830 0 7
13.5015 28.7735 -2.6477 0.0830 0 7
13.0394 28.9858 -2.6477 0.0830 0 7
12.5739 29.1908 -2.6477 0.0830 0 7
12.1052 29.3882 -2.6477 0.0830 0 7
11.6334 29.5782 -2.6477 0.0830 0 7
11.1586 29.7605 -2.6477 0.0830 0 7
10.6810 29.9353 -2.6477 0.0830 0 6
10.2006 30.1023 -2.6477 0.0830 0 7
9.7176 30.2617 -2.6477 0.0830 0 7
9.2322 30.4133 -2.6477 0.0830 0 7
8.7443 30.5571 -2.6477 0.0830 0 7
8.2543 30.6932 -2.6477 0.0830 0 7
7.7621 30.8213 -2.6477 0.0830 0 7
7.2679 30.9416 -2.6477 0.0830 0 7
6.7719 31.0539 -2.6477 0.0830 0 7
6.2741 31.1583 -2.6477 0.0830 0 7
5.7747 31.2547 -2.6477 0.0830 0 7
5.2739 31.3431 -2.6477 0.0830 0 7
4.7717 31.4235 -2.6477 0.0830 0 7
4.2682 31.4958 -2.6477 0.0830 0 7
3.7637 31.5601 -2.6477 0.0830 0 7
3.2583 31.6162 -2.6477 0.0830 0 7
2.7519 31.6643 -2.6477 0.0830 0 7
2.2449 31.7043 -2.6477 0.0830 0 7
1.7373 31.7362 -2.6477 0.0830 0 7
1.2293 31.7599 -2.6477 0.0830 0 7
0.7209 31.7755 -2.6477 0.0830 0 7
0.2124 31.7830 -2.6477 0.0830 0 7
-0.2962 31.7823 -2.6477 0.0830 0 7
-0.8047 31.7735 -2.6477 0.0830 0 7
-1.3130 31.7566 -2.6477 0.0830 0 7
-1.8210 31.7315 -2.6477 0.0830 0 7
-2.3285 31.6983 -2.6477 0.0830 0 7
-2.8355 31.6570 -2.6477 0.0830 0 7
-3.3416 31.6075 -2.6477 0.0830 0 7
26.8204 10.7115 -2.6477 0.0913 0 7
26.6455 11.1393 -2.6477 0.0913 0 7
26.4639 11.5643 -2.6477 0.0913 0 6
26.2755 11.9862 -2.6477 0.0913 0 7
26.0803 12.4051 -2.6477 0.0913 0 7
25.8785 12.8209 -2.6477 0.0913 0 7
25.6700 13.2333 -2.6477 0.0913 0 7
25.4550 13.6424 -2.6477 0.0913 0 7
25.2334 14.0479 -2.6477 0.0913 0 7
25.0054 14.4499 -2.6477 0.0913 0 7
24.7710 14.8482 -2.6477 0.0913 0 7
24.5302 15.2427 -2.6477 0.0913 0 7
24.2832 15.6332 -2.6477 0.0913 0 7
24.0299 16.0198 -2.6477 0.0913 0 7
23.7705 16.4022 -2.6477 0.0913 0 7
23.5050 16.7805 -2.6477 0.0913 0 7
23.2335 17.1544 -2.6477 0.0913 0 7
22.9560 17.5240 -2.6477 0.0913 0 7
22.6727 17.8891 -2.6477 0.0913 0 7
22.3835 18.2496 -2.6477 0.0913 0 7
22.0886 18.6054 -2.6477 0.0913 0 7
21.7881 18.9565 -2.6477 0.0913 0 7
21.1456 19.0004 -2.6062 0.6690 0 8
20.4837 19.0068 -2.5618 0.6806 0 8
19.8437 19.0129 -2.5195 0.6921 0 8
19.4083 19.2006 -2.5029 0.0913 0 14
19.0986 19.5088 -2.5029 0.0913 0 14
18.7839 19.8119 -2.5029 0.0913 0 14
18.4645 20.1099 -2.5029 0.0913 0 14
18.1404 20.4028 -2.5029 0.0913 0 14
17.8116 20.6904 -2.5029 0.0913 0 14
17.4782 20.9728 -2.5029 0.0913 0 14
17.1404 21.2498 -2.5029 0.0913 0 14
16.7982 21.5213 -2.5029 0.0913 0 14
16.4517 21.7874 -2.5029 0.0913 0 14
16.1009 22.0478 -2.5029 0.0913 0 14
15.7493 22.3071 -2.5034 0.6387 0 8
16.2773 23.8562 -2.6477 0.0913 0 7
15.8935 24.1136 -2.6477 0.0913 0 7
15.5056 24.3649 -2.6477 0.0913 0 7
15.1137 24.6098 -2.6477 0.0913 0 7
14.7180 24.8485 -2.6477 0.0913 0 7
14.3185 25.0809 -2.6477 0.0913 0 7
13.9154 25.3068 -2.6477 0.0913 0 7
13.5086 25.5262 -2.6477 0.0913 0 7
13.0985 25.7391 -2.6477 0.0913 0 7
12.6849 25.9454 -2.6477 0.0913 0 7
12.2681 26.1450 -2.6477 0.0913 0 7
11.8482 26.3380 -2.6477 0.0913 0 7
11.4253 26.5242 -2.6477 0.0913 0 7
10.9994 26.7036 -2.6477 0.0913 0 7
10.5707 26.8762 -2.6477 0.0913 0 7
10.1393 27.0419 -2.6477 0.0913 0 7
9.7053 27.2007 -2.6477 0.0913 0 7
9.2688 27.3525 -2.6477 0.0913 0 7
8.8299 27.4973 -2.6477 0.0913 0 7
8.3888 27.6351 -2.6477 0.0913 0 7
7.9456 27.7658 -2.6477 0.0913 0 7
7.5002 27.8894 -2.6477 0.0913 0 7
7.0530 28.0058 -2.6477 0.0913 0 7
6.6040 28.1151 -2.6477 0.0913 0 7
6.1533 28.2171 -2.6477 0.0913 0 7
5.7010 28.3120 -2.6477 0.0913 0 7
5.2472 28.3996 -2.6477 0.0913 0 7
4.7921 28.4799 -2.6477 0.0913 0 7
4.3358 28.5529 -2.6477 0.0913 0 7
3.8783 28.6187 -2.6477 0.0913 0 7
3.4199 28.6771 -2.6477 0.0913 0 7
2.9606 28.7281 -2.6477 0.0913 0 7
2.5006 28.7718 -2.6477 0.0913 0 7
2.0398 28.8081 -2.6477 0.0913 0 7
1.5786 28.8371 -2.6477 0.0913 0 7
1.1170 28.8587 -2.6477 0.0913 0 7
0.6550 28.8728 -2.6477 0.0913 0 7
0.1930 28.8796 -2.6477 0.0913 0 7
-0.2692 28.8790 -2.6477 0.0913 0 7
-0.7312 28.8710 -2.6477 0.0913 0 7
-1.1931 28.8556 -2.6477 0.0913 0 7
-1.6547 28.8328 -2.6477 0.0913 0 7
-2.1158 28.8027 -2.6477 0.0913 0 7
-2.5764 28.7651 -2.6477 0.0913 0 7
-3.0364 28.7202 -2.6477 0.0913 0 7
24.5723 9.8137 -2.6477 0.0996 0 7
24.4121 10.2056 -2.6477 0.0996 0 7
24.2457 10.5949 -2.6477 0.0996 0 7
24.0730 10.9816 -2.6477 0.0996 0 7
23.8942 11.3653 -2.6477 0.0996 0 7
23.7093 11.7462 -2.6477 0.0996 0 7
23.5183 12.1241 -2.6477 0.0996 0 7
23.3213 12.4989 -2.6477 0.0996 0 7
23.1183 12.8704 -2.6477 0.0996 0 7
22.9094 13.2387 -2.6477 0.0996 0 7
22.6947 13.6036 -2.6477 0.0996 0 7
22.4741 13.9650 -2.6477 0.0996 0 7
22.2478 14.3228 -2.6477 0.0996 0 7
22.0157 14.6770 -2.6477 0.0996 0 7
21.7781 15.0274 -2.6477 0.0996 0 6
21.5348 15.3739 -2.6477 0.0996 0 7
21.2860 15.7166 -2.6477 0.0996 0 7
21.0318 16.0551 -2.6477 0.0996 0 7
20.7723 16.3896 -2.6477 0.0996 0 7
20.5073 16.7199 -2.6477 0.0996 0 7
20.2372 17.0459 -2.6477 0.0996 0 7
19.9618 17.3675 -2.6477 0.0996 0 7
19.6814 17.6847 -2.6477 0.0996 0 7
19.3959 17.9974 -2.6477 0.0996 0 7
19.1054 18.3054 -2.6477 0.0996 0 7
18.8101 18.6088 -2.6477 0.0996 0 7
18.5099 18.9074 -2.6477 0.0996 0 7
18.0042 18.9894 -2.6185 0.7263 0 8
17.4408 18.9949 -2.5804 0.7370 0 8
16.8933 19.0001 -2.5441 0.7475 0 8
16.3615 19.0059 -2.5095 0.6024 0 8
16.0132 19.2148 -2.5029 0.0996 0 14
15.7037 19.4686 -2.5029 0.0996 0 14
15.3902 19.7174 -2.5029 0.0996 0 14
15.0727 19.9611 -2.5029 0.0996 0 14
14.7513 20.1997 -2.5029 0.0996 0 14
14.4263 20.4332 -2.5029 0.0996 0 14
14.0974 20.6614 -2.5029 0.0996 0 14
13.7650 20.8844 -2.5029 0.0996 0 14
13.4291 21.1019 -2.5029 0.0996 0 14
13.0897 21.3141 -2.5029 0.0996 0 14
12.7470 21.5208 -2.5029 0.0996 0 14
12.4010 21.7221 -2.5029 0.0996 0 14
12.0518 21.9177 -2.5029 0.0996 0 14
11.6996 22.1078 -2.5029 0.0996 0 14
11.3458 22.2950 -2.5032 0.6966 0 8
11.6217 23.7706 -2.6477 0.0996 0 7
11.2398 23.9535 -2.6477 0.0996 0 7
10.8551 24.1303 -2.6477 0.0996 0 7
10.4676 24.3009 -2.6477 0.0996 0 7
10.0774 24.4653 -2.6477 0.0996 0 7
9.6846 24.6234 -2.6477 0.0996 0 7
9.2894 24.7752 -2.6477 0.0996 0 7
8.8918 24.9207 -2.6477 0.0996 0 7
8.4919 25.0598 -2.6477 0.0996 0 7
8.0898 25.1925 -2.6477 0.0996 0 7
7.6857 25.3187 -2.6477 0.0996 0 7
7.2795 25.4384 -2.6477 0.0996 0 7
6.8716 25.5517 -2.6477 0.0996 0 7
6.4618 25.6583 -2.6477 0.0996 0 7
6.0504 25.7585 -2.6477 0.0996 0 7
5.6375 25.8520 -2.6477 0.0996 0 7
5.2231 25.9389 -2.6477 0.0996 0 7
4.8074 26.0191 -2.6477 0.0996 0 7
4.3904 26.0927 -2.6477 0.0996 0 7
3.9724 26.1596 -2.6477 0.0996 0 7
3.5533 26.2198 -2.6477 0.0996 0 7
3.1333 26.2733 -2.6477 0.0996 0 7
2.7125 26.3201 -2.6477 0.0996 0 7
2.2910 26.3601 -2.6477 0.0996 0 7
1.8689 26.3934 -2.6477 0.0996 0 7
1.4463 26.4200 -2.6477 0.0996 0 7
1.0234 26.4397 -2.6477 0.0996 0 7
0.6001 26.4527 -2.6477 0.0996 0 7
0.1768 26.4589 -2.6477 0.0996 0 6
-0.2466 26.4584 -2.6477 0.0996 0 6
-0.6699 26.4510 -2.6477 0.0996 0 6
-1.0931 26.4369 -2.6477 0.0996 0 6
-1.5160 26.4160 -2.6477 0.0996 0 6
-1.9386 26.3884 -2.6477 0.0996 0 7
-2.3605 26.3540 -2.6477 0.0996 0 7
-2.7819 26.3129 -2.6477 0.0996 0 7
22.6689 9.0535 -2.6477 0.1078 0 7
22.5212 9.4151 -2.6477 0.1078 0 7
22.3676 9.7743 -2.6477 0.1078 0 7
22.2084 10.1309 -2.6477 0.1078 0 7
22.0434 10.4850 -2.6477 0.1078 0 7
21.8728 10.8364 -2.6477 0.1078 0 7
21.6966 11.1850 -2.6477 0.1078 0 7
21.5149 11.5307 -2.6477 0.1078 0 6
21.3276 11.8735 -2.6477 0.1078 0 7
21.1349 12.2133 -2.6477 0.1078 0 7
20.9368 12.5499 -2.6477 0.1078 0 7
20.7333 12.8833 -2.6477 0.1078 0 7
20.5245 13.2134 -2.6477 0.1078 0 7
20.3104 13.5401 -2.6477 0.1078 0 7
20.0912 13.8634 -2.6477 0.1078 0 7
19.8667 14.1831 -2.6477 0.1078 0 7
19.6373 14.4992 -2.6477 0.1078 0 7
19.4027 14.8115 -2.6477 0.1078 0 7
19.1633 15.1201 -2.6477 0.1078 0 7
18.9189 15.4248 -2.6477 0.1078 0 7
18.6696 15.7256 -2.6477 0.1078 0 7
18.4156 16.0223 -2.6477 0.1078 0 7
18.1569 16.3149 -2.6477 0.1078 0 7
17.8935 16.6033 -2.6477 0.1078 0 7
17.6255 16.8875 -2.6477 0.1078 0 7
17.3531 17.1674 -2.6477 0.1078 0 7
17.0761 17.4429 -2.6477 0.1078 0 7
16.7948 17.7139 -2.6477 0.1078 0 7
16.5092 17.9803 -2.6477 0.1078 0 7
16.2194 18.2422 -2.6477 0.1078 0 7
15.9254 18.4994 -2.6477 0.1078 0 6
15.6274 18.7519 -2.6477 0.1078 0 7
15.3072 18.9771 -2.6445 0.7788 0 8
14.8160 18.9818 -2.6118 0.7886 0 8
14.3366 18.9863 -2.5805 0.7981 0 8
13.8683 18.9905 -2.5506 0.8075 0 8
13.4105 18.9945 -2.5220 0.8166 0 8
13.0055 19.0610 -2.5029 0.1078 0 8
12.6988 19.2667 -2.5029 0.1078 0 14
12.3889 19.4674 -2.5029 0.1078 0 14
12.0758 19.6632 -2.5029 0.1078 0 14
11.7596 19.8539 -2.5029 0.1078 0 14
11.4404 20.0395 -2.5029 0.1078 0 14
11.1183 20.2200 -2.5029 0.1078 0 14
10.7933 20.3953 -2.5029 0.1078 0 14
10.4656 20.5654 -2.5029 0.1078 0 14
10.1352 20.7302 -2.5029 0.1078 0 14
9.8022 20.8898 -2.5029 0.1078 0 14
9.4667 21.0439 -2.5029 0.1078 0 14
9.1287 21.1927 -2.5029 0.1078 0 14
8.7885 21.3361 -2.5029 0.1078 0 14
8.4459 21.4740 -2.5029 0.1078 0 14
8.1012 21.6064 -2.5029 0.1078 0 14
7.7545 21.7332 -2.5029 0.1078 0 14
7.4057 21.8545 -2.5029 0.1078 0 14
7.0551 21.9702 -2.5029 0.1078 0 14
6.7026 22.0803 -2.5029 0.1078 0 14
6.3485 22.1847 -2.5029 0.1078 0 14
5.9927 22.2835 -2.5029 0.1078 0 8
5.6354 22.3765 -2.5029 0.1078 0 8
5.5818 23.7632 -2.6477 0.1078 0 7
5.2008 23.8495 -2.6477 0.1078 0 7
4.8185 23.9297 -2.6477 0.1078 0 7
4.4350 24.0037 -2.6477 0.1078 0 7
4.0504 24.0716 -2.6477 0.1078 0 7
3.6647 24.1333 -2.6477 0.1078 0 7
3.2780 24.1889 -2.6477 0.1078 0 7
2.8906 24.2382 -2.6477 0.1078 0 7
2.5023 24.2814 -2.6477 0.1078 0 7
2.1135 24.3183 -2.6477 0.1078 0 7
1.7241 24.3490 -2.6477 0.1078 0 7
1.3343 24.3735 -2.6477 0.1078 0 7
0.9441 24.3917 -2.6477 0.1078 0 7
0.5537 24.4037 -2.6477 0.1078 0 7
0.1631 24.4095 -2.6477 0.1078 0 7
-0.2275 24.4089 -2.6477 0.1078 0 7
-0.6180 24.4022 -2.6477 0.1078 0 7
-1.0084 24.3892 -2.6477 0.1078 0 7
-1.3986 24.3699 -2.6477 0.1078 0 7
-1.7883 24.3444 -2.6477 0.1078 0 7
-2.1776 24.3127 -2.6477 0.1078 0 7
-2.5664 24.2747 -2.6477 0.1078 0 7
19.8257 7.9180 -2.4953 0.1161 0 8
19.6965 8.2342 -2.4953 0.1161 0 8
20.7570 9.0704 -2.6477 0.1161 0 7
20.6092 9.4014 -2.6477 0.1161 0 7
20.4561 9.7300 -2.6477 0.1161 0 7
20.2978 10.0561 -2.6477 0.1161 0 7
20.1343 10.3796 -2.6477 0.1161 0 7
19.9656 10.7004 -2.6477 0.1161 0 7
19.7919 11.0185 -2.6477 0.1161 0 7
19.6130 11.3338 -2.6477 0.1161 0 7
19.4291 11.6462 -2.6477 0.1161 0 7
19.2403 11.9556 -2.6477 0.1161 0 7
19.0465 12.2619 -2.6477 0.1161 0 7
18.8479 12.5651 -2.6477 0.1161 0 7
18.6444 12.8651 -2.6477 0.1161 0 7
18.4362 13.1618 -2.6477 0.1161 0 7
18.2232 13.4551 -2.6477 0.1161 0 7
18.0056 13.7450 -2.6477 0.1161 0 7
17.7833 14.0313 -2.6477 0.1161 0 7
17.5565 14.3141 -2.6477 0.1161 0 7
17.3253 14.5932 -2.6477 0.1161 0 7
17.0895 14.8685 -2.6477 0.1161 0 7
16.8494 15.1401 -2.6477 0.1161 0 7
16.6050 15.4078 -2.6477 0.1161 0 7
16.3563 15.6715 -2.6477 0.1161 0 7
16.1035 15.9312 -2.6477 0.1161 0 7
15.8465 16.1869 -2.6477 0.1161 0 7
15.5855 16.4383 -2.6477 0.1161 0 7
15.3204 16.6856 -2.6477 0.1161 0 7
15.0515 16.9286 -2.6477 0.1161 0 7
14.7787 17.1673 -2.6477 0.1161 0 7
14.5021 17.4016 -2.6477 0.1161 0 7
14.2218 17.6314 -2.6477 0.1161 0 7
13.9378 17.8567 -2.6477 0.1161 0 7
13.6503 18.0774 -2.6477 0.1161 0 7
13.3593 18.2936 -2.6477 0.1161 0 7
13.0649 18.5050 -2.6477 0.1161 0 6
12.7671 18.7117 -2.6477 0.1161 0 7
12.4661 18.9135 -2.6477 0.1161 0 7
12.0731 18.9711 -2.6283 0.8436 0 8
11.6530 18.9747 -2.6027 0.8519 0 8
11.2409 18.9781 -2.5781 0.8600 0 8
10.8363 18.9813 -2.5547 0.8679 0 8
10.4389 18.9844 -2.5323 0.8756 0 8
10.0482 18.9872 -2.5109 0.8831 0 8
9.7120 19.0845 -2.5029 0.1161 0 8
9.4054 19.2375 -2.5029 0.1161 0 14
9.0963 19.3855 -2.5029 0.1161 0 14
8.7850 19.5286 -2.5029 0.1161 0 14
8.4714 19.6667 -2.5029 0.1161 0 14
8.1556 19.7997 -2.5029 0.1161 0 14
7.8377 19.9277 -2.5029 0.1161 0 14
7.5179 20.0505 -2.5029 0.1161 0 14
7.1961 20.1683 -2.5029 0.1161 0 14
6.8724 20.2808 -2.5029 0.1161 0 14
6.5471 20.3882 -2.5029 0.1161 0 14
6.2200 20.4903 -2.5029 0.1161 0 14
5.8913 20.5872 -2.5029 0.1161 0 14
5.5611 20.6789 -2.5029 0.1161 0 14
5.2295 20.7652 -2.5029 0.1161 0 14
4.8966 20.8462 -2.5029 0.1161 0 14
4.5624 20.9219 -2.5029 0.1161 0 14
4.2270 20.9922 -2.5029 0.1161 0 14
3.8906 21.0572 -2.5029 0.1161 0 14
3.5532 21.1167 -2.5029 0.1161 0 14
3.2148 21.1709 -2.5029 0.1161 0 14
2.8756 21.2196 -2.5029 0.1161 0 14
2.5357 21.2630 -2.5029 0.1161 0 14
2.1952 21.3008 -2.5029 0.1161 0 14
1.8541 21.3332 -2.5029 0.1161 0 14
1.5125 21.3601 -2.5029 0.1161 0 14
1.1705 21.3816 -2.5029 0.1161 0 14
0.8282 21.3976 -2.5029 0.1161 0 14
0.4857 21.4081 -2.5029 0.1161 0 14
0.1431 21.4131 -2.5029 0.1161 0 14
-0.1996 21.4127 -2.5029 0.1161 0 14
-0.5422 21.4067 -2.5029 0.1161 0 14
-0.8846 21.3953 -2.5029 0.1161 0 14
-1.2269 21.3784 -2.5029 0.1161 0 14
-1.5688 21.3560 -2.5029 0.1161 0 14
-1.9103 21.3282 -2.5029 0.1161 0 14
-2.2514 21.2949 -2.5029 0.1161 0 14
18.4916 7.3852 -2.4953 0.1243 0 8
18.3710 7.6801 -2.4953 0.1243 0 8
18.2458 7.9731 -2.4953 0.1243 0 8
18.1159 8.2640 -2.4953 0.1243 0 8
19.0795 9.0752 -2.6477 0.1243 0 7
18.9319 9.3794 -2.6477 0.1243 0 7
18.7794 9.6811 -2.6477 0.1243 0 7
18.6221 9.9803 -2.6477 0.1243 0 7
18.4600 10.2770 -2.6477 0.1243 0 7
18.2932 10.5711 -2.6477 0.1243 0 7
18.1217 10.8625 -2.6477 0.1243 0 7
17.9456 11.1511 -2.6477 0.1243 0 7
17.7648 11.4368 -2.6477 0.1243 0 6
17.5795 11.7196 -2.6477 0.1243 0 7
17.3898 11.9994 -2.6477 0.1243 0 7
17.1955 12.2761 -2.6477 0.1243 0 7
16.9969 12.5497 -2.6477 0.1243 0 7
16.7939 12.8200 -2.6477 0.1243 0 7
16.5866 13.0871 -2.6477 0.1243 0 7
16.3751 13.3508 -2.6477 0.1243 0 7
16.1594 13.6111 -2.6477 0.1243 0 7
15.9395 13.8680 -2.6477 0.1243 0 7
15.7156 14.1213 -2.6477 0.1243 0 7
15.4876 14.3709 -2.6477 0.1243 0 7
15.2557 14.6169 -2.6477 0.1243 0 7
15.0198 14.8591 -2.6477 0.1243 0 7
14.7801 15.0976 -2.6477 0.1243 0 7
14.5367 15.3321 -2.6477 0.1243 0 7
14.2895 15.5628 -2.6477 0.1243 0 7
14.0386 15.7894 -2.6477 0.1243 0 7
13.7842 16.0120 -2.6477 0.1243 0 7
13.5262 16.2306 -2.6477 0.1243 0 7
13.2647 16.4449 -2.6477 0.1243 0 7
12.9999 16.6551 -2.6477 0.1243 0 7
12.7317 16.8610 -2.6477 0.1243 0 7
12.4603 17.0625 -2.6477 0.1243 0 7
12.1857 17.2597 -2.6477 0.1243 0 7
11.9080 17.4525 -2.6477 0.1243 0 7
11.6272 17.6408 -2.6477 0.1243 0 7
11.3434 17.8246 -2.6477 0.1243 0 7
11.0567 18.0038 -2.6477 0.1243 0 7
10.7673 18.1784 -2.6477 0.1243 0 7
10.4750 18.3484 -2.6477 0.1243 0 7
10.1801 18.5137 -2.6477 0.1243 0 6
9.8825 18.6742 -2.6477 0.1243 0 7
9.5824 18.8299 -2.6477 0.1243 0 7
9.2698 18.9603 -2.6448 0.8980 0 8
8.8981 18.9629 -2.6250 0.9047 0 8
8.5316 18.9654 -2.6061 0.9113 0 8
8.1703 18.9677 -2.5881 0.9176 0 8
7.8138 18.9699 -2.5710 0.9237 0 8
7.4618 18.9719 -2.5548 0.9296 0 8
7.1142 18.9738 -2.5394 0.9352 0 8
6.7705 18.9756 -2.5248 0.9406 0 8
6.4307 18.9772 -2.5110 0.9458 0 8
6.1065 19.0162 -2.5029 0.1243 0 8
5.8014 19.1115 -2.5029 0.1243 0 8
5.4949 19.2019 -2.5029 0.1243 0 14
5.1869 19.2873 -2.5029 0.1243 0 14
4.8776 19.3678 -2.5029 0.1243 0 14
4.5671 19.4434 -2.5029 0.1243 0 14
4.2554 19.5140 -2.5029 0.1243 0 14
3.9426 19.5796 -2.5029 0.1243 0 14
3.6288 19.6402 -2.5029 0.1243 0 14
3.3141 19.6957 -2.5029 0.1243 0 14
2.9985 19.7462 -2.5029 0.1243 0 14
2.6821 19.7917 -2.5029 0.1243 0 14
2.3651 19.8321 -2.5029 0.1243 0 14
2.0475 19.8674 -2.5029 0.1243 0 14
1.7293 19.8976 -2.5029 0.1243 0 14
1.4107 19.9227 -2.5029 0.1243 0 14
1.0917 19.9427 -2.5029 0.1243 0 14
0.7725 19.9577 -2.5029 0.1243 0 14
0.4530 19.9675 -2.5029 0.1243 0 14
0.1335 19.9722 -2.5029 0.1243 0 14
-0.1861 19.9717 -2.5029 0.1243 0 14
-0.5057 19.9662 -2.5029 0.1243 0 14
-0.8251 19.9555 -2.5029 0.1243 0 14
-1.1443 19.9398 -2.5029 0.1243 0 14
-1.4632 19.9189 -2.5029 0.1243 0 14
-1.7818 19.8930 -2.5029 0.1243 0 14
-2.0998 19.8619 -2.5029 0.1243 0 14
17.3234 6.9186 -2.4953 0.1326 0 8
17.2105 7.1949 -2.4953 0.1326 0 8
17.0931 7.4694 -2.4953 0.1326 0 8
16.9714 7.7420 -2.4953 0.1326 0 8
16.8454 8.0125 -2.4953 0.1326 0 8
16.7150 8.2811 -2.4953 0.1326 0 8
17.5930 9.0695 -2.6477 0.1326 0 7
17.4456 9.3498 -2.6477 0.1326 0 7
17.2938 9.6278 -2.6477 0.1326 0 7
17.1375 9.9033 -2.6477 0.1326 0 7
16.9769 10.1762 -2.6477 0.1326 0 7
16.8119 10.4466 -2.6477 0.1326 0 7
16.6426 10.7143 -2.6477 0.1326 0 7
16.4690 10.9792 -2.6477 0.1326 0 7
16.2912 11.2413 -2.6477 0.1326 0 7
16.1092 11.5006 -2.6477 0.1326 0 6
15.9231 11.7568 -2.6477 0.1326 0 7
15.7330 12.0101 -2.6477 0.1326 0 7
15.5388 12.2603 -2.6477 0.1326 0 7
15.3406 12.5074 -2.6477 0.1326 0 7
15.1385 12.7513 -2.6477 0.1326 0 7
14.9325 12.9919 -2.6477 0.1326 0 7
14.7227 13.2292 -2.6477 0.1326 0 7
14.5092 13.4630 -2.6477 0.1326 0 7
14.2919 13.6935 -2.6477 0.1326 0 7
14.0710 13.9204 -2.6477 0.1326 0 7
13.8464 14.1438 -2.6477 0.1326 0 7
13.6183 14.3635 -2.6477 0.1326 0 7
13.3867 14.5796 -2.6477 0.1326 0 7
13.1517 14.7919 -2.6477 0.1326 0 7
12.9134 15.0005 -2.6477 0.1326 0 6
12.6717 15.2052 -2.6477 0.1326 0 7
12.4268 15.4060 -2.6477 0.1326 0 7
12.1786 15.6029 -2.6477 0.1326 0 7
11.9274 15.7958 -2.6477 0.1326 0 7
11.6731 15.9846 -2.6477 0.1326 0 7
11.4159 16.1693 -2.6477 0.1326 0 7
11.1557 16.3499 -2.6477 0.1326 0 7
10.8927 16.5264 -2.6477 0.1326 0 7
10.6268 16.6985 -2.6477 0.1326 0 7
10.3582 16.8664 -2.6477 0.1326 0 7
10.0870 17.0300 -2.6477 0.1326 0 7
9.8132 17.1892 -2.6477 0.1326 0 7
9.5369 17.3441 -2.6477 0.1326 0 7
9.2582 17.4944 -2.6477 0.1326 0 7
8.9771 17.6404 -2.6477 0.1326 0 7
8.6936 17.7817 -2.6477 0.1326 0 7
8.4080 17.9186 -2.6477 0.1326 0 7
8.1202 18.0508 -2.6477 0.1326 0 7
7.8303 18.1785 -2.6477 0.1326 0 7
7.5384 18.3014 -2.6477 0.1326 0 7
7.2446 18.4197 -2.6477 0.1326 0 6
6.9490 18.5332 -2.6477 0.1326 0 7
6.6515 18.6421 -2.6477 0.1326 0 7
6.3524 18.7461 -2.6477 0.1326 0 7
6.0516 18.8454 -2.6477 0.1326 0 7
5.7493 18.9398 -2.6477 0.1326 0 7
5.4231 18.9511 -2.6368 0.9604 0 8
5.0968 18.9523 -2.6253 0.9646 0 8
4.7733 18.9534 -2.6145 0.9686 0 8
4.4522 18.9544 -2.6045 0.9723 0 8
4.1335 18.9552 -2.5952 0.9758 0 8
3.8170 18.9559 -2.5866 0.9790 0 8
3.5025 18.9565 -2.5787 0.9820 0 8
3.1898 18.9570 -2.5715 0.9848 0 8
2.8787 18.9573 -2.5649 0.9873 0 8
2.5691 18.9575 -2.5591 0.9895 0 8
2.2608 18.9577 -2.5539 0.9916 0 8
1.9537 18.9576 -2.5493 0.9933 0 8
1.6476 18.9575 -2.5454 0.9948 0 8
1.3423 18.9573 -2.5422 0.9961 0 8
1.0377 18.9569 -2.5396 0.9971 0 8
0.7337 18.9564 -2.5376 0.9979 0 8
0.4301 18.9558 -2.5363 0.9984 0 8
0.1267 18.9551 -2.5356 0.9987 0 8
-0.1767 18.9563 -2.5358 0.9969 0 8
-0.4801 18.9549 -2.5363 0.9985 0 8
-0.7837 18.9531 -2.5375 0.9981 0 8
-1.0876 18.9512 -2.5392 0.9974 0 8
-1.3920 18.9498 -2.5417 0.9963 0 8
-1.6972 18.9483 -2.5448 0.9951 0 8
-2.0031 18.9468 -2.5486 0.9936 0 8
16.2919 6.5067 -2.4953 0.1408 0 8
16.1857 6.7665 -2.4953 0.1408 0 8
16.0753 7.0246 -2.4953 0.1408 0 8
15.9609 7.2810 -2.4953 0.1408 0 8
15.8423 7.5354 -2.4953 0.1408 0 8
15.7197 7.7880 -2.4953 0.1408 0 8
15.5931 8.0385 -2.4953 0.1408 0 8
15.4624 8.2870 -2.4953 0.1408 0 8
16.2640 9.0545 -2.6477 0.1408 0 7
16.1171 9.3136 -2.6477 0.1408 0 7
15.9660 9.5703 -2.6477 0.1408 0 7
15.8108 9.8246 -2.6477 0.1408 0 7
15.6516 10.0763 -2.6477 0.1408 0 7
15.4883 10.3254 -2.6477 0.1408 0 7
15.3211 10.5719 -2.6477 0.1408 0 7
15.1500 10.8158 -2.6477 0.1408 0 7
14.9750 11.0568 -2.6477 0.1408 0 7
14.7962 11.2950 -2.6477 0.1408 0 7
14.6135 11.5303 -2.6477 0.1408 0 6
14.4272 11.7626 -2.6477 0.1408 0 7
14.2371 11.9920 -2.6477 0.1408 0 7
14.0434 12.2183 -2.6477 0.1408 0 7
13.8461 12.4414 -2.6477 0.1408 0 7
13.6452 12.6614 -2.6477 0.1408 0 7
13.4409 12.8781 -2.6477 0.1408 0 7
13.2331 13.0915 -2.6477 0.1408 0 7
13.0219 13.3016 -2.6477 0.1408 0 7
12.8074 13.5083 -2.6477 0.1408 0 7
12.5896 13.7115 -2.6477 0.1408 0 7
12.3686 13.9112 -2.6477 0.1408 0 7
12.1444 14.1073 -2.6477 0.1408 0 7
11.9171 14.2998 -2.6477 0.1408 0 7
11.6868 14.4887 -2.6477 0.1408 0 7
11.4535 14.6738 -2.6477 0.1408 0 7
11.2172 14.8552 -2.6477 0.1408 0 7
10.9781 15.0328 -2.6477 0.1408 0 7
10.7361 15.2065 -2.6477 0.1408 0 7
10.4914 15.3764 -2.6477 0.1408 0 7
10.2440 15.5423 -2.6477 0.1408 0 7
9.9940 15.7042 -2.6477 0.1408 0 7
9.7415 15.8621 -2.6477 0.1408 0 7
9.4864 16.0160 -2.6477 0.1408 0 7
9.2289 16.1657 -2.6477 0.1408 0 7
8.9691 16.3113 -2.6477 0.1408 0 7
8.7069 16.4527 -2.6477 0.1408 0 7
8.4425 16.5900 -2.6477 0.1408 0 7
8.1760 16.7229 -2.6477 0.1408 0 7
7.9073 16.8516 -2.6477 0.1408 0 7
7.6367 16.9760 -2.6477 0.1408 0 7
7.3641 17.0960 -2.6477 0.1408 0 7
7.0896 17.2116 -2.6477 0.1408 0 7
6.8133 17.3229 -2.6477 0.1408 0 7
6.5352 17.4297 -2.6477 0.1408 0 7
6.2555 17.5320 -2.6477 0.1408 0 7
5.9741 17.6299 -2.6477 0.1408 0 7
5.6913 17.7232 -2.6477 0.1408 0 7
5.4070 17.8120 -2.6477 0.1408 0 7
5.1212 17.8962 -2.6477 0.1408 0 7
4.8342 17.9759 -2.6477 0.1408 0 7
4.5460 18.0510 -2.6477 0.1408 0 7
4.2566 18.1214 -2.6477 0.1408 0 7
3.9660 18.1872 -2.6477 0.1408 0 7
3.6745 18.2483 -2.6477 0.1408 0 7
3.3821 18.3048 -2.6477 0.1408 0 7
3.0887 18.3565 -2.6477 0.1408 0 7
2.7946 18.4036 -2.6477 0.1408 0 6
2.4999 18.4460 -2.6477 0.1408 0 6
2.2043 18.4836 -2.6477 0.1408 0 6
1.9082 18.5165 -2.6477 0.1408 0 7
1.6117 18.5447 -2.6477 0.1408 0 7
1.3148 18.5681 -2.6477 0.1408 0 7
1.0175 18.5868 -2.6477 0.1408 0 7
0.7199 18.6007 -2.6477 0.1408 0 7
0.4222 18.6098 -2.6477 0.1408 0 7
0.1243 18.6142 -2.6477 0.1408 0 7
-0.1735 18.6138 -2.6477 0.1408 0 7
-0.4713 18.6086 -2.6477 0.1408 0 7
-0.7690 18.5987 -2.6477 0.1408 0 7
-1.0665 18.5840 -2.6477 0.1408 0 7
-1.3637 18.5646 -2.6477 0.1408 0 7
-1.6606 18.5404 -2.6477 0.1408 0 7
-1.9571 18.5114 -2.6477 0.1408 0 7
15.3742 6.1402 -2.4953 0.1490 0 8
15.2740 6.3854 -2.4953 0.1490 0 8
15.1699 6.6290 -2.4953 0.1490 0 8
15.0619 6.8709 -2.4953 0.1490 0 8
14.9500 7.1110 -2.4953 0.1490 0 8
14.8343 7.3493 -2.4953 0.1490 0 8
14.7148 7.5857 -2.4953 0.1490 0 8
14.5916 7.8202 -2.4953 0.1490 0 8
14.4645 8.0527 -2.4953 0.1490 0 8
14.3338 8.2831 -2.4953 0.1490 0 8
15.0667 9.0313 -2.6477 0.1490 0 7
14.9203 9.2712 -2.6477 0.1490 0 7
14.7700 9.5088 -2.6477 0.1490 0 7
14.6160 9.7439 -2.6477 0.1490 0 7
14.4582 9.9765 -2.6477 0.1490 0 7
14.2967 10.2066 -2.6477 0.1490 0 7
14.1315 10.4340 -2.6477 0.1490 0 7
13.9628 10.6588 -2.6477 0.1490 0 7
13.7904 10.8809 -2.6477 0.1490 0 7
13.6146 11.1001 -2.6477 0.1490 0 7
13.4352 11.3166 -2.6477 0.1490 0 7
13.2524 11.5301 -2.6477 0.1490 0 6
13.0662 11.7407 -2.6477 0.1490 0 7
12.8767 11.9483 -2.6477 0.1490 0 7
12.6838 12.1528 -2.6477 0.1490 0 7
12.4878 12.3542 -2.6477 0.1490 0 7
12.2885 12.5524 -2.6477 0.1490 0 7
12.0860 12.7474 -2.6477 0.1490 0 7
11.8805 12.9392 -2.6477 0.1490 0 7
11.6720 13.1276 -2.6477 0.1490 0 7
11.4604 13.3127 -2.6477 0.1490 0 7
11.2459 13.4944 -2.6477 0.1490 0 7
11.0285 13.6726 -2.6477 0.1490 0 7
10.8084 13.8473 -2.6477 0.1490 0 7
10.5854 14.0185 -2.6477 0.1490 0 7
10.3597 14.1861 -2.6477 0.1490 0 7
10.1314 14.3500 -2.6477 0.1490 0 7
9.9005 14.5103 -2.6477 0.1490 0 7
9.6671 14.6669 -2.6477 0.1490 0 7
9.4311 14.8197 -2.6477 0.1490 0 7
9.1928 14.9687 -2.6477 0.1490 0 7
8.9521 15.1139 -2.6477 0.1490 0 7
8.7091 15.2552 -2.6477 0.1490 0 7
8.4639 15.3926 -2.6477 0.1490 0 7
8.2165 15.5261 -2.6477 0.1490 0 7
7.9670 15.6556 -2.6477 0.1490 0 7
7.7155 15.7810 -2.6477 0.1490 0 7
7.4620 15.9025 -2.6477 0.1490 0 7
7.2066 16.0198 -2.6477 0.1490 0 7
6.9493 16.1331 -2.6477 0.1490 0 7
6.6903 16.2422 -2.6477 0.1490 0 7
6.4295 16.3472 -2.6477 0.1490 0 7
6.1671 16.4480 -2.6477 0.1490 0 7
5.9031 16.5446 -2.6477 0.1490 0 7
5.6377 16.6369 -2.6477 0.1490 0 7
5.3707 16.7250 -2.6477 0.1490 0 7
5.1024 16.8088 -2.6477 0.1490 0 7
4.8328 16.8883 -2.6477 0.1490 0 7
4.5620 16.9634 -2.6477 0.1490 0 7
4.2899 17.0343 -2.6477 0.1490 0 7
4.0168 17.1007 -2.6477 0.1490 0 7
3.7427 17.1628 -2.6477 0.1490 0 7
3.4676 17.2205 -2.6477 0.1490 0 7
3.1916 17.2738 -2.6477 0.1490 0 7
2.9148 17.3226 -2.6477 0.1490 0 7
2.6372 17.3671 -2.6477 0.1490 0 7
2.3590 17.4070 -2.6477 0.1490 0 7
2.0801 17.4425 -2.6477 0.1490 0 7
1.8008 17.4736 -2.6477 0.1490 0 7
1.5209 17.5002 -2.6477 0.1490 0 7
1.2407 17.5223 -2.6477 0.1490 0 7
0.9602 17.5399 -2.6477 0.1490 0 7
0.6794 17.5530 -2.6477 0.1490 0 7
0.3984 17.5616 -2.6477 0.1490 0 7
0.1174 17.5657 -2.6477 0.1490 0 7
-0.1637 17.5654 -2.6477 0.1490 0 7
-0.4448 17.5605 -2.6477 0.1490 0 7
-0.7257 17.5511 -2.6477 0.1490 0 7
-1.0064 17.5373 -2.6477 0.1490 0 7
-1.2869 17.5189 -2.6477 0.1490 0 7
-1.5671 17.4961 -2.6477 0.1490 0 7
-1.8468 17.4688 -2.6477 0.1490 0 7
14.5525 5.8120 -2.4953 0.1573 0 8
14.4577 6.0441 -2.4953 0.1573 0 8
14.3591 6.2747 -2.4953 0.1573 0 8
14.2569 6.5036 -2.4953 0.1573 0 8
14.1510 6.7309 -2.4953 0.1573 0 8
14.0415 6.9565 -2.4953 0.1573 0 8
13.9284 7.1803 -2.4953 0.1573 0 8
13.8117 7.4023 -2.4953 0.1573 0 8
13.6915 7.6223 -2.4953 0.1573 0 8
13.5677 7.8404 -2.4953 0.1573 0 8
13.4405 8.0565 -2.4953 0.1573 0 8
13.3099 8.2706 -2.4953 0.1573 0 8
13.1759 8.4825 -2.4953 0.1573 0 8
13.8348 9.2231 -2.6477 0.1573 0 7
13.6854 9.4433 -2.6477 0.1573 0 7
13.5326 9.6611 -2.6477 0.1573 0 7
13.3763 9.8764 -2.6477 0.1573 0 7
13.2165 10.0891 -2.6477 0.1573 0 7
13.0534 10.2993 -2.6477 0.1573 0 7
12.8869 10.5069 -2.6477 0.1573 0 7
12.7171 10.7118 -2.6477 0.1573 0 7
12.5441 10.9139 -2.6477 0.1573 0 7
12.3679 11.1132 -2.6477 0.1573 0 7
12.1885 11.3097 -2.6477 0.1573 0 7
12.0059 11.5032 -2.6477 0.1573 0 6
11.8203 11.6939 -2.6477 0.1573 0 7
11.6317 11.8815 -2.6477 0.1573 0 7
11.4401 12.0661 -2.6477 0.1573 0 7
11.2456 12.2476 -2.6477 0.1573 0 7
11.0481 12.4260 -2.6477 0.1573 0 7
10.8479 12.6012 -2.6477 0.1573 0 7
10.6449 12.7732 -2.6477 0.1573 0 7
10.4391 12.9419 -2.6477 0.1573 0 7
10.2307 13.1072 -2.6477 0.1573 0 7
10.0196 13.2693 -2.6477 0.1573 0 7
9.8060 13.4279 -2.6477 0.1573 0 7
9.5899 13.5831 -2.6477 0.1573 0 7
9.3714 13.7348 -2.6477 0.1573 0 7
9.1504 13.8830 -2.6477 0.1573 0 7
8.9271 14.0276 -2.6477 0.1573 0 7
8.7015 14.1687 -2.6477 0.1573 0 7
8.4736 14.3061 -2.6477 0.1573 0 7
8.2436 14.4399 -2.6477 0.1573 0 7
8.0115 14.5699 -2.6477 0.1573 0 7
7.7774 14.6962 -2.6477 0.1573 0 7
7.5412 14.8188 -2.6477 0.1573 0 7
7.3031 14.9376 -2.6477 0.1573 0 6
7.0632 15.0525 -2.6477 0.1573 0 7
6.8214 15.1636 -2.6477 0.1573 0 7
6.5779 15.2708 -2.6477 0.1573 0 7
6.3327 15.3741 -2.6477 0.1573 0 7
6.0859 15.4735 -2.6477 0.1573 0 7
5.8375 15.5689 -2.6477 0.1573 0 7
5.5876 15.6603 -2.6477 0.1573 0 7
5.3363 15.7477 -2.6477 0.1573 0 7
5.0837 15.8311 -2.6477 0.1573 0 7
4.8297 15.9104 -2.6477 0.1573 0 7
4.5745 15.9856 -2.6477 0.1573 0 7
4.3181 16.0568 -2.6477 0.1573 0 7
4.0606 16.1238 -2.6477 0.1573 0 7
3.8021 16.1867 -2.6477 0.1573 0 7
3.5426 16.2455 -2.6477 0.1573 0 7
3.2822 16.3001 -2.6477 0.1573 0 7
3.0210 16.3505 -2.6477 0.1573 0 7
2.7590 16.3968 -2.6477 0.1573 0 7
2.4962 16.4388 -2.6477 0.1573 0 7
2.2329 16.4767 -2.6477 0.1573 0 7
1.9690 16.5103 -2.6477 0.1573 0 7
1.7045 16.5397 -2.6477 0.1573 0 7
1.4396 16.5648 -2.6477 0.1573 0 7
1.1744 16.5858 -2.6477 0.1573 0 7
0.9088 16.6024 -2.6477 0.1573 0 7
0.6431 16.6149 -2.6477 0.1573 0 7
0.3771 16.6230 -2.6477 0.1573 0 7
0.1111 16.6269 -2.6477 0.1573 0 7
-0.1550 16.6266 -2.6477 0.1573 0 7
-0.4210 16.6220 -2.6477 0.1573 0 7
-0.6869 16.6131 -2.6477 0.1573 0 7
-0.9526 16.6000 -2.6477 0.1573 0 7
-1.2181 16.5826 -2.6477 0.1573 0 7
-1.4833 16.5610 -2.6477 0.1573 0 7
-1.7481 16.5351 -2.6477 0.1573 0 7
13.8123 5.5164 -2.4953 0.1655 0 8
13.7223 5.7367 -2.4953 0.1655 0 8
13.6288 5.9555 -2.4953 0.1655 0 8
13.5317 6.1728 -2.4953 0.1655 0 8
13.4312 6.3886 -2.4953 0.1655 0 8
13.3273 6.6027 -2.4953 0.1655 0 8
13.2199 6.8151 -2.4953 0.1655 0 8
13.1092 7.0257 -2.4953 0.1655 0 8
12.9951 7.2346 -2.4953 0.1655 0 8
12.8776 7.4416 -2.4953 0.1655 0 8
12.7569 7.6467 -2.4953 0.1655 0 8
12.6329 7.8499 -2.4953 0.1655 0 8
12.5057 8.0510 -2.4953 0.1655 0 8
12.3753 8.2501 -2.4953 0.1655 0 8
12.2416 8.4471 -2.4953 0.1655 0 8
12.8443 9.1697 -2.6477 0.1655 0 7
12.6959 9.3740 -2.6477 0.1655 0 7
12.5443 9.5760 -2.6477 0.1655 0 7
12.3895 9.7755 -2.6477 0.1655 0 7
12.2314 9.9725 -2.6477 0.1655 0 7
12.0703 10.1669 -2.6477 0.1655 0 7
11.9061 10.3587 -2.6477 0.1655 0 7
11.7388 10.5479 -2.6477 0.1655 0 7
11.5685 10.7344 -2.6477 0.1655 0 7
11.3953 10.9181 -2.6477 0.1655 0 7
11.2191 11.0991 -2.6477 0.1655 0 7
11.0401 11.2772 -2.6477 0.1655 0 7
10.8582 11.4524 -2.6477 0.1655 0 6
10.6736 11.6247 -2.6477 0.1655 0 7
10.4862 11.7940 -2.6477 0.1655 0 7
10.2961 11.9603 -2.6477 0.1655 0 7
10.1034 12.1235 -2.6477 0.1655 0 7
9.9081 12.2836 -2.6477 0.1655 0 7
9.7103 12.4406 -2.6477 0.1655 0 7
9.5100 12.5944 -2.6477 0.1655 0 7
9.3073 12.7449 -2.6477 0.1655 0 7
9.1022 12.8922 -2.6477 0.1655 0 7
8.8947 13.0362 -2.6477 0.1655 0 7
8.6850 13.1769 -2.6477 0.1655 0 7
8.4730 13.3141 -2.6477 0.1655 0 7
8.2589 13.4480 -2.6477 0.1655 0 7
8.0426 13.5784 -2.6477 0.1655 0 7
7.8243 13.7054 -2.6477 0.1655 0 7
7.6040 13.8288 -2.6477 0.1655 0 7
7.3818 13.9487 -2.6477 0.1655 0 7
7.1576 14.0651 -2.6477 0.1655 0 7
6.9316 14.1778 -2.6477 0.1655 0 7
6.7039 14.2869 -2.6477 0.1655 0 7
6.4744 14.3924 -2.6477 0.1655 0 7
6.2433 14.4941 -2.6477 0.1655 0 7
6.0106 14.5921 -2.6477 0.1655 0 7
5.7763 14.6865 -2.6477 0.1655 0 7
5.5406 14.7770 -2.6477 0.1655 0 7
5.3034 14.8638 -2.6477 0.1655 0 7
5.0649 14.9467 -2.6477 0.1655 0 7
4.8251 15.0259 -2.6477 0.1655 0 7
4.5840 15.1011 -2.6477 0.1655 0 7
4.3418 15.1726 -2.6477 0.1655 0 7
4.0985 15.2401 -2.6477 0.1655 0 7
3.8541 15.3037 -2.6477 0.1655 0 7
3.6087 15.3634 -2.6477 0.1655 0 7
3.3624 15.4192 -2.6477 0.1655 0 7
3.1153 15.4710 -2.6477 0.1655 0 7
2.8673 15.5189 -2.6477 0.1655 0 7
2.6186 15.5628 -2.6477 0.1655 0 7
2.3693 15.6027 -2.6477 0.1655 0 7
2.1193 15.6386 -2.6477 0.1655 0 7
1.8688 15.6705 -2.6477 0.1655 0 7
1.6178 15.6984 -2.6477 0.1655 0 7
1.3664 15.7223 -2.6477 0.1655 0 7
1.1147 15.7422 -2.6477 0.1655 0 7
0.8626 15.7580 -2.6477 0.1655 0 7
0.6104 15.7698 -2.6477 0.1655 0 7
0.3580 15.7775 -2.6477 0.1655 0 7
0.1055 15.7812 -2.6477 0.1655 0 7
-0.1471 15.7809 -2.6477 0.1655 0 7
-0.3996 15.7765 -2.6477 0.1655 0 7
-0.6520 15.7681 -2.6477 0.1655 0 7
-0.9042 15.7556 -2.6477 0.1655 0 7
-1.1562 15.7392 -2.6477 0.1655 0 7
-1.4079 15.7187 -2.6477 0.1655 0 7
-1.6592 15.6941 -2.6477 0.1655 0 7
13.1420 5.2487 -2.4953 0.1736 0 8
13.0564 5.4583 -2.4953 0.1736 0 8
12.9674 5.6665 -2.4953 0.1736 0 8
12.8750 5.8733 -2.4953 0.1736 0 8
12.7794 6.0785 -2.4953 0.1736 0 8
12.6805 6.2822 -2.4953 0.1736 0 8
12.5784 6.4844 -2.4953 0.1736 0 8
12.4730 6.6848 -2.4953 0.1736 0 8
12.3644 6.8835 -2.4953 0.1736 0 8
12.2527 7.0805 -2.4953 0.1736 0 8
12.1378 7.2756 -2.4953 0.1736 0 8
12.0199 7.4689 -2.4953 0.1736 0 8
11.8988 7.6603 -2.4953 0.1736 0 8
11.7747 7.8497 -2.4953 0.1736 0 8
11.6476 8.0371 -2.4953 0.1736 0 8
11.5175 8.2225 -2.4953 0.1736 0 8
11.3844 8.4057 -2.4953 0.1736 0 8
11.9355 9.1112 -2.6477 0.1736 0 7
11.7882 9.3011 -2.6477 0.1736 0 7
11.6378 9.4885 -2.6477 0.1736 0 7
11.4845 9.6735 -2.6477 0.1736 0 7
11.3283 9.8560 -2.6477 0.1736 0 7
11.1691 10.0360 -2.6477 0.1736 0 7
11.0071 10.2135 -2.6477 0.1736 0 7
10.8423 10.3883 -2.6477 0.1736 0 7
10.6746 10.5604 -2.6477 0.1736 0 7
10.5043 10.7299 -2.6477 0.1736 0 7
10.3313 10.8966 -2.6477 0.1736 0 7
10.1556 11.0605 -2.6477 0.1736 0 7
9.9773 11.2216 -2.6477 0.1736 0 7
9.7965 11.3798 -2.6477 0.1736 0 7
9.6131 11.5351 -2.6477 0.1736 0 7
9.4273 11.6875 -2.6477 0.1736 0 7
9.2391 11.8368 -2.6477 0.1736 0 7
9.0485 11.9831 -2.6477 0.1736 0 7
8.8556 12.1264 -2.6477 0.1736 0 7
8.6604 12.2665 -2.6477 0.1736 0 7
8.4630 12.4035 -2.6477 0.1736 0 7
8.2635 12.5374 -2.6477 0.1736 0 7
8.0618 12.6680 -2.6477 0.1736 0 7
7.8581 12.7954 -2.6477 0.1736 0 7
7.6523 12.9195 -2.6477 0.1736 0 7
7.4446 13.0403 -2.6477 0.1736 0 7
7.2350 13.1577 -2.6477 0.1736 0 7
7.0235 13.2718 -2.6477 0.1736 0 7
6.8103 13.3825 -2.6477 0.1736 0 7
6.5953 13.4897 -2.6477 0.1736 0 7
6.3786 13.5936 -2.6477 0.1736 0 7
6.1602 13.6939 -2.6477 0.1736 0 7
5.9403 13.7907 -2.6477 0.1736 0 7
5.7189 13.8840 -2.6477 0.1736 0 7
5.4960 13.9737 -2.6477 0.1736 0 7
5.2717 14.0599 -2.6477 0.1736 0 7
5.0461 14.1424 -2.6477 0.1736 0 7
4.8191 14.2214 -2.6477 0.1736 0 7
4.5909 14.2967 -2.6477 0.1736 0 7
4.3616 14.3683 -2.6477 0.1736 0 7
4.1311 14.4362 -2.6477 0.1736 0 7
3.8996 14.5005 -2.6477 0.1736 0 7
3.6671 14.5610 -2.6477 0.1736 0 7
3.4336 14.6178 -2.6477 0.1736 0 7
3.1993 14.6709 -2.6477 0.1736 0 7
2.9641 14.7202 -2.6477 0.1736 0 7
2.7282 14.7658 -2.6477 0.1736 0 7
2.4916 14.8075 -2.6477 0.1736 0 7
2.2543 14.8455 -2.6477 0.1736 0 7
2.0165 14.8797 -2.6477 0.1736 0 7
1.7781 14.9100 -2.6477 0.1736 0 7
1.5393 14.9366 -2.6477 0.1736 0 7
1.3001 14.9593 -2.6477 0.1736 0 7
1.0606 14.9782 -2.6477 0.1736 0 7
0.8208 14.9932 -2.6477 0.1736 0 7
0.5807 15.0045 -2.6477 0.1736 0 7
0.3406 15.0118 -2.6477 0.1736 0 7
0.1003 15.0154 -2.6477 0.1736 0 7
-0.1399 15.0150 -2.6477 0.1736 0 7
-0.3802 15.0109 -2.6477 0.1736 0 7
-0.6203 15.0029 -2.6477 0.1736 0 7
-0.8603 14.9910 -2.6477 0.1736 0 6
-1.1001 14.9753 -2.6477 0.1736 0 6
-1.3396 14.9558 -2.6477 0.1736 0 6
