ply
format ascii 1.0
element vertex 1396
property float32 x
property float32 y
property float32 z
property float32 CosAngle
property uint32 ObjIdx
property uint32 ObjTag
end_header
30.0066 10.4789 -2.6477 0.0830 0 7
29.8331 10.9631 -2.6477 0.0830 0 7
29.6517 11.4445 -2.6477 0.0830 0 7
29.4626 11.9229 -2.6477 0.0830 0 7
29.2658 12.3982 -2.6477 0.0830 0 7
29.0613 12.8702 -2.6477 0.0830 0 7
28.8492 13.3388 -2.6477 0.0830 0 7
28.6296 13.8040 -2.6477 0.0830 0 7
28.4024 14.2655 -2.6477 0.0830 0 7
28.1678 14.7233 -2.6477 0.0830 0 7
27.9259 15.1773 -2.6477 0.0830 0 7
27.6766 15.6272 -2.6477 0.0830 0 7
27.4200 16.0731 -2.6477 0.0830 0 7
27.1563 16.5148 -2.6477 0.0830 0 7
26.8855 16.9521 -2.6477 0.0830 0 7
26.6076 17.3850 -2.6477 0.0830 0 7
26.3228 17.8133 -2.6477 0.0830 0 7
26.0310 18.2370 -2.6477 0.0830 0 7
25.7325 18.6559 -2.6477 0.0830 0 7
25.3421 19.0061 -2.6388 0.6009 0 8
24.5155 19.0138 -2.5845 0.6135 0 8
23.7221 19.0212 -2.5329 0.6260 0 8
23.1455 19.1824 -2.5042 0.5069 0 8
22.8202 19.5444 -2.5029 0.0830 0 14
22.5009 19.9112 -2.5029 0.0830 0 14
22.1757 20.2727 -2.5029 0.0830 0 14
21.8447 20.6289 -2.5029 0.0830 0 14
21.5080 20.9798 -2.5029 0.0830 0 14
21.1656 21.3251 -2.5029 0.0830 0 14
20.8177 21.6649 -2.5029 0.0830 0 14
20.4644 21.9989 -2.5029 0.0830 0 14
20.1057 22.3272 -2.5029 0.0830 0 8
20.8836 23.9599 -2.6477 0.0830 0 7
20.4931 24.2947 -2.6477 0.0830 0 7
20.0973 24.6232 -2.6477 0.0830 0 7
19.6961 24.9453 -2.6477 0.0830 0 7
19.2898 25.2608 -2.6477 0.0830 0 7
18.8785 25.5696 -2.6477 0.0830 0 7
18.4622 25.8718 -2.6477 0.0830 0 7
18.0411 26.1672 -2.6477 0.0830 0 7
17.6152 26.4558 -2.6477 0.0830 0 7
17.1848 26.7374 -2.6477 0.0830 0 7
16.7498 27.0120 -2.6477 0.0830 0 7
16.3104 27.2795 -2.6477 0.0830 0 7
15.8668 27.5399 -2.6477 0.0830 0 7
15.4190 27.7931 -2.6477 0.0830 0 7
14.9672 28.0390 -2.6477 0.0830 0 7
14.5114 28.2776 -2.6477 0.0830 0 7
14.0519 28.5087 -2.6477 0.0830 0 7
13.5887 28.7324 -2.6477 0.0830 0 7
13.1219 28.9486 -2.6477 0.0830 0 7
12.6517 29.1571 -2.6477 0.0830 0 7
12.1781 29.3581 -2.6477 0.0830 0 7
11.7014 29.5513 -2.6477 0.0830 0 7
11.2216 29.7368 -2.6477 0.0830 0 7
10.7389 29.9145 -2.6477 0.0830 0 6
10.2533 30.0844 -2.6477 0.0830 0 7
9.7651 30.2464 -2.6477 0.0830 0 7
9.2743 30.4005 -2.6477 0.0830 0 7
8.7811 30.5466 -2.6477 0.0830 0 7
8.2856 30.6847 -2.6477 0.0830 0 7
7.7879 30.8148 -2.6477 0.0830 0 7
7.2882 30.9368 -2.6477 0.0830 0 7
6.7865 31.0507 -2.6477 0.0830 0 7
6.2831 31.1565 -2.6477 0.0830 0 7
5.7781 31.2541 -2.6477 0.0830 0 7
5.2715 31.3435 -2.6477 0.0830 0 7
4.7635 31.4247 -2.6477 0.0830 0 7
4.2543 31.4977 -2.6477 0.0830 0 7
3.7440 31.5624 -2.6477 0.0830 0 7
3.2327 31.6189 -2.6477 0.0830 0 7
2.7206 31.6670 -2.6477 0.0830 0 7
26.2228 7.2924 -2.4953 0.0913 0 8
26.1013 7.7159 -2.4953 0.0913 0 8
25.9731 8.1373 -2.4953 0.0913 0 8
27.4160 9.0791 -2.6477 0.0913 0 7
27.2655 9.5216 -2.6477 0.0913 0 7
27.1078 9.9617 -2.6477 0.0913 0 7
26.9431 10.3991 -2.6477 0.0913 0 7
26.7712 10.8338 -2.6477 0.0913 0 7
26.5924 11.2656 -2.6477 0.0913 0 7
26.4066 11.6945 -2.6477 0.0913 0 7
26.2139 12.1203 -2.6477 0.0913 0 7
26.0143 12.5430 -2.6477 0.0913 0 7
25.8079 12.9624 -2.6477 0.0913 0 7
25.5947 13.3783 -2.6477 0.0913 0 7
25.3748 13.7908 -2.6477 0.0913 0 7
25.1483 14.1997 -2.6477 0.0913 0 7
24.9152 14.6048 -2.6477 0.0913 0 7
24.6756 15.0061 -2.6477 0.0913 0 7
24.4295 15.4035 -2.6477 0.0913 0 7
24.1770 15.7969 -2.6477 0.0913 0 7
23.9182 16.1861 -2.6477 0.0913 0 7
23.6531 16.5711 -2.6477 0.0913 0 7
23.3818 16.9517 -2.6477 0.0913 0 7
23.1044 17.3279 -2.6477 0.0913 0 7
22.8210 17.6995 -2.6477 0.0913 0 7
22.5315 18.0665 -2.6477 0.0913 0 7
22.2362 18.4288 -2.6477 0.0913 0 7
21.9350 18.7863 -2.6477 0.0913 0 7
21.4681 18.9973 -2.6281 0.6635 0 8
20.7878 19.0039 -2.5821 0.6753 0 8
20.1305 19.0102 -2.5384 0.6869 0 8
19.5432 19.0633 -2.5029 0.0913 0 8
19.2321 19.3771 -2.5029 0.0913 0 14
18.9160 19.6858 -2.5029 0.0913 0 14
18.5950 19.9893 -2.5029 0.0913 0 14
18.2690 20.2877 -2.5029 0.0913 0 14
17.9383 20.5807 -2.5029 0.0913 0 14
17.6029 20.8683 -2.5029 0.0913 0 14
17.2628 21.1504 -2.5029 0.0913 0 14
16.9182 21.4271 -2.5029 0.0913 0 14
16.5693 21.6981 -2.5029 0.0913 0 14
16.2159 21.9634 -2.5029 0.0913 0 14
15.8584 22.2229 -2.5029 0.0913 0 14
16.3930 23.7768 -2.6477 0.0913 0 7
16.0061 24.0390 -2.6477 0.0913 0 7
15.6149 24.2949 -2.6477 0.0913 0 7
15.2197 24.5445 -2.6477 0.0913 0 7
14.8205 24.7876 -2.6477 0.0913 0 7
14.4174 25.0242 -2.6477 0.0913 0 7
14.0105 25.2542 -2.6477 0.0913 0 7
13.5999 25.4777 -2.6477 0.0913 0 7
13.1858 25.6944 -2.6477 0.0913 0 7
12.7683 25.9045 -2.6477 0.0913 0 7
12.3473 26.1077 -2.6477 0.0913 0 7
11.9232 26.3041 -2.6477 0.0913 0 7
11.4959 26.4936 -2.6477 0.0913 0 7
11.0657 26.6762 -2.6477 0.0913 0 7
10.6325 26.8518 -2.6477 0.0913 0 7
10.1965 27.0204 -2.6477 0.0913 0 7
9.7579 27.1819 -2.6477 0.0913 0 7
9.3167 27.3362 -2.6477 0.0913 0 7
8.8731 27.4834 -2.6477 0.0913 0 7
8.4271 27.6234 -2.6477 0.0913 0 7
7.9789 27.7562 -2.6477 0.0913 0 7
7.5287 27.8817 -2.6477 0.0913 0 7
7.0765 27.9999 -2.6477 0.0913 0 7
6.6224 28.1107 -2.6477 0.0913 0 7
6.1666 28.2142 -2.6477 0.0913 0 7
5.7092 28.3103 -2.6477 0.0913 0 7
5.2502 28.3990 -2.6477 0.0913 0 7
4.7899 28.4803 -2.6477 0.0913 0 7
4.3284 28.5541 -2.6477 0.0913 0 7
3.8657 28.6204 -2.6477 0.0913 0 7
3.4020 28.6792 -2.6477 0.0913 0 7
2.9374 28.7305 -2.6477 0.0913 0 7
2.4721 28.7743 -2.6477 0.0913 0 7
24.0248 6.6812 -2.4953 0.0996 0 8
23.9135 7.0691 -2.4953 0.0996 0 8
23.7960 7.4552 -2.4953 0.0996 0 8
23.6722 7.8393 -2.4953 0.0996 0 8
23.5422 8.2214 -2.4953 0.0996 0 8
24.8357 9.1267 -2.6477 0.0996 0 7
24.6847 9.5274 -2.6477 0.0996 0 7
24.5273 9.9257 -2.6477 0.0996 0 7
24.3634 10.3213 -2.6477 0.0996 0 7
24.1932 10.7143 -2.6477 0.0996 0 7
24.0166 11.1044 -2.6477 0.0996 0 7
23.8338 11.4916 -2.6477 0.0996 0 6
23.6447 11.8759 -2.6477 0.0996 0 7
23.4494 12.2570 -2.6477 0.0996 0 7
23.2479 12.6349 -2.6477 0.0996 0 7
23.0404 13.0095 -2.6477 0.0996 0 7
22.8268 13.3806 -2.6477 0.0996 0 7
22.6073 13.7483 -2.6477 0.0996 0 7
22.3818 14.1124 -2.6477 0.0996 0 7
22.1505 14.4728 -2.6477 0.0996 0 7
21.9134 14.8294 -2.6477 0.0996 0 7
21.6705 15.1821 -2.6477 0.0996 0 7
21.4220 15.5308 -2.6477 0.0996 0 7
21.1678 15.8755 -2.6477 0.0996 0 7
20.9081 16.2159 -2.6477 0.0996 0 7
20.6429 16.5522 -2.6477 0.0996 0 7
20.3723 16.8841 -2.6477 0.0996 0 7
20.0964 17.2116 -2.6477 0.0996 0 7
19.8152 17.5346 -2.6477 0.0996 0 7
19.5288 17.8530 -2.6477 0.0996 0 7
19.2374 18.1667 -2.6477 0.0996 0 7
18.9408 18.4757 -2.6477 0.0996 0 6
18.6393 18.7798 -2.6477 0.0996 0 7
18.2446 18.9871 -2.6349 0.7217 0 8
17.6679 18.9927 -2.5957 0.7326 0 8
17.1078 18.9981 -2.5582 0.7434 0 8
16.5634 19.0032 -2.5225 0.7539 0 8
16.1274 19.1191 -2.5029 0.0996 0 8
15.8158 19.3776 -2.5029 0.0996 0 14
15.5002 19.6310 -2.5029 0.0996 0 14
15.1804 19.8793 -2.5029 0.0996 0 14
14.8567 20.1224 -2.5029 0.0996 0 14
14.5291 20.3602 -2.5029 0.0996 0 14
14.1977 20.5927 -2.5029 0.0996 0 14
13.8626 20.8198 -2.5029 0.0996 0 14
13.5238 21.0414 -2.5029 0.0996 0 14
13.1815 21.2575 -2.5029 0.0996 0 14
12.8357 21.4680 -2.5029 0.0996 0 14
12.4866 21.6730 -2.5029 0.0996 0 14
12.1342 21.8722 -2.5029 0.0996 0 14
11.7786 22.0657 -2.5029 0.0996 0 14
11.4200 22.2535 -2.5029 0.0996 0 14
11.6980 23.7331 -2.6477 0.0996 0 7
11.3124 23.9194 -2.6477 0.0996 0 7
10.9238 24.0993 -2.6477 0.0996 0 7
10.5323 24.2729 -2.6477 0.0996 0 7
10.1381 24.4402 -2.6477 0.0996 0 7
9.7413 24.6011 -2.6477 0.0996 0 7
9.3418 24.7555 -2.6477 0.0996 0 7
8.9400 24.9035 -2.6477 0.0996 0 7
8.5358 25.0449 -2.6477 0.0996 0 7
8.1293 25.1798 -2.6477 0.0996 0 7
7.7207 25.3080 -2.6477 0.0996 0 7
7.3102 25.4297 -2.6477 0.0996 0 7
6.8977 25.5446 -2.6477 0.0996 0 7
6.4833 25.6529 -2.6477 0.0996 0 7
6.0673 25.7545 -2.6477 0.0996 0 7
5.6497 25.8493 -2.6477 0.0996 0 7
5.2306 25.9374 -2.6477 0.0996 0 7
4.8102 26.0186 -2.6477 0.0996 0 7
4.3885 26.0930 -2.6477 0.0996 0 7
3.9656 26.1607 -2.6477 0.0996 0 7
3.5417 26.2214 -2.6477 0.0996 0 7
3.1168 26.2753 -2.6477 0.0996 0 7
2.6912 26.3223 -2.6477 0.0996 0 7
2.2648 26.3624 -2.6477 0.0996 0 7
22.1639 6.1637 -2.4953 0.1078 0 8
22.0612 6.5215 -2.4953 0.1078 0 8
21.9528 6.8777 -2.4953 0.1078 0 8
21.8386 7.2321 -2.4953 0.1078 0 8
21.7187 7.5846 -2.4953 0.1078 0 8
21.5931 7.9351 -2.4953 0.1078 0 8
21.4619 8.2835 -2.4953 0.1078 0 8
22.6274 9.1568 -2.6477 0.1078 0 7
22.4763 9.5218 -2.6477 0.1078 0 7
22.3192 9.8843 -2.6477 0.1078 0 7
22.1563 10.2443 -2.6477 0.1078 0 7
21.9876 10.6015 -2.6477 0.1078 0 7
21.8132 10.9560 -2.6477 0.1078 0 7
21.6330 11.3076 -2.6477 0.1078 0 7
21.4472 11.6562 -2.6477 0.1078 0 7
21.2557 12.0018 -2.6477 0.1078 0 7
21.0587 12.3442 -2.6477 0.1078 0 7
20.8562 12.6834 -2.6477 0.1078 0 7
20.6482 13.0193 -2.6477 0.1078 0 7
20.4347 13.3517 -2.6477 0.1078 0 7
20.2160 13.6807 -2.6477 0.1078 0 7
19.9919 14.0061 -2.6477 0.1078 0 7
19.7626 14.3278 -2.6477 0.1078 0 7
19.5282 14.6458 -2.6477 0.1078 0 7
19.2886 14.9599 -2.6477 0.1078 0 7
19.0440 15.2701 -2.6477 0.1078 0 7
18.7943 15.5763 -2.6477 0.1078 0 7
18.5398 15.8784 -2.6477 0.1078 0 7
18.2804 16.1764 -2.6477 0.1078 0 7
18.0162 16.4701 -2.6477 0.1078 0 7
17.7473 16.7596 -2.6477 0.1078 0 7
17.4737 17.0446 -2.6477 0.1078 0 7
17.1956 17.3251 -2.6477 0.1078 0 7
16.9129 17.6012 -2.6477 0.1078 0 7
16.6259 17.8726 -2.6477 0.1078 0 7
16.3344 18.1393 -2.6477 0.1078 0 7
16.0387 18.4013 -2.6477 0.1078 0 7
15.7388 18.6585 -2.6477 0.1078 0 7
15.4348 18.9107 -2.6477 0.1078 0 7
14.9863 18.9802 -2.6231 0.7852 0 8
14.4973 18.9848 -2.5910 0.7949 0 8
14.0200 18.9891 -2.5602 0.8044 0 8
13.5537 18.9933 -2.5309 0.8138 0 8
13.1015 19.0027 -2.5036 0.6539 0 8
12.7888 19.2071 -2.5029 0.1078 0 14
12.4763 19.4115 -2.5029 0.1078 0 14
12.1605 19.6109 -2.5029 0.1078 0 14
11.8415 19.8052 -2.5029 0.1078 0 14
11.5194 19.9942 -2.5029 0.1078 0 14
11.1943 20.1780 -2.5029 0.1078 0 14
10.8663 20.3565 -2.5029 0.1078 0 14
10.5354 20.5297 -2.5029 0.1078 0 14
10.2018 20.6976 -2.5029 0.1078 0 14
9.8655 20.8600 -2.5029 0.1078 0 14
9.5266 21.0169 -2.5029 0.1078 0 14
9.1852 21.1683 -2.5029 0.1078 0 14
8.8414 21.3142 -2.5029 0.1078 0 14
8.4953 21.4545 -2.5029 0.1078 0 14
8.1470 21.5892 -2.5029 0.1078 0 14
7.7965 21.7182 -2.5029 0.1078 0 14
7.4440 21.8415 -2.5029 0.1078 0 14
7.0896 21.9591 -2.5029 0.1078 0 14
6.7332 22.0710 -2.5029 0.1078 0 14
6.3751 22.1771 -2.5029 0.1078 0 14
6.0162 22.2802 -2.5032 0.7544 0 8
5.6541 22.3718 -2.5029 0.1078 0 8
5.5973 23.7596 -2.6477 0.1078 0 7
5.2121 23.8471 -2.6477 0.1078 0 7
4.8255 23.9283 -2.6477 0.1078 0 7
4.4376 24.0032 -2.6477 0.1078 0 7
4.0485 24.0719 -2.6477 0.1078 0 7
3.6584 24.1343 -2.6477 0.1078 0 7
3.2673 24.1903 -2.6477 0.1078 0 7
2.8754 24.2400 -2.6477 0.1078 0 7
2.4827 24.2834 -2.6477 0.1078 0 7
2.0894 24.3204 -2.6477 0.1078 0 7
20.5679 5.7198 -2.4953 0.1161 0 8
20.4726 6.0519 -2.4953 0.1161 0 8
20.3720 6.3825 -2.4953 0.1161 0 8
20.2660 6.7113 -2.4953 0.1161 0 8
20.1548 7.0384 -2.4953 0.1161 0 8
20.0382 7.3637 -2.4953 0.1161 0 8
19.9164 7.6870 -2.4953 0.1161 0 8
19.7894 8.0084 -2.4953 0.1161 0 8
19.6572 8.3276 -2.4953 0.1161 0 8
20.7120 9.1726 -2.6477 0.1161 0 7
20.5609 9.5066 -2.6477 0.1161 0 7
20.4043 9.8381 -2.6477 0.1161 0 7
20.2424 10.1670 -2.6477 0.1161 0 7
20.0752 10.4933 -2.6477 0.1161 0 7
19.9028 10.8168 -2.6477 0.1161 0 7
19.7251 11.1375 -2.6477 0.1161 0 7
19.5423 11.4553 -2.6477 0.1161 0 6
19.3543 11.7701 -2.6477 0.1161 0 7
19.1613 12.0818 -2.6477 0.1161 0 7
18.9633 12.3903 -2.6477 0.1161 0 7
18.7603 12.6956 -2.6477 0.1161 0 7
18.5523 12.9975 -2.6477 0.1161 0 7
18.3396 13.2961 -2.6477 0.1161 0 7
18.1220 13.5911 -2.6477 0.1161 0 7
17.8996 13.8826 -2.6477 0.1161 0 7
17.6726 14.1705 -2.6477 0.1161 0 7
17.4410 14.4547 -2.6477 0.1161 0 7
17.2048 14.7351 -2.6477 0.1161 0 7
16.9640 15.0116 -2.6477 0.1161 0 7
16.7188 15.2842 -2.6477 0.1161 0 7
16.4693 15.5527 -2.6477 0.1161 0 7
16.2155 15.8172 -2.6477 0.1161 0 7
15.9573 16.0776 -2.6477 0.1161 0 7
15.6950 16.3337 -2.6477 0.1161 0 7
15.4287 16.5856 -2.6477 0.1161 0 7
15.1582 16.8331 -2.6477 0.1161 0 7
14.8838 17.0762 -2.6477 0.1161 0 7
14.6055 17.3149 -2.6477 0.1161 0 7
14.3233 17.5490 -2.6477 0.1161 0 7
14.0374 17.7785 -2.6477 0.1161 0 7
13.7479 18.0034 -2.6477 0.1161 0 7
13.4547 18.2235 -2.6477 0.1161 0 7
13.1580 18.4389 -2.6477 0.1161 0 6
12.8579 18.6494 -2.6477 0.1161 0 7
12.5544 18.8550 -2.6477 0.1161 0 7
12.1925 18.9701 -2.6358 0.8412 0 8
11.7654 18.9738 -2.6095 0.8497 0 8
11.3465 18.9773 -2.5844 0.8580 0 8
10.9354 18.9806 -2.5604 0.8660 0 8
10.5317 18.9837 -2.5375 0.8738 0 8
10.1350 18.9866 -2.5156 0.8814 0 8
9.7768 19.0514 -2.5029 0.1161 0 8
9.4672 19.2072 -2.5029 0.1161 0 14
9.1551 19.3579 -2.5029 0.1161 0 14
8.8406 19.5035 -2.5029 0.1161 0 14
8.5238 19.6440 -2.5029 0.1161 0 14
8.2048 19.7794 -2.5029 0.1161 0 14
7.8836 19.9096 -2.5029 0.1161 0 14
7.5603 20.0346 -2.5029 0.1161 0 14
7.2351 20.1543 -2.5029 0.1161 0 14
6.9080 20.2687 -2.5029 0.1161 0 14
6.5790 20.3779 -2.5029 0.1161 0 14
6.2484 20.4817 -2.5029 0.1161 0 14
5.9161 20.5801 -2.5029 0.1161 0 14
5.5822 20.6732 -2.5029 0.1161 0 14
5.2469 20.7608 -2.5029 0.1161 0 14
4.9103 20.8430 -2.5029 0.1161 0 14
4.5723 20.9198 -2.5029 0.1161 0 14
4.2331 20.9910 -2.5029 0.1161 0 14
3.8929 21.0568 -2.5029 0.1161 0 14
3.5516 21.1170 -2.5029 0.1161 0 14
3.2093 21.1717 -2.5029 0.1161 0 14
2.8663 21.2209 -2.5029 0.1161 0 14
2.5224 21.2645 -2.5029 0.1161 0 14
2.1780 21.3025 -2.5029 0.1161 0 14
1.8329 21.3350 -2.5029 0.1161 0 14
19.1838 5.3349 -2.4953 0.1243 0 8
19.0949 5.6447 -2.4953 0.1243 0 8
19.0011 5.9530 -2.4953 0.1243 0 8
18.9023 6.2597 -2.4953 0.1243 0 8
18.7985 6.5648 -2.4953 0.1243 0 8
18.6898 6.8682 -2.4953 0.1243 0 8
18.5762 7.1697 -2.4953 0.1243 0 8
18.4577 7.4694 -2.4953 0.1243 0 8
18.3344 7.7672 -2.4953 0.1243 0 8
18.2063 8.0629 -2.4953 0.1243 0 8
18.0867 8.3626 -2.4971 0.3806 0 8
19.0313 9.1761 -2.6477 0.1243 0 7
18.8803 9.4829 -2.6477 0.1243 0 7
18.7243 9.7872 -2.6477 0.1243 0 7
18.5635 10.0889 -2.6477 0.1243 0 7
18.3978 10.3881 -2.6477 0.1243 0 7
18.2272 10.6844 -2.6477 0.1243 0 7
18.0519 10.9780 -2.6477 0.1243 0 7
17.8719 11.2688 -2.6477 0.1243 0 7
17.6872 11.5565 -2.6477 0.1243 0 7
17.4978 11.8412 -2.6477 0.1243 0 7
17.3039 12.1229 -2.6477 0.1243 0 7
17.1054 12.4013 -2.6477 0.1243 0 7
16.9025 12.6765 -2.6477 0.1243 0 7
16.6951 12.9484 -2.6477 0.1243 0 7
16.4834 13.2169 -2.6477 0.1243 0 7
16.2673 13.4820 -2.6477 0.1243 0 7
16.0470 13.7435 -2.6477 0.1243 0 7
15.8225 14.0014 -2.6477 0.1243 0 7
15.5938 14.2556 -2.6477 0.1243 0 7
15.3610 14.5061 -2.6477 0.1243 0 7
15.1243 14.7528 -2.6477 0.1243 0 7
14.8836 14.9957 -2.6477 0.1243 0 6
14.6389 15.2346 -2.6477 0.1243 0 7
14.3904 15.4695 -2.6477 0.1243 0 7
14.1382 15.7004 -2.6477 0.1243 0 7
13.8822 15.9271 -2.6477 0.1243 0 7
13.6226 16.1497 -2.6477 0.1243 0 7
13.3595 16.3681 -2.6477 0.1243 0 7
13.0928 16.5821 -2.6477 0.1243 0 7
12.8227 16.7919 -2.6477 0.1243 0 7
12.5493 16.9972 -2.6477 0.1243 0 7
12.2726 17.1980 -2.6477 0.1243 0 7
11.9926 17.3944 -2.6477 0.1243 0 7
11.7096 17.5862 -2.6477 0.1243 0 7
11.4234 17.7734 -2.6477 0.1243 0 7
11.1343 17.9560 -2.6477 0.1243 0 7
10.8422 18.1338 -2.6477 0.1243 0 7
10.5473 18.3069 -2.6477 0.1243 0 7
10.2497 18.4752 -2.6477 0.1243 0 6
9.9493 18.6387 -2.6477 0.1243 0 7
9.6463 18.7973 -2.6477 0.1243 0 7
9.3409 18.9509 -2.6477 0.1243 0 7
8.9681 18.9624 -2.6287 0.9035 0 8
8.5965 18.9650 -2.6094 0.9101 0 8
8.2302 18.9674 -2.5910 0.9166 0 8
7.8688 18.9696 -2.5736 0.9228 0 8
7.5122 18.9717 -2.5571 0.9288 0 8
7.1600 18.9736 -2.5414 0.9345 0 8
6.8119 18.9754 -2.5265 0.9400 0 8
6.4677 18.9770 -2.5125 0.9453 0 8
6.1363 19.0066 -2.5029 0.1243 0 8
5.8279 19.1034 -2.5029 0.1243 0 8
5.5180 19.1952 -2.5029 0.1243 0 14
5.2066 19.2820 -2.5029 0.1243 0 14
4.8939 19.3638 -2.5029 0.1243 0 14
4.5798 19.4404 -2.5029 0.1243 0 14
4.2646 19.5120 -2.5029 0.1243 0 14
3.9483 19.5785 -2.5029 0.1243 0 14
3.6309 19.6398 -2.5029 0.1243 0 14
3.3126 19.6960 -2.5029 0.1243 0 14
2.9934 19.7470 -2.5029 0.1243 0 14
2.6734 19.7929 -2.5029 0.1243 0 14
2.3527 19.8335 -2.5029 0.1243 0 14
2.0314 19.8690 -2.5029 0.1243 0 14
1.7096 19.8993 -2.5029 0.1243 0 14
17.9719 4.9979 -2.4953 0.1326 0 8
17.8887 5.2881 -2.4953 0.1326 0 8
17.8007 5.5769 -2.4953 0.1326 0 8
17.7081 5.8642 -2.4953 0.1326 0 8
17.6109 6.1501 -2.4953 0.1326 0 8
17.5091 6.4343 -2.4953 0.1326 0 8
17.4026 6.7168 -2.4953 0.1326 0 8
17.2917 6.9976 -2.4953 0.1326 0 8
17.1761 7.2765 -2.4953 0.1326 0 8
17.0561 7.5535 -2.4953 0.1326 0 8
16.9316 7.8286 -2.4953 0.1326 0 8
16.8027 8.1016 -2.4953 0.1326 0 8
16.6694 8.3724 -2.4953 0.1326 0 8
17.5414 9.1689 -2.6477 0.1326 0 7
17.3907 9.4516 -2.6477 0.1326 0 7
17.2355 9.7318 -2.6477 0.1326 0 7
17.0757 10.0095 -2.6477 0.1326 0 7
16.9115 10.2845 -2.6477 0.1326 0 7
16.7428 10.5569 -2.6477 0.1326 0 7
16.5698 10.8264 -2.6477 0.1326 0 7
16.3924 11.0932 -2.6477 0.1326 0 7
16.2107 11.3570 -2.6477 0.1326 0 7
16.0248 11.6179 -2.6477 0.1326 0 7
15.8347 11.8757 -2.6477 0.1326 0 7
15.6404 12.1304 -2.6477 0.1326 0 7
15.4420 12.3820 -2.6477 0.1326 0 7
15.2396 12.6303 -2.6477 0.1326 0 7
15.0332 12.8753 -2.6477 0.1326 0 7
14.8229 13.1169 -2.6477 0.1326 0 7
14.6087 13.3550 -2.6477 0.1326 0 7
14.3906 13.5897 -2.6477 0.1326 0 7
14.1688 13.8208 -2.6477 0.1326 0 7
13.9432 14.0483 -2.6477 0.1326 0 7
13.7141 14.2722 -2.6477 0.1326 0 7
13.4813 14.4922 -2.6477 0.1326 0 7
13.2450 14.7085 -2.6477 0.1326 0 7
13.0052 14.9209 -2.6477 0.1326 0 6
12.7620 15.1295 -2.6477 0.1326 0 7
12.5155 15.3340 -2.6477 0.1326 0 7
12.2657 15.5346 -2.6477 0.1326 0 7
12.0127 15.7310 -2.6477 0.1326 0 7
11.7565 15.9234 -2.6477 0.1326 0 7
11.4973 16.1116 -2.6477 0.1326 0 7
11.2350 16.2955 -2.6477 0.1326 0 7
10.9698 16.4752 -2.6477 0.1326 0 7
10.7018 16.6506 -2.6477 0.1326 0 7
10.4309 16.8216 -2.6477 0.1326 0 7
10.1573 16.9882 -2.6477 0.1326 0 7
9.8810 17.1504 -2.6477 0.1326 0 7
9.6021 17.3080 -2.6477 0.1326 0 7
9.3208 17.4612 -2.6477 0.1326 0 7
9.0369 17.6097 -2.6477 0.1326 0 7
8.7508 17.7537 -2.6477 0.1326 0 7
8.4623 17.8930 -2.6477 0.1326 0 7
8.1716 18.0276 -2.6477 0.1326 0 7
7.8788 18.1575 -2.6477 0.1326 0 7
7.5839 18.2826 -2.6477 0.1326 0 7
7.2870 18.4030 -2.6477 0.1326 0 6
6.9882 18.5185 -2.6477 0.1326 0 7
6.6876 18.6292 -2.6477 0.1326 0 7
6.3852 18.7350 -2.6477 0.1326 0 7
6.0812 18.8359 -2.6477 0.1326 0 7
5.7755 18.9318 -2.6477 0.1326 0 7
5.4478 18.9510 -2.6377 0.9601 0 8
5.1175 18.9522 -2.6260 0.9643 0 8
4.7901 18.9534 -2.6150 0.9684 0 8
4.4653 18.9543 -2.6049 0.9722 0 8
4.1429 18.9552 -2.5954 0.9757 0 8
3.8227 18.9559 -2.5867 0.9790 0 8
3.5046 18.9565 -2.5787 0.9820 0 8
3.1883 18.9570 -2.5714 0.9848 0 8
2.8737 18.9573 -2.5648 0.9873 0 8
2.5606 18.9576 -2.5589 0.9896 0 8
2.2488 18.9577 -2.5537 0.9916 0 8
1.9382 18.9576 -2.5491 0.9934 0 8
1.6287 18.9575 -2.5452 0.9949 0 8
16.9017 4.7003 -2.4953 0.1408 0 8
16.8235 4.9732 -2.4953 0.1408 0 8
16.7408 5.2448 -2.4953 0.1408 0 8
16.6537 5.5151 -2.4953 0.1408 0 8
16.5623 5.7839 -2.4953 0.1408 0 8
16.4665 6.0511 -2.4953 0.1408 0 8
16.3664 6.3168 -2.4953 0.1408 0 8
16.2620 6.5809 -2.4953 0.1408 0 8
16.1534 6.8432 -2.4953 0.1408 0 8
16.0405 7.1037 -2.4953 0.1408 0 8
15.9234 7.3624 -2.4953 0.1408 0 8
15.8022 7.6192 -2.4953 0.1408 0 8
15.6768 7.8739 -2.4953 0.1408 0 8
15.5473 8.1266 -2.4953 0.1408 0 8
15.4138 8.3771 -2.4953 0.1408 0 8
16.2092 9.1523 -2.6477 0.1408 0 7
16.0589 9.4134 -2.6477 0.1408 0 7
15.9045 9.6721 -2.6477 0.1408 0 7
15.7459 9.9282 -2.6477 0.1408 0 7
15.5831 10.1818 -2.6477 0.1408 0 7
15.4163 10.4326 -2.6477 0.1408 0 7
15.2455 10.6808 -2.6477 0.1408 0 7
15.0706 10.9261 -2.6477 0.1408 0 7
14.8918 11.1686 -2.6477 0.1408 0 7
14.7091 11.4081 -2.6477 0.1408 0 7
14.5225 11.6447 -2.6477 0.1408 0 7
14.3322 11.8782 -2.6477 0.1408 0 7
14.1381 12.1086 -2.6477 0.1408 0 7
13.9402 12.3358 -2.6477 0.1408 0 7
13.7388 12.5598 -2.6477 0.1408 0 7
13.5337 12.7805 -2.6477 0.1408 0 7
13.3251 12.9979 -2.6477 0.1408 0 7
13.1130 13.2118 -2.6477 0.1408 0 7
12.8975 13.4223 -2.6477 0.1408 0 7
12.6785 13.6293 -2.6477 0.1408 0 7
12.4563 13.8327 -2.6477 0.1408 0 7
12.2308 14.0325 -2.6477 0.1408 0 7
12.0021 14.2286 -2.6477 0.1408 0 7
11.7703 14.4210 -2.6477 0.1408 0 7
11.5353 14.6096 -2.6477 0.1408 0 7
11.2974 14.7943 -2.6477 0.1408 0 7
11.0565 14.9752 -2.6477 0.1408 0 7
10.8127 15.1522 -2.6477 0.1408 0 7
10.5660 15.3252 -2.6477 0.1408 0 7
10.3166 15.4942 -2.6477 0.1408 0 7
10.0645 15.6591 -2.6477 0.1408 0 7
9.8098 15.8200 -2.6477 0.1408 0 7
9.5524 15.9767 -2.6477 0.1408 0 7
9.2926 16.1292 -2.6477 0.1408 0 7
9.0304 16.2774 -2.6477 0.1408 0 7
8.7657 16.4215 -2.6477 0.1408 0 7
8.4988 16.5612 -2.6477 0.1408 0 7
8.2297 16.6966 -2.6477 0.1408 0 7
7.9584 16.8276 -2.6477 0.1408 0 7
7.6850 16.9541 -2.6477 0.1408 0 7
7.4096 17.0763 -2.6477 0.1408 0 7
7.1323 17.1940 -2.6477 0.1408 0 7
6.8531 17.3072 -2.6477 0.1408 0 7
6.5721 17.4158 -2.6477 0.1408 0 7
6.2894 17.5199 -2.6477 0.1408 0 7
6.0050 17.6194 -2.6477 0.1408 0 7
5.7191 17.7143 -2.6477 0.1408 0 7
5.4316 17.8045 -2.6477 0.1408 0 7
5.1428 17.8901 -2.6477 0.1408 0 7
4.8526 17.9710 -2.6477 0.1408 0 7
4.5611 18.0471 -2.6477 0.1408 0 7
4.2684 18.1186 -2.6477 0.1408 0 7
3.9746 18.1853 -2.6477 0.1408 0 7
3.6798 18.2472 -2.6477 0.1408 0 7
3.3840 18.3044 -2.6477 0.1408 0 7
3.0873 18.3568 -2.6477 0.1408 0 7
2.7898 18.4043 -2.6477 0.1408 0 6
2.4917 18.4471 -2.6477 0.1408 0 6
2.1927 18.4850 -2.6477 0.1408 0 6
1.8933 18.5180 -2.6477 0.1408 0 7
1.5934 18.5463 -2.6477 0.1408 0 7
15.9498 4.4355 -2.4953 0.1490 0 8
15.8759 4.6931 -2.4953 0.1490 0 8
15.7979 4.9494 -2.4953 0.1490 0 8
15.7157 5.2044 -2.4953 0.1490 0 8
15.6294 5.4581 -2.4953 0.1490 0 8
15.5390 5.7103 -2.4953 0.1490 0 8
15.4446 5.9611 -2.4953 0.1490 0 8
15.3461 6.2102 -2.4953 0.1490 0 8
15.2436 6.4578 -2.4953 0.1490 0 8
15.1371 6.7036 -2.4953 0.1490 0 8
15.0266 6.9477 -2.4953 0.1490 0 8
14.9122 7.1900 -2.4953 0.1490 0 8
14.7939 7.4304 -2.4953 0.1490 0 8
14.6717 7.6689 -2.4953 0.1490 0 8
14.5456 7.9053 -2.4953 0.1490 0 8
14.4158 8.1397 -2.4953 0.1490 0 8
14.2821 8.3719 -2.4953 0.1490 0 8
15.0087 9.1273 -2.6477 0.1490 0 7
14.8590 9.3691 -2.6477 0.1490 0 7
14.7054 9.6083 -2.6477 0.1490 0 7
14.5480 9.8450 -2.6477 0.1490 0 7
14.3868 10.0792 -2.6477 0.1490 0 7
14.2218 10.3107 -2.6477 0.1490 0 7
14.0530 10.5395 -2.6477 0.1490 0 7
13.8806 10.7656 -2.6477 0.1490 0 7
13.7046 10.9888 -2.6477 0.1490 0 7
13.5249 11.2092 -2.6477 0.1490 0 7
13.3418 11.4266 -2.6477 0.1490 0 6
13.1551 11.6410 -2.6477 0.1490 0 7
12.9650 11.8524 -2.6477 0.1490 0 7
12.7715 12.0607 -2.6477 0.1490 0 7
12.5746 12.2658 -2.6477 0.1490 0 7
12.3744 12.4677 -2.6477 0.1490 0 7
12.1710 12.6663 -2.6477 0.1490 0 7
11.9644 12.8616 -2.6477 0.1490 0 7
11.7547 13.0536 -2.6477 0.1490 0 7
11.5419 13.2421 -2.6477 0.1490 0 7
11.3261 13.4272 -2.6477 0.1490 0 7
11.1073 13.6087 -2.6477 0.1490 0 7
10.8856 13.7867 -2.6477 0.1490 0 7
10.6611 13.9611 -2.6477 0.1490 0 7
10.4337 14.1318 -2.6477 0.1490 0 7
10.2036 14.2988 -2.6477 0.1490 0 7
9.9709 14.4620 -2.6477 0.1490 0 7
9.7355 14.6215 -2.6477 0.1490 0 7
9.4976 14.7772 -2.6477 0.1490 0 7
9.2572 14.9289 -2.6477 0.1490 0 7
9.0144 15.0768 -2.6477 0.1490 0 7
8.7692 15.2207 -2.6477 0.1490 0 7
8.5217 15.3606 -2.6477 0.1490 0 7
8.2720 15.4965 -2.6477 0.1490 0 7
8.0202 15.6284 -2.6477 0.1490 0 7
7.7662 15.7561 -2.6477 0.1490 0 7
7.5101 15.8798 -2.6477 0.1490 0 7
7.2522 15.9992 -2.6477 0.1490 0 7
6.9923 16.1145 -2.6477 0.1490 0 7
6.7306 16.2256 -2.6477 0.1490 0 7
6.4671 16.3324 -2.6477 0.1490 0 7
6.2019 16.4349 -2.6477 0.1490 0 7
5.9351 16.5331 -2.6477 0.1490 0 7
5.6668 16.6270 -2.6477 0.1490 0 7
5.3970 16.7165 -2.6477 0.1490 0 7
5.1257 16.8017 -2.6477 0.1490 0 7
4.8531 16.8824 -2.6477 0.1490 0 7
4.5793 16.9588 -2.6477 0.1490 0 7
4.3042 17.0307 -2.6477 0.1490 0 7
4.0280 17.0981 -2.6477 0.1490 0 7
3.7508 17.1610 -2.6477 0.1490 0 7
3.4725 17.2195 -2.6477 0.1490 0 7
3.1934 17.2734 -2.6477 0.1490 0 7
2.9134 17.3229 -2.6477 0.1490 0 7
2.6327 17.3677 -2.6477 0.1490 0 7
2.3513 17.4081 -2.6477 0.1490 0 7
2.0692 17.4438 -2.6477 0.1490 0 7
1.7867 17.4750 -2.6477 0.1490 0 7
1.5036 17.5017 -2.6477 0.1490 0 7
15.0973 4.1985 -2.4953 0.1573 0 8
15.0274 4.4423 -2.4953 0.1573 0 8
14.9535 4.6849 -2.4953 0.1573 0 8
14.8757 4.9263 -2.4953 0.1573 0 8
14.7941 5.1664 -2.4953 0.1573 0 8
14.7085 5.4051 -2.4953 0.1573 0 8
14.6191 5.6425 -2.4953 0.1573 0 8
14.5259 5.8783 -2.4953 0.1573 0 8
14.4288 6.1126 -2.4953 0.1573 0 8
14.3280 6.3453 -2.4953 0.1573 0 8
14.2235 6.5764 -2.4953 0.1573 0 8
14.1152 6.8057 -2.4953 0.1573 0 8
14.0032 7.0333 -2.4953 0.1573 0 8
13.8875 7.2590 -2.4953 0.1573 0 8
13.7682 7.4828 -2.4953 0.1573 0 8
13.6453 7.7046 -2.4953 0.1573 0 8
13.5188 7.9245 -2.4953 0.1573 0 8
13.3888 8.1422 -2.4953 0.1573 0 8
13.2553 8.3578 -2.4953 0.1573 0 8
13.9195 9.0948 -2.6477 0.1573 0 7
13.7705 9.3189 -2.6477 0.1573 0 7
13.6178 9.5405 -2.6477 0.1573 0 7
13.4617 9.7596 -2.6477 0.1573 0 7
13.3020 9.9762 -2.6477 0.1573 0 7
13.1388 10.1902 -2.6477 0.1573 0 7
12.9721 10.4015 -2.6477 0.1573 0 7
12.8021 10.6101 -2.6477 0.1573 0 7
12.6287 10.8159 -2.6477 0.1573 0 7
12.4520 11.0188 -2.6477 0.1573 0 7
12.2720 11.2189 -2.6477 0.1573 0 7
12.0889 11.4161 -2.6477 0.1573 0 6
11.9025 11.6102 -2.6477 0.1573 0 7
11.7130 11.8013 -2.6477 0.1573 0 7
11.5205 11.9893 -2.6477 0.1573 0 7
11.3250 12.1742 -2.6477 0.1573 0 7
11.1265 12.3559 -2.6477 0.1573 0 7
10.9250 12.5344 -2.6477 0.1573 0 7
10.7208 12.7095 -2.6477 0.1573 0 7
10.5137 12.8814 -2.6477 0.1573 0 7
10.3038 13.0498 -2.6477 0.1573 0 7
10.0913 13.2149 -2.6477 0.1573 0 7
9.8761 13.3765 -2.6477 0.1573 0 7
9.6583 13.5346 -2.6477 0.1573 0 7
9.4380 13.6891 -2.6477 0.1573 0 7
9.2152 13.8400 -2.6477 0.1573 0 7
8.9900 13.9874 -2.6477 0.1573 0 7
8.7625 14.1310 -2.6477 0.1573 0 7
8.5326 14.2710 -2.6477 0.1573 0 7
8.3005 14.4072 -2.6477 0.1573 0 7
8.0663 14.5397 -2.6477 0.1573 0 7
7.8299 14.6683 -2.6477 0.1573 0 7
7.5915 14.7931 -2.6477 0.1573 0 7
7.3511 14.9140 -2.6477 0.1573 0 6
7.1088 15.0310 -2.6477 0.1573 0 7
6.8646 15.1441 -2.6477 0.1573 0 7
6.6186 15.2532 -2.6477 0.1573 0 7
6.3709 15.3584 -2.6477 0.1573 0 7
6.1215 15.4594 -2.6477 0.1573 0 7
5.8705 15.5565 -2.6477 0.1573 0 7
5.6179 15.6495 -2.6477 0.1573 0 7
5.3639 15.7383 -2.6477 0.1573 0 7
5.1085 15.8231 -2.6477 0.1573 0 7
4.8518 15.9037 -2.6477 0.1573 0 7
4.5937 15.9801 -2.6477 0.1573 0 7
4.3345 16.0524 -2.6477 0.1573 0 7
4.0742 16.1204 -2.6477 0.1573 0 7
3.8127 16.1842 -2.6477 0.1573 0 7
3.5503 16.2438 -2.6477 0.1573 0 7
3.2869 16.2992 -2.6477 0.1573 0 7
3.0227 16.3502 -2.6477 0.1573 0 7
2.7577 16.3970 -2.6477 0.1573 0 7
2.4920 16.4395 -2.6477 0.1573 0 7
2.2256 16.4777 -2.6477 0.1573 0 7
1.9586 16.5115 -2.6477 0.1573 0 7
1.6912 16.5411 -2.6477 0.1573 0 7
1.4232 16.5663 -2.6477 0.1573 0 7
14.3294 3.9849 -2.4953 0.1655 0 8
14.2630 4.2163 -2.4953 0.1655 0 8
14.1929 4.4466 -2.4953 0.1655 0 8
14.1191 4.6757 -2.4953 0.1655 0 8
14.0416 4.9036 -2.4953 0.1655 0 8
13.9604 5.1302 -2.4953 0.1655 0 8
13.8755 5.3555 -2.4953 0.1655 0 8
13.7871 5.5793 -2.4953 0.1655 0 8
13.6950 5.8017 -2.4953 0.1655 0 8
13.5993 6.0226 -2.4953 0.1655 0 8
13.5000 6.2419 -2.4953 0.1655 0 8
13.3972 6.4596 -2.4953 0.1655 0 8
13.2909 6.6755 -2.4953 0.1655 0 8
13.1811 6.8898 -2.4953 0.1655 0 8
13.0679 7.1022 -2.4953 0.1655 0 8
12.9513 7.3128 -2.4953 0.1655 0 8
12.8312 7.5214 -2.4953 0.1655 0 8
12.7078 7.7281 -2.4953 0.1655 0 8
12.5811 7.9327 -2.4953 0.1655 0 8
12.4510 8.1353 -2.4953 0.1655 0 8
12.3177 8.3358 -2.4953 0.1655 0 8
12.9252 9.0552 -2.6477 0.1655 0 7
12.7770 9.2632 -2.6477 0.1655 0 7
12.6254 9.4688 -2.6477 0.1655 0 7
12.4705 9.6719 -2.6477 0.1655 0 7
12.3123 9.8724 -2.6477 0.1655 0 7
12.1509 10.0704 -2.6477 0.1655 0 7
11.9864 10.2657 -2.6477 0.1655 0 7
11.8186 10.4584 -2.6477 0.1655 0 7
11.6478 10.6483 -2.6477 0.1655 0 7
11.4740 10.8354 -2.6477 0.1655 0 7
11.2971 11.0197 -2.6477 0.1655 0 7
11.1173 11.2011 -2.6477 0.1655 0 7
10.9346 11.3795 -2.6477 0.1655 0 7
10.7490 11.5550 -2.6477 0.1655 0 7
10.5605 11.7274 -2.6477 0.1655 0 7
10.3694 11.8968 -2.6477 0.1655 0 7
10.1755 12.0631 -2.6477 0.1655 0 7
9.9789 12.2262 -2.6477 0.1655 0 7
9.7797 12.3861 -2.6477 0.1655 0 7
9.5780 12.5427 -2.6477 0.1655 0 7
9.3737 12.6961 -2.6477 0.1655 0 7
9.1670 12.8461 -2.6477 0.1655 0 7
8.9579 12.9928 -2.6477 0.1655 0 7
8.7465 13.1361 -2.6477 0.1655 0 7
8.5328 13.2759 -2.6477 0.1655 0 7
8.3168 13.4123 -2.6477 0.1655 0 7
8.0986 13.5451 -2.6477 0.1655 0 7
7.8784 13.6744 -2.6477 0.1655 0 7
7.6560 13.8001 -2.6477 0.1655 0 7
7.4317 13.9222 -2.6477 0.1655 0 7
7.2054 14.0407 -2.6477 0.1655 0 7
6.9772 14.1555 -2.6477 0.1655 0 7
6.7472 14.2665 -2.6477 0.1655 0 7
6.5154 14.3738 -2.6477 0.1655 0 7
6.2819 14.4774 -2.6477 0.1655 0 7
6.0468 14.5772 -2.6477 0.1655 0 7
5.8101 14.6731 -2.6477 0.1655 0 7
5.5719 14.7652 -2.6477 0.1655 0 7
5.3322 14.8535 -2.6477 0.1655 0 7
5.0910 14.9378 -2.6477 0.1655 0 7
4.8487 15.0183 -2.6477 0.1655 0 7
4.6050 15.0948 -2.6477 0.1655 0 7
4.3601 15.1673 -2.6477 0.1655 0 7
4.1141 15.2359 -2.6477 0.1655 0 7
3.8669 15.3005 -2.6477 0.1655 0 7
3.6188 15.3611 -2.6477 0.1655 0 7
3.3697 15.4176 -2.6477 0.1655 0 7
3.1198 15.4701 -2.6477 0.1655 0 7
2.8690 15.5186 -2.6477 0.1655 0 7
2.6175 15.5630 -2.6477 0.1655 0 7
2.3652 15.6033 -2.6477 0.1655 0 7
2.1124 15.6396 -2.6477 0.1655 0 7
1.8590 15.6717 -2.6477 0.1655 0 7
1.6051 15.6997 -2.6477 0.1655 0 7
1.3508 15.7237 -2.6477 0.1655 0 7
13.6340 3.7915 -2.4953 0.1736 0 8
13.5709 4.0117 -2.4953 0.1736 0 8
13.5042 4.2308 -2.4953 0.1736 0 8
13.4339 4.4488 -2.4953 0.1736 0 8
13.3602 4.6656 -2.4953 0.1736 0 8
13.2829 4.8812 -2.4953 0.1736 0 8
13.2022 5.0956 -2.4953 0.1736 0 8
13.1180 5.3086 -2.4953 0.1736 0 8
13.0303 5.5202 -2.4953 0.1736 0 8
12.9393 5.7303 -2.4953 0.1736 0 8
12.8449 5.9390 -2.4953 0.1736 0 8
12.7471 6.1461 -2.4953 0.1736 0 8
12.6459 6.3516 -2.4953 0.1736 0 8
12.5415 6.5554 -2.4953 0.1736 0 8
12.4337 6.7575 -2.4953 0.1736 0 8
12.3227 6.9579 -2.4953 0.1736 0 8
12.2085 7.1564 -2.4953 0.1736 0 8
12.0911 7.3530 -2.4953 0.1736 0 8
11.9705 7.5478 -2.4953 0.1736 0 8
11.8468 7.7405 -2.4953 0.1736 0 8
11.7200 7.9312 -2.4953 0.1736 0 8
11.5901 8.1199 -2.4953 0.1736 0 8
11.4571 8.3064 -2.4953 0.1736 0 8
12.0127 9.0093 -2.6477 0.1736 0 7
11.8653 9.2025 -2.6477 0.1736 0 7
11.7148 9.3933 -2.6477 0.1736 0 7
11.5612 9.5817 -2.6477 0.1736 0 7
11.4047 9.7675 -2.6477 0.1736 0 7
11.2451 9.9508 -2.6477 0.1736 0 7
11.0826 10.1315 -2.6477 0.1736 0 7
10.9171 10.3096 -2.6477 0.1736 0 7
10.7489 10.4849 -2.6477 0.1736 0 7
10.5778 10.6575 -2.6477 0.1736 0 7
10.4039 10.8273 -2.6477 0.1736 0 7
10.2273 10.9942 -2.6477 0.1736 0 7
10.0480 11.1583 -2.6477 0.1736 0 7
9.8661 11.3195 -2.6477 0.1736 0 7
9.6817 11.4777 -2.6477 0.1736 0 6
9.4946 11.6328 -2.6477 0.1736 0 7
9.3051 11.7850 -2.6477 0.1736 0 7
9.1132 11.9340 -2.6477 0.1736 0 7
8.9188 12.0800 -2.6477 0.1736 0 7
8.7222 12.2227 -2.6477 0.1736 0 7
8.5232 12.3623 -2.6477 0.1736 0 7
8.3220 12.4986 -2.6477 0.1736 0 7
8.1187 12.6316 -2.6477 0.1736 0 7
7.9132 12.7614 -2.6477 0.1736 0 7
7.7056 12.8878 -2.6477 0.1736 0 7
7.4960 13.0108 -2.6477 0.1736 0 7
7.2845 13.1304 -2.6477 0.1736 0 7
7.0710 13.2466 -2.6477 0.1736 0 7
6.8557 13.3593 -2.6477 0.1736 0 7
6.6386 13.4685 -2.6477 0.1736 0 7
6.4197 13.5742 -2.6477 0.1736 0 7
6.1992 13.6763 -2.6477 0.1736 0 7
5.9771 13.7748 -2.6477 0.1736 0 7
5.7534 13.8697 -2.6477 0.1736 0 7
5.5281 13.9610 -2.6477 0.1736 0 7
5.3015 14.0487 -2.6477 0.1736 0 7
5.0734 14.1326 -2.6477 0.1736 0 7
4.8440 14.2129 -2.6477 0.1736 0 7
4.6134 14.2894 -2.6477 0.1736 0 7
4.3815 14.3622 -2.6477 0.1736 0 7
4.1485 14.4313 -2.6477 0.1736 0 7
3.9144 14.4965 -2.6477 0.1736 0 7
3.6793 14.5580 -2.6477 0.1736 0 7
3.4432 14.6156 -2.6477 0.1736 0 7
3.2062 14.6694 -2.6477 0.1736 0 7
2.9684 14.7194 -2.6477 0.1736 0 7
2.7298 14.7655 -2.6477 0.1736 0 7
2.4904 14.8077 -2.6477 0.1736 0 7
2.2505 14.8461 -2.6477 0.1736 0 7
2.0099 14.8806 -2.6477 0.1736 0 7
1.7688 14.9111 -2.6477 0.1736 0 7
1.5272 14.9378 -2.6477 0.1736 0 7
1.2853 14.9606 -2.6477 0.1736 0 7
13.0012 3.6156 -2.4953 0.1818 0 8
12.9410 3.8255 -2.4953 0.1818 0 8
12.8774 4.0344 -2.4953 0.1818 0 8
12.8104 4.2423 -2.4953 0.1818 0 8
12.7401 4.4491 -2.4953 0.1818 0 8
12.6664 4.6547 -2.4953 0.1818 0 8
12.5894 4.8591 -2.4953 0.1818 0 8
12.5091 5.0622 -2.4953 0.1818 0 8
12.4256 5.2640 -2.4953 0.1818 0 8
12.3387 5.4644 -2.4953 0.1818 0 8
12.2487 5.6633 -2.4953 0.1818 0 8
12.1554 5.8608 -2.4953 0.1818 0 8
12.0590 6.0568 -2.4953 0.1818 0 8
11.9594 6.2512 -2.4953 0.1818 0 8
11.8566 6.4439 -2.4953 0.1818 0 8
11.7508 6.6349 -2.4953 0.1818 0 8
11.6419 6.8242 -2.4953 0.1818 0 8
11.5299 7.0118 -2.4953 0.1818 0 8
11.4149 7.1974 -2.4953 0.1818 0 8
11.2969 7.3812 -2.4953 0.1818 0 8
11.1760 7.5631 -2.4953 0.1818 0 8
11.0521 7.7430 -2.4953 0.1818 0 8
10.9254 7.9208 -2.4953 0.1818 0 8
10.7958 8.0966 -2.4953 0.1818 0 8
10.6633 8.2703 -2.4953 0.1818 0 8
10.5281 8.4418 -2.4953 0.1818 0 8
11.0246 9.1370 -2.6477 0.1818 0 7
10.8753 9.3142 -2.6477 0.1818 0 7
10.7232 9.4890 -2.6477 0.1818 0 7
10.5682 9.6613 -2.6477 0.1818 0 7
10.4104 9.8311 -2.6477 0.1818 0 7
10.2500 9.9982 -2.6477 0.1818 0 7
10.0868 10.1628 -2.6477 0.1818 0 7
9.9210 10.3247 -2.6477 0.1818 0 7
9.7526 10.4840 -2.6477 0.1818 0 7
9.5817 10.6404 -2.6477 0.1818 0 7
9.4082 10.7941 -2.6477 0.1818 0 7
9.2323 10.9450 -2.6477 0.1818 0 7
9.0540 11.0929 -2.6477 0.1818 0 7
8.8732 11.2380 -2.6477 0.1818 0 7
8.6902 11.3801 -2.6477 0.1818 0 7
8.5049 11.5193 -2.6477 0.1818 0 7
8.3173 11.6554 -2.6477 0.1818 0 7
8.1276 11.7885 -2.6477 0.1818 0 7
7.9358 11.9185 -2.6477 0.1818 0 7
7.7419 12.0454 -2.6477 0.1818 0 7
7.5459 12.1691 -2.6477 0.1818 0 7
7.3480 12.2896 -2.6477 0.1818 0 7
7.1481 12.4069 -2.6477 0.1818 0 7
6.9464 12.5210 -2.6477 0.1818 0 7
6.7428 12.6318 -2.6477 0.1818 0 7
6.5375 12.7392 -2.6477 0.1818 0 7
6.3305 12.8434 -2.6477 0.1818 0 7
6.1218 12.9441 -2.6477 0.1818 0 7
5.9115 13.0415 -2.6477 0.1818 0 7
5.6997 13.1355 -2.6477 0.1818 0 7
5.4863 13.2260 -2.6477 0.1818 0 7
5.2716 13.3131 -2.6477 0.1818 0 7
5.0554 13.3966 -2.6477 0.1818 0 7
4.8379 13.4767 -2.6477 0.1818 0 7
4.6192 13.5532 -2.6477 0.1818 0 7
4.3993 13.6262 -2.6477 0.1818 0 7
4.1781 13.6956 -2.6477 0.1818 0 7
3.9559 13.7614 -2.6477 0.1818 0 7
3.7327 13.8237 -2.6477 0.1818 0 7
3.5085 13.8823 -2.6477 0.1818 0 7
3.2834 13.9372 -2.6477 0.1818 0 7
3.0574 13.9885 -2.6477 0.1818 0 7
2.8306 14.0362 -2.6477 0.1818 0 7
2.6031 14.0802 -2.6477 0.1818 0 7
2.3748 14.1205 -2.6477 0.1818 0 7
2.1460 14.1570 -2.6477 0.1818 0 7
1.9166 14.1899 -2.6477 0.1818 0 7
1.6867 14.2191 -2.6477 0.1818 0 7
1.4564 14.2445 -2.6477 0.1818 0 7
1.2256 14.2662 -2.6477 0.1818 0 7
12.4228 3.4547 -2.4953 0.1900 0 8
12.3653 3.6553 -2.4953 0.1900 0 8
12.3045 3.8550 -2.4953 0.1900 0 8
12.2405 4.0536 -2.4953 0.1900 0 8
12.1733 4.2512 -2.4953 0.1900 0 8
12.1029 4.4476 -2.4953 0.1900 0 8
12.0293 4.6429 -2.4953 0.1900 0 8
11.9526 4.8370 -2.4953 0.1900 0 8
11.8728 5.0298 -2.4953 0.1900 0 8
11.7898 5.2213 -2.4953 0.1900 0 8
11.7038 5.4114 -2.4953 0.1900 0 8
11.6147 5.6001 -2.4953 0.1900 0 8
11.5225 5.7873 -2.4953 0.1900 0 8
11.4274 5.9731 -2.4953 0.1900 0 8
11.3292 6.1572 -2.4953 0.1900 0 8
11.2281 6.3398 -2.4953 0.1900 0 8
11.1240 6.5207 -2.4953 0.1900 0 8
11.0170 6.6998 -2.4953 0.1900 0 8
10.9071 6.8773 -2.4953 0.1900 0 8
10.7944 7.0529 -2.4953 0.1900 0 8
10.6788 7.2267 -2.4953 0.1900 0 8
10.5605 7.3985 -2.4953 0.1900 0 8
10.4394 7.5685 -2.4953 0.1900 0 8
10.3155 7.7364 -2.4953 0.1900 0 8
10.1889 7.9024 -2.4953 0.1900 0 8
10.0597 8.0662 -2.4953 0.1900 0 8
9.9279 8.2280 -2.4953 0.1900 0 8
9.7934 8.3876 -2.4953 0.1900 0 8
10.2461 9.0669 -2.6477 0.1900 0 7
10.0980 9.2315 -2.6477 0.1900 0 7
9.9473 9.3937 -2.6477 0.1900 0 7
9.7940 9.5535 -2.6477 0.1900 0 7
9.6381 9.7107 -2.6477 0.1900 0 7
9.4797 9.8654 -2.6477 0.1900 0 7
9.3188 10.0176 -2.6477 0.1900 0 7
9.1554 10.1671 -2.6477 0.1900 0 7
8.9897 10.3139 -2.6477 0.1900 0 7
8.8216 10.4581 -2.6477 0.1900 0 7
8.6512 10.5995 -2.6477 0.1900 0 7
8.4785 10.7381 -2.6477 0.1900 0 7
8.3036 10.8739 -2.6477 0.1900 0 7
8.1265 11.0068 -2.6477 0.1900 0 7
7.9473 11.1369 -2.6477 0.1900 0 7
7.7661 11.2641 -2.6477 0.1900 0 7
7.5827 11.3883 -2.6477 0.1900 0 7
7.3974 11.5095 -2.6477 0.1900 0 6
7.2102 11.6277 -2.6477 0.1900 0 7
7.0211 11.7429 -2.6477 0.1900 0 7
6.8301 11.8550 -2.6477 0.1900 0 7
6.6374 11.9640 -2.6477 0.1900 0 7
6.4428 12.0698 -2.6477 0.1900 0 7
6.2467 12.1725 -2.6477 0.1900 0 7
6.0489 12.2720 -2.6477 0.1900 0 7
5.8495 12.3683 -2.6477 0.1900 0 7
5.6485 12.4614 -2.6477 0.1900 0 7
5.4461 12.5511 -2.6477 0.1900 0 7
5.2423 12.6376 -2.6477 0.1900 0 7
5.0371 12.7208 -2.6477 0.1900 0 7
4.8305 12.8007 -2.6477 0.1900 0 7
4.6227 12.8772 -2.6477 0.1900 0 7
4.4137 12.9503 -2.6477 0.1900 0 7
4.2035 13.0200 -2.6477 0.1900 0 7
3.9923 13.0864 -2.6477 0.1900 0 7
3.7800 13.1493 -2.6477 0.1900 0 7
3.5667 13.2087 -2.6477 0.1900 0 7
3.3524 13.2647 -2.6477 0.1900 0 7
3.1373 13.3172 -2.6477 0.1900 0 7
2.9214 13.3663 -2.6477 0.1900 0 7
2.7047 13.4118 -2.6477 0.1900 0 7
2.4873 13.4538 -2.6477 0.1900 0 7
2.2692 13.4923 -2.6477 0.1900 0 7
2.0505 13.5273 -2.6477 0.1900 0 7
1.8313 13.5587 -2.6477 0.1900 0 7
1.6117 13.5865 -2.6477 0.1900 0 7
1.3916 13.6108 -2.6477 0.1900 0 7
1.1711 13.6316 -2.6477 0.1900 0 7
11.8921 3.3071 -2.4953 0.1981 0 8
11.8370 3.4992 -2.4953 0.1981 0 8
11.7788 3.6903 -2.4953 0.1981 0 8
11.7176 3.8804 -2.4953 0.1981 0 8
11.6532 4.0695 -2.4953 0.1981 0 8
11.5859 4.2576 -2.4953 0.1981 0 8
11.5154 4.4446 -2.4953 0.1981 0 8
11.4420 4.6303 -2.4953 0.1981 0 8
11.3656 4.8149 -2.4953 0.1981 0 8
11.2861 4.9982 -2.4953 0.1981 0 8
11.2038 5.1802 -2.4953 0.1981 0 8
11.1185 5.3609 -2.4953 0.1981 0 8
11.0303 5.5401 -2.4953 0.1981 0 8
10.9392 5.7179 -2.4953 0.1981 0 8
10.8452 5.8942 -2.4953 0.1981 0 8
10.7484 6.0689 -2.4953 0.1981 0 8
10.6487 6.2421 -2.4953 0.1981 0 8
10.5463 6.4136 -2.4953 0.1981 0 8
10.4411 6.5835 -2.4953 0.1981 0 8
10.3332 6.7516 -2.4953 0.1981 0 8
10.2226 6.9179 -2.4953 0.1981 0 8
10.1093 7.0825 -2.4953 0.1981 0 8
9.9934 7.2451 -2.4953 0.1981 0 8
9.8748 7.4059 -2.4953 0.1981 0 8
9.7537 7.5648 -2.4953 0.1981 0 8
9.6299 7.7216 -2.4953 0.1981 0 8
9.5037 7.8765 -2.4953 0.1981 0 8
9.3750 8.0292 -2.4953 0.1981 0 8
9.2438 8.1799 -2.4953 0.1981 0 8
9.1195 8.3370 -2.4978 0.6063 0 8
8.9743 8.4748 -2.4953 0.1981 0 8
9.3756 9.1453 -2.6477 0.1981 0 7
9.2263 9.2959 -2.6477 0.1981 0 7
9.0747 9.4440 -2.6477 0.1981 0 7
8.9207 9.5896 -2.6477 0.1981 0 7
8.7643 9.7327 -2.6477 0.1981 0 7
8.6056 9.8733 -2.6477 0.1981 0 7
8.4447 10.0113 -2.6477 0.1981 0 7
8.2816 10.1466 -2.6477 0.1981 0 7
8.1163 10.2793 -2.6477 0.1981 0 7
7.9489 10.4093 -2.6477 0.1981 0 7
7.7794 10.5366 -2.6477 0.1981 0 7
7.6078 10.6611 -2.6477 0.1981 0 7
7.4343 10.7829 -2.6477 0.1981 0 7
7.2588 10.9018 -2.6477 0.1981 0 7
7.0814 11.0178 -2.6477 0.1981 0 7
6.9022 11.1310 -2.6477 0.1981 0 7
6.7211 11.2412 -2.6477 0.1981 0 7
6.5383 11.3485 -2.6477 0.1981 0 7
6.3538 11.4529 -2.6477 0.1981 0 6
6.1676 11.5542 -2.6477 0.1981 0 7
5.9798 11.6525 -2.6477 0.1981 0 7
5.7904 11.7477 -2.6477 0.1981 0 7
5.5996 11.8399 -2.6477 0.1981 0 7
5.4072 11.9290 -2.6477 0.1981 0 7
5.2134 12.0149 -2.6477 0.1981 0 7
5.0183 12.0977 -2.6477 0.1981 0 7
4.8219 12.1774 -2.6477 0.1981 0 7
4.6241 12.2538 -2.6477 0.1981 0 7
4.4252 12.3270 -2.6477 0.1981 0 7
4.2251 12.3970 -2.6477 0.1981 0 7
4.0240 12.4638 -2.6477 0.1981 0 7
3.8217 12.5273 -2.6477 0.1981 0 7
3.6185 12.5875 -2.6477 0.1981 0 7
3.4143 12.6444 -2.6477 0.1981 0 7
3.2092 12.6980 -2.6477 0.1981 0 7
3.0033 12.7483 -2.6477 0.1981 0 7
2.7966 12.7952 -2.6477 0.1981 0 7
2.5891 12.8388 -2.6477 0.1981 0 7
2.3810 12.8790 -2.6477 0.1981 0 7
2.1723 12.9159 -2.6477 0.1981 0 7
1.9629 12.9493 -2.6477 0.1981 0 7
1.7531 12.9794 -2.6477 0.1981 0 7
1.5428 13.0061 -2.6477 0.1981 0 7
1.3321 13.0293 -2.6477 0.1981 0 7
1.1211 13.0492 -2.6477 0.1981 0 7
11.4033 3.1712 -2.4953 0.2063 0 8
11.3505 3.3553 -2.4953 0.2063 0 8
11.2947 3.5386 -2.4953 0.2063 0 8
11.2360 3.7209 -2.4953 0.2063 0 8
11.1743 3.9023 -2.4953 0.2063 0 8
11.1096 4.0826 -2.4953 0.2063 0 8
11.0421 4.2619 -2.4953 0.2063 0 8
10.9717 4.4400 -2.4953 0.2063 0 8
10.8984 4.6170 -2.4953 0.2063 0 8
10.8223 4.7928 -2.4953 0.2063 0 8
10.7433 4.9673 -2.4953 0.2063 0 8
10.6615 5.1405 -2.4953 0.2063 0 8
10.5769 5.3124 -2.4953 0.2063 0 8
10.4895 5.4829 -2.4953 0.2063 0 8
10.3994 5.6519 -2.4953 0.2063 0 8
10.3066 5.8195 -2.4953 0.2063 0 8
10.2110 5.9855 -2.4953 0.2063 0 8
10.1128 6.1500 -2.4953 0.2063 0 8
10.0120 6.3129 -2.4953 0.2063 0 8
9.9085 6.4741 -2.4953 0.2063 0 8
9.8024 6.6336 -2.4953 0.2063 0 8
9.6938 6.7913 -2.4953 0.2063 0 8
9.5826 6.9473 -2.4953 0.2063 0 8
9.4689 7.1015 -2.4953 0.2063 0 8
9.3527 7.2538 -2.4953 0.2063 0 8
9.2341 7.4042 -2.4953 0.2063 0 8
9.1131 7.5527 -2.4953 0.2063 0 8
8.9897 7.6992 -2.4953 0.2063 0 8
8.8639 7.8437 -2.4953 0.2063 0 8
8.7358 7.9861 -2.4953 0.2063 0 8
8.6054 8.1265 -2.4953 0.2063 0 8
8.4727 8.2647 -2.4953 0.2063 0 8
8.3379 8.4007 -2.4953 0.2063 0 8
8.7017 9.0558 -2.6477 0.2063 0 7
8.5540 9.1954 -2.6477 0.2063 0 7
8.4041 9.3327 -2.6477 0.2063 0 7
8.2519 9.4675 -2.6477 0.2063 0 7
8.0976 9.5998 -2.6477 0.2063 0 7
7.9412 9.7296 -2.6477 0.2063 0 7
7.7827 9.8568 -2.6477 0.2063 0 7
7.6221 9.9815 -2.6477 0.2063 0 7
7.4596 10.1035 -2.6477 0.2063 0 7
7.2951 10.2229 -2.6477 0.2063 0 7
7.1287 10.3397 -2.6477 0.2063 0 7
6.9604 10.4537 -2.6477 0.2063 0 7
6.7903 10.5649 -2.6477 0.2063 0 7
6.6185 10.6735 -2.6477 0.2063 0 7
6.4449 10.7792 -2.6477 0.2063 0 7
6.2696 10.8821 -2.6477 0.2063 0 7
6.0926 10.9821 -2.6477 0.2063 0 7
5.9141 11.0793 -2.6477 0.2063 0 7
5.7340 11.1735 -2.6477 0.2063 0 7
5.5524 11.2649 -2.6477 0.2063 0 7
5.3694 11.3533 -2.6477 0.2063 0 7
5.1849 11.4387 -2.6477 0.2063 0 6
4.9991 11.5211 -2.6477 0.2063 0 7
4.8120 11.6005 -2.6477 0.2063 0 7
4.6237 11.6768 -2.6477 0.2063 0 7
4.4341 11.7501 -2.6477 0.2063 0 7
4.2433 11.8204 -2.6477 0.2063 0 7
4.0515 11.8875 -2.6477 0.2063 0 7
3.8586 11.9515 -2.6477 0.2063 0 7
3.6646 12.0124 -2.6477 0.2063 0 7
3.4697 12.0701 -2.6477 0.2063 0 7
3.2740 12.1247 -2.6477 0.2063 0 7
3.0773 12.1761 -2.6477 0.2063 0 7
2.8798 12.2243 -2.6477 0.2063 0 7
2.6816 12.2693 -2.6477 0.2063 0 7
2.4827 12.3111 -2.6477 0.2063 0 7
2.2831 12.3497 -2.6477 0.2063 0 7
2.0830 12.3850 -2.6477 0.2063 0 7
1.8823 12.4171 -2.6477 0.2063 0 7
1.6810 12.4459 -2.6477 0.2063 0 7
1.4794 12.4715 -2.6477 0.2063 0 7
1.2774 12.4938 -2.6477 0.2063 0 7
1.0750 12.5128 -2.6477 0.2063 0 7
10.9516 3.0456 -2.4953 0.2144 0 8
10.9008 3.2224 -2.4953 0.2144 0 8
10.8473 3.3984 -2.4953 0.2144 0 8
10.7908 3.5735 -2.4953 0.2144 0 8
10.7316 3.7477 -2.4953 0.2144 0 8
10.6695 3.9209 -2.4953 0.2144 0 8
10.6047 4.0930 -2.4953 0.2144 0 8
10.5371 4.2641 -2.4953 0.2144 0 8
10.4667 4.4341 -2.4953 0.2144 0 8
10.3935 4.6029 -2.4953 0.2144 0 8
10.3177 4.7705 -2.4953 0.2144 0 8
10.2391 4.9369 -2.4953 0.2144 0 8
10.1579 5.1019 -2.4953 0.2144 0 8
10.0740 5.2657 -2.4953 0.2144 0 8
9.9874 5.4280 -2.4953 0.2144 0 8
9.8983 5.5889 -2.4953 0.2144 0 8
9.8065 5.7484 -2.4953 0.2144 0 8
9.7122 5.9064 -2.4953 0.2144 0 8
9.6154 6.0628 -2.4953 0.2144 0 8
9.5160 6.2176 -2.4953 0.2144 0 8
9.4141 6.3708 -2.4953 0.2144 0 8
9.3098 6.5223 -2.4953 0.2144 0 8
9.2030 6.6721 -2.4953 0.2144 0 8
9.0938 6.8202 -2.4953 0.2144 0 8
8.9822 6.9665 -2.4953 0.2144 0 8
8.8683 7.1109 -2.4953 0.2144 0 8
8.7521 7.2535 -2.4953 0.2144 0 8
8.6335 7.3942 -2.4953 0.2144 0 8
8.5127 7.5330 -2.4953 0.2144 0 8
8.3897 7.6698 -2.4953 0.2144 0 8
8.2645 7.8045 -2.4953 0.2144 0 8
8.1371 7.9373 -2.4953 0.2144 0 8
8.0076 8.0679 -2.4953 0.2144 0 8
7.8760 8.1965 -2.4953 0.2144 0 8
7.7423 8.3228 -2.4953 0.2144 0 8
7.6066 8.4470 -2.4953 0.2144 0 8
7.9250 9.0924 -2.6477 0.2144 0 7
7.7768 9.2195 -2.6477 0.2144 0 7
7.6266 9.3441 -2.6477 0.2144 0 7
7.4744 9.4663 -2.6477 0.2144 0 7
7.3202 9.5861 -2.6477 0.2144 0 7
7.1641 9.7033 -2.6477 0.2144 0 7
7.0061 9.8180 -2.6477 0.2144 0 7
6.8463 9.9301 -2.6477 0.2144 0 7
6.6847 10.0396 -2.6477 0.2144 0 7
6.5214 10.1464 -2.6477 0.2144 0 7
6.3563 10.2506 -2.6477 0.2144 0 7
6.1896 10.3522 -2.6477 0.2144 0 7
6.0212 10.4510 -2.6477 0.2144 0 7
5.8513 10.5471 -2.6477 0.2144 0 7
5.6798 10.6404 -2.6477 0.2144 0 7
5.5069 10.7309 -2.6477 0.2144 0 7
5.3325 10.8186 -2.6477 0.2144 0 7
5.1567 10.9035 -2.6477 0.2144 0 7
4.9795 10.9855 -2.6477 0.2144 0 7
4.8011 11.0647 -2.6477 0.2144 0 7
4.6214 11.1409 -2.6477 0.2144 0 7
4.4405 11.2143 -2.6477 0.2144 0 7
4.2584 11.2847 -2.6477 0.2144 0 7
4.0752 11.3521 -2.6477 0.2144 0 7
3.8910 11.4166 -2.6477 0.2144 0 6
3.7057 11.4780 -2.6477 0.2144 0 6
3.5195 11.5365 -2.6477 0.2144 0 7
3.3323 11.5920 -2.6477 0.2144 0 7
3.1443 11.6444 -2.6477 0.2144 0 7
2.9554 11.6937 -2.6477 0.2144 0 7
2.7658 11.7400 -2.6477 0.2144 0 7
2.5754 11.7833 -2.6477 0.2144 0 7
2.3844 11.8234 -2.6477 0.2144 0 7
2.1927 11.8604 -2.6477 0.2144 0 7
2.0005 11.8944 -2.6477 0.2144 0 7
1.8077 11.9252 -2.6477 0.2144 0 7
1.6144 11.9529 -2.6477 0.2144 0 7
1.4208 11.9774 -2.6477 0.2144 0 7
1.2268 11.9989 -2.6477 0.2144 0 7
1.0324 12.0172 -2.6477 0.2144 0 7
10.5328 2.9291 -2.4953 0.2225 0 8
10.4840 3.0992 -2.4953 0.2225 0 8
10.4325 3.2685 -2.4953 0.2225 0 8
10.3782 3.4369 -2.4953 0.2225 0 8
10.3212 3.6044 -2.4953 0.2225 0 8
10.2616 3.7709 -2.4953 0.2225 0 8
10.1992 3.9365 -2.4953 0.2225 0 8
10.1341 4.1011 -2.4953 0.2225 0 8
10.0664 4.2645 -2.4953 0.2225 0 8
9.9961 4.4269 -2.4953 0.2225 0 8
9.9232 4.5881 -2.4953 0.2225 0 8
9.8476 4.7481 -2.4953 0.2225 0 8
9.7695 4.9068 -2.4953 0.2225 0 8
9.6888 5.0643 -2.4953 0.2225 0 8
9.6055 5.2205 -2.4953 0.2225 0 8
9.5198 5.3752 -2.4953 0.2225 0 8
9.4316 5.5286 -2.4953 0.2225 0 8
9.3408 5.6805 -2.4953 0.2225 0 8
9.2477 5.8309 -2.4953 0.2225 0 8
9.1521 5.9798 -2.4953 0.2225 0 8
9.0541 6.1272 -2.4953 0.2225 0 8
8.9538 6.2729 -2.4953 0.2225 0 8
8.8511 6.4170 -2.4953 0.2225 0 8
8.7461 6.5594 -2.4953 0.2225 0 8
8.6388 6.7001 -2.4953 0.2225 0 8
8.5292 6.8390 -2.4953 0.2225 0 8
8.4174 6.9762 -2.4953 0.2225 0 8
8.3034 7.1115 -2.4953 0.2225 0 8
8.1872 7.2449 -2.4953 0.2225 0 8
8.0689 7.3765 -2.4953 0.2225 0 8
7.9485 7.5061 -2.4953 0.2225 0 8
7.8259 7.6338 -2.4953 0.2225 0 8
7.7014 7.7594 -2.4953 0.2225 0 8
7.5748 7.8830 -2.4953 0.2225 0 8
7.4462 8.0046 -2.4953 0.2225 0 8
7.3157 8.1240 -2.4953 0.2225 0 8
7.1833 8.2414 -2.4953 0.2225 0 8
7.0489 8.3566 -2.4953 0.2225 0 8
6.9128 8.4695 -2.4953 0.2225 0 8
7.1886 9.1044 -2.6477 0.2225 0 7
7.0403 9.2195 -2.6477 0.2225 0 7
6.8902 9.3322 -2.6477 0.2225 0 7
6.7382 9.4425 -2.6477 0.2225 0 7
6.5845 9.5503 -2.6477 0.2225 0 7
6.4291 9.6557 -2.6477 0.2225 0 7
6.2720 9.7584 -2.6477 0.2225 0 7
6.1132 9.8587 -2.6477 0.2225 0 7
5.9529 9.9563 -2.6477 0.2225 0 7
5.7910 10.0513 -2.6477 0.2225 0 7
5.6275 10.1438 -2.6477 0.2225 0 7
5.4626 10.2335 -2.6477 0.2225 0 7
5.2963 10.3206 -2.6477 0.2225 0 7
5.1286 10.4049 -2.6477 0.2225 0 7
4.9595 10.4866 -2.6477 0.2225 0 7
4.7891 10.5655 -2.6477 0.2225 0 7
4.6175 10.6416 -2.6477 0.2225 0 7
4.4447 10.7149 -2.6477 0.2225 0 7
4.2707 10.7855 -2.6477 0.2225 0 7
4.0956 10.8532 -2.6477 0.2225 0 7
3.9194 10.9180 -2.6477 0.2225 0 7
3.7422 10.9800 -2.6477 0.2225 0 7
3.5640 11.0391 -2.6477 0.2225 0 7
3.3849 11.0954 -2.6477 0.2225 0 7
3.2049 11.1487 -2.6477 0.2225 0 7
3.0240 11.1991 -2.6477 0.2225 0 7
2.8424 11.2466 -2.6477 0.2225 0 7
2.6600 11.2911 -2.6477 0.2225 0 7
2.4769 11.3327 -2.6477 0.2225 0 7
2.2932 11.3713 -2.6477 0.2225 0 7
2.1088 11.4069 -2.6477 0.2225 0 6
1.9240 11.4396 -2.6477 0.2225 0 6
1.7386 11.4692 -2.6477 0.2225 0 6
1.5526 11.4958 -2.6477 0.2225 0 6
1.3665 11.5194 -2.6477 0.2225 0 7
1.1799 11.5400 -2.6477 0.2225 0 7
0.9929 11.5576 -2.6477 0.2225 0 7
10.1435 2.8208 -2.4953 0.2306 0 8
10.0965 2.9846 -2.4953 0.2306 0 8
10.0468 3.1476 -2.4953 0.2306 0 8
9.9946 3.3098 -2.4953 0.2306 0 8
9.9397 3.4711 -2.4953 0.2306 0 8
9.8822 3.6316 -2.4953 0.2306 0 8
9.8222 3.7910 -2.4953 0.2306 0 8
9.7595 3.9495 -2.4953 0.2306 0 8
9.6943 4.1069 -2.4953 0.2306 0 8
9.6266 4.2633 -2.4953 0.2306 0 8
9.5563 4.4185 -2.4953 0.2306 0 8
9.4836 4.5726 -2.4953 0.2306 0 8
9.4083 4.7255 -2.4953 0.2306 0 8
9.3306 4.8771 -2.4953 0.2306 0 8
9.2505 5.0275 -2.4953 0.2306 0 8
9.1679 5.1765 -2.4953 0.2306 0 8
9.0829 5.3242 -2.4953 0.2306 0 8
8.9956 5.4705 -2.4953 0.2306 0 8
8.9058 5.6154 -2.4953 0.2306 0 8
8.8138 5.7588 -2.4953 0.2306 0 8
8.7194 5.9007 -2.4953 0.2306 0 8
8.6228 6.0410 -2.4953 0.2306 0 8
8.5239 6.1798 -2.4953 0.2306 0 8
8.4228 6.3169 -2.4953 0.2306 0 8
8.3194 6.4524 -2.4953 0.2306 0 8
8.2139 6.5862 -2.4953 0.2306 0 8
8.1063 6.7183 -2.4953 0.2306 0 8
7.9965 6.8486 -2.4953 0.2306 0 8
7.8846 6.9771 -2.4953 0.2306 0 8
7.7706 7.1038 -2.4953 0.2306 0 8
7.6546 7.2286 -2.4953 0.2306 0 8
7.5367 7.3516 -2.4953 0.2306 0 8
