ply
format ascii 1.0
element vertex 1386
property float32 x
property float32 y
property float32 z
property float32 CosAngle
property uint32 ObjIdx
property uint32 ObjTag
end_header
5.3094 31.3371 -2.6477 0.0830 0 7
4.8020 31.4188 -2.6477 0.0830 0 7
4.2934 31.4924 -2.6477 0.0830 0 7
3.7836 31.5577 -2.6477 0.0830 0 7
3.2729 31.6147 -2.6477 0.0830 0 7
2.7613 31.6635 -2.6477 0.0830 0 7
2.2489 31.7040 -2.6477 0.0830 0 7
1.7360 31.7362 -2.6477 0.0830 0 7
1.2227 31.7602 -2.6477 0.0830 0 7
0.7090 31.7758 -2.6477 0.0830 0 7
0.1951 31.7831 -2.6477 0.0830 0 7
-0.3188 31.7821 -2.6477 0.0830 0 7
-0.8327 31.7728 -2.6477 0.0830 0 7
-1.3463 31.7552 -2.6477 0.0830 0 7
-1.8595 31.7292 -2.6477 0.0830 0 7
-2.3723 31.6950 -2.6477 0.0830 0 7
-2.8845 31.6525 -2.6477 0.0830 0 7
-3.3959 31.6018 -2.6477 0.0830 0 7
-3.9064 31.5427 -2.6477 0.0830 0 7
-4.4159 31.4754 -2.6477 0.0830 0 7
-4.9243 31.3999 -2.6477 0.0830 0 7
-5.4314 31.3162 -2.6477 0.0830 0 7
-5.9370 31.2243 -2.6477 0.0830 0 7
-6.4411 31.1242 -2.6477 0.0830 0 7
-6.9435 31.0160 -2.6477 0.0830 0 7
-7.4441 30.8997 -2.6477 0.0830 0 7
-7.9427 30.7753 -2.6477 0.0830 0 7
-8.4393 30.6428 -2.6477 0.0830 0 7
-8.9336 30.5023 -2.6477 0.0830 0 7
-9.4256 30.3539 -2.6477 0.0830 0 7
-9.9152 30.1975 -2.6477 0.0830 0 7
-10.4022 30.0333 -2.6477 0.0830 0 7
23.1131 17.3163 -2.6477 0.0913 0 7
22.8301 17.6878 -2.6477 0.0913 0 7
22.5411 18.0546 -2.6477 0.0913 0 7
22.2462 18.4167 -2.6477 0.0913 0 7
21.9455 18.7740 -2.6477 0.0913 0 7
21.4927 18.9970 -2.6298 0.6631 0 8
20.8122 19.0037 -2.5838 0.6749 0 8
20.1547 19.0100 -2.5400 0.6865 0 8
19.5550 19.0512 -2.5029 0.0913 0 8
19.2444 19.3649 -2.5029 0.0913 0 14
18.9288 19.6735 -2.5029 0.0913 0 14
18.6083 19.9770 -2.5029 0.0913 0 14
18.2828 20.2752 -2.5029 0.0913 0 14
17.9526 20.5682 -2.5029 0.0913 0 14
17.6177 20.8558 -2.5029 0.0913 0 14
17.2782 21.1379 -2.5029 0.0913 0 14
16.9341 21.4145 -2.5029 0.0913 0 14
16.5857 21.6855 -2.5029 0.0913 0 14
16.2329 21.9509 -2.5029 0.0913 0 14
15.8758 22.2105 -2.5029 0.0913 0 14
16.4121 23.7637 -2.6477 0.0913 0 7
16.0257 24.0260 -2.6477 0.0913 0 7
15.6351 24.2819 -2.6477 0.0913 0 7
15.2405 24.5316 -2.6477 0.0913 0 7
14.8418 24.7748 -2.6477 0.0913 0 7
14.4393 25.0115 -2.6477 0.0913 0 7
14.0330 25.2417 -2.6477 0.0913 0 7
13.6230 25.4653 -2.6477 0.0913 0 7
13.2095 25.6823 -2.6477 0.0913 0 7
12.7925 25.8925 -2.6477 0.0913 0 7
12.3722 26.0959 -2.6477 0.0913 0 7
11.9487 26.2926 -2.6477 0.0913 0 7
11.5220 26.4823 -2.6477 0.0913 0 7
11.0923 26.6652 -2.6477 0.0913 0 7
10.6597 26.8410 -2.6477 0.0913 0 7
10.2243 27.0099 -2.6477 0.0913 0 7
9.7862 27.1717 -2.6477 0.0913 0 7
9.3456 27.3263 -2.6477 0.0913 0 7
8.9026 27.4739 -2.6477 0.0913 0 7
8.4572 27.6142 -2.6477 0.0913 0 7
8.0096 27.7474 -2.6477 0.0913 0 7
7.5599 27.8732 -2.6477 0.0913 0 7
7.1082 27.9918 -2.6477 0.0913 0 7
6.6547 28.1031 -2.6477 0.0913 0 7
6.1994 28.2070 -2.6477 0.0913 0 7
5.7426 28.3035 -2.6477 0.0913 0 7
5.2842 28.3927 -2.6477 0.0913 0 7
4.8244 28.4745 -2.6477 0.0913 0 7
4.3634 28.5487 -2.6477 0.0913 0 7
3.9012 28.6156 -2.6477 0.0913 0 7
3.4380 28.6749 -2.6477 0.0913 0 7
2.9739 28.7267 -2.6477 0.0913 0 7
2.5090 28.7711 -2.6477 0.0913 0 7
2.0435 28.8079 -2.6477 0.0913 0 7
1.5774 28.8372 -2.6477 0.0913 0 7
1.1110 28.8589 -2.6477 0.0913 0 7
0.6442 28.8731 -2.6477 0.0913 0 7
0.1773 28.8797 -2.6477 0.0913 0 7
-0.2897 28.8788 -2.6477 0.0913 0 7
-0.7566 28.8704 -2.6477 0.0913 0 7
-1.2233 28.8543 -2.6477 0.0913 0 7
-1.6897 28.8308 -2.6477 0.0913 0 7
-2.1556 28.7997 -2.6477 0.0913 0 7
-2.6210 28.7611 -2.6477 0.0913 0 7
-3.0857 28.7150 -2.6477 0.0913 0 7
-3.5496 28.6613 -2.6477 0.0913 0 7
-4.0125 28.6002 -2.6477 0.0913 0 7
-4.4745 28.5315 -2.6477 0.0913 0 7
-4.9352 28.4555 -2.6477 0.0913 0 7
-5.3946 28.3720 -2.6477 0.0913 0 7
-5.8527 28.2810 -2.6477 0.0913 0 7
-6.3092 28.1827 -2.6477 0.0913 0 7
-6.7640 28.0770 -2.6477 0.0913 0 7
-7.2171 27.9640 -2.6477 0.0913 0 7
-7.6683 27.8436 -2.6477 0.0913 0 7
-8.1175 27.7160 -2.6477 0.0913 0 7
-8.5646 27.5811 -2.6477 0.0913 0 7
-9.0094 27.4390 -2.6477 0.0913 0 7
-9.4519 27.2898 -2.6477 0.0913 0 7
21.1757 15.8649 -2.6477 0.0996 0 7
20.9164 16.2052 -2.6477 0.0996 0 7
20.6517 16.5413 -2.6477 0.0996 0 7
20.3815 16.8730 -2.6477 0.0996 0 7
20.1060 17.2004 -2.6477 0.0996 0 7
19.8253 17.5232 -2.6477 0.0996 0 7
19.5394 17.8415 -2.6477 0.0996 0 7
19.2483 18.1551 -2.6477 0.0996 0 7
18.9523 18.4639 -2.6477 0.0996 0 6
18.6513 18.7680 -2.6477 0.0996 0 7
18.2681 18.9868 -2.6365 0.7213 0 8
17.6912 18.9925 -2.5972 0.7322 0 8
17.1310 18.9979 -2.5598 0.7429 0 8
16.5864 19.0030 -2.5240 0.7534 0 8
16.1410 19.1076 -2.5029 0.0996 0 8
15.8299 19.3661 -2.5029 0.0996 0 14
15.5147 19.6196 -2.5029 0.0996 0 14
15.1954 19.8678 -2.5029 0.0996 0 14
14.8722 20.1109 -2.5029 0.0996 0 14
14.5451 20.3488 -2.5029 0.0996 0 14
14.2142 20.5813 -2.5029 0.0996 0 14
13.8796 20.8084 -2.5029 0.0996 0 14
13.5413 21.0301 -2.5029 0.0996 0 14
13.1995 21.2463 -2.5029 0.0996 0 14
12.8542 21.4570 -2.5029 0.0996 0 14
12.5056 21.6620 -2.5029 0.0996 0 14
12.1537 21.8613 -2.5029 0.0996 0 14
11.7987 22.0550 -2.5029 0.0996 0 14
11.4405 22.2429 -2.5029 0.0996 0 14
11.0794 22.4250 -2.5029 0.0996 0 8
11.3352 23.9086 -2.6477 0.0996 0 7
10.9471 24.0887 -2.6477 0.0996 0 7
10.5562 24.2626 -2.6477 0.0996 0 7
10.1625 24.4301 -2.6477 0.0996 0 7
9.7662 24.5912 -2.6477 0.0996 0 7
9.3673 24.7459 -2.6477 0.0996 0 7
8.9659 24.8941 -2.6477 0.0996 0 7
8.5623 25.0358 -2.6477 0.0996 0 7
8.1564 25.1710 -2.6477 0.0996 0 7
7.7483 25.2996 -2.6477 0.0996 0 7
7.3382 25.4216 -2.6477 0.0996 0 7
6.9262 25.5369 -2.6477 0.0996 0 7
6.5124 25.6455 -2.6477 0.0996 0 7
6.0969 25.7475 -2.6477 0.0996 0 7
5.6798 25.8427 -2.6477 0.0996 0 7
5.2612 25.9312 -2.6477 0.0996 0 7
4.8413 26.0128 -2.6477 0.0996 0 7
4.4200 26.0877 -2.6477 0.0996 0 7
3.9976 26.1557 -2.6477 0.0996 0 7
3.5742 26.2170 -2.6477 0.0996 0 7
3.1498 26.2714 -2.6477 0.0996 0 7
2.7246 26.3189 -2.6477 0.0996 0 7
2.2987 26.3595 -2.6477 0.0996 0 7
1.8722 26.3932 -2.6477 0.0996 0 7
1.4452 26.4200 -2.6477 0.0996 0 7
1.0178 26.4399 -2.6477 0.0996 0 7
0.5902 26.4529 -2.6477 0.0996 0 7
0.1624 26.4590 -2.6477 0.0996 0 6
-0.2654 26.4582 -2.6477 0.0996 0 6
-0.6932 26.4504 -2.6477 0.0996 0 6
-1.1208 26.4358 -2.6477 0.0996 0 6
-1.5481 26.4142 -2.6477 0.0996 0 6
-1.9750 26.3857 -2.6477 0.0996 0 7
-2.4013 26.3503 -2.6477 0.0996 0 7
-2.8271 26.3081 -2.6477 0.0996 0 7
-3.2521 26.2589 -2.6477 0.0996 0 7
-3.6762 26.2029 -2.6477 0.0996 0 7
-4.0994 26.1400 -2.6477 0.0996 0 7
-4.5215 26.0703 -2.6477 0.0996 0 7
-4.9425 25.9938 -2.6477 0.0996 0 7
-5.3621 25.9105 -2.6477 0.0996 0 7
-5.7803 25.8204 -2.6477 0.0996 0 7
-6.1971 25.7236 -2.6477 0.0996 0 7
-6.6122 25.6200 -2.6477 0.0996 0 7
-7.0256 25.5097 -2.6477 0.0996 0 7
-7.4371 25.3928 -2.6477 0.0996 0 7
-7.8467 25.2693 -2.6477 0.0996 0 7
-8.2543 25.1391 -2.6477 0.0996 0 7
-8.6597 25.0023 -2.6477 0.0996 0 7
19.5355 14.6360 -2.6477 0.1078 0 7
19.2963 14.9500 -2.6477 0.1078 0 7
19.0520 15.2600 -2.6477 0.1078 0 7
18.8028 15.5661 -2.6477 0.1078 0 7
18.5487 15.8681 -2.6477 0.1078 0 7
18.2897 16.1659 -2.6477 0.1078 0 7
18.0259 16.4595 -2.6477 0.1078 0 7
17.7574 16.7488 -2.6477 0.1078 0 7
17.4843 17.0337 -2.6477 0.1078 0 7
17.2066 17.3142 -2.6477 0.1078 0 7
16.9244 17.5902 -2.6477 0.1078 0 7
16.6377 17.8615 -2.6477 0.1078 0 7
16.3468 18.1282 -2.6477 0.1078 0 7
16.0515 18.3901 -2.6477 0.1078 0 7
15.7521 18.6473 -2.6477 0.1078 0 7
15.4485 18.8995 -2.6477 0.1078 0 7
15.0089 18.9800 -2.6246 0.7847 0 8
14.5199 18.9846 -2.5924 0.7945 0 8
14.0425 18.9889 -2.5617 0.8040 0 8
13.5761 18.9931 -2.5323 0.8133 0 8
13.1232 19.0016 -2.5048 0.6536 0 8
12.8045 19.1966 -2.5029 0.1078 0 14
12.4924 19.4012 -2.5029 0.1078 0 14
12.1771 19.6006 -2.5029 0.1078 0 14
11.8586 19.7949 -2.5029 0.1078 0 14
11.5370 19.9841 -2.5029 0.1078 0 14
11.2123 20.1680 -2.5029 0.1078 0 14
10.8848 20.3467 -2.5029 0.1078 0 14
10.5543 20.5200 -2.5029 0.1078 0 14
10.2212 20.6880 -2.5029 0.1078 0 14
9.8853 20.8505 -2.5029 0.1078 0 14
9.5469 21.0077 -2.5029 0.1078 0 14
9.2060 21.1593 -2.5029 0.1078 0 14
8.8627 21.3054 -2.5029 0.1078 0 14
8.5170 21.4459 -2.5029 0.1078 0 14
8.1692 21.5808 -2.5029 0.1078 0 14
7.8192 21.7100 -2.5029 0.1078 0 14
7.4671 21.8336 -2.5029 0.1078 0 14
7.1131 21.9515 -2.5029 0.1078 0 14
6.7573 22.0637 -2.5029 0.1078 0 14
6.3996 22.1700 -2.5029 0.1078 0 14
6.0428 22.2796 -2.5039 0.7542 0 8
5.6794 22.3654 -2.5029 0.1078 0 8
5.6247 23.7531 -2.6477 0.1078 0 7
5.2399 23.8410 -2.6477 0.1078 0 7
4.8537 23.9226 -2.6477 0.1078 0 7
4.4662 23.9979 -2.6477 0.1078 0 7
4.0776 24.0670 -2.6477 0.1078 0 7
3.6880 24.1298 -2.6477 0.1078 0 7
3.2973 24.1863 -2.6477 0.1078 0 7
2.9058 24.2364 -2.6477 0.1078 0 7
2.5136 24.2802 -2.6477 0.1078 0 7
2.1207 24.3177 -2.6477 0.1078 0 7
1.7272 24.3488 -2.6477 0.1078 0 7
1.3333 24.3736 -2.6477 0.1078 0 7
0.9390 24.3919 -2.6477 0.1078 0 7
0.5445 24.4039 -2.6477 0.1078 0 7
0.1498 24.4095 -2.6477 0.1078 0 7
-0.2448 24.4088 -2.6477 0.1078 0 7
-0.6395 24.4016 -2.6477 0.1078 0 7
-1.0339 24.3881 -2.6477 0.1078 0 7
-1.4281 24.3682 -2.6477 0.1078 0 7
-1.8220 24.3419 -2.6477 0.1078 0 7
-2.2153 24.3093 -2.6477 0.1078 0 7
-2.6081 24.2703 -2.6477 0.1078 0 7
-3.0002 24.2249 -2.6477 0.1078 0 7
-3.3915 24.1733 -2.6477 0.1078 0 7
-3.7819 24.1153 -2.6477 0.1078 0 7
-4.1713 24.0510 -2.6477 0.1078 0 7
-4.5596 23.9804 -2.6477 0.1078 0 7
-4.9468 23.9035 -2.6477 0.1078 0 7
-5.3326 23.8204 -2.6477 0.1078 0 7
-5.7171 23.7311 -2.6477 0.1078 0 7
-5.7665 22.3431 -2.5029 0.1078 0 8
-6.1270 22.2469 -2.5029 0.1078 0 8
-6.4859 22.1449 -2.5029 0.1078 0 14
-6.8431 22.0372 -2.5029 0.1078 0 14
-7.1985 21.9237 -2.5029 0.1078 0 14
-7.5521 21.8044 -2.5029 0.1078 0 14
18.1288 13.5821 -2.6477 0.1161 0 7
17.9068 13.8734 -2.6477 0.1161 0 7
17.6801 14.1612 -2.6477 0.1161 0 7
17.4488 14.4452 -2.6477 0.1161 0 7
17.2130 14.7254 -2.6477 0.1161 0 7
16.9726 15.0018 -2.6477 0.1161 0 7
16.7279 15.2743 -2.6477 0.1161 0 7
16.4787 15.5428 -2.6477 0.1161 0 7
16.2253 15.8072 -2.6477 0.1161 0 7
15.9675 16.0674 -2.6477 0.1161 0 7
15.7057 16.3235 -2.6477 0.1161 0 7
15.4397 16.5753 -2.6477 0.1161 0 7
15.1697 16.8228 -2.6477 0.1161 0 7
14.8957 17.0659 -2.6477 0.1161 0 7
14.6178 17.3045 -2.6477 0.1161 0 7
14.3361 17.5386 -2.6477 0.1161 0 7
14.0506 17.7681 -2.6477 0.1161 0 7
13.7615 17.9930 -2.6477 0.1161 0 7
13.4688 18.2131 -2.6477 0.1161 0 7
13.1725 18.4285 -2.6477 0.1161 0 6
12.8728 18.6391 -2.6477 0.1161 0 7
12.5698 18.8448 -2.6477 0.1161 0 7
12.2147 18.9699 -2.6372 0.8408 0 8
11.7875 18.9736 -2.6108 0.8493 0 8
11.3686 18.9771 -2.5857 0.8575 0 8
10.9575 18.9804 -2.5616 0.8656 0 8
10.5538 18.9835 -2.5387 0.8734 0 8
10.1571 18.9865 -2.5168 0.8810 0 8
9.7943 19.0424 -2.5029 0.1161 0 8
9.4852 19.1983 -2.5029 0.1161 0 14
9.1735 19.3491 -2.5029 0.1161 0 14
8.8595 19.4949 -2.5029 0.1161 0 14
8.5431 19.6356 -2.5029 0.1161 0 14
8.2245 19.7712 -2.5029 0.1161 0 14
7.9037 19.9016 -2.5029 0.1161 0 14
7.5809 20.0268 -2.5029 0.1161 0 14
7.2561 20.1467 -2.5029 0.1161 0 14
6.9294 20.2614 -2.5029 0.1161 0 14
6.6009 20.3708 -2.5029 0.1161 0 14
6.2707 20.4749 -2.5029 0.1161 0 14
5.9388 20.5736 -2.5029 0.1161 0 14
5.6054 20.6669 -2.5029 0.1161 0 14
5.2705 20.7549 -2.5029 0.1161 0 14
4.9342 20.8374 -2.5029 0.1161 0 14
4.5966 20.9144 -2.5029 0.1161 0 14
4.2579 20.9860 -2.5029 0.1161 0 14
3.9180 21.0521 -2.5029 0.1161 0 14
3.5771 21.1127 -2.5029 0.1161 0 14
3.2353 21.1678 -2.5029 0.1161 0 14
2.8926 21.2173 -2.5029 0.1161 0 14
2.5491 21.2613 -2.5029 0.1161 0 14
2.2050 21.2998 -2.5029 0.1161 0 14
1.8603 21.3326 -2.5029 0.1161 0 14
1.5152 21.3599 -2.5029 0.1161 0 14
1.1696 21.3816 -2.5029 0.1161 0 14
0.8237 21.3977 -2.5029 0.1161 0 14
0.4776 21.4083 -2.5029 0.1161 0 14
0.1315 21.4132 -2.5029 0.1161 0 14
-0.2148 21.4125 -2.5029 0.1161 0 14
-0.5610 21.4062 -2.5029 0.1161 0 14
-0.9070 21.3944 -2.5029 0.1161 0 14
-1.2528 21.3769 -2.5029 0.1161 0 14
-1.5983 21.3539 -2.5029 0.1161 0 14
-1.9434 21.3252 -2.5029 0.1161 0 14
-2.2879 21.2910 -2.5029 0.1161 0 14
-2.6319 21.2512 -2.5029 0.1161 0 14
-2.9751 21.2059 -2.5029 0.1161 0 14
-3.3176 21.1550 -2.5029 0.1161 0 14
-3.6593 21.0986 -2.5029 0.1161 0 14
-3.9999 21.0367 -2.5029 0.1161 0 14
-4.3395 20.9693 -2.5029 0.1161 0 14
-4.6780 20.8964 -2.5029 0.1161 0 14
-5.0153 20.8180 -2.5029 0.1161 0 14
-5.3512 20.7342 -2.5029 0.1161 0 14
-5.6858 20.6449 -2.5029 0.1161 0 14
-6.0188 20.5503 -2.5029 0.1161 0 14
-6.3503 20.4503 -2.5029 0.1161 0 14
-6.6802 20.3450 -2.5029 0.1161 0 14
-7.0082 20.2343 -2.5029 0.1161 0 14
16.9088 12.6681 -2.6477 0.1243 0 7
16.7018 12.9398 -2.6477 0.1243 0 7
16.4904 13.2082 -2.6477 0.1243 0 7
16.2746 13.4731 -2.6477 0.1243 0 7
16.0547 13.7345 -2.6477 0.1243 0 7
15.8305 13.9923 -2.6477 0.1243 0 7
15.6022 14.2464 -2.6477 0.1243 0 7
15.3698 14.4968 -2.6477 0.1243 0 7
15.1334 14.7434 -2.6477 0.1243 0 7
14.8931 14.9862 -2.6477 0.1243 0 6
14.6488 15.2251 -2.6477 0.1243 0 7
14.4007 15.4599 -2.6477 0.1243 0 7
14.1488 15.6907 -2.6477 0.1243 0 7
13.8933 15.9175 -2.6477 0.1243 0 7
13.6341 16.1400 -2.6477 0.1243 0 7
13.3713 16.3584 -2.6477 0.1243 0 7
13.1051 16.5724 -2.6477 0.1243 0 7
12.8354 16.7822 -2.6477 0.1243 0 7
12.5624 16.9875 -2.6477 0.1243 0 7
12.2861 17.1884 -2.6477 0.1243 0 7
12.0066 17.3848 -2.6477 0.1243 0 7
11.7239 17.5767 -2.6477 0.1243 0 7
11.4382 17.7639 -2.6477 0.1243 0 7
11.1495 17.9465 -2.6477 0.1243 0 7
10.8578 18.1245 -2.6477 0.1243 0 7
10.5634 18.2977 -2.6477 0.1243 0 7
10.2661 18.4661 -2.6477 0.1243 0 6
9.9662 18.6296 -2.6477 0.1243 0 7
9.6637 18.7884 -2.6477 0.1243 0 7
9.3586 18.9422 -2.6477 0.1243 0 7
8.9901 18.9623 -2.6298 0.9031 0 8
8.6186 18.9648 -2.6105 0.9097 0 8
8.2523 18.9672 -2.5921 0.9162 0 8
7.8910 18.9694 -2.5747 0.9224 0 8
7.5344 18.9715 -2.5581 0.9284 0 8
7.1822 18.9735 -2.5423 0.9341 0 8
6.8342 18.9753 -2.5274 0.9396 0 8
6.4901 18.9769 -2.5133 0.9449 0 8
6.1567 19.0000 -2.5029 0.1243 0 8
5.8487 19.0971 -2.5029 0.1243 0 8
5.5392 19.1891 -2.5029 0.1243 0 14
5.2282 19.2762 -2.5029 0.1243 0 14
4.9158 19.3582 -2.5029 0.1243 0 14
4.6022 19.4351 -2.5029 0.1243 0 14
4.2873 19.5070 -2.5029 0.1243 0 14
3.9714 19.5738 -2.5029 0.1243 0 14
3.6543 19.6354 -2.5029 0.1243 0 14
3.3364 19.6920 -2.5029 0.1243 0 14
3.0175 19.7433 -2.5029 0.1243 0 14
2.6979 19.7895 -2.5029 0.1243 0 14
2.3776 19.8306 -2.5029 0.1243 0 14
2.0566 19.8664 -2.5029 0.1243 0 14
1.7352 19.8971 -2.5029 0.1243 0 14
1.4132 19.9225 -2.5029 0.1243 0 14
1.0909 19.9428 -2.5029 0.1243 0 14
0.7683 19.9578 -2.5029 0.1243 0 14
0.4455 19.9676 -2.5029 0.1243 0 14
0.1226 19.9722 -2.5029 0.1243 0 14
-0.2003 19.9716 -2.5029 0.1243 0 14
-0.5232 19.9657 -2.5029 0.1243 0 14
-0.8460 19.9547 -2.5029 0.1243 0 14
-1.1685 19.9384 -2.5029 0.1243 0 14
-1.4908 19.9169 -2.5029 0.1243 0 14
-1.8126 19.8902 -2.5029 0.1243 0 14
-2.1340 19.8583 -2.5029 0.1243 0 14
-2.4548 19.8212 -2.5029 0.1243 0 14
-2.7749 19.7789 -2.5029 0.1243 0 14
-3.0944 19.7314 -2.5029 0.1243 0 14
-3.4130 19.6788 -2.5029 0.1243 0 14
-3.7307 19.6211 -2.5029 0.1243 0 14
-4.0475 19.5582 -2.5029 0.1243 0 14
-4.3632 19.4902 -2.5029 0.1243 0 14
-4.6778 19.4171 -2.5029 0.1243 0 14
-4.9911 19.3389 -2.5029 0.1243 0 14
-5.3032 19.2557 -2.5029 0.1243 0 14
-5.6138 19.1674 -2.5029 0.1243 0 14
-5.9230 19.0741 -2.5029 0.1243 0 8
-6.2306 18.9759 -2.5029 0.1243 0 8
-6.5603 18.9409 -2.5119 0.9454 0 8
15.8406 11.8678 -2.6477 0.1326 0 7
15.6467 12.1224 -2.6477 0.1326 0 7
15.4486 12.3738 -2.6477 0.1326 0 7
15.2465 12.6220 -2.6477 0.1326 0 7
15.0404 12.8668 -2.6477 0.1326 0 7
14.8304 13.1083 -2.6477 0.1326 0 7
14.6165 13.3464 -2.6477 0.1326 0 7
14.3988 13.5810 -2.6477 0.1326 0 7
14.1774 13.8120 -2.6477 0.1326 0 7
13.9522 14.0395 -2.6477 0.1326 0 7
13.7233 14.2632 -2.6477 0.1326 0 7
13.4909 14.4832 -2.6477 0.1326 0 7
13.2550 14.6995 -2.6477 0.1326 0 7
13.0156 14.9119 -2.6477 0.1326 0 6
12.7728 15.1204 -2.6477 0.1326 0 7
12.5266 15.3249 -2.6477 0.1326 0 7
12.2772 15.5255 -2.6477 0.1326 0 7
12.0246 15.7220 -2.6477 0.1326 0 7
11.7688 15.9143 -2.6477 0.1326 0 7
11.5099 16.1025 -2.6477 0.1326 0 7
11.2481 16.2865 -2.6477 0.1326 0 7
10.9833 16.4663 -2.6477 0.1326 0 7
10.7156 16.6417 -2.6477 0.1326 0 7
10.4451 16.8128 -2.6477 0.1326 0 7
10.1719 16.9795 -2.6477 0.1326 0 7
9.8960 17.1417 -2.6477 0.1326 0 7
9.6176 17.2995 -2.6477 0.1326 0 7
9.3366 17.4527 -2.6477 0.1326 0 7
9.0532 17.6014 -2.6477 0.1326 0 7
8.7674 17.7455 -2.6477 0.1326 0 7
8.4793 17.8849 -2.6477 0.1326 0 7
8.1890 18.0197 -2.6477 0.1326 0 7
7.8966 18.1497 -2.6477 0.1326 0 7
7.6021 18.2750 -2.6477 0.1326 0 7
7.3056 18.3956 -2.6477 0.1326 0 6
7.0073 18.5113 -2.6477 0.1326 0 6
6.7070 18.6222 -2.6477 0.1326 0 7
6.4051 18.7282 -2.6477 0.1326 0 7
6.1014 18.8293 -2.6477 0.1326 0 7
5.7962 18.9255 -2.6477 0.1326 0 7
5.4704 18.9509 -2.6385 0.9598 0 8
5.1403 18.9522 -2.6268 0.9640 0 8
4.8130 18.9533 -2.6158 0.9681 0 8
4.4883 18.9543 -2.6056 0.9719 0 8
4.1660 18.9551 -2.5961 0.9754 0 8
3.8460 18.9559 -2.5873 0.9787 0 8
3.5280 18.9565 -2.5793 0.9818 0 8
3.2119 18.9569 -2.5720 0.9846 0 8
2.8974 18.9573 -2.5653 0.9871 0 8
2.5845 18.9575 -2.5593 0.9894 0 8
2.2729 18.9576 -2.5541 0.9915 0 8
1.9626 18.9576 -2.5495 0.9933 0 8
1.6532 18.9575 -2.5455 0.9948 0 8
1.3447 18.9573 -2.5422 0.9961 0 8
1.0370 18.9569 -2.5396 0.9971 0 8
0.7298 18.9564 -2.5376 0.9979 0 8
0.4229 18.9558 -2.5363 0.9984 0 8
0.1164 18.9551 -2.5356 0.9987 0 8
-0.1902 18.9563 -2.5359 0.9969 0 8
-0.4967 18.9548 -2.5364 0.9985 0 8
-0.8035 18.9530 -2.5376 0.9981 0 8
-1.1107 18.9510 -2.5394 0.9974 0 8
-1.4184 18.9496 -2.5419 0.9962 0 8
-1.7268 18.9482 -2.5451 0.9950 0 8
-2.0360 18.9466 -2.5490 0.9935 0 8
-2.3462 18.9449 -2.5536 0.9917 0 8
-2.6577 18.9431 -2.5588 0.9897 0 8
-2.9704 18.9411 -2.5647 0.9874 0 8
-3.2847 18.9390 -2.5712 0.9849 0 8
-3.6006 18.9368 -2.5785 0.9821 0 8
-3.9184 18.9344 -2.5865 0.9791 0 8
-4.2383 18.9319 -2.5952 0.9758 0 8
-4.5603 18.9293 -2.6046 0.9723 0 8
-4.8847 18.9265 -2.6147 0.9685 0 8
-5.2117 18.9236 -2.6256 0.9645 0 8
-5.5415 18.9205 -2.6373 0.9602 0 8
-5.8698 18.9028 -2.6477 0.1326 0 7
-6.1747 18.8054 -2.6477 0.1326 0 7
-6.4779 18.7031 -2.6477 0.1326 0 7
14.8974 11.1611 -2.6477 0.1408 0 7
14.7150 11.4005 -2.6477 0.1408 0 7
14.5287 11.6370 -2.6477 0.1408 0 7
14.3387 11.8704 -2.6477 0.1408 0 7
14.1448 12.1007 -2.6477 0.1408 0 7
13.9473 12.3278 -2.6477 0.1408 0 7
13.7462 12.5517 -2.6477 0.1408 0 7
13.5414 12.7723 -2.6477 0.1408 0 7
13.3332 12.9896 -2.6477 0.1408 0 7
13.1214 13.2035 -2.6477 0.1408 0 7
12.9062 13.4139 -2.6477 0.1408 0 7
12.6876 13.6208 -2.6477 0.1408 0 7
12.4657 13.8242 -2.6477 0.1408 0 7
12.2406 14.0240 -2.6477 0.1408 0 7
12.0122 14.2200 -2.6477 0.1408 0 7
11.7807 14.4124 -2.6477 0.1408 0 7
11.5461 14.6010 -2.6477 0.1408 0 7
11.3085 14.7858 -2.6477 0.1408 0 7
11.0680 14.9667 -2.6477 0.1408 0 7
10.8246 15.1437 -2.6477 0.1408 0 7
10.5783 15.3167 -2.6477 0.1408 0 7
10.3293 15.4858 -2.6477 0.1408 0 7
10.0775 15.6508 -2.6477 0.1408 0 7
9.8231 15.8117 -2.6477 0.1408 0 7
9.5662 15.9684 -2.6477 0.1408 0 7
9.3068 16.1210 -2.6477 0.1408 0 7
9.0449 16.2694 -2.6477 0.1408 0 7
8.7806 16.4135 -2.6477 0.1408 0 7
8.5141 16.5533 -2.6477 0.1408 0 7
8.2453 16.6888 -2.6477 0.1408 0 7
7.9744 16.8200 -2.6477 0.1408 0 7
7.7014 16.9467 -2.6477 0.1408 0 7
7.4264 17.0690 -2.6477 0.1408 0 7
7.1494 17.1869 -2.6477 0.1408 0 7
6.8706 17.3002 -2.6477 0.1408 0 7
6.5900 17.4090 -2.6477 0.1408 0 7
6.3077 17.5133 -2.6477 0.1408 0 7
6.0237 17.6130 -2.6477 0.1408 0 7
5.7381 17.7081 -2.6477 0.1408 0 7
5.4510 17.7986 -2.6477 0.1408 0 7
5.1625 17.8844 -2.6477 0.1408 0 7
4.8727 17.9655 -2.6477 0.1408 0 7
4.5816 18.0420 -2.6477 0.1408 0 7
4.2892 18.1137 -2.6477 0.1408 0 7
3.9958 18.1807 -2.6477 0.1408 0 7
3.7013 18.2429 -2.6477 0.1408 0 7
3.4059 18.3004 -2.6477 0.1408 0 7
3.1095 18.3530 -2.6477 0.1408 0 7
2.8124 18.4009 -2.6477 0.1408 0 6
2.5146 18.4440 -2.6477 0.1408 0 6
2.2159 18.4822 -2.6477 0.1408 0 6
1.9168 18.5156 -2.6477 0.1408 0 7
1.6172 18.5442 -2.6477 0.1408 0 7
1.3171 18.5679 -2.6477 0.1408 0 7
1.0167 18.5868 -2.6477 0.1408 0 7
0.7161 18.6008 -2.6477 0.1408 0 7
0.4151 18.6099 -2.6477 0.1408 0 7
0.1142 18.6142 -2.6477 0.1408 0 7
-0.1867 18.6136 -2.6477 0.1408 0 7
-0.4877 18.6082 -2.6477 0.1408 0 7
-0.7885 18.5979 -2.6477 0.1408 0 7
-1.0891 18.5827 -2.6477 0.1408 0 7
-1.3894 18.5627 -2.6477 0.1408 0 7
-1.6893 18.5378 -2.6477 0.1408 0 7
-1.9888 18.5080 -2.6477 0.1408 0 7
-2.2879 18.4735 -2.6477 0.1408 0 6
-2.5862 18.4340 -2.6477 0.1408 0 6
-2.8839 18.3898 -2.6477 0.1408 0 6
-3.1810 18.3408 -2.6477 0.1408 0 7
-3.4771 18.2870 -2.6477 0.1408 0 7
-3.7723 18.2283 -2.6477 0.1408 0 7
-4.0665 18.1650 -2.6477 0.1408 0 7
-4.3597 18.0968 -2.6477 0.1408 0 7
-4.6518 18.0240 -2.6477 0.1408 0 7
-4.9426 17.9464 -2.6477 0.1408 0 7
-5.2321 17.8641 -2.6477 0.1408 0 7
-5.5203 17.7772 -2.6477 0.1408 0 7
-5.8070 17.6856 -2.6477 0.1408 0 7
-6.0922 17.5894 -2.6477 0.1408 0 7
14.0583 10.5325 -2.6477 0.1490 0 7
13.8862 10.7584 -2.6477 0.1490 0 7
13.7104 10.9816 -2.6477 0.1490 0 7
13.5310 11.2018 -2.6477 0.1490 0 7
13.3481 11.4191 -2.6477 0.1490 0 6
13.1618 11.6335 -2.6477 0.1490 0 7
12.9719 11.8447 -2.6477 0.1490 0 7
12.7787 12.0529 -2.6477 0.1490 0 7
12.5822 12.2580 -2.6477 0.1490 0 7
12.3823 12.4598 -2.6477 0.1490 0 7
12.1793 12.6584 -2.6477 0.1490 0 7
11.9730 12.8537 -2.6477 0.1490 0 7
11.7636 13.0456 -2.6477 0.1490 0 7
11.5511 13.2341 -2.6477 0.1490 0 7
11.3356 13.4191 -2.6477 0.1490 0 7
11.1172 13.6006 -2.6477 0.1490 0 7
10.8958 13.7786 -2.6477 0.1490 0 7
10.6716 13.9530 -2.6477 0.1490 0 7
10.4446 14.1237 -2.6477 0.1490 0 7
10.2149 14.2907 -2.6477 0.1490 0 7
9.9825 14.4540 -2.6477 0.1490 0 7
9.7475 14.6136 -2.6477 0.1490 0 7
9.5099 14.7693 -2.6477 0.1490 0 7
9.2699 14.9211 -2.6477 0.1490 0 7
9.0274 15.0690 -2.6477 0.1490 0 7
8.7826 15.2130 -2.6477 0.1490 0 7
8.5354 15.3530 -2.6477 0.1490 0 7
8.2861 15.4890 -2.6477 0.1490 0 7
8.0346 15.6210 -2.6477 0.1490 0 7
7.7809 15.7489 -2.6477 0.1490 0 7
7.5253 15.8726 -2.6477 0.1490 0 7
7.2676 15.9922 -2.6477 0.1490 0 7
7.0081 16.1076 -2.6477 0.1490 0 7
6.7468 16.2188 -2.6477 0.1490 0 7
6.4836 16.3258 -2.6477 0.1490 0 7
6.2188 16.4285 -2.6477 0.1490 0 7
5.9524 16.5269 -2.6477 0.1490 0 7
5.6844 16.6210 -2.6477 0.1490 0 7
5.4149 16.7107 -2.6477 0.1490 0 7
5.1440 16.7961 -2.6477 0.1490 0 7
4.8718 16.8771 -2.6477 0.1490 0 7
4.5982 16.9536 -2.6477 0.1490 0 7
4.3235 17.0258 -2.6477 0.1490 0 7
4.0477 17.0934 -2.6477 0.1490 0 7
3.7708 17.1567 -2.6477 0.1490 0 7
3.4929 17.2154 -2.6477 0.1490 0 7
3.2140 17.2696 -2.6477 0.1490 0 7
2.9344 17.3193 -2.6477 0.1490 0 7
2.6540 17.3645 -2.6477 0.1490 0 7
2.3729 17.4051 -2.6477 0.1490 0 7
2.0911 17.4412 -2.6477 0.1490 0 7
1.8088 17.4728 -2.6477 0.1490 0 7
1.5261 17.4997 -2.6477 0.1490 0 7
1.2429 17.5221 -2.6477 0.1490 0 7
0.9595 17.5399 -2.6477 0.1490 0 7
0.6757 17.5531 -2.6477 0.1490 0 7
0.3918 17.5618 -2.6477 0.1490 0 7
0.1078 17.5658 -2.6477 0.1490 0 7
-0.1762 17.5653 -2.6477 0.1490 0 7
-0.4602 17.5601 -2.6477 0.1490 0 7
-0.7441 17.5504 -2.6477 0.1490 0 7
-1.0277 17.5361 -2.6477 0.1490 0 7
-1.3111 17.5171 -2.6477 0.1490 0 7
-1.5942 17.4937 -2.6477 0.1490 0 7
-1.8768 17.4656 -2.6477 0.1490 0 7
-2.1590 17.4330 -2.6477 0.1490 0 7
-2.4406 17.3958 -2.6477 0.1490 0 7
-2.7215 17.3540 -2.6477 0.1490 0 7
-3.0018 17.3078 -2.6477 0.1490 0 7
-3.2812 17.2570 -2.6477 0.1490 0 7
-3.5598 17.2017 -2.6477 0.1490 0 7
-3.8375 17.1418 -2.6477 0.1490 0 7
-4.1142 17.0776 -2.6477 0.1490 0 7
-4.3898 17.0088 -2.6477 0.1490 0 7
-4.6642 16.9356 -2.6477 0.1490 0 7
-4.9374 16.8580 -2.6477 0.1490 0 7
-5.2093 16.7759 -2.6477 0.1490 0 7
-5.4799 16.6895 -2.6477 0.1490 0 7
-5.7490 16.5987 -2.6477 0.1490 0 7
13.3069 9.9696 -2.6477 0.1573 0 7
13.1440 10.1834 -2.6477 0.1573 0 7
12.9776 10.3946 -2.6477 0.1573 0 7
12.8079 10.6031 -2.6477 0.1573 0 7
12.6347 10.8088 -2.6477 0.1573 0 7
12.4583 11.0117 -2.6477 0.1573 0 7
12.2786 11.2117 -2.6477 0.1573 0 7
12.0958 11.4087 -2.6477 0.1573 0 6
11.9097 11.6028 -2.6477 0.1573 0 7
11.7205 11.7939 -2.6477 0.1573 0 7
11.5283 11.9818 -2.6477 0.1573 0 7
11.3331 12.1667 -2.6477 0.1573 0 7
11.1349 12.3483 -2.6477 0.1573 0 7
10.9338 12.5268 -2.6477 0.1573 0 7
10.7298 12.7019 -2.6477 0.1573 0 7
10.5230 12.8737 -2.6477 0.1573 0 7
10.3135 13.0422 -2.6477 0.1573 0 7
10.1012 13.2073 -2.6477 0.1573 0 7
9.8864 13.3688 -2.6477 0.1573 0 7
9.6689 13.5270 -2.6477 0.1573 0 7
9.4490 13.6815 -2.6477 0.1573 0 7
9.2265 13.8325 -2.6477 0.1573 0 7
9.0016 13.9799 -2.6477 0.1573 0 7
8.7744 14.1236 -2.6477 0.1573 0 7
8.5449 14.2636 -2.6477 0.1573 0 7
8.3132 14.3999 -2.6477 0.1573 0 7
8.0793 14.5325 -2.6477 0.1573 0 7
7.8432 14.6612 -2.6477 0.1573 0 7
7.6051 14.7861 -2.6477 0.1573 0 7
7.3650 14.9071 -2.6477 0.1573 0 6
7.1231 15.0243 -2.6477 0.1573 0 7
6.8792 15.1375 -2.6477 0.1573 0 7
6.6336 15.2467 -2.6477 0.1573 0 7
6.3862 15.3520 -2.6477 0.1573 0 7
6.1371 15.4532 -2.6477 0.1573 0 7
5.8864 15.5505 -2.6477 0.1573 0 7
5.6342 15.6436 -2.6477 0.1573 0 7
5.3806 15.7326 -2.6477 0.1573 0 7
5.1255 15.8176 -2.6477 0.1573 0 7
4.8691 15.8984 -2.6477 0.1573 0 7
4.6114 15.9750 -2.6477 0.1573 0 7
4.3525 16.0475 -2.6477 0.1573 0 7
4.0924 16.1158 -2.6477 0.1573 0 7
3.8313 16.1799 -2.6477 0.1573 0 7
3.5692 16.2397 -2.6477 0.1573 0 7
3.3062 16.2953 -2.6477 0.1573 0 7
3.0423 16.3466 -2.6477 0.1573 0 7
2.7776 16.3937 -2.6477 0.1573 0 7
2.5121 16.4364 -2.6477 0.1573 0 7
2.2460 16.4749 -2.6477 0.1573 0 7
1.9794 16.5091 -2.6477 0.1573 0 7
1.7122 16.5389 -2.6477 0.1573 0 7
1.4445 16.5644 -2.6477 0.1573 0 7
1.1765 16.5856 -2.6477 0.1573 0 7
0.9082 16.6025 -2.6477 0.1573 0 7
0.6396 16.6150 -2.6477 0.1573 0 7
0.3709 16.6232 -2.6477 0.1573 0 7
0.1021 16.6270 -2.6477 0.1573 0 7
-0.1668 16.6265 -2.6477 0.1573 0 7
-0.4356 16.6216 -2.6477 0.1573 0 7
-0.7043 16.6124 -2.6477 0.1573 0 7
-0.9728 16.5988 -2.6477 0.1573 0 7
-1.2411 16.5809 -2.6477 0.1573 0 7
-1.5090 16.5587 -2.6477 0.1573 0 7
-1.7765 16.5321 -2.6477 0.1573 0 7
-2.0436 16.5012 -2.6477 0.1573 0 7
-2.3102 16.4660 -2.6477 0.1573 0 7
-2.5761 16.4265 -2.6477 0.1573 0 7
-2.8414 16.3827 -2.6477 0.1573 0 7
-3.1059 16.3346 -2.6477 0.1573 0 7
-3.3696 16.2823 -2.6477 0.1573 0 7
-3.6324 16.2257 -2.6477 0.1573 0 7
-3.8943 16.1648 -2.6477 0.1573 0 7
-4.1551 16.0997 -2.6477 0.1573 0 7
-4.4149 16.0305 -2.6477 0.1573 0 7
-4.6735 15.9570 -2.6477 0.1573 0 7
-4.9309 15.8793 -2.6477 0.1573 0 7
-5.1870 15.7975 -2.6477 0.1573 0 7
-5.4418 15.7116 -2.6477 0.1573 0 7
12.6301 9.4625 -2.6477 0.1655 0 7
12.4755 9.6655 -2.6477 0.1655 0 7
12.3175 9.8659 -2.6477 0.1655 0 7
12.1564 10.0638 -2.6477 0.1655 0 7
11.9921 10.2590 -2.6477 0.1655 0 7
11.8246 10.4516 -2.6477 0.1655 0 7
11.6541 10.6414 -2.6477 0.1655 0 7
11.4805 10.8285 -2.6477 0.1655 0 7
11.3039 11.0127 -2.6477 0.1655 0 7
11.1244 11.1940 -2.6477 0.1655 0 7
10.9420 11.3724 -2.6477 0.1655 0 7
10.7566 11.5478 -2.6477 0.1655 0 7
10.5685 11.7203 -2.6477 0.1655 0 7
10.3776 11.8896 -2.6477 0.1655 0 7
10.1840 12.0558 -2.6477 0.1655 0 7
9.9878 12.2189 -2.6477 0.1655 0 7
9.7889 12.3788 -2.6477 0.1655 0 7
9.5875 12.5355 -2.6477 0.1655 0 7
9.3835 12.6889 -2.6477 0.1655 0 7
9.1771 12.8389 -2.6477 0.1655 0 7
8.9684 12.9856 -2.6477 0.1655 0 7
8.7572 13.1289 -2.6477 0.1655 0 7
8.5438 13.2688 -2.6477 0.1655 0 7
8.3281 13.4052 -2.6477 0.1655 0 7
8.1103 13.5381 -2.6477 0.1655 0 7
7.8903 13.6675 -2.6477 0.1655 0 7
7.6683 13.7933 -2.6477 0.1655 0 7
7.4443 13.9155 -2.6477 0.1655 0 7
7.2183 14.0340 -2.6477 0.1655 0 7
6.9905 14.1489 -2.6477 0.1655 0 7
6.7608 14.2601 -2.6477 0.1655 0 7
6.5293 14.3675 -2.6477 0.1655 0 7
6.2962 14.4712 -2.6477 0.1655 0 7
6.0614 14.5711 -2.6477 0.1655 0 7
5.8250 14.6672 -2.6477 0.1655 0 7
5.5870 14.7595 -2.6477 0.1655 0 7
5.3477 14.8479 -2.6477 0.1655 0 7
5.1068 14.9324 -2.6477 0.1655 0 7
4.8648 15.0131 -2.6477 0.1655 0 7
4.6214 15.0898 -2.6477 0.1655 0 7
4.3768 15.1625 -2.6477 0.1655 0 7
4.1311 15.2313 -2.6477 0.1655 0 7
3.8843 15.2961 -2.6477 0.1655 0 7
3.6365 15.3569 -2.6477 0.1655 0 7
3.3877 15.4137 -2.6477 0.1655 0 7
3.1380 15.4664 -2.6477 0.1655 0 7
2.8875 15.5152 -2.6477 0.1655 0 7
2.6363 15.5598 -2.6477 0.1655 0 7
2.3843 15.6004 -2.6477 0.1655 0 7
2.1318 15.6369 -2.6477 0.1655 0 7
1.8787 15.6693 -2.6477 0.1655 0 7
1.6251 15.6977 -2.6477 0.1655 0 7
1.3711 15.7219 -2.6477 0.1655 0 7
1.1167 15.7420 -2.6477 0.1655 0 7
0.8620 15.7580 -2.6477 0.1655 0 7
0.6071 15.7699 -2.6477 0.1655 0 7
0.3520 15.7776 -2.6477 0.1655 0 7
0.0969 15.7813 -2.6477 0.1655 0 7
-0.1583 15.7808 -2.6477 0.1655 0 7
-0.4134 15.7762 -2.6477 0.1655 0 7
-0.6685 15.7674 -2.6477 0.1655 0 7
-0.9233 15.7545 -2.6477 0.1655 0 7
-1.1779 15.7375 -2.6477 0.1655 0 7
-1.4322 15.7164 -2.6477 0.1655 0 7
-1.6862 15.6912 -2.6477 0.1655 0 7
-1.9397 15.6619 -2.6477 0.1655 0 7
-2.1926 15.6285 -2.6477 0.1655 0 7
-2.4451 15.5910 -2.6477 0.1655 0 7
-2.6968 15.5494 -2.6477 0.1655 0 7
-2.9479 15.5038 -2.6477 0.1655 0 7
-3.1982 15.4541 -2.6477 0.1655 0 7
-3.4476 15.4004 -2.6477 0.1655 0 7
-3.6962 15.3426 -2.6477 0.1655 0 7
-3.9438 15.2809 -2.6477 0.1655 0 7
-4.1903 15.2151 -2.6477 0.1655 0 7
-4.4358 15.1453 -2.6477 0.1655 0 7
-4.6801 15.0717 -2.6477 0.1655 0 7
-4.9232 14.9940 -2.6477 0.1655 0 7
-5.1650 14.9124 -2.6477 0.1655 0 7
12.0172 9.0033 -2.6477 0.1736 0 7
11.8700 9.1964 -2.6477 0.1736 0 7
11.7198 9.3871 -2.6477 0.1736 0 7
11.5665 9.5754 -2.6477 0.1736 0 7
11.4101 9.7612 -2.6477 0.1736 0 7
11.2508 9.9444 -2.6477 0.1736 0 7
11.0885 10.1250 -2.6477 0.1736 0 7
10.9234 10.3030 -2.6477 0.1736 0 7
10.7554 10.4782 -2.6477 0.1736 0 7
10.5845 10.6508 -2.6477 0.1736 0 7
10.4109 10.8205 -2.6477 0.1736 0 7
10.2346 10.9874 -2.6477 0.1736 0 7
10.0556 11.1515 -2.6477 0.1736 0 7
9.8740 11.3126 -2.6477 0.1736 0 7
9.6898 11.4708 -2.6477 0.1736 0 6
9.5031 11.6260 -2.6477 0.1736 0 7
9.3138 11.7781 -2.6477 0.1736 0 7
9.1222 11.9271 -2.6477 0.1736 0 7
8.9282 12.0731 -2.6477 0.1736 0 7
8.7318 12.2159 -2.6477 0.1736 0 7
8.5331 12.3554 -2.6477 0.1736 0 7
8.3322 12.4918 -2.6477 0.1736 0 7
8.1292 12.6249 -2.6477 0.1736 0 7
7.9240 12.7547 -2.6477 0.1736 0 7
7.7167 12.8811 -2.6477 0.1736 0 7
7.5074 13.0042 -2.6477 0.1736 0 7
7.2962 13.1239 -2.6477 0.1736 0 7
7.0830 13.2402 -2.6477 0.1736 0 7
6.8680 13.3530 -2.6477 0.1736 0 7
6.6512 13.4623 -2.6477 0.1736 0 7
6.4327 13.5680 -2.6477 0.1736 0 7
6.2124 13.6703 -2.6477 0.1736 0 7
5.9906 13.7689 -2.6477 0.1736 0 7
5.7672 13.8640 -2.6477 0.1736 0 7
5.5423 13.9554 -2.6477 0.1736 0 7
5.3159 14.0432 -2.6477 0.1736 0 7
5.0881 14.1273 -2.6477 0.1736 0 7
4.8591 14.2078 -2.6477 0.1736 0 7
4.6287 14.2845 -2.6477 0.1736 0 7
4.3971 14.3574 -2.6477 0.1736 0 7
4.1644 14.4267 -2.6477 0.1736 0 7
3.9306 14.4921 -2.6477 0.1736 0 7
3.6958 14.5538 -2.6477 0.1736 0 7
3.4600 14.6116 -2.6477 0.1736 0 7
3.2233 14.6657 -2.6477 0.1736 0 7
2.9857 14.7159 -2.6477 0.1736 0 7
2.7474 14.7622 -2.6477 0.1736 0 7
2.5083 14.8047 -2.6477 0.1736 0 7
2.2686 14.8433 -2.6477 0.1736 0 7
2.0283 14.8781 -2.6477 0.1736 0 7
1.7875 14.9089 -2.6477 0.1736 0 7
1.5462 14.9359 -2.6477 0.1736 0 7
1.3045 14.9589 -2.6477 0.1736 0 7
1.0625 14.9781 -2.6477 0.1736 0 7
0.8202 14.9933 -2.6477 0.1736 0 7
0.5776 15.0046 -2.6477 0.1736 0 7
0.3349 15.0120 -2.6477 0.1736 0 7
0.0922 15.0154 -2.6477 0.1736 0 7
-0.1506 15.0149 -2.6477 0.1736 0 7
-0.3934 15.0105 -2.6477 0.1736 0 7
-0.6360 15.0022 -2.6477 0.1736 0 7
-0.8785 14.9900 -2.6477 0.1736 0 6
-1.1208 14.9738 -2.6477 0.1736 0 6
-1.3628 14.9537 -2.6477 0.1736 0 6
-1.6043 14.9297 -2.6477 0.1736 0 6
-1.8455 14.9018 -2.6477 0.1736 0 7
-2.0862 14.8700 -2.6477 0.1736 0 7
-2.3264 14.8344 -2.6477 0.1736 0 7
-2.5660 14.7948 -2.6477 0.1736 0 7
-2.8048 14.7514 -2.6477 0.1736 0 7
-3.0430 14.7041 -2.6477 0.1736 0 7
-3.2803 14.6530 -2.6477 0.1736 0 7
-3.5168 14.5980 -2.6477 0.1736 0 7
-3.7524 14.5393 -2.6477 0.1736 0 7
-3.9870 14.4767 -2.6477 0.1736 0 7
-4.2205 14.4103 -2.6477 0.1736 0 7
-4.4530 14.3402 -2.6477 0.1736 0 7
-4.6843 14.2663 -2.6477 0.1736 0 7
-4.9143 14.1887 -2.6477 0.1736 0 7
10.7998 8.0912 -2.4953 0.1818 0 8
10.6676 8.2648 -2.4953 0.1818 0 8
10.5325 8.4362 -2.4953 0.1818 0 8
11.0296 9.1310 -2.6477 0.1818 0 7
10.8805 9.3081 -2.6477 0.1818 0 7
10.7286 9.4828 -2.6477 0.1818 0 7
10.5739 9.6551 -2.6477 0.1818 0 7
10.4164 9.8248 -2.6477 0.1818 0 7
10.2562 9.9919 -2.6477 0.1818 0 7
10.0933 10.1564 -2.6477 0.1818 0 7
9.9277 10.3183 -2.6477 0.1818 0 7
9.7596 10.4775 -2.6477 0.1818 0 7
9.5889 10.6339 -2.6477 0.1818 0 7
9.4157 10.7875 -2.6477 0.1818 0 7
9.2401 10.9384 -2.6477 0.1818 0 7
9.0620 11.0864 -2.6477 0.1818 0 7
8.8816 11.2314 -2.6477 0.1818 0 7
8.6988 11.3736 -2.6477 0.1818 0 7
8.5138 11.5127 -2.6477 0.1818 0 6
8.3265 11.6489 -2.6477 0.1818 0 7
8.1371 11.7820 -2.6477 0.1818 0 7
7.9455 11.9120 -2.6477 0.1818 0 7
7.7519 12.0389 -2.6477 0.1818 0 7
7.5562 12.1627 -2.6477 0.1818 0 7
7.3585 12.2833 -2.6477 0.1818 0 7
7.1590 12.4006 -2.6477 0.1818 0 7
6.9575 12.5148 -2.6477 0.1818 0 7
6.7543 12.6256 -2.6477 0.1818 0 7
6.5492 12.7332 -2.6477 0.1818 0 7
6.3425 12.8374 -2.6477 0.1818 0 7
6.1341 12.9383 -2.6477 0.1818 0 7
5.9241 13.0358 -2.6477 0.1818 0 7
5.7126 13.1299 -2.6477 0.1818 0 7
5.4995 13.2205 -2.6477 0.1818 0 7
5.2850 13.3077 -2.6477 0.1818 0 7
5.0692 13.3914 -2.6477 0.1818 0 7
4.8520 13.4716 -2.6477 0.1818 0 7
4.6335 13.5483 -2.6477 0.1818 0 7
4.4139 13.6215 -2.6477 0.1818 0 7
4.1931 13.6911 -2.6477 0.1818 0 7
3.9711 13.7571 -2.6477 0.1818 0 7
3.7482 13.8195 -2.6477 0.1818 0 7
3.5242 13.8783 -2.6477 0.1818 0 7
3.2994 13.9335 -2.6477 0.1818 0 7
3.0737 13.9850 -2.6477 0.1818 0 7
2.8471 14.0328 -2.6477 0.1818 0 7
2.6199 14.0770 -2.6477 0.1818 0 7
2.3919 14.1176 -2.6477 0.1818 0 7
2.1633 14.1544 -2.6477 0.1818 0 7
1.9342 14.1875 -2.6477 0.1818 0 7
1.7045 14.2170 -2.6477 0.1818 0 7
1.4744 14.2426 -2.6477 0.1818 0 7
1.2440 14.2646 -2.6477 0.1818 0 7
1.0132 14.2829 -2.6477 0.1818 0 7
0.7821 14.2974 -2.6477 0.1818 0 7
0.5508 14.3082 -2.6477 0.1818 0 7
0.3194 14.3152 -2.6477 0.1818 0 7
0.0879 14.3185 -2.6477 0.1818 0 7
-0.1436 14.3180 -2.6477 0.1818 0 7
-0.3751 14.3139 -2.6477 0.1818 0 7
-0.6065 14.3059 -2.6477 0.1818 0 7
-0.8377 14.2942 -2.6477 0.1818 0 7
-1.0688 14.2788 -2.6477 0.1818 0 7
-1.2995 14.2597 -2.6477 0.1818 0 7
-1.5299 14.2368 -2.6477 0.1818 0 7
-1.7599 14.2102 -2.6477 0.1818 0 7
-1.9894 14.1799 -2.6477 0.1818 0 7
-2.2184 14.1459 -2.6477 0.1818 0 7
-2.4469 14.1081 -2.6477 0.1818 0 7
-2.6746 14.0667 -2.6477 0.1818 0 7
-2.9017 14.0217 -2.6477 0.1818 0 7
-3.1281 13.9729 -2.6477 0.1818 0 7
-3.3536 13.9205 -2.6477 0.1818 0 7
-3.5782 13.8645 -2.6477 0.1818 0 7
-3.8019 13.8048 -2.6477 0.1818 0 7
-4.0247 13.7415 -2.6477 0.1818 0 7
-4.2463 13.6746 -2.6477 0.1818 0 7
-4.4669 13.6042 -2.6477 0.1818 0 7
-4.6862 13.5302 -2.6477 0.1818 0 7
10.3194 7.7313 -2.4953 0.1900 0 8
10.1930 7.8971 -2.4953 0.1900 0 8
10.0640 8.0609 -2.4953 0.1900 0 8
9.9323 8.2226 -2.4953 0.1900 0 8
9.7981 8.3821 -2.4953 0.1900 0 8
10.2513 9.0610 -2.6477 0.1900 0 7
10.1035 9.2255 -2.6477 0.1900 0 7
9.9530 9.3877 -2.6477 0.1900 0 7
9.7999 9.5474 -2.6477 0.1900 0 7
9.6443 9.7046 -2.6477 0.1900 0 7
9.4861 9.8593 -2.6477 0.1900 0 7
9.3254 10.0114 -2.6477 0.1900 0 7
9.1624 10.1608 -2.6477 0.1900 0 7
8.9969 10.3077 -2.6477 0.1900 0 7
8.8290 10.4518 -2.6477 0.1900 0 7
8.6589 10.5932 -2.6477 0.1900 0 7
8.4865 10.7318 -2.6477 0.1900 0 7
8.3118 10.8676 -2.6477 0.1900 0 7
8.1350 11.0006 -2.6477 0.1900 0 7
7.9561 11.1307 -2.6477 0.1900 0 7
7.7751 11.2579 -2.6477 0.1900 0 7
7.5920 11.3821 -2.6477 0.1900 0 7
7.4070 11.5034 -2.6477 0.1900 0 6
7.2200 11.6216 -2.6477 0.1900 0 7
7.0312 11.7368 -2.6477 0.1900 0 7
6.8405 11.8490 -2.6477 0.1900 0 7
6.6480 11.9581 -2.6477 0.1900 0 7
6.4538 12.0640 -2.6477 0.1900 0 7
6.2579 12.1668 -2.6477 0.1900 0 7
6.0604 12.2664 -2.6477 0.1900 0 7
5.8612 12.3627 -2.6477 0.1900 0 7
5.6606 12.4559 -2.6477 0.1900 0 7
5.4584 12.5458 -2.6477 0.1900 0 7
5.2549 12.6324 -2.6477 0.1900 0 7
5.0499 12.7157 -2.6477 0.1900 0 7
4.8437 12.7957 -2.6477 0.1900 0 7
4.6361 12.8723 -2.6477 0.1900 0 7
4.4274 12.9456 -2.6477 0.1900 0 7
4.2175 13.0155 -2.6477 0.1900 0 7
4.0065 13.0820 -2.6477 0.1900 0 7
3.7945 13.1451 -2.6477 0.1900 0 7
3.5814 13.2047 -2.6477 0.1900 0 7
3.3675 13.2609 -2.6477 0.1900 0 7
3.1526 13.3136 -2.6477 0.1900 0 7
2.9369 13.3629 -2.6477 0.1900 0 7
2.7205 13.4086 -2.6477 0.1900 0 7
2.5033 13.4508 -2.6477 0.1900 0 7
2.2855 13.4895 -2.6477 0.1900 0 7
2.0671 13.5247 -2.6477 0.1900 0 7
1.8482 13.5564 -2.6477 0.1900 0 7
1.6287 13.5845 -2.6477 0.1900 0 7
1.4089 13.6091 -2.6477 0.1900 0 7
1.1886 13.6301 -2.6477 0.1900 0 7
0.9681 13.6475 -2.6477 0.1900 0 7
0.7473 13.6614 -2.6477 0.1900 0 7
0.5263 13.6717 -2.6477 0.1900 0 7
0.3052 13.6784 -2.6477 0.1900 0 7
0.0840 13.6815 -2.6477 0.1900 0 7
-0.1372 13.6811 -2.6477 0.1900 0 7
-0.3584 13.6771 -2.6477 0.1900 0 7
-0.5795 13.6695 -2.6477 0.1900 0 7
-0.8005 13.6583 -2.6477 0.1900 0 7
-1.0212 13.6436 -2.6477 0.1900 0 7
-1.2417 13.6253 -2.6477 0.1900 0 7
-1.4618 13.6035 -2.6477 0.1900 0 7
-1.6816 13.5781 -2.6477 0.1900 0 7
-1.9009 13.5491 -2.6477 0.1900 0 7
-2.1197 13.5166 -2.6477 0.1900 0 7
-2.3380 13.4805 -2.6477 0.1900 0 7
-2.5557 13.4410 -2.6477 0.1900 0 7
-2.7727 13.3979 -2.6477 0.1900 0 7
-2.9889 13.3513 -2.6477 0.1900 0 7
-3.2044 13.3012 -2.6477 0.1900 0 7
-3.4191 13.2477 -2.6477 0.1900 0 7
-3.6328 13.1907 -2.6477 0.1900 0 7
-3.8456 13.1302 -2.6477 0.1900 0 7
-4.0574 13.0663 -2.6477 0.1900 0 7
-4.2682 12.9990 -2.6477 0.1900 0 7
-4.4778 12.9283 -2.6477 0.1900 0 7
9.8785 7.4010 -2.4953 0.1981 0 8
9.7575 7.5597 -2.4953 0.1981 0 8
9.6340 7.7165 -2.4953 0.1981 0 8
9.5080 7.8713 -2.4953 0.1981 0 8
9.3795 8.0240 -2.4953 0.1981 0 8
9.2485 8.1746 -2.4953 0.1981 0 8
9.1151 8.3231 -2.4953 0.1981 0 8
8.9794 8.4694 -2.4953 0.1981 0 8
9.3812 9.1395 -2.6477 0.1981 0 7
9.2322 9.2900 -2.6477 0.1981 0 7
9.0808 9.4381 -2.6477 0.1981 0 7
8.9270 9.5837 -2.6477 0.1981 0 7
8.7709 9.7267 -2.6477 0.1981 0 7
8.6125 9.8673 -2.6477 0.1981 0 7
8.4518 10.0053 -2.6477 0.1981 0 7
8.2889 10.1406 -2.6477 0.1981 0 7
8.1239 10.2733 -2.6477 0.1981 0 7
7.9567 10.4033 -2.6477 0.1981 0 7
7.7875 10.5306 -2.6477 0.1981 0 7
7.6162 10.6551 -2.6477 0.1981 0 7
7.4429 10.7769 -2.6477 0.1981 0 7
7.2677 10.8958 -2.6477 0.1981 0 7
7.0906 11.0119 -2.6477 0.1981 0 7
6.9116 11.1251 -2.6477 0.1981 0 7
6.7308 11.2354 -2.6477 0.1981 0 7
6.5483 11.3428 -2.6477 0.1981 0 7
6.3640 11.4472 -2.6477 0.1981 0 6
6.1781 11.5486 -2.6477 0.1981 0 7
5.9905 11.6470 -2.6477 0.1981 0 7
5.8014 11.7423 -2.6477 0.1981 0 7
5.6108 11.8346 -2.6477 0.1981 0 7
5.4187 11.9237 -2.6477 0.1981 0 7
5.2252 12.0098 -2.6477 0.1981 0 7
5.0304 12.0927 -2.6477 0.1981 0 7
4.8342 12.1725 -2.6477 0.1981 0 7
4.6367 12.2490 -2.6477 0.1981 0 7
4.4381 12.3224 -2.6477 0.1981 0 7
4.2383 12.3926 -2.6477 0.1981 0 7
4.0373 12.4595 -2.6477 0.1981 0 7
3.8354 12.5231 -2.6477 0.1981 0 7
3.6324 12.5835 -2.6477 0.1981 0 7
3.4284 12.6406 -2.6477 0.1981 0 7
3.2236 12.6944 -2.6477 0.1981 0 7
3.0179 12.7448 -2.6477 0.1981 0 7
2.8115 12.7920 -2.6477 0.1981 0 7
2.6043 12.8357 -2.6477 0.1981 0 7
2.3964 12.8762 -2.6477 0.1981 0 7
2.1879 12.9132 -2.6477 0.1981 0 7
1.9788 12.9469 -2.6477 0.1981 0 7
1.7692 12.9772 -2.6477 0.1981 0 7
1.5591 13.0041 -2.6477 0.1981 0 7
1.3487 13.0276 -2.6477 0.1981 0 7
1.1379 13.0478 -2.6477 0.1981 0 7
0.9267 13.0644 -2.6477 0.1981 0 7
0.7154 13.0777 -2.6477 0.1981 0 7
0.5038 13.0876 -2.6477 0.1981 0 7
0.2921 13.0940 -2.6477 0.1981 0 7
0.0804 13.0970 -2.6477 0.1981 0 7
-0.1314 13.0966 -2.6477 0.1981 0 7
-0.3431 13.0928 -2.6477 0.1981 0 7
-0.5548 13.0855 -2.6477 0.1981 0 7
-0.7663 13.0748 -2.6477 0.1981 0 7
-0.9776 13.0607 -2.6477 0.1981 0 7
-1.1886 13.0432 -2.6477 0.1981 0 7
-1.3994 13.0223 -2.6477 0.1981 0 7
-1.6097 12.9980 -2.6477 0.1981 0 7
-1.8197 12.9702 -2.6477 0.1981 0 7
-2.0292 12.9391 -2.6477 0.1981 0 7
-2.2381 12.9046 -2.6477 0.1981 0 7
-2.4465 12.8668 -2.6477 0.1981 0 7
-2.6542 12.8255 -2.6477 0.1981 0 7
-2.8612 12.7809 -2.6477 0.1981 0 7
-3.0675 12.7330 -2.6477 0.1981 0 7
-3.2730 12.6817 -2.6477 0.1981 0 7
-3.4776 12.6271 -2.6477 0.1981 0 7
-3.6813 12.5693 -2.6477 0.1981 0 7
-3.8841 12.5081 -2.6477 0.1981 0 7
-4.0858 12.4437 -2.6477 0.1981 0 7
-4.2865 12.3760 -2.6477 0.1981 0 7
9.4725 7.0968 -2.4953 0.2063 0 8
9.3565 7.2490 -2.4953 0.2063 0 8
9.2380 7.3994 -2.4953 0.2063 0 8
9.1172 7.5478 -2.4953 0.2063 0 8
8.9940 7.6942 -2.4953 0.2063 0 8
8.8684 7.8386 -2.4953 0.2063 0 8
8.7405 7.9810 -2.4953 0.2063 0 8
8.6103 8.1212 -2.4953 0.2063 0 8
8.4779 8.2594 -2.4953 0.2063 0 8
8.3432 8.3954 -2.4953 0.2063 0 8
8.7076 9.0501 -2.6477 0.2063 0 7
8.5601 9.1897 -2.6477 0.2063 0 7
8.4104 9.3269 -2.6477 0.2063 0 7
8.2585 9.4617 -2.6477 0.2063 0 7
8.1044 9.5940 -2.6477 0.2063 0 7
7.9482 9.7238 -2.6477 0.2063 0 7
7.7900 9.8510 -2.6477 0.2063 0 7
7.6297 9.9757 -2.6477 0.2063 0 7
7.4674 10.0978 -2.6477 0.2063 0 7
7.3031 10.2172 -2.6477 0.2063 0 7
7.1370 10.3339 -2.6477 0.2063 0 7
6.9690 10.4480 -2.6477 0.2063 0 7
6.7991 10.5593 -2.6477 0.2063 0 7
6.6275 10.6679 -2.6477 0.2063 0 7
6.4542 10.7736 -2.6477 0.2063 0 7
6.2791 10.8766 -2.6477 0.2063 0 7
6.1024 10.9767 -2.6477 0.2063 0 7
5.9241 11.0739 -2.6477 0.2063 0 7
5.7443 11.1682 -2.6477 0.2063 0 7
5.5630 11.2597 -2.6477 0.2063 0 7
5.3802 11.3481 -2.6477 0.2063 0 7
5.1961 11.4336 -2.6477 0.2063 0 6
5.0105 11.5162 -2.6477 0.2063 0 7
4.8236 11.5957 -2.6477 0.2063 0 7
4.6355 11.6721 -2.6477 0.2063 0 7
4.4462 11.7456 -2.6477 0.2063 0 7
4.2557 11.8159 -2.6477 0.2063 0 7
4.0641 11.8832 -2.6477 0.2063 0 7
3.8714 11.9474 -2.6477 0.2063 0 7
3.6777 12.0084 -2.6477 0.2063 0 7
3.4831 12.0663 -2.6477 0.2063 0 7
3.2875 12.1210 -2.6477 0.2063 0 7
3.0911 12.1726 -2.6477 0.2063 0 7
2.8939 12.2210 -2.6477 0.2063 0 7
2.6959 12.2662 -2.6477 0.2063 0 7
2.4972 12.3082 -2.6477 0.2063 0 7
2.2979 12.3469 -2.6477 0.2063 0 7
2.0979 12.3825 -2.6477 0.2063 0 7
1.8975 12.4148 -2.6477 0.2063 0 7
1.6965 12.4438 -2.6477 0.2063 0 7
1.4950 12.4696 -2.6477 0.2063 0 7
1.2932 12.4922 -2.6477 0.2063 0 7
1.0911 12.5115 -2.6477 0.2063 0 7
0.8886 12.5275 -2.6477 0.2063 0 7
0.6860 12.5402 -2.6477 0.2063 0 7
0.4831 12.5496 -2.6477 0.2063 0 7
0.2801 12.5558 -2.6477 0.2063 0 7
0.0771 12.5587 -2.6477 0.2063 0 7
-0.1260 12.5583 -2.6477 0.2063 0 7
-0.3290 12.5546 -2.6477 0.2063 0 7
-0.5320 12.5477 -2.6477 0.2063 0 7
-0.7348 12.5374 -2.6477 0.2063 0 7
-0.9374 12.5239 -2.6477 0.2063 0 7
-1.1398 12.5071 -2.6477 0.2063 0 7
-1.3419 12.4870 -2.6477 0.2063 0 7
-1.5436 12.4637 -2.6477 0.2063 0 7
-1.7449 12.4371 -2.6477 0.2063 0 7
-1.9458 12.4073 -2.6477 0.2063 0 7
-2.1461 12.3742 -2.6477 0.2063 0 7
-2.3459 12.3379 -2.6477 0.2063 0 7
-2.5451 12.2983 -2.6477 0.2063 0 7
-2.7436 12.2556 -2.6477 0.2063 0 7
-2.9414 12.2096 -2.6477 0.2063 0 7
-3.1385 12.1605 -2.6477 0.2063 0 7
-3.3347 12.1081 -2.6477 0.2063 0 7
-3.5300 12.0526 -2.6477 0.2063 0 7
-3.7244 11.9940 -2.6477 0.2063 0 7
-3.9179 11.9322 -2.6477 0.2063 0 7
-4.1103 11.8673 -2.6477 0.2063 0 7
9.0972 6.8156 -2.4953 0.2144 0 8
8.9858 6.9618 -2.4953 0.2144 0 8
8.8721 7.1062 -2.4953 0.2144 0 8
8.7560 7.2488 -2.4953 0.2144 0 8
8.6377 7.3894 -2.4953 0.2144 0 8
8.5171 7.5281 -2.4953 0.2144 0 8
8.3942 7.6648 -2.4953 0.2144 0 8
8.2692 7.7995 -2.4953 0.2144 0 8
8.1420 7.9322 -2.4953 0.2144 0 8
8.0127 8.0628 -2.4953 0.2144 0 8
7.8813 8.1913 -2.4953 0.2144 0 8
7.7478 8.3177 -2.4953 0.2144 0 8
7.6123 8.4419 -2.4953 0.2144 0 8
7.9313 9.0869 -2.6477 0.2144 0 7
7.7834 9.2139 -2.6477 0.2144 0 7
7.6334 9.3386 -2.6477 0.2144 0 7
7.4814 9.4608 -2.6477 0.2144 0 7
7.3274 9.5805 -2.6477 0.2144 0 7
7.1716 9.6978 -2.6477 0.2144 0 7
7.0138 9.8124 -2.6477 0.2144 0 7
6.8543 9.9246 -2.6477 0.2144 0 7
6.6929 10.0341 -2.6477 0.2144 0 7
6.5298 10.1410 -2.6477 0.2144 0 7
6.3650 10.2452 -2.6477 0.2144 0 7
6.1985 10.3468 -2.6477 0.2144 0 7
6.0304 10.4457 -2.6477 0.2144 0 7
5.8607 10.5418 -2.6477 0.2144 0 7
5.6895 10.6352 -2.6477 0.2144 0 7
5.5168 10.7258 -2.6477 0.2144 0 7
5.3426 10.8136 -2.6477 0.2144 0 7
5.1671 10.8986 -2.6477 0.2144 0 7
4.9902 10.9807 -2.6477 0.2144 0 7
4.8120 11.0600 -2.6477 0.2144 0 7
4.6325 11.1363 -2.6477 0.2144 0 7
4.4519 11.2098 -2.6477 0.2144 0 7
4.2700 11.2803 -2.6477 0.2144 0 7
4.0871 11.3478 -2.6477 0.2144 0 7
3.9031 11.4124 -2.6477 0.2144 0 6
3.7180 11.4741 -2.6477 0.2144 0 6
3.5320 11.5327 -2.6477 0.2144 0 7
3.3451 11.5883 -2.6477 0.2144 0 7
3.1573 11.6409 -2.6477 0.2144 0 7
2.9687 11.6904 -2.6477 0.2144 0 7
2.7792 11.7369 -2.6477 0.2144 0 7
2.5891 11.7803 -2.6477 0.2144 0 7
2.3983 11.8206 -2.6477 0.2144 0 7
2.2069 11.8578 -2.6477 0.2144 0 7
2.0148 11.8919 -2.6477 0.2144 0 7
1.8223 11.9230 -2.6477 0.2144 0 7
1.6293 11.9509 -2.6477 0.2144 0 7
1.4358 11.9757 -2.6477 0.2144 0 7
1.2420 11.9973 -2.6477 0.2144 0 7
1.0479 12.0158 -2.6477 0.2144 0 7
0.8534 12.0312 -2.6477 0.2144 0 7
0.6588 12.0434 -2.6477 0.2144 0 7
0.4640 12.0525 -2.6477 0.2144 0 7
0.2690 12.0584 -2.6477 0.2144 0 7
0.0740 12.0612 -2.6477 0.2144 0 7
-0.1210 12.0608 -2.6477 0.2144 0 7
-0.3160 12.0573 -2.6477 0.2144 0 7
-0.5109 12.0506 -2.6477 0.2144 0 7
-0.7057 12.0408 -2.6477 0.2144 0 7
-0.9003 12.0278 -2.6477 0.2144 0 7
-1.0946 12.0116 -2.6477 0.2144 0 7
-1.2887 11.9924 -2.6477 0.2144 0 7
-1.4824 11.9700 -2.6477 0.2144 0 7
-1.6758 11.9444 -2.6477 0.2144 0 7
-1.8687 11.9158 -2.6477 0.2144 0 7
-2.0611 11.8840 -2.6477 0.2144 0 7
-2.2530 11.8491 -2.6477 0.2144 0 7
-2.4443 11.8111 -2.6477 0.2144 0 7
-2.6349 11.7701 -2.6477 0.2144 0 7
-2.8249 11.7259 -2.6477 0.2144 0 7
-3.0141 11.6787 -2.6477 0.2144 0 7
-3.2026 11.6285 -2.6477 0.2144 0 7
-3.3902 11.5752 -2.6477 0.2144 0 7
-3.5769 11.5188 -2.6477 0.2144 0 7
-3.7627 11.4595 -2.6477 0.2144 0 6
-3.9475 11.3972 -2.6477 0.2144 0 6
8.7494 6.5550 -2.4953 0.2225 0 8
8.6422 6.6956 -2.4953 0.2225 0 8
8.5328 6.8345 -2.4953 0.2225 0 8
8.4212 6.9716 -2.4953 0.2225 0 8
8.3074 7.1068 -2.4953 0.2225 0 8
8.1914 7.2402 -2.4953 0.2225 0 8
8.0732 7.3717 -2.4953 0.2225 0 8
7.9530 7.5013 -2.4953 0.2225 0 8
7.8307 7.6289 -2.4953 0.2225 0 8
7.7063 7.7545 -2.4953 0.2225 0 8
7.5799 7.8781 -2.4953 0.2225 0 8
7.4515 7.9996 -2.4953 0.2225 0 8
7.3212 8.1191 -2.4953 0.2225 0 8
7.1890 8.2364 -2.4953 0.2225 0 8
7.0549 8.3515 -2.4953 0.2225 0 8
6.9189 8.4645 -2.4953 0.2225 0 8
7.1953 9.0990 -2.6477 0.2225 0 7
7.0472 9.2142 -2.6477 0.2225 0 7
6.8973 9.3269 -2.6477 0.2225 0 7
6.7456 9.4372 -2.6477 0.2225 0 7
6.5922 9.5451 -2.6477 0.2225 0 7
6.4370 9.6504 -2.6477 0.2225 0 7
6.2801 9.7532 -2.6477 0.2225 0 7
6.1216 9.8535 -2.6477 0.2225 0 7
5.9615 9.9512 -2.6477 0.2225 0 7
5.7998 10.0463 -2.6477 0.2225 0 7
5.6366 10.1387 -2.6477 0.2225 0 7
5.4719 10.2285 -2.6477 0.2225 0 7
5.3058 10.3157 -2.6477 0.2225 0 7
5.1383 10.4001 -2.6477 0.2225 0 7
4.9695 10.4818 -2.6477 0.2225 0 7
4.7994 10.5608 -2.6477 0.2225 0 7
4.6280 10.6370 -2.6477 0.2225 0 7
4.4554 10.7105 -2.6477 0.2225 0 7
4.2816 10.7811 -2.6477 0.2225 0 7
4.1067 10.8489 -2.6477 0.2225 0 7
3.9308 10.9139 -2.6477 0.2225 0 7
3.7538 10.9761 -2.6477 0.2225 0 7
3.5759 11.0353 -2.6477 0.2225 0 7
3.3970 11.0917 -2.6477 0.2225 0 7
3.2172 11.1452 -2.6477 0.2225 0 7
3.0366 11.1957 -2.6477 0.2225 0 7
2.8551 11.2434 -2.6477 0.2225 0 7
2.6730 11.2881 -2.6477 0.2225 0 7
2.4901 11.3298 -2.6477 0.2225 0 7
2.3066 11.3686 -2.6477 0.2225 0 7
2.1225 11.4044 -2.6477 0.2225 0 6
1.9378 11.4372 -2.6477 0.2225 0 6
1.7526 11.4670 -2.6477 0.2225 0 6
1.5670 11.4939 -2.6477 0.2225 0 6
1.3809 11.5177 -2.6477 0.2225 0 7
1.1945 11.5385 -2.6477 0.2225 0 7
1.0078 11.5564 -2.6477 0.2225 0 7
0.8208 11.5711 -2.6477 0.2225 0 7
0.6336 11.5829 -2.6477 0.2225 0 7
0.4462 11.5916 -2.6477 0.2225 0 7
0.2588 11.5973 -2.6477 0.2225 0 7
0.0712 11.6000 -2.6477 0.2225 0 7
-0.1164 11.5996 -2.6477 0.2225 0 7
-0.3039 11.5962 -2.6477 0.2225 0 7
-0.4914 11.5898 -2.6477 0.2225 0 7
-0.6787 11.5803 -2.6477 0.2225 0 7
-0.8658 11.5679 -2.6477 0.2225 0 7
-1.0528 11.5523 -2.6477 0.2225 0 7
-1.2394 11.5338 -2.6477 0.2225 0 7
-1.4257 11.5123 -2.6477 0.2225 0 7
-1.6117 11.4877 -2.6477 0.2225 0 6
-1.7972 11.4601 -2.6477 0.2225 0 6
-1.9824 11.4296 -2.6477 0.2225 0 6
-2.1668 11.3960 -2.6477 0.2225 0 6
-2.3508 11.3595 -2.6477 0.2225 0 7
-2.5342 11.3200 -2.6477 0.2225 0 7
-2.7169 11.2776 -2.6477 0.2225 0 7
-2.8989 11.2322 -2.6477 0.2225 0 7
-3.0801 11.1838 -2.6477 0.2225 0 7
-3.2605 11.1326 -2.6477 0.2225 0 7
-3.4401 11.0784 -2.6477 0.2225 0 7
-3.6188 11.0213 -2.6477 0.2225 0 7
-3.7965 10.9614 -2.6477 0.2225 0 7
8.4259 6.3127 -2.4953 0.2306 0 8
8.3228 6.4481 -2.4953 0.2306 0 8
8.2174 6.5819 -2.4953 0.2306 0 8
8.1099 6.7139 -2.4953 0.2306 0 8
8.0003 6.8441 -2.4953 0.2306 0 8
7.8886 6.9726 -2.4953 0.2306 0 8
7.7748 7.0992 -2.4953 0.2306 0 8
7.6590 7.2240 -2.4953 0.2306 0 8
7.5412 7.3469 -2.4953 0.2306 0 8
7.4214 7.4679 -2.4953 0.2306 0 8
7.2997 7.5869 -2.4953 0.2306 0 8
