ply
format ascii 1.0
element vertex 1364
property float32 x
property float32 y
property float32 z
property float32 CosAngle
property uint32 ObjIdx
property uint32 ObjTag
end_header
11.7916 41.1875 -2.4953 0.0581 0 8
11.1302 41.3711 -2.4953 0.0581 0 8
10.4660 41.5442 -2.4953 0.0581 0 8
9.7990 41.7065 -2.4953 0.0581 0 8
9.1295 41.8581 -2.4953 0.0581 0 8
8.4577 41.9990 -2.4953 0.0581 0 8
7.7837 42.1292 -2.4953 0.0581 0 8
7.1077 42.2485 -2.4953 0.0581 0 8
6.4299 42.3569 -2.4953 0.0581 0 8
5.7505 42.4545 -2.4953 0.0581 0 8
5.0695 42.5412 -2.4953 0.0581 0 8
4.3873 42.6169 -2.4953 0.0581 0 8
3.7039 42.6818 -2.4953 0.0581 0 8
3.0196 42.7356 -2.4953 0.0581 0 8
2.3345 42.7785 -2.4953 0.0581 0 8
1.6488 42.8104 -2.4953 0.0581 0 8
0.9627 42.8314 -2.4953 0.0581 0 8
0.2763 42.8413 -2.4953 0.0581 0 8
-0.4101 42.8402 -2.4953 0.0581 0 8
-1.0964 42.8281 -2.4953 0.0581 0 8
-1.7825 42.8051 -2.4953 0.0581 0 8
-2.4680 42.7710 -2.4953 0.0581 0 8
-3.1530 42.7260 -2.4953 0.0581 0 8
-3.8372 42.6700 -2.4953 0.0581 0 8
-4.5203 42.6030 -2.4953 0.0581 0 8
-5.2023 42.5252 -2.4953 0.0581 0 8
-5.8830 42.4363 -2.4953 0.0581 0 8
-6.5621 42.3366 -2.4953 0.0581 0 8
-7.2396 42.2261 -2.4953 0.0581 0 8
-7.9152 42.1047 -2.4953 0.0581 0 8
-8.5888 41.9724 -2.4953 0.0581 0 8
-9.2602 41.8294 -2.4953 0.0581 0 8
-9.9292 41.6757 -2.4953 0.0581 0 8
-10.5956 41.5113 -2.4953 0.0581 0 8
-11.2593 41.3362 -2.4953 0.0581 0 8
-11.9202 41.1505 -2.4953 0.0581 0 8
-12.5780 40.9542 -2.4953 0.0581 0 8
-13.2325 40.7474 -2.4953 0.0581 0 8
-13.8836 40.5302 -2.4953 0.0581 0 8
-14.5312 40.3026 -2.4953 0.0581 0 8
-15.1751 40.0646 -2.4953 0.0581 0 8
-15.8150 39.8163 -2.4953 0.0581 0 8
-16.4509 39.5578 -2.4953 0.0581 0 8
-17.0826 39.2892 -2.4953 0.0581 0 8
-17.7099 39.0104 -2.4953 0.0581 0 8
-18.3326 38.7217 -2.4953 0.0581 0 8
-18.9507 38.4230 -2.4953 0.0581 0 8
-19.5639 38.1144 -2.4953 0.0581 0 8
-20.1720 37.7961 -2.4953 0.0581 0 8
-20.7750 37.4680 -2.4953 0.0581 0 8
-21.3726 37.1303 -2.4953 0.0581 0 8
-21.9648 36.7832 -2.4953 0.0581 0 8
-22.5513 36.4265 -2.4953 0.0581 0 8
-23.1320 36.0605 -2.4953 0.0581 0 8
-23.7068 35.6853 -2.4953 0.0581 0 8
-24.2755 35.3009 -2.4953 0.0581 0 8
-24.8380 34.9074 -2.4953 0.0581 0 8
-25.3941 34.5050 -2.4953 0.0581 0 8
-25.9437 34.0937 -2.4953 0.0581 0 8
-26.4865 33.6737 -2.4953 0.0581 0 8
-27.0227 33.2450 -2.4953 0.0581 0 8
-27.5771 32.8377 -2.4976 0.5829 0 8
-28.4753 32.8247 -2.5309 0.7539 0 8
-29.4019 32.8156 -2.5662 0.7435 0 8
-30.4060 32.8614 -2.6076 0.6629 0 8
-31.3546 32.8158 -2.6435 0.0674 0 8
-31.9267 32.3603 -2.6477 0.0581 0 7
-32.4411 31.8446 -2.6477 0.0581 0 7
-32.9471 31.3207 -2.6477 0.0581 0 7
-33.4447 30.7889 -2.6477 0.0581 0 7
13.1641 35.0856 -2.4953 0.0664 0 8
12.6003 35.2920 -2.4953 0.0664 0 8
12.0332 35.4894 -2.4953 0.0664 0 8
11.4631 35.6776 -2.4953 0.0664 0 8
10.8900 35.8567 -2.4953 0.0664 0 8
10.3141 36.0266 -2.4953 0.0664 0 8
9.7356 36.1872 -2.4953 0.0664 0 8
9.1545 36.3385 -2.4953 0.0664 0 8
8.5712 36.4805 -2.4953 0.0664 0 8
7.9856 36.6132 -2.4953 0.0664 0 8
7.3979 36.7364 -2.4953 0.0664 0 8
6.8084 36.8502 -2.4953 0.0664 0 8
6.2171 36.9546 -2.4953 0.0664 0 8
5.6242 37.0494 -2.4953 0.0664 0 8
5.0299 37.1348 -2.4953 0.0664 0 8
4.4343 37.2106 -2.4953 0.0664 0 8
3.8375 37.2769 -2.4953 0.0664 0 8
3.2398 37.3336 -2.4953 0.0664 0 8
2.6412 37.3807 -2.4953 0.0664 0 8
2.0420 37.4182 -2.4953 0.0664 0 8
1.4422 37.4461 -2.4953 0.0664 0 8
0.8421 37.4644 -2.4953 0.0664 0 8
0.2417 37.4731 -2.4953 0.0664 0 8
-0.3587 37.4722 -2.4953 0.0664 0 8
-0.9590 37.4616 -2.4953 0.0664 0 8
-1.5591 37.4415 -2.4953 0.0664 0 8
-2.1588 37.4117 -2.4953 0.0664 0 8
-2.7579 37.3723 -2.4953 0.0664 0 8
-3.3563 37.3233 -2.4953 0.0664 0 8
-3.9539 37.2647 -2.4953 0.0664 0 8
-4.5505 37.1966 -2.4953 0.0664 0 8
-5.1458 37.1189 -2.4953 0.0664 0 8
-5.7399 37.0317 -2.4953 0.0664 0 8
-6.3325 36.9350 -2.4953 0.0664 0 8
-6.9234 36.8288 -2.4953 0.0664 0 8
-7.5126 36.7131 -2.4953 0.0664 0 8
-8.0998 36.5881 -2.4953 0.0664 0 8
-8.6850 36.4536 -2.4953 0.0664 0 8
-9.2679 36.3098 -2.4953 0.0664 0 8
-9.8485 36.1566 -2.4953 0.0664 0 8
-10.4265 35.9942 -2.4953 0.0664 0 8
-11.0019 35.8225 -2.4953 0.0664 0 8
-11.5744 35.6416 -2.4953 0.0664 0 8
-12.1440 35.4516 -2.4953 0.0664 0 8
-12.7104 35.2525 -2.4953 0.0664 0 8
-13.2736 35.0443 -2.4953 0.0664 0 8
-13.8333 34.8272 -2.4953 0.0664 0 8
-14.3896 34.6011 -2.4953 0.0664 0 8
-14.9421 34.3661 -2.4953 0.0664 0 8
-15.4908 34.1223 -2.4953 0.0664 0 8
-16.0355 33.8697 -2.4953 0.0664 0 8
-16.5761 33.6084 -2.4953 0.0664 0 8
-17.1124 33.3385 -2.4953 0.0664 0 8
-17.6444 33.0601 -2.4953 0.0664 0 8
-18.2197 32.8595 -2.5018 0.6649 0 8
-18.9103 32.8526 -2.5241 0.8638 0 8
-19.6139 32.8463 -2.5474 0.8558 0 8
-20.3308 32.8398 -2.5718 0.8477 0 8
-21.0617 32.8330 -2.5974 0.8394 0 8
-21.8073 32.8260 -2.6242 0.8308 0 8
-22.4839 32.6955 -2.6422 0.0804 0 8
-23.0492 32.3934 -2.6473 0.0802 0 8
-23.5687 32.0247 -2.6477 0.0664 0 7
-24.0788 31.6430 -2.6477 0.0664 0 7
-24.5827 31.2532 -2.6477 0.0664 0 7
-25.0803 30.8553 -2.6477 0.0664 0 7
-25.5714 30.4495 -2.6477 0.0664 0 7
-26.0560 30.0359 -2.6477 0.0664 0 7
-26.5339 29.6146 -2.6477 0.0664 0 7
-27.0049 29.1856 -2.6477 0.0664 0 7
-27.4691 28.7492 -2.6477 0.0664 0 7
-27.9262 28.3054 -2.6477 0.0664 0 7
-28.3761 27.8543 -2.6477 0.0664 0 7
-28.8187 27.3961 -2.6477 0.0664 0 7
-29.2540 26.9309 -2.6477 0.0664 0 7
12.3512 32.9189 -2.6349 0.9307 0 8
11.7534 32.9201 -2.6195 0.9361 0 8
11.1624 32.9211 -2.6051 0.9413 0 8
10.5777 32.9220 -2.5914 0.9463 0 8
9.9990 32.9228 -2.5785 0.9510 0 8
9.4257 32.9235 -2.5664 0.9555 0 8
8.8577 32.9240 -2.5550 0.9598 0 8
8.2944 32.9244 -2.5444 0.9638 0 8
7.7357 32.9247 -2.5345 0.9675 0 8
7.1811 32.9248 -2.5254 0.9710 0 8
6.6304 32.9249 -2.5169 0.9743 0 8
6.0831 32.9248 -2.5091 0.9773 0 8
5.5392 32.9252 -2.5021 0.7478 0 8
4.9989 32.9298 -2.4960 0.7496 0 8
4.4693 32.9958 -2.4953 0.0747 0 8
3.9400 33.0632 -2.4953 0.0747 0 8
3.4098 33.1220 -2.4953 0.0747 0 8
2.8787 33.1724 -2.4953 0.0747 0 8
2.3468 33.2143 -2.4953 0.0747 0 8
1.8144 33.2476 -2.4953 0.0747 0 8
1.2815 33.2724 -2.4953 0.0747 0 8
0.7482 33.2887 -2.4953 0.0747 0 8
0.2148 33.2964 -2.4953 0.0747 0 8
-0.3187 33.2956 -2.4953 0.0747 0 8
-0.8521 33.2862 -2.4953 0.0747 0 8
-1.3853 33.2683 -2.4953 0.0747 0 8
-1.9182 33.2418 -2.4953 0.0747 0 8
-2.4505 33.2068 -2.4953 0.0747 0 8
-2.9823 33.1633 -2.4953 0.0747 0 8
-3.5132 33.1112 -2.4953 0.0747 0 8
-4.0441 33.0573 -2.4958 0.7530 0 8
-4.5723 32.9817 -2.4953 0.0747 0 8
-5.1001 32.9042 -2.4953 0.0747 0 8
-5.6398 32.8951 -2.5011 0.7483 0 8
-6.1831 32.8909 -2.5080 0.9778 0 8
-6.7299 32.8880 -2.5157 0.9748 0 8
-7.2800 32.8849 -2.5240 0.9715 0 8
-7.8340 32.8817 -2.5331 0.9681 0 8
-8.3921 32.8783 -2.5429 0.9644 0 8
-8.9546 32.8748 -2.5534 0.9604 0 8
-9.5219 32.8711 -2.5646 0.9562 0 8
-10.0943 32.8673 -2.5766 0.9517 0 8
-10.6722 32.8634 -2.5894 0.9470 0 8
-11.2560 32.8592 -2.6029 0.9421 0 8
-11.8460 32.8549 -2.6173 0.9369 0 8
-12.4426 32.8505 -2.6325 0.9315 0 8
-13.0120 32.7594 -2.6415 0.0904 0 8
-13.5504 32.5832 -2.6445 0.0903 0 8
-14.0871 32.3997 -2.6476 0.0902 0 8
-14.6049 32.1708 -2.6477 0.0747 0 7
-15.1184 31.9327 -2.6477 0.0747 0 7
-15.6281 31.6863 -2.6477 0.0747 0 7
-16.1338 31.4319 -2.6477 0.0747 0 7
-16.6353 31.1693 -2.6477 0.0747 0 7
-17.1326 30.8988 -2.6477 0.0747 0 7
-17.6254 30.6203 -2.6477 0.0747 0 7
-18.1137 30.3340 -2.6477 0.0747 0 7
-18.5974 30.0399 -2.6477 0.0747 0 7
-19.0763 29.7381 -2.6477 0.0747 0 7
-19.5503 29.4286 -2.6477 0.0747 0 7
-20.0193 29.1116 -2.6477 0.0747 0 7
-20.4832 28.7871 -2.6477 0.0747 0 7
-20.9418 28.4553 -2.6477 0.0747 0 7
-21.3950 28.1161 -2.6477 0.0747 0 7
-21.8427 27.7697 -2.6477 0.0747 0 7
-22.2848 27.4162 -2.6477 0.0747 0 7
-22.7212 27.0556 -2.6477 0.0747 0 7
-23.1518 26.6881 -2.6477 0.0747 0 7
-23.5764 26.3137 -2.6477 0.0747 0 6
-23.9950 25.9326 -2.6477 0.0747 0 7
-24.4074 25.5449 -2.6477 0.0747 0 7
-24.8135 25.1505 -2.6477 0.0747 0 7
-25.2133 24.7497 -2.6477 0.0747 0 7
-25.6066 24.3426 -2.6477 0.0747 0 7
-25.9933 23.9292 -2.6477 0.0747 0 7
11.1652 29.7580 -2.6477 0.0830 0 7
10.6870 29.9331 -2.6477 0.0830 0 6
10.2061 30.1005 -2.6477 0.0830 0 7
9.7225 30.2601 -2.6477 0.0830 0 7
9.2364 30.4120 -2.6477 0.0830 0 7
8.7480 30.5561 -2.6477 0.0830 0 7
8.2573 30.6923 -2.6477 0.0830 0 7
7.7645 30.8207 -2.6477 0.0830 0 7
7.2697 30.9411 -2.6477 0.0830 0 7
6.7730 31.0537 -2.6477 0.0830 0 7
6.2746 31.1582 -2.6477 0.0830 0 7
5.7746 31.2547 -2.6477 0.0830 0 7
5.2731 31.3432 -2.6477 0.0830 0 7
4.7702 31.4237 -2.6477 0.0830 0 7
4.2661 31.4961 -2.6477 0.0830 0 7
3.7610 31.5604 -2.6477 0.0830 0 7
3.2548 31.6166 -2.6477 0.0830 0 7
2.7479 31.6647 -2.6477 0.0830 0 7
2.2402 31.7046 -2.6477 0.0830 0 7
1.7319 31.7365 -2.6477 0.0830 0 7
1.2232 31.7601 -2.6477 0.0830 0 7
0.7142 31.7757 -2.6477 0.0830 0 7
0.2050 31.7830 -2.6477 0.0830 0 7
-0.3042 31.7822 -2.6477 0.0830 0 7
-0.8134 31.7733 -2.6477 0.0830 0 7
-1.3224 31.7562 -2.6477 0.0830 0 7
-1.8310 31.7309 -2.6477 0.0830 0 7
-2.3391 31.6975 -2.6477 0.0830 0 7
-2.8467 31.6559 -2.6477 0.0830 0 7
-3.3535 31.6063 -2.6477 0.0830 0 7
-3.8595 31.5485 -2.6477 0.0830 0 7
-4.3645 31.4826 -2.6477 0.0830 0 7
-4.8683 31.4086 -2.6477 0.0830 0 7
-5.3709 31.3266 -2.6477 0.0830 0 7
-5.8721 31.2365 -2.6477 0.0830 0 7
-6.3718 31.1384 -2.6477 0.0830 0 7
-6.8699 31.0324 -2.6477 0.0830 0 7
-7.3662 30.9183 -2.6477 0.0830 0 7
-7.8607 30.7963 -2.6477 0.0830 0 7
-8.3531 30.6664 -2.6477 0.0830 0 7
-8.8433 30.5286 -2.6477 0.0830 0 7
-9.3313 30.3830 -2.6477 0.0830 0 7
-9.8169 30.2296 -2.6477 0.0830 0 7
-10.3000 30.0685 -2.6477 0.0830 0 7
-10.7804 29.8996 -2.6477 0.0830 0 6
-11.2581 29.7230 -2.6477 0.0830 0 7
-11.7328 29.5388 -2.6477 0.0830 0 7
-12.2046 29.3471 -2.6477 0.0830 0 7
-12.6732 29.1478 -2.6477 0.0830 0 7
-13.1386 28.9410 -2.6477 0.0830 0 7
-13.6006 28.7268 -2.6477 0.0830 0 7
-14.0591 28.5052 -2.6477 0.0830 0 7
-14.5140 28.2763 -2.6477 0.0830 0 7
-14.9652 28.0401 -2.6477 0.0830 0 7
-15.4125 27.7967 -2.6477 0.0830 0 7
-15.8559 27.5462 -2.6477 0.0830 0 7
-16.2952 27.2886 -2.6477 0.0830 0 7
-16.7303 27.0240 -2.6477 0.0830 0 7
-17.1612 26.7525 -2.6477 0.0830 0 7
-17.5876 26.4741 -2.6477 0.0830 0 7
-18.0095 26.1889 -2.6477 0.0830 0 7
-18.4268 25.8971 -2.6477 0.0830 0 7
-18.8393 25.5985 -2.6477 0.0830 0 7
-19.2470 25.2934 -2.6477 0.0830 0 7
-19.6498 24.9818 -2.6477 0.0830 0 7
-20.0475 24.6637 -2.6477 0.0830 0 7
-20.4401 24.3394 -2.6477 0.0830 0 7
-20.8275 24.0087 -2.6477 0.0830 0 7
-21.2095 23.6720 -2.6477 0.0830 0 7
-20.4056 22.0534 -2.5029 0.0830 0 14
-20.7564 21.7237 -2.5029 0.0830 0 14
-21.1017 21.3883 -2.5029 0.0830 0 14
-21.4417 21.0475 -2.5029 0.0830 0 14
-21.7762 20.7012 -2.5029 0.0830 0 14
-22.1050 20.3497 -2.5029 0.0830 0 14
10.1453 27.0397 -2.6477 0.0913 0 7
9.7107 27.1987 -2.6477 0.0913 0 7
9.2737 27.3508 -2.6477 0.0913 0 7
8.8343 27.4959 -2.6477 0.0913 0 7
8.3927 27.6339 -2.6477 0.0913 0 7
7.9488 27.7648 -2.6477 0.0913 0 7
7.5030 27.8886 -2.6477 0.0913 0 7
7.0552 28.0053 -2.6477 0.0913 0 7
6.6056 28.1147 -2.6477 0.0913 0 7
6.1543 28.2169 -2.6477 0.0913 0 7
5.7014 28.3119 -2.6477 0.0913 0 7
5.2471 28.3996 -2.6477 0.0913 0 7
4.7914 28.4800 -2.6477 0.0913 0 7
4.3345 28.5531 -2.6477 0.0913 0 7
3.8764 28.6189 -2.6477 0.0913 0 7
3.4174 28.6774 -2.6477 0.0913 0 7
2.9575 28.7284 -2.6477 0.0913 0 7
2.4968 28.7721 -2.6477 0.0913 0 7
2.0355 28.8084 -2.6477 0.0913 0 7
1.5737 28.8374 -2.6477 0.0913 0 7
1.1115 28.8589 -2.6477 0.0913 0 7
0.6490 28.8730 -2.6477 0.0913 0 7
0.1863 28.8797 -2.6477 0.0913 0 7
-0.2764 28.8789 -2.6477 0.0913 0 7
-0.7391 28.8708 -2.6477 0.0913 0 7
-1.2016 28.8553 -2.6477 0.0913 0 7
-1.6637 28.8323 -2.6477 0.0913 0 7
-2.1255 28.8019 -2.6477 0.0913 0 7
-2.5867 28.7642 -2.6477 0.0913 0 7
-3.0472 28.7191 -2.6477 0.0913 0 7
-3.5069 28.6665 -2.6477 0.0913 0 7
-3.9658 28.6067 -2.6477 0.0913 0 7
-4.4236 28.5395 -2.6477 0.0913 0 7
-4.8803 28.4649 -2.6477 0.0913 0 7
-5.3357 28.3831 -2.6477 0.0913 0 7
-5.7898 28.2940 -2.6477 0.0913 0 7
-6.2424 28.1976 -2.6477 0.0913 0 7
-6.6933 28.0939 -2.6477 0.0913 0 7
-7.1426 27.9831 -2.6477 0.0913 0 7
-7.5900 27.8651 -2.6477 0.0913 0 7
-8.0355 27.7399 -2.6477 0.0913 0 7
-8.4789 27.6076 -2.6477 0.0913 0 7
-8.9201 27.4682 -2.6477 0.0913 0 7
-9.3591 27.3217 -2.6477 0.0913 0 7
-9.7956 27.1683 -2.6477 0.0913 0 7
-10.2296 27.0079 -2.6477 0.0913 0 7
-10.6610 26.8405 -2.6477 0.0913 0 7
-11.0897 26.6662 -2.6477 0.0913 0 7
-11.5155 26.4851 -2.6477 0.0913 0 7
-11.9384 26.2972 -2.6477 0.0913 0 7
-12.3582 26.1026 -2.6477 0.0913 0 7
-12.7748 25.9012 -2.6477 0.0913 0 7
-13.1882 25.6932 -2.6477 0.0913 0 7
-13.5981 25.4786 -2.6477 0.0913 0 7
-14.0046 25.2575 -2.6477 0.0913 0 7
-14.4075 25.0299 -2.6477 0.0913 0 7
-14.8066 24.7958 -2.6477 0.0913 0 7
-15.2020 24.5554 -2.6477 0.0913 0 7
-15.5935 24.3087 -2.6477 0.0913 0 7
-15.9810 24.0557 -2.6477 0.0913 0 7
-16.3643 23.7966 -2.6477 0.0913 0 7
-15.8279 22.2446 -2.5029 0.0913 0 8
-16.1823 21.9882 -2.5029 0.0913 0 14
-16.5325 21.7261 -2.5029 0.0913 0 14
-16.8785 21.4584 -2.5029 0.0913 0 14
-17.2201 21.1852 -2.5029 0.0913 0 14
-17.5573 20.9066 -2.5029 0.0913 0 14
-17.8900 20.6226 -2.5029 0.0913 0 14
-18.2181 20.3334 -2.5029 0.0913 0 14
-18.5416 20.0389 -2.5029 0.0913 0 14
-18.8603 19.7392 -2.5029 0.0913 0 14
-19.1741 19.4345 -2.5029 0.0913 0 14
-19.4830 19.1248 -2.5029 0.0913 0 14
-19.8848 18.9033 -2.5153 0.6932 0 8
-20.5234 18.8937 -2.5574 0.6818 0 8
9.2949 24.7732 -2.6477 0.0996 0 7
8.8968 24.9189 -2.6477 0.0996 0 7
8.4964 25.0583 -2.6477 0.0996 0 7
8.0938 25.1912 -2.6477 0.0996 0 7
7.6892 25.3176 -2.6477 0.0996 0 7
7.2826 25.4376 -2.6477 0.0996 0 7
6.8741 25.5510 -2.6477 0.0996 0 7
6.4638 25.6578 -2.6477 0.0996 0 7
6.0519 25.7581 -2.6477 0.0996 0 7
5.6384 25.8518 -2.6477 0.0996 0 7
5.2235 25.9388 -2.6477 0.0996 0 7
4.8073 26.0191 -2.6477 0.0996 0 7
4.3898 26.0928 -2.6477 0.0996 0 7
3.9712 26.1598 -2.6477 0.0996 0 7
3.5515 26.2200 -2.6477 0.0996 0 7
3.1310 26.2736 -2.6477 0.0996 0 7
2.7096 26.3204 -2.6477 0.0996 0 7
2.2876 26.3604 -2.6477 0.0996 0 7
1.8649 26.3937 -2.6477 0.0996 0 7
1.4418 26.4202 -2.6477 0.0996 0 7
1.0183 26.4399 -2.6477 0.0996 0 7
0.5946 26.4528 -2.6477 0.0996 0 7
0.1707 26.4590 -2.6477 0.0996 0 6
-0.2533 26.4583 -2.6477 0.0996 0 6
-0.6772 26.4508 -2.6477 0.0996 0 6
-1.1009 26.4366 -2.6477 0.0996 0 6
-1.5243 26.4156 -2.6477 0.0996 0 6
-1.9474 26.3877 -2.6477 0.0996 0 7
-2.3698 26.3532 -2.6477 0.0996 0 7
-2.7918 26.3118 -2.6477 0.0996 0 7
-3.2130 26.2637 -2.6477 0.0996 0 7
-3.6333 26.2089 -2.6477 0.0996 0 7
-4.0528 26.1473 -2.6477 0.0996 0 7
-4.4712 26.0790 -2.6477 0.0996 0 7
-4.8885 26.0040 -2.6477 0.0996 0 7
-5.3045 25.9223 -2.6477 0.0996 0 7
-5.7191 25.8340 -2.6477 0.0996 0 7
-6.1323 25.7391 -2.6477 0.0996 0 7
-6.5439 25.6375 -2.6477 0.0996 0 7
-6.9538 25.5294 -2.6477 0.0996 0 7
-7.3619 25.4147 -2.6477 0.0996 0 7
-7.7682 25.2935 -2.6477 0.0996 0 7
-8.1724 25.1658 -2.6477 0.0996 0 7
-8.5746 25.0316 -2.6477 0.0996 0 7
-8.9746 24.8910 -2.6477 0.0996 0 7
-9.3722 24.7440 -2.6477 0.0996 0 7
-9.7674 24.5907 -2.6477 0.0996 0 7
-10.1602 24.4311 -2.6477 0.0996 0 7
-10.5503 24.2651 -2.6477 0.0996 0 7
-10.9377 24.0930 -2.6477 0.0996 0 7
-11.3223 23.9147 -2.6477 0.0996 0 7
-11.7040 23.7302 -2.6477 0.0996 0 7
-11.4220 22.2524 -2.5029 0.0996 0 8
-11.7771 22.0666 -2.5029 0.0996 0 14
-12.1291 21.8750 -2.5029 0.0996 0 14
-12.4780 21.6779 -2.5029 0.0996 0 14
-12.8238 21.4752 -2.5029 0.0996 0 14
-13.1662 21.2670 -2.5029 0.0996 0 14
-13.5052 21.0533 -2.5029 0.0996 0 14
-13.8408 20.8342 -2.5029 0.0996 0 14
-14.1728 20.6098 -2.5029 0.0996 0 14
-14.5012 20.3801 -2.5029 0.0996 0 14
-14.8259 20.1451 -2.5029 0.0996 0 14
-15.1467 19.9050 -2.5029 0.0996 0 14
-15.4637 19.6598 -2.5029 0.0996 0 14
-15.7767 19.4095 -2.5029 0.0996 0 14
-16.0857 19.1542 -2.5029 0.0996 0 14
-16.4115 18.9182 -2.5061 0.6032 0 8
-16.9400 18.9068 -2.5402 0.7486 0 8
-17.4865 18.8986 -2.5764 0.7381 0 8
-18.0489 18.8900 -2.6143 0.7274 0 8
-18.5831 18.8355 -2.6477 0.0996 0 7
-18.8825 18.5353 -2.6477 0.0996 0 7
-19.1770 18.2304 -2.6477 0.0996 0 7
-19.4666 17.9208 -2.6477 0.0996 0 7
8.1060 21.6046 -2.5029 0.1078 0 14
7.7588 21.7317 -2.5029 0.1078 0 14
7.4097 21.8532 -2.5029 0.1078 0 14
7.0586 21.9691 -2.5029 0.1078 0 14
6.7057 22.0794 -2.5029 0.1078 0 14
6.3511 22.1840 -2.5029 0.1078 0 14
5.9948 22.2829 -2.5029 0.1078 0 8
5.6371 22.3761 -2.5029 0.1078 0 8
5.5831 23.7629 -2.6477 0.1078 0 7
5.2017 23.8493 -2.6477 0.1078 0 7
4.8189 23.9296 -2.6477 0.1078 0 7
4.4349 24.0037 -2.6477 0.1078 0 7
4.0497 24.0717 -2.6477 0.1078 0 7
3.6635 24.1335 -2.6477 0.1078 0 7
3.2764 24.1891 -2.6477 0.1078 0 7
2.8884 24.2385 -2.6477 0.1078 0 7
2.4997 24.2817 -2.6477 0.1078 0 7
2.1104 24.3186 -2.6477 0.1078 0 7
1.7205 24.3493 -2.6477 0.1078 0 7
1.3301 24.3737 -2.6477 0.1078 0 7
0.9394 24.3919 -2.6477 0.1078 0 7
0.5485 24.4038 -2.6477 0.1078 0 7
0.1574 24.4095 -2.6477 0.1078 0 7
-0.2337 24.4089 -2.6477 0.1078 0 7
-0.6247 24.4020 -2.6477 0.1078 0 7
-1.0156 24.3889 -2.6477 0.1078 0 7
-1.4062 24.3695 -2.6477 0.1078 0 7
-1.7965 24.3438 -2.6477 0.1078 0 7
-2.1863 24.3119 -2.6477 0.1078 0 7
-2.5755 24.2737 -2.6477 0.1078 0 7
-2.9641 24.2294 -2.6477 0.1078 0 7
-3.3519 24.1788 -2.6477 0.1078 0 7
-3.7389 24.1220 -2.6477 0.1078 0 7
-4.1249 24.0590 -2.6477 0.1078 0 7
-4.5098 23.9898 -2.6477 0.1078 0 7
-4.8936 23.9144 -2.6477 0.1078 0 7
-5.2761 23.8330 -2.6477 0.1078 0 7
-5.6573 23.7454 -2.6477 0.1078 0 7
-5.7069 22.3584 -2.5029 0.1078 0 8
-6.0644 22.2641 -2.5029 0.1078 0 8
-6.4203 22.1640 -2.5029 0.1078 0 14
-6.7746 22.0583 -2.5029 0.1078 0 14
-7.1271 21.9470 -2.5029 0.1078 0 14
-7.4779 21.8299 -2.5029 0.1078 0 14
-7.8267 21.7073 -2.5029 0.1078 0 14
-8.1734 21.5792 -2.5029 0.1078 0 14
-8.5181 21.4454 -2.5029 0.1078 0 14
-8.8606 21.3062 -2.5029 0.1078 0 14
-9.2009 21.1615 -2.5029 0.1078 0 14
-9.5387 21.0114 -2.5029 0.1078 0 14
-9.8741 20.8559 -2.5029 0.1078 0 14
-10.2070 20.6950 -2.5029 0.1078 0 14
-10.5373 20.5288 -2.5029 0.1078 0 14
-10.8648 20.3573 -2.5029 0.1078 0 14
-11.1896 20.1806 -2.5029 0.1078 0 14
-11.5115 19.9988 -2.5029 0.1078 0 14
-11.8305 19.8118 -2.5029 0.1078 0 14
-12.1464 19.6197 -2.5029 0.1078 0 14
-12.4591 19.4225 -2.5029 0.1078 0 14
-12.7687 19.2204 -2.5029 0.1078 0 14
-13.0750 19.0134 -2.5029 0.1078 0 8
-13.4627 18.9205 -2.5187 0.8177 0 8
-13.9198 18.9139 -2.5472 0.8086 0 8
-14.3874 18.9071 -2.5770 0.7992 0 8
-14.8661 18.9000 -2.6082 0.7897 0 8
-15.3566 18.8926 -2.6408 0.7799 0 8
-15.6981 18.6927 -2.6477 0.1078 0 7
-15.9956 18.4388 -2.6477 0.1078 0 6
-16.2889 18.1802 -2.6477 0.1078 0 7
-16.5781 17.9169 -2.6477 0.1078 0 7
-16.8631 17.6489 -2.6477 0.1078 0 7
-17.1437 17.3765 -2.6477 0.1078 0 7
-17.4199 17.0996 -2.6477 0.1078 0 7
-17.6916 16.8183 -2.6477 0.1078 0 7
-17.9588 16.5327 -2.6477 0.1078 0 7
7.5223 20.0489 -2.5029 0.1161 0 14
7.2001 20.1668 -2.5029 0.1161 0 14
6.8761 20.2796 -2.5029 0.1161 0 14
6.5503 20.3871 -2.5029 0.1161 0 14
6.2228 20.4895 -2.5029 0.1161 0 14
5.8938 20.5865 -2.5029 0.1161 0 14
5.5632 20.6783 -2.5029 0.1161 0 14
5.2311 20.7648 -2.5029 0.1161 0 14
4.8978 20.8460 -2.5029 0.1161 0 14
4.5632 20.9217 -2.5029 0.1161 0 14
4.2274 20.9922 -2.5029 0.1161 0 14
3.8905 21.0572 -2.5029 0.1161 0 14
3.5526 21.1168 -2.5029 0.1161 0 14
3.2138 21.1710 -2.5029 0.1161 0 14
2.8742 21.2198 -2.5029 0.1161 0 14
2.5339 21.2631 -2.5029 0.1161 0 14
2.1929 21.3010 -2.5029 0.1161 0 14
1.8513 21.3334 -2.5029 0.1161 0 14
1.5093 21.3603 -2.5029 0.1161 0 14
1.1668 21.3818 -2.5029 0.1161 0 14
0.8241 21.3977 -2.5029 0.1161 0 14
0.4812 21.4082 -2.5029 0.1161 0 14
0.1381 21.4131 -2.5029 0.1161 0 14
-0.2050 21.4126 -2.5029 0.1161 0 14
-0.5480 21.4066 -2.5029 0.1161 0 14
-0.8909 21.3951 -2.5029 0.1161 0 14
-1.2336 21.3780 -2.5029 0.1161 0 14
-1.5760 21.3555 -2.5029 0.1161 0 14
-1.9179 21.3275 -2.5029 0.1161 0 14
-2.2594 21.2941 -2.5029 0.1161 0 14
-2.6003 21.2551 -2.5029 0.1161 0 14
-2.9405 21.2107 -2.5029 0.1161 0 14
-3.2799 21.1609 -2.5029 0.1161 0 14
-3.6185 21.1056 -2.5029 0.1161 0 14
-3.9562 21.0450 -2.5029 0.1161 0 14
-4.2929 20.9789 -2.5029 0.1161 0 14
-4.6285 20.9074 -2.5029 0.1161 0 14
-4.9629 20.8306 -2.5029 0.1161 0 14
-5.2960 20.7484 -2.5029 0.1161 0 14
-5.6277 20.6609 -2.5029 0.1161 0 14
-5.9580 20.5680 -2.5029 0.1161 0 14
-6.2868 20.4699 -2.5029 0.1161 0 14
-6.6139 20.3666 -2.5029 0.1161 0 14
-6.9394 20.2580 -2.5029 0.1161 0 14
-7.2631 20.1442 -2.5029 0.1161 0 14
-7.5849 20.0253 -2.5029 0.1161 0 14
-7.9047 19.9012 -2.5029 0.1161 0 14
-8.2226 19.7720 -2.5029 0.1161 0 14
-8.5383 19.6377 -2.5029 0.1161 0 14
-8.8519 19.4984 -2.5029 0.1161 0 14
-9.1631 19.3541 -2.5029 0.1161 0 14
-9.4720 19.2048 -2.5029 0.1161 0 14
-9.7785 19.0505 -2.5029 0.1161 0 8
-10.1049 18.9334 -2.5085 0.7026 0 8
-10.4944 18.9267 -2.5295 0.8766 0 8
-10.8914 18.9215 -2.5518 0.8689 0 8
-11.2956 18.9160 -2.5752 0.8610 0 8
-11.7072 18.9104 -2.5996 0.8529 0 8
-12.1268 18.9045 -2.6252 0.8446 0 8
-12.5347 18.8681 -2.6477 0.1161 0 7
-12.8354 18.6649 -2.6477 0.1161 0 7
-13.1328 18.4569 -2.6477 0.1161 0 6
-13.4268 18.2441 -2.6477 0.1161 0 7
-13.7174 18.0266 -2.6477 0.1161 0 7
-14.0044 17.8045 -2.6477 0.1161 0 7
-14.2879 17.5779 -2.6477 0.1161 0 7
-14.5677 17.3467 -2.6477 0.1161 0 7
-14.8438 17.1110 -2.6477 0.1161 0 7
-15.1160 16.8710 -2.6477 0.1161 0 7
-15.3844 16.6267 -2.6477 0.1161 0 7
-15.6488 16.3781 -2.6477 0.1161 0 7
-15.9092 16.1252 -2.6477 0.1161 0 7
-16.1655 15.8683 -2.6477 0.1161 0 7
-16.4177 15.6072 -2.6477 0.1161 0 7
-16.6656 15.3422 -2.6477 0.1161 0 7
7.1190 18.9738 -2.5396 0.9352 0 8
6.7748 18.9755 -2.5250 0.9406 0 8
6.4345 18.9772 -2.5111 0.9457 0 8
6.1095 19.0152 -2.5029 0.1243 0 8
5.8041 19.1107 -2.5029 0.1243 0 8
5.4971 19.2012 -2.5029 0.1243 0 14
5.1888 19.2868 -2.5029 0.1243 0 14
4.8791 19.3675 -2.5029 0.1243 0 14
4.5682 19.4432 -2.5029 0.1243 0 14
4.2561 19.5139 -2.5029 0.1243 0 14
3.9429 19.5795 -2.5029 0.1243 0 14
3.6287 19.6402 -2.5029 0.1243 0 14
3.3136 19.6958 -2.5029 0.1243 0 14
2.9976 19.7464 -2.5029 0.1243 0 14
2.6808 19.7919 -2.5029 0.1243 0 14
2.3634 19.8323 -2.5029 0.1243 0 14
2.0453 19.8676 -2.5029 0.1243 0 14
1.7267 19.8978 -2.5029 0.1243 0 14
1.4077 19.9229 -2.5029 0.1243 0 14
1.0883 19.9429 -2.5029 0.1243 0 14
0.7687 19.9578 -2.5029 0.1243 0 14
0.4488 19.9676 -2.5029 0.1243 0 14
0.1288 19.9722 -2.5029 0.1243 0 14
-0.1912 19.9717 -2.5029 0.1243 0 14
-0.5111 19.9661 -2.5029 0.1243 0 14
-0.8310 19.9553 -2.5029 0.1243 0 14
-1.1506 19.9394 -2.5029 0.1243 0 14
-1.4699 19.9184 -2.5029 0.1243 0 14
-1.7888 19.8923 -2.5029 0.1243 0 14
-2.1073 19.8611 -2.5029 0.1243 0 14
-2.4253 19.8248 -2.5029 0.1243 0 14
-2.7426 19.7834 -2.5029 0.1243 0 14
-3.0592 19.7369 -2.5029 0.1243 0 14
-3.3750 19.6854 -2.5029 0.1243 0 14
-3.6900 19.6288 -2.5029 0.1243 0 14
-4.0040 19.5671 -2.5029 0.1243 0 14
-4.3170 19.5005 -2.5029 0.1243 0 14
-4.6289 19.4288 -2.5029 0.1243 0 14
-4.9396 19.3521 -2.5029 0.1243 0 14
-5.2490 19.2705 -2.5029 0.1243 0 14
-5.5571 19.1839 -2.5029 0.1243 0 14
-5.8666 19.1019 -2.5041 0.7592 0 8
-6.1689 18.9961 -2.5029 0.1243 0 8
-6.4888 18.9426 -2.5092 0.7523 0 8
-6.8282 18.9381 -2.5228 0.9414 0 8
-7.1717 18.9345 -2.5373 0.9360 0 8
-7.5193 18.9307 -2.5526 0.9304 0 8
-7.8711 18.9267 -2.5688 0.9245 0 8
-8.2274 18.9226 -2.5858 0.9185 0 8
-8.5885 18.9183 -2.6036 0.9121 0 8
-8.9547 18.9138 -2.6224 0.9056 0 8
-9.3262 18.9091 -2.6422 0.8988 0 8
-9.6481 18.7964 -2.6477 0.1243 0 7
-9.9480 18.6394 -2.6477 0.1243 0 7
-10.2453 18.4776 -2.6477 0.1243 0 7
-10.5401 18.3111 -2.6477 0.1243 0 7
-10.8321 18.1399 -2.6477 0.1243 0 7
-11.1213 17.9640 -2.6477 0.1243 0 7
-11.4077 17.7835 -2.6477 0.1243 0 7
-11.6912 17.5984 -2.6477 0.1243 0 7
-11.9716 17.4089 -2.6477 0.1243 0 7
-12.2490 17.2148 -2.6477 0.1243 0 7
-12.5233 17.0164 -2.6477 0.1243 0 7
-12.7943 16.8135 -2.6477 0.1243 0 7
-13.0620 16.6064 -2.6477 0.1243 0 7
-13.3264 16.3950 -2.6477 0.1243 0 7
-13.5874 16.1794 -2.6477 0.1243 0 7
-13.8449 15.9596 -2.6477 0.1243 0 7
-14.0988 15.7357 -2.6477 0.1243 0 7
-14.3491 15.5078 -2.6477 0.1243 0 7
-14.5957 15.2759 -2.6477 0.1243 0 7
-14.8386 15.0401 -2.6477 0.1243 0 7
-15.0777 14.8004 -2.6477 0.1243 0 7
-15.3129 14.5570 -2.6477 0.1243 0 7
-15.5441 14.3098 -2.6477 0.1243 0 7
6.9531 18.5317 -2.6477 0.1326 0 7
6.6553 18.6407 -2.6477 0.1326 0 7
6.3558 18.7450 -2.6477 0.1326 0 7
6.0546 18.8444 -2.6477 0.1326 0 7
5.7519 18.9390 -2.6477 0.1326 0 7
5.4255 18.9511 -2.6369 0.9604 0 8
5.0988 18.9523 -2.6253 0.9646 0 8
4.7748 18.9534 -2.6146 0.9685 0 8
4.4534 18.9544 -2.6045 0.9723 0 8
4.1343 18.9552 -2.5952 0.9758 0 8
3.8173 18.9559 -2.5866 0.9790 0 8
3.5024 18.9565 -2.5787 0.9820 0 8
3.1893 18.9570 -2.5714 0.9848 0 8
2.8778 18.9573 -2.5649 0.9873 0 8
2.5678 18.9575 -2.5590 0.9896 0 8
2.2591 18.9577 -2.5538 0.9916 0 8
1.9516 18.9576 -2.5493 0.9933 0 8
1.6451 18.9575 -2.5454 0.9949 0 8
1.3395 18.9573 -2.5422 0.9961 0 8
1.0345 18.9569 -2.5396 0.9971 0 8
0.7301 18.9564 -2.5376 0.9979 0 8
0.4261 18.9558 -2.5363 0.9984 0 8
0.1223 18.9551 -2.5356 0.9987 0 8
-0.1815 18.9563 -2.5358 0.9969 0 8
-0.4853 18.9548 -2.5364 0.9985 0 8
-0.7892 18.9531 -2.5375 0.9981 0 8
-1.0935 18.9511 -2.5392 0.9974 0 8
-1.3984 18.9497 -2.5417 0.9963 0 8
-1.7040 18.9483 -2.5449 0.9951 0 8
-2.0103 18.9467 -2.5487 0.9936 0 8
-2.3177 18.9451 -2.5531 0.9919 0 8
-2.6261 18.9433 -2.5582 0.9899 0 8
-2.9359 18.9413 -2.5640 0.9877 0 8
-3.2471 18.9393 -2.5704 0.9852 0 8
-3.5600 18.9371 -2.5775 0.9825 0 8
-3.8746 18.9348 -2.5853 0.9795 0 8
-4.1912 18.9323 -2.5938 0.9763 0 8
-4.5100 18.9297 -2.6030 0.9728 0 8
-4.8311 18.9270 -2.6130 0.9691 0 8
-5.1546 18.9241 -2.6236 0.9652 0 8
-5.4809 18.9211 -2.6351 0.9610 0 8
-5.8101 18.9179 -2.6473 0.9566 0 8
-6.1134 18.8254 -2.6477 0.1326 0 7
-6.4143 18.7250 -2.6477 0.1326 0 7
-6.7135 18.6199 -2.6477 0.1326 0 7
-7.0109 18.5099 -2.6477 0.1326 0 7
-7.3066 18.3952 -2.6477 0.1326 0 6
-7.6004 18.2758 -2.6477 0.1326 0 7
-7.8922 18.1517 -2.6477 0.1326 0 7
-8.1820 18.0229 -2.6477 0.1326 0 7
-8.4697 17.8895 -2.6477 0.1326 0 7
-8.7552 17.7515 -2.6477 0.1326 0 7
-9.0386 17.6089 -2.6477 0.1326 0 7
-9.3195 17.4619 -2.6477 0.1326 0 7
-9.5981 17.3103 -2.6477 0.1326 0 7
-9.8742 17.1543 -2.6477 0.1326 0 7
-10.1478 16.9939 -2.6477 0.1326 0 7
-10.4188 16.8291 -2.6477 0.1326 0 7
-10.6871 16.6600 -2.6477 0.1326 0 7
-10.9526 16.4867 -2.6477 0.1326 0 7
-11.2153 16.3091 -2.6477 0.1326 0 7
-11.4752 16.1273 -2.6477 0.1326 0 7
-11.7321 15.9414 -2.6477 0.1326 0 7
-11.9860 15.7514 -2.6477 0.1326 0 7
-12.2368 15.5573 -2.6477 0.1326 0 7
-12.4845 15.3593 -2.6477 0.1326 0 7
-12.7290 15.1572 -2.6477 0.1326 0 7
-12.9702 14.9514 -2.6477 0.1326 0 7
-13.2081 14.7416 -2.6477 0.1326 0 7
-13.4426 14.5281 -2.6477 0.1326 0 7
-13.6737 14.3109 -2.6477 0.1326 0 7
-13.9012 14.0900 -2.6477 0.1326 0 7
-14.1251 13.8654 -2.6477 0.1326 0 7
-14.3455 13.6373 -2.6477 0.1326 0 7
-14.5621 13.4058 -2.6477 0.1326 0 7
6.5391 17.4282 -2.6477 0.1408 0 7
6.2590 17.5308 -2.6477 0.1408 0 7
5.9773 17.6288 -2.6477 0.1408 0 7
5.6941 17.7223 -2.6477 0.1408 0 7
5.4094 17.8112 -2.6477 0.1408 0 7
5.1234 17.8956 -2.6477 0.1408 0 7
4.8360 17.9754 -2.6477 0.1408 0 7
4.5474 18.0506 -2.6477 0.1408 0 7
4.2576 18.1211 -2.6477 0.1408 0 7
3.9667 18.1870 -2.6477 0.1408 0 7
3.6748 18.2482 -2.6477 0.1408 0 7
3.3820 18.3048 -2.6477 0.1408 0 7
3.0883 18.3566 -2.6477 0.1408 0 7
2.7938 18.4037 -2.6477 0.1408 0 6
2.4985 18.4461 -2.6477 0.1408 0 6
2.2027 18.4838 -2.6477 0.1408 0 6
1.9062 18.5167 -2.6477 0.1408 0 7
1.6093 18.5449 -2.6477 0.1408 0 7
1.3120 18.5683 -2.6477 0.1408 0 7
1.0143 18.5869 -2.6477 0.1408 0 7
0.7164 18.6008 -2.6477 0.1408 0 7
0.4182 18.6099 -2.6477 0.1408 0 7
0.1200 18.6142 -2.6477 0.1408 0 7
-0.1782 18.6137 -2.6477 0.1408 0 7
-0.4764 18.6085 -2.6477 0.1408 0 7
-0.7745 18.5985 -2.6477 0.1408 0 7
-1.0723 18.5837 -2.6477 0.1408 0 7
-1.3699 18.5641 -2.6477 0.1408 0 7
-1.6672 18.5398 -2.6477 0.1408 0 7
-1.9640 18.5107 -2.6477 0.1408 0 7
-2.2604 18.4768 -2.6477 0.1408 0 6
-2.5560 18.4382 -2.6477 0.1408 0 6
-2.8512 18.3949 -2.6477 0.1408 0 6
-3.1455 18.3469 -2.6477 0.1408 0 7
-3.4391 18.2941 -2.6477 0.1408 0 7
-3.7318 18.2367 -2.6477 0.1408 0 7
-4.0235 18.1746 -2.6477 0.1408 0 7
-4.3141 18.1078 -2.6477 0.1408 0 7
-4.6037 18.0363 -2.6477 0.1408 0 7
-4.8921 17.9602 -2.6477 0.1408 0 7
-5.1792 17.8796 -2.6477 0.1408 0 7
-5.4650 17.7943 -2.6477 0.1408 0 7
-5.7494 17.7044 -2.6477 0.1408 0 7
-6.0323 17.6100 -2.6477 0.1408 0 7
-6.3137 17.5111 -2.6477 0.1408 0 7
-6.5934 17.4077 -2.6477 0.1408 0 7
-6.8715 17.2999 -2.6477 0.1408 0 7
-7.1478 17.1875 -2.6477 0.1408 0 7
-7.4223 17.0708 -2.6477 0.1408 0 7
-7.6948 16.9497 -2.6477 0.1408 0 7
-7.9654 16.8242 -2.6477 0.1408 0 7
-8.2339 16.6945 -2.6477 0.1408 0 7
-8.5003 16.5604 -2.6477 0.1408 0 7
-8.7646 16.4221 -2.6477 0.1408 0 7
-9.0266 16.2795 -2.6477 0.1408 0 7
-9.2862 16.1328 -2.6477 0.1408 0 7
-9.5435 15.9820 -2.6477 0.1408 0 7
-9.7984 15.8270 -2.6477 0.1408 0 7
-10.0507 15.6680 -2.6477 0.1408 0 7
-10.3004 15.5050 -2.6477 0.1408 0 7
-10.5475 15.3379 -2.6477 0.1408 0 7
-10.7919 15.1670 -2.6477 0.1408 0 7
-11.0335 14.9921 -2.6477 0.1408 0 7
-11.2723 14.8134 -2.6477 0.1408 0 7
-11.5082 14.6309 -2.6477 0.1408 0 7
-11.7411 14.4447 -2.6477 0.1408 0 7
-11.9711 14.2547 -2.6477 0.1408 0 7
-12.1979 14.0611 -2.6477 0.1408 0 7
-12.4216 13.8638 -2.6477 0.1408 0 7
-12.6422 13.6630 -2.6477 0.1408 0 7
-12.8594 13.4587 -2.6477 0.1408 0 7
-13.0734 13.2510 -2.6477 0.1408 0 7
-13.2841 13.0398 -2.6477 0.1408 0 7
-13.4913 12.8253 -2.6477 0.1408 0 7
-13.6950 12.6075 -2.6477 0.1408 0 7
6.1708 16.4466 -2.6477 0.1490 0 7
5.9065 16.5434 -2.6477 0.1490 0 7
5.6407 16.6359 -2.6477 0.1490 0 7
5.3734 16.7241 -2.6477 0.1490 0 7
5.1048 16.8081 -2.6477 0.1490 0 7
4.8348 16.8877 -2.6477 0.1490 0 7
4.5636 16.9630 -2.6477 0.1490 0 7
4.2912 17.0339 -2.6477 0.1490 0 7
4.0178 17.1005 -2.6477 0.1490 0 7
3.7433 17.1627 -2.6477 0.1490 0 7
3.4678 17.2204 -2.6477 0.1490 0 7
3.1915 17.2738 -2.6477 0.1490 0 7
2.9143 17.3227 -2.6477 0.1490 0 7
2.6364 17.3672 -2.6477 0.1490 0 7
2.3578 17.4072 -2.6477 0.1490 0 7
2.0786 17.4427 -2.6477 0.1490 0 7
1.7989 17.4738 -2.6477 0.1490 0 7
1.5187 17.5004 -2.6477 0.1490 0 7
1.2381 17.5225 -2.6477 0.1490 0 7
0.9572 17.5400 -2.6477 0.1490 0 7
0.6760 17.5531 -2.6477 0.1490 0 7
0.3947 17.5617 -2.6477 0.1490 0 7
0.1133 17.5658 -2.6477 0.1490 0 7
-0.1681 17.5653 -2.6477 0.1490 0 7
-0.4496 17.5604 -2.6477 0.1490 0 7
-0.7309 17.5509 -2.6477 0.1490 0 7
-1.0119 17.5370 -2.6477 0.1490 0 7
-1.2928 17.5185 -2.6477 0.1490 0 7
-1.5733 17.4955 -2.6477 0.1490 0 7
-1.8534 17.4681 -2.6477 0.1490 0 7
-2.1331 17.4362 -2.6477 0.1490 0 7
-2.4121 17.3997 -2.6477 0.1490 0 7
-2.6906 17.3589 -2.6477 0.1490 0 7
-2.9684 17.3135 -2.6477 0.1490 0 7
-3.2454 17.2637 -2.6477 0.1490 0 7
-3.5216 17.2095 -2.6477 0.1490 0 7
-3.7968 17.1509 -2.6477 0.1490 0 7
-4.0712 17.0879 -2.6477 0.1490 0 7
-4.3444 17.0204 -2.6477 0.1490 0 7
-4.6166 16.9487 -2.6477 0.1490 0 7
-4.8875 16.8725 -2.6477 0.1490 0 7
-5.1572 16.7920 -2.6477 0.1490 0 7
-5.4256 16.7073 -2.6477 0.1490 0 7
-5.6926 16.6182 -2.6477 0.1490 0 7
-5.9581 16.5248 -2.6477 0.1490 0 7
-6.2221 16.4273 -2.6477 0.1490 0 7
-6.4845 16.3255 -2.6477 0.1490 0 7
-6.7452 16.2195 -2.6477 0.1490 0 7
-7.0042 16.1093 -2.6477 0.1490 0 7
-7.2614 15.9950 -2.6477 0.1490 0 7
-7.5167 15.8767 -2.6477 0.1490 0 7
-7.7702 15.7542 -2.6477 0.1490 0 7
-8.0216 15.6277 -2.6477 0.1490 0 7
-8.2709 15.4971 -2.6477 0.1490 0 7
-8.5182 15.3626 -2.6477 0.1490 0 7
-8.7632 15.2242 -2.6477 0.1490 0 7
-9.0060 15.0818 -2.6477 0.1490 0 7
-9.2465 14.9356 -2.6477 0.1490 0 7
-9.4846 14.7855 -2.6477 0.1490 0 7
-9.7203 14.6317 -2.6477 0.1490 0 7
-9.9534 14.4741 -2.6477 0.1490 0 7
-10.1841 14.3127 -2.6477 0.1490 0 7
-10.4121 14.1477 -2.6477 0.1490 0 7
-10.6374 13.9791 -2.6477 0.1490 0 7
-10.8600 13.8069 -2.6477 0.1490 0 7
-11.0798 13.6311 -2.6477 0.1490 0 7
-11.2968 13.4518 -2.6477 0.1490 0 7
-11.5109 13.2691 -2.6477 0.1490 0 7
-11.7220 13.0830 -2.6477 0.1490 0 7
-11.9301 12.8935 -2.6477 0.1490 0 7
-12.1352 12.7007 -2.6477 0.1490 0 7
-12.3371 12.5046 -2.6477 0.1490 0 7
-12.5359 12.3054 -2.6477 0.1490 0 7
-12.7314 12.1029 -2.6477 0.1490 0 7
-12.9237 11.8974 -2.6477 0.1490 0 7
5.8410 15.5676 -2.6477 0.1573 0 7
5.5908 15.6592 -2.6477 0.1573 0 7
5.3392 15.7467 -2.6477 0.1573 0 7
5.0862 15.8303 -2.6477 0.1573 0 7
4.8319 15.9097 -2.6477 0.1573 0 7
4.5764 15.9851 -2.6477 0.1573 0 7
4.3197 16.0564 -2.6477 0.1573 0 7
4.0619 16.1235 -2.6477 0.1573 0 7
3.8030 16.1865 -2.6477 0.1573 0 7
3.5432 16.2454 -2.6477 0.1573 0 7
3.2825 16.3001 -2.6477 0.1573 0 7
3.0209 16.3506 -2.6477 0.1573 0 7
2.7586 16.3969 -2.6477 0.1573 0 7
2.4955 16.4390 -2.6477 0.1573 0 7
2.2318 16.4768 -2.6477 0.1573 0 7
1.9675 16.5105 -2.6477 0.1573 0 7
1.7027 16.5399 -2.6477 0.1573 0 7
1.4375 16.5650 -2.6477 0.1573 0 7
1.1719 16.5859 -2.6477 0.1573 0 7
0.9060 16.6026 -2.6477 0.1573 0 7
0.6399 16.6150 -2.6477 0.1573 0 7
0.3736 16.6231 -2.6477 0.1573 0 7
0.1072 16.6269 -2.6477 0.1573 0 7
-0.1592 16.6265 -2.6477 0.1573 0 7
-0.4255 16.6218 -2.6477 0.1573 0 7
-0.6918 16.6129 -2.6477 0.1573 0 7
-0.9579 16.5997 -2.6477 0.1573 0 7
-1.2237 16.5822 -2.6477 0.1573 0 7
-1.4892 16.5605 -2.6477 0.1573 0 7
-1.7544 16.5345 -2.6477 0.1573 0 7
-2.0191 16.5042 -2.6477 0.1573 0 7
-2.2832 16.4698 -2.6477 0.1573 0 7
-2.5468 16.4311 -2.6477 0.1573 0 7
-2.8097 16.3882 -2.6477 0.1573 0 7
-3.0719 16.3410 -2.6477 0.1573 0 7
-3.3334 16.2897 -2.6477 0.1573 0 7
-3.5939 16.2342 -2.6477 0.1573 0 7
-3.8536 16.1746 -2.6477 0.1573 0 7
-4.1122 16.1108 -2.6477 0.1573 0 7
-4.3698 16.0428 -2.6477 0.1573 0 7
-4.6263 15.9707 -2.6477 0.1573 0 7
-4.8816 15.8946 -2.6477 0.1573 0 7
-5.1356 15.8143 -2.6477 0.1573 0 7
-5.3883 15.7300 -2.6477 0.1573 0 7
-5.6397 15.6416 -2.6477 0.1573 0 7
-5.8895 15.5493 -2.6477 0.1573 0 7
-6.1379 15.4529 -2.6477 0.1573 0 7
-6.3847 15.3526 -2.6477 0.1573 0 7
-6.6299 15.2483 -2.6477 0.1573 0 7
-6.8733 15.1402 -2.6477 0.1573 0 7
-7.1150 15.0281 -2.6477 0.1573 0 7
-7.3549 14.9122 -2.6477 0.1573 0 6
-7.5928 14.7924 -2.6477 0.1573 0 7
-7.8289 14.6689 -2.6477 0.1573 0 7
-8.0629 14.5415 -2.6477 0.1573 0 7
-8.2948 14.4105 -2.6477 0.1573 0 7
-8.5247 14.2757 -2.6477 0.1573 0 7
-8.7523 14.1373 -2.6477 0.1573 0 7
-8.9777 13.9953 -2.6477 0.1573 0 7
-9.2007 13.8497 -2.6477 0.1573 0 7
-9.4215 13.7005 -2.6477 0.1573 0 7
-9.6398 13.5478 -2.6477 0.1573 0 7
-9.8556 13.3916 -2.6477 0.1573 0 7
-10.0689 13.2320 -2.6477 0.1573 0 7
-10.2796 13.0689 -2.6477 0.1573 0 7
-10.4876 12.9026 -2.6477 0.1573 0 7
-10.6930 12.7329 -2.6477 0.1573 0 7
-10.8957 12.5599 -2.6477 0.1573 0 7
-11.0955 12.3837 -2.6477 0.1573 0 7
-11.2925 12.2044 -2.6477 0.1573 0 7
-11.4866 12.0219 -2.6477 0.1573 0 7
-11.6777 11.8363 -2.6477 0.1573 0 7
-11.8659 11.6477 -2.6477 0.1573 0 7
-12.0509 11.4561 -2.6477 0.1573 0 6
-12.2329 11.2615 -2.6477 0.1573 0 7
5.5439 14.7758 -2.6477 0.1655 0 7
5.3064 14.8627 -2.6477 0.1655 0 7
5.0676 14.9458 -2.6477 0.1655 0 7
4.8275 15.0251 -2.6477 0.1655 0 7
4.5862 15.1005 -2.6477 0.1655 0 7
4.3436 15.1720 -2.6477 0.1655 0 7
4.1000 15.2397 -2.6477 0.1655 0 7
3.8553 15.3034 -2.6477 0.1655 0 7
3.6096 15.3632 -2.6477 0.1655 0 7
3.3630 15.4191 -2.6477 0.1655 0 7
3.1155 15.4710 -2.6477 0.1655 0 7
2.8672 15.5189 -2.6477 0.1655 0 7
2.6182 15.5629 -2.6477 0.1655 0 7
2.3686 15.6028 -2.6477 0.1655 0 7
2.1183 15.6388 -2.6477 0.1655 0 7
1.8674 15.6707 -2.6477 0.1655 0 7
1.6161 15.6986 -2.6477 0.1655 0 7
1.3644 15.7225 -2.6477 0.1655 0 7
1.1123 15.7423 -2.6477 0.1655 0 7
0.8599 15.7581 -2.6477 0.1655 0 7
0.6074 15.7699 -2.6477 0.1655 0 7
0.3546 15.7776 -2.6477 0.1655 0 7
0.1018 15.7812 -2.6477 0.1655 0 7
-0.1511 15.7809 -2.6477 0.1655 0 7
-0.4039 15.7764 -2.6477 0.1655 0 7
-0.6566 15.7679 -2.6477 0.1655 0 7
-0.9091 15.7554 -2.6477 0.1655 0 7
-1.1615 15.7388 -2.6477 0.1655 0 7
-1.4135 15.7181 -2.6477 0.1655 0 7
-1.6651 15.6935 -2.6477 0.1655 0 7
-1.9164 15.6648 -2.6477 0.1655 0 7
-2.1671 15.6321 -2.6477 0.1655 0 7
-2.4173 15.5953 -2.6477 0.1655 0 7
-2.6668 15.5546 -2.6477 0.1655 0 7
-2.9157 15.5099 -2.6477 0.1655 0 7
-3.1638 15.4612 -2.6477 0.1655 0 7
-3.4111 15.4085 -2.6477 0.1655 0 7
-3.6576 15.3519 -2.6477 0.1655 0 7
-3.9031 15.2913 -2.6477 0.1655 0 7
-4.1476 15.2268 -2.6477 0.1655 0 7
-4.3910 15.1584 -2.6477 0.1655 0 7
-4.6333 15.0861 -2.6477 0.1655 0 7
-4.8744 15.0099 -2.6477 0.1655 0 7
-5.1143 14.9299 -2.6477 0.1655 0 7
-5.3528 14.8461 -2.6477 0.1655 0 7
-5.5900 14.7584 -2.6477 0.1655 0 7
-5.8257 14.6669 -2.6477 0.1655 0 7
-6.0600 14.5717 -2.6477 0.1655 0 7
-6.2926 14.4728 -2.6477 0.1655 0 7
-6.5237 14.3701 -2.6477 0.1655 0 7
-6.7531 14.2637 -2.6477 0.1655 0 7
-6.9808 14.1537 -2.6477 0.1655 0 7
-7.2067 14.0400 -2.6477 0.1655 0 7
-7.4307 13.9228 -2.6477 0.1655 0 7
-7.6528 13.8019 -2.6477 0.1655 0 7
-7.8729 13.6775 -2.6477 0.1655 0 7
-8.0911 13.5496 -2.6477 0.1655 0 7
-8.3071 13.4183 -2.6477 0.1655 0 7
-8.5210 13.2834 -2.6477 0.1655 0 7
-8.7328 13.1452 -2.6477 0.1655 0 7
-8.9423 13.0036 -2.6477 0.1655 0 7
-9.1495 12.8587 -2.6477 0.1655 0 7
-9.3543 12.7104 -2.6477 0.1655 0 7
-9.5567 12.5589 -2.6477 0.1655 0 7
-9.7567 12.4042 -2.6477 0.1655 0 7
-9.9542 12.2463 -2.6477 0.1655 0 7
-10.1491 12.0852 -2.6477 0.1655 0 7
-10.3415 11.9211 -2.6477 0.1655 0 7
-10.5311 11.7539 -2.6477 0.1655 0 7
-10.7181 11.5836 -2.6477 0.1655 0 7
-10.9023 11.4104 -2.6477 0.1655 0 6
-11.0837 11.2343 -2.6477 0.1655 0 7
-11.2623 11.0552 -2.6477 0.1655 0 7
-11.4380 10.8734 -2.6477 0.1655 0 7
-11.6107 10.6887 -2.6477 0.1655 0 7
5.2748 14.0587 -2.6477 0.1736 0 7
5.0489 14.1414 -2.6477 0.1736 0 7
4.8217 14.2205 -2.6477 0.1736 0 7
4.5932 14.2959 -2.6477 0.1736 0 7
4.3636 14.3677 -2.6477 0.1736 0 7
4.1328 14.4357 -2.6477 0.1736 0 7
3.9010 14.5001 -2.6477 0.1736 0 7
3.6682 14.5607 -2.6477 0.1736 0 7
3.4344 14.6177 -2.6477 0.1736 0 7
3.1998 14.6708 -2.6477 0.1736 0 7
2.9643 14.7202 -2.6477 0.1736 0 7
2.7281 14.7658 -2.6477 0.1736 0 7
2.4912 14.8076 -2.6477 0.1736 0 7
2.2536 14.8456 -2.6477 0.1736 0 7
2.0155 14.8798 -2.6477 0.1736 0 7
1.7768 14.9102 -2.6477 0.1736 0 7
1.5377 14.9368 -2.6477 0.1736 0 7
1.2982 14.9595 -2.6477 0.1736 0 7
1.0583 14.9784 -2.6477 0.1736 0 7
0.8182 14.9934 -2.6477 0.1736 0 7
0.5779 15.0046 -2.6477 0.1736 0 7
0.3374 15.0119 -2.6477 0.1736 0 7
0.0969 15.0154 -2.6477 0.1736 0 7
-0.1437 15.0150 -2.6477 0.1736 0 7
-0.3843 15.0108 -2.6477 0.1736 0 7
-0.6247 15.0027 -2.6477 0.1736 0 7
-0.8650 14.9908 -2.6477 0.1736 0 6
-1.1051 14.9750 -2.6477 0.1736 0 6
-1.3449 14.9553 -2.6477 0.1736 0 6
-1.5843 14.9319 -2.6477 0.1736 0 6
-1.8233 14.9046 -2.6477 0.1736 0 7
-2.0619 14.8735 -2.6477 0.1736 0 7
-2.3000 14.8385 -2.6477 0.1736 0 7
-2.5374 14.7998 -2.6477 0.1736 0 7
-2.7742 14.7572 -2.6477 0.1736 0 7
-3.0103 14.7109 -2.6477 0.1736 0 7
-3.2456 14.6607 -2.6477 0.1736 0 7
-3.4801 14.6069 -2.6477 0.1736 0 7
-3.7136 14.5492 -2.6477 0.1736 0 7
-3.9463 14.4879 -2.6477 0.1736 0 7
-4.1779 14.4228 -2.6477 0.1736 0 7
-4.4084 14.3540 -2.6477 0.1736 0 7
-4.6378 14.2815 -2.6477 0.1736 0 7
-4.8661 14.2054 -2.6477 0.1736 0 7
-5.0930 14.1256 -2.6477 0.1736 0 7
-5.3187 14.0422 -2.6477 0.1736 0 7
-5.5430 13.9552 -2.6477 0.1736 0 7
-5.7659 13.8646 -2.6477 0.1736 0 7
-5.9873 13.7704 -2.6477 0.1736 0 7
-6.2071 13.6727 -2.6477 0.1736 0 7
-6.4254 13.5715 -2.6477 0.1736 0 7
-6.6420 13.4668 -2.6477 0.1736 0 7
-6.8569 13.3587 -2.6477 0.1736 0 7
-7.0701 13.2471 -2.6477 0.1736 0 7
-7.2814 13.1321 -2.6477 0.1736 0 7
-7.4909 13.0138 -2.6477 0.1736 0 7
-7.6984 12.8921 -2.6477 0.1736 0 7
-7.9040 12.7671 -2.6477 0.1736 0 7
-8.1075 12.6388 -2.6477 0.1736 0 7
-8.3090 12.5073 -2.6477 0.1736 0 7
-8.5083 12.3726 -2.6477 0.1736 0 7
-8.7054 12.2346 -2.6477 0.1736 0 7
-8.9003 12.0936 -2.6477 0.1736 0 7
-9.0930 11.9494 -2.6477 0.1736 0 7
-9.2832 11.8022 -2.6477 0.1736 0 7
-9.4711 11.6520 -2.6477 0.1736 0 7
-9.6566 11.4987 -2.6477 0.1736 0 7
-9.8396 11.3425 -2.6477 0.1736 0 7
-10.0201 11.1834 -2.6477 0.1736 0 7
-10.1980 11.0215 -2.6477 0.1736 0 7
-10.3732 10.8567 -2.6477 0.1736 0 7
-10.5458 10.6891 -2.6477 0.1736 0 7
-10.7158 10.5187 -2.6477 0.1736 0 7
-10.8829 10.3457 -2.6477 0.1736 0 7
-11.0473 10.1700 -2.6477 0.1736 0 7
5.0300 13.4062 -2.6477 0.1818 0 7
4.8146 13.4851 -2.6477 0.1818 0 7
4.5979 13.5605 -2.6477 0.1818 0 7
4.3800 13.6324 -2.6477 0.1818 0 7
4.1611 13.7008 -2.6477 0.1818 0 7
3.9410 13.7657 -2.6477 0.1818 0 7
3.7200 13.8271 -2.6477 0.1818 0 7
3.4979 13.8849 -2.6477 0.1818 0 7
3.2750 13.9392 -2.6477 0.1818 0 7
3.0513 13.9899 -2.6477 0.1818 0 7
2.8267 14.0370 -2.6477 0.1818 0 7
2.6015 14.0805 -2.6477 0.1818 0 7
2.3756 14.1203 -2.6477 0.1818 0 7
2.1490 14.1566 -2.6477 0.1818 0 7
1.9219 14.1892 -2.6477 0.1818 0 7
1.6943 14.2182 -2.6477 0.1818 0 7
1.4663 14.2435 -2.6477 0.1818 0 7
1.2379 14.2652 -2.6477 0.1818 0 7
1.0092 14.2832 -2.6477 0.1818 0 7
0.7802 14.2975 -2.6477 0.1818 0 7
0.5511 14.3082 -2.6477 0.1818 0 7
0.3218 14.3151 -2.6477 0.1818 0 7
0.0924 14.3185 -2.6477 0.1818 0 7
-0.1371 14.3181 -2.6477 0.1818 0 7
-0.3664 14.3141 -2.6477 0.1818 0 7
-0.5957 14.3064 -2.6477 0.1818 0 7
-0.8249 14.2950 -2.6477 0.1818 0 7
-1.0538 14.2799 -2.6477 0.1818 0 7
-1.2825 14.2612 -2.6477 0.1818 0 7
-1.5108 14.2388 -2.6477 0.1818 0 7
-1.7387 14.2128 -2.6477 0.1818 0 7
-1.9662 14.1831 -2.6477 0.1818 0 7
-2.1932 14.1498 -2.6477 0.1818 0 7
-2.4196 14.1128 -2.6477 0.1818 0 7
-2.6454 14.0723 -2.6477 0.1818 0 7
-2.8706 14.0281 -2.6477 0.1818 0 7
-3.0949 13.9803 -2.6477 0.1818 0 7
-3.3185 13.9289 -2.6477 0.1818 0 7
-3.5413 13.8739 -2.6477 0.1818 0 7
-3.7631 13.8154 -2.6477 0.1818 0 7
-3.9840 13.7534 -2.6477 0.1818 0 7
-4.2038 13.6878 -2.6477 0.1818 0 7
-4.4226 13.6187 -2.6477 0.1818 0 7
-4.6402 13.5460 -2.6477 0.1818 0 7
-4.8566 13.4700 -2.6477 0.1818 0 7
-5.0718 13.3904 -2.6477 0.1818 0 7
-5.2857 13.3074 -2.6477 0.1818 0 7
-5.4982 13.2211 -2.6477 0.1818 0 7
-5.7094 13.1313 -2.6477 0.1818 0 7
-5.9190 13.0381 -2.6477 0.1818 0 7
-6.1272 12.9416 -2.6477 0.1818 0 7
-6.3337 12.8418 -2.6477 0.1818 0 7
-6.5387 12.7386 -2.6477 0.1818 0 7
-6.7419 12.6322 -2.6477 0.1818 0 7
-6.9434 12.5226 -2.6477 0.1818 0 7
-7.1432 12.4098 -2.6477 0.1818 0 7
-7.3411 12.2937 -2.6477 0.1818 0 7
-7.5371 12.1745 -2.6477 0.1818 0 7
-7.7312 12.0522 -2.6477 0.1818 0 7
-7.9233 11.9268 -2.6477 0.1818 0 7
-8.1134 11.7983 -2.6477 0.1818 0 7
-8.3014 11.6668 -2.6477 0.1818 0 7
-8.4872 11.5323 -2.6477 0.1818 0 7
-8.6709 11.3948 -2.6477 0.1818 0 6
-8.8524 11.2544 -2.6477 0.1818 0 7
-9.0315 11.1112 -2.6477 0.1818 0 7
-9.2084 10.9650 -2.6477 0.1818 0 7
-9.3829 10.8161 -2.6477 0.1818 0 7
-9.5550 10.6644 -2.6477 0.1818 0 7
-9.7246 10.5099 -2.6477 0.1818 0 7
-9.8918 10.3528 -2.6477 0.1818 0 7
-10.0564 10.1930 -2.6477 0.1818 0 7
-10.2184 10.0305 -2.6477 0.1818 0 7
-10.3778 9.8655 -2.6477 0.1818 0 7
-10.5345 9.6980 -2.6477 0.1818 0 7
4.8062 12.8098 -2.6477 0.1900 0 7
4.6004 12.8852 -2.6477 0.1900 0 7
4.3934 12.9572 -2.6477 0.1900 0 7
4.1852 13.0260 -2.6477 0.1900 0 7
3.9760 13.0913 -2.6477 0.1900 0 7
3.7657 13.1534 -2.6477 0.1900 0 7
3.5545 13.2120 -2.6477 0.1900 0 7
3.3423 13.2673 -2.6477 0.1900 0 7
3.1293 13.3191 -2.6477 0.1900 0 7
2.9155 13.3675 -2.6477 0.1900 0 7
2.7010 13.4125 -2.6477 0.1900 0 7
2.4858 13.4541 -2.6477 0.1900 0 7
2.2699 13.4922 -2.6477 0.1900 0 7
2.0534 13.5268 -2.6477 0.1900 0 7
1.8364 13.5580 -2.6477 0.1900 0 7
1.6190 13.5857 -2.6477 0.1900 0 7
1.4011 13.6099 -2.6477 0.1900 0 7
1.1829 13.6306 -2.6477 0.1900 0 7
0.9643 13.6478 -2.6477 0.1900 0 7
0.7455 13.6615 -2.6477 0.1900 0 7
0.5265 13.6716 -2.6477 0.1900 0 7
0.3074 13.6783 -2.6477 0.1900 0 7
0.0882 13.6815 -2.6477 0.1900 0 7
-0.1310 13.6812 -2.6477 0.1900 0 7
-0.3501 13.6773 -2.6477 0.1900 0 7
-0.5692 13.6699 -2.6477 0.1900 0 7
-0.7882 13.6591 -2.6477 0.1900 0 7
-1.0069 13.6447 -2.6477 0.1900 0 7
-1.2254 13.6268 -2.6477 0.1900 0 7
-1.4436 13.6054 -2.6477 0.1900 0 7
-1.6614 13.5805 -2.6477 0.1900 0 7
-1.8787 13.5522 -2.6477 0.1900 0 7
-2.0956 13.5203 -2.6477 0.1900 0 7
-2.3120 13.4850 -2.6477 0.1900 0 7
-2.5278 13.4463 -2.6477 0.1900 0 7
-2.7429 13.4040 -2.6477 0.1900 0 7
-2.9573 13.3584 -2.6477 0.1900 0 7
-3.1709 13.3093 -2.6477 0.1900 0 7
-3.3837 13.2568 -2.6477 0.1900 0 7
-3.5957 13.2008 -2.6477 0.1900 0 7
-3.8067 13.1415 -2.6477 0.1900 0 7
-4.0168 13.0789 -2.6477 0.1900 0 7
-4.2258 13.0128 -2.6477 0.1900 0 7
-4.4338 12.9434 -2.6477 0.1900 0 7
-4.6406 12.8707 -2.6477 0.1900 0 7
-4.8462 12.7947 -2.6477 0.1900 0 7
-5.0506 12.7155 -2.6477 0.1900 0 7
-5.2537 12.6329 -2.6477 0.1900 0 7
-5.4554 12.5471 -2.6477 0.1900 0 7
-5.6557 12.4581 -2.6477 0.1900 0 7
-5.8546 12.3659 -2.6477 0.1900 0 7
-6.0520 12.2705 -2.6477 0.1900 0 7
-6.2478 12.1720 -2.6477 0.1900 0 7
-6.4420 12.0703 -2.6477 0.1900 0 7
-6.6346 11.9655 -2.6477 0.1900 0 7
-6.8254 11.8577 -2.6477 0.1900 0 7
-7.0145 11.7468 -2.6477 0.1900 0 7
-7.2018 11.6329 -2.6477 0.1900 0 7
-7.3873 11.5160 -2.6477 0.1900 0 7
-7.5708 11.3962 -2.6477 0.1900 0 6
-7.7525 11.2734 -2.6477 0.1900 0 7
-7.9321 11.1478 -2.6477 0.1900 0 7
-8.1097 11.0193 -2.6477 0.1900 0 7
-8.2852 10.8879 -2.6477 0.1900 0 7
-8.4586 10.7538 -2.6477 0.1900 0 7
-8.6298 10.6169 -2.6477 0.1900 0 7
-8.7988 10.4773 -2.6477 0.1900 0 7
-8.9655 10.3349 -2.6477 0.1900 0 7
-9.1299 10.1900 -2.6477 0.1900 0 7
-9.2920 10.0424 -2.6477 0.1900 0 7
-9.4517 9.8922 -2.6477 0.1900 0 7
-9.6090 9.7395 -2.6477 0.1900 0 7
-9.7638 9.5843 -2.6477 0.1900 0 7
-9.9161 9.4266 -2.6477 0.1900 0 7
-10.0659 9.2666 -2.6477 0.1900 0 7
4.6009 12.2626 -2.6477 0.1981 0 7
4.4038 12.3347 -2.6477 0.1981 0 7
4.2057 12.4037 -2.6477 0.1981 0 7
4.0064 12.4695 -2.6477 0.1981 0 7
3.8061 12.5320 -2.6477 0.1981 0 7
3.6048 12.5914 -2.6477 0.1981 0 7
3.4026 12.6476 -2.6477 0.1981 0 7
3.1995 12.7004 -2.6477 0.1981 0 7
2.9956 12.7501 -2.6477 0.1981 0 7
2.7910 12.7964 -2.6477 0.1981 0 7
2.5856 12.8395 -2.6477 0.1981 0 7
2.3796 12.8793 -2.6477 0.1981 0 7
2.1729 12.9158 -2.6477 0.1981 0 7
1.9657 12.9489 -2.6477 0.1981 0 7
1.7580 12.9788 -2.6477 0.1981 0 7
1.5498 13.0053 -2.6477 0.1981 0 7
1.3412 13.0284 -2.6477 0.1981 0 7
1.1323 13.0482 -2.6477 0.1981 0 7
0.9231 13.0647 -2.6477 0.1981 0 7
0.7137 13.0778 -2.6477 0.1981 0 7
0.5041 13.0876 -2.6477 0.1981 0 7
0.2943 13.0940 -2.6477 0.1981 0 7
0.0845 13.0970 -2.6477 0.1981 0 7
-0.1254 13.0967 -2.6477 0.1981 0 7
-0.3352 13.0930 -2.6477 0.1981 0 7
-0.5449 13.0859 -2.6477 0.1981 0 7
-0.7545 13.0755 -2.6477 0.1981 0 7
-0.9639 13.0618 -2.6477 0.1981 0 7
-1.1731 13.0446 -2.6477 0.1981 0 7
-1.3819 13.0242 -2.6477 0.1981 0 7
-1.5904 13.0003 -2.6477 0.1981 0 7
-1.7985 12.9732 -2.6477 0.1981 0 7
-2.0061 12.9427 -2.6477 0.1981 0 7
-2.2132 12.9089 -2.6477 0.1981 0 7
-2.4198 12.8718 -2.6477 0.1981 0 7
-2.6257 12.8314 -2.6477 0.1981 0 7
-2.8309 12.7877 -2.6477 0.1981 0 7
-3.0354 12.7407 -2.6477 0.1981 0 7
-3.2392 12.6904 -2.6477 0.1981 0 7
-3.4421 12.6369 -2.6477 0.1981 0 7
-3.6441 12.5801 -2.6477 0.1981 0 7
-3.8452 12.5201 -2.6477 0.1981 0 7
-4.0453 12.4569 -2.6477 0.1981 0 7
-4.2444 12.3905 -2.6477 0.1981 0 7
-4.4423 12.3209 -2.6477 0.1981 0 7
-4.6392 12.2481 -2.6477 0.1981 0 7
-4.8348 12.1722 -2.6477 0.1981 0 7
-5.0292 12.0932 -2.6477 0.1981 0 7
-5.2223 12.0111 -2.6477 0.1981 0 7
-5.4141 11.9259 -2.6477 0.1981 0 7
-5.6045 11.8376 -2.6477 0.1981 0 7
-5.7934 11.7463 -2.6477 0.1981 0 7
-5.9809 11.6519 -2.6477 0.1981 0 7
-6.1668 11.5546 -2.6477 0.1981 0 7
-6.3511 11.4543 -2.6477 0.1981 0 6
-6.5338 11.3511 -2.6477 0.1981 0 7
-6.7148 11.2450 -2.6477 0.1981 0 7
-6.8942 11.1359 -2.6477 0.1981 0 7
-7.0717 11.0240 -2.6477 0.1981 0 7
-7.2474 10.9093 -2.6477 0.1981 0 7
-7.4213 10.7918 -2.6477 0.1981 0 7
-7.5932 10.6715 -2.6477 0.1981 0 7
-7.7632 10.5485 -2.6477 0.1981 0 7
-7.9312 10.4228 -2.6477 0.1981 0 7
-8.0972 10.2944 -2.6477 0.1981 0 7
-8.2611 10.1633 -2.6477 0.1981 0 7
-8.4229 10.0296 -2.6477 0.1981 0 7
-8.5825 9.8934 -2.6477 0.1981 0 7
-8.7399 9.7546 -2.6477 0.1981 0 7
-8.8951 9.6134 -2.6477 0.1981 0 7
-9.0479 9.4696 -2.6477 0.1981 0 7
-9.1985 9.3234 -2.6477 0.1981 0 7
-9.3467 9.1748 -2.6477 0.1981 0 7
-9.4925 9.0239 -2.6477 0.1981 0 7
-9.0812 8.3601 -2.4953 0.1981 0 8
4.4118 11.7585 -2.6477 0.2063 0 7
4.2228 11.8277 -2.6477 0.2063 0 7
4.0328 11.8938 -2.6477 0.2063 0 7
3.8417 11.9569 -2.6477 0.2063 0 7
3.6497 12.0169 -2.6477 0.2063 0 7
3.4566 12.0739 -2.6477 0.2063 0 7
3.2628 12.1277 -2.6477 0.2063 0 7
3.0680 12.1784 -2.6477 0.2063 0 7
2.8725 12.2260 -2.6477 0.2063 0 7
2.6763 12.2705 -2.6477 0.2063 0 7
2.4793 12.3118 -2.6477 0.2063 0 7
2.2818 12.3499 -2.6477 0.2063 0 7
2.0836 12.3849 -2.6477 0.2063 0 7
1.8849 12.4167 -2.6477 0.2063 0 7
1.6857 12.4453 -2.6477 0.2063 0 7
1.4861 12.4707 -2.6477 0.2063 0 7
1.2861 12.4929 -2.6477 0.2063 0 7
1.0858 12.5119 -2.6477 0.2063 0 7
0.8852 12.5277 -2.6477 0.2063 0 7
