ply
format ascii 1.0
element vertex 1396
property float32 x
property float32 y
property float32 z
property float32 CosAngle
property uint32 ObjIdx
property uint32 ObjTag
end_header
27.0561 16.6784 -2.6477 0.0830 0 7
26.7841 17.1119 -2.6477 0.0830 0 7
26.5051 17.5409 -2.6477 0.0830 0 7
26.2193 17.9653 -2.6477 0.0830 0 7
25.9266 18.3851 -2.6477 0.0830 0 7
25.6273 18.8001 -2.6477 0.0830 0 7
25.0556 19.0088 -2.6199 0.6052 0 8
24.2448 19.0163 -2.5668 0.6177 0 8
23.4659 19.0235 -2.5164 0.6301 0 8
23.0319 19.2944 -2.5029 0.0830 0 14
22.7183 19.6627 -2.5029 0.0830 0 14
22.3988 20.0259 -2.5029 0.0830 0 14
22.0735 20.3840 -2.5029 0.0830 0 14
21.7424 20.7367 -2.5029 0.0830 0 14
21.4058 21.0840 -2.5029 0.0830 0 14
21.0635 21.4260 -2.5029 0.0830 0 14
20.7158 21.7623 -2.5029 0.0830 0 14
20.3628 22.0930 -2.5029 0.0830 0 14
20.0045 22.4180 -2.5029 0.0830 0 8
20.7771 24.0524 -2.6477 0.0830 0 7
20.3871 24.3838 -2.6477 0.0830 0 7
19.9919 24.7088 -2.6477 0.0830 0 7
19.5915 25.0275 -2.6477 0.0830 0 7
19.1860 25.3397 -2.6477 0.0830 0 7
18.7756 25.6453 -2.6477 0.0830 0 7
18.3603 25.9442 -2.6477 0.0830 0 7
17.9402 26.2365 -2.6477 0.0830 0 7
17.5154 26.5219 -2.6477 0.0830 0 7
17.0862 26.8005 -2.6477 0.0830 0 7
16.6525 27.0721 -2.6477 0.0830 0 7
16.2145 27.3367 -2.6477 0.0830 0 7
15.7722 27.5942 -2.6477 0.0830 0 7
15.3259 27.8446 -2.6477 0.0830 0 7
14.8756 28.0877 -2.6477 0.0830 0 7
14.4215 28.3235 -2.6477 0.0830 0 7
13.9636 28.5521 -2.6477 0.0830 0 7
13.5021 28.7732 -2.6477 0.0830 0 7
13.0371 28.9868 -2.6477 0.0830 0 7
12.5688 29.1930 -2.6477 0.0830 0 7
12.0971 29.3915 -2.6477 0.0830 0 7
11.6224 29.5825 -2.6477 0.0830 0 7
11.1446 29.7658 -2.6477 0.0830 0 7
10.6639 29.9413 -2.6477 0.0830 0 6
10.1805 30.1091 -2.6477 0.0830 0 7
9.6944 30.2691 -2.6477 0.0830 0 7
9.2058 30.4213 -2.6477 0.0830 0 7
8.7148 30.5656 -2.6477 0.0830 0 7
8.2216 30.7019 -2.6477 0.0830 0 7
7.7262 30.8303 -2.6477 0.0830 0 7
7.2289 30.9507 -2.6477 0.0830 0 7
6.7296 31.0631 -2.6477 0.0830 0 7
6.2287 31.1674 -2.6477 0.0830 0 7
5.7260 31.2636 -2.6477 0.0830 0 7
5.2220 31.3518 -2.6477 0.0830 0 7
4.7165 31.4318 -2.6477 0.0830 0 7
4.2099 31.5036 -2.6477 0.0830 0 7
3.7021 31.5673 -2.6477 0.0830 0 7
3.1934 31.6229 -2.6477 0.0830 0 7
2.6839 31.6702 -2.6477 0.0830 0 7
2.1736 31.7093 -2.6477 0.0830 0 7
1.6628 31.7402 -2.6477 0.0830 0 7
1.1516 31.7628 -2.6477 0.0830 0 7
27.3498 9.2767 -2.6477 0.0913 0 7
27.1969 9.7158 -2.6477 0.0913 0 7
27.0370 10.1524 -2.6477 0.0913 0 7
26.8700 10.5864 -2.6477 0.0913 0 7
26.6961 11.0176 -2.6477 0.0913 0 7
26.5153 11.4460 -2.6477 0.0913 0 6
26.3275 11.8714 -2.6477 0.0913 0 7
26.1330 12.2938 -2.6477 0.0913 0 7
25.9317 12.7129 -2.6477 0.0913 0 7
25.7236 13.1288 -2.6477 0.0913 0 7
25.5089 13.5412 -2.6477 0.0913 0 7
25.2876 13.9502 -2.6477 0.0913 0 7
25.0597 14.3555 -2.6477 0.0913 0 7
24.8254 14.7571 -2.6477 0.0913 0 7
24.5846 15.1549 -2.6477 0.0913 0 7
24.3374 15.5487 -2.6477 0.0913 0 7
24.0839 15.9385 -2.6477 0.0913 0 7
23.8242 16.3242 -2.6477 0.0913 0 7
23.5583 16.7056 -2.6477 0.0913 0 7
23.2862 17.0828 -2.6477 0.0913 0 7
23.0082 17.4555 -2.6477 0.0913 0 7
22.7242 17.8236 -2.6477 0.0913 0 7
22.4343 18.1872 -2.6477 0.0913 0 7
22.1386 18.5460 -2.6477 0.0913 0 6
21.8371 18.9000 -2.6477 0.0913 0 7
21.2506 18.9994 -2.6133 0.6672 0 8
20.5812 19.0059 -2.5683 0.6789 0 8
19.9341 19.0120 -2.5254 0.6905 0 8
19.4504 19.1580 -2.5029 0.0913 0 8
19.1394 19.4687 -2.5029 0.0913 0 14
18.8235 19.7743 -2.5029 0.0913 0 14
18.5027 20.0748 -2.5029 0.0913 0 14
18.1771 20.3701 -2.5029 0.0913 0 14
17.8467 20.6601 -2.5029 0.0913 0 14
17.5118 20.9448 -2.5029 0.0913 0 14
17.1723 21.2240 -2.5029 0.0913 0 14
16.8284 21.4977 -2.5029 0.0913 0 14
16.4801 21.7659 -2.5029 0.0913 0 14
16.1275 22.0284 -2.5029 0.0913 0 14
15.7708 22.2852 -2.5029 0.0913 0 14
16.3013 23.8398 -2.6477 0.0913 0 7
15.9154 24.0992 -2.6477 0.0913 0 7
15.5254 24.3523 -2.6477 0.0913 0 7
15.1313 24.5991 -2.6477 0.0913 0 7
14.7333 24.8395 -2.6477 0.0913 0 7
14.3314 25.0735 -2.6477 0.0913 0 7
13.9259 25.3010 -2.6477 0.0913 0 7
13.5168 25.5219 -2.6477 0.0913 0 7
13.1041 25.7362 -2.6477 0.0913 0 7
12.6881 25.9438 -2.6477 0.0913 0 7
12.2687 26.1448 -2.6477 0.0913 0 7
11.8462 26.3389 -2.6477 0.0913 0 7
11.4206 26.5262 -2.6477 0.0913 0 7
10.9921 26.7066 -2.6477 0.0913 0 7
10.5607 26.8801 -2.6477 0.0913 0 7
10.1265 27.0467 -2.6477 0.0913 0 7
9.6898 27.2062 -2.6477 0.0913 0 7
9.2505 27.3587 -2.6477 0.0913 0 7
8.8088 27.5041 -2.6477 0.0913 0 7
8.3649 27.6423 -2.6477 0.0913 0 7
7.9187 27.7734 -2.6477 0.0913 0 7
7.4706 27.8973 -2.6477 0.0913 0 7
7.0205 28.0140 -2.6477 0.0913 0 7
6.5685 28.1234 -2.6477 0.0913 0 7
6.1149 28.2255 -2.6477 0.0913 0 7
5.6597 28.3203 -2.6477 0.0913 0 7
5.2030 28.4077 -2.6477 0.0913 0 7
4.7449 28.4878 -2.6477 0.0913 0 7
4.2857 28.5605 -2.6477 0.0913 0 7
3.8253 28.6258 -2.6477 0.0913 0 7
3.3639 28.6837 -2.6477 0.0913 0 7
2.9017 28.7341 -2.6477 0.0913 0 7
2.4387 28.7771 -2.6477 0.0913 0 7
1.9751 28.8126 -2.6477 0.0913 0 7
1.5109 28.8407 -2.6477 0.0913 0 7
1.0464 28.8613 -2.6477 0.0913 0 7
23.6150 8.0099 -2.4953 0.0996 0 8
23.4830 8.3891 -2.4953 0.0996 0 8
24.7707 9.3015 -2.6477 0.0996 0 7
24.6178 9.6991 -2.6477 0.0996 0 7
24.4584 10.0941 -2.6477 0.0996 0 7
24.2927 10.4866 -2.6477 0.0996 0 7
24.1207 10.8764 -2.6477 0.0996 0 7
23.9425 11.2633 -2.6477 0.0996 0 7
23.7581 11.6473 -2.6477 0.0996 0 7
23.5675 12.0283 -2.6477 0.0996 0 7
23.3708 12.4062 -2.6477 0.0996 0 7
23.1680 12.7808 -2.6477 0.0996 0 7
22.9592 13.1522 -2.6477 0.0996 0 7
22.7445 13.5201 -2.6477 0.0996 0 7
22.5239 13.8846 -2.6477 0.0996 0 7
22.2974 14.2454 -2.6477 0.0996 0 7
22.0652 14.6025 -2.6477 0.0996 0 7
21.8272 14.9559 -2.6477 0.0996 0 6
21.5836 15.3054 -2.6477 0.0996 0 7
21.3344 15.6509 -2.6477 0.0996 0 7
21.0796 15.9923 -2.6477 0.0996 0 7
20.8194 16.3296 -2.6477 0.0996 0 7
20.5538 16.6627 -2.6477 0.0996 0 7
20.2829 16.9915 -2.6477 0.0996 0 7
20.0067 17.3158 -2.6477 0.0996 0 7
19.7253 17.6357 -2.6477 0.0996 0 7
19.4388 17.9510 -2.6477 0.0996 0 7
19.1473 18.2616 -2.6477 0.0996 0 7
18.8508 18.5675 -2.6477 0.0996 0 7
18.5494 18.8686 -2.6477 0.0996 0 7
18.0756 18.9887 -2.6233 0.7249 0 8
17.5068 18.9943 -2.5848 0.7357 0 8
16.9541 18.9996 -2.5481 0.7463 0 8
16.4166 19.0046 -2.5130 0.7568 0 8
16.0440 19.1892 -2.5029 0.0996 0 14
15.7329 19.4450 -2.5029 0.0996 0 14
15.4178 19.6958 -2.5029 0.0996 0 14
15.0987 19.9414 -2.5029 0.0996 0 14
14.7757 20.1819 -2.5029 0.0996 0 14
14.4489 20.4172 -2.5029 0.0996 0 14
14.1183 20.6472 -2.5029 0.0996 0 14
13.7840 20.8718 -2.5029 0.0996 0 14
13.4462 21.0910 -2.5029 0.0996 0 14
13.1049 21.3048 -2.5029 0.0996 0 14
12.7602 21.5130 -2.5029 0.0996 0 14
12.4122 21.7157 -2.5029 0.0996 0 14
12.0610 21.9127 -2.5029 0.0996 0 14
11.7066 22.1040 -2.5029 0.0996 0 14
11.3518 22.2948 -2.5035 0.6965 0 8
11.6245 23.7692 -2.6477 0.0996 0 7
11.2403 23.9533 -2.6477 0.0996 0 7
10.8532 24.1312 -2.6477 0.0996 0 7
10.4633 24.3028 -2.6477 0.0996 0 7
10.0707 24.4681 -2.6477 0.0996 0 7
9.6755 24.6270 -2.6477 0.0996 0 7
9.2777 24.7796 -2.6477 0.0996 0 7
8.8776 24.9258 -2.6477 0.0996 0 7
8.4751 25.0655 -2.6477 0.0996 0 7
8.0705 25.1987 -2.6477 0.0996 0 7
7.6637 25.3253 -2.6477 0.0996 0 7
7.2550 25.4454 -2.6477 0.0996 0 7
6.8444 25.5590 -2.6477 0.0996 0 7
6.4320 25.6658 -2.6477 0.0996 0 7
6.0179 25.7661 -2.6477 0.0996 0 7
5.6023 25.8596 -2.6477 0.0996 0 7
5.1853 25.9465 -2.6477 0.0996 0 7
4.7669 26.0266 -2.6477 0.0996 0 7
4.3472 26.0999 -2.6477 0.0996 0 7
3.9264 26.1666 -2.6477 0.0996 0 7
3.5047 26.2264 -2.6477 0.0996 0 7
3.0820 26.2794 -2.6477 0.0996 0 7
2.6585 26.3256 -2.6477 0.0996 0 7
2.2343 26.3650 -2.6477 0.0996 0 7
1.8095 26.3976 -2.6477 0.0996 0 7
1.3843 26.4233 -2.6477 0.0996 0 7
0.9587 26.4421 -2.6477 0.0996 0 7
21.7859 7.3895 -2.4953 0.1078 0 8
21.6641 7.7393 -2.4953 0.1078 0 8
21.5366 8.0871 -2.4953 0.1078 0 8
21.4037 8.4327 -2.4953 0.1078 0 8
22.5639 9.3123 -2.6477 0.1078 0 7
22.4110 9.6743 -2.6477 0.1078 0 7
22.2524 10.0339 -2.6477 0.1078 0 7
22.0880 10.3909 -2.6477 0.1078 0 7
21.9178 10.7451 -2.6477 0.1078 0 7
21.7420 11.0966 -2.6477 0.1078 0 7
21.5605 11.4452 -2.6477 0.1078 0 6
21.3734 11.7909 -2.6477 0.1078 0 7
21.1808 12.1335 -2.6477 0.1078 0 7
20.9827 12.4729 -2.6477 0.1078 0 7
20.7792 12.8091 -2.6477 0.1078 0 7
20.5703 13.1420 -2.6477 0.1078 0 7
20.3560 13.4715 -2.6477 0.1078 0 7
20.1365 13.7974 -2.6477 0.1078 0 7
19.9118 14.1198 -2.6477 0.1078 0 7
19.6818 14.4386 -2.6477 0.1078 0 7
19.4468 14.7536 -2.6477 0.1078 0 7
19.2068 15.0648 -2.6477 0.1078 0 7
18.9618 15.3720 -2.6477 0.1078 0 7
18.7118 15.6753 -2.6477 0.1078 0 7
18.4570 15.9746 -2.6477 0.1078 0 7
18.1974 16.2697 -2.6477 0.1078 0 7
17.9331 16.5605 -2.6477 0.1078 0 7
17.6642 16.8471 -2.6477 0.1078 0 7
17.3907 17.1293 -2.6477 0.1078 0 7
17.1126 17.4071 -2.6477 0.1078 0 7
16.8302 17.6803 -2.6477 0.1078 0 7
16.5433 17.9490 -2.6477 0.1078 0 7
16.2522 18.2130 -2.6477 0.1078 0 7
15.9569 18.4723 -2.6477 0.1078 0 6
15.6574 18.7268 -2.6477 0.1078 0 7
15.3539 18.9765 -2.6477 0.1078 0 7
14.8586 18.9814 -2.6146 0.7877 0 8
14.3752 18.9859 -2.5830 0.7973 0 8
13.9032 18.9902 -2.5528 0.8068 0 8
13.4419 18.9943 -2.5240 0.8160 0 8
13.0247 19.0479 -2.5029 0.1078 0 8
12.7163 19.2551 -2.5029 0.1078 0 14
12.4047 19.4573 -2.5029 0.1078 0 14
12.0898 19.6545 -2.5029 0.1078 0 14
11.7718 19.8466 -2.5029 0.1078 0 14
11.4508 20.0336 -2.5029 0.1078 0 14
11.1267 20.2154 -2.5029 0.1078 0 14
10.7998 20.3919 -2.5029 0.1078 0 14
10.4701 20.5631 -2.5029 0.1078 0 14
10.1377 20.7290 -2.5029 0.1078 0 14
9.8026 20.8896 -2.5029 0.1078 0 14
9.4651 21.0447 -2.5029 0.1078 0 14
9.1250 21.1943 -2.5029 0.1078 0 14
8.7826 21.3385 -2.5029 0.1078 0 14
8.4379 21.4771 -2.5029 0.1078 0 14
8.0910 21.6102 -2.5029 0.1078 0 14
7.7421 21.7377 -2.5029 0.1078 0 14
7.3911 21.8595 -2.5029 0.1078 0 14
7.0382 21.9756 -2.5029 0.1078 0 14
6.6835 22.0861 -2.5029 0.1078 0 14
6.3270 22.1908 -2.5029 0.1078 0 14
5.9690 22.2898 -2.5029 0.1078 0 8
5.6093 22.3830 -2.5029 0.1078 0 8
5.5518 23.7703 -2.6477 0.1078 0 7
5.1684 23.8566 -2.6477 0.1078 0 7
4.7836 23.9367 -2.6477 0.1078 0 7
4.3976 24.0106 -2.6477 0.1078 0 7
4.0105 24.0783 -2.6477 0.1078 0 7
3.6223 24.1397 -2.6477 0.1078 0 7
3.2332 24.1949 -2.6477 0.1078 0 7
2.8432 24.2438 -2.6477 0.1078 0 7
2.4525 24.2865 -2.6477 0.1078 0 7
2.0612 24.3228 -2.6477 0.1078 0 7
1.6693 24.3528 -2.6477 0.1078 0 7
1.2771 24.3766 -2.6477 0.1078 0 7
0.8844 24.3940 -2.6477 0.1078 0 7
20.2171 6.8574 -2.4953 0.1161 0 8
20.1041 7.1820 -2.4953 0.1161 0 8
19.9858 7.5047 -2.4953 0.1161 0 8
19.8624 7.8255 -2.4953 0.1161 0 8
19.7338 8.1443 -2.4953 0.1161 0 8
19.6002 8.4609 -2.4953 0.1161 0 8
20.6500 9.3114 -2.6477 0.1161 0 7
20.4974 9.6426 -2.6477 0.1161 0 7
20.3395 9.9714 -2.6477 0.1161 0 7
20.1764 10.2976 -2.6477 0.1161 0 7
20.0080 10.6211 -2.6477 0.1161 0 7
19.8344 10.9418 -2.6477 0.1161 0 7
19.6556 11.2597 -2.6477 0.1161 0 7
19.4718 11.5747 -2.6477 0.1161 0 7
19.2829 11.8867 -2.6477 0.1161 0 7
19.0890 12.1956 -2.6477 0.1161 0 7
18.8902 12.5014 -2.6477 0.1161 0 7
18.6865 12.8039 -2.6477 0.1161 0 7
18.4779 13.1031 -2.6477 0.1161 0 7
18.2646 13.3989 -2.6477 0.1161 0 7
18.0465 13.6912 -2.6477 0.1161 0 7
17.8237 13.9800 -2.6477 0.1161 0 7
17.5964 14.2651 -2.6477 0.1161 0 7
17.3644 14.5466 -2.6477 0.1161 0 7
17.1279 14.8243 -2.6477 0.1161 0 7
16.8871 15.0981 -2.6477 0.1161 0 7
16.6418 15.3680 -2.6477 0.1161 0 7
16.3922 15.6340 -2.6477 0.1161 0 7
16.1384 15.8958 -2.6477 0.1161 0 7
15.8804 16.1536 -2.6477 0.1161 0 7
15.6182 16.4072 -2.6477 0.1161 0 7
15.3521 16.6565 -2.6477 0.1161 0 7
15.0819 16.9015 -2.6477 0.1161 0 7
14.8078 17.1421 -2.6477 0.1161 0 7
14.5299 17.3783 -2.6477 0.1161 0 7
14.2482 17.6100 -2.6477 0.1161 0 7
13.9629 17.8371 -2.6477 0.1161 0 7
13.6739 18.0596 -2.6477 0.1161 0 7
13.3814 18.2774 -2.6477 0.1161 0 7
13.0854 18.4905 -2.6477 0.1161 0 6
12.7860 18.6988 -2.6477 0.1161 0 7
12.4833 18.9022 -2.6477 0.1161 0 7
12.0946 18.9709 -2.6297 0.8432 0 8
11.6716 18.9746 -2.6038 0.8516 0 8
11.2566 18.9780 -2.5791 0.8597 0 8
10.8492 18.9812 -2.5554 0.8677 0 8
10.4491 18.9843 -2.5329 0.8754 0 8
10.0559 18.9872 -2.5113 0.8829 0 8
9.7162 19.0824 -2.5029 0.1161 0 8
9.4077 19.2364 -2.5029 0.1161 0 14
9.0968 19.3853 -2.5029 0.1161 0 14
8.7835 19.5293 -2.5029 0.1161 0 14
8.4679 19.6681 -2.5029 0.1161 0 14
8.1502 19.8019 -2.5029 0.1161 0 14
7.8303 19.9306 -2.5029 0.1161 0 14
7.5084 20.0541 -2.5029 0.1161 0 14
7.1846 20.1724 -2.5029 0.1161 0 14
6.8589 20.2854 -2.5029 0.1161 0 14
6.5314 20.3932 -2.5029 0.1161 0 14
6.2022 20.4957 -2.5029 0.1161 0 14
5.8714 20.5929 -2.5029 0.1161 0 14
5.5391 20.6848 -2.5029 0.1161 0 14
5.2054 20.7713 -2.5029 0.1161 0 14
4.8703 20.8524 -2.5029 0.1161 0 14
4.5340 20.9281 -2.5029 0.1161 0 14
4.1964 20.9984 -2.5029 0.1161 0 14
3.8578 21.0632 -2.5029 0.1161 0 14
3.5182 21.1226 -2.5029 0.1161 0 14
3.1777 21.1765 -2.5029 0.1161 0 14
2.8363 21.2249 -2.5029 0.1161 0 14
2.4942 21.2678 -2.5029 0.1161 0 14
2.1515 21.3052 -2.5029 0.1161 0 14
1.8082 21.3371 -2.5029 0.1161 0 14
1.4644 21.3635 -2.5029 0.1161 0 14
1.1203 21.3843 -2.5029 0.1161 0 14
0.7759 21.3995 -2.5029 0.1161 0 14
18.8566 6.3959 -2.4953 0.1243 0 8
18.7512 6.6987 -2.4953 0.1243 0 8
18.6409 6.9997 -2.4953 0.1243 0 8
18.5258 7.2989 -2.4953 0.1243 0 8
18.4059 7.5962 -2.4953 0.1243 0 8
18.2812 7.8916 -2.4953 0.1243 0 8
18.1518 8.1849 -2.4953 0.1243 0 8
18.0177 8.4761 -2.4953 0.1243 0 8
18.9708 9.3004 -2.6477 0.1243 0 7
18.8186 9.6046 -2.6477 0.1243 0 7
18.6616 9.9063 -2.6477 0.1243 0 7
18.4996 10.2055 -2.6477 0.1243 0 7
18.3329 10.5020 -2.6477 0.1243 0 7
18.1615 10.7958 -2.6477 0.1243 0 7
17.9853 11.0868 -2.6477 0.1243 0 7
17.8045 11.3750 -2.6477 0.1243 0 7
17.6190 11.6601 -2.6477 0.1243 0 7
17.4290 11.9423 -2.6477 0.1243 0 7
17.2345 12.2213 -2.6477 0.1243 0 7
17.0355 12.4972 -2.6477 0.1243 0 7
16.8321 12.7699 -2.6477 0.1243 0 7
16.6243 13.0392 -2.6477 0.1243 0 7
16.4122 13.3052 -2.6477 0.1243 0 7
16.1959 13.5677 -2.6477 0.1243 0 7
15.9754 13.8267 -2.6477 0.1243 0 7
15.7507 14.0821 -2.6477 0.1243 0 7
15.5219 14.3339 -2.6477 0.1243 0 7
15.2891 14.5819 -2.6477 0.1243 0 7
15.0524 14.8262 -2.6477 0.1243 0 7
14.8117 15.0666 -2.6477 0.1243 0 7
14.5672 15.3031 -2.6477 0.1243 0 7
14.3190 15.5356 -2.6477 0.1243 0 7
14.0670 15.7642 -2.6477 0.1243 0 7
13.8114 15.9886 -2.6477 0.1243 0 7
13.5522 16.2089 -2.6477 0.1243 0 7
13.2894 16.4250 -2.6477 0.1243 0 7
13.0233 16.6368 -2.6477 0.1243 0 7
12.7537 16.8443 -2.6477 0.1243 0 7
12.4809 17.0475 -2.6477 0.1243 0 7
12.2048 17.2462 -2.6477 0.1243 0 7
11.9256 17.4405 -2.6477 0.1243 0 7
11.6432 17.6302 -2.6477 0.1243 0 7
11.3579 17.8154 -2.6477 0.1243 0 7
11.0696 17.9959 -2.6477 0.1243 0 7
10.7784 18.1718 -2.6477 0.1243 0 7
10.4844 18.3430 -2.6477 0.1243 0 7
10.1878 18.5094 -2.6477 0.1243 0 6
9.8884 18.6710 -2.6477 0.1243 0 7
9.5866 18.8278 -2.6477 0.1243 0 7
9.2727 18.9603 -2.6450 0.8979 0 8
8.8986 18.9629 -2.6250 0.9047 0 8
8.5299 18.9654 -2.6060 0.9113 0 8
8.1664 18.9678 -2.5879 0.9177 0 8
7.8078 18.9699 -2.5707 0.9238 0 8
7.4537 18.9720 -2.5544 0.9297 0 8
7.1040 18.9739 -2.5389 0.9354 0 8
6.7584 18.9756 -2.5243 0.9408 0 8
6.4166 18.9772 -2.5104 0.9460 0 8
6.0919 19.0209 -2.5029 0.1243 0 8
5.7849 19.1165 -2.5029 0.1243 0 8
5.4763 19.2071 -2.5029 0.1243 0 14
5.1664 19.2928 -2.5029 0.1243 0 14
4.8551 19.3735 -2.5029 0.1243 0 14
4.5426 19.4492 -2.5029 0.1243 0 14
4.2288 19.5198 -2.5029 0.1243 0 14
3.9140 19.5853 -2.5029 0.1243 0 14
3.5982 19.6458 -2.5029 0.1243 0 14
3.2814 19.7012 -2.5029 0.1243 0 14
2.9638 19.7515 -2.5029 0.1243 0 14
2.6454 19.7966 -2.5029 0.1243 0 14
2.3264 19.8367 -2.5029 0.1243 0 14
2.0067 19.8715 -2.5029 0.1243 0 14
1.6865 19.9013 -2.5029 0.1243 0 14
1.3659 19.9258 -2.5029 0.1243 0 14
1.0449 19.9452 -2.5029 0.1243 0 14
0.7237 19.9595 -2.5029 0.1243 0 14
17.6654 5.9919 -2.4953 0.1326 0 8
17.5666 6.2755 -2.4953 0.1326 0 8
17.4633 6.5575 -2.4953 0.1326 0 8
17.3554 6.8378 -2.4953 0.1326 0 8
17.2431 7.1163 -2.4953 0.1326 0 8
17.1263 7.3930 -2.4953 0.1326 0 8
17.0051 7.6678 -2.4953 0.1326 0 8
16.8794 7.9406 -2.4953 0.1326 0 8
16.7494 8.2113 -2.4953 0.1326 0 8
16.6150 8.4799 -2.4953 0.1326 0 8
17.4826 9.2805 -2.6477 0.1326 0 7
17.3309 9.5608 -2.6477 0.1326 0 7
17.1748 9.8386 -2.6477 0.1326 0 7
17.0141 10.1138 -2.6477 0.1326 0 7
16.8491 10.3864 -2.6477 0.1326 0 7
16.6797 10.6564 -2.6477 0.1326 0 7
16.5060 10.9235 -2.6477 0.1326 0 7
16.3280 11.1878 -2.6477 0.1326 0 7
16.1457 11.4493 -2.6477 0.1326 0 6
15.9593 11.7077 -2.6477 0.1326 0 7
15.7687 11.9631 -2.6477 0.1326 0 7
15.5741 12.2155 -2.6477 0.1326 0 7
15.3754 12.4646 -2.6477 0.1326 0 7
15.1727 12.7106 -2.6477 0.1326 0 7
14.9661 12.9532 -2.6477 0.1326 0 7
14.7556 13.1925 -2.6477 0.1326 0 7
14.5413 13.4283 -2.6477 0.1326 0 7
14.3232 13.6607 -2.6477 0.1326 0 7
14.1015 13.8895 -2.6477 0.1326 0 7
13.8760 14.1148 -2.6477 0.1326 0 7
13.6470 14.3363 -2.6477 0.1326 0 7
13.4144 14.5542 -2.6477 0.1326 0 7
13.1783 14.7683 -2.6477 0.1326 0 7
12.9388 14.9785 -2.6477 0.1326 0 6
12.6960 15.1849 -2.6477 0.1326 0 7
12.4499 15.3874 -2.6477 0.1326 0 7
12.2005 15.5858 -2.6477 0.1326 0 7
11.9480 15.7802 -2.6477 0.1326 0 7
11.6924 15.9705 -2.6477 0.1326 0 7
11.4338 16.1567 -2.6477 0.1326 0 7
11.1722 16.3387 -2.6477 0.1326 0 7
10.9077 16.5164 -2.6477 0.1326 0 7
10.6404 16.6899 -2.6477 0.1326 0 7
10.3703 16.8590 -2.6477 0.1326 0 7
10.0975 17.0238 -2.6477 0.1326 0 7
9.8221 17.1842 -2.6477 0.1326 0 7
9.5442 17.3401 -2.6477 0.1326 0 7
9.2637 17.4915 -2.6477 0.1326 0 7
8.9809 17.6384 -2.6477 0.1326 0 7
8.6958 17.7807 -2.6477 0.1326 0 7
8.4084 17.9184 -2.6477 0.1326 0 7
8.1188 18.0514 -2.6477 0.1326 0 7
7.8271 18.1798 -2.6477 0.1326 0 7
7.5334 18.3035 -2.6477 0.1326 0 7
7.2378 18.4224 -2.6477 0.1326 0 6
6.9402 18.5365 -2.6477 0.1326 0 7
6.6409 18.6459 -2.6477 0.1326 0 7
6.3399 18.7504 -2.6477 0.1326 0 7
6.0372 18.8500 -2.6477 0.1326 0 7
5.7329 18.9448 -2.6477 0.1326 0 7
5.4033 18.9512 -2.6361 0.9606 0 8
5.0752 18.9524 -2.6245 0.9649 0 8
4.7499 18.9535 -2.6137 0.9688 0 8
4.4270 18.9544 -2.6037 0.9726 0 8
4.1066 18.9553 -2.5944 0.9761 0 8
3.7883 18.9560 -2.5858 0.9793 0 8
3.4720 18.9566 -2.5779 0.9823 0 8
3.1575 18.9570 -2.5708 0.9851 0 8
2.8447 18.9574 -2.5643 0.9875 0 8
2.5333 18.9576 -2.5584 0.9898 0 8
2.2233 18.9577 -2.5533 0.9918 0 8
1.9144 18.9576 -2.5488 0.9935 0 8
1.6066 18.9575 -2.5450 0.9950 0 8
1.2995 18.9572 -2.5418 0.9963 0 8
0.9931 18.9568 -2.5393 0.9973 0 8
0.6873 18.9563 -2.5374 0.9980 0 8
16.6135 5.6351 -2.4953 0.1408 0 8
16.5206 5.9018 -2.4953 0.1408 0 8
16.4234 6.1670 -2.4953 0.1408 0 8
16.3220 6.4306 -2.4953 0.1408 0 8
16.2164 6.6926 -2.4953 0.1408 0 8
16.1065 6.9528 -2.4953 0.1408 0 8
15.9925 7.2112 -2.4953 0.1408 0 8
15.8743 7.4678 -2.4953 0.1408 0 8
15.7520 7.7224 -2.4953 0.1408 0 8
15.6256 7.9750 -2.4953 0.1408 0 8
15.4952 8.2255 -2.4953 0.1408 0 8
15.3608 8.4739 -2.4953 0.1408 0 8
16.1521 9.2527 -2.6477 0.1408 0 7
16.0010 9.5116 -2.6477 0.1408 0 7
15.8458 9.7680 -2.6477 0.1408 0 7
15.6865 10.0218 -2.6477 0.1408 0 7
15.5231 10.2731 -2.6477 0.1408 0 7
15.3557 10.5217 -2.6477 0.1408 0 7
15.1843 10.7675 -2.6477 0.1408 0 7
15.0090 11.0106 -2.6477 0.1408 0 7
14.8298 11.2508 -2.6477 0.1408 0 7
14.6468 11.4881 -2.6477 0.1408 0 6
14.4599 11.7224 -2.6477 0.1408 0 7
14.2693 11.9537 -2.6477 0.1408 0 7
14.0750 12.1819 -2.6477 0.1408 0 7
13.8770 12.4069 -2.6477 0.1408 0 7
13.6755 12.6287 -2.6477 0.1408 0 7
13.4704 12.8473 -2.6477 0.1408 0 7
13.2618 13.0625 -2.6477 0.1408 0 7
13.0497 13.2743 -2.6477 0.1408 0 7
12.8343 13.4827 -2.6477 0.1408 0 7
12.6156 13.6875 -2.6477 0.1408 0 7
12.3936 13.8889 -2.6477 0.1408 0 7
12.1684 14.0866 -2.6477 0.1408 0 7
11.9400 14.2807 -2.6477 0.1408 0 7
11.7085 14.4711 -2.6477 0.1408 0 7
11.4740 14.6577 -2.6477 0.1408 0 7
11.2366 14.8406 -2.6477 0.1408 0 7
10.9962 15.0195 -2.6477 0.1408 0 7
10.7530 15.1946 -2.6477 0.1408 0 7
10.5069 15.3658 -2.6477 0.1408 0 7
10.2582 15.5330 -2.6477 0.1408 0 7
10.0068 15.6961 -2.6477 0.1408 0 7
9.7528 15.8552 -2.6477 0.1408 0 7
9.4962 16.0101 -2.6477 0.1408 0 7
9.2372 16.1609 -2.6477 0.1408 0 7
8.9758 16.3076 -2.6477 0.1408 0 7
8.7121 16.4500 -2.6477 0.1408 0 7
8.4462 16.5881 -2.6477 0.1408 0 7
8.1780 16.7219 -2.6477 0.1408 0 7
7.9077 16.8514 -2.6477 0.1408 0 7
7.6354 16.9766 -2.6477 0.1408 0 7
7.3611 17.0973 -2.6477 0.1408 0 7
7.0849 17.2136 -2.6477 0.1408 0 7
6.8068 17.3254 -2.6477 0.1408 0 7
6.5270 17.4328 -2.6477 0.1408 0 7
6.2455 17.5356 -2.6477 0.1408 0 7
5.9623 17.6339 -2.6477 0.1408 0 7
5.6777 17.7276 -2.6477 0.1408 0 7
5.3915 17.8167 -2.6477 0.1408 0 7
5.1040 17.9012 -2.6477 0.1408 0 7
4.8151 17.9810 -2.6477 0.1408 0 7
4.5250 18.0562 -2.6477 0.1408 0 7
4.2337 18.1267 -2.6477 0.1408 0 7
3.9413 18.1925 -2.6477 0.1408 0 7
3.6479 18.2536 -2.6477 0.1408 0 7
3.3535 18.3100 -2.6477 0.1408 0 7
3.0583 18.3616 -2.6477 0.1408 0 7
2.7623 18.4085 -2.6477 0.1408 0 6
2.4657 18.4506 -2.6477 0.1408 0 6
2.1682 18.4879 -2.6477 0.1408 0 6
1.8703 18.5204 -2.6477 0.1408 0 7
1.5718 18.5481 -2.6477 0.1408 0 7
1.2730 18.5710 -2.6477 0.1408 0 7
0.9739 18.5891 -2.6477 0.1408 0 7
0.6745 18.6024 -2.6477 0.1408 0 7
15.6777 5.3177 -2.4953 0.1490 0 8
15.5901 5.5694 -2.4953 0.1490 0 8
15.4984 5.8197 -2.4953 0.1490 0 8
15.4027 6.0685 -2.4953 0.1490 0 8
15.3030 6.3156 -2.4953 0.1490 0 8
15.1993 6.5612 -2.4953 0.1490 0 8
15.0917 6.8051 -2.4953 0.1490 0 8
14.9802 7.0472 -2.4953 0.1490 0 8
14.8648 7.2874 -2.4953 0.1490 0 8
14.7456 7.5258 -2.4953 0.1490 0 8
14.6225 7.7622 -2.4953 0.1490 0 8
14.4956 7.9966 -2.4953 0.1490 0 8
14.3650 8.2290 -2.4953 0.1490 0 8
14.2306 8.4592 -2.4953 0.1490 0 8
14.9533 9.2178 -2.6477 0.1490 0 7
14.8030 9.4573 -2.6477 0.1490 0 7
14.6488 9.6944 -2.6477 0.1490 0 7
14.4908 9.9290 -2.6477 0.1490 0 7
14.3291 10.1610 -2.6477 0.1490 0 7
14.1636 10.3904 -2.6477 0.1490 0 7
13.9945 10.6171 -2.6477 0.1490 0 7
13.8218 10.8410 -2.6477 0.1490 0 7
13.6454 11.0622 -2.6477 0.1490 0 7
13.4656 11.2804 -2.6477 0.1490 0 7
13.2822 11.4958 -2.6477 0.1490 0 6
13.0954 11.7081 -2.6477 0.1490 0 7
12.9052 11.9174 -2.6477 0.1490 0 7
12.7117 12.1237 -2.6477 0.1490 0 7
12.5148 12.3267 -2.6477 0.1490 0 7
12.3147 12.5266 -2.6477 0.1490 0 7
12.1115 12.7233 -2.6477 0.1490 0 7
11.9051 12.9166 -2.6477 0.1490 0 7
11.6956 13.1066 -2.6477 0.1490 0 7
11.4830 13.2932 -2.6477 0.1490 0 7
11.2675 13.4764 -2.6477 0.1490 0 7
11.0491 13.6560 -2.6477 0.1490 0 7
10.8278 13.8322 -2.6477 0.1490 0 7
10.6037 14.0047 -2.6477 0.1490 0 7
10.3768 14.1736 -2.6477 0.1490 0 7
10.1473 14.3388 -2.6477 0.1490 0 7
9.9151 14.5003 -2.6477 0.1490 0 7
9.6804 14.6581 -2.6477 0.1490 0 7
9.4432 14.8120 -2.6477 0.1490 0 7
9.2035 14.9621 -2.6477 0.1490 0 7
8.9614 15.1084 -2.6477 0.1490 0 7
8.7170 15.2507 -2.6477 0.1490 0 7
8.4703 15.3891 -2.6477 0.1490 0 7
8.2214 15.5234 -2.6477 0.1490 0 7
7.9704 15.6538 -2.6477 0.1490 0 7
7.7174 15.7801 -2.6477 0.1490 0 7
7.4623 15.9023 -2.6477 0.1490 0 7
7.2053 16.0204 -2.6477 0.1490 0 7
6.9465 16.1343 -2.6477 0.1490 0 7
6.6858 16.2441 -2.6477 0.1490 0 7
6.4234 16.3496 -2.6477 0.1490 0 7
6.1594 16.4509 -2.6477 0.1490 0 7
5.8937 16.5479 -2.6477 0.1490 0 7
5.6265 16.6407 -2.6477 0.1490 0 7
5.3579 16.7291 -2.6477 0.1490 0 7
5.0878 16.8132 -2.6477 0.1490 0 7
4.8165 16.8929 -2.6477 0.1490 0 7
4.5439 16.9683 -2.6477 0.1490 0 7
4.2701 17.0392 -2.6477 0.1490 0 7
3.9952 17.1058 -2.6477 0.1490 0 7
3.7193 17.1679 -2.6477 0.1490 0 7
3.4424 17.2255 -2.6477 0.1490 0 7
3.1647 17.2787 -2.6477 0.1490 0 7
2.8861 17.3274 -2.6477 0.1490 0 7
2.6067 17.3717 -2.6477 0.1490 0 7
2.3267 17.4114 -2.6477 0.1490 0 7
2.0461 17.4466 -2.6477 0.1490 0 7
1.7649 17.4773 -2.6477 0.1490 0 7
1.4833 17.5034 -2.6477 0.1490 0 7
1.2013 17.5250 -2.6477 0.1490 0 7
0.9190 17.5421 -2.6477 0.1490 0 7
0.6365 17.5546 -2.6477 0.1490 0 7
14.8398 5.0335 -2.4953 0.1573 0 8
14.7568 5.2717 -2.4953 0.1573 0 8
14.6701 5.5086 -2.4953 0.1573 0 8
14.5795 5.7441 -2.4953 0.1573 0 8
14.4851 5.9781 -2.4953 0.1573 0 8
14.3870 6.2105 -2.4953 0.1573 0 8
14.2851 6.4414 -2.4953 0.1573 0 8
14.1796 6.6705 -2.4953 0.1573 0 8
14.0703 6.8979 -2.4953 0.1573 0 8
13.9575 7.1236 -2.4953 0.1573 0 8
13.8410 7.3474 -2.4953 0.1573 0 8
13.7209 7.5692 -2.4953 0.1573 0 8
13.5972 7.7892 -2.4953 0.1573 0 8
13.4701 8.0071 -2.4953 0.1573 0 8
13.3394 8.2229 -2.4953 0.1573 0 8
13.2053 8.4366 -2.4953 0.1573 0 8
13.8659 9.1763 -2.6477 0.1573 0 7
13.7163 9.3984 -2.6477 0.1573 0 7
13.5632 9.6180 -2.6477 0.1573 0 7
13.4066 9.8351 -2.6477 0.1573 0 7
13.2466 10.0497 -2.6477 0.1573 0 7
13.0830 10.2616 -2.6477 0.1573 0 7
12.9161 10.4709 -2.6477 0.1573 0 7
12.7459 10.6775 -2.6477 0.1573 0 7
12.5723 10.8813 -2.6477 0.1573 0 7
12.3955 11.0824 -2.6477 0.1573 0 7
12.2155 11.2805 -2.6477 0.1573 0 7
12.0323 11.4757 -2.6477 0.1573 0 6
11.8460 11.6679 -2.6477 0.1573 0 7
11.6566 11.8571 -2.6477 0.1573 0 7
11.4641 12.0433 -2.6477 0.1573 0 7
11.2688 12.2263 -2.6477 0.1573 0 7
11.0705 12.4061 -2.6477 0.1573 0 7
10.8693 12.5827 -2.6477 0.1573 0 7
10.6653 12.7561 -2.6477 0.1573 0 7
10.4585 12.9262 -2.6477 0.1573 0 7
10.2491 13.0929 -2.6477 0.1573 0 7
10.0370 13.2562 -2.6477 0.1573 0 7
9.8222 13.4161 -2.6477 0.1573 0 7
9.6050 13.5724 -2.6477 0.1573 0 7
9.3852 13.7253 -2.6477 0.1573 0 7
9.1630 13.8747 -2.6477 0.1573 0 7
8.9385 14.0204 -2.6477 0.1573 0 7
8.7116 14.1625 -2.6477 0.1573 0 7
8.4824 14.3009 -2.6477 0.1573 0 7
8.2511 14.4356 -2.6477 0.1573 0 7
8.0176 14.5666 -2.6477 0.1573 0 7
7.7820 14.6938 -2.6477 0.1573 0 7
7.5444 14.8172 -2.6477 0.1573 0 7
7.3049 14.9367 -2.6477 0.1573 0 6
7.0635 15.0524 -2.6477 0.1573 0 7
6.8202 15.1641 -2.6477 0.1573 0 7
6.5752 15.2720 -2.6477 0.1573 0 7
6.3285 15.3759 -2.6477 0.1573 0 7
6.0801 15.4758 -2.6477 0.1573 0 7
5.8302 15.5716 -2.6477 0.1573 0 7
5.5787 15.6635 -2.6477 0.1573 0 7
5.3258 15.7513 -2.6477 0.1573 0 7
5.0715 15.8350 -2.6477 0.1573 0 7
4.8159 15.9146 -2.6477 0.1573 0 7
4.5591 15.9900 -2.6477 0.1573 0 7
4.3010 16.0614 -2.6477 0.1573 0 7
4.0419 16.1285 -2.6477 0.1573 0 7
3.7817 16.1915 -2.6477 0.1573 0 7
3.5205 16.2503 -2.6477 0.1573 0 7
3.2585 16.3049 -2.6477 0.1573 0 7
2.9955 16.3552 -2.6477 0.1573 0 7
2.7318 16.4013 -2.6477 0.1573 0 7
2.4674 16.4432 -2.6477 0.1573 0 7
2.2023 16.4808 -2.6477 0.1573 0 7
1.9367 16.5141 -2.6477 0.1573 0 7
1.6706 16.5432 -2.6477 0.1573 0 7
1.4040 16.5679 -2.6477 0.1573 0 7
1.1371 16.5884 -2.6477 0.1573 0 7
0.8699 16.6045 -2.6477 0.1573 0 7
0.6024 16.6164 -2.6477 0.1573 0 7
14.0850 4.7775 -2.4953 0.1655 0 8
14.0063 5.0036 -2.4953 0.1655 0 8
13.9239 5.2284 -2.4953 0.1655 0 8
13.8379 5.4519 -2.4953 0.1655 0 8
13.7483 5.6740 -2.4953 0.1655 0 8
13.6552 5.8946 -2.4953 0.1655 0 8
13.5585 6.1137 -2.4953 0.1655 0 8
13.4584 6.3312 -2.4953 0.1655 0 8
13.3547 6.5471 -2.4953 0.1655 0 8
13.2475 6.7612 -2.4953 0.1655 0 8
13.1370 6.9737 -2.4953 0.1655 0 8
13.0230 7.1843 -2.4953 0.1655 0 8
12.9056 7.3930 -2.4953 0.1655 0 8
12.7849 7.5998 -2.4953 0.1655 0 8
12.6609 7.8047 -2.4953 0.1655 0 8
12.5336 8.0075 -2.4953 0.1655 0 8
12.4031 8.2083 -2.4953 0.1655 0 8
12.2693 8.4069 -2.4953 0.1655 0 8
12.8734 9.1288 -2.6477 0.1655 0 7
12.7247 9.3348 -2.6477 0.1655 0 7
12.5728 9.5385 -2.6477 0.1655 0 7
12.4176 9.7397 -2.6477 0.1655 0 7
12.2592 9.9383 -2.6477 0.1655 0 7
12.0976 10.1344 -2.6477 0.1655 0 7
11.9328 10.3279 -2.6477 0.1655 0 7
11.7650 10.5187 -2.6477 0.1655 0 7
11.5941 10.7067 -2.6477 0.1655 0 7
11.4203 10.8920 -2.6477 0.1655 0 7
11.2434 11.0744 -2.6477 0.1655 0 7
11.0637 11.2540 -2.6477 0.1655 0 7
10.8810 11.4307 -2.6477 0.1655 0 6
10.6956 11.6044 -2.6477 0.1655 0 7
10.5074 11.7751 -2.6477 0.1655 0 7
10.3164 11.9427 -2.6477 0.1655 0 7
10.1228 12.1073 -2.6477 0.1655 0 7
9.9266 12.2687 -2.6477 0.1655 0 7
9.7278 12.4269 -2.6477 0.1655 0 7
9.5264 12.5819 -2.6477 0.1655 0 7
9.3226 12.7337 -2.6477 0.1655 0 7
9.1164 12.8821 -2.6477 0.1655 0 7
8.9078 13.0272 -2.6477 0.1655 0 7
8.6970 13.1689 -2.6477 0.1655 0 7
8.4838 13.3073 -2.6477 0.1655 0 7
8.2685 13.4421 -2.6477 0.1655 0 7
8.0510 13.5735 -2.6477 0.1655 0 7
7.8314 13.7014 -2.6477 0.1655 0 7
7.6098 13.8257 -2.6477 0.1655 0 7
7.3862 13.9464 -2.6477 0.1655 0 7
7.1607 14.0635 -2.6477 0.1655 0 7
6.9334 14.1770 -2.6477 0.1655 0 7
6.7042 14.2868 -2.6477 0.1655 0 7
6.4733 14.3928 -2.6477 0.1655 0 7
6.2408 14.4952 -2.6477 0.1655 0 7
6.0066 14.5938 -2.6477 0.1655 0 7
5.7709 14.6886 -2.6477 0.1655 0 7
5.5336 14.7796 -2.6477 0.1655 0 7
5.2950 14.8668 -2.6477 0.1655 0 7
5.0549 14.9501 -2.6477 0.1655 0 7
4.8136 15.0296 -2.6477 0.1655 0 7
4.5710 15.1051 -2.6477 0.1655 0 7
4.3272 15.1767 -2.6477 0.1655 0 7
4.0823 15.2444 -2.6477 0.1655 0 7
3.8363 15.3082 -2.6477 0.1655 0 7
3.5894 15.3680 -2.6477 0.1655 0 7
3.3415 15.4238 -2.6477 0.1655 0 7
3.0927 15.4756 -2.6477 0.1655 0 7
2.8432 15.5234 -2.6477 0.1655 0 7
2.5929 15.5671 -2.6477 0.1655 0 7
2.3419 15.6068 -2.6477 0.1655 0 7
2.0903 15.6425 -2.6477 0.1655 0 7
1.8382 15.6742 -2.6477 0.1655 0 7
1.5856 15.7017 -2.6477 0.1655 0 7
1.3326 15.7252 -2.6477 0.1655 0 7
1.0793 15.7446 -2.6477 0.1655 0 7
0.8256 15.7600 -2.6477 0.1655 0 7
0.5718 15.7712 -2.6477 0.1655 0 7
13.4015 4.5456 -2.4953 0.1736 0 8
13.3265 4.7608 -2.4953 0.1736 0 8
13.2482 4.9747 -2.4953 0.1736 0 8
13.1664 5.1874 -2.4953 0.1736 0 8
13.0811 5.3987 -2.4953 0.1736 0 8
12.9925 5.6086 -2.4953 0.1736 0 8
12.9005 5.8170 -2.4953 0.1736 0 8
12.8052 6.0240 -2.4953 0.1736 0 8
12.7066 6.2294 -2.4953 0.1736 0 8
12.6046 6.4331 -2.4953 0.1736 0 8
12.4994 6.6352 -2.4953 0.1736 0 8
12.3910 6.8356 -2.4953 0.1736 0 8
12.2793 7.0342 -2.4953 0.1736 0 8
12.1645 7.2310 -2.4953 0.1736 0 8
12.0465 7.4259 -2.4953 0.1736 0 8
11.9254 7.6189 -2.4953 0.1736 0 8
11.8011 7.8099 -2.4953 0.1736 0 8
11.6739 7.9989 -2.4953 0.1736 0 8
11.5436 8.1858 -2.4953 0.1736 0 8
11.4103 8.3706 -2.4953 0.1736 0 8
11.9626 9.0756 -2.6477 0.1736 0 7
11.8150 9.2670 -2.6477 0.1736 0 7
11.6642 9.4560 -2.6477 0.1736 0 7
11.5105 9.6426 -2.6477 0.1736 0 7
11.3537 9.8267 -2.6477 0.1736 0 7
11.1941 10.0082 -2.6477 0.1736 0 7
11.0315 10.1871 -2.6477 0.1736 0 7
10.8660 10.3634 -2.6477 0.1736 0 7
10.6978 10.5370 -2.6477 0.1736 0 7
10.5267 10.7079 -2.6477 0.1736 0 7
10.3530 10.8760 -2.6477 0.1736 0 7
10.1766 11.0412 -2.6477 0.1736 0 7
9.9975 11.2036 -2.6477 0.1736 0 7
9.8158 11.3632 -2.6477 0.1736 0 7
9.6316 11.5197 -2.6477 0.1736 0 6
9.4449 11.6733 -2.6477 0.1736 0 7
9.2557 11.8238 -2.6477 0.1736 0 7
9.0641 11.9713 -2.6477 0.1736 0 7
8.8702 12.1157 -2.6477 0.1736 0 7
8.6740 12.2569 -2.6477 0.1736 0 7
8.4755 12.3950 -2.6477 0.1736 0 7
8.2749 12.5299 -2.6477 0.1736 0 7
8.0721 12.6615 -2.6477 0.1736 0 7
7.8672 12.7898 -2.6477 0.1736 0 7
7.6603 12.9148 -2.6477 0.1736 0 7
7.4513 13.0364 -2.6477 0.1736 0 7
7.2405 13.1547 -2.6477 0.1736 0 7
7.0278 13.2696 -2.6477 0.1736 0 7
6.8132 13.3810 -2.6477 0.1736 0 7
6.5969 13.4890 -2.6477 0.1736 0 7
6.3789 13.5934 -2.6477 0.1736 0 7
6.1592 13.6944 -2.6477 0.1736 0 7
5.9379 13.7917 -2.6477 0.1736 0 7
5.7151 13.8856 -2.6477 0.1736 0 7
5.4908 13.9758 -2.6477 0.1736 0 7
5.2651 14.0624 -2.6477 0.1736 0 7
5.0380 14.1453 -2.6477 0.1736 0 7
4.8096 14.2246 -2.6477 0.1736 0 7
4.5800 14.3002 -2.6477 0.1736 0 7
4.3491 14.3721 -2.6477 0.1736 0 7
4.1172 14.4402 -2.6477 0.1736 0 7
3.8842 14.5046 -2.6477 0.1736 0 7
3.6501 14.5653 -2.6477 0.1736 0 7
3.4152 14.6222 -2.6477 0.1736 0 7
3.1793 14.6753 -2.6477 0.1736 0 7
2.9426 14.7245 -2.6477 0.1736 0 7
2.7052 14.7700 -2.6477 0.1736 0 7
2.4670 14.8116 -2.6477 0.1736 0 7
2.2282 14.8494 -2.6477 0.1736 0 7
1.9889 14.8834 -2.6477 0.1736 0 7
1.7490 14.9135 -2.6477 0.1736 0 7
1.5087 14.9397 -2.6477 0.1736 0 7
1.2679 14.9620 -2.6477 0.1736 0 7
1.0269 14.9805 -2.6477 0.1736 0 7
0.7856 14.9951 -2.6477 0.1736 0 7
0.5441 15.0058 -2.6477 0.1736 0 7
12.7795 4.3346 -2.4953 0.1818 0 8
12.7080 4.5398 -2.4953 0.1818 0 8
12.6333 4.7438 -2.4953 0.1818 0 8
12.5553 4.9466 -2.4953 0.1818 0 8
12.4740 5.1481 -2.4953 0.1818 0 8
12.3895 5.3483 -2.4953 0.1818 0 8
12.3018 5.5470 -2.4953 0.1818 0 8
12.2109 5.7444 -2.4953 0.1818 0 8
12.1168 5.9402 -2.4953 0.1818 0 8
12.0196 6.1345 -2.4953 0.1818 0 8
11.9193 6.3273 -2.4953 0.1818 0 8
11.8159 6.5183 -2.4953 0.1818 0 8
11.7094 6.7077 -2.4953 0.1818 0 8
11.5999 6.8954 -2.4953 0.1818 0 8
11.4874 7.0812 -2.4953 0.1818 0 8
11.3719 7.2653 -2.4953 0.1818 0 8
11.2534 7.4474 -2.4953 0.1818 0 8
11.1321 7.6276 -2.4953 0.1818 0 8
11.0078 7.8059 -2.4953 0.1818 0 8
10.8807 7.9821 -2.4953 0.1818 0 8
10.7508 8.1562 -2.4953 0.1818 0 8
10.6181 8.3283 -2.4953 0.1818 0 8
11.1229 9.0171 -2.6477 0.1818 0 7
10.9762 9.1951 -2.6477 0.1818 0 7
10.8268 9.3706 -2.6477 0.1818 0 7
10.6745 9.5437 -2.6477 0.1818 0 7
10.5195 9.7143 -2.6477 0.1818 0 7
10.3617 9.8824 -2.6477 0.1818 0 7
10.2013 10.0479 -2.6477 0.1818 0 7
10.0382 10.2109 -2.6477 0.1818 0 7
9.8725 10.3712 -2.6477 0.1818 0 7
9.7042 10.5288 -2.6477 0.1818 0 7
9.5335 10.6836 -2.6477 0.1818 0 7
9.3602 10.8358 -2.6477 0.1818 0 7
9.1845 10.9851 -2.6477 0.1818 0 7
9.0065 11.1315 -2.6477 0.1818 0 7
8.8261 11.2751 -2.6477 0.1818 0 7
8.6434 11.4157 -2.6477 0.1818 0 6
8.4585 11.5534 -2.6477 0.1818 0 7
8.2714 11.6881 -2.6477 0.1818 0 7
8.0822 11.8197 -2.6477 0.1818 0 7
7.8908 11.9483 -2.6477 0.1818 0 7
7.6974 12.0738 -2.6477 0.1818 0 7
7.5021 12.1962 -2.6477 0.1818 0 7
7.3047 12.3154 -2.6477 0.1818 0 7
7.1055 12.4314 -2.6477 0.1818 0 7
6.9044 12.5442 -2.6477 0.1818 0 7
6.7016 12.6537 -2.6477 0.1818 0 7
6.4970 12.7599 -2.6477 0.1818 0 7
6.2907 12.8629 -2.6477 0.1818 0 7
6.0828 12.9625 -2.6477 0.1818 0 7
5.8733 13.0588 -2.6477 0.1818 0 7
5.6623 13.1516 -2.6477 0.1818 0 7
5.4498 13.2411 -2.6477 0.1818 0 7
5.2360 13.3271 -2.6477 0.1818 0 7
5.0207 13.4097 -2.6477 0.1818 0 7
4.8042 13.4888 -2.6477 0.1818 0 7
4.5864 13.5644 -2.6477 0.1818 0 7
4.3674 13.6365 -2.6477 0.1818 0 7
4.1473 13.7050 -2.6477 0.1818 0 7
3.9261 13.7700 -2.6477 0.1818 0 7
3.7039 13.8314 -2.6477 0.1818 0 7
3.4807 13.8893 -2.6477 0.1818 0 7
3.2567 13.9435 -2.6477 0.1818 0 7
3.0317 13.9941 -2.6477 0.1818 0 7
2.8061 14.0411 -2.6477 0.1818 0 7
2.5796 14.0845 -2.6477 0.1818 0 7
2.3525 14.1242 -2.6477 0.1818 0 7
2.1248 14.1602 -2.6477 0.1818 0 7
1.8966 14.1926 -2.6477 0.1818 0 7
1.6678 14.2213 -2.6477 0.1818 0 7
1.4386 14.2463 -2.6477 0.1818 0 7
1.2091 14.2676 -2.6477 0.1818 0 7
0.9792 14.2852 -2.6477 0.1818 0 7
0.7491 14.2992 -2.6477 0.1818 0 7
0.5188 14.3094 -2.6477 0.1818 0 7
12.2110 4.1418 -2.4953 0.1900 0 8
12.1427 4.3379 -2.4953 0.1900 0 8
12.0713 4.5328 -2.4953 0.1900 0 8
11.9967 4.7265 -2.4953 0.1900 0 8
11.9191 4.9191 -2.4953 0.1900 0 8
11.8383 5.1103 -2.4953 0.1900 0 8
11.7545 5.3003 -2.4953 0.1900 0 8
11.6677 5.4888 -2.4953 0.1900 0 8
11.5778 5.6760 -2.4953 0.1900 0 8
11.4849 5.8616 -2.4953 0.1900 0 8
11.3891 6.0458 -2.4953 0.1900 0 8
11.2902 6.2284 -2.4953 0.1900 0 8
11.1885 6.4093 -2.4953 0.1900 0 8
11.0839 6.5886 -2.4953 0.1900 0 8
10.9763 6.7662 -2.4953 0.1900 0 8
10.8660 6.9421 -2.4953 0.1900 0 8
10.7528 7.1161 -2.4953 0.1900 0 8
10.6368 7.2883 -2.4953 0.1900 0 8
10.5181 7.4586 -2.4953 0.1900 0 8
10.3967 7.6270 -2.4953 0.1900 0 8
10.2725 7.7934 -2.4953 0.1900 0 8
10.1457 7.9578 -2.4953 0.1900 0 8
10.0163 8.1201 -2.4953 0.1900 0 8
9.8843 8.2803 -2.4953 0.1900 0 8
9.7497 8.4384 -2.4953 0.1900 0 8
10.1996 9.1191 -2.6477 0.1900 0 7
10.0515 9.2822 -2.6477 0.1900 0 7
9.9008 9.4428 -2.6477 0.1900 0 7
9.7475 9.6010 -2.6477 0.1900 0 7
9.5916 9.7567 -2.6477 0.1900 0 7
9.4333 9.9098 -2.6477 0.1900 0 7
9.2725 10.0604 -2.6477 0.1900 0 7
9.1094 10.2084 -2.6477 0.1900 0 7
8.9438 10.3537 -2.6477 0.1900 0 7
8.7760 10.4964 -2.6477 0.1900 0 7
8.6058 10.6363 -2.6477 0.1900 0 7
8.4335 10.7735 -2.6477 0.1900 0 7
8.2589 10.9079 -2.6477 0.1900 0 7
8.0822 11.0394 -2.6477 0.1900 0 7
7.9035 11.1681 -2.6477 0.1900 0 7
7.7226 11.2939 -2.6477 0.1900 0 7
7.5398 11.4168 -2.6477 0.1900 0 6
7.3550 11.5367 -2.6477 0.1900 0 7
7.1683 11.6536 -2.6477 0.1900 0 7
6.9798 11.7675 -2.6477 0.1900 0 7
6.7894 11.8784 -2.6477 0.1900 0 7
6.5973 11.9861 -2.6477 0.1900 0 7
6.4035 12.0908 -2.6477 0.1900 0 7
6.2080 12.1923 -2.6477 0.1900 0 7
6.0109 12.2907 -2.6477 0.1900 0 7
5.8122 12.3859 -2.6477 0.1900 0 7
5.6120 12.4778 -2.6477 0.1900 0 7
5.4104 12.5666 -2.6477 0.1900 0 7
5.2074 12.6520 -2.6477 0.1900 0 7
5.0030 12.7342 -2.6477 0.1900 0 7
4.7974 12.8131 -2.6477 0.1900 0 7
4.5904 12.8887 -2.6477 0.1900 0 7
4.3823 12.9610 -2.6477 0.1900 0 7
4.1731 13.0298 -2.6477 0.1900 0 7
3.9628 13.0953 -2.6477 0.1900 0 7
3.7514 13.1574 -2.6477 0.1900 0 7
3.5391 13.2161 -2.6477 0.1900 0 7
3.3259 13.2714 -2.6477 0.1900 0 7
3.1118 13.3232 -2.6477 0.1900 0 7
2.8969 13.3716 -2.6477 0.1900 0 7
2.6812 13.4165 -2.6477 0.1900 0 7
2.4649 13.4579 -2.6477 0.1900 0 7
2.2479 13.4959 -2.6477 0.1900 0 7
2.0303 13.5303 -2.6477 0.1900 0 7
1.8122 13.5612 -2.6477 0.1900 0 7
1.5936 13.5887 -2.6477 0.1900 0 7
1.3747 13.6126 -2.6477 0.1900 0 7
1.1553 13.6329 -2.6477 0.1900 0 7
0.9357 13.6498 -2.6477 0.1900 0 7
0.7158 13.6630 -2.6477 0.1900 0 7
0.4957 13.6728 -2.6477 0.1900 0 7
11.6893 3.9649 -2.4953 0.1981 0 8
11.6239 4.1525 -2.4953 0.1981 0 8
11.5556 4.3391 -2.4953 0.1981 0 8
11.4842 4.5246 -2.4953 0.1981 0 8
11.4099 4.7089 -2.4953 0.1981 0 8
11.3326 4.8920 -2.4953 0.1981 0 8
11.2524 5.0738 -2.4953 0.1981 0 8
11.1692 5.2543 -2.4953 0.1981 0 8
11.0832 5.4335 -2.4953 0.1981 0 8
10.9943 5.6112 -2.4953 0.1981 0 8
10.9025 5.7875 -2.4953 0.1981 0 8
10.8079 5.9623 -2.4953 0.1981 0 8
10.7105 6.1355 -2.4953 0.1981 0 8
10.6103 6.3072 -2.4953 0.1981 0 8
10.5074 6.4772 -2.4953 0.1981 0 8
10.4018 6.6455 -2.4953 0.1981 0 8
10.2934 6.8121 -2.4953 0.1981 0 8
10.1824 6.9769 -2.4953 0.1981 0 8
10.0688 7.1400 -2.4953 0.1981 0 8
9.9525 7.3012 -2.4953 0.1981 0 8
9.8337 7.4604 -2.4953 0.1981 0 8
9.7123 7.6178 -2.4953 0.1981 0 8
9.5884 7.7732 -2.4953 0.1981 0 8
9.4620 7.9265 -2.4953 0.1981 0 8
9.3331 8.0778 -2.4953 0.1981 0 8
9.2019 8.2271 -2.4953 0.1981 0 8
9.0682 8.3742 -2.4953 0.1981 0 8
9.4778 9.0394 -2.6477 0.1981 0 7
9.3310 9.1908 -2.6477 0.1981 0 7
9.1818 9.3398 -2.6477 0.1981 0 7
9.0303 9.4864 -2.6477 0.1981 0 7
8.8764 9.6306 -2.6477 0.1981 0 7
8.7202 9.7723 -2.6477 0.1981 0 7
8.5617 9.9114 -2.6477 0.1981 0 7
8.4010 10.0479 -2.6477 0.1981 0 7
8.2382 10.1819 -2.6477 0.1981 0 7
8.0732 10.3132 -2.6477 0.1981 0 7
7.9061 10.4419 -2.6477 0.1981 0 7
7.7370 10.5678 -2.6477 0.1981 0 7
7.5658 10.6910 -2.6477 0.1981 0 7
7.3927 10.8114 -2.6477 0.1981 0 7
7.2177 10.9290 -2.6477 0.1981 0 7
7.0408 11.0438 -2.6477 0.1981 0 7
6.8621 11.1557 -2.6477 0.1981 0 7
6.6816 11.2648 -2.6477 0.1981 0 7
6.4994 11.3709 -2.6477 0.1981 0 7
6.3154 11.4740 -2.6477 0.1981 0 6
6.1299 11.5742 -2.6477 0.1981 0 7
5.9427 11.6714 -2.6477 0.1981 0 7
5.7541 11.7656 -2.6477 0.1981 0 7
5.5639 11.8567 -2.6477 0.1981 0 7
5.3723 11.9448 -2.6477 0.1981 0 7
5.1793 12.0297 -2.6477 0.1981 0 7
4.9849 12.1115 -2.6477 0.1981 0 7
4.7893 12.1902 -2.6477 0.1981 0 7
4.5924 12.2657 -2.6477 0.1981 0 7
4.3943 12.3381 -2.6477 0.1981 0 7
4.1951 12.4072 -2.6477 0.1981 0 7
3.9948 12.4732 -2.6477 0.1981 0 7
3.7935 12.5359 -2.6477 0.1981 0 7
3.5912 12.5953 -2.6477 0.1981 0 7
3.3879 12.6515 -2.6477 0.1981 0 7
3.1838 12.7044 -2.6477 0.1981 0 7
2.9788 12.7540 -2.6477 0.1981 0 7
2.7731 12.8003 -2.6477 0.1981 0 7
2.5667 12.8433 -2.6477 0.1981 0 7
2.3596 12.8830 -2.6477 0.1981 0 7
2.1518 12.9193 -2.6477 0.1981 0 7
1.9436 12.9523 -2.6477 0.1981 0 7
1.7348 12.9819 -2.6477 0.1981 0 7
1.5256 13.0081 -2.6477 0.1981 0 7
1.3159 13.0310 -2.6477 0.1981 0 7
1.1060 13.0505 -2.6477 0.1981 0 7
0.8957 13.0666 -2.6477 0.1981 0 7
0.6852 13.0793 -2.6477 0.1981 0 7
0.4745 13.0887 -2.6477 0.1981 0 7
11.2088 3.8019 -2.4953 0.2063 0 8
11.1462 3.9819 -2.4953 0.2063 0 8
11.0806 4.1608 -2.4953 0.2063 0 8
11.0122 4.3386 -2.4953 0.2063 0 8
10.9409 4.5154 -2.4953 0.2063 0 8
10.8668 4.6909 -2.4953 0.2063 0 8
10.7899 4.8653 -2.4953 0.2063 0 8
10.7101 5.0384 -2.4953 0.2063 0 8
10.6276 5.2102 -2.4953 0.2063 0 8
10.5424 5.3806 -2.4953 0.2063 0 8
10.4544 5.5496 -2.4953 0.2063 0 8
10.3637 5.7172 -2.4953 0.2063 0 8
10.2703 5.8833 -2.4953 0.2063 0 8
10.1742 6.0479 -2.4953 0.2063 0 8
10.0755 6.2109 -2.4953 0.2063 0 8
9.9742 6.3723 -2.4953 0.2063 0 8
9.8703 6.5321 -2.4953 0.2063 0 8
9.7639 6.6902 -2.4953 0.2063 0 8
9.6549 6.8465 -2.4953 0.2063 0 8
9.5434 7.0011 -2.4953 0.2063 0 8
9.4295 7.1538 -2.4953 0.2063 0 8
9.3131 7.3047 -2.4953 0.2063 0 8
9.1943 7.4537 -2.4953 0.2063 0 8
9.0731 7.6007 -2.4953 0.2063 0 8
8.9495 7.7458 -2.4953 0.2063 0 8
8.8237 7.8889 -2.4953 0.2063 0 8
8.6955 8.0300 -2.4953 0.2063 0 8
8.5651 8.1689 -2.4953 0.2063 0 8
8.4325 8.3057 -2.4953 0.2063 0 8
8.2977 8.4404 -2.4953 0.2063 0 8
8.6591 9.0965 -2.6477 0.2063 0 7
8.5115 9.2347 -2.6477 0.2063 0 7
8.3618 9.3706 -2.6477 0.2063 0 7
8.2098 9.5040 -2.6477 0.2063 0 7
8.0557 9.6349 -2.6477 0.2063 0 7
7.8996 9.7634 -2.6477 0.2063 0 7
7.7413 9.8893 -2.6477 0.2063 0 7
7.5811 10.0127 -2.6477 0.2063 0 7
7.4189 10.1334 -2.6477 0.2063 0 7
7.2548 10.2515 -2.6477 0.2063 0 7
7.0888 10.3670 -2.6477 0.2063 0 7
6.9210 10.4798 -2.6477 0.2063 0 7
6.7514 10.5899 -2.6477 0.2063 0 7
6.5800 10.6972 -2.6477 0.2063 0 7
6.4069 10.8018 -2.6477 0.2063 0 7
6.2322 10.9035 -2.6477 0.2063 0 7
6.0559 11.0024 -2.6477 0.2063 0 7
5.8779 11.0985 -2.6477 0.2063 0 7
5.6985 11.1917 -2.6477 0.2063 0 7
5.5176 11.2820 -2.6477 0.2063 0 7
5.3352 11.3694 -2.6477 0.2063 0 7
5.1515 11.4538 -2.6477 0.2063 0 6
4.9664 11.5352 -2.6477 0.2063 0 7
4.7800 11.6137 -2.6477 0.2063 0 7
4.5924 11.6892 -2.6477 0.2063 0 7
4.4036 11.7616 -2.6477 0.2063 0 7
4.2137 11.8310 -2.6477 0.2063 0 7
4.0227 11.8973 -2.6477 0.2063 0 7
3.8306 11.9605 -2.6477 0.2063 0 7
3.6376 12.0206 -2.6477 0.2063 0 7
3.4436 12.0776 -2.6477 0.2063 0 7
3.2487 12.1315 -2.6477 0.2063 0 7
3.0529 12.1822 -2.6477 0.2063 0 7
2.8564 12.2298 -2.6477 0.2063 0 7
2.6591 12.2742 -2.6477 0.2063 0 7
2.4612 12.3154 -2.6477 0.2063 0 7
2.2626 12.3534 -2.6477 0.2063 0 7
2.0634 12.3883 -2.6477 0.2063 0 7
1.8637 12.4199 -2.6477 0.2063 0 7
1.6635 12.4483 -2.6477 0.2063 0 7
1.4628 12.4734 -2.6477 0.2063 0 7
1.2618 12.4954 -2.6477 0.2063 0 7
1.0605 12.5141 -2.6477 0.2063 0 7
0.8589 12.5295 -2.6477 0.2063 0 7
0.6570 12.5417 -2.6477 0.2063 0 7
0.4550 12.5507 -2.6477 0.2063 0 7
10.7648 3.6513 -2.4953 0.2144 0 8
10.7046 3.8241 -2.4953 0.2144 0 8
10.6416 3.9960 -2.4953 0.2144 0 8
10.5759 4.1668 -2.4953 0.2144 0 8
10.5075 4.3365 -2.4953 0.2144 0 8
10.4363 4.5051 -2.4953 0.2144 0 8
10.3624 4.6726 -2.4953 0.2144 0 8
10.2858 4.8388 -2.4953 0.2144 0 8
10.2066 5.0038 -2.4953 0.2144 0 8
10.1247 5.1674 -2.4953 0.2144 0 8
10.0402 5.3298 -2.4953 0.2144 0 8
9.9531 5.4907 -2.4953 0.2144 0 8
9.8634 5.6503 -2.4953 0.2144 0 8
9.7712 5.8083 -2.4953 0.2144 0 8
9.6764 5.9649 -2.4953 0.2144 0 8
9.5791 6.1199 -2.4953 0.2144 0 8
9.4793 6.2733 -2.4953 0.2144 0 8
9.3771 6.4251 -2.4953 0.2144 0 8
9.2724 6.5753 -2.4953 0.2144 0 8
9.1654 6.7237 -2.4953 0.2144 0 8
9.0559 6.8704 -2.4953 0.2144 0 8
8.9442 7.0153 -2.4953 0.2144 0 8
8.8300 7.1584 -2.4953 0.2144 0 8
8.7137 7.2996 -2.4953 0.2144 0 8
8.5950 7.4390 -2.4953 0.2144 0 8
8.4741 7.5764 -2.4953 0.2144 0 8
8.3510 7.7118 -2.4953 0.2144 0 8
8.2258 7.8453 -2.4953 0.2144 0 8
8.0984 7.9767 -2.4953 0.2144 0 8
7.9689 8.1061 -2.4953 0.2144 0 8
7.8374 8.2333 -2.4953 0.2144 0 8
7.7039 8.3584 -2.4953 0.2144 0 8
8.0305 8.9994 -2.6477 0.2144 0 7
7.8846 9.1275 -2.6477 0.2144 0 7
7.7366 9.2533 -2.6477 0.2144 0 7
7.5866 9.3766 -2.6477 0.2144 0 7
7.4347 9.4976 -2.6477 0.2144 0 7
7.2808 9.6160 -2.6477 0.2144 0 7
7.1250 9.7320 -2.6477 0.2144 0 7
6.9674 9.8454 -2.6477 0.2144 0 7
6.8080 9.9563 -2.6477 0.2144 0 7
6.6468 10.0647 -2.6477 0.2144 0 7
6.4839 10.1704 -2.6477 0.2144 0 7
6.3194 10.2734 -2.6477 0.2144 0 7
6.1531 10.3739 -2.6477 0.2144 0 7
5.9853 10.4716 -2.6477 0.2144 0 7
5.8160 10.5666 -2.6477 0.2144 0 7
5.6451 10.6588 -2.6477 0.2144 0 7
5.4727 10.7483 -2.6477 0.2144 0 7
5.2990 10.8351 -2.6477 0.2144 0 7
5.1238 10.9190 -2.6477 0.2144 0 7
4.9474 11.0001 -2.6477 0.2144 0 7
4.7696 11.0783 -2.6477 0.2144 0 7
4.5907 11.1536 -2.6477 0.2144 0 7
4.4105 11.2261 -2.6477 0.2144 0 7
4.2292 11.2957 -2.6477 0.2144 0 7
4.0468 11.3623 -2.6477 0.2144 0 7
3.8633 11.4260 -2.6477 0.2144 0 6
3.6789 11.4867 -2.6477 0.2144 0 6
3.4935 11.5444 -2.6477 0.2144 0 7
3.3071 11.5992 -2.6477 0.2144 0 7
3.1200 11.6509 -2.6477 0.2144 0 7
2.9320 11.6996 -2.6477 0.2144 0 7
2.7432 11.7453 -2.6477 0.2144 0 7
2.5538 11.7880 -2.6477 0.2144 0 7
2.3637 11.8275 -2.6477 0.2144 0 7
2.1729 11.8641 -2.6477 0.2144 0 7
1.9817 11.8975 -2.6477 0.2144 0 7
1.7898 11.9279 -2.6477 0.2144 0 7
1.5976 11.9551 -2.6477 0.2144 0 7
1.4049 11.9793 -2.6477 0.2144 0 7
1.2118 12.0004 -2.6477 0.2144 0 7
1.0185 12.0183 -2.6477 0.2144 0 7
0.8249 12.0332 -2.6477 0.2144 0 7
0.6310 12.0449 -2.6477 0.2144 0 7
0.4370 12.0535 -2.6477 0.2144 0 7
10.3532 3.5117 -2.4953 0.2225 0 8
10.2953 3.6779 -2.4953 0.2225 0 8
10.2347 3.8432 -2.4953 0.2225 0 8
10.1715 4.0074 -2.4953 0.2225 0 8
10.1057 4.1707 -2.4953 0.2225 0 8
10.0372 4.3328 -2.4953 0.2225 0 8
9.9662 4.4939 -2.4953 0.2225 0 8
9.8925 4.6538 -2.4953 0.2225 0 8
9.8163 4.8124 -2.4953 0.2225 0 8
9.7376 4.9698 -2.4953 0.2225 0 8
9.6563 5.1260 -2.4953 0.2225 0 8
9.5725 5.2808 -2.4953 0.2225 0 8
9.4862 5.4342 -2.4953 0.2225 0 8
9.3975 5.5862 -2.4953 0.2225 0 8
9.3064 5.7368 -2.4953 0.2225 0 8
9.2128 5.8859 -2.4953 0.2225 0 8
9.1168 6.0335 -2.4953 0.2225 0 8
9.0185 6.1795 -2.4953 0.2225 0 8
8.9179 6.3238 -2.4953 0.2225 0 8
8.8149 6.4666 -2.4953 0.2225 0 8
8.7097 6.6077 -2.4953 0.2225 0 8
8.6021 6.7471 -2.4953 0.2225 0 8
8.4924 6.8847 -2.4953 0.2225 0 8
8.3805 7.0205 -2.4953 0.2225 0 8
8.2663 7.1545 -2.4953 0.2225 0 8
8.1501 7.2867 -2.4953 0.2225 0 8
8.0317 7.4170 -2.4953 0.2225 0 8
7.9113 7.5453 -2.4953 0.2225 0 8
7.7888 7.6717 -2.4953 0.2225 0 8
7.6642 7.7961 -2.4953 0.2225 0 8
7.5377 7.9185 -2.4953 0.2225 0 8
7.4093 8.0388 -2.4953 0.2225 0 8
7.2789 8.1571 -2.4953 0.2225 0 8
7.1466 8.2732 -2.4953 0.2225 0 8
7.0125 8.3872 -2.4953 0.2225 0 8
7.2965 9.0181 -2.6477 0.2225 0 7
7.1504 9.1344 -2.6477 0.2225 0 7
7.0024 9.2483 -2.6477 0.2225 0 7
6.8526 9.3599 -2.6477 0.2225 0 7
6.7010 9.4690 -2.6477 0.2225 0 7
6.5477 9.5756 -2.6477 0.2225 0 7
6.3927 9.6798 -2.6477 0.2225 0 7
6.2360 9.7815 -2.6477 0.2225 0 7
6.0777 9.8806 -2.6477 0.2225 0 7
5.9179 9.9772 -2.6477 0.2225 0 7
5.7564 10.0712 -2.6477 0.2225 0 7
5.5936 10.1625 -2.6477 0.2225 0 7
5.4292 10.2513 -2.6477 0.2225 0 7
5.2635 10.3374 -2.6477 0.2225 0 7
5.0964 10.4208 -2.6477 0.2225 0 7
4.9279 10.5015 -2.6477 0.2225 0 7
4.7582 10.5794 -2.6477 0.2225 0 7
4.5873 10.6547 -2.6477 0.2225 0 7
4.4151 10.7271 -2.6477 0.2225 0 7
4.2419 10.7968 -2.6477 0.2225 0 7
4.0675 10.8637 -2.6477 0.2225 0 7
3.8920 10.9278 -2.6477 0.2225 0 7
3.7156 10.9890 -2.6477 0.2225 0 7
3.5382 11.0474 -2.6477 0.2225 0 7
3.3599 11.1030 -2.6477 0.2225 0 7
3.1807 11.1556 -2.6477 0.2225 0 7
3.0007 11.2054 -2.6477 0.2225 0 7
2.8199 11.2523 -2.6477 0.2225 0 7
2.6383 11.2962 -2.6477 0.2225 0 7
2.4561 11.3372 -2.6477 0.2225 0 7
2.2733 11.3753 -2.6477 0.2225 0 7
2.0899 11.4104 -2.6477 0.2225 0 6
1.9059 11.4426 -2.6477 0.2225 0 6
1.7214 11.4718 -2.6477 0.2225 0 6
1.5364 11.4980 -2.6477 0.2225 0 6
1.3512 11.5212 -2.6477 0.2225 0 7
1.1655 11.5415 -2.6477 0.2225 0 7
0.9795 11.5588 -2.6477 0.2225 0 7
0.7933 11.5731 -2.6477 0.2225 0 7
0.6069 11.5843 -2.6477 0.2225 0 7
0.4203 11.5926 -2.6477 0.2225 0 7
9.9704 3.3818 -2.4953 0.2306 0 8
9.9147 3.5419 -2.4953 0.2306 0 8
9.8564 3.7011 -2.4953 0.2306 0 8
9.7955 3.8593 -2.4953 0.2306 0 8
9.7321 4.0165 -2.4953 0.2306 0 8
9.6662 4.1727 -2.4953 0.2306 0 8
9.5978 4.3278 -2.4953 0.2306 0 8
9.5269 4.4817 -2.4953 0.2306 0 8
9.4535 4.6345 -2.4953 0.2306 0 8
9.3776 4.7861 -2.4953 0.2306 0 8
9.2993 4.9365 -2.4953 0.2306 0 8
9.2187 5.0856 -2.4953 0.2306 0 8
9.1356 5.2333 -2.4953 0.2306 0 8
9.0502 5.3797 -2.4953 0.2306 0 8
8.9624 5.5247 -2.4953 0.2306 0 8
8.8723 5.6683 -2.4953 0.2306 0 8
8.7798 5.8104 -2.4953 0.2306 0 8
8.6852 5.9510 -2.4953 0.2306 0 8
8.5882 6.0901 -2.4953 0.2306 0 8
8.4891 6.2276 -2.4953 0.2306 0 8
8.3877 6.3634 -2.4953 0.2306 0 8
8.2842 6.4976 -2.4953 0.2306 0 8
8.1785 6.6302 -2.4953 0.2306 0 8
8.0707 6.7610 -2.4953 0.2306 0 8
7.9608 6.8901 -2.4953 0.2306 0 8
7.8488 7.0173 -2.4953 0.2306 0 8
7.7348 7.1428 -2.4953 0.2306 0 8
7.6188 7.2664 -2.4953 0.2306 0 8
7.5008 7.3881 -2.4953 0.2306 0 8
7.3809 7.5079 -2.4953 0.2306 0 8
7.2591 7.6258 -2.4953 0.2306 0 8
7.1354 7.7417 -2.4953 0.2306 0 8
7.0098 7.8555 -2.4953 0.2306 0 8
6.8824 7.9674 -2.4953 0.2306 0 8
6.7533 8.0771 -2.4953 0.2306 0 8
6.6223 8.1848 -2.4953 0.2306 0 8
6.4897 8.2904 -2.4953 0.2306 0 8
6.3554 8.3938 -2.4953 0.2306 0 8
6.5993 9.0139 -2.6477 0.2306 0 7
6.4533 9.1189 -2.6477 0.2306 0 7
6.3057 9.2217 -2.6477 0.2306 0 7
6.1564 9.3220 -2.6477 0.2306 0 7
