ply
format ascii 1.0
element vertex 1413
property float32 x
property float32 y
property float32 z
property float32 CosAngle
property uint32 ObjIdx
property uint32 ObjTag
end_header
5.5589 -8.4944 -2.4953 0.2387 0 8
5.6955 -8.4034 -2.4953 0.2387 0 8
5.8305 -8.3103 -2.4953 0.2387 0 8
5.9641 -8.2150 -2.4953 0.2387 0 8
6.0961 -8.1175 -2.4953 0.2387 0 8
6.2264 -8.0179 -2.4953 0.2387 0 8
6.3552 -7.9163 -2.4953 0.2387 0 8
6.4823 -7.8125 -2.4953 0.2387 0 8
6.6077 -7.7067 -2.4953 0.2387 0 8
6.7314 -7.5989 -2.4953 0.2387 0 8
6.8534 -7.4891 -2.4953 0.2387 0 8
6.9735 -7.3774 -2.4953 0.2387 0 8
7.0918 -7.2638 -2.4953 0.2387 0 8
7.2083 -7.1482 -2.4953 0.2387 0 8
7.3229 -7.0308 -2.4953 0.2387 0 8
7.4355 -6.9115 -2.4953 0.2387 0 8
7.5462 -6.7904 -2.4953 0.2387 0 8
7.6550 -6.6676 -2.4953 0.2387 0 8
7.7618 -6.5430 -2.4953 0.2387 0 8
7.8665 -6.4167 -2.4953 0.2387 0 8
7.9692 -6.2887 -2.4953 0.2387 0 8
8.0698 -6.1591 -2.4953 0.2387 0 8
8.1682 -6.0279 -2.4953 0.2387 0 8
8.2646 -5.8951 -2.4953 0.2387 0 8
8.3588 -5.7608 -2.4953 0.2387 0 8
8.4508 -5.6249 -2.4953 0.2387 0 8
8.5406 -5.4876 -2.4953 0.2387 0 8
8.6282 -5.3489 -2.4953 0.2387 0 8
8.7135 -5.2087 -2.4953 0.2387 0 8
8.7965 -5.0672 -2.4953 0.2387 0 8
8.8773 -4.9244 -2.4953 0.2387 0 8
8.9557 -4.7803 -2.4953 0.2387 0 8
9.0318 -4.6349 -2.4953 0.2387 0 8
9.1055 -4.4884 -2.4953 0.2387 0 8
9.1769 -4.3406 -2.4953 0.2387 0 8
9.2458 -4.1917 -2.4953 0.2387 0 8
9.3123 -4.0418 -2.4953 0.2387 0 8
9.3764 -3.8908 -2.4953 0.2387 0 8
9.4381 -3.7387 -2.4953 0.2387 0 8
9.4973 -3.5857 -2.4953 0.2387 0 8
9.5540 -3.4317 -2.4953 0.2387 0 8
9.6082 -3.2769 -2.4953 0.2387 0 8
9.6599 -3.1212 -2.4953 0.2387 0 8
9.7091 -2.9647 -2.4953 0.2387 0 8
9.7557 -2.8074 -2.4953 0.2387 0 8
9.7998 -2.6493 -2.4953 0.2387 0 8
9.8414 -2.4906 -2.4953 0.2387 0 8
9.8803 -2.3312 -2.4953 0.2387 0 8
9.9167 -2.1712 -2.4953 0.2387 0 8
9.9505 -2.0107 -2.4953 0.2387 0 8
9.9817 -1.8496 -2.4953 0.2387 0 8
10.0103 -1.6881 -2.4953 0.2387 0 8
10.0363 -1.5261 -2.4953 0.2387 0 8
10.0596 -1.3637 -2.4953 0.2387 0 8
10.0804 -1.2009 -2.4953 0.2387 0 8
7.9425 -0.8163 -1.9625 0.4510 25 10
7.6979 -0.6656 -1.8992 0.7635 25 10
7.6314 -0.5358 -1.8804 0.8546 25 10
7.5895 -0.4097 -1.8682 0.9188 25 10
7.5659 -0.2859 -1.8610 0.9641 25 10
7.5585 -0.1633 -1.8583 0.9655 25 10
7.5589 -0.0411 -1.8580 0.9269 25 10
7.5577 0.0810 -1.8578 0.9270 25 10
7.5609 0.2033 -1.8591 0.9651 25 10
7.5715 0.3261 -1.8628 0.9379 25 10
7.5995 0.4505 -1.8712 0.9173 25 10
7.6495 0.5776 -1.8856 0.8523 25 10
7.7807 0.7142 -1.9205 0.2811 25 10
8.1442 0.8805 -2.0135 0.1870 25 10
10.0739 1.2541 -2.4953 0.2387 0 8
10.0523 1.4168 -2.4953 0.2387 0 8
10.0281 1.5790 -2.4953 0.2387 0 8
10.0013 1.7409 -2.4953 0.2387 0 8
9.9718 1.9023 -2.4953 0.2387 0 8
9.9398 2.0632 -2.4953 0.2387 0 8
9.9051 2.2236 -2.4953 0.2387 0 8
9.8679 2.3834 -2.4953 0.2387 0 8
9.8281 2.5425 -2.4953 0.2387 0 8
9.7857 2.7010 -2.4953 0.2387 0 8
9.7408 2.8588 -2.4953 0.2387 0 8
9.6933 3.0159 -2.4953 0.2387 0 8
9.6433 3.1721 -2.4953 0.2387 0 8
9.5908 3.3276 -2.4953 0.2387 0 8
9.5358 3.4821 -2.4953 0.2387 0 8
9.4782 3.6358 -2.4953 0.2387 0 8
9.4182 3.7885 -2.4953 0.2387 0 8
9.3558 3.9402 -2.4953 0.2387 0 8
9.2909 4.0909 -2.4953 0.2387 0 8
9.2236 4.2405 -2.4953 0.2387 0 8
4.4061 -8.7531 -2.4953 0.2468 0 8
4.5470 -8.6808 -2.4953 0.2468 0 8
4.6867 -8.6062 -2.4953 0.2468 0 8
4.8252 -8.5293 -2.4953 0.2468 0 8
4.9624 -8.4502 -2.4953 0.2468 0 8
5.0983 -8.3689 -2.4953 0.2468 0 8
5.2329 -8.2854 -2.4953 0.2468 0 8
5.3661 -8.1998 -2.4953 0.2468 0 8
5.4979 -8.1120 -2.4953 0.2468 0 8
5.6283 -8.0220 -2.4953 0.2468 0 8
5.7572 -7.9300 -2.4953 0.2468 0 8
5.8846 -7.8360 -2.4953 0.2468 0 8
6.0105 -7.7398 -2.4953 0.2468 0 8
6.1348 -7.6417 -2.4953 0.2468 0 8
6.2575 -7.5415 -2.4953 0.2468 0 8
6.3786 -7.4394 -2.4953 0.2468 0 8
6.4980 -7.3354 -2.4953 0.2468 0 8
6.6157 -7.2294 -2.4953 0.2468 0 8
6.7316 -7.1215 -2.4953 0.2468 0 8
6.8458 -7.0118 -2.4953 0.2468 0 8
6.9583 -6.9003 -2.4953 0.2468 0 8
7.0689 -6.7869 -2.4953 0.2468 0 8
7.1776 -6.6718 -2.4953 0.2468 0 8
7.2845 -6.5549 -2.4953 0.2468 0 8
7.3895 -6.4363 -2.4953 0.2468 0 8
7.4926 -6.3161 -2.4953 0.2468 0 8
7.5937 -6.1941 -2.4953 0.2468 0 8
7.6928 -6.0706 -2.4953 0.2468 0 8
7.7899 -5.9455 -2.4953 0.2468 0 8
7.8849 -5.8188 -2.4953 0.2468 0 8
7.9779 -5.6906 -2.4953 0.2468 0 8
8.0689 -5.5610 -2.4953 0.2468 0 8
8.1577 -5.4298 -2.4953 0.2468 0 8
8.2444 -5.2973 -2.4953 0.2468 0 8
8.3289 -5.1634 -2.4953 0.2468 0 8
8.4113 -5.0281 -2.4953 0.2468 0 8
8.4914 -4.8915 -2.4953 0.2468 0 8
8.5694 -4.7536 -2.4953 0.2468 0 8
8.6451 -4.6145 -2.4953 0.2468 0 8
8.7185 -4.4742 -2.4953 0.2468 0 8
8.7897 -4.3327 -2.4953 0.2468 0 8
8.8586 -4.1901 -2.4953 0.2468 0 8
8.9251 -4.0464 -2.4953 0.2468 0 8
8.9894 -3.9016 -2.4953 0.2468 0 8
9.0512 -3.7558 -2.4953 0.2468 0 8
9.1108 -3.6090 -2.4953 0.2468 0 8
9.1679 -3.4613 -2.4953 0.2468 0 8
9.2226 -3.3127 -2.4953 0.2468 0 8
9.2750 -3.1632 -2.4953 0.2468 0 8
9.3249 -3.0129 -2.4953 0.2468 0 8
9.3724 -2.8618 -2.4953 0.2468 0 8
9.4174 -2.7100 -2.4953 0.2468 0 8
9.4599 -2.5574 -2.4953 0.2468 0 8
9.5000 -2.4042 -2.4953 0.2468 0 8
9.5377 -2.2504 -2.4953 0.2468 0 8
9.5728 -2.0959 -2.4953 0.2468 0 8
9.6054 -1.9410 -2.4953 0.2468 0 8
9.6355 -1.7855 -2.4953 0.2468 0 8
9.6631 -1.6295 -2.4953 0.2468 0 8
9.6882 -1.4731 -2.4953 0.2468 0 8
9.7107 -1.3164 -2.4953 0.2468 0 8
9.7307 -1.1593 -2.4953 0.2468 0 8
7.9396 -0.8160 -2.0323 0.5416 25 10
7.7113 -0.6668 -1.9709 0.7606 25 10
7.6365 -0.5361 -1.9493 0.7690 25 10
7.5926 -0.4098 -1.9361 0.9165 25 10
7.5665 -0.2859 -1.9280 0.9621 25 10
7.5653 -0.1635 -1.9268 0.9240 25 10
7.5689 -0.0412 -1.9273 0.9238 25 10
7.5677 0.0811 -1.9271 0.9239 25 10
7.5642 0.2034 -1.9268 0.9240 25 10
7.5725 0.3262 -1.9300 0.9359 25 10
7.6026 0.4507 -1.9393 0.9150 25 10
7.6607 0.5785 -1.9562 0.7663 25 10
7.7796 0.7141 -1.9892 0.4039 25 10
8.1657 0.8828 -2.0914 0.1931 25 10
9.7245 1.2106 -2.4953 0.2468 0 8
9.7036 1.3676 -2.4953 0.2468 0 8
9.6803 1.5243 -2.4953 0.2468 0 8
9.6544 1.6805 -2.4953 0.2468 0 8
9.6260 1.8363 -2.4953 0.2468 0 8
9.5950 1.9916 -2.4953 0.2468 0 8
9.5616 2.1464 -2.4953 0.2468 0 8
9.5256 2.3007 -2.4953 0.2468 0 8
9.4872 2.4543 -2.4953 0.2468 0 8
9.4463 2.6073 -2.4953 0.2468 0 8
9.4029 2.7597 -2.4953 0.2468 0 8
9.3571 2.9113 -2.4953 0.2468 0 8
9.3088 3.0621 -2.4953 0.2468 0 8
9.2581 3.2122 -2.4953 0.2468 0 8
9.2050 3.3614 -2.4953 0.2468 0 8
9.1495 3.5097 -2.4953 0.2468 0 8
9.0916 3.6571 -2.4953 0.2468 0 8
9.0313 3.8035 -2.4953 0.2468 0 8
8.9686 3.9490 -2.4953 0.2468 0 8
8.9036 4.0934 -2.4953 0.2468 0 8
4.2578 -8.4585 -2.4953 0.2548 0 8
4.3940 -8.3886 -2.4953 0.2548 0 8
4.5290 -8.3165 -2.4953 0.2548 0 8
4.6628 -8.2422 -2.4953 0.2548 0 8
4.7954 -8.1658 -2.4953 0.2548 0 8
4.9267 -8.0872 -2.4953 0.2548 0 8
5.0568 -8.0065 -2.4953 0.2548 0 8
5.1855 -7.9238 -2.4953 0.2548 0 8
5.3129 -7.8389 -2.4953 0.2548 0 8
5.4389 -7.7520 -2.4953 0.2548 0 8
5.5634 -7.6631 -2.4953 0.2548 0 8
5.6866 -7.5722 -2.4953 0.2548 0 8
5.8082 -7.4793 -2.4953 0.2548 0 8
5.9283 -7.3845 -2.4953 0.2548 0 8
6.0469 -7.2877 -2.4953 0.2548 0 8
6.1639 -7.1890 -2.4953 0.2548 0 8
6.2792 -7.0885 -2.4953 0.2548 0 8
6.3930 -6.9861 -2.4953 0.2548 0 8
6.5050 -6.8818 -2.4953 0.2548 0 8
6.6154 -6.7758 -2.4953 0.2548 0 8
6.7241 -6.6680 -2.4953 0.2548 0 8
6.8309 -6.5585 -2.4953 0.2548 0 8
6.9360 -6.4472 -2.4953 0.2548 0 8
7.0393 -6.3343 -2.4953 0.2548 0 8
7.1408 -6.2197 -2.4953 0.2548 0 8
7.2404 -6.1035 -2.4953 0.2548 0 8
7.3381 -5.9857 -2.4953 0.2548 0 8
7.4338 -5.8663 -2.4953 0.2548 0 8
7.5277 -5.7454 -2.4953 0.2548 0 8
7.6195 -5.6230 -2.4953 0.2548 0 8
7.7094 -5.4991 -2.4953 0.2548 0 8
7.7973 -5.3738 -2.4953 0.2548 0 8
7.8831 -5.2471 -2.4953 0.2548 0 8
7.9669 -5.1190 -2.4953 0.2548 0 8
8.0486 -4.9896 -2.4953 0.2548 0 8
8.1282 -4.8588 -2.4953 0.2548 0 8
8.2056 -4.7268 -2.4953 0.2548 0 8
8.2809 -4.5936 -2.4953 0.2548 0 8
8.3541 -4.4592 -2.4953 0.2548 0 8
8.4251 -4.3236 -2.4953 0.2548 0 8
8.4939 -4.1869 -2.4953 0.2548 0 8
8.5604 -4.0490 -2.4953 0.2548 0 8
8.6247 -3.9102 -2.4953 0.2548 0 8
8.6868 -3.7703 -2.4953 0.2548 0 8
8.7466 -3.6294 -2.4953 0.2548 0 8
8.8041 -3.4876 -2.4953 0.2548 0 8
8.8593 -3.3448 -2.4953 0.2548 0 8
8.9122 -3.2012 -2.4953 0.2548 0 8
8.9628 -3.0568 -2.4953 0.2548 0 8
9.0110 -2.9115 -2.4953 0.2548 0 8
9.0569 -2.7655 -2.4953 0.2548 0 8
9.1004 -2.6188 -2.4953 0.2548 0 8
9.1415 -2.4714 -2.4953 0.2548 0 8
9.1803 -2.3233 -2.4953 0.2548 0 8
9.2166 -2.1746 -2.4953 0.2548 0 8
9.2506 -2.0254 -2.4953 0.2548 0 8
9.2821 -1.8756 -2.4953 0.2548 0 8
9.3112 -1.7254 -2.4953 0.2548 0 8
9.3379 -1.5747 -2.4953 0.2548 0 8
9.3621 -1.4236 -2.4953 0.2548 0 8
9.3839 -1.2721 -2.4953 0.2548 0 8
9.4032 -1.1202 -2.4953 0.2548 0 8
7.9763 -0.8197 -2.1128 0.1534 25 10
7.7451 -0.6697 -2.0484 0.4050 25 10
7.6561 -0.5375 -2.0223 0.7213 25 10
7.6022 -0.4104 -2.0061 0.8440 25 10
7.5741 -0.2862 -1.9972 0.8885 25 10
7.5778 -0.1637 -1.9972 0.8885 25 10
7.5810 -0.0413 -1.9976 0.9287 25 10
7.5803 0.0813 -1.9975 0.8884 25 10
7.5765 0.2037 -1.9971 0.8886 25 10
7.5808 0.3265 -1.9994 0.8468 25 10
7.6129 0.4513 -2.0095 0.8135 25 10
7.6817 0.5801 -2.0299 0.7187 25 10
7.8236 0.7181 -2.0702 0.4007 25 10
8.2637 0.8934 -2.1902 0.8932 25 10
9.3972 1.1699 -2.4953 0.2548 0 8
9.3770 1.3216 -2.4953 0.2548 0 8
9.3545 1.4730 -2.4953 0.2548 0 8
9.3294 1.6239 -2.4953 0.2548 0 8
9.3020 1.7745 -2.4953 0.2548 0 8
9.2721 1.9246 -2.4953 0.2548 0 8
9.2398 2.0742 -2.4953 0.2548 0 8
9.2050 2.2233 -2.4953 0.2548 0 8
9.1679 2.3717 -2.4953 0.2548 0 8
9.1284 2.5196 -2.4953 0.2548 0 8
9.0865 2.6668 -2.4953 0.2548 0 8
9.0422 2.8133 -2.4953 0.2548 0 8
8.9955 2.9590 -2.4953 0.2548 0 8
8.9465 3.1040 -2.4953 0.2548 0 8
8.8952 3.2482 -2.4953 0.2548 0 8
8.8415 3.3915 -2.4953 0.2548 0 8
8.7856 3.5340 -2.4953 0.2548 0 8
8.7273 3.6755 -2.4953 0.2548 0 8
8.6668 3.8161 -2.4953 0.2548 0 8
8.6040 3.9556 -2.4953 0.2548 0 8
4.1186 -8.1819 -2.4953 0.2628 0 8
4.2503 -8.1143 -2.4953 0.2628 0 8
4.3809 -8.0445 -2.4953 0.2628 0 8
4.5103 -7.9727 -2.4953 0.2628 0 8
4.6386 -7.8987 -2.4953 0.2628 0 8
4.7656 -7.8228 -2.4953 0.2628 0 8
4.8914 -7.7447 -2.4953 0.2628 0 8
5.0159 -7.6647 -2.4953 0.2628 0 8
5.1391 -7.5826 -2.4953 0.2628 0 8
5.2610 -7.4985 -2.4953 0.2628 0 8
5.3815 -7.4125 -2.4953 0.2628 0 8
5.5006 -7.3246 -2.4953 0.2628 0 8
5.6183 -7.2347 -2.4953 0.2628 0 8
5.7344 -7.1430 -2.4953 0.2628 0 8
5.8491 -7.0494 -2.4953 0.2628 0 8
5.9623 -6.9539 -2.4953 0.2628 0 8
6.0739 -6.8567 -2.4953 0.2628 0 8
6.1839 -6.7576 -2.4953 0.2628 0 8
6.2923 -6.6568 -2.4953 0.2628 0 8
6.3991 -6.5542 -2.4953 0.2628 0 8
6.5042 -6.4500 -2.4953 0.2628 0 8
6.6076 -6.3440 -2.4953 0.2628 0 8
6.7092 -6.2364 -2.4953 0.2628 0 8
6.8091 -6.1272 -2.4953 0.2628 0 8
6.9073 -6.0163 -2.4953 0.2628 0 8
7.0036 -5.9039 -2.4953 0.2628 0 8
7.0981 -5.7899 -2.4953 0.2628 0 8
7.1908 -5.6745 -2.4953 0.2628 0 8
7.2815 -5.5575 -2.4953 0.2628 0 8
7.3704 -5.4391 -2.4953 0.2628 0 8
7.4573 -5.3193 -2.4953 0.2628 0 8
7.5423 -5.1981 -2.4953 0.2628 0 8
7.6253 -5.0755 -2.4953 0.2628 0 8
7.7064 -4.9516 -2.4953 0.2628 0 8
7.7854 -4.8264 -2.4953 0.2628 0 8
7.8624 -4.7000 -2.4953 0.2628 0 8
7.9373 -4.5723 -2.4953 0.2628 0 8
8.0102 -4.4434 -2.4953 0.2628 0 8
8.0809 -4.3134 -2.4953 0.2628 0 8
8.1496 -4.1822 -2.4953 0.2628 0 8
8.2161 -4.0500 -2.4953 0.2628 0 8
8.2805 -3.9166 -2.4953 0.2628 0 8
8.3427 -3.7823 -2.4953 0.2628 0 8
8.4027 -3.6470 -2.4953 0.2628 0 8
8.4606 -3.5107 -2.4953 0.2628 0 8
8.5162 -3.3735 -2.4953 0.2628 0 8
8.5696 -3.2354 -2.4953 0.2628 0 8
8.6208 -3.0965 -2.4953 0.2628 0 8
8.6697 -2.9568 -2.4953 0.2628 0 8
8.7164 -2.8163 -2.4953 0.2628 0 8
8.7607 -2.6751 -2.4953 0.2628 0 8
8.8028 -2.5331 -2.4953 0.2628 0 8
8.8426 -2.3905 -2.4953 0.2628 0 8
8.8801 -2.2473 -2.4953 0.2628 0 8
8.9152 -2.1035 -2.4953 0.2628 0 8
8.9481 -1.9592 -2.4953 0.2628 0 8
8.9786 -1.8143 -2.4953 0.2628 0 8
9.0067 -1.6690 -2.4953 0.2628 0 8
9.0325 -1.5232 -2.4953 0.2628 0 8
9.0560 -1.3770 -2.4953 0.2628 0 8
9.0770 -1.2305 -2.4953 0.2628 0 8
9.0957 -1.0836 -2.4953 0.2628 0 8
8.0218 -0.8244 -2.1967 0.1958 25 10
7.7889 -0.6735 -2.1297 0.4018 25 10
7.6796 -0.5391 -2.0971 0.7175 25 10
7.6221 -0.4114 -2.0793 0.8110 25 10
7.5901 -0.2868 -2.0691 0.8847 25 10
7.5938 -0.1641 -2.0691 0.8847 25 10
7.5894 -0.0413 -2.0674 0.9256 25 10
7.5909 0.0814 -2.0680 0.9254 25 10
7.5925 0.2042 -2.0690 0.8847 25 10
7.5987 0.3273 -2.0719 0.8429 25 10
7.6346 0.4525 -2.0834 0.8094 25 10
7.7050 0.5818 -2.1049 0.7207 25 10
7.8512 0.7206 -2.1477 0.5459 25 10
8.2793 0.8951 -2.2685 0.8895 25 10
9.0899 1.1316 -2.4953 0.2628 0 8
9.0704 1.2784 -2.4953 0.2628 0 8
9.0486 1.4248 -2.4953 0.2628 0 8
9.0243 1.5708 -2.4953 0.2628 0 8
8.9978 1.7165 -2.4953 0.2628 0 8
8.9689 1.8617 -2.4953 0.2628 0 8
8.9376 2.0064 -2.4953 0.2628 0 8
8.9040 2.1506 -2.4953 0.2628 0 8
8.8681 2.2942 -2.4953 0.2628 0 8
8.8299 2.4372 -2.4953 0.2628 0 8
8.7893 2.5796 -2.4953 0.2628 0 8
8.7465 2.7213 -2.4953 0.2628 0 8
8.7014 2.8623 -2.4953 0.2628 0 8
8.6540 3.0025 -2.4953 0.2628 0 8
8.6043 3.1420 -2.4953 0.2628 0 8
8.5524 3.2806 -2.4953 0.2628 0 8
8.4983 3.4184 -2.4953 0.2628 0 8
8.4419 3.5553 -2.4953 0.2628 0 8
8.3834 3.6913 -2.4953 0.2628 0 8
8.3226 3.8263 -2.4953 0.2628 0 8
3.9876 -7.9217 -2.4953 0.2708 0 8
4.1151 -7.8562 -2.4953 0.2708 0 8
4.2415 -7.7887 -2.4953 0.2708 0 8
4.3668 -7.7191 -2.4953 0.2708 0 8
4.4910 -7.6475 -2.4953 0.2708 0 8
4.6140 -7.5740 -2.4953 0.2708 0 8
4.7358 -7.4984 -2.4953 0.2708 0 8
4.8564 -7.4209 -2.4953 0.2708 0 8
4.9757 -7.3414 -2.4953 0.2708 0 8
5.0937 -7.2601 -2.4953 0.2708 0 8
5.2104 -7.1768 -2.4953 0.2708 0 8
5.3257 -7.0916 -2.4953 0.2708 0 8
5.4396 -7.0047 -2.4953 0.2708 0 8
5.5521 -6.9158 -2.4953 0.2708 0 8
5.6631 -6.8252 -2.4953 0.2708 0 8
5.7727 -6.7328 -2.4953 0.2708 0 8
5.8807 -6.6386 -2.4953 0.2708 0 8
5.9873 -6.5427 -2.4953 0.2708 0 8
6.0922 -6.4450 -2.4953 0.2708 0 8
6.1956 -6.3458 -2.4953 0.2708 0 8
6.2973 -6.2448 -2.4953 0.2708 0 8
6.3974 -6.1422 -2.4953 0.2708 0 8
6.4959 -6.0381 -2.4953 0.2708 0 8
6.5926 -5.9323 -2.4953 0.2708 0 8
6.6876 -5.8250 -2.4953 0.2708 0 8
6.7809 -5.7161 -2.4953 0.2708 0 8
6.8724 -5.6058 -2.4953 0.2708 0 8
6.9621 -5.4940 -2.4953 0.2708 0 8
7.0499 -5.3808 -2.4953 0.2708 0 8
7.1360 -5.2661 -2.4953 0.2708 0 8
7.2202 -5.1501 -2.4953 0.2708 0 8
7.3024 -5.0327 -2.4953 0.2708 0 8
7.3828 -4.9141 -2.4953 0.2708 0 8
7.4613 -4.7941 -2.4953 0.2708 0 8
7.5378 -4.6729 -2.4953 0.2708 0 8
7.6123 -4.5505 -2.4953 0.2708 0 8
7.6849 -4.4269 -2.4953 0.2708 0 8
7.7554 -4.3021 -2.4953 0.2708 0 8
7.8239 -4.1762 -2.4953 0.2708 0 8
7.8904 -4.0492 -2.4953 0.2708 0 8
7.9548 -3.9211 -2.4953 0.2708 0 8
8.0171 -3.7921 -2.4953 0.2708 0 8
8.0774 -3.6620 -2.4953 0.2708 0 8
8.1355 -3.5310 -2.4953 0.2708 0 8
8.1915 -3.3991 -2.4953 0.2708 0 8
8.2454 -3.2662 -2.4953 0.2708 0 8
8.2971 -3.1325 -2.4953 0.2708 0 8
8.3466 -2.9980 -2.4953 0.2708 0 8
8.3940 -2.8628 -2.4953 0.2708 0 8
8.4391 -2.7267 -2.4953 0.2708 0 8
8.4821 -2.5900 -2.4953 0.2708 0 8
8.5229 -2.4526 -2.4953 0.2708 0 8
8.5614 -2.3145 -2.4953 0.2708 0 8
8.5977 -2.1759 -2.4953 0.2708 0 8
8.6317 -2.0366 -2.4953 0.2708 0 8
8.6635 -1.8969 -2.4953 0.2708 0 8
8.6930 -1.7566 -2.4953 0.2708 0 8
8.7203 -1.6159 -2.4953 0.2708 0 8
8.7452 -1.4747 -2.4953 0.2708 0 8
8.7679 -1.3332 -2.4953 0.2708 0 8
8.7883 -1.1913 -2.4953 0.2708 0 8
8.8064 -1.0491 -2.4953 0.2708 0 8
8.3345 -0.8566 -2.3573 0.6457 25 10
8.3315 -0.7204 -2.3529 0.6469 25 10
7.7027 -0.5408 -2.1725 0.7195 25 10
7.6439 -0.4126 -2.1538 0.8068 25 10
7.6063 -0.2874 -2.1416 0.8403 25 10
7.6027 -0.1643 -2.1396 0.9216 25 10
7.5979 -0.0413 -2.1377 0.9224 25 10
7.5994 0.0815 -2.1383 0.9222 25 10
7.6043 0.2045 -2.1403 0.9213 25 10
7.6181 0.3281 -2.1454 0.8100 25 10
7.6565 0.4538 -2.1580 0.8052 25 10
7.7281 0.5836 -2.1806 0.7168 25 10
8.3324 0.7648 -2.3542 0.6466 25 10
8.3356 0.9012 -2.3589 0.6453 25 10
8.8008 1.0956 -2.4953 0.2708 0 8
8.7819 1.2377 -2.4953 0.2708 0 8
8.7608 1.3795 -2.4953 0.2708 0 8
8.7373 1.5209 -2.4953 0.2708 0 8
8.7116 1.6619 -2.4953 0.2708 0 8
8.6836 1.8025 -2.4953 0.2708 0 8
8.6534 1.9426 -2.4953 0.2708 0 8
8.6208 2.0822 -2.4953 0.2708 0 8
8.5861 2.2212 -2.4953 0.2708 0 8
8.5490 2.3597 -2.4953 0.2708 0 8
8.5098 2.4975 -2.4953 0.2708 0 8
8.4683 2.6347 -2.4953 0.2708 0 8
8.4246 2.7712 -2.4953 0.2708 0 8
8.3787 2.9070 -2.4953 0.2708 0 8
8.3307 3.0421 -2.4953 0.2708 0 8
8.2804 3.1763 -2.4953 0.2708 0 8
8.2280 3.3097 -2.4953 0.2708 0 8
8.1734 3.4423 -2.4953 0.2708 0 8
8.1167 3.5739 -2.4953 0.2708 0 8
8.0579 3.7046 -2.4953 0.2708 0 8
3.8641 -7.6764 -2.4953 0.2788 0 8
3.9877 -7.6130 -2.4953 0.2788 0 8
4.1102 -7.5475 -2.4953 0.2788 0 8
4.2316 -7.4801 -2.4953 0.2788 0 8
4.3520 -7.4107 -2.4953 0.2788 0 8
4.4712 -7.3394 -2.4953 0.2788 0 8
4.5892 -7.2662 -2.4953 0.2788 0 8
4.7060 -7.1911 -2.4953 0.2788 0 8
4.8216 -7.1141 -2.4953 0.2788 0 8
4.9360 -7.0353 -2.4953 0.2788 0 8
5.0490 -6.9546 -2.4953 0.2788 0 8
5.1608 -6.8721 -2.4953 0.2788 0 8
5.2711 -6.7878 -2.4953 0.2788 0 8
5.3802 -6.7017 -2.4953 0.2788 0 8
5.4878 -6.6139 -2.4953 0.2788 0 8
5.5939 -6.5243 -2.4953 0.2788 0 8
5.6986 -6.4331 -2.4953 0.2788 0 8
5.8019 -6.3401 -2.4953 0.2788 0 8
5.9036 -6.2455 -2.4953 0.2788 0 8
6.0037 -6.1493 -2.4953 0.2788 0 8
6.1023 -6.0515 -2.4953 0.2788 0 8
6.1993 -5.9521 -2.4953 0.2788 0 8
6.2947 -5.8511 -2.4953 0.2788 0 8
6.3885 -5.7486 -2.4953 0.2788 0 8
6.4805 -5.6446 -2.4953 0.2788 0 8
6.5709 -5.5391 -2.4953 0.2788 0 8
6.6596 -5.4322 -2.4953 0.2788 0 8
6.7465 -5.3239 -2.4953 0.2788 0 8
6.8316 -5.2141 -2.4953 0.2788 0 8
6.9150 -5.1031 -2.4953 0.2788 0 8
6.9966 -4.9906 -2.4953 0.2788 0 8
7.0763 -4.8769 -2.4953 0.2788 0 8
7.1542 -4.7619 -2.4953 0.2788 0 8
7.2302 -4.6457 -2.4953 0.2788 0 8
7.3044 -4.5282 -2.4953 0.2788 0 8
7.3766 -4.4096 -2.4953 0.2788 0 8
7.4469 -4.2898 -2.4953 0.2788 0 8
7.5153 -4.1689 -2.4953 0.2788 0 8
7.5817 -4.0469 -2.4953 0.2788 0 8
7.6461 -3.9238 -2.4953 0.2788 0 8
7.7085 -3.7997 -2.4953 0.2788 0 8
7.7689 -3.6747 -2.4953 0.2788 0 8
7.8273 -3.5486 -2.4953 0.2788 0 8
7.8836 -3.4217 -2.4953 0.2788 0 8
7.9379 -3.2938 -2.4953 0.2788 0 8
7.9901 -3.1651 -2.4953 0.2788 0 8
8.0402 -3.0356 -2.4953 0.2788 0 8
8.0882 -2.9052 -2.4953 0.2788 0 8
8.1341 -2.7741 -2.4953 0.2788 0 8
8.1778 -2.6423 -2.4953 0.2788 0 8
8.2195 -2.5098 -2.4953 0.2788 0 8
8.2590 -2.3766 -2.4953 0.2788 0 8
8.2963 -2.2429 -2.4953 0.2788 0 8
8.3314 -2.1085 -2.4953 0.2788 0 8
8.3644 -1.9736 -2.4953 0.2788 0 8
8.3952 -1.8381 -2.4953 0.2788 0 8
8.4238 -1.7022 -2.4953 0.2788 0 8
8.4503 -1.5658 -2.4953 0.2788 0 8
8.4745 -1.4291 -2.4953 0.2788 0 8
8.4964 -1.2919 -2.4953 0.2788 0 8
8.5162 -1.1544 -2.4953 0.2788 0 8
8.5338 -1.0167 -2.4953 0.2788 0 8
8.5491 -0.8786 -2.4953 0.2788 0 8
8.4717 -0.7325 -2.4689 0.2997 25 10
8.5730 -0.6019 -2.4953 0.2788 0 8
8.5816 -0.4632 -2.4953 0.2788 0 8
8.5880 -0.3245 -2.4953 0.2788 0 8
8.5921 -0.1856 -2.4953 0.2788 0 8
8.5940 -0.0468 -2.4953 0.2788 0 8
8.5936 0.0921 -2.4953 0.2788 0 8
8.5910 0.2310 -2.4953 0.2788 0 8
8.5861 0.3698 -2.4953 0.2788 0 8
8.5791 0.5085 -2.4953 0.2788 0 8
8.5697 0.6471 -2.4953 0.2788 0 8
8.5581 0.7855 -2.4953 0.2788 0 8
8.5443 0.9237 -2.4953 0.2788 0 8
8.5283 1.0617 -2.4953 0.2788 0 8
8.5100 1.1994 -2.4953 0.2788 0 8
8.4895 1.3368 -2.4953 0.2788 0 8
8.4668 1.4738 -2.4953 0.2788 0 8
8.4419 1.6104 -2.4953 0.2788 0 8
8.4147 1.7466 -2.4953 0.2788 0 8
8.3854 1.8824 -2.4953 0.2788 0 8
8.3539 2.0177 -2.4953 0.2788 0 8
8.3202 2.1524 -2.4953 0.2788 0 8
8.2843 2.2866 -2.4953 0.2788 0 8
8.2463 2.4202 -2.4953 0.2788 0 8
8.2061 2.5532 -2.4953 0.2788 0 8
8.1638 2.6854 -2.4953 0.2788 0 8
8.1193 2.8170 -2.4953 0.2788 0 8
8.0727 2.9479 -2.4953 0.2788 0 8
8.0240 3.0779 -2.4953 0.2788 0 8
7.9732 3.2072 -2.4953 0.2788 0 8
7.9204 3.3357 -2.4953 0.2788 0 8
7.8654 3.4632 -2.4953 0.2788 0 8
7.8084 3.5899 -2.4953 0.2788 0 8
3.7475 -7.4448 -2.4953 0.2868 0 8
3.8673 -7.3832 -2.4953 0.2868 0 8
3.9862 -7.3198 -2.4953 0.2868 0 8
4.1039 -7.2544 -2.4953 0.2868 0 8
4.2207 -7.1871 -2.4953 0.2868 0 8
4.3363 -7.1180 -2.4953 0.2868 0 8
4.4507 -7.0470 -2.4953 0.2868 0 8
4.5640 -6.9741 -2.4953 0.2868 0 8
4.6761 -6.8994 -2.4953 0.2868 0 8
4.7870 -6.8230 -2.4953 0.2868 0 8
4.8967 -6.7447 -2.4953 0.2868 0 8
5.0050 -6.6647 -2.4953 0.2868 0 8
5.1121 -6.5829 -2.4953 0.2868 0 8
5.2178 -6.4995 -2.4953 0.2868 0 8
5.3222 -6.4143 -2.4953 0.2868 0 8
5.4251 -6.3274 -2.4953 0.2868 0 8
5.5267 -6.2389 -2.4953 0.2868 0 8
5.6268 -6.1488 -2.4953 0.2868 0 8
5.7254 -6.0571 -2.4953 0.2868 0 8
5.8226 -5.9637 -2.4953 0.2868 0 8
5.9182 -5.8689 -2.4953 0.2868 0 8
6.0123 -5.7725 -2.4953 0.2868 0 8
6.1048 -5.6745 -2.4953 0.2868 0 8
6.1957 -5.5751 -2.4953 0.2868 0 8
6.2850 -5.4743 -2.4953 0.2868 0 8
6.3726 -5.3720 -2.4953 0.2868 0 8
6.4586 -5.2683 -2.4953 0.2868 0 8
6.5429 -5.1632 -2.4953 0.2868 0 8
6.6255 -5.0568 -2.4953 0.2868 0 8
6.7064 -4.9491 -2.4953 0.2868 0 8
6.7855 -4.8400 -2.4953 0.2868 0 8
6.8628 -4.7298 -2.4953 0.2868 0 8
6.9383 -4.6182 -2.4953 0.2868 0 8
7.0121 -4.5055 -2.4953 0.2868 0 8
7.0840 -4.3916 -2.4953 0.2868 0 8
7.1540 -4.2765 -2.4953 0.2868 0 8
7.2222 -4.1603 -2.4953 0.2868 0 8
7.2885 -4.0431 -2.4953 0.2868 0 8
7.3529 -3.9248 -2.4953 0.2868 0 8
7.4154 -3.8054 -2.4953 0.2868 0 8
7.4759 -3.6851 -2.4953 0.2868 0 8
7.5345 -3.5638 -2.4953 0.2868 0 8
7.5911 -3.4415 -2.4953 0.2868 0 8
7.6457 -3.3184 -2.4953 0.2868 0 8
7.6983 -3.1944 -2.4953 0.2868 0 8
7.7490 -3.0696 -2.4953 0.2868 0 8
7.7975 -2.9440 -2.4953 0.2868 0 8
7.8441 -2.8176 -2.4953 0.2868 0 8
7.8886 -2.6904 -2.4953 0.2868 0 8
7.9311 -2.5626 -2.4953 0.2868 0 8
7.9714 -2.4341 -2.4953 0.2868 0 8
8.0097 -2.3049 -2.4953 0.2868 0 8
8.0459 -2.1752 -2.4953 0.2868 0 8
8.0801 -2.0449 -2.4953 0.2868 0 8
8.1120 -1.9140 -2.4953 0.2868 0 8
8.1419 -1.7827 -2.4953 0.2868 0 8
8.1697 -1.6508 -2.4953 0.2868 0 8
8.1953 -1.5186 -2.4953 0.2868 0 8
8.2187 -1.3859 -2.4953 0.2868 0 8
8.2401 -1.2529 -2.4953 0.2868 0 8
8.2592 -1.1196 -2.4953 0.2868 0 8
8.2763 -0.9860 -2.4953 0.2868 0 8
8.2911 -0.8521 -2.4953 0.2868 0 8
8.3038 -0.7180 -2.4953 0.2868 0 8
8.3143 -0.5837 -2.4953 0.2868 0 8
8.3227 -0.4493 -2.4953 0.2868 0 8
8.3288 -0.3147 -2.4953 0.2868 0 8
8.3328 -0.1800 -2.4953 0.2868 0 8
8.3347 -0.0454 -2.4953 0.2868 0 8
8.3343 0.0893 -2.4953 0.2868 0 8
8.3318 0.2240 -2.4953 0.2868 0 8
8.3271 0.3587 -2.4953 0.2868 0 8
8.3202 0.4932 -2.4953 0.2868 0 8
8.3111 0.6276 -2.4953 0.2868 0 8
8.2999 0.7618 -2.4953 0.2868 0 8
8.2865 0.8959 -2.4953 0.2868 0 8
8.2709 1.0297 -2.4953 0.2868 0 8
8.2532 1.1632 -2.4953 0.2868 0 8
8.2333 1.2964 -2.4953 0.2868 0 8
8.2113 1.4293 -2.4953 0.2868 0 8
8.1871 1.5618 -2.4953 0.2868 0 8
8.1608 1.6939 -2.4953 0.2868 0 8
8.1324 1.8256 -2.4953 0.2868 0 8
8.1018 1.9568 -2.4953 0.2868 0 8
8.0691 2.0875 -2.4953 0.2868 0 8
8.0344 2.2176 -2.4953 0.2868 0 8
7.9975 2.3472 -2.4953 0.2868 0 8
7.9585 2.4761 -2.4953 0.2868 0 8
7.9174 2.6044 -2.4953 0.2868 0 8
7.8743 2.7320 -2.4953 0.2868 0 8
7.8291 2.8589 -2.4953 0.2868 0 8
7.7819 2.9851 -2.4953 0.2868 0 8
7.7326 3.1105 -2.4953 0.2868 0 8
7.6814 3.2350 -2.4953 0.2868 0 8
7.6281 3.3587 -2.4953 0.2868 0 8
7.5728 3.4816 -2.4953 0.2868 0 8
3.6372 -7.2257 -2.4953 0.2948 0 8
3.7535 -7.1659 -2.4953 0.2948 0 8
3.8688 -7.1043 -2.4953 0.2948 0 8
3.9832 -7.0409 -2.4953 0.2948 0 8
4.0964 -6.9756 -2.4953 0.2948 0 8
4.2086 -6.9085 -2.4953 0.2948 0 8
4.3197 -6.8396 -2.4953 0.2948 0 8
4.4297 -6.7688 -2.4953 0.2948 0 8
4.5385 -6.6964 -2.4953 0.2948 0 8
4.6461 -6.6222 -2.4953 0.2948 0 8
4.7526 -6.5462 -2.4953 0.2948 0 8
4.8577 -6.4685 -2.4953 0.2948 0 8
4.9616 -6.3892 -2.4953 0.2948 0 8
5.0642 -6.3082 -2.4953 0.2948 0 8
5.1655 -6.2255 -2.4953 0.2948 0 8
5.2655 -6.1412 -2.4953 0.2948 0 8
5.3640 -6.0553 -2.4953 0.2948 0 8
5.4612 -5.9678 -2.4953 0.2948 0 8
5.5569 -5.8788 -2.4953 0.2948 0 8
5.6512 -5.7882 -2.4953 0.2948 0 8
5.7440 -5.6961 -2.4953 0.2948 0 8
5.8353 -5.6026 -2.4953 0.2948 0 8
5.9251 -5.5075 -2.4953 0.2948 0 8
6.0133 -5.4110 -2.4953 0.2948 0 8
6.1000 -5.3132 -2.4953 0.2948 0 8
6.1851 -5.2139 -2.4953 0.2948 0 8
6.2685 -5.1132 -2.4953 0.2948 0 8
6.3503 -5.0113 -2.4953 0.2948 0 8
6.4305 -4.9080 -2.4953 0.2948 0 8
6.5090 -4.8034 -2.4953 0.2948 0 8
6.5858 -4.6976 -2.4953 0.2948 0 8
6.6608 -4.5905 -2.4953 0.2948 0 8
6.7341 -4.4823 -2.4953 0.2948 0 8
6.8057 -4.3729 -2.4953 0.2948 0 8
6.8755 -4.2623 -2.4953 0.2948 0 8
6.9435 -4.1507 -2.4953 0.2948 0 8
7.0096 -4.0379 -2.4953 0.2948 0 8
7.0740 -3.9241 -2.4953 0.2948 0 8
7.1365 -3.8092 -2.4953 0.2948 0 8
7.1971 -3.6934 -2.4953 0.2948 0 8
7.2558 -3.5766 -2.4953 0.2948 0 8
7.3127 -3.4589 -2.4953 0.2948 0 8
7.3676 -3.3403 -2.4953 0.2948 0 8
7.4207 -3.2207 -2.4953 0.2948 0 8
7.4718 -3.1004 -2.4953 0.2948 0 8
7.5209 -2.9792 -2.4953 0.2948 0 8
7.5680 -2.8573 -2.4953 0.2948 0 8
7.6132 -2.7346 -2.4953 0.2948 0 8
7.6564 -2.6112 -2.4953 0.2948 0 8
7.6976 -2.4872 -2.4953 0.2948 0 8
7.7368 -2.3624 -2.4953 0.2948 0 8
7.7740 -2.2371 -2.4953 0.2948 0 8
7.8091 -2.1112 -2.4953 0.2948 0 8
7.8422 -1.9847 -2.4953 0.2948 0 8
7.8733 -1.8577 -2.4953 0.2948 0 8
7.9023 -1.7302 -2.4953 0.2948 0 8
7.9292 -1.6023 -2.4953 0.2948 0 8
7.9541 -1.4739 -2.4953 0.2948 0 8
7.9768 -1.3452 -2.4953 0.2948 0 8
7.9975 -1.2161 -2.4953 0.2948 0 8
8.0162 -1.0867 -2.4953 0.2948 0 8
8.0327 -0.9570 -2.4953 0.2948 0 8
8.0471 -0.8270 -2.4953 0.2948 0 8
8.0594 -0.6969 -2.4953 0.2948 0 8
8.0696 -0.5665 -2.4953 0.2948 0 8
8.0777 -0.4360 -2.4953 0.2948 0 8
8.0837 -0.3054 -2.4953 0.2948 0 8
8.0876 -0.1747 -2.4953 0.2948 0 8
8.0894 -0.0440 -2.4953 0.2948 0 8
8.0890 0.0867 -2.4953 0.2948 0 8
8.0865 0.2174 -2.4953 0.2948 0 8
8.0820 0.3481 -2.4953 0.2948 0 8
8.0753 0.4787 -2.4953 0.2948 0 8
8.0665 0.6091 -2.4953 0.2948 0 8
8.0556 0.7394 -2.4953 0.2948 0 8
8.0426 0.8695 -2.4953 0.2948 0 8
8.0275 0.9994 -2.4953 0.2948 0 8
8.0103 1.1290 -2.4953 0.2948 0 8
7.9910 1.2583 -2.4953 0.2948 0 8
7.9696 1.3872 -2.4953 0.2948 0 8
7.9462 1.5159 -2.4953 0.2948 0 8
7.9206 1.6441 -2.4953 0.2948 0 8
7.8930 1.7719 -2.4953 0.2948 0 8
7.8634 1.8992 -2.4953 0.2948 0 8
7.8316 2.0260 -2.4953 0.2948 0 8
7.7979 2.1523 -2.4953 0.2948 0 8
7.7621 2.2781 -2.4953 0.2948 0 8
7.7242 2.4032 -2.4953 0.2948 0 8
7.6844 2.5278 -2.4953 0.2948 0 8
7.6425 2.6516 -2.4953 0.2948 0 8
7.5987 2.7748 -2.4953 0.2948 0 8
7.5529 2.8972 -2.4953 0.2948 0 8
7.5050 3.0189 -2.4953 0.2948 0 8
7.4553 3.1398 -2.4953 0.2948 0 8
7.4036 3.2599 -2.4953 0.2948 0 8
7.3499 3.3791 -2.4953 0.2948 0 8
3.5327 -7.0180 -2.4953 0.3027 0 8
3.6457 -6.9600 -2.4953 0.3027 0 8
3.7577 -6.9002 -2.4953 0.3027 0 8
3.8687 -6.8386 -2.4953 0.3027 0 8
3.9787 -6.7752 -2.4953 0.3027 0 8
4.0877 -6.7100 -2.4953 0.3027 0 8
4.1956 -6.6430 -2.4953 0.3027 0 8
4.3024 -6.5744 -2.4953 0.3027 0 8
4.4081 -6.5040 -2.4953 0.3027 0 8
4.5126 -6.4319 -2.4953 0.3027 0 8
4.6160 -6.3581 -2.4953 0.3027 0 8
4.7181 -6.2827 -2.4953 0.3027 0 8
4.8191 -6.2056 -2.4953 0.3027 0 8
4.9187 -6.1269 -2.4953 0.3027 0 8
5.0171 -6.0466 -2.4953 0.3027 0 8
5.1142 -5.9647 -2.4953 0.3027 0 8
5.2099 -5.8813 -2.4953 0.3027 0 8
5.3043 -5.7963 -2.4953 0.3027 0 8
5.3972 -5.7099 -2.4953 0.3027 0 8
5.4888 -5.6219 -2.4953 0.3027 0 8
5.5790 -5.5325 -2.4953 0.3027 0 8
5.6676 -5.4416 -2.4953 0.3027 0 8
5.7548 -5.3493 -2.4953 0.3027 0 8
5.8405 -5.2556 -2.4953 0.3027 0 8
5.9247 -5.1605 -2.4953 0.3027 0 8
6.0073 -5.0641 -2.4953 0.3027 0 8
6.0884 -4.9663 -2.4953 0.3027 0 8
6.1679 -4.8673 -2.4953 0.3027 0 8
6.2457 -4.7670 -2.4953 0.3027 0 8
6.3219 -4.6654 -2.4953 0.3027 0 8
6.3965 -4.5626 -2.4953 0.3027 0 8
6.4694 -4.4586 -2.4953 0.3027 0 8
6.5406 -4.3535 -2.4953 0.3027 0 8
6.6101 -4.2472 -2.4953 0.3027 0 8
6.6779 -4.1399 -2.4953 0.3027 0 8
6.7439 -4.0314 -2.4953 0.3027 0 8
6.8082 -3.9219 -2.4953 0.3027 0 8
6.8707 -3.8113 -2.4953 0.3027 0 8
6.9314 -3.6998 -2.4953 0.3027 0 8
6.9903 -3.5873 -2.4953 0.3027 0 8
7.0474 -3.4738 -2.4953 0.3027 0 8
7.1026 -3.3595 -2.4953 0.3027 0 8
7.1559 -3.2443 -2.4953 0.3027 0 8
7.2074 -3.1282 -2.4953 0.3027 0 8
7.2571 -3.0113 -2.4953 0.3027 0 8
7.3048 -2.8936 -2.4953 0.3027 0 8
7.3506 -2.7752 -2.4953 0.3027 0 8
7.3945 -2.6560 -2.4953 0.3027 0 8
7.4364 -2.5362 -2.4953 0.3027 0 8
7.4765 -2.4157 -2.4953 0.3027 0 8
7.5145 -2.2945 -2.4953 0.3027 0 8
7.5506 -2.1728 -2.4953 0.3027 0 8
7.5847 -2.0505 -2.4953 0.3027 0 8
7.6169 -1.9276 -2.4953 0.3027 0 8
7.6471 -1.8043 -2.4953 0.3027 0 8
7.6752 -1.6805 -2.4953 0.3027 0 8
7.7014 -1.5562 -2.4953 0.3027 0 8
7.7255 -1.4315 -2.4953 0.3027 0 8
7.7476 -1.3065 -2.4953 0.3027 0 8
7.7677 -1.1811 -2.4953 0.3027 0 8
7.7858 -1.0554 -2.4953 0.3027 0 8
7.8019 -0.9295 -2.4953 0.3027 0 8
7.8159 -0.8033 -2.4953 0.3027 0 8
7.8278 -0.6768 -2.4953 0.3027 0 8
7.8377 -0.5502 -2.4953 0.3027 0 8
7.8456 -0.4235 -2.4953 0.3027 0 8
7.8514 -0.2967 -2.4953 0.3027 0 8
7.8552 -0.1697 -2.4953 0.3027 0 8
7.8569 -0.0428 -2.4953 0.3027 0 8
7.8566 0.0842 -2.4953 0.3027 0 8
7.8542 0.2112 -2.4953 0.3027 0 8
7.8497 0.3381 -2.4953 0.3027 0 8
7.8433 0.4649 -2.4953 0.3027 0 8
7.8347 0.5916 -2.4953 0.3027 0 8
7.8241 0.7181 -2.4953 0.3027 0 8
7.8115 0.8445 -2.4953 0.3027 0 8
7.7968 0.9706 -2.4953 0.3027 0 8
7.7801 1.0965 -2.4953 0.3027 0 8
7.7614 1.2221 -2.4953 0.3027 0 8
7.7406 1.3474 -2.4953 0.3027 0 8
7.7179 1.4723 -2.4953 0.3027 0 8
7.6930 1.5968 -2.4953 0.3027 0 8
7.6662 1.7210 -2.4953 0.3027 0 8
7.6374 1.8446 -2.4953 0.3027 0 8
7.6066 1.9678 -2.4953 0.3027 0 8
7.5738 2.0905 -2.4953 0.3027 0 8
7.5390 2.2126 -2.4953 0.3027 0 8
7.5023 2.3342 -2.4953 0.3027 0 8
7.4636 2.4551 -2.4953 0.3027 0 8
7.4229 2.5754 -2.4953 0.3027 0 8
7.3804 2.6950 -2.4953 0.3027 0 8
7.3358 2.8140 -2.4953 0.3027 0 8
7.2894 2.9322 -2.4953 0.3027 0 8
7.2411 3.0496 -2.4953 0.3027 0 8
7.1908 3.1662 -2.4953 0.3027 0 8
7.1387 3.2820 -2.4953 0.3027 0 8
3.4335 -6.8210 -2.4953 0.3106 0 8
3.5433 -6.7646 -2.4953 0.3106 0 8
3.6522 -6.7065 -2.4953 0.3106 0 8
3.7601 -6.6466 -2.4953 0.3106 0 8
3.8670 -6.5849 -2.4953 0.3106 0 8
3.9729 -6.5216 -2.4953 0.3106 0 8
4.0778 -6.4565 -2.4953 0.3106 0 8
4.1816 -6.3898 -2.4953 0.3106 0 8
4.2843 -6.3214 -2.4953 0.3106 0 8
4.3859 -6.2513 -2.4953 0.3106 0 8
4.4864 -6.1796 -2.4953 0.3106 0 8
4.5857 -6.1063 -2.4953 0.3106 0 8
4.6838 -6.0314 -2.4953 0.3106 0 8
4.7806 -5.9549 -2.4953 0.3106 0 8
4.8762 -5.8769 -2.4953 0.3106 0 8
4.9706 -5.7973 -2.4953 0.3106 0 8
5.0636 -5.7162 -2.4953 0.3106 0 8
5.1553 -5.6336 -2.4953 0.3106 0 8
5.2457 -5.5496 -2.4953 0.3106 0 8
5.3347 -5.4641 -2.4953 0.3106 0 8
5.4223 -5.3771 -2.4953 0.3106 0 8
5.5085 -5.2888 -2.4953 0.3106 0 8
5.5933 -5.1991 -2.4953 0.3106 0 8
5.6766 -5.1080 -2.4953 0.3106 0 8
5.7584 -5.0156 -2.4953 0.3106 0 8
5.8387 -4.9219 -2.4953 0.3106 0 8
5.9175 -4.8269 -2.4953 0.3106 0 8
5.9947 -4.7306 -2.4953 0.3106 0 8
6.0704 -4.6331 -2.4953 0.3106 0 8
6.1445 -4.5344 -2.4953 0.3106 0 8
6.2169 -4.4345 -2.4953 0.3106 0 8
6.2878 -4.3335 -2.4953 0.3106 0 8
6.3570 -4.2313 -2.4953 0.3106 0 8
6.4246 -4.1280 -2.4953 0.3106 0 8
6.4904 -4.0236 -2.4953 0.3106 0 8
6.5546 -3.9182 -2.4953 0.3106 0 8
6.6171 -3.8118 -2.4953 0.3106 0 8
6.6778 -3.7043 -2.4953 0.3106 0 8
6.7368 -3.5959 -2.4953 0.3106 0 8
6.7940 -3.4866 -2.4953 0.3106 0 8
6.8495 -3.3763 -2.4953 0.3106 0 8
6.9032 -3.2652 -2.4953 0.3106 0 8
6.9550 -3.1532 -2.4953 0.3106 0 8
7.0051 -3.0404 -2.4953 0.3106 0 8
7.0533 -2.9268 -2.4953 0.3106 0 8
7.0997 -2.8124 -2.4953 0.3106 0 8
7.1442 -2.6973 -2.4953 0.3106 0 8
7.1869 -2.5815 -2.4953 0.3106 0 8
7.2277 -2.4650 -2.4953 0.3106 0 8
7.2666 -2.3479 -2.4953 0.3106 0 8
7.3035 -2.2301 -2.4953 0.3106 0 8
7.3386 -2.1118 -2.4953 0.3106 0 8
7.3718 -1.9929 -2.4953 0.3106 0 8
7.4030 -1.8735 -2.4953 0.3106 0 8
7.4324 -1.7536 -2.4953 0.3106 0 8
7.4597 -1.6333 -2.4953 0.3106 0 8
7.4852 -1.5125 -2.4953 0.3106 0 8
7.5086 -1.3914 -2.4953 0.3106 0 8
7.5301 -1.2698 -2.4953 0.3106 0 8
7.5497 -1.1480 -2.4953 0.3106 0 8
7.5672 -1.0258 -2.4953 0.3106 0 8
7.5828 -0.9034 -2.4953 0.3106 0 8
7.5964 -0.7807 -2.4953 0.3106 0 8
7.6081 -0.6578 -2.4953 0.3106 0 8
7.6177 -0.5348 -2.4953 0.3106 0 8
7.6253 -0.4116 -2.4953 0.3106 0 8
7.6310 -0.2883 -2.4953 0.3106 0 8
7.6347 -0.1650 -2.4953 0.3106 0 8
7.6363 -0.0416 -2.4953 0.3106 0 8
7.6360 0.0819 -2.4953 0.3106 0 8
7.6337 0.2053 -2.4953 0.3106 0 8
7.6294 0.3286 -2.4953 0.3106 0 8
7.6231 0.4519 -2.4953 0.3106 0 8
7.6148 0.5750 -2.4953 0.3106 0 8
7.6045 0.6980 -2.4953 0.3106 0 8
7.5922 0.8208 -2.4953 0.3106 0 8
7.5779 0.9434 -2.4953 0.3106 0 8
7.5617 1.0657 -2.4953 0.3106 0 8
7.5435 1.1878 -2.4953 0.3106 0 8
7.5233 1.3096 -2.4953 0.3106 0 8
7.5012 1.4310 -2.4953 0.3106 0 8
7.4771 1.5520 -2.4953 0.3106 0 8
7.4510 1.6726 -2.4953 0.3106 0 8
7.4230 1.7928 -2.4953 0.3106 0 8
7.3931 1.9126 -2.4953 0.3106 0 8
7.3612 2.0318 -2.4953 0.3106 0 8
7.3274 2.1505 -2.4953 0.3106 0 8
7.2917 2.2686 -2.4953 0.3106 0 8
7.2541 2.3862 -2.4953 0.3106 0 8
7.2145 2.5031 -2.4953 0.3106 0 8
7.1731 2.6194 -2.4953 0.3106 0 8
7.1299 2.7350 -2.4953 0.3106 0 8
7.0847 2.8498 -2.4953 0.3106 0 8
7.0378 2.9640 -2.4953 0.3106 0 8
6.9889 3.0773 -2.4953 0.3106 0 8
6.9383 3.1899 -2.4953 0.3106 0 8
3.3393 -6.6337 -2.4953 0.3185 0 8
3.4460 -6.5789 -2.4953 0.3185 0 8
3.5519 -6.5224 -2.4953 0.3185 0 8
3.6569 -6.4641 -2.4953 0.3185 0 8
3.7609 -6.4042 -2.4953 0.3185 0 8
3.8639 -6.3425 -2.4953 0.3185 0 8
3.9659 -6.2793 -2.4953 0.3185 0 8
4.0668 -6.2144 -2.4953 0.3185 0 8
4.1667 -6.1478 -2.4953 0.3185 0 8
4.2655 -6.0797 -2.4953 0.3185 0 8
4.3632 -6.0100 -2.4953 0.3185 0 8
4.4598 -5.9387 -2.4953 0.3185 0 8
4.5552 -5.8658 -2.4953 0.3185 0 8
4.6494 -5.7914 -2.4953 0.3185 0 8
4.7424 -5.7155 -2.4953 0.3185 0 8
4.8341 -5.6381 -2.4953 0.3185 0 8
4.9246 -5.5593 -2.4953 0.3185 0 8
5.0138 -5.4790 -2.4953 0.3185 0 8
5.1017 -5.3972 -2.4953 0.3185 0 8
5.1883 -5.3141 -2.4953 0.3185 0 8
5.2735 -5.2295 -2.4953 0.3185 0 8
5.3573 -5.1436 -2.4953 0.3185 0 8
5.4397 -5.0564 -2.4953 0.3185 0 8
5.5207 -4.9678 -2.4953 0.3185 0 8
5.6003 -4.8779 -2.4953 0.3185 0 8
5.6784 -4.7868 -2.4953 0.3185 0 8
5.7550 -4.6944 -2.4953 0.3185 0 8
5.8301 -4.6007 -2.4953 0.3185 0 8
5.9037 -4.5059 -2.4953 0.3185 0 8
5.9758 -4.4099 -2.4953 0.3185 0 8
6.0463 -4.3128 -2.4953 0.3185 0 8
6.1152 -4.2145 -2.4953 0.3185 0 8
6.1825 -4.1151 -2.4953 0.3185 0 8
6.2482 -4.0147 -2.4953 0.3185 0 8
6.3122 -3.9132 -2.4953 0.3185 0 8
6.3747 -3.8106 -2.4953 0.3185 0 8
6.4354 -3.7071 -2.4953 0.3185 0 8
6.4945 -3.6026 -2.4953 0.3185 0 8
6.5519 -3.4972 -2.4953 0.3185 0 8
6.6075 -3.3909 -2.4953 0.3185 0 8
6.6615 -3.2836 -2.4953 0.3185 0 8
6.7137 -3.1755 -2.4953 0.3185 0 8
6.7641 -3.0666 -2.4953 0.3185 0 8
6.8128 -2.9569 -2.4953 0.3185 0 8
6.8597 -2.8464 -2.4953 0.3185 0 8
6.9048 -2.7352 -2.4953 0.3185 0 8
6.9481 -2.6232 -2.4953 0.3185 0 8
6.9896 -2.5106 -2.4953 0.3185 0 8
7.0292 -2.3973 -2.4953 0.3185 0 8
7.0671 -2.2834 -2.4953 0.3185 0 8
7.1030 -2.1689 -2.4953 0.3185 0 8
7.1372 -2.0538 -2.4953 0.3185 0 8
7.1694 -1.9382 -2.4953 0.3185 0 8
7.1998 -1.8221 -2.4953 0.3185 0 8
7.2283 -1.7055 -2.4953 0.3185 0 8
7.2549 -1.5885 -2.4953 0.3185 0 8
7.2797 -1.4710 -2.4953 0.3185 0 8
7.3025 -1.3532 -2.4953 0.3185 0 8
7.3234 -1.2350 -2.4953 0.3185 0 8
7.3424 -1.1164 -2.4953 0.3185 0 8
7.3595 -0.9976 -2.4953 0.3185 0 8
7.3746 -0.8786 -2.4953 0.3185 0 8
7.3879 -0.7593 -2.4953 0.3185 0 8
7.3992 -0.6398 -2.4953 0.3185 0 8
7.4086 -0.5201 -2.4953 0.3185 0 8
7.4160 -0.4003 -2.4953 0.3185 0 8
7.4215 -0.2804 -2.4953 0.3185 0 8
7.4251 -0.1604 -2.4953 0.3185 0 8
7.4267 -0.0404 -2.4953 0.3185 0 8
7.4264 0.0796 -2.4953 0.3185 0 8
7.4241 0.1996 -2.4953 0.3185 0 8
7.4199 0.3196 -2.4953 0.3185 0 8
7.4138 0.4395 -2.4953 0.3185 0 8
7.4057 0.5592 -2.4953 0.3185 0 8
7.3957 0.6788 -2.4953 0.3185 0 8
7.3838 0.7983 -2.4953 0.3185 0 8
7.3699 0.9175 -2.4953 0.3185 0 8
7.3541 1.0365 -2.4953 0.3185 0 8
7.3364 1.1552 -2.4953 0.3185 0 8
7.3168 1.2736 -2.4953 0.3185 0 8
7.2952 1.3917 -2.4953 0.3185 0 8
7.2718 1.5094 -2.4953 0.3185 0 8
7.2465 1.6267 -2.4953 0.3185 0 8
7.2192 1.7436 -2.4953 0.3185 0 8
7.1901 1.8601 -2.4953 0.3185 0 8
7.1591 1.9760 -2.4953 0.3185 0 8
7.1262 2.0915 -2.4953 0.3185 0 8
7.0915 2.2064 -2.4953 0.3185 0 8
7.0549 2.3207 -2.4953 0.3185 0 8
7.0165 2.4344 -2.4953 0.3185 0 8
6.9762 2.5475 -2.4953 0.3185 0 8
6.9341 2.6599 -2.4953 0.3185 0 8
6.8903 2.7716 -2.4953 0.3185 0 8
6.8446 2.8826 -2.4953 0.3185 0 8
6.7971 2.9928 -2.4953 0.3185 0 8
6.7478 3.1023 -2.4953 0.3185 0 8
3.2496 -6.4555 -2.4953 0.3264 0 8
3.3535 -6.4022 -2.4953 0.3264 0 8
3.4565 -6.3471 -2.4953 0.3264 0 8
3.5586 -6.2904 -2.4953 0.3264 0 8
3.6598 -6.2321 -2.4953 0.3264 0 8
3.7601 -6.1722 -2.4953 0.3264 0 8
3.8593 -6.1106 -2.4953 0.3264 0 8
3.9576 -6.0474 -2.4953 0.3264 0 8
4.0548 -5.9827 -2.4953 0.3264 0 8
4.1509 -5.9163 -2.4953 0.3264 0 8
4.2460 -5.8485 -2.4953 0.3264 0 8
4.3400 -5.7791 -2.4953 0.3264 0 8
4.4328 -5.7082 -2.4953 0.3264 0 8
4.5245 -5.6358 -2.4953 0.3264 0 8
4.6150 -5.5620 -2.4953 0.3264 0 8
4.7043 -5.4867 -2.4953 0.3264 0 8
4.7923 -5.4099 -2.4953 0.3264 0 8
4.8791 -5.3318 -2.4953 0.3264 0 8
4.9646 -5.2522 -2.4953 0.3264 0 8
5.0489 -5.1713 -2.4953 0.3264 0 8
5.1318 -5.0890 -2.4953 0.3264 0 8
5.2134 -5.0054 -2.4953 0.3264 0 8
5.2936 -4.9205 -2.4953 0.3264 0 8
5.3724 -4.8343 -2.4953 0.3264 0 8
5.4498 -4.7469 -2.4953 0.3264 0 8
5.5258 -4.6582 -2.4953 0.3264 0 8
5.6004 -4.5683 -2.4953 0.3264 0 8
5.6735 -4.4771 -2.4953 0.3264 0 8
5.7451 -4.3849 -2.4953 0.3264 0 8
5.8152 -4.2915 -2.4953 0.3264 0 8
5.8838 -4.1969 -2.4953 0.3264 0 8
5.9509 -4.1013 -2.4953 0.3264 0 8
6.0164 -4.0046 -2.4953 0.3264 0 8
6.0803 -3.9068 -2.4953 0.3264 0 8
6.1427 -3.8080 -2.4953 0.3264 0 8
6.2034 -3.7083 -2.4953 0.3264 0 8
6.2625 -3.6075 -2.4953 0.3264 0 8
6.3200 -3.5058 -2.4953 0.3264 0 8
6.3758 -3.4032 -2.4953 0.3264 0 8
6.4300 -3.2998 -2.4953 0.3264 0 8
6.4825 -3.1954 -2.4953 0.3264 0 8
6.5333 -3.0902 -2.4953 0.3264 0 8
6.5824 -2.9842 -2.4953 0.3264 0 8
6.6298 -2.8775 -2.4953 0.3264 0 8
6.6754 -2.7700 -2.4953 0.3264 0 8
6.7193 -2.6617 -2.4953 0.3264 0 8
6.7614 -2.5528 -2.4953 0.3264 0 8
6.8018 -2.4432 -2.4953 0.3264 0 8
6.8404 -2.3329 -2.4953 0.3264 0 8
6.8772 -2.2221 -2.4953 0.3264 0 8
6.9122 -2.1106 -2.4953 0.3264 0 8
6.9454 -1.9986 -2.4953 0.3264 0 8
6.9768 -1.8861 -2.4953 0.3264 0 8
7.0064 -1.7731 -2.4953 0.3264 0 8
7.0341 -1.6597 -2.4953 0.3264 0 8
7.0600 -1.5458 -2.4953 0.3264 0 8
7.0841 -1.4315 -2.4953 0.3264 0 8
7.1063 -1.3168 -2.4953 0.3264 0 8
7.1267 -1.2018 -2.4953 0.3264 0 8
7.1451 -1.0865 -2.4953 0.3264 0 8
7.1618 -0.9708 -2.4953 0.3264 0 8
7.1765 -0.8550 -2.4953 0.3264 0 8
7.1894 -0.7389 -2.4953 0.3264 0 8
7.2004 -0.6226 -2.4953 0.3264 0 8
7.2095 -0.5061 -2.4953 0.3264 0 8
7.2168 -0.3896 -2.4953 0.3264 0 8
7.2221 -0.2729 -2.4953 0.3264 0 8
7.2256 -0.1561 -2.4953 0.3264 0 8
7.2272 -0.0393 -2.4953 0.3264 0 8
7.2269 0.0775 -2.4953 0.3264 0 8
7.2247 0.1943 -2.4953 0.3264 0 8
7.2206 0.3110 -2.4953 0.3264 0 8
7.2146 0.4277 -2.4953 0.3264 0 8
7.2068 0.5442 -2.4953 0.3264 0 8
7.1970 0.6606 -2.4953 0.3264 0 8
7.1854 0.7768 -2.4953 0.3264 0 8
7.1719 0.8928 -2.4953 0.3264 0 8
7.1565 1.0086 -2.4953 0.3264 0 8
7.1393 1.1242 -2.4953 0.3264 0 8
7.1202 1.2394 -2.4953 0.3264 0 8
7.0993 1.3543 -2.4953 0.3264 0 8
7.0764 1.4689 -2.4953 0.3264 0 8
7.0518 1.5830 -2.4953 0.3264 0 8
7.0253 1.6968 -2.4953 0.3264 0 8
6.9969 1.8101 -2.4953 0.3264 0 8
6.9668 1.9229 -2.4953 0.3264 0 8
6.9348 2.0353 -2.4953 0.3264 0 8
6.9010 2.1471 -2.4953 0.3264 0 8
6.8654 2.2583 -2.4953 0.3264 0 8
6.8280 2.3690 -2.4953 0.3264 0 8
6.7888 2.4790 -2.4953 0.3264 0 8
6.7479 2.5884 -2.4953 0.3264 0 8
6.7051 2.6971 -2.4953 0.3264 0 8
6.6607 2.8052 -2.4953 0.3264 0 8
6.6145 2.9124 -2.4953 0.3264 0 8
6.5665 3.0189 -2.4953 0.3264 0 8
3.1641 -6.2857 -2.4953 0.3342 0 8
3.2652 -6.2337 -2.4953 0.3342 0 8
3.3656 -6.1802 -2.4953 0.3342 0 8
3.4650 -6.1250 -2.4953 0.3342 0 8
3.5635 -6.0682 -2.4953 0.3342 0 8
3.6611 -6.0098 -2.4953 0.3342 0 8
3.7578 -5.9498 -2.4953 0.3342 0 8
3.8534 -5.8883 -2.4953 0.3342 0 8
3.9481 -5.8253 -2.4953 0.3342 0 8
4.0417 -5.7607 -2.4953 0.3342 0 8
4.1343 -5.6946 -2.4953 0.3342 0 8
4.2258 -5.6271 -2.4953 0.3342 0 8
4.3162 -5.5580 -2.4953 0.3342 0 8
4.4054 -5.4876 -2.4953 0.3342 0 8
4.4936 -5.4156 -2.4953 0.3342 0 8
4.5805 -5.3423 -2.4953 0.3342 0 8
4.6662 -5.2676 -2.4953 0.3342 0 8
4.7508 -5.1915 -2.4953 0.3342 0 8
4.8340 -5.1140 -2.4953 0.3342 0 8
4.9161 -5.0352 -2.4953 0.3342 0 8
4.9968 -4.9551 -2.4953 0.3342 0 8
5.0762 -4.8737 -2.4953 0.3342 0 8
5.1543 -4.7911 -2.4953 0.3342 0 8
5.2311 -4.7071 -2.4953 0.3342 0 8
5.3065 -4.6220 -2.4953 0.3342 0 8
5.3805 -4.5356 -2.4953 0.3342 0 8
5.4531 -4.4481 -2.4953 0.3342 0 8
5.5242 -4.3594 -2.4953 0.3342 0 8
5.5940 -4.2695 -2.4953 0.3342 0 8
5.6622 -4.1786 -2.4953 0.3342 0 8
5.7290 -4.0865 -2.4953 0.3342 0 8
5.7943 -3.9934 -2.4953 0.3342 0 8
5.8581 -3.8992 -2.4953 0.3342 0 8
5.9204 -3.8040 -2.4953 0.3342 0 8
5.9811 -3.7079 -2.4953 0.3342 0 8
6.0402 -3.6107 -2.4953 0.3342 0 8
6.0978 -3.5126 -2.4953 0.3342 0 8
6.1537 -3.4136 -2.4953 0.3342 0 8
6.2081 -3.3137 -2.4953 0.3342 0 8
6.2608 -3.2129 -2.4953 0.3342 0 8
6.3120 -3.1113 -2.4953 0.3342 0 8
6.3614 -3.0089 -2.4953 0.3342 0 8
6.4092 -2.9057 -2.4953 0.3342 0 8
6.4553 -2.8018 -2.4953 0.3342 0 8
6.4998 -2.6971 -2.4953 0.3342 0 8
6.5425 -2.5917 -2.4953 0.3342 0 8
6.5835 -2.4856 -2.4953 0.3342 0 8
6.6229 -2.3789 -2.4953 0.3342 0 8
6.6604 -2.2715 -2.4953 0.3342 0 8
6.6963 -2.1636 -2.4953 0.3342 0 8
6.7304 -2.0551 -2.4953 0.3342 0 8
6.7627 -1.9461 -2.4953 0.3342 0 8
6.7933 -1.8365 -2.4953 0.3342 0 8
6.8221 -1.7265 -2.4953 0.3342 0 8
6.8491 -1.6160 -2.4953 0.3342 0 8
6.8743 -1.5051 -2.4953 0.3342 0 8
6.8977 -1.3938 -2.4953 0.3342 0 8
6.9193 -1.2822 -2.4953 0.3342 0 8
6.9392 -1.1702 -2.4953 0.3342 0 8
6.9572 -1.0579 -2.4953 0.3342 0 8
6.9734 -0.9453 -2.4953 0.3342 0 8
6.9877 -0.8325 -2.4953 0.3342 0 8
7.0003 -0.7194 -2.4953 0.3342 0 8
7.0110 -0.6062 -2.4953 0.3342 0 8
7.0199 -0.4928 -2.4953 0.3342 0 8
7.0269 -0.3793 -2.4953 0.3342 0 8
7.0321 -0.2657 -2.4953 0.3342 0 8
7.0355 -0.1520 -2.4953 0.3342 0 8
7.0370 -0.0383 -2.4953 0.3342 0 8
7.0367 0.0754 -2.4953 0.3342 0 8
7.0346 0.1892 -2.4953 0.3342 0 8
7.0306 0.3028 -2.4953 0.3342 0 8
7.0248 0.4164 -2.4953 0.3342 0 8
7.0172 0.5299 -2.4953 0.3342 0 8
7.0077 0.6432 -2.4953 0.3342 0 8
6.9964 0.7564 -2.4953 0.3342 0 8
6.9832 0.8694 -2.4953 0.3342 0 8
6.9683 0.9821 -2.4953 0.3342 0 8
6.9515 1.0946 -2.4953 0.3342 0 8
6.9329 1.2068 -2.4953 0.3342 0 8
6.9125 1.3187 -2.4953 0.3342 0 8
6.8903 1.4302 -2.4953 0.3342 0 8
6.8663 1.5414 -2.4953 0.3342 0 8
6.8404 1.6521 -2.4953 0.3342 0 8
6.8129 1.7625 -2.4953 0.3342 0 8
6.7835 1.8724 -2.4953 0.3342 0 8
6.7523 1.9817 -2.4953 0.3342 0 8
6.7194 2.0906 -2.4953 0.3342 0 8
6.6848 2.1989 -2.4953 0.3342 0 8
6.6483 2.3067 -2.4953 0.3342 0 8
6.6102 2.4138 -2.4953 0.3342 0 8
6.5703 2.5203 -2.4953 0.3342 0 8
6.5287 2.6262 -2.4953 0.3342 0 8
6.4854 2.7314 -2.4953 0.3342 0 8
6.4405 2.8358 -2.4953 0.3342 0 8
6.3938 2.9395 -2.4953 0.3342 0 8
3.0825 -6.1236 -2.4953 0.3420 0 8
3.1811 -6.0730 -2.4953 0.3420 0 8
3.2788 -6.0208 -2.4953 0.3420 0 8
3.3757 -5.9670 -2.4953 0.3420 0 8
3.4717 -5.9117 -2.4953 0.3420 0 8
3.5667 -5.8548 -2.4953 0.3420 0 8
3.6609 -5.7964 -2.4953 0.3420 0 8
3.7541 -5.7365 -2.4953 0.3420 0 8
3.8463 -5.6751 -2.4953 0.3420 0 8
3.9375 -5.6122 -2.4953 0.3420 0 8
4.0277 -5.5478 -2.4953 0.3420 0 8
4.1168 -5.4820 -2.4953 0.3420 0 8
4.2049 -5.4147 -2.4953 0.3420 0 8
4.2919 -5.3461 -2.4953 0.3420 0 8
4.3777 -5.2760 -2.4953 0.3420 0 8
4.4624 -5.2046 -2.4953 0.3420 0 8
4.5459 -5.1318 -2.4953 0.3420 0 8
4.6283 -5.0576 -2.4953 0.3420 0 8
4.7094 -4.9822 -2.4953 0.3420 0 8
4.7893 -4.9054 -2.4953 0.3420 0 8
4.8680 -4.8274 -2.4953 0.3420 0 8
4.9453 -4.7481 -2.4953 0.3420 0 8
5.0214 -4.6675 -2.4953 0.3420 0 8
5.0962 -4.5858 -2.4953 0.3420 0 8
5.1697 -4.5028 -2.4953 0.3420 0 8
5.2417 -4.4187 -2.4953 0.3420 0 8
5.3125 -4.3334 -2.4953 0.3420 0 8
5.3818 -4.2470 -2.4953 0.3420 0 8
5.4498 -4.1594 -2.4953 0.3420 0 8
5.5163 -4.0708 -2.4953 0.3420 0 8
5.5813 -3.9811 -2.4953 0.3420 0 8
5.6449 -3.8904 -2.4953 0.3420 0 8
5.7071 -3.7987 -2.4953 0.3420 0 8
5.7677 -3.7060 -2.4953 0.3420 0 8
5.8269 -3.6123 -2.4953 0.3420 0 8
5.8845 -3.5176 -2.4953 0.3420 0 8
5.9406 -3.4221 -2.4953 0.3420 0 8
5.9951 -3.3256 -2.4953 0.3420 0 8
6.0480 -3.2283 -2.4953 0.3420 0 8
6.0994 -3.1301 -2.4953 0.3420 0 8
6.1492 -3.0311 -2.4953 0.3420 0 8
6.1974 -2.9314 -2.4953 0.3420 0 8
6.2440 -2.8308 -2.4953 0.3420 0 8
6.2889 -2.7295 -2.4953 0.3420 0 8
6.3322 -2.6275 -2.4953 0.3420 0 8
6.3738 -2.5249 -2.4953 0.3420 0 8
6.4138 -2.4215 -2.4953 0.3420 0 8
6.4521 -2.3176 -2.4953 0.3420 0 8
6.4887 -2.2130 -2.4953 0.3420 0 8
6.5236 -2.1078 -2.4953 0.3420 0 8
6.5568 -2.0021 -2.4953 0.3420 0 8
6.5883 -1.8959 -2.4953 0.3420 0 8
6.6181 -1.7892 -2.4953 0.3420 0 8
6.6462 -1.6820 -2.4953 0.3420 0 8
6.6725 -1.5743 -2.4953 0.3420 0 8
6.6971 -1.4663 -2.4953 0.3420 0 8
6.7199 -1.3579 -2.4953 0.3420 0 8
6.7409 -1.2491 -2.4953 0.3420 0 8
6.7603 -1.1400 -2.4953 0.3420 0 8
6.7778 -1.0306 -2.4953 0.3420 0 8
6.7936 -0.9209 -2.4953 0.3420 0 8
6.8076 -0.8110 -2.4953 0.3420 0 8
6.8198 -0.7009 -2.4953 0.3420 0 8
6.8302 -0.5906 -2.4953 0.3420 0 8
6.8389 -0.4801 -2.4953 0.3420 0 8
6.8457 -0.3695 -2.4953 0.3420 0 8
6.8508 -0.2588 -2.4953 0.3420 0 8
6.8541 -0.1481 -2.4953 0.3420 0 8
6.8556 -0.0373 -2.4953 0.3420 0 8
6.8553 0.0735 -2.4953 0.3420 0 8
6.8532 0.1843 -2.4953 0.3420 0 8
6.8493 0.2950 -2.4953 0.3420 0 8
6.8437 0.4057 -2.4953 0.3420 0 8
6.8362 0.5162 -2.4953 0.3420 0 8
6.8270 0.6266 -2.4953 0.3420 0 8
6.8160 0.7369 -2.4953 0.3420 0 8
6.8032 0.8469 -2.4953 0.3420 0 8
6.7886 0.9568 -2.4953 0.3420 0 8
6.7723 1.0664 -2.4953 0.3420 0 8
6.7541 1.1757 -2.4953 0.3420 0 8
6.7343 1.2847 -2.4953 0.3420 0 8
6.7126 1.3933 -2.4953 0.3420 0 8
6.6892 1.5016 -2.4953 0.3420 0 8
6.6641 1.6095 -2.4953 0.3420 0 8
6.6372 1.7170 -2.4953 0.3420 0 8
6.6086 1.8241 -2.4953 0.3420 0 8
6.5782 1.9306 -2.4953 0.3420 0 8
6.5462 2.0367 -2.4953 0.3420 0 8
6.5124 2.1422 -2.4953 0.3420 0 8
6.4769 2.2472 -2.4953 0.3420 0 8
6.4398 2.3516 -2.4953 0.3420 0 8
6.4009 2.4553 -2.4953 0.3420 0 8
6.3604 2.5585 -2.4953 0.3420 0 8
6.3182 2.6609 -2.4953 0.3420 0 8
6.2744 2.7627 -2.4953 0.3420 0 8
6.2289 2.8637 -2.4953 0.3420 0 8
3.0046 -5.9688 -2.4953 0.3498 0 8
3.1006 -5.9195 -2.4953 0.3498 0 8
3.1959 -5.8686 -2.4953 0.3498 0 8
3.2903 -5.8162 -2.4953 0.3498 0 8
3.3839 -5.7622 -2.4953 0.3498 0 8
3.4766 -5.7068 -2.4953 0.3498 0 8
3.5683 -5.6499 -2.4953 0.3498 0 8
3.6592 -5.5915 -2.4953 0.3498 0 8
3.7491 -5.5316 -2.4953 0.3498 0 8
3.8380 -5.4703 -2.4953 0.3498 0 8
3.9259 -5.4075 -2.4953 0.3498 0 8
4.0128 -5.3434 -2.4953 0.3498 0 8
4.0986 -5.2778 -2.4953 0.3498 0 8
4.1834 -5.2109 -2.4953 0.3498 0 8
4.2670 -5.1426 -2.4953 0.3498 0 8
4.3496 -5.0730 -2.4953 0.3498 0 8
4.4310 -5.0020 -2.4953 0.3498 0 8
4.5113 -4.9298 -2.4953 0.3498 0 8
4.5903 -4.8562 -2.4953 0.3498 0 8
4.6682 -4.7814 -2.4953 0.3498 0 8
4.7449 -4.7053 -2.4953 0.3498 0 8
4.8203 -4.6280 -2.4953 0.3498 0 8
4.8945 -4.5495 -2.4953 0.3498 0 8
4.9674 -4.4698 -2.4953 0.3498 0 8
5.0389 -4.3890 -2.4953 0.3498 0 8
5.1092 -4.3070 -2.4953 0.3498 0 8
5.1782 -4.2238 -2.4953 0.3498 0 8
5.2457 -4.1396 -2.4953 0.3498 0 8
5.3120 -4.0543 -2.4953 0.3498 0 8
5.3768 -3.9679 -2.4953 0.3498 0 8
5.4402 -3.8805 -2.4953 0.3498 0 8
5.5022 -3.7921 -2.4953 0.3498 0 8
5.5628 -3.7026 -2.4953 0.3498 0 8
5.6219 -3.6123 -2.4953 0.3498 0 8
5.6795 -3.5209 -2.4953 0.3498 0 8
5.7357 -3.4287 -2.4953 0.3498 0 8
5.7904 -3.3355 -2.4953 0.3498 0 8
5.8435 -3.2415 -2.4953 0.3498 0 8
5.8951 -3.1467 -2.4953 0.3498 0 8
5.9452 -3.0510 -2.4953 0.3498 0 8
5.9937 -2.9545 -2.4953 0.3498 0 8
6.0407 -2.8572 -2.4953 0.3498 0 8
6.0861 -2.7592 -2.4953 0.3498 0 8
6.1299 -2.6605 -2.4953 0.3498 0 8
6.1721 -2.5611 -2.4953 0.3498 0 8
6.2127 -2.4610 -2.4953 0.3498 0 8
6.2516 -2.3603 -2.4953 0.3498 0 8
6.2890 -2.2590 -2.4953 0.3498 0 8
6.3247 -2.1570 -2.4953 0.3498 0 8
6.3587 -2.0545 -2.4953 0.3498 0 8
6.3911 -1.9515 -2.4953 0.3498 0 8
6.4218 -1.8480 -2.4953 0.3498 0 8
6.4508 -1.7439 -2.4953 0.3498 0 8
6.4781 -1.6395 -2.4953 0.3498 0 8
6.5038 -1.5345 -2.4953 0.3498 0 8
6.5277 -1.4292 -2.4953 0.3498 0 8
6.5500 -1.3236 -2.4953 0.3498 0 8
6.5705 -1.2175 -2.4953 0.3498 0 8
6.5893 -1.1112 -2.4953 0.3498 0 8
6.6064 -1.0045 -2.4953 0.3498 0 8
6.6218 -0.8976 -2.4953 0.3498 0 8
6.6354 -0.7905 -2.4953 0.3498 0 8
6.6474 -0.6832 -2.4953 0.3498 0 8
6.6575 -0.5756 -2.4953 0.3498 0 8
6.6660 -0.4680 -2.4953 0.3498 0 8
6.6727 -0.3602 -2.4953 0.3498 0 8
6.6776 -0.2523 -2.4953 0.3498 0 8
6.6808 -0.1444 -2.4953 0.3498 0 8
6.6823 -0.0364 -2.4953 0.3498 0 8
6.6820 0.0716 -2.4953 0.3498 0 8
6.6800 0.1796 -2.4953 0.3498 0 8
6.6762 0.2875 -2.4953 0.3498 0 8
6.6707 0.3954 -2.4953 0.3498 0 8
6.6634 0.5032 -2.4953 0.3498 0 8
6.6544 0.6108 -2.4953 0.3498 0 8
6.6437 0.7182 -2.4953 0.3498 0 8
