ply
format ascii 1.0
element vertex 1424
property float32 x
property float32 y
property float32 z
property float32 CosAngle
property uint32 ObjIdx
property uint32 ObjTag
end_header
7.7711 0.1983 -1.3707 0.3699 25 10
7.7961 0.3250 -1.3759 0.3431 25 10
7.8522 0.4545 -1.3869 0.3587 25 10
7.9468 0.5889 -1.4051 0.3679 25 10
8.1947 0.7406 -1.4508 0.3446 25 10
14.0715 1.5012 -2.4953 0.1736 0 8
14.0455 1.7283 -2.4953 0.1736 0 8
14.0157 1.9549 -2.4953 0.1736 0 8
13.9823 2.1811 -2.4953 0.1736 0 8
13.9452 2.4066 -2.4953 0.1736 0 8
13.9046 2.6316 -2.4953 0.1736 0 8
13.8602 2.8558 -2.4953 0.1736 0 8
13.8123 3.0793 -2.4953 0.1736 0 8
13.7608 3.3020 -2.4953 0.1736 0 8
13.7056 3.5239 -2.4953 0.1736 0 8
13.6469 3.7448 -2.4953 0.1736 0 8
13.5846 3.9648 -2.4953 0.1736 0 8
13.5188 4.1837 -2.4953 0.1736 0 8
13.4495 4.4015 -2.4953 0.1736 0 8
13.3766 4.6182 -2.4953 0.1736 0 8
13.3003 4.8336 -2.4953 0.1736 0 8
13.2205 5.0478 -2.4953 0.1736 0 8
13.1372 5.2607 -2.4953 0.1736 0 8
13.0505 5.4723 -2.4953 0.1736 0 8
12.9604 5.6823 -2.4953 0.1736 0 8
12.8670 5.8910 -2.4953 0.1736 0 8
12.7701 6.0980 -2.4953 0.1736 0 8
12.6699 6.3035 -2.4953 0.1736 0 8
12.5665 6.5073 -2.4953 0.1736 0 8
12.4597 6.7095 -2.4953 0.1736 0 8
12.3497 6.9099 -2.4953 0.1736 0 8
12.2365 7.1085 -2.4953 0.1736 0 8
12.1201 7.3052 -2.4953 0.1736 0 8
12.0005 7.5000 -2.4953 0.1736 0 8
11.8778 7.6929 -2.4953 0.1736 0 8
11.7520 7.8837 -2.4953 0.1736 0 8
11.6231 8.0725 -2.4953 0.1736 0 8
11.4912 8.2592 -2.4953 0.1736 0 8
11.3563 8.4437 -2.4953 0.1736 0 8
11.9036 9.1529 -2.6477 0.1736 0 7
11.7542 9.3440 -2.6477 0.1736 0 7
11.6017 9.5327 -2.6477 0.1736 0 7
11.4462 9.7188 -2.6477 0.1736 0 7
11.2877 9.9024 -2.6477 0.1736 0 7
11.1263 10.0835 -2.6477 0.1736 0 7
10.9620 10.2619 -2.6477 0.1736 0 7
10.7948 10.4376 -2.6477 0.1736 0 7
10.6248 10.6106 -2.6477 0.1736 0 7
10.4520 10.7809 -2.6477 0.1736 0 7
10.2765 10.9483 -2.6477 0.1736 0 7
10.0983 11.1128 -2.6477 0.1736 0 7
9.9175 11.2745 -2.6477 0.1736 0 7
9.7341 11.4332 -2.6477 0.1736 0 6
9.5481 11.5890 -2.6477 0.1736 0 7
9.3597 11.7417 -2.6477 0.1736 0 7
9.1688 11.8914 -2.6477 0.1736 0 7
8.9755 12.0379 -2.6477 0.1736 0 7
8.7799 12.1813 -2.6477 0.1736 0 7
8.5820 12.3215 -2.6477 0.1736 0 7
8.3818 12.4585 -2.6477 0.1736 0 7
8.1795 12.5923 -2.6477 0.1736 0 7
7.9750 12.7228 -2.6477 0.1736 0 7
7.7685 12.8500 -2.6477 0.1736 0 7
7.5599 12.9738 -2.6477 0.1736 0 7
7.3494 13.0942 -2.6477 0.1736 0 7
7.1369 13.2112 -2.6477 0.1736 0 7
6.9226 13.3248 -2.6477 0.1736 0 7
6.7064 13.4348 -2.6477 0.1736 0 7
6.4885 13.5414 -2.6477 0.1736 0 7
6.2689 13.6445 -2.6477 0.1736 0 7
7.9683 -0.6995 -1.4791 0.3660 25 10
7.7789 -0.5564 -1.4421 0.3754 25 10
7.7082 -0.4264 -1.4275 0.9161 25 10
7.6668 -0.3000 -1.4187 0.9670 25 10
7.6532 -0.1757 -1.4155 0.9870 25 10
7.6400 -0.0519 -1.4127 0.9890 25 10
7.6421 0.0715 -1.4132 0.9887 25 10
7.6553 0.1953 -1.4160 0.9867 25 10
7.6725 0.3199 -1.4200 0.9210 25 10
7.7150 0.4466 -1.4290 0.9151 25 10
7.8084 0.5787 -1.4478 0.3739 25 10
8.0106 0.7239 -1.4873 0.2704 25 10
13.4184 1.4315 -2.4953 0.1818 0 8
13.3936 1.6481 -2.4953 0.1818 0 8
13.3652 1.8642 -2.4953 0.1818 0 8
13.3333 2.0798 -2.4953 0.1818 0 8
13.2980 2.2949 -2.4953 0.1818 0 8
13.2592 2.5094 -2.4953 0.1818 0 8
13.2169 2.7233 -2.4953 0.1818 0 8
13.1712 2.9364 -2.4953 0.1818 0 8
13.1221 3.1488 -2.4953 0.1818 0 8
13.0695 3.3603 -2.4953 0.1818 0 8
13.0135 3.5710 -2.4953 0.1818 0 8
12.9541 3.7808 -2.4953 0.1818 0 8
12.8914 3.9895 -2.4953 0.1818 0 8
12.8252 4.1972 -2.4953 0.1818 0 8
12.7558 4.4038 -2.4953 0.1818 0 8
12.6830 4.6093 -2.4953 0.1818 0 8
12.6069 4.8136 -2.4953 0.1818 0 8
12.5275 5.0166 -2.4953 0.1818 0 8
12.4448 5.2183 -2.4953 0.1818 0 8
12.3589 5.4186 -2.4953 0.1818 0 8
12.2698 5.6175 -2.4953 0.1818 0 8
12.1774 5.8150 -2.4953 0.1818 0 8
12.0819 6.0109 -2.4953 0.1818 0 8
11.9832 6.2053 -2.4953 0.1818 0 8
11.8814 6.3981 -2.4953 0.1818 0 8
11.7765 6.5892 -2.4953 0.1818 0 8
11.6686 6.7785 -2.4953 0.1818 0 8
11.5575 6.9661 -2.4953 0.1818 0 8
11.4435 7.1519 -2.4953 0.1818 0 8
11.3265 7.3358 -2.4953 0.1818 0 8
11.2065 7.5178 -2.4953 0.1818 0 8
11.0836 7.6978 -2.4953 0.1818 0 8
10.9578 7.8759 -2.4953 0.1818 0 8
10.8292 8.0518 -2.4953 0.1818 0 8
10.6977 8.2257 -2.4953 0.1818 0 8
10.5635 8.3974 -2.4953 0.1818 0 8
11.0632 9.0902 -2.6477 0.1818 0 7
10.9150 9.2677 -2.6477 0.1818 0 7
10.7638 9.4428 -2.6477 0.1818 0 7
10.6099 9.6155 -2.6477 0.1818 0 7
10.4532 9.7856 -2.6477 0.1818 0 7
10.2938 9.9532 -2.6477 0.1818 0 7
10.1316 10.1181 -2.6477 0.1818 0 7
9.9669 10.2805 -2.6477 0.1818 0 7
9.7995 10.4401 -2.6477 0.1818 0 7
9.6296 10.5971 -2.6477 0.1818 0 7
9.4572 10.7512 -2.6477 0.1818 0 7
9.2823 10.9026 -2.6477 0.1818 0 7
9.1050 11.0511 -2.6477 0.1818 0 7
8.9253 11.1967 -2.6477 0.1818 0 7
8.7432 11.3394 -2.6477 0.1818 0 7
8.5590 11.4792 -2.6477 0.1818 0 6
8.3724 11.6159 -2.6477 0.1818 0 7
8.1837 11.7497 -2.6477 0.1818 0 7
7.9928 11.8803 -2.6477 0.1818 0 7
7.7999 12.0079 -2.6477 0.1818 0 7
7.6049 12.1323 -2.6477 0.1818 0 7
7.4079 12.2536 -2.6477 0.1818 0 7
7.2090 12.3716 -2.6477 0.1818 0 7
7.0082 12.4865 -2.6477 0.1818 0 7
6.8056 12.5980 -2.6477 0.1818 0 7
6.6013 12.7063 -2.6477 0.1818 0 7
6.3952 12.8113 -2.6477 0.1818 0 7
6.1874 12.9129 -2.6477 0.1818 0 7
5.9780 13.0112 -2.6477 0.1818 0 7
7.8427 -0.6885 -1.5235 0.7009 25 10
7.7371 -0.5534 -1.5011 0.7114 25 10
7.6857 -0.4251 -1.4896 0.9173 25 10
7.6487 -0.2992 -1.4813 0.9678 25 10
7.6355 -0.1753 -1.4780 0.9878 25 10
7.6230 -0.0518 -1.4752 0.9969 25 10
7.6244 0.0713 -1.4755 0.9894 25 10
7.6375 0.1949 -1.4785 0.9874 25 10
7.6526 0.3190 -1.4822 0.9672 25 10
7.6924 0.4453 -1.4911 0.9164 25 10
7.7536 0.5746 -1.5046 0.7097 25 10
7.8597 0.7103 -1.5272 0.6992 25 10
12.8215 1.3678 -2.4953 0.1900 0 8
12.7977 1.5747 -2.4953 0.1900 0 8
12.7706 1.7813 -2.4953 0.1900 0 8
12.7402 1.9873 -2.4953 0.1900 0 8
12.7064 2.1928 -2.4953 0.1900 0 8
12.6694 2.3978 -2.4953 0.1900 0 8
12.6290 2.6021 -2.4953 0.1900 0 8
12.5853 2.8058 -2.4953 0.1900 0 8
12.5383 3.0087 -2.4953 0.1900 0 8
12.4881 3.2109 -2.4953 0.1900 0 8
12.4346 3.4122 -2.4953 0.1900 0 8
12.3779 3.6126 -2.4953 0.1900 0 8
12.3179 3.8120 -2.4953 0.1900 0 8
12.2547 4.0105 -2.4953 0.1900 0 8
12.1883 4.2079 -2.4953 0.1900 0 8
12.1188 4.4042 -2.4953 0.1900 0 8
12.0460 4.5994 -2.4953 0.1900 0 8
11.9702 4.7934 -2.4953 0.1900 0 8
11.8912 4.9861 -2.4953 0.1900 0 8
11.8091 5.1776 -2.4953 0.1900 0 8
11.7239 5.3676 -2.4953 0.1900 0 8
11.6357 5.5563 -2.4953 0.1900 0 8
11.5444 5.7435 -2.4953 0.1900 0 8
11.4501 5.9293 -2.4953 0.1900 0 8
11.3529 6.1134 -2.4953 0.1900 0 8
11.2526 6.2960 -2.4953 0.1900 0 8
11.1495 6.4770 -2.4953 0.1900 0 8
11.0434 6.6562 -2.4953 0.1900 0 8
10.9344 6.8337 -2.4953 0.1900 0 8
10.8226 7.0095 -2.4953 0.1900 0 8
10.7080 7.1834 -2.4953 0.1900 0 8
10.5906 7.3554 -2.4953 0.1900 0 8
10.4704 7.5255 -2.4953 0.1900 0 8
10.3474 7.6937 -2.4953 0.1900 0 8
10.2218 7.8598 -2.4953 0.1900 0 8
10.0935 8.0239 -2.4953 0.1900 0 8
9.9626 8.1859 -2.4953 0.1900 0 8
9.8290 8.3457 -2.4953 0.1900 0 8
10.2850 9.0228 -2.6477 0.1900 0 7
10.1379 9.1877 -2.6477 0.1900 0 7
9.9882 9.3503 -2.6477 0.1900 0 7
9.8358 9.5104 -2.6477 0.1900 0 7
9.6809 9.6680 -2.6477 0.1900 0 7
9.5235 9.8231 -2.6477 0.1900 0 7
9.3636 9.9757 -2.6477 0.1900 0 7
9.2012 10.1256 -2.6477 0.1900 0 7
9.0365 10.2729 -2.6477 0.1900 0 7
8.8694 10.4176 -2.6477 0.1900 0 7
8.6999 10.5595 -2.6477 0.1900 0 7
8.5282 10.6986 -2.6477 0.1900 0 7
8.3543 10.8350 -2.6477 0.1900 0 7
8.1782 10.9685 -2.6477 0.1900 0 7
7.9999 11.0992 -2.6477 0.1900 0 7
7.8196 11.2270 -2.6477 0.1900 0 7
7.6373 11.3518 -2.6477 0.1900 0 7
7.4529 11.4737 -2.6477 0.1900 0 6
7.2666 11.5926 -2.6477 0.1900 0 7
7.0784 11.7084 -2.6477 0.1900 0 7
6.8883 11.8213 -2.6477 0.1900 0 7
6.6965 11.9310 -2.6477 0.1900 0 7
6.5029 12.0376 -2.6477 0.1900 0 7
6.3076 12.1411 -2.6477 0.1900 0 7
6.1107 12.2414 -2.6477 0.1900 0 7
5.9121 12.3385 -2.6477 0.1900 0 7
5.7121 12.4324 -2.6477 0.1900 0 7
7.8064 -0.6853 -1.5842 0.7030 25 10
7.7117 -0.5516 -1.5629 0.8751 25 10
7.6631 -0.4239 -1.5515 0.9185 25 10
7.6308 -0.2985 -1.5438 0.9863 25 10
7.6177 -0.1749 -1.5404 0.9885 25 10
7.6079 -0.0517 -1.5380 0.9972 25 10
7.6090 0.0712 -1.5383 0.9971 25 10
7.6198 0.1944 -1.5409 0.9881 25 10
7.6345 0.3183 -1.5447 0.9679 25 10
7.6698 0.4440 -1.5531 0.9176 25 10
7.7207 0.5722 -1.5650 0.8739 25 10
7.8233 0.7070 -1.5880 0.7013 25 10
8.5052 0.9073 -1.7291 0.0217 25 10
12.2510 1.5075 -2.4953 0.1981 0 8
12.2250 1.7052 -2.4953 0.1981 0 8
12.1959 1.9024 -2.4953 0.1981 0 8
12.1636 2.0992 -2.4953 0.1981 0 8
12.1281 2.2954 -2.4953 0.1981 0 8
12.0894 2.4910 -2.4953 0.1981 0 8
12.0476 2.6859 -2.4953 0.1981 0 8
12.0027 2.8802 -2.4953 0.1981 0 8
11.9546 3.0737 -2.4953 0.1981 0 8
11.9034 3.2664 -2.4953 0.1981 0 8
11.8490 3.4582 -2.4953 0.1981 0 8
11.7916 3.6492 -2.4953 0.1981 0 8
11.7312 3.8392 -2.4953 0.1981 0 8
11.6676 4.0282 -2.4953 0.1981 0 8
11.6010 4.2161 -2.4953 0.1981 0 8
11.5314 4.4029 -2.4953 0.1981 0 8
11.4588 4.5886 -2.4953 0.1981 0 8
11.3832 4.7731 -2.4953 0.1981 0 8
11.3046 4.9564 -2.4953 0.1981 0 8
11.2231 5.1383 -2.4953 0.1981 0 8
11.1386 5.3189 -2.4953 0.1981 0 8
11.0512 5.4982 -2.4953 0.1981 0 8
10.9610 5.6760 -2.4953 0.1981 0 8
10.8679 5.8523 -2.4953 0.1981 0 8
10.7719 6.0271 -2.4953 0.1981 0 8
10.6731 6.2003 -2.4953 0.1981 0 8
10.5716 6.3719 -2.4953 0.1981 0 8
10.4673 6.5418 -2.4953 0.1981 0 8
10.3603 6.7100 -2.4953 0.1981 0 8
10.2505 6.8765 -2.4953 0.1981 0 8
10.1381 7.0412 -2.4953 0.1981 0 8
10.0231 7.2040 -2.4953 0.1981 0 8
9.9054 7.3650 -2.4953 0.1981 0 8
9.7851 7.5240 -2.4953 0.1981 0 8
9.6623 7.6811 -2.4953 0.1981 0 8
9.5370 7.8362 -2.4953 0.1981 0 8
9.4092 7.9892 -2.4953 0.1981 0 8
9.2789 8.1401 -2.4953 0.1981 0 8
9.1462 8.2890 -2.4953 0.1981 0 8
9.0111 8.4356 -2.4953 0.1981 0 8
9.4156 9.1041 -2.6477 0.1981 0 7
9.2673 9.2550 -2.6477 0.1981 0 7
9.1166 9.4035 -2.6477 0.1981 0 7
8.9636 9.5495 -2.6477 0.1981 0 7
8.8081 9.6931 -2.6477 0.1981 0 7
8.6504 9.8341 -2.6477 0.1981 0 7
8.4904 9.9725 -2.6477 0.1981 0 7
8.3282 10.1084 -2.6477 0.1981 0 7
8.1639 10.2416 -2.6477 0.1981 0 7
7.9974 10.3721 -2.6477 0.1981 0 7
7.8288 10.4999 -2.6477 0.1981 0 7
7.6582 10.6250 -2.6477 0.1981 0 7
7.4856 10.7473 -2.6477 0.1981 0 7
7.3110 10.8668 -2.6477 0.1981 0 7
7.1345 10.9835 -2.6477 0.1981 0 7
6.9561 11.0973 -2.6477 0.1981 0 7
6.7760 11.2082 -2.6477 0.1981 0 7
6.5941 11.3162 -2.6477 0.1981 0 7
6.4104 11.4213 -2.6477 0.1981 0 6
6.2251 11.5233 -2.6477 0.1981 0 7
6.0381 11.6224 -2.6477 0.1981 0 7
5.8496 11.7184 -2.6477 0.1981 0 7
5.6596 11.8113 -2.6477 0.1981 0 7
5.4680 11.9012 -2.6477 0.1981 0 7
7.7704 -0.6822 -1.6445 0.7050 25 10
7.6894 -0.5500 -1.6252 0.8761 25 10
7.6407 -0.4226 -1.6133 0.9196 25 10
7.6130 -0.2978 -1.6062 0.9869 25 10
7.6000 -0.1744 -1.6026 0.9891 25 10
7.5928 -0.0516 -1.6008 0.9975 25 10
7.5939 0.0711 -1.6010 0.9973 25 10
7.6021 0.1940 -1.6032 0.9887 25 10
7.6165 0.3175 -1.6071 0.9685 25 10
7.6473 0.4426 -1.6149 0.9187 25 10
7.6982 0.5705 -1.6274 0.8750 25 10
7.7871 0.7037 -1.6484 0.7033 25 10
8.2552 0.8807 -1.7502 0.1867 25 10
11.7474 1.4455 -2.4953 0.2063 0 8
11.7226 1.6351 -2.4953 0.2063 0 8
11.6946 1.8242 -2.4953 0.2063 0 8
11.6636 2.0129 -2.4953 0.2063 0 8
11.6296 2.2010 -2.4953 0.2063 0 8
11.5925 2.3886 -2.4953 0.2063 0 8
11.5524 2.5755 -2.4953 0.2063 0 8
11.5093 2.7618 -2.4953 0.2063 0 8
11.4632 2.9473 -2.4953 0.2063 0 8
11.4141 3.1321 -2.4953 0.2063 0 8
11.3620 3.3161 -2.4953 0.2063 0 8
11.3070 3.4992 -2.4953 0.2063 0 8
11.2490 3.6814 -2.4953 0.2063 0 8
11.1880 3.8626 -2.4953 0.2063 0 8
11.1242 4.0428 -2.4953 0.2063 0 8
11.0574 4.2220 -2.4953 0.2063 0 8
10.9878 4.4000 -2.4953 0.2063 0 8
10.9153 4.5769 -2.4953 0.2063 0 8
10.8399 4.7526 -2.4953 0.2063 0 8
10.7618 4.9271 -2.4953 0.2063 0 8
10.6808 5.1003 -2.4953 0.2063 0 8
10.5970 5.2722 -2.4953 0.2063 0 8
10.5104 5.4427 -2.4953 0.2063 0 8
10.4212 5.6117 -2.4953 0.2063 0 8
10.3291 5.7793 -2.4953 0.2063 0 8
10.2344 5.9454 -2.4953 0.2063 0 8
10.1371 6.1100 -2.4953 0.2063 0 8
10.0371 6.2729 -2.4953 0.2063 0 8
9.9344 6.4342 -2.4953 0.2063 0 8
9.8292 6.5938 -2.4953 0.2063 0 8
9.7214 6.7518 -2.4953 0.2063 0 8
9.6111 6.9079 -2.4953 0.2063 0 8
9.4982 7.0622 -2.4953 0.2063 0 8
9.3829 7.2147 -2.4953 0.2063 0 8
9.2652 7.3654 -2.4953 0.2063 0 8
9.1450 7.5141 -2.4953 0.2063 0 8
9.0224 7.6608 -2.4953 0.2063 0 8
8.8975 7.8055 -2.4953 0.2063 0 8
8.7702 7.9482 -2.4953 0.2063 0 8
8.6407 8.0889 -2.4953 0.2063 0 8
8.5089 8.2274 -2.4953 0.2063 0 8
8.3749 8.3638 -2.4953 0.2063 0 8
8.7419 9.0170 -2.6477 0.2063 0 7
8.5951 9.1570 -2.6477 0.2063 0 7
8.4461 9.2946 -2.6477 0.2063 0 7
8.2949 9.4299 -2.6477 0.2063 0 7
8.1415 9.5626 -2.6477 0.2063 0 7
7.9859 9.6929 -2.6477 0.2063 0 7
7.8283 9.8206 -2.6477 0.2063 0 7
7.6687 9.9458 -2.6477 0.2063 0 7
7.5070 10.0684 -2.6477 0.2063 0 7
7.3434 10.1883 -2.6477 0.2063 0 7
7.1779 10.3056 -2.6477 0.2063 0 7
7.0105 10.4202 -2.6477 0.2063 0 7
6.8412 10.5321 -2.6477 0.2063 0 7
6.6702 10.6412 -2.6477 0.2063 0 7
6.4975 10.7475 -2.6477 0.2063 0 7
6.3230 10.8511 -2.6477 0.2063 0 7
6.1469 10.9518 -2.6477 0.2063 0 7
5.9692 11.0497 -2.6477 0.2063 0 7
5.7899 11.1447 -2.6477 0.2063 0 7
5.6092 11.2367 -2.6477 0.2063 0 7
5.4269 11.3259 -2.6477 0.2063 0 7
5.2432 11.4120 -2.6477 0.2063 0 6
7.7346 -0.6790 -1.7044 0.7070 25 10
7.6670 -0.5484 -1.6873 0.8771 25 10
7.6189 -0.4214 -1.6750 0.9659 25 10
7.5952 -0.2972 -1.6685 0.9874 25 10
7.5846 -0.1741 -1.6654 0.9965 25 10
7.5777 -0.0515 -1.6635 0.9977 25 10
7.5788 0.0709 -1.6637 0.9975 25 10
7.5857 0.1936 -1.6657 0.9963 25 10
7.5984 0.3168 -1.6694 0.9691 25 10
7.6249 0.4413 -1.6766 0.9198 25 10
7.6759 0.5688 -1.6896 0.8760 25 10
7.7511 0.7005 -1.7084 0.7054 25 10
8.2103 0.8759 -1.8125 0.1874 25 10
11.2821 1.3882 -2.4953 0.2144 0 8
11.2582 1.5703 -2.4953 0.2144 0 8
11.2313 1.7519 -2.4953 0.2144 0 8
11.2016 1.9331 -2.4953 0.2144 0 8
11.1689 2.1138 -2.4953 0.2144 0 8
11.1333 2.2940 -2.4953 0.2144 0 8
11.0948 2.4735 -2.4953 0.2144 0 8
11.0534 2.6524 -2.4953 0.2144 0 8
11.0091 2.8306 -2.4953 0.2144 0 8
10.9619 3.0080 -2.4953 0.2144 0 8
10.9119 3.1847 -2.4953 0.2144 0 8
10.8591 3.3606 -2.4953 0.2144 0 8
10.8034 3.5355 -2.4953 0.2144 0 8
10.7448 3.7096 -2.4953 0.2144 0 8
10.6835 3.8826 -2.4953 0.2144 0 8
10.6194 4.0547 -2.4953 0.2144 0 8
10.5525 4.2257 -2.4953 0.2144 0 8
10.4829 4.3956 -2.4953 0.2144 0 8
10.4105 4.5644 -2.4953 0.2144 0 8
10.3354 4.7319 -2.4953 0.2144 0 8
10.2577 4.8983 -2.4953 0.2144 0 8
10.1772 5.0633 -2.4953 0.2144 0 8
10.0941 5.2270 -2.4953 0.2144 0 8
10.0083 5.3894 -2.4953 0.2144 0 8
9.9200 5.5504 -2.4953 0.2144 0 8
9.8290 5.7099 -2.4953 0.2144 0 8
9.7355 5.8679 -2.4953 0.2144 0 8
9.6394 6.0244 -2.4953 0.2144 0 8
9.5409 6.1793 -2.4953 0.2144 0 8
9.4398 6.3326 -2.4953 0.2144 0 8
9.3363 6.4843 -2.4953 0.2144 0 8
9.2303 6.6342 -2.4953 0.2144 0 8
9.1220 6.7825 -2.4953 0.2144 0 8
9.0112 6.9289 -2.4953 0.2144 0 8
8.8981 7.0736 -2.4953 0.2144 0 8
8.7827 7.2164 -2.4953 0.2144 0 8
8.6650 7.3573 -2.4953 0.2144 0 8
8.5450 7.4963 -2.4953 0.2144 0 8
8.4228 7.6334 -2.4953 0.2144 0 8
8.2984 7.7684 -2.4953 0.2144 0 8
8.1719 7.9015 -2.4953 0.2144 0 8
8.0432 8.0324 -2.4953 0.2144 0 8
7.9124 8.1613 -2.4953 0.2144 0 8
7.7795 8.2880 -2.4953 0.2144 0 8
7.6446 8.4126 -2.4953 0.2144 0 8
7.9663 9.0563 -2.6477 0.2144 0 7
7.8189 9.1838 -2.6477 0.2144 0 7
7.6696 9.3089 -2.6477 0.2144 0 7
7.5182 9.4316 -2.6477 0.2144 0 7
7.3649 9.5518 -2.6477 0.2144 0 7
7.2096 9.6695 -2.6477 0.2144 0 7
7.0525 9.7847 -2.6477 0.2144 0 7
6.8935 9.8973 -2.6477 0.2144 0 7
6.7328 10.0074 -2.6477 0.2144 0 7
6.5702 10.1148 -2.6477 0.2144 0 7
6.4060 10.2196 -2.6477 0.2144 0 7
6.2401 10.3218 -2.6477 0.2144 0 7
6.0725 10.4212 -2.6477 0.2144 0 7
5.9034 10.5180 -2.6477 0.2144 0 7
5.7327 10.6120 -2.6477 0.2144 0 7
5.5606 10.7032 -2.6477 0.2144 0 7
5.3870 10.7916 -2.6477 0.2144 0 7
5.2119 10.8772 -2.6477 0.2144 0 7
5.0356 10.9600 -2.6477 0.2144 0 7
7.7003 -0.6760 -1.7643 0.8706 25 10
7.6448 -0.5468 -1.7493 0.8780 25 10
7.6008 -0.4204 -1.7375 0.9664 25 10
7.5775 -0.2965 -1.7308 0.9879 25 10
7.5695 -0.1737 -1.7281 0.9967 25 10
7.5626 -0.0514 -1.7262 0.9978 25 10
7.5637 0.0708 -1.7264 0.9977 25 10
7.5705 0.1932 -1.7285 0.9965 25 10
7.5804 0.3160 -1.7317 0.9696 25 10
7.6047 0.4402 -1.7386 0.9657 25 10
7.6535 0.5672 -1.7517 0.8769 25 10
7.7153 0.6972 -1.7681 0.7073 25 10
8.1670 0.8713 -1.8746 0.1863 25 10
10.8507 1.3352 -2.4953 0.2225 0 8
10.8277 1.5103 -2.4953 0.2225 0 8
10.8019 1.6850 -2.4953 0.2225 0 8
10.7732 1.8592 -2.4953 0.2225 0 8
10.7418 2.0330 -2.4953 0.2225 0 8
10.7076 2.2062 -2.4953 0.2225 0 8
10.6705 2.3789 -2.4953 0.2225 0 8
10.6307 2.5510 -2.4953 0.2225 0 8
10.5881 2.7223 -2.4953 0.2225 0 8
10.5428 2.8930 -2.4953 0.2225 0 8
10.4947 3.0629 -2.4953 0.2225 0 8
10.4438 3.2321 -2.4953 0.2225 0 8
10.3903 3.4003 -2.4953 0.2225 0 8
10.3340 3.5677 -2.4953 0.2225 0 8
10.2750 3.7342 -2.4953 0.2225 0 8
10.2133 3.8997 -2.4953 0.2225 0 8
10.1490 4.0641 -2.4953 0.2225 0 8
10.0820 4.2275 -2.4953 0.2225 0 8
10.0124 4.3898 -2.4953 0.2225 0 8
9.9402 4.5510 -2.4953 0.2225 0 8
9.8654 4.7110 -2.4953 0.2225 0 8
9.7880 4.8697 -2.4953 0.2225 0 8
9.7081 5.0272 -2.4953 0.2225 0 8
9.6256 5.1833 -2.4953 0.2225 0 8
9.5406 5.3381 -2.4953 0.2225 0 8
9.4532 5.4916 -2.4953 0.2225 0 8
9.3632 5.6435 -2.4953 0.2225 0 8
9.2708 5.7940 -2.4953 0.2225 0 8
9.1760 5.9430 -2.4953 0.2225 0 8
9.0789 6.0905 -2.4953 0.2225 0 8
8.9793 6.2363 -2.4953 0.2225 0 8
8.8774 6.3806 -2.4953 0.2225 0 8
8.7732 6.5231 -2.4953 0.2225 0 8
8.6667 6.6640 -2.4953 0.2225 0 8
8.5579 6.8031 -2.4953 0.2225 0 8
8.4469 6.9405 -2.4953 0.2225 0 8
8.3337 7.0760 -2.4953 0.2225 0 8
8.2183 7.2097 -2.4953 0.2225 0 8
8.1007 7.3415 -2.4953 0.2225 0 8
7.9811 7.4714 -2.4953 0.2225 0 8
7.8594 7.5993 -2.4953 0.2225 0 8
7.7356 7.7253 -2.4953 0.2225 0 8
7.6098 7.8492 -2.4953 0.2225 0 8
7.4820 7.9711 -2.4953 0.2225 0 8
7.3523 8.0909 -2.4953 0.2225 0 8
7.2206 8.2087 -2.4953 0.2225 0 8
7.0871 8.3242 -2.4953 0.2225 0 8
6.9517 8.4376 -2.4953 0.2225 0 8
7.2307 9.0709 -2.6477 0.2225 0 7
7.0833 9.1865 -2.6477 0.2225 0 7
6.9339 9.2997 -2.6477 0.2225 0 7
6.7828 9.4105 -2.6477 0.2225 0 7
6.6299 9.5189 -2.6477 0.2225 0 7
6.4753 9.6247 -2.6477 0.2225 0 7
6.3190 9.7281 -2.6477 0.2225 0 7
6.1610 9.8289 -2.6477 0.2225 0 7
6.0015 9.9271 -2.6477 0.2225 0 7
5.8403 10.0227 -2.6477 0.2225 0 7
5.6777 10.1158 -2.6477 0.2225 0 7
5.5135 10.2062 -2.6477 0.2225 0 7
5.3480 10.2939 -2.6477 0.2225 0 7
5.1810 10.3789 -2.6477 0.2225 0 7
5.0126 10.4613 -2.6477 0.2225 0 7
4.8430 10.5409 -2.6477 0.2225 0 7
7.6908 -0.6752 -1.8298 0.7656 25 10
7.6333 -0.5460 -1.8137 0.8561 25 10
7.5900 -0.4198 -1.8016 0.9370 25 10
7.5658 -0.2960 -1.7945 0.9660 25 10
7.5585 -0.1735 -1.7919 0.9675 25 10
7.5512 -0.0513 -1.7897 0.9686 25 10
7.5524 0.0707 -1.7900 0.9685 25 10
7.5597 0.1929 -1.7923 0.9672 25 10
7.5683 0.3155 -1.7953 0.9403 25 10
7.5941 0.4396 -1.8029 0.9363 25 10
7.6421 0.5663 -1.8162 0.8549 25 10
7.7084 0.6966 -1.8344 0.2843 25 10
8.1268 0.8670 -1.9370 0.1868 25 10
10.4496 1.2858 -2.4953 0.2306 0 8
10.4274 1.4544 -2.4953 0.2306 0 8
10.4026 1.6227 -2.4953 0.2306 0 8
10.3750 1.7905 -2.4953 0.2306 0 8
10.3447 1.9578 -2.4953 0.2306 0 8
10.3118 2.1247 -2.4953 0.2306 0 8
10.2761 2.2910 -2.4953 0.2306 0 8
10.2378 2.4567 -2.4953 0.2306 0 8
10.1967 2.6217 -2.4953 0.2306 0 8
10.1531 2.7861 -2.4953 0.2306 0 8
10.1067 2.9497 -2.4953 0.2306 0 8
10.0578 3.1126 -2.4953 0.2306 0 8
10.0062 3.2746 -2.4953 0.2306 0 8
9.9520 3.4358 -2.4953 0.2306 0 8
9.8952 3.5961 -2.4953 0.2306 0 8
9.8358 3.7555 -2.4953 0.2306 0 8
9.7739 3.9139 -2.4953 0.2306 0 8
9.7094 4.0713 -2.4953 0.2306 0 8
9.6423 4.2276 -2.4953 0.2306 0 8
9.5728 4.3828 -2.4953 0.2306 0 8
9.5007 4.5368 -2.4953 0.2306 0 8
9.4262 4.6897 -2.4953 0.2306 0 8
9.3492 4.8413 -2.4953 0.2306 0 8
9.2698 4.9917 -2.4953 0.2306 0 8
9.1880 5.1408 -2.4953 0.2306 0 8
9.1037 5.2886 -2.4953 0.2306 0 8
9.0171 5.4349 -2.4953 0.2306 0 8
8.9282 5.5799 -2.4953 0.2306 0 8
8.8369 5.7234 -2.4953 0.2306 0 8
8.7433 5.8653 -2.4953 0.2306 0 8
8.6474 6.0058 -2.4953 0.2306 0 8
8.5492 6.1447 -2.4953 0.2306 0 8
8.4489 6.2820 -2.4953 0.2306 0 8
8.3463 6.4177 -2.4953 0.2306 0 8
8.2415 6.5516 -2.4953 0.2306 0 8
8.1346 6.6839 -2.4953 0.2306 0 8
8.0256 6.8144 -2.4953 0.2306 0 8
7.9145 6.9432 -2.4953 0.2306 0 8
7.8013 7.0701 -2.4953 0.2306 0 8
7.6861 7.1952 -2.4953 0.2306 0 8
7.5689 7.3184 -2.4953 0.2306 0 8
7.4497 7.4397 -2.4953 0.2306 0 8
7.3285 7.5591 -2.4953 0.2306 0 8
7.2054 7.6765 -2.4953 0.2306 0 8
7.0805 7.7919 -2.4953 0.2306 0 8
6.9537 7.9052 -2.4953 0.2306 0 8
6.8251 8.0165 -2.4953 0.2306 0 8
6.6947 8.1257 -2.4953 0.2306 0 8
6.5626 8.2328 -2.4953 0.2306 0 8
6.4288 8.3377 -2.4953 0.2306 0 8
6.2933 8.4405 -2.4953 0.2306 0 8
6.5321 9.0627 -2.6477 0.2306 0 7
6.3849 9.1670 -2.6477 0.2306 0 7
6.2359 9.2689 -2.6477 0.2306 0 7
6.0854 9.3685 -2.6477 0.2306 0 7
5.9333 9.4655 -2.6477 0.2306 0 7
5.7796 9.5601 -2.6477 0.2306 0 7
5.6244 9.6523 -2.6477 0.2306 0 7
5.4678 9.7418 -2.6477 0.2306 0 7
5.3097 9.8289 -2.6477 0.2306 0 7
5.1503 9.9134 -2.6477 0.2306 0 7
4.9895 9.9953 -2.6477 0.2306 0 7
4.8274 10.0746 -2.6477 0.2306 0 7
4.6640 10.1512 -2.6477 0.2306 0 7
7.7041 -0.6763 -1.9009 0.7628 25 10
7.6359 -0.5462 -1.8817 0.8540 25 10
7.5920 -0.4199 -1.8690 0.9184 25 10
7.5665 -0.2960 -1.8613 0.9640 25 10
7.5591 -0.1735 -1.8585 0.9654 25 10
7.5586 -0.0514 -1.8579 0.9270 25 10
7.5580 0.0707 -1.8578 0.9270 25 10
7.5603 0.1929 -1.8589 0.9652 25 10
7.5693 0.3156 -1.8621 0.9383 25 10
7.5969 0.4397 -1.8704 0.9177 25 10
7.6447 0.5665 -1.8842 0.8529 25 10
7.7467 0.7001 -1.9119 0.2823 25 10
8.0873 0.8628 -1.9991 0.1883 25 10
10.0756 1.2398 -2.4953 0.2387 0 8
10.0543 1.4024 -2.4953 0.2387 0 8
10.0303 1.5646 -2.4953 0.2387 0 8
10.0038 1.7264 -2.4953 0.2387 0 8
9.9746 1.8878 -2.4953 0.2387 0 8
9.9428 2.0487 -2.4953 0.2387 0 8
9.9084 2.2090 -2.4953 0.2387 0 8
9.8714 2.3688 -2.4953 0.2387 0 8
9.8319 2.5279 -2.4953 0.2387 0 8
9.7897 2.6864 -2.4953 0.2387 0 8
9.7451 2.8442 -2.4953 0.2387 0 8
9.6979 3.0012 -2.4953 0.2387 0 8
9.6481 3.1575 -2.4953 0.2387 0 8
9.5959 3.3129 -2.4953 0.2387 0 8
9.5411 3.4675 -2.4953 0.2387 0 8
9.4838 3.6211 -2.4953 0.2387 0 8
9.4241 3.7738 -2.4953 0.2387 0 8
9.3619 3.9256 -2.4953 0.2387 0 8
9.2973 4.0763 -2.4953 0.2387 0 8
9.2302 4.2259 -2.4953 0.2387 0 8
9.1608 4.3745 -2.4953 0.2387 0 8
9.0889 4.5219 -2.4953 0.2387 0 8
9.0147 4.6681 -2.4953 0.2387 0 8
8.9381 4.8131 -2.4953 0.2387 0 8
8.8592 4.9569 -2.4953 0.2387 0 8
8.7780 5.0993 -2.4953 0.2387 0 8
8.6945 5.2404 -2.4953 0.2387 0 8
8.6087 5.3802 -2.4953 0.2387 0 8
8.5206 5.5186 -2.4953 0.2387 0 8
8.4304 5.6555 -2.4953 0.2387 0 8
8.3379 5.7909 -2.4953 0.2387 0 8
8.2433 5.9248 -2.4953 0.2387 0 8
8.1465 6.0572 -2.4953 0.2387 0 8
8.0476 6.1880 -2.4953 0.2387 0 8
7.9466 6.3172 -2.4953 0.2387 0 8
7.8435 6.4447 -2.4953 0.2387 0 8
7.7384 6.5706 -2.4953 0.2387 0 8
7.6313 6.6947 -2.4953 0.2387 0 8
7.5221 6.8171 -2.4953 0.2387 0 8
7.4110 6.9377 -2.4953 0.2387 0 8
7.2980 7.0565 -2.4953 0.2387 0 8
7.1831 7.1735 -2.4953 0.2387 0 8
7.0663 7.2886 -2.4953 0.2387 0 8
6.9476 7.4018 -2.4953 0.2387 0 8
6.8271 7.5130 -2.4953 0.2387 0 8
6.7049 7.6223 -2.4953 0.2387 0 8
6.5809 7.7297 -2.4953 0.2387 0 8
6.4552 7.8349 -2.4953 0.2387 0 8
6.3278 7.9382 -2.4953 0.2387 0 8
6.1987 8.0394 -2.4953 0.2387 0 8
6.0681 8.1384 -2.4953 0.2387 0 8
5.9358 8.2354 -2.4953 0.2387 0 8
5.8020 8.3302 -2.4953 0.2387 0 8
5.6667 8.4228 -2.4953 0.2387 0 8
5.8677 9.0332 -2.6477 0.2387 0 7
5.7210 9.1268 -2.6477 0.2387 0 7
5.5728 9.2180 -2.6477 0.2387 0 7
5.4232 9.3069 -2.6477 0.2387 0 7
5.2721 9.3933 -2.6477 0.2387 0 7
5.1197 9.4772 -2.6477 0.2387 0 7
4.9660 9.5586 -2.6477 0.2387 0 7
4.8109 9.6376 -2.6477 0.2387 0 7
4.6546 9.7141 -2.6477 0.2387 0 7
4.4971 9.7880 -2.6477 0.2387 0 7
7.7211 -0.6778 -1.9736 0.4071 25 10
7.6425 -0.5467 -1.9510 0.7683 25 10
7.5951 -0.4201 -1.9369 0.9161 25 10
7.5671 -0.2961 -1.9283 0.9619 25 10
7.5650 -0.1736 -1.9268 0.9240 25 10
7.5686 -0.0514 -1.9272 0.9238 25 10
7.5680 0.0708 -1.9271 0.9239 25 10
7.5645 0.1930 -1.9268 0.9240 25 10
7.5703 0.3156 -1.9293 0.9362 25 10
7.6000 0.4399 -1.9384 0.9154 25 10
7.6543 0.5672 -1.9544 0.7670 25 10
7.7588 0.7012 -1.9837 0.4050 25 10
8.1060 0.8648 -2.0758 0.1512 25 10
9.7262 1.1968 -2.4953 0.2468 0 8
9.7056 1.3537 -2.4953 0.2468 0 8
9.6825 1.5103 -2.4953 0.2468 0 8
9.6568 1.6665 -2.4953 0.2468 0 8
9.6286 1.8223 -2.4953 0.2468 0 8
9.5979 1.9776 -2.4953 0.2468 0 8
9.5647 2.1324 -2.4953 0.2468 0 8
9.5290 2.2866 -2.4953 0.2468 0 8
9.4909 2.4402 -2.4953 0.2468 0 8
9.4502 2.5932 -2.4953 0.2468 0 8
9.4071 2.7455 -2.4953 0.2468 0 8
9.3615 2.8971 -2.4953 0.2468 0 8
9.3135 3.0480 -2.4953 0.2468 0 8
9.2630 3.1980 -2.4953 0.2468 0 8
9.2102 3.3472 -2.4953 0.2468 0 8
9.1549 3.4955 -2.4953 0.2468 0 8
9.0972 3.6430 -2.4953 0.2468 0 8
9.0372 3.7894 -2.4953 0.2468 0 8
8.9748 3.9349 -2.4953 0.2468 0 8
8.9101 4.0794 -2.4953 0.2468 0 8
8.8430 4.2228 -2.4953 0.2468 0 8
8.7737 4.3650 -2.4953 0.2468 0 8
8.7020 4.5062 -2.4953 0.2468 0 8
8.6281 4.6462 -2.4953 0.2468 0 8
8.5519 4.7849 -2.4953 0.2468 0 8
8.4735 4.9225 -2.4953 0.2468 0 8
8.3929 5.0587 -2.4953 0.2468 0 8
8.3101 5.1936 -2.4953 0.2468 0 8
8.2251 5.3271 -2.4953 0.2468 0 8
8.1380 5.4593 -2.4953 0.2468 0 8
8.0487 5.5901 -2.4953 0.2468 0 8
7.9574 5.7193 -2.4953 0.2468 0 8
7.8640 5.8471 -2.4953 0.2468 0 8
7.7685 5.9734 -2.4953 0.2468 0 8
7.6710 6.0981 -2.4953 0.2468 0 8
7.5715 6.2212 -2.4953 0.2468 0 8
7.4700 6.3427 -2.4953 0.2468 0 8
7.3666 6.4625 -2.4953 0.2468 0 8
7.2612 6.5807 -2.4953 0.2468 0 8
7.1540 6.6971 -2.4953 0.2468 0 8
7.0449 6.8118 -2.4953 0.2468 0 8
6.9339 6.9247 -2.4953 0.2468 0 8
6.8212 7.0358 -2.4953 0.2468 0 8
6.7066 7.1451 -2.4953 0.2468 0 8
6.5904 7.2525 -2.4953 0.2468 0 8
6.4723 7.3580 -2.4953 0.2468 0 8
6.3527 7.4616 -2.4953 0.2468 0 8
6.2313 7.5632 -2.4953 0.2468 0 8
6.1083 7.6629 -2.4953 0.2468 0 8
5.9837 7.7605 -2.4953 0.2468 0 8
5.8576 7.8562 -2.4953 0.2468 0 8
5.7299 7.9498 -2.4953 0.2468 0 8
5.6008 8.0413 -2.4953 0.2468 0 8
5.4702 8.1307 -2.4953 0.2468 0 8
5.3381 8.2180 -2.4953 0.2468 0 8
5.2047 8.3032 -2.4953 0.2468 0 8
5.0699 8.3861 -2.4953 0.2468 0 8
5.2351 8.9841 -2.6477 0.2468 0 7
5.0893 9.0675 -2.6477 0.2468 0 7
4.9421 9.1485 -2.6477 0.2468 0 7
4.7937 9.2271 -2.6477 0.2468 0 7
4.6441 9.3033 -2.6477 0.2468 0 7
4.4932 9.3772 -2.6477 0.2468 0 7
4.3411 9.4485 -2.6477 0.2468 0 7
7.7644 -0.6816 -2.0538 0.4039 25 10
7.6625 -0.5481 -2.0242 0.7207 25 10
7.6048 -0.4206 -2.0069 0.8436 25 10
7.5738 -0.2963 -1.9972 0.8885 25 10
7.5775 -0.1739 -1.9972 0.8885 25 10
7.5813 -0.0515 -1.9977 0.8883 25 10
7.5806 0.0709 -1.9976 0.8884 25 10
7.5769 0.1933 -1.9972 0.8886 25 10
7.5781 0.3159 -1.9986 0.8472 25 10
7.6099 0.4405 -2.0086 0.8429 25 10
7.6749 0.5688 -2.0279 0.7194 25 10
7.8025 0.7051 -2.0643 0.4019 25 10
8.1402 0.8684 -2.1571 0.1933 25 10
9.3988 1.1565 -2.4953 0.2548 0 8
9.3789 1.3082 -2.4953 0.2548 0 8
9.3566 1.4595 -2.4953 0.2548 0 8
9.3318 1.6105 -2.4953 0.2548 0 8
9.3045 1.7610 -2.4953 0.2548 0 8
9.2749 1.9110 -2.4953 0.2548 0 8
9.2428 2.0606 -2.4953 0.2548 0 8
9.2083 2.2096 -2.4953 0.2548 0 8
9.1714 2.3581 -2.4953 0.2548 0 8
9.1321 2.5059 -2.4953 0.2548 0 8
9.0905 2.6531 -2.4953 0.2548 0 8
9.0464 2.7996 -2.4953 0.2548 0 8
9.0000 2.9454 -2.4953 0.2548 0 8
8.9513 3.0904 -2.4953 0.2548 0 8
8.9002 3.2345 -2.4953 0.2548 0 8
8.8468 3.3779 -2.4953 0.2548 0 8
8.7911 3.5203 -2.4953 0.2548 0 8
8.7330 3.6619 -2.4953 0.2548 0 8
8.6728 3.8025 -2.4953 0.2548 0 8
8.6102 3.9421 -2.4953 0.2548 0 8
8.5454 4.0806 -2.4953 0.2548 0 8
8.4784 4.2181 -2.4953 0.2548 0 8
8.4091 4.3545 -2.4953 0.2548 0 8
8.3377 4.4898 -2.4953 0.2548 0 8
8.2641 4.6239 -2.4953 0.2548 0 8
8.1883 4.7568 -2.4953 0.2548 0 8
8.1104 4.8884 -2.4953 0.2548 0 8
8.0304 5.0188 -2.4953 0.2548 0 8
7.9483 5.1478 -2.4953 0.2548 0 8
7.8641 5.2756 -2.4953 0.2548 0 8
7.7778 5.4019 -2.4953 0.2548 0 8
7.6896 5.5268 -2.4953 0.2548 0 8
7.5993 5.6503 -2.4953 0.2548 0 8
7.5070 5.7723 -2.4953 0.2548 0 8
7.4128 5.8928 -2.4953 0.2548 0 8
7.3167 6.0118 -2.4953 0.2548 0 8
7.2186 6.1292 -2.4953 0.2548 0 8
7.1187 6.2450 -2.4953 0.2548 0 8
7.0168 6.3592 -2.4953 0.2548 0 8
6.9132 6.4717 -2.4953 0.2548 0 8
6.8078 6.5825 -2.4953 0.2548 0 8
6.7006 6.6916 -2.4953 0.2548 0 8
6.5916 6.7990 -2.4953 0.2548 0 8
6.4809 6.9046 -2.4953 0.2548 0 8
6.3685 7.0084 -2.4953 0.2548 0 8
6.2545 7.1103 -2.4953 0.2548 0 8
6.1388 7.2104 -2.4953 0.2548 0 8
6.0216 7.3086 -2.4953 0.2548 0 8
5.9027 7.4050 -2.4953 0.2548 0 8
5.7823 7.4993 -2.4953 0.2548 0 8
5.6604 7.5918 -2.4953 0.2548 0 8
5.5371 7.6822 -2.4953 0.2548 0 8
5.4123 7.7706 -2.4953 0.2548 0 8
5.2860 7.8570 -2.4953 0.2548 0 8
5.1584 7.9414 -2.4953 0.2548 0 8
5.0295 8.0237 -2.4953 0.2548 0 8
4.8992 8.1039 -2.4953 0.2548 0 8
4.7677 8.1820 -2.4953 0.2548 0 8
4.6349 8.2579 -2.4953 0.2548 0 8
4.5009 8.3317 -2.4953 0.2548 0 8
4.3657 8.4033 -2.4953 0.2548 0 8
4.4877 8.9902 -2.6477 0.2548 0 7
4.3419 9.0615 -2.6477 0.2548 0 7
4.1950 9.1305 -2.6477 0.2548 0 7
7.8084 -0.6855 -2.1353 0.4008 25 10
7.6860 -0.5498 -2.0991 0.7226 25 10
7.6252 -0.4218 -2.0803 0.8106 25 10
7.5910 -0.2970 -2.0694 0.8439 25 10
7.5934 -0.1743 -2.0691 0.8847 25 10
7.5898 -0.0516 -2.0676 0.9255 25 10
7.5905 0.0710 -2.0678 0.9254 25 10
7.5928 0.1937 -2.0690 0.8847 25 10
7.5960 0.3167 -2.0710 0.8433 25 10
7.6313 0.4417 -2.0823 0.8098 25 10
7.6982 0.5705 -2.1028 0.7214 25 10
7.8367 0.7082 -2.1435 0.5470 25 10
8.1697 0.8716 -2.2381 0.1922 25 10
9.0915 1.1187 -2.4953 0.2628 0 8
9.0722 1.2654 -2.4953 0.2628 0 8
9.0506 1.4118 -2.4953 0.2628 0 8
9.0266 1.5578 -2.4953 0.2628 0 8
9.0003 1.7034 -2.4953 0.2628 0 8
8.9716 1.8486 -2.4953 0.2628 0 8
8.9406 1.9932 -2.4953 0.2628 0 8
8.9072 2.1374 -2.4953 0.2628 0 8
8.8715 2.2810 -2.4953 0.2628 0 8
8.8335 2.4240 -2.4953 0.2628 0 8
8.7932 2.5664 -2.4953 0.2628 0 8
8.7506 2.7081 -2.4953 0.2628 0 8
8.7057 2.8490 -2.4953 0.2628 0 8
8.6586 2.9893 -2.4953 0.2628 0 8
8.6091 3.1288 -2.4953 0.2628 0 8
8.5575 3.2674 -2.4953 0.2628 0 8
8.5036 3.4052 -2.4953 0.2628 0 8
8.4475 3.5421 -2.4953 0.2628 0 8
8.3891 3.6781 -2.4953 0.2628 0 8
8.3286 3.8132 -2.4953 0.2628 0 8
8.2660 3.9472 -2.4953 0.2628 0 8
8.2011 4.0802 -2.4953 0.2628 0 8
8.1341 4.2121 -2.4953 0.2628 0 8
8.0650 4.3430 -2.4953 0.2628 0 8
7.9938 4.4727 -2.4953 0.2628 0 8
7.9206 4.6012 -2.4953 0.2628 0 8
7.8452 4.7286 -2.4953 0.2628 0 8
7.7678 4.8547 -2.4953 0.2628 0 8
7.6884 4.9795 -2.4953 0.2628 0 8
7.6069 5.1031 -2.4953 0.2628 0 8
7.5235 5.2253 -2.4953 0.2628 0 8
7.4381 5.3461 -2.4953 0.2628 0 8
7.3508 5.4655 -2.4953 0.2628 0 8
7.2616 5.5836 -2.4953 0.2628 0 8
7.1704 5.7001 -2.4953 0.2628 0 8
7.0774 5.8152 -2.4953 0.2628 0 8
6.9825 5.9288 -2.4953 0.2628 0 8
6.8859 6.0408 -2.4953 0.2628 0 8
6.7874 6.1512 -2.4953 0.2628 0 8
6.6871 6.2601 -2.4953 0.2628 0 8
6.5852 6.3673 -2.4953 0.2628 0 8
6.4814 6.4728 -2.4953 0.2628 0 8
6.3760 6.5767 -2.4953 0.2628 0 8
6.2690 6.6788 -2.4953 0.2628 0 8
6.1603 6.7792 -2.4953 0.2628 0 8
6.0500 6.8778 -2.4953 0.2628 0 8
5.9381 6.9746 -2.4953 0.2628 0 8
5.8247 7.0696 -2.4953 0.2628 0 8
5.7097 7.1628 -2.4953 0.2628 0 8
5.5933 7.2541 -2.4953 0.2628 0 8
5.4753 7.3435 -2.4953 0.2628 0 8
5.3560 7.4310 -2.4953 0.2628 0 8
5.2353 7.5165 -2.4953 0.2628 0 8
5.1132 7.6001 -2.4953 0.2628 0 8
4.9898 7.6817 -2.4953 0.2628 0 8
4.8650 7.7613 -2.4953 0.2628 0 8
4.7390 7.8389 -2.4953 0.2628 0 8
4.6118 7.9144 -2.4953 0.2628 0 8
4.4833 7.9879 -2.4953 0.2628 0 8
4.3537 8.0592 -2.4953 0.2628 0 8
4.2230 8.1285 -2.4953 0.2628 0 8
4.0911 8.1957 -2.4953 0.2628 0 8
3.9582 8.2607 -2.4953 0.2628 0 8
3.8247 8.3245 -2.4956 0.8050 0 8
8.3317 -0.7314 -2.3532 0.6469 25 10
7.7091 -0.5514 -2.1745 0.7188 25 10
7.6470 -0.4230 -2.1548 0.8064 25 10
7.6090 -0.2977 -2.1425 0.8400 25 10
7.6031 -0.1745 -2.1397 0.9216 25 10
7.5983 -0.0516 -2.1379 0.9224 25 10
7.5990 0.0711 -2.1381 0.9223 25 10
7.6039 0.1940 -2.1401 0.9214 25 10
7.6149 0.3175 -2.1444 0.8103 25 10
7.6531 0.4430 -2.1569 0.8056 25 10
7.7214 0.5722 -2.1784 0.7175 25 10
8.3322 0.7530 -2.3539 0.6467 25 10
8.3353 0.8892 -2.3585 0.6454 25 10
8.8023 1.0831 -2.4953 0.2708 0 8
8.7837 1.2252 -2.4953 0.2708 0 8
8.7628 1.3669 -2.4953 0.2708 0 8
8.7395 1.5082 -2.4953 0.2708 0 8
8.7140 1.6492 -2.4953 0.2708 0 8
8.6862 1.7898 -2.4953 0.2708 0 8
8.6562 1.9298 -2.4953 0.2708 0 8
8.6239 2.0694 -2.4953 0.2708 0 8
8.5894 2.2084 -2.4953 0.2708 0 8
8.5526 2.3469 -2.4953 0.2708 0 8
8.5135 2.4847 -2.4953 0.2708 0 8
8.4723 2.6219 -2.4953 0.2708 0 8
8.4288 2.7584 -2.4953 0.2708 0 8
8.3832 2.8942 -2.4953 0.2708 0 8
8.3353 3.0293 -2.4953 0.2708 0 8
8.2853 3.1635 -2.4953 0.2708 0 8
8.2331 3.2969 -2.4953 0.2708 0 8
8.1788 3.4295 -2.4953 0.2708 0 8
8.1223 3.5611 -2.4953 0.2708 0 8
8.0638 3.6919 -2.4953 0.2708 0 8
8.0031 3.8216 -2.4953 0.2708 0 8
7.9403 3.9504 -2.4953 0.2708 0 8
7.8754 4.0782 -2.4953 0.2708 0 8
7.8085 4.2049 -2.4953 0.2708 0 8
7.7396 4.3304 -2.4953 0.2708 0 8
7.6686 4.4549 -2.4953 0.2708 0 8
7.5957 4.5782 -2.4953 0.2708 0 8
7.5207 4.7003 -2.4953 0.2708 0 8
7.4438 4.8211 -2.4953 0.2708 0 8
7.3650 4.9408 -2.4953 0.2708 0 8
7.2842 5.0591 -2.4953 0.2708 0 8
7.2016 5.1761 -2.4953 0.2708 0 8
7.1170 5.2917 -2.4953 0.2708 0 8
7.0306 5.4060 -2.4953 0.2708 0 8
6.9424 5.5189 -2.4953 0.2708 0 8
6.8523 5.6303 -2.4953 0.2708 0 8
6.7605 5.7402 -2.4953 0.2708 0 8
6.6669 5.8487 -2.4953 0.2708 0 8
6.5715 5.9556 -2.4953 0.2708 0 8
6.4745 6.0610 -2.4953 0.2708 0 8
6.3757 6.1648 -2.4953 0.2708 0 8
6.2753 6.2669 -2.4953 0.2708 0 8
6.1733 6.3675 -2.4953 0.2708 0 8
6.0696 6.4664 -2.4953 0.2708 0 8
5.9644 6.5636 -2.4953 0.2708 0 8
5.8576 6.6591 -2.4953 0.2708 0 8
5.7492 6.7528 -2.4953 0.2708 0 8
5.6394 6.8448 -2.4953 0.2708 0 8
5.5281 6.9350 -2.4953 0.2708 0 8
5.4154 7.0234 -2.4953 0.2708 0 8
5.3012 7.1099 -2.4953 0.2708 0 8
5.1857 7.1946 -2.4953 0.2708 0 8
5.0688 7.2775 -2.4953 0.2708 0 8
4.9506 7.3584 -2.4953 0.2708 0 8
4.8311 7.4374 -2.4953 0.2708 0 8
4.7103 7.5145 -2.4953 0.2708 0 8
4.5883 7.5896 -2.4953 0.2708 0 8
4.4651 7.6627 -2.4953 0.2708 0 8
4.3408 7.7338 -2.4953 0.2708 0 8
4.2153 7.8029 -2.4953 0.2708 0 8
4.0887 7.8700 -2.4953 0.2708 0 8
3.9610 7.9350 -2.4953 0.2708 0 8
3.8323 7.9980 -2.4953 0.2708 0 8
3.7026 8.0588 -2.4953 0.2708 0 8
8.4724 -0.7438 -2.4694 0.2997 25 10
8.5722 -0.6132 -2.4953 0.2788 0 8
8.5810 -0.4746 -2.4953 0.2788 0 8
8.5875 -0.3360 -2.4953 0.2788 0 8
8.5918 -0.1972 -2.4953 0.2788 0 8
8.5939 -0.0584 -2.4953 0.2788 0 8
8.5937 0.0804 -2.4953 0.2788 0 8
8.5913 0.2192 -2.4953 0.2788 0 8
8.5866 0.3580 -2.4953 0.2788 0 8
8.5797 0.4966 -2.4953 0.2788 0 8
8.5706 0.6351 -2.4953 0.2788 0 8
8.4739 0.7658 -2.4704 0.2995 25 10
8.5456 0.9117 -2.4953 0.2788 0 8
8.5298 1.0496 -2.4953 0.2788 0 8
8.5117 1.1872 -2.4953 0.2788 0 8
8.4914 1.3246 -2.4953 0.2788 0 8
8.4689 1.4615 -2.4953 0.2788 0 8
8.4442 1.5982 -2.4953 0.2788 0 8
8.4173 1.7343 -2.4953 0.2788 0 8
8.3882 1.8701 -2.4953 0.2788 0 8
8.3569 2.0053 -2.4953 0.2788 0 8
8.3234 2.1401 -2.4953 0.2788 0 8
8.2877 2.2742 -2.4953 0.2788 0 8
8.2499 2.4078 -2.4953 0.2788 0 8
8.2100 2.5407 -2.4953 0.2788 0 8
8.1678 2.6730 -2.4953 0.2788 0 8
8.1236 2.8046 -2.4953 0.2788 0 8
8.0772 2.9355 -2.4953 0.2788 0 8
8.0288 3.0656 -2.4953 0.2788 0 8
7.9782 3.1948 -2.4953 0.2788 0 8
7.9256 3.3233 -2.4953 0.2788 0 8
7.8708 3.4509 -2.4953 0.2788 0 8
7.8141 3.5776 -2.4953 0.2788 0 8
7.7553 3.7033 -2.4953 0.2788 0 8
7.6944 3.8281 -2.4953 0.2788 0 8
7.6316 3.9519 -2.4953 0.2788 0 8
7.5668 4.0747 -2.4953 0.2788 0 8
7.5000 4.1963 -2.4953 0.2788 0 8
7.4312 4.3169 -2.4953 0.2788 0 8
7.3605 4.4364 -2.4953 0.2788 0 8
7.2879 4.5547 -2.4953 0.2788 0 8
7.2134 4.6719 -2.4953 0.2788 0 8
7.1369 4.7878 -2.4953 0.2788 0 8
7.0587 4.9024 -2.4953 0.2788 0 8
6.9786 5.0158 -2.4953 0.2788 0 8
6.8966 5.1279 -2.4953 0.2788 0 8
6.8129 5.2386 -2.4953 0.2788 0 8
6.7274 5.3480 -2.4953 0.2788 0 8
6.6401 5.4559 -2.4953 0.2788 0 8
6.5511 5.5625 -2.4953 0.2788 0 8
6.4604 5.6676 -2.4953 0.2788 0 8
6.3680 5.7712 -2.4953 0.2788 0 8
6.2740 5.8733 -2.4953 0.2788 0 8
6.1783 5.9739 -2.4953 0.2788 0 8
6.0810 6.0729 -2.4953 0.2788 0 8
5.9821 6.1703 -2.4953 0.2788 0 8
5.8817 6.2662 -2.4953 0.2788 0 8
5.7797 6.3603 -2.4953 0.2788 0 8
5.6762 6.4529 -2.4953 0.2788 0 8
5.5712 6.5437 -2.4953 0.2788 0 8
5.4648 6.6329 -2.4953 0.2788 0 8
5.3569 6.7203 -2.4953 0.2788 0 8
5.2477 6.8059 -2.4953 0.2788 0 8
5.1371 6.8898 -2.4953 0.2788 0 8
5.0251 6.9719 -2.4953 0.2788 0 8
4.9118 7.0521 -2.4953 0.2788 0 8
4.7973 7.1306 -2.4953 0.2788 0 8
4.6815 7.2071 -2.4953 0.2788 0 8
4.5644 7.2818 -2.4953 0.2788 0 8
4.4462 7.3546 -2.4953 0.2788 0 8
4.3269 7.4254 -2.4953 0.2788 0 8
4.2063 7.4944 -2.4953 0.2788 0 8
4.0847 7.5613 -2.4953 0.2788 0 8
3.9621 7.6263 -2.4953 0.2788 0 8
3.8384 7.6893 -2.4953 0.2788 0 8
3.7137 7.7503 -2.4953 0.2788 0 8
3.5880 7.8093 -2.4953 0.2788 0 8
8.3028 -0.7289 -2.4953 0.2868 0 8
8.3135 -0.5947 -2.4953 0.2868 0 8
8.3221 -0.4603 -2.4953 0.2868 0 8
8.3284 -0.3258 -2.4953 0.2868 0 8
8.3326 -0.1913 -2.4953 0.2868 0 8
8.3346 -0.0566 -2.4953 0.2868 0 8
8.3344 0.0780 -2.4953 0.2868 0 8
8.3321 0.2126 -2.4953 0.2868 0 8
8.3276 0.3472 -2.4953 0.2868 0 8
8.3209 0.4816 -2.4953 0.2868 0 8
8.3120 0.6160 -2.4953 0.2868 0 8
8.3010 0.7502 -2.4953 0.2868 0 8
8.2878 0.8841 -2.4953 0.2868 0 8
8.2724 1.0179 -2.4953 0.2868 0 8
8.2549 1.1514 -2.4953 0.2868 0 8
8.2352 1.2846 -2.4953 0.2868 0 8
8.2134 1.4174 -2.4953 0.2868 0 8
8.1894 1.5499 -2.4953 0.2868 0 8
8.1633 1.6820 -2.4953 0.2868 0 8
8.1351 1.8136 -2.4953 0.2868 0 8
8.1047 1.9448 -2.4953 0.2868 0 8
8.0722 2.0755 -2.4953 0.2868 0 8
8.0377 2.2056 -2.4953 0.2868 0 8
8.0010 2.3351 -2.4953 0.2868 0 8
7.9622 2.4641 -2.4953 0.2868 0 8
7.9214 2.5924 -2.4953 0.2868 0 8
7.8785 2.7200 -2.4953 0.2868 0 8
7.8335 2.8469 -2.4953 0.2868 0 8
7.7865 2.9730 -2.4953 0.2868 0 8
7.7375 3.0984 -2.4953 0.2868 0 8
7.6864 3.2230 -2.4953 0.2868 0 8
7.6333 3.3468 -2.4953 0.2868 0 8
7.5783 3.4696 -2.4953 0.2868 0 8
7.5213 3.5916 -2.4953 0.2868 0 8
7.4623 3.7126 -2.4953 0.2868 0 8
7.4013 3.8326 -2.4953 0.2868 0 8
7.3384 3.9517 -2.4953 0.2868 0 8
7.2736 4.0697 -2.4953 0.2868 0 8
7.2070 4.1867 -2.4953 0.2868 0 8
7.1384 4.3026 -2.4953 0.2868 0 8
7.0680 4.4173 -2.4953 0.2868 0 8
6.9957 4.5309 -2.4953 0.2868 0 8
6.9216 4.6433 -2.4953 0.2868 0 8
6.8457 4.7545 -2.4953 0.2868 0 8
6.7680 4.8645 -2.4953 0.2868 0 8
6.6885 4.9731 -2.4953 0.2868 0 8
6.6073 5.0805 -2.4953 0.2868 0 8
6.5244 5.1866 -2.4953 0.2868 0 8
6.4398 5.2913 -2.4953 0.2868 0 8
6.3535 5.3946 -2.4953 0.2868 0 8
6.2655 5.4966 -2.4953 0.2868 0 8
6.1759 5.5971 -2.4953 0.2868 0 8
6.0847 5.6961 -2.4953 0.2868 0 8
5.9919 5.7936 -2.4953 0.2868 0 8
5.8975 5.8897 -2.4953 0.2868 0 8
5.8016 5.9841 -2.4953 0.2868 0 8
5.7042 6.0771 -2.4953 0.2868 0 8
5.6053 6.1684 -2.4953 0.2868 0 8
5.5049 6.2582 -2.4953 0.2868 0 8
5.4031 6.3463 -2.4953 0.2868 0 8
5.2999 6.4327 -2.4953 0.2868 0 8
5.1953 6.5175 -2.4953 0.2868 0 8
5.0893 6.6006 -2.4953 0.2868 0 8
4.9821 6.6819 -2.4953 0.2868 0 8
4.8735 6.7615 -2.4953 0.2868 0 8
4.7636 6.8393 -2.4953 0.2868 0 8
4.6525 6.9154 -2.4953 0.2868 0 8
4.5402 6.9896 -2.4953 0.2868 0 8
4.4267 7.0621 -2.4953 0.2868 0 8
4.3121 7.1326 -2.4953 0.2868 0 8
4.1963 7.2014 -2.4953 0.2868 0 8
4.0794 7.2682 -2.4953 0.2868 0 8
3.9615 7.3332 -2.4953 0.2868 0 8
3.8425 7.3962 -2.4953 0.2868 0 8
3.7225 7.4573 -2.4953 0.2868 0 8
3.6016 7.5165 -2.4953 0.2868 0 8
3.4797 7.5737 -2.4953 0.2868 0 8
8.0585 -0.7074 -2.4953 0.2948 0 8
8.0689 -0.5772 -2.4953 0.2948 0 8
8.0771 -0.4468 -2.4953 0.2948 0 8
8.0833 -0.3162 -2.4953 0.2948 0 8
8.0873 -0.1856 -2.4953 0.2948 0 8
8.0893 -0.0550 -2.4953 0.2948 0 8
8.0891 0.0757 -2.4953 0.2948 0 8
8.0868 0.2063 -2.4953 0.2948 0 8
8.0825 0.3369 -2.4953 0.2948 0 8
8.0760 0.4675 -2.4953 0.2948 0 8
8.0673 0.5978 -2.4953 0.2948 0 8
8.0566 0.7281 -2.4953 0.2948 0 8
8.0438 0.8581 -2.4953 0.2948 0 8
8.0289 0.9879 -2.4953 0.2948 0 8
8.0119 1.1175 -2.4953 0.2948 0 8
7.9928 1.2468 -2.4953 0.2948 0 8
7.9716 1.3757 -2.4953 0.2948 0 8
7.9484 1.5043 -2.4953 0.2948 0 8
7.9230 1.6325 -2.4953 0.2948 0 8
7.8956 1.7603 -2.4953 0.2948 0 8
7.8662 1.8876 -2.4953 0.2948 0 8
7.8347 2.0144 -2.4953 0.2948 0 8
7.8011 2.1407 -2.4953 0.2948 0 8
7.7655 2.2664 -2.4953 0.2948 0 8
7.7279 2.3916 -2.4953 0.2948 0 8
7.6882 2.5161 -2.4953 0.2948 0 8
7.6466 2.6399 -2.4953 0.2948 0 8
7.6030 2.7631 -2.4953 0.2948 0 8
7.5573 2.8855 -2.4953 0.2948 0 8
7.5097 3.0072 -2.4953 0.2948 0 8
7.4602 3.1281 -2.4953 0.2948 0 8
7.4087 3.2482 -2.4953 0.2948 0 8
7.3552 3.3675 -2.4953 0.2948 0 8
7.2999 3.4859 -2.4953 0.2948 0 8
7.2426 3.6033 -2.4953 0.2948 0 8
7.1835 3.7198 -2.4953 0.2948 0 8
7.1225 3.8354 -2.4953 0.2948 0 8
7.0596 3.9499 -2.4953 0.2948 0 8
6.9948 4.0635 -2.4953 0.2948 0 8
6.9283 4.1759 -2.4953 0.2948 0 8
6.8599 4.2873 -2.4953 0.2948 0 8
6.7898 4.3975 -2.4953 0.2948 0 8
6.7179 4.5066 -2.4953 0.2948 0 8
6.6442 4.6146 -2.4953 0.2948 0 8
6.5688 4.7213 -2.4953 0.2948 0 8
6.4917 4.8268 -2.4953 0.2948 0 8
6.4129 4.9310 -2.4953 0.2948 0 8
6.3324 5.0339 -2.4953 0.2948 0 8
6.2502 5.1356 -2.4953 0.2948 0 8
6.1665 5.2359 -2.4953 0.2948 0 8
6.0811 5.3348 -2.4953 0.2948 0 8
5.9941 5.4323 -2.4953 0.2948 0 8
5.9056 5.5284 -2.4953 0.2948 0 8
5.8155 5.6231 -2.4953 0.2948 0 8
5.7239 5.7163 -2.4953 0.2948 0 8
5.6308 5.8080 -2.4953 0.2948 0 8
5.5363 5.8982 -2.4953 0.2948 0 8
5.4403 5.9869 -2.4953 0.2948 0 8
5.3429 6.0740 -2.4953 0.2948 0 8
5.2441 6.1595 -2.4953 0.2948 0 8
5.1439 6.2434 -2.4953 0.2948 0 8
5.0424 6.3257 -2.4953 0.2948 0 8
4.9395 6.4063 -2.4953 0.2948 0 8
4.8354 6.4852 -2.4953 0.2948 0 8
4.7300 6.5625 -2.4953 0.2948 0 8
4.6234 6.6380 -2.4953 0.2948 0 8
4.5156 6.7119 -2.4953 0.2948 0 8
4.4066 6.7839 -2.4953 0.2948 0 8
4.2964 6.8542 -2.4953 0.2948 0 8
4.1852 6.9227 -2.4953 0.2948 0 8
4.0728 6.9894 -2.4953 0.2948 0 8
3.9594 7.0543 -2.4953 0.2948 0 8
3.8449 7.1173 -2.4953 0.2948 0 8
3.7294 7.1785 -2.4953 0.2948 0 8
3.6130 7.2378 -2.4953 0.2948 0 8
3.4956 7.2952 -2.4953 0.2948 0 8
3.3773 7.3507 -2.4953 0.2948 0 8
7.8269 -0.6871 -2.4953 0.3027 0 8
7.8370 -0.5606 -2.4953 0.3027 0 8
7.8450 -0.4339 -2.4953 0.3027 0 8
7.8510 -0.3072 -2.4953 0.3027 0 8
7.8550 -0.1803 -2.4953 0.3027 0 8
7.8568 -0.0534 -2.4953 0.3027 0 8
7.8567 0.0735 -2.4953 0.3027 0 8
7.8545 0.2004 -2.4953 0.3027 0 8
7.8502 0.3273 -2.4953 0.3027 0 8
7.8439 0.4540 -2.4953 0.3027 0 8
7.8355 0.5807 -2.4953 0.3027 0 8
7.8251 0.7072 -2.4953 0.3027 0 8
7.8127 0.8335 -2.4953 0.3027 0 8
7.7982 0.9596 -2.4953 0.3027 0 8
7.7817 1.0854 -2.4953 0.3027 0 8
7.7631 1.2110 -2.4953 0.3027 0 8
7.7426 1.3362 -2.4953 0.3027 0 8
7.7200 1.4611 -2.4953 0.3027 0 8
7.6954 1.5856 -2.4953 0.3027 0 8
7.6688 1.7097 -2.4953 0.3027 0 8
7.6401 1.8333 -2.4953 0.3027 0 8
7.6095 1.9565 -2.4953 0.3027 0 8
7.5769 2.0792 -2.4953 0.3027 0 8
7.5424 2.2013 -2.4953 0.3027 0 8
7.5058 2.3228 -2.4953 0.3027 0 8
7.4673 2.4438 -2.4953 0.3027 0 8
7.4269 2.5641 -2.4953 0.3027 0 8
7.3845 2.6837 -2.4953 0.3027 0 8
7.3402 2.8026 -2.4953 0.3027 0 8
7.2939 2.9208 -2.4953 0.3027 0 8
7.2458 3.0383 -2.4953 0.3027 0 8
7.1958 3.1549 -2.4953 0.3027 0 8
7.1439 3.2707 -2.4953 0.3027 0 8
7.0901 3.3857 -2.4953 0.3027 0 8
7.0345 3.4998 -2.4953 0.3027 0 8
6.9771 3.6130 -2.4953 0.3027 0 8
6.9178 3.7252 -2.4953 0.3027 0 8
6.8567 3.8364 -2.4953 0.3027 0 8
6.7939 3.9467 -2.4953 0.3027 0 8
6.7292 4.0559 -2.4953 0.3027 0 8
6.6628 4.1641 -2.4953 0.3027 0 8
6.5947 4.2712 -2.4953 0.3027 0 8
6.5248 4.3771 -2.4953 0.3027 0 8
6.4533 4.4820 -2.4953 0.3027 0 8
6.3800 4.5856 -2.4953 0.3027 0 8
6.3051 4.6881 -2.4953 0.3027 0 8
6.2286 4.7893 -2.4953 0.3027 0 8
6.1504 4.8893 -2.4953 0.3027 0 8
6.0706 4.9880 -2.4953 0.3027 0 8
5.9893 5.0854 -2.4953 0.3027 0 8
5.9064 5.1815 -2.4953 0.3027 0 8
5.8219 5.2762 -2.4953 0.3027 0 8
5.7359 5.3696 -2.4953 0.3027 0 8
5.6484 5.4615 -2.4953 0.3027 0 8
5.5595 5.5521 -2.4953 0.3027 0 8
5.4691 5.6411 -2.4953 0.3027 0 8
5.3772 5.7287 -2.4953 0.3027 0 8
5.2840 5.8148 -2.4953 0.3027 0 8
5.1894 5.8994 -2.4953 0.3027 0 8
5.0934 5.9825 -2.4953 0.3027 0 8
4.9961 6.0640 -2.4953 0.3027 0 8
4.8975 6.1439 -2.4953 0.3027 0 8
4.7976 6.2222 -2.4953 0.3027 0 8
4.6965 6.2989 -2.4953 0.3027 0 8
4.5941 6.3739 -2.4953 0.3027 0 8
4.4906 6.4473 -2.4953 0.3027 0 8
4.3858 6.5190 -2.4953 0.3027 0 8
4.2800 6.5890 -2.4953 0.3027 0 8
4.1730 6.6573 -2.4953 0.3027 0 8
4.0649 6.7238 -2.4953 0.3027 0 8
3.9558 6.7886 -2.4953 0.3027 0 8
3.8456 6.8516 -2.4953 0.3027 0 8
3.7344 6.9128 -2.4953 0.3027 0 8
3.6223 6.9722 -2.4953 0.3027 0 8
3.5092 7.0298 -2.4953 0.3027 0 8
3.3952 7.0856 -2.4953 0.3027 0 8
3.2803 7.1395 -2.4953 0.3027 0 8
7.6072 -0.6678 -2.4953 0.3106 0 8
7.6170 -0.5449 -2.4953 0.3106 0 8
7.6248 -0.4218 -2.4953 0.3106 0 8
7.6306 -0.2985 -2.4953 0.3106 0 8
7.6344 -0.1752 -2.4953 0.3106 0 8
7.6363 -0.0519 -2.4953 0.3106 0 8
7.6361 0.0715 -2.4953 0.3106 0 8
7.6340 0.1948 -2.4953 0.3106 0 8
7.6298 0.3181 -2.4953 0.3106 0 8
7.6237 0.4413 -2.4953 0.3106 0 8
7.6156 0.5644 -2.4953 0.3106 0 8
7.6054 0.6873 -2.4953 0.3106 0 8
7.5934 0.8101 -2.4953 0.3106 0 8
7.5793 0.9326 -2.4953 0.3106 0 8
7.5632 1.0549 -2.4953 0.3106 0 8
7.5452 1.1770 -2.4953 0.3106 0 8
7.5252 1.2987 -2.4953 0.3106 0 8
7.5032 1.4201 -2.4953 0.3106 0 8
7.4793 1.5411 -2.4953 0.3106 0 8
7.4535 1.6617 -2.4953 0.3106 0 8
7.4256 1.7819 -2.4953 0.3106 0 8
7.3959 1.9016 -2.4953 0.3106 0 8
7.3642 2.0208 -2.4953 0.3106 0 8
7.3306 2.1395 -2.4953 0.3106 0 8
7.2951 2.2576 -2.4953 0.3106 0 8
7.2577 2.3752 -2.4953 0.3106 0 8
7.2184 2.4921 -2.4953 0.3106 0 8
7.1772 2.6084 -2.4953 0.3106 0 8
7.1341 2.7239 -2.4953 0.3106 0 8
7.0892 2.8388 -2.4953 0.3106 0 8
7.0424 2.9530 -2.4953 0.3106 0 8
6.9938 3.0663 -2.4953 0.3106 0 8
6.9433 3.1789 -2.4953 0.3106 0 8
6.8911 3.2906 -2.4953 0.3106 0 8
6.8370 3.4015 -2.4953 0.3106 0 8
6.7812 3.5115 -2.4953 0.3106 0 8
6.7236 3.6206 -2.4953 0.3106 0 8
6.6642 3.7287 -2.4953 0.3106 0 8
6.6031 3.8359 -2.4953 0.3106 0 8
6.5403 3.9421 -2.4953 0.3106 0 8
6.4758 4.0472 -2.4953 0.3106 0 8
6.4095 4.1513 -2.4953 0.3106 0 8
6.3417 4.2543 -2.4953 0.3106 0 8
6.2721 4.3561 -2.4953 0.3106 0 8
6.2009 4.4569 -2.4953 0.3106 0 8
6.1281 4.5565 -2.4953 0.3106 0 8
6.0537 4.6549 -2.4953 0.3106 0 8
5.9777 4.7520 -2.4953 0.3106 0 8
5.9002 4.8480 -2.4953 0.3106 0 8
5.8211 4.9426 -2.4953 0.3106 0 8
5.7405 5.0360 -2.4953 0.3106 0 8
5.6584 5.1281 -2.4953 0.3106 0 8
5.5749 5.2188 -2.4953 0.3106 0 8
5.4898 5.3082 -2.4953 0.3106 0 8
5.4034 5.3962 -2.4953 0.3106 0 8
5.3155 5.4828 -2.4953 0.3106 0 8
5.2263 5.5679 -2.4953 0.3106 0 8
5.1356 5.6516 -2.4953 0.3106 0 8
5.0437 5.7338 -2.4953 0.3106 0 8
4.9504 5.8145 -2.4953 0.3106 0 8
4.8558 5.8937 -2.4953 0.3106 0 8
4.7600 5.9714 -2.4953 0.3106 0 8
4.6629 6.0475 -2.4953 0.3106 0 8
4.5646 6.1220 -2.4953 0.3106 0 8
4.4651 6.1950 -2.4953 0.3106 0 8
4.3645 6.2663 -2.4953 0.3106 0 8
4.2627 6.3360 -2.4953 0.3106 0 8
4.1598 6.4040 -2.4953 0.3106 0 8
4.0558 6.4704 -2.4953 0.3106 0 8
3.9508 6.5350 -2.4953 0.3106 0 8
3.8447 6.5980 -2.4953 0.3106 0 8
3.7376 6.6592 -2.4953 0.3106 0 8
3.6296 6.7187 -2.4953 0.3106 0 8
3.5206 6.7765 -2.4953 0.3106 0 8
3.4106 6.8325 -2.4953 0.3106 0 8
3.2998 6.8867 -2.4953 0.3106 0 8
3.1882 6.9391 -2.4953 0.3106 0 8
7.3983 -0.6495 -2.4953 0.3185 0 8
7.4079 -0.5299 -2.4953 0.3185 0 8
7.4155 -0.4102 -2.4953 0.3185 0 8
7.4211 -0.2903 -2.4953 0.3185 0 8
7.4248 -0.1704 -2.4953 0.3185 0 8
7.4266 -0.0505 -2.4953 0.3185 0 8
7.4265 0.0695 -2.4953 0.3185 0 8
7.4244 0.1894 -2.4953 0.3185 0 8
7.4204 0.3093 -2.4953 0.3185 0 8
7.4144 0.4292 -2.4953 0.3185 0 8
7.4065 0.5489 -2.4953 0.3185 0 8
7.3967 0.6684 -2.4953 0.3185 0 8
7.3849 0.7878 -2.4953 0.3185 0 8
7.3712 0.9070 -2.4953 0.3185 0 8
7.3556 1.0260 -2.4953 0.3185 0 8
7.3381 1.1446 -2.4953 0.3185 0 8
7.3186 1.2630 -2.4953 0.3185 0 8
7.2973 1.3811 -2.4953 0.3185 0 8
7.2740 1.4988 -2.4953 0.3185 0 8
7.2488 1.6161 -2.4953 0.3185 0 8
7.2218 1.7329 -2.4953 0.3185 0 8
7.1929 1.8494 -2.4953 0.3185 0 8
7.1620 1.9653 -2.4953 0.3185 0 8
7.1294 2.0808 -2.4953 0.3185 0 8
7.0948 2.1956 -2.4953 0.3185 0 8
7.0584 2.3100 -2.4953 0.3185 0 8
7.0202 2.4237 -2.4953 0.3185 0 8
6.9801 2.5368 -2.4953 0.3185 0 8
6.9382 2.6492 -2.4953 0.3185 0 8
6.8945 2.7609 -2.4953 0.3185 0 8
6.8491 2.8719 -2.4953 0.3185 0 8
6.8018 2.9822 -2.4953 0.3185 0 8
6.7527 3.0916 -2.4953 0.3185 0 8
6.7019 3.2003 -2.4953 0.3185 0 8
6.6493 3.3081 -2.4953 0.3185 0 8
6.5950 3.4151 -2.4953 0.3185 0 8
6.5390 3.5212 -2.4953 0.3185 0 8
6.4813 3.6264 -2.4953 0.3185 0 8
6.4218 3.7306 -2.4953 0.3185 0 8
6.3607 3.8338 -2.4953 0.3185 0 8
6.2980 3.9361 -2.4953 0.3185 0 8
6.2336 4.0373 -2.4953 0.3185 0 8
6.1676 4.1375 -2.4953 0.3185 0 8
6.0999 4.2365 -2.4953 0.3185 0 8
6.0307 4.3345 -2.4953 0.3185 0 8
