ply
format ascii 1.0
element vertex 1381
property float32 x
property float32 y
property float32 z
property float32 CosAngle
property uint32 ObjIdx
property uint32 ObjTag
end_header
-10.9380 32.8615 -2.5955 0.9448 0 8
-11.5266 32.8573 -2.6094 0.9398 0 8
-12.1218 32.8529 -2.6242 0.9345 0 8
-12.7238 32.8483 -2.6399 0.9289 0 8
-13.2657 32.6773 -2.6429 0.0904 0 8
-13.8052 32.4970 -2.6460 0.0903 0 8
-14.3353 32.2918 -2.6477 0.0747 0 7
-14.8526 32.0571 -2.6477 0.0747 0 7
22.6221 19.7733 -2.5029 0.0830 0 14
22.3012 20.1345 -2.5029 0.0830 0 14
21.9746 20.4905 -2.5029 0.0830 0 14
21.6423 20.8412 -2.5029 0.0830 0 14
21.3044 21.1865 -2.5029 0.0830 0 14
20.9610 21.5263 -2.5029 0.0830 0 14
20.6122 21.8605 -2.5029 0.0830 0 14
20.2580 22.1891 -2.5029 0.0830 0 14
21.0497 23.8142 -2.6477 0.0830 0 7
20.6640 24.1496 -2.6477 0.0830 0 7
20.2730 24.4787 -2.6477 0.0830 0 7
19.8768 24.8015 -2.6477 0.0830 0 7
19.4755 25.1179 -2.6477 0.0830 0 7
19.0691 25.4278 -2.6477 0.0830 0 7
18.6578 25.7311 -2.6477 0.0830 0 7
18.2417 26.0278 -2.6477 0.0830 0 7
17.8208 26.3177 -2.6477 0.0830 0 7
17.3953 26.6008 -2.6477 0.0830 0 7
16.9654 26.8771 -2.6477 0.0830 0 7
16.5310 27.1464 -2.6477 0.0830 0 7
16.0924 27.4087 -2.6477 0.0830 0 7
15.6496 27.6639 -2.6477 0.0830 0 7
15.2028 27.9120 -2.6477 0.0830 0 7
14.7520 28.1528 -2.6477 0.0830 0 7
14.2975 28.3864 -2.6477 0.0830 0 7
13.8392 28.6126 -2.6477 0.0830 0 7
13.3773 28.8314 -2.6477 0.0830 0 7
12.9120 29.0428 -2.6477 0.0830 0 7
12.4434 29.2466 -2.6477 0.0830 0 7
11.9715 29.4429 -2.6477 0.0830 0 7
11.4966 29.6316 -2.6477 0.0830 0 7
11.0186 29.8126 -2.6477 0.0830 0 7
10.5380 29.9859 -2.6477 0.0830 0 6
10.0544 30.1515 -2.6477 0.0830 0 7
9.5683 30.3093 -2.6477 0.0830 0 7
9.0797 30.4592 -2.6477 0.0830 0 7
8.5888 30.6012 -2.6477 0.0830 0 7
8.0956 30.7354 -2.6477 0.0830 0 7
7.6004 30.8616 -2.6477 0.0830 0 7
7.1032 30.9798 -2.6477 0.0830 0 7
6.6042 31.0900 -2.6477 0.0830 0 7
6.1034 31.1922 -2.6477 0.0830 0 7
5.6011 31.2863 -2.6477 0.0830 0 7
5.0973 31.3723 -2.6477 0.0830 0 7
4.5922 31.4502 -2.6477 0.0830 0 7
4.0860 31.5200 -2.6477 0.0830 0 7
3.5786 31.5816 -2.6477 0.0830 0 7
3.0703 31.6350 -2.6477 0.0830 0 7
2.5613 31.6803 -2.6477 0.0830 0 7
2.0516 31.7174 -2.6477 0.0830 0 7
1.5413 31.7463 -2.6477 0.0830 0 7
1.0307 31.7670 -2.6477 0.0830 0 7
0.5198 31.7794 -2.6477 0.0830 0 7
0.0087 31.7837 -2.6477 0.0830 0 7
-0.5023 31.7797 -2.6477 0.0830 0 7
-1.0132 31.7675 -2.6477 0.0830 0 7
-1.5239 31.7471 -2.6477 0.0830 0 7
-2.0342 31.7185 -2.6477 0.0830 0 7
-2.5439 31.6817 -2.6477 0.0830 0 7
-3.0529 31.6367 -2.6477 0.0830 0 7
-3.5612 31.5835 -2.6477 0.0830 0 7
-4.0686 31.5222 -2.6477 0.0830 0 7
-4.5749 31.4527 -2.6477 0.0830 0 7
-5.0801 31.3751 -2.6477 0.0830 0 7
-5.5839 31.2893 -2.6477 0.0830 0 7
-6.0863 31.1955 -2.6477 0.0830 0 7
-6.5871 31.0936 -2.6477 0.0830 0 7
-7.0862 30.9837 -2.6477 0.0830 0 7
-7.5834 30.8657 -2.6477 0.0830 0 7
-8.0787 30.7398 -2.6477 0.0830 0 7
-8.5720 30.6060 -2.6477 0.0830 0 7
-9.0630 30.4642 -2.6477 0.0830 0 7
-9.5516 30.3145 -2.6477 0.0830 0 7
-10.0378 30.1570 -2.6477 0.0830 0 7
-10.5214 29.9917 -2.6477 0.0830 0 7
-11.0023 29.8187 -2.6477 0.0830 0 7
-11.4803 29.6380 -2.6477 0.0830 0 7
-11.9553 29.4495 -2.6477 0.0830 0 7
-12.4273 29.2535 -2.6477 0.0830 0 7
-12.8961 29.0499 -2.6477 0.0830 0 7
-13.3615 28.8387 -2.6477 0.0830 0 7
21.7312 18.9947 -2.6460 0.6590 0 8
21.0462 19.0014 -2.5995 0.6708 0 8
20.3845 19.0078 -2.5552 0.6824 0 8
19.7447 19.0138 -2.5130 0.6939 0 8
19.3583 19.2511 -2.5029 0.0913 0 14
19.0462 19.5599 -2.5029 0.0913 0 14
18.7293 19.8636 -2.5029 0.0913 0 14
18.4075 20.1621 -2.5029 0.0913 0 14
18.0809 20.4555 -2.5029 0.0913 0 14
17.7496 20.7436 -2.5029 0.0913 0 14
17.4138 21.0263 -2.5029 0.0913 0 14
17.0735 21.3036 -2.5029 0.0913 0 14
16.7287 21.5754 -2.5029 0.0913 0 14
16.3797 21.8415 -2.5029 0.0913 0 14
16.0264 22.1021 -2.5029 0.0913 0 14
15.6689 22.3569 -2.5029 0.0913 0 8
16.1929 23.9136 -2.6477 0.0913 0 7
15.8063 24.1709 -2.6477 0.0913 0 7
15.4156 24.4219 -2.6477 0.0913 0 7
15.0209 24.6666 -2.6477 0.0913 0 7
14.6224 24.9049 -2.6477 0.0913 0 7
14.2200 25.1368 -2.6477 0.0913 0 7
13.8140 25.3622 -2.6477 0.0913 0 7
13.4044 25.5811 -2.6477 0.0913 0 7
12.9914 25.7933 -2.6477 0.0913 0 7
12.5750 25.9988 -2.6477 0.0913 0 7
12.1553 26.1977 -2.6477 0.0913 0 7
11.7325 26.3897 -2.6477 0.0913 0 7
11.3067 26.5750 -2.6477 0.0913 0 7
10.8779 26.7533 -2.6477 0.0913 0 7
10.4464 26.9248 -2.6477 0.0913 0 7
10.0121 27.0893 -2.6477 0.0913 0 7
9.5753 27.2467 -2.6477 0.0913 0 7
9.1359 27.3972 -2.6477 0.0913 0 7
8.6942 27.5405 -2.6477 0.0913 0 7
8.2503 27.6767 -2.6477 0.0913 0 7
7.8042 27.8058 -2.6477 0.0913 0 7
7.3561 27.9277 -2.6477 0.0913 0 7
6.9061 28.0424 -2.6477 0.0913 0 7
6.4543 28.1498 -2.6477 0.0913 0 7
6.0009 28.2499 -2.6477 0.0913 0 7
5.5459 28.3428 -2.6477 0.0913 0 7
5.0894 28.4283 -2.6477 0.0913 0 7
4.6317 28.5064 -2.6477 0.0913 0 7
4.1727 28.5772 -2.6477 0.0913 0 7
3.7127 28.6406 -2.6477 0.0913 0 7
3.2517 28.6966 -2.6477 0.0913 0 7
2.7899 28.7452 -2.6477 0.0913 0 7
2.3273 28.7863 -2.6477 0.0913 0 7
1.8642 28.8200 -2.6477 0.0913 0 7
1.4005 28.8463 -2.6477 0.0913 0 7
0.9365 28.8651 -2.6477 0.0913 0 7
0.4723 28.8764 -2.6477 0.0913 0 7
0.0079 28.8803 -2.6477 0.0913 0 7
-0.4564 28.8767 -2.6477 0.0913 0 7
-0.9207 28.8656 -2.6477 0.0913 0 7
-1.3847 28.8470 -2.6477 0.0913 0 7
-1.8483 28.8211 -2.6477 0.0913 0 7
-2.3115 28.7876 -2.6477 0.0913 0 7
-2.7741 28.7467 -2.6477 0.0913 0 7
-3.2359 28.6984 -2.6477 0.0913 0 7
-3.6969 28.6427 -2.6477 0.0913 0 7
-4.1570 28.5795 -2.6477 0.0913 0 7
-4.6160 28.5090 -2.6477 0.0913 0 7
-5.0738 28.4311 -2.6477 0.0913 0 7
-5.5303 28.3458 -2.6477 0.0913 0 7
-5.9853 28.2532 -2.6477 0.0913 0 7
-6.4388 28.1533 -2.6477 0.0913 0 7
-6.8907 28.0462 -2.6477 0.0913 0 7
-7.3407 27.9318 -2.6477 0.0913 0 7
-7.7889 27.8101 -2.6477 0.0913 0 7
-8.2351 27.6813 -2.6477 0.0913 0 7
-8.6791 27.5453 -2.6477 0.0913 0 7
-9.1209 27.4022 -2.6477 0.0913 0 7
-9.5603 27.2520 -2.6477 0.0913 0 7
-9.9972 27.0948 -2.6477 0.0913 0 7
-10.4316 26.9305 -2.6477 0.0913 0 7
-10.8632 26.7593 -2.6477 0.0913 0 7
-11.2921 26.5812 -2.6477 0.0913 0 7
-11.7180 26.3962 -2.6477 0.0913 0 7
-12.1409 26.2043 -2.6477 0.0913 0 7
19.9220 17.4132 -2.6477 0.0996 0 7
19.6394 17.7313 -2.6477 0.0996 0 7
19.3518 18.0448 -2.6477 0.0996 0 7
19.0591 18.3536 -2.6477 0.0996 0 7
18.7616 18.6577 -2.6477 0.0996 0 7
18.4591 18.9570 -2.6477 0.0996 0 7
17.9059 18.9904 -2.6118 0.7281 0 8
17.3427 18.9959 -2.5739 0.7389 0 8
16.7953 19.0010 -2.5376 0.7494 0 8
16.2674 19.0114 -2.5037 0.6037 0 8
15.9542 19.2639 -2.5029 0.0996 0 14
15.6424 19.5179 -2.5029 0.0996 0 14
15.3265 19.7669 -2.5029 0.0996 0 14
15.0067 20.0108 -2.5029 0.0996 0 14
14.6830 20.2495 -2.5029 0.0996 0 14
14.3555 20.4829 -2.5029 0.0996 0 14
14.0243 20.7111 -2.5029 0.0996 0 14
13.6895 20.9339 -2.5029 0.0996 0 14
13.3512 21.1513 -2.5029 0.0996 0 14
13.0093 21.3633 -2.5029 0.0996 0 14
12.6642 21.5697 -2.5029 0.0996 0 14
12.3157 21.7705 -2.5029 0.0996 0 14
11.9641 21.9657 -2.5029 0.0996 0 14
11.6093 22.1553 -2.5029 0.0996 0 14
11.2516 22.3391 -2.5029 0.0996 0 8
11.5209 23.8196 -2.6477 0.0996 0 7
11.1365 24.0018 -2.6477 0.0996 0 7
10.7491 24.1777 -2.6477 0.0996 0 7
10.3590 24.3474 -2.6477 0.0996 0 7
9.9661 24.5109 -2.6477 0.0996 0 7
9.5707 24.6679 -2.6477 0.0996 0 7
9.1729 24.8186 -2.6477 0.0996 0 7
8.7727 24.9629 -2.6477 0.0996 0 7
8.3701 25.1007 -2.6477 0.0996 0 7
7.9655 25.2321 -2.6477 0.0996 0 7
7.5587 25.3568 -2.6477 0.0996 0 7
7.1500 25.4751 -2.6477 0.0996 0 7
6.7395 25.5868 -2.6477 0.0996 0 7
6.3272 25.6919 -2.6477 0.0996 0 7
5.9133 25.7903 -2.6477 0.0996 0 7
5.4979 25.8820 -2.6477 0.0996 0 7
5.0810 25.9671 -2.6477 0.0996 0 7
4.6628 26.0454 -2.6477 0.0996 0 7
4.2435 26.1170 -2.6477 0.0996 0 7
3.8230 26.1819 -2.6477 0.0996 0 7
3.4015 26.2400 -2.6477 0.0996 0 7
2.9792 26.2913 -2.6477 0.0996 0 7
2.5560 26.3358 -2.6477 0.0996 0 7
2.1322 26.3735 -2.6477 0.0996 0 7
1.7079 26.4043 -2.6477 0.0996 0 7
1.2831 26.4284 -2.6477 0.0996 0 7
0.8580 26.4456 -2.6477 0.0996 0 7
0.4327 26.4560 -2.6477 0.0996 0 7
0.0073 26.4595 -2.6477 0.0996 0 6
-0.4182 26.4562 -2.6477 0.0996 0 6
-0.8435 26.4461 -2.6477 0.0996 0 6
-1.2686 26.4291 -2.6477 0.0996 0 6
-1.6934 26.4053 -2.6477 0.0996 0 6
-2.1179 26.3746 -2.6477 0.0996 0 7
-2.5415 26.3372 -2.6477 0.0996 0 7
-2.9647 26.2929 -2.6477 0.0996 0 7
-3.3871 26.2418 -2.6477 0.0996 0 7
-3.8086 26.1840 -2.6477 0.0996 0 7
-4.2291 26.1194 -2.6477 0.0996 0 7
-4.6485 26.0480 -2.6477 0.0996 0 7
-5.0667 25.9699 -2.6477 0.0996 0 7
-5.4836 25.8850 -2.6477 0.0996 0 7
-5.8991 25.7935 -2.6477 0.0996 0 7
-6.3131 25.6953 -2.6477 0.0996 0 7
-6.7254 25.5905 -2.6477 0.0996 0 7
-7.1360 25.4791 -2.6477 0.0996 0 7
-7.5448 25.3610 -2.6477 0.0996 0 7
-7.9516 25.2364 -2.6477 0.0996 0 7
-8.3563 25.1053 -2.6477 0.0996 0 7
-8.7589 24.9677 -2.6477 0.0996 0 7
-9.1592 24.8237 -2.6477 0.0996 0 7
-9.5572 24.6732 -2.6477 0.0996 0 7
-9.9527 24.5163 -2.6477 0.0996 0 7
-10.3456 24.3531 -2.6477 0.0996 0 7
-10.7358 24.1836 -2.6477 0.0996 0 7
-11.1233 24.0079 -2.6477 0.0996 0 7
18.3788 16.0644 -2.6477 0.1078 0 7
18.1182 16.3579 -2.6477 0.1078 0 7
17.8528 16.6471 -2.6477 0.1078 0 7
17.5828 16.9320 -2.6477 0.1078 0 7
17.3083 17.2125 -2.6477 0.1078 0 7
17.0293 17.4886 -2.6477 0.1078 0 7
16.7459 17.7601 -2.6477 0.1078 0 7
16.4582 18.0271 -2.6477 0.1078 0 7
16.1662 18.2894 -2.6477 0.1078 0 7
15.8700 18.5470 -2.6477 0.1078 0 7
15.5698 18.7997 -2.6477 0.1078 0 7
15.2097 18.9781 -2.6380 0.7807 0 8
14.7185 18.9827 -2.6054 0.7905 0 8
14.2391 18.9872 -2.5743 0.8001 0 8
13.7708 18.9914 -2.5445 0.8094 0 8
13.3130 18.9954 -2.5160 0.8186 0 8
12.9380 19.1069 -2.5029 0.1078 0 8
12.6292 19.3124 -2.5029 0.1078 0 14
12.3170 19.5130 -2.5029 0.1078 0 14
12.0017 19.7085 -2.5029 0.1078 0 14
11.6832 19.8989 -2.5029 0.1078 0 14
11.3618 20.0842 -2.5029 0.1078 0 14
11.0373 20.2643 -2.5029 0.1078 0 14
10.7101 20.4392 -2.5029 0.1078 0 14
10.3801 20.6087 -2.5029 0.1078 0 14
10.0474 20.7730 -2.5029 0.1078 0 14
9.7121 20.9318 -2.5029 0.1078 0 14
9.3742 21.0853 -2.5029 0.1078 0 14
9.0340 21.2333 -2.5029 0.1078 0 14
8.6914 21.3758 -2.5029 0.1078 0 14
8.3466 21.5128 -2.5029 0.1078 0 14
7.9996 21.6442 -2.5029 0.1078 0 14
7.6506 21.7700 -2.5029 0.1078 0 14
7.2996 21.8902 -2.5029 0.1078 0 14
6.9466 22.0048 -2.5029 0.1078 0 14
6.5919 22.1136 -2.5029 0.1078 0 14
6.2355 22.2167 -2.5029 0.1078 0 14
5.8775 22.3141 -2.5029 0.1078 0 8
5.5179 22.4058 -2.5029 0.1078 0 8
5.4553 23.7926 -2.6477 0.1078 0 7
5.0720 23.8772 -2.6477 0.1078 0 7
4.6874 23.9557 -2.6477 0.1078 0 7
4.3017 24.0280 -2.6477 0.1078 0 7
3.9148 24.0940 -2.6477 0.1078 0 7
3.5268 24.1539 -2.6477 0.1078 0 7
3.1380 24.2075 -2.6477 0.1078 0 7
2.7484 24.2548 -2.6477 0.1078 0 7
2.3580 24.2958 -2.6477 0.1078 0 7
1.9671 24.3306 -2.6477 0.1078 0 7
1.5756 24.3591 -2.6477 0.1078 0 7
1.1838 24.3813 -2.6477 0.1078 0 7
0.7916 24.3972 -2.6477 0.1078 0 7
0.3992 24.4067 -2.6477 0.1078 0 7
0.0067 24.4100 -2.6477 0.1078 0 7
-0.3858 24.4069 -2.6477 0.1078 0 7
-0.7782 24.3976 -2.6477 0.1078 0 7
-1.1704 24.3819 -2.6477 0.1078 0 7
-1.5622 24.3600 -2.6477 0.1078 0 7
-1.9537 24.3317 -2.6477 0.1078 0 7
-2.3447 24.2971 -2.6477 0.1078 0 7
-2.7350 24.2563 -2.6477 0.1078 0 7
-3.1247 24.2092 -2.6477 0.1078 0 7
-3.5136 24.1558 -2.6477 0.1078 0 7
-3.9015 24.0962 -2.6477 0.1078 0 7
-4.2885 24.0303 -2.6477 0.1078 0 7
-4.6743 23.9583 -2.6477 0.1078 0 7
-5.0589 23.8800 -2.6477 0.1078 0 7
-5.4422 23.7956 -2.6477 0.1078 0 7
-5.8241 23.7050 -2.6477 0.1078 0 7
-5.8652 22.3174 -2.5029 0.1078 0 8
-6.2233 22.2202 -2.5029 0.1078 0 14
-6.5798 22.1172 -2.5029 0.1078 0 14
-6.9345 22.0086 -2.5029 0.1078 0 14
-7.2875 21.8942 -2.5029 0.1078 0 14
-7.6386 21.7742 -2.5029 0.1078 0 14
-7.9877 21.6486 -2.5029 0.1078 0 14
-8.3348 21.5174 -2.5029 0.1078 0 14
-8.6797 21.3806 -2.5029 0.1078 0 14
-9.0223 21.2382 -2.5029 0.1078 0 14
-9.3626 21.0904 -2.5029 0.1078 0 14
-9.7005 20.9372 -2.5029 0.1078 0 14
17.0554 14.9077 -2.6477 0.1161 0 7
16.8135 15.1800 -2.6477 0.1161 0 7
16.5673 15.4484 -2.6477 0.1161 0 7
16.3167 15.7127 -2.6477 0.1161 0 7
16.0620 15.9730 -2.6477 0.1161 0 7
15.8031 16.2293 -2.6477 0.1161 0 7
15.5401 16.4812 -2.6477 0.1161 0 7
15.2731 16.7290 -2.6477 0.1161 0 7
15.0021 16.9724 -2.6477 0.1161 0 7
14.7273 17.2114 -2.6477 0.1161 0 7
14.4486 17.4460 -2.6477 0.1161 0 7
14.1662 17.6761 -2.6477 0.1161 0 7
13.8802 17.9015 -2.6477 0.1161 0 7
13.5906 18.1224 -2.6477 0.1161 0 7
13.2974 18.3386 -2.6477 0.1161 0 7
13.0008 18.5500 -2.6477 0.1161 0 7
12.7009 18.7567 -2.6477 0.1161 0 7
12.3977 18.9584 -2.6477 0.1161 0 7
11.9755 18.9720 -2.6223 0.8456 0 8
11.5553 18.9755 -2.5968 0.8539 0 8
11.1430 18.9789 -2.5724 0.8620 0 8
10.7383 18.9821 -2.5491 0.8698 0 8
10.3406 18.9851 -2.5268 0.8775 0 8
9.9515 18.9915 -2.5061 0.7032 0 8
9.6326 19.1247 -2.5029 0.1161 0 8
9.3239 19.2771 -2.5029 0.1161 0 14
9.0127 19.4246 -2.5029 0.1161 0 14
8.6992 19.5670 -2.5029 0.1161 0 14
8.3835 19.7043 -2.5029 0.1161 0 14
8.0656 19.8365 -2.5029 0.1161 0 14
7.7456 19.9637 -2.5029 0.1161 0 14
7.4236 20.0856 -2.5029 0.1161 0 14
7.0997 20.2024 -2.5029 0.1161 0 14
6.7739 20.3139 -2.5029 0.1161 0 14
6.4464 20.4202 -2.5029 0.1161 0 14
6.1173 20.5212 -2.5029 0.1161 0 14
5.7865 20.6169 -2.5029 0.1161 0 14
5.4543 20.7073 -2.5029 0.1161 0 14
5.1206 20.7923 -2.5029 0.1161 0 14
4.7856 20.8720 -2.5029 0.1161 0 14
4.4494 20.9462 -2.5029 0.1161 0 14
4.1120 21.0151 -2.5029 0.1161 0 14
3.7736 21.0785 -2.5029 0.1161 0 14
3.4342 21.1364 -2.5029 0.1161 0 14
3.0939 21.1889 -2.5029 0.1161 0 14
2.7528 21.2359 -2.5029 0.1161 0 14
2.4110 21.2774 -2.5029 0.1161 0 14
2.0686 21.3134 -2.5029 0.1161 0 14
1.7256 21.3440 -2.5029 0.1161 0 14
1.3822 21.3689 -2.5029 0.1161 0 14
1.0384 21.3884 -2.5029 0.1161 0 14
0.6944 21.4023 -2.5029 0.1161 0 14
0.3502 21.4107 -2.5029 0.1161 0 14
0.0059 21.4136 -2.5029 0.1161 0 14
-0.3384 21.4109 -2.5029 0.1161 0 14
-0.6826 21.4027 -2.5029 0.1161 0 14
-1.0267 21.3890 -2.5029 0.1161 0 14
-1.3705 21.3697 -2.5029 0.1161 0 14
-1.7139 21.3449 -2.5029 0.1161 0 14
-2.0569 21.3146 -2.5029 0.1161 0 14
-2.3993 21.2788 -2.5029 0.1161 0 14
-2.7411 21.2374 -2.5029 0.1161 0 14
-3.0823 21.1906 -2.5029 0.1161 0 14
-3.4226 21.1383 -2.5029 0.1161 0 14
-3.7620 21.0805 -2.5029 0.1161 0 14
-4.1005 21.0173 -2.5029 0.1161 0 14
-4.4379 20.9487 -2.5029 0.1161 0 14
-4.7742 20.8746 -2.5029 0.1161 0 14
-5.1092 20.7952 -2.5029 0.1161 0 14
-5.4429 20.7103 -2.5029 0.1161 0 14
-5.7752 20.6201 -2.5029 0.1161 0 14
-6.1060 20.5246 -2.5029 0.1161 0 14
-6.4352 20.4238 -2.5029 0.1161 0 14
-6.7628 20.3177 -2.5029 0.1161 0 14
-7.0886 20.2063 -2.5029 0.1161 0 14
-7.4125 20.0897 -2.5029 0.1161 0 14
-7.7346 19.9679 -2.5029 0.1161 0 14
-8.0547 19.8410 -2.5029 0.1161 0 14
-8.3726 19.7089 -2.5029 0.1161 0 14
-8.6885 19.5717 -2.5029 0.1161 0 14
-9.0020 19.4295 -2.5029 0.1161 0 14
15.9077 13.9045 -2.6477 0.1243 0 7
15.6821 14.1585 -2.6477 0.1243 0 7
15.4524 14.4088 -2.6477 0.1243 0 7
15.2187 14.6554 -2.6477 0.1243 0 7
14.9811 14.8982 -2.6477 0.1243 0 7
14.7396 15.1371 -2.6477 0.1243 0 7
14.4943 15.3722 -2.6477 0.1243 0 7
14.2453 15.6032 -2.6477 0.1243 0 7
13.9926 15.8303 -2.6477 0.1243 0 7
13.7362 16.0532 -2.6477 0.1243 0 7
13.4763 16.2720 -2.6477 0.1243 0 7
13.2129 16.4866 -2.6477 0.1243 0 7
12.9462 16.6969 -2.6477 0.1243 0 7
12.6760 16.9029 -2.6477 0.1243 0 7
12.4026 17.1045 -2.6477 0.1243 0 7
12.1260 17.3017 -2.6477 0.1243 0 7
11.8462 17.4945 -2.6477 0.1243 0 7
11.5634 17.6827 -2.6477 0.1243 0 7
11.2776 17.8663 -2.6477 0.1243 0 7
10.9889 18.0453 -2.6477 0.1243 0 7
10.6973 18.2197 -2.6477 0.1243 0 7
10.4030 18.3893 -2.6477 0.1243 0 7
10.1059 18.5542 -2.6477 0.1243 0 7
9.8063 18.7143 -2.6477 0.1243 0 7
9.5041 18.8696 -2.6477 0.1243 0 7
9.1710 18.9610 -2.6395 0.8998 0 8
8.7988 18.9636 -2.6198 0.9065 0 8
8.4321 18.9661 -2.6011 0.9131 0 8
8.0704 18.9684 -2.5832 0.9193 0 8
7.7134 18.9705 -2.5663 0.9254 0 8
7.3610 18.9725 -2.5502 0.9312 0 8
7.0129 18.9744 -2.5350 0.9368 0 8
6.6687 18.9761 -2.5206 0.9422 0 8
6.3292 18.9802 -2.5073 0.7529 0 8
6.0126 19.0461 -2.5029 0.1243 0 8
5.7056 19.1403 -2.5029 0.1243 0 14
5.3971 19.2296 -2.5029 0.1243 0 14
5.0872 19.3138 -2.5029 0.1243 0 14
4.7760 19.3932 -2.5029 0.1243 0 14
4.4636 19.4674 -2.5029 0.1243 0 14
4.1500 19.5367 -2.5029 0.1243 0 14
3.8353 19.6009 -2.5029 0.1243 0 14
3.5197 19.6600 -2.5029 0.1243 0 14
3.2031 19.7141 -2.5029 0.1243 0 14
2.8857 19.7630 -2.5029 0.1243 0 14
2.5676 19.8069 -2.5029 0.1243 0 14
2.2488 19.8456 -2.5029 0.1243 0 14
1.9294 19.8792 -2.5029 0.1243 0 14
1.6095 19.9076 -2.5029 0.1243 0 14
1.2892 19.9310 -2.5029 0.1243 0 14
0.9686 19.9491 -2.5029 0.1243 0 14
0.6477 19.9621 -2.5029 0.1243 0 14
0.3266 19.9699 -2.5029 0.1243 0 14
0.0055 19.9726 -2.5029 0.1243 0 14
-0.3156 19.9701 -2.5029 0.1243 0 14
-0.6367 19.9624 -2.5029 0.1243 0 14
-0.9576 19.9496 -2.5029 0.1243 0 14
-1.2782 19.9317 -2.5029 0.1243 0 14
-1.5985 19.9085 -2.5029 0.1243 0 14
-1.9184 19.8802 -2.5029 0.1243 0 14
-2.2379 19.8468 -2.5029 0.1243 0 14
-2.5567 19.8083 -2.5029 0.1243 0 14
-2.8748 19.7646 -2.5029 0.1243 0 14
-3.1923 19.7158 -2.5029 0.1243 0 14
-3.5089 19.6620 -2.5029 0.1243 0 14
-3.8245 19.6030 -2.5029 0.1243 0 14
-4.1392 19.5390 -2.5029 0.1243 0 14
-4.4529 19.4699 -2.5029 0.1243 0 14
-4.7654 19.3958 -2.5029 0.1243 0 14
-5.0766 19.3166 -2.5029 0.1243 0 14
-5.3865 19.2325 -2.5029 0.1243 0 14
-5.6951 19.1434 -2.5029 0.1243 0 14
-6.0021 19.0494 -2.5029 0.1243 0 8
-6.3077 18.9504 -2.5029 0.1243 0 8
-6.6444 18.9400 -2.5153 0.9442 0 8
-6.9870 18.9365 -2.5294 0.9389 0 8
-7.3336 18.9328 -2.5444 0.9334 0 8
-7.6844 18.9289 -2.5601 0.9277 0 8
-8.0395 18.9248 -2.5767 0.9217 0 8
-8.3994 18.9206 -2.5942 0.9155 0 8
-8.7642 18.9161 -2.6126 0.9090 0 8
14.9027 13.0261 -2.6477 0.1326 0 7
14.6914 13.2640 -2.6477 0.1326 0 7
14.4762 13.4985 -2.6477 0.1326 0 7
14.2573 13.7295 -2.6477 0.1326 0 7
14.0347 13.9570 -2.6477 0.1326 0 7
13.8085 14.1809 -2.6477 0.1326 0 7
13.5787 14.4010 -2.6477 0.1326 0 7
13.3454 14.6175 -2.6477 0.1326 0 7
13.1086 14.8302 -2.6477 0.1326 0 7
12.8684 15.0390 -2.6477 0.1326 0 7
12.6250 15.2440 -2.6477 0.1326 0 7
12.3782 15.4450 -2.6477 0.1326 0 7
12.1283 15.6421 -2.6477 0.1326 0 7
11.8752 15.8351 -2.6477 0.1326 0 7
11.6191 16.0239 -2.6477 0.1326 0 7
11.3599 16.2087 -2.6477 0.1326 0 7
11.0978 16.3893 -2.6477 0.1326 0 7
10.8329 16.5656 -2.6477 0.1326 0 7
10.5651 16.7376 -2.6477 0.1326 0 7
10.2946 16.9053 -2.6477 0.1326 0 7
10.0215 17.0687 -2.6477 0.1326 0 7
9.7457 17.2276 -2.6477 0.1326 0 7
9.4675 17.3821 -2.6477 0.1326 0 7
9.1868 17.5321 -2.6477 0.1326 0 7
8.9037 17.6775 -2.6477 0.1326 0 7
8.6183 17.8184 -2.6477 0.1326 0 7
8.3307 17.9547 -2.6477 0.1326 0 7
8.0409 18.0863 -2.6477 0.1326 0 7
7.7491 18.2132 -2.6477 0.1326 0 7
7.4552 18.3355 -2.6477 0.1326 0 7
7.1595 18.4530 -2.6477 0.1326 0 6
6.8618 18.5657 -2.6477 0.1326 0 7
6.5624 18.6736 -2.6477 0.1326 0 7
6.2613 18.7767 -2.6477 0.1326 0 7
5.9586 18.8750 -2.6477 0.1326 0 7
5.6489 18.9502 -2.6451 0.9574 0 8
5.3191 18.9515 -2.6330 0.9617 0 8
4.9921 18.9527 -2.6217 0.9659 0 8
4.6678 18.9537 -2.6111 0.9698 0 8
4.3460 18.9547 -2.6013 0.9735 0 8
4.0265 18.9555 -2.5922 0.9769 0 8
3.7092 18.9561 -2.5838 0.9801 0 8
3.3938 18.9567 -2.5761 0.9830 0 8
3.0801 18.9571 -2.5691 0.9857 0 8
2.7681 18.9574 -2.5628 0.9881 0 8
2.4575 18.9576 -2.5571 0.9903 0 8
2.1482 18.9577 -2.5521 0.9922 0 8
1.8399 18.9576 -2.5478 0.9939 0 8
1.5327 18.9574 -2.5442 0.9954 0 8
1.2262 18.9571 -2.5411 0.9965 0 8
0.9204 18.9567 -2.5388 0.9975 0 8
0.6150 18.9562 -2.5370 0.9981 0 8
0.3100 18.9555 -2.5360 0.9986 0 8
0.0052 18.9548 -2.5355 0.9987 0 8
-0.2996 18.9559 -2.5360 0.9987 0 8
-0.6045 18.9542 -2.5367 0.9984 0 8
-0.9097 18.9523 -2.5381 0.9979 0 8
-1.2153 18.9505 -2.5402 0.9969 0 8
-1.5215 18.9492 -2.5429 0.9958 0 8
-1.8285 18.9477 -2.5463 0.9945 0 8
-2.1363 18.9461 -2.5504 0.9929 0 8
-2.4452 18.9443 -2.5551 0.9911 0 8
-2.7553 18.9425 -2.5605 0.9890 0 8
-3.0667 18.9405 -2.5666 0.9866 0 8
-3.3797 18.9384 -2.5733 0.9841 0 8
-3.6944 18.9361 -2.5808 0.9812 0 8
-4.0110 18.9337 -2.5889 0.9781 0 8
-4.3297 18.9312 -2.5978 0.9748 0 8
-4.6506 18.9286 -2.6073 0.9712 0 8
-4.9739 18.9257 -2.6176 0.9674 0 8
-5.2998 18.9228 -2.6286 0.9634 0 8
-5.6285 18.9197 -2.6404 0.9591 0 8
-5.9482 18.8783 -2.6477 0.1326 0 7
-6.2510 18.7802 -2.6477 0.1326 0 7
-6.5521 18.6772 -2.6477 0.1326 0 7
-6.8516 18.5695 -2.6477 0.1326 0 7
-7.1493 18.4569 -2.6477 0.1326 0 6
-7.4451 18.3396 -2.6477 0.1326 0 7
-7.7391 18.2175 -2.6477 0.1326 0 7
-8.0310 18.0907 -2.6477 0.1326 0 7
-8.3208 17.9592 -2.6477 0.1326 0 7
14.0153 12.2504 -2.6477 0.1408 0 7
13.8166 12.4742 -2.6477 0.1408 0 7
13.6142 12.6947 -2.6477 0.1408 0 7
13.4083 12.9120 -2.6477 0.1408 0 7
13.1990 13.1259 -2.6477 0.1408 0 7
12.9862 13.3364 -2.6477 0.1408 0 7
12.7701 13.5435 -2.6477 0.1408 0 7
12.5507 13.7471 -2.6477 0.1408 0 7
12.3280 13.9471 -2.6477 0.1408 0 7
12.1022 14.1435 -2.6477 0.1408 0 7
11.8732 14.3363 -2.6477 0.1408 0 7
11.6412 14.5254 -2.6477 0.1408 0 7
11.4061 14.7107 -2.6477 0.1408 0 7
11.1681 14.8922 -2.6477 0.1408 0 7
10.9272 15.0698 -2.6477 0.1408 0 7
10.6835 15.2435 -2.6477 0.1408 0 7
10.4370 15.4134 -2.6477 0.1408 0 7
10.1878 15.5792 -2.6477 0.1408 0 7
9.9360 15.7410 -2.6477 0.1408 0 7
9.6816 15.8987 -2.6477 0.1408 0 7
9.4248 16.0523 -2.6477 0.1408 0 7
9.1654 16.2018 -2.6477 0.1408 0 7
8.9037 16.3471 -2.6477 0.1408 0 7
8.6397 16.4881 -2.6477 0.1408 0 7
8.3735 16.6249 -2.6477 0.1408 0 7
8.1051 16.7574 -2.6477 0.1408 0 7
7.8346 16.8855 -2.6477 0.1408 0 7
7.5621 17.0093 -2.6477 0.1408 0 7
7.2876 17.1287 -2.6477 0.1408 0 7
7.0113 17.2437 -2.6477 0.1408 0 7
6.7331 17.3542 -2.6477 0.1408 0 7
6.4532 17.4602 -2.6477 0.1408 0 7
6.1717 17.5617 -2.6477 0.1408 0 7
5.8885 17.6587 -2.6477 0.1408 0 7
5.6038 17.7511 -2.6477 0.1408 0 7
5.3177 17.8389 -2.6477 0.1408 0 7
5.0301 17.9221 -2.6477 0.1408 0 7
4.7413 18.0006 -2.6477 0.1408 0 7
4.4513 18.0745 -2.6477 0.1408 0 7
4.1601 18.1438 -2.6477 0.1408 0 7
3.8678 18.2083 -2.6477 0.1408 0 7
3.5745 18.2682 -2.6477 0.1408 0 7
3.2804 18.3233 -2.6477 0.1408 0 7
2.9853 18.3736 -2.6477 0.1408 0 7
2.6895 18.4193 -2.6477 0.1408 0 6
2.3930 18.4601 -2.6477 0.1408 0 6
2.0959 18.4962 -2.6477 0.1408 0 6
1.7982 18.5275 -2.6477 0.1408 0 7
1.5001 18.5540 -2.6477 0.1408 0 7
1.2015 18.5758 -2.6477 0.1408 0 7
0.9027 18.5927 -2.6477 0.1408 0 7
0.6036 18.6048 -2.6477 0.1408 0 7
0.3043 18.6121 -2.6477 0.1408 0 7
0.0051 18.6146 -2.6477 0.1408 0 7
-0.2942 18.6123 -2.6477 0.1408 0 7
-0.5934 18.6051 -2.6477 0.1408 0 7
-0.8925 18.5932 -2.6477 0.1408 0 7
-1.1913 18.5764 -2.6477 0.1408 0 7
-1.4898 18.5549 -2.6477 0.1408 0 7
-1.7880 18.5285 -2.6477 0.1408 0 7
-2.0857 18.4974 -2.6477 0.1408 0 7
-2.3828 18.4614 -2.6477 0.1408 0 6
-2.6794 18.4207 -2.6477 0.1408 0 6
-2.9751 18.3753 -2.6477 0.1408 0 6
-3.2703 18.3251 -2.6477 0.1408 0 7
-3.5645 18.2701 -2.6477 0.1408 0 7
-3.8578 18.2104 -2.6477 0.1408 0 7
-4.1501 18.1461 -2.6477 0.1408 0 7
-4.4413 18.0770 -2.6477 0.1408 0 7
-4.7314 18.0032 -2.6477 0.1408 0 7
-5.0203 17.9248 -2.6477 0.1408 0 7
-5.3079 17.8418 -2.6477 0.1408 0 7
-5.5940 17.7541 -2.6477 0.1408 0 7
-5.8788 17.6619 -2.6477 0.1408 0 7
-6.1620 17.5651 -2.6477 0.1408 0 7
-6.4436 17.4637 -2.6477 0.1408 0 7
-6.7236 17.3579 -2.6477 0.1408 0 7
-7.0018 17.2475 -2.6477 0.1408 0 7
-7.2782 17.1327 -2.6477 0.1408 0 7
-7.5528 17.0135 -2.6477 0.1408 0 7
-7.8254 16.8898 -2.6477 0.1408 0 7
13.2259 11.5604 -2.6477 0.1490 0 7
13.0384 11.7716 -2.6477 0.1490 0 7
12.8474 11.9797 -2.6477 0.1490 0 7
12.6531 12.1847 -2.6477 0.1490 0 7
12.4556 12.3866 -2.6477 0.1490 0 7
12.2548 12.5853 -2.6477 0.1490 0 7
12.0509 12.7807 -2.6477 0.1490 0 7
11.8438 12.9728 -2.6477 0.1490 0 7
11.6337 13.1616 -2.6477 0.1490 0 7
11.4205 13.3469 -2.6477 0.1490 0 7
11.2045 13.5288 -2.6477 0.1490 0 7
10.9855 13.7072 -2.6477 0.1490 0 7
10.7637 13.8821 -2.6477 0.1490 0 7
10.5391 14.0534 -2.6477 0.1490 0 7
10.3117 14.2210 -2.6477 0.1490 0 7
10.0818 14.3850 -2.6477 0.1490 0 7
9.8492 14.5452 -2.6477 0.1490 0 7
9.6140 14.7017 -2.6477 0.1490 0 7
9.3764 14.8544 -2.6477 0.1490 0 7
9.1363 15.0032 -2.6477 0.1490 0 7
8.8939 15.1482 -2.6477 0.1490 0 7
8.6492 15.2892 -2.6477 0.1490 0 7
8.4022 15.4263 -2.6477 0.1490 0 7
8.1531 15.5594 -2.6477 0.1490 0 7
7.9019 15.6885 -2.6477 0.1490 0 7
7.6486 15.8135 -2.6477 0.1490 0 7
7.3934 15.9345 -2.6477 0.1490 0 7
7.1362 16.0513 -2.6477 0.1490 0 7
6.8772 16.1640 -2.6477 0.1490 0 7
6.6164 16.2725 -2.6477 0.1490 0 7
6.3539 16.3767 -2.6477 0.1490 0 7
6.0898 16.4768 -2.6477 0.1490 0 7
5.8241 16.5726 -2.6477 0.1490 0 7
5.5568 16.6641 -2.6477 0.1490 0 7
5.2882 16.7513 -2.6477 0.1490 0 7
5.0182 16.8341 -2.6477 0.1490 0 7
4.7468 16.9126 -2.6477 0.1490 0 7
4.4743 16.9868 -2.6477 0.1490 0 7
4.2006 17.0565 -2.6477 0.1490 0 7
3.9258 17.1218 -2.6477 0.1490 0 7
3.6500 17.1828 -2.6477 0.1490 0 7
3.3732 17.2392 -2.6477 0.1490 0 7
3.0956 17.2912 -2.6477 0.1490 0 7
2.8172 17.3388 -2.6477 0.1490 0 7
2.5380 17.3818 -2.6477 0.1490 0 7
2.2582 17.4204 -2.6477 0.1490 0 7
1.9778 17.4544 -2.6477 0.1490 0 7
1.6969 17.4840 -2.6477 0.1490 0 7
1.4156 17.5090 -2.6477 0.1490 0 7
1.1339 17.5295 -2.6477 0.1490 0 7
0.8519 17.5455 -2.6477 0.1490 0 7
0.5696 17.5569 -2.6477 0.1490 0 7
0.2873 17.5638 -2.6477 0.1490 0 7
0.0048 17.5661 -2.6477 0.1490 0 7
-0.2776 17.5639 -2.6477 0.1490 0 7
-0.5600 17.5572 -2.6477 0.1490 0 7
-0.8422 17.5459 -2.6477 0.1490 0 7
-1.1242 17.5301 -2.6477 0.1490 0 7
-1.4059 17.5098 -2.6477 0.1490 0 7
-1.6873 17.4849 -2.6477 0.1490 0 7
-1.9682 17.4555 -2.6477 0.1490 0 7
-2.2486 17.4216 -2.6477 0.1490 0 7
-2.5285 17.3832 -2.6477 0.1490 0 7
-2.8076 17.3403 -2.6477 0.1490 0 7
-3.0861 17.2929 -2.6477 0.1490 0 7
-3.3637 17.2411 -2.6477 0.1490 0 7
-3.6405 17.1848 -2.6477 0.1490 0 7
-3.9164 17.1240 -2.6477 0.1490 0 7
-4.1912 17.0588 -2.6477 0.1490 0 7
-4.4649 16.9892 -2.6477 0.1490 0 7
-4.7375 16.9152 -2.6477 0.1490 0 7
-5.0089 16.8369 -2.6477 0.1490 0 7
-5.2790 16.7542 -2.6477 0.1490 0 7
-5.5477 16.6671 -2.6477 0.1490 0 7
-5.8149 16.5758 -2.6477 0.1490 0 7
-6.0807 16.4801 -2.6477 0.1490 0 7
-6.3449 16.3802 -2.6477 0.1490 0 7
-6.6075 16.2761 -2.6477 0.1490 0 7
-6.8683 16.1677 -2.6477 0.1490 0 7
-7.1274 16.0552 -2.6477 0.1490 0 7
-7.3846 15.9385 -2.6477 0.1490 0 7
12.5191 10.9426 -2.6477 0.1573 0 7
12.3415 11.1425 -2.6477 0.1573 0 7
12.1607 11.3394 -2.6477 0.1573 0 7
11.9769 11.5335 -2.6477 0.1573 0 7
11.7899 11.7246 -2.6477 0.1573 0 7
11.5998 11.9126 -2.6477 0.1573 0 7
11.4068 12.0976 -2.6477 0.1573 0 7
11.2108 12.2795 -2.6477 0.1573 0 7
11.0119 12.4581 -2.6477 0.1573 0 7
10.8102 12.6336 -2.6477 0.1573 0 7
10.6056 12.8058 -2.6477 0.1573 0 7
10.3983 12.9746 -2.6477 0.1573 0 7
10.1884 13.1402 -2.6477 0.1573 0 7
9.9758 13.3023 -2.6477 0.1573 0 7
9.7606 13.4609 -2.6477 0.1573 0 7
9.5429 13.6161 -2.6477 0.1573 0 7
9.3228 13.7678 -2.6477 0.1573 0 7
9.1002 13.9159 -2.6477 0.1573 0 7
8.8753 14.0605 -2.6477 0.1573 0 7
8.6480 14.2013 -2.6477 0.1573 0 7
8.4186 14.3386 -2.6477 0.1573 0 7
8.1869 14.4721 -2.6477 0.1573 0 7
7.9532 14.6018 -2.6477 0.1573 0 7
7.7174 14.7278 -2.6477 0.1573 0 7
7.4796 14.8500 -2.6477 0.1573 0 7
7.2398 14.9684 -2.6477 0.1573 0 6
6.9982 15.0828 -2.6477 0.1573 0 7
6.7548 15.1934 -2.6477 0.1573 0 7
6.5096 15.3000 -2.6477 0.1573 0 7
6.2628 15.4027 -2.6477 0.1573 0 7
6.0143 15.5014 -2.6477 0.1573 0 7
5.7643 15.5961 -2.6477 0.1573 0 7
5.5128 15.6868 -2.6477 0.1573 0 7
5.2598 15.7734 -2.6477 0.1573 0 7
5.0055 15.8560 -2.6477 0.1573 0 7
4.7499 15.9344 -2.6477 0.1573 0 7
4.4931 16.0087 -2.6477 0.1573 0 7
4.2351 16.0789 -2.6477 0.1573 0 7
3.9761 16.1449 -2.6477 0.1573 0 7
3.7160 16.2067 -2.6477 0.1573 0 7
3.4549 16.2644 -2.6477 0.1573 0 7
3.1929 16.3178 -2.6477 0.1573 0 7
2.9302 16.3671 -2.6477 0.1573 0 7
2.6666 16.4121 -2.6477 0.1573 0 7
2.4024 16.4528 -2.6477 0.1573 0 7
2.1375 16.4893 -2.6477 0.1573 0 7
1.8721 16.5216 -2.6477 0.1573 0 7
1.6062 16.5495 -2.6477 0.1573 0 7
1.3399 16.5732 -2.6477 0.1573 0 7
1.0733 16.5926 -2.6477 0.1573 0 7
0.8063 16.6077 -2.6477 0.1573 0 7
0.5392 16.6185 -2.6477 0.1573 0 7
0.2719 16.6251 -2.6477 0.1573 0 7
0.0046 16.6273 -2.6477 0.1573 0 7
-0.2628 16.6252 -2.6477 0.1573 0 7
-0.5301 16.6188 -2.6477 0.1573 0 7
-0.7972 16.6082 -2.6477 0.1573 0 7
-1.0641 16.5932 -2.6477 0.1573 0 7
-1.3308 16.5739 -2.6477 0.1573 0 7
-1.5971 16.5504 -2.6477 0.1573 0 7
-1.8630 16.5226 -2.6477 0.1573 0 7
-2.1284 16.4905 -2.6477 0.1573 0 7
-2.3933 16.4541 -2.6477 0.1573 0 7
-2.6576 16.4135 -2.6477 0.1573 0 7
-2.9211 16.3687 -2.6477 0.1573 0 7
-3.1840 16.3196 -2.6477 0.1573 0 7
-3.4459 16.2663 -2.6477 0.1573 0 7
-3.7070 16.2088 -2.6477 0.1573 0 7
-3.9672 16.1471 -2.6477 0.1573 0 7
-4.2263 16.0812 -2.6477 0.1573 0 7
-4.4843 16.0112 -2.6477 0.1573 0 7
-4.7412 15.9370 -2.6477 0.1573 0 7
-4.9968 15.8587 -2.6477 0.1573 0 7
-5.2512 15.7763 -2.6477 0.1573 0 7
-5.5041 15.6898 -2.6477 0.1573 0 7
-5.7557 15.5993 -2.6477 0.1573 0 7
-6.0058 15.5048 -2.6477 0.1573 0 7
-6.2543 15.4062 -2.6477 0.1573 0 7
-6.5012 15.3036 -2.6477 0.1573 0 7
-6.7464 15.1971 -2.6477 0.1573 0 7
-6.9899 15.0867 -2.6477 0.1573 0 7
11.8823 10.3860 -2.6477 0.1655 0 7
11.7138 10.5757 -2.6477 0.1655 0 7
11.5422 10.7627 -2.6477 0.1655 0 7
11.3677 10.9469 -2.6477 0.1655 0 7
11.1902 11.1282 -2.6477 0.1655 0 7
11.0098 11.3067 -2.6477 0.1655 0 7
10.8266 11.4823 -2.6477 0.1655 0 6
10.6406 11.6549 -2.6477 0.1655 0 7
10.4518 11.8245 -2.6477 0.1655 0 7
10.2603 11.9910 -2.6477 0.1655 0 7
10.0662 12.1544 -2.6477 0.1655 0 7
9.8695 12.3147 -2.6477 0.1655 0 7
9.6702 12.4718 -2.6477 0.1655 0 7
9.4684 12.6257 -2.6477 0.1655 0 7
9.2642 12.7763 -2.6477 0.1655 0 7
9.0575 12.9236 -2.6477 0.1655 0 7
8.8486 13.0675 -2.6477 0.1655 0 7
8.6373 13.2081 -2.6477 0.1655 0 7
8.4238 13.3453 -2.6477 0.1655 0 7
8.2082 13.4790 -2.6477 0.1655 0 7
7.9904 13.6093 -2.6477 0.1655 0 7
7.7705 13.7360 -2.6477 0.1655 0 7
7.5487 13.8591 -2.6477 0.1655 0 7
7.3248 13.9787 -2.6477 0.1655 0 7
7.0991 14.0947 -2.6477 0.1655 0 7
6.8716 14.2070 -2.6477 0.1655 0 7
6.6423 14.3157 -2.6477 0.1655 0 7
6.4112 14.4206 -2.6477 0.1655 0 7
6.1785 14.5218 -2.6477 0.1655 0 7
5.9442 14.6193 -2.6477 0.1655 0 7
5.7084 14.7130 -2.6477 0.1655 0 7
5.4711 14.8029 -2.6477 0.1655 0 7
5.2324 14.8889 -2.6477 0.1655 0 7
4.9923 14.9711 -2.6477 0.1655 0 7
4.7509 15.0495 -2.6477 0.1655 0 7
4.5083 15.1239 -2.6477 0.1655 0 7
4.2646 15.1945 -2.6477 0.1655 0 7
4.0197 15.2610 -2.6477 0.1655 0 7
3.7738 15.3237 -2.6477 0.1655 0 7
3.5270 15.3824 -2.6477 0.1655 0 7
3.2792 15.4371 -2.6477 0.1655 0 7
3.0305 15.4879 -2.6477 0.1655 0 7
2.7811 15.5346 -2.6477 0.1655 0 7
2.5310 15.5773 -2.6477 0.1655 0 7
2.2802 15.6160 -2.6477 0.1655 0 7
2.0288 15.6506 -2.6477 0.1655 0 7
1.7769 15.6812 -2.6477 0.1655 0 7
1.5245 15.7078 -2.6477 0.1655 0 7
1.2718 15.7302 -2.6477 0.1655 0 7
1.0187 15.7487 -2.6477 0.1655 0 7
0.7653 15.7630 -2.6477 0.1655 0 7
0.5118 15.7733 -2.6477 0.1655 0 7
0.2581 15.7795 -2.6477 0.1655 0 7
0.0043 15.7816 -2.6477 0.1655 0 7
-0.2494 15.7796 -2.6477 0.1655 0 7
-0.5031 15.7736 -2.6477 0.1655 0 7
-0.7567 15.7634 -2.6477 0.1655 0 7
-1.0100 15.7492 -2.6477 0.1655 0 7
-1.2631 15.7309 -2.6477 0.1655 0 7
-1.5159 15.7086 -2.6477 0.1655 0 7
-1.7683 15.6822 -2.6477 0.1655 0 7
-2.0202 15.6517 -2.6477 0.1655 0 7
-2.2716 15.6172 -2.6477 0.1655 0 7
-2.5224 15.5787 -2.6477 0.1655 0 7
-2.7726 15.5361 -2.6477 0.1655 0 7
-3.0220 15.4895 -2.6477 0.1655 0 7
-3.2707 15.4389 -2.6477 0.1655 0 7
-3.5185 15.3843 -2.6477 0.1655 0 7
-3.7654 15.3258 -2.6477 0.1655 0 7
-4.0113 15.2633 -2.6477 0.1655 0 7
-4.2562 15.1968 -2.6477 0.1655 0 7
-4.5000 15.1264 -2.6477 0.1655 0 7
-4.7427 15.0521 -2.6477 0.1655 0 7
-4.9841 14.9739 -2.6477 0.1655 0 7
-5.2242 14.8918 -2.6477 0.1655 0 7
-5.4630 14.8059 -2.6477 0.1655 0 7
-5.7003 14.7161 -2.6477 0.1655 0 7
-5.9362 14.6226 -2.6477 0.1655 0 7
-6.1705 14.5252 -2.6477 0.1655 0 7
-6.4033 14.4241 -2.6477 0.1655 0 7
-6.6344 14.3193 -2.6477 0.1655 0 7
11.3057 9.8820 -2.6477 0.1736 0 7
11.1453 10.0625 -2.6477 0.1736 0 7
10.9821 10.2404 -2.6477 0.1736 0 7
10.8160 10.4156 -2.6477 0.1736 0 7
10.6471 10.5882 -2.6477 0.1736 0 7
10.4755 10.7580 -2.6477 0.1736 0 7
10.3012 10.9251 -2.6477 0.1736 0 7
10.1242 11.0893 -2.6477 0.1736 0 7
9.9446 11.2506 -2.6477 0.1736 0 7
9.7624 11.4091 -2.6477 0.1736 0 6
9.5777 11.5646 -2.6477 0.1736 0 7
9.3905 11.7171 -2.6477 0.1736 0 7
9.2009 11.8665 -2.6477 0.1736 0 7
9.0089 12.0129 -2.6477 0.1736 0 7
8.8146 12.1562 -2.6477 0.1736 0 7
8.6180 12.2964 -2.6477 0.1736 0 7
8.4191 12.4334 -2.6477 0.1736 0 7
8.2181 12.5671 -2.6477 0.1736 0 7
8.0150 12.6977 -2.6477 0.1736 0 7
7.8098 12.8249 -2.6477 0.1736 0 7
7.6026 12.9488 -2.6477 0.1736 0 7
7.3934 13.0694 -2.6477 0.1736 0 7
7.1823 13.1866 -2.6477 0.1736 0 7
6.9694 13.3003 -2.6477 0.1736 0 7
6.7546 13.4107 -2.6477 0.1736 0 7
6.5381 13.5176 -2.6477 0.1736 0 7
6.3199 13.6209 -2.6477 0.1736 0 7
6.1001 13.7208 -2.6477 0.1736 0 7
5.8787 13.8171 -2.6477 0.1736 0 7
5.6558 13.9098 -2.6477 0.1736 0 7
5.4314 13.9990 -2.6477 0.1736 0 7
5.2056 14.0845 -2.6477 0.1736 0 7
4.9784 14.1664 -2.6477 0.1736 0 7
4.7500 14.2446 -2.6477 0.1736 0 7
4.5204 14.3191 -2.6477 0.1736 0 7
4.2896 14.3900 -2.6477 0.1736 0 7
4.0576 14.4571 -2.6477 0.1736 0 7
3.8247 14.5204 -2.6477 0.1736 0 7
3.5907 14.5801 -2.6477 0.1736 0 7
3.3558 14.6359 -2.6477 0.1736 0 7
3.1200 14.6880 -2.6477 0.1736 0 7
2.8835 14.7362 -2.6477 0.1736 0 7
2.6461 14.7807 -2.6477 0.1736 0 7
2.4081 14.8213 -2.6477 0.1736 0 7
2.1695 14.8581 -2.6477 0.1736 0 7
1.9303 14.8911 -2.6477 0.1736 0 7
1.6907 14.9202 -2.6477 0.1736 0 7
1.4505 14.9455 -2.6477 0.1736 0 7
1.2100 14.9669 -2.6477 0.1736 0 7
0.9692 14.9844 -2.6477 0.1736 0 7
0.7282 14.9980 -2.6477 0.1736 0 7
0.4869 15.0078 -2.6477 0.1736 0 7
0.2456 15.0137 -2.6477 0.1736 0 7
0.0041 15.0157 -2.6477 0.1736 0 7
-0.2373 15.0138 -2.6477 0.1736 0 7
-0.4787 15.0081 -2.6477 0.1736 0 7
-0.7199 14.9984 -2.6477 0.1736 0 7
-0.9610 14.9849 -2.6477 0.1736 0 6
-1.2018 14.9675 -2.6477 0.1736 0 6
-1.4423 14.9462 -2.6477 0.1736 0 6
-1.6825 14.9211 -2.6477 0.1736 0 6
-1.9221 14.8922 -2.6477 0.1736 0 7
-2.1614 14.8593 -2.6477 0.1736 0 7
-2.4000 14.8227 -2.6477 0.1736 0 7
-2.6380 14.7821 -2.6477 0.1736 0 7
-2.8754 14.7378 -2.6477 0.1736 0 7
-3.1119 14.6897 -2.6477 0.1736 0 7
-3.3477 14.6377 -2.6477 0.1736 0 7
-3.5827 14.5820 -2.6477 0.1736 0 7
-3.8167 14.5225 -2.6477 0.1736 0 7
-4.0497 14.4593 -2.6477 0.1736 0 7
-4.2816 14.3923 -2.6477 0.1736 0 7
-4.5125 14.3216 -2.6477 0.1736 0 7
-4.7422 14.2472 -2.6477 0.1736 0 7
-4.9707 14.1691 -2.6477 0.1736 0 7
-5.1978 14.0874 -2.6477 0.1736 0 7
-5.4237 14.0020 -2.6477 0.1736 0 7
-5.6481 13.9129 -2.6477 0.1736 0 7
-5.8711 13.8203 -2.6477 0.1736 0 7
-6.0925 13.7241 -2.6477 0.1736 0 7
-6.3124 13.6244 -2.6477 0.1736 0 7
10.7809 9.4233 -2.6477 0.1818 0 7
10.6280 9.5954 -2.6477 0.1818 0 7
10.4724 9.7651 -2.6477 0.1818 0 7
10.3140 9.9322 -2.6477 0.1818 0 7
10.1530 10.0968 -2.6477 0.1818 0 7
9.9893 10.2587 -2.6477 0.1818 0 7
9.8231 10.4180 -2.6477 0.1818 0 7
9.6543 10.5746 -2.6477 0.1818 0 7
9.4830 10.7284 -2.6477 0.1818 0 7
9.3093 10.8795 -2.6477 0.1818 0 7
9.1331 11.0278 -2.6477 0.1818 0 7
8.9547 11.1732 -2.6477 0.1818 0 7
8.7738 11.3158 -2.6477 0.1818 0 7
8.5908 11.4554 -2.6477 0.1818 0 6
8.4055 11.5920 -2.6477 0.1818 0 7
8.2180 11.7257 -2.6477 0.1818 0 7
8.0284 11.8563 -2.6477 0.1818 0 7
7.8367 11.9839 -2.6477 0.1818 0 7
7.6430 12.1083 -2.6477 0.1818 0 7
7.4473 12.2296 -2.6477 0.1818 0 7
7.2497 12.3478 -2.6477 0.1818 0 7
7.0503 12.4628 -2.6477 0.1818 0 7
6.8490 12.5745 -2.6477 0.1818 0 7
6.6459 12.6830 -2.6477 0.1818 0 7
6.4411 12.7882 -2.6477 0.1818 0 7
6.2346 12.8902 -2.6477 0.1818 0 7
6.0266 12.9887 -2.6477 0.1818 0 7
5.8170 13.0840 -2.6477 0.1818 0 7
5.6058 13.1758 -2.6477 0.1818 0 7
5.3933 13.2642 -2.6477 0.1818 0 7
5.1793 13.3492 -2.6477 0.1818 0 7
4.9640 13.4308 -2.6477 0.1818 0 7
4.7474 13.5089 -2.6477 0.1818 0 7
4.5296 13.5834 -2.6477 0.1818 0 7
4.3106 13.6545 -2.6477 0.1818 0 7
4.0905 13.7221 -2.6477 0.1818 0 7
3.8693 13.7861 -2.6477 0.1818 0 7
3.6471 13.8465 -2.6477 0.1818 0 7
3.4240 13.9033 -2.6477 0.1818 0 7
3.2000 13.9566 -2.6477 0.1818 0 7
2.9752 14.0063 -2.6477 0.1818 0 7
2.7496 14.0523 -2.6477 0.1818 0 7
2.5233 14.0947 -2.6477 0.1818 0 7
2.2964 14.1334 -2.6477 0.1818 0 7
2.0688 14.1685 -2.6477 0.1818 0 7
1.8407 14.2000 -2.6477 0.1818 0 7
1.6122 14.2277 -2.6477 0.1818 0 7
1.3832 14.2518 -2.6477 0.1818 0 7
1.1539 14.2722 -2.6477 0.1818 0 7
0.9243 14.2889 -2.6477 0.1818 0 7
0.6944 14.3019 -2.6477 0.1818 0 7
0.4643 14.3112 -2.6477 0.1818 0 7
0.2342 14.3168 -2.6477 0.1818 0 7
0.0039 14.3188 -2.6477 0.1818 0 7
-0.2263 14.3170 -2.6477 0.1818 0 7
-0.4565 14.3115 -2.6477 0.1818 0 7
-0.6865 14.3023 -2.6477 0.1818 0 7
-0.9164 14.2894 -2.6477 0.1818 0 7
-1.1460 14.2728 -2.6477 0.1818 0 7
-1.3754 14.2526 -2.6477 0.1818 0 7
-1.6044 14.2286 -2.6477 0.1818 0 7
-1.8329 14.2010 -2.6477 0.1818 0 7
-2.0610 14.1697 -2.6477 0.1818 0 7
-2.2886 14.1347 -2.6477 0.1818 0 7
-2.5156 14.0961 -2.6477 0.1818 0 7
-2.7419 14.0538 -2.6477 0.1818 0 7
-2.9675 14.0079 -2.6477 0.1818 0 7
-3.1924 13.9584 -2.6477 0.1818 0 7
-3.4164 13.9052 -2.6477 0.1818 0 7
-3.6395 13.8485 -2.6477 0.1818 0 7
-3.8617 13.7882 -2.6477 0.1818 0 7
-4.0829 13.7243 -2.6477 0.1818 0 7
-4.3031 13.6569 -2.6477 0.1818 0 7
-4.5221 13.5859 -2.6477 0.1818 0 7
-4.7400 13.5115 -2.6477 0.1818 0 7
-4.9566 13.4335 -2.6477 0.1818 0 7
-5.1719 13.3521 -2.6477 0.1818 0 7
-5.3860 13.2672 -2.6477 0.1818 0 7
-5.5986 13.1789 -2.6477 0.1818 0 7
-5.8098 13.0872 -2.6477 0.1818 0 7
-6.0194 12.9920 -2.6477 0.1818 0 7
10.3013 9.0041 -2.6477 0.1900 0 7
10.1552 9.1686 -2.6477 0.1900 0 7
10.0065 9.3307 -2.6477 0.1900 0 7
9.8552 9.4904 -2.6477 0.1900 0 7
9.7013 9.6476 -2.6477 0.1900 0 7
9.5449 9.8023 -2.6477 0.1900 0 7
9.3861 9.9545 -2.6477 0.1900 0 7
9.2248 10.1042 -2.6477 0.1900 0 7
9.0612 10.2512 -2.6477 0.1900 0 7
8.8952 10.3956 -2.6477 0.1900 0 7
8.7269 10.5372 -2.6477 0.1900 0 7
8.5563 10.6762 -2.6477 0.1900 0 7
8.3835 10.8124 -2.6477 0.1900 0 7
8.2086 10.9458 -2.6477 0.1900 0 7
8.0315 11.0764 -2.6477 0.1900 0 7
7.8524 11.2041 -2.6477 0.1900 0 7
7.6712 11.3289 -2.6477 0.1900 0 7
7.4881 11.4507 -2.6477 0.1900 0 6
7.3030 11.5697 -2.6477 0.1900 0 7
7.1160 11.6856 -2.6477 0.1900 0 7
6.9272 11.7985 -2.6477 0.1900 0 7
6.7366 11.9084 -2.6477 0.1900 0 7
6.5443 12.0151 -2.6477 0.1900 0 7
6.3502 12.1188 -2.6477 0.1900 0 7
6.1546 12.2194 -2.6477 0.1900 0 7
5.9573 12.3167 -2.6477 0.1900 0 7
5.7585 12.4109 -2.6477 0.1900 0 7
5.5582 12.5019 -2.6477 0.1900 0 7
5.3565 12.5897 -2.6477 0.1900 0 7
5.1533 12.6742 -2.6477 0.1900 0 7
4.9489 12.7554 -2.6477 0.1900 0 7
4.7432 12.8333 -2.6477 0.1900 0 7
4.5362 12.9079 -2.6477 0.1900 0 7
4.3281 12.9792 -2.6477 0.1900 0 7
4.1188 13.0471 -2.6477 0.1900 0 7
3.9085 13.1116 -2.6477 0.1900 0 7
3.6972 13.1728 -2.6477 0.1900 0 7
3.4849 13.2305 -2.6477 0.1900 0 7
3.2717 13.2848 -2.6477 0.1900 0 7
3.0577 13.3357 -2.6477 0.1900 0 7
2.8429 13.3832 -2.6477 0.1900 0 7
2.6273 13.4272 -2.6477 0.1900 0 7
2.4111 13.4677 -2.6477 0.1900 0 7
2.1942 13.5047 -2.6477 0.1900 0 7
1.9768 13.5382 -2.6477 0.1900 0 7
1.7589 13.5683 -2.6477 0.1900 0 7
1.5405 13.5948 -2.6477 0.1900 0 7
1.3217 13.6178 -2.6477 0.1900 0 7
1.1025 13.6373 -2.6477 0.1900 0 7
0.8831 13.6533 -2.6477 0.1900 0 7
0.6635 13.6657 -2.6477 0.1900 0 7
0.4437 13.6746 -2.6477 0.1900 0 7
0.2237 13.6800 -2.6477 0.1900 0 7
0.0038 13.6818 -2.6477 0.1900 0 7
-0.2162 13.6801 -2.6477 0.1900 0 7
-0.4362 13.6748 -2.6477 0.1900 0 7
-0.6560 13.6660 -2.6477 0.1900 0 7
-0.8756 13.6537 -2.6477 0.1900 0 7
-1.0950 13.6379 -2.6477 0.1900 0 7
-1.3142 13.6185 -2.6477 0.1900 0 7
-1.5330 13.5956 -2.6477 0.1900 0 7
-1.7514 13.5692 -2.6477 0.1900 0 7
-1.9694 13.5393 -2.6477 0.1900 0 7
-2.1868 13.5059 -2.6477 0.1900 0 7
-2.4037 13.4690 -2.6477 0.1900 0 7
-2.6199 13.4286 -2.6477 0.1900 0 7
-2.8355 13.3847 -2.6477 0.1900 0 7
-3.0504 13.3374 -2.6477 0.1900 0 7
-3.2644 13.2866 -2.6477 0.1900 0 7
-3.4776 13.2324 -2.6477 0.1900 0 7
-3.6899 13.1748 -2.6477 0.1900 0 7
-3.9013 13.1138 -2.6477 0.1900 0 7
-4.1116 13.0494 -2.6477 0.1900 0 7
-4.3209 12.9816 -2.6477 0.1900 0 7
-4.5291 12.9104 -2.6477 0.1900 0 7
-4.7361 12.8359 -2.6477 0.1900 0 7
-4.9419 12.7581 -2.6477 0.1900 0 7
-5.1464 12.6770 -2.6477 0.1900 0 7
-5.3495 12.5926 -2.6477 0.1900 0 7
-5.5513 12.5050 -2.6477 0.1900 0 7
-5.7517 12.4141 -2.6477 0.1900 0 7
9.2936 8.1233 -2.4953 0.1981 0 8
9.1618 8.2717 -2.4953 0.1981 0 8
9.0276 8.4179 -2.4953 0.1981 0 8
9.4341 9.0849 -2.6477 0.1981 0 7
9.2868 9.2354 -2.6477 0.1981 0 7
9.1371 9.3836 -2.6477 0.1981 0 7
8.9851 9.5293 -2.6477 0.1981 0 7
8.8307 9.6725 -2.6477 0.1981 0 7
8.6740 9.8132 -2.6477 0.1981 0 7
8.5151 9.9514 -2.6477 0.1981 0 7
8.3540 10.0871 -2.6477 0.1981 0 7
8.1908 10.2201 -2.6477 0.1981 0 7
8.0254 10.3505 -2.6477 0.1981 0 7
7.8579 10.4782 -2.6477 0.1981 0 7
7.6884 10.6032 -2.6477 0.1981 0 7
7.5169 10.7254 -2.6477 0.1981 0 7
7.3435 10.8449 -2.6477 0.1981 0 7
7.1682 10.9615 -2.6477 0.1981 0 7
6.9910 11.0754 -2.6477 0.1981 0 7
6.8120 11.1864 -2.6477 0.1981 0 7
6.6313 11.2944 -2.6477 0.1981 0 7
6.4488 11.3996 -2.6477 0.1981 0 6
6.2647 11.5018 -2.6477 0.1981 0 6
6.0789 11.6011 -2.6477 0.1981 0 7
5.8916 11.6973 -2.6477 0.1981 0 7
5.7028 11.7905 -2.6477 0.1981 0 7
5.5125 11.8807 -2.6477 0.1981 0 7
5.3207 11.9678 -2.6477 0.1981 0 7
5.1276 12.0518 -2.6477 0.1981 0 7
4.9332 12.1327 -2.6477 0.1981 0 7
4.7375 12.2104 -2.6477 0.1981 0 7
4.5405 12.2850 -2.6477 0.1981 0 7
4.3424 12.3565 -2.6477 0.1981 0 7
4.1432 12.4247 -2.6477 0.1981 0 7
3.9428 12.4897 -2.6477 0.1981 0 7
3.7415 12.5515 -2.6477 0.1981 0 7
3.5392 12.6100 -2.6477 0.1981 0 7
3.3360 12.6653 -2.6477 0.1981 0 7
3.1319 12.7173 -2.6477 0.1981 0 7
2.9271 12.7660 -2.6477 0.1981 0 7
2.7214 12.8114 -2.6477 0.1981 0 7
2.5151 12.8535 -2.6477 0.1981 0 7
2.3081 12.8923 -2.6477 0.1981 0 7
2.1005 12.9277 -2.6477 0.1981 0 7
1.8923 12.9598 -2.6477 0.1981 0 7
1.6837 12.9886 -2.6477 0.1981 0 7
1.4747 13.0140 -2.6477 0.1981 0 7
1.2652 13.0360 -2.6477 0.1981 0 7
1.0554 13.0547 -2.6477 0.1981 0 7
0.8454 13.0700 -2.6477 0.1981 0 7
0.6351 13.0819 -2.6477 0.1981 0 7
0.4247 13.0904 -2.6477 0.1981 0 7
0.2142 13.0955 -2.6477 0.1981 0 7
0.0036 13.0973 -2.6477 0.1981 0 7
-0.2070 13.0956 -2.6477 0.1981 0 7
-0.4175 13.0906 -2.6477 0.1981 0 7
-0.6280 13.0822 -2.6477 0.1981 0 7
-0.8382 13.0704 -2.6477 0.1981 0 7
-1.0483 13.0553 -2.6477 0.1981 0 7
-1.2580 13.0367 -2.6477 0.1981 0 7
-1.4675 13.0148 -2.6477 0.1981 0 7
-1.6766 12.9895 -2.6477 0.1981 0 7
-1.8852 12.9609 -2.6477 0.1981 0 7
-2.0934 12.9289 -2.6477 0.1981 0 7
-2.3010 12.8936 -2.6477 0.1981 0 7
-2.5080 12.8549 -2.6477 0.1981 0 7
-2.7144 12.8129 -2.6477 0.1981 0 7
-2.9200 12.7676 -2.6477 0.1981 0 7
-3.1249 12.7190 -2.6477 0.1981 0 7
-3.3290 12.6671 -2.6477 0.1981 0 7
-3.5323 12.6120 -2.6477 0.1981 0 7
-3.7346 12.5535 -2.6477 0.1981 0 7
-3.9360 12.4919 -2.6477 0.1981 0 7
-4.1363 12.4270 -2.6477 0.1981 0 7
-4.3356 12.3588 -2.6477 0.1981 0 7
-4.5338 12.2875 -2.6477 0.1981 0 7
-4.7307 12.2131 -2.6477 0.1981 0 7
-4.9265 12.1354 -2.6477 0.1981 0 7
-5.1210 12.0546 -2.6477 0.1981 0 7
-5.3141 11.9707 -2.6477 0.1981 0 7
-5.5059 11.8837 -2.6477 0.1981 0 7
8.9116 7.7894 -2.4953 0.2063 0 8
8.7852 7.9317 -2.4953 0.2063 0 8
8.6566 8.0719 -2.4953 0.2063 0 8
8.5257 8.2101 -2.4953 0.2063 0 8
8.3926 8.3461 -2.4953 0.2063 0 8
8.7616 8.9979 -2.6477 0.2063 0 7
8.6158 9.1376 -2.6477 0.2063 0 7
8.4677 9.2749 -2.6477 0.2063 0 7
8.3175 9.4099 -2.6477 0.2063 0 7
8.1651 9.5424 -2.6477 0.2063 0 7
8.0106 9.6725 -2.6477 0.2063 0 7
7.8541 9.8000 -2.6477 0.2063 0 7
7.6955 9.9250 -2.6477 0.2063 0 7
7.5349 10.0475 -2.6477 0.2063 0 7
7.3724 10.1673 -2.6477 0.2063 0 7
7.2080 10.2846 -2.6477 0.2063 0 7
7.0417 10.3991 -2.6477 0.2063 0 7
6.8736 10.5110 -2.6477 0.2063 0 7
6.7037 10.6202 -2.6477 0.2063 0 7
6.5320 10.7266 -2.6477 0.2063 0 7
6.3587 10.8302 -2.6477 0.2063 0 7
6.1838 10.9311 -2.6477 0.2063 0 7
6.0072 11.0291 -2.6477 0.2063 0 7
5.8291 11.1242 -2.6477 0.2063 0 7
5.6495 11.2165 -2.6477 0.2063 0 7
5.4684 11.3059 -2.6477 0.2063 0 7
5.2859 11.3924 -2.6477 0.2063 0 6
5.1020 11.4759 -2.6477 0.2063 0 6
4.9169 11.5564 -2.6477 0.2063 0 7
4.7304 11.6340 -2.6477 0.2063 0 7
4.5427 11.7086 -2.6477 0.2063 0 7
4.3539 11.7801 -2.6477 0.2063 0 7
4.1639 11.8486 -2.6477 0.2063 0 7
3.9729 11.9140 -2.6477 0.2063 0 7
3.7808 11.9763 -2.6477 0.2063 0 7
3.5877 12.0356 -2.6477 0.2063 0 7
3.3938 12.0917 -2.6477 0.2063 0 7
3.1989 12.1447 -2.6477 0.2063 0 7
3.0032 12.1946 -2.6477 0.2063 0 7
2.8067 12.2413 -2.6477 0.2063 0 7
2.6095 12.2848 -2.6477 0.2063 0 7
2.4117 12.3252 -2.6477 0.2063 0 7
2.2132 12.3624 -2.6477 0.2063 0 7
2.0141 12.3964 -2.6477 0.2063 0 7
1.8146 12.4272 -2.6477 0.2063 0 7
1.6145 12.4547 -2.6477 0.2063 0 7
1.4140 12.4791 -2.6477 0.2063 0 7
1.2132 12.5002 -2.6477 0.2063 0 7
1.0121 12.5181 -2.6477 0.2063 0 7
0.8107 12.5327 -2.6477 0.2063 0 7
0.6090 12.5442 -2.6477 0.2063 0 7
0.4073 12.5523 -2.6477 0.2063 0 7
0.2054 12.5573 -2.6477 0.2063 0 7
0.0035 12.5589 -2.6477 0.2063 0 7
-0.1985 12.5574 -2.6477 0.2063 0 7
-0.4004 12.5526 -2.6477 0.2063 0 7
-0.6021 12.5445 -2.6477 0.2063 0 7
-0.8038 12.5332 -2.6477 0.2063 0 7
-1.0052 12.5186 -2.6477 0.2063 0 7
-1.2063 12.5009 -2.6477 0.2063 0 7
-1.4072 12.4799 -2.6477 0.2063 0 7
-1.6077 12.4556 -2.6477 0.2063 0 7
-1.8077 12.4282 -2.6477 0.2063 0 7
-2.0073 12.3975 -2.6477 0.2063 0 7
-2.2064 12.3636 -2.6477 0.2063 0 7
-2.4049 12.3265 -2.6477 0.2063 0 7
-2.6028 12.2863 -2.6477 0.2063 0 7
-2.8000 12.2428 -2.6477 0.2063 0 7
-2.9965 12.1962 -2.6477 0.2063 0 7
-3.1922 12.1465 -2.6477 0.2063 0 7
-3.3871 12.0936 -2.6477 0.2063 0 7
-3.5811 12.0375 -2.6477 0.2063 0 7
-3.7742 11.9784 -2.6477 0.2063 0 7
-3.9663 11.9162 -2.6477 0.2063 0 7
-4.1574 11.8509 -2.6477 0.2063 0 7
-4.3474 11.7825 -2.6477 0.2063 0 7
-4.5363 11.7111 -2.6477 0.2063 0 7
-4.7240 11.6366 -2.6477 0.2063 0 7
-4.9105 11.5591 -2.6477 0.2063 0 7
-5.0957 11.4787 -2.6477 0.2063 0 6
-5.2796 11.3953 -2.6477 0.2063 0 6
8.5586 7.4808 -2.4953 0.2144 0 8
8.4372 7.6175 -2.4953 0.2144 0 8
8.3136 7.7522 -2.4953 0.2144 0 8
8.1879 7.8848 -2.4953 0.2144 0 8
8.0601 8.0155 -2.4953 0.2144 0 8
7.9302 8.1440 -2.4953 0.2144 0 8
7.7982 8.2705 -2.4953 0.2144 0 8
7.6642 8.3948 -2.4953 0.2144 0 8
7.9880 9.0371 -2.6477 0.2144 0 7
7.8417 9.1644 -2.6477 0.2144 0 7
7.6933 9.2893 -2.6477 0.2144 0 7
7.5430 9.4118 -2.6477 0.2144 0 7
7.3906 9.5319 -2.6477 0.2144 0 7
7.2364 9.6495 -2.6477 0.2144 0 7
7.0803 9.7646 -2.6477 0.2144 0 7
6.9224 9.8771 -2.6477 0.2144 0 7
6.7627 9.9872 -2.6477 0.2144 0 7
6.6013 10.0946 -2.6477 0.2144 0 7
6.4381 10.1994 -2.6477 0.2144 0 7
6.2733 10.3016 -2.6477 0.2144 0 7
6.1068 10.4012 -2.6477 0.2144 0 7
5.9388 10.4980 -2.6477 0.2144 0 7
5.7692 10.5922 -2.6477 0.2144 0 7
5.5982 10.6835 -2.6477 0.2144 0 7
5.4257 10.7722 -2.6477 0.2144 0 7
5.2518 10.8580 -2.6477 0.2144 0 7
5.0765 10.9411 -2.6477 0.2144 0 7
4.8999 11.0213 -2.6477 0.2144 0 7
4.7221 11.0986 -2.6477 0.2144 0 7
4.5430 11.1731 -2.6477 0.2144 0 7
4.3628 11.2447 -2.6477 0.2144 0 7
4.1814 11.3134 -2.6477 0.2144 0 7
3.9990 11.3792 -2.6477 0.2144 0 7
3.8155 11.4420 -2.6477 0.2144 0 6
3.6310 11.5019 -2.6477 0.2144 0 6
3.4456 11.5588 -2.6477 0.2144 0 7
3.2593 11.6127 -2.6477 0.2144 0 7
3.0722 11.6636 -2.6477 0.2144 0 7
2.8842 11.7115 -2.6477 0.2144 0 7
2.6956 11.7564 -2.6477 0.2144 0 7
2.5062 11.7982 -2.6477 0.2144 0 7
2.3161 11.8369 -2.6477 0.2144 0 7
2.1255 11.8727 -2.6477 0.2144 0 7
1.9344 11.9053 -2.6477 0.2144 0 7
1.7427 11.9349 -2.6477 0.2144 0 7
1.5506 11.9613 -2.6477 0.2144 0 7
1.3580 11.9847 -2.6477 0.2144 0 7
1.1652 12.0050 -2.6477 0.2144 0 7
0.9720 12.0222 -2.6477 0.2144 0 7
0.7785 12.0363 -2.6477 0.2144 0 7
0.5849 12.0472 -2.6477 0.2144 0 7
0.3911 12.0551 -2.6477 0.2144 0 7
0.1973 12.0598 -2.6477 0.2144 0 7
0.0033 12.0614 -2.6477 0.2144 0 7
-0.1906 12.0599 -2.6477 0.2144 0 7
-0.3845 12.0553 -2.6477 0.2144 0 7
-0.5783 12.0475 -2.6477 0.2144 0 7
-0.7719 12.0367 -2.6477 0.2144 0 7
-0.9654 12.0227 -2.6477 0.2144 0 7
-1.1585 12.0056 -2.6477 0.2144 0 7
-1.3514 11.9855 -2.6477 0.2144 0 7
-1.5440 11.9622 -2.6477 0.2144 0 7
-1.7361 11.9358 -2.6477 0.2144 0 7
-1.9278 11.9064 -2.6477 0.2144 0 7
-2.1190 11.8738 -2.6477 0.2144 0 7
-2.3096 11.8382 -2.6477 0.2144 0 7
-2.4997 11.7995 -2.6477 0.2144 0 7
-2.6891 11.7578 -2.6477 0.2144 0 7
-2.8778 11.7131 -2.6477 0.2144 0 7
-3.0658 11.6653 -2.6477 0.2144 0 7
-3.2529 11.6145 -2.6477 0.2144 0 7
-3.4393 11.5607 -2.6477 0.2144 0 7
-3.6247 11.5039 -2.6477 0.2144 0 7
-3.8092 11.4441 -2.6477 0.2144 0 6
-3.9927 11.3814 -2.6477 0.2144 0 6
-4.1752 11.3157 -2.6477 0.2144 0 7
-4.3566 11.2471 -2.6477 0.2144 0 7
