ply
format ascii 1.0
element vertex 1391
property float32 x
property float32 y
property float32 z
property float32 CosAngle
property uint32 ObjIdx
property uint32 ObjTag
end_header
-2.4544 15.5895 -2.6477 0.1655 0 7
-2.7056 15.5479 -2.6477 0.1655 0 7
-2.9560 15.5023 -2.6477 0.1655 0 7
-3.2056 15.4526 -2.6477 0.1655 0 7
-3.4544 15.3989 -2.6477 0.1655 0 7
-3.7023 15.3411 -2.6477 0.1655 0 7
-3.9493 15.2794 -2.6477 0.1655 0 7
-4.1952 15.2138 -2.6477 0.1655 0 7
-4.4400 15.1441 -2.6477 0.1655 0 7
-4.6837 15.0705 -2.6477 0.1655 0 7
-4.9262 14.9930 -2.6477 0.1655 0 7
-5.1673 14.9116 -2.6477 0.1655 0 7
-5.4072 14.8264 -2.6477 0.1655 0 7
-5.6456 14.7372 -2.6477 0.1655 0 7
-5.8825 14.6442 -2.6477 0.1655 0 7
-6.1180 14.5475 -2.6477 0.1655 0 7
-6.3518 14.4469 -2.6477 0.1655 0 7
-6.5840 14.3426 -2.6477 0.1655 0 7
-6.8144 14.2345 -2.6477 0.1655 0 7
-7.0431 14.1228 -2.6477 0.1655 0 7
-7.2700 14.0073 -2.6477 0.1655 0 7
-7.4950 13.8883 -2.6477 0.1655 0 7
-7.7180 13.7656 -2.6477 0.1655 0 7
-7.9390 13.6393 -2.6477 0.1655 0 7
-8.1580 13.5095 -2.6477 0.1655 0 7
-8.3748 13.3761 -2.6477 0.1655 0 7
-8.5894 13.2393 -2.6477 0.1655 0 7
-8.8018 13.0991 -2.6477 0.1655 0 7
-9.0120 12.9554 -2.6477 0.1655 0 7
-9.2197 12.8084 -2.6477 0.1655 0 7
-9.4251 12.6580 -2.6477 0.1655 0 7
12.4267 -6.7705 -2.4953 0.1736 0 8
12.5343 -6.5692 -2.4953 0.1736 0 8
12.6386 -6.3662 -2.4953 0.1736 0 8
12.7396 -6.1615 -2.4953 0.1736 0 8
12.8373 -5.9552 -2.4953 0.1736 0 8
12.9317 -5.7474 -2.4953 0.1736 0 8
13.0227 -5.5381 -2.4953 0.1736 0 8
13.1103 -5.3273 -2.4953 0.1736 0 8
13.1946 -5.1152 -2.4953 0.1736 0 8
13.2753 -4.9017 -2.4953 0.1736 0 8
13.3527 -4.6870 -2.4953 0.1736 0 8
13.4265 -4.4710 -2.4953 0.1736 0 8
13.4969 -4.2539 -2.4953 0.1736 0 8
13.5638 -4.0356 -2.4953 0.1736 0 8
13.6271 -3.8164 -2.4953 0.1736 0 8
13.6869 -3.5961 -2.4953 0.1736 0 8
13.7431 -3.3749 -2.4953 0.1736 0 8
13.7957 -3.1528 -2.4953 0.1736 0 8
13.8448 -2.9299 -2.4953 0.1736 0 8
13.8902 -2.7062 -2.4953 0.1736 0 8
13.9321 -2.4818 -2.4953 0.1736 0 8
13.9703 -2.2568 -2.4953 0.1736 0 8
14.0049 -2.0312 -2.4953 0.1736 0 8
14.0358 -1.8050 -2.4953 0.1736 0 8
14.0631 -1.5784 -2.4953 0.1736 0 8
8.2812 -0.7944 -1.4669 0.3408 25 10
8.0136 -0.6385 -1.4175 0.3647 25 10
7.8673 -0.4993 -1.3900 0.3579 25 10
7.8159 -0.3696 -1.3797 0.3422 25 10
7.7754 -0.2421 -1.3717 0.3524 25 10
7.7650 -0.1164 -1.3693 0.3703 25 10
7.7565 0.0088 -1.3677 0.3707 25 10
7.7664 0.1341 -1.3696 0.3702 25 10
7.7780 0.2598 -1.3722 0.3523 25 10
7.8240 0.3878 -1.3813 0.3418 25 10
7.8734 0.5176 -1.3913 0.3576 25 10
8.0413 0.6591 -1.4226 0.3634 25 10
8.4122 0.8263 -1.4904 0.0865 25 10
14.0595 1.6103 -2.4953 0.1736 0 8
14.0317 1.8369 -2.4953 0.1736 0 8
14.0002 2.0629 -2.4953 0.1736 0 8
13.9651 2.2885 -2.4953 0.1736 0 8
13.9264 2.5134 -2.4953 0.1736 0 8
13.8841 2.7377 -2.4953 0.1736 0 8
13.8381 2.9613 -2.4953 0.1736 0 8
13.7885 3.1841 -2.4953 0.1736 0 8
13.7354 3.4060 -2.4953 0.1736 0 8
13.6787 3.6271 -2.4953 0.1736 0 8
13.6184 3.8473 -2.4953 0.1736 0 8
13.5546 4.0664 -2.4953 0.1736 0 8
13.4872 4.2845 -2.4953 0.1736 0 8
13.4164 4.5015 -2.4953 0.1736 0 8
13.3420 4.7173 -2.4953 0.1736 0 8
13.2642 4.9318 -2.4953 0.1736 0 8
13.1829 5.1451 -2.4953 0.1736 0 8
13.0982 5.3571 -2.4953 0.1736 0 8
13.0101 5.5676 -2.4953 0.1736 0 8
12.9186 5.7767 -2.4953 0.1736 0 8
12.8238 5.9843 -2.4953 0.1736 0 8
12.7256 6.1904 -2.4953 0.1736 0 8
12.6241 6.3948 -2.4953 0.1736 0 8
12.5193 6.5976 -2.4953 0.1736 0 8
12.4113 6.7987 -2.4953 0.1736 0 8
12.3000 6.9980 -2.4953 0.1736 0 8
12.1855 7.1954 -2.4953 0.1736 0 8
12.0679 7.3910 -2.4953 0.1736 0 8
11.9471 7.5847 -2.4953 0.1736 0 8
11.8232 7.7764 -2.4953 0.1736 0 8
11.6963 7.9661 -2.4953 0.1736 0 8
11.5663 8.1537 -2.4953 0.1736 0 8
11.4405 8.3444 -2.4968 0.5316 0 8
11.9873 9.0430 -2.6477 0.1736 0 7
11.8399 9.2352 -2.6477 0.1736 0 7
11.6894 9.4249 -2.6477 0.1736 0 7
11.5358 9.6122 -2.6477 0.1736 0 7
11.3793 9.7970 -2.6477 0.1736 0 7
11.2198 9.9793 -2.6477 0.1736 0 7
11.0574 10.1590 -2.6477 0.1736 0 7
10.8921 10.3360 -2.6477 0.1736 0 7
10.7240 10.5103 -2.6477 0.1736 0 7
10.5531 10.6819 -2.6477 0.1736 0 7
10.3794 10.8507 -2.6477 0.1736 0 7
10.2031 11.0167 -2.6477 0.1736 0 7
10.0241 11.1798 -2.6477 0.1736 0 7
9.8425 11.3401 -2.6477 0.1736 0 7
9.6583 11.4973 -2.6477 0.1736 0 6
9.4716 11.6516 -2.6477 0.1736 0 7
9.2824 11.8029 -2.6477 0.1736 0 7
9.0909 11.9510 -2.6477 0.1736 0 7
8.8969 12.0961 -2.6477 0.1736 0 7
8.7007 12.2380 -2.6477 0.1736 0 7
8.5022 12.3768 -2.6477 0.1736 0 7
8.3015 12.5123 -2.6477 0.1736 0 7
8.0986 12.6445 -2.6477 0.1736 0 7
7.8936 12.7735 -2.6477 0.1736 0 7
7.6865 12.8992 -2.6477 0.1736 0 7
7.4775 13.0214 -2.6477 0.1736 0 7
7.2665 13.1404 -2.6477 0.1736 0 7
7.0536 13.2558 -2.6477 0.1736 0 7
6.8389 13.3679 -2.6477 0.1736 0 7
6.6224 13.4764 -2.6477 0.1736 0 7
6.4042 13.5815 -2.6477 0.1736 0 7
6.1843 13.6830 -2.6477 0.1736 0 7
5.9628 13.7810 -2.6477 0.1736 0 7
5.7398 13.8754 -2.6477 0.1736 0 7
5.5152 13.9661 -2.6477 0.1736 0 7
5.2893 14.0533 -2.6477 0.1736 0 7
5.0619 14.1368 -2.6477 0.1736 0 7
4.8333 14.2166 -2.6477 0.1736 0 7
4.6034 14.2927 -2.6477 0.1736 0 7
4.3722 14.3650 -2.6477 0.1736 0 7
4.1400 14.4337 -2.6477 0.1736 0 7
3.9067 14.4986 -2.6477 0.1736 0 7
3.6723 14.5597 -2.6477 0.1736 0 7
3.4370 14.6170 -2.6477 0.1736 0 7
3.2008 14.6706 -2.6477 0.1736 0 7
2.9638 14.7203 -2.6477 0.1736 0 7
2.7260 14.7662 -2.6477 0.1736 0 7
2.4875 14.8082 -2.6477 0.1736 0 7
2.2483 14.8464 -2.6477 0.1736 0 7
2.0086 14.8808 -2.6477 0.1736 0 7
1.7683 14.9112 -2.6477 0.1736 0 7
1.5276 14.9378 -2.6477 0.1736 0 7
1.2864 14.9605 -2.6477 0.1736 0 7
1.0450 14.9793 -2.6477 0.1736 0 7
0.8033 14.9942 -2.6477 0.1736 0 7
0.5613 15.0052 -2.6477 0.1736 0 7
0.3192 15.0123 -2.6477 0.1736 0 7
0.0771 15.0155 -2.6477 0.1736 0 7
-0.1651 15.0148 -2.6477 0.1736 0 7
-0.4073 15.0102 -2.6477 0.1736 0 7
-0.6493 15.0016 -2.6477 0.1736 0 7
-0.8912 14.9892 -2.6477 0.1736 0 6
-1.1328 14.9729 -2.6477 0.1736 0 6
-1.3741 14.9527 -2.6477 0.1736 0 6
-1.6151 14.9286 -2.6477 0.1736 0 6
-1.8557 14.9006 -2.6477 0.1736 0 7
-2.0958 14.8687 -2.6477 0.1736 0 7
-2.3353 14.8330 -2.6477 0.1736 0 7
-2.5743 14.7934 -2.6477 0.1736 0 7
-2.8125 14.7499 -2.6477 0.1736 0 7
-3.0500 14.7027 -2.6477 0.1736 0 7
-3.2868 14.6516 -2.6477 0.1736 0 7
-3.5227 14.5966 -2.6477 0.1736 0 7
-3.7576 14.5379 -2.6477 0.1736 0 7
-3.9916 14.4754 -2.6477 0.1736 0 7
-4.2246 14.4092 -2.6477 0.1736 0 7
-4.4564 14.3392 -2.6477 0.1736 0 7
-4.6871 14.2654 -2.6477 0.1736 0 7
-4.9166 14.1880 -2.6477 0.1736 0 7
-5.1447 14.1068 -2.6477 0.1736 0 7
-5.3716 14.0220 -2.6477 0.1736 0 7
-5.5970 13.9336 -2.6477 0.1736 0 7
-5.8210 13.8415 -2.6477 0.1736 0 7
-6.0435 13.7458 -2.6477 0.1736 0 7
-6.2644 13.6465 -2.6477 0.1736 0 7
-6.4837 13.5437 -2.6477 0.1736 0 7
-6.7013 13.4374 -2.6477 0.1736 0 7
-6.9172 13.3276 -2.6477 0.1736 0 7
-7.1312 13.2143 -2.6477 0.1736 0 7
-7.3434 13.0975 -2.6477 0.1736 0 7
-7.5537 12.9774 -2.6477 0.1736 0 7
-7.7621 12.8538 -2.6477 0.1736 0 7
-7.9683 12.7270 -2.6477 0.1736 0 7
-8.1726 12.5968 -2.6477 0.1736 0 7
-8.3747 12.4634 -2.6477 0.1736 0 7
-8.5746 12.3267 -2.6477 0.1736 0 7
-8.7723 12.1868 -2.6477 0.1736 0 7
-8.9677 12.0437 -2.6477 0.1736 0 7
11.8499 -6.4563 -2.4953 0.1818 0 8
11.9525 -6.2643 -2.4953 0.1818 0 8
12.0520 -6.0707 -2.4953 0.1818 0 8
12.1483 -5.8755 -2.4953 0.1818 0 8
12.2415 -5.6788 -2.4953 0.1818 0 8
12.3315 -5.4807 -2.4953 0.1818 0 8
12.4183 -5.2811 -2.4953 0.1818 0 8
12.5019 -5.0801 -2.4953 0.1818 0 8
12.5822 -4.8778 -2.4953 0.1818 0 8
12.6592 -4.6742 -2.4953 0.1818 0 8
12.7329 -4.4694 -2.4953 0.1818 0 8
12.8034 -4.2635 -2.4953 0.1818 0 8
12.8705 -4.0564 -2.4953 0.1818 0 8
12.9342 -3.8483 -2.4953 0.1818 0 8
12.9946 -3.6392 -2.4953 0.1818 0 8
13.0516 -3.4292 -2.4953 0.1818 0 8
13.1052 -3.2182 -2.4953 0.1818 0 8
13.1554 -3.0064 -2.4953 0.1818 0 8
13.2022 -2.7939 -2.4953 0.1818 0 8
13.2455 -2.5806 -2.4953 0.1818 0 8
13.2854 -2.3666 -2.4953 0.1818 0 8
13.3219 -2.1520 -2.4953 0.1818 0 8
13.3548 -1.9369 -2.4953 0.1818 0 8
13.3844 -1.7212 -2.4953 0.1818 0 8
13.4104 -1.5051 -2.4953 0.1818 0 8
8.1166 -0.7787 -1.5077 0.2668 25 10
7.8728 -0.6273 -1.4604 0.3706 25 10
7.7297 -0.4906 -1.4322 0.9131 25 10
7.6872 -0.3635 -1.4230 0.9190 25 10
7.6599 -0.2385 -1.4171 0.9860 25 10
7.6467 -0.1147 -1.4141 0.9880 25 10
7.6357 0.0087 -1.4119 0.9968 25 10
7.6486 0.1321 -1.4145 0.9878 25 10
7.6618 0.2559 -1.4175 0.9856 25 10
7.6931 0.3813 -1.4243 0.9182 25 10
7.7364 0.5086 -1.4336 0.8755 25 10
7.8995 0.6475 -1.4656 0.3693 25 10
8.1610 0.8016 -1.5163 0.2653 25 10
13.4069 1.5356 -2.4953 0.1818 0 8
13.3804 1.7516 -2.4953 0.1818 0 8
13.3504 1.9672 -2.4953 0.1818 0 8
13.3170 2.1823 -2.4953 0.1818 0 8
13.2800 2.3967 -2.4953 0.1818 0 8
13.2396 2.6106 -2.4953 0.1818 0 8
13.1958 2.8238 -2.4953 0.1818 0 8
13.1486 3.0363 -2.4953 0.1818 0 8
13.0979 3.2480 -2.4953 0.1818 0 8
13.0438 3.4588 -2.4953 0.1818 0 8
12.9863 3.6687 -2.4953 0.1818 0 8
12.9254 3.8777 -2.4953 0.1818 0 8
12.8612 4.0856 -2.4953 0.1818 0 8
12.7937 4.2925 -2.4953 0.1818 0 8
12.7228 4.4983 -2.4953 0.1818 0 8
12.6486 4.7029 -2.4953 0.1818 0 8
12.5711 4.9063 -2.4953 0.1818 0 8
12.4903 5.1084 -2.4953 0.1818 0 8
12.4063 5.3092 -2.4953 0.1818 0 8
12.3190 5.5086 -2.4953 0.1818 0 8
12.2286 5.7066 -2.4953 0.1818 0 8
12.1350 5.9031 -2.4953 0.1818 0 8
12.0382 6.0980 -2.4953 0.1818 0 8
11.9383 6.2914 -2.4953 0.1818 0 8
11.8352 6.4831 -2.4953 0.1818 0 8
11.7291 6.6732 -2.4953 0.1818 0 8
11.6200 6.8615 -2.4953 0.1818 0 8
11.5078 7.0480 -2.4953 0.1818 0 8
11.3926 7.2327 -2.4953 0.1818 0 8
11.2745 7.4155 -2.4953 0.1818 0 8
11.1534 7.5964 -2.4953 0.1818 0 8
11.0295 7.7753 -2.4953 0.1818 0 8
10.9026 7.9521 -2.4953 0.1818 0 8
10.7729 8.1269 -2.4953 0.1818 0 8
10.6405 8.2996 -2.4953 0.1818 0 8
10.5052 8.4702 -2.4953 0.1818 0 8
11.0004 9.1661 -2.6477 0.1818 0 7
10.8512 9.3423 -2.6477 0.1818 0 7
10.6991 9.5161 -2.6477 0.1818 0 7
10.5442 9.6875 -2.6477 0.1818 0 7
10.3866 9.8563 -2.6477 0.1818 0 7
10.2263 10.0225 -2.6477 0.1818 0 7
10.0633 10.1861 -2.6477 0.1818 0 7
9.8977 10.3471 -2.6477 0.1818 0 7
9.7295 10.5054 -2.6477 0.1818 0 7
9.5588 10.6609 -2.6477 0.1818 0 7
9.3856 10.8137 -2.6477 0.1818 0 7
9.2100 10.9637 -2.6477 0.1818 0 7
9.0320 11.1108 -2.6477 0.1818 0 7
8.8516 11.2550 -2.6477 0.1818 0 7
8.6689 11.3963 -2.6477 0.1818 0 7
8.4840 11.5347 -2.6477 0.1818 0 7
8.2969 11.6700 -2.6477 0.1818 0 7
8.1076 11.8023 -2.6477 0.1818 0 7
7.9162 11.9315 -2.6477 0.1818 0 7
7.7227 12.0577 -2.6477 0.1818 0 7
7.5272 12.1806 -2.6477 0.1818 0 7
7.3298 12.3005 -2.6477 0.1818 0 7
7.1304 12.4171 -2.6477 0.1818 0 7
6.9292 12.5305 -2.6477 0.1818 0 7
6.7262 12.6406 -2.6477 0.1818 0 7
6.5215 12.7474 -2.6477 0.1818 0 7
6.3150 12.8510 -2.6477 0.1818 0 7
6.1070 12.9511 -2.6477 0.1818 0 7
5.8973 13.0480 -2.6477 0.1818 0 7
5.6861 13.1414 -2.6477 0.1818 0 7
5.4734 13.2314 -2.6477 0.1818 0 7
5.2593 13.3179 -2.6477 0.1818 0 7
5.0438 13.4010 -2.6477 0.1818 0 7
4.8270 13.4806 -2.6477 0.1818 0 7
4.6089 13.5567 -2.6477 0.1818 0 7
4.3897 13.6293 -2.6477 0.1818 0 7
4.1693 13.6983 -2.6477 0.1818 0 7
3.9478 13.7638 -2.6477 0.1818 0 7
3.7253 13.8257 -2.6477 0.1818 0 7
3.5019 13.8839 -2.6477 0.1818 0 7
3.2775 13.9386 -2.6477 0.1818 0 7
3.0522 13.9897 -2.6477 0.1818 0 7
2.8262 14.0371 -2.6477 0.1818 0 7
2.5995 14.0808 -2.6477 0.1818 0 7
2.3720 14.1209 -2.6477 0.1818 0 7
2.1439 14.1573 -2.6477 0.1818 0 7
1.9153 14.1901 -2.6477 0.1818 0 7
1.6862 14.2191 -2.6477 0.1818 0 7
1.4567 14.2445 -2.6477 0.1818 0 7
1.2267 14.2661 -2.6477 0.1818 0 7
0.9965 14.2840 -2.6477 0.1818 0 7
0.7660 14.2983 -2.6477 0.1818 0 7
0.5353 14.3088 -2.6477 0.1818 0 7
0.3044 14.3155 -2.6477 0.1818 0 7
0.0735 14.3186 -2.6477 0.1818 0 7
-0.1575 14.3179 -2.6477 0.1818 0 7
-0.3884 14.3135 -2.6477 0.1818 0 7
-0.6192 14.3054 -2.6477 0.1818 0 7
-0.8498 14.2935 -2.6477 0.1818 0 7
-1.0802 14.2780 -2.6477 0.1818 0 7
-1.3104 14.2587 -2.6477 0.1818 0 7
-1.5402 14.2357 -2.6477 0.1818 0 7
-1.7696 14.2090 -2.6477 0.1818 0 7
-1.9985 14.1786 -2.6477 0.1818 0 7
-2.2269 14.1445 -2.6477 0.1818 0 7
-2.4548 14.1068 -2.6477 0.1818 0 7
-2.6820 14.0653 -2.6477 0.1818 0 7
-2.9085 14.0203 -2.6477 0.1818 0 7
-3.1342 13.9715 -2.6477 0.1818 0 7
-3.3592 13.9192 -2.6477 0.1818 0 7
-3.5832 13.8632 -2.6477 0.1818 0 7
-3.8063 13.8036 -2.6477 0.1818 0 7
-4.0285 13.7404 -2.6477 0.1818 0 7
-4.2496 13.6736 -2.6477 0.1818 0 7
-4.4695 13.6033 -2.6477 0.1818 0 7
-4.6884 13.5295 -2.6477 0.1818 0 7
-4.9060 13.4521 -2.6477 0.1818 0 7
-5.1223 13.3712 -2.6477 0.1818 0 7
-5.3373 13.2869 -2.6477 0.1818 0 7
-5.5509 13.1990 -2.6477 0.1818 0 7
-5.7630 13.1078 -2.6477 0.1818 0 7
-5.9737 13.0132 -2.6477 0.1818 0 7
-6.1828 12.9151 -2.6477 0.1818 0 7
-6.3903 12.8137 -2.6477 0.1818 0 7
-6.5961 12.7090 -2.6477 0.1818 0 7
-6.8002 12.6009 -2.6477 0.1818 0 7
-7.0026 12.4896 -2.6477 0.1818 0 7
-7.2031 12.3751 -2.6477 0.1818 0 7
-7.4018 12.2573 -2.6477 0.1818 0 7
-7.5985 12.1363 -2.6477 0.1818 0 7
-7.7933 12.0122 -2.6477 0.1818 0 7
-7.9860 11.8849 -2.6477 0.1818 0 7
-8.1766 11.7546 -2.6477 0.1818 0 7
-8.3652 11.6212 -2.6477 0.1818 0 7
-8.5515 11.4847 -2.6477 0.1818 0 7
11.3228 -6.1690 -2.4953 0.1900 0 8
11.4208 -5.9856 -2.4953 0.1900 0 8
11.5158 -5.8006 -2.4953 0.1900 0 8
11.6079 -5.6142 -2.4953 0.1900 0 8
11.6969 -5.4262 -2.4953 0.1900 0 8
11.7829 -5.2368 -2.4953 0.1900 0 8
11.8659 -5.0461 -2.4953 0.1900 0 8
11.9457 -4.8541 -2.4953 0.1900 0 8
12.0224 -4.6608 -2.4953 0.1900 0 8
12.0960 -4.4663 -2.4953 0.1900 0 8
12.1665 -4.2706 -2.4953 0.1900 0 8
12.2338 -4.0738 -2.4953 0.1900 0 8
12.2979 -3.8760 -2.4953 0.1900 0 8
12.3588 -3.6771 -2.4953 0.1900 0 8
12.4165 -3.4773 -2.4953 0.1900 0 8
12.4710 -3.2766 -2.4953 0.1900 0 8
12.5222 -3.0751 -2.4953 0.1900 0 8
12.5702 -2.8727 -2.4953 0.1900 0 8
12.6149 -2.6696 -2.4953 0.1900 0 8
12.6563 -2.4658 -2.4953 0.1900 0 8
12.6944 -2.2613 -2.4953 0.1900 0 8
12.7292 -2.0563 -2.4953 0.1900 0 8
12.7607 -1.8507 -2.4953 0.1900 0 8
12.7889 -1.6447 -2.4953 0.1900 0 8
12.8138 -1.4382 -2.4953 0.1900 0 8
7.9345 -0.7612 -1.5425 0.2725 25 10
7.7897 -0.6207 -1.5122 0.7061 25 10
7.7070 -0.4891 -1.4944 0.9143 25 10
7.6647 -0.3625 -1.4849 0.9202 25 10
7.6421 -0.2379 -1.4796 0.9867 25 10
7.6290 -0.1144 -1.4765 0.9888 25 10
7.6206 0.0086 -1.4747 0.9972 25 10
7.6308 0.1317 -1.4769 0.9885 25 10
7.6440 0.2553 -1.4801 0.9864 25 10
7.6707 0.3802 -1.4862 0.9194 25 10
7.7141 0.5072 -1.4960 0.8766 25 10
7.8045 0.6397 -1.5154 0.7046 25 10
7.9997 0.7858 -1.5555 0.1876 25 10
12.8105 1.4673 -2.4953 0.1900 0 8
12.7852 1.6737 -2.4953 0.1900 0 8
12.7565 1.8797 -2.4953 0.1900 0 8
12.7245 2.0852 -2.4953 0.1900 0 8
12.6893 2.2901 -2.4953 0.1900 0 8
12.6507 2.4945 -2.4953 0.1900 0 8
12.6088 2.6982 -2.4953 0.1900 0 8
12.5636 2.9012 -2.4953 0.1900 0 8
12.5152 3.1035 -2.4953 0.1900 0 8
12.4635 3.3049 -2.4953 0.1900 0 8
12.4086 3.5055 -2.4953 0.1900 0 8
12.3504 3.7052 -2.4953 0.1900 0 8
12.2891 3.9039 -2.4953 0.1900 0 8
12.2245 4.1016 -2.4953 0.1900 0 8
12.1568 4.2982 -2.4953 0.1900 0 8
12.0859 4.4937 -2.4953 0.1900 0 8
12.0118 4.6881 -2.4953 0.1900 0 8
11.9347 4.8812 -2.4953 0.1900 0 8
11.8544 5.0730 -2.4953 0.1900 0 8
11.7710 5.2636 -2.4953 0.1900 0 8
11.6846 5.4527 -2.4953 0.1900 0 8
11.5951 5.6405 -2.4953 0.1900 0 8
11.5026 5.8268 -2.4953 0.1900 0 8
11.4072 6.0115 -2.4953 0.1900 0 8
11.3087 6.1947 -2.4953 0.1900 0 8
11.2073 6.3763 -2.4953 0.1900 0 8
11.1031 6.5562 -2.4953 0.1900 0 8
10.9959 6.7345 -2.4953 0.1900 0 8
10.8858 6.9109 -2.4953 0.1900 0 8
10.7729 7.0856 -2.4953 0.1900 0 8
10.6573 7.2584 -2.4953 0.1900 0 8
10.5388 7.4294 -2.4953 0.1900 0 8
10.4176 7.5984 -2.4953 0.1900 0 8
10.2937 7.7654 -2.4953 0.1900 0 8
10.1671 7.9304 -2.4953 0.1900 0 8
10.0379 8.0934 -2.4953 0.1900 0 8
9.9061 8.2542 -2.4953 0.1900 0 8
9.7716 8.4129 -2.4953 0.1900 0 8
10.2231 9.0928 -2.6477 0.1900 0 7
10.0751 9.2565 -2.6477 0.1900 0 7
9.9245 9.4178 -2.6477 0.1900 0 7
9.7714 9.5766 -2.6477 0.1900 0 7
9.6156 9.7330 -2.6477 0.1900 0 7
9.4574 9.8868 -2.6477 0.1900 0 7
9.2967 10.0381 -2.6477 0.1900 0 7
9.1336 10.1867 -2.6477 0.1900 0 7
8.9681 10.3327 -2.6477 0.1900 0 7
8.8003 10.4760 -2.6477 0.1900 0 7
8.6302 10.6165 -2.6477 0.1900 0 7
8.4578 10.7544 -2.6477 0.1900 0 7
8.2833 10.8894 -2.6477 0.1900 0 7
8.1066 11.0216 -2.6477 0.1900 0 7
7.9278 11.1509 -2.6477 0.1900 0 7
7.7469 11.2773 -2.6477 0.1900 0 7
7.5639 11.4007 -2.6477 0.1900 0 6
7.3791 11.5213 -2.6477 0.1900 0 7
7.1924 11.6388 -2.6477 0.1900 0 7
7.0037 11.7533 -2.6477 0.1900 0 7
6.8132 11.8647 -2.6477 0.1900 0 7
6.6210 11.9730 -2.6477 0.1900 0 7
6.4270 12.0783 -2.6477 0.1900 0 7
6.2314 12.1804 -2.6477 0.1900 0 7
6.0341 12.2793 -2.6477 0.1900 0 7
5.8353 12.3750 -2.6477 0.1900 0 7
5.6349 12.4675 -2.6477 0.1900 0 7
5.4331 12.5568 -2.6477 0.1900 0 7
5.2299 12.6428 -2.6477 0.1900 0 7
5.0253 12.7255 -2.6477 0.1900 0 7
4.8194 12.8049 -2.6477 0.1900 0 7
4.6123 12.8809 -2.6477 0.1900 0 7
4.4039 12.9536 -2.6477 0.1900 0 7
4.1944 13.0230 -2.6477 0.1900 0 7
3.9838 13.0889 -2.6477 0.1900 0 7
3.7722 13.1515 -2.6477 0.1900 0 7
3.5596 13.2106 -2.6477 0.1900 0 7
3.3461 13.2663 -2.6477 0.1900 0 7
3.1317 13.3186 -2.6477 0.1900 0 7
2.9165 13.3673 -2.6477 0.1900 0 7
2.7005 13.4126 -2.6477 0.1900 0 7
2.4838 13.4544 -2.6477 0.1900 0 7
2.2665 13.4927 -2.6477 0.1900 0 7
2.0486 13.5275 -2.6477 0.1900 0 7
1.8301 13.5588 -2.6477 0.1900 0 7
1.6112 13.5866 -2.6477 0.1900 0 7
1.3919 13.6108 -2.6477 0.1900 0 7
1.1722 13.6315 -2.6477 0.1900 0 7
0.9522 13.6486 -2.6477 0.1900 0 7
0.7319 13.6622 -2.6477 0.1900 0 7
0.5115 13.6722 -2.6477 0.1900 0 7
0.2909 13.6787 -2.6477 0.1900 0 7
0.0702 13.6816 -2.6477 0.1900 0 7
-0.1504 13.6810 -2.6477 0.1900 0 7
-0.3711 13.6768 -2.6477 0.1900 0 7
-0.5916 13.6690 -2.6477 0.1900 0 7
-0.8120 13.6577 -2.6477 0.1900 0 7
-1.0322 13.6428 -2.6477 0.1900 0 7
-1.2521 13.6244 -2.6477 0.1900 0 7
-1.4717 13.6024 -2.6477 0.1900 0 7
-1.6909 13.5769 -2.6477 0.1900 0 7
-1.9096 13.5479 -2.6477 0.1900 0 7
-2.1279 13.5153 -2.6477 0.1900 0 7
-2.3456 13.4792 -2.6477 0.1900 0 7
-2.5627 13.4396 -2.6477 0.1900 0 7
-2.7791 13.3966 -2.6477 0.1900 0 7
-2.9948 13.3500 -2.6477 0.1900 0 7
-3.2097 13.3000 -2.6477 0.1900 0 7
-3.4238 13.2465 -2.6477 0.1900 0 7
-3.6370 13.1895 -2.6477 0.1900 0 7
-3.8493 13.1291 -2.6477 0.1900 0 7
-4.0605 13.0653 -2.6477 0.1900 0 7
-4.2707 12.9982 -2.6477 0.1900 0 7
-4.4798 12.9276 -2.6477 0.1900 0 7
-4.6877 12.8537 -2.6477 0.1900 0 7
-4.8944 12.7764 -2.6477 0.1900 0 7
-5.0998 12.6958 -2.6477 0.1900 0 7
-5.3039 12.6119 -2.6477 0.1900 0 7
-5.5067 12.5247 -2.6477 0.1900 0 7
-5.7079 12.4343 -2.6477 0.1900 0 7
-5.9077 12.3406 -2.6477 0.1900 0 7
-6.1060 12.2437 -2.6477 0.1900 0 7
-6.3027 12.1436 -2.6477 0.1900 0 7
-6.4977 12.0404 -2.6477 0.1900 0 7
-6.6911 11.9340 -2.6477 0.1900 0 7
-6.8827 11.8245 -2.6477 0.1900 0 7
-7.0725 11.7120 -2.6477 0.1900 0 7
-7.2605 11.5964 -2.6477 0.1900 0 7
-7.4466 11.4778 -2.6477 0.1900 0 7
-7.6307 11.3562 -2.6477 0.1900 0 6
-7.8129 11.2317 -2.6477 0.1900 0 7
-7.9930 11.1042 -2.6477 0.1900 0 7
-8.1711 10.9738 -2.6477 0.1900 0 7
10.8390 -5.9055 -2.4953 0.1981 0 8
10.9329 -5.7299 -2.4953 0.1981 0 8
11.0239 -5.5528 -2.4953 0.1981 0 8
11.1120 -5.3743 -2.4953 0.1981 0 8
11.1972 -5.1944 -2.4953 0.1981 0 8
11.2795 -5.0131 -2.4953 0.1981 0 8
11.3589 -4.8305 -2.4953 0.1981 0 8
11.4354 -4.6467 -2.4953 0.1981 0 8
11.5088 -4.4617 -2.4953 0.1981 0 8
11.5793 -4.2755 -2.4953 0.1981 0 8
11.6467 -4.0882 -2.4953 0.1981 0 8
11.7111 -3.8998 -2.4953 0.1981 0 8
11.7725 -3.7104 -2.4953 0.1981 0 8
11.8308 -3.5200 -2.4953 0.1981 0 8
11.8861 -3.3288 -2.4953 0.1981 0 8
11.9382 -3.1366 -2.4953 0.1981 0 8
11.9872 -2.9437 -2.4953 0.1981 0 8
12.0332 -2.7500 -2.4953 0.1981 0 8
12.0759 -2.5555 -2.4953 0.1981 0 8
12.1156 -2.3604 -2.4953 0.1981 0 8
12.1521 -2.1647 -2.4953 0.1981 0 8
12.1854 -1.9684 -2.4953 0.1981 0 8
12.2156 -1.7717 -2.4953 0.1981 0 8
12.2426 -1.5744 -2.4953 0.1981 0 8
12.2664 -1.3767 -2.4953 0.1981 0 8
7.8803 -0.7560 -1.6003 0.3040 25 10
7.7539 -0.6178 -1.5725 0.7082 25 10
7.6844 -0.4877 -1.5566 0.9155 25 10
7.6431 -0.3614 -1.5468 0.9666 25 10
7.6243 -0.2374 -1.5420 0.9874 25 10
7.6115 -0.1141 -1.5389 0.9967 25 10
7.6055 0.0086 -1.5375 0.9976 25 10
7.6131 0.1314 -1.5393 0.9892 25 10
7.6262 0.2548 -1.5425 0.9871 25 10
7.6482 0.3791 -1.5480 0.9206 25 10
7.6918 0.5057 -1.5583 0.8777 25 10
7.7686 0.6367 -1.5757 0.7067 25 10
7.9584 0.7817 -1.6166 0.1882 25 10
12.2632 1.4046 -2.4953 0.1981 0 8
12.2390 1.6022 -2.4953 0.1981 0 8
12.2115 1.7994 -2.4953 0.1981 0 8
12.1809 1.9961 -2.4953 0.1981 0 8
12.1471 2.1923 -2.4953 0.1981 0 8
12.1102 2.3879 -2.4953 0.1981 0 8
12.0701 2.5829 -2.4953 0.1981 0 8
12.0269 2.7773 -2.4953 0.1981 0 8
11.9805 2.9709 -2.4953 0.1981 0 8
11.9311 3.1637 -2.4953 0.1981 0 8
11.8785 3.3557 -2.4953 0.1981 0 8
11.8228 3.5469 -2.4953 0.1981 0 8
11.7641 3.7371 -2.4953 0.1981 0 8
11.7023 3.9264 -2.4953 0.1981 0 8
11.6374 4.1146 -2.4953 0.1981 0 8
11.5695 4.3017 -2.4953 0.1981 0 8
11.4987 4.4878 -2.4953 0.1981 0 8
11.4248 4.6726 -2.4953 0.1981 0 8
11.3479 4.8563 -2.4953 0.1981 0 8
11.2681 5.0387 -2.4953 0.1981 0 8
11.1854 5.2198 -2.4953 0.1981 0 8
11.0998 5.3995 -2.4953 0.1981 0 8
11.0112 5.5778 -2.4953 0.1981 0 8
10.9198 5.7547 -2.4953 0.1981 0 8
10.8256 5.9301 -2.4953 0.1981 0 8
10.7285 6.1039 -2.4953 0.1981 0 8
10.6287 6.2761 -2.4953 0.1981 0 8
10.5261 6.4468 -2.4953 0.1981 0 8
10.4208 6.6157 -2.4953 0.1981 0 8
10.3127 6.7829 -2.4953 0.1981 0 8
10.2020 6.9483 -2.4953 0.1981 0 8
10.0886 7.1120 -2.4953 0.1981 0 8
9.9725 7.2738 -2.4953 0.1981 0 8
9.8539 7.4337 -2.4953 0.1981 0 8
9.7328 7.5916 -2.4953 0.1981 0 8
9.6091 7.7476 -2.4953 0.1981 0 8
9.4829 7.9016 -2.4953 0.1981 0 8
9.3542 8.0535 -2.4953 0.1981 0 8
9.2231 8.2033 -2.4953 0.1981 0 8
9.0895 8.3510 -2.4953 0.1981 0 8
9.5005 9.0154 -2.6477 0.1981 0 7
9.3539 9.1675 -2.6477 0.1981 0 7
9.2048 9.3172 -2.6477 0.1981 0 7
9.0534 9.4644 -2.6477 0.1981 0 7
8.8995 9.6092 -2.6477 0.1981 0 7
8.7434 9.7515 -2.6477 0.1981 0 7
8.5850 9.8912 -2.6477 0.1981 0 7
8.4243 10.0284 -2.6477 0.1981 0 7
8.2615 10.1630 -2.6477 0.1981 0 7
8.0965 10.2949 -2.6477 0.1981 0 7
7.9294 10.4242 -2.6477 0.1981 0 7
7.7603 10.5507 -2.6477 0.1981 0 7
7.5891 10.6745 -2.6477 0.1981 0 7
7.4159 10.7955 -2.6477 0.1981 0 7
7.2409 10.9137 -2.6477 0.1981 0 7
7.0639 11.0290 -2.6477 0.1981 0 7
6.8851 11.1415 -2.6477 0.1981 0 7
6.7045 11.2511 -2.6477 0.1981 0 7
6.5222 11.3578 -2.6477 0.1981 0 7
6.3382 11.4615 -2.6477 0.1981 0 6
6.1524 11.5623 -2.6477 0.1981 0 7
5.9652 11.6600 -2.6477 0.1981 0 7
5.7763 11.7547 -2.6477 0.1981 0 7
5.5860 11.8463 -2.6477 0.1981 0 7
5.3942 11.9349 -2.6477 0.1981 0 7
5.2010 12.0203 -2.6477 0.1981 0 7
5.0065 12.1026 -2.6477 0.1981 0 7
4.8106 12.1818 -2.6477 0.1981 0 7
4.6135 12.2578 -2.6477 0.1981 0 7
4.4152 12.3306 -2.6477 0.1981 0 7
4.2158 12.4002 -2.6477 0.1981 0 7
4.0152 12.4666 -2.6477 0.1981 0 7
3.8136 12.5297 -2.6477 0.1981 0 7
3.6111 12.5896 -2.6477 0.1981 0 7
3.4075 12.6462 -2.6477 0.1981 0 7
3.2031 12.6995 -2.6477 0.1981 0 7
2.9979 12.7496 -2.6477 0.1981 0 7
2.7919 12.7962 -2.6477 0.1981 0 7
2.5851 12.8396 -2.6477 0.1981 0 7
2.3777 12.8796 -2.6477 0.1981 0 7
2.1697 12.9163 -2.6477 0.1981 0 7
1.9611 12.9496 -2.6477 0.1981 0 7
1.7519 12.9796 -2.6477 0.1981 0 7
1.5424 13.0061 -2.6477 0.1981 0 7
1.3324 13.0293 -2.6477 0.1981 0 7
1.1221 13.0491 -2.6477 0.1981 0 7
0.9115 13.0655 -2.6477 0.1981 0 7
0.7006 13.0785 -2.6477 0.1981 0 7
0.4896 13.0881 -2.6477 0.1981 0 7
0.2784 13.0943 -2.6477 0.1981 0 7
0.0672 13.0971 -2.6477 0.1981 0 7
-0.1440 13.0965 -2.6477 0.1981 0 7
-0.3552 13.0925 -2.6477 0.1981 0 7
-0.5663 13.0850 -2.6477 0.1981 0 7
-0.7773 13.0742 -2.6477 0.1981 0 7
-0.9881 13.0599 -2.6477 0.1981 0 7
-1.1986 13.0423 -2.6477 0.1981 0 7
-1.4088 13.0213 -2.6477 0.1981 0 7
-1.6186 12.9969 -2.6477 0.1981 0 7
-1.8280 12.9691 -2.6477 0.1981 0 7
-2.0370 12.9379 -2.6477 0.1981 0 7
-2.2454 12.9034 -2.6477 0.1981 0 7
-2.4532 12.8655 -2.6477 0.1981 0 7
-2.6604 12.8242 -2.6477 0.1981 0 7
-2.8669 12.7797 -2.6477 0.1981 0 7
-3.0726 12.7318 -2.6477 0.1981 0 7
-3.2775 12.6805 -2.6477 0.1981 0 7
-3.4816 12.6260 -2.6477 0.1981 0 7
-3.6848 12.5682 -2.6477 0.1981 0 7
-3.8870 12.5072 -2.6477 0.1981 0 7
-4.0883 12.4429 -2.6477 0.1981 0 7
-4.2884 12.3753 -2.6477 0.1981 0 7
-4.4874 12.3045 -2.6477 0.1981 0 7
-4.6853 12.2305 -2.6477 0.1981 0 7
-4.8820 12.1534 -2.6477 0.1981 0 7
-5.0773 12.0731 -2.6477 0.1981 0 7
-5.2714 11.9896 -2.6477 0.1981 0 7
-5.4641 11.9030 -2.6477 0.1981 0 7
-5.6554 11.8134 -2.6477 0.1981 0 7
-5.8452 11.7206 -2.6477 0.1981 0 7
-6.0334 11.6248 -2.6477 0.1981 0 7
-6.2201 11.5260 -2.6477 0.1981 0 7
-6.4053 11.4242 -2.6477 0.1981 0 6
-6.5886 11.3194 -2.6477 0.1981 0 7
-6.7704 11.2116 -2.6477 0.1981 0 7
-6.9503 11.1010 -2.6477 0.1981 0 7
-7.1284 10.9874 -2.6477 0.1981 0 7
-7.3047 10.8710 -2.6477 0.1981 0 7
-7.4791 10.7518 -2.6477 0.1981 0 7
-7.6515 10.6298 -2.6477 0.1981 0 7
-7.8220 10.5050 -2.6477 0.1981 0 7
10.3935 -5.6628 -2.4953 0.2063 0 8
10.4835 -5.4944 -2.4953 0.2063 0 8
10.5707 -5.3246 -2.4953 0.2063 0 8
10.6552 -5.1534 -2.4953 0.2063 0 8
10.7370 -4.9809 -2.4953 0.2063 0 8
10.8159 -4.8071 -2.4953 0.2063 0 8
10.8920 -4.6320 -2.4953 0.2063 0 8
10.9653 -4.4557 -2.4953 0.2063 0 8
11.0358 -4.2783 -2.4953 0.2063 0 8
11.1033 -4.0997 -2.4953 0.2063 0 8
11.1680 -3.9201 -2.4953 0.2063 0 8
11.2298 -3.7395 -2.4953 0.2063 0 8
11.2886 -3.5579 -2.4953 0.2063 0 8
11.3446 -3.3754 -2.4953 0.2063 0 8
11.3975 -3.1920 -2.4953 0.2063 0 8
11.4475 -3.0077 -2.4953 0.2063 0 8
11.4945 -2.8227 -2.4953 0.2063 0 8
11.5386 -2.6369 -2.4953 0.2063 0 8
11.5796 -2.4505 -2.4953 0.2063 0 8
11.6176 -2.2634 -2.4953 0.2063 0 8
11.6526 -2.0757 -2.4953 0.2063 0 8
11.6846 -1.8875 -2.4953 0.2063 0 8
11.7135 -1.6988 -2.4953 0.2063 0 8
11.7394 -1.5097 -2.4953 0.2063 0 8
11.7622 -1.3202 -2.4953 0.2063 0 8
7.8622 -0.7542 -1.6651 0.3042 25 10
7.7184 -0.6150 -1.6323 0.7102 25 10
7.6618 -0.4863 -1.6185 0.9167 25 10
7.6249 -0.3606 -1.6093 0.9672 25 10
7.6066 -0.2368 -1.6044 0.9880 25 10
7.5963 -0.1139 -1.6016 0.9969 25 10
7.5904 0.0086 -1.6002 0.9978 25 10
7.5973 0.1312 -1.6019 0.9968 25 10
7.6084 0.2542 -1.6049 0.9877 25 10
7.6284 0.3781 -1.6102 0.9667 25 10
7.6695 0.5042 -1.6204 0.8788 25 10
7.7330 0.6338 -1.6357 0.7088 25 10
7.9173 0.7777 -1.6772 0.1889 25 10
11.7592 1.3468 -2.4953 0.2063 0 8
11.7359 1.5363 -2.4953 0.2063 0 8
11.7096 1.7254 -2.4953 0.2063 0 8
11.6803 1.9140 -2.4953 0.2063 0 8
11.6479 2.1022 -2.4953 0.2063 0 8
11.6124 2.2898 -2.4953 0.2063 0 8
11.5740 2.4768 -2.4953 0.2063 0 8
11.5326 2.6631 -2.4953 0.2063 0 8
11.4881 2.8488 -2.4953 0.2063 0 8
11.4407 3.0337 -2.4953 0.2063 0 8
11.3902 3.2178 -2.4953 0.2063 0 8
11.3369 3.4011 -2.4953 0.2063 0 8
11.2805 3.5835 -2.4953 0.2063 0 8
11.2213 3.7650 -2.4953 0.2063 0 8
11.1591 3.9455 -2.4953 0.2063 0 8
11.0940 4.1249 -2.4953 0.2063 0 8
11.0260 4.3033 -2.4953 0.2063 0 8
10.9552 4.4806 -2.4953 0.2063 0 8
10.8815 4.6567 -2.4953 0.2063 0 8
10.8050 4.8316 -2.4953 0.2063 0 8
10.7257 5.0052 -2.4953 0.2063 0 8
10.6435 5.1776 -2.4953 0.2063 0 8
10.5586 5.3486 -2.4953 0.2063 0 8
10.4710 5.5182 -2.4953 0.2063 0 8
10.3806 5.6863 -2.4953 0.2063 0 8
10.2876 5.8530 -2.4953 0.2063 0 8
10.1918 6.0182 -2.4953 0.2063 0 8
10.0934 6.1818 -2.4953 0.2063 0 8
9.9924 6.3438 -2.4953 0.2063 0 8
9.8888 6.5041 -2.4953 0.2063 0 8
9.7826 6.6627 -2.4953 0.2063 0 8
9.6739 6.8197 -2.4953 0.2063 0 8
9.5626 6.9748 -2.4953 0.2063 0 8
9.4489 7.1281 -2.4953 0.2063 0 8
9.3327 7.2796 -2.4953 0.2063 0 8
9.2141 7.4292 -2.4953 0.2063 0 8
9.0931 7.5768 -2.4953 0.2063 0 8
8.9697 7.7225 -2.4953 0.2063 0 8
8.8440 7.8661 -2.4953 0.2063 0 8
8.7159 8.0078 -2.4953 0.2063 0 8
8.5857 8.1473 -2.4953 0.2063 0 8
8.4531 8.2847 -2.4953 0.2063 0 8
8.3184 8.4200 -2.4953 0.2063 0 8
8.6812 9.0754 -2.6477 0.2063 0 7
8.5337 9.2142 -2.6477 0.2063 0 7
8.3840 9.3507 -2.6477 0.2063 0 7
8.2321 9.4847 -2.6477 0.2063 0 7
8.0781 9.6162 -2.6477 0.2063 0 7
7.9219 9.7453 -2.6477 0.2063 0 7
7.7637 9.8718 -2.6477 0.2063 0 7
7.6035 9.9957 -2.6477 0.2063 0 7
7.4413 10.1170 -2.6477 0.2063 0 7
7.2771 10.2357 -2.6477 0.2063 0 7
7.1111 10.3518 -2.6477 0.2063 0 7
6.9432 10.4651 -2.6477 0.2063 0 7
6.7735 10.5757 -2.6477 0.2063 0 7
6.6021 10.6836 -2.6477 0.2063 0 7
6.4289 10.7887 -2.6477 0.2063 0 7
6.2541 10.8910 -2.6477 0.2063 0 7
6.0776 10.9904 -2.6477 0.2063 0 7
5.8996 11.0870 -2.6477 0.2063 0 7
5.7200 11.1807 -2.6477 0.2063 0 7
5.5389 11.2715 -2.6477 0.2063 0 7
5.3564 11.3594 -2.6477 0.2063 0 7
5.1725 11.4443 -2.6477 0.2063 0 6
4.9872 11.5262 -2.6477 0.2063 0 7
4.8007 11.6052 -2.6477 0.2063 0 7
4.6129 11.6811 -2.6477 0.2063 0 7
4.4239 11.7540 -2.6477 0.2063 0 7
4.2337 11.8238 -2.6477 0.2063 0 7
4.0425 11.8905 -2.6477 0.2063 0 7
3.8502 11.9542 -2.6477 0.2063 0 7
3.6569 12.0147 -2.6477 0.2063 0 7
3.4626 12.0722 -2.6477 0.2063 0 7
3.2675 12.1264 -2.6477 0.2063 0 7
3.0715 12.1776 -2.6477 0.2063 0 7
2.8747 12.2255 -2.6477 0.2063 0 7
2.6771 12.2703 -2.6477 0.2063 0 7
2.4789 12.3119 -2.6477 0.2063 0 7
2.2800 12.3502 -2.6477 0.2063 0 7
2.0805 12.3854 -2.6477 0.2063 0 7
1.8804 12.4174 -2.6477 0.2063 0 7
1.6799 12.4461 -2.6477 0.2063 0 7
1.4790 12.4715 -2.6477 0.2063 0 7
1.2776 12.4938 -2.6477 0.2063 0 7
1.0760 12.5128 -2.6477 0.2063 0 7
0.8740 12.5285 -2.6477 0.2063 0 7
0.6718 12.5410 -2.6477 0.2063 0 7
0.4695 12.5502 -2.6477 0.2063 0 7
0.2670 12.5561 -2.6477 0.2063 0 7
0.0645 12.5588 -2.6477 0.2063 0 7
-0.1381 12.5582 -2.6477 0.2063 0 7
-0.3406 12.5543 -2.6477 0.2063 0 7
-0.5431 12.5472 -2.6477 0.2063 0 7
-0.7454 12.5368 -2.6477 0.2063 0 7
-0.9475 12.5231 -2.6477 0.2063 0 7
-1.1493 12.5062 -2.6477 0.2063 0 7
-1.3509 12.4861 -2.6477 0.2063 0 7
-1.5521 12.4627 -2.6477 0.2063 0 7
-1.7529 12.4360 -2.6477 0.2063 0 7
-1.9532 12.4061 -2.6477 0.2063 0 7
-2.1531 12.3730 -2.6477 0.2063 0 7
-2.3523 12.3367 -2.6477 0.2063 0 7
-2.5510 12.2971 -2.6477 0.2063 0 7
-2.7490 12.2544 -2.6477 0.2063 0 7
-2.9463 12.2084 -2.6477 0.2063 0 7
-3.1428 12.1593 -2.6477 0.2063 0 7
-3.3385 12.1071 -2.6477 0.2063 0 7
-3.5334 12.0516 -2.6477 0.2063 0 7
-3.7273 11.9931 -2.6477 0.2063 0 7
-3.9202 11.9314 -2.6477 0.2063 0 7
-4.1121 11.8666 -2.6477 0.2063 0 7
-4.3030 11.7988 -2.6477 0.2063 0 7
-4.4927 11.7278 -2.6477 0.2063 0 7
-4.6813 11.6539 -2.6477 0.2063 0 7
-4.8686 11.5768 -2.6477 0.2063 0 7
-5.0547 11.4968 -2.6477 0.2063 0 7
-5.2395 11.4138 -2.6477 0.2063 0 6
-5.4229 11.3278 -2.6477 0.2063 0 7
-5.6049 11.2389 -2.6477 0.2063 0 7
-5.7854 11.1470 -2.6477 0.2063 0 7
-5.9645 11.0522 -2.6477 0.2063 0 7
-6.1420 10.9546 -2.6477 0.2063 0 7
-6.3178 10.8541 -2.6477 0.2063 0 7
-6.4921 10.7508 -2.6477 0.2063 0 7
-6.6646 10.6447 -2.6477 0.2063 0 7
-6.8354 10.5358 -2.6477 0.2063 0 7
-7.0045 10.4242 -2.6477 0.2063 0 7
-7.1717 10.3099 -2.6477 0.2063 0 7
-7.3370 10.1929 -2.6477 0.2063 0 7
-7.5005 10.0732 -2.6477 0.2063 0 7
9.9818 -5.4384 -2.4953 0.2144 0 8
10.0682 -5.2767 -2.4953 0.2144 0 8
10.1520 -5.1137 -2.4953 0.2144 0 8
10.2331 -4.9493 -2.4953 0.2144 0 8
10.3116 -4.7836 -2.4953 0.2144 0 8
10.3874 -4.6166 -2.4953 0.2144 0 8
10.4606 -4.4485 -2.4953 0.2144 0 8
10.5309 -4.2792 -2.4953 0.2144 0 8
10.5986 -4.1088 -2.4953 0.2144 0 8
10.6635 -3.9373 -2.4953 0.2144 0 8
10.7256 -3.7648 -2.4953 0.2144 0 8
10.7849 -3.5914 -2.4953 0.2144 0 8
10.8414 -3.4169 -2.4953 0.2144 0 8
10.8951 -3.2417 -2.4953 0.2144 0 8
10.9460 -3.0655 -2.4953 0.2144 0 8
10.9940 -2.8886 -2.4953 0.2144 0 8
11.0392 -2.7109 -2.4953 0.2144 0 8
11.0815 -2.5325 -2.4953 0.2144 0 8
11.1209 -2.3534 -2.4953 0.2144 0 8
11.1574 -2.1738 -2.4953 0.2144 0 8
11.1910 -1.9935 -2.4953 0.2144 0 8
11.2217 -1.8128 -2.4953 0.2144 0 8
11.2495 -1.6315 -2.4953 0.2144 0 8
11.2743 -1.4499 -2.4953 0.2144 0 8
11.2962 -1.2679 -2.4953 0.2144 0 8
7.8441 -0.7525 -1.7298 0.3043 25 10
7.6950 -0.6131 -1.6945 0.8734 25 10
7.6396 -0.4849 -1.6804 0.8808 25 10
7.6069 -0.3597 -1.6717 0.9678 25 10
7.5888 -0.2363 -1.6667 0.9885 25 10
7.5812 -0.1137 -1.6644 0.9971 25 10
7.5753 0.0086 -1.6629 0.9980 25 10
7.5822 0.1309 -1.6647 0.9970 25 10
7.5906 0.2536 -1.6672 0.9882 25 10
7.6103 0.3772 -1.6726 0.9673 25 10
7.6473 0.5028 -1.6823 0.8797 25 10
7.7028 0.6313 -1.6966 0.8724 25 10
7.8972 0.7757 -1.7419 0.3022 25 10
11.2933 1.2935 -2.4953 0.2144 0 8
11.2710 1.4755 -2.4953 0.2144 0 8
11.2457 1.6571 -2.4953 0.2144 0 8
11.2175 1.8382 -2.4953 0.2144 0 8
11.1864 2.0189 -2.4953 0.2144 0 8
11.1524 2.1991 -2.4953 0.2144 0 8
11.1155 2.3786 -2.4953 0.2144 0 8
11.0757 2.5576 -2.4953 0.2144 0 8
11.0330 2.7359 -2.4953 0.2144 0 8
10.9874 2.9135 -2.4953 0.2144 0 8
10.9390 3.0903 -2.4953 0.2144 0 8
10.8878 3.2664 -2.4953 0.2144 0 8
10.8337 3.4415 -2.4953 0.2144 0 8
10.7767 3.6158 -2.4953 0.2144 0 8
10.7170 3.7892 -2.4953 0.2144 0 8
10.6545 3.9615 -2.4953 0.2144 0 8
10.5892 4.1328 -2.4953 0.2144 0 8
10.5212 4.3031 -2.4953 0.2144 0 8
10.4504 4.4722 -2.4953 0.2144 0 8
10.3769 4.6402 -2.4953 0.2144 0 8
10.3008 4.8070 -2.4953 0.2144 0 8
10.2219 4.9725 -2.4953 0.2144 0 8
10.1404 5.1367 -2.4953 0.2144 0 8
10.0562 5.2996 -2.4953 0.2144 0 8
9.9694 5.4611 -2.4953 0.2144 0 8
9.8800 5.6211 -2.4953 0.2144 0 8
9.7881 5.7798 -2.4953 0.2144 0 8
9.6936 5.9369 -2.4953 0.2144 0 8
9.5966 6.0925 -2.4953 0.2144 0 8
9.4971 6.2464 -2.4953 0.2144 0 8
9.3951 6.3988 -2.4953 0.2144 0 8
9.2907 6.5495 -2.4953 0.2144 0 8
9.1838 6.6985 -2.4953 0.2144 0 8
9.0746 6.8457 -2.4953 0.2144 0 8
8.9630 6.9912 -2.4953 0.2144 0 8
8.8491 7.1349 -2.4953 0.2144 0 8
8.7329 7.2766 -2.4953 0.2144 0 8
8.6144 7.4165 -2.4953 0.2144 0 8
8.4936 7.5545 -2.4953 0.2144 0 8
8.3707 7.6905 -2.4953 0.2144 0 8
8.2456 7.8245 -2.4953 0.2144 0 8
8.1183 7.9565 -2.4953 0.2144 0 8
7.9889 8.0864 -2.4953 0.2144 0 8
7.8574 8.2142 -2.4953 0.2144 0 8
7.7239 8.3399 -2.4953 0.2144 0 8
7.5884 8.4634 -2.4953 0.2144 0 8
7.9060 9.1090 -2.6477 0.2144 0 7
7.7581 9.2353 -2.6477 0.2144 0 7
7.6081 9.3592 -2.6477 0.2144 0 7
7.4562 9.4807 -2.6477 0.2144 0 7
7.3023 9.5997 -2.6477 0.2144 0 7
7.1465 9.7162 -2.6477 0.2144 0 7
6.9889 9.8302 -2.6477 0.2144 0 7
6.8294 9.9417 -2.6477 0.2144 0 7
6.6682 10.0505 -2.6477 0.2144 0 7
6.5052 10.1568 -2.6477 0.2144 0 7
6.3406 10.2604 -2.6477 0.2144 0 7
6.1742 10.3613 -2.6477 0.2144 0 7
6.0063 10.4595 -2.6477 0.2144 0 7
5.8369 10.5550 -2.6477 0.2144 0 7
5.6659 10.6478 -2.6477 0.2144 0 7
5.4934 10.7378 -2.6477 0.2144 0 7
5.3195 10.8250 -2.6477 0.2144 0 7
5.1442 10.9094 -2.6477 0.2144 0 7
4.9676 10.9910 -2.6477 0.2144 0 7
4.7897 11.0696 -2.6477 0.2144 0 7
4.6105 11.1454 -2.6477 0.2144 0 7
4.4302 11.2184 -2.6477 0.2144 0 7
4.2486 11.2884 -2.6477 0.2144 0 7
4.0660 11.3554 -2.6477 0.2144 0 7
3.8823 11.4195 -2.6477 0.2144 0 6
3.6977 11.4806 -2.6477 0.2144 0 6
3.5120 11.5388 -2.6477 0.2144 0 7
3.3255 11.5939 -2.6477 0.2144 0 7
3.1380 11.6461 -2.6477 0.2144 0 7
2.9498 11.6952 -2.6477 0.2144 0 7
2.7608 11.7412 -2.6477 0.2144 0 7
2.5711 11.7842 -2.6477 0.2144 0 7
2.3807 11.8241 -2.6477 0.2144 0 7
2.1896 11.8610 -2.6477 0.2144 0 7
1.9981 11.8948 -2.6477 0.2144 0 7
1.8060 11.9255 -2.6477 0.2144 0 7
1.6134 11.9530 -2.6477 0.2144 0 7
1.4204 11.9775 -2.6477 0.2144 0 7
1.2270 11.9988 -2.6477 0.2144 0 7
1.0333 12.0171 -2.6477 0.2144 0 7
0.8394 12.0322 -2.6477 0.2144 0 7
0.6452 12.0441 -2.6477 0.2144 0 7
0.4509 12.0530 -2.6477 0.2144 0 7
0.2564 12.0587 -2.6477 0.2144 0 7
0.0619 12.0613 -2.6477 0.2144 0 7
-0.1326 12.0607 -2.6477 0.2144 0 7
-0.3271 12.0570 -2.6477 0.2144 0 7
-0.5216 12.0501 -2.6477 0.2144 0 7
-0.7158 12.0402 -2.6477 0.2144 0 7
-0.9099 12.0270 -2.6477 0.2144 0 7
-1.1038 12.0108 -2.6477 0.2144 0 7
-1.2974 11.9914 -2.6477 0.2144 0 7
-1.4906 11.9690 -2.6477 0.2144 0 7
-1.6834 11.9434 -2.6477 0.2144 0 7
-1.8759 11.9147 -2.6477 0.2144 0 7
-2.0678 11.8829 -2.6477 0.2144 0 7
-2.2592 11.8480 -2.6477 0.2144 0 7
-2.4500 11.8100 -2.6477 0.2144 0 7
-2.6401 11.7689 -2.6477 0.2144 0 7
-2.8296 11.7248 -2.6477 0.2144 0 7
-3.0183 11.6776 -2.6477 0.2144 0 7
-3.2063 11.6275 -2.6477 0.2144 0 7
-3.3934 11.5742 -2.6477 0.2144 0 7
-3.5796 11.5180 -2.6477 0.2144 0 7
-3.7649 11.4588 -2.6477 0.2144 0 6
-3.9492 11.3966 -2.6477 0.2144 0 6
-4.1325 11.3314 -2.6477 0.2144 0 7
-4.3148 11.2632 -2.6477 0.2144 0 7
-4.4959 11.1922 -2.6477 0.2144 0 7
-4.6758 11.1182 -2.6477 0.2144 0 7
-4.8545 11.0414 -2.6477 0.2144 0 7
-5.0319 10.9616 -2.6477 0.2144 0 7
-5.2081 10.8791 -2.6477 0.2144 0 7
-5.3829 10.7936 -2.6477 0.2144 0 7
-5.5563 10.7054 -2.6477 0.2144 0 7
-5.7282 10.6144 -2.6477 0.2144 0 7
-5.8986 10.5206 -2.6477 0.2144 0 7
-6.0676 10.4241 -2.6477 0.2144 0 7
-6.2349 10.3249 -2.6477 0.2144 0 7
-6.4006 10.2230 -2.6477 0.2144 0 7
-6.5647 10.1184 -2.6477 0.2144 0 7
-6.7270 10.0113 -2.6477 0.2144 0 7
-6.8876 9.9015 -2.6477 0.2144 0 7
-7.0464 9.7891 -2.6477 0.2144 0 7
-7.2034 9.6742 -2.6477 0.2144 0 7
9.6001 -5.2305 -2.4953 0.2225 0 8
9.6832 -5.0750 -2.4953 0.2225 0 8
9.7638 -4.9181 -2.4953 0.2225 0 8
9.8418 -4.7600 -2.4953 0.2225 0 8
9.9173 -4.6006 -2.4953 0.2225 0 8
9.9903 -4.4401 -2.4953 0.2225 0 8
10.0606 -4.2784 -2.4953 0.2225 0 8
10.1283 -4.1156 -2.4953 0.2225 0 8
10.1933 -3.9517 -2.4953 0.2225 0 8
10.2557 -3.7868 -2.4953 0.2225 0 8
10.3155 -3.6209 -2.4953 0.2225 0 8
10.3725 -3.4540 -2.4953 0.2225 0 8
10.4269 -3.2863 -2.4953 0.2225 0 8
10.4785 -3.1177 -2.4953 0.2225 0 8
10.5274 -2.9483 -2.4953 0.2225 0 8
10.5736 -2.7781 -2.4953 0.2225 0 8
10.6171 -2.6072 -2.4953 0.2225 0 8
10.6577 -2.4356 -2.4953 0.2225 0 8
10.6956 -2.2634 -2.4953 0.2225 0 8
10.7307 -2.0906 -2.4953 0.2225 0 8
10.7631 -1.9173 -2.4953 0.2225 0 8
10.7926 -1.7434 -2.4953 0.2225 0 8
10.8193 -1.5692 -2.4953 0.2225 0 8
10.8432 -1.3944 -2.4953 0.2225 0 8
10.8643 -1.2194 -2.4953 0.2225 0 8
7.8261 -0.7508 -1.7945 0.3045 25 10
7.6725 -0.6113 -1.7568 0.8743 25 10
7.6175 -0.4835 -1.7421 0.8817 25 10
7.5888 -0.3589 -1.7340 0.9683 25 10
7.5729 -0.2358 -1.7293 0.9960 25 10
7.5661 -0.1135 -1.7271 0.9973 25 10
7.5602 0.0086 -1.7256 0.9982 25 10
7.5671 0.1306 -1.7274 0.9971 25 10
7.5738 0.2530 -1.7296 0.9958 25 10
7.5922 0.3763 -1.7350 0.9678 25 10
7.6252 0.5013 -1.7442 0.8807 25 10
7.6803 0.6295 -1.7589 0.8733 25 10
7.8789 0.7739 -1.8070 0.3024 25 10
10.8615 1.2440 -2.4953 0.2225 0 8
10.8400 1.4190 -2.4953 0.2225 0 8
10.8157 1.5937 -2.4953 0.2225 0 8
10.7886 1.7679 -2.4953 0.2225 0 8
10.7587 1.9417 -2.4953 0.2225 0 8
10.7260 2.1150 -2.4953 0.2225 0 8
10.6905 2.2877 -2.4953 0.2225 0 8
10.6522 2.4598 -2.4953 0.2225 0 8
10.6111 2.6313 -2.4953 0.2225 0 8
10.5673 2.8021 -2.4953 0.2225 0 8
10.5207 2.9722 -2.4953 0.2225 0 8
10.4714 3.1415 -2.4953 0.2225 0 8
10.4194 3.3099 -2.4953 0.2225 0 8
10.3647 3.4776 -2.4953 0.2225 0 8
10.3072 3.6443 -2.4953 0.2225 0 8
10.2471 3.8100 -2.4953 0.2225 0 8
10.1843 3.9748 -2.4953 0.2225 0 8
10.1189 4.1385 -2.4953 0.2225 0 8
10.0508 4.3012 -2.4953 0.2225 0 8
9.9801 4.4628 -2.4953 0.2225 0 8
9.9069 4.6231 -2.4953 0.2225 0 8
9.8310 4.7823 -2.4953 0.2225 0 8
9.7526 4.9403 -2.4953 0.2225 0 8
9.6717 5.0969 -2.4953 0.2225 0 8
9.5882 5.2522 -2.4953 0.2225 0 8
9.5022 5.4062 -2.4953 0.2225 0 8
9.4138 5.5588 -2.4953 0.2225 0 8
9.3229 5.7099 -2.4953 0.2225 0 8
9.2296 5.8595 -2.4953 0.2225 0 8
9.1339 6.0076 -2.4953 0.2225 0 8
9.0358 6.1541 -2.4953 0.2225 0 8
8.9354 6.2991 -2.4953 0.2225 0 8
8.8327 6.4423 -2.4953 0.2225 0 8
8.7276 6.5840 -2.4953 0.2225 0 8
8.6203 6.7239 -2.4953 0.2225 0 8
8.5107 6.8620 -2.4953 0.2225 0 8
8.3989 6.9984 -2.4953 0.2225 0 8
8.2850 7.1330 -2.4953 0.2225 0 8
8.1688 7.2657 -2.4953 0.2225 0 8
8.0506 7.3965 -2.4953 0.2225 0 8
7.9302 7.5253 -2.4953 0.2225 0 8
7.8078 7.6523 -2.4953 0.2225 0 8
7.6834 7.7772 -2.4953 0.2225 0 8
7.5570 7.9001 -2.4953 0.2225 0 8
7.4286 8.0210 -2.4953 0.2225 0 8
7.2982 8.1397 -2.4953 0.2225 0 8
7.1660 8.2564 -2.4953 0.2225 0 8
7.0319 8.3709 -2.4953 0.2225 0 8
7.3172 9.0013 -2.6477 0.2225 0 7
7.1710 9.1182 -2.6477 0.2225 0 7
7.0231 9.2326 -2.6477 0.2225 0 7
6.8732 9.3447 -2.6477 0.2225 0 7
6.7216 9.4543 -2.6477 0.2225 0 7
6.5683 9.5615 -2.6477 0.2225 0 7
6.4132 9.6662 -2.6477 0.2225 0 7
6.2565 9.7684 -2.6477 0.2225 0 7
6.0981 9.8680 -2.6477 0.2225 0 7
5.9381 9.9651 -2.6477 0.2225 0 7
5.7767 10.0596 -2.6477 0.2225 0 7
5.6137 10.1514 -2.6477 0.2225 0 7
5.4492 10.2407 -2.6477 0.2225 0 7
5.2833 10.3272 -2.6477 0.2225 0 7
5.1161 10.4111 -2.6477 0.2225 0 7
4.9475 10.4922 -2.6477 0.2225 0 7
4.7776 10.5707 -2.6477 0.2225 0 7
4.6065 10.6464 -2.6477 0.2225 0 7
4.4342 10.7193 -2.6477 0.2225 0 7
4.2607 10.7894 -2.6477 0.2225 0 7
4.0862 10.8567 -2.6477 0.2225 0 7
3.9105 10.9212 -2.6477 0.2225 0 7
3.7339 10.9828 -2.6477 0.2225 0 7
3.5563 11.0416 -2.6477 0.2225 0 7
3.3777 11.0976 -2.6477 0.2225 0 7
3.1983 11.1506 -2.6477 0.2225 0 7
3.0180 11.2007 -2.6477 0.2225 0 7
2.8370 11.2479 -2.6477 0.2225 0 7
2.6552 11.2922 -2.6477 0.2225 0 7
2.4727 11.3336 -2.6477 0.2225 0 7
2.2896 11.3720 -2.6477 0.2225 0 7
2.1059 11.4075 -2.6477 0.2225 0 6
1.9216 11.4399 -2.6477 0.2225 0 6
1.7369 11.4694 -2.6477 0.2225 0 6
1.5515 11.4960 -2.6477 0.2225 0 6
1.3661 11.5195 -2.6477 0.2225 0 7
1.1801 11.5400 -2.6477 0.2225 0 7
0.9938 11.5576 -2.6477 0.2225 0 7
0.8073 11.5721 -2.6477 0.2225 0 7
0.6205 11.5836 -2.6477 0.2225 0 7
0.4336 11.5921 -2.6477 0.2225 0 7
0.2466 11.5976 -2.6477 0.2225 0 7
0.0595 11.6001 -2.6477 0.2225 0 7
-0.1276 11.5995 -2.6477 0.2225 0 7
-0.3146 11.5959 -2.6477 0.2225 0 7
-0.5016 11.5894 -2.6477 0.2225 0 7
-0.6885 11.5798 -2.6477 0.2225 0 7
-0.8751 11.5671 -2.6477 0.2225 0 7
-1.0616 11.5515 -2.6477 0.2225 0 7
-1.2478 11.5329 -2.6477 0.2225 0 7
-1.4336 11.5113 -2.6477 0.2225 0 7
-1.6191 11.4867 -2.6477 0.2225 0 6
-1.8042 11.4591 -2.6477 0.2225 0 6
-1.9887 11.4285 -2.6477 0.2225 0 6
-2.1728 11.3949 -2.6477 0.2225 0 6
-2.3563 11.3584 -2.6477 0.2225 0 7
-2.5392 11.3189 -2.6477 0.2225 0 7
-2.7214 11.2765 -2.6477 0.2225 0 7
-2.9029 11.2311 -2.6477 0.2225 0 7
-3.0837 11.1828 -2.6477 0.2225 0 7
-3.2636 11.1316 -2.6477 0.2225 0 7
-3.4427 11.0776 -2.6477 0.2225 0 7
-3.6210 11.0206 -2.6477 0.2225 0 7
-3.7982 10.9608 -2.6477 0.2225 0 7
-3.9745 10.8981 -2.6477 0.2225 0 7
-4.1498 10.8326 -2.6477 0.2225 0 7
-4.3239 10.7642 -2.6477 0.2225 0 7
-4.4970 10.6931 -2.6477 0.2225 0 7
-4.6689 10.6192 -2.6477 0.2225 0 7
-4.8395 10.5425 -2.6477 0.2225 0 7
-5.0089 10.4630 -2.6477 0.2225 0 7
-5.1770 10.3809 -2.6477 0.2225 0 7
-5.3438 10.2961 -2.6477 0.2225 0 7
-5.5092 10.2085 -2.6477 0.2225 0 7
-5.6731 10.1184 -2.6477 0.2225 0 7
-5.8355 10.0255 -2.6477 0.2225 0 7
-5.9965 9.9301 -2.6477 0.2225 0 7
-6.1559 9.8321 -2.6477 0.2225 0 7
-6.3136 9.7315 -2.6477 0.2225 0 7
-6.4698 9.6284 -2.6477 0.2225 0 7
-6.6242 9.5228 -2.6477 0.2225 0 7
-6.7769 9.4148 -2.6477 0.2225 0 7
-6.9279 9.3042 -2.6477 0.2225 0 7
9.2452 -5.0371 -2.4953 0.2306 0 8
9.3253 -4.8874 -2.4953 0.2306 0 8
9.4029 -4.7363 -2.4953 0.2306 0 8
9.4780 -4.5841 -2.4953 0.2306 0 8
9.5507 -4.4306 -2.4953 0.2306 0 8
9.6210 -4.2760 -2.4953 0.2306 0 8
9.6887 -4.1202 -2.4953 0.2306 0 8
9.7539 -3.9634 -2.4953 0.2306 0 8
9.8165 -3.8056 -2.4953 0.2306 0 8
9.8766 -3.6468 -2.4953 0.2306 0 8
9.9342 -3.4870 -2.4953 0.2306 0 8
9.9891 -3.3264 -2.4953 0.2306 0 8
10.0415 -3.1648 -2.4953 0.2306 0 8
10.0912 -3.0024 -2.4953 0.2306 0 8
10.1383 -2.8393 -2.4953 0.2306 0 8
10.1828 -2.6754 -2.4953 0.2306 0 8
10.2246 -2.5108 -2.4953 0.2306 0 8
10.2638 -2.3456 -2.4953 0.2306 0 8
10.3003 -2.1798 -2.4953 0.2306 0 8
10.3341 -2.0133 -2.4953 0.2306 0 8
10.3652 -1.8464 -2.4953 0.2306 0 8
10.3936 -1.6790 -2.4953 0.2306 0 8
10.4194 -1.5111 -2.4953 0.2306 0 8
10.4424 -1.3429 -2.4953 0.2306 0 8
10.4627 -1.1743 -2.4953 0.2306 0 8
7.8421 -0.7523 -1.8671 0.2793 25 10
7.6612 -0.6104 -1.8215 0.8524 25 10
7.6058 -0.4827 -1.8062 0.8596 25 10
7.5772 -0.3583 -1.7978 0.9389 25 10
7.5622 -0.2354 -1.7931 0.9668 25 10
7.5549 -0.1133 -1.7907 0.9681 25 10
7.5499 0.0086 -1.7894 0.9299 25 10
7.5559 0.1305 -1.7911 0.9679 25 10
7.5632 0.2527 -1.7935 0.9666 25 10
7.5808 0.3757 -1.7989 0.9384 25 10
7.6136 0.5006 -1.8083 0.8586 25 10
7.6691 0.6286 -1.8237 0.8514 25 10
7.8926 0.7752 -1.8796 0.4549 25 10
10.4600 1.1980 -2.4953 0.2306 0 8
10.4393 1.3666 -2.4953 0.2306 0 8
10.4159 1.5348 -2.4953 0.2306 0 8
10.3898 1.7026 -2.4953 0.2306 0 8
10.3610 1.8699 -2.4953 0.2306 0 8
10.3295 2.0368 -2.4953 0.2306 0 8
10.2953 2.2031 -2.4953 0.2306 0 8
10.2584 2.3689 -2.4953 0.2306 0 8
10.2189 2.5340 -2.4953 0.2306 0 8
10.1767 2.6985 -2.4953 0.2306 0 8
10.1318 2.8623 -2.4953 0.2306 0 8
10.0843 3.0253 -2.4953 0.2306 0 8
10.0342 3.1876 -2.4953 0.2306 0 8
9.9815 3.3490 -2.4953 0.2306 0 8
9.9262 3.5096 -2.4953 0.2306 0 8
9.8683 3.6692 -2.4953 0.2306 0 8
9.8079 3.8279 -2.4953 0.2306 0 8
9.7448 3.9856 -2.4953 0.2306 0 8
9.6793 4.1422 -2.4953 0.2306 0 8
9.6112 4.2978 -2.4953 0.2306 0 8
9.5407 4.4522 -2.4953 0.2306 0 8
9.4676 4.6055 -2.4953 0.2306 0 8
9.3921 4.7576 -2.4953 0.2306 0 8
9.3141 4.9085 -2.4953 0.2306 0 8
9.2338 5.0581 -2.4953 0.2306 0 8
9.1510 5.2064 -2.4953 0.2306 0 8
9.0658 5.3533 -2.4953 0.2306 0 8
8.9783 5.4988 -2.4953 0.2306 0 8
8.8884 5.6429 -2.4953 0.2306 0 8
8.7963 5.7855 -2.4953 0.2306 0 8
8.7018 5.9266 -2.4953 0.2306 0 8
8.6051 6.0662 -2.4953 0.2306 0 8
8.5062 6.2042 -2.4953 0.2306 0 8
8.4050 6.3406 -2.4953 0.2306 0 8
8.3016 6.4753 -2.4953 0.2306 0 8
8.1961 6.6084 -2.4953 0.2306 0 8
8.0885 6.7397 -2.4953 0.2306 0 8
7.9787 6.8693 -2.4953 0.2306 0 8
7.8669 6.9971 -2.4953 0.2306 0 8
7.7530 7.1230 -2.4953 0.2306 0 8
7.6371 7.2472 -2.4953 0.2306 0 8
7.5192 7.3694 -2.4953 0.2306 0 8
7.3994 7.4897 -2.4953 0.2306 0 8
7.2776 7.6081 -2.4953 0.2306 0 8
7.1540 7.7245 -2.4953 0.2306 0 8
7.0285 7.8388 -2.4953 0.2306 0 8
6.9011 7.9512 -2.4953 0.2306 0 8
6.7720 8.0614 -2.4953 0.2306 0 8
6.6411 8.1696 -2.4953 0.2306 0 8
6.5085 8.2757 -2.4953 0.2306 0 8
6.3741 8.3796 -2.4953 0.2306 0 8
6.6192 8.9993 -2.6477 0.2306 0 7
6.4732 9.1049 -2.6477 0.2306 0 7
6.3255 9.2081 -2.6477 0.2306 0 7
6.1761 9.3089 -2.6477 0.2306 0 7
6.0252 9.4073 -2.6477 0.2306 0 7
5.8727 9.5033 -2.6477 0.2306 0 7
5.7186 9.5967 -2.6477 0.2306 0 7
5.5631 9.6877 -2.6477 0.2306 0 7
5.4061 9.7762 -2.6477 0.2306 0 7
5.2478 9.8621 -2.6477 0.2306 0 7
5.0880 9.9455 -2.6477 0.2306 0 7
4.9270 10.0262 -2.6477 0.2306 0 7
4.7646 10.1044 -2.6477 0.2306 0 7
4.6010 10.1799 -2.6477 0.2306 0 7
4.4362 10.2528 -2.6477 0.2306 0 7
4.2703 10.3230 -2.6477 0.2306 0 7
4.1032 10.3906 -2.6477 0.2306 0 7
3.9351 10.4554 -2.6477 0.2306 0 7
3.7660 10.5175 -2.6477 0.2306 0 7
3.5959 10.5769 -2.6477 0.2306 0 7
3.4248 10.6335 -2.6477 0.2306 0 7
3.2529 10.6873 -2.6477 0.2306 0 7
3.0801 10.7384 -2.6477 0.2306 0 7
2.9065 10.7867 -2.6477 0.2306 0 7
2.7321 10.8322 -2.6477 0.2306 0 7
2.5571 10.8748 -2.6477 0.2306 0 7
2.3813 10.9146 -2.6477 0.2306 0 7
2.2050 10.9516 -2.6477 0.2306 0 7
2.0281 10.9858 -2.6477 0.2306 0 7
1.8506 11.0171 -2.6477 0.2306 0 7
1.6727 11.0455 -2.6477 0.2306 0 7
1.4943 11.0710 -2.6477 0.2306 0 7
1.3156 11.0937 -2.6477 0.2306 0 7
1.1365 11.1134 -2.6477 0.2306 0 7
0.9571 11.1303 -2.6477 0.2306 0 7
0.7774 11.1443 -2.6477 0.2306 0 7
0.5976 11.1554 -2.6477 0.2306 0 7
0.4176 11.1636 -2.6477 0.2306 0 7
0.2375 11.1689 -2.6477 0.2306 0 7
0.0573 11.1713 -2.6477 0.2306 0 7
-0.1228 11.1707 -2.6477 0.2306 0 7
-0.3030 11.1673 -2.6477 0.2306 0 7
-0.4831 11.1610 -2.6477 0.2306 0 7
-0.6630 11.1517 -2.6477 0.2306 0 7
-0.8428 11.1396 -2.6477 0.2306 0 7
-1.0223 11.1245 -2.6477 0.2306 0 7
-1.2016 11.1066 -2.6477 0.2306 0 7
-1.3806 11.0858 -2.6477 0.2306 0 7
-1.5592 11.0621 -2.6477 0.2306 0 7
-1.7374 11.0355 -2.6477 0.2306 0 7
-1.9152 11.0060 -2.6477 0.2306 0 7
-2.0925 10.9737 -2.6477 0.2306 0 7
-2.2692 10.9385 -2.6477 0.2306 0 7
-2.4453 10.9005 -2.6477 0.2306 0 7
-2.6208 10.8596 -2.6477 0.2306 0 7
-2.7956 10.8160 -2.6477 0.2306 0 7
-2.9697 10.7695 -2.6477 0.2306 0 7
-3.1430 10.7202 -2.6477 0.2306 0 7
-3.3155 10.6681 -2.6477 0.2306 0 7
-3.4871 10.6132 -2.6477 0.2306 0 7
-3.6578 10.5556 -2.6477 0.2306 0 7
-3.8276 10.4952 -2.6477 0.2306 0 7
-3.9964 10.4321 -2.6477 0.2306 0 7
-4.1641 10.3663 -2.6477 0.2306 0 7
-4.3308 10.2978 -2.6477 0.2306 0 7
-4.4963 10.2266 -2.6477 0.2306 0 7
-4.6606 10.1528 -2.6477 0.2306 0 7
-4.8238 10.0763 -2.6477 0.2306 0 7
-4.9857 9.9972 -2.6477 0.2306 0 7
-5.1463 9.9155 -2.6477 0.2306 0 7
-5.3055 9.8312 -2.6477 0.2306 0 7
-5.4634 9.7443 -2.6477 0.2306 0 7
-5.6198 9.6549 -2.6477 0.2306 0 7
-5.7748 9.5630 -2.6477 0.2306 0 7
-5.9283 9.4687 -2.6477 0.2306 0 7
-6.0803 9.3718 -2.6477 0.2306 0 7
-6.2306 9.2725 -2.6477 0.2306 0 7
-6.3794 9.1708 -2.6477 0.2306 0 7
-6.5264 9.0668 -2.6477 0.2306 0 7
-6.6718 8.9603 -2.6477 0.2306 0 7
8.9144 -4.8569 -2.4953 0.2387 0 8
8.9916 -4.7125 -2.4953 0.2387 0 8
9.0664 -4.5668 -2.4953 0.2387 0 8
9.1389 -4.4200 -2.4953 0.2387 0 8
9.2090 -4.2720 -2.4953 0.2387 0 8
9.2767 -4.1230 -2.4953 0.2387 0 8
9.3420 -3.9728 -2.4953 0.2387 0 8
9.4048 -3.8216 -2.4953 0.2387 0 8
