ply
format ascii 1.0
element vertex 1343
property float32 x
property float32 y
property float32 z
property float32 CosAngle
property uint32 ObjIdx
property uint32 ObjTag
end_header
47.2507 -90.1971 -2.5393 0.0217 0 8
48.6252 -89.3139 -2.5360 0.0217 0 8
49.9819 -88.4069 -2.5327 0.0217 0 8
51.3204 -87.4764 -2.5292 0.0217 0 8
52.6400 -86.5227 -2.5257 0.0218 0 8
53.9405 -85.5465 -2.5221 0.0218 0 8
55.2216 -84.5482 -2.5184 0.0218 0 8
56.4827 -83.5282 -2.5146 0.0219 0 8
57.7235 -82.4868 -2.5107 0.0219 0 8
58.9436 -81.4246 -2.5068 0.0219 0 8
60.1428 -80.3423 -2.5028 0.0220 0 8
61.3207 -79.2401 -2.4987 0.0220 0 8
62.4945 -78.1405 -2.4953 0.0249 0 8
63.7369 -77.1303 -2.4953 0.0249 0 8
64.9632 -76.1004 -2.4953 0.0249 0 8
66.1727 -75.0510 -2.4953 0.0249 0 8
67.3653 -73.9825 -2.4953 0.0249 0 8
68.5406 -72.8949 -2.4953 0.0249 0 8
69.8432 -71.9378 -2.5005 0.5669 0 8
71.8755 -71.6987 -2.5318 0.7891 0 8
73.8844 -71.3804 -2.5620 0.7948 0 8
75.8583 -70.9759 -2.5907 0.8173 0 8
77.8068 -70.4979 -2.6184 0.8275 0 8
79.6319 -69.8638 -2.6418 0.0393 0 8
80.9178 -68.7317 -2.6477 0.0249 0 7
82.0074 -67.4280 -2.6477 0.0249 0 7
83.0760 -66.1069 -2.6477 0.0249 0 6
84.1233 -64.7690 -2.6477 0.0249 0 7
85.1490 -63.4144 -2.6477 0.0249 0 7
86.1530 -62.0437 -2.6477 0.0249 0 7
87.1348 -60.6570 -2.6477 0.0249 0 7
88.0944 -59.2548 -2.6477 0.0249 0 7
89.0314 -57.8374 -2.6477 0.0249 0 7
89.9456 -56.4052 -2.6477 0.0249 0 7
90.8367 -54.9585 -2.6477 0.0249 0 7
91.7046 -53.4978 -2.6477 0.0249 0 7
92.5490 -52.0233 -2.6477 0.0249 0 7
93.3697 -50.5356 -2.6477 0.0249 0 7
94.1665 -49.0349 -2.6477 0.0249 0 7
94.9391 -47.5216 -2.6477 0.0249 0 7
95.6875 -45.9962 -2.6477 0.0249 0 7
96.4114 -44.4590 -2.6477 0.0249 0 7
97.1105 -42.9104 -2.6477 0.0249 0 7
97.7848 -41.3508 -2.6477 0.0249 0 7
-2.2188 -74.9980 -2.4953 0.0332 0 8
-1.0183 -75.0239 -2.4953 0.0332 0 8
0.1825 -75.0306 -2.4953 0.0332 0 8
1.3832 -75.0181 -2.4953 0.0332 0 8
2.5836 -74.9863 -2.4953 0.0332 0 8
3.7833 -74.9354 -2.4953 0.0332 0 8
4.9820 -74.8652 -2.4953 0.0332 0 8
6.1795 -74.7759 -2.4953 0.0332 0 8
7.3753 -74.6674 -2.4953 0.0332 0 8
8.5693 -74.5398 -2.4953 0.0332 0 8
9.7611 -74.3932 -2.4953 0.0332 0 8
10.9504 -74.2274 -2.4953 0.0332 0 8
12.1369 -74.0427 -2.4953 0.0332 0 8
13.3203 -73.8389 -2.4953 0.0332 0 8
14.5002 -73.6163 -2.4953 0.0332 0 8
15.6765 -73.3748 -2.4953 0.0332 0 8
16.8487 -73.1146 -2.4953 0.0332 0 8
18.0166 -72.8356 -2.4953 0.0332 0 8
19.1800 -72.5379 -2.4953 0.0332 0 8
20.3383 -72.2217 -2.4953 0.0332 0 8
21.5644 -72.1306 -2.5037 0.9475 0 8
22.8275 -72.1288 -2.5160 0.9429 0 8
24.1034 -72.1269 -2.5291 0.9380 0 8
25.3929 -72.1249 -2.5429 0.9329 0 8
26.6969 -72.1227 -2.5576 0.9275 0 8
28.0164 -72.1204 -2.5731 0.9220 0 8
29.3522 -72.1179 -2.5894 0.9161 0 8
30.7054 -72.1153 -2.6067 0.9101 0 8
32.0770 -72.1125 -2.6248 0.9038 0 8
33.4355 -72.0393 -2.6413 0.0486 0 8
34.6669 -71.6663 -2.6476 0.0485 0 8
35.8106 -71.1047 -2.6477 0.0332 0 7
36.9439 -70.5226 -2.6477 0.0332 0 7
38.0678 -69.9223 -2.6477 0.0332 0 7
39.1819 -69.3041 -2.6477 0.0332 0 7
40.2860 -68.6682 -2.6477 0.0332 0 7
41.3798 -68.0147 -2.6477 0.0332 0 7
42.4630 -67.3438 -2.6477 0.0332 0 7
43.5352 -66.6556 -2.6477 0.0332 0 7
44.5964 -65.9503 -2.6477 0.0332 0 7
45.6461 -65.2282 -2.6477 0.0332 0 7
46.6841 -64.4894 -2.6477 0.0332 0 7
47.7102 -63.7340 -2.6477 0.0332 0 7
48.7240 -62.9623 -2.6477 0.0332 0 7
49.7254 -62.1745 -2.6477 0.0332 0 7
50.7140 -61.3708 -2.6477 0.0332 0 7
51.6897 -60.5513 -2.6477 0.0332 0 7
52.6521 -59.7163 -2.6477 0.0332 0 7
53.6010 -58.8661 -2.6477 0.0332 0 7
54.5362 -58.0008 -2.6477 0.0332 0 7
55.4574 -57.1206 -2.6477 0.0332 0 7
53.1201 -52.9894 -2.4953 0.0332 0 8
53.9613 -52.1325 -2.4953 0.0332 0 8
54.7887 -51.2623 -2.4953 0.0332 0 8
55.6020 -50.3789 -2.4953 0.0332 0 8
56.4011 -49.4827 -2.4953 0.0332 0 8
57.1858 -48.5737 -2.4953 0.0332 0 8
57.9558 -47.6523 -2.4953 0.0332 0 8
58.7110 -46.7187 -2.4953 0.0332 0 8
59.4511 -45.7732 -2.4953 0.0332 0 8
60.1760 -44.8159 -2.4953 0.0332 0 8
60.8855 -43.8471 -2.4953 0.0332 0 8
61.5794 -42.8672 -2.4953 0.0332 0 8
62.2576 -41.8762 -2.4953 0.0332 0 8
62.9198 -40.8745 -2.4953 0.0332 0 8
63.5658 -39.8623 -2.4953 0.0332 0 8
64.1956 -38.8400 -2.4953 0.0332 0 8
64.8090 -37.8076 -2.4953 0.0332 0 8
65.4057 -36.7658 -2.4953 0.0332 0 8
65.9857 -35.7142 -2.4953 0.0332 0 8
66.5488 -34.6536 -2.4953 0.0332 0 8
67.0949 -33.5842 -2.4953 0.0332 0 8
67.6237 -32.5062 -2.4953 0.0332 0 8
68.1353 -31.4198 -2.4953 0.0332 0 8
68.6294 -30.3254 -2.4953 0.0332 0 8
69.1059 -29.2232 -2.4953 0.0332 0 8
-1.8830 -63.6497 -2.6477 0.0415 0 7
-0.8642 -63.6717 -2.6477 0.0415 0 7
0.1549 -63.6773 -2.6477 0.0415 0 7
1.1739 -63.6667 -2.6477 0.0415 0 7
2.1926 -63.6398 -2.6477 0.0415 0 7
3.2108 -63.5965 -2.6477 0.0415 0 7
4.2281 -63.5370 -2.6477 0.0415 0 7
5.2444 -63.4612 -2.6477 0.0415 0 7
6.2593 -63.3692 -2.6477 0.0415 0 7
7.2727 -63.2609 -2.6477 0.0415 0 7
8.2841 -63.1364 -2.6477 0.0415 0 7
9.2934 -62.9957 -2.6477 0.0415 0 7
10.3004 -62.8389 -2.6477 0.0415 0 7
11.3047 -62.6660 -2.6477 0.0415 0 7
12.3061 -62.4771 -2.6477 0.0415 0 6
13.3044 -62.2722 -2.6477 0.0415 0 7
14.2993 -62.0513 -2.6477 0.0415 0 7
15.2904 -61.8145 -2.6477 0.0415 0 7
16.2777 -61.5619 -2.6477 0.0415 0 7
17.2608 -61.2935 -2.6477 0.0415 0 7
18.2395 -61.0094 -2.6477 0.0415 0 7
19.2136 -60.7097 -2.6477 0.0415 0 7
20.1826 -60.3945 -2.6477 0.0415 0 7
21.1466 -60.0637 -2.6477 0.0415 0 7
22.1051 -59.7176 -2.6477 0.0415 0 7
23.0579 -59.3562 -2.6477 0.0415 0 7
24.0049 -58.9796 -2.6477 0.0415 0 7
24.9457 -58.5879 -2.6477 0.0415 0 7
25.8801 -58.1812 -2.6477 0.0415 0 7
26.8078 -57.7596 -2.6477 0.0415 0 7
27.7288 -57.3232 -2.6477 0.0415 0 7
28.6426 -56.8721 -2.6477 0.0415 0 7
27.8482 -53.1597 -2.4953 0.0415 0 8
28.6954 -52.7072 -2.4953 0.0415 0 8
29.5352 -52.2412 -2.4953 0.0415 0 8
30.3675 -51.7618 -2.4953 0.0415 0 8
31.1919 -51.2692 -2.4953 0.0415 0 8
32.0084 -50.7635 -2.4953 0.0415 0 8
32.8167 -50.2447 -2.4953 0.0415 0 8
33.6166 -49.7131 -2.4953 0.0415 0 8
34.4079 -49.1688 -2.4953 0.0415 0 8
35.1903 -48.6119 -2.4953 0.0415 0 8
35.9638 -48.0425 -2.4953 0.0415 0 8
36.7280 -47.4608 -2.4953 0.0415 0 8
37.4828 -46.8669 -2.4953 0.0415 0 22
38.2280 -46.2611 -2.4953 0.0415 0 22
38.9635 -45.6434 -2.4953 0.0415 0 22
39.6890 -45.0140 -2.4953 0.0415 0 22
40.4042 -44.3731 -2.4953 0.0415 0 8
41.1092 -43.7208 -2.4953 0.0415 0 8
41.8036 -43.0573 -2.4953 0.0415 0 8
42.4873 -42.3828 -2.4953 0.0415 0 8
43.1601 -41.6974 -2.4953 0.0415 0 8
43.8219 -41.0014 -2.4953 0.0415 0 8
44.4724 -40.2949 -2.4953 0.0415 0 8
45.1116 -39.5781 -2.4953 0.0415 0 8
45.7392 -38.8510 -2.4953 0.0415 0 8
46.3551 -38.1142 -2.4953 0.0415 0 8
46.9591 -37.3673 -2.4953 0.0415 0 8
47.5511 -36.6110 -2.4953 0.0415 0 8
48.1309 -35.8453 -2.4953 0.0415 0 8
48.6984 -35.0705 -2.4953 0.0415 0 8
49.2534 -34.2867 -2.4953 0.0415 0 8
49.7958 -33.4941 -2.4953 0.0415 0 8
50.3254 -32.6929 -2.4953 0.0415 0 8
50.8422 -31.8833 -2.4953 0.0415 0 8
51.3459 -31.0656 -2.4953 0.0415 0 8
51.8365 -30.2399 -2.4953 0.0415 0 8
52.3138 -29.4064 -2.4953 0.0415 0 8
52.7777 -28.5655 -2.4953 0.0415 0 8
53.2281 -27.7172 -2.4953 0.0415 0 8
53.6648 -26.8618 -2.4953 0.0415 0 8
54.0878 -25.9996 -2.4953 0.0415 0 8
54.4970 -25.1307 -2.4953 0.0415 0 8
54.8922 -24.2553 -2.4953 0.0415 0 8
55.2733 -23.3737 -2.4953 0.0415 0 8
-1.4785 -49.9756 -2.4953 0.0498 0 8
-0.6785 -49.9929 -2.4953 0.0498 0 8
0.1216 -49.9973 -2.4953 0.0498 0 8
0.9217 -49.9890 -2.4953 0.0498 0 8
1.7216 -49.9678 -2.4953 0.0498 0 8
2.5210 -49.9339 -2.4953 0.0498 0 8
3.3198 -49.8871 -2.4953 0.0498 0 8
4.1177 -49.8276 -2.4953 0.0498 0 8
4.9146 -49.7553 -2.4953 0.0498 0 8
5.7102 -49.6703 -2.4953 0.0498 0 8
6.5044 -49.5726 -2.4953 0.0498 0 8
7.2969 -49.4621 -2.4953 0.0498 0 8
8.0875 -49.3390 -2.4953 0.0498 0 8
8.8761 -49.2033 -2.4953 0.0498 0 8
9.6624 -49.0549 -2.4953 0.0498 0 8
10.4462 -48.8940 -2.4953 0.0498 0 8
11.2273 -48.7206 -2.4953 0.0498 0 8
12.0055 -48.5347 -2.4953 0.0498 0 8
12.7808 -48.3363 -2.4953 0.0498 0 8
13.5526 -48.1256 -2.4953 0.0498 0 8
14.3211 -47.9026 -2.4953 0.0498 0 8
15.0858 -47.6672 -2.4953 0.0498 0 8
15.8467 -47.4197 -2.4953 0.0498 0 8
16.6036 -47.1600 -2.4953 0.0498 0 8
17.3562 -46.8883 -2.4953 0.0498 0 22
18.1043 -46.6045 -2.4953 0.0498 0 22
18.8478 -46.3088 -2.4953 0.0498 0 22
19.5865 -46.0013 -2.4953 0.0498 0 22
20.3202 -45.6819 -2.4953 0.0498 0 22
21.0486 -45.3509 -2.4953 0.0498 0 22
21.7717 -45.0082 -2.4953 0.0498 0 22
22.4892 -44.6540 -2.4953 0.0498 0 8
23.2009 -44.2884 -2.4953 0.0498 0 8
23.9067 -43.9115 -2.4953 0.0498 0 8
24.6064 -43.5232 -2.4953 0.0498 0 8
25.2998 -43.1239 -2.4953 0.0498 0 8
25.9867 -42.7135 -2.4953 0.0498 0 8
26.6669 -42.2921 -2.4953 0.0498 0 8
27.3403 -41.8600 -2.4953 0.0498 0 8
28.0067 -41.4171 -2.4953 0.0498 0 8
28.6659 -40.9636 -2.4953 0.0498 0 8
29.3178 -40.4996 -2.4953 0.0498 0 8
29.9622 -40.0252 -2.4953 0.0498 0 8
30.5989 -39.5406 -2.4953 0.0498 0 8
31.2277 -39.0458 -2.4953 0.0498 0 8
31.8486 -38.5411 -2.4953 0.0498 0 8
32.4613 -38.0265 -2.4953 0.0498 0 8
33.0657 -37.5021 -2.4953 0.0498 0 8
33.6616 -36.9681 -2.4953 0.0498 0 8
34.2489 -36.4247 -2.4953 0.0498 0 8
34.8274 -35.8719 -2.4953 0.0498 0 8
35.3971 -35.3100 -2.4953 0.0498 0 8
35.9576 -34.7390 -2.4953 0.0498 0 8
36.5089 -34.1591 -2.4953 0.0498 0 8
37.0509 -33.5705 -2.4953 0.0498 0 8
37.5834 -32.9732 -2.4953 0.0498 0 8
38.1063 -32.3675 -2.4953 0.0498 0 8
38.6194 -31.7536 -2.4953 0.0498 0 8
39.1226 -31.1315 -2.4953 0.0498 0 8
39.6158 -30.5014 -2.4953 0.0498 0 8
40.0989 -29.8635 -2.4953 0.0498 0 8
40.5716 -29.2180 -2.4953 0.0498 0 8
41.0340 -28.5649 -2.4953 0.0498 0 8
41.4859 -27.9046 -2.4953 0.0498 0 8
41.9272 -27.2371 -2.4953 0.0498 0 8
42.3577 -26.5626 -2.4953 0.0498 0 8
42.7773 -25.8815 -2.4953 0.0498 0 8
43.1861 -25.1935 -2.4953 0.0498 0 8
43.5837 -24.4991 -2.4953 0.0498 0 8
43.9702 -23.7985 -2.4953 0.0498 0 8
44.3454 -23.0918 -2.4953 0.0498 0 8
44.7093 -22.3790 -2.4953 0.0498 0 8
45.0617 -21.6608 -2.4953 0.0498 0 8
45.4026 -20.9368 -2.4953 0.0498 0 8
45.7313 -20.2106 -2.4953 0.0498 0 8
46.0494 -19.4731 -2.4953 0.0498 0 8
-1.2669 -42.8234 -2.4953 0.0581 0 8
-0.5814 -42.8382 -2.4953 0.0581 0 8
0.1042 -42.8420 -2.4953 0.0581 0 8
0.7898 -42.8349 -2.4953 0.0581 0 8
1.4752 -42.8168 -2.4953 0.0581 0 8
2.1602 -42.7877 -2.4953 0.0581 0 8
2.8447 -42.7476 -2.4953 0.0581 0 8
3.5284 -42.6966 -2.4953 0.0581 0 8
4.2113 -42.6347 -2.4953 0.0581 0 8
4.8930 -42.5618 -2.4953 0.0581 0 8
5.5735 -42.4781 -2.4953 0.0581 0 8
6.2526 -42.3835 -2.4953 0.0581 0 8
6.9301 -42.2780 -2.4953 0.0581 0 8
7.6058 -42.1616 -2.4953 0.0581 0 8
8.2796 -42.0345 -2.4953 0.0581 0 8
8.9512 -41.8966 -2.4953 0.0581 0 8
9.6205 -41.7480 -2.4953 0.0581 0 8
10.2874 -41.5887 -2.4953 0.0581 0 8
10.9517 -41.4188 -2.4953 0.0581 0 8
11.6131 -41.2382 -2.4953 0.0581 0 8
12.2715 -41.0471 -2.4953 0.0581 0 8
12.9269 -40.8454 -2.4953 0.0581 0 8
13.5789 -40.6333 -2.4953 0.0581 0 8
14.2274 -40.4108 -2.4953 0.0581 0 8
14.8723 -40.1780 -2.4953 0.0581 0 8
15.5134 -39.9348 -2.4953 0.0581 0 8
16.1505 -39.6814 -2.4953 0.0581 0 8
16.7834 -39.4179 -2.4953 0.0581 0 8
17.4121 -39.1442 -2.4953 0.0581 0 8
18.0363 -38.8606 -2.4953 0.0581 0 8
18.6559 -38.5670 -2.4953 0.0581 0 8
19.2707 -38.2635 -2.4953 0.0581 0 8
19.8806 -37.9502 -2.4953 0.0581 0 8
20.4854 -37.6272 -2.4953 0.0581 0 8
21.0849 -37.2945 -2.4953 0.0581 0 8
21.6791 -36.9523 -2.4953 0.0581 0 8
22.2676 -36.6006 -2.4953 0.0581 0 8
22.8505 -36.2396 -2.4953 0.0581 0 8
23.4275 -35.8693 -2.4953 0.0581 0 8
23.9986 -35.4897 -2.4953 0.0581 0 8
24.5634 -35.1011 -2.4953 0.0581 0 8
25.1220 -34.7035 -2.4953 0.0581 0 8
25.6742 -34.2971 -2.4953 0.0581 0 8
26.2198 -33.8818 -2.4953 0.0581 0 8
26.7586 -33.4579 -2.4953 0.0581 0 8
27.2906 -33.0254 -2.4953 0.0581 0 8
27.8157 -32.5844 -2.4953 0.0581 0 8
28.3336 -32.1351 -2.4953 0.0581 0 8
28.8442 -31.6775 -2.4953 0.0581 0 8
29.3475 -31.2118 -2.4953 0.0581 0 8
29.8432 -30.7382 -2.4953 0.0581 0 8
30.3313 -30.2567 -2.4953 0.0581 0 8
30.8116 -29.7674 -2.4953 0.0581 0 8
31.2840 -29.2706 -2.4953 0.0581 0 8
31.7484 -28.7661 -2.4953 0.0581 0 8
32.2047 -28.2543 -2.4953 0.0581 0 8
32.6528 -27.7353 -2.4953 0.0581 0 8
33.0924 -27.2097 -2.4953 0.0581 0 8
33.5237 -26.6761 -2.4953 0.0581 0 8
33.9463 -26.1362 -2.4953 0.0581 0 8
34.3602 -25.5896 -2.4953 0.0581 0 8
34.7653 -25.0365 -2.4953 0.0581 0 8
35.1615 -24.4769 -2.4953 0.0581 0 8
35.5487 -23.9111 -2.4953 0.0581 0 8
35.9268 -23.3391 -2.4953 0.0581 0 8
36.2957 -22.7612 -2.4953 0.0581 0 8
36.6554 -22.1774 -2.4953 0.0581 0 8
37.0056 -21.5880 -2.4953 0.0581 0 8
37.3463 -20.9930 -2.4953 0.0581 0 8
37.6775 -20.3926 -2.4953 0.0581 0 8
37.9990 -19.7870 -2.4953 0.0581 0 8
38.3108 -19.1765 -2.4953 0.0581 0 8
38.6128 -18.5609 -2.4953 0.0581 0 8
38.9049 -17.9405 -2.4953 0.0581 0 8
39.1870 -17.3156 -2.4953 0.0581 0 8
39.4591 -16.6863 -2.4953 0.0581 0 8
-1.1082 -37.4575 -2.4953 0.0664 0 8
-0.5086 -37.4705 -2.4953 0.0664 0 8
0.0911 -37.4738 -2.4953 0.0664 0 8
0.6908 -37.4675 -2.4953 0.0664 0 8
1.2903 -37.4517 -2.4953 0.0664 0 8
1.8895 -37.4262 -2.4953 0.0664 0 8
2.4882 -37.3912 -2.4953 0.0664 0 8
3.0863 -37.3466 -2.4953 0.0664 0 8
3.6836 -37.2924 -2.4953 0.0664 0 8
4.2799 -37.2287 -2.4953 0.0664 0 8
4.8752 -37.1554 -2.4953 0.0664 0 8
5.4691 -37.0727 -2.4953 0.0664 0 8
6.0617 -36.9804 -2.4953 0.0664 0 8
6.6528 -36.8786 -2.4953 0.0664 0 8
7.2421 -36.7675 -2.4953 0.0664 0 8
7.8296 -36.6468 -2.4953 0.0664 0 8
8.4150 -36.5169 -2.4953 0.0664 0 8
8.9983 -36.3775 -2.4953 0.0664 0 8
9.5794 -36.2288 -2.4953 0.0664 0 8
10.1579 -36.0709 -2.4953 0.0664 0 8
10.7339 -35.9037 -2.4953 0.0664 0 8
11.3071 -35.7274 -2.4953 0.0664 0 8
11.8774 -35.5418 -2.4953 0.0664 0 8
12.4446 -35.3472 -2.4953 0.0664 0 8
13.0087 -35.1435 -2.4953 0.0664 0 8
13.5695 -34.9308 -2.4953 0.0664 0 8
14.1267 -34.7092 -2.4953 0.0664 0 8
14.6804 -34.4787 -2.4953 0.0664 0 8
15.2303 -34.2393 -2.4953 0.0664 0 8
15.7763 -33.9912 -2.4953 0.0664 0 8
16.3182 -33.7344 -2.4953 0.0664 0 8
16.8560 -33.4689 -2.4953 0.0664 0 8
17.3895 -33.1949 -2.4953 0.0664 0 8
17.9185 -32.9129 -2.4953 0.0664 0 8
18.4429 -32.6214 -2.4953 0.0664 0 8
18.9626 -32.3220 -2.4953 0.0664 0 8
19.4774 -32.0144 -2.4953 0.0664 0 8
19.9873 -31.6986 -2.4953 0.0664 0 8
20.4920 -31.3747 -2.4953 0.0664 0 8
20.9915 -31.0427 -2.4953 0.0664 0 8
21.4856 -30.7028 -2.4953 0.0664 0 8
21.9741 -30.3551 -2.4953 0.0664 0 8
22.4571 -29.9995 -2.4953 0.0664 0 8
22.9343 -29.6363 -2.4953 0.0664 0 8
23.4057 -29.2655 -2.4953 0.0664 0 8
23.8710 -28.8872 -2.4953 0.0664 0 8
24.3303 -28.5014 -2.4953 0.0664 0 8
24.7833 -28.1084 -2.4953 0.0664 0 8
25.2299 -27.7082 -2.4953 0.0664 0 8
25.6701 -27.3009 -2.4953 0.0664 0 8
26.1037 -26.8866 -2.4953 0.0664 0 8
26.5307 -26.4654 -2.4953 0.0664 0 8
26.9508 -26.0374 -2.4953 0.0664 0 8
27.3640 -25.6028 -2.4953 0.0664 0 8
27.7702 -25.1616 -2.4953 0.0664 0 8
28.1694 -24.7140 -2.4953 0.0664 0 8
28.5613 -24.2600 -2.4953 0.0664 0 8
28.9459 -23.7998 -2.4953 0.0664 0 8
29.3230 -23.3335 -2.4953 0.0664 0 8
29.6927 -22.8613 -2.4953 0.0664 0 8
30.0547 -22.3832 -2.4953 0.0664 0 8
30.4091 -21.8993 -2.4953 0.0664 0 8
30.7557 -21.4099 -2.4953 0.0664 0 8
31.0944 -20.9149 -2.4953 0.0664 0 8
31.4251 -20.4146 -2.4953 0.0664 0 8
31.7478 -19.9091 -2.4953 0.0664 0 8
32.0623 -19.3985 -2.4953 0.0664 0 8
32.3686 -18.8829 -2.4953 0.0664 0 8
32.6667 -18.3625 -2.4953 0.0664 0 8
32.9564 -17.8374 -2.4953 0.0664 0 8
33.2376 -17.3077 -2.4953 0.0664 0 8
33.5103 -16.7735 -2.4953 0.0664 0 8
33.7745 -16.2351 -2.4953 0.0664 0 8
34.0300 -15.6925 -2.4953 0.0664 0 8
34.2767 -15.1459 -2.4953 0.0664 0 8
34.5147 -14.5954 -2.4953 0.0664 0 8
-0.9846 -33.2825 -2.4953 0.0747 0 8
-0.4519 -33.2940 -2.4953 0.0747 0 8
0.0810 -33.2970 -2.4953 0.0747 0 8
0.6138 -33.2914 -2.4953 0.0747 0 8
1.1465 -33.2774 -2.4953 0.0747 0 8
1.6789 -33.2547 -2.4953 0.0747 0 8
2.2109 -33.2236 -2.4953 0.0747 0 8
2.7423 -33.1840 -2.4953 0.0747 0 8
3.2730 -33.1358 -2.4953 0.0747 0 8
3.8029 -33.0792 -2.4953 0.0747 0 8
4.3318 -33.0141 -2.4953 0.0747 0 8
4.8596 -32.9406 -2.4953 0.0747 0 8
5.3861 -32.8586 -2.4953 0.0747 0 8
5.9113 -32.7682 -2.4953 0.0747 0 8
6.4349 -32.6694 -2.4953 0.0747 0 8
6.9569 -32.5620 -2.4953 0.0747 0 8
7.4771 -32.4467 -2.4953 0.0747 0 8
7.9954 -32.3229 -2.4953 0.0747 0 8
8.5117 -32.1908 -2.4953 0.0747 0 8
9.0257 -32.0505 -2.4953 0.0747 0 8
9.5375 -31.9019 -2.4953 0.0747 0 8
10.0468 -31.7452 -2.4953 0.0747 0 8
10.5535 -31.5804 -2.4953 0.0747 0 8
11.0576 -31.4074 -2.4953 0.0747 0 8
11.5588 -31.2265 -2.4953 0.0747 0 8
12.0570 -31.0375 -2.4953 0.0747 0 8
12.5522 -30.8405 -2.4953 0.0747 0 8
13.0441 -30.6357 -2.4953 0.0747 0 8
13.5327 -30.4231 -2.4953 0.0747 0 8
14.0179 -30.2026 -2.4953 0.0747 0 8
14.4994 -29.9744 -2.4953 0.0747 0 8
14.9773 -29.7385 -2.4953 0.0747 0 8
15.4513 -29.4950 -2.4953 0.0747 0 8
15.9213 -29.2440 -2.4953 0.0747 0 8
16.3873 -28.9854 -2.4953 0.0747 0 8
16.8490 -28.7194 -2.4953 0.0747 0 8
17.3065 -28.4461 -2.4953 0.0747 0 8
17.7595 -28.1655 -2.4953 0.0747 0 8
18.2080 -27.8777 -2.4953 0.0747 0 8
18.6518 -27.5827 -2.4953 0.0747 0 8
19.0908 -27.2807 -2.4953 0.0747 0 8
19.5249 -26.9717 -2.4953 0.0747 0 8
19.9541 -26.6558 -2.4953 0.0747 0 8
20.3781 -26.3331 -2.4953 0.0747 0 8
20.7969 -26.0036 -2.4953 0.0747 0 8
21.2104 -25.6674 -2.4953 0.0747 0 8
21.6184 -25.3247 -2.4953 0.0747 0 8
22.0210 -24.9755 -2.4953 0.0747 0 8
22.4178 -24.6199 -2.4953 0.0747 0 8
22.8090 -24.2580 -2.4953 0.0747 0 8
23.1942 -23.8898 -2.4953 0.0747 0 8
23.5736 -23.5155 -2.4953 0.0747 0 8
23.9469 -23.1353 -2.4953 0.0747 0 8
24.3141 -22.7491 -2.4953 0.0747 0 8
24.6750 -22.3571 -2.4953 0.0747 0 8
25.0296 -21.9594 -2.4953 0.0747 0 8
25.3779 -21.5560 -2.4953 0.0747 0 8
25.7196 -21.1471 -2.4953 0.0747 0 8
26.0547 -20.7328 -2.4953 0.0747 0 8
26.3832 -20.3132 -2.4953 0.0747 0 8
26.7049 -19.8884 -2.4953 0.0747 0 8
27.0197 -19.4584 -2.4953 0.0747 0 8
27.3277 -19.0236 -2.4953 0.0747 0 8
27.6286 -18.5838 -2.4953 0.0747 0 8
27.9225 -18.1393 -2.4953 0.0747 0 8
28.2092 -17.6901 -2.4953 0.0747 0 8
28.4887 -17.2364 -2.4953 0.0747 0 8
28.7609 -16.7782 -2.4953 0.0747 0 8
29.0257 -16.3158 -2.4953 0.0747 0 8
29.2831 -15.8492 -2.4953 0.0747 0 8
29.5330 -15.3786 -2.4953 0.0747 0 8
29.7753 -14.9040 -2.4953 0.0747 0 8
30.0100 -14.4256 -2.4953 0.0747 0 8
30.2370 -13.9434 -2.4953 0.0747 0 8
30.4563 -13.4578 -2.4953 0.0747 0 8
30.6678 -12.9686 -2.4953 0.0747 0 8
-0.8858 -29.9411 -2.4953 0.0830 0 8
-0.4065 -29.9515 -2.4953 0.0830 0 8
0.0728 -29.9541 -2.4953 0.0830 0 8
0.5522 -29.9491 -2.4953 0.0830 0 8
1.0314 -29.9365 -2.4953 0.0830 0 8
1.5104 -29.9161 -2.4953 0.0830 0 8
1.9889 -29.8881 -2.4953 0.0830 0 8
2.4670 -29.8525 -2.4953 0.0830 0 8
2.9444 -29.8092 -2.4953 0.0830 0 8
3.4211 -29.7582 -2.4953 0.0830 0 8
3.8969 -29.6997 -2.4953 0.0830 0 8
4.3717 -29.6335 -2.4953 0.0830 0 8
4.8454 -29.5597 -2.4953 0.0830 0 8
5.3178 -29.4784 -2.4953 0.0830 0 8
5.7889 -29.3895 -2.4953 0.0830 0 8
6.2585 -29.2931 -2.4953 0.0830 0 8
6.7264 -29.1892 -2.4953 0.0830 0 8
7.1927 -29.0778 -2.4953 0.0830 0 8
7.6571 -28.9590 -2.4953 0.0830 0 8
8.1196 -28.8327 -2.4953 0.0830 0 8
8.5800 -28.6991 -2.4953 0.0830 0 8
9.0381 -28.5581 -2.4953 0.0830 0 8
9.4940 -28.4098 -2.4953 0.0830 0 8
9.9474 -28.2543 -2.4953 0.0830 0 8
10.3983 -28.0915 -2.4953 0.0830 0 8
10.8466 -27.9214 -2.4953 0.0830 0 8
11.2920 -27.7443 -2.4953 0.0830 0 8
11.7346 -27.5600 -2.4953 0.0830 0 8
12.1741 -27.3687 -2.4953 0.0830 0 8
12.6105 -27.1704 -2.4953 0.0830 0 8
13.0437 -26.9651 -2.4953 0.0830 0 8
13.4736 -26.7529 -2.4953 0.0830 0 8
13.9000 -26.5338 -2.4953 0.0830 0 8
14.3229 -26.3080 -2.4953 0.0830 0 8
14.7421 -26.0754 -2.4953 0.0830 0 8
15.1575 -25.8361 -2.4953 0.0830 0 8
15.5690 -25.5903 -2.4953 0.0830 0 8
15.9765 -25.3378 -2.4953 0.0830 0 8
16.3800 -25.0789 -2.4953 0.0830 0 8
16.7792 -24.8136 -2.4953 0.0830 0 8
17.1742 -24.5419 -2.4953 0.0830 0 8
17.5647 -24.2639 -2.4953 0.0830 0 8
17.9508 -23.9797 -2.4953 0.0830 0 8
18.3322 -23.6893 -2.4953 0.0830 0 8
18.7090 -23.3929 -2.4953 0.0830 0 8
19.0809 -23.0905 -2.4953 0.0830 0 8
19.4480 -22.7822 -2.4953 0.0830 0 8
19.8101 -22.4680 -2.4953 0.0830 0 8
20.1672 -22.1481 -2.4953 0.0830 0 8
20.5190 -21.8226 -2.4953 0.0830 0 8
20.8656 -21.4914 -2.4953 0.0830 0 8
21.2069 -21.1547 -2.4953 0.0830 0 8
21.5427 -20.8126 -2.4953 0.0830 0 8
21.8730 -20.4652 -2.4953 0.0830 0 8
22.1977 -20.1126 -2.4953 0.0830 0 8
22.5168 -19.7547 -2.4953 0.0830 0 8
22.8300 -19.3919 -2.4953 0.0830 0 8
23.1374 -19.0240 -2.4953 0.0830 0 8
23.4389 -18.6513 -2.4953 0.0830 0 8
23.7344 -18.2738 -2.4953 0.0830 0 8
24.0238 -17.8917 -2.4953 0.0830 0 8
24.3071 -17.5049 -2.4953 0.0830 0 8
24.5841 -17.1137 -2.4953 0.0830 0 8
24.8548 -16.7180 -2.4953 0.0830 0 8
25.1192 -16.3181 -2.4953 0.0830 0 8
25.3771 -15.9141 -2.4953 0.0830 0 8
25.6285 -15.5059 -2.4953 0.0830 0 8
25.8734 -15.0938 -2.4953 0.0830 0 8
26.1116 -14.6778 -2.4953 0.0830 0 8
26.3432 -14.2580 -2.4953 0.0830 0 8
26.5680 -13.8346 -2.4953 0.0830 0 8
26.7860 -13.4077 -2.4953 0.0830 0 8
26.9971 -12.9773 -2.4953 0.0830 0 8
27.2013 -12.5436 -2.4953 0.0830 0 8
27.3986 -12.1067 -2.4953 0.0830 0 8
27.5889 -11.6666 -2.4953 0.0830 0 8
-0.8049 -27.2060 -2.4953 0.0913 0 8
-0.3694 -27.2154 -2.4953 0.0913 0 8
0.0662 -27.2178 -2.4953 0.0913 0 8
0.5018 -27.2133 -2.4953 0.0913 0 8
0.9372 -27.2018 -2.4953 0.0913 0 8
1.3724 -27.1833 -2.4953 0.0913 0 8
1.8072 -27.1578 -2.4953 0.0913 0 8
2.2416 -27.1254 -2.4953 0.0913 0 8
2.6754 -27.0861 -2.4953 0.0913 0 8
3.1086 -27.0398 -2.4953 0.0913 0 8
3.5409 -26.9866 -2.4953 0.0913 0 8
3.9723 -26.9265 -2.4953 0.0913 0 8
4.4027 -26.8595 -2.4953 0.0913 0 8
4.8320 -26.7856 -2.4953 0.0913 0 8
5.2600 -26.7048 -2.4953 0.0913 0 8
5.6868 -26.6172 -2.4953 0.0913 0 8
6.1120 -26.5228 -2.4953 0.0913 0 8
6.5356 -26.4216 -2.4953 0.0913 0 8
6.9577 -26.3136 -2.4953 0.0913 0 8
7.3779 -26.1989 -2.4953 0.0913 0 8
7.7962 -26.0775 -2.4953 0.0913 0 8
8.2125 -25.9494 -2.4953 0.0913 0 8
8.6267 -25.8146 -2.4953 0.0913 0 8
9.0387 -25.6732 -2.4953 0.0913 0 8
9.4484 -25.5253 -2.4953 0.0913 0 8
9.8557 -25.3712 -2.4953 0.0913 0 8
10.2605 -25.2099 -2.4953 0.0913 0 8
10.6626 -25.0424 -2.4953 0.0913 0 8
11.0620 -24.8686 -2.4953 0.0913 0 8
11.4586 -24.6884 -2.4953 0.0913 0 8
11.8522 -24.5018 -2.4953 0.0913 0 8
12.2428 -24.3090 -2.4953 0.0913 0 8
12.6303 -24.1100 -2.4953 0.0913 0 8
13.0145 -23.9048 -2.4953 0.0913 0 8
13.3954 -23.6934 -2.4953 0.0913 0 8
13.7728 -23.4760 -2.4953 0.0913 0 8
14.1468 -23.2526 -2.4953 0.0913 0 8
14.5171 -23.0232 -2.4953 0.0913 0 8
14.8837 -22.7880 -2.4953 0.0913 0 8
15.2464 -22.5469 -2.4953 0.0913 0 8
15.6053 -22.3000 -2.4953 0.0913 0 8
15.9602 -22.0474 -2.4953 0.0913 0 8
16.3110 -21.7891 -2.4953 0.0913 0 8
16.6576 -21.5253 -2.4953 0.0913 0 8
16.9999 -21.2560 -2.4953 0.0913 0 8
17.3379 -20.9812 -2.4953 0.0913 0 8
17.6715 -20.7011 -2.4953 0.0913 0 8
18.0005 -20.4156 -2.4953 0.0913 0 8
18.3249 -20.1249 -2.4953 0.0913 0 8
18.6446 -19.8291 -2.4953 0.0913 0 8
18.9596 -19.5282 -2.4953 0.0913 0 8
19.2697 -19.2223 -2.4953 0.0913 0 8
19.5748 -18.9114 -2.4953 0.0913 0 8
19.8749 -18.5957 -2.4953 0.0913 0 8
20.1700 -18.2753 -2.4953 0.0913 0 8
20.4599 -17.9502 -2.4953 0.0913 0 8
20.7445 -17.6204 -2.4953 0.0913 0 8
21.0239 -17.2862 -2.4953 0.0913 0 8
21.2978 -16.9475 -2.4953 0.0913 0 8
21.5663 -16.6045 -2.4953 0.0913 0 8
21.8293 -16.2573 -2.4953 0.0913 0 8
22.0866 -15.9058 -2.4953 0.0913 0 8
22.3383 -15.5503 -2.4953 0.0913 0 8
22.5843 -15.1909 -2.4953 0.0913 0 8
22.8245 -14.8275 -2.4953 0.0913 0 8
23.0589 -14.4603 -2.4953 0.0913 0 8
23.2874 -14.0895 -2.4953 0.0913 0 8
23.5099 -13.7150 -2.4953 0.0913 0 8
23.7264 -13.3370 -2.4953 0.0913 0 8
23.9368 -12.9556 -2.4953 0.0913 0 8
24.1410 -12.5708 -2.4953 0.0913 0 8
24.3391 -12.1829 -2.4953 0.0913 0 8
24.5310 -11.7918 -2.4953 0.0913 0 8
24.7165 -11.3977 -2.4953 0.0913 0 8
24.8958 -11.0007 -2.4953 0.0913 0 8
25.0686 -10.6009 -2.4953 0.0913 0 8
-0.7374 -24.9256 -2.4953 0.0996 0 8
-0.3384 -24.9342 -2.4953 0.0996 0 8
0.0607 -24.9364 -2.4953 0.0996 0 8
0.4597 -24.9323 -2.4953 0.0996 0 8
0.8586 -24.9217 -2.4953 0.0996 0 8
1.2574 -24.9048 -2.4953 0.0996 0 8
1.6558 -24.8815 -2.4953 0.0996 0 8
2.0537 -24.8518 -2.4953 0.0996 0 8
2.4512 -24.8157 -2.4953 0.0996 0 8
2.8480 -24.7733 -2.4953 0.0996 0 8
3.2441 -24.7246 -2.4953 0.0996 0 8
3.6394 -24.6695 -2.4953 0.0996 0 8
4.0337 -24.6081 -2.4953 0.0996 0 8
4.4270 -24.5404 -2.4953 0.0996 0 8
4.8191 -24.4664 -2.4953 0.0996 0 8
5.2101 -24.3861 -2.4953 0.0996 0 8
5.5997 -24.2996 -2.4953 0.0996 0 8
5.9878 -24.2069 -2.4953 0.0996 0 8
6.3745 -24.1080 -2.4953 0.0996 0 8
6.7594 -24.0029 -2.4953 0.0996 0 8
7.1427 -23.8916 -2.4953 0.0996 0 8
7.5241 -23.7743 -2.4953 0.0996 0 8
7.9036 -23.6508 -2.4953 0.0996 0 8
8.2811 -23.5213 -2.4953 0.0996 0 8
8.6565 -23.3858 -2.4953 0.0996 0 8
9.0296 -23.2442 -2.4953 0.0996 0 8
9.4004 -23.0968 -2.4953 0.0996 0 8
9.7689 -22.9438 -2.4953 0.0996 0 8
10.1348 -22.7841 -2.4953 0.0996 0 8
10.4981 -22.6190 -2.4953 0.0996 0 8
10.8587 -22.4481 -2.4953 0.0996 0 8
11.2166 -22.2714 -2.4953 0.0996 0 8
11.5716 -22.0891 -2.4953 0.0996 0 8
11.9236 -21.9011 -2.4953 0.0996 0 8
12.2726 -21.7074 -2.4953 0.0996 0 8
12.6184 -21.5083 -2.4953 0.0996 0 8
12.9610 -21.3036 -2.4953 0.0996 0 8
13.3003 -21.0934 -2.4953 0.0996 0 8
13.6361 -20.8779 -2.4953 0.0996 0 8
13.9685 -20.6570 -2.4953 0.0996 0 8
14.2973 -20.4308 -2.4953 0.0996 0 8
14.6224 -20.1994 -2.4953 0.0996 0 8
14.9438 -19.9628 -2.4953 0.0996 0 8
15.2613 -19.7211 -2.4953 0.0996 0 8
15.5750 -19.4743 -2.4953 0.0996 0 8
15.8846 -19.2226 -2.4953 0.0996 0 8
16.1902 -18.9659 -2.4953 0.0996 0 8
16.4917 -18.7044 -2.4953 0.0996 0 8
16.7889 -18.4380 -2.4953 0.0996 0 8
17.0818 -18.1670 -2.4953 0.0996 0 8
17.3704 -17.8913 -2.4953 0.0996 0 8
17.6545 -17.6110 -2.4953 0.0996 0 8
17.9340 -17.3263 -2.4953 0.0996 0 8
18.2090 -17.0370 -2.4953 0.0996 0 8
18.4793 -16.7434 -2.4953 0.0996 0 8
18.7449 -16.4456 -2.4953 0.0996 0 8
19.0057 -16.1435 -2.4953 0.0996 0 8
19.2616 -15.8373 -2.4953 0.0996 0 8
19.5126 -15.5270 -2.4953 0.0996 0 8
19.7586 -15.2127 -2.4953 0.0996 0 8
19.9995 -14.8946 -2.4953 0.0996 0 8
20.2353 -14.5726 -2.4953 0.0996 0 8
20.4659 -14.2469 -2.4953 0.0996 0 8
20.6913 -13.9176 -2.4953 0.0996 0 8
20.9114 -13.5847 -2.4953 0.0996 0 8
21.1261 -13.2483 -2.4953 0.0996 0 8
21.3354 -12.9085 -2.4953 0.0996 0 8
21.5393 -12.5654 -2.4953 0.0996 0 8
21.7376 -12.2191 -2.4953 0.0996 0 8
21.9304 -11.8696 -2.4953 0.0996 0 8
22.1175 -11.5171 -2.4953 0.0996 0 8
22.2990 -11.1617 -2.4953 0.0996 0 8
22.4748 -10.8034 -2.4953 0.0996 0 8
22.6448 -10.4424 -2.4953 0.0996 0 8
22.8090 -10.0786 -2.4953 0.0996 0 8
22.9674 -9.7123 -2.4953 0.0996 0 8
-0.6803 -22.9949 -2.4953 0.1078 0 8
-0.3122 -23.0028 -2.4953 0.1078 0 8
0.0559 -23.0049 -2.4953 0.1078 0 8
0.4241 -23.0010 -2.4953 0.1078 0 8
0.7921 -22.9913 -2.4953 0.1078 0 8
1.1600 -22.9757 -2.4953 0.1078 0 8
1.5275 -22.9542 -2.4953 0.1078 0 8
1.8947 -22.9268 -2.4953 0.1078 0 8
2.2613 -22.8935 -2.4953 0.1078 0 8
2.6274 -22.8544 -2.4953 0.1078 0 8
2.9928 -22.8095 -2.4953 0.1078 0 8
3.3575 -22.7586 -2.4953 0.1078 0 8
3.7213 -22.7020 -2.4953 0.1078 0 8
4.0841 -22.6395 -2.4953 0.1078 0 8
4.4459 -22.5713 -2.4953 0.1078 0 8
4.8065 -22.4972 -2.4953 0.1078 0 8
5.1659 -22.4174 -2.4953 0.1078 0 8
5.5240 -22.3319 -2.4953 0.1078 0 8
5.8807 -22.2406 -2.4953 0.1078 0 8
6.2359 -22.1437 -2.4953 0.1078 0 8
6.5894 -22.0410 -2.4953 0.1078 0 8
6.9413 -21.9328 -2.4953 0.1078 0 8
7.2914 -21.8189 -2.4953 0.1078 0 8
7.6397 -21.6994 -2.4953 0.1078 0 8
7.9860 -21.5743 -2.4953 0.1078 0 8
8.3302 -21.4438 -2.4953 0.1078 0 8
8.6723 -21.3077 -2.4953 0.1078 0 8
9.0122 -21.1662 -2.4953 0.1078 0 8
9.3498 -21.0193 -2.4953 0.1078 0 8
9.6849 -20.8670 -2.4953 0.1078 0 8
10.0176 -20.7093 -2.4953 0.1078 0 8
10.3478 -20.5463 -2.4953 0.1078 0 8
10.6753 -20.3781 -2.4953 0.1078 0 8
11.0000 -20.2046 -2.4953 0.1078 0 8
11.3220 -20.0260 -2.4953 0.1078 0 8
11.6410 -19.8423 -2.4953 0.1078 0 8
11.9570 -19.6534 -2.4953 0.1078 0 8
12.2700 -19.4596 -2.4953 0.1078 0 8
12.5799 -19.2607 -2.4953 0.1078 0 8
12.8865 -19.0569 -2.4953 0.1078 0 8
13.1898 -18.8482 -2.4953 0.1078 0 8
13.4898 -18.6348 -2.4953 0.1078 0 8
13.7863 -18.4165 -2.4953 0.1078 0 8
14.0792 -18.1935 -2.4953 0.1078 0 8
14.3686 -17.9659 -2.4953 0.1078 0 8
14.6542 -17.7336 -2.4953 0.1078 0 8
14.9362 -17.4968 -2.4953 0.1078 0 8
15.2143 -17.2555 -2.4953 0.1078 0 8
15.4885 -17.0099 -2.4953 0.1078 0 8
15.7587 -16.7598 -2.4953 0.1078 0 8
16.0249 -16.5055 -2.4953 0.1078 0 8
16.2870 -16.2469 -2.4953 0.1078 0 8
16.5449 -15.9842 -2.4953 0.1078 0 8
16.7986 -15.7174 -2.4953 0.1078 0 8
17.0480 -15.4465 -2.4953 0.1078 0 8
17.2930 -15.1717 -2.4953 0.1078 0 8
17.5336 -14.8930 -2.4953 0.1078 0 8
17.7697 -14.6105 -2.4953 0.1078 0 8
18.0012 -14.3243 -2.4953 0.1078 0 8
18.2281 -14.0344 -2.4953 0.1078 0 8
18.4504 -13.7409 -2.4953 0.1078 0 8
18.6679 -13.4438 -2.4953 0.1078 0 8
18.8807 -13.1434 -2.4953 0.1078 0 8
19.0886 -12.8395 -2.4953 0.1078 0 8
19.2916 -12.5324 -2.4953 0.1078 0 8
19.4897 -12.2221 -2.4953 0.1078 0 8
19.6828 -11.9086 -2.4953 0.1078 0 8
19.8709 -11.5921 -2.4953 0.1078 0 8
20.0538 -11.2726 -2.4953 0.1078 0 8
20.2317 -10.9502 -2.4953 0.1078 0 8
20.4043 -10.6250 -2.4953 0.1078 0 8
20.5717 -10.2971 -2.4953 0.1078 0 8
20.7339 -9.9666 -2.4953 0.1078 0 8
20.8907 -9.6335 -2.4953 0.1078 0 8
21.0422 -9.2980 -2.4953 0.1078 0 8
21.1883 -8.9600 -2.4953 0.1078 0 8
-0.6313 -21.3391 -2.4953 0.1161 0 8
-0.2897 -21.3464 -2.4953 0.1161 0 8
0.0519 -21.3483 -2.4953 0.1161 0 8
0.3936 -21.3448 -2.4953 0.1161 0 8
0.7351 -21.3357 -2.4953 0.1161 0 8
1.0764 -21.3212 -2.4953 0.1161 0 8
1.4175 -21.3013 -2.4953 0.1161 0 8
1.7582 -21.2759 -2.4953 0.1161 0 8
2.0985 -21.2450 -2.4953 0.1161 0 8
2.4382 -21.2087 -2.4953 0.1161 0 8
2.7773 -21.1670 -2.4953 0.1161 0 8
3.1157 -21.1198 -2.4953 0.1161 0 8
3.4533 -21.0673 -2.4953 0.1161 0 8
3.7900 -21.0093 -2.4953 0.1161 0 8
4.1257 -20.9459 -2.4953 0.1161 0 8
4.4604 -20.8772 -2.4953 0.1161 0 8
4.7939 -20.8032 -2.4953 0.1161 0 8
5.1262 -20.7238 -2.4953 0.1161 0 8
5.4572 -20.6391 -2.4953 0.1161 0 8
5.7868 -20.5491 -2.4953 0.1161 0 8
6.1149 -20.4539 -2.4953 0.1161 0 8
6.4415 -20.3534 -2.4953 0.1161 0 8
6.7664 -20.2477 -2.4953 0.1161 0 8
7.0896 -20.1368 -2.4953 0.1161 0 8
7.4109 -20.0208 -2.4953 0.1161 0 8
7.7304 -19.8996 -2.4953 0.1161 0 8
8.0478 -19.7734 -2.4953 0.1161 0 8
8.3632 -19.6421 -2.4953 0.1161 0 8
8.6765 -19.5057 -2.4953 0.1161 0 8
8.9875 -19.3644 -2.4953 0.1161 0 8
9.2963 -19.2180 -2.4953 0.1161 0 8
9.6026 -19.0668 -2.4953 0.1161 0 8
9.9066 -18.9107 -2.4953 0.1161 0 8
10.2079 -18.7497 -2.4953 0.1161 0 8
10.5067 -18.5840 -2.4953 0.1161 0 8
10.8027 -18.4134 -2.4953 0.1161 0 8
11.0960 -18.2382 -2.4953 0.1161 0 8
11.3865 -18.0583 -2.4953 0.1161 0 8
11.6740 -17.8738 -2.4953 0.1161 0 8
11.9586 -17.6847 -2.4953 0.1161 0 8
12.2400 -17.4910 -2.4953 0.1161 0 8
12.5184 -17.2929 -2.4953 0.1161 0 8
12.7935 -17.0903 -2.4953 0.1161 0 8
13.0654 -16.8834 -2.4953 0.1161 0 8
13.3339 -16.6722 -2.4953 0.1161 0 8
13.5990 -16.4566 -2.4953 0.1161 0 8
13.8606 -16.2370 -2.4953 0.1161 0 8
14.1187 -16.0130 -2.4953 0.1161 0 8
14.3732 -15.7850 -2.4953 0.1161 0 8
14.6239 -15.5530 -2.4953 0.1161 0 8
14.8710 -15.3169 -2.4953 0.1161 0 8
15.1142 -15.0770 -2.4953 0.1161 0 8
15.3535 -14.8332 -2.4953 0.1161 0 8
15.5889 -14.5856 -2.4953 0.1161 0 8
15.8204 -14.3342 -2.4953 0.1161 0 8
16.0477 -14.0792 -2.4953 0.1161 0 8
16.2710 -13.8206 -2.4953 0.1161 0 8
16.4901 -13.5584 -2.4953 0.1161 0 8
16.7050 -13.2928 -2.4953 0.1161 0 8
16.9155 -13.0235 -2.4953 0.1161 0 8
17.1218 -12.7514 -2.4953 0.1161 0 8
17.3237 -12.4758 -2.4953 0.1161 0 8
17.5211 -12.1969 -2.4953 0.1161 0 8
17.7141 -11.9150 -2.4953 0.1161 0 8
17.9025 -11.6300 -2.4953 0.1161 0 8
18.0863 -11.3420 -2.4953 0.1161 0 8
18.2655 -11.0511 -2.4953 0.1161 0 8
18.4400 -10.7574 -2.4953 0.1161 0 8
18.6098 -10.4609 -2.4953 0.1161 0 8
18.7748 -10.1617 -2.4953 0.1161 0 8
18.9350 -9.8599 -2.4953 0.1161 0 8
19.0904 -9.5557 -2.4953 0.1161 0 8
19.2409 -9.2489 -2.4953 0.1161 0 8
19.3864 -8.9398 -2.4953 0.1161 0 8
19.5270 -8.6284 -2.4953 0.1161 0 8
19.6626 -8.3148 -2.4953 0.1161 0 8
-0.5888 -19.9031 -2.4953 0.1243 0 8
-0.2702 -19.9100 -2.4953 0.1243 0 8
0.0484 -19.9117 -2.4953 0.1243 0 8
0.3671 -19.9084 -2.4953 0.1243 0 8
0.6856 -19.9000 -2.4953 0.1243 0 8
1.0040 -19.8865 -2.4953 0.1243 0 8
1.3221 -19.8679 -2.4953 0.1243 0 8
1.6399 -19.8441 -2.4953 0.1243 0 8
1.9573 -19.8154 -2.4953 0.1243 0 8
2.2741 -19.7815 -2.4953 0.1243 0 8
2.5904 -19.7426 -2.4953 0.1243 0 8
2.9060 -19.6986 -2.4953 0.1243 0 8
3.2209 -19.6496 -2.4953 0.1243 0 8
3.5350 -19.5955 -2.4953 0.1243 0 8
3.8481 -19.5364 -2.4953 0.1243 0 8
4.1603 -19.4723 -2.4953 0.1243 0 8
4.4713 -19.4033 -2.4953 0.1243 0 8
4.7813 -19.3292 -2.4953 0.1243 0 8
5.0900 -19.2502 -2.4953 0.1243 0 8
5.3974 -19.1663 -2.4953 0.1243 0 8
5.7035 -19.0775 -2.4953 0.1243 0 8
6.0080 -18.9838 -2.4953 0.1243 0 8
6.3111 -18.8852 -2.4953 0.1243 0 8
6.6125 -18.7818 -2.4953 0.1243 0 8
6.9122 -18.6735 -2.4953 0.1243 0 8
7.2102 -18.5605 -2.4953 0.1243 0 8
7.5063 -18.4428 -2.4953 0.1243 0 8
7.8004 -18.3203 -2.4953 0.1243 0 8
8.0926 -18.1931 -2.4953 0.1243 0 8
8.3827 -18.0613 -2.4953 0.1243 0 8
8.6707 -17.9248 -2.4953 0.1243 0 8
8.9565 -17.7837 -2.4953 0.1243 0 8
9.2399 -17.6381 -2.4953 0.1243 0 8
9.5210 -17.4880 -2.4953 0.1243 0 8
9.7997 -17.3334 -2.4953 0.1243 0 8
10.0758 -17.1743 -2.4953 0.1243 0 8
10.3493 -17.0109 -2.4953 0.1243 0 8
10.6203 -16.8431 -2.4953 0.1243 0 8
10.8884 -16.6710 -2.4953 0.1243 0 8
11.1538 -16.4946 -2.4953 0.1243 0 8
11.4164 -16.3140 -2.4953 0.1243 0 8
11.6760 -16.1292 -2.4953 0.1243 0 8
11.9326 -15.9403 -2.4953 0.1243 0 8
12.1862 -15.7473 -2.4953 0.1243 0 8
12.4366 -15.5502 -2.4953 0.1243 0 8
12.6839 -15.3492 -2.4953 0.1243 0 8
12.9279 -15.1443 -2.4953 0.1243 0 8
13.1686 -14.9354 -2.4953 0.1243 0 8
13.4059 -14.7228 -2.4953 0.1243 0 8
13.6398 -14.5063 -2.4953 0.1243 0 8
13.8702 -14.2862 -2.4953 0.1243 0 8
14.0971 -14.0624 -2.4953 0.1243 0 8
14.3203 -13.8350 -2.4953 0.1243 0 8
14.5399 -13.6041 -2.4953 0.1243 0 8
14.7557 -13.3696 -2.4953 0.1243 0 8
14.9678 -13.1318 -2.4953 0.1243 0 8
15.1761 -12.8906 -2.4953 0.1243 0 8
15.3804 -12.6460 -2.4953 0.1243 0 8
15.5808 -12.3983 -2.4953 0.1243 0 8
15.7772 -12.1474 -2.4953 0.1243 0 8
15.9696 -11.8933 -2.4953 0.1243 0 8
16.1579 -11.6362 -2.4953 0.1243 0 8
16.3421 -11.3762 -2.4953 0.1243 0 8
16.5220 -11.1132 -2.4953 0.1243 0 8
16.6977 -10.8473 -2.4953 0.1243 0 8
16.8692 -10.5787 -2.4953 0.1243 0 8
17.0363 -10.3074 -2.4953 0.1243 0 8
17.1991 -10.0335 -2.4953 0.1243 0 8
17.3575 -9.7569 -2.4953 0.1243 0 8
17.5114 -9.4779 -2.4953 0.1243 0 8
17.6608 -9.1964 -2.4953 0.1243 0 8
17.8057 -8.9126 -2.4953 0.1243 0 8
17.9461 -8.6265 -2.4953 0.1243 0 8
18.0819 -8.3382 -2.4953 0.1243 0 8
18.2130 -8.0478 -2.4953 0.1243 0 8
18.3394 -7.7553 -2.4953 0.1243 0 8
-0.5516 -18.6457 -2.4953 0.1326 0 8
-0.2532 -18.6522 -2.4953 0.1326 0 8
0.0454 -18.6538 -2.4953 0.1326 0 8
0.3439 -18.6507 -2.4953 0.1326 0 8
0.6423 -18.6428 -2.4953 0.1326 0 8
0.9406 -18.6301 -2.4953 0.1326 0 8
1.2386 -18.6127 -2.4953 0.1326 0 8
1.5363 -18.5905 -2.4953 0.1326 0 8
1.8336 -18.5635 -2.4953 0.1326 0 8
2.1305 -18.5318 -2.4953 0.1326 0 8
2.4268 -18.4953 -2.4953 0.1326 0 8
2.7224 -18.4541 -2.4953 0.1326 0 8
3.0174 -18.4082 -2.4953 0.1326 0 8
3.3116 -18.3576 -2.4953 0.1326 0 8
3.6050 -18.3022 -2.4953 0.1326 0 8
3.8974 -18.2422 -2.4953 0.1326 0 8
4.1889 -18.1775 -2.4953 0.1326 0 8
4.4792 -18.1081 -2.4953 0.1326 0 8
4.7685 -18.0341 -2.4953 0.1326 0 8
5.0564 -17.9555 -2.4953 0.1326 0 8
5.3431 -17.8723 -2.4953 0.1326 0 8
5.6285 -17.7845 -2.4953 0.1326 0 8
5.9124 -17.6921 -2.4953 0.1326 0 8
6.1947 -17.5952 -2.4953 0.1326 0 8
6.4755 -17.4938 -2.4953 0.1326 0 8
6.7546 -17.3880 -2.4953 0.1326 0 8
7.0321 -17.2777 -2.4953 0.1326 0 8
7.3076 -17.1629 -2.4953 0.1326 0 8
7.5814 -17.0438 -2.4953 0.1326 0 8
7.8532 -16.9203 -2.4953 0.1326 0 8
8.1229 -16.7924 -2.4953 0.1326 0 8
8.3906 -16.6603 -2.4953 0.1326 0 8
8.6562 -16.5239 -2.4953 0.1326 0 8
8.9195 -16.3832 -2.4953 0.1326 0 8
9.1806 -16.2384 -2.4953 0.1326 0 8
9.4393 -16.0894 -2.4953 0.1326 0 8
9.6955 -15.9363 -2.4953 0.1326 0 8
9.9493 -15.7791 -2.4953 0.1326 0 8
10.2006 -15.6178 -2.4953 0.1326 0 8
10.4492 -15.4526 -2.4953 0.1326 0 8
10.6951 -15.2834 -2.4953 0.1326 0 8
10.9384 -15.1103 -2.4953 0.1326 0 8
11.1788 -14.9333 -2.4953 0.1326 0 8
11.4163 -14.7525 -2.4953 0.1326 0 8
11.6509 -14.5679 -2.4953 0.1326 0 8
11.8826 -14.3795 -2.4953 0.1326 0 8
12.1112 -14.1875 -2.4953 0.1326 0 8
12.3367 -13.9919 -2.4953 0.1326 0 8
12.5590 -13.7927 -2.4953 0.1326 0 8
12.7782 -13.5899 -2.4953 0.1326 0 8
12.9940 -13.3837 -2.4953 0.1326 0 8
13.2065 -13.1740 -2.4953 0.1326 0 8
13.4157 -12.9610 -2.4953 0.1326 0 8
13.6214 -12.7446 -2.4953 0.1326 0 8
13.8236 -12.5250 -2.4953 0.1326 0 8
14.0222 -12.3022 -2.4953 0.1326 0 8
14.2173 -12.0762 -2.4953 0.1326 0 8
14.4088 -11.8471 -2.4953 0.1326 0 8
14.5965 -11.6150 -2.4953 0.1326 0 8
14.7805 -11.3800 -2.4953 0.1326 0 8
14.9608 -11.1420 -2.4953 0.1326 0 8
15.1371 -10.9011 -2.4953 0.1326 0 8
15.3097 -10.6575 -2.4953 0.1326 0 8
15.4783 -10.4111 -2.4953 0.1326 0 8
15.6429 -10.1621 -2.4953 0.1326 0 8
15.8035 -9.9104 -2.4953 0.1326 0 8
15.9601 -9.6563 -2.4953 0.1326 0 8
16.1126 -9.3996 -2.4953 0.1326 0 8
16.2609 -9.1405 -2.4953 0.1326 0 8
16.4051 -8.8791 -2.4953 0.1326 0 8
16.5451 -8.6155 -2.4953 0.1326 0 8
16.6809 -8.3496 -2.4953 0.1326 0 8
16.8124 -8.0816 -2.4953 0.1326 0 8
16.9395 -7.8115 -2.4953 0.1326 0 8
17.0624 -7.5394 -2.4953 0.1326 0 8
17.1808 -7.2654 -2.4953 0.1326 0 8
-0.5188 -17.5355 -2.4953 0.1408 0 8
-0.2381 -17.5415 -2.4953 0.1408 0 8
0.0427 -17.5430 -2.4953 0.1408 0 8
0.3234 -17.5401 -2.4953 0.1408 0 8
0.6041 -17.5327 -2.4953 0.1408 0 8
0.8846 -17.5208 -2.4953 0.1408 0 8
1.1649 -17.5044 -2.4953 0.1408 0 8
1.4448 -17.4835 -2.4953 0.1408 0 8
1.7244 -17.4582 -2.4953 0.1408 0 8
2.0036 -17.4283 -2.4953 0.1408 0 8
2.2823 -17.3940 -2.4953 0.1408 0 8
2.5603 -17.3553 -2.4953 0.1408 0 8
2.8378 -17.3121 -2.4953 0.1408 0 8
3.1144 -17.2645 -2.4953 0.1408 0 8
3.3903 -17.2123 -2.4953 0.1408 0 8
3.6654 -17.1559 -2.4953 0.1408 0 8
3.9394 -17.0951 -2.4953 0.1408 0 8
4.2125 -17.0299 -2.4953 0.1408 0 8
4.4845 -16.9603 -2.4953 0.1408 0 8
4.7554 -16.8863 -2.4953 0.1408 0 8
5.0250 -16.8081 -2.4953 0.1408 0 8
5.2933 -16.7255 -2.4953 0.1408 0 8
5.5603 -16.6386 -2.4953 0.1408 0 8
5.8259 -16.5475 -2.4953 0.1408 0 8
6.0899 -16.4522 -2.4953 0.1408 0 8
6.3524 -16.3526 -2.4953 0.1408 0 8
6.6133 -16.2488 -2.4953 0.1408 0 8
6.8725 -16.1409 -2.4953 0.1408 0 8
7.1299 -16.0289 -2.4953 0.1408 0 8
7.3855 -15.9127 -2.4953 0.1408 0 8
7.6393 -15.7925 -2.4953 0.1408 0 8
7.8910 -15.6682 -2.4953 0.1408 0 8
8.1407 -15.5399 -2.4953 0.1408 0 8
8.3884 -15.4077 -2.4953 0.1408 0 8
8.6339 -15.2714 -2.4953 0.1408 0 8
8.8772 -15.1313 -2.4953 0.1408 0 8
9.1182 -14.9873 -2.4953 0.1408 0 8
9.3569 -14.8395 -2.4953 0.1408 0 8
9.5932 -14.6879 -2.4953 0.1408 0 8
9.8270 -14.5324 -2.4953 0.1408 0 8
10.0583 -14.3733 -2.4953 0.1408 0 8
10.2870 -14.2105 -2.4953 0.1408 0 8
10.5131 -14.0441 -2.4953 0.1408 0 8
10.7365 -13.8740 -2.4953 0.1408 0 8
10.9572 -13.7004 -2.4953 0.1408 0 8
11.1750 -13.5233 -2.4953 0.1408 0 8
11.3900 -13.3427 -2.4953 0.1408 0 8
11.6021 -13.1587 -2.4953 0.1408 0 8
11.8112 -12.9714 -2.4953 0.1408 0 8
12.0173 -12.7807 -2.4953 0.1408 0 8
12.2203 -12.5868 -2.4953 0.1408 0 8
12.4201 -12.3896 -2.4953 0.1408 0 8
12.6168 -12.1892 -2.4953 0.1408 0 8
12.8103 -11.9858 -2.4953 0.1408 0 8
13.0004 -11.7792 -2.4953 0.1408 0 8
13.1873 -11.5697 -2.4953 0.1408 0 8
13.3707 -11.3571 -2.4953 0.1408 0 8
13.5508 -11.1418 -2.4953 0.1408 0 8
13.7274 -10.9234 -2.4953 0.1408 0 8
13.9004 -10.7023 -2.4953 0.1408 0 8
14.0699 -10.4785 -2.4953 0.1408 0 8
14.2358 -10.2520 -2.4953 0.1408 0 8
14.3980 -10.0229 -2.4953 0.1408 0 8
14.5566 -9.7912 -2.4953 0.1408 0 8
14.7114 -9.5570 -2.4953 0.1408 0 8
14.8625 -9.3203 -2.4953 0.1408 0 8
15.0097 -9.0813 -2.4953 0.1408 0 8
15.1531 -8.8399 -2.4953 0.1408 0 8
15.2927 -8.5963 -2.4953 0.1408 0 8
15.4283 -8.3504 -2.4953 0.1408 0 8
15.5599 -8.1024 -2.4953 0.1408 0 8
15.6876 -7.8524 -2.4953 0.1408 0 8
15.8113 -7.6003 -2.4953 0.1408 0 8
15.9309 -7.3463 -2.4953 0.1408 0 8
16.0464 -7.0904 -2.4953 0.1408 0 8
16.1578 -6.8327 -2.4953 0.1408 0 8
-0.4896 -16.5478 -2.4953 0.1490 0 8
-0.2247 -16.5535 -2.4953 0.1490 0 8
0.0403 -16.5550 -2.4953 0.1490 0 8
0.3052 -16.5522 -2.4953 0.1490 0 8
0.5700 -16.5452 -2.4953 0.1490 0 8
0.8347 -16.5340 -2.4953 0.1490 0 8
1.0992 -16.5185 -2.4953 0.1490 0 8
1.3635 -16.4988 -2.4953 0.1490 0 8
1.6273 -16.4749 -2.4953 0.1490 0 8
1.8908 -16.4467 -2.4953 0.1490 0 8
2.1537 -16.4143 -2.4953 0.1490 0 8
2.4161 -16.3778 -2.4953 0.1490 0 8
2.6779 -16.3370 -2.4953 0.1490 0 8
2.9390 -16.2921 -2.4953 0.1490 0 8
3.1994 -16.2429 -2.4953 0.1490 0 8
3.4589 -16.1897 -2.4953 0.1490 0 8
3.7176 -16.1322 -2.4953 0.1490 0 8
3.9752 -16.0707 -2.4953 0.1490 0 8
4.2319 -16.0050 -2.4953 0.1490 0 8
4.4875 -15.9352 -2.4953 0.1490 0 8
4.7420 -15.8614 -2.4953 0.1490 0 8
4.9952 -15.7835 -2.4953 0.1490 0 8
5.2471 -15.7015 -2.4953 0.1490 0 8
5.4977 -15.6155 -2.4953 0.1490 0 8
5.7469 -15.5255 -2.4953 0.1490 0 8
5.9947 -15.4316 -2.4953 0.1490 0 8
6.2408 -15.3337 -2.4953 0.1490 0 8
6.4854 -15.2318 -2.4953 0.1490 0 8
6.7284 -15.1261 -2.4953 0.1490 0 8
6.9696 -15.0165 -2.4953 0.1490 0 8
7.2090 -14.9030 -2.4953 0.1490 0 8
7.4466 -14.7857 -2.4953 0.1490 0 8
7.6822 -14.6647 -2.4953 0.1490 0 8
7.9159 -14.5399 -2.4953 0.1490 0 8
8.1476 -14.4113 -2.4953 0.1490 0 8
8.3772 -14.2791 -2.4953 0.1490 0 8
8.6046 -14.1432 -2.4953 0.1490 0 8
8.8299 -14.0037 -2.4953 0.1490 0 8
9.0528 -13.8606 -2.4953 0.1490 0 8
9.2735 -13.7139 -2.4953 0.1490 0 8
9.4918 -13.5637 -2.4953 0.1490 0 8
9.7076 -13.4101 -2.4953 0.1490 0 8
9.9210 -13.2530 -2.4953 0.1490 0 8
10.1318 -13.0926 -2.4953 0.1490 0 8
10.3400 -12.9288 -2.4953 0.1490 0 8
10.5456 -12.7616 -2.4953 0.1490 0 8
10.7485 -12.5912 -2.4953 0.1490 0 8
10.9486 -12.4176 -2.4953 0.1490 0 8
11.1460 -12.2408 -2.4953 0.1490 0 8
11.3404 -12.0609 -2.4953 0.1490 0 8
11.5320 -11.8778 -2.4953 0.1490 0 8
11.7206 -11.6918 -2.4953 0.1490 0 8
11.9062 -11.5027 -2.4953 0.1490 0 8
12.0887 -11.3107 -2.4953 0.1490 0 8
12.2682 -11.1158 -2.4953 0.1490 0 8
12.4445 -10.9180 -2.4953 0.1490 0 8
12.6177 -10.7175 -2.4953 0.1490 0 8
12.7876 -10.5142 -2.4953 0.1490 0 8
12.9542 -10.3082 -2.4953 0.1490 0 8
13.1175 -10.0995 -2.4953 0.1490 0 8
13.2774 -9.8883 -2.4953 0.1490 0 8
13.4340 -9.6746 -2.4953 0.1490 0 8
13.5871 -9.4583 -2.4953 0.1490 0 8
13.7367 -9.2397 -2.4953 0.1490 0 8
13.8828 -9.0187 -2.4953 0.1490 0 8
14.0254 -8.7954 -2.4953 0.1490 0 8
14.1643 -8.5698 -2.4953 0.1490 0 8
14.2997 -8.3420 -2.4953 0.1490 0 8
14.4313 -8.1121 -2.4953 0.1490 0 8
14.5593 -7.8801 -2.4953 0.1490 0 8
14.6835 -7.6461 -2.4953 0.1490 0 8
14.8040 -7.4101 -2.4953 0.1490 0 8
14.9207 -7.1723 -2.4953 0.1490 0 8
15.0336 -6.9326 -2.4953 0.1490 0 8
15.1426 -6.6911 -2.4953 0.1490 0 8
15.2478 -6.4479 -2.4953 0.1490 0 8
-0.4634 -15.6634 -2.4953 0.1573 0 8
-0.2127 -15.6688 -2.4953 0.1573 0 8
0.0381 -15.6702 -2.4953 0.1573 0 8
0.2889 -15.6676 -2.4953 0.1573 0 8
0.5396 -15.6609 -2.4953 0.1573 0 8
0.7901 -15.6503 -2.4953 0.1573 0 8
1.0405 -15.6356 -2.4953 0.1573 0 8
1.2906 -15.6170 -2.4953 0.1573 0 8
1.5403 -15.5943 -2.4953 0.1573 0 8
1.7897 -15.5677 -2.4953 0.1573 0 8
2.0386 -15.5371 -2.4953 0.1573 0 8
2.2870 -15.5024 -2.4953 0.1573 0 8
2.5348 -15.4639 -2.4953 0.1573 0 8
2.7819 -15.4213 -2.4953 0.1573 0 8
3.0284 -15.3748 -2.4953 0.1573 0 8
3.2740 -15.3243 -2.4953 0.1573 0 8
3.5189 -15.2700 -2.4953 0.1573 0 8
3.7628 -15.2117 -2.4953 0.1573 0 8
4.0057 -15.1496 -2.4953 0.1573 0 8
4.2477 -15.0835 -2.4953 0.1573 0 8
4.4885 -15.0136 -2.4953 0.1573 0 8
4.7282 -14.9399 -2.4953 0.1573 0 8
4.9667 -14.8623 -2.4953 0.1573 0 8
5.2039 -14.7809 -2.4953 0.1573 0 8
5.4398 -14.6957 -2.4953 0.1573 0 8
5.6743 -14.6068 -2.4953 0.1573 0 8
5.9073 -14.5141 -2.4953 0.1573 0 8
6.1388 -14.4177 -2.4953 0.1573 0 8
6.3688 -14.3178 -2.4953 0.1573 0 8
6.5971 -14.2139 -2.4953 0.1573 0 8
6.8237 -14.1065 -2.4953 0.1573 0 8
7.0486 -13.9955 -2.4953 0.1573 0 8
7.2716 -13.8809 -2.4953 0.1573 0 8
7.4928 -13.7627 -2.4953 0.1573 0 8
7.7121 -13.6411 -2.4953 0.1573 0 8
7.9295 -13.5159 -2.4953 0.1573 0 8
8.1447 -13.3873 -2.4953 0.1573 0 8
8.3579 -13.2552 -2.4953 0.1573 0 8
8.5690 -13.1198 -2.4953 0.1573 0 8
8.7779 -12.9809 -2.4953 0.1573 0 8
8.9845 -12.8388 -2.4953 0.1573 0 8
9.1888 -12.6934 -2.4953 0.1573 0 8
9.3907 -12.5447 -2.4953 0.1573 0 8
9.5903 -12.3928 -2.4953 0.1573 0 8
9.7874 -12.2378 -2.4953 0.1573 0 8
9.9820 -12.0796 -2.4953 0.1573 0 8
10.1740 -11.9183 -2.4953 0.1573 0 8
10.3635 -11.7539 -2.4953 0.1573 0 8
10.5502 -11.5866 -2.4953 0.1573 0 8
10.7343 -11.4162 -2.4953 0.1573 0 8
10.9156 -11.2430 -2.4953 0.1573 0 8
11.0942 -11.0669 -2.4953 0.1573 0 8
11.2698 -10.8879 -2.4953 0.1573 0 8
11.4426 -10.7062 -2.4953 0.1573 0 8
11.6125 -10.5217 -2.4953 0.1573 0 8
11.7794 -10.3345 -2.4953 0.1573 0 8
11.9433 -10.1446 -2.4953 0.1573 0 8
12.1041 -9.9522 -2.4953 0.1573 0 8
12.2618 -9.7572 -2.4953 0.1573 0 8
12.4164 -9.5597 -2.4953 0.1573 0 8
12.5678 -9.3598 -2.4953 0.1573 0 8
12.7160 -9.1575 -2.4953 0.1573 0 8
12.8609 -8.9528 -2.4953 0.1573 0 8
13.0025 -8.7459 -2.4953 0.1573 0 8
13.1408 -8.5367 -2.4953 0.1573 0 8
13.2758 -8.3253 -2.4953 0.1573 0 8
13.4073 -8.1117 -2.4953 0.1573 0 8
13.5354 -7.8961 -2.4953 0.1573 0 8
13.6600 -7.6785 -2.4953 0.1573 0 8
13.7812 -7.4589 -2.4953 0.1573 0 8
13.8988 -7.2374 -2.4953 0.1573 0 8
14.0128 -7.0141 -2.4953 0.1573 0 8
14.1233 -6.7889 -2.4953 0.1573 0 8
14.2301 -6.5620 -2.4953 0.1573 0 8
14.3333 -6.3335 -2.4953 0.1573 0 8
14.4328 -6.1033 -2.4953 0.1573 0 8
-0.4398 -14.8667 -2.4953 0.1655 0 8
-0.2019 -14.8718 -2.4953 0.1655 0 8
0.0362 -14.8731 -2.4953 0.1655 0 8
0.2742 -14.8706 -2.4953 0.1655 0 8
0.5121 -14.8644 -2.4953 0.1655 0 8
0.7499 -14.8543 -2.4953 0.1655 0 8
0.9876 -14.8404 -2.4953 0.1655 0 8
1.2249 -14.8227 -2.4953 0.1655 0 8
1.4620 -14.8012 -2.4953 0.1655 0 8
1.6987 -14.7759 -2.4953 0.1655 0 8
1.9349 -14.7468 -2.4953 0.1655 0 8
2.1707 -14.7139 -2.4953 0.1655 0 8
2.4059 -14.6773 -2.4953 0.1655 0 8
2.6404 -14.6369 -2.4953 0.1655 0 8
2.8743 -14.5928 -2.4953 0.1655 0 8
3.1075 -14.5449 -2.4953 0.1655 0 8
3.3399 -14.4933 -2.4953 0.1655 0 8
3.5714 -14.4380 -2.4953 0.1655 0 8
3.8020 -14.3790 -2.4953 0.1655 0 8
4.0316 -14.3163 -2.4953 0.1655 0 8
4.2602 -14.2500 -2.4953 0.1655 0 8
4.4877 -14.1800 -2.4953 0.1655 0 8
4.7141 -14.1064 -2.4953 0.1655 0 8
4.9392 -14.0291 -2.4953 0.1655 0 8
5.1631 -13.9483 -2.4953 0.1655 0 8
5.3856 -13.8639 -2.4953 0.1655 0 8
5.6068 -13.7759 -2.4953 0.1655 0 8
5.8266 -13.6844 -2.4953 0.1655 0 8
6.0448 -13.5894 -2.4953 0.1655 0 8
6.2615 -13.4909 -2.4953 0.1655 0 8
6.4766 -13.3890 -2.4953 0.1655 0 8
6.6901 -13.2836 -2.4953 0.1655 0 8
6.9018 -13.1749 -2.4953 0.1655 0 8
7.1117 -13.0627 -2.4953 0.1655 0 8
7.3199 -12.9472 -2.4953 0.1655 0 8
7.5261 -12.8284 -2.4953 0.1655 0 8
7.7305 -12.7064 -2.4953 0.1655 0 8
7.9328 -12.5810 -2.4953 0.1655 0 8
8.1332 -12.4524 -2.4953 0.1655 0 8
8.3314 -12.3207 -2.4953 0.1655 0 8
8.5275 -12.1858 -2.4953 0.1655 0 8
8.7214 -12.0478 -2.4953 0.1655 0 8
8.9131 -11.9066 -2.4953 0.1655 0 8
9.1025 -11.7625 -2.4953 0.1655 0 8
9.2896 -11.6153 -2.4953 0.1655 0 8
9.4743 -11.4651 -2.4953 0.1655 0 8
9.6565 -11.3121 -2.4953 0.1655 0 8
9.8363 -11.1561 -2.4953 0.1655 0 8
10.0136 -10.9972 -2.4953 0.1655 0 8
10.1883 -10.8356 -2.4953 0.1655 0 8
10.3604 -10.6711 -2.4953 0.1655 0 8
10.5299 -10.5040 -2.4953 0.1655 0 8
10.6966 -10.3341 -2.4953 0.1655 0 8
10.8606 -10.1616 -2.4953 0.1655 0 8
11.0219 -9.9865 -2.4953 0.1655 0 8
11.1803 -9.8088 -2.4953 0.1655 0 8
11.3358 -9.6287 -2.4953 0.1655 0 8
11.4885 -9.4460 -2.4953 0.1655 0 8
11.6382 -9.2609 -2.4953 0.1655 0 8
11.7849 -9.0735 -2.4953 0.1655 0 8
11.9286 -8.8838 -2.4953 0.1655 0 8
12.0692 -8.6917 -2.4953 0.1655 0 8
12.2068 -8.4975 -2.4953 0.1655 0 8
12.3412 -8.3010 -2.4953 0.1655 0 8
12.4724 -8.1025 -2.4953 0.1655 0 8
12.6005 -7.9018 -2.4953 0.1655 0 8
12.7254 -7.6992 -2.4953 0.1655 0 8
12.8469 -7.4945 -2.4953 0.1655 0 8
12.9652 -7.2880 -2.4953 0.1655 0 8
13.0802 -7.0795 -2.4953 0.1655 0 8
13.1918 -6.8693 -2.4953 0.1655 0 8
13.3001 -6.6573 -2.4953 0.1655 0 8
13.4049 -6.4436 -2.4953 0.1655 0 8
13.5063 -6.2283 -2.4953 0.1655 0 8
13.6042 -6.0113 -2.4953 0.1655 0 8
13.6987 -5.7928 -2.4953 0.1655 0 8
-0.4185 -14.1452 -2.4953 0.1736 0 8
-0.1921 -14.1501 -2.4953 0.1736 0 8
0.0344 -14.1513 -2.4953 0.1736 0 8
0.2609 -14.1490 -2.4953 0.1736 0 8
0.4873 -14.1430 -2.4953 0.1736 0 8
0.7135 -14.1334 -2.4953 0.1736 0 8
0.9396 -14.1202 -2.4953 0.1736 0 8
