ply
format ascii 1.0
element vertex 1408
property float32 x
property float32 y
property float32 z
property float32 CosAngle
property uint32 ObjIdx
property uint32 ObjTag
end_header
20.2135 13.6844 -2.6477 0.1078 0 7
19.9897 14.0093 -2.6477 0.1078 0 7
19.7607 14.3305 -2.6477 0.1078 0 7
19.5265 14.6480 -2.6477 0.1078 0 7
19.2872 14.9617 -2.6477 0.1078 0 7
19.0429 15.2714 -2.6477 0.1078 0 7
18.7936 15.5772 -2.6477 0.1078 0 7
18.5394 15.8789 -2.6477 0.1078 0 7
18.2804 16.1764 -2.6477 0.1078 0 7
18.0165 16.4698 -2.6477 0.1078 0 7
17.7480 16.7588 -2.6477 0.1078 0 7
17.4749 17.0434 -2.6477 0.1078 0 7
17.1971 17.3236 -2.6477 0.1078 0 7
16.9149 17.5993 -2.6477 0.1078 0 7
16.6283 17.8703 -2.6477 0.1078 0 7
16.3373 18.1367 -2.6477 0.1078 0 7
16.0420 18.3984 -2.6477 0.1078 0 7
15.7426 18.6552 -2.6477 0.1078 0 7
15.4391 18.9072 -2.6477 0.1078 0 7
14.9939 18.9801 -2.6236 0.7850 0 8
14.5054 18.9847 -2.5915 0.7947 0 8
14.0286 18.9891 -2.5608 0.8043 0 8
13.5627 18.9932 -2.5315 0.8136 0 8
13.1107 19.0023 -2.5041 0.6538 0 8
12.7958 19.2024 -2.5029 0.1078 0 14
12.4838 19.4067 -2.5029 0.1078 0 14
12.1685 19.6059 -2.5029 0.1078 0 14
11.8500 19.8000 -2.5029 0.1078 0 14
11.5285 19.9890 -2.5029 0.1078 0 14
11.2039 20.1727 -2.5029 0.1078 0 14
10.8765 20.3511 -2.5029 0.1078 0 14
10.5461 20.5242 -2.5029 0.1078 0 14
10.2131 20.6920 -2.5029 0.1078 0 14
9.8773 20.8543 -2.5029 0.1078 0 14
9.5390 21.0113 -2.5029 0.1078 0 14
9.1982 21.1627 -2.5029 0.1078 0 14
8.8550 21.3086 -2.5029 0.1078 0 14
8.5094 21.4489 -2.5029 0.1078 0 14
8.1617 21.5836 -2.5029 0.1078 0 14
7.8118 21.7127 -2.5029 0.1078 0 14
7.4599 21.8361 -2.5029 0.1078 0 14
9.0220 0.4118 -1.0556 0.3117 25 10
9.1212 0.5642 -1.0682 0.1210 25 10
21.2836 1.6621 -2.4953 0.1161 0 8
21.2540 2.0059 -2.4953 0.1161 0 8
21.2188 2.3491 -2.4953 0.1161 0 8
21.1780 2.6917 -2.4953 0.1161 0 8
21.1318 3.0336 -2.4953 0.1161 0 8
21.0800 3.3748 -2.4953 0.1161 0 8
21.0227 3.7150 -2.4953 0.1161 0 8
20.9599 4.0543 -2.4953 0.1161 0 8
20.8916 4.3925 -2.4953 0.1161 0 8
20.8179 4.7295 -2.4953 0.1161 0 8
20.7388 5.0653 -2.4953 0.1161 0 8
20.6542 5.3999 -2.4953 0.1161 0 8
20.5642 5.7329 -2.4953 0.1161 0 8
20.4689 6.0645 -2.4953 0.1161 0 8
20.3682 6.3946 -2.4953 0.1161 0 8
20.2622 6.7229 -2.4953 0.1161 0 8
20.1509 7.0495 -2.4953 0.1161 0 8
20.0343 7.3742 -2.4953 0.1161 0 8
19.9126 7.6970 -2.4953 0.1161 0 8
19.7856 8.0178 -2.4953 0.1161 0 8
19.6534 8.3365 -2.4953 0.1161 0 8
20.7081 9.1816 -2.6477 0.1161 0 7
20.5570 9.5150 -2.6477 0.1161 0 7
20.4005 9.8460 -2.6477 0.1161 0 7
20.2387 10.1744 -2.6477 0.1161 0 7
20.0717 10.5002 -2.6477 0.1161 0 7
19.8993 10.8232 -2.6477 0.1161 0 7
19.7218 11.1434 -2.6477 0.1161 0 7
19.5391 11.4607 -2.6477 0.1161 0 6
19.3514 11.7750 -2.6477 0.1161 0 7
19.1585 12.0862 -2.6477 0.1161 0 7
18.9607 12.3942 -2.6477 0.1161 0 7
18.7579 12.6990 -2.6477 0.1161 0 7
18.5503 13.0005 -2.6477 0.1161 0 7
18.3377 13.2986 -2.6477 0.1161 0 7
18.1204 13.5932 -2.6477 0.1161 0 7
17.8984 13.8843 -2.6477 0.1161 0 7
17.6716 14.1717 -2.6477 0.1161 0 7
17.4403 14.4555 -2.6477 0.1161 0 7
17.2044 14.7355 -2.6477 0.1161 0 7
16.9640 15.0116 -2.6477 0.1161 0 7
16.7192 15.2838 -2.6477 0.1161 0 7
16.4700 15.5520 -2.6477 0.1161 0 7
16.2165 15.8161 -2.6477 0.1161 0 7
15.9588 16.0761 -2.6477 0.1161 0 7
15.6969 16.3320 -2.6477 0.1161 0 7
15.4309 16.5835 -2.6477 0.1161 0 7
15.1609 16.8307 -2.6477 0.1161 0 7
14.8869 17.0735 -2.6477 0.1161 0 7
14.6090 17.3119 -2.6477 0.1161 0 7
14.3273 17.5457 -2.6477 0.1161 0 7
14.0419 17.7750 -2.6477 0.1161 0 7
13.7528 17.9996 -2.6477 0.1161 0 7
13.4601 18.2195 -2.6477 0.1161 0 7
13.1639 18.4347 -2.6477 0.1161 0 6
12.8642 18.6450 -2.6477 0.1161 0 7
12.5612 18.8505 -2.6477 0.1161 0 7
12.2028 18.9700 -2.6364 0.8410 0 8
11.7761 18.9737 -2.6101 0.8495 0 8
11.3576 18.9772 -2.5850 0.8578 0 8
10.9469 18.9805 -2.5610 0.8658 0 8
10.5435 18.9836 -2.5381 0.8736 0 8
10.1472 18.9865 -2.5163 0.8812 0 8
9.7867 19.0463 -2.5029 0.1161 0 8
9.4776 19.2020 -2.5029 0.1161 0 14
9.1661 19.3526 -2.5029 0.1161 0 14
8.8521 19.4983 -2.5029 0.1161 0 14
8.5358 19.6388 -2.5029 0.1161 0 14
8.2173 19.7742 -2.5029 0.1161 0 14
7.8967 19.9044 -2.5029 0.1161 0 14
7.5740 20.0294 -2.5029 0.1161 0 14
7.2493 20.1492 -2.5029 0.1161 0 14
6.9227 20.2637 -2.5029 0.1161 0 14
8.7926 0.4013 -1.1030 0.3201 25 10
8.8484 0.5473 -1.1110 0.2972 25 10
19.8514 1.5503 -2.4953 0.1243 0 8
19.8237 1.8709 -2.4953 0.1243 0 8
19.7909 2.1910 -2.4953 0.1243 0 8
19.7529 2.5106 -2.4953 0.1243 0 8
19.7097 2.8295 -2.4953 0.1243 0 8
19.6614 3.1477 -2.4953 0.1243 0 8
19.6080 3.4650 -2.4953 0.1243 0 8
19.5494 3.7814 -2.4953 0.1243 0 8
19.4858 4.0969 -2.4953 0.1243 0 8
19.4170 4.4113 -2.4953 0.1243 0 8
19.3432 4.7245 -2.4953 0.1243 0 8
19.2643 5.0365 -2.4953 0.1243 0 8
19.1804 5.3472 -2.4953 0.1243 0 8
19.0915 5.6564 -2.4953 0.1243 0 8
18.9976 5.9643 -2.4953 0.1243 0 8
18.8987 6.2705 -2.4953 0.1243 0 8
18.7949 6.5751 -2.4953 0.1243 0 8
18.6862 6.8780 -2.4953 0.1243 0 8
18.5726 7.1791 -2.4953 0.1243 0 8
18.4541 7.4783 -2.4953 0.1243 0 8
18.3309 7.7756 -2.4953 0.1243 0 8
18.2028 8.0708 -2.4953 0.1243 0 8
18.0708 8.3643 -2.4954 0.3809 0 8
19.0277 9.1835 -2.6477 0.1243 0 7
18.8768 9.4898 -2.6477 0.1243 0 7
18.7210 9.7936 -2.6477 0.1243 0 7
18.5602 10.0949 -2.6477 0.1243 0 7
18.3947 10.3935 -2.6477 0.1243 0 7
18.2243 10.6894 -2.6477 0.1243 0 7
18.0492 10.9826 -2.6477 0.1243 0 7
17.8693 11.2728 -2.6477 0.1243 0 7
17.6848 11.5602 -2.6477 0.1243 0 7
17.4957 11.8445 -2.6477 0.1243 0 7
17.3019 12.1257 -2.6477 0.1243 0 7
17.1037 12.4037 -2.6477 0.1243 0 7
16.9010 12.6785 -2.6477 0.1243 0 7
16.6939 12.9500 -2.6477 0.1243 0 7
16.4825 13.2181 -2.6477 0.1243 0 7
16.2667 13.4827 -2.6477 0.1243 0 7
16.0467 13.7439 -2.6477 0.1243 0 7
15.8224 14.0014 -2.6477 0.1243 0 7
15.5941 14.2553 -2.6477 0.1243 0 7
15.3617 14.5054 -2.6477 0.1243 0 7
15.1252 14.7518 -2.6477 0.1243 0 7
14.8849 14.9943 -2.6477 0.1243 0 6
14.6406 15.2329 -2.6477 0.1243 0 7
14.3925 15.4675 -2.6477 0.1243 0 7
14.1406 15.6981 -2.6477 0.1243 0 7
13.8851 15.9246 -2.6477 0.1243 0 7
13.6259 16.1469 -2.6477 0.1243 0 7
13.3632 16.3650 -2.6477 0.1243 0 7
13.0970 16.5789 -2.6477 0.1243 0 7
12.8273 16.7884 -2.6477 0.1243 0 7
12.5543 16.9935 -2.6477 0.1243 0 7
12.2780 17.1941 -2.6477 0.1243 0 7
11.9986 17.3903 -2.6477 0.1243 0 7
11.7159 17.5820 -2.6477 0.1243 0 7
11.4303 17.7690 -2.6477 0.1243 0 7
11.1416 17.9514 -2.6477 0.1243 0 7
10.8500 18.1291 -2.6477 0.1243 0 7
10.5556 18.3021 -2.6477 0.1243 0 7
10.2585 18.4703 -2.6477 0.1243 0 6
9.9586 18.6337 -2.6477 0.1243 0 7
9.6562 18.7922 -2.6477 0.1243 0 7
9.3512 18.9458 -2.6477 0.1243 0 7
8.9812 18.9624 -2.6294 0.9032 0 8
8.6100 18.9649 -2.6101 0.9099 0 8
8.2440 18.9673 -2.5917 0.9163 0 8
7.8830 18.9695 -2.5743 0.9226 0 8
7.5266 18.9716 -2.5577 0.9285 0 8
7.1747 18.9735 -2.5420 0.9343 0 8
6.8270 18.9753 -2.5271 0.9398 0 8
6.4831 18.9769 -2.5131 0.9450 0 8
8.5832 0.3918 -1.1493 0.4045 25 10
8.6226 0.5333 -1.1556 0.4023 25 10
18.5973 1.4523 -2.4953 0.1326 0 8
18.5714 1.7527 -2.4953 0.1326 0 8
18.5406 2.0526 -2.4953 0.1326 0 8
18.5050 2.3520 -2.4953 0.1326 0 8
18.4646 2.6507 -2.4953 0.1326 0 8
18.4193 2.9488 -2.4953 0.1326 0 8
18.3692 3.2461 -2.4953 0.1326 0 8
18.3144 3.5426 -2.4953 0.1326 0 8
18.2548 3.8381 -2.4953 0.1326 0 8
18.1904 4.1326 -2.4953 0.1326 0 8
18.1212 4.4260 -2.4953 0.1326 0 8
18.0473 4.7183 -2.4953 0.1326 0 8
17.9687 5.0094 -2.4953 0.1326 0 8
17.8854 5.2991 -2.4953 0.1326 0 8
17.7974 5.5875 -2.4953 0.1326 0 8
17.7048 5.8743 -2.4953 0.1326 0 8
17.6075 6.1597 -2.4953 0.1326 0 8
17.5057 6.4435 -2.4953 0.1326 0 8
17.3993 6.7255 -2.4953 0.1326 0 8
17.2883 7.0058 -2.4953 0.1326 0 8
17.1728 7.2843 -2.4953 0.1326 0 8
17.0529 7.5609 -2.4953 0.1326 0 8
16.9284 7.8355 -2.4953 0.1326 0 8
16.7996 8.1081 -2.4953 0.1326 0 8
16.6663 8.3785 -2.4953 0.1326 0 8
17.5383 9.1749 -2.6477 0.1326 0 7
17.3877 9.4571 -2.6477 0.1326 0 7
17.2326 9.7369 -2.6477 0.1326 0 7
17.0730 10.0142 -2.6477 0.1326 0 7
16.9089 10.2888 -2.6477 0.1326 0 7
16.7404 10.5607 -2.6477 0.1326 0 7
16.5676 10.8299 -2.6477 0.1326 0 7
16.3904 11.0962 -2.6477 0.1326 0 7
16.2089 11.3596 -2.6477 0.1326 0 7
16.0232 11.6201 -2.6477 0.1326 0 7
15.8333 11.8775 -2.6477 0.1326 0 7
15.6393 12.1319 -2.6477 0.1326 0 7
15.4412 12.3830 -2.6477 0.1326 0 7
15.2391 12.6310 -2.6477 0.1326 0 7
15.0329 12.8756 -2.6477 0.1326 0 7
14.8229 13.1169 -2.6477 0.1326 0 7
14.6090 13.3547 -2.6477 0.1326 0 7
14.3912 13.5891 -2.6477 0.1326 0 7
14.1697 13.8199 -2.6477 0.1326 0 7
13.9445 14.0471 -2.6477 0.1326 0 7
13.7157 14.2706 -2.6477 0.1326 0 7
13.4833 14.4904 -2.6477 0.1326 0 7
13.2473 14.7064 -2.6477 0.1326 0 7
13.0079 14.9186 -2.6477 0.1326 0 6
12.7651 15.1269 -2.6477 0.1326 0 7
12.5190 15.3312 -2.6477 0.1326 0 7
12.2696 15.5315 -2.6477 0.1326 0 7
12.0169 15.7278 -2.6477 0.1326 0 7
11.7612 15.9199 -2.6477 0.1326 0 7
11.5024 16.1079 -2.6477 0.1326 0 7
11.2406 16.2917 -2.6477 0.1326 0 7
10.9758 16.4712 -2.6477 0.1326 0 7
10.7082 16.6465 -2.6477 0.1326 0 7
10.4377 16.8173 -2.6477 0.1326 0 7
10.1646 16.9838 -2.6477 0.1326 0 7
9.8888 17.1459 -2.6477 0.1326 0 7
9.6104 17.3035 -2.6477 0.1326 0 7
9.3295 17.4565 -2.6477 0.1326 0 7
9.0461 17.6050 -2.6477 0.1326 0 7
8.7604 17.7489 -2.6477 0.1326 0 7
8.4725 17.8882 -2.6477 0.1326 0 7
8.1822 18.0228 -2.6477 0.1326 0 7
7.8899 18.1527 -2.6477 0.1326 0 7
7.5955 18.2778 -2.6477 0.1326 0 7
7.2991 18.3982 -2.6477 0.1326 0 6
7.0008 18.5137 -2.6477 0.1326 0 6
6.7007 18.6245 -2.6477 0.1326 0 7
6.3989 18.7303 -2.6477 0.1326 0 7
8.4211 0.3844 -1.1990 0.4245 25 10
8.4549 0.5230 -1.2049 0.4098 25 10
8.8188 0.6887 -1.2582 0.0996 25 10
17.4655 1.6483 -2.4953 0.1408 0 8
17.4366 1.9304 -2.4953 0.1408 0 8
17.4031 2.2119 -2.4953 0.1408 0 8
17.3651 2.4929 -2.4953 0.1408 0 8
17.3225 2.7732 -2.4953 0.1408 0 8
17.2755 3.0528 -2.4953 0.1408 0 8
17.2239 3.3316 -2.4953 0.1408 0 8
17.1678 3.6095 -2.4953 0.1408 0 8
17.1072 3.8865 -2.4953 0.1408 0 8
17.0422 4.1625 -2.4953 0.1408 0 8
16.9727 4.4374 -2.4953 0.1408 0 8
16.8987 4.7111 -2.4953 0.1408 0 8
16.8204 4.9836 -2.4953 0.1408 0 8
16.7376 5.2547 -2.4953 0.1408 0 8
16.6505 5.5246 -2.4953 0.1408 0 8
16.5591 5.7929 -2.4953 0.1408 0 8
16.4633 6.0598 -2.4953 0.1408 0 8
16.3632 6.3251 -2.4953 0.1408 0 8
16.2589 6.5887 -2.4953 0.1408 0 8
16.1503 6.8506 -2.4953 0.1408 0 8
16.0374 7.1107 -2.4953 0.1408 0 8
15.9204 7.3690 -2.4953 0.1408 0 8
15.7992 7.6253 -2.4953 0.1408 0 8
15.6740 7.8796 -2.4953 0.1408 0 8
15.5446 8.1319 -2.4953 0.1408 0 8
15.4111 8.3821 -2.4953 0.1408 0 8
16.2065 9.1571 -2.6477 0.1408 0 7
16.0564 9.4179 -2.6477 0.1408 0 7
15.9021 9.6761 -2.6477 0.1408 0 7
15.7436 9.9318 -2.6477 0.1408 0 7
15.5810 10.1850 -2.6477 0.1408 0 7
15.4144 10.4355 -2.6477 0.1408 0 7
15.2437 10.6832 -2.6477 0.1408 0 7
15.0691 10.9282 -2.6477 0.1408 0 7
14.8905 11.1703 -2.6477 0.1408 0 7
14.7080 11.4095 -2.6477 0.1408 0 7
14.5217 11.6457 -2.6477 0.1408 0 7
14.3316 11.8789 -2.6477 0.1408 0 7
14.1378 12.1089 -2.6477 0.1408 0 7
13.9402 12.3358 -2.6477 0.1408 0 7
13.7391 12.5595 -2.6477 0.1408 0 7
13.5343 12.7799 -2.6477 0.1408 0 7
13.3260 12.9970 -2.6477 0.1408 0 7
13.1142 13.2106 -2.6477 0.1408 0 7
12.8990 13.4209 -2.6477 0.1408 0 7
12.6804 13.6276 -2.6477 0.1408 0 7
12.4585 13.8307 -2.6477 0.1408 0 7
12.2334 14.0302 -2.6477 0.1408 0 7
12.0050 14.2261 -2.6477 0.1408 0 7
11.7735 14.4183 -2.6477 0.1408 0 7
11.5390 14.6067 -2.6477 0.1408 0 7
11.3014 14.7913 -2.6477 0.1408 0 7
11.0609 14.9720 -2.6477 0.1408 0 7
10.8175 15.1488 -2.6477 0.1408 0 7
10.5712 15.3216 -2.6477 0.1408 0 7
10.3222 15.4904 -2.6477 0.1408 0 7
10.0705 15.6552 -2.6477 0.1408 0 7
9.8162 15.8160 -2.6477 0.1408 0 7
9.5593 15.9725 -2.6477 0.1408 0 7
9.3000 16.1249 -2.6477 0.1408 0 7
9.0381 16.2731 -2.6477 0.1408 0 7
8.7740 16.4171 -2.6477 0.1408 0 7
8.5075 16.5567 -2.6477 0.1408 0 7
8.2388 16.6921 -2.6477 0.1408 0 7
7.9680 16.8230 -2.6477 0.1408 0 7
7.6950 16.9496 -2.6477 0.1408 0 7
7.4201 17.0718 -2.6477 0.1408 0 7
7.1432 17.1894 -2.6477 0.1408 0 7
6.8645 17.3026 -2.6477 0.1408 0 7
6.5840 17.4113 -2.6477 0.1408 0 7
6.3017 17.5154 -2.6477 0.1408 0 7
6.0178 17.6150 -2.6477 0.1408 0 7
8.2880 0.3783 -1.2505 0.5143 25 10
8.3242 0.5149 -1.2571 0.5117 25 10
8.4202 0.6576 -1.2730 0.3370 25 10
16.4818 1.5555 -2.4953 0.1490 0 8
16.4545 1.8217 -2.4953 0.1490 0 8
16.4229 2.0873 -2.4953 0.1490 0 8
16.3870 2.3525 -2.4953 0.1490 0 8
16.3469 2.6170 -2.4953 0.1490 0 8
16.3025 2.8809 -2.4953 0.1490 0 8
16.2538 3.1440 -2.4953 0.1490 0 8
16.2008 3.4062 -2.4953 0.1490 0 8
16.1437 3.6676 -2.4953 0.1490 0 8
16.0823 3.9280 -2.4953 0.1490 0 8
16.0167 4.1874 -2.4953 0.1490 0 8
15.9469 4.4457 -2.4953 0.1490 0 8
15.8730 4.7029 -2.4953 0.1490 0 8
15.7949 4.9588 -2.4953 0.1490 0 8
15.7127 5.2134 -2.4953 0.1490 0 8
15.6264 5.4667 -2.4953 0.1490 0 8
15.5360 5.7185 -2.4953 0.1490 0 8
15.4416 5.9688 -2.4953 0.1490 0 8
15.3431 6.2176 -2.4953 0.1490 0 8
15.2406 6.4647 -2.4953 0.1490 0 8
15.1341 6.7102 -2.4953 0.1490 0 8
15.0237 6.9539 -2.4953 0.1490 0 8
14.9094 7.1958 -2.4953 0.1490 0 8
14.7911 7.4358 -2.4953 0.1490 0 8
14.6690 7.6739 -2.4953 0.1490 0 8
14.5431 7.9100 -2.4953 0.1490 0 8
14.4134 8.1440 -2.4953 0.1490 0 8
14.2798 8.3758 -2.4953 0.1490 0 8
15.0064 9.1311 -2.6477 0.1490 0 7
14.8569 9.3725 -2.6477 0.1490 0 7
14.7035 9.6113 -2.6477 0.1490 0 7
14.5462 9.8477 -2.6477 0.1490 0 7
14.3852 10.0815 -2.6477 0.1490 0 7
14.2204 10.3127 -2.6477 0.1490 0 7
14.0518 10.5411 -2.6477 0.1490 0 7
13.8796 10.7669 -2.6477 0.1490 0 7
13.7038 10.9898 -2.6477 0.1490 0 7
13.5244 11.2098 -2.6477 0.1490 0 7
13.3415 11.4269 -2.6477 0.1490 0 6
13.1551 11.6410 -2.6477 0.1490 0 7
12.9652 11.8521 -2.6477 0.1490 0 7
12.7720 12.0601 -2.6477 0.1490 0 7
12.5754 12.2649 -2.6477 0.1490 0 7
12.3756 12.4666 -2.6477 0.1490 0 7
12.1725 12.6649 -2.6477 0.1490 0 7
11.9662 12.8600 -2.6477 0.1490 0 7
11.7568 13.0517 -2.6477 0.1490 0 7
11.5443 13.2400 -2.6477 0.1490 0 7
11.3288 13.4249 -2.6477 0.1490 0 7
11.1104 13.6062 -2.6477 0.1490 0 7
10.8891 13.7840 -2.6477 0.1490 0 7
10.6649 13.9582 -2.6477 0.1490 0 7
10.4379 14.1287 -2.6477 0.1490 0 7
10.2082 14.2955 -2.6477 0.1490 0 7
9.9758 14.4586 -2.6477 0.1490 0 7
9.7409 14.6180 -2.6477 0.1490 0 7
9.5033 14.7735 -2.6477 0.1490 0 7
9.2633 14.9251 -2.6477 0.1490 0 7
9.0209 15.0729 -2.6477 0.1490 0 7
8.7761 15.2167 -2.6477 0.1490 0 7
8.5291 15.3566 -2.6477 0.1490 0 7
8.2798 15.4924 -2.6477 0.1490 0 7
8.0283 15.6242 -2.6477 0.1490 0 7
7.7748 15.7519 -2.6477 0.1490 0 7
7.5192 15.8755 -2.6477 0.1490 0 7
7.2616 15.9949 -2.6477 0.1490 0 7
7.0022 16.1102 -2.6477 0.1490 0 7
6.7409 16.2213 -2.6477 0.1490 0 7
6.4779 16.3281 -2.6477 0.1490 0 7
6.2131 16.4307 -2.6477 0.1490 0 7
5.9468 16.5289 -2.6477 0.1490 0 7
5.6789 16.6229 -2.6477 0.1490 0 7
8.1646 0.3727 -1.3015 0.5133 25 10
8.2016 0.5073 -1.3085 0.5186 25 10
8.2791 0.6465 -1.3224 0.3423 25 10
15.6009 1.4724 -2.4953 0.1573 0 8
15.5751 1.7243 -2.4953 0.1573 0 8
15.5452 1.9758 -2.4953 0.1573 0 8
15.5112 2.2268 -2.4953 0.1573 0 8
15.4732 2.4771 -2.4953 0.1573 0 8
15.4311 2.7269 -2.4953 0.1573 0 8
15.3850 2.9759 -2.4953 0.1573 0 8
15.3349 3.2242 -2.4953 0.1573 0 8
15.2808 3.4716 -2.4953 0.1573 0 8
15.2227 3.7181 -2.4953 0.1573 0 8
15.1607 3.9636 -2.4953 0.1573 0 8
15.0946 4.2081 -2.4953 0.1573 0 8
15.0246 4.4515 -2.4953 0.1573 0 8
14.9507 4.6938 -2.4953 0.1573 0 8
14.8729 4.9348 -2.4953 0.1573 0 8
14.7912 5.1745 -2.4953 0.1573 0 8
14.7057 5.4128 -2.4953 0.1573 0 8
14.6163 5.6498 -2.4953 0.1573 0 8
14.5231 5.8853 -2.4953 0.1573 0 8
14.4261 6.1192 -2.4953 0.1573 0 8
14.3253 6.3516 -2.4953 0.1573 0 8
14.2208 6.5822 -2.4953 0.1573 0 8
14.1125 6.8112 -2.4953 0.1573 0 8
14.0006 7.0384 -2.4953 0.1573 0 8
13.8850 7.2637 -2.4953 0.1573 0 8
13.7658 7.4872 -2.4953 0.1573 0 8
13.6430 7.7087 -2.4953 0.1573 0 8
13.5166 7.9282 -2.4953 0.1573 0 8
13.3868 8.1456 -2.4953 0.1573 0 8
13.2534 8.3609 -2.4953 0.1573 0 8
13.9176 9.0976 -2.6477 0.1573 0 7
13.7688 9.3214 -2.6477 0.1573 0 7
13.6163 9.5427 -2.6477 0.1573 0 7
13.4603 9.7615 -2.6477 0.1573 0 7
13.3008 9.9777 -2.6477 0.1573 0 7
13.1378 10.1914 -2.6477 0.1573 0 7
12.9714 10.4024 -2.6477 0.1573 0 7
12.8016 10.6107 -2.6477 0.1573 0 7
12.6284 10.8162 -2.6477 0.1573 0 7
12.4520 11.0189 -2.6477 0.1573 0 7
12.2723 11.2187 -2.6477 0.1573 0 7
12.0893 11.4155 -2.6477 0.1573 0 6
11.9033 11.6094 -2.6477 0.1573 0 7
11.7141 11.8003 -2.6477 0.1573 0 7
11.5219 11.9880 -2.6477 0.1573 0 7
11.3266 12.1727 -2.6477 0.1573 0 7
11.1284 12.3541 -2.6477 0.1573 0 7
10.9273 12.5324 -2.6477 0.1573 0 7
10.7233 12.7073 -2.6477 0.1573 0 7
10.5166 12.8790 -2.6477 0.1573 0 7
10.3071 13.0473 -2.6477 0.1573 0 7
10.0949 13.2121 -2.6477 0.1573 0 7
9.8800 13.3736 -2.6477 0.1573 0 7
9.6626 13.5315 -2.6477 0.1573 0 7
9.4427 13.6859 -2.6477 0.1573 0 7
9.2202 13.8367 -2.6477 0.1573 0 7
8.9954 13.9839 -2.6477 0.1573 0 7
8.7682 14.1274 -2.6477 0.1573 0 7
8.5388 14.2673 -2.6477 0.1573 0 7
8.3071 14.4034 -2.6477 0.1573 0 7
8.0732 14.5358 -2.6477 0.1573 0 7
7.8373 14.6644 -2.6477 0.1573 0 7
7.5992 14.7891 -2.6477 0.1573 0 7
7.3592 14.9100 -2.6477 0.1573 0 6
7.1173 15.0270 -2.6477 0.1573 0 7
6.8735 15.1401 -2.6477 0.1573 0 7
6.6279 15.2492 -2.6477 0.1573 0 7
6.3806 15.3543 -2.6477 0.1573 0 7
6.1316 15.4554 -2.6477 0.1573 0 7
5.8811 15.5525 -2.6477 0.1573 0 7
5.6290 15.6455 -2.6477 0.1573 0 7
5.3754 15.7344 -2.6477 0.1573 0 7
8.0002 0.3652 -1.3436 0.3528 25 10
8.0466 0.4977 -1.3526 0.3505 25 10
8.1423 0.6359 -1.3702 0.2671 25 10
8.6291 0.8144 -1.4541 0.0218 25 10
14.7829 1.6366 -2.4953 0.1655 0 8
14.7545 1.8753 -2.4953 0.1655 0 8
14.7223 2.1135 -2.4953 0.1655 0 8
14.6862 2.3511 -2.4953 0.1655 0 8
14.6463 2.5882 -2.4953 0.1655 0 8
14.6025 2.8246 -2.4953 0.1655 0 8
14.5550 3.0602 -2.4953 0.1655 0 8
14.5036 3.2950 -2.4953 0.1655 0 8
14.4485 3.5290 -2.4953 0.1655 0 8
14.3895 3.7620 -2.4953 0.1655 0 8
14.3269 3.9941 -2.4953 0.1655 0 8
14.2604 4.2251 -2.4953 0.1655 0 8
14.1903 4.4550 -2.4953 0.1655 0 8
14.1164 4.6838 -2.4953 0.1655 0 8
14.0389 4.9113 -2.4953 0.1655 0 8
13.9577 5.1375 -2.4953 0.1655 0 8
13.8729 5.3624 -2.4953 0.1655 0 8
13.7844 5.5859 -2.4953 0.1655 0 8
13.6923 5.8080 -2.4953 0.1655 0 8
13.5966 6.0285 -2.4953 0.1655 0 8
13.4974 6.2475 -2.4953 0.1655 0 8
13.3947 6.4648 -2.4953 0.1655 0 8
13.2885 6.6804 -2.4953 0.1655 0 8
13.1788 6.8943 -2.4953 0.1655 0 8
13.0656 7.1064 -2.4953 0.1655 0 8
12.9491 7.3166 -2.4953 0.1655 0 8
12.8291 7.5249 -2.4953 0.1655 0 8
12.7059 7.7313 -2.4953 0.1655 0 8
12.5793 7.9356 -2.4953 0.1655 0 8
12.4494 8.1379 -2.4953 0.1655 0 8
12.3162 8.3380 -2.4953 0.1655 0 8
12.9238 9.0573 -2.6477 0.1655 0 7
12.7757 9.2650 -2.6477 0.1655 0 7
12.6243 9.4702 -2.6477 0.1655 0 7
12.4696 9.6730 -2.6477 0.1655 0 7
12.3116 9.8733 -2.6477 0.1655 0 7
12.1505 10.0710 -2.6477 0.1655 0 7
11.9861 10.2660 -2.6477 0.1655 0 7
11.8186 10.4584 -2.6477 0.1655 0 7
11.6481 10.6480 -2.6477 0.1655 0 7
11.4745 10.8349 -2.6477 0.1655 0 7
11.2979 11.0189 -2.6477 0.1655 0 7
11.1183 11.2001 -2.6477 0.1655 0 7
10.9358 11.3783 -2.6477 0.1655 0 7
10.7505 11.5535 -2.6477 0.1655 0 7
10.5624 11.7258 -2.6477 0.1655 0 7
10.3715 11.8949 -2.6477 0.1655 0 7
10.1779 12.0610 -2.6477 0.1655 0 7
9.9817 12.2239 -2.6477 0.1655 0 7
9.7828 12.3836 -2.6477 0.1655 0 7
9.5814 12.5401 -2.6477 0.1655 0 7
9.3775 12.6933 -2.6477 0.1655 0 7
9.1711 12.8432 -2.6477 0.1655 0 7
8.9624 12.9898 -2.6477 0.1655 0 7
8.7513 13.1329 -2.6477 0.1655 0 7
8.5379 13.2726 -2.6477 0.1655 0 7
8.3223 13.4089 -2.6477 0.1655 0 7
8.1045 13.5416 -2.6477 0.1655 0 7
7.8846 13.6708 -2.6477 0.1655 0 7
7.6626 13.7965 -2.6477 0.1655 0 7
7.4386 13.9185 -2.6477 0.1655 0 7
7.2127 14.0369 -2.6477 0.1655 0 7
6.9849 14.1516 -2.6477 0.1655 0 7
6.7553 14.2627 -2.6477 0.1655 0 7
6.5239 14.3700 -2.6477 0.1655 0 7
6.2908 14.4735 -2.6477 0.1655 0 7
6.0561 14.5733 -2.6477 0.1655 0 7
5.8198 14.6693 -2.6477 0.1655 0 7
5.5819 14.7614 -2.6477 0.1655 0 7
5.3426 14.8497 -2.6477 0.1655 0 7
5.1019 14.9341 -2.6477 0.1655 0 7
7.8101 0.3565 -1.3786 0.3424 25 10
7.8629 0.4863 -1.3891 0.3582 25 10
7.9945 0.6243 -1.4139 0.3656 25 10
8.2568 0.7792 -1.4624 0.3418 25 10
14.0655 1.5572 -2.4953 0.1736 0 8
14.0385 1.7843 -2.4953 0.1736 0 8
14.0078 2.0109 -2.4953 0.1736 0 8
13.9735 2.2370 -2.4953 0.1736 0 8
13.9355 2.4626 -2.4953 0.1736 0 8
13.8939 2.6875 -2.4953 0.1736 0 8
13.8486 2.9117 -2.4953 0.1736 0 8
13.7997 3.1351 -2.4953 0.1736 0 8
13.7473 3.3577 -2.4953 0.1736 0 8
13.6912 3.5794 -2.4953 0.1736 0 8
13.6316 3.8002 -2.4953 0.1736 0 8
13.5684 4.0201 -2.4953 0.1736 0 8
13.5016 4.2388 -2.4953 0.1736 0 8
13.4314 4.4565 -2.4953 0.1736 0 8
13.3576 4.6729 -2.4953 0.1736 0 8
13.2803 4.8882 -2.4953 0.1736 0 8
13.1996 5.1022 -2.4953 0.1736 0 8
13.1154 5.3148 -2.4953 0.1736 0 8
13.0278 5.5261 -2.4953 0.1736 0 8
12.9368 5.7359 -2.4953 0.1736 0 8
12.8424 5.9443 -2.4953 0.1736 0 8
12.7447 6.1510 -2.4953 0.1736 0 8
12.6436 6.3562 -2.4953 0.1736 0 8
12.5392 6.5597 -2.4953 0.1736 0 8
12.4316 6.7615 -2.4953 0.1736 0 8
12.3207 6.9615 -2.4953 0.1736 0 8
12.2065 7.1597 -2.4953 0.1736 0 8
12.0892 7.3561 -2.4953 0.1736 0 8
11.9688 7.5505 -2.4953 0.1736 0 8
11.8452 7.7429 -2.4953 0.1736 0 8
11.7185 7.9334 -2.4953 0.1736 0 8
11.5888 8.1217 -2.4953 0.1736 0 8
11.4560 8.3079 -2.4953 0.1736 0 8
12.0116 9.0107 -2.6477 0.1736 0 7
11.8644 9.2036 -2.6477 0.1736 0 7
11.7141 9.3941 -2.6477 0.1736 0 7
11.5608 9.5822 -2.6477 0.1736 0 7
11.4044 9.7678 -2.6477 0.1736 0 7
11.2451 9.9509 -2.6477 0.1736 0 7
11.0828 10.1313 -2.6477 0.1736 0 7
10.9176 10.3091 -2.6477 0.1736 0 7
10.7496 10.4842 -2.6477 0.1736 0 7
10.5787 10.6565 -2.6477 0.1736 0 7
10.4051 10.8261 -2.6477 0.1736 0 7
10.2288 10.9928 -2.6477 0.1736 0 7
10.0498 11.1567 -2.6477 0.1736 0 7
9.8682 11.3177 -2.6477 0.1736 0 7
9.6840 11.4757 -2.6477 0.1736 0 6
9.4973 11.6307 -2.6477 0.1736 0 7
9.3081 11.7827 -2.6477 0.1736 0 7
9.1164 11.9316 -2.6477 0.1736 0 7
8.9224 12.0773 -2.6477 0.1736 0 7
8.7260 12.2199 -2.6477 0.1736 0 7
8.5274 12.3594 -2.6477 0.1736 0 7
8.3266 12.4956 -2.6477 0.1736 0 7
8.1235 12.6285 -2.6477 0.1736 0 7
7.9184 12.7581 -2.6477 0.1736 0 7
7.7112 12.8844 -2.6477 0.1736 0 7
7.5019 13.0074 -2.6477 0.1736 0 7
7.2907 13.1269 -2.6477 0.1736 0 7
7.0776 13.2430 -2.6477 0.1736 0 7
6.8627 13.3557 -2.6477 0.1736 0 7
6.6459 13.4649 -2.6477 0.1736 0 7
6.4275 13.5705 -2.6477 0.1736 0 7
6.2073 13.6726 -2.6477 0.1736 0 7
5.9855 13.7711 -2.6477 0.1736 0 7
5.7622 13.8661 -2.6477 0.1736 0 7
5.5373 13.9574 -2.6477 0.1736 0 7
5.3110 14.0451 -2.6477 0.1736 0 7
5.0834 14.1291 -2.6477 0.1736 0 7
4.8544 14.2094 -2.6477 0.1736 0 7
7.6829 0.3507 -1.4221 0.9196 25 10
7.7255 0.4778 -1.4312 0.9137 25 10
7.8544 0.6134 -1.4568 0.3716 25 10
8.0867 0.7632 -1.5019 0.2678 25 10
13.4126 1.4849 -2.4953 0.1818 0 8
13.3869 1.7015 -2.4953 0.1818 0 8
13.3576 1.9176 -2.4953 0.1818 0 8
13.3249 2.1332 -2.4953 0.1818 0 8
13.2887 2.3483 -2.4953 0.1818 0 8
13.2490 2.5627 -2.4953 0.1818 0 8
13.2058 2.7765 -2.4953 0.1818 0 8
13.1593 2.9896 -2.4953 0.1818 0 8
13.1092 3.2019 -2.4953 0.1818 0 8
13.0558 3.4133 -2.4953 0.1818 0 8
12.9989 3.6239 -2.4953 0.1818 0 8
12.9386 3.8335 -2.4953 0.1818 0 8
12.8750 4.0421 -2.4953 0.1818 0 8
12.8080 4.2496 -2.4953 0.1818 0 8
12.7376 4.4561 -2.4953 0.1818 0 8
12.6639 4.6613 -2.4953 0.1818 0 8
12.5870 4.8654 -2.4953 0.1818 0 8
12.5067 5.0682 -2.4953 0.1818 0 8
12.4231 5.2696 -2.4953 0.1818 0 8
12.3364 5.4697 -2.4953 0.1818 0 8
12.2464 5.6684 -2.4953 0.1818 0 8
12.1531 5.8655 -2.4953 0.1818 0 8
12.0568 6.0612 -2.4953 0.1818 0 8
11.9572 6.2553 -2.4953 0.1818 0 8
11.8546 6.4477 -2.4953 0.1818 0 8
11.7488 6.6384 -2.4953 0.1818 0 8
11.6400 6.8274 -2.4953 0.1818 0 8
11.5281 7.0147 -2.4953 0.1818 0 8
11.4133 7.2001 -2.4953 0.1818 0 8
11.2954 7.3836 -2.4953 0.1818 0 8
11.1746 7.5652 -2.4953 0.1818 0 8
11.0509 7.7448 -2.4953 0.1818 0 8
10.9243 7.9223 -2.4953 0.1818 0 8
10.7948 8.0979 -2.4953 0.1818 0 8
10.6625 8.2713 -2.4953 0.1818 0 8
10.5275 8.4425 -2.4953 0.1818 0 8
11.0242 9.1375 -2.6477 0.1818 0 7
10.8751 9.3145 -2.6477 0.1818 0 7
10.7231 9.4890 -2.6477 0.1818 0 7
10.5684 9.6611 -2.6477 0.1818 0 7
10.4109 9.8306 -2.6477 0.1818 0 7
10.2506 9.9976 -2.6477 0.1818 0 7
10.0877 10.1619 -2.6477 0.1818 0 7
9.9222 10.3236 -2.6477 0.1818 0 7
9.7541 10.4826 -2.6477 0.1818 0 7
9.5834 10.6389 -2.6477 0.1818 0 7
9.4102 10.7924 -2.6477 0.1818 0 7
9.2345 10.9431 -2.6477 0.1818 0 7
9.0565 11.0909 -2.6477 0.1818 0 7
8.8760 11.2358 -2.6477 0.1818 0 7
8.6933 11.3778 -2.6477 0.1818 0 7
8.5083 11.5168 -2.6477 0.1818 0 7
8.3210 11.6528 -2.6477 0.1818 0 7
8.1316 11.7857 -2.6477 0.1818 0 7
7.9401 11.9156 -2.6477 0.1818 0 7
7.7465 12.0424 -2.6477 0.1818 0 7
7.5509 12.1660 -2.6477 0.1818 0 7
7.3533 12.2864 -2.6477 0.1818 0 7
7.1537 12.4037 -2.6477 0.1818 0 7
6.9523 12.5177 -2.6477 0.1818 0 7
6.7491 12.6284 -2.6477 0.1818 0 7
6.5442 12.7358 -2.6477 0.1818 0 7
6.3375 12.8399 -2.6477 0.1818 0 7
6.1291 12.9407 -2.6477 0.1818 0 7
5.9192 13.0380 -2.6477 0.1818 0 7
5.7077 13.1320 -2.6477 0.1818 0 7
5.4947 13.2225 -2.6477 0.1818 0 7
5.2803 13.3096 -2.6477 0.1818 0 7
5.0645 13.3932 -2.6477 0.1818 0 7
4.8474 13.4733 -2.6477 0.1818 0 7
4.6291 13.5499 -2.6477 0.1818 0 7
7.6604 0.3496 -1.4840 0.9208 25 10
7.7028 0.4764 -1.4935 0.9149 25 10
7.7794 0.6075 -1.5100 0.7071 25 10
7.9059 0.7461 -1.5367 0.2735 25 10
12.8160 1.4188 -2.4953 0.1900 0 8
12.7913 1.6258 -2.4953 0.1900 0 8
12.7634 1.8323 -2.4953 0.1900 0 8
12.7321 2.0383 -2.4953 0.1900 0 8
12.6975 2.2438 -2.4953 0.1900 0 8
12.6596 2.4487 -2.4953 0.1900 0 8
12.6184 2.6530 -2.4953 0.1900 0 8
12.5739 2.8566 -2.4953 0.1900 0 8
12.5260 3.0594 -2.4953 0.1900 0 8
12.4750 3.2615 -2.4953 0.1900 0 8
12.4206 3.4627 -2.4953 0.1900 0 8
12.3630 3.6629 -2.4953 0.1900 0 8
12.3022 3.8623 -2.4953 0.1900 0 8
12.2382 4.0606 -2.4953 0.1900 0 8
12.1710 4.2578 -2.4953 0.1900 0 8
12.1006 4.4540 -2.4953 0.1900 0 8
12.0270 4.6489 -2.4953 0.1900 0 8
11.9503 4.8427 -2.4953 0.1900 0 8
11.8705 5.0352 -2.4953 0.1900 0 8
11.7876 5.2264 -2.4953 0.1900 0 8
11.7016 5.4162 -2.4953 0.1900 0 8
11.6125 5.6046 -2.4953 0.1900 0 8
11.5204 5.7916 -2.4953 0.1900 0 8
11.4253 5.9770 -2.4953 0.1900 0 8
11.3272 6.1609 -2.4953 0.1900 0 8
11.2262 6.3431 -2.4953 0.1900 0 8
11.1222 6.5237 -2.4953 0.1900 0 8
11.0153 6.7026 -2.4953 0.1900 0 8
10.9055 6.8798 -2.4953 0.1900 0 8
10.7929 7.0551 -2.4953 0.1900 0 8
10.6775 7.2286 -2.4953 0.1900 0 8
10.5593 7.4002 -2.4953 0.1900 0 8
10.4383 7.5699 -2.4953 0.1900 0 8
10.3146 7.7376 -2.4953 0.1900 0 8
10.1882 7.9033 -2.4953 0.1900 0 8
10.0592 8.0669 -2.4953 0.1900 0 8
9.9275 8.2284 -2.4953 0.1900 0 8
9.7932 8.3878 -2.4953 0.1900 0 8
10.2461 9.0669 -2.6477 0.1900 0 7
10.0983 9.2313 -2.6477 0.1900 0 7
9.9477 9.3933 -2.6477 0.1900 0 7
9.7946 9.5528 -2.6477 0.1900 0 7
9.6390 9.7099 -2.6477 0.1900 0 7
9.4808 9.8644 -2.6477 0.1900 0 7
9.3201 10.0163 -2.6477 0.1900 0 7
9.1570 10.1656 -2.6477 0.1900 0 7
8.9916 10.3123 -2.6477 0.1900 0 7
8.8237 10.4563 -2.6477 0.1900 0 7
8.6536 10.5975 -2.6477 0.1900 0 7
8.4812 10.7360 -2.6477 0.1900 0 7
8.3066 10.8716 -2.6477 0.1900 0 7
8.1298 11.0045 -2.6477 0.1900 0 7
7.9509 11.1344 -2.6477 0.1900 0 7
7.7699 11.2614 -2.6477 0.1900 0 7
7.5869 11.3855 -2.6477 0.1900 0 7
7.4019 11.5067 -2.6477 0.1900 0 6
7.2150 11.6248 -2.6477 0.1900 0 7
7.0261 11.7399 -2.6477 0.1900 0 7
6.8355 11.8519 -2.6477 0.1900 0 7
6.6431 11.9608 -2.6477 0.1900 0 7
6.4489 12.0666 -2.6477 0.1900 0 7
6.2530 12.1693 -2.6477 0.1900 0 7
6.0555 12.2687 -2.6477 0.1900 0 7
5.8565 12.3650 -2.6477 0.1900 0 7
5.6559 12.4580 -2.6477 0.1900 0 7
5.4538 12.5478 -2.6477 0.1900 0 7
5.2503 12.6343 -2.6477 0.1900 0 7
5.0454 12.7175 -2.6477 0.1900 0 7
4.8392 12.7974 -2.6477 0.1900 0 7
4.6318 12.8739 -2.6477 0.1900 0 7
4.4231 12.9471 -2.6477 0.1900 0 7
7.6405 0.3487 -1.5462 0.9670 25 10
7.6801 0.4750 -1.5555 0.9161 25 10
7.7437 0.6047 -1.5702 0.7092 25 10
7.8495 0.7408 -1.5939 0.6987 25 10
12.2684 1.3582 -2.4953 0.1981 0 8
12.2449 1.5563 -2.4953 0.1981 0 8
12.2181 1.7540 -2.4953 0.1981 0 8
12.1882 1.9512 -2.4953 0.1981 0 8
12.1551 2.1480 -2.4953 0.1981 0 8
12.1188 2.3441 -2.4953 0.1981 0 8
12.0793 2.5397 -2.4953 0.1981 0 8
12.0367 2.7346 -2.4953 0.1981 0 8
11.9909 2.9287 -2.4953 0.1981 0 8
11.9420 3.1221 -2.4953 0.1981 0 8
11.8900 3.3147 -2.4953 0.1981 0 8
11.8349 3.5064 -2.4953 0.1981 0 8
11.7767 3.6973 -2.4953 0.1981 0 8
11.7154 3.8871 -2.4953 0.1981 0 8
11.6510 4.0759 -2.4953 0.1981 0 8
11.5836 4.2637 -2.4953 0.1981 0 8
11.5132 4.4503 -2.4953 0.1981 0 8
11.4398 4.6358 -2.4953 0.1981 0 8
11.3634 4.8201 -2.4953 0.1981 0 8
11.2840 5.0031 -2.4953 0.1981 0 8
11.2016 5.1848 -2.4953 0.1981 0 8
11.1164 5.3652 -2.4953 0.1981 0 8
11.0282 5.5441 -2.4953 0.1981 0 8
10.9372 5.7216 -2.4953 0.1981 0 8
10.8433 5.8976 -2.4953 0.1981 0 8
10.7466 6.0721 -2.4953 0.1981 0 8
10.6470 6.2450 -2.4953 0.1981 0 8
10.5447 6.4163 -2.4953 0.1981 0 8
10.4396 6.5858 -2.4953 0.1981 0 8
10.3318 6.7537 -2.4953 0.1981 0 8
10.2213 6.9198 -2.4953 0.1981 0 8
10.1082 7.0841 -2.4953 0.1981 0 8
9.9924 7.2465 -2.4953 0.1981 0 8
9.8740 7.4070 -2.4953 0.1981 0 8
9.7530 7.5657 -2.4953 0.1981 0 8
9.6294 7.7223 -2.4953 0.1981 0 8
9.5034 7.8769 -2.4953 0.1981 0 8
9.3748 8.0295 -2.4953 0.1981 0 8
9.2438 8.1799 -2.4953 0.1981 0 8
9.1200 8.3369 -2.4979 0.6063 0 8
8.9746 8.4744 -2.4953 0.1981 0 8
9.3762 9.1447 -2.6477 0.1981 0 7
9.2272 9.2950 -2.6477 0.1981 0 7
9.0758 9.4429 -2.6477 0.1981 0 7
8.9220 9.5884 -2.6477 0.1981 0 7
8.7658 9.7313 -2.6477 0.1981 0 7
8.6074 9.8717 -2.6477 0.1981 0 7
8.4468 10.0095 -2.6477 0.1981 0 7
8.2839 10.1447 -2.6477 0.1981 0 7
8.1189 10.2773 -2.6477 0.1981 0 7
7.9517 10.4072 -2.6477 0.1981 0 7
7.7825 10.5343 -2.6477 0.1981 0 7
7.6112 10.6587 -2.6477 0.1981 0 7
7.4380 10.7803 -2.6477 0.1981 0 7
7.2628 10.8991 -2.6477 0.1981 0 7
7.0857 11.0151 -2.6477 0.1981 0 7
6.9067 11.1281 -2.6477 0.1981 0 7
6.7260 11.2383 -2.6477 0.1981 0 7
6.5435 11.3455 -2.6477 0.1981 0 7
6.3593 11.4498 -2.6477 0.1981 0 6
6.1734 11.5511 -2.6477 0.1981 0 7
5.9859 11.6494 -2.6477 0.1981 0 7
5.7968 11.7446 -2.6477 0.1981 0 7
5.6063 11.8367 -2.6477 0.1981 0 7
5.4142 11.9258 -2.6477 0.1981 0 7
5.2208 12.0117 -2.6477 0.1981 0 7
5.0260 12.0945 -2.6477 0.1981 0 7
4.8299 12.1742 -2.6477 0.1981 0 7
4.6325 12.2507 -2.6477 0.1981 0 7
4.4339 12.3239 -2.6477 0.1981 0 7
4.2342 12.3940 -2.6477 0.1981 0 7
7.6225 0.3479 -1.6086 0.9676 25 10
7.6576 0.4736 -1.6175 0.9173 25 10
7.7120 0.6023 -1.6308 0.8732 25 10
7.8264 0.7386 -1.6573 0.3056 25 10
11.7642 1.3024 -2.4953 0.2063 0 8
11.7416 1.4923 -2.4953 0.2063 0 8
11.7159 1.6819 -2.4953 0.2063 0 8
11.6872 1.8710 -2.4953 0.2063 0 8
11.6555 2.0597 -2.4953 0.2063 0 8
11.6206 2.2478 -2.4953 0.2063 0 8
11.5828 2.4353 -2.4953 0.2063 0 8
11.5419 2.6222 -2.4953 0.2063 0 8
11.4980 2.8083 -2.4953 0.2063 0 8
11.4512 2.9938 -2.4953 0.2063 0 8
11.4013 3.1785 -2.4953 0.2063 0 8
11.3484 3.3623 -2.4953 0.2063 0 8
11.2926 3.5453 -2.4953 0.2063 0 8
11.2338 3.7273 -2.4953 0.2063 0 8
11.1721 3.9084 -2.4953 0.2063 0 8
11.1075 4.0884 -2.4953 0.2063 0 8
11.0400 4.2674 -2.4953 0.2063 0 8
10.9696 4.4453 -2.4953 0.2063 0 8
10.8963 4.6220 -2.4953 0.2063 0 8
10.8202 4.7975 -2.4953 0.2063 0 8
10.7412 4.9717 -2.4953 0.2063 0 8
10.6595 5.1446 -2.4953 0.2063 0 8
10.5749 5.3162 -2.4953 0.2063 0 8
10.4876 5.4865 -2.4953 0.2063 0 8
10.3976 5.6552 -2.4953 0.2063 0 8
10.3049 5.8225 -2.4953 0.2063 0 8
10.2094 5.9883 -2.4953 0.2063 0 8
10.1113 6.1525 -2.4953 0.2063 0 8
10.0105 6.3151 -2.4953 0.2063 0 8
9.9072 6.4761 -2.4953 0.2063 0 8
9.8012 6.6354 -2.4953 0.2063 0 8
9.6927 6.7929 -2.4953 0.2063 0 8
9.5817 6.9487 -2.4953 0.2063 0 8
9.4681 7.1026 -2.4953 0.2063 0 8
9.3521 7.2547 -2.4953 0.2063 0 8
9.2336 7.4049 -2.4953 0.2063 0 8
9.1127 7.5531 -2.4953 0.2063 0 8
8.9895 7.6994 -2.4953 0.2063 0 8
8.8639 7.8437 -2.4953 0.2063 0 8
8.7359 7.9859 -2.4953 0.2063 0 8
8.6057 8.1261 -2.4953 0.2063 0 8
8.4733 8.2641 -2.4953 0.2063 0 8
8.3387 8.4000 -2.4953 0.2063 0 8
8.7027 9.0548 -2.6477 0.2063 0 7
8.5552 9.1943 -2.6477 0.2063 0 7
8.4055 9.3313 -2.6477 0.2063 0 7
8.2536 9.4660 -2.6477 0.2063 0 7
8.0996 9.5981 -2.6477 0.2063 0 7
7.9434 9.7278 -2.6477 0.2063 0 7
7.7851 9.8549 -2.6477 0.2063 0 7
7.6249 9.9794 -2.6477 0.2063 0 7
7.4626 10.1013 -2.6477 0.2063 0 7
7.2984 10.2206 -2.6477 0.2063 0 7
7.1322 10.3372 -2.6477 0.2063 0 7
6.9642 10.4511 -2.6477 0.2063 0 7
6.7944 10.5623 -2.6477 0.2063 0 7
6.6228 10.6708 -2.6477 0.2063 0 7
6.4495 10.7764 -2.6477 0.2063 0 7
6.2745 10.8792 -2.6477 0.2063 0 7
6.0979 10.9792 -2.6477 0.2063 0 7
5.9196 11.0763 -2.6477 0.2063 0 7
5.7399 11.1705 -2.6477 0.2063 0 7
5.5586 11.2618 -2.6477 0.2063 0 7
5.3758 11.3502 -2.6477 0.2063 0 7
5.1917 11.4356 -2.6477 0.2063 0 6
5.0062 11.5180 -2.6477 0.2063 0 7
4.8194 11.5974 -2.6477 0.2063 0 7
4.6314 11.6738 -2.6477 0.2063 0 7
4.4421 11.7471 -2.6477 0.2063 0 7
4.2517 11.8174 -2.6477 0.2063 0 7
4.0601 11.8845 -2.6477 0.2063 0 7
7.6044 0.3471 -1.6710 0.9682 25 10
7.6351 0.4722 -1.6792 0.9183 25 10
7.6895 0.6005 -1.6931 0.8741 25 10
7.8085 0.7369 -1.7217 0.3058 25 10
11.2981 1.2508 -2.4953 0.2144 0 8
11.2764 1.4332 -2.4953 0.2144 0 8
11.2518 1.6153 -2.4953 0.2144 0 8
11.2242 1.7969 -2.4953 0.2144 0 8
11.1937 1.9781 -2.4953 0.2144 0 8
11.1603 2.1587 -2.4953 0.2144 0 8
11.1240 2.3388 -2.4953 0.2144 0 8
11.0847 2.5183 -2.4953 0.2144 0 8
11.0426 2.6971 -2.4953 0.2144 0 8
10.9975 2.8752 -2.4953 0.2144 0 8
10.9496 3.0526 -2.4953 0.2144 0 8
10.8989 3.2291 -2.4953 0.2144 0 8
10.8453 3.4048 -2.4953 0.2144 0 8
10.7888 3.5797 -2.4953 0.2144 0 8
10.7295 3.7536 -2.4953 0.2144 0 8
10.6675 3.9265 -2.4953 0.2144 0 8
10.6026 4.0984 -2.4953 0.2144 0 8
10.5350 4.2692 -2.4953 0.2144 0 8
10.4646 4.4389 -2.4953 0.2144 0 8
10.3915 4.6074 -2.4953 0.2144 0 8
10.3157 4.7748 -2.4953 0.2144 0 8
10.2372 4.9408 -2.4953 0.2144 0 8
10.1560 5.1056 -2.4953 0.2144 0 8
10.0722 5.2691 -2.4953 0.2144 0 8
9.9857 5.4312 -2.4953 0.2144 0 8
9.8966 5.5919 -2.4953 0.2144 0 8
9.8050 5.7511 -2.4953 0.2144 0 8
9.7107 5.9088 -2.4953 0.2144 0 8
9.6140 6.0650 -2.4953 0.2144 0 8
9.5147 6.2196 -2.4953 0.2144 0 8
9.4129 6.3725 -2.4953 0.2144 0 8
9.3087 6.5238 -2.4953 0.2144 0 8
9.2021 6.6734 -2.4953 0.2144 0 8
9.0930 6.8212 -2.4953 0.2144 0 8
8.9816 6.9673 -2.4953 0.2144 0 8
8.8678 7.1115 -2.4953 0.2144 0 8
8.7517 7.2539 -2.4953 0.2144 0 8
8.6334 7.3944 -2.4953 0.2144 0 8
8.5127 7.5330 -2.4953 0.2144 0 8
8.3899 7.6696 -2.4953 0.2144 0 8
8.2648 7.8042 -2.4953 0.2144 0 8
8.1376 7.9367 -2.4953 0.2144 0 8
8.0083 8.0672 -2.4953 0.2144 0 8
7.8769 8.1956 -2.4953 0.2144 0 8
7.7434 8.3218 -2.4953 0.2144 0 8
7.6079 8.4458 -2.4953 0.2144 0 8
7.9267 9.0910 -2.6477 0.2144 0 7
7.7787 9.2179 -2.6477 0.2144 0 7
7.6287 9.3424 -2.6477 0.2144 0 7
7.4767 9.4645 -2.6477 0.2144 0 7
7.3228 9.5841 -2.6477 0.2144 0 7
7.1670 9.7012 -2.6477 0.2144 0 7
7.0092 9.8157 -2.6477 0.2144 0 7
6.8497 9.9277 -2.6477 0.2144 0 7
6.6884 10.0371 -2.6477 0.2144 0 7
6.5253 10.1439 -2.6477 0.2144 0 7
6.3605 10.2480 -2.6477 0.2144 0 7
6.1940 10.3495 -2.6477 0.2144 0 7
6.0260 10.4482 -2.6477 0.2144 0 7
5.8563 10.5443 -2.6477 0.2144 0 7
5.6851 10.6375 -2.6477 0.2144 0 7
5.5125 10.7280 -2.6477 0.2144 0 7
5.3384 10.8157 -2.6477 0.2144 0 7
5.1629 10.9006 -2.6477 0.2144 0 7
4.9860 10.9826 -2.6477 0.2144 0 7
4.8079 11.0617 -2.6477 0.2144 0 7
4.6285 11.1380 -2.6477 0.2144 0 7
4.4479 11.2113 -2.6477 0.2144 0 7
4.2661 11.2818 -2.6477 0.2144 0 7
4.0832 11.3492 -2.6477 0.2144 0 7
3.8993 11.4137 -2.6477 0.2144 0 6
7.5863 0.3463 -1.7333 0.9687 25 10
7.6126 0.4709 -1.7408 0.9193 25 10
7.6671 0.5988 -1.7553 0.8751 25 10
7.7906 0.7352 -1.7861 0.3059 25 10
10.8661 1.2030 -2.4953 0.2225 0 8
10.8452 1.3784 -2.4953 0.2225 0 8
10.8216 1.5535 -2.4953 0.2225 0 8
10.7950 1.7282 -2.4953 0.2225 0 8
10.7657 1.9024 -2.4953 0.2225 0 8
10.7336 2.0762 -2.4953 0.2225 0 8
10.6986 2.2494 -2.4953 0.2225 0 8
10.6608 2.4220 -2.4953 0.2225 0 8
10.6203 2.5940 -2.4953 0.2225 0 8
10.5770 2.7653 -2.4953 0.2225 0 8
10.5309 2.9358 -2.4953 0.2225 0 8
10.4821 3.1056 -2.4953 0.2225 0 8
10.4305 3.2746 -2.4953 0.2225 0 8
10.3763 3.4428 -2.4953 0.2225 0 8
10.3193 3.6100 -2.4953 0.2225 0 8
10.2596 3.7763 -2.4953 0.2225 0 8
10.1972 3.9416 -2.4953 0.2225 0 8
10.1322 4.1059 -2.4953 0.2225 0 8
10.0645 4.2691 -2.4953 0.2225 0 8
9.9942 4.4312 -2.4953 0.2225 0 8
9.9213 4.5922 -2.4953 0.2225 0 8
9.8458 4.7519 -2.4953 0.2225 0 8
9.7677 4.9104 -2.4953 0.2225 0 8
9.6870 5.0676 -2.4953 0.2225 0 8
9.6039 5.2235 -2.4953 0.2225 0 8
9.5182 5.3781 -2.4953 0.2225 0 8
9.4300 5.5312 -2.4953 0.2225 0 8
9.3394 5.6829 -2.4953 0.2225 0 8
9.2463 5.8331 -2.4953 0.2225 0 8
9.1509 5.9817 -2.4953 0.2225 0 8
9.0530 6.1288 -2.4953 0.2225 0 8
8.9528 6.2743 -2.4953 0.2225 0 8
8.8502 6.4182 -2.4953 0.2225 0 8
8.7453 6.5604 -2.4953 0.2225 0 8
8.6382 6.7009 -2.4953 0.2225 0 8
8.5287 6.8396 -2.4953 0.2225 0 8
8.4171 6.9765 -2.4953 0.2225 0 8
8.3032 7.1117 -2.4953 0.2225 0 8
8.1872 7.2449 -2.4953 0.2225 0 8
8.0691 7.3763 -2.4953 0.2225 0 8
7.9488 7.5057 -2.4953 0.2225 0 8
7.8265 7.6332 -2.4953 0.2225 0 8
7.7021 7.7587 -2.4953 0.2225 0 8
7.5757 7.8822 -2.4953 0.2225 0 8
7.4473 8.0036 -2.4953 0.2225 0 8
7.3170 8.1229 -2.4953 0.2225 0 8
7.1847 8.2401 -2.4953 0.2225 0 8
7.0506 8.3551 -2.4953 0.2225 0 8
6.9147 8.4680 -2.4953 0.2225 0 8
7.1908 9.1026 -2.6477 0.2225 0 7
7.0428 9.2176 -2.6477 0.2225 0 7
6.8929 9.3302 -2.6477 0.2225 0 7
6.7412 9.4404 -2.6477 0.2225 0 7
6.5878 9.5481 -2.6477 0.2225 0 7
6.4326 9.6533 -2.6477 0.2225 0 7
6.2758 9.7560 -2.6477 0.2225 0 7
6.1173 9.8562 -2.6477 0.2225 0 7
5.9572 9.9537 -2.6477 0.2225 0 7
5.7955 10.0487 -2.6477 0.2225 0 7
5.6324 10.1411 -2.6477 0.2225 0 7
5.4677 10.2308 -2.6477 0.2225 0 7
5.3017 10.3178 -2.6477 0.2225 0 7
5.1342 10.4021 -2.6477 0.2225 0 7
4.9655 10.4838 -2.6477 0.2225 0 7
4.7954 10.5626 -2.6477 0.2225 0 7
4.6240 10.6387 -2.6477 0.2225 0 7
4.4515 10.7121 -2.6477 0.2225 0 7
4.2778 10.7826 -2.6477 0.2225 0 7
4.1030 10.8504 -2.6477 0.2225 0 7
3.9271 10.9153 -2.6477 0.2225 0 7
3.7502 10.9773 -2.6477 0.2225 0 7
7.5746 0.3457 -1.7971 0.9393 25 10
7.6012 0.4702 -1.8050 0.9188 25 10
7.6558 0.5979 -1.8200 0.8531 25 10
7.8042 0.7365 -1.8578 0.2807 25 10
10.4644 1.1585 -2.4953 0.2306 0 8
10.4444 1.3275 -2.4953 0.2306 0 8
10.4215 1.4961 -2.4953 0.2306 0 8
10.3960 1.6643 -2.4953 0.2306 0 8
10.3677 1.8321 -2.4953 0.2306 0 8
10.3368 1.9994 -2.4953 0.2306 0 8
10.3031 2.1662 -2.4953 0.2306 0 8
10.2668 2.3325 -2.4953 0.2306 0 8
10.2277 2.4981 -2.4953 0.2306 0 8
10.1860 2.6630 -2.4953 0.2306 0 8
10.1416 2.8273 -2.4953 0.2306 0 8
10.0946 2.9908 -2.4953 0.2306 0 8
10.0450 3.1536 -2.4953 0.2306 0 8
9.9927 3.3155 -2.4953 0.2306 0 8
9.9378 3.4766 -2.4953 0.2306 0 8
9.8803 3.6367 -2.4953 0.2306 0 8
9.8203 3.7959 -2.4953 0.2306 0 8
9.7576 3.9541 -2.4953 0.2306 0 8
9.6925 4.1113 -2.4953 0.2306 0 8
9.6247 4.2674 -2.4953 0.2306 0 8
9.5545 4.4224 -2.4953 0.2306 0 8
9.4818 4.5763 -2.4953 0.2306 0 8
9.4066 4.7289 -2.4953 0.2306 0 8
9.3290 4.8803 -2.4953 0.2306 0 8
9.2489 5.0304 -2.4953 0.2306 0 8
9.1664 5.1793 -2.4953 0.2306 0 8
9.0815 5.3267 -2.4953 0.2306 0 8
8.9942 5.4728 -2.4953 0.2306 0 8
8.9046 5.6174 -2.4953 0.2306 0 8
8.8126 5.7606 -2.4953 0.2306 0 8
8.7184 5.9023 -2.4953 0.2306 0 8
8.6218 6.0424 -2.4953 0.2306 0 8
8.5231 6.1810 -2.4953 0.2306 0 8
8.4221 6.3179 -2.4953 0.2306 0 8
8.3188 6.4532 -2.4953 0.2306 0 8
8.2135 6.5868 -2.4953 0.2306 0 8
8.1059 6.7187 -2.4953 0.2306 0 8
7.9963 6.8488 -2.4953 0.2306 0 8
7.8846 6.9771 -2.4953 0.2306 0 8
7.7708 7.1036 -2.4953 0.2306 0 8
7.6550 7.2283 -2.4953 0.2306 0 8
7.5372 7.3511 -2.4953 0.2306 0 8
7.4174 7.4719 -2.4953 0.2306 0 8
7.2956 7.5908 -2.4953 0.2306 0 8
7.1720 7.7077 -2.4953 0.2306 0 8
7.0465 7.8226 -2.4953 0.2306 0 8
6.9192 7.9355 -2.4953 0.2306 0 8
6.7900 8.0463 -2.4953 0.2306 0 8
6.6591 8.1550 -2.4953 0.2306 0 8
6.5264 8.2615 -2.4953 0.2306 0 8
6.3921 8.3659 -2.4953 0.2306 0 8
6.2560 8.4681 -2.4953 0.2306 0 8
6.4920 9.0914 -2.6477 0.2306 0 7
6.3443 9.1952 -2.6477 0.2306 0 7
6.1948 9.2965 -2.6477 0.2306 0 7
6.0438 9.3954 -2.6477 0.2306 0 7
5.8911 9.4918 -2.6477 0.2306 0 7
5.7370 9.5858 -2.6477 0.2306 0 7
5.5813 9.6773 -2.6477 0.2306 0 7
5.4242 9.7662 -2.6477 0.2306 0 7
5.2656 9.8526 -2.6477 0.2306 0 7
5.1057 9.9364 -2.6477 0.2306 0 7
4.9445 10.0176 -2.6477 0.2306 0 7
4.7819 10.0962 -2.6477 0.2306 0 7
4.6181 10.1722 -2.6477 0.2306 0 7
4.4531 10.2455 -2.6477 0.2306 0 7
4.2870 10.3161 -2.6477 0.2306 0 7
4.1197 10.3841 -2.6477 0.2306 0 7
3.9513 10.4493 -2.6477 0.2306 0 7
3.7819 10.5118 -2.6477 0.2306 0 7
3.6116 10.5715 -2.6477 0.2306 0 7
7.5756 0.3458 -1.8640 0.9373 25 10
7.6044 0.4703 -1.8727 0.9166 25 10
7.6594 0.5981 -1.8884 0.7678 25 10
7.8242 0.7384 -1.9317 0.4582 25 10
10.0900 1.1170 -2.4953 0.2387 0 8
10.0706 1.2800 -2.4953 0.2387 0 8
10.0486 1.4426 -2.4953 0.2387 0 8
10.0240 1.6048 -2.4953 0.2387 0 8
9.9968 1.7666 -2.4953 0.2387 0 8
9.9669 1.9279 -2.4953 0.2387 0 8
9.9344 2.0887 -2.4953 0.2387 0 8
9.8994 2.2490 -2.4953 0.2387 0 8
9.8617 2.4087 -2.4953 0.2387 0 8
9.8215 2.5678 -2.4953 0.2387 0 8
9.7787 2.7261 -2.4953 0.2387 0 8
9.7334 2.8838 -2.4953 0.2387 0 8
9.6855 3.0408 -2.4953 0.2387 0 8
9.6351 3.1969 -2.4953 0.2387 0 8
9.5822 3.3522 -2.4953 0.2387 0 8
9.5268 3.5066 -2.4953 0.2387 0 8
9.4689 3.6601 -2.4953 0.2387 0 8
9.4085 3.8127 -2.4953 0.2387 0 8
9.3456 3.9642 -2.4953 0.2387 0 8
9.2803 4.1147 -2.4953 0.2387 0 8
9.2126 4.2642 -2.4953 0.2387 0 8
9.1425 4.4125 -2.4953 0.2387 0 8
9.0700 4.5597 -2.4953 0.2387 0 8
8.9951 4.7057 -2.4953 0.2387 0 8
8.9179 4.8504 -2.4953 0.2387 0 8
8.8384 4.9939 -2.4953 0.2387 0 8
8.7565 5.1361 -2.4953 0.2387 0 8
8.6723 5.2770 -2.4953 0.2387 0 8
8.5859 5.4164 -2.4953 0.2387 0 8
8.4973 5.5545 -2.4953 0.2387 0 8
8.4064 5.6911 -2.4953 0.2387 0 8
8.3133 5.8262 -2.4953 0.2387 0 8
8.2181 5.9598 -2.4953 0.2387 0 8
8.1207 6.0918 -2.4953 0.2387 0 8
8.0212 6.2223 -2.4953 0.2387 0 8
7.9196 6.3511 -2.4953 0.2387 0 8
7.8159 6.4782 -2.4953 0.2387 0 8
7.7102 6.6037 -2.4953 0.2387 0 8
7.6024 6.7275 -2.4953 0.2387 0 8
7.4927 6.8494 -2.4953 0.2387 0 8
7.3810 6.9696 -2.4953 0.2387 0 8
7.2674 7.0880 -2.4953 0.2387 0 8
7.1519 7.2045 -2.4953 0.2387 0 8
7.0346 7.3192 -2.4953 0.2387 0 8
6.9154 7.4319 -2.4953 0.2387 0 8
6.7944 7.5427 -2.4953 0.2387 0 8
6.6716 7.6515 -2.4953 0.2387 0 8
6.5470 7.7583 -2.4953 0.2387 0 8
6.4208 7.8631 -2.4953 0.2387 0 8
6.2929 7.9659 -2.4953 0.2387 0 8
6.1633 8.0665 -2.4953 0.2387 0 8
6.0322 8.1651 -2.4953 0.2387 0 8
5.8994 8.2615 -2.4953 0.2387 0 8
5.7651 8.3558 -2.4953 0.2387 0 8
5.6293 8.4479 -2.4953 0.2387 0 8
5.8275 9.0592 -2.6477 0.2387 0 7
5.6803 9.1522 -2.6477 0.2387 0 7
5.5317 9.2428 -2.6477 0.2387 0 7
5.3816 9.3310 -2.6477 0.2387 0 7
5.2301 9.4167 -2.6477 0.2387 0 7
5.0772 9.5000 -2.6477 0.2387 0 7
4.9230 9.5808 -2.6477 0.2387 0 7
4.7675 9.6592 -2.6477 0.2387 0 7
4.6108 9.7349 -2.6477 0.2387 0 7
4.4529 9.8082 -2.6477 0.2387 0 7
4.2938 9.8789 -2.6477 0.2387 0 7
4.1336 9.9470 -2.6477 0.2387 0 7
3.9723 10.0125 -2.6477 0.2387 0 7
3.8099 10.0754 -2.6477 0.2387 0 7
3.6466 10.1356 -2.6477 0.2387 0 7
3.4823 10.1932 -2.6477 0.2387 0 7
7.5769 0.3458 -1.9313 0.9188 25 10
7.6075 0.4705 -1.9408 0.9143 25 10
7.6726 0.5992 -1.9596 0.7649 25 10
7.8179 0.7378 -1.9995 0.4018 25 10
9.7400 1.0783 -2.4953 0.2468 0 8
9.7213 1.2356 -2.4953 0.2468 0 8
9.7001 1.3925 -2.4953 0.2468 0 8
9.6763 1.5491 -2.4953 0.2468 0 8
9.6500 1.7053 -2.4953 0.2468 0 8
9.6212 1.8610 -2.4953 0.2468 0 8
9.5899 2.0163 -2.4953 0.2468 0 8
9.5560 2.1710 -2.4953 0.2468 0 8
9.5197 2.3251 -2.4953 0.2468 0 8
9.4809 2.4787 -2.4953 0.2468 0 8
9.4396 2.6316 -2.4953 0.2468 0 8
9.3958 2.7838 -2.4953 0.2468 0 8
9.3496 2.9353 -2.4953 0.2468 0 8
9.3009 3.0860 -2.4953 0.2468 0 8
9.2499 3.2359 -2.4953 0.2468 0 8
9.1964 3.3850 -2.4953 0.2468 0 8
9.1404 3.5332 -2.4953 0.2468 0 8
9.0822 3.6804 -2.4953 0.2468 0 8
9.0215 3.8267 -2.4953 0.2468 0 8
8.9585 3.9720 -2.4953 0.2468 0 8
8.8931 4.1163 -2.4953 0.2468 0 8
8.8254 4.2595 -2.4953 0.2468 0 8
8.7554 4.4015 -2.4953 0.2468 0 8
8.6831 4.5425 -2.4953 0.2468 0 8
8.6086 4.6822 -2.4953 0.2468 0 8
8.5318 4.8207 -2.4953 0.2468 0 8
8.4528 4.9580 -2.4953 0.2468 0 8
8.3716 5.0939 -2.4953 0.2468 0 8
8.2881 5.2286 -2.4953 0.2468 0 8
8.2026 5.3618 -2.4953 0.2468 0 8
8.1148 5.4937 -2.4953 0.2468 0 8
8.0250 5.6241 -2.4953 0.2468 0 8
7.9330 5.7531 -2.4953 0.2468 0 8
7.8390 5.8805 -2.4953 0.2468 0 8
7.7430 6.0065 -2.4953 0.2468 0 8
7.6449 6.1308 -2.4953 0.2468 0 8
7.5448 6.2536 -2.4953 0.2468 0 8
7.4428 6.3747 -2.4953 0.2468 0 8
7.3388 6.4941 -2.4953 0.2468 0 8
7.2328 6.6119 -2.4953 0.2468 0 8
7.1250 6.7279 -2.4953 0.2468 0 8
7.0154 6.8422 -2.4953 0.2468 0 8
6.9039 6.9547 -2.4953 0.2468 0 8
6.7906 7.0653 -2.4953 0.2468 0 8
6.6755 7.1742 -2.4953 0.2468 0 8
6.5587 7.2811 -2.4953 0.2468 0 8
6.4402 7.3861 -2.4953 0.2468 0 8
6.3200 7.4893 -2.4953 0.2468 0 8
6.1981 7.5904 -2.4953 0.2468 0 8
6.0746 7.6896 -2.4953 0.2468 0 8
5.9496 7.7868 -2.4953 0.2468 0 8
5.8229 7.8819 -2.4953 0.2468 0 8
5.6948 7.9750 -2.4953 0.2468 0 8
5.5652 8.0660 -2.4953 0.2468 0 8
5.4341 8.1549 -2.4953 0.2468 0 8
5.3016 8.2416 -2.4953 0.2468 0 8
5.1688 8.3280 -2.4958 0.7557 0 8
5.0325 8.4087 -2.4953 0.2468 0 8
5.1949 9.0073 -2.6477 0.2468 0 7
5.0487 9.0901 -2.6477 0.2468 0 7
4.9011 9.1705 -2.6477 0.2468 0 7
4.7523 9.2485 -2.6477 0.2468 0 7
4.6022 9.3241 -2.6477 0.2468 0 7
4.4509 9.3973 -2.6477 0.2468 0 7
4.2984 9.4680 -2.6477 0.2468 0 7
4.1449 9.5362 -2.6477 0.2468 0 7
3.9902 9.6020 -2.6477 0.2468 0 7
3.8345 9.6652 -2.6477 0.2468 0 7
3.6778 9.7259 -2.6477 0.2468 0 7
3.5201 9.7841 -2.6477 0.2468 0 7
3.3615 9.8397 -2.6477 0.2468 0 7
7.5859 0.3462 -2.0010 0.8462 25 10
7.6190 0.4713 -2.0114 0.8127 25 10
7.6942 0.6009 -2.0336 0.7174 25 10
7.8624 0.7420 -2.0809 0.3987 25 10
9.4122 1.0420 -2.4953 0.2548 0 8
9.3941 1.1940 -2.4953 0.2548 0 8
9.3736 1.3457 -2.4953 0.2548 0 8
9.3506 1.4970 -2.4953 0.2548 0 8
9.3252 1.6479 -2.4953 0.2548 0 8
9.2974 1.7984 -2.4953 0.2548 0 8
9.2671 1.9484 -2.4953 0.2548 0 8
9.2344 2.0979 -2.4953 0.2548 0 8
9.1993 2.2469 -2.4953 0.2548 0 8
9.1618 2.3953 -2.4953 0.2548 0 8
9.1219 2.5430 -2.4953 0.2548 0 8
9.0796 2.6901 -2.4953 0.2548 0 8
9.0349 2.8365 -2.4953 0.2548 0 8
8.9879 2.9821 -2.4953 0.2548 0 8
8.9385 3.1270 -2.4953 0.2548 0 8
8.8868 3.2710 -2.4953 0.2548 0 8
8.8328 3.4142 -2.4953 0.2548 0 8
8.7765 3.5565 -2.4953 0.2548 0 8
8.7178 3.6979 -2.4953 0.2548 0 8
8.6569 3.8383 -2.4953 0.2548 0 8
8.5938 3.9777 -2.4953 0.2548 0 8
8.5284 4.1161 -2.4953 0.2548 0 8
8.4607 4.2534 -2.4953 0.2548 0 8
8.3909 4.3896 -2.4953 0.2548 0 8
8.3189 4.5246 -2.4953 0.2548 0 8
8.2446 4.6585 -2.4953 0.2548 0 8
8.1683 4.7911 -2.4953 0.2548 0 8
8.0898 4.9225 -2.4953 0.2548 0 8
8.0092 5.0526 -2.4953 0.2548 0 8
7.9265 5.1814 -2.4953 0.2548 0 8
7.8417 5.3088 -2.4953 0.2548 0 8
7.7549 5.4348 -2.4953 0.2548 0 8
7.6660 5.5594 -2.4953 0.2548 0 8
7.5752 5.6826 -2.4953 0.2548 0 8
7.4824 5.8043 -2.4953 0.2548 0 8
7.3876 5.9245 -2.4953 0.2548 0 8
7.2909 6.0431 -2.4953 0.2548 0 8
7.1922 6.1601 -2.4953 0.2548 0 8
7.0917 6.2755 -2.4953 0.2548 0 8
6.9894 6.3893 -2.4953 0.2548 0 8
6.8852 6.5015 -2.4953 0.2548 0 8
6.7793 6.6119 -2.4953 0.2548 0 8
6.6715 6.7206 -2.4953 0.2548 0 8
6.5620 6.8275 -2.4953 0.2548 0 8
6.4508 6.9327 -2.4953 0.2548 0 8
6.3380 7.0360 -2.4953 0.2548 0 8
6.2234 7.1375 -2.4953 0.2548 0 8
6.1072 7.2372 -2.4953 0.2548 0 8
5.9895 7.3349 -2.4953 0.2548 0 8
5.8702 7.4308 -2.4953 0.2548 0 8
5.7493 7.5247 -2.4953 0.2548 0 8
5.6269 7.6166 -2.4953 0.2548 0 8
5.5031 7.7066 -2.4953 0.2548 0 8
5.3779 7.7945 -2.4953 0.2548 0 8
5.2512 7.8804 -2.4953 0.2548 0 8
5.1231 7.9642 -2.4953 0.2548 0 8
4.9938 8.0460 -2.4953 0.2548 0 8
4.8631 8.1256 -2.4953 0.2548 0 8
4.7311 8.2032 -2.4953 0.2548 0 8
4.5979 8.2786 -2.4953 0.2548 0 8
4.4635 8.3518 -2.4953 0.2548 0 8
4.3280 8.4228 -2.4953 0.2548 0 8
4.4473 9.0103 -2.6477 0.2548 0 7
4.3011 9.0810 -2.6477 0.2548 0 7
4.1537 9.1493 -2.6477 0.2548 0 7
4.0053 9.2153 -2.6477 0.2548 0 7
3.8559 9.2788 -2.6477 0.2548 0 7
3.7054 9.3399 -2.6477 0.2548 0 7
3.5540 9.3986 -2.6477 0.2548 0 7
3.4016 9.4548 -2.6477 0.2548 0 7
3.2484 9.5085 -2.6477 0.2548 0 7
7.6038 0.3471 -2.0735 0.8423 25 10
7.6407 0.4726 -2.0854 0.8086 25 10
7.7173 0.6027 -2.1087 0.7194 25 10
7.8779 0.7435 -2.1555 0.5439 25 10
9.1044 1.0079 -2.4953 0.2628 0 8
9.0869 1.1549 -2.4953 0.2628 0 8
9.0671 1.3017 -2.4953 0.2628 0 8
9.0449 1.4480 -2.4953 0.2628 0 8
9.0203 1.5940 -2.4953 0.2628 0 8
8.9933 1.7396 -2.4953 0.2628 0 8
8.9641 1.8847 -2.4953 0.2628 0 8
8.9324 2.0293 -2.4953 0.2628 0 8
8.8985 2.1734 -2.4953 0.2628 0 8
8.8622 2.3169 -2.4953 0.2628 0 8
8.8236 2.4599 -2.4953 0.2628 0 8
8.7827 2.6021 -2.4953 0.2628 0 8
8.7395 2.7437 -2.4953 0.2628 0 8
