ply
format ascii 1.0
element vertex 1365
property float32 x
property float32 y
property float32 z
property float32 CosAngle
property uint32 ObjIdx
property uint32 ObjTag
end_header
-21.5054 37.0536 -2.4953 0.0581 0 8
-22.1013 36.7013 -2.4953 0.0581 0 8
-22.6915 36.3394 -2.4953 0.0581 0 8
-23.2757 35.9680 -2.4953 0.0581 0 8
-23.8538 35.5872 -2.4953 0.0581 0 8
-24.4257 35.1971 -2.4953 0.0581 0 8
-24.9913 34.7978 -2.4953 0.0581 0 8
-25.5503 34.3895 -2.4953 0.0581 0 8
-26.1026 33.9721 -2.4953 0.0581 0 8
-26.6481 33.5460 -2.4953 0.0581 0 8
-27.1867 33.1110 -2.4953 0.0581 0 8
-27.8568 32.8307 -2.5078 0.7608 0 8
-28.7742 32.8218 -2.5423 0.7505 0 8
-29.7239 32.8198 -2.5790 0.7176 0 8
-30.7908 32.9129 -2.6250 0.6082 0 8
-31.5762 32.6777 -2.6466 0.0673 0 8
-32.1126 32.1758 -2.6477 0.0581 0 7
-32.6284 31.6527 -2.6477 0.0581 0 7
-33.1355 31.1213 -2.6477 0.0581 0 7
24.6886 31.1696 -2.6477 0.0664 0 7
24.1817 31.5644 -2.6477 0.0664 0 7
23.6685 31.9510 -2.6477 0.0664 0 7
23.1492 32.3293 -2.6477 0.0664 0 7
22.5995 32.6641 -2.6448 0.0803 0 8
22.0154 32.9451 -2.6384 0.8263 0 8
21.2554 32.9481 -2.6108 0.8351 0 8
20.5109 32.9509 -2.5844 0.8436 0 8
19.7810 32.9536 -2.5592 0.8519 0 8
19.0650 32.9560 -2.5352 0.8600 0 8
18.3620 32.9583 -2.5122 0.8678 0 8
17.7069 33.0266 -2.4953 0.0664 0 8
17.1709 33.3084 -2.4953 0.0664 0 8
16.6305 33.5815 -2.4953 0.0664 0 8
16.0857 33.8459 -2.4953 0.0664 0 8
15.5367 34.1014 -2.4953 0.0664 0 8
14.9837 34.3480 -2.4953 0.0664 0 8
14.4267 34.5856 -2.4953 0.0664 0 8
13.8660 34.8142 -2.4953 0.0664 0 8
13.3016 35.0337 -2.4953 0.0664 0 8
12.7338 35.2441 -2.4953 0.0664 0 8
12.1627 35.4452 -2.4953 0.0664 0 8
11.5884 35.6371 -2.4953 0.0664 0 8
11.0110 35.8197 -2.4953 0.0664 0 8
10.4308 35.9929 -2.4953 0.0664 0 8
9.8479 36.1568 -2.4953 0.0664 0 8
9.2623 36.3112 -2.4953 0.0664 0 8
8.6744 36.4561 -2.4953 0.0664 0 8
8.0842 36.5915 -2.4953 0.0664 0 8
7.4919 36.7174 -2.4953 0.0664 0 8
6.8977 36.8336 -2.4953 0.0664 0 8
6.3016 36.9403 -2.4953 0.0664 0 8
5.7039 37.0373 -2.4953 0.0664 0 8
5.1047 37.1246 -2.4953 0.0664 0 8
4.5041 37.2022 -2.4953 0.0664 0 8
3.9024 37.2702 -2.4953 0.0664 0 8
3.2997 37.3283 -2.4953 0.0664 0 8
2.6961 37.3768 -2.4953 0.0664 0 8
2.0918 37.4155 -2.4953 0.0664 0 8
1.4870 37.4444 -2.4953 0.0664 0 8
0.8817 37.4635 -2.4953 0.0664 0 8
0.2763 37.4729 -2.4953 0.0664 0 8
-0.3293 37.4725 -2.4953 0.0664 0 8
-0.9347 37.4622 -2.4953 0.0664 0 8
-1.5399 37.4422 -2.4953 0.0664 0 8
-2.1447 37.4125 -2.4953 0.0664 0 8
-2.7489 37.3729 -2.4953 0.0664 0 8
-3.3525 37.3236 -2.4953 0.0664 0 8
-3.9551 37.2646 -2.4953 0.0664 0 8
-4.5567 37.1958 -2.4953 0.0664 0 8
-5.1572 37.1173 -2.4953 0.0664 0 8
-5.7562 37.0292 -2.4953 0.0664 0 8
-6.3538 36.9313 -2.4953 0.0664 0 8
-6.9497 36.8238 -2.4953 0.0664 0 8
-7.5439 36.7067 -2.4953 0.0664 0 8
-8.1360 36.5800 -2.4953 0.0664 0 8
-8.7260 36.4438 -2.4953 0.0664 0 8
-9.3137 36.2980 -2.4953 0.0664 0 8
-9.8990 36.1428 -2.4953 0.0664 0 8
-10.4817 35.9781 -2.4953 0.0664 0 8
-11.0617 35.8041 -2.4953 0.0664 0 8
-11.6388 35.6207 -2.4953 0.0664 0 8
-12.2128 35.4280 -2.4953 0.0664 0 8
-12.7837 35.2260 -2.4953 0.0664 0 8
-13.3512 35.0148 -2.4953 0.0664 0 8
-13.9152 34.7945 -2.4953 0.0664 0 8
-14.4756 34.5652 -2.4953 0.0664 0 8
-15.0322 34.3267 -2.4953 0.0664 0 8
-15.5849 34.0794 -2.4953 0.0664 0 8
-16.1336 33.8231 -2.4953 0.0664 0 8
-16.6780 33.5580 -2.4953 0.0664 0 8
-17.2180 33.2841 -2.4953 0.0664 0 8
-17.7536 33.0015 -2.4953 0.0664 0 8
-18.3667 32.8573 -2.5065 0.8698 0 8
-19.0664 32.8512 -2.5292 0.8620 0 8
-19.7790 32.8448 -2.5530 0.8540 0 8
-20.5052 32.8382 -2.5779 0.8457 0 8
-21.2459 32.8313 -2.6039 0.8373 0 8
-22.0018 32.8241 -2.6312 0.8286 0 8
-22.6345 32.6159 -2.6435 0.0803 0 8
-23.1949 32.2965 -2.6477 0.0664 0 7
-23.7137 31.9175 -2.6477 0.0664 0 7
-24.2263 31.5302 -2.6477 0.0664 0 7
-24.7326 31.1346 -2.6477 0.0664 0 7
-25.2325 30.7309 -2.6477 0.0664 0 7
-25.7258 30.3192 -2.6477 0.0664 0 7
-26.2123 29.8996 -2.6477 0.0664 0 6
-26.6920 29.4721 -2.6477 0.0664 0 7
-27.1647 29.0370 -2.6477 0.0664 0 7
-27.6304 28.5942 -2.6477 0.0664 0 7
-28.0888 28.1441 -2.6477 0.0664 0 7
-28.5399 27.6865 -2.6477 0.0664 0 7
-28.9835 27.2217 -2.6477 0.0664 0 7
21.9368 27.6955 -2.6477 0.0747 0 7
21.4864 28.0463 -2.6477 0.0747 0 7
21.0304 28.3898 -2.6477 0.0747 0 7
20.5690 28.7259 -2.6477 0.0747 0 7
20.1021 29.0545 -2.6477 0.0747 0 7
19.6300 29.3755 -2.6477 0.0747 0 7
19.1528 29.6889 -2.6477 0.0747 0 7
18.6708 29.9945 -2.6477 0.0747 0 6
18.1835 30.2923 -2.6477 0.0747 0 7
17.6917 30.5821 -2.6477 0.0747 0 7
17.1952 30.8640 -2.6477 0.0747 0 7
16.6942 31.1378 -2.6477 0.0747 0 7
16.1889 31.4035 -2.6477 0.0747 0 7
15.6794 31.6610 -2.6477 0.0747 0 7
15.1657 31.9102 -2.6477 0.0747 0 7
14.6482 32.1511 -2.6477 0.0747 0 7
14.1267 32.3836 -2.6477 0.0747 0 7
13.5919 32.5842 -2.6458 0.0903 0 8
13.0486 32.7619 -2.6427 0.0904 0 8
12.4986 32.9186 -2.6387 0.9293 0 8
11.8941 32.9198 -2.6231 0.9349 0 8
11.2965 32.9209 -2.6083 0.9402 0 8
10.7054 32.9218 -2.5943 0.9452 0 8
10.1205 32.9227 -2.5812 0.9501 0 8
9.5412 32.9233 -2.5688 0.9546 0 8
8.9673 32.9239 -2.5572 0.9590 0 8
8.3984 32.9243 -2.5463 0.9630 0 8
7.8341 32.9246 -2.5362 0.9669 0 8
7.2741 32.9248 -2.5269 0.9705 0 8
6.7181 32.9249 -2.5182 0.9738 0 8
6.1657 32.9248 -2.5103 0.9769 0 8
5.6166 32.9246 -2.5030 0.9797 0 8
5.0712 32.9292 -2.4968 0.7494 0 8
4.5357 32.9867 -2.4953 0.0747 0 8
4.0021 33.0557 -2.4953 0.0747 0 8
3.4674 33.1161 -2.4953 0.0747 0 8
2.9319 33.1678 -2.4953 0.0747 0 8
2.3956 33.2108 -2.4953 0.0747 0 8
1.8586 33.2452 -2.4953 0.0747 0 8
1.3212 33.2709 -2.4953 0.0747 0 8
0.7834 33.2879 -2.4953 0.0747 0 8
0.2455 33.2962 -2.4953 0.0747 0 8
-0.2926 33.2958 -2.4953 0.0747 0 8
-0.8305 33.2867 -2.4953 0.0747 0 8
-1.3683 33.2690 -2.4953 0.0747 0 8
-1.9057 33.2425 -2.4953 0.0747 0 8
-2.4425 33.2074 -2.4953 0.0747 0 8
-2.9788 33.1636 -2.4953 0.0747 0 8
-3.5143 33.1111 -2.4953 0.0747 0 8
-4.0497 33.0573 -2.4958 0.7530 0 8
-4.5824 32.9803 -2.4953 0.0747 0 8
-5.1147 32.9024 -2.4953 0.7498 0 8
-5.6594 32.8949 -2.5013 0.7482 0 8
-6.2075 32.8908 -2.5083 0.9776 0 8
-6.7590 32.8878 -2.5161 0.9746 0 8
-7.3141 32.8847 -2.5246 0.9713 0 8
-7.8730 32.8814 -2.5338 0.9678 0 8
-8.4362 32.8780 -2.5437 0.9640 0 8
-9.0039 32.8745 -2.5543 0.9600 0 8
-9.5764 32.8708 -2.5657 0.9558 0 8
-10.1542 32.8669 -2.5779 0.9512 0 8
-10.7377 32.8629 -2.5909 0.9465 0 8
-11.3271 32.8587 -2.6046 0.9415 0 8
-11.9230 32.8544 -2.6192 0.9362 0 8
-12.5257 32.8498 -2.6346 0.9308 0 8
-13.0911 32.7340 -2.6420 0.0904 0 8
-13.6338 32.5552 -2.6450 0.0903 0 8
-14.1725 32.3636 -2.6477 0.0747 0 7
-14.6936 32.1303 -2.6477 0.0747 0 7
-15.2109 31.8887 -2.6477 0.0747 0 7
-15.7241 31.6388 -2.6477 0.0747 0 7
-16.2333 31.3806 -2.6477 0.0747 0 7
-16.7383 31.1142 -2.6477 0.0747 0 7
-17.2388 30.8396 -2.6477 0.0747 0 7
-17.7349 30.5571 -2.6477 0.0747 0 7
-18.2264 30.2665 -2.6477 0.0747 0 7
-18.7130 29.9681 -2.6477 0.0747 0 7
-19.1948 29.6618 -2.6477 0.0747 0 7
-19.6716 29.3477 -2.6477 0.0747 0 7
-20.1432 29.0261 -2.6477 0.0747 0 7
-20.6096 28.6968 -2.6477 0.0747 0 7
-21.0706 28.3600 -2.6477 0.0747 0 7
-21.5261 28.0159 -2.6477 0.0747 0 7
-21.9759 27.6644 -2.6477 0.0747 0 7
-22.4201 27.3057 -2.6477 0.0747 0 7
-22.8584 26.9398 -2.6477 0.0747 0 7
-23.2907 26.5670 -2.6477 0.0747 0 7
-23.7170 26.1872 -2.6477 0.0747 0 7
-24.1370 25.8005 -2.6477 0.0747 0 7
-24.5507 25.4071 -2.6477 0.0747 0 7
-24.9580 25.0071 -2.6477 0.0747 0 7
-25.3589 24.6006 -2.6477 0.0747 0 7
-25.7531 24.1876 -2.6477 0.0747 0 7
19.7344 24.9150 -2.6477 0.0830 0 7
19.3293 25.2306 -2.6477 0.0830 0 7
18.9191 25.5396 -2.6477 0.0830 0 7
18.5039 25.8420 -2.6477 0.0830 0 7
18.0840 26.1376 -2.6477 0.0830 0 7
17.6593 26.4264 -2.6477 0.0830 0 7
17.2300 26.7083 -2.6477 0.0830 0 7
16.7962 26.9832 -2.6477 0.0830 0 7
16.3580 27.2510 -2.6477 0.0830 0 7
15.9155 27.5118 -2.6477 0.0830 0 7
15.4689 27.7654 -2.6477 0.0830 0 7
15.0182 28.0117 -2.6477 0.0830 0 7
14.5636 28.2507 -2.6477 0.0830 0 7
14.1052 28.4824 -2.6477 0.0830 0 7
13.6432 28.7066 -2.6477 0.0830 0 7
13.1775 28.9233 -2.6477 0.0830 0 7
12.7085 29.1324 -2.6477 0.0830 0 7
12.2361 29.3340 -2.6477 0.0830 0 7
11.7605 29.5278 -2.6477 0.0830 0 7
11.2819 29.7140 -2.6477 0.0830 0 7
10.8003 29.8924 -2.6477 0.0830 0 7
10.3159 30.0630 -2.6477 0.0830 0 7
9.8287 30.2258 -2.6477 0.0830 0 7
9.3391 30.3807 -2.6477 0.0830 0 7
8.8469 30.5276 -2.6477 0.0830 0 7
8.3525 30.6666 -2.6477 0.0830 0 7
7.8559 30.7975 -2.6477 0.0830 0 7
7.3572 30.9204 -2.6477 0.0830 0 7
6.8567 31.0353 -2.6477 0.0830 0 7
6.3543 31.1420 -2.6477 0.0830 0 7
5.8503 31.2406 -2.6477 0.0830 0 7
5.3447 31.3311 -2.6477 0.0830 0 7
4.8378 31.4134 -2.6477 0.0830 0 7
4.3295 31.4874 -2.6477 0.0830 0 7
3.8202 31.5533 -2.6477 0.0830 0 7
3.3098 31.6109 -2.6477 0.0830 0 7
2.7986 31.6602 -2.6477 0.0830 0 7
2.2867 31.7013 -2.6477 0.0830 0 7
1.7742 31.7341 -2.6477 0.0830 0 7
1.2612 31.7587 -2.6477 0.0830 0 7
0.7478 31.7749 -2.6477 0.0830 0 7
0.2343 31.7828 -2.6477 0.0830 0 7
-0.2793 31.7825 -2.6477 0.0830 0 7
-0.7928 31.7738 -2.6477 0.0830 0 7
-1.3061 31.7568 -2.6477 0.0830 0 7
-1.8191 31.7316 -2.6477 0.0830 0 7
-2.3315 31.6981 -2.6477 0.0830 0 7
-2.8434 31.6562 -2.6477 0.0830 0 7
-3.3545 31.6062 -2.6477 0.0830 0 7
-3.8648 31.5478 -2.6477 0.0830 0 7
-4.3741 31.4813 -2.6477 0.0830 0 7
-4.8822 31.4065 -2.6477 0.0830 0 7
-5.3890 31.3235 -2.6477 0.0830 0 7
-5.8945 31.2323 -2.6477 0.0830 0 7
-6.3984 31.1330 -2.6477 0.0830 0 7
-6.9006 31.0256 -2.6477 0.0830 0 7
-7.4010 30.9100 -2.6477 0.0830 0 7
-7.8995 30.7864 -2.6477 0.0830 0 7
-8.3959 30.6547 -2.6477 0.0830 0 7
-8.8901 30.5151 -2.6477 0.0830 0 7
-9.3820 30.3674 -2.6477 0.0830 0 7
-9.8715 30.2119 -2.6477 0.0830 0 7
-10.3584 30.0484 -2.6477 0.0830 0 7
-10.8425 29.8771 -2.6477 0.0830 0 6
-11.3239 29.6980 -2.6477 0.0830 0 7
-11.8023 29.5112 -2.6477 0.0830 0 7
-12.2776 29.3166 -2.6477 0.0830 0 7
-12.7497 29.1144 -2.6477 0.0830 0 7
-13.2184 28.9046 -2.6477 0.0830 0 7
-13.6838 28.6872 -2.6477 0.0830 0 7
-14.1455 28.4624 -2.6477 0.0830 0 7
-14.6036 28.2301 -2.6477 0.0830 0 7
-15.0578 27.9904 -2.6477 0.0830 0 7
-15.5081 27.7435 -2.6477 0.0830 0 7
-15.9544 27.4893 -2.6477 0.0830 0 7
-16.3965 27.2279 -2.6477 0.0830 0 7
-16.8343 26.9594 -2.6477 0.0830 0 7
-17.2677 26.6839 -2.6477 0.0830 0 7
-17.6966 26.4014 -2.6477 0.0830 0 7
-18.1209 26.1120 -2.6477 0.0830 0 7
-18.5405 25.8158 -2.6477 0.0830 0 7
-18.9552 25.5128 -2.6477 0.0830 0 7
-19.3650 25.2032 -2.6477 0.0830 0 7
-19.7697 24.8870 -2.6477 0.0830 0 7
-20.1692 24.5643 -2.6477 0.0830 0 7
-20.5635 24.2352 -2.6477 0.0830 0 7
-20.9524 23.8998 -2.6477 0.0830 0 7
-20.1692 22.2699 -2.5029 0.0830 0 8
-20.5264 21.9411 -2.5029 0.0830 0 14
-20.8782 21.6066 -2.5029 0.0830 0 14
-21.2246 21.2664 -2.5029 0.0830 0 14
-21.5655 20.9206 -2.5029 0.0830 0 14
-21.9007 20.5694 -2.5029 0.0830 0 14
16.9512 21.4010 -2.5029 0.0913 0 14
16.6032 21.6721 -2.5029 0.0913 0 14
16.2508 21.9376 -2.5029 0.0913 0 14
15.8942 22.1973 -2.5029 0.0913 0 14
16.4320 23.7499 -2.6477 0.0913 0 7
16.0461 24.0123 -2.6477 0.0913 0 7
15.6560 24.2685 -2.6477 0.0913 0 7
15.2618 24.5183 -2.6477 0.0913 0 7
14.8637 24.7617 -2.6477 0.0913 0 7
14.4616 24.9986 -2.6477 0.0913 0 7
14.0558 25.2290 -2.6477 0.0913 0 7
13.6463 25.4529 -2.6477 0.0913 0 7
13.2332 25.6700 -2.6477 0.0913 0 7
12.8167 25.8805 -2.6477 0.0913 0 7
12.3969 26.0842 -2.6477 0.0913 0 7
11.9738 26.2811 -2.6477 0.0913 0 7
11.5476 26.4712 -2.6477 0.0913 0 7
11.1183 26.6543 -2.6477 0.0913 0 7
10.6862 26.8305 -2.6477 0.0913 0 7
10.2513 26.9997 -2.6477 0.0913 0 7
9.8137 27.1618 -2.6477 0.0913 0 7
9.3735 27.3168 -2.6477 0.0913 0 7
8.9309 27.4647 -2.6477 0.0913 0 7
8.4860 27.6054 -2.6477 0.0913 0 7
8.0388 27.7389 -2.6477 0.0913 0 7
7.5895 27.8652 -2.6477 0.0913 0 7
7.1383 27.9842 -2.6477 0.0913 0 7
6.6852 28.0959 -2.6477 0.0913 0 7
6.2303 28.2002 -2.6477 0.0913 0 7
5.7738 28.2972 -2.6477 0.0913 0 7
5.3159 28.3868 -2.6477 0.0913 0 7
4.8565 28.4690 -2.6477 0.0913 0 7
4.3958 28.5437 -2.6477 0.0913 0 7
3.9340 28.6111 -2.6477 0.0913 0 7
3.4712 28.6709 -2.6477 0.0913 0 7
3.0075 28.7232 -2.6477 0.0913 0 7
2.5430 28.7681 -2.6477 0.0913 0 7
2.0778 28.8054 -2.6477 0.0913 0 7
1.6121 28.8353 -2.6477 0.0913 0 7
1.1460 28.8575 -2.6477 0.0913 0 7
0.6795 28.8723 -2.6477 0.0913 0 7
0.2129 28.8795 -2.6477 0.0913 0 7
-0.2538 28.8792 -2.6477 0.0913 0 7
-0.7204 28.8713 -2.6477 0.0913 0 7
-1.1868 28.8559 -2.6477 0.0913 0 7
-1.6529 28.8329 -2.6477 0.0913 0 7
-2.1185 28.8025 -2.6477 0.0913 0 7
-2.5837 28.7645 -2.6477 0.0913 0 7
-3.0481 28.7190 -2.6477 0.0913 0 7
-3.5118 28.6660 -2.6477 0.0913 0 7
-3.9745 28.6055 -2.6477 0.0913 0 7
-4.4362 28.5375 -2.6477 0.0913 0 7
-4.8967 28.4621 -2.6477 0.0913 0 7
-5.3560 28.3793 -2.6477 0.0913 0 7
-5.8139 28.2890 -2.6477 0.0913 0 7
-6.2702 28.1914 -2.6477 0.0913 0 7
-6.7249 28.0864 -2.6477 0.0913 0 7
-7.1779 27.9741 -2.6477 0.0913 0 7
-7.6289 27.8544 -2.6477 0.0913 0 7
-8.0780 27.7275 -2.6477 0.0913 0 7
-8.5250 27.5934 -2.6477 0.0913 0 7
-8.9697 27.4520 -2.6477 0.0913 0 7
-9.4121 27.3035 -2.6477 0.0913 0 7
-9.8521 27.1479 -2.6477 0.0913 0 7
-10.2895 26.9851 -2.6477 0.0913 0 7
-10.7241 26.8153 -2.6477 0.0913 0 7
-11.1560 26.6386 -2.6477 0.0913 0 7
-11.5850 26.4548 -2.6477 0.0913 0 7
-12.0109 26.2642 -2.6477 0.0913 0 7
-12.4338 26.0667 -2.6477 0.0913 0 7
-12.8533 25.8624 -2.6477 0.0913 0 7
-13.2696 25.6513 -2.6477 0.0913 0 7
-13.6823 25.4335 -2.6477 0.0913 0 7
-14.0915 25.2091 -2.6477 0.0913 0 7
-14.4970 24.9781 -2.6477 0.0913 0 7
-14.8987 24.7406 -2.6477 0.0913 0 7
-15.2965 24.4967 -2.6477 0.0913 0 7
-15.6903 24.2463 -2.6477 0.0913 0 7
-16.0801 23.9896 -2.6477 0.0913 0 7
-16.4656 23.7267 -2.6477 0.0913 0 7
-15.9256 22.1748 -2.5029 0.0913 0 14
-16.2818 21.9146 -2.5029 0.0913 0 14
-16.6338 21.6486 -2.5029 0.0913 0 14
-16.9814 21.3770 -2.5029 0.0913 0 14
-17.3246 21.0999 -2.5029 0.0913 0 14
-17.6633 20.8172 -2.5029 0.0913 0 14
-17.9974 20.5290 -2.5029 0.0913 0 14
-18.3267 20.2355 -2.5029 0.0913 0 14
-18.6513 19.9368 -2.5029 0.0913 0 14
-18.9710 19.6328 -2.5029 0.0913 0 14
-19.2858 19.3237 -2.5029 0.0913 0 14
-19.5955 19.0095 -2.5029 0.0913 0 8
-20.1229 18.8997 -2.5309 0.6890 0 8
15.5303 19.6072 -2.5029 0.0996 0 14
15.2115 19.8556 -2.5029 0.0996 0 14
14.8887 20.0988 -2.5029 0.0996 0 14
14.5620 20.3367 -2.5029 0.0996 0 14
14.2315 20.5694 -2.5029 0.0996 0 14
13.8972 20.7966 -2.5029 0.0996 0 14
13.5594 21.0185 -2.5029 0.0996 0 14
13.2180 21.2348 -2.5029 0.0996 0 14
12.8731 21.4456 -2.5029 0.0996 0 14
12.5249 21.6508 -2.5029 0.0996 0 14
12.1735 21.8504 -2.5029 0.0996 0 14
11.8188 22.0442 -2.5029 0.0996 0 14
11.4611 22.2323 -2.5029 0.0996 0 14
11.1003 22.4146 -2.5029 0.0996 0 8
11.3578 23.8978 -2.6477 0.0996 0 7
10.9701 24.0782 -2.6477 0.0996 0 7
10.5796 24.2524 -2.6477 0.0996 0 7
10.1864 24.4201 -2.6477 0.0996 0 7
9.7905 24.5815 -2.6477 0.0996 0 7
9.3920 24.7365 -2.6477 0.0996 0 7
8.9911 24.8851 -2.6477 0.0996 0 7
8.5878 25.0271 -2.6477 0.0996 0 7
8.1823 25.1626 -2.6477 0.0996 0 7
7.7746 25.2915 -2.6477 0.0996 0 7
7.3650 25.4138 -2.6477 0.0996 0 7
6.9534 25.5295 -2.6477 0.0996 0 7
6.5399 25.6385 -2.6477 0.0996 0 7
6.1248 25.7409 -2.6477 0.0996 0 7
5.7081 25.8365 -2.6477 0.0996 0 7
5.2899 25.9253 -2.6477 0.0996 0 7
4.8703 26.0074 -2.6477 0.0996 0 7
4.4494 26.0827 -2.6477 0.0996 0 7
4.0274 26.1512 -2.6477 0.0996 0 7
3.6043 26.2129 -2.6477 0.0996 0 7
3.1803 26.2677 -2.6477 0.0996 0 7
2.7554 26.3157 -2.6477 0.0996 0 7
2.3298 26.3567 -2.6477 0.0996 0 7
1.9036 26.3909 -2.6477 0.0996 0 7
1.4770 26.4183 -2.6477 0.0996 0 7
1.0499 26.4387 -2.6477 0.0996 0 7
0.6226 26.4522 -2.6477 0.0996 0 7
0.1951 26.4588 -2.6477 0.0996 0 6
-0.2325 26.4585 -2.6477 0.0996 0 6
-0.6600 26.4513 -2.6477 0.0996 0 6
-1.0873 26.4372 -2.6477 0.0996 0 6
-1.5143 26.4161 -2.6477 0.0996 0 6
-1.9409 26.3882 -2.6477 0.0996 0 7
-2.3671 26.3534 -2.6477 0.0996 0 7
-2.7926 26.3117 -2.6477 0.0996 0 7
-3.2174 26.2632 -2.6477 0.0996 0 7
-3.6414 26.2078 -2.6477 0.0996 0 7
-4.0644 26.1455 -2.6477 0.0996 0 7
-4.4863 26.0764 -2.6477 0.0996 0 7
-4.9071 26.0005 -2.6477 0.0996 0 7
-5.3265 25.9178 -2.6477 0.0996 0 7
-5.7446 25.8284 -2.6477 0.0996 0 7
-6.1612 25.7322 -2.6477 0.0996 0 7
-6.5762 25.6293 -2.6477 0.0996 0 7
-6.9895 25.5197 -2.6477 0.0996 0 7
-7.4009 25.4034 -2.6477 0.0996 0 7
-7.8104 25.2805 -2.6477 0.0996 0 7
-8.2179 25.1510 -2.6477 0.0996 0 7
-8.6232 25.0149 -2.6477 0.0996 0 7
-9.0263 24.8723 -2.6477 0.0996 0 7
-9.4270 24.7232 -2.6477 0.0996 0 7
-9.8252 24.5677 -2.6477 0.0996 0 7
-10.2209 24.4057 -2.6477 0.0996 0 7
-10.6139 24.2374 -2.6477 0.0996 0 7
-11.0042 24.0627 -2.6477 0.0996 0 7
-11.3916 23.8818 -2.6477 0.0996 0 7
-11.7760 23.6946 -2.6477 0.0996 0 7
-11.4925 22.2161 -2.5029 0.0996 0 14
-11.8500 22.0275 -2.5029 0.0996 0 14
-12.2044 21.8332 -2.5029 0.0996 0 14
-12.5556 21.6331 -2.5029 0.0996 0 14
-12.9035 21.4274 -2.5029 0.0996 0 14
-13.2480 21.2161 -2.5029 0.0996 0 14
-13.5891 20.9993 -2.5029 0.0996 0 14
-13.9266 20.7769 -2.5029 0.0996 0 14
-14.2605 20.5492 -2.5029 0.0996 0 14
-14.5907 20.3161 -2.5029 0.0996 0 14
-14.9171 20.0777 -2.5029 0.0996 0 14
-15.2396 19.8340 -2.5029 0.0996 0 14
-15.5580 19.5852 -2.5029 0.0996 0 14
-15.8725 19.3313 -2.5029 0.0996 0 14
-16.1828 19.0723 -2.5029 0.0996 0 14
-16.5799 18.9122 -2.5167 0.7556 0 8
-17.1209 18.9041 -2.5521 0.7451 0 8
-17.6774 18.8957 -2.5892 0.7345 0 8
-18.2503 18.8869 -2.6281 0.7236 0 8
-18.6913 18.7281 -2.6477 0.0996 0 7
-18.9916 18.4236 -2.6477 0.0996 0 6
-19.2867 18.1143 -2.6477 0.0996 0 7
15.0333 18.9797 -2.6262 0.7842 0 8
14.5440 18.9844 -2.5940 0.7940 0 8
14.0664 18.9887 -2.5632 0.8035 0 8
13.5997 18.9929 -2.5338 0.8129 0 8
13.1459 19.0003 -2.5061 0.6533 0 8
12.8208 19.1858 -2.5029 0.1078 0 14
12.5091 19.3904 -2.5029 0.1078 0 14
12.1941 19.5900 -2.5029 0.1078 0 14
11.8760 19.7845 -2.5029 0.1078 0 14
11.5548 19.9738 -2.5029 0.1078 0 14
11.2305 20.1579 -2.5029 0.1078 0 14
10.9033 20.3367 -2.5029 0.1078 0 14
10.5733 20.5103 -2.5029 0.1078 0 14
10.2405 20.6784 -2.5029 0.1078 0 14
9.9051 20.8412 -2.5029 0.1078 0 14
9.5670 20.9985 -2.5029 0.1078 0 14
9.2264 21.1504 -2.5029 0.1078 0 14
8.8835 21.2967 -2.5029 0.1078 0 14
8.5382 21.4374 -2.5029 0.1078 0 14
8.1907 21.5726 -2.5029 0.1078 0 14
7.8411 21.7021 -2.5029 0.1078 0 14
7.4894 21.8260 -2.5029 0.1078 0 14
7.1357 21.9442 -2.5029 0.1078 0 14
6.7802 22.0566 -2.5029 0.1078 0 14
6.4230 22.1633 -2.5029 0.1078 0 14
6.0640 22.2642 -2.5029 0.1078 0 14
5.7034 22.3592 -2.5029 0.1078 0 8
5.6504 23.7470 -2.6477 0.1078 0 7
5.2660 23.8352 -2.6477 0.1078 0 7
4.8801 23.9172 -2.6477 0.1078 0 7
4.4930 23.9929 -2.6477 0.1078 0 7
4.1048 24.0624 -2.6477 0.1078 0 7
3.7154 24.1256 -2.6477 0.1078 0 7
3.3251 24.1825 -2.6477 0.1078 0 7
2.9339 24.2330 -2.6477 0.1078 0 7
2.5420 24.2773 -2.6477 0.1078 0 7
2.1494 24.3152 -2.6477 0.1078 0 7
1.7562 24.3467 -2.6477 0.1078 0 7
1.3626 24.3719 -2.6477 0.1078 0 7
0.9686 24.3908 -2.6477 0.1078 0 7
0.5744 24.4032 -2.6477 0.1078 0 7
0.1800 24.4093 -2.6477 0.1078 0 7
-0.2145 24.4091 -2.6477 0.1078 0 7
-0.6089 24.4024 -2.6477 0.1078 0 7
-1.0031 24.3894 -2.6477 0.1078 0 7
-1.3970 24.3700 -2.6477 0.1078 0 7
-1.7906 24.3442 -2.6477 0.1078 0 7
-2.1837 24.3121 -2.6477 0.1078 0 7
-2.5763 24.2737 -2.6477 0.1078 0 7
-2.9682 24.2289 -2.6477 0.1078 0 7
-3.3593 24.1777 -2.6477 0.1078 0 7
-3.7495 24.1203 -2.6477 0.1078 0 7
-4.1388 24.0566 -2.6477 0.1078 0 7
-4.5270 23.9865 -2.6477 0.1078 0 7
-4.9140 23.9103 -2.6477 0.1078 0 7
-5.2997 23.8277 -2.6477 0.1078 0 7
-5.6840 23.7390 -2.6477 0.1078 0 7
-5.7351 22.3512 -2.5029 0.1078 0 8
-6.0955 22.2556 -2.5029 0.1078 0 8
-6.4543 22.1542 -2.5029 0.1078 0 14
-6.8114 22.0470 -2.5029 0.1078 0 14
-7.1668 21.9340 -2.5029 0.1078 0 14
-7.5203 21.8154 -2.5029 0.1078 0 14
-7.8718 21.6910 -2.5029 0.1078 0 14
-8.2212 21.5610 -2.5029 0.1078 0 14
-8.5685 21.4253 -2.5029 0.1078 0 14
-8.9136 21.2841 -2.5029 0.1078 0 14
-9.2564 21.1373 -2.5029 0.1078 0 14
-9.5967 20.9850 -2.5029 0.1078 0 14
-9.9345 20.8272 -2.5029 0.1078 0 14
-10.2698 20.6639 -2.5029 0.1078 0 14
-10.6023 20.4953 -2.5029 0.1078 0 14
-10.9321 20.3213 -2.5029 0.1078 0 14
-11.2590 20.1420 -2.5029 0.1078 0 14
-11.5830 19.9574 -2.5029 0.1078 0 14
-11.9040 19.7677 -2.5029 0.1078 0 14
-12.2218 19.5727 -2.5029 0.1078 0 14
-12.5365 19.3727 -2.5029 0.1078 0 14
-12.8479 19.1676 -2.5029 0.1078 0 14
-13.1559 18.9575 -2.5029 0.1078 0 8
-13.5871 18.9187 -2.5264 0.8152 0 8
-14.0510 18.9120 -2.5555 0.8059 0 8
-14.5258 18.9051 -2.5860 0.7964 0 8
-15.0120 18.8978 -2.6178 0.7868 0 8
-15.4900 18.8655 -2.6477 0.1078 0 7
-15.7929 18.6127 -2.6477 0.1078 0 7
-16.0916 18.3551 -2.6477 0.1078 0 6
-16.3860 18.0927 -2.6477 0.1078 0 7
-16.6762 17.8256 -2.6477 0.1078 0 7
-16.9621 17.5538 -2.6477 0.1078 0 7
-17.2435 17.2774 -2.6477 0.1078 0 7
-17.5204 16.9965 -2.6477 0.1078 0 7
-17.7928 16.7112 -2.6477 0.1078 0 7
14.0648 17.7569 -2.6477 0.1161 0 7
13.7760 17.9819 -2.6477 0.1161 0 7
13.4836 18.2021 -2.6477 0.1161 0 7
13.1878 18.4176 -2.6477 0.1161 0 6
12.8885 18.6283 -2.6477 0.1161 0 7
12.5858 18.8341 -2.6477 0.1161 0 7
12.2377 18.9697 -2.6386 0.8403 0 8
11.8103 18.9734 -2.6122 0.8488 0 8
11.3912 18.9769 -2.5870 0.8571 0 8
10.9800 18.9802 -2.5629 0.8651 0 8
10.5761 18.9833 -2.5400 0.8730 0 8
10.1793 18.9863 -2.5180 0.8806 0 8
9.8119 19.0333 -2.5029 0.1161 0 8
9.5031 19.1894 -2.5029 0.1161 0 14
9.1918 19.3404 -2.5029 0.1161 0 14
8.8781 19.4864 -2.5029 0.1161 0 14
8.5621 19.6273 -2.5029 0.1161 0 14
8.2438 19.7631 -2.5029 0.1161 0 14
7.9234 19.8938 -2.5029 0.1161 0 14
7.6009 20.0192 -2.5029 0.1161 0 14
7.2765 20.1394 -2.5029 0.1161 0 14
6.9501 20.2543 -2.5029 0.1161 0 14
6.6219 20.3640 -2.5029 0.1161 0 14
6.2920 20.4683 -2.5029 0.1161 0 14
5.9604 20.5673 -2.5029 0.1161 0 14
5.6273 20.6610 -2.5029 0.1161 0 14
5.2928 20.7492 -2.5029 0.1161 0 14
4.9568 20.8320 -2.5029 0.1161 0 14
4.6195 20.9094 -2.5029 0.1161 0 14
4.2811 20.9813 -2.5029 0.1161 0 14
3.9415 21.0477 -2.5029 0.1161 0 14
3.6009 21.1087 -2.5029 0.1161 0 14
3.2593 21.1641 -2.5029 0.1161 0 14
2.9169 21.2140 -2.5029 0.1161 0 14
2.5738 21.2584 -2.5029 0.1161 0 14
2.2299 21.2972 -2.5029 0.1161 0 14
1.8855 21.3304 -2.5029 0.1161 0 14
1.5406 21.3581 -2.5029 0.1161 0 14
1.1953 21.3802 -2.5029 0.1161 0 14
0.8497 21.3967 -2.5029 0.1161 0 14
0.5038 21.4077 -2.5029 0.1161 0 14
0.1579 21.4130 -2.5029 0.1161 0 14
-0.1882 21.4128 -2.5029 0.1161 0 14
-0.5341 21.4069 -2.5029 0.1161 0 14
-0.8800 21.3955 -2.5029 0.1161 0 14
-1.2256 21.3785 -2.5029 0.1161 0 14
-1.5708 21.3559 -2.5029 0.1161 0 14
-1.9157 21.3277 -2.5029 0.1161 0 14
-2.2601 21.2940 -2.5029 0.1161 0 14
-2.6038 21.2547 -2.5029 0.1161 0 14
-2.9469 21.2098 -2.5029 0.1161 0 14
-3.2893 21.1595 -2.5029 0.1161 0 14
-3.6307 21.1035 -2.5029 0.1161 0 14
-3.9713 21.0421 -2.5029 0.1161 0 14
-4.3108 20.9752 -2.5029 0.1161 0 14
-4.6491 20.9028 -2.5029 0.1161 0 14
-4.9863 20.8250 -2.5029 0.1161 0 14
-5.3221 20.7417 -2.5029 0.1161 0 14
-5.6566 20.6530 -2.5029 0.1161 0 14
-5.9895 20.5589 -2.5029 0.1161 0 14
-6.3209 20.4594 -2.5029 0.1161 0 14
-6.6507 20.3546 -2.5029 0.1161 0 14
-6.9787 20.2445 -2.5029 0.1161 0 14
-7.3049 20.1291 -2.5029 0.1161 0 14
-7.6292 20.0084 -2.5029 0.1161 0 14
-7.9515 19.8825 -2.5029 0.1161 0 14
-8.2718 19.7515 -2.5029 0.1161 0 14
-8.5898 19.6152 -2.5029 0.1161 0 14
-8.9057 19.4739 -2.5029 0.1161 0 14
-9.2192 19.3274 -2.5029 0.1161 0 14
-9.5302 19.1759 -2.5029 0.1161 0 14
-9.8389 19.0194 -2.5029 0.1161 0 8
-10.1840 18.9307 -2.5125 0.8825 0 8
-10.5791 18.9256 -2.5342 0.8749 0 8
-10.9811 18.9203 -2.5569 0.8672 0 8
-11.3904 18.9147 -2.5807 0.8592 0 8
-11.8074 18.9090 -2.6056 0.8510 0 8
-12.2325 18.9030 -2.6317 0.8425 0 8
-12.6124 18.8163 -2.6477 0.1161 0 7
-12.9148 18.6100 -2.6477 0.1161 0 7
-13.2139 18.3989 -2.6477 0.1161 0 6
-13.5094 18.1830 -2.6477 0.1161 0 7
-13.8014 17.9623 -2.6477 0.1161 0 7
-14.0898 17.7370 -2.6477 0.1161 0 7
-14.3746 17.5070 -2.6477 0.1161 0 7
-14.6556 17.2725 -2.6477 0.1161 0 7
-14.9328 17.0334 -2.6477 0.1161 0 7
-15.2061 16.7899 -2.6477 0.1161 0 7
-15.4754 16.5420 -2.6477 0.1161 0 7
-15.7407 16.2898 -2.6477 0.1161 0 7
-16.0018 16.0333 -2.6477 0.1161 0 7
-16.2588 15.7726 -2.6477 0.1161 0 7
-16.5115 15.5079 -2.6477 0.1161 0 7
13.1183 16.5620 -2.6477 0.1243 0 7
12.8490 16.7718 -2.6477 0.1243 0 7
12.5763 16.9772 -2.6477 0.1243 0 7
12.3003 17.1782 -2.6477 0.1243 0 7
12.0212 17.3747 -2.6477 0.1243 0 7
11.7388 17.5667 -2.6477 0.1243 0 7
11.4535 17.7541 -2.6477 0.1243 0 7
11.1651 17.9368 -2.6477 0.1243 0 7
10.8738 18.1149 -2.6477 0.1243 0 7
10.5797 18.2882 -2.6477 0.1243 0 7
10.2828 18.4568 -2.6477 0.1243 0 6
9.9832 18.6205 -2.6477 0.1243 0 7
9.6810 18.7794 -2.6477 0.1243 0 7
9.3763 18.9334 -2.6477 0.1243 0 7
9.0120 18.9621 -2.6310 0.9027 0 8
8.6404 18.9647 -2.6116 0.9094 0 8
8.2740 18.9671 -2.5932 0.9158 0 8
7.9127 18.9693 -2.5757 0.9220 0 8
7.5560 18.9714 -2.5591 0.9280 0 8
7.2038 18.9733 -2.5433 0.9338 0 8
6.8558 18.9751 -2.5283 0.9393 0 8
6.5117 18.9768 -2.5142 0.9446 0 8
6.1763 18.9936 -2.5029 0.1243 0 8
5.8686 19.0910 -2.5029 0.1243 0 8
5.5593 19.1833 -2.5029 0.1243 0 14
5.2487 19.2706 -2.5029 0.1243 0 14
4.9366 19.3529 -2.5029 0.1243 0 14
4.6232 19.4301 -2.5029 0.1243 0 14
4.3087 19.5023 -2.5029 0.1243 0 14
3.9930 19.5694 -2.5029 0.1243 0 14
3.6763 19.6313 -2.5029 0.1243 0 14
3.3586 19.6882 -2.5029 0.1243 0 14
3.0400 19.7399 -2.5029 0.1243 0 14
2.7206 19.7864 -2.5029 0.1243 0 14
2.4006 19.8278 -2.5029 0.1243 0 14
2.0799 19.8640 -2.5029 0.1243 0 14
1.7586 19.8950 -2.5029 0.1243 0 14
1.4369 19.9208 -2.5029 0.1243 0 14
1.1149 19.9415 -2.5029 0.1243 0 14
0.7925 19.9569 -2.5029 0.1243 0 14
0.4699 19.9671 -2.5029 0.1243 0 14
0.1472 19.9721 -2.5029 0.1243 0 14
-0.1755 19.9718 -2.5029 0.1243 0 14
-0.4982 19.9664 -2.5029 0.1243 0 14
-0.8207 19.9557 -2.5029 0.1243 0 14
-1.1431 19.9399 -2.5029 0.1243 0 14
-1.4651 19.9188 -2.5029 0.1243 0 14
-1.7868 19.8925 -2.5029 0.1243 0 14
-2.1080 19.8610 -2.5029 0.1243 0 14
-2.4286 19.8244 -2.5029 0.1243 0 14
-2.7486 19.7826 -2.5029 0.1243 0 14
-3.0679 19.7356 -2.5029 0.1243 0 14
-3.3864 19.6834 -2.5029 0.1243 0 14
-3.7040 19.6261 -2.5029 0.1243 0 14
-4.0207 19.5637 -2.5029 0.1243 0 14
-4.3363 19.4962 -2.5029 0.1243 0 14
-4.6507 19.4236 -2.5029 0.1243 0 14
-4.9640 19.3459 -2.5029 0.1243 0 14
-5.2759 19.2632 -2.5029 0.1243 0 14
-5.5865 19.1754 -2.5029 0.1243 0 14
-5.8956 19.0826 -2.5029 0.1243 0 8
-6.2032 18.9849 -2.5029 0.1243 0 8
-6.5295 18.9412 -2.5107 0.9459 0 8
-6.8726 18.9377 -2.5246 0.9407 0 8
-7.2196 18.9340 -2.5394 0.9352 0 8
-7.5706 18.9301 -2.5549 0.9295 0 8
-7.9261 18.9261 -2.5713 0.9236 0 8
-8.2862 18.9219 -2.5886 0.9174 0 8
-8.6512 18.9175 -2.6068 0.9110 0 8
-9.0214 18.9130 -2.6259 0.9044 0 8
-9.3972 18.9082 -2.6460 0.8975 0 8
-9.7076 18.7657 -2.6477 0.1243 0 7
-10.0096 18.6064 -2.6477 0.1243 0 7
-10.3089 18.4422 -2.6477 0.1243 0 6
-10.6056 18.2732 -2.6477 0.1243 0 7
-10.8994 18.0995 -2.6477 0.1243 0 7
-11.1904 17.9210 -2.6477 0.1243 0 7
-11.4786 17.7379 -2.6477 0.1243 0 7
-11.7637 17.5501 -2.6477 0.1243 0 7
-12.0457 17.3577 -2.6477 0.1243 0 7
-12.3246 17.1608 -2.6477 0.1243 0 7
-12.6003 16.9594 -2.6477 0.1243 0 7
-12.8727 16.7536 -2.6477 0.1243 0 7
-13.1417 16.5434 -2.6477 0.1243 0 7
-13.4073 16.3289 -2.6477 0.1243 0 7
-13.6694 16.1101 -2.6477 0.1243 0 7
-13.9279 15.8872 -2.6477 0.1243 0 7
-14.1828 15.6600 -2.6477 0.1243 0 7
-14.4340 15.4288 -2.6477 0.1243 0 7
-14.6814 15.1936 -2.6477 0.1243 0 7
-14.9250 14.9544 -2.6477 0.1243 0 6
-15.1647 14.7112 -2.6477 0.1243 0 7
-15.4004 14.4643 -2.6477 0.1243 0 7
12.2895 15.5157 -2.6477 0.1326 0 7
12.0372 15.7122 -2.6477 0.1326 0 7
11.7818 15.9047 -2.6477 0.1326 0 7
11.5233 16.0930 -2.6477 0.1326 0 7
11.2617 16.2771 -2.6477 0.1326 0 7
10.9973 16.4569 -2.6477 0.1326 0 7
10.7299 16.6325 -2.6477 0.1326 0 7
10.4598 16.8037 -2.6477 0.1326 0 7
10.1869 16.9705 -2.6477 0.1326 0 7
9.9113 17.1329 -2.6477 0.1326 0 7
9.6332 17.2908 -2.6477 0.1326 0 7
9.3525 17.4442 -2.6477 0.1326 0 7
9.0694 17.5930 -2.6477 0.1326 0 7
8.7840 17.7373 -2.6477 0.1326 0 7
8.4962 17.8769 -2.6477 0.1326 0 7
8.2063 18.0119 -2.6477 0.1326 0 7
7.9142 18.1421 -2.6477 0.1326 0 7
7.6200 18.2676 -2.6477 0.1326 0 7
7.3238 18.3883 -2.6477 0.1326 0 7
7.0257 18.5043 -2.6477 0.1326 0 6
6.7258 18.6154 -2.6477 0.1326 0 7
6.4242 18.7216 -2.6477 0.1326 0 7
6.1208 18.8230 -2.6477 0.1326 0 7
5.8159 18.9194 -2.6477 0.1326 0 7
5.4920 18.9508 -2.6393 0.9595 0 8
5.1619 18.9521 -2.6275 0.9638 0 8
4.8346 18.9532 -2.6165 0.9678 0 8
4.5100 18.9542 -2.6062 0.9716 0 8
4.1878 18.9551 -2.5967 0.9752 0 8
3.8678 18.9558 -2.5879 0.9785 0 8
3.5499 18.9564 -2.5798 0.9816 0 8
3.2338 18.9569 -2.5724 0.9844 0 8
2.9195 18.9573 -2.5658 0.9870 0 8
2.6067 18.9575 -2.5597 0.9893 0 8
2.2952 18.9576 -2.5544 0.9913 0 8
1.9850 18.9576 -2.5498 0.9932 0 8
1.6758 18.9575 -2.5458 0.9947 0 8
1.3674 18.9573 -2.5424 0.9960 0 8
1.0598 18.9569 -2.5398 0.9971 0 8
0.7528 18.9564 -2.5377 0.9979 0 8
0.4461 18.9559 -2.5364 0.9984 0 8
0.1397 18.9551 -2.5356 0.9987 0 8
-0.1666 18.9564 -2.5358 0.9969 0 8
-0.4729 18.9549 -2.5363 0.9986 0 8
-0.7795 18.9531 -2.5374 0.9981 0 8
-1.0864 18.9512 -2.5392 0.9974 0 8
-1.3938 18.9498 -2.5417 0.9963 0 8
-1.7020 18.9483 -2.5449 0.9951 0 8
-2.0109 18.9467 -2.5487 0.9936 0 8
-2.3209 18.9451 -2.5532 0.9918 0 8
-2.6320 18.9432 -2.5583 0.9898 0 8
-2.9445 18.9413 -2.5641 0.9876 0 8
-3.2584 18.9392 -2.5707 0.9851 0 8
-3.5740 18.9370 -2.5779 0.9823 0 8
-3.8914 18.9347 -2.5858 0.9793 0 8
-4.2108 18.9322 -2.5944 0.9761 0 8
-4.5324 18.9295 -2.6037 0.9726 0 8
-4.8564 18.9268 -2.6138 0.9688 0 8
-5.1830 18.9239 -2.6246 0.9648 0 8
-5.5123 18.9208 -2.6362 0.9606 0 8
-5.8426 18.9112 -2.6477 0.1326 0 7
-6.1474 18.8143 -2.6477 0.1326 0 7
-6.4506 18.7126 -2.6477 0.1326 0 7
-6.7521 18.6059 -2.6477 0.1326 0 7
-7.0519 18.4943 -2.6477 0.1326 0 7
-7.3498 18.3780 -2.6477 0.1326 0 6
-7.6458 18.2568 -2.6477 0.1326 0 7
-7.9398 18.1309 -2.6477 0.1326 0 7
-8.2317 18.0002 -2.6477 0.1326 0 7
-8.5215 17.8649 -2.6477 0.1326 0 7
-8.8091 17.7249 -2.6477 0.1326 0 7
-9.0943 17.5802 -2.6477 0.1326 0 7
-9.3772 17.4309 -2.6477 0.1326 0 7
-9.6576 17.2771 -2.6477 0.1326 0 7
-9.9356 17.1188 -2.6477 0.1326 0 7
-10.2109 16.9561 -2.6477 0.1326 0 7
-10.4835 16.7889 -2.6477 0.1326 0 7
-10.7534 16.6173 -2.6477 0.1326 0 7
-11.0205 16.4413 -2.6477 0.1326 0 7
-11.2847 16.2611 -2.6477 0.1326 0 7
-11.5460 16.0767 -2.6477 0.1326 0 7
-11.8043 15.8880 -2.6477 0.1326 0 7
-12.0595 15.6952 -2.6477 0.1326 0 7
-12.3115 15.4983 -2.6477 0.1326 0 7
-12.5603 15.2974 -2.6477 0.1326 0 7
-12.8059 15.0924 -2.6477 0.1326 0 7
-13.0480 14.8835 -2.6477 0.1326 0 7
-13.2868 14.6707 -2.6477 0.1326 0 7
-13.5221 14.4541 -2.6477 0.1326 0 7
-13.7539 14.2337 -2.6477 0.1326 0 7
-13.9821 14.0096 -2.6477 0.1326 0 7
-14.2067 13.7819 -2.6477 0.1326 0 7
-14.4275 13.5505 -2.6477 0.1326 0 7
11.5578 14.5918 -2.6477 0.1408 0 7
11.3205 14.7767 -2.6477 0.1408 0 7
11.0802 14.9576 -2.6477 0.1408 0 7
10.8371 15.1347 -2.6477 0.1408 0 7
10.5911 15.3079 -2.6477 0.1408 0 7
10.3424 15.4770 -2.6477 0.1408 0 7
10.0910 15.6421 -2.6477 0.1408 0 7
9.8369 15.8031 -2.6477 0.1408 0 7
9.5803 15.9600 -2.6477 0.1408 0 7
9.3211 16.1127 -2.6477 0.1408 0 7
9.0596 16.2612 -2.6477 0.1408 0 7
8.7956 16.4055 -2.6477 0.1408 0 7
8.5294 16.5455 -2.6477 0.1408 0 7
8.2609 16.6811 -2.6477 0.1408 0 7
7.9903 16.8124 -2.6477 0.1408 0 7
7.7176 16.9393 -2.6477 0.1408 0 7
7.4429 17.0618 -2.6477 0.1408 0 7
7.1662 17.1799 -2.6477 0.1408 0 7
6.8877 17.2934 -2.6477 0.1408 0 7
6.6074 17.4024 -2.6477 0.1408 0 7
6.3253 17.5069 -2.6477 0.1408 0 7
6.0416 17.6069 -2.6477 0.1408 0 7
5.7563 17.7022 -2.6477 0.1408 0 7
5.4696 17.7929 -2.6477 0.1408 0 7
5.1813 17.8789 -2.6477 0.1408 0 7
4.8918 17.9603 -2.6477 0.1408 0 7
4.6009 18.0370 -2.6477 0.1408 0 7
4.3089 18.1090 -2.6477 0.1408 0 7
4.0157 18.1763 -2.6477 0.1408 0 7
3.7215 18.2388 -2.6477 0.1408 0 7
3.4263 18.2965 -2.6477 0.1408 0 7
3.1302 18.3495 -2.6477 0.1408 0 7
2.8333 18.3977 -2.6477 0.1408 0 6
2.5358 18.4411 -2.6477 0.1408 0 6
2.2374 18.4796 -2.6477 0.1408 0 6
1.9385 18.5134 -2.6477 0.1408 0 7
1.6391 18.5423 -2.6477 0.1408 0 7
1.3392 18.5663 -2.6477 0.1408 0 7
1.0391 18.5856 -2.6477 0.1408 0 7
0.7386 18.5999 -2.6477 0.1408 0 7
0.4379 18.6094 -2.6477 0.1408 0 7
0.1372 18.6141 -2.6477 0.1408 0 7
-0.1636 18.6139 -2.6477 0.1408 0 7
-0.4643 18.6088 -2.6477 0.1408 0 7
-0.7649 18.5989 -2.6477 0.1408 0 7
-1.0654 18.5841 -2.6477 0.1408 0 7
-1.3655 18.5644 -2.6477 0.1408 0 7
-1.6653 18.5399 -2.6477 0.1408 0 7
-1.9646 18.5106 -2.6477 0.1408 0 7
-2.2635 18.4765 -2.6477 0.1408 0 6
-2.5617 18.4375 -2.6477 0.1408 0 6
-2.8593 18.3937 -2.6477 0.1408 0 6
-3.1562 18.3451 -2.6477 0.1408 0 7
-3.4522 18.2917 -2.6477 0.1408 0 7
-3.7473 18.2335 -2.6477 0.1408 0 7
-4.0414 18.1706 -2.6477 0.1408 0 7
-4.3345 18.1029 -2.6477 0.1408 0 7
-4.6264 18.0305 -2.6477 0.1408 0 7
-4.9172 17.9534 -2.6477 0.1408 0 7
-5.2066 17.8716 -2.6477 0.1408 0 7
-5.4947 17.7851 -2.6477 0.1408 0 7
-5.7814 17.6940 -2.6477 0.1408 0 7
-6.0665 17.5983 -2.6477 0.1408 0 7
-6.3501 17.4980 -2.6477 0.1408 0 7
-6.6320 17.3931 -2.6477 0.1408 0 7
-6.9122 17.2837 -2.6477 0.1408 0 7
-7.1905 17.1697 -2.6477 0.1408 0 7
-7.4670 17.0513 -2.6477 0.1408 0 7
-7.7416 16.9284 -2.6477 0.1408 0 7
-8.0141 16.8011 -2.6477 0.1408 0 7
-8.2845 16.6694 -2.6477 0.1408 0 7
-8.5528 16.5334 -2.6477 0.1408 0 7
-8.8188 16.3930 -2.6477 0.1408 0 7
-9.0826 16.2484 -2.6477 0.1408 0 7
-9.3439 16.0995 -2.6477 0.1408 0 7
-9.6029 15.9464 -2.6477 0.1408 0 7
-9.8593 15.7892 -2.6477 0.1408 0 7
-10.1131 15.6278 -2.6477 0.1408 0 7
-10.3643 15.4623 -2.6477 0.1408 0 7
-10.6128 15.2929 -2.6477 0.1408 0 7
-10.8585 15.1194 -2.6477 0.1408 0 7
-11.1014 14.9420 -2.6477 0.1408 0 7
-11.3414 14.7606 -2.6477 0.1408 0 7
-11.5784 14.5754 -2.6477 0.1408 0 7
-11.8124 14.3865 -2.6477 0.1408 0 7
-12.0433 14.1937 -2.6477 0.1408 0 7
-12.2711 13.9973 -2.6477 0.1408 0 7
-12.4957 13.7971 -2.6477 0.1408 0 7
-12.7170 13.5934 -2.6477 0.1408 0 7
-12.9349 13.3862 -2.6477 0.1408 0 7
-13.1496 13.1754 -2.6477 0.1408 0 7
-13.3607 12.9612 -2.6477 0.1408 0 7
-13.5684 12.7436 -2.6477 0.1408 0 7
10.9068 13.7699 -2.6477 0.1490 0 7
10.6829 13.9444 -2.6477 0.1490 0 7
10.4562 14.1152 -2.6477 0.1490 0 7
10.2267 14.2823 -2.6477 0.1490 0 7
9.9946 14.4457 -2.6477 0.1490 0 7
9.7599 14.6053 -2.6477 0.1490 0 7
9.5226 14.7611 -2.6477 0.1490 0 7
9.2829 14.9130 -2.6477 0.1490 0 7
9.0407 15.0611 -2.6477 0.1490 0 7
8.7961 15.2052 -2.6477 0.1490 0 7
8.5493 15.3453 -2.6477 0.1490 0 7
8.3002 15.4815 -2.6477 0.1490 0 7
8.0490 15.6136 -2.6477 0.1490 0 7
7.7957 15.7416 -2.6477 0.1490 0 7
7.5403 15.8655 -2.6477 0.1490 0 7
7.2829 15.9852 -2.6477 0.1490 0 7
7.0237 16.1008 -2.6477 0.1490 0 7
6.7626 16.2122 -2.6477 0.1490 0 7
6.4998 16.3194 -2.6477 0.1490 0 7
6.2352 16.4223 -2.6477 0.1490 0 7
5.9691 16.5209 -2.6477 0.1490 0 7
5.7013 16.6152 -2.6477 0.1490 0 7
5.4321 16.7051 -2.6477 0.1490 0 7
5.1615 16.7907 -2.6477 0.1490 0 7
4.8895 16.8719 -2.6477 0.1490 0 7
4.6163 16.9487 -2.6477 0.1490 0 7
4.3418 17.0211 -2.6477 0.1490 0 7
4.0662 17.0890 -2.6477 0.1490 0 7
3.7895 17.1525 -2.6477 0.1490 0 7
3.5119 17.2115 -2.6477 0.1490 0 7
3.2333 17.2660 -2.6477 0.1490 0 7
2.9539 17.3160 -2.6477 0.1490 0 7
2.6737 17.3615 -2.6477 0.1490 0 7
2.3928 17.4024 -2.6477 0.1490 0 7
2.1113 17.4388 -2.6477 0.1490 0 7
1.8293 17.4706 -2.6477 0.1490 0 7
1.5467 17.4979 -2.6477 0.1490 0 7
1.2638 17.5206 -2.6477 0.1490 0 7
0.9805 17.5388 -2.6477 0.1490 0 7
0.6970 17.5523 -2.6477 0.1490 0 7
0.4133 17.5613 -2.6477 0.1490 0 7
0.1295 17.5657 -2.6477 0.1490 0 7
-0.1543 17.5655 -2.6477 0.1490 0 7
-0.4382 17.5607 -2.6477 0.1490 0 7
-0.7218 17.5513 -2.6477 0.1490 0 7
-1.0054 17.5373 -2.6477 0.1490 0 7
-1.2886 17.5188 -2.6477 0.1490 0 7
-1.5715 17.4957 -2.6477 0.1490 0 7
-1.8540 17.4680 -2.6477 0.1490 0 7
-2.1360 17.4358 -2.6477 0.1490 0 7
-2.4175 17.3990 -2.6477 0.1490 0 7
-2.6983 17.3577 -2.6477 0.1490 0 7
-2.9784 17.3118 -2.6477 0.1490 0 7
-3.2577 17.2614 -2.6477 0.1490 0 7
-3.5362 17.2065 -2.6477 0.1490 0 7
-3.8138 17.1471 -2.6477 0.1490 0 7
-4.0904 17.0833 -2.6477 0.1490 0 7
-4.3659 17.0150 -2.6477 0.1490 0 7
-4.6402 16.9422 -2.6477 0.1490 0 7
-4.9134 16.8650 -2.6477 0.1490 0 7
-5.1852 16.7834 -2.6477 0.1490 0 7
-5.4558 16.6974 -2.6477 0.1490 0 7
-5.7248 16.6071 -2.6477 0.1490 0 7
-5.9924 16.5124 -2.6477 0.1490 0 7
-6.2585 16.4134 -2.6477 0.1490 0 7
-6.5228 16.3102 -2.6477 0.1490 0 7
-6.7855 16.2026 -2.6477 0.1490 0 7
-7.0465 16.0909 -2.6477 0.1490 0 7
-7.3055 15.9749 -2.6477 0.1490 0 7
-7.5627 15.8548 -2.6477 0.1490 0 7
-7.8179 15.7305 -2.6477 0.1490 0 7
-8.0711 15.6021 -2.6477 0.1490 0 7
-8.3221 15.4697 -2.6477 0.1490 0 7
-8.5710 15.3332 -2.6477 0.1490 0 7
-8.8177 15.1927 -2.6477 0.1490 0 7
-9.0620 15.0482 -2.6477 0.1490 0 7
-9.3039 14.8999 -2.6477 0.1490 0 7
-9.5435 14.7476 -2.6477 0.1490 0 7
-9.7805 14.5914 -2.6477 0.1490 0 7
-10.0150 14.4315 -2.6477 0.1490 0 7
-10.2469 14.2678 -2.6477 0.1490 0 7
-10.4761 14.1004 -2.6477 0.1490 0 7
-10.7026 13.9293 -2.6477 0.1490 0 7
-10.9263 13.7545 -2.6477 0.1490 0 7
-11.1471 13.5762 -2.6477 0.1490 0 7
-11.3650 13.3943 -2.6477 0.1490 0 7
-11.5799 13.2089 -2.6477 0.1490 0 7
-11.7919 13.0200 -2.6477 0.1490 0 7
-12.0007 12.8278 -2.6477 0.1490 0 7
-12.2064 12.6322 -2.6477 0.1490 0 7
-12.4089 12.4333 -2.6477 0.1490 0 7
-12.6082 12.2312 -2.6477 0.1490 0 7
-12.8042 12.0259 -2.6477 0.1490 0 7
10.3239 13.0340 -2.6477 0.1573 0 7
10.1119 13.1991 -2.6477 0.1573 0 7
9.8973 13.3608 -2.6477 0.1573 0 7
9.6801 13.5189 -2.6477 0.1573 0 7
9.4604 13.6736 -2.6477 0.1573 0 7
9.2383 13.8247 -2.6477 0.1573 0 7
9.0137 13.9721 -2.6477 0.1573 0 7
8.7867 14.1160 -2.6477 0.1573 0 7
8.5575 14.2561 -2.6477 0.1573 0 7
8.3260 14.3925 -2.6477 0.1573 0 7
8.0924 14.5252 -2.6477 0.1573 0 7
7.8566 14.6540 -2.6477 0.1573 0 7
7.6188 14.7791 -2.6477 0.1573 0 7
7.3790 14.9002 -2.6477 0.1573 0 6
7.1373 15.0175 -2.6477 0.1573 0 7
6.8937 15.1309 -2.6477 0.1573 0 7
6.6483 15.2403 -2.6477 0.1573 0 7
6.4012 15.3457 -2.6477 0.1573 0 7
6.1524 15.4472 -2.6477 0.1573 0 7
5.9020 15.5446 -2.6477 0.1573 0 7
5.6500 15.6379 -2.6477 0.1573 0 7
5.3966 15.7271 -2.6477 0.1573 0 7
5.1418 15.8123 -2.6477 0.1573 0 7
4.8856 15.8933 -2.6477 0.1573 0 7
4.6282 15.9702 -2.6477 0.1573 0 7
4.3695 16.0429 -2.6477 0.1573 0 7
4.1097 16.1114 -2.6477 0.1573 0 7
3.8489 16.1757 -2.6477 0.1573 0 7
3.5870 16.2358 -2.6477 0.1573 0 7
3.3242 16.2916 -2.6477 0.1573 0 7
3.0605 16.3432 -2.6477 0.1573 0 7
2.7960 16.3905 -2.6477 0.1573 0 7
2.5308 16.4335 -2.6477 0.1573 0 7
2.2650 16.4723 -2.6477 0.1573 0 7
1.9985 16.5067 -2.6477 0.1573 0 7
1.7315 16.5369 -2.6477 0.1573 0 7
1.4641 16.5627 -2.6477 0.1573 0 7
1.1963 16.5842 -2.6477 0.1573 0 7
0.9281 16.6014 -2.6477 0.1573 0 7
0.6598 16.6142 -2.6477 0.1573 0 7
0.3912 16.6227 -2.6477 0.1573 0 7
0.1226 16.6268 -2.6477 0.1573 0 7
-0.1461 16.6266 -2.6477 0.1573 0 7
-0.4147 16.6221 -2.6477 0.1573 0 7
-0.6833 16.6132 -2.6477 0.1573 0 7
-0.9516 16.6000 -2.6477 0.1573 0 7
-1.2197 16.5825 -2.6477 0.1573 0 7
-1.4875 16.5606 -2.6477 0.1573 0 7
-1.7549 16.5344 -2.6477 0.1573 0 7
-2.0218 16.5039 -2.6477 0.1573 0 7
-2.2882 16.4691 -2.6477 0.1573 0 7
-2.5541 16.4300 -2.6477 0.1573 0 7
-2.8192 16.3865 -2.6477 0.1573 0 7
-3.0836 16.3388 -2.6477 0.1573 0 7
-3.3472 16.2869 -2.6477 0.1573 0 7
-3.6100 16.2307 -2.6477 0.1573 0 7
-3.8717 16.1702 -2.6477 0.1573 0 7
-4.1325 16.1056 -2.6477 0.1573 0 7
-4.3922 16.0367 -2.6477 0.1573 0 7
-4.6508 15.9636 -2.6477 0.1573 0 7
-4.9081 15.8864 -2.6477 0.1573 0 7
-5.1642 15.8050 -2.6477 0.1573 0 7
-5.4189 15.7195 -2.6477 0.1573 0 7
-5.6722 15.6299 -2.6477 0.1573 0 7
-5.9240 15.5362 -2.6477 0.1573 0 7
-6.1742 15.4384 -2.6477 0.1573 0 7
-6.4229 15.3367 -2.6477 0.1573 0 7
-6.6699 15.2309 -2.6477 0.1573 0 7
-6.9151 15.1211 -2.6477 0.1573 0 7
-7.1585 15.0074 -2.6477 0.1573 0 7
-7.4001 14.8898 -2.6477 0.1573 0 6
-7.6397 14.7683 -2.6477 0.1573 0 7
-7.8773 14.6429 -2.6477 0.1573 0 7
-8.1129 14.5137 -2.6477 0.1573 0 7
-8.3464 14.3807 -2.6477 0.1573 0 7
-8.5777 14.2440 -2.6477 0.1573 0 7
-8.8067 14.1035 -2.6477 0.1573 0 7
-9.0334 13.9594 -2.6477 0.1573 0 7
-9.2578 13.8116 -2.6477 0.1573 0 7
-9.4798 13.6602 -2.6477 0.1573 0 7
-9.6993 13.5052 -2.6477 0.1573 0 7
-9.9162 13.3467 -2.6477 0.1573 0 7
-10.1306 13.1848 -2.6477 0.1573 0 7
-10.3423 13.0194 -2.6477 0.1573 0 7
-10.5513 12.8506 -2.6477 0.1573 0 7
-10.7576 12.6784 -2.6477 0.1573 0 7
-10.9610 12.5029 -2.6477 0.1573 0 7
-11.1616 12.3242 -2.6477 0.1573 0 7
-11.3593 12.1422 -2.6477 0.1573 0 7
-11.5540 11.9571 -2.6477 0.1573 0 7
-11.7457 11.7688 -2.6477 0.1573 0 7
-11.9343 11.5775 -2.6477 0.1573 0 7
-12.1199 11.3831 -2.6477 0.1573 0 6
9.7987 12.3710 -2.6477 0.1655 0 7
9.5976 12.5278 -2.6477 0.1655 0 7
9.3939 12.6812 -2.6477 0.1655 0 7
9.1878 12.8313 -2.6477 0.1655 0 7
8.9792 12.9781 -2.6477 0.1655 0 7
8.7684 13.1215 -2.6477 0.1655 0 7
8.5552 13.2615 -2.6477 0.1655 0 7
8.3398 13.3980 -2.6477 0.1655 0 7
8.1222 13.5310 -2.6477 0.1655 0 7
7.9025 13.6605 -2.6477 0.1655 0 7
7.6808 13.7864 -2.6477 0.1655 0 7
7.4570 13.9087 -2.6477 0.1655 0 7
7.2313 14.0274 -2.6477 0.1655 0 7
7.0037 14.1424 -2.6477 0.1655 0 7
6.7743 14.2537 -2.6477 0.1655 0 7
6.5431 14.3613 -2.6477 0.1655 0 7
6.3101 14.4651 -2.6477 0.1655 0 7
6.0756 14.5652 -2.6477 0.1655 0 7
5.8394 14.6615 -2.6477 0.1655 0 7
5.6018 14.7539 -2.6477 0.1655 0 7
5.3627 14.8425 -2.6477 0.1655 0 7
5.1221 14.9272 -2.6477 0.1655 0 7
4.8803 15.0080 -2.6477 0.1655 0 7
4.6371 15.0849 -2.6477 0.1655 0 7
4.3928 15.1579 -2.6477 0.1655 0 7
4.1473 15.2269 -2.6477 0.1655 0 7
3.9007 15.2919 -2.6477 0.1655 0 7
3.6531 15.3529 -2.6477 0.1655 0 7
3.4046 15.4100 -2.6477 0.1655 0 7
3.1551 15.4630 -2.6477 0.1655 0 7
2.9048 15.5119 -2.6477 0.1655 0 7
2.6538 15.5568 -2.6477 0.1655 0 7
2.4021 15.5977 -2.6477 0.1655 0 7
2.1497 15.6345 -2.6477 0.1655 0 7
1.8968 15.6672 -2.6477 0.1655 0 7
1.6434 15.6958 -2.6477 0.1655 0 7
1.3896 15.7203 -2.6477 0.1655 0 7
1.1354 15.7407 -2.6477 0.1655 0 7
0.8809 15.7570 -2.6477 0.1655 0 7
0.6262 15.7691 -2.6477 0.1655 0 7
0.3713 15.7772 -2.6477 0.1655 0 7
0.1163 15.7811 -2.6477 0.1655 0 7
-0.1387 15.7810 -2.6477 0.1655 0 7
-0.3936 15.7767 -2.6477 0.1655 0 7
-0.6485 15.7682 -2.6477 0.1655 0 7
-0.9032 15.7557 -2.6477 0.1655 0 7
-1.1577 15.7391 -2.6477 0.1655 0 7
-1.4118 15.7183 -2.6477 0.1655 0 7
-1.6656 15.6934 -2.6477 0.1655 0 7
-1.9190 15.6645 -2.6477 0.1655 0 7
-2.1719 15.6314 -2.6477 0.1655 0 7
-2.4242 15.5943 -2.6477 0.1655 0 7
-2.6758 15.5531 -2.6477 0.1655 0 7
-2.9268 15.5078 -2.6477 0.1655 0 7
-3.1770 15.4585 -2.6477 0.1655 0 7
-3.4263 15.4051 -2.6477 0.1655 0 7
-3.6748 15.3478 -2.6477 0.1655 0 7
-3.9223 15.2864 -2.6477 0.1655 0 7
-4.1688 15.2210 -2.6477 0.1655 0 7
-4.4142 15.1517 -2.6477 0.1655 0 7
-4.6585 15.0784 -2.6477 0.1655 0 7
-4.9015 15.0011 -2.6477 0.1655 0 7
-5.1432 14.9200 -2.6477 0.1655 0 7
-5.3837 14.8349 -2.6477 0.1655 0 7
-5.6227 14.7460 -2.6477 0.1655 0 7
-5.8602 14.6532 -2.6477 0.1655 0 7
-6.0962 14.5566 -2.6477 0.1655 0 7
-6.3306 14.4562 -2.6477 0.1655 0 7
-6.5634 14.3520 -2.6477 0.1655 0 7
-6.7944 14.2441 -2.6477 0.1655 0 7
-7.0237 14.1324 -2.6477 0.1655 0 7
-7.2511 14.0171 -2.6477 0.1655 0 7
-7.4767 13.8981 -2.6477 0.1655 0 7
-7.7003 13.7755 -2.6477 0.1655 0 7
-7.9219 13.6493 -2.6477 0.1655 0 7
-8.1414 13.5195 -2.6477 0.1655 0 7
-8.3587 13.3862 -2.6477 0.1655 0 7
-8.5740 13.2494 -2.6477 0.1655 0 7
-8.7869 13.1091 -2.6477 0.1655 0 7
-8.9976 12.9654 -2.6477 0.1655 0 7
-9.2059 12.8183 -2.6477 0.1655 0 7
-9.4118 12.6679 -2.6477 0.1655 0 7
-9.6153 12.5142 -2.6477 0.1655 0 7
-9.8162 12.3572 -2.6477 0.1655 0 7
-10.0146 12.1969 -2.6477 0.1655 0 7
-10.2104 12.0335 -2.6477 0.1655 0 7
-10.4035 11.8670 -2.6477 0.1655 0 7
-10.5939 11.6973 -2.6477 0.1655 0 7
-10.7815 11.5246 -2.6477 0.1655 0 7
-10.9663 11.3489 -2.6477 0.1655 0 6
-11.1483 11.1702 -2.6477 0.1655 0 7
-11.3273 10.9886 -2.6477 0.1655 0 7
-11.5034 10.8042 -2.6477 0.1655 0 7
9.3232 11.7707 -2.6477 0.1736 0 7
9.1318 11.9198 -2.6477 0.1736 0 7
8.9380 12.0658 -2.6477 0.1736 0 7
8.7419 12.2086 -2.6477 0.1736 0 7
8.5435 12.3483 -2.6477 0.1736 0 7
8.3428 12.4847 -2.6477 0.1736 0 7
8.1400 12.6179 -2.6477 0.1736 0 7
7.9351 12.7478 -2.6477 0.1736 0 7
7.7281 12.8743 -2.6477 0.1736 0 7
7.5190 12.9975 -2.6477 0.1736 0 7
7.3080 13.1173 -2.6477 0.1736 0 7
7.0951 13.2337 -2.6477 0.1736 0 7
6.8803 13.3466 -2.6477 0.1736 0 7
6.6638 13.4560 -2.6477 0.1736 0 7
6.4455 13.5620 -2.6477 0.1736 0 7
6.2255 13.6643 -2.6477 0.1736 0 7
6.0039 13.7631 -2.6477 0.1736 0 7
5.7807 13.8584 -2.6477 0.1736 0 7
5.5561 13.9500 -2.6477 0.1736 0 7
5.3299 14.0379 -2.6477 0.1736 0 7
5.1024 14.1222 -2.6477 0.1736 0 7
4.8736 14.2028 -2.6477 0.1736 0 7
4.6434 14.2797 -2.6477 0.1736 0 7
4.4121 14.3529 -2.6477 0.1736 0 7
4.1796 14.4223 -2.6477 0.1736 0 7
3.9460 14.4879 -2.6477 0.1736 0 7
3.7114 14.5498 -2.6477 0.1736 0 7
3.4758 14.6079 -2.6477 0.1736 0 7
3.2393 14.6621 -2.6477 0.1736 0 7
3.0020 14.7126 -2.6477 0.1736 0 7
2.7639 14.7591 -2.6477 0.1736 0 7
2.5250 14.8019 -2.6477 0.1736 0 7
2.2855 14.8407 -2.6477 0.1736 0 7
2.0454 14.8757 -2.6477 0.1736 0 7
1.8048 14.9068 -2.6477 0.1736 0 7
1.5637 14.9341 -2.6477 0.1736 0 7
1.3222 14.9574 -2.6477 0.1736 0 7
1.0803 14.9768 -2.6477 0.1736 0 7
0.8382 14.9923 -2.6477 0.1736 0 7
0.5958 15.0039 -2.6477 0.1736 0 7
0.3533 15.0115 -2.6477 0.1736 0 7
0.1107 15.0153 -2.6477 0.1736 0 7
-0.1319 15.0151 -2.6477 0.1736 0 7
-0.3745 15.0110 -2.6477 0.1736 0 7
-0.6170 15.0030 -2.6477 0.1736 0 7
-0.8594 14.9911 -2.6477 0.1736 0 6
-1.1015 14.9752 -2.6477 0.1736 0 6
-1.3433 14.9555 -2.6477 0.1736 0 6
-1.5848 14.9318 -2.6477 0.1736 0 6
-1.8259 14.9043 -2.6477 0.1736 0 7
-2.0665 14.8728 -2.6477 0.1736 0 7
-2.3065 14.8375 -2.6477 0.1736 0 7
-2.5460 14.7983 -2.6477 0.1736 0 7
-2.7847 14.7552 -2.6477 0.1736 0 7
-3.0228 14.7083 -2.6477 0.1736 0 7
-3.2601 14.6575 -2.6477 0.1736 0 7
-3.4965 14.6029 -2.6477 0.1736 0 7
-3.7320 14.5445 -2.6477 0.1736 0 7
-3.9665 14.4823 -2.6477 0.1736 0 7
-4.2000 14.4163 -2.6477 0.1736 0 7
-4.4324 14.3466 -2.6477 0.1736 0 7
-4.6636 14.2731 -2.6477 0.1736 0 7
-4.8936 14.1959 -2.6477 0.1736 0 7
-5.1224 14.1150 -2.6477 0.1736 0 7
-5.3498 14.0304 -2.6477 0.1736 0 7
-5.5758 13.9421 -2.6477 0.1736 0 7
-5.8003 13.8502 -2.6477 0.1736 0 7
-6.0234 13.7546 -2.6477 0.1736 0 7
-6.2448 13.6555 -2.6477 0.1736 0 7
-6.4647 13.5528 -2.6477 0.1736 0 7
-6.6828 13.4466 -2.6477 0.1736 0 7
-6.8992 13.3369 -2.6477 0.1736 0 7
-7.1138 13.2236 -2.6477 0.1736 0 7
-7.3266 13.1070 -2.6477 0.1736 0 7
-7.5374 12.9869 -2.6477 0.1736 0 7
-7.7463 12.8634 -2.6477 0.1736 0 7
-7.9531 12.7365 -2.6477 0.1736 0 7
-8.1579 12.6064 -2.6477 0.1736 0 7
-8.3605 12.4729 -2.6477 0.1736 0 7
-8.5609 12.3362 -2.6477 0.1736 0 7
-8.7591 12.1962 -2.6477 0.1736 0 7
-8.9551 12.0531 -2.6477 0.1736 0 7
-9.1487 11.9068 -2.6477 0.1736 0 7
-9.3399 11.7575 -2.6477 0.1736 0 7
-9.5286 11.6050 -2.6477 0.1736 0 7
-9.7149 11.4495 -2.6477 0.1736 0 6
-9.8986 11.2911 -2.6477 0.1736 0 7
-10.0798 11.1296 -2.6477 0.1736 0 7
-10.2583 10.9653 -2.6477 0.1736 0 7
-10.4341 10.7981 -2.6477 0.1736 0 7
-10.6073 10.6281 -2.6477 0.1736 0 7
-10.7776 10.4553 -2.6477 0.1736 0 7
-10.9451 10.2798 -2.6477 0.1736 0 7
8.8905 11.2244 -2.6477 0.1818 0 7
8.7080 11.3665 -2.6477 0.1818 0 7
8.5232 11.5058 -2.6477 0.1818 0 6
8.3361 11.6420 -2.6477 0.1818 0 7
8.1470 11.7752 -2.6477 0.1818 0 7
7.9556 11.9053 -2.6477 0.1818 0 7
7.7622 12.0323 -2.6477 0.1818 0 7
7.5668 12.1561 -2.6477 0.1818 0 7
7.3694 12.2768 -2.6477 0.1818 0 7
7.1700 12.3943 -2.6477 0.1818 0 7
6.9688 12.5085 -2.6477 0.1818 0 7
6.7658 12.6195 -2.6477 0.1818 0 7
6.5610 12.7271 -2.6477 0.1818 0 7
6.3545 12.8315 -2.6477 0.1818 0 7
6.1463 12.9325 -2.6477 0.1818 0 7
5.9366 13.0301 -2.6477 0.1818 0 7
5.7253 13.1243 -2.6477 0.1818 0 7
5.5124 13.2151 -2.6477 0.1818 0 7
5.2982 13.3025 -2.6477 0.1818 0 7
5.0826 13.3864 -2.6477 0.1818 0 7
4.8656 13.4667 -2.6477 0.1818 0 7
4.6474 13.5436 -2.6477 0.1818 0 7
4.4279 13.6169 -2.6477 0.1818 0 7
4.2073 13.6867 -2.6477 0.1818 0 7
3.9856 13.7529 -2.6477 0.1818 0 7
3.7629 13.8155 -2.6477 0.1818 0 7
3.5391 13.8745 -2.6477 0.1818 0 7
3.3145 13.9299 -2.6477 0.1818 0 7
3.0890 13.9816 -2.6477 0.1818 0 7
2.8627 14.0297 -2.6477 0.1818 0 7
2.6356 14.0741 -2.6477 0.1818 0 7
2.4078 14.1149 -2.6477 0.1818 0 7
2.1794 14.1519 -2.6477 0.1818 0 7
1.9505 14.1853 -2.6477 0.1818 0 7
1.7210 14.2150 -2.6477 0.1818 0 7
1.4911 14.2409 -2.6477 0.1818 0 7
1.2608 14.2631 -2.6477 0.1818 0 7
1.0302 14.2817 -2.6477 0.1818 0 7
0.7993 14.2964 -2.6477 0.1818 0 7
0.5682 14.3075 -2.6477 0.1818 0 7
0.3369 14.3148 -2.6477 0.1818 0 7
0.1056 14.3184 -2.6477 0.1818 0 7
-0.1258 14.3182 -2.6477 0.1818 0 7
-0.3572 14.3143 -2.6477 0.1818 0 7
