ply
format ascii 1.0
element vertex 1386
property float32 x
property float32 y
property float32 z
property float32 CosAngle
property uint32 ObjIdx
property uint32 ObjTag
end_header
17.3887 2.3226 -2.4953 0.1408 0 8
17.3489 2.6030 -2.4953 0.1408 0 8
17.3047 2.8826 -2.4953 0.1408 0 8
17.2559 3.1616 -2.4953 0.1408 0 8
17.2026 3.4397 -2.4953 0.1408 0 8
17.1448 3.7169 -2.4953 0.1408 0 8
17.0826 3.9932 -2.4953 0.1408 0 8
17.0159 4.2684 -2.4953 0.1408 0 8
16.9448 4.5425 -2.4953 0.1408 0 8
16.8693 4.8154 -2.4953 0.1408 0 8
16.7894 5.0870 -2.4953 0.1408 0 8
16.7051 5.3574 -2.4953 0.1408 0 8
16.6164 5.6263 -2.4953 0.1408 0 8
16.5235 5.8938 -2.4953 0.1408 0 8
16.4262 6.1597 -2.4953 0.1408 0 8
16.3246 6.4240 -2.4953 0.1408 0 8
16.2188 6.6867 -2.4953 0.1408 0 8
9.6473 -13.4536 -2.4953 0.1490 0 8
9.8632 -13.2961 -2.4953 0.1490 0 8
10.0765 -13.1352 -2.4953 0.1490 0 8
10.2872 -12.9709 -2.4953 0.1490 0 8
10.4952 -12.8031 -2.4953 0.1490 0 8
10.7005 -12.6321 -2.4953 0.1490 0 8
10.9030 -12.4577 -2.4953 0.1490 0 8
11.1027 -12.2801 -2.4953 0.1490 0 8
11.2994 -12.0993 -2.4953 0.1490 0 8
11.4932 -11.9153 -2.4953 0.1490 0 8
11.6841 -11.7283 -2.4953 0.1490 0 8
11.8718 -11.5381 -2.4953 0.1490 0 8
12.0565 -11.3450 -2.4953 0.1490 0 8
12.2381 -11.1489 -2.4953 0.1490 0 8
12.4164 -10.9500 -2.4953 0.1490 0 8
12.5916 -10.7481 -2.4953 0.1490 0 8
12.7634 -10.5435 -2.4953 0.1490 0 8
12.9319 -10.3361 -2.4953 0.1490 0 8
13.0971 -10.1260 -2.4953 0.1490 0 8
13.2588 -9.9133 -2.4953 0.1490 0 8
13.4171 -9.6980 -2.4953 0.1490 0 8
13.5719 -9.4802 -2.4953 0.1490 0 8
13.7231 -9.2599 -2.4953 0.1490 0 8
13.8708 -9.0372 -2.4953 0.1490 0 8
14.0149 -8.8121 -2.4953 0.1490 0 8
14.1553 -8.5847 -2.4953 0.1490 0 8
14.2920 -8.3551 -2.4953 0.1490 0 8
14.4250 -8.1234 -2.4953 0.1490 0 8
14.5542 -7.8895 -2.4953 0.1490 0 8
14.6797 -7.6535 -2.4953 0.1490 0 8
14.8013 -7.4156 -2.4953 0.1490 0 8
14.9191 -7.1757 -2.4953 0.1490 0 8
15.0329 -6.9340 -2.4953 0.1490 0 8
15.1429 -6.6904 -2.4953 0.1490 0 8
15.2489 -6.4451 -2.4953 0.1490 0 8
15.3510 -6.1982 -2.4953 0.1490 0 8
15.4490 -5.9496 -2.4953 0.1490 0 8
15.5430 -5.6994 -2.4953 0.1490 0 8
15.6330 -5.4478 -2.4953 0.1490 0 8
15.7189 -5.1948 -2.4953 0.1490 0 8
15.8007 -4.9404 -2.4953 0.1490 0 8
15.8784 -4.6847 -2.4953 0.1490 0 8
15.9519 -4.4278 -2.4953 0.1490 0 8
16.0213 -4.1698 -2.4953 0.1490 0 8
16.0865 -3.9106 -2.4953 0.1490 0 8
16.1476 -3.6505 -2.4953 0.1490 0 8
16.2044 -3.3894 -2.4953 0.1490 0 8
16.2570 -3.1274 -2.4953 0.1490 0 8
16.3053 -2.8645 -2.4953 0.1490 0 8
16.3494 -2.6010 -2.4953 0.1490 0 8
16.3893 -2.3368 -2.4953 0.1490 0 8
16.4249 -2.0719 -2.4953 0.1490 0 8
16.4562 -1.8065 -2.4953 0.1490 0 8
16.4832 -1.5407 -2.4953 0.1490 0 8
8.4058 -0.6490 -1.2707 0.3376 25 10
8.3223 -0.5076 -1.2567 0.5118 25 10
8.2861 -0.3713 -1.2502 0.5145 25 10
8.2566 -0.2365 -1.2450 0.5205 25 10
8.2420 -0.1030 -1.2424 0.5142 25 10
8.2343 0.0301 -1.2411 0.5148 25 10
8.2483 0.1633 -1.2435 0.5138 25 10
8.2651 0.2971 -1.2466 0.5079 25 10
8.3025 0.4327 -1.2531 0.5133 25 10
8.3435 0.5700 -1.2605 0.4892 25 10
8.9459 0.7565 -1.3532 0.0980 25 10
16.4715 1.6610 -2.4953 0.1490 0 8
16.4425 1.9266 -2.4953 0.1490 0 8
16.4093 2.1918 -2.4953 0.1490 0 8
16.3718 2.4564 -2.4953 0.1490 0 8
16.3300 2.7203 -2.4953 0.1490 0 8
16.2840 2.9835 -2.4953 0.1490 0 8
16.2337 3.2460 -2.4953 0.1490 0 8
16.1792 3.5076 -2.4953 0.1490 0 8
16.1205 3.7683 -2.4953 0.1490 0 8
16.0575 4.0280 -2.4953 0.1490 0 8
15.9904 4.2866 -2.4953 0.1490 0 8
15.9192 4.5442 -2.4953 0.1490 0 8
15.8437 4.8005 -2.4953 0.1490 0 8
15.7642 5.0556 -2.4953 0.1490 0 8
15.6805 5.3094 -2.4953 0.1490 0 8
15.5928 5.5618 -2.4953 0.1490 0 8
15.5010 5.8128 -2.4953 0.1490 0 8
15.4052 6.0622 -2.4953 0.1490 0 8
15.3053 6.3101 -2.4953 0.1490 0 8
9.1316 -12.7346 -2.4953 0.1573 0 8
9.3360 -12.5855 -2.4953 0.1573 0 8
9.5379 -12.4336 -2.4953 0.1573 0 8
9.7374 -12.2776 -2.4953 0.1573 0 8
9.9343 -12.1188 -2.4953 0.1573 0 8
10.1286 -11.9569 -2.4953 0.1573 0 8
10.3203 -11.7919 -2.4953 0.1573 0 8
10.5092 -11.6237 -2.4953 0.1573 0 8
10.6955 -11.4526 -2.4953 0.1573 0 8
10.8790 -11.2785 -2.4953 0.1573 0 8
11.0596 -11.1014 -2.4953 0.1573 0 8
11.2373 -10.9215 -2.4953 0.1573 0 8
11.4121 -10.7387 -2.4953 0.1573 0 8
11.5840 -10.5531 -2.4953 0.1573 0 8
11.7528 -10.3647 -2.4953 0.1573 0 8
11.9186 -10.1737 -2.4953 0.1573 0 8
12.0812 -9.9800 -2.4953 0.1573 0 8
12.2408 -9.7836 -2.4953 0.1573 0 8
12.3971 -9.5848 -2.4953 0.1573 0 8
12.5502 -9.3835 -2.4953 0.1573 0 8
12.7000 -9.1797 -2.4953 0.1573 0 8
12.8465 -8.9735 -2.4953 0.1573 0 8
12.9897 -8.7650 -2.4953 0.1573 0 8
13.1294 -8.5542 -2.4953 0.1573 0 8
13.2658 -8.3411 -2.4953 0.1573 0 8
13.3987 -8.1259 -2.4953 0.1573 0 8
13.5281 -7.9086 -2.4953 0.1573 0 8
13.6540 -7.6892 -2.4953 0.1573 0 8
13.7763 -7.4678 -2.4953 0.1573 0 8
13.8951 -7.2445 -2.4953 0.1573 0 8
14.0102 -7.0192 -2.4953 0.1573 0 8
14.1217 -6.7922 -2.4953 0.1573 0 8
14.2295 -6.5634 -2.4953 0.1573 0 8
14.3336 -6.3328 -2.4953 0.1573 0 8
14.4339 -6.1007 -2.4953 0.1573 0 8
14.5305 -5.8669 -2.4953 0.1573 0 8
14.6233 -5.6316 -2.4953 0.1573 0 8
14.7123 -5.3948 -2.4953 0.1573 0 8
14.7975 -5.1567 -2.4953 0.1573 0 8
14.8788 -4.9171 -2.4953 0.1573 0 8
14.9562 -4.6763 -2.4953 0.1573 0 8
15.0297 -4.4343 -2.4953 0.1573 0 8
15.0993 -4.1912 -2.4953 0.1573 0 8
15.1650 -3.9469 -2.4953 0.1573 0 8
15.2268 -3.7016 -2.4953 0.1573 0 8
15.2845 -3.4554 -2.4953 0.1573 0 8
15.3383 -3.2082 -2.4953 0.1573 0 8
15.3881 -2.9602 -2.4953 0.1573 0 8
15.4339 -2.7114 -2.4953 0.1573 0 8
15.4756 -2.4620 -2.4953 0.1573 0 8
15.5133 -2.2119 -2.4953 0.1573 0 8
15.5470 -1.9612 -2.4953 0.1573 0 8
15.5766 -1.7100 -2.4953 0.1573 0 8
15.6022 -1.4583 -2.4953 0.1573 0 8
8.2652 -0.6382 -1.3200 0.3429 25 10
8.1997 -0.5001 -1.3081 0.5188 25 10
8.1627 -0.3657 -1.3011 0.5134 25 10
8.1357 -0.2330 -1.2960 0.5275 25 10
8.1206 -0.1014 -1.2932 0.5287 25 10
8.1121 0.0296 -1.2918 0.5293 25 10
8.1275 0.1609 -1.2944 0.5282 25 10
8.1424 0.2927 -1.2974 0.5270 25 10
8.1796 0.4263 -1.3043 0.5122 25 10
8.2177 0.5615 -1.3116 0.4961 25 10
8.3970 0.7100 -1.3419 0.0871 25 10
15.5912 1.5722 -2.4953 0.1573 0 8
15.5637 1.8237 -2.4953 0.1573 0 8
15.5323 2.0746 -2.4953 0.1573 0 8
15.4968 2.3251 -2.4953 0.1573 0 8
15.4572 2.5749 -2.4953 0.1573 0 8
15.4137 2.8241 -2.4953 0.1573 0 8
15.3661 3.0725 -2.4953 0.1573 0 8
15.3145 3.3201 -2.4953 0.1573 0 8
15.2589 3.5668 -2.4953 0.1573 0 8
15.1993 3.8127 -2.4953 0.1573 0 8
15.1358 4.0575 -2.4953 0.1573 0 8
15.0683 4.3013 -2.4953 0.1573 0 8
14.9969 4.5439 -2.4953 0.1573 0 8
14.9216 4.7854 -2.4953 0.1573 0 8
14.8425 5.0256 -2.4953 0.1573 0 8
14.7594 5.2646 -2.4953 0.1573 0 8
14.6725 5.5021 -2.4953 0.1573 0 8
14.5818 5.7382 -2.4953 0.1573 0 8
14.4873 5.9728 -2.4953 0.1573 0 8
8.6672 -12.0868 -2.4953 0.1655 0 8
8.8611 -11.9454 -2.4953 0.1655 0 8
9.0528 -11.8008 -2.4953 0.1655 0 8
9.2421 -11.6531 -2.4953 0.1655 0 8
9.4290 -11.5024 -2.4953 0.1655 0 8
9.6134 -11.3487 -2.4953 0.1655 0 8
9.7953 -11.1921 -2.4953 0.1655 0 8
9.9747 -11.0325 -2.4953 0.1655 0 8
10.1515 -10.8701 -2.4953 0.1655 0 8
10.3256 -10.7048 -2.4953 0.1655 0 8
10.4971 -10.5368 -2.4953 0.1655 0 8
10.6658 -10.3660 -2.4953 0.1655 0 8
10.8317 -10.1925 -2.4953 0.1655 0 8
10.9948 -10.0163 -2.4953 0.1655 0 8
11.1550 -9.8375 -2.4953 0.1655 0 8
11.3124 -9.6562 -2.4953 0.1655 0 8
11.4668 -9.4723 -2.4953 0.1655 0 8
11.6182 -9.2860 -2.4953 0.1655 0 8
11.7665 -9.0973 -2.4953 0.1655 0 8
11.9118 -8.9062 -2.4953 0.1655 0 8
12.0540 -8.7128 -2.4953 0.1655 0 8
12.1931 -8.5171 -2.4953 0.1655 0 8
12.3290 -8.3191 -2.4953 0.1655 0 8
12.4616 -8.1191 -2.4953 0.1655 0 8
12.5911 -7.9169 -2.4953 0.1655 0 8
12.7172 -7.7126 -2.4953 0.1655 0 8
12.8400 -7.5063 -2.4953 0.1655 0 8
12.9595 -7.2981 -2.4953 0.1655 0 8
13.0756 -7.0880 -2.4953 0.1655 0 8
13.1883 -6.8760 -2.4953 0.1655 0 8
13.2976 -6.6622 -2.4953 0.1655 0 8
13.4034 -6.4467 -2.4953 0.1655 0 8
13.5057 -6.2295 -2.4953 0.1655 0 8
13.6045 -6.0107 -2.4953 0.1655 0 8
13.6998 -5.7904 -2.4953 0.1655 0 8
13.7914 -5.5685 -2.4953 0.1655 0 8
13.8795 -5.3452 -2.4953 0.1655 0 8
13.9640 -5.1204 -2.4953 0.1655 0 8
14.0448 -4.8944 -2.4953 0.1655 0 8
14.1220 -4.6670 -2.4953 0.1655 0 8
14.1955 -4.4385 -2.4953 0.1655 0 8
14.2653 -4.2088 -2.4953 0.1655 0 8
14.3313 -3.9780 -2.4953 0.1655 0 8
14.3937 -3.7462 -2.4953 0.1655 0 8
14.4523 -3.5133 -2.4953 0.1655 0 8
14.5071 -3.2796 -2.4953 0.1655 0 8
14.5581 -3.0450 -2.4953 0.1655 0 8
14.6054 -2.8096 -2.4953 0.1655 0 8
14.6488 -2.5735 -2.4953 0.1655 0 8
14.6885 -2.3368 -2.4953 0.1655 0 8
14.7243 -2.0994 -2.4953 0.1655 0 8
14.7562 -1.8614 -2.4953 0.1655 0 8
14.7844 -1.6230 -2.4953 0.1655 0 8
8.5355 -0.7978 -1.4382 0.1668 25 10
8.1282 -0.6276 -1.3677 0.3601 25 10
8.0441 -0.4906 -1.3521 0.3506 25 10
7.9978 -0.3583 -1.3431 0.3349 25 10
7.9592 -0.2280 -1.3359 0.3448 25 10
7.9403 -0.0992 -1.3323 0.3626 25 10
7.9346 0.0290 -1.3312 0.3629 25 10
7.9486 0.1573 -1.3338 0.3453 25 10
7.9678 0.2864 -1.3376 0.3443 25 10
8.0188 0.4180 -1.3471 0.3519 25 10
8.0684 0.5513 -1.3568 0.3448 25 10
8.2421 0.6969 -1.3877 0.3432 25 10
14.7981 1.4922 -2.4953 0.1655 0 8
14.7721 1.7309 -2.4953 0.1655 0 8
14.7423 1.9691 -2.4953 0.1655 0 8
14.7086 2.2068 -2.4953 0.1655 0 8
14.6710 2.4439 -2.4953 0.1655 0 8
14.6297 2.6804 -2.4953 0.1655 0 8
14.5845 2.9162 -2.4953 0.1655 0 8
14.5355 3.1512 -2.4953 0.1655 0 8
14.4828 3.3854 -2.4953 0.1655 0 8
14.4262 3.6187 -2.4953 0.1655 0 8
14.3659 3.8511 -2.4953 0.1655 0 8
14.3019 4.0825 -2.4953 0.1655 0 8
14.2342 4.3128 -2.4953 0.1655 0 8
14.1627 4.5420 -2.4953 0.1655 0 8
14.0875 4.7700 -2.4953 0.1655 0 8
14.0087 4.9968 -2.4953 0.1655 0 8
13.9262 5.2222 -2.4953 0.1655 0 8
13.8401 5.4463 -2.4953 0.1655 0 8
13.7504 5.6690 -2.4953 0.1655 0 8
8.2466 -11.5003 -2.4953 0.1736 0 8
8.4311 -11.3657 -2.4953 0.1736 0 8
8.6135 -11.2281 -2.4953 0.1736 0 8
8.7936 -11.0876 -2.4953 0.1736 0 8
8.9714 -10.9442 -2.4953 0.1736 0 8
9.1469 -10.7980 -2.4953 0.1736 0 8
9.3200 -10.6489 -2.4953 0.1736 0 8
9.4906 -10.4971 -2.4953 0.1736 0 8
9.6588 -10.3426 -2.4953 0.1736 0 8
9.8245 -10.1853 -2.4953 0.1736 0 8
9.9876 -10.0254 -2.4953 0.1736 0 8
10.1482 -9.8629 -2.4953 0.1736 0 8
10.3060 -9.6978 -2.4953 0.1736 0 8
10.4612 -9.5302 -2.4953 0.1736 0 8
10.6137 -9.3601 -2.4953 0.1736 0 8
10.7634 -9.1876 -2.4953 0.1736 0 8
10.9103 -9.0126 -2.4953 0.1736 0 8
11.0543 -8.8354 -2.4953 0.1736 0 8
11.1955 -8.6558 -2.4953 0.1736 0 8
11.3337 -8.4740 -2.4953 0.1736 0 8
11.4690 -8.2899 -2.4953 0.1736 0 8
11.6014 -8.1037 -2.4953 0.1736 0 8
11.7306 -7.9154 -2.4953 0.1736 0 8
11.8569 -7.7250 -2.4953 0.1736 0 8
11.9800 -7.5327 -2.4953 0.1736 0 8
12.1000 -7.3383 -2.4953 0.1736 0 8
12.2169 -7.1420 -2.4953 0.1736 0 8
12.3306 -6.9439 -2.4953 0.1736 0 8
12.4411 -6.7440 -2.4953 0.1736 0 8
12.5483 -6.5423 -2.4953 0.1736 0 8
12.6523 -6.3389 -2.4953 0.1736 0 8
12.7529 -6.1339 -2.4953 0.1736 0 8
12.8503 -5.9272 -2.4953 0.1736 0 8
12.9443 -5.7190 -2.4953 0.1736 0 8
13.0349 -5.5094 -2.4953 0.1736 0 8
13.1221 -5.2982 -2.4953 0.1736 0 8
13.2059 -5.0858 -2.4953 0.1736 0 8
13.2863 -4.8719 -2.4953 0.1736 0 8
13.3632 -4.6568 -2.4953 0.1736 0 8
13.4366 -4.4406 -2.4953 0.1736 0 8
13.5066 -4.2231 -2.4953 0.1736 0 8
13.5730 -4.0045 -2.4953 0.1736 0 8
13.6358 -3.7849 -2.4953 0.1736 0 8
13.6952 -3.5644 -2.4953 0.1736 0 8
13.7509 -3.3428 -2.4953 0.1736 0 8
13.8031 -3.1204 -2.4953 0.1736 0 8
13.8516 -2.8972 -2.4953 0.1736 0 8
13.8966 -2.6733 -2.4953 0.1736 0 8
13.9379 -2.4486 -2.4953 0.1736 0 8
13.9756 -2.2233 -2.4953 0.1736 0 8
14.0097 -1.9975 -2.4953 0.1736 0 8
14.0401 -1.7711 -2.4953 0.1736 0 8
14.0669 -1.5442 -2.4953 0.1736 0 8
8.2426 -0.7704 -1.4597 0.3425 25 10
7.9838 -0.6164 -1.4120 0.3661 25 10
7.8606 -0.4794 -1.3886 0.3583 25 10
7.8072 -0.3498 -1.3780 0.3426 25 10
7.7728 -0.2226 -1.3711 0.3698 25 10
7.7635 -0.0970 -1.3690 0.3704 25 10
7.7581 0.0283 -1.3680 0.3706 25 10
7.7679 0.1538 -1.3700 0.3701 25 10
7.7808 0.2797 -1.3728 0.3521 25 10
7.8330 0.4083 -1.3830 0.3413 25 10
7.8882 0.5389 -1.3941 0.3521 25 10
8.0826 0.6835 -1.4303 0.2686 25 10
14.0800 1.4198 -2.4953 0.1736 0 8
14.0552 1.6469 -2.4953 0.1736 0 8
14.0268 1.8735 -2.4953 0.1736 0 8
13.9948 2.0997 -2.4953 0.1736 0 8
13.9590 2.3253 -2.4953 0.1736 0 8
13.9197 2.5503 -2.4953 0.1736 0 8
13.8767 2.7747 -2.4953 0.1736 0 8
13.8301 2.9983 -2.4953 0.1736 0 8
13.7799 3.2211 -2.4953 0.1736 0 8
13.7261 3.4431 -2.4953 0.1736 0 8
13.6688 3.6642 -2.4953 0.1736 0 8
13.6078 3.8844 -2.4953 0.1736 0 8
13.5434 4.1035 -2.4953 0.1736 0 8
13.4754 4.3216 -2.4953 0.1736 0 8
13.4039 4.5385 -2.4953 0.1736 0 8
13.3289 4.7543 -2.4953 0.1736 0 8
13.2504 4.9688 -2.4953 0.1736 0 8
13.1685 5.1820 -2.4953 0.1736 0 8
13.0831 5.3939 -2.4953 0.1736 0 8
7.8638 -10.9665 -2.4953 0.1818 0 8
8.0398 -10.8381 -2.4953 0.1818 0 8
8.2137 -10.7070 -2.4953 0.1818 0 8
8.3854 -10.5730 -2.4953 0.1818 0 8
8.5550 -10.4363 -2.4953 0.1818 0 8
8.7223 -10.2968 -2.4953 0.1818 0 8
8.8874 -10.1547 -2.4953 0.1818 0 8
9.0502 -10.0099 -2.4953 0.1818 0 8
9.2105 -9.8625 -2.4953 0.1818 0 8
9.3685 -9.7126 -2.4953 0.1818 0 8
9.5241 -9.5601 -2.4953 0.1818 0 8
9.6771 -9.4051 -2.4953 0.1818 0 8
9.8277 -9.2477 -2.4953 0.1818 0 8
9.9757 -9.0879 -2.4953 0.1818 0 8
10.1211 -8.9257 -2.4953 0.1818 0 8
10.2638 -8.7611 -2.4953 0.1818 0 8
10.4039 -8.5943 -2.4953 0.1818 0 8
10.5413 -8.4253 -2.4953 0.1818 0 8
10.6759 -8.2541 -2.4953 0.1818 0 8
10.8077 -8.0807 -2.4953 0.1818 0 8
10.9367 -7.9052 -2.4953 0.1818 0 8
11.0629 -7.7276 -2.4953 0.1818 0 8
11.1862 -7.5480 -2.4953 0.1818 0 8
11.3066 -7.3665 -2.4953 0.1818 0 8
11.4240 -7.1830 -2.4953 0.1818 0 8
11.5384 -6.9977 -2.4953 0.1818 0 8
11.6499 -6.8106 -2.4953 0.1818 0 8
11.7583 -6.6216 -2.4953 0.1818 0 8
11.8636 -6.4310 -2.4953 0.1818 0 8
11.9659 -6.2386 -2.4953 0.1818 0 8
12.0650 -6.0447 -2.4953 0.1818 0 8
12.1610 -5.8492 -2.4953 0.1818 0 8
12.2539 -5.6521 -2.4953 0.1818 0 8
12.3435 -5.4536 -2.4953 0.1818 0 8
12.4299 -5.2536 -2.4953 0.1818 0 8
12.5131 -5.0523 -2.4953 0.1818 0 8
12.5930 -4.8497 -2.4953 0.1818 0 8
12.6696 -4.6458 -2.4953 0.1818 0 8
12.7430 -4.4407 -2.4953 0.1818 0 8
12.8130 -4.2345 -2.4953 0.1818 0 8
12.8797 -4.0271 -2.4953 0.1818 0 8
12.9430 -3.8187 -2.4953 0.1818 0 8
13.0030 -3.6093 -2.4953 0.1818 0 8
13.0595 -3.3989 -2.4953 0.1818 0 8
13.1127 -3.1877 -2.4953 0.1818 0 8
13.1624 -2.9756 -2.4953 0.1818 0 8
13.2087 -2.7628 -2.4953 0.1818 0 8
13.2516 -2.5492 -2.4953 0.1818 0 8
13.2910 -2.3350 -2.4953 0.1818 0 8
13.3270 -2.1202 -2.4953 0.1818 0 8
13.3595 -1.9048 -2.4953 0.1818 0 8
13.3885 -1.6889 -2.4953 0.1818 0 8
13.4140 -1.4726 -2.4953 0.1818 0 8
8.0693 -0.7542 -1.4986 0.2684 25 10
7.8441 -0.6056 -1.4548 0.3721 25 10
7.7232 -0.4710 -1.4307 0.9140 25 10
7.6807 -0.3441 -1.4217 0.9199 25 10
7.6579 -0.2193 -1.4166 0.9863 25 10
7.6447 -0.0955 -1.4137 0.9883 25 10
7.6374 0.0279 -1.4122 0.9893 25 10
7.6506 0.1514 -1.4150 0.9874 25 10
7.6638 0.2755 -1.4180 0.9853 25 10
7.6998 0.4013 -1.4257 0.9172 25 10
7.7518 0.5296 -1.4367 0.7113 25 10
7.9300 0.6706 -1.4716 0.3678 25 10
8.2123 0.8281 -1.5262 0.2635 25 10
13.4029 1.5705 -2.4953 0.1818 0 8
13.3758 1.7866 -2.4953 0.1818 0 8
13.3452 2.0023 -2.4953 0.1818 0 8
13.3112 2.2174 -2.4953 0.1818 0 8
13.2736 2.4320 -2.4953 0.1818 0 8
13.2326 2.6459 -2.4953 0.1818 0 8
13.1882 2.8591 -2.4953 0.1818 0 8
13.1403 3.0716 -2.4953 0.1818 0 8
13.0891 3.2833 -2.4953 0.1818 0 8
13.0344 3.4942 -2.4953 0.1818 0 8
12.9763 3.7041 -2.4953 0.1818 0 8
12.9148 3.9131 -2.4953 0.1818 0 8
12.8499 4.1210 -2.4953 0.1818 0 8
12.7817 4.3279 -2.4953 0.1818 0 8
12.7102 4.5336 -2.4953 0.1818 0 8
12.6354 4.7382 -2.4953 0.1818 0 8
12.5573 4.9415 -2.4953 0.1818 0 8
12.4759 5.1436 -2.4953 0.1818 0 8
7.5140 -10.4786 -2.4953 0.1900 0 8
7.6821 -10.3560 -2.4953 0.1900 0 8
7.8483 -10.2307 -2.4953 0.1900 0 8
8.0124 -10.1026 -2.4953 0.1900 0 8
8.1744 -9.9720 -2.4953 0.1900 0 8
8.3343 -9.8388 -2.4953 0.1900 0 8
8.4920 -9.7030 -2.4953 0.1900 0 8
8.6475 -9.5646 -2.4953 0.1900 0 8
8.8008 -9.4238 -2.4953 0.1900 0 8
8.9518 -9.2805 -2.4953 0.1900 0 8
9.1004 -9.1348 -2.4953 0.1900 0 8
9.2467 -8.9867 -2.4953 0.1900 0 8
9.3905 -8.8363 -2.4953 0.1900 0 8
9.5319 -8.6836 -2.4953 0.1900 0 8
9.6708 -8.5286 -2.4953 0.1900 0 8
9.8072 -8.3714 -2.4953 0.1900 0 8
9.9411 -8.2120 -2.4953 0.1900 0 8
10.0723 -8.0505 -2.4953 0.1900 0 8
10.2009 -7.8869 -2.4953 0.1900 0 8
10.3269 -7.7212 -2.4953 0.1900 0 8
10.4502 -7.5535 -2.4953 0.1900 0 8
10.5708 -7.3838 -2.4953 0.1900 0 8
10.6886 -7.2123 -2.4953 0.1900 0 8
10.8036 -7.0388 -2.4953 0.1900 0 8
10.9158 -6.8635 -2.4953 0.1900 0 8
11.0251 -6.6864 -2.4953 0.1900 0 8
11.1316 -6.5076 -2.4953 0.1900 0 8
11.2352 -6.3271 -2.4953 0.1900 0 8
11.3359 -6.1449 -2.4953 0.1900 0 8
11.4336 -5.9611 -2.4953 0.1900 0 8
11.5283 -5.7758 -2.4953 0.1900 0 8
11.6200 -5.5890 -2.4953 0.1900 0 8
11.7087 -5.4007 -2.4953 0.1900 0 8
11.7944 -5.2110 -2.4953 0.1900 0 8
11.8770 -5.0199 -2.4953 0.1900 0 8
11.9564 -4.8276 -2.4953 0.1900 0 8
12.0328 -4.6340 -2.4953 0.1900 0 8
12.1060 -4.4391 -2.4953 0.1900 0 8
12.1761 -4.2432 -2.4953 0.1900 0 8
12.2430 -4.0461 -2.4953 0.1900 0 8
12.3067 -3.8479 -2.4953 0.1900 0 8
12.3672 -3.6488 -2.4953 0.1900 0 8
12.4245 -3.4487 -2.4953 0.1900 0 8
12.4786 -3.2477 -2.4953 0.1900 0 8
12.5294 -3.0459 -2.4953 0.1900 0 8
12.5769 -2.8432 -2.4953 0.1900 0 8
12.6211 -2.6399 -2.4953 0.1900 0 8
12.6621 -2.4358 -2.4953 0.1900 0 8
12.6998 -2.2311 -2.4953 0.1900 0 8
12.7341 -2.0258 -2.4953 0.1900 0 8
12.7652 -1.8200 -2.4953 0.1900 0 8
12.7929 -1.6138 -2.4953 0.1900 0 8
12.8173 -1.4071 -2.4953 0.1900 0 8
7.8943 -0.7379 -1.5344 0.3686 25 10
7.7737 -0.6002 -1.5088 0.7077 25 10
7.7005 -0.4697 -1.4930 0.9153 25 10
7.6583 -0.3431 -1.4835 0.9211 25 10
7.6401 -0.2188 -1.4791 0.9870 25 10
7.6269 -0.0953 -1.4761 0.9891 25 10
7.6217 0.0278 -1.4749 0.9971 25 10
7.6329 0.1511 -1.4774 0.9882 25 10
7.6460 0.2749 -1.4806 0.9860 25 10
7.6773 0.4002 -1.4877 0.9185 25 10
7.7230 0.5277 -1.4980 0.8755 25 10
7.8215 0.6614 -1.5190 0.7030 25 10
8.1053 0.8173 -1.5765 0.1851 25 10
12.8066 1.5006 -2.4953 0.1900 0 8
12.7808 1.7071 -2.4953 0.1900 0 8
12.7515 1.9132 -2.4953 0.1900 0 8
12.7190 2.1188 -2.4953 0.1900 0 8
12.6831 2.3238 -2.4953 0.1900 0 8
12.6440 2.5282 -2.4953 0.1900 0 8
12.6015 2.7319 -2.4953 0.1900 0 8
12.5558 2.9350 -2.4953 0.1900 0 8
12.5068 3.1373 -2.4953 0.1900 0 8
12.4545 3.3387 -2.4953 0.1900 0 8
12.3990 3.5393 -2.4953 0.1900 0 8
12.3403 3.7390 -2.4953 0.1900 0 8
12.2783 3.9377 -2.4953 0.1900 0 8
12.2131 4.1353 -2.4953 0.1900 0 8
12.1448 4.3319 -2.4953 0.1900 0 8
12.0733 4.5274 -2.4953 0.1900 0 8
11.9986 4.7217 -2.4953 0.1900 0 8
11.9209 4.9147 -2.4953 0.1900 0 8
7.1930 -10.0310 -2.4953 0.1981 0 8
7.3539 -9.9136 -2.4953 0.1981 0 8
7.5130 -9.7936 -2.4953 0.1981 0 8
7.6701 -9.6710 -2.4953 0.1981 0 8
7.8252 -9.5460 -2.4953 0.1981 0 8
7.9783 -9.4184 -2.4953 0.1981 0 8
8.1292 -9.2884 -2.4953 0.1981 0 8
8.2781 -9.1560 -2.4953 0.1981 0 8
8.4248 -9.0212 -2.4953 0.1981 0 8
8.5693 -8.8840 -2.4953 0.1981 0 8
8.7116 -8.7446 -2.4953 0.1981 0 8
8.8516 -8.6028 -2.4953 0.1981 0 8
8.9893 -8.4588 -2.4953 0.1981 0 8
9.1247 -8.3126 -2.4953 0.1981 0 8
9.2577 -8.1643 -2.4953 0.1981 0 8
9.3882 -8.0138 -2.4953 0.1981 0 8
9.5164 -7.8612 -2.4953 0.1981 0 8
9.6420 -7.7066 -2.4953 0.1981 0 8
9.7651 -7.5499 -2.4953 0.1981 0 8
9.8857 -7.3913 -2.4953 0.1981 0 8
10.0037 -7.2308 -2.4953 0.1981 0 8
10.1192 -7.0684 -2.4953 0.1981 0 8
10.2319 -6.9041 -2.4953 0.1981 0 8
10.3420 -6.7381 -2.4953 0.1981 0 8
10.4494 -6.5703 -2.4953 0.1981 0 8
10.5541 -6.4008 -2.4953 0.1981 0 8
10.6561 -6.2296 -2.4953 0.1981 0 8
10.7552 -6.0568 -2.4953 0.1981 0 8
10.8516 -5.8824 -2.4953 0.1981 0 8
10.9451 -5.7064 -2.4953 0.1981 0 8
11.0358 -5.5290 -2.4953 0.1981 0 8
11.1236 -5.3502 -2.4953 0.1981 0 8
11.2085 -5.1699 -2.4953 0.1981 0 8
11.2905 -4.9884 -2.4953 0.1981 0 8
11.3696 -4.8055 -2.4953 0.1981 0 8
11.4456 -4.6213 -2.4953 0.1981 0 8
11.5187 -4.4360 -2.4953 0.1981 0 8
11.5888 -4.2495 -2.4953 0.1981 0 8
11.6559 -4.0619 -2.4953 0.1981 0 8
11.7200 -3.8732 -2.4953 0.1981 0 8
11.7810 -3.6835 -2.4953 0.1981 0 8
11.8389 -3.4929 -2.4953 0.1981 0 8
11.8937 -3.3014 -2.4953 0.1981 0 8
11.9454 -3.1090 -2.4953 0.1981 0 8
11.9941 -2.9157 -2.4953 0.1981 0 8
12.0396 -2.7218 -2.4953 0.1981 0 8
12.0819 -2.5271 -2.4953 0.1981 0 8
12.1211 -2.3318 -2.4953 0.1981 0 8
12.1572 -2.1358 -2.4953 0.1981 0 8
12.1901 -1.9393 -2.4953 0.1981 0 8
12.2198 -1.7423 -2.4953 0.1981 0 8
12.2463 -1.5448 -2.4953 0.1981 0 8
12.2697 -1.3469 -2.4953 0.1981 0 8
7.8436 -0.7331 -1.5925 0.6993 25 10
7.7381 -0.5975 -1.5689 0.7098 25 10
7.6779 -0.4683 -1.5550 0.9164 25 10
7.6393 -0.3423 -1.5459 0.9672 25 10
7.6223 -0.2183 -1.5415 0.9877 25 10
7.6104 -0.0951 -1.5386 0.9968 25 10
7.6066 0.0278 -1.5377 0.9974 25 10
7.6151 0.1507 -1.5397 0.9889 25 10
7.6282 0.2742 -1.5431 0.9867 25 10
7.6549 0.3990 -1.5496 0.9197 25 10
7.7007 0.5261 -1.5603 0.8766 25 10
7.7854 0.6583 -1.5795 0.7051 25 10
8.0628 0.8130 -1.6382 0.1858 25 10
12.2595 1.4365 -2.4953 0.1981 0 8
12.2347 1.6342 -2.4953 0.1981 0 8
12.2068 1.8314 -2.4953 0.1981 0 8
12.1756 2.0282 -2.4953 0.1981 0 8
12.1413 2.2245 -2.4953 0.1981 0 8
12.1038 2.4202 -2.4953 0.1981 0 8
12.0632 2.6152 -2.4953 0.1981 0 8
12.0194 2.8096 -2.4953 0.1981 0 8
11.9725 3.0032 -2.4953 0.1981 0 8
11.9224 3.1961 -2.4953 0.1981 0 8
11.8693 3.3881 -2.4953 0.1981 0 8
11.8131 3.5792 -2.4953 0.1981 0 8
11.7537 3.7695 -2.4953 0.1981 0 8
11.6914 3.9587 -2.4953 0.1981 0 8
11.6260 4.1469 -2.4953 0.1981 0 8
11.5575 4.3340 -2.4953 0.1981 0 8
11.4860 4.5200 -2.4953 0.1981 0 8
11.4116 4.7048 -2.4953 0.1981 0 8
6.8973 -9.6187 -2.4953 0.2063 0 8
7.0517 -9.5061 -2.4953 0.2063 0 8
7.2042 -9.3910 -2.4953 0.2063 0 8
7.3548 -9.2735 -2.4953 0.2063 0 8
7.5036 -9.1536 -2.4953 0.2063 0 8
7.6503 -9.0313 -2.4953 0.2063 0 8
7.7951 -8.9066 -2.4953 0.2063 0 8
7.9379 -8.7797 -2.4953 0.2063 0 8
8.0785 -8.6504 -2.4953 0.2063 0 8
8.2171 -8.5189 -2.4953 0.2063 0 8
8.3535 -8.3851 -2.4953 0.2063 0 8
8.4878 -8.2492 -2.4953 0.2063 0 8
8.6198 -8.1111 -2.4953 0.2063 0 8
8.7496 -7.9709 -2.4953 0.2063 0 8
8.8771 -7.8287 -2.4953 0.2063 0 8
9.0024 -7.6844 -2.4953 0.2063 0 8
9.1252 -7.5381 -2.4953 0.2063 0 8
9.2457 -7.3898 -2.4953 0.2063 0 8
9.3638 -7.2396 -2.4953 0.2063 0 8
9.4794 -7.0875 -2.4953 0.2063 0 8
9.5926 -6.9336 -2.4953 0.2063 0 8
9.7032 -6.7779 -2.4953 0.2063 0 8
9.8114 -6.6204 -2.4953 0.2063 0 8
9.9169 -6.4611 -2.4953 0.2063 0 8
10.0199 -6.3002 -2.4953 0.2063 0 8
10.1203 -6.1377 -2.4953 0.2063 0 8
10.2181 -5.9735 -2.4953 0.2063 0 8
10.3132 -5.8078 -2.4953 0.2063 0 8
10.4056 -5.6406 -2.4953 0.2063 0 8
10.4952 -5.4719 -2.4953 0.2063 0 8
10.5822 -5.3018 -2.4953 0.2063 0 8
10.6664 -5.1303 -2.4953 0.2063 0 8
10.7478 -4.9574 -2.4953 0.2063 0 8
10.8264 -4.7833 -2.4953 0.2063 0 8
10.9022 -4.6080 -2.4953 0.2063 0 8
10.9752 -4.4314 -2.4953 0.2063 0 8
11.0453 -4.2537 -2.4953 0.2063 0 8
11.1125 -4.0748 -2.4953 0.2063 0 8
11.1768 -3.8949 -2.4953 0.2063 0 8
11.2382 -3.7140 -2.4953 0.2063 0 8
11.2967 -3.5321 -2.4953 0.2063 0 8
11.3523 -3.3493 -2.4953 0.2063 0 8
11.4048 -3.1657 -2.4953 0.2063 0 8
11.4545 -2.9812 -2.4953 0.2063 0 8
11.5011 -2.7959 -2.4953 0.2063 0 8
11.5447 -2.6099 -2.4953 0.2063 0 8
11.5853 -2.4232 -2.4953 0.2063 0 8
11.6229 -2.2359 -2.4953 0.2063 0 8
11.6575 -2.0480 -2.4953 0.2063 0 8
11.6890 -1.8596 -2.4953 0.2063 0 8
11.7175 -1.6707 -2.4953 0.2063 0 8
11.7430 -1.4813 -2.4953 0.2063 0 8
11.7654 -1.2916 -2.4953 0.2063 0 8
7.8072 -0.7297 -1.6531 0.7013 25 10
7.7089 -0.5952 -1.6300 0.8736 25 10
7.6554 -0.4669 -1.6169 0.9176 25 10
7.6212 -0.3415 -1.6083 0.9678 25 10
7.6046 -0.2178 -1.6038 0.9883 25 10
7.5953 -0.0949 -1.6014 0.9971 25 10
7.5915 0.0277 -1.6004 0.9977 25 10
7.5984 0.1504 -1.6022 0.9966 25 10
7.6104 0.2736 -1.6055 0.9873 25 10
7.6325 0.3978 -1.6113 0.9208 25 10
7.6783 0.5246 -1.6225 0.8776 25 10
7.7496 0.6553 -1.6396 0.7071 25 10
8.0206 0.8088 -1.6995 0.1864 25 10
11.7556 1.3774 -2.4953 0.2063 0 8
11.7319 1.5670 -2.4953 0.2063 0 8
11.7050 1.7562 -2.4953 0.2063 0 8
11.6752 1.9449 -2.4953 0.2063 0 8
11.6422 2.1331 -2.4953 0.2063 0 8
11.6063 2.3207 -2.4953 0.2063 0 8
11.5673 2.5077 -2.4953 0.2063 0 8
11.5253 2.6941 -2.4953 0.2063 0 8
11.4804 2.8798 -2.4953 0.2063 0 8
11.4324 3.0647 -2.4953 0.2063 0 8
11.3814 3.2489 -2.4953 0.2063 0 8
11.3275 3.4321 -2.4953 0.2063 0 8
11.2706 3.6145 -2.4953 0.2063 0 8
11.2108 3.7960 -2.4953 0.2063 0 8
11.1481 3.9764 -2.4953 0.2063 0 8
11.0825 4.1558 -2.4953 0.2063 0 8
11.0139 4.3342 -2.4953 0.2063 0 8
10.9425 4.5114 -2.4953 0.2063 0 8
6.6241 -9.2376 -2.4953 0.2144 0 8
6.7723 -9.1295 -2.4953 0.2144 0 8
6.9188 -9.0190 -2.4953 0.2144 0 8
7.0635 -8.9062 -2.4953 0.2144 0 8
7.2063 -8.7910 -2.4953 0.2144 0 8
7.3473 -8.6735 -2.4953 0.2144 0 8
7.4863 -8.5538 -2.4953 0.2144 0 8
7.6234 -8.4319 -2.4953 0.2144 0 8
7.7585 -8.3077 -2.4953 0.2144 0 8
7.8916 -8.1814 -2.4953 0.2144 0 8
8.0226 -8.0530 -2.4953 0.2144 0 8
8.1516 -7.9224 -2.4953 0.2144 0 8
8.2784 -7.7898 -2.4953 0.2144 0 8
8.4030 -7.6552 -2.4953 0.2144 0 8
8.5255 -7.5186 -2.4953 0.2144 0 8
8.6457 -7.3800 -2.4953 0.2144 0 8
8.7637 -7.2394 -2.4953 0.2144 0 8
8.8794 -7.0970 -2.4953 0.2144 0 8
8.9928 -6.9528 -2.4953 0.2144 0 8
9.1039 -6.8067 -2.4953 0.2144 0 8
9.2126 -6.6589 -2.4953 0.2144 0 8
9.3188 -6.5094 -2.4953 0.2144 0 8
9.4227 -6.3581 -2.4953 0.2144 0 8
9.5241 -6.2052 -2.4953 0.2144 0 8
9.6230 -6.0506 -2.4953 0.2144 0 8
9.7194 -5.8945 -2.4953 0.2144 0 8
9.8133 -5.7369 -2.4953 0.2144 0 8
9.9046 -5.5777 -2.4953 0.2144 0 8
9.9934 -5.4171 -2.4953 0.2144 0 8
10.0795 -5.2551 -2.4953 0.2144 0 8
10.1630 -5.0918 -2.4953 0.2144 0 8
10.2439 -4.9270 -2.4953 0.2144 0 8
10.3220 -4.7611 -2.4953 0.2144 0 8
10.3976 -4.5938 -2.4953 0.2144 0 8
10.4703 -4.4254 -2.4953 0.2144 0 8
10.5404 -4.2558 -2.4953 0.2144 0 8
10.6077 -4.0852 -2.4953 0.2144 0 8
10.6723 -3.9134 -2.4953 0.2144 0 8
10.7341 -3.7406 -2.4953 0.2144 0 8
10.7930 -3.5669 -2.4953 0.2144 0 8
10.8492 -3.3922 -2.4953 0.2144 0 8
10.9025 -3.2167 -2.4953 0.2144 0 8
10.9530 -3.0403 -2.4953 0.2144 0 8
11.0007 -2.8631 -2.4953 0.2144 0 8
11.0455 -2.6851 -2.4953 0.2144 0 8
11.0874 -2.5065 -2.4953 0.2144 0 8
11.1264 -2.3272 -2.4953 0.2144 0 8
11.1625 -2.1473 -2.4953 0.2144 0 8
11.1957 -1.9669 -2.4953 0.2144 0 8
11.2260 -1.7859 -2.4953 0.2144 0 8
11.2534 -1.6045 -2.4953 0.2144 0 8
11.2778 -1.4226 -2.4953 0.2144 0 8
11.2993 -1.2404 -2.4953 0.2144 0 8
7.7878 -0.7279 -1.7170 0.3066 25 10
7.6865 -0.5935 -1.6923 0.8745 25 10
7.6329 -0.4655 -1.6786 0.9186 25 10
7.6031 -0.3407 -1.6707 0.9684 25 10
7.5870 -0.2173 -1.6661 0.9961 25 10
7.5801 -0.0947 -1.6641 0.9973 25 10
7.5764 0.0277 -1.6631 0.9979 25 10
7.5833 0.1501 -1.6650 0.9968 25 10
7.5927 0.2729 -1.6678 0.9879 25 10
7.6141 0.3969 -1.6737 0.9666 25 10
7.6561 0.5231 -1.6846 0.8786 25 10
7.7140 0.6523 -1.6994 0.7091 25 10
7.9787 0.8046 -1.7603 0.1871 25 10
11.2899 1.3229 -2.4953 0.2144 0 8
11.2671 1.5049 -2.4953 0.2144 0 8
11.2413 1.6866 -2.4953 0.2144 0 8
11.2127 1.8678 -2.4953 0.2144 0 8
11.1810 2.0486 -2.4953 0.2144 0 8
11.1465 2.2288 -2.4953 0.2144 0 8
11.1091 2.4084 -2.4953 0.2144 0 8
11.0688 2.5874 -2.4953 0.2144 0 8
11.0256 2.7657 -2.4953 0.2144 0 8
10.9795 2.9433 -2.4953 0.2144 0 8
10.9306 3.1201 -2.4953 0.2144 0 8
10.8788 3.2962 -2.4953 0.2144 0 8
10.8242 3.4713 -2.4953 0.2144 0 8
10.7667 3.6456 -2.4953 0.2144 0 8
10.7065 3.8189 -2.4953 0.2144 0 8
10.6434 3.9912 -2.4953 0.2144 0 8
10.5776 4.1625 -2.4953 0.2144 0 8
10.5091 4.3327 -2.4953 0.2144 0 8
6.3708 -8.8844 -2.4953 0.2225 0 8
6.5134 -8.7804 -2.4953 0.2225 0 8
6.6542 -8.6741 -2.4953 0.2225 0 8
6.7934 -8.5656 -2.4953 0.2225 0 8
6.9307 -8.4548 -2.4953 0.2225 0 8
7.0663 -8.3419 -2.4953 0.2225 0 8
7.2000 -8.2267 -2.4953 0.2225 0 8
7.3319 -8.1094 -2.4953 0.2225 0 8
7.4618 -7.9900 -2.4953 0.2225 0 8
7.5898 -7.8686 -2.4953 0.2225 0 8
7.7158 -7.7450 -2.4953 0.2225 0 8
7.8398 -7.6195 -2.4953 0.2225 0 8
7.9618 -7.4919 -2.4953 0.2225 0 8
8.0817 -7.3625 -2.4953 0.2225 0 8
8.1995 -7.2310 -2.4953 0.2225 0 8
8.3151 -7.0978 -2.4953 0.2225 0 8
8.4286 -6.9626 -2.4953 0.2225 0 8
8.5399 -6.8257 -2.4953 0.2225 0 8
8.6490 -6.6869 -2.4953 0.2225 0 8
8.7558 -6.5465 -2.4953 0.2225 0 8
8.8603 -6.4043 -2.4953 0.2225 0 8
8.9625 -6.2604 -2.4953 0.2225 0 8
9.0624 -6.1150 -2.4953 0.2225 0 8
9.1599 -5.9679 -2.4953 0.2225 0 8
9.2550 -5.8193 -2.4953 0.2225 0 8
9.3478 -5.6691 -2.4953 0.2225 0 8
9.4380 -5.5175 -2.4953 0.2225 0 8
9.5259 -5.3645 -2.4953 0.2225 0 8
9.6112 -5.2100 -2.4953 0.2225 0 8
9.6941 -5.0542 -2.4953 0.2225 0 8
9.7744 -4.8970 -2.4953 0.2225 0 8
9.8521 -4.7386 -2.4953 0.2225 0 8
9.9274 -4.5790 -2.4953 0.2225 0 8
10.0000 -4.4182 -2.4953 0.2225 0 8
10.0700 -4.2562 -2.4953 0.2225 0 8
10.1374 -4.0931 -2.4953 0.2225 0 8
10.2021 -3.9289 -2.4953 0.2225 0 8
10.2642 -3.7638 -2.4953 0.2225 0 8
10.3236 -3.5976 -2.4953 0.2225 0 8
10.3803 -3.4305 -2.4953 0.2225 0 8
10.4344 -3.2625 -2.4953 0.2225 0 8
10.4857 -3.0937 -2.4953 0.2225 0 8
10.5342 -2.9240 -2.4953 0.2225 0 8
10.5800 -2.7536 -2.4953 0.2225 0 8
10.6231 -2.5825 -2.4953 0.2225 0 8
10.6634 -2.4107 -2.4953 0.2225 0 8
10.7009 -2.2382 -2.4953 0.2225 0 8
10.7357 -2.0652 -2.4953 0.2225 0 8
10.7676 -1.8917 -2.4953 0.2225 0 8
10.7967 -1.7176 -2.4953 0.2225 0 8
10.8230 -1.5431 -2.4953 0.2225 0 8
10.8465 -1.3682 -2.4953 0.2225 0 8
10.8672 -1.1930 -2.4953 0.2225 0 8
7.7701 -0.7263 -1.7812 0.3067 25 10
7.6641 -0.5917 -1.7545 0.8755 25 10
7.6104 -0.4642 -1.7403 0.9196 25 10
7.5851 -0.3398 -1.7330 0.9689 25 10
7.5719 -0.2169 -1.7289 0.9962 25 10
7.5650 -0.0945 -1.7268 0.9975 25 10
7.5613 0.0276 -1.7258 0.9980 25 10
7.5681 0.1498 -1.7277 0.9969 25 10
7.5749 0.2723 -1.7300 0.9883 25 10
7.5960 0.3959 -1.7361 0.9671 25 10
7.6339 0.5216 -1.7464 0.8795 25 10
7.6892 0.6502 -1.7613 0.8721 25 10
7.9401 0.8007 -1.8215 0.3000 25 10
10.8582 1.2723 -2.4953 0.2225 0 8
10.8363 1.4474 -2.4953 0.2225 0 8
10.8115 1.6221 -2.4953 0.2225 0 8
10.7839 1.7964 -2.4953 0.2225 0 8
10.7535 1.9702 -2.4953 0.2225 0 8
10.7203 2.1435 -2.4953 0.2225 0 8
10.6843 2.3163 -2.4953 0.2225 0 8
10.6455 2.4884 -2.4953 0.2225 0 8
10.6040 2.6599 -2.4953 0.2225 0 8
10.5597 2.8308 -2.4953 0.2225 0 8
10.5126 3.0008 -2.4953 0.2225 0 8
10.4628 3.1701 -2.4953 0.2225 0 8
10.4103 3.3386 -2.4953 0.2225 0 8
10.3550 3.5062 -2.4953 0.2225 0 8
10.2971 3.6729 -2.4953 0.2225 0 8
10.2364 3.8386 -2.4953 0.2225 0 8
10.1731 4.0033 -2.4953 0.2225 0 8
10.1072 4.1670 -2.4953 0.2225 0 8
6.1353 -8.5560 -2.4953 0.2306 0 8
6.2726 -8.4558 -2.4953 0.2306 0 8
6.4083 -8.3535 -2.4953 0.2306 0 8
6.5423 -8.2490 -2.4953 0.2306 0 8
6.6746 -8.1423 -2.4953 0.2306 0 8
6.8051 -8.0335 -2.4953 0.2306 0 8
6.9339 -7.9226 -2.4953 0.2306 0 8
7.0609 -7.8097 -2.4953 0.2306 0 8
7.1860 -7.6947 -2.4953 0.2306 0 8
7.3093 -7.5777 -2.4953 0.2306 0 8
7.4306 -7.4587 -2.4953 0.2306 0 8
7.5500 -7.3378 -2.4953 0.2306 0 8
7.6675 -7.2150 -2.4953 0.2306 0 8
7.7830 -7.0903 -2.4953 0.2306 0 8
7.8964 -6.9638 -2.4953 0.2306 0 8
8.0078 -6.8354 -2.4953 0.2306 0 8
8.1170 -6.7052 -2.4953 0.2306 0 8
8.2242 -6.5734 -2.4953 0.2306 0 8
8.3292 -6.4398 -2.4953 0.2306 0 8
8.4321 -6.3045 -2.4953 0.2306 0 8
8.5328 -6.1676 -2.4953 0.2306 0 8
8.6312 -6.0290 -2.4953 0.2306 0 8
8.7274 -5.8889 -2.4953 0.2306 0 8
8.8213 -5.7473 -2.4953 0.2306 0 8
8.9129 -5.6042 -2.4953 0.2306 0 8
9.0022 -5.4596 -2.4953 0.2306 0 8
9.0892 -5.3136 -2.4953 0.2306 0 8
9.1737 -5.1662 -2.4953 0.2306 0 8
9.2559 -5.0174 -2.4953 0.2306 0 8
9.3357 -4.8674 -2.4953 0.2306 0 8
9.4131 -4.7160 -2.4953 0.2306 0 8
9.4880 -4.5635 -2.4953 0.2306 0 8
9.5604 -4.4097 -2.4953 0.2306 0 8
9.6303 -4.2549 -2.4953 0.2306 0 8
9.6977 -4.0989 -2.4953 0.2306 0 8
9.7626 -3.9418 -2.4953 0.2306 0 8
9.8250 -3.7837 -2.4953 0.2306 0 8
9.8848 -3.6246 -2.4953 0.2306 0 8
9.9420 -3.4646 -2.4953 0.2306 0 8
9.9966 -3.3037 -2.4953 0.2306 0 8
10.0486 -3.1419 -2.4953 0.2306 0 8
10.0980 -2.9793 -2.4953 0.2306 0 8
10.1448 -2.8159 -2.4953 0.2306 0 8
10.1889 -2.6518 -2.4953 0.2306 0 8
10.2304 -2.4870 -2.4953 0.2306 0 8
10.2692 -2.3216 -2.4953 0.2306 0 8
10.3054 -2.1555 -2.4953 0.2306 0 8
10.3388 -1.9889 -2.4953 0.2306 0 8
10.3696 -1.8217 -2.4953 0.2306 0 8
10.3976 -1.6541 -2.4953 0.2306 0 8
10.4230 -1.4861 -2.4953 0.2306 0 8
10.4456 -1.3177 -2.4953 0.2306 0 8
10.4655 -1.1489 -2.4953 0.2306 0 8
7.7823 -0.7274 -1.8525 0.2815 25 10
7.6527 -0.5909 -1.8191 0.8535 25 10
7.5996 -0.4635 -1.8045 0.9191 25 10
7.5732 -0.3393 -1.7967 0.9395 25 10
7.5611 -0.2166 -1.7927 0.9670 25 10
7.5538 -0.0944 -1.7904 0.9682 25 10
7.5498 0.0276 -1.7893 0.9688 25 10
7.5571 0.1496 -1.7914 0.9677 25 10
7.5644 0.2719 -1.7939 0.9663 25 10
7.5849 0.3953 -1.8001 0.9377 25 10
7.6223 0.5208 -1.8107 0.8575 25 10
7.6780 0.6492 -1.8262 0.8502 25 10
7.9297 0.7996 -1.8889 0.4527 25 10
10.4568 1.2253 -2.4953 0.2306 0 8
10.4357 1.3939 -2.4953 0.2306 0 8
10.4118 1.5621 -2.4953 0.2306 0 8
10.3853 1.7300 -2.4953 0.2306 0 8
10.3560 1.8974 -2.4953 0.2306 0 8
10.3240 2.0643 -2.4953 0.2306 0 8
10.2894 2.2307 -2.4953 0.2306 0 8
10.2520 2.3965 -2.4953 0.2306 0 8
10.2120 2.5616 -2.4953 0.2306 0 8
10.1693 2.7261 -2.4953 0.2306 0 8
10.1240 2.8899 -2.4953 0.2306 0 8
10.0760 3.0529 -2.4953 0.2306 0 8
10.0254 3.2152 -2.4953 0.2306 0 8
9.9722 3.3766 -2.4953 0.2306 0 8
9.9164 3.5371 -2.4953 0.2306 0 8
9.8581 3.6967 -2.4953 0.2306 0 8
9.7971 3.8553 -2.4953 0.2306 0 8
9.7336 4.0130 -2.4953 0.2306 0 8
5.9158 -8.2498 -2.4953 0.2387 0 8
6.0481 -8.1533 -2.4953 0.2387 0 8
6.1790 -8.0546 -2.4953 0.2387 0 8
6.3082 -7.9538 -2.4953 0.2387 0 8
6.4357 -7.8509 -2.4953 0.2387 0 8
6.5616 -7.7460 -2.4953 0.2387 0 8
6.6858 -7.6391 -2.4953 0.2387 0 8
6.8082 -7.5302 -2.4953 0.2387 0 8
6.9289 -7.4193 -2.4953 0.2387 0 8
7.0477 -7.3065 -2.4953 0.2387 0 8
7.1647 -7.1918 -2.4953 0.2387 0 8
7.2799 -7.0752 -2.4953 0.2387 0 8
7.3931 -6.9568 -2.4953 0.2387 0 8
7.5045 -6.8366 -2.4953 0.2387 0 8
7.6138 -6.7146 -2.4953 0.2387 0 8
7.7212 -6.5908 -2.4953 0.2387 0 8
7.8266 -6.4653 -2.4953 0.2387 0 8
7.9299 -6.3381 -2.4953 0.2387 0 8
8.0312 -6.2093 -2.4953 0.2387 0 8
8.1304 -6.0789 -2.4953 0.2387 0 8
8.2274 -5.9469 -2.4953 0.2387 0 8
8.3223 -5.8133 -2.4953 0.2387 0 8
8.4151 -5.6782 -2.4953 0.2387 0 8
8.5056 -5.5416 -2.4953 0.2387 0 8
8.5940 -5.4036 -2.4953 0.2387 0 8
8.6801 -5.2642 -2.4953 0.2387 0 8
8.7639 -5.1234 -2.4953 0.2387 0 8
8.8455 -4.9813 -2.4953 0.2387 0 8
8.9247 -4.8379 -2.4953 0.2387 0 8
9.0017 -4.6932 -2.4953 0.2387 0 8
9.0762 -4.5473 -2.4953 0.2387 0 8
9.1484 -4.4002 -2.4953 0.2387 0 8
9.2183 -4.2519 -2.4953 0.2387 0 8
9.2857 -4.1026 -2.4953 0.2387 0 8
9.3507 -3.9522 -2.4953 0.2387 0 8
9.4133 -3.8007 -2.4953 0.2387 0 8
9.4734 -3.6483 -2.4953 0.2387 0 8
9.5311 -3.4949 -2.4953 0.2387 0 8
9.5862 -3.3406 -2.4953 0.2387 0 8
9.6389 -3.1855 -2.4953 0.2387 0 8
9.6891 -3.0295 -2.4953 0.2387 0 8
9.7367 -2.8727 -2.4953 0.2387 0 8
9.7818 -2.7152 -2.4953 0.2387 0 8
9.8244 -2.5569 -2.4953 0.2387 0 8
9.8643 -2.3980 -2.4953 0.2387 0 8
9.9018 -2.2385 -2.4953 0.2387 0 8
9.9366 -2.0784 -2.4953 0.2387 0 8
9.9689 -1.9177 -2.4953 0.2387 0 8
9.9985 -1.7566 -2.4953 0.2387 0 8
10.0256 -1.5949 -2.4953 0.2387 0 8
10.0500 -1.4329 -2.4953 0.2387 0 8
10.0718 -1.2705 -2.4953 0.2387 0 8
10.0910 -1.1078 -2.4953 0.2387 0 8
7.8116 -0.7302 -1.9285 0.4589 25 10
7.6554 -0.5911 -1.8873 0.8515 25 10
7.6027 -0.4637 -1.8722 0.9168 25 10
7.5742 -0.3394 -1.8636 0.9375 25 10
7.5617 -0.2166 -1.8594 0.9650 25 10
7.5574 -0.0944 -1.8577 0.9271 25 10
7.5593 0.0276 -1.8581 0.9269 25 10
7.5577 0.1496 -1.8580 0.9657 25 10
7.5650 0.2720 -1.8607 0.9643 25 10
7.5860 0.3954 -1.8672 0.9193 25 10
7.6250 0.5210 -1.8786 0.8555 25 10
7.6891 0.6502 -1.8967 0.7645 25 10
7.9149 0.7981 -1.9554 0.4526 25 10
10.0827 1.1814 -2.4953 0.2387 0 8
10.0623 1.3440 -2.4953 0.2387 0 8
10.0393 1.5062 -2.4953 0.2387 0 8
10.0137 1.6681 -2.4953 0.2387 0 8
9.9854 1.8295 -2.4953 0.2387 0 8
9.9546 1.9904 -2.4953 0.2387 0 8
9.9212 2.1509 -2.4953 0.2387 0 8
9.8852 2.3107 -2.4953 0.2387 0 8
9.8466 2.4700 -2.4953 0.2387 0 8
9.8054 2.6286 -2.4953 0.2387 0 8
9.7617 2.7865 -2.4953 0.2387 0 8
9.7155 2.9437 -2.4953 0.2387 0 8
9.6667 3.1001 -2.4953 0.2387 0 8
9.6154 3.2558 -2.4953 0.2387 0 8
9.5616 3.4105 -2.4953 0.2387 0 8
9.5053 3.5644 -2.4953 0.2387 0 8
9.4465 3.7174 -2.4953 0.2387 0 8
9.3853 3.8694 -2.4953 0.2387 0 8
5.7106 -7.9637 -2.4953 0.2468 0 8
5.8384 -7.8705 -2.4953 0.2468 0 8
5.9646 -7.7752 -2.4953 0.2468 0 8
6.0894 -7.6779 -2.4953 0.2468 0 8
6.2125 -7.5786 -2.4953 0.2468 0 8
6.3340 -7.4774 -2.4953 0.2468 0 8
6.4539 -7.3742 -2.4953 0.2468 0 8
6.5721 -7.2690 -2.4953 0.2468 0 8
6.6885 -7.1620 -2.4953 0.2468 0 8
6.8033 -7.0531 -2.4953 0.2468 0 8
6.9162 -6.9424 -2.4953 0.2468 0 8
7.0274 -6.8299 -2.4953 0.2468 0 8
7.1367 -6.7155 -2.4953 0.2468 0 8
7.2442 -6.5995 -2.4953 0.2468 0 8
7.3497 -6.4817 -2.4953 0.2468 0 8
7.4534 -6.3622 -2.4953 0.2468 0 8
7.5551 -6.2411 -2.4953 0.2468 0 8
7.6549 -6.1183 -2.4953 0.2468 0 8
7.7526 -5.9940 -2.4953 0.2468 0 8
7.8484 -5.8680 -2.4953 0.2468 0 8
7.9421 -5.7406 -2.4953 0.2468 0 8
8.0337 -5.6117 -2.4953 0.2468 0 8
8.1232 -5.4813 -2.4953 0.2468 0 8
8.2106 -5.3494 -2.4953 0.2468 0 8
8.2959 -5.2162 -2.4953 0.2468 0 8
8.3790 -5.0816 -2.4953 0.2468 0 8
8.4600 -4.9457 -2.4953 0.2468 0 8
8.5387 -4.8085 -2.4953 0.2468 0 8
8.6152 -4.6701 -2.4953 0.2468 0 8
8.6894 -4.5304 -2.4953 0.2468 0 8
8.7614 -4.3896 -2.4953 0.2468 0 8
8.8311 -4.2476 -2.4953 0.2468 0 8
8.8986 -4.1045 -2.4953 0.2468 0 8
8.9636 -3.9603 -2.4953 0.2468 0 8
9.0264 -3.8151 -2.4953 0.2468 0 8
9.0868 -3.6689 -2.4953 0.2468 0 8
9.1448 -3.5218 -2.4953 0.2468 0 8
9.2005 -3.3737 -2.4953 0.2468 0 8
9.2538 -3.2248 -2.4953 0.2468 0 8
9.3046 -3.0750 -2.4953 0.2468 0 8
9.3530 -2.9247 -2.4953 0.2468 0 8
9.3990 -2.7731 -2.4953 0.2468 0 8
9.4425 -2.6210 -2.4953 0.2468 0 8
9.4836 -2.4682 -2.4953 0.2468 0 8
9.5222 -2.3148 -2.4953 0.2468 0 8
9.5583 -2.1608 -2.4953 0.2468 0 8
9.5920 -2.0063 -2.4953 0.2468 0 8
9.6231 -1.8512 -2.4953 0.2468 0 8
9.6517 -1.6956 -2.4953 0.2468 0 8
9.6778 -1.5396 -2.4953 0.2468 0 8
9.7014 -1.3832 -2.4953 0.2468 0 8
9.7225 -1.2264 -2.4953 0.2468 0 8
8.2588 -0.9066 -2.1156 0.9929 25 10
7.8044 -0.7295 -1.9959 0.4025 25 10
7.6685 -0.5921 -1.9585 0.7654 25 10
7.6059 -0.4639 -1.9403 0.9146 25 10
7.5754 -0.3394 -1.9309 0.9190 25 10
7.5638 -0.2166 -1.9268 0.9240 25 10
7.5673 -0.0945 -1.9270 0.9239 25 10
7.5693 0.0276 -1.9274 0.9237 25 10
7.5657 0.1498 -1.9268 0.9240 25 10
7.5657 0.2720 -1.9277 0.9622 25 10
7.5891 0.3956 -1.9351 0.9170 25 10
7.6279 0.5212 -1.9468 0.7699 25 10
7.7025 0.6513 -1.9683 0.7616 25 10
7.9153 0.7982 -2.0257 0.3966 25 10
9.7330 1.1404 -2.4953 0.2468 0 8
9.7133 1.2974 -2.4953 0.2468 0 8
9.6911 1.4540 -2.4953 0.2468 0 8
9.6663 1.6102 -2.4953 0.2468 0 8
9.6391 1.7660 -2.4953 0.2468 0 8
9.6093 1.9214 -2.4953 0.2468 0 8
9.5771 2.0763 -2.4953 0.2468 0 8
9.5423 2.2306 -2.4953 0.2468 0 8
9.5051 2.3843 -2.4953 0.2468 0 8
9.4653 2.5374 -2.4953 0.2468 0 8
9.4231 2.6899 -2.4953 0.2468 0 8
9.3785 2.8416 -2.4953 0.2468 0 8
9.3314 2.9926 -2.4953 0.2468 0 8
9.2819 3.1428 -2.4953 0.2468 0 8
9.2300 3.2922 -2.4953 0.2468 0 8
9.1756 3.4408 -2.4953 0.2468 0 8
9.1189 3.5884 -2.4953 0.2468 0 8
9.0598 3.7352 -2.4953 0.2468 0 8
5.5184 -7.6957 -2.4953 0.2548 0 8
5.6419 -7.6056 -2.4953 0.2548 0 8
5.7639 -7.5135 -2.4953 0.2548 0 8
5.8844 -7.4195 -2.4953 0.2548 0 8
6.0034 -7.3236 -2.4953 0.2548 0 8
6.1208 -7.2256 -2.4953 0.2548 0 8
6.2367 -7.1260 -2.4953 0.2548 0 8
6.3509 -7.0244 -2.4953 0.2548 0 8
6.4634 -6.9210 -2.4953 0.2548 0 8
6.5743 -6.8157 -2.4953 0.2548 0 8
6.6834 -6.7087 -2.4953 0.2548 0 8
6.7909 -6.6000 -2.4953 0.2548 0 8
6.8965 -6.4895 -2.4953 0.2548 0 8
7.0003 -6.3773 -2.4953 0.2548 0 8
7.1024 -6.2635 -2.4953 0.2548 0 8
7.2025 -6.1481 -2.4953 0.2548 0 8
7.3008 -6.0310 -2.4953 0.2548 0 8
7.3972 -5.9124 -2.4953 0.2548 0 8
7.4917 -5.7922 -2.4953 0.2548 0 8
7.5842 -5.6705 -2.4953 0.2548 0 8
7.6748 -5.5474 -2.4953 0.2548 0 8
7.7633 -5.4228 -2.4953 0.2548 0 8
7.8498 -5.2968 -2.4953 0.2548 0 8
7.9343 -5.1694 -2.4953 0.2548 0 8
8.0167 -5.0406 -2.4953 0.2548 0 8
8.0970 -4.9106 -2.4953 0.2548 0 8
8.1752 -4.7793 -2.4953 0.2548 0 8
8.2513 -4.6467 -2.4953 0.2548 0 8
8.3252 -4.5129 -2.4953 0.2548 0 8
8.3970 -4.3779 -2.4953 0.2548 0 8
8.4665 -4.2418 -2.4953 0.2548 0 8
8.5339 -4.1046 -2.4953 0.2548 0 8
8.5991 -3.9663 -2.4953 0.2548 0 8
8.6619 -3.8270 -2.4953 0.2548 0 8
8.7226 -3.6867 -2.4953 0.2548 0 8
8.7810 -3.5454 -2.4953 0.2548 0 8
8.8370 -3.4032 -2.4953 0.2548 0 8
8.8908 -3.2602 -2.4953 0.2548 0 8
8.9423 -3.1162 -2.4953 0.2548 0 8
8.9914 -2.9715 -2.4953 0.2548 0 8
9.0382 -2.8260 -2.4953 0.2548 0 8
9.0826 -2.6797 -2.4953 0.2548 0 8
9.1247 -2.5328 -2.4953 0.2548 0 8
9.1644 -2.3852 -2.4953 0.2548 0 8
9.2017 -2.2369 -2.4953 0.2548 0 8
9.2366 -2.0881 -2.4953 0.2548 0 8
9.2691 -1.9388 -2.4953 0.2548 0 8
9.2992 -1.7889 -2.4953 0.2548 0 8
9.3269 -1.6389 -2.4953 0.2548 0 8
9.3521 -1.4878 -2.4953 0.2548 0 8
9.3749 -1.3367 -2.4953 0.2548 0 8
9.3953 -1.1852 -2.4953 0.2548 0 8
8.2638 -0.9072 -2.1906 0.8930 25 10
7.8487 -0.7336 -2.0772 0.3994 25 10
7.6899 -0.5937 -2.0323 0.7178 25 10
7.6169 -0.4646 -2.0108 0.8130 25 10
7.5842 -0.3398 -2.0005 0.8464 25 10
7.5761 -0.2170 -1.9971 0.8886 25 10
7.5799 -0.0947 -1.9975 0.8884 25 10
7.5804 0.0277 -1.9975 0.9288 25 10
7.5782 0.1500 -1.9972 0.8885 25 10
7.5745 0.2723 -1.9972 0.8886 25 10
7.5986 0.3961 -2.0049 0.8445 25 10
7.6471 0.5225 -2.0197 0.7223 25 10
7.7252 0.6532 -2.0429 0.7198 25 10
7.9323 0.7999 -2.1008 0.5410 25 10
9.4054 1.1021 -2.4953 0.2548 0 8
9.3864 1.2537 -2.4953 0.2548 0 8
9.3649 1.4051 -2.4953 0.2548 0 8
9.3410 1.5560 -2.4953 0.2548 0 8
9.3147 1.7066 -2.4953 0.2548 0 8
9.2859 1.8567 -2.4953 0.2548 0 8
9.2547 2.0064 -2.4953 0.2548 0 8
9.2211 2.1555 -2.4953 0.2548 0 8
9.1851 2.3040 -2.4953 0.2548 0 8
9.1468 2.4520 -2.4953 0.2548 0 8
9.1060 2.5993 -2.4953 0.2548 0 8
9.0628 2.7460 -2.4953 0.2548 0 8
9.0173 2.8919 -2.4953 0.2548 0 8
8.9695 3.0371 -2.4953 0.2548 0 8
8.9193 3.1814 -2.4953 0.2548 0 8
8.8668 3.3250 -2.4953 0.2548 0 8
8.8120 3.4677 -2.4953 0.2548 0 8
8.7548 3.6094 -2.4953 0.2548 0 8
5.3379 -7.4440 -2.4953 0.2628 0 8
5.4574 -7.3569 -2.4953 0.2628 0 8
5.5754 -7.2678 -2.4953 0.2628 0 8
5.6920 -7.1769 -2.4953 0.2628 0 8
5.8071 -7.0841 -2.4953 0.2628 0 8
5.9207 -6.9894 -2.4953 0.2628 0 8
6.0327 -6.8929 -2.4953 0.2628 0 8
6.1432 -6.7947 -2.4953 0.2628 0 8
6.2521 -6.6946 -2.4953 0.2628 0 8
6.3593 -6.5929 -2.4953 0.2628 0 8
6.4649 -6.4893 -2.4953 0.2628 0 8
6.5688 -6.3842 -2.4953 0.2628 0 8
6.6710 -6.2773 -2.4953 0.2628 0 8
6.7714 -6.1688 -2.4953 0.2628 0 8
6.8701 -6.0587 -2.4953 0.2628 0 8
6.9670 -5.9470 -2.4953 0.2628 0 8
7.0621 -5.8338 -2.4953 0.2628 0 8
7.1553 -5.7190 -2.4953 0.2628 0 8
7.2467 -5.6028 -2.4953 0.2628 0 8
7.3362 -5.4851 -2.4953 0.2628 0 8
7.4238 -5.3660 -2.4953 0.2628 0 8
7.5094 -5.2455 -2.4953 0.2628 0 8
7.5931 -5.1236 -2.4953 0.2628 0 8
7.6748 -5.0003 -2.4953 0.2628 0 8
7.7545 -4.8758 -2.4953 0.2628 0 8
7.8322 -4.7500 -2.4953 0.2628 0 8
7.9079 -4.6230 -2.4953 0.2628 0 8
7.9815 -4.4947 -2.4953 0.2628 0 8
8.0530 -4.3653 -2.4953 0.2628 0 8
8.1224 -4.2348 -2.4953 0.2628 0 8
8.1897 -4.1031 -2.4953 0.2628 0 8
8.2548 -3.9704 -2.4953 0.2628 0 8
8.3179 -3.8366 -2.4953 0.2628 0 8
8.3787 -3.7019 -2.4953 0.2628 0 8
8.4374 -3.5661 -2.4953 0.2628 0 8
8.4938 -3.4295 -2.4953 0.2628 0 8
8.5481 -3.2920 -2.4953 0.2628 0 8
8.6001 -3.1536 -2.4953 0.2628 0 8
8.6499 -3.0143 -2.4953 0.2628 0 8
8.6974 -2.8743 -2.4953 0.2628 0 8
8.7427 -2.7336 -2.4953 0.2628 0 8
8.7856 -2.5921 -2.4953 0.2628 0 8
8.8263 -2.4499 -2.4953 0.2628 0 8
8.8647 -2.3072 -2.4953 0.2628 0 8
8.9008 -2.1638 -2.4953 0.2628 0 8
8.9346 -2.0198 -2.4953 0.2628 0 8
8.9660 -1.8754 -2.4953 0.2628 0 8
8.9951 -1.7304 -2.4953 0.2628 0 8
9.0219 -1.5850 -2.4953 0.2628 0 8
9.0463 -1.4391 -2.4953 0.2628 0 8
9.0683 -1.2929 -2.4953 0.2628 0 8
9.0880 -1.1464 -2.4953 0.2628 0 8
9.1053 -0.9996 -2.4953 0.2628 0 8
7.8685 -0.7355 -2.1528 0.5446 25 10
7.7131 -0.5955 -2.1074 0.7198 25 10
7.6386 -0.4659 -2.0847 0.8089 25 10
7.6021 -0.3406 -2.0730 0.8425 25 10
7.5921 -0.2174 -2.0690 0.8847 25 10
7.5915 -0.0948 -2.0681 0.9253 25 10
7.5888 0.0277 -2.0673 0.9257 25 10
7.5937 0.1503 -2.0690 0.9249 25 10
7.5905 0.2729 -2.0690 0.8847 25 10
7.6177 0.3970 -2.0779 0.8115 25 10
7.6705 0.5241 -2.0944 0.7185 25 10
7.7608 0.6562 -2.1216 0.4033 25 10
7.9453 0.8012 -2.1753 0.5390 25 10
9.0978 1.0660 -2.4953 0.2628 0 8
9.0794 1.2127 -2.4953 0.2628 0 8
9.0587 1.3591 -2.4953 0.2628 0 8
9.0355 1.5052 -2.4953 0.2628 0 8
9.0101 1.6508 -2.4953 0.2628 0 8
8.9822 1.7960 -2.4953 0.2628 0 8
8.9521 1.9408 -2.4953 0.2628 0 8
8.9196 2.0850 -2.4953 0.2628 0 8
8.8848 2.2287 -2.4953 0.2628 0 8
8.8476 2.3718 -2.4953 0.2628 0 8
8.8082 2.5143 -2.4953 0.2628 0 8
8.7665 2.6562 -2.4953 0.2628 0 8
8.7225 2.7973 -2.4953 0.2628 0 8
8.6762 2.9377 -2.4953 0.2628 0 8
8.6276 3.0774 -2.4953 0.2628 0 8
8.5768 3.2163 -2.4953 0.2628 0 8
8.5238 3.3543 -2.4953 0.2628 0 8
8.4686 3.4914 -2.4953 0.2628 0 8
5.1681 -7.2072 -2.4953 0.2708 0 8
5.2838 -7.1229 -2.4953 0.2708 0 8
5.3981 -7.0367 -2.4953 0.2708 0 8
5.5110 -6.9486 -2.4953 0.2708 0 8
5.6224 -6.8588 -2.4953 0.2708 0 8
5.7324 -6.7671 -2.4953 0.2708 0 8
5.8409 -6.6737 -2.4953 0.2708 0 8
5.9478 -6.5786 -2.4953 0.2708 0 8
6.0532 -6.4817 -2.4953 0.2708 0 8
6.1571 -6.3832 -2.4953 0.2708 0 8
6.2593 -6.2830 -2.4953 0.2708 0 8
6.3599 -6.1811 -2.4953 0.2708 0 8
6.4588 -6.0777 -2.4953 0.2708 0 8
6.5561 -5.9726 -2.4953 0.2708 0 8
6.6516 -5.8660 -2.4953 0.2708 0 8
6.7454 -5.7579 -2.4953 0.2708 0 8
6.8375 -5.6483 -2.4953 0.2708 0 8
6.9278 -5.5372 -2.4953 0.2708 0 8
7.0163 -5.4246 -2.4953 0.2708 0 8
7.1029 -5.3107 -2.4953 0.2708 0 8
7.1877 -5.1953 -2.4953 0.2708 0 8
7.2706 -5.0786 -2.4953 0.2708 0 8
7.3516 -4.9606 -2.4953 0.2708 0 8
7.4307 -4.8413 -2.4953 0.2708 0 8
7.5079 -4.7207 -2.4953 0.2708 0 8
7.5831 -4.5989 -2.4953 0.2708 0 8
7.6564 -4.4759 -2.4953 0.2708 0 8
7.7276 -4.3518 -2.4953 0.2708 0 8
7.7969 -4.2265 -2.4953 0.2708 0 8
7.8641 -4.1001 -2.4953 0.2708 0 8
7.9292 -3.9726 -2.4953 0.2708 0 8
7.9923 -3.8441 -2.4953 0.2708 0 8
8.0533 -3.7146 -2.4953 0.2708 0 8
8.1122 -3.5841 -2.4953 0.2708 0 8
8.1690 -3.4527 -2.4953 0.2708 0 8
8.2237 -3.3204 -2.4953 0.2708 0 8
8.2762 -3.1873 -2.4953 0.2708 0 8
8.3266 -3.0533 -2.4953 0.2708 0 8
8.3748 -2.9185 -2.4953 0.2708 0 8
8.4208 -2.7829 -2.4953 0.2708 0 8
8.4646 -2.6466 -2.4953 0.2708 0 8
8.5062 -2.5097 -2.4953 0.2708 0 8
8.5456 -2.3720 -2.4953 0.2708 0 8
8.5828 -2.2338 -2.4953 0.2708 0 8
8.6177 -2.0950 -2.4953 0.2708 0 8
8.6504 -1.9556 -2.4953 0.2708 0 8
8.6809 -1.8157 -2.4953 0.2708 0 8
8.7090 -1.6754 -2.4953 0.2708 0 8
8.7349 -1.5346 -2.4953 0.2708 0 8
8.7586 -1.3934 -2.4953 0.2708 0 8
8.7799 -1.2518 -2.4953 0.2708 0 8
8.7990 -1.1099 -2.4953 0.2708 0 8
8.8158 -0.9678 -2.4953 0.2708 0 8
8.3327 -0.7789 -2.3547 0.6464 25 10
7.7363 -0.5973 -2.1831 0.7160 25 10
7.6606 -0.4672 -2.1594 0.8047 25 10
7.6222 -0.3415 -2.1467 0.8095 25 10
7.6048 -0.2178 -2.1405 0.9212 25 10
7.6000 -0.0949 -2.1385 0.9221 25 10
7.5973 0.0277 -2.1376 0.9225 25 10
7.6022 0.1505 -2.1393 0.9217 25 10
7.6066 0.2734 -2.1415 0.8808 25 10
7.6395 0.3982 -2.1523 0.8073 25 10
7.6937 0.5257 -2.1697 0.7204 25 10
8.3312 0.7045 -2.3524 0.6471 25 10
8.3341 0.8404 -2.3567 0.6459 25 10
8.8085 1.0321 -2.4953 0.2708 0 8
8.7907 1.1742 -2.4953 0.2708 0 8
8.7706 1.3159 -2.4953 0.2708 0 8
8.7482 1.4573 -2.4953 0.2708 0 8
8.7235 1.5983 -2.4953 0.2708 0 8
8.6966 1.7389 -2.4953 0.2708 0 8
8.6674 1.8790 -2.4953 0.2708 0 8
8.6359 2.0187 -2.4953 0.2708 0 8
8.6022 2.1578 -2.4953 0.2708 0 8
8.5663 2.2964 -2.4953 0.2708 0 8
8.5281 2.4344 -2.4953 0.2708 0 8
8.4877 2.5717 -2.4953 0.2708 0 8
8.4451 2.7084 -2.4953 0.2708 0 8
8.4002 2.8443 -2.4953 0.2708 0 8
8.3532 2.9795 -2.4953 0.2708 0 8
8.3041 3.1140 -2.4953 0.2708 0 8
8.2527 3.2476 -2.4953 0.2708 0 8
8.1992 3.3804 -2.4953 0.2708 0 8
5.0081 -6.9841 -2.4953 0.2788 0 8
5.1202 -6.9023 -2.4953 0.2788 0 8
5.2309 -6.8188 -2.4953 0.2788 0 8
5.3403 -6.7335 -2.4953 0.2788 0 8
5.4483 -6.6464 -2.4953 0.2788 0 8
5.5549 -6.5576 -2.4953 0.2788 0 8
5.6600 -6.4671 -2.4953 0.2788 0 8
5.7636 -6.3749 -2.4953 0.2788 0 8
5.8658 -6.2810 -2.4953 0.2788 0 8
5.9664 -6.1855 -2.4953 0.2788 0 8
6.0655 -6.0884 -2.4953 0.2788 0 8
6.1630 -5.9897 -2.4953 0.2788 0 8
6.2588 -5.8895 -2.4953 0.2788 0 8
6.3531 -5.7877 -2.4953 0.2788 0 8
6.4457 -5.6844 -2.4953 0.2788 0 8
6.5366 -5.5796 -2.4953 0.2788 0 8
6.6258 -5.4734 -2.4953 0.2788 0 8
6.7133 -5.3657 -2.4953 0.2788 0 8
6.7990 -5.2566 -2.4953 0.2788 0 8
6.8830 -5.1462 -2.4953 0.2788 0 8
6.9651 -5.0345 -2.4953 0.2788 0 8
7.0455 -4.9214 -2.4953 0.2788 0 8
7.1240 -4.8070 -2.4953 0.2788 0 8
7.2007 -4.6914 -2.4953 0.2788 0 8
7.2754 -4.5746 -2.4953 0.2788 0 8
