ply
format ascii 1.0
element vertex 1364
property float32 x
property float32 y
property float32 z
property float32 CosAngle
property uint32 ObjIdx
property uint32 ObjTag
end_header
15.0598 -19.8753 -2.4953 0.0996 0 8
15.3774 -19.6307 -2.4953 0.0996 0 8
15.6909 -19.3810 -2.4953 0.0996 0 8
16.0005 -19.1263 -2.4953 0.0996 0 8
16.3059 -18.8666 -2.4953 0.0996 0 8
16.6070 -18.6020 -2.4953 0.0996 0 8
16.9039 -18.3327 -2.4953 0.0996 0 8
17.1964 -18.0586 -2.4953 0.0996 0 8
17.4845 -17.7798 -2.4953 0.0996 0 8
17.7680 -17.4965 -2.4953 0.0996 0 8
18.0470 -17.2086 -2.4953 0.0996 0 8
18.3213 -16.9163 -2.4953 0.0996 0 8
18.5908 -16.6196 -2.4953 0.0996 0 8
18.8556 -16.3186 -2.4953 0.0996 0 8
19.1154 -16.0134 -2.4953 0.0996 0 8
19.3704 -15.7041 -2.4953 0.0996 0 8
19.6203 -15.3907 -2.4953 0.0996 0 8
19.8652 -15.0733 -2.4953 0.0996 0 8
20.1049 -14.7520 -2.4953 0.0996 0 8
20.3394 -14.4269 -2.4953 0.0996 0 8
20.5687 -14.0981 -2.4953 0.0996 0 8
20.7927 -13.7657 -2.4953 0.0996 0 8
21.0113 -13.4297 -2.4953 0.0996 0 8
21.2244 -13.0902 -2.4953 0.0996 0 8
21.4321 -12.7473 -2.4953 0.0996 0 8
21.6343 -12.4011 -2.4953 0.0996 0 8
21.8308 -12.0518 -2.4953 0.0996 0 8
22.0217 -11.6993 -2.4953 0.0996 0 8
22.2069 -11.3438 -2.4953 0.0996 0 8
22.3864 -10.9854 -2.4953 0.0996 0 8
22.5601 -10.6241 -2.4953 0.0996 0 8
22.7280 -10.2601 -2.4953 0.0996 0 8
22.8899 -9.8934 -2.4953 0.0996 0 8
23.0460 -9.5242 -2.4953 0.0996 0 8
23.1961 -9.1525 -2.4953 0.0996 0 8
23.3403 -8.7784 -2.4953 0.0996 0 8
23.4784 -8.4021 -2.4953 0.0996 0 8
23.6104 -8.0236 -2.4953 0.0996 0 8
23.7363 -7.6431 -2.4953 0.0996 0 8
23.8561 -7.2605 -2.4953 0.0996 0 8
23.9697 -6.8761 -2.4953 0.0996 0 8
24.0772 -6.4899 -2.4953 0.0996 0 8
24.1784 -6.1021 -2.4953 0.0996 0 8
24.2733 -5.7126 -2.4953 0.0996 0 8
24.3620 -5.3217 -2.4953 0.0996 0 8
24.4444 -4.9294 -2.4953 0.0996 0 8
24.5205 -4.5358 -2.4953 0.0996 0 8
24.5902 -4.1411 -2.4953 0.0996 0 8
24.6536 -3.7453 -2.4953 0.0996 0 8
24.7106 -3.3485 -2.4953 0.0996 0 8
24.7613 -2.9509 -2.4953 0.0996 0 8
24.8055 -2.5524 -2.4953 0.0996 0 8
24.8434 -2.1534 -2.4953 0.0996 0 8
24.8748 -1.7537 -2.4953 0.0996 0 8
24.8997 -1.3537 -2.4953 0.0996 0 8
24.9183 -0.9532 -2.4953 0.0996 0 8
24.9304 -0.5526 -2.4953 0.0996 0 8
10.1348 -0.0617 -1.0142 0.0216 25 10
24.9353 0.2491 -2.4953 0.0996 0 8
24.9280 0.6499 -2.4953 0.0996 0 8
24.9144 1.0505 -2.4953 0.0996 0 8
24.8943 1.4509 -2.4953 0.0996 0 8
24.8677 1.8509 -2.4953 0.0996 0 8
24.8348 2.2504 -2.4953 0.0996 0 8
10.1205 -20.6592 -2.4953 0.1078 0 8
10.4513 -20.4939 -2.4953 0.1078 0 8
10.7794 -20.3232 -2.4953 0.1078 0 8
11.1047 -20.1473 -2.4953 0.1078 0 8
11.4271 -19.9662 -2.4953 0.1078 0 8
11.7466 -19.7799 -2.4953 0.1078 0 8
12.0630 -19.5886 -2.4953 0.1078 0 8
12.3763 -19.3921 -2.4953 0.1078 0 8
12.6864 -19.1907 -2.4953 0.1078 0 8
12.9933 -18.9843 -2.4953 0.1078 0 8
13.2968 -18.7730 -2.4953 0.1078 0 8
13.5968 -18.5568 -2.4953 0.1078 0 8
13.8933 -18.3358 -2.4953 0.1078 0 8
14.1863 -18.1101 -2.4953 0.1078 0 8
14.4756 -17.8798 -2.4953 0.1078 0 8
14.7611 -17.6448 -2.4953 0.1078 0 8
15.0428 -17.4052 -2.4953 0.1078 0 8
15.3207 -17.1611 -2.4953 0.1078 0 8
15.5946 -16.9127 -2.4953 0.1078 0 8
15.8644 -16.6598 -2.4953 0.1078 0 8
16.1301 -16.4026 -2.4953 0.1078 0 8
16.3917 -16.1412 -2.4953 0.1078 0 8
16.6491 -15.8757 -2.4953 0.1078 0 8
16.9021 -15.6060 -2.4953 0.1078 0 8
17.1508 -15.3323 -2.4953 0.1078 0 8
17.3950 -15.0546 -2.4953 0.1078 0 8
17.6348 -14.7730 -2.4953 0.1078 0 8
17.8700 -14.4876 -2.4953 0.1078 0 8
18.1006 -14.1985 -2.4953 0.1078 0 8
18.3265 -13.9057 -2.4953 0.1078 0 8
18.5476 -13.6093 -2.4953 0.1078 0 8
18.7640 -13.3094 -2.4953 0.1078 0 8
18.9755 -13.0061 -2.4953 0.1078 0 8
19.1821 -12.6994 -2.4953 0.1078 0 8
19.3838 -12.3894 -2.4953 0.1078 0 8
19.5804 -12.0762 -2.4953 0.1078 0 8
19.7720 -11.7599 -2.4953 0.1078 0 8
19.9585 -11.4406 -2.4953 0.1078 0 8
20.1398 -11.1183 -2.4953 0.1078 0 8
20.3159 -10.7931 -2.4953 0.1078 0 8
20.4868 -10.4651 -2.4953 0.1078 0 8
20.6524 -10.1344 -2.4953 0.1078 0 8
20.8126 -9.8012 -2.4953 0.1078 0 8
20.9675 -9.4653 -2.4953 0.1078 0 8
21.1169 -9.1271 -2.4953 0.1078 0 8
21.2609 -8.7864 -2.4953 0.1078 0 8
21.3994 -8.4436 -2.4953 0.1078 0 8
21.5324 -8.0985 -2.4953 0.1078 0 8
21.6598 -7.7513 -2.4953 0.1078 0 8
21.7816 -7.4021 -2.4953 0.1078 0 8
21.8977 -7.0511 -2.4953 0.1078 0 8
22.0082 -6.6982 -2.4953 0.1078 0 8
22.1131 -6.3435 -2.4953 0.1078 0 8
22.2122 -5.9872 -2.4953 0.1078 0 8
22.3056 -5.6294 -2.4953 0.1078 0 8
22.3932 -5.2701 -2.4953 0.1078 0 8
22.4750 -4.9095 -2.4953 0.1078 0 8
22.5510 -4.5476 -2.4953 0.1078 0 8
22.6212 -4.1845 -2.4953 0.1078 0 8
22.6855 -3.8203 -2.4953 0.1078 0 8
22.7440 -3.4552 -2.4953 0.1078 0 8
22.7966 -3.0891 -2.4953 0.1078 0 8
22.8433 -2.7223 -2.4953 0.1078 0 8
22.8841 -2.3547 -2.4953 0.1078 0 8
22.9190 -1.9866 -2.4953 0.1078 0 8
22.9480 -1.6179 -2.4953 0.1078 0 8
9.5391 -0.5186 -1.0362 0.1396 25 10
9.4161 -0.3602 -1.0221 0.1463 25 10
9.3070 -0.2063 -1.0097 0.1523 25 10
9.2548 -0.0563 -1.0039 0.1568 25 10
9.2679 0.0926 -1.0053 0.1530 25 10
9.3196 0.2430 -1.0112 0.1479 25 10
9.4473 0.3983 -1.0256 0.1458 25 10
9.6512 0.5625 -1.0486 0.1084 25 10
22.9415 1.7075 -2.4953 0.1078 0 8
22.9111 2.0760 -2.4953 0.1078 0 8
9.3917 -19.1716 -2.4953 0.1161 0 8
9.6987 -19.0184 -2.4953 0.1161 0 8
10.0032 -18.8598 -2.4953 0.1161 0 8
10.3050 -18.6965 -2.4953 0.1161 0 8
10.6042 -18.5285 -2.4953 0.1161 0 8
10.9007 -18.3556 -2.4953 0.1161 0 8
11.1944 -18.1780 -2.4953 0.1161 0 8
11.4851 -17.9957 -2.4953 0.1161 0 8
11.7729 -17.8088 -2.4953 0.1161 0 8
12.0577 -17.6172 -2.4953 0.1161 0 8
12.3393 -17.4211 -2.4953 0.1161 0 8
12.6177 -17.2205 -2.4953 0.1161 0 8
12.8929 -17.0155 -2.4953 0.1161 0 8
13.1647 -16.8061 -2.4953 0.1161 0 8
13.4332 -16.5923 -2.4953 0.1161 0 8
13.6982 -16.3742 -2.4953 0.1161 0 8
13.9596 -16.1519 -2.4953 0.1161 0 8
14.2175 -15.9254 -2.4953 0.1161 0 8
14.4716 -15.6948 -2.4953 0.1161 0 8
14.7220 -15.4601 -2.4953 0.1161 0 8
14.9686 -15.2215 -2.4953 0.1161 0 8
15.2114 -14.9789 -2.4953 0.1161 0 8
15.4502 -14.7325 -2.4953 0.1161 0 8
15.6850 -14.4822 -2.4953 0.1161 0 8
15.9158 -14.2282 -2.4953 0.1161 0 8
16.1424 -13.9705 -2.4953 0.1161 0 8
16.3649 -13.7092 -2.4953 0.1161 0 8
16.5832 -13.4444 -2.4953 0.1161 0 8
16.7972 -13.1761 -2.4953 0.1161 0 8
17.0068 -12.9044 -2.4953 0.1161 0 8
17.2120 -12.6294 -2.4953 0.1161 0 8
17.4128 -12.3510 -2.4953 0.1161 0 8
17.6091 -12.0695 -2.4953 0.1161 0 8
17.8008 -11.7849 -2.4953 0.1161 0 8
17.9880 -11.4973 -2.4953 0.1161 0 8
18.1705 -11.2066 -2.4953 0.1161 0 8
18.3483 -10.9131 -2.4953 0.1161 0 8
18.5213 -10.6168 -2.4953 0.1161 0 8
18.6896 -10.3176 -2.4953 0.1161 0 8
18.8530 -10.0159 -2.4953 0.1161 0 8
19.0116 -9.7115 -2.4953 0.1161 0 8
19.1652 -9.4047 -2.4953 0.1161 0 8
19.3139 -9.0954 -2.4953 0.1161 0 8
19.4576 -8.7838 -2.4953 0.1161 0 8
19.5963 -8.4698 -2.4953 0.1161 0 8
19.7299 -8.1537 -2.4953 0.1161 0 8
19.8585 -7.8355 -2.4953 0.1161 0 8
19.9818 -7.5153 -2.4953 0.1161 0 8
20.1001 -7.1932 -2.4953 0.1161 0 8
20.2131 -6.8691 -2.4953 0.1161 0 8
20.3209 -6.5433 -2.4953 0.1161 0 8
20.4235 -6.2158 -2.4953 0.1161 0 8
20.5207 -5.8867 -2.4953 0.1161 0 8
20.6127 -5.5561 -2.4953 0.1161 0 8
20.6994 -5.2240 -2.4953 0.1161 0 8
20.7807 -4.8906 -2.4953 0.1161 0 8
20.8566 -4.5560 -2.4953 0.1161 0 8
20.9271 -4.2201 -2.4953 0.1161 0 8
20.9923 -3.8832 -2.4953 0.1161 0 8
21.0520 -3.5452 -2.4953 0.1161 0 8
21.1062 -3.2064 -2.4953 0.1161 0 8
21.1551 -2.8667 -2.4953 0.1161 0 8
21.1984 -2.5263 -2.4953 0.1161 0 8
21.2363 -2.1852 -2.4953 0.1161 0 8
21.2687 -1.8435 -2.4953 0.1161 0 8
21.2955 -1.5014 -2.4953 0.1161 0 8
9.0500 -0.4920 -1.0594 0.3106 25 10
8.9983 -0.3442 -1.0525 0.3126 25 10
8.9571 -0.1985 -1.0472 0.3211 25 10
8.9352 -0.0544 -1.0444 0.3184 25 10
8.9404 0.0893 -1.0450 0.3182 25 10
8.9630 0.2337 -1.0480 0.3208 25 10
9.0109 0.3799 -1.0542 0.3122 25 10
9.0631 0.5282 -1.0611 0.2905 25 10
21.2895 1.5845 -2.4953 0.1161 0 8
21.2613 1.9265 -2.4953 0.1161 0 8
8.7597 -17.8815 -2.4953 0.1243 0 8
9.0460 -17.7383 -2.4953 0.1243 0 8
9.3300 -17.5906 -2.4953 0.1243 0 8
9.6116 -17.4384 -2.4953 0.1243 0 8
9.8906 -17.2816 -2.4953 0.1243 0 8
10.1672 -17.1204 -2.4953 0.1243 0 8
10.4411 -16.9548 -2.4953 0.1243 0 8
10.7122 -16.7847 -2.4953 0.1243 0 8
10.9807 -16.6104 -2.4953 0.1243 0 8
11.2463 -16.4317 -2.4953 0.1243 0 8
11.5089 -16.2488 -2.4953 0.1243 0 8
11.7686 -16.0617 -2.4953 0.1243 0 8
12.0253 -15.8705 -2.4953 0.1243 0 8
12.2788 -15.6751 -2.4953 0.1243 0 8
12.5292 -15.4757 -2.4953 0.1243 0 8
12.7764 -15.2723 -2.4953 0.1243 0 8
13.0202 -15.0650 -2.4953 0.1243 0 8
13.2607 -14.8537 -2.4953 0.1243 0 8
13.4978 -14.6386 -2.4953 0.1243 0 8
13.7314 -14.4205 -2.4953 0.1243 0 8
13.9613 -14.1972 -2.4953 0.1243 0 8
14.1878 -13.9709 -2.4953 0.1243 0 8
14.4105 -13.7411 -2.4953 0.1243 0 8
14.6295 -13.5077 -2.4953 0.1243 0 8
14.8448 -13.2707 -2.4953 0.1243 0 8
15.0562 -13.0304 -2.4953 0.1243 0 8
15.2637 -12.7867 -2.4953 0.1243 0 8
15.4672 -12.5397 -2.4953 0.1243 0 8
15.6668 -12.2894 -2.4953 0.1243 0 8
15.8623 -12.0360 -2.4953 0.1243 0 8
16.0538 -11.7795 -2.4953 0.1243 0 8
16.2410 -11.5199 -2.4953 0.1243 0 8
16.4241 -11.2573 -2.4953 0.1243 0 8
16.6030 -10.9919 -2.4953 0.1243 0 8
16.7775 -10.7241 -2.4953 0.1243 0 8
16.9477 -10.4525 -2.4953 0.1243 0 8
17.1135 -10.1787 -2.4953 0.1243 0 8
17.2749 -9.9023 -2.4953 0.1243 0 8
17.4319 -9.6233 -2.4953 0.1243 0 8
17.5843 -9.3419 -2.4953 0.1243 0 8
17.7322 -9.0580 -2.4953 0.1243 0 8
17.8755 -8.7718 -2.4953 0.1243 0 8
18.0142 -8.4833 -2.4953 0.1243 0 8
18.1483 -8.1927 -2.4953 0.1243 0 8
18.2776 -7.8999 -2.4953 0.1243 0 8
18.4022 -7.6051 -2.4953 0.1243 0 8
18.5221 -7.3083 -2.4953 0.1243 0 8
18.6372 -7.0096 -2.4953 0.1243 0 8
18.7475 -6.7091 -2.4953 0.1243 0 8
18.8529 -6.4069 -2.4953 0.1243 0 8
18.9534 -6.1030 -2.4953 0.1243 0 8
19.0491 -5.7975 -2.4953 0.1243 0 8
19.1398 -5.4906 -2.4953 0.1243 0 8
19.2256 -5.1822 -2.4953 0.1243 0 8
19.3064 -4.8725 -2.4953 0.1243 0 8
19.3823 -4.5615 -2.4953 0.1243 0 8
19.4531 -4.2494 -2.4953 0.1243 0 8
19.5189 -3.9361 -2.4953 0.1243 0 8
19.5796 -3.6219 -2.4953 0.1243 0 8
19.6353 -3.3067 -2.4953 0.1243 0 8
19.6859 -2.9906 -2.4953 0.1243 0 8
19.7315 -2.6738 -2.4953 0.1243 0 8
19.7719 -2.3563 -2.4953 0.1243 0 8
19.8072 -2.0381 -2.4953 0.1243 0 8
19.8374 -1.7195 -2.4953 0.1243 0 8
8.9697 -0.6324 -1.1268 0.0982 25 10
8.8194 -0.4795 -1.1068 0.3190 25 10
8.7700 -0.3355 -1.0998 0.3205 25 10
8.7347 -0.1936 -1.0949 0.3289 25 10
8.7112 -0.0530 -1.0917 0.3263 25 10
8.7170 0.0871 -1.0924 0.3297 25 10
8.7403 0.2279 -1.0957 0.3287 25 10
8.7819 0.3703 -1.1015 0.3205 25 10
8.8313 0.5147 -1.1086 0.3185 25 10
19.8569 1.4779 -2.4953 0.1243 0 8
19.8305 1.7969 -2.4953 0.1243 0 8
8.2064 -16.7518 -2.4953 0.1326 0 8
8.4746 -16.6177 -2.4953 0.1326 0 8
8.7406 -16.4794 -2.4953 0.1326 0 8
9.0044 -16.3367 -2.4953 0.1326 0 8
9.2658 -16.1899 -2.4953 0.1326 0 8
9.5249 -16.0388 -2.4953 0.1326 0 8
9.7814 -15.8837 -2.4953 0.1326 0 8
10.0355 -15.7244 -2.4953 0.1326 0 8
10.2870 -15.5610 -2.4953 0.1326 0 8
10.5358 -15.3937 -2.4953 0.1326 0 8
10.7819 -15.2223 -2.4953 0.1326 0 8
11.0252 -15.0470 -2.4953 0.1326 0 8
11.2656 -14.8679 -2.4953 0.1326 0 8
11.5031 -14.6849 -2.4953 0.1326 0 8
11.7377 -14.4980 -2.4953 0.1326 0 8
11.9692 -14.3075 -2.4953 0.1326 0 8
12.1977 -14.1132 -2.4953 0.1326 0 8
12.4230 -13.9153 -2.4953 0.1326 0 8
12.6451 -13.7139 -2.4953 0.1326 0 8
12.8639 -13.5088 -2.4953 0.1326 0 8
13.0794 -13.3003 -2.4953 0.1326 0 8
13.2915 -13.0883 -2.4953 0.1326 0 8
13.5001 -12.8730 -2.4953 0.1326 0 8
13.7053 -12.6543 -2.4953 0.1326 0 8
13.9069 -12.4324 -2.4953 0.1326 0 8
14.1050 -12.2072 -2.4953 0.1326 0 8
14.2994 -11.9789 -2.4953 0.1326 0 8
14.4901 -11.7475 -2.4953 0.1326 0 8
14.6771 -11.5131 -2.4953 0.1326 0 8
14.8603 -11.2756 -2.4953 0.1326 0 8
15.0396 -11.0353 -2.4953 0.1326 0 8
15.2150 -10.7921 -2.4953 0.1326 0 8
15.3865 -10.5462 -2.4953 0.1326 0 8
15.5541 -10.2975 -2.4953 0.1326 0 8
15.7176 -10.0461 -2.4953 0.1326 0 8
15.8771 -9.7922 -2.4953 0.1326 0 8
16.0324 -9.5357 -2.4953 0.1326 0 8
16.1836 -9.2767 -2.4953 0.1326 0 8
16.3306 -9.0154 -2.4953 0.1326 0 8
16.4734 -8.7517 -2.4953 0.1326 0 8
16.6120 -8.4858 -2.4953 0.1326 0 8
16.7463 -8.2176 -2.4953 0.1326 0 8
16.8762 -7.9474 -2.4953 0.1326 0 8
17.0018 -7.6751 -2.4953 0.1326 0 8
17.1229 -7.4008 -2.4953 0.1326 0 8
17.2397 -7.1246 -2.4953 0.1326 0 8
17.3520 -6.8466 -2.4953 0.1326 0 8
17.4598 -6.5668 -2.4953 0.1326 0 8
17.5631 -6.2853 -2.4953 0.1326 0 8
17.6619 -6.0021 -2.4953 0.1326 0 8
17.7561 -5.7175 -2.4953 0.1326 0 8
17.8457 -5.4313 -2.4953 0.1326 0 8
17.9307 -5.1437 -2.4953 0.1326 0 8
18.0110 -4.8548 -2.4953 0.1326 0 8
18.0868 -4.5647 -2.4953 0.1326 0 8
18.1578 -4.2734 -2.4953 0.1326 0 8
18.2242 -3.9809 -2.4953 0.1326 0 8
18.2858 -3.6875 -2.4953 0.1326 0 8
18.3427 -3.3931 -2.4953 0.1326 0 8
18.3949 -3.0978 -2.4953 0.1326 0 8
18.4423 -2.8017 -2.4953 0.1326 0 8
18.4849 -2.5049 -2.4953 0.1326 0 8
18.5228 -2.2074 -2.4953 0.1326 0 8
18.5559 -1.9094 -2.4953 0.1326 0 8
18.5842 -1.6108 -2.4953 0.1326 0 8
8.6785 -0.6119 -1.1638 0.3025 25 10
8.6044 -0.4678 -1.1527 0.4033 25 10
8.5655 -0.3277 -1.1466 0.4180 25 10
8.5414 -0.1893 -1.1428 0.4224 25 10
8.5236 -0.0519 -1.1402 0.4233 25 10
8.5280 0.0852 -1.1408 0.4231 25 10
8.5457 0.2228 -1.1435 0.4241 25 10
8.5747 0.3616 -1.1480 0.4049 25 10
8.6139 0.5020 -1.1542 0.4028 25 10
8.9041 0.6627 -1.1944 0.0988 25 10
18.5778 1.6834 -2.4953 0.1326 0 8
7.7177 -15.7543 -2.4953 0.1408 0 8
7.9699 -15.6282 -2.4953 0.1408 0 8
8.2201 -15.4981 -2.4953 0.1408 0 8
8.4682 -15.3639 -2.4953 0.1408 0 8
8.7141 -15.2258 -2.4953 0.1408 0 8
8.9577 -15.0838 -2.4953 0.1408 0 8
9.1990 -14.9379 -2.4953 0.1408 0 8
9.4379 -14.7881 -2.4953 0.1408 0 8
9.6744 -14.6344 -2.4953 0.1408 0 8
9.9084 -14.4770 -2.4953 0.1408 0 8
10.1399 -14.3159 -2.4953 0.1408 0 8
10.3687 -14.1510 -2.4953 0.1408 0 8
10.5948 -13.9825 -2.4953 0.1408 0 8
10.8182 -13.8104 -2.4953 0.1408 0 8
11.0388 -13.6348 -2.4953 0.1408 0 8
11.2565 -13.4556 -2.4953 0.1408 0 8
11.4714 -13.2729 -2.4953 0.1408 0 8
11.6833 -13.0867 -2.4953 0.1408 0 8
11.8921 -12.8973 -2.4953 0.1408 0 8
12.0979 -12.7044 -2.4953 0.1408 0 8
12.3005 -12.5083 -2.4953 0.1408 0 8
12.5000 -12.3090 -2.4953 0.1408 0 8
12.6963 -12.1065 -2.4953 0.1408 0 8
12.8892 -11.9008 -2.4953 0.1408 0 8
13.0789 -11.6921 -2.4953 0.1408 0 8
13.2651 -11.4803 -2.4953 0.1408 0 8
13.4479 -11.2656 -2.4953 0.1408 0 8
13.6273 -11.0480 -2.4953 0.1408 0 8
13.8031 -10.8275 -2.4953 0.1408 0 8
13.9754 -10.6042 -2.4953 0.1408 0 8
14.1440 -10.3782 -2.4953 0.1408 0 8
14.3090 -10.1495 -2.4953 0.1408 0 8
14.4703 -9.9182 -2.4953 0.1408 0 8
14.6279 -9.6843 -2.4953 0.1408 0 8
14.7817 -9.4479 -2.4953 0.1408 0 8
14.9316 -9.2091 -2.4953 0.1408 0 8
15.0777 -8.9679 -2.4953 0.1408 0 8
15.2200 -8.7244 -2.4953 0.1408 0 8
15.3582 -8.4786 -2.4953 0.1408 0 8
15.4925 -8.2306 -2.4953 0.1408 0 8
15.6228 -7.9805 -2.4953 0.1408 0 8
15.7491 -7.7283 -2.4953 0.1408 0 8
15.8713 -7.4742 -2.4953 0.1408 0 8
15.9894 -7.2181 -2.4953 0.1408 0 8
16.1033 -6.9601 -2.4953 0.1408 0 8
16.2131 -6.7004 -2.4953 0.1408 0 8
16.3188 -6.4389 -2.4953 0.1408 0 8
16.4202 -6.1757 -2.4953 0.1408 0 8
16.5173 -5.9110 -2.4953 0.1408 0 8
16.6102 -5.6447 -2.4953 0.1408 0 8
16.6988 -5.3770 -2.4953 0.1408 0 8
16.7831 -5.1079 -2.4953 0.1408 0 8
16.8630 -4.8374 -2.4953 0.1408 0 8
16.9386 -4.5657 -2.4953 0.1408 0 8
17.0098 -4.2929 -2.4953 0.1408 0 8
17.0766 -4.0189 -2.4953 0.1408 0 8
17.1390 -3.7439 -2.4953 0.1408 0 8
17.1969 -3.4679 -2.4953 0.1408 0 8
17.2505 -3.1910 -2.4953 0.1408 0 8
17.2995 -2.9133 -2.4953 0.1408 0 8
17.3441 -2.6348 -2.4953 0.1408 0 8
17.3842 -2.3557 -2.4953 0.1408 0 8
17.4199 -2.0760 -2.4953 0.1408 0 8
17.4510 -1.7957 -2.4953 0.1408 0 8
17.4776 -1.5149 -2.4953 0.1408 0 8
8.4930 -0.5988 -1.2110 0.3867 25 10
8.4393 -0.4588 -1.2022 0.4234 25 10
8.4055 -0.3216 -1.1964 0.4255 25 10
8.3835 -0.1858 -1.1927 0.4318 25 10
8.3658 -0.0509 -1.1899 0.4328 25 10
8.3702 0.0836 -1.1906 0.4326 25 10
8.3877 0.2187 -1.1934 0.4316 25 10
8.4138 0.3548 -1.1978 0.4250 25 10
8.4475 0.4923 -1.2036 0.4229 25 10
8.5440 0.6359 -1.2186 0.1675 25 10
17.4715 1.5831 -2.4953 0.1408 0 8
7.2830 -14.8670 -2.4953 0.1490 0 8
7.5210 -14.7480 -2.4953 0.1490 0 8
7.7571 -14.6252 -2.4953 0.1490 0 8
7.9912 -14.4986 -2.4953 0.1490 0 8
8.2233 -14.3683 -2.4953 0.1490 0 8
8.4532 -14.2342 -2.4953 0.1490 0 8
8.6809 -14.0965 -2.4953 0.1490 0 8
8.9064 -13.9551 -2.4953 0.1490 0 8
9.1295 -13.8102 -2.4953 0.1490 0 8
9.3503 -13.6616 -2.4953 0.1490 0 8
9.5687 -13.5096 -2.4953 0.1490 0 8
9.7847 -13.3540 -2.4953 0.1490 0 8
9.9981 -13.1950 -2.4953 0.1490 0 8
10.2089 -13.0326 -2.4953 0.1490 0 8
10.4170 -12.8668 -2.4953 0.1490 0 8
10.6225 -12.6977 -2.4953 0.1490 0 8
10.8253 -12.5253 -2.4953 0.1490 0 8
11.0252 -12.3497 -2.4953 0.1490 0 8
11.2223 -12.1708 -2.4953 0.1490 0 8
11.4165 -11.9889 -2.4953 0.1490 0 8
11.6077 -11.8038 -2.4953 0.1490 0 8
11.7960 -11.6157 -2.4953 0.1490 0 8
11.9812 -11.4246 -2.4953 0.1490 0 8
12.1633 -11.2305 -2.4953 0.1490 0 8
12.3422 -11.0335 -2.4953 0.1490 0 8
12.5180 -10.8337 -2.4953 0.1490 0 8
12.6905 -10.6311 -2.4953 0.1490 0 8
12.8598 -10.4257 -2.4953 0.1490 0 8
13.0257 -10.2177 -2.4953 0.1490 0 8
13.1883 -10.0070 -2.4953 0.1490 0 8
13.3474 -9.7937 -2.4953 0.1490 0 8
13.5031 -9.5779 -2.4953 0.1490 0 8
13.6553 -9.3596 -2.4953 0.1490 0 8
13.8040 -9.1389 -2.4953 0.1490 0 8
13.9491 -8.9158 -2.4953 0.1490 0 8
14.0906 -8.6904 -2.4953 0.1490 0 8
14.2285 -8.4628 -2.4953 0.1490 0 8
14.3627 -8.2330 -2.4953 0.1490 0 8
14.4932 -8.0010 -2.4953 0.1490 0 8
14.6199 -7.7670 -2.4953 0.1490 0 8
14.7429 -7.5310 -2.4953 0.1490 0 8
14.8621 -7.2930 -2.4953 0.1490 0 8
14.9774 -7.0532 -2.4953 0.1490 0 8
15.0888 -6.8115 -2.4953 0.1490 0 8
15.1964 -6.5681 -2.4953 0.1490 0 8
15.3000 -6.3230 -2.4953 0.1490 0 8
15.3996 -6.0762 -2.4953 0.1490 0 8
15.4953 -5.8279 -2.4953 0.1490 0 8
15.5870 -5.5781 -2.4953 0.1490 0 8
15.6746 -5.3268 -2.4953 0.1490 0 8
15.7582 -5.0741 -2.4953 0.1490 0 8
15.8378 -4.8202 -2.4953 0.1490 0 8
15.9132 -4.5650 -2.4953 0.1490 0 8
15.9845 -4.3086 -2.4953 0.1490 0 8
16.0517 -4.0511 -2.4953 0.1490 0 8
16.1148 -3.7925 -2.4953 0.1490 0 8
16.1737 -3.5330 -2.4953 0.1490 0 8
16.2284 -3.2726 -2.4953 0.1490 0 8
16.2789 -3.0113 -2.4953 0.1490 0 8
16.3252 -2.7492 -2.4953 0.1490 0 8
16.3672 -2.4864 -2.4953 0.1490 0 8
16.4051 -2.2230 -2.4953 0.1490 0 8
16.4387 -1.9590 -2.4953 0.1490 0 8
16.4681 -1.6945 -2.4953 0.1490 0 8
16.4932 -1.4296 -2.4953 0.1490 0 8
8.3525 -0.5889 -1.2621 0.4886 25 10
8.3075 -0.4516 -1.2540 0.5129 25 10
8.2706 -0.3164 -1.2475 0.5075 25 10
8.2504 -0.1829 -1.2438 0.5210 25 10
8.2364 -0.0501 -1.2415 0.5146 25 10
8.2398 0.0823 -1.2420 0.5144 25 10
8.2541 0.2152 -1.2445 0.5207 25 10
8.2799 0.3491 -1.2491 0.5068 25 10
8.3162 0.4847 -1.2556 0.5123 25 10
8.3688 0.6229 -1.2649 0.4875 25 10
16.4875 1.4940 -2.4953 0.1490 0 8
6.8938 -14.0724 -2.4953 0.1573 0 8
7.1191 -13.9598 -2.4953 0.1573 0 8
7.3425 -13.8435 -2.4953 0.1573 0 8
7.5641 -13.7237 -2.4953 0.1573 0 8
7.7838 -13.6003 -2.4953 0.1573 0 8
8.0014 -13.4735 -2.4953 0.1573 0 8
8.2169 -13.3431 -2.4953 0.1573 0 8
8.4303 -13.2093 -2.4953 0.1573 0 8
8.6416 -13.0721 -2.4953 0.1573 0 8
8.8506 -12.9315 -2.4953 0.1573 0 8
9.0573 -12.7875 -2.4953 0.1573 0 8
9.2617 -12.6403 -2.4953 0.1573 0 8
9.4637 -12.4898 -2.4953 0.1573 0 8
9.6632 -12.3360 -2.4953 0.1573 0 8
9.8603 -12.1791 -2.4953 0.1573 0 8
10.0548 -12.0190 -2.4953 0.1573 0 8
10.2467 -11.8559 -2.4953 0.1573 0 8
10.4359 -11.6896 -2.4953 0.1573 0 8
10.6225 -11.5203 -2.4953 0.1573 0 8
10.8063 -11.3481 -2.4953 0.1573 0 8
10.9873 -11.1729 -2.4953 0.1573 0 8
11.1655 -10.9949 -2.4953 0.1573 0 8
11.3408 -10.8140 -2.4953 0.1573 0 8
11.5132 -10.6303 -2.4953 0.1573 0 8
11.6826 -10.4438 -2.4953 0.1573 0 8
11.8489 -10.2547 -2.4953 0.1573 0 8
12.0122 -10.0629 -2.4953 0.1573 0 8
12.1724 -9.8685 -2.4953 0.1573 0 8
12.3295 -9.6716 -2.4953 0.1573 0 8
12.4834 -9.4721 -2.4953 0.1573 0 8
12.6340 -9.2702 -2.4953 0.1573 0 8
12.7814 -9.0659 -2.4953 0.1573 0 8
12.9255 -8.8593 -2.4953 0.1573 0 8
13.0662 -8.6504 -2.4953 0.1573 0 8
13.2036 -8.4393 -2.4953 0.1573 0 8
13.3375 -8.2259 -2.4953 0.1573 0 8
13.4680 -8.0105 -2.4953 0.1573 0 8
13.5951 -7.7929 -2.4953 0.1573 0 8
13.7186 -7.5734 -2.4953 0.1573 0 8
13.8386 -7.3519 -2.4953 0.1573 0 8
13.9549 -7.1285 -2.4953 0.1573 0 8
14.0677 -6.9033 -2.4953 0.1573 0 8
14.1769 -6.6762 -2.4953 0.1573 0 8
14.2824 -6.4475 -2.4953 0.1573 0 8
14.3842 -6.2171 -2.4953 0.1573 0 8
14.4822 -5.9850 -2.4953 0.1573 0 8
14.5766 -5.7515 -2.4953 0.1573 0 8
14.6671 -5.5164 -2.4953 0.1573 0 8
14.7539 -5.2799 -2.4953 0.1573 0 8
14.8369 -5.0421 -2.4953 0.1573 0 8
14.9160 -4.8030 -2.4953 0.1573 0 8
14.9913 -4.5626 -2.4953 0.1573 0 8
15.0627 -4.3210 -2.4953 0.1573 0 8
15.1302 -4.0783 -2.4953 0.1573 0 8
15.1938 -3.8346 -2.4953 0.1573 0 8
15.2535 -3.5898 -2.4953 0.1573 0 8
15.3092 -3.3442 -2.4953 0.1573 0 8
15.3610 -3.0977 -2.4953 0.1573 0 8
15.4088 -2.8503 -2.4953 0.1573 0 8
15.4526 -2.6023 -2.4953 0.1573 0 8
15.4925 -2.3536 -2.4953 0.1573 0 8
15.5283 -2.1042 -2.4953 0.1573 0 8
15.5601 -1.8543 -2.4953 0.1573 0 8
15.5879 -1.6040 -2.4953 0.1573 0 8
8.5219 -0.7387 -1.3621 0.1674 25 10
8.2264 -0.5800 -1.3132 0.4955 25 10
8.1847 -0.4450 -1.3052 0.5118 25 10
8.1475 -0.3117 -1.2983 0.5145 25 10
8.1297 -0.1802 -1.2949 0.5280 25 10
8.1145 -0.0494 -1.2921 0.5291 25 10
8.1182 0.0811 -1.2928 0.5289 25 10
8.1334 0.2120 -1.2956 0.5277 25 10
8.1565 0.3439 -1.3000 0.5139 25 10
8.1937 0.4775 -1.3070 0.5111 25 10
8.2424 0.6135 -1.3161 0.4944 25 10
15.6063 1.4141 -2.4953 0.1573 0 8
6.5431 -13.3566 -2.4953 0.1655 0 8
6.7570 -13.2497 -2.4953 0.1655 0 8
6.9691 -13.1394 -2.4953 0.1655 0 8
7.1794 -13.0257 -2.4953 0.1655 0 8
7.3879 -12.9086 -2.4953 0.1655 0 8
7.5944 -12.7882 -2.4953 0.1655 0 8
7.7990 -12.6644 -2.4953 0.1655 0 8
8.0016 -12.5374 -2.4953 0.1655 0 8
8.2021 -12.4072 -2.4953 0.1655 0 8
8.4004 -12.2737 -2.4953 0.1655 0 8
8.5966 -12.1371 -2.4953 0.1655 0 8
8.7906 -11.9974 -2.4953 0.1655 0 8
8.9823 -11.8545 -2.4953 0.1655 0 8
9.1717 -11.7086 -2.4953 0.1655 0 8
9.3587 -11.5596 -2.4953 0.1655 0 8
9.5434 -11.4078 -2.4953 0.1655 0 8
9.7255 -11.2528 -2.4953 0.1655 0 8
9.9051 -11.0950 -2.4953 0.1655 0 8
10.0822 -10.9344 -2.4953 0.1655 0 8
10.2567 -10.7709 -2.4953 0.1655 0 8
10.4285 -10.6046 -2.4953 0.1655 0 8
10.5976 -10.4356 -2.4953 0.1655 0 8
10.7640 -10.2639 -2.4953 0.1655 0 8
10.9276 -10.0896 -2.4953 0.1655 0 8
11.0883 -9.9126 -2.4953 0.1655 0 8
11.2463 -9.7331 -2.4953 0.1655 0 8
11.4013 -9.5511 -2.4953 0.1655 0 8
11.5533 -9.3666 -2.4953 0.1655 0 8
11.7024 -9.1796 -2.4953 0.1655 0 8
11.8484 -8.9903 -2.4953 0.1655 0 8
11.9914 -8.7987 -2.4953 0.1655 0 8
12.1313 -8.6048 -2.4953 0.1655 0 8
12.2681 -8.4087 -2.4953 0.1655 0 8
12.4016 -8.2104 -2.4953 0.1655 0 8
12.5320 -8.0100 -2.4953 0.1655 0 8
12.6592 -7.8075 -2.4953 0.1655 0 8
12.7830 -7.6030 -2.4953 0.1655 0 8
12.9036 -7.3966 -2.4953 0.1655 0 8
13.0208 -7.1882 -2.4953 0.1655 0 8
13.1347 -6.9780 -2.4953 0.1655 0 8
13.2451 -6.7659 -2.4953 0.1655 0 8
13.3522 -6.5521 -2.4953 0.1655 0 8
13.4558 -6.3367 -2.4953 0.1655 0 8
13.5559 -6.1195 -2.4953 0.1655 0 8
13.6525 -5.9008 -2.4953 0.1655 0 8
13.7456 -5.6806 -2.4953 0.1655 0 8
13.8352 -5.4589 -2.4953 0.1655 0 8
13.9211 -5.2358 -2.4953 0.1655 0 8
14.0035 -5.0114 -2.4953 0.1655 0 8
14.0822 -4.7856 -2.4953 0.1655 0 8
14.1573 -4.5587 -2.4953 0.1655 0 8
14.2288 -4.3305 -2.4953 0.1655 0 8
14.2966 -4.1012 -2.4953 0.1655 0 8
14.3606 -3.8709 -2.4953 0.1655 0 8
14.4210 -3.6395 -2.4953 0.1655 0 8
14.4776 -3.4073 -2.4953 0.1655 0 8
14.5305 -3.1741 -2.4953 0.1655 0 8
14.5797 -2.9401 -2.4953 0.1655 0 8
14.6251 -2.7054 -2.4953 0.1655 0 8
14.6667 -2.4699 -2.4953 0.1655 0 8
14.7045 -2.2338 -2.4953 0.1655 0 8
14.7385 -1.9972 -2.4953 0.1655 0 8
14.7687 -1.7600 -2.4953 0.1655 0 8
14.7951 -1.5224 -2.4953 0.1655 0 8
8.2753 -0.7173 -1.3935 0.3418 25 10
8.0824 -0.5698 -1.3593 0.3441 25 10
8.0252 -0.4363 -1.3484 0.3516 25 10
7.9734 -0.3050 -1.3387 0.3360 25 10
7.9515 -0.1762 -1.3343 0.3452 25 10
7.9362 -0.0483 -1.3315 0.3628 25 10
7.9387 0.0793 -1.3319 0.3627 25 10
7.9562 0.2074 -1.3353 0.3449 25 10
7.9879 0.3368 -1.3413 0.3353 25 10
8.0364 0.4684 -1.3506 0.3510 25 10
8.1077 0.6034 -1.3640 0.3430 25 10
8.3485 0.7565 -1.4064 0.0874 25 10
6.2256 -12.7084 -2.4953 0.1736 0 8
6.4291 -12.6067 -2.4953 0.1736 0 8
6.6309 -12.5017 -2.4953 0.1736 0 8
6.8310 -12.3935 -2.4953 0.1736 0 8
7.0293 -12.2821 -2.4953 0.1736 0 8
7.2258 -12.1675 -2.4953 0.1736 0 8
7.4205 -12.0498 -2.4953 0.1736 0 8
7.6132 -11.9290 -2.4953 0.1736 0 8
7.8040 -11.8051 -2.4953 0.1736 0 8
7.9928 -11.6781 -2.4953 0.1736 0 8
8.1794 -11.5481 -2.4953 0.1736 0 8
8.3640 -11.4151 -2.4953 0.1736 0 8
8.5464 -11.2792 -2.4953 0.1736 0 8
8.7266 -11.1404 -2.4953 0.1736 0 8
8.9046 -10.9987 -2.4953 0.1736 0 8
9.0802 -10.8541 -2.4953 0.1736 0 8
9.2535 -10.7067 -2.4953 0.1736 0 8
9.4244 -10.5566 -2.4953 0.1736 0 8
9.5929 -10.4037 -2.4953 0.1736 0 8
9.7589 -10.2482 -2.4953 0.1736 0 8
9.9224 -10.0900 -2.4953 0.1736 0 8
10.0833 -9.9292 -2.4953 0.1736 0 8
10.2416 -9.7658 -2.4953 0.1736 0 8
10.3973 -9.5999 -2.4953 0.1736 0 8
10.5502 -9.4316 -2.4953 0.1736 0 8
10.7005 -9.2608 -2.4953 0.1736 0 8
10.8480 -9.0876 -2.4953 0.1736 0 8
10.9926 -8.9120 -2.4953 0.1736 0 8
11.1345 -8.7341 -2.4953 0.1736 0 8
11.2734 -8.5540 -2.4953 0.1736 0 8
11.4095 -8.3717 -2.4953 0.1736 0 8
11.5426 -8.1872 -2.4953 0.1736 0 8
11.6727 -8.0006 -2.4953 0.1736 0 8
11.7998 -7.8120 -2.4953 0.1736 0 8
11.9238 -7.6213 -2.4953 0.1736 0 8
12.0448 -7.4286 -2.4953 0.1736 0 8
12.1627 -7.2341 -2.4953 0.1736 0 8
12.2774 -7.0376 -2.4953 0.1736 0 8
12.3889 -6.8393 -2.4953 0.1736 0 8
12.4973 -6.6393 -2.4953 0.1736 0 8
12.6024 -6.4376 -2.4953 0.1736 0 8
12.7042 -6.2342 -2.4953 0.1736 0 8
12.8028 -6.0291 -2.4953 0.1736 0 8
12.8980 -5.8226 -2.4953 0.1736 0 8
12.9900 -5.6145 -2.4953 0.1736 0 8
13.0785 -5.4049 -2.4953 0.1736 0 8
13.1637 -5.1941 -2.4953 0.1736 0 8
13.2455 -4.9817 -2.4953 0.1736 0 8
13.3239 -4.7682 -2.4953 0.1736 0 8
13.3988 -4.5534 -2.4953 0.1736 0 8
13.4703 -4.3374 -2.4953 0.1736 0 8
13.5383 -4.1203 -2.4953 0.1736 0 8
13.6027 -3.9022 -2.4953 0.1736 0 8
13.6637 -3.6830 -2.4953 0.1736 0 8
13.7212 -3.4629 -2.4953 0.1736 0 8
13.7750 -3.2419 -2.4953 0.1736 0 8
13.8254 -3.0200 -2.4953 0.1736 0 8
13.8721 -2.7974 -2.4953 0.1736 0 8
13.9153 -2.5741 -2.4953 0.1736 0 8
13.9549 -2.3501 -2.4953 0.1736 0 8
13.9909 -2.1254 -2.4953 0.1736 0 8
14.0232 -1.9003 -2.4953 0.1736 0 8
14.0520 -1.6746 -2.4953 0.1736 0 8
14.0771 -1.4485 -2.4953 0.1736 0 8
8.1235 -0.7041 -1.4378 0.2672 25 10
7.9041 -0.5573 -1.3972 0.3700 25 10
7.8409 -0.4263 -1.3846 0.3409 25 10
7.7840 -0.2978 -1.3735 0.3437 25 10
7.7692 -0.1722 -1.3703 0.3700 25 10
7.7596 -0.0472 -1.3683 0.3706 25 10
7.7620 0.0775 -1.3687 0.3704 25 10
7.7714 0.2026 -1.3708 0.3699 25 10
7.7978 0.3288 -1.3762 0.3430 25 10
7.8532 0.4577 -1.3871 0.3587 25 10
7.9506 0.5917 -1.4058 0.3677 25 10
8.1984 0.7429 -1.4515 0.3444 25 10
5.9366 -12.1186 -2.4953 0.1818 0 8
6.1307 -12.0216 -2.4953 0.1818 0 8
6.3231 -11.9215 -2.4953 0.1818 0 8
6.5139 -11.8183 -2.4953 0.1818 0 8
6.7031 -11.7121 -2.4953 0.1818 0 8
6.8905 -11.6028 -2.4953 0.1818 0 8
7.0761 -11.4905 -2.4953 0.1818 0 8
7.2599 -11.3753 -2.4953 0.1818 0 8
7.4418 -11.2571 -2.4953 0.1818 0 8
7.6218 -11.1361 -2.4953 0.1818 0 8
7.7998 -11.0121 -2.4953 0.1818 0 8
7.9758 -10.8853 -2.4953 0.1818 0 8
8.1498 -10.7557 -2.4953 0.1818 0 8
8.3216 -10.6233 -2.4953 0.1818 0 8
8.4913 -10.4882 -2.4953 0.1818 0 8
8.6588 -10.3503 -2.4953 0.1818 0 8
8.8240 -10.2098 -2.4953 0.1818 0 8
8.9870 -10.0666 -2.4953 0.1818 0 8
9.1477 -9.9209 -2.4953 0.1818 0 8
9.3060 -9.7725 -2.4953 0.1818 0 8
9.4618 -9.6217 -2.4953 0.1818 0 8
9.6153 -9.4683 -2.4953 0.1818 0 8
9.7663 -9.3126 -2.4953 0.1818 0 8
9.9147 -9.1544 -2.4953 0.1818 0 8
10.0606 -8.9938 -2.4953 0.1818 0 8
10.2038 -8.8309 -2.4953 0.1818 0 8
10.3445 -8.6658 -2.4953 0.1818 0 8
10.4824 -8.4984 -2.4953 0.1818 0 8
10.6177 -8.3288 -2.4953 0.1818 0 8
10.7502 -8.1570 -2.4953 0.1818 0 8
10.8799 -7.9832 -2.4953 0.1818 0 8
11.0068 -7.8072 -2.4953 0.1818 0 8
11.1309 -7.6293 -2.4953 0.1818 0 8
11.2521 -7.4494 -2.4953 0.1818 0 8
11.3704 -7.2676 -2.4953 0.1818 0 8
11.4858 -7.0838 -2.4953 0.1818 0 8
11.5981 -6.8983 -2.4953 0.1818 0 8
11.7075 -6.7110 -2.4953 0.1818 0 8
11.8139 -6.5219 -2.4953 0.1818 0 8
11.9172 -6.3312 -2.4953 0.1818 0 8
12.0174 -6.1388 -2.4953 0.1818 0 8
12.1146 -5.9448 -2.4953 0.1818 0 8
12.2086 -5.7493 -2.4953 0.1818 0 8
12.2994 -5.5523 -2.4953 0.1818 0 8
12.3871 -5.3539 -2.4953 0.1818 0 8
12.4715 -5.1541 -2.4953 0.1818 0 8
12.5528 -4.9529 -2.4953 0.1818 0 8
12.6308 -4.7505 -2.4953 0.1818 0 8
12.7055 -4.5469 -2.4953 0.1818 0 8
12.7769 -4.3421 -2.4953 0.1818 0 8
12.8451 -4.1361 -2.4953 0.1818 0 8
12.9099 -3.9291 -2.4953 0.1818 0 8
12.9714 -3.7211 -2.4953 0.1818 0 8
13.0295 -3.5121 -2.4953 0.1818 0 8
13.0843 -3.3022 -2.4953 0.1818 0 8
13.1357 -3.0914 -2.4953 0.1818 0 8
13.1837 -2.8799 -2.4953 0.1818 0 8
13.2283 -2.6676 -2.4953 0.1818 0 8
13.2695 -2.4546 -2.4953 0.1818 0 8
13.3072 -2.2410 -2.4953 0.1818 0 8
13.3415 -2.0268 -2.4953 0.1818 0 8
13.3724 -1.8121 -2.4953 0.1818 0 8
13.3998 -1.5969 -2.4953 0.1818 0 8
8.2590 -0.8498 -1.5352 0.0880 25 10
7.9551 -0.6895 -1.4765 0.3666 25 10
7.7672 -0.5476 -1.4398 0.3759 25 10
7.7057 -0.4189 -1.4270 0.9164 25 10
7.6657 -0.2933 -1.4185 0.9850 25 10
7.6526 -0.1696 -1.4154 0.9871 25 10
7.6394 -0.0465 -1.4126 0.9891 25 10
7.6426 0.0764 -1.4133 0.9886 25 10
7.6558 0.1996 -1.4161 0.9866 25 10
7.6738 0.3236 -1.4202 0.9208 25 10
7.7160 0.4497 -1.4292 0.9150 25 10
7.8120 0.5814 -1.4485 0.3737 25 10
8.0152 0.7263 -1.4882 0.2703 25 10
5.6725 -11.5795 -2.4953 0.1900 0 8
5.8579 -11.4868 -2.4953 0.1900 0 8
6.0418 -11.3912 -2.4953 0.1900 0 8
6.2242 -11.2926 -2.4953 0.1900 0 8
6.4049 -11.1910 -2.4953 0.1900 0 8
6.5839 -11.0866 -2.4953 0.1900 0 8
6.7613 -10.9794 -2.4953 0.1900 0 8
6.9369 -10.8693 -2.4953 0.1900 0 8
7.1107 -10.7564 -2.4953 0.1900 0 8
7.2827 -10.6407 -2.4953 0.1900 0 8
7.4528 -10.5222 -2.4953 0.1900 0 8
7.6210 -10.4011 -2.4953 0.1900 0 8
7.7872 -10.2772 -2.4953 0.1900 0 8
7.9514 -10.1507 -2.4953 0.1900 0 8
8.1135 -10.0216 -2.4953 0.1900 0 8
8.2736 -9.8899 -2.4953 0.1900 0 8
8.4315 -9.7556 -2.4953 0.1900 0 8
8.5872 -9.6188 -2.4953 0.1900 0 8
8.7407 -9.4795 -2.4953 0.1900 0 8
8.8920 -9.3378 -2.4953 0.1900 0 8
9.0409 -9.1937 -2.4953 0.1900 0 8
9.1876 -9.0471 -2.4953 0.1900 0 8
9.3318 -8.8983 -2.4953 0.1900 0 8
9.4736 -8.7470 -2.4953 0.1900 0 8
9.6130 -8.5937 -2.4953 0.1900 0 8
9.7499 -8.4381 -2.4953 0.1900 0 8
9.8843 -8.2803 -2.4953 0.1900 0 8
10.0161 -8.1203 -2.4953 0.1900 0 8
10.1454 -7.9583 -2.4953 0.1900 0 8
10.2720 -7.7941 -2.4953 0.1900 0 8
10.3959 -7.6280 -2.4953 0.1900 0 8
10.5172 -7.4599 -2.4953 0.1900 0 8
10.6357 -7.2899 -2.4953 0.1900 0 8
10.7516 -7.1180 -2.4953 0.1900 0 8
10.8646 -6.9443 -2.4953 0.1900 0 8
10.9748 -6.7687 -2.4953 0.1900 0 8
11.0822 -6.5914 -2.4953 0.1900 0 8
11.1867 -6.4124 -2.4953 0.1900 0 8
11.2884 -6.2318 -2.4953 0.1900 0 8
11.3871 -6.0495 -2.4953 0.1900 0 8
11.4828 -5.8657 -2.4953 0.1900 0 8
11.5756 -5.6803 -2.4953 0.1900 0 8
11.6655 -5.4935 -2.4953 0.1900 0 8
11.7523 -5.3053 -2.4953 0.1900 0 8
11.8360 -5.1157 -2.4953 0.1900 0 8
11.9167 -4.9248 -2.4953 0.1900 0 8
11.9943 -4.7326 -2.4953 0.1900 0 8
12.0689 -4.5392 -2.4953 0.1900 0 8
12.1403 -4.3446 -2.4953 0.1900 0 8
12.2085 -4.1489 -2.4953 0.1900 0 8
12.2737 -3.9521 -2.4953 0.1900 0 8
12.3356 -3.7543 -2.4953 0.1900 0 8
12.3944 -3.5555 -2.4953 0.1900 0 8
12.4499 -3.3558 -2.4953 0.1900 0 8
12.5022 -3.1553 -2.4953 0.1900 0 8
12.5514 -2.9539 -2.4953 0.1900 0 8
12.5972 -2.7518 -2.4953 0.1900 0 8
12.6398 -2.5489 -2.4953 0.1900 0 8
12.6792 -2.3454 -2.4953 0.1900 0 8
12.7152 -2.1413 -2.4953 0.1900 0 8
12.7480 -1.9366 -2.4953 0.1900 0 8
12.7775 -1.7315 -2.4953 0.1900 0 8
12.8037 -1.5258 -2.4953 0.1900 0 8
8.1903 -0.8428 -1.5933 0.1831 25 10
7.8354 -0.6792 -1.5220 0.7016 25 10
7.7306 -0.5450 -1.4997 0.8745 25 10
7.6832 -0.4177 -1.4890 0.9177 25 10
7.6479 -0.2926 -1.4811 0.9857 25 10
7.6348 -0.1692 -1.4778 0.9879 25 10
7.6227 -0.0464 -1.4752 0.9969 25 10
7.6249 0.0762 -1.4756 0.9894 25 10
7.6380 0.1991 -1.4786 0.9874 25 10
7.6533 0.3227 -1.4824 0.9671 25 10
7.6934 0.4484 -1.4913 0.9162 25 10
7.7557 0.5772 -1.5050 0.7095 25 10
7.8613 0.7123 -1.5275 0.6990 25 10
5.4302 -11.0848 -2.4953 0.1981 0 8
5.6077 -10.9961 -2.4953 0.1981 0 8
5.7837 -10.9045 -2.4953 0.1981 0 8
5.9582 -10.8101 -2.4953 0.1981 0 8
6.1312 -10.7129 -2.4953 0.1981 0 8
6.3027 -10.6130 -2.4953 0.1981 0 8
6.4724 -10.5103 -2.4953 0.1981 0 8
6.6406 -10.4049 -2.4953 0.1981 0 8
6.8070 -10.2968 -2.4953 0.1981 0 8
6.9716 -10.1861 -2.4953 0.1981 0 8
7.1344 -10.0727 -2.4953 0.1981 0 8
7.2954 -9.9567 -2.4953 0.1981 0 8
7.4545 -9.8382 -2.4953 0.1981 0 8
7.6117 -9.7171 -2.4953 0.1981 0 8
7.7669 -9.5935 -2.4953 0.1981 0 8
7.9201 -9.4674 -2.4953 0.1981 0 8
8.0713 -9.3388 -2.4953 0.1981 0 8
8.2204 -9.2079 -2.4953 0.1981 0 8
8.3673 -9.0745 -2.4953 0.1981 0 8
8.5121 -8.9389 -2.4953 0.1981 0 8
8.6547 -8.8009 -2.4953 0.1981 0 8
8.7950 -8.6606 -2.4953 0.1981 0 8
8.9331 -8.5181 -2.4953 0.1981 0 8
9.0689 -8.3734 -2.4953 0.1981 0 8
9.2023 -8.2266 -2.4953 0.1981 0 8
9.3334 -8.0776 -2.4953 0.1981 0 8
9.4620 -7.9269 -2.4953 0.1981 0 8
9.5882 -7.7734 -2.4953 0.1981 0 8
9.7119 -7.6183 -2.4953 0.1981 0 8
9.8331 -7.4612 -2.4953 0.1981 0 8
9.9518 -7.3021 -2.4953 0.1981 0 8
10.0679 -7.1412 -2.4953 0.1981 0 8
10.1814 -6.9785 -2.4953 0.1981 0 8
10.2922 -6.8139 -2.4953 0.1981 0 8
10.4004 -6.6476 -2.4953 0.1981 0 8
10.5059 -6.4795 -2.4953 0.1981 0 8
10.6087 -6.3098 -2.4953 0.1981 0 8
10.7088 -6.1385 -2.4953 0.1981 0 8
10.8061 -5.9655 -2.4953 0.1981 0 8
10.9006 -5.7911 -2.4953 0.1981 0 8
10.9923 -5.6151 -2.4953 0.1981 0 8
11.0811 -5.4377 -2.4953 0.1981 0 8
11.1671 -5.2588 -2.4953 0.1981 0 8
11.2502 -5.0787 -2.4953 0.1981 0 8
11.3304 -4.8972 -2.4953 0.1981 0 8
11.4076 -4.7144 -2.4953 0.1981 0 8
11.4819 -4.5304 -2.4953 0.1981 0 8
11.5533 -4.3453 -2.4953 0.1981 0 8
11.6216 -4.1590 -2.4953 0.1981 0 8
11.6870 -3.9716 -2.4953 0.1981 0 8
11.7493 -3.7833 -2.4953 0.1981 0 8
11.8086 -3.5939 -2.4953 0.1981 0 8
11.8648 -3.4036 -2.4953 0.1981 0 8
11.9180 -3.2125 -2.4953 0.1981 0 8
11.9681 -3.0205 -2.4953 0.1981 0 8
12.0151 -2.8277 -2.4953 0.1981 0 8
12.0590 -2.6342 -2.4953 0.1981 0 8
12.0998 -2.4400 -2.4953 0.1981 0 8
12.1375 -2.2452 -2.4953 0.1981 0 8
12.1720 -2.0498 -2.4953 0.1981 0 8
12.2034 -1.8539 -2.4953 0.1981 0 8
12.2316 -1.6575 -2.4953 0.1981 0 8
12.2567 -1.4607 -2.4953 0.1981 0 8
8.1464 -0.8383 -1.6555 0.1896 25 10
7.7992 -0.6760 -1.5826 0.7037 25 10
7.7082 -0.5435 -1.5621 0.8756 25 10
7.6607 -0.4165 -1.5509 0.9189 25 10
7.6301 -0.2919 -1.5436 0.9864 25 10
7.6171 -0.1688 -1.5402 0.9886 25 10
7.6076 -0.0463 -1.5379 0.9973 25 10
7.6093 0.0760 -1.5383 0.9970 25 10
7.6202 0.1987 -1.5410 0.9881 25 10
7.6353 0.3219 -1.5449 0.9678 25 10
7.6709 0.4471 -1.5533 0.9174 25 10
7.7218 0.5747 -1.5653 0.8738 25 10
7.8249 0.7090 -1.5883 0.7011 25 10
5.2070 -10.6292 -2.4953 0.2063 0 8
5.3772 -10.5441 -2.4953 0.2063 0 8
5.5460 -10.4563 -2.4953 0.2063 0 8
5.7133 -10.3658 -2.4953 0.2063 0 8
5.8792 -10.2726 -2.4953 0.2063 0 8
6.0436 -10.1768 -2.4953 0.2063 0 8
6.2064 -10.0783 -2.4953 0.2063 0 8
6.3676 -9.9772 -2.4953 0.2063 0 8
6.5272 -9.8736 -2.4953 0.2063 0 8
6.6850 -9.7674 -2.4953 0.2063 0 8
6.8412 -9.6587 -2.4953 0.2063 0 8
6.9956 -9.5475 -2.4953 0.2063 0 8
7.1481 -9.4338 -2.4953 0.2063 0 8
7.2988 -9.3177 -2.4953 0.2063 0 8
7.4477 -9.1991 -2.4953 0.2063 0 8
7.5946 -9.0782 -2.4953 0.2063 0 8
7.7395 -8.9550 -2.4953 0.2063 0 8
7.8825 -8.8294 -2.4953 0.2063 0 8
8.0234 -8.7016 -2.4953 0.2063 0 8
8.1622 -8.5715 -2.4953 0.2063 0 8
8.2990 -8.4392 -2.4953 0.2063 0 8
8.4335 -8.3046 -2.4953 0.2063 0 8
8.5659 -8.1680 -2.4953 0.2063 0 8
8.6961 -8.0293 -2.4953 0.2063 0 8
8.8241 -7.8884 -2.4953 0.2063 0 8
8.9497 -7.7456 -2.4953 0.2063 0 8
9.0731 -7.6007 -2.4953 0.2063 0 8
9.1941 -7.4539 -2.4953 0.2063 0 8
9.3127 -7.3051 -2.4953 0.2063 0 8
9.4290 -7.1544 -2.4953 0.2063 0 8
9.5427 -7.0020 -2.4953 0.2063 0 8
9.6541 -6.8477 -2.4953 0.2063 0 8
9.7629 -6.6916 -2.4953 0.2063 0 8
9.8692 -6.5338 -2.4953 0.2063 0 8
9.9729 -6.3743 -2.4953 0.2063 0 8
10.0741 -6.2132 -2.4953 0.2063 0 8
10.1727 -6.0505 -2.4953 0.2063 0 8
10.2686 -5.8862 -2.4953 0.2063 0 8
10.3619 -5.7203 -2.4953 0.2063 0 8
10.4525 -5.5530 -2.4953 0.2063 0 8
10.5405 -5.3843 -2.4953 0.2063 0 8
10.6256 -5.2142 -2.4953 0.2063 0 8
10.7081 -5.0427 -2.4953 0.2063 0 8
10.7878 -4.8699 -2.4953 0.2063 0 8
10.8647 -4.6959 -2.4953 0.2063 0 8
10.9387 -4.5206 -2.4953 0.2063 0 8
11.0100 -4.3442 -2.4953 0.2063 0 8
11.0784 -4.1667 -2.4953 0.2063 0 8
11.1439 -3.9880 -2.4953 0.2063 0 8
11.2066 -3.8084 -2.4953 0.2063 0 8
11.2664 -3.6278 -2.4953 0.2063 0 8
11.3232 -3.4462 -2.4953 0.2063 0 8
11.3772 -3.2637 -2.4953 0.2063 0 8
11.4282 -3.0804 -2.4953 0.2063 0 8
11.4762 -2.8963 -2.4953 0.2063 0 8
11.5213 -2.7115 -2.4953 0.2063 0 8
11.5634 -2.5259 -2.4953 0.2063 0 8
11.6025 -2.3397 -2.4953 0.2063 0 8
11.6386 -2.1529 -2.4953 0.2063 0 8
11.6717 -1.9656 -2.4953 0.2063 0 8
11.7018 -1.7777 -2.4953 0.2063 0 8
11.7288 -1.5894 -2.4953 0.2063 0 8
11.7529 -1.4006 -2.4953 0.2063 0 8
8.1029 -0.8338 -1.7173 0.1903 25 10
7.7632 -0.6729 -1.6428 0.7057 25 10
7.6858 -0.5419 -1.6243 0.8766 25 10
7.6382 -0.4153 -1.6127 0.9200 25 10
7.6123 -0.2912 -1.6060 0.9870 25 10
7.5994 -0.1684 -1.6025 0.9964 25 10
7.5925 -0.0462 -1.6007 0.9975 25 10
7.5942 0.0759 -1.6011 0.9973 25 10
7.6025 0.1982 -1.6033 0.9887 25 10
7.6172 0.3212 -1.6073 0.9684 25 10
7.6484 0.4458 -1.6152 0.9186 25 10
7.6993 0.5730 -1.6277 0.8748 25 10
7.7886 0.7058 -1.6487 0.7032 25 10
5.0007 -10.2081 -2.4953 0.2144 0 8
5.1642 -10.1264 -2.4953 0.2144 0 8
5.3263 -10.0421 -2.4953 0.2144 0 8
5.4870 -9.9551 -2.4953 0.2144 0 8
5.6463 -9.8657 -2.4953 0.2144 0 8
5.8042 -9.7736 -2.4953 0.2144 0 8
5.9605 -9.6791 -2.4953 0.2144 0 8
6.1154 -9.5820 -2.4953 0.2144 0 8
6.2686 -9.4825 -2.4953 0.2144 0 8
6.4202 -9.3805 -2.4953 0.2144 0 8
6.5702 -9.2761 -2.4953 0.2144 0 8
6.7184 -9.1692 -2.4953 0.2144 0 8
6.8650 -9.0601 -2.4953 0.2144 0 8
7.0097 -8.9485 -2.4953 0.2144 0 8
7.1526 -8.8347 -2.4953 0.2144 0 8
7.2937 -8.7186 -2.4953 0.2144 0 8
7.4329 -8.6002 -2.4953 0.2144 0 8
7.5702 -8.4796 -2.4953 0.2144 0 8
7.7055 -8.3568 -2.4953 0.2144 0 8
7.8389 -8.2319 -2.4953 0.2144 0 8
7.9702 -8.1048 -2.4953 0.2144 0 8
8.0995 -7.9757 -2.4953 0.2144 0 8
8.2266 -7.8444 -2.4953 0.2144 0 8
8.3516 -7.7112 -2.4953 0.2144 0 8
8.4745 -7.5759 -2.4953 0.2144 0 8
8.5952 -7.4387 -2.4953 0.2144 0 8
8.7137 -7.2996 -2.4953 0.2144 0 8
8.8299 -7.1586 -2.4953 0.2144 0 8
8.9438 -7.0157 -2.4953 0.2144 0 8
9.0554 -6.8711 -2.4953 0.2144 0 8
9.1647 -6.7246 -2.4953 0.2144 0 8
9.2716 -6.5764 -2.4953 0.2144 0 8
9.3761 -6.4265 -2.4953 0.2144 0 8
9.4782 -6.2750 -2.4953 0.2144 0 8
9.5779 -6.1218 -2.4953 0.2144 0 8
9.6750 -5.9671 -2.4953 0.2144 0 8
9.7697 -5.8108 -2.4953 0.2144 0 8
9.8618 -5.6530 -2.4953 0.2144 0 8
9.9514 -5.4937 -2.4953 0.2144 0 8
10.0385 -5.3331 -2.4953 0.2144 0 8
10.1229 -5.1710 -2.4953 0.2144 0 8
10.2047 -5.0076 -2.4953 0.2144 0 8
10.2839 -4.8429 -2.4953 0.2144 0 8
10.3604 -4.6770 -2.4953 0.2144 0 8
10.4343 -4.5099 -2.4953 0.2144 0 8
10.5054 -4.3415 -2.4953 0.2144 0 8
10.5738 -4.1721 -2.4953 0.2144 0 8
10.6395 -4.0016 -2.4953 0.2144 0 8
10.7025 -3.8301 -2.4953 0.2144 0 8
10.7627 -3.6575 -2.4953 0.2144 0 8
10.8201 -3.4841 -2.4953 0.2144 0 8
10.8747 -3.3097 -2.4953 0.2144 0 8
10.9265 -3.1344 -2.4953 0.2144 0 8
10.9754 -2.9584 -2.4953 0.2144 0 8
11.0216 -2.7816 -2.4953 0.2144 0 8
11.0649 -2.6041 -2.4953 0.2144 0 8
11.1053 -2.4259 -2.4953 0.2144 0 8
11.1428 -2.2470 -2.4953 0.2144 0 8
11.1775 -2.0676 -2.4953 0.2144 0 8
11.2093 -1.8877 -2.4953 0.2144 0 8
11.2382 -1.7073 -2.4953 0.2144 0 8
11.2642 -1.5264 -2.4953 0.2144 0 8
11.2873 -1.3451 -2.4953 0.2144 0 8
8.0597 -0.8293 -1.7786 0.1910 25 10
7.7275 -0.6698 -1.7027 0.7077 25 10
7.6635 -0.5403 -1.6864 0.8776 25 10
7.6175 -0.4141 -1.6746 0.9661 25 10
7.5945 -0.2905 -1.6683 0.9875 25 10
7.5843 -0.1681 -1.6653 0.9966 25 10
7.5774 -0.0461 -1.6634 0.9977 25 10
7.5791 0.0757 -1.6638 0.9975 25 10
7.5859 0.1978 -1.6658 0.9963 25 10
7.5991 0.3204 -1.6696 0.9690 25 10
7.6259 0.4444 -1.6768 0.9196 25 10
7.6770 0.5714 -1.6899 0.8758 25 10
7.7526 0.7025 -1.7088 0.7052 25 10
4.8095 -9.8178 -2.4953 0.2225 0 8
4.9667 -9.7392 -2.4953 0.2225 0 8
5.1226 -9.6581 -2.4953 0.2225 0 8
5.2772 -9.5745 -2.4953 0.2225 0 8
5.4304 -9.4884 -2.4953 0.2225 0 8
5.5822 -9.3999 -2.4953 0.2225 0 8
5.7326 -9.3089 -2.4953 0.2225 0 8
5.8815 -9.2156 -2.4953 0.2225 0 8
6.0289 -9.1199 -2.4953 0.2225 0 8
6.1747 -9.0219 -2.4953 0.2225 0 8
6.3189 -8.9214 -2.4953 0.2225 0 8
6.4615 -8.8186 -2.4953 0.2225 0 8
6.6024 -8.7136 -2.4953 0.2225 0 8
6.7417 -8.6064 -2.4953 0.2225 0 8
6.8791 -8.4969 -2.4953 0.2225 0 8
7.0148 -8.3852 -2.4953 0.2225 0 8
7.1487 -8.2714 -2.4953 0.2225 0 8
7.2808 -8.1554 -2.4953 0.2225 0 8
7.4109 -8.0373 -2.4953 0.2225 0 8
7.5391 -7.9171 -2.4953 0.2225 0 8
7.6654 -7.7949 -2.4953 0.2225 0 8
7.7897 -7.6707 -2.4953 0.2225 0 8
7.9120 -7.5445 -2.4953 0.2225 0 8
8.0323 -7.4163 -2.4953 0.2225 0 8
8.1505 -7.2863 -2.4953 0.2225 0 8
8.2665 -7.1543 -2.4953 0.2225 0 8
8.3805 -7.0205 -2.4953 0.2225 0 8
8.4922 -6.8849 -2.4953 0.2225 0 8
8.6018 -6.7475 -2.4953 0.2225 0 8
8.7092 -6.6083 -2.4953 0.2225 0 8
8.8143 -6.4675 -2.4953 0.2225 0 8
8.9171 -6.3250 -2.4953 0.2225 0 8
9.0176 -6.1808 -2.4953 0.2225 0 8
9.1158 -6.0351 -2.4953 0.2225 0 8
9.2116 -5.8877 -2.4953 0.2225 0 8
9.3051 -5.7389 -2.4953 0.2225 0 8
9.3961 -5.5886 -2.4953 0.2225 0 8
9.4847 -5.4368 -2.4953 0.2225 0 8
9.5709 -5.2837 -2.4953 0.2225 0 8
9.6546 -5.1291 -2.4953 0.2225 0 8
9.7358 -4.9733 -2.4953 0.2225 0 8
9.8145 -4.8161 -2.4953 0.2225 0 8
9.8907 -4.6577 -2.4953 0.2225 0 8
9.9642 -4.4982 -2.4953 0.2225 0 8
10.0353 -4.3374 -2.4953 0.2225 0 8
10.1037 -4.1755 -2.4953 0.2225 0 8
10.1695 -4.0126 -2.4953 0.2225 0 8
10.2327 -3.8486 -2.4953 0.2225 0 8
10.2932 -3.6836 -2.4953 0.2225 0 8
10.3511 -3.5177 -2.4953 0.2225 0 8
10.4063 -3.3508 -2.4953 0.2225 0 8
10.4588 -3.1831 -2.4953 0.2225 0 8
10.5087 -3.0146 -2.4953 0.2225 0 8
10.5558 -2.8453 -2.4953 0.2225 0 8
10.6001 -2.6752 -2.4953 0.2225 0 8
10.6418 -2.5045 -2.4953 0.2225 0 8
10.6806 -2.3331 -2.4953 0.2225 0 8
10.7168 -2.1611 -2.4953 0.2225 0 8
10.7501 -1.9886 -2.4953 0.2225 0 8
10.7807 -1.8155 -2.4953 0.2225 0 8
10.8085 -1.6420 -2.4953 0.2225 0 8
10.8335 -1.4680 -2.4953 0.2225 0 8
10.8557 -1.2937 -2.4953 0.2225 0 8
8.0168 -0.8249 -1.8394 0.1916 25 10
7.6965 -0.6671 -1.7633 0.8711 25 10
7.6413 -0.5387 -1.7484 0.8785 25 10
7.5994 -0.4131 -1.7371 0.9666 25 10
7.5768 -0.2898 -1.7306 0.9880 25 10
7.5691 -0.1678 -1.7280 0.9967 25 10
7.5623 -0.0460 -1.7261 0.9979 25 10
7.5640 0.0756 -1.7265 0.9976 25 10
7.5708 0.1974 -1.7286 0.9964 25 10
7.5811 0.3197 -1.7319 0.9695 25 10
7.6053 0.4432 -1.7388 0.9656 25 10
7.6546 0.5697 -1.7519 0.8767 25 10
7.7168 0.6992 -1.7685 0.7072 25 10
4.6317 -9.4548 -2.4953 0.2306 0 8
4.7831 -9.3792 -2.4953 0.2306 0 8
4.9333 -9.3011 -2.4953 0.2306 0 8
5.0821 -9.2206 -2.4953 0.2306 0 8
5.2297 -9.1377 -2.4953 0.2306 0 8
5.3759 -9.0524 -2.4953 0.2306 0 8
5.5207 -8.9648 -2.4953 0.2306 0 8
5.6641 -8.8749 -2.4953 0.2306 0 8
5.8060 -8.7828 -2.4953 0.2306 0 8
5.9465 -8.6883 -2.4953 0.2306 0 8
6.0854 -8.5916 -2.4953 0.2306 0 8
6.2227 -8.4926 -2.4953 0.2306 0 8
6.3584 -8.3915 -2.4953 0.2306 0 8
6.4925 -8.2882 -2.4953 0.2306 0 8
6.6248 -8.1828 -2.4953 0.2306 0 8
6.7555 -8.0752 -2.4953 0.2306 0 8
6.8845 -7.9656 -2.4953 0.2306 0 8
7.0116 -7.8539 -2.4953 0.2306 0 8
7.1370 -7.7402 -2.4953 0.2306 0 8
7.2605 -7.6245 -2.4953 0.2306 0 8
7.3821 -7.5068 -2.4953 0.2306 0 8
7.5018 -7.3871 -2.4953 0.2306 0 8
7.6196 -7.2656 -2.4953 0.2306 0 8
7.7354 -7.1422 -2.4953 0.2306 0 8
7.8492 -7.0169 -2.4953 0.2306 0 8
7.9610 -6.8898 -2.4953 0.2306 0 8
8.0707 -6.7610 -2.4953 0.2306 0 8
8.1783 -6.6304 -2.4953 0.2306 0 8
8.2838 -6.4980 -2.4953 0.2306 0 8
8.3872 -6.3640 -2.4953 0.2306 0 8
8.4884 -6.2284 -2.4953 0.2306 0 8
8.5875 -6.0912 -2.4953 0.2306 0 8
8.6843 -5.9523 -2.4953 0.2306 0 8
8.7788 -5.8120 -2.4953 0.2306 0 8
8.8711 -5.6701 -2.4953 0.2306 0 8
8.9611 -5.5268 -2.4953 0.2306 0 8
9.0488 -5.3820 -2.4953 0.2306 0 8
9.1341 -5.2359 -2.4953 0.2306 0 8
9.2171 -5.0883 -2.4953 0.2306 0 8
9.2977 -4.9395 -2.4953 0.2306 0 8
9.3759 -4.7894 -2.4953 0.2306 0 8
9.4517 -4.6381 -2.4953 0.2306 0 8
9.5250 -4.4856 -2.4953 0.2306 0 8
9.5959 -4.3319 -2.4953 0.2306 0 8
9.6643 -4.1771 -2.4953 0.2306 0 8
9.7302 -4.0212 -2.4953 0.2306 0 8
9.7936 -3.8643 -2.4953 0.2306 0 8
9.8544 -3.7063 -2.4953 0.2306 0 8
9.9127 -3.5474 -2.4953 0.2306 0 8
9.9685 -3.3876 -2.4953 0.2306 0 8
10.0216 -3.2270 -2.4953 0.2306 0 8
10.0722 -3.0655 -2.4953 0.2306 0 8
10.1202 -2.9032 -2.4953 0.2306 0 8
10.1656 -2.7401 -2.4953 0.2306 0 8
10.2083 -2.5763 -2.4953 0.2306 0 8
10.2484 -2.4119 -2.4953 0.2306 0 8
10.2858 -2.2469 -2.4953 0.2306 0 8
10.3206 -2.0812 -2.4953 0.2306 0 8
10.3527 -1.9151 -2.4953 0.2306 0 8
10.3822 -1.7484 -2.4953 0.2306 0 8
10.4090 -1.5813 -2.4953 0.2306 0 8
10.4330 -1.4138 -2.4953 0.2306 0 8
10.4544 -1.2459 -2.4953 0.2306 0 8
7.9780 -0.8209 -1.9008 0.1913 25 10
7.6856 -0.6662 -1.8284 0.7662 25 10
7.6298 -0.5379 -1.8128 0.8565 25 10
7.5885 -0.4125 -1.8012 0.9372 25 10
7.5654 -0.2894 -1.7943 0.9661 25 10
7.5581 -0.1675 -1.7918 0.9675 25 10
7.5509 -0.0460 -1.7896 0.9687 25 10
7.5526 0.0755 -1.7901 0.9684 25 10
7.5599 0.1971 -1.7923 0.9672 25 10
7.5690 0.3192 -1.7955 0.9402 25 10
7.5948 0.4426 -1.8030 0.9362 25 10
7.6432 0.5689 -1.8165 0.8548 25 10
7.7141 0.6990 -1.8358 0.2841 25 10
4.4660 -9.1165 -2.4953 0.2387 0 8
4.6119 -9.0435 -2.4953 0.2387 0 8
4.7567 -8.9682 -2.4953 0.2387 0 8
4.9003 -8.8906 -2.4953 0.2387 0 8
5.0426 -8.8107 -2.4953 0.2387 0 8
5.1835 -8.7285 -2.4953 0.2387 0 8
5.3232 -8.6441 -2.4953 0.2387 0 8
5.4614 -8.5574 -2.4953 0.2387 0 8
5.5983 -8.4685 -2.4953 0.2387 0 8
5.7337 -8.3774 -2.4953 0.2387 0 8
5.8676 -8.2841 -2.4953 0.2387 0 8
6.0000 -8.1888 -2.4953 0.2387 0 8
6.1309 -8.0912 -2.4953 0.2387 0 8
6.2601 -7.9917 -2.4953 0.2387 0 8
6.3878 -7.8900 -2.4953 0.2387 0 8
6.5138 -7.7863 -2.4953 0.2387 0 8
6.6381 -7.6806 -2.4953 0.2387 0 8
6.7607 -7.5729 -2.4953 0.2387 0 8
6.8816 -7.4632 -2.4953 0.2387 0 8
7.0006 -7.3516 -2.4953 0.2387 0 8
7.1179 -7.2382 -2.4953 0.2387 0 8
7.2334 -7.1228 -2.4953 0.2387 0 8
7.3469 -7.0056 -2.4953 0.2387 0 8
7.4586 -6.8866 -2.4953 0.2387 0 8
7.5683 -6.7658 -2.4953 0.2387 0 8
7.6761 -6.6433 -2.4953 0.2387 0 8
7.7819 -6.5190 -2.4953 0.2387 0 8
7.8857 -6.3931 -2.4953 0.2387 0 8
7.9874 -6.2655 -2.4953 0.2387 0 8
8.0871 -6.1363 -2.4953 0.2387 0 8
8.1847 -6.0055 -2.4953 0.2387 0 8
8.2802 -5.8732 -2.4953 0.2387 0 8
8.3735 -5.7393 -2.4953 0.2387 0 8
8.4647 -5.6040 -2.4953 0.2387 0 8
8.5537 -5.4672 -2.4953 0.2387 0 8
8.6405 -5.3290 -2.4953 0.2387 0 8
8.7250 -5.1894 -2.4953 0.2387 0 8
8.8073 -5.0485 -2.4953 0.2387 0 8
8.8873 -4.9063 -2.4953 0.2387 0 8
8.9650 -4.7628 -2.4953 0.2387 0 8
9.0404 -4.6181 -2.4953 0.2387 0 8
9.1135 -4.4721 -2.4953 0.2387 0 8
9.1842 -4.3251 -2.4953 0.2387 0 8
9.2525 -4.1769 -2.4953 0.2387 0 8
9.3185 -4.0276 -2.4953 0.2387 0 8
9.3820 -3.8773 -2.4953 0.2387 0 8
9.4431 -3.7260 -2.4953 0.2387 0 8
9.5018 -3.5737 -2.4953 0.2387 0 8
9.5580 -3.4205 -2.4953 0.2387 0 8
9.6118 -3.2664 -2.4953 0.2387 0 8
9.6630 -3.1115 -2.4953 0.2387 0 8
9.7118 -2.9558 -2.4953 0.2387 0 8
9.7581 -2.7993 -2.4953 0.2387 0 8
9.8018 -2.6421 -2.4953 0.2387 0 8
9.8430 -2.4841 -2.4953 0.2387 0 8
9.8817 -2.3256 -2.4953 0.2387 0 8
9.9178 -2.1665 -2.4953 0.2387 0 8
9.9513 -2.0068 -2.4953 0.2387 0 8
9.9823 -1.8465 -2.4953 0.2387 0 8
10.0107 -1.6858 -2.4953 0.2387 0 8
10.0365 -1.5247 -2.4953 0.2387 0 8
10.0597 -1.3632 -2.4953 0.2387 0 8
10.0803 -1.2013 -2.4953 0.2387 0 8
7.9443 -0.8174 -1.9630 0.4509 25 10
7.6989 -0.6673 -1.8995 0.7634 25 10
7.6324 -0.5381 -1.8807 0.8545 25 10
7.5902 -0.4126 -1.8684 0.9187 25 10
7.5661 -0.2894 -1.8611 0.9641 25 10
7.5588 -0.1675 -1.8584 0.9655 25 10
7.5588 -0.0460 -1.8580 0.9269 25 10
7.5579 0.0755 -1.8578 0.9270 25 10
7.5606 0.1971 -1.8590 0.9652 25 10
7.5700 0.3192 -1.8624 0.9381 25 10
7.5976 0.4428 -1.8707 0.9176 25 10
7.6458 0.5691 -1.8845 0.8528 25 10
7.7525 0.7025 -1.9134 0.2821 25 10
4.3111 -8.8003 -2.4953 0.2468 0 8
4.4520 -8.7299 -2.4953 0.2468 0 8
4.5917 -8.6572 -2.4953 0.2468 0 8
4.7303 -8.5823 -2.4953 0.2468 0 8
4.8677 -8.5051 -2.4953 0.2468 0 8
5.0037 -8.4258 -2.4953 0.2468 0 8
5.1385 -8.3442 -2.4953 0.2468 0 8
5.2720 -8.2606 -2.4953 0.2468 0 8
