ply
format ascii 1.0
element vertex 1346
property float32 x
property float32 y
property float32 z
property float32 CosAngle
property uint32 ObjIdx
property uint32 ObjTag
end_header
-32.6809 31.5984 -2.6477 0.0581 0 7
-33.1827 31.0711 -2.6477 0.0581 0 7
-33.6760 30.5358 -2.6477 0.0581 0 7
-34.1606 29.9926 -2.6477 0.0581 0 7
-34.6365 29.4418 -2.6477 0.0581 0 7
-35.1034 28.8834 -2.6477 0.0581 0 7
-35.5614 28.3176 -2.6477 0.0581 0 7
-36.0103 27.7445 -2.6477 0.0581 0 7
-36.4499 27.1644 -2.6477 0.0581 0 7
-36.8802 26.5773 -2.6477 0.0581 0 6
-37.3011 25.9833 -2.6477 0.0581 0 7
-37.7123 25.3827 -2.6477 0.0581 0 7
-38.1139 24.7756 -2.6477 0.0581 0 7
-38.5058 24.1621 -2.6477 0.0581 0 7
-38.8877 23.5425 -2.6477 0.0581 0 7
-39.2597 22.9168 -2.6477 0.0581 0 7
-39.6216 22.2852 -2.6477 0.0581 0 7
-39.9734 21.6479 -2.6477 0.0581 0 7
-40.3149 21.0051 -2.6477 0.0581 0 7
-40.6461 20.3568 -2.6477 0.0581 0 7
-40.9668 19.7034 -2.6477 0.0581 0 6
-41.2770 19.0449 -2.6477 0.0581 0 6
-41.5767 18.3815 -2.6477 0.0581 0 7
-41.8657 17.7134 -2.6477 0.0581 0 7
-42.1440 17.0408 -2.6477 0.0581 0 6
-42.4114 16.3638 -2.6477 0.0581 0 7
-42.6680 15.6825 -2.6477 0.0581 0 7
-42.9137 14.9973 -2.6477 0.0581 0 7
-43.1483 14.3083 -2.6477 0.0581 0 7
-43.3719 13.6156 -2.6477 0.0581 0 7
-43.5843 12.9193 -2.6477 0.0581 0 7
-43.7856 12.2198 -2.6477 0.0581 0 7
-43.9757 11.5171 -2.6477 0.0581 0 7
-44.1544 10.8115 -2.6477 0.0581 0 7
-44.3219 10.1031 -2.6477 0.0581 0 7
-44.4780 9.3921 -2.6477 0.0581 0 7
-44.6227 8.6787 -2.6477 0.0581 0 7
-44.7559 7.9631 -2.6477 0.0581 0 7
-44.8777 7.2454 -2.6477 0.0581 0 7
-44.9879 6.5259 -2.6477 0.0581 0 7
-45.0867 5.8047 -2.6477 0.0581 0 7
-45.1738 5.0820 -2.6477 0.0581 0 7
-45.2494 4.3580 -2.6477 0.0581 0 7
-45.3134 3.6329 -2.6477 0.0581 0 7
-45.3658 2.9069 -2.6477 0.0581 0 7
-45.4065 2.1801 -2.6477 0.0581 0 7
-45.4356 1.4528 -2.6477 0.0581 0 7
-45.4530 0.7250 -2.6477 0.0581 0 7
-45.4588 -0.0029 -2.6477 0.0581 0 7
-45.4529 -0.7308 -2.6477 0.0581 0 7
-45.4354 -1.4585 -2.6477 0.0581 0 7
-45.4062 -2.1858 -2.6477 0.0581 0 7
-45.3654 -2.9126 -2.6477 0.0581 0 7
-45.3129 -3.6386 -2.6477 0.0581 0 7
-45.2489 -4.3637 -2.6477 0.0581 0 7
-16.2982 33.7441 -2.4953 0.0664 0 8
-16.8365 33.4788 -2.4953 0.0664 0 8
-17.3704 33.2049 -2.4953 0.0664 0 8
-17.8998 32.9225 -2.4953 0.0664 0 8
-18.5512 32.8557 -2.5124 0.8678 0 8
-19.2479 32.8496 -2.5352 0.8600 0 8
-19.9574 32.8432 -2.5590 0.8520 0 8
-20.6804 32.8366 -2.5840 0.8437 0 8
-21.4179 32.8297 -2.6101 0.8353 0 8
-22.1705 32.8225 -2.6374 0.8266 0 8
-22.7550 32.5518 -2.6446 0.0803 0 8
-23.3003 32.2206 -2.6477 0.0664 0 7
-23.8132 31.8433 -2.6477 0.0664 0 7
-24.3201 31.4579 -2.6477 0.0664 0 7
-24.8207 31.0645 -2.6477 0.0664 0 7
-25.3149 30.6631 -2.6477 0.0664 0 7
-25.8026 30.2538 -2.6477 0.0664 0 7
-26.2838 29.8368 -2.6477 0.0664 0 6
-26.7582 29.4121 -2.6477 0.0664 0 7
-27.2257 28.9798 -2.6477 0.0664 0 7
-27.6862 28.5402 -2.6477 0.0664 0 7
-28.1397 28.0932 -2.6477 0.0664 0 7
-28.5859 27.6390 -2.6477 0.0664 0 7
-29.0248 27.1778 -2.6477 0.0664 0 7
-29.4562 26.7095 -2.6477 0.0664 0 7
-29.8801 26.2344 -2.6477 0.0664 0 7
-30.2964 25.7526 -2.6477 0.0664 0 7
-30.7048 25.2642 -2.6477 0.0664 0 7
-31.1055 24.7693 -2.6477 0.0664 0 7
-31.4981 24.2680 -2.6477 0.0664 0 7
-31.8826 23.7606 -2.6477 0.0664 0 7
-30.4950 21.9758 -2.5029 0.0664 0 14
-30.8430 21.4847 -2.5029 0.0664 0 14
-31.1830 20.9881 -2.5029 0.0664 0 14
-31.5151 20.4861 -2.5029 0.0664 0 14
-31.8391 19.9789 -2.5029 0.0664 0 14
-32.1787 19.4808 -2.5047 0.2107 0 8
-34.3403 20.0452 -2.6477 0.0664 0 7
-34.6569 19.4928 -2.6477 0.0664 0 7
-34.9646 18.9353 -2.6477 0.0664 0 7
-35.2633 18.3730 -2.6477 0.0664 0 7
-35.5530 17.8060 -2.6477 0.0664 0 7
-35.8335 17.2345 -2.6477 0.0664 0 7
-36.1049 16.6585 -2.6477 0.0664 0 7
-36.3670 16.0782 -2.6477 0.0664 0 7
-36.6198 15.4939 -2.6477 0.0664 0 7
-36.8632 14.9055 -2.6477 0.0664 0 6
-37.0971 14.3133 -2.6477 0.0664 0 7
-37.3216 13.7175 -2.6477 0.0664 0 7
-37.5364 13.1181 -2.6477 0.0664 0 6
-37.7417 12.5154 -2.6477 0.0664 0 7
-37.9372 11.9095 -2.6477 0.0664 0 7
-38.1230 11.3005 -2.6477 0.0664 0 7
-38.2991 10.6886 -2.6477 0.0664 0 7
-38.4653 10.0740 -2.6477 0.0664 0 7
-38.6217 9.4567 -2.6477 0.0664 0 7
-38.7682 8.8372 -2.6477 0.0664 0 7
-38.9047 8.2152 -2.6477 0.0664 0 7
-39.0313 7.5912 -2.6477 0.0664 0 7
-39.1478 6.9653 -2.6477 0.0664 0 7
-39.2543 6.3375 -2.6477 0.0664 0 7
-39.3508 5.7082 -2.6477 0.0664 0 7
-39.4371 5.0773 -2.6477 0.0664 0 7
-39.5134 4.4452 -2.6477 0.0664 0 7
-39.5795 3.8119 -2.6477 0.0664 0 6
-39.6355 3.1777 -2.6477 0.0664 0 6
-39.6813 2.5426 -2.6477 0.0664 0 6
-37.4308 1.7971 -2.4953 0.0664 0 8
-37.4548 1.1976 -2.4953 0.0664 0 8
-37.4691 0.5977 -2.4953 0.0664 0 8
-37.4743 -0.0024 -2.4953 0.0658 0 8
-37.4691 -0.6024 -2.4953 0.0664 0 8
-37.4546 -1.2023 -2.4953 0.0664 0 8
-37.4306 -1.8019 -2.4953 0.0664 0 8
-37.3969 -2.4010 -2.4953 0.0664 0 8
-37.3537 -2.9995 -2.4953 0.0664 0 8
-37.3008 -3.5972 -2.4953 0.0664 0 8
-15.3661 31.8142 -2.6477 0.0747 0 7
-15.8736 31.5641 -2.6477 0.0747 0 7
-16.3769 31.3058 -2.6477 0.0747 0 7
-16.8761 31.0396 -2.6477 0.0747 0 7
-17.3710 30.7654 -2.6477 0.0747 0 7
-17.8614 30.4833 -2.6477 0.0747 0 7
-18.3472 30.1934 -2.6477 0.0747 0 7
-18.8283 29.8957 -2.6477 0.0747 0 6
-19.3046 29.5904 -2.6477 0.0747 0 7
-19.7759 29.2775 -2.6477 0.0747 0 7
-20.2422 28.9571 -2.6477 0.0747 0 7
-20.7033 28.6293 -2.6477 0.0747 0 7
-21.1590 28.2941 -2.6477 0.0747 0 7
-21.6094 27.9517 -2.6477 0.0747 0 7
-22.0542 27.6021 -2.6477 0.0747 0 7
-22.4933 27.2454 -2.6477 0.0747 0 7
-22.9267 26.8817 -2.6477 0.0747 0 7
-23.3542 26.5112 -2.6477 0.0747 0 7
-23.7757 26.1338 -2.6477 0.0747 0 7
-24.1911 25.7498 -2.6477 0.0747 0 7
-24.6003 25.3591 -2.6477 0.0747 0 7
-25.0032 24.9620 -2.6477 0.0747 0 7
-25.3997 24.5584 -2.6477 0.0747 0 7
-25.7897 24.1485 -2.6477 0.0747 0 7
-26.1731 23.7325 -2.6477 0.0747 0 7
-25.0979 22.0357 -2.5029 0.0747 0 14
-25.4476 21.6310 -2.5029 0.0747 0 14
-25.7907 21.2208 -2.5029 0.0747 0 14
-26.1271 20.8051 -2.5029 0.0747 0 14
-26.4569 20.3840 -2.5029 0.0747 0 14
-26.7799 19.9578 -2.5029 0.0747 0 14
-27.0961 19.5264 -2.5029 0.0747 0 14
-27.4053 19.0901 -2.5029 0.0747 0 14
-28.0468 18.8772 -2.5335 0.5634 0 8
-29.0187 18.8634 -2.5937 0.5503 0 8
-29.9268 18.7789 -2.6477 0.0747 0 7
-30.2237 18.2973 -2.6477 0.0747 0 6
-30.5128 17.8110 -2.6477 0.0747 0 7
-30.7941 17.3202 -2.6477 0.0747 0 6
-31.0674 16.8248 -2.6477 0.0747 0 7
-31.3329 16.3252 -2.6477 0.0747 0 7
-31.5903 15.8214 -2.6477 0.0747 0 7
-31.8395 15.3135 -2.6477 0.0747 0 7
-32.0807 14.8017 -2.6477 0.0747 0 7
-32.3136 14.2862 -2.6477 0.0747 0 7
-32.5382 13.7669 -2.6477 0.0747 0 7
-32.7545 13.2442 -2.6477 0.0747 0 7
-32.9623 12.7180 -2.6477 0.0747 0 7
-33.1617 12.1885 -2.6477 0.0747 0 7
-33.3526 11.6560 -2.6477 0.0747 0 7
-33.5350 11.1205 -2.6477 0.0747 0 7
-33.7088 10.5821 -2.6477 0.0747 0 7
-33.8739 10.0410 -2.6477 0.0747 0 7
-34.0303 9.4973 -2.6477 0.0747 0 7
-34.1780 8.9511 -2.6477 0.0747 0 7
-34.3170 8.4027 -2.6477 0.0747 0 7
-32.4644 7.4002 -2.4953 0.0747 0 8
-32.5787 6.8794 -2.4953 0.0747 0 8
-32.6847 6.3569 -2.4953 0.0747 0 8
-32.7823 5.8327 -2.4953 0.0747 0 8
-32.8714 5.3070 -2.4953 0.0747 0 8
-32.9522 4.7800 -2.4953 0.0747 0 8
-33.0245 4.2517 -2.4953 0.0747 0 8
-33.0884 3.7224 -2.4953 0.0747 0 8
-33.1437 3.1921 -2.4953 0.0747 0 8
-33.1906 2.6610 -2.4953 0.0747 0 8
-33.2289 2.1292 -2.4953 0.0747 0 8
-33.2588 1.5968 -2.4953 0.0747 0 8
-33.2801 1.0641 -2.4953 0.0747 0 8
-33.2929 0.5311 -2.4953 0.0747 0 8
-33.2971 -0.0021 -2.4953 0.0747 0 8
-33.2928 -0.5353 -2.4953 0.0747 0 8
-33.2800 -1.0683 -2.4953 0.0747 0 8
-33.2586 -1.6010 -2.4953 0.0747 0 8
-33.2287 -2.1334 -2.4953 0.0747 0 8
-33.1903 -2.6652 -2.4953 0.0747 0 8
-33.1433 -3.1963 -2.4953 0.0747 0 8
-13.8234 28.6202 -2.6477 0.0830 0 7
-14.2799 28.3952 -2.6477 0.0830 0 7
-14.7328 28.1629 -2.6477 0.0830 0 7
-15.1818 27.9234 -2.6477 0.0830 0 7
-15.6270 27.6767 -2.6477 0.0830 0 7
-16.0682 27.4229 -2.6477 0.0830 0 7
-16.5052 27.1621 -2.6477 0.0830 0 7
-16.9380 26.8943 -2.6477 0.0830 0 7
-17.3665 26.6197 -2.6477 0.0830 0 7
-17.7905 26.3382 -2.6477 0.0830 0 7
-18.2100 26.0499 -2.6477 0.0830 0 7
-18.6248 25.7550 -2.6477 0.0830 0 7
-19.0348 25.4535 -2.6477 0.0830 0 7
-19.4399 25.1455 -2.6477 0.0830 0 7
-19.8400 24.8309 -2.6477 0.0830 0 7
-20.2351 24.5101 -2.6477 0.0830 0 7
-20.6250 24.1829 -2.6477 0.0830 0 7
-21.0095 23.8496 -2.6477 0.0830 0 7
-20.2192 22.2245 -2.5029 0.0830 0 8
-20.5724 21.8979 -2.5029 0.0830 0 14
-20.9204 21.5657 -2.5029 0.0830 0 14
-21.2631 21.2280 -2.5029 0.0830 0 14
-21.6002 20.8848 -2.5029 0.0830 0 14
-21.9319 20.5362 -2.5029 0.0830 0 14
-22.2579 20.1824 -2.5029 0.0830 0 14
-22.5782 19.8234 -2.5029 0.0830 0 14
-22.8927 19.4593 -2.5029 0.0830 0 14
-23.2014 19.0903 -2.5029 0.0830 0 14
-23.7229 18.8906 -2.5262 0.6276 0 8
-24.5036 18.8790 -2.5768 0.6153 0 8
-25.3161 18.8669 -2.6301 0.6028 0 8
-25.7858 18.5822 -2.6477 0.0830 0 7
-26.0800 18.1669 -2.6477 0.0830 0 7
-26.3675 17.7470 -2.6477 0.0830 0 7
-26.6483 17.3225 -2.6477 0.0830 0 7
-26.9223 16.8936 -2.6477 0.0830 0 7
-27.1894 16.4603 -2.6477 0.0830 0 7
-27.4494 16.0228 -2.6477 0.0830 0 7
-27.7025 15.5813 -2.6477 0.0830 0 7
-27.9484 15.1357 -2.6477 0.0830 0 7
-28.1872 14.6862 -2.6477 0.0830 0 7
-28.4187 14.2330 -2.6477 0.0830 0 7
-28.6430 13.7761 -2.6477 0.0830 0 7
-28.8599 13.3157 -2.6477 0.0830 0 7
-29.0694 12.8519 -2.6477 0.0830 0 7
-29.2715 12.3848 -2.6477 0.0830 0 7
-29.4660 11.9145 -2.6477 0.0830 0 7
-29.6530 11.4411 -2.6477 0.0830 0 7
-29.8324 10.9649 -2.6477 0.0830 0 7
-30.0042 10.4859 -2.6477 0.0830 0 7
-30.1682 10.0040 -2.6477 0.0830 0 7
-30.3246 9.5197 -2.6477 0.0830 0 7
-30.4731 9.0329 -2.6477 0.0830 0 7
-28.8517 8.0520 -2.4953 0.0830 0 8
-28.9769 7.5890 -2.4953 0.0830 0 8
-29.0947 7.1240 -2.4953 0.0830 0 8
-29.2051 6.6572 -2.4953 0.0830 0 8
-29.3079 6.1887 -2.4953 0.0830 0 8
-29.4033 5.7187 -2.4953 0.0830 0 8
-29.4911 5.2471 -2.4953 0.0830 0 8
-29.5713 4.7742 -2.4953 0.0830 0 8
-29.6440 4.3002 -2.4953 0.0830 0 8
-29.7090 3.8249 -2.4953 0.0830 0 8
-29.7664 3.3487 -2.4953 0.0830 0 8
-29.8163 2.8716 -2.4953 0.0830 0 8
-29.8584 2.3938 -2.4953 0.0830 0 8
-29.8929 1.9154 -2.4953 0.0830 0 8
-29.9198 1.4365 -2.4953 0.0830 0 8
-29.9389 0.9573 -2.4953 0.0830 0 8
-29.9504 0.4777 -2.4953 0.0830 0 8
-29.9542 -0.0019 -2.4953 0.0830 0 8
-29.9503 -0.4815 -2.4953 0.0830 0 8
-29.9388 -0.9610 -2.4953 0.0830 0 8
-29.9196 -1.4403 -2.4953 0.0830 0 8
-29.8927 -1.9192 -2.4953 0.0830 0 8
-29.8581 -2.3976 -2.4953 0.0830 0 8
-29.8159 -2.8754 -2.4953 0.0830 0 8
-12.5607 26.0058 -2.6477 0.0913 0 7
-12.9755 25.8013 -2.6477 0.0913 0 7
-13.3869 25.5902 -2.6477 0.0913 0 7
-13.7950 25.3726 -2.6477 0.0913 0 7
-14.1995 25.1484 -2.6477 0.0913 0 7
-14.6004 24.9178 -2.6477 0.0913 0 7
-14.9975 24.6809 -2.6477 0.0913 0 7
-15.3908 24.4376 -2.6477 0.0913 0 7
-15.7801 24.1880 -2.6477 0.0913 0 7
-16.1654 23.9322 -2.6477 0.0913 0 7
-16.5465 23.6703 -2.6477 0.0913 0 7
-15.9980 22.1226 -2.5029 0.0913 0 14
-16.3502 21.8636 -2.5029 0.0913 0 14
-16.6982 21.5990 -2.5029 0.0913 0 14
-17.0419 21.3289 -2.5029 0.0913 0 14
-17.3812 21.0533 -2.5029 0.0913 0 14
-17.7161 20.7723 -2.5029 0.0913 0 14
-18.0464 20.4859 -2.5029 0.0913 0 14
-18.3721 20.1943 -2.5029 0.0913 0 14
-18.6932 19.8975 -2.5029 0.0913 0 14
-19.0093 19.5957 -2.5029 0.0913 0 14
-19.3207 19.2888 -2.5029 0.0913 0 14
-19.6271 18.9769 -2.5029 0.0913 0 8
-20.1832 18.8988 -2.5349 0.6879 0 8
-20.8315 18.8890 -2.5780 0.6764 0 8
-21.5023 18.8788 -2.6233 0.6647 0 8
-22.0048 18.7045 -2.6477 0.0913 0 7
-22.3014 18.3498 -2.6477 0.0913 0 6
-22.5924 17.9904 -2.6477 0.0913 0 7
-22.8776 17.6263 -2.6477 0.0913 0 7
-23.1569 17.2577 -2.6477 0.0913 0 7
-23.4303 16.8847 -2.6477 0.0913 0 7
-23.6976 16.5074 -2.6477 0.0913 0 7
-23.9589 16.1258 -2.6477 0.0913 0 7
-24.2140 15.7401 -2.6477 0.0913 0 7
-24.4629 15.3504 -2.6477 0.0913 0 7
-24.7056 14.9567 -2.6477 0.0913 0 7
-24.9419 14.5592 -2.6477 0.0913 0 7
-25.1719 14.1579 -2.6477 0.0913 0 7
-25.3953 13.7531 -2.6477 0.0913 0 7
-25.6123 13.3446 -2.6477 0.0913 0 7
-25.8227 12.9328 -2.6477 0.0913 0 7
-26.0265 12.5177 -2.6477 0.0913 0 7
-26.2236 12.0993 -2.6477 0.0913 0 7
-26.4139 11.6779 -2.6477 0.0913 0 7
-26.5975 11.2534 -2.6477 0.0913 0 7
-26.7743 10.8261 -2.6477 0.0913 0 7
-26.9443 10.3960 -2.6477 0.0913 0 7
-27.1073 9.9632 -2.6477 0.0913 0 7
-27.2633 9.5279 -2.6477 0.0913 0 7
-27.4124 9.0901 -2.6477 0.0913 0 7
-25.9684 8.1522 -2.4953 0.0913 0 8
-26.0956 7.7353 -2.4953 0.0913 0 8
-26.2161 7.3165 -2.4953 0.0913 0 8
-26.3299 6.8957 -2.4953 0.0913 0 8
-26.4369 6.4732 -2.4953 0.0913 0 8
-26.5372 6.0491 -2.4953 0.0913 0 8
-26.6307 5.6234 -2.4953 0.0913 0 8
-26.7173 5.1963 -2.4953 0.0913 0 8
-26.7971 4.7678 -2.4953 0.0913 0 8
-26.8700 4.3381 -2.4953 0.0913 0 8
-26.9360 3.9073 -2.4953 0.0913 0 8
-26.9951 3.4755 -2.4953 0.0913 0 8
-27.0473 3.0428 -2.4953 0.0913 0 8
-27.0926 2.6093 -2.4953 0.0913 0 8
-27.1309 2.1751 -2.4953 0.0913 0 8
-27.1622 1.7405 -2.4953 0.0913 0 8
-27.1866 1.3053 -2.4953 0.0913 0 8
-27.2040 0.8698 -2.4953 0.0913 0 8
-27.2144 0.4341 -2.4953 0.0913 0 8
-27.2179 -0.0017 -2.4953 0.0913 0 8
-27.2144 -0.4376 -2.4953 0.0913 0 8
-27.2039 -0.8732 -2.4953 0.0913 0 8
-27.1864 -1.3087 -2.4953 0.0913 0 8
-27.1620 -1.7439 -2.4953 0.0913 0 8
-27.1306 -2.1786 -2.4953 0.0913 0 8
-27.0922 -2.6127 -2.4953 0.0913 0 8
-11.5078 23.8259 -2.6477 0.0996 0 7
-11.2378 22.3460 -2.5029 0.0996 0 8
-11.5942 22.1632 -2.5029 0.0996 0 14
-11.9476 21.9747 -2.5029 0.0996 0 14
-12.2979 21.7806 -2.5029 0.0996 0 14
-12.6451 21.5809 -2.5029 0.0996 0 14
-12.9890 21.3756 -2.5029 0.0996 0 14
-13.3296 21.1649 -2.5029 0.0996 0 14
-13.6668 20.9488 -2.5029 0.0996 0 14
-14.0005 20.7272 -2.5029 0.0996 0 14
-14.3306 20.5004 -2.5029 0.0996 0 14
-14.6570 20.2683 -2.5029 0.0996 0 14
-14.9797 20.0310 -2.5029 0.0996 0 14
-15.2985 19.7886 -2.5029 0.0996 0 14
-15.6134 19.5411 -2.5029 0.0996 0 14
-15.9243 19.2886 -2.5029 0.0996 0 14
-16.2311 19.0311 -2.5029 0.0996 0 8
-16.6591 18.9110 -2.5219 0.7541 0 8
-17.1973 18.9030 -2.5572 0.7437 0 8
-17.7509 18.8946 -2.5942 0.7331 0 8
-18.3207 18.8858 -2.6329 0.7223 0 8
-18.7251 18.6942 -2.6477 0.0996 0 7
-19.0221 18.3920 -2.6477 0.0996 0 6
-19.3141 18.0851 -2.6477 0.0996 0 7
-19.6013 17.7735 -2.6477 0.0996 0 7
-19.8833 17.4573 -2.6477 0.0996 0 7
-20.1603 17.1367 -2.6477 0.0996 0 7
-20.4321 16.8117 -2.6477 0.0996 0 7
-20.6987 16.4824 -2.6477 0.0996 0 7
-20.9600 16.1488 -2.6477 0.0996 0 7
-21.2159 15.8112 -2.6477 0.0996 0 7
-21.4663 15.4694 -2.6477 0.0996 0 7
-21.7112 15.1237 -2.6477 0.0996 0 7
-21.9506 14.7741 -2.6477 0.0996 0 7
-22.1844 14.4208 -2.6477 0.0996 0 7
-22.4125 14.0637 -2.6477 0.0996 0 7
-22.6348 13.7030 -2.6477 0.0996 0 7
-22.8513 13.3388 -2.6477 0.0996 0 7
-23.0620 12.9712 -2.6477 0.0996 0 7
-23.2667 12.6003 -2.6477 0.0996 0 7
-23.4655 12.2261 -2.6477 0.0996 0 7
-23.6582 11.8488 -2.6477 0.0996 0 7
-23.8449 11.4684 -2.6477 0.0996 0 7
-24.0255 11.0852 -2.6477 0.0996 0 7
-24.1999 10.6990 -2.6477 0.0996 0 7
-24.3681 10.3102 -2.6477 0.0996 0 7
-24.5301 9.9187 -2.6477 0.0996 0 7
-24.6858 9.5246 -2.6477 0.0996 0 7
-24.8351 9.1281 -2.6477 0.0996 0 7
-23.5404 8.2268 -2.4953 0.0996 0 8
-23.6691 7.8488 -2.4953 0.0996 0 8
-23.7917 7.4688 -2.4953 0.0996 0 8
-23.9083 7.0869 -2.4953 0.0996 0 8
-24.0187 6.7032 -2.4953 0.0996 0 8
-24.1229 6.3177 -2.4953 0.0996 0 8
-24.2210 5.9307 -2.4953 0.0996 0 8
-24.3129 5.5421 -2.4953 0.0996 0 8
-24.3985 5.1520 -2.4953 0.0996 0 8
-24.4778 4.7607 -2.4953 0.0996 0 8
-24.5509 4.3682 -2.4953 0.0996 0 8
-24.6177 3.9745 -2.4953 0.0996 0 8
-24.6782 3.5798 -2.4953 0.0996 0 8
-24.7323 3.1842 -2.4953 0.0996 0 8
-24.7802 2.7877 -2.4953 0.0996 0 8
-24.8217 2.3906 -2.4953 0.0996 0 8
-24.8568 1.9928 -2.4953 0.0996 0 8
-24.8855 1.5946 -2.4953 0.0996 0 8
-24.9078 1.1959 -2.4953 0.0996 0 8
-24.9238 0.7969 -2.4953 0.0996 0 8
-24.9333 0.3977 -2.4953 0.0996 0 8
-24.9365 -0.0016 -2.4953 0.0996 0 8
-24.9333 -0.4009 -2.4953 0.0996 0 8
-24.9237 -0.8000 -2.4953 0.0996 0 8
-24.9076 -1.1990 -2.4953 0.0996 0 8
-24.8853 -1.5977 -2.4953 0.0996 0 8
-24.8565 -1.9960 -2.4953 0.0996 0 8
-24.8213 -2.3937 -2.4953 0.0996 0 8
-10.0359 20.7785 -2.5029 0.1078 0 14
-10.3673 20.6151 -2.5029 0.1078 0 14
-10.6961 20.4465 -2.5029 0.1078 0 14
-11.0221 20.2726 -2.5029 0.1078 0 14
-11.3453 20.0935 -2.5029 0.1078 0 14
-11.6656 19.9093 -2.5029 0.1078 0 14
-11.9829 19.7199 -2.5029 0.1078 0 14
-12.2972 19.5255 -2.5029 0.1078 0 14
-12.6082 19.3261 -2.5029 0.1078 0 14
-12.9161 19.1217 -2.5029 0.1078 0 14
-13.2316 18.9282 -2.5050 0.6535 0 8
-13.6801 18.9174 -2.5322 0.8134 0 8
-14.1419 18.9107 -2.5613 0.8041 0 8
-14.6144 18.9038 -2.5917 0.7947 0 8
-15.0984 18.8965 -2.6235 0.7850 0 8
-15.5406 18.8238 -2.6477 0.1078 0 7
-15.8400 18.5726 -2.6477 0.1078 0 7
-16.1354 18.3166 -2.6477 0.1078 0 7
-16.4266 18.0558 -2.6477 0.1078 0 7
-16.7136 17.7905 -2.6477 0.1078 0 7
-16.9964 17.5206 -2.6477 0.1078 0 7
-17.2747 17.2462 -2.6477 0.1078 0 7
-17.5487 16.9674 -2.6477 0.1078 0 7
-17.8181 16.6842 -2.6477 0.1078 0 7
-18.0830 16.3968 -2.6477 0.1078 0 7
-18.3432 16.1051 -2.6477 0.1078 0 7
-18.5987 15.8093 -2.6477 0.1078 0 7
-18.8495 15.5095 -2.6477 0.1078 0 7
-19.0954 15.2057 -2.6477 0.1078 0 7
-19.3365 14.8980 -2.6477 0.1078 0 7
-19.5725 14.5864 -2.6477 0.1078 0 7
-19.8036 14.2712 -2.6477 0.1078 0 7
-20.0295 13.9523 -2.6477 0.1078 0 7
-20.2504 13.6297 -2.6477 0.1078 0 7
-20.4660 13.3038 -2.6477 0.1078 0 7
-20.6764 12.9743 -2.6477 0.1078 0 7
-20.8815 12.6416 -2.6477 0.1078 0 7
-21.0813 12.3056 -2.6477 0.1078 0 7
-21.2756 11.9665 -2.6477 0.1078 0 7
-21.4645 11.6243 -2.6477 0.1078 0 7
-21.6479 11.2791 -2.6477 0.1078 0 7
-21.8257 10.9310 -2.6477 0.1078 0 7
-21.9979 10.5801 -2.6477 0.1078 0 7
-22.1645 10.2265 -2.6477 0.1078 0 7
-22.3254 9.8703 -2.6477 0.1078 0 7
-22.4806 9.5116 -2.6477 0.1078 0 7
-22.6300 9.1504 -2.6477 0.1078 0 7
-21.4628 8.2811 -2.4953 0.1078 0 8
-21.5927 7.9363 -2.4953 0.1078 0 8
-21.7170 7.5896 -2.4953 0.1078 0 8
-21.8357 7.2409 -2.4953 0.1078 0 8
-21.9488 6.8903 -2.4953 0.1078 0 8
-22.0564 6.5380 -2.4953 0.1078 0 8
-22.1582 6.1840 -2.4953 0.1078 0 8
-22.2544 5.8284 -2.4953 0.1078 0 8
-22.3449 5.4713 -2.4953 0.1078 0 8
-22.4296 5.1128 -2.4953 0.1078 0 8
-22.5086 4.7530 -2.4953 0.1078 0 8
-22.5818 4.3920 -2.4953 0.1078 0 8
-22.6493 4.0298 -2.4953 0.1078 0 8
-22.7109 3.6666 -2.4953 0.1078 0 8
-22.7667 3.3025 -2.4953 0.1078 0 8
-22.8166 2.9375 -2.4953 0.1078 0 8
-22.8607 2.5718 -2.4953 0.1078 0 8
-22.8990 2.2054 -2.4953 0.1078 0 8
-22.9314 1.8385 -2.4953 0.1078 0 8
-22.9579 1.4711 -2.4953 0.1078 0 8
-22.9785 1.1033 -2.4953 0.1078 0 8
-22.9932 0.7352 -2.4953 0.1078 0 8
-23.0020 0.3669 -2.4953 0.1078 0 8
-23.0050 -0.0015 -2.4953 0.1078 0 8
-23.0020 -0.3698 -2.4953 0.1078 0 8
-22.9931 -0.7381 -2.4953 0.1078 0 8
-22.9783 -1.1062 -2.4953 0.1078 0 8
-22.9577 -1.4740 -2.4953 0.1078 0 8
-22.9311 -1.8414 -2.4953 0.1078 0 8
-22.8987 -2.2083 -2.4953 0.1078 0 8
-9.3132 19.2823 -2.5029 0.1161 0 14
-9.6208 19.1307 -2.5029 0.1161 0 14
-9.9259 18.9742 -2.5029 0.1161 0 8
-10.2918 18.9293 -2.5184 0.8804 0 8
-10.6851 18.9242 -2.5402 0.8729 0 8
-11.0853 18.9189 -2.5629 0.8651 0 8
-11.4928 18.9133 -2.5868 0.8572 0 8
-11.9080 18.9076 -2.6117 0.8490 0 8
-12.3313 18.9016 -2.6379 0.8406 0 8
-12.6793 18.7712 -2.6477 0.1161 0 7
-12.9783 18.5658 -2.6477 0.1161 0 7
-13.2739 18.3556 -2.6477 0.1161 0 6
-13.5661 18.1407 -2.6477 0.1161 0 7
-13.8548 17.9212 -2.6477 0.1161 0 7
-14.1400 17.6970 -2.6477 0.1161 0 7
-14.4216 17.4684 -2.6477 0.1161 0 7
-14.6994 17.2352 -2.6477 0.1161 0 7
-14.9735 16.9976 -2.6477 0.1161 0 7
-15.2438 16.7557 -2.6477 0.1161 0 7
-15.5101 16.5094 -2.6477 0.1161 0 7
-15.7725 16.2590 -2.6477 0.1161 0 7
-16.0308 16.0043 -2.6477 0.1161 0 7
-16.2850 15.7456 -2.6477 0.1161 0 7
-16.5350 15.4828 -2.6477 0.1161 0 7
-16.7808 15.2161 -2.6477 0.1161 0 7
-17.0223 14.9454 -2.6477 0.1161 0 7
-17.2595 14.6709 -2.6477 0.1161 0 7
-17.4922 14.3927 -2.6477 0.1161 0 7
-17.7204 14.1108 -2.6477 0.1161 0 7
-17.9441 13.8252 -2.6477 0.1161 0 7
-18.1631 13.5361 -2.6477 0.1161 0 7
-18.3775 13.2435 -2.6477 0.1161 0 7
-18.5872 12.9476 -2.6477 0.1161 0 7
-18.7922 12.6483 -2.6477 0.1161 0 7
-18.9923 12.3458 -2.6477 0.1161 0 7
-19.1875 12.0401 -2.6477 0.1161 0 7
-19.3779 11.7313 -2.6477 0.1161 0 7
-19.5632 11.4195 -2.6477 0.1161 0 6
-19.7436 11.1048 -2.6477 0.1161 0 7
-19.9189 10.7872 -2.6477 0.1161 0 7
-20.0890 10.4669 -2.6477 0.1161 0 7
-20.2541 10.1439 -2.6477 0.1161 0 7
-20.4139 9.8183 -2.6477 0.1161 0 7
-20.5685 9.4901 -2.6477 0.1161 0 7
-20.7178 9.1595 -2.6477 0.1161 0 7
-19.6610 8.3186 -2.4953 0.1161 0 8
-19.7917 8.0027 -2.4953 0.1161 0 8
-19.9173 7.6848 -2.4953 0.1161 0 8
-20.0378 7.3649 -2.4953 0.1161 0 8
-20.1532 7.0431 -2.4953 0.1161 0 8
-20.2633 6.7195 -2.4953 0.1161 0 8
-20.3683 6.3941 -2.4953 0.1161 0 8
-20.4681 6.0672 -2.4953 0.1161 0 8
-20.5626 5.7387 -2.4953 0.1161 0 8
-20.6519 5.4087 -2.4953 0.1161 0 8
-20.7358 5.0773 -2.4953 0.1161 0 8
-20.8145 4.7446 -2.4953 0.1161 0 8
-20.8878 4.4107 -2.4953 0.1161 0 8
-20.9557 4.0757 -2.4953 0.1161 0 8
-21.0183 3.7396 -2.4953 0.1161 0 8
-21.0755 3.4026 -2.4953 0.1161 0 8
-21.1273 3.0647 -2.4953 0.1161 0 8
-21.1736 2.7260 -2.4953 0.1161 0 8
-21.2146 2.3866 -2.4953 0.1161 0 8
-21.2501 2.0466 -2.4953 0.1161 0 8
-21.2801 1.7061 -2.4953 0.1161 0 8
-21.3047 1.3651 -2.4953 0.1161 0 8
-21.3238 1.0238 -2.4953 0.1161 0 8
-21.3375 0.6822 -2.4953 0.1161 0 8
-21.3457 0.3405 -2.4953 0.1161 0 8
-21.3484 -0.0014 -2.4953 0.1161 0 8
-21.3456 -0.3432 -2.4953 0.1161 0 8
-21.3374 -0.6849 -2.4953 0.1161 0 8
-21.3237 -1.0265 -2.4953 0.1161 0 8
-21.3045 -1.3678 -2.4953 0.1161 0 8
-21.2799 -1.7088 -2.4953 0.1161 0 8
-21.2498 -2.0493 -2.4953 0.1161 0 8
-9.1342 18.9115 -2.6319 0.9024 0 8
-9.4925 18.8754 -2.6477 0.1243 0 7
-9.7935 18.7210 -2.6477 0.1243 0 7
-10.0920 18.5618 -2.6477 0.1243 0 7
-10.3879 18.3978 -2.6477 0.1243 0 6
-10.6812 18.2291 -2.6477 0.1243 0 7
-10.9717 18.0558 -2.6477 0.1243 0 7
-11.2594 17.8778 -2.6477 0.1243 0 7
-11.5442 17.6952 -2.6477 0.1243 0 7
-11.8261 17.5081 -2.6477 0.1243 0 7
-12.1049 17.3165 -2.6477 0.1243 0 7
-12.3806 17.1204 -2.6477 0.1243 0 7
-12.6532 16.9200 -2.6477 0.1243 0 7
-12.9225 16.7152 -2.6477 0.1243 0 7
-13.1885 16.5061 -2.6477 0.1243 0 7
-13.4511 16.2929 -2.6477 0.1243 0 7
-13.7102 16.0754 -2.6477 0.1243 0 7
-13.9659 15.8538 -2.6477 0.1243 0 7
-14.2180 15.6281 -2.6477 0.1243 0 7
-14.4664 15.3985 -2.6477 0.1243 0 7
-14.7111 15.1648 -2.6477 0.1243 0 7
-14.9521 14.9273 -2.6477 0.1243 0 6
-15.1891 14.6860 -2.6477 0.1243 0 7
-15.4223 14.4409 -2.6477 0.1243 0 7
-15.6516 14.1921 -2.6477 0.1243 0 7
-15.8768 13.9397 -2.6477 0.1243 0 7
-16.0980 13.6837 -2.6477 0.1243 0 7
-16.3151 13.4242 -2.6477 0.1243 0 7
-16.5279 13.1612 -2.6477 0.1243 0 7
-16.7365 12.8948 -2.6477 0.1243 0 7
-16.9409 12.6252 -2.6477 0.1243 0 7
-17.1409 12.3523 -2.6477 0.1243 0 7
-17.3364 12.0763 -2.6477 0.1243 0 7
-17.5276 11.7971 -2.6477 0.1243 0 7
-17.7142 11.5150 -2.6477 0.1243 0 7
-17.8963 11.2299 -2.6477 0.1243 0 7
-18.0739 10.9418 -2.6477 0.1243 0 7
-18.2468 10.6510 -2.6477 0.1243 0 7
-18.4150 10.3575 -2.6477 0.1243 0 7
-18.5784 10.0613 -2.6477 0.1243 0 7
-18.7372 9.7625 -2.6477 0.1243 0 7
-18.8911 9.4613 -2.6477 0.1243 0 7
-19.0402 9.1576 -2.6477 0.1243 0 7
-18.0801 8.3420 -2.4953 0.1243 0 8
-18.2114 8.0514 -2.4953 0.1243 0 8
-18.3380 7.7588 -2.4953 0.1243 0 8
-18.4598 7.4642 -2.4953 0.1243 0 8
-18.5770 7.1676 -2.4953 0.1243 0 8
-18.6894 6.8692 -2.4953 0.1243 0 8
-18.7970 6.5691 -2.4953 0.1243 0 8
-18.8997 6.2673 -2.4953 0.1243 0 8
-18.9977 5.9639 -2.4953 0.1243 0 8
-19.0907 5.6589 -2.4953 0.1243 0 8
-19.1789 5.3525 -2.4953 0.1243 0 8
-19.2621 5.0447 -2.4953 0.1243 0 8
-19.3405 4.7356 -2.4953 0.1243 0 8
-19.4138 4.4253 -2.4953 0.1243 0 8
-19.4822 4.1139 -2.4953 0.1243 0 8
-19.5456 3.8014 -2.4953 0.1243 0 8
-19.6039 3.4880 -2.4953 0.1243 0 8
-19.6573 3.1736 -2.4953 0.1243 0 8
-19.7056 2.8585 -2.4953 0.1243 0 8
-19.7488 2.5426 -2.4953 0.1243 0 8
-19.7870 2.2260 -2.4953 0.1243 0 8
-19.8201 1.9089 -2.4953 0.1243 0 8
-19.8481 1.5913 -2.4953 0.1243 0 8
-19.8710 1.2733 -2.4953 0.1243 0 8
-19.8889 0.9549 -2.4953 0.1243 0 8
-19.9016 0.6363 -2.4953 0.1243 0 8
-19.9093 0.3176 -2.4953 0.1243 0 8
-19.9118 -0.0013 -2.4953 0.1243 0 8
-19.9092 -0.3201 -2.4953 0.1243 0 8
-19.9015 -0.6388 -2.4953 0.1243 0 8
-19.8888 -0.9574 -2.4953 0.1243 0 8
-19.8709 -1.2758 -2.4953 0.1243 0 8
-19.8479 -1.5938 -2.4953 0.1243 0 8
-19.8198 -1.9114 -2.4953 0.1243 0 8
-8.6085 17.8231 -2.6477 0.1326 0 7
-8.8928 17.6830 -2.6477 0.1326 0 7
-9.1748 17.5383 -2.6477 0.1326 0 7
-9.4544 17.3892 -2.6477 0.1326 0 7
-9.7317 17.2356 -2.6477 0.1326 0 7
-10.0064 17.0775 -2.6477 0.1326 0 7
-10.2786 16.9151 -2.6477 0.1326 0 7
-10.5481 16.7484 -2.6477 0.1326 0 7
-10.8149 16.5773 -2.6477 0.1326 0 7
-11.0790 16.4020 -2.6477 0.1326 0 7
-11.3402 16.2225 -2.6477 0.1326 0 7
-11.5985 16.0388 -2.6477 0.1326 0 7
-11.8538 15.8511 -2.6477 0.1326 0 7
-12.1061 15.6592 -2.6477 0.1326 0 7
-12.3553 15.4634 -2.6477 0.1326 0 7
-12.6013 15.2636 -2.6477 0.1326 0 7
-12.8441 15.0598 -2.6477 0.1326 0 7
-13.0836 14.8522 -2.6477 0.1326 0 7
-13.3198 14.6408 -2.6477 0.1326 0 7
-13.5525 14.4257 -2.6477 0.1326 0 7
-13.7817 14.2068 -2.6477 0.1326 0 7
-14.0075 13.9843 -2.6477 0.1326 0 7
-14.2296 13.7582 -2.6477 0.1326 0 7
-14.4481 13.5286 -2.6477 0.1326 0 7
-14.6628 13.2956 -2.6477 0.1326 0 7
-14.8738 13.0591 -2.6477 0.1326 0 7
-15.0810 12.8192 -2.6477 0.1326 0 7
-15.2844 12.5761 -2.6477 0.1326 0 7
-15.4838 12.3297 -2.6477 0.1326 0 7
-15.6792 12.0802 -2.6477 0.1326 0 7
-15.8706 11.8276 -2.6477 0.1326 0 7
-16.0580 11.5720 -2.6477 0.1326 0 7
-16.2412 11.3134 -2.6477 0.1326 0 7
-16.4203 11.0519 -2.6477 0.1326 0 7
-16.5952 10.7875 -2.6477 0.1326 0 7
-16.7658 10.5204 -2.6477 0.1326 0 7
-16.9321 10.2506 -2.6477 0.1326 0 7
-17.0940 9.9782 -2.6477 0.1326 0 7
-17.2516 9.7032 -2.6477 0.1326 0 7
-17.4047 9.4257 -2.6477 0.1326 0 7
-17.5535 9.1458 -2.6477 0.1326 0 7
-16.6790 8.3534 -2.4953 0.1326 0 8
-16.8106 8.0852 -2.4953 0.1326 0 8
-16.9379 7.8150 -2.4953 0.1326 0 8
-17.0609 7.5428 -2.4953 0.1326 0 8
-17.1795 7.2686 -2.4953 0.1326 0 8
-17.2937 6.9926 -2.4953 0.1326 0 8
-17.4034 6.7148 -2.4953 0.1326 0 8
-17.5087 6.4353 -2.4953 0.1326 0 8
-17.6095 6.1541 -2.4953 0.1326 0 8
-17.7058 5.8714 -2.4953 0.1326 0 8
-17.7975 5.5871 -2.4953 0.1326 0 8
-17.8847 5.3014 -2.4953 0.1326 0 8
-17.9673 5.0144 -2.4953 0.1326 0 8
-18.0453 4.7260 -2.4953 0.1326 0 8
-18.1186 4.4365 -2.4953 0.1326 0 8
-18.1874 4.1458 -2.4953 0.1326 0 8
-18.2514 3.8540 -2.4953 0.1326 0 8
-18.3108 3.5613 -2.4953 0.1326 0 8
-18.3655 3.2676 -2.4953 0.1326 0 8
-18.4154 2.9731 -2.4953 0.1326 0 8
-18.4607 2.6779 -2.4953 0.1326 0 8
-18.5012 2.3819 -2.4953 0.1326 0 8
-18.5370 2.0854 -2.4953 0.1326 0 8
-18.5680 1.7883 -2.4953 0.1326 0 8
-18.5942 1.4907 -2.4953 0.1326 0 8
-18.6157 1.1928 -2.4953 0.1326 0 8
-18.6324 0.8946 -2.4953 0.1326 0 8
-18.6444 0.5961 -2.4953 0.1326 0 8
-18.6515 0.2975 -2.4953 0.1326 0 8
-18.6539 -0.0012 -2.4953 0.1326 0 8
-18.6515 -0.2999 -2.4953 0.1326 0 8
-18.6443 -0.5985 -2.4953 0.1326 0 8
-18.6323 -0.8969 -2.4953 0.1326 0 8
-18.6155 -1.1952 -2.4953 0.1326 0 8
-18.5940 -1.4931 -2.4953 0.1326 0 8
-18.5677 -1.7906 -2.4953 0.1326 0 8
-8.0959 16.7618 -2.6477 0.1408 0 7
-8.3633 16.6301 -2.6477 0.1408 0 7
-8.6285 16.4940 -2.6477 0.1408 0 7
-8.8915 16.3537 -2.6477 0.1408 0 7
-9.1522 16.2093 -2.6477 0.1408 0 7
-9.4106 16.0606 -2.6477 0.1408 0 7
-9.6665 15.9079 -2.6477 0.1408 0 7
-9.9200 15.7511 -2.6477 0.1408 0 7
-10.1710 15.5902 -2.6477 0.1408 0 7
-10.4193 15.4253 -2.6477 0.1408 0 7
-10.6649 15.2565 -2.6477 0.1408 0 7
-10.9079 15.0838 -2.6477 0.1408 0 7
-11.1480 14.9072 -2.6477 0.1408 0 7
-11.3853 14.7268 -2.6477 0.1408 0 7
-11.6196 14.5426 -2.6477 0.1408 0 7
-11.8510 14.3547 -2.6477 0.1408 0 7
-12.0793 14.1631 -2.6477 0.1408 0 7
-12.3046 13.9678 -2.6477 0.1408 0 7
-12.5266 13.7690 -2.6477 0.1408 0 7
-12.7455 13.5667 -2.6477 0.1408 0 7
-12.9611 13.3609 -2.6477 0.1408 0 7
-13.1734 13.1516 -2.6477 0.1408 0 7
-13.3823 12.9390 -2.6477 0.1408 0 7
-13.5877 12.7231 -2.6477 0.1408 0 7
-13.7897 12.5039 -2.6477 0.1408 0 7
-13.9882 12.2814 -2.6477 0.1408 0 7
-14.1830 12.0559 -2.6477 0.1408 0 7
-14.3742 11.8272 -2.6477 0.1408 0 7
-14.5618 11.5956 -2.6477 0.1408 0 7
-14.7456 11.3609 -2.6477 0.1408 0 6
-14.9256 11.1233 -2.6477 0.1408 0 7
-15.1018 10.8829 -2.6477 0.1408 0 7
-15.2741 10.6397 -2.6477 0.1408 0 7
-15.4425 10.3938 -2.6477 0.1408 0 7
-15.6070 10.1452 -2.6477 0.1408 0 7
-15.7674 9.8940 -2.6477 0.1408 0 7
-15.9238 9.6402 -2.6477 0.1408 0 7
-16.0762 9.3840 -2.6477 0.1408 0 7
-16.2244 9.1254 -2.6477 0.1408 0 7
-15.4262 8.3542 -2.4953 0.1408 0 8
-15.5580 8.1061 -2.4953 0.1408 0 8
-15.6858 7.8560 -2.4953 0.1408 0 8
-15.8096 7.6038 -2.4953 0.1408 0 8
-15.9293 7.3497 -2.4953 0.1408 0 8
-16.0450 7.0937 -2.4953 0.1408 0 8
-16.1565 6.8358 -2.4953 0.1408 0 8
-16.2639 6.5762 -2.4953 0.1408 0 8
-16.3671 6.3150 -2.4953 0.1408 0 8
-16.4661 6.0521 -2.4953 0.1408 0 8
-16.5609 5.7877 -2.4953 0.1408 0 8
-16.6515 5.5218 -2.4953 0.1408 0 8
-16.7378 5.2544 -2.4953 0.1408 0 8
-16.8197 4.9857 -2.4953 0.1408 0 8
-16.8974 4.7158 -2.4953 0.1408 0 8
-16.9708 4.4446 -2.4953 0.1408 0 8
-17.0398 4.1723 -2.4953 0.1408 0 8
-17.1044 3.8989 -2.4953 0.1408 0 8
-17.1646 3.6245 -2.4953 0.1408 0 8
-17.2205 3.3492 -2.4953 0.1408 0 8
-17.2719 3.0731 -2.4953 0.1408 0 8
-17.3189 2.7961 -2.4953 0.1408 0 8
-17.3614 2.5184 -2.4953 0.1408 0 8
-17.3995 2.2401 -2.4953 0.1408 0 8
-17.4332 1.9612 -2.4953 0.1408 0 8
-17.4623 1.6818 -2.4953 0.1408 0 8
-17.4870 1.4020 -2.4953 0.1408 0 8
-17.5072 1.1218 -2.4953 0.1408 0 8
-17.5229 0.8413 -2.4953 0.1408 0 8
-17.5342 0.5606 -2.4953 0.1408 0 8
-17.5409 0.2798 -2.4953 0.1408 0 8
-17.5431 -0.0011 -2.4953 0.1408 0 8
-17.5409 -0.2820 -2.4953 0.1408 0 8
-17.5341 -0.5628 -2.4953 0.1408 0 8
-17.5228 -0.8435 -2.4953 0.1408 0 8
-17.5071 -1.1240 -2.4953 0.1408 0 8
-17.4868 -1.4042 -2.4953 0.1408 0 8
-17.4621 -1.6840 -2.4953 0.1408 0 8
-7.6399 15.8177 -2.6477 0.1490 0 7
-7.8922 15.6934 -2.6477 0.1490 0 7
-8.1425 15.5650 -2.6477 0.1490 0 7
-8.3907 15.4326 -2.6477 0.1490 0 7
-8.6367 15.2963 -2.6477 0.1490 0 7
-8.8805 15.1560 -2.6477 0.1490 0 7
-9.1221 15.0119 -2.6477 0.1490 0 7
-9.3613 14.8639 -2.6477 0.1490 0 7
-9.5981 14.7121 -2.6477 0.1490 0 7
-9.8324 14.5565 -2.6477 0.1490 0 7
-10.0643 14.3972 -2.6477 0.1490 0 7
-10.2935 14.2342 -2.6477 0.1490 0 7
-10.5201 14.0676 -2.6477 0.1490 0 7
-10.7440 13.8973 -2.6477 0.1490 0 7
-10.9652 13.7235 -2.6477 0.1490 0 7
-11.1835 13.5462 -2.6477 0.1490 0 7
-11.3990 13.3654 -2.6477 0.1490 0 7
-11.6115 13.1811 -2.6477 0.1490 0 7
-11.8211 12.9935 -2.6477 0.1490 0 7
-12.0276 12.8026 -2.6477 0.1490 0 7
-12.2311 12.6083 -2.6477 0.1490 0 7
-12.4314 12.4109 -2.6477 0.1490 0 7
-12.6285 12.2102 -2.6477 0.1490 0 7
-12.8224 12.0065 -2.6477 0.1490 0 7
-13.0130 11.7996 -2.6477 0.1490 0 7
-13.2003 11.5897 -2.6477 0.1490 0 7
-13.3842 11.3769 -2.6477 0.1490 0 6
-13.5646 11.1611 -2.6477 0.1490 0 7
-13.7416 10.9425 -2.6477 0.1490 0 7
-13.9151 10.7210 -2.6477 0.1490 0 7
-14.0850 10.4968 -2.6477 0.1490 0 7
-14.2512 10.2700 -2.6477 0.1490 0 7
-14.4138 10.0404 -2.6477 0.1490 0 7
-14.5728 9.8084 -2.6477 0.1490 0 7
-14.7279 9.5738 -2.6477 0.1490 0 7
-14.8794 9.3367 -2.6477 0.1490 0 7
-15.0270 9.0972 -2.6477 0.1490 0 7
-14.2975 8.3458 -2.4953 0.1490 0 8
-14.4293 8.1157 -2.4953 0.1490 0 8
-14.5574 7.8837 -2.4953 0.1490 0 8
-14.6817 7.6496 -2.4953 0.1490 0 8
-14.8023 7.4135 -2.4953 0.1490 0 8
-14.9192 7.1755 -2.4953 0.1490 0 8
-15.0321 6.9357 -2.4953 0.1490 0 8
-15.1413 6.6941 -2.4953 0.1490 0 8
-15.2465 6.4508 -2.4953 0.1490 0 8
-15.3479 6.2058 -2.4953 0.1490 0 8
-15.4453 5.9593 -2.4953 0.1490 0 8
-15.5387 5.7112 -2.4953 0.1490 0 8
-15.6282 5.4617 -2.4953 0.1490 0 8
-15.7136 5.2107 -2.4953 0.1490 0 8
-15.7950 4.9585 -2.4953 0.1490 0 8
-15.8724 4.7049 -2.4953 0.1490 0 8
-15.9457 4.4502 -2.4953 0.1490 0 8
-16.0149 4.1943 -2.4953 0.1490 0 8
-16.0800 3.9373 -2.4953 0.1490 0 8
-16.1410 3.6793 -2.4953 0.1490 0 8
-16.1978 3.4204 -2.4953 0.1490 0 8
-16.2505 3.1606 -2.4953 0.1490 0 8
-16.2991 2.9000 -2.4953 0.1490 0 8
-16.3434 2.6386 -2.4953 0.1490 0 8
-16.3836 2.3766 -2.4953 0.1490 0 8
-16.4195 2.1139 -2.4953 0.1490 0 8
-16.4513 1.8507 -2.4953 0.1490 0 8
-16.4788 1.5871 -2.4953 0.1490 0 8
-16.5021 1.3230 -2.4953 0.1490 0 8
-16.5212 1.0586 -2.4953 0.1490 0 8
-16.5360 0.7939 -2.4953 0.1490 0 8
-16.5466 0.5291 -2.4953 0.1490 0 8
-16.5529 0.2640 -2.4953 0.1490 0 8
-16.5550 -0.0010 -2.4953 0.1490 0 8
-16.5529 -0.2661 -2.4953 0.1490 0 8
-16.5465 -0.5311 -2.4953 0.1490 0 8
-16.5359 -0.7960 -2.4953 0.1490 0 8
-16.5210 -1.0607 -2.4953 0.1490 0 8
-16.5019 -1.3251 -2.4953 0.1490 0 8
-16.4786 -1.5892 -2.4953 0.1490 0 8
-7.2316 14.9723 -2.6477 0.1573 0 6
-7.4704 14.8546 -2.6477 0.1573 0 6
-7.7073 14.7331 -2.6477 0.1573 0 7
-7.9422 14.6078 -2.6477 0.1573 0 7
-8.1751 14.4788 -2.6477 0.1573 0 7
-8.4059 14.3460 -2.6477 0.1573 0 7
-8.6345 14.2096 -2.6477 0.1573 0 7
-8.8610 14.0695 -2.6477 0.1573 0 7
-9.0851 13.9258 -2.6477 0.1573 0 7
-9.3069 13.7785 -2.6477 0.1573 0 7
-9.5263 13.6277 -2.6477 0.1573 0 7
-9.7433 13.4735 -2.6477 0.1573 0 7
-9.9578 13.3157 -2.6477 0.1573 0 7
-10.1698 13.1546 -2.6477 0.1573 0 7
-10.3791 12.9900 -2.6477 0.1573 0 7
-10.5858 12.8222 -2.6477 0.1573 0 7
-10.7897 12.6510 -2.6477 0.1573 0 7
-10.9909 12.4766 -2.6477 0.1573 0 7
-11.1893 12.2991 -2.6477 0.1573 0 7
-11.3848 12.1183 -2.6477 0.1573 0 7
-11.5774 11.9345 -2.6477 0.1573 0 7
-11.7670 11.7476 -2.6477 0.1573 0 7
-11.9536 11.5576 -2.6477 0.1573 0 7
-12.1371 11.3647 -2.6477 0.1573 0 6
-12.3175 11.1690 -2.6477 0.1573 0 7
-12.4948 10.9703 -2.6477 0.1573 0 7
-12.6688 10.7688 -2.6477 0.1573 0 7
-12.8397 10.5646 -2.6477 0.1573 0 7
-13.0072 10.3576 -2.6477 0.1573 0 7
-13.1714 10.1480 -2.6477 0.1573 0 7
-13.3322 9.9358 -2.6477 0.1573 0 7
-13.4895 9.7211 -2.6477 0.1573 0 7
-13.6435 9.5038 -2.6477 0.1573 0 7
-13.7939 9.2841 -2.6477 0.1573 0 7
-13.9408 9.0621 -2.6477 0.1573 0 7
-13.2734 8.3290 -2.4953 0.1573 0 8
-13.4051 8.1154 -2.4953 0.1573 0 8
-13.5333 7.8997 -2.4953 0.1573 0 8
-13.6581 7.6820 -2.4953 0.1573 0 8
-13.7793 7.4623 -2.4953 0.1573 0 8
-13.8970 7.2407 -2.4953 0.1573 0 8
-14.0112 7.0173 -2.4953 0.1573 0 8
-14.1218 6.7920 -2.4953 0.1573 0 8
-14.2287 6.5650 -2.4953 0.1573 0 8
-14.3320 6.3363 -2.4953 0.1573 0 8
-14.4316 6.1060 -2.4953 0.1573 0 8
-14.5276 5.8742 -2.4953 0.1573 0 8
-14.6198 5.6408 -2.4953 0.1573 0 8
-14.7082 5.4060 -2.4953 0.1573 0 8
-14.7929 5.1698 -2.4953 0.1573 0 8
-14.8738 4.9322 -2.4953 0.1573 0 8
-14.9508 4.6935 -2.4953 0.1573 0 8
-15.0241 4.4535 -2.4953 0.1573 0 8
-15.0935 4.2123 -2.4953 0.1573 0 8
-15.1590 3.9701 -2.4953 0.1573 0 8
-15.2206 3.7268 -2.4953 0.1573 0 8
-15.2783 3.4827 -2.4953 0.1573 0 8
-15.3321 3.2376 -2.4953 0.1573 0 8
-15.3820 2.9917 -2.4953 0.1573 0 8
-15.4279 2.7450 -2.4953 0.1573 0 8
-15.4699 2.4976 -2.4953 0.1573 0 8
-15.5079 2.2496 -2.4953 0.1573 0 8
-15.5419 2.0009 -2.4953 0.1573 0 8
-15.5720 1.7518 -2.4953 0.1573 0 8
-15.5980 1.5023 -2.4953 0.1573 0 8
-15.6201 1.2523 -2.4953 0.1573 0 8
-15.6382 1.0020 -2.4953 0.1573 0 8
-15.6522 0.7515 -2.4953 0.1573 0 8
-15.6622 0.5008 -2.4953 0.1573 0 8
-15.6682 0.2499 -2.4953 0.1573 0 8
-15.6702 -0.0010 -2.4953 0.1573 0 8
-15.6682 -0.2519 -2.4953 0.1573 0 8
-15.6622 -0.5028 -2.4953 0.1573 0 8
-15.6521 -0.7535 -2.4953 0.1573 0 8
-15.6380 -1.0040 -2.4953 0.1573 0 8
-15.6199 -1.2543 -2.4953 0.1573 0 8
-15.5979 -1.5042 -2.4953 0.1573 0 8
-6.8638 14.2108 -2.6477 0.1655 0 7
-7.0904 14.0991 -2.6477 0.1655 0 7
-7.3153 13.9837 -2.6477 0.1655 0 7
-7.5382 13.8648 -2.6477 0.1655 0 7
-7.7593 13.7423 -2.6477 0.1655 0 7
-7.9783 13.6163 -2.6477 0.1655 0 7
-8.1953 13.4868 -2.6477 0.1655 0 7
-8.4103 13.3539 -2.6477 0.1655 0 7
-8.6230 13.2175 -2.6477 0.1655 0 7
-8.8335 13.0777 -2.6477 0.1655 0 7
-9.0418 12.9346 -2.6477 0.1655 0 7
-9.2478 12.7882 -2.6477 0.1655 0 7
-9.4513 12.6384 -2.6477 0.1655 0 7
-9.6525 12.4855 -2.6477 0.1655 0 7
-9.8512 12.3293 -2.6477 0.1655 0 7
-10.0473 12.1700 -2.6477 0.1655 0 7
-10.2409 12.0076 -2.6477 0.1655 0 7
-10.4319 11.8420 -2.6477 0.1655 0 7
-10.6202 11.6735 -2.6477 0.1655 0 7
-10.8057 11.5019 -2.6477 0.1655 0 7
-10.9885 11.3274 -2.6477 0.1655 0 7
-11.1685 11.1500 -2.6477 0.1655 0 7
-11.3456 10.9698 -2.6477 0.1655 0 7
-11.5198 10.7867 -2.6477 0.1655 0 7
-11.6910 10.6009 -2.6477 0.1655 0 7
-11.8593 10.4123 -2.6477 0.1655 0 7
-12.0245 10.2211 -2.6477 0.1655 0 7
-12.1866 10.0272 -2.6477 0.1655 0 7
-12.3456 9.8308 -2.6477 0.1655 0 7
-12.5014 9.6318 -2.6477 0.1655 0 7
-12.6540 9.4304 -2.6477 0.1655 0 7
-12.8034 9.2266 -2.6477 0.1655 0 7
-12.9495 9.0204 -2.6477 0.1655 0 7
-12.3387 8.3047 -2.4953 0.1655 0 8
-12.4701 8.1061 -2.4953 0.1655 0 8
-12.5983 7.9054 -2.4953 0.1655 0 8
-12.7233 7.7026 -2.4953 0.1655 0 8
-12.8450 7.4979 -2.4953 0.1655 0 8
-12.9634 7.2913 -2.4953 0.1655 0 8
-13.0785 7.0828 -2.4953 0.1655 0 8
-13.1902 6.8724 -2.4953 0.1655 0 8
-13.2986 6.6603 -2.4953 0.1655 0 8
-13.4035 6.4465 -2.4953 0.1655 0 8
-13.5050 6.2311 -2.4953 0.1655 0 8
-13.6030 6.0140 -2.4953 0.1655 0 8
-13.6976 5.7955 -2.4953 0.1655 0 8
-13.7886 5.5754 -2.4953 0.1655 0 8
-13.8762 5.3539 -2.4953 0.1655 0 8
-13.9601 5.1310 -2.4953 0.1655 0 8
-14.0405 4.9068 -2.4953 0.1655 0 8
-14.1172 4.6814 -2.4953 0.1655 0 8
-14.1904 4.4547 -2.4953 0.1655 0 8
-14.2599 4.2269 -2.4953 0.1655 0 8
-14.3258 3.9981 -2.4953 0.1655 0 8
-14.3879 3.7682 -2.4953 0.1655 0 8
-14.4464 3.5373 -2.4953 0.1655 0 8
-14.5012 3.3055 -2.4953 0.1655 0 8
-14.5523 3.0729 -2.4953 0.1655 0 8
-14.5996 2.8395 -2.4953 0.1655 0 8
-14.6432 2.6054 -2.4953 0.1655 0 8
-14.6831 2.3705 -2.4953 0.1655 0 8
-14.7191 2.1351 -2.4953 0.1655 0 8
-14.7514 1.8992 -2.4953 0.1655 0 8
-14.7800 1.6627 -2.4953 0.1655 0 8
-14.8047 1.4258 -2.4953 0.1655 0 8
-14.8256 1.1886 -2.4953 0.1655 0 8
-14.8427 0.9511 -2.4953 0.1655 0 8
-14.8561 0.7133 -2.4953 0.1655 0 8
-14.8656 0.4753 -2.4953 0.1655 0 8
-14.8713 0.2372 -2.4953 0.1655 0 8
-14.8732 -0.0009 -2.4953 0.1655 0 8
-14.8713 -0.2391 -2.4953 0.1655 0 8
-14.8655 -0.4772 -2.4953 0.1655 0 8
-14.8560 -0.7152 -2.4953 0.1655 0 8
-14.8426 -0.9529 -2.4953 0.1655 0 8
-14.8255 -1.1905 -2.4953 0.1655 0 8
-14.8045 -1.4277 -2.4953 0.1655 0 8
-6.5307 13.5212 -2.6477 0.1736 0 7
-6.7463 13.4148 -2.6477 0.1736 0 7
-6.9603 13.3051 -2.6477 0.1736 0 7
-7.1724 13.1920 -2.6477 0.1736 0 7
-7.3827 13.0754 -2.6477 0.1736 0 7
-7.5912 12.9555 -2.6477 0.1736 0 7
-7.7976 12.8323 -2.6477 0.1736 0 7
-8.0021 12.7058 -2.6477 0.1736 0 7
-8.2045 12.5760 -2.6477 0.1736 0 7
-8.4048 12.4431 -2.6477 0.1736 0 7
-8.6030 12.3069 -2.6477 0.1736 0 7
-8.7990 12.1675 -2.6477 0.1736 0 7
-8.9927 12.0251 -2.6477 0.1736 0 7
-9.1841 11.8796 -2.6477 0.1736 0 7
-9.3731 11.7310 -2.6477 0.1736 0 7
-9.5597 11.5794 -2.6477 0.1736 0 7
-9.7438 11.4248 -2.6477 0.1736 0 6
-9.9256 11.2673 -2.6477 0.1736 0 7
-10.1048 11.1070 -2.6477 0.1736 0 7
-10.2813 10.9437 -2.6477 0.1736 0 7
-10.4552 10.7777 -2.6477 0.1736 0 7
-10.6265 10.6089 -2.6477 0.1736 0 7
-10.7950 10.4374 -2.6477 0.1736 0 7
-10.9607 10.2632 -2.6477 0.1736 0 7
-11.1236 10.0864 -2.6477 0.1736 0 7
-11.2837 9.9070 -2.6477 0.1736 0 7
-11.4409 9.7250 -2.6477 0.1736 0 7
-11.5952 9.5406 -2.6477 0.1736 0 7
-11.7465 9.3537 -2.6477 0.1736 0 7
-11.8947 9.1644 -2.6477 0.1736 0 7
-12.0399 8.9728 -2.6477 0.1736 0 7
-11.4901 8.2802 -2.4973 0.5315 0 8
-11.6119 8.0886 -2.4953 0.1736 0 8
-11.7399 7.9017 -2.4953 0.1736 0 8
-11.8649 7.7127 -2.4953 0.1736 0 8
-11.9869 7.5217 -2.4953 0.1736 0 8
-12.1058 7.3288 -2.4953 0.1736 0 8
-12.2216 7.1340 -2.4953 0.1736 0 8
-12.3343 6.9374 -2.4953 0.1736 0 8
-12.4438 6.7390 -2.4953 0.1736 0 8
-12.5501 6.5389 -2.4953 0.1736 0 8
-12.6532 6.3371 -2.4953 0.1736 0 8
-12.7530 6.1337 -2.4953 0.1736 0 8
-12.8496 5.9287 -2.4953 0.1736 0 8
-12.9429 5.7222 -2.4953 0.1736 0 8
-13.0329 5.5142 -2.4953 0.1736 0 8
-13.1195 5.3048 -2.4953 0.1736 0 8
-13.2027 5.0941 -2.4953 0.1736 0 8
-13.2826 4.8820 -2.4953 0.1736 0 8
-13.3591 4.6687 -2.4953 0.1736 0 8
-13.4321 4.4542 -2.4953 0.1736 0 8
-13.5017 4.2385 -2.4953 0.1736 0 8
-13.5679 4.0218 -2.4953 0.1736 0 8
-13.6305 3.8040 -2.4953 0.1736 0 8
-13.6897 3.5853 -2.4953 0.1736 0 8
-13.7453 3.3656 -2.4953 0.1736 0 8
-13.7975 3.1451 -2.4953 0.1736 0 8
-13.8461 2.9238 -2.4953 0.1736 0 8
-13.8911 2.7017 -2.4953 0.1736 0 8
-13.9326 2.4789 -2.4953 0.1736 0 8
-13.9705 2.2555 -2.4953 0.1736 0 8
-14.0048 2.0315 -2.4953 0.1736 0 8
-14.0355 1.8070 -2.4953 0.1736 0 8
-14.0627 1.5820 -2.4953 0.1736 0 8
-14.0862 1.3567 -2.4953 0.1736 0 8
-14.1061 1.1309 -2.4953 0.1736 0 8
-14.1224 0.9049 -2.4953 0.1736 0 8
-14.1351 0.6787 -2.4953 0.1736 0 8
-14.1442 0.4522 -2.4953 0.1736 0 8
-14.1496 0.2257 -2.4953 0.1736 0 8
-14.1514 -0.0009 -2.4953 0.1736 0 8
-14.1496 -0.2275 -2.4953 0.1736 0 8
-14.1441 -0.4540 -2.4953 0.1736 0 8
-14.1350 -0.6804 -2.4953 0.1736 0 8
-14.1223 -0.9067 -2.4953 0.1736 0 8
-14.1060 -1.1327 -2.4953 0.1736 0 8
-14.0860 -1.3584 -2.4953 0.1736 0 8
-6.2275 12.8936 -2.6477 0.1818 0 7
-6.4332 12.7922 -2.6477 0.1818 0 7
-6.6372 12.6876 -2.6477 0.1818 0 7
-6.8395 12.5797 -2.6477 0.1818 0 7
-7.0401 12.4685 -2.6477 0.1818 0 7
-7.2388 12.3542 -2.6477 0.1818 0 7
-7.4357 12.2367 -2.6477 0.1818 0 7
-7.6307 12.1161 -2.6477 0.1818 0 7
-7.8237 11.9923 -2.6477 0.1818 0 7
-8.0148 11.8655 -2.6477 0.1818 0 7
-8.2037 11.7357 -2.6477 0.1818 0 7
-8.3906 11.6028 -2.6477 0.1818 0 7
-8.5753 11.4670 -2.6477 0.1818 0 6
-8.7578 11.3282 -2.6477 0.1818 0 7
-8.9381 11.1865 -2.6477 0.1818 0 7
-9.1160 11.0420 -2.6477 0.1818 0 7
-9.2917 10.8946 -2.6477 0.1818 0 7
-9.4649 10.7444 -2.6477 0.1818 0 7
-9.6358 10.5915 -2.6477 0.1818 0 7
-9.8041 10.4358 -2.6477 0.1818 0 7
-9.9700 10.2775 -2.6477 0.1818 0 7
-10.1333 10.1165 -2.6477 0.1818 0 7
-10.2940 9.9530 -2.6477 0.1818 0 7
-10.4520 9.7869 -2.6477 0.1818 0 7
-10.6074 9.6183 -2.6477 0.1818 0 7
-10.7600 9.4472 -2.6477 0.1818 0 7
-10.9099 9.2737 -2.6477 0.1818 0 7
-11.0570 9.0978 -2.6477 0.1818 0 7
-10.5565 8.4062 -2.4953 0.1818 0 8
-10.6898 8.2360 -2.4953 0.1818 0 8
-10.8203 8.0638 -2.4953 0.1818 0 8
-10.9480 7.8895 -2.4953 0.1818 0 8
-11.0729 7.7132 -2.4953 0.1818 0 8
-11.1950 7.5349 -2.4953 0.1818 0 8
-11.3142 7.3547 -2.4953 0.1818 0 8
-11.4305 7.1726 -2.4953 0.1818 0 8
-11.5439 6.9886 -2.4953 0.1818 0 8
-11.6544 6.8029 -2.4953 0.1818 0 8
-11.7618 6.6154 -2.4953 0.1818 0 8
-11.8662 6.4262 -2.4953 0.1818 0 8
-11.9676 6.2354 -2.4953 0.1818 0 8
-12.0659 6.0430 -2.4953 0.1818 0 8
-12.1611 5.8490 -2.4953 0.1818 0 8
-12.2532 5.6535 -2.4953 0.1818 0 8
-12.3422 5.4566 -2.4953 0.1818 0 8
-12.4280 5.2583 -2.4953 0.1818 0 8
-12.5106 5.0586 -2.4953 0.1818 0 8
-12.5900 4.8576 -2.4953 0.1818 0 8
-12.6661 4.6554 -2.4953 0.1818 0 8
-12.7390 4.4520 -2.4953 0.1818 0 8
-12.8087 4.2475 -2.4953 0.1818 0 8
-12.8751 4.0418 -2.4953 0.1818 0 8
-12.9381 3.8351 -2.4953 0.1818 0 8
-12.9979 3.6275 -2.4953 0.1818 0 8
-13.0543 3.4189 -2.4953 0.1818 0 8
-13.1074 3.2094 -2.4953 0.1818 0 8
-13.1571 2.9991 -2.4953 0.1818 0 8
-13.2034 2.7881 -2.4953 0.1818 0 8
-13.2464 2.5763 -2.4953 0.1818 0 8
-13.2859 2.3639 -2.4953 0.1818 0 8
-13.3221 2.1508 -2.4953 0.1818 0 8
-13.3548 1.9372 -2.4953 0.1818 0 8
-13.3841 1.7231 -2.4953 0.1818 0 8
-13.4100 1.5086 -2.4953 0.1818 0 8
-13.4324 1.2937 -2.4953 0.1818 0 8
-13.4514 1.0784 -2.4953 0.1818 0 8
-13.4670 0.8629 -2.4953 0.1818 0 8
-13.4790 0.6472 -2.4953 0.1818 0 8
-13.4877 0.4313 -2.4953 0.1818 0 8
-13.4929 0.2152 -2.4953 0.1818 0 8
-13.4946 -0.0009 -2.4953 0.1818 0 8
-13.4928 -0.2169 -2.4953 0.1818 0 8
-13.4876 -0.4330 -2.4953 0.1818 0 8
-13.4790 -0.6489 -2.4953 0.1818 0 8
-13.4668 -0.8646 -2.4953 0.1818 0 8
-13.4513 -1.0801 -2.4953 0.1818 0 8
-13.4323 -1.2954 -2.4953 0.1818 0 8
-5.9505 12.3200 -2.6477 0.1900 0 7
-6.1470 12.2231 -2.6477 0.1900 0 7
-6.3420 12.1232 -2.6477 0.1900 0 7
-6.5353 12.0201 -2.6477 0.1900 0 7
-6.7269 11.9139 -2.6477 0.1900 0 7
-6.9168 11.8046 -2.6477 0.1900 0 7
-7.1049 11.6924 -2.6477 0.1900 0 7
-7.2912 11.5771 -2.6477 0.1900 0 7
-7.4757 11.4589 -2.6477 0.1900 0 6
-7.6582 11.3377 -2.6477 0.1900 0 7
-7.8388 11.2136 -2.6477 0.1900 0 7
-8.0173 11.0866 -2.6477 0.1900 0 7
-8.1938 10.9569 -2.6477 0.1900 0 7
-8.3682 10.8243 -2.6477 0.1900 0 7
-8.5405 10.6889 -2.6477 0.1900 0 7
-8.7105 10.5508 -2.6477 0.1900 0 7
-8.8783 10.4099 -2.6477 0.1900 0 7
-9.0439 10.2664 -2.6477 0.1900 0 7
-9.2071 10.1203 -2.6477 0.1900 0 7
-9.3680 9.9716 -2.6477 0.1900 0 7
-9.5264 9.8203 -2.6477 0.1900 0 7
-9.6825 9.6665 -2.6477 0.1900 0 7
-9.8360 9.5102 -2.6477 0.1900 0 7
-9.9870 9.3515 -2.6477 0.1900 0 7
-10.1355 9.1904 -2.6477 0.1900 0 7
-10.2814 9.0269 -2.6477 0.1900 0 7
-9.8245 8.3511 -2.4953 0.1900 0 8
-9.9570 8.1927 -2.4953 0.1900 0 8
-10.0869 8.0322 -2.4953 0.1900 0 8
-10.2142 7.8697 -2.4953 0.1900 0 8
-10.3389 7.7051 -2.4953 0.1900 0 8
-10.4610 7.5386 -2.4953 0.1900 0 8
-10.5803 7.3701 -2.4953 0.1900 0 8
-10.6970 7.1997 -2.4953 0.1900 0 8
-10.8109 7.0275 -2.4953 0.1900 0 8
-10.9221 6.8535 -2.4953 0.1900 0 8
-11.0304 6.6778 -2.4953 0.1900 0 8
-11.1359 6.5003 -2.4953 0.1900 0 8
-11.2386 6.3211 -2.4953 0.1900 0 8
-11.3383 6.1404 -2.4953 0.1900 0 8
-11.4352 5.9580 -2.4953 0.1900 0 8
-11.5291 5.7742 -2.4953 0.1900 0 8
-11.6201 5.5888 -2.4953 0.1900 0 8
-11.7081 5.4020 -2.4953 0.1900 0 8
-11.7931 5.2139 -2.4953 0.1900 0 8
-11.8751 5.0244 -2.4953 0.1900 0 8
-11.9540 4.8336 -2.4953 0.1900 0 8
-12.0299 4.6415 -2.4953 0.1900 0 8
-12.1027 4.4483 -2.4953 0.1900 0 8
-12.1723 4.2540 -2.4953 0.1900 0 8
-12.2389 4.0585 -2.4953 0.1900 0 8
-12.3023 3.8620 -2.4953 0.1900 0 8
-12.3626 3.6645 -2.4953 0.1900 0 8
-12.4197 3.4661 -2.4953 0.1900 0 8
-12.4736 3.2668 -2.4953 0.1900 0 8
-12.5243 3.0666 -2.4953 0.1900 0 8
-12.5718 2.8657 -2.4953 0.1900 0 8
-12.6161 2.6640 -2.4953 0.1900 0 8
-12.6571 2.4617 -2.4953 0.1900 0 8
-12.6949 2.2587 -2.4953 0.1900 0 8
-12.7294 2.0551 -2.4953 0.1900 0 8
-12.7607 1.8511 -2.4953 0.1900 0 8
-12.7887 1.6465 -2.4953 0.1900 0 8
-12.8134 1.4415 -2.4953 0.1900 0 8
-12.8349 1.2361 -2.4953 0.1900 0 8
-12.8530 1.0305 -2.4953 0.1900 0 8
-12.8679 0.8245 -2.4953 0.1900 0 8
-12.8794 0.6184 -2.4953 0.1900 0 8
-12.8877 0.4121 -2.4953 0.1900 0 8
-12.8926 0.2057 -2.4953 0.1900 0 8
-12.8943 -0.0008 -2.4953 0.1900 0 8
-12.8926 -0.2073 -2.4953 0.1900 0 8
-12.8876 -0.4137 -2.4953 0.1900 0 8
-12.8793 -0.6200 -2.4953 0.1900 0 8
-12.8678 -0.8262 -2.4953 0.1900 0 8
-12.8529 -1.0321 -2.4953 0.1900 0 8
-12.8347 -1.2378 -2.4953 0.1900 0 8
-5.6963 11.7937 -2.6477 0.1981 0 7
-5.8844 11.7010 -2.6477 0.1981 0 7
-6.0710 11.6052 -2.6477 0.1981 0 7
-6.2561 11.5065 -2.6477 0.1981 0 7
-6.4395 11.4049 -2.6477 0.1981 0 6
-6.6213 11.3003 -2.6477 0.1981 0 7
-6.8014 11.1928 -2.6477 0.1981 0 7
-6.9797 11.0825 -2.6477 0.1981 0 7
-7.1563 10.9693 -2.6477 0.1981 0 7
-7.3310 10.8533 -2.6477 0.1981 0 7
-7.5039 10.7345 -2.6477 0.1981 0 7
-7.6748 10.6130 -2.6477 0.1981 0 7
-7.8438 10.4888 -2.6477 0.1981 0 7
-8.0107 10.3618 -2.6477 0.1981 0 7
-8.1756 10.2322 -2.6477 0.1981 0 7
-8.3384 10.1000 -2.6477 0.1981 0 7
-8.4990 9.9652 -2.6477 0.1981 0 7
-8.6575 9.8278 -2.6477 0.1981 0 7
-8.8138 9.6879 -2.6477 0.1981 0 7
-8.9678 9.5456 -2.6477 0.1981 0 7
-9.1195 9.4007 -2.6477 0.1981 0 7
-9.2688 9.2535 -2.6477 0.1981 0 7
-9.4158 9.1039 -2.6477 0.1981 0 7
-9.5604 8.9520 -2.6477 0.1981 0 7
-9.1440 8.2913 -2.4953 0.1981 0 8
-9.2756 8.1439 -2.4953 0.1981 0 8
-9.4048 7.9943 -2.4953 0.1981 0 8
-9.5316 7.8427 -2.4953 0.1981 0 8
-9.6560 7.6891 -2.4953 0.1981 0 8
-9.7779 7.5335 -2.4953 0.1981 0 8
-9.8972 7.3759 -2.4953 0.1981 0 8
-10.0141 7.2165 -2.4953 0.1981 0 8
-10.1283 7.0552 -2.4953 0.1981 0 8
-10.2400 6.8921 -2.4953 0.1981 0 8
-10.3490 6.7273 -2.4953 0.1981 0 8
-10.4554 6.5607 -2.4953 0.1981 0 8
-10.5592 6.3925 -2.4953 0.1981 0 8
-10.6602 6.2226 -2.4953 0.1981 0 8
-10.7584 6.0511 -2.4953 0.1981 0 8
-10.8539 5.8780 -2.4953 0.1981 0 8
-10.9467 5.7035 -2.4953 0.1981 0 8
-11.0366 5.5275 -2.4953 0.1981 0 8
-11.1237 5.3500 -2.4953 0.1981 0 8
-11.2079 5.1712 -2.4953 0.1981 0 8
-11.2893 4.9911 -2.4953 0.1981 0 8
-11.3678 4.8097 -2.4953 0.1981 0 8
-11.4433 4.6271 -2.4953 0.1981 0 8
-11.5159 4.4432 -2.4953 0.1981 0 8
-11.5856 4.2583 -2.4953 0.1981 0 8
-11.6523 4.0722 -2.4953 0.1981 0 8
-11.7160 3.8851 -2.4953 0.1981 0 8
-11.7767 3.6970 -2.4953 0.1981 0 8
-11.8344 3.5080 -2.4953 0.1981 0 8
-11.8891 3.3180 -2.4953 0.1981 0 8
-11.9407 3.1272 -2.4953 0.1981 0 8
-11.9892 2.9356 -2.4953 0.1981 0 8
-12.0347 2.7433 -2.4953 0.1981 0 8
-12.0771 2.5502 -2.4953 0.1981 0 8
-12.1164 2.3565 -2.4953 0.1981 0 8
