ply
format ascii 1.0
element vertex 1334
property float32 x
property float32 y
property float32 z
property float32 CosAngle
property uint32 ObjIdx
property uint32 ObjTag
end_header
-69.5818 71.9018 -2.4953 0.0249 0 14
-70.7317 70.7709 -2.4953 0.0249 0 14
-71.8633 69.6215 -2.4953 0.0249 0 14
-72.9761 68.4541 -2.4953 0.0249 0 14
-74.0701 67.2689 -2.4953 0.0249 0 14
-75.1448 66.0663 -2.4953 0.0249 0 14
-76.2000 64.8464 -2.4953 0.0249 0 14
-77.2353 63.6097 -2.4953 0.0249 0 14
-78.2507 62.3564 -2.4953 0.0249 0 14
-79.2456 61.0870 -2.4953 0.0249 0 14
-80.2200 59.8017 -2.4953 0.0249 0 14
-81.1735 58.5009 -2.4953 0.0249 0 14
-82.1059 57.1848 -2.4953 0.0249 0 14
-83.0170 55.8539 -2.4953 0.0249 0 14
-83.9065 54.5085 -2.4953 0.0249 0 14
-84.7743 53.1489 -2.4953 0.0249 0 14
-85.6199 51.7755 -2.4953 0.0249 0 14
-86.4434 50.3887 -2.4953 0.0249 0 14
-87.2445 48.9887 -2.4953 0.0249 0 14
-88.0228 47.5760 -2.4953 0.0249 0 14
-88.7782 46.1510 -2.4953 0.0249 0 14
-89.5106 44.7140 -2.4953 0.0249 0 14
-90.2197 43.2653 -2.4953 0.0249 0 14
-90.9054 41.8054 -2.4953 0.0249 0 14
-91.5675 40.3347 -2.4953 0.0249 0 14
-92.2058 38.8534 -2.4953 0.0249 0 8
-92.8200 37.3621 -2.4953 0.0249 0 8
-93.4102 35.8611 -2.4953 0.0249 0 8
-93.9761 34.3509 -2.4953 0.0249 0 8
-100.2903 34.8368 -2.6477 0.0249 0 7
-100.8388 33.2156 -2.6477 0.0249 0 7
-101.3611 31.5859 -2.6477 0.0249 0 7
-101.8571 29.9479 -2.6477 0.0249 0 7
-102.3266 28.3022 -2.6477 0.0249 0 7
-102.7695 26.6491 -2.6477 0.0249 0 7
-103.1857 24.9891 -2.6477 0.0249 0 7
-103.5751 23.3226 -2.6477 0.0249 0 7
-103.9376 21.6501 -2.6477 0.0249 0 7
-104.2731 19.9718 -2.6477 0.0249 0 7
-104.5815 18.2884 -2.6477 0.0249 0 7
-104.8627 16.6003 -2.6477 0.0249 0 7
-105.1166 14.9078 -2.6477 0.0249 0 7
-105.3433 13.2115 -2.6477 0.0249 0 7
-105.5425 11.5117 -2.6477 0.0249 0 7
-105.7144 9.8090 -2.6477 0.0249 0 7
-105.8588 8.1037 -2.6477 0.0249 0 7
-105.9756 6.3963 -2.6477 0.0249 0 7
-106.0650 4.6872 -2.6477 0.0249 0 6
-106.1268 2.9769 -2.6477 0.0249 0 6
-106.1609 1.2659 -2.6477 0.0249 0 7
-106.1676 -0.4455 -2.6477 0.0249 0 7
-106.1466 -2.1568 -2.6477 0.0249 0 7
-106.0980 -3.8675 -2.6477 0.0249 0 7
-106.0219 -5.5773 -2.6477 0.0249 0 7
-105.9187 -7.2855 -2.6477 0.0249 0 7
-105.7870 -8.9918 -2.6477 0.0249 0 7
-105.6283 -10.6959 -2.6477 0.0249 0 7
-105.4422 -12.3971 -2.6477 0.0249 0 7
-105.2287 -14.0952 -2.6477 0.0249 0 7
-104.9878 -15.7896 -2.6477 0.0249 0 7
-98.6920 -16.4737 -2.4953 0.0249 0 8
-98.4136 -18.0624 -2.4953 0.0249 0 8
-98.1097 -19.6464 -2.4953 0.0249 0 8
-97.7802 -21.2252 -2.4953 0.0249 0 8
-97.4254 -22.7986 -2.4953 0.0249 0 8
-97.0452 -24.3661 -2.4953 0.0249 0 8
-96.6399 -25.9272 -2.4953 0.0249 0 8
-96.2094 -27.4815 -2.4953 0.0249 0 8
-95.7539 -29.0288 -2.4953 0.0249 0 8
-95.2736 -30.5685 -2.4953 0.0249 0 8
-94.7685 -32.1003 -2.4953 0.0249 0 8
-48.5706 63.0808 -2.6477 0.0332 0 7
-49.5810 62.2897 -2.6477 0.0332 0 7
-50.5787 61.4824 -2.6477 0.0332 0 7
-51.5632 60.6591 -2.6477 0.0332 0 7
-52.5342 59.8200 -2.6477 0.0332 0 7
-53.4917 58.9654 -2.6477 0.0332 0 7
-54.4352 58.0956 -2.6477 0.0332 0 7
-55.3645 57.2106 -2.6477 0.0332 0 7
-56.1786 56.2097 -2.6429 0.0452 0 8
-56.3581 54.6000 -2.6096 0.7138 0 8
-56.3702 52.8771 -2.5704 0.7247 0 8
-56.3819 51.2048 -2.5329 0.7354 0 8
-56.3975 49.5837 -2.4974 0.5555 0 8
-57.1406 48.6268 -2.4953 0.0332 0 8
-57.9170 47.6995 -2.4953 0.0332 0 8
-58.6784 46.7597 -2.4953 0.0332 0 8
-59.4245 45.8077 -2.4953 0.0332 0 8
-60.1551 44.8439 -2.4953 0.0332 0 8
-60.8702 43.8685 -2.4953 0.0332 0 8
-61.5694 42.8816 -2.4953 0.0332 0 8
-62.2526 41.8836 -2.4953 0.0332 0 8
-62.9196 40.8747 -2.4953 0.0332 0 14
-63.5703 39.8552 -2.4953 0.0332 0 14
-64.2045 38.8253 -2.4953 0.0332 0 8
-64.8220 37.7853 -2.4953 0.0332 0 8
-65.4226 36.7355 -2.4953 0.0332 0 8
-66.0063 35.6762 -2.4953 0.0332 0 8
-66.5728 34.6076 -2.4953 0.0332 0 8
-67.1220 33.5300 -2.4953 0.0332 0 8
-68.2236 32.7170 -2.5163 0.4335 0 8
-71.0907 32.6931 -2.6023 0.4191 0 8
-72.8581 32.0934 -2.6477 0.0332 0 7
-73.3659 30.9148 -2.6477 0.0332 0 7
-73.8547 29.7282 -2.6477 0.0332 0 6
-74.3243 28.5339 -2.6477 0.0332 0 7
-74.7746 27.3321 -2.6477 0.0332 0 7
-75.2054 26.1233 -2.6477 0.0332 0 7
-75.6168 24.9076 -2.6477 0.0332 0 7
-76.0084 23.6855 -2.6477 0.0332 0 7
-72.2037 21.2292 -2.5029 0.0332 0 14
-72.5365 20.0627 -2.5029 0.0332 0 14
-72.8505 18.8908 -2.5029 0.0332 0 8
-77.3766 18.7388 -2.6477 0.0332 0 7
-77.6686 17.4890 -2.6477 0.0332 0 7
-77.9404 16.2349 -2.6477 0.0332 0 7
-78.1920 14.9764 -2.6477 0.0332 0 7
-78.4233 13.7140 -2.6477 0.0332 0 7
-78.6341 12.4482 -2.6477 0.0332 0 7
-78.8247 11.1790 -2.6477 0.0332 0 6
-78.9945 9.9070 -2.6477 0.0332 0 7
-74.5884 8.1355 -2.4953 0.0332 0 8
-74.7099 6.9322 -2.4953 0.0332 0 8
-74.8119 5.7270 -2.4953 0.0332 0 8
-74.8945 4.5204 -2.4953 0.0332 0 8
-74.9576 3.3125 -2.4953 0.0332 0 8
-75.0013 2.1038 -2.4953 0.0332 0 8
-75.0254 0.8946 -2.4953 0.0332 0 8
-75.0301 -0.3149 -2.4953 0.0332 0 8
-75.0153 -1.5243 -2.4953 0.0332 0 8
-74.9810 -2.7333 -2.4953 0.0332 0 8
-74.9271 -3.9416 -2.4953 0.0332 0 8
-74.8539 -5.1487 -2.4953 0.0332 0 8
-74.7612 -6.3547 -2.4953 0.0332 0 8
-74.6490 -7.5590 -2.4953 0.0332 0 8
-74.5175 -8.7612 -2.4953 0.0332 0 8
-74.3666 -9.9613 -2.4953 0.0332 0 8
-74.1964 -11.1587 -2.4953 0.0332 0 8
-74.0069 -12.3533 -2.4953 0.0332 0 8
-73.7981 -13.5445 -2.4953 0.0332 0 8
-73.5702 -14.7324 -2.4953 0.0332 0 8
-73.3232 -15.9163 -2.4953 0.0332 0 8
-73.0571 -17.0962 -2.4953 0.0332 0 8
-72.7720 -18.2716 -2.4953 0.0332 0 8
-72.4681 -19.4422 -2.4953 0.0332 0 8
-72.1453 -20.6078 -2.4953 0.0332 0 8
-71.8037 -21.7681 -2.4953 0.0332 0 8
-71.4435 -22.9226 -2.4953 0.0332 0 8
-71.0647 -24.0713 -2.4953 0.0332 0 8
-36.6123 47.5501 -2.4953 0.0415 0 8
-37.3740 46.9537 -2.4953 0.0415 0 8
-40.4546 49.1758 -2.6477 0.0415 0 7
-41.2420 48.5173 -2.6477 0.0415 0 7
-42.0187 47.8462 -2.6477 0.0415 0 7
-42.7845 47.1626 -2.6477 0.0415 0 7
-43.5392 46.4669 -2.6477 0.0415 0 7
-44.2825 45.7591 -2.6477 0.0415 0 7
-45.0143 45.0393 -2.6477 0.0415 0 7
-45.7345 44.3078 -2.6477 0.0415 0 7
-46.4428 43.5649 -2.6477 0.0415 0 7
-47.1390 42.8106 -2.6477 0.0415 0 7
-47.8229 42.0452 -2.6477 0.0415 0 7
-48.4944 41.2689 -2.6477 0.0415 0 7
-49.1533 40.4818 -2.6477 0.0415 0 7
-49.7995 39.6842 -2.6477 0.0415 0 7
-50.4327 38.8764 -2.6477 0.0415 0 7
-51.0528 38.0584 -2.6477 0.0415 0 7
-51.6596 37.2305 -2.6477 0.0415 0 7
-52.2530 36.3930 -2.6477 0.0415 0 6
-52.8329 35.5460 -2.6477 0.0415 0 6
-53.3990 34.6898 -2.6477 0.0415 0 7
-53.9512 33.8247 -2.6477 0.0415 0 7
-54.4894 32.9505 -2.6477 0.0415 0 7
-55.0135 32.0678 -2.6477 0.0415 0 7
-55.5232 31.1769 -2.6477 0.0415 0 7
-56.0186 30.2779 -2.6477 0.0415 0 7
-56.4993 29.3710 -2.6477 0.0415 0 7
-56.9655 28.4564 -2.6477 0.0415 0 6
-57.4167 27.5345 -2.6477 0.0415 0 7
-57.8531 26.6054 -2.6477 0.0415 0 7
-58.2744 25.6694 -2.6477 0.0415 0 7
-58.6806 24.7267 -2.6477 0.0415 0 7
-59.0716 23.7776 -2.6477 0.0415 0 7
-59.4472 22.8224 -2.6477 0.0415 0 7
-59.8073 21.8612 -2.6477 0.0415 0 7
-60.1519 20.8943 -2.6477 0.0415 0 7
-60.4809 19.9220 -2.6477 0.0415 0 7
-60.7942 18.9445 -2.6477 0.0415 0 7
-61.0917 17.9621 -2.6477 0.0415 0 7
-61.3733 16.9751 -2.6477 0.0415 0 7
-61.6389 15.9835 -2.6477 0.0415 0 7
-61.8885 14.9879 -2.6477 0.0415 0 7
-62.1221 13.9884 -2.6477 0.0415 0 7
-62.3395 12.9852 -2.6477 0.0415 0 7
-62.5407 11.9786 -2.6477 0.0415 0 7
-62.7257 10.9690 -2.6477 0.0415 0 7
-62.8943 9.9565 -2.6477 0.0415 0 7
-63.0467 8.9413 -2.6477 0.0415 0 7
-63.0351 7.9055 -2.6415 0.0445 0 8
-60.6937 6.6200 -2.5386 0.4701 0 8
-59.7556 5.5446 -2.4953 0.0415 0 8
-59.8372 4.5807 -2.4953 0.0415 0 8
-59.9033 3.6155 -2.4953 0.0415 0 8
-59.9537 2.6495 -2.4953 0.0415 0 8
-59.9887 1.6827 -2.4953 0.0415 0 8
-60.0080 0.7155 -2.4953 0.0415 0 8
-60.0117 -0.2518 -2.4953 0.0415 0 8
-59.9999 -1.2192 -2.4953 0.0415 0 8
-59.9724 -2.1861 -2.4953 0.0415 0 8
-59.9294 -3.1526 -2.4953 0.0415 0 8
-59.8708 -4.1181 -2.4953 0.0415 0 8
-59.7966 -5.0827 -2.4953 0.0415 0 8
-59.7069 -6.0459 -2.4953 0.0415 0 8
-59.6017 -7.0075 -2.4953 0.0415 0 8
-59.4810 -7.9674 -2.4953 0.0415 0 8
-59.3449 -8.9251 -2.4953 0.0415 0 8
-59.1933 -9.8806 -2.4953 0.0415 0 8
-59.0264 -10.8334 -2.4953 0.0415 0 8
-58.8440 -11.7835 -2.4953 0.0415 0 8
-58.6465 -12.7304 -2.4953 0.0415 0 8
-58.4336 -13.6741 -2.4953 0.0415 0 8
-58.2056 -14.6142 -2.4953 0.0415 0 8
-57.9625 -15.5506 -2.4953 0.0415 0 8
-57.7043 -16.4828 -2.4953 0.0415 0 8
-57.4311 -17.4109 -2.4953 0.0415 0 8
-57.1430 -18.3343 -2.4953 0.0415 0 8
-56.8401 -19.2530 -2.4953 0.0415 0 8
-30.5025 39.6150 -2.4953 0.0498 0 8
-31.1370 39.1182 -2.4953 0.0498 0 8
-31.7636 38.6112 -2.4953 0.0498 0 8
-32.3818 38.0942 -2.4953 0.0498 0 8
-32.9917 37.5672 -2.4953 0.0498 0 8
-33.5930 37.0305 -2.4953 0.0498 0 8
-34.1855 36.4843 -2.4953 0.0498 0 8
-34.7691 35.9285 -2.4953 0.0498 0 8
-37.5024 37.5232 -2.6477 0.0498 0 6
-38.1024 36.9138 -2.6477 0.0498 0 7
-38.6925 36.2948 -2.6477 0.0498 0 6
-39.2724 35.6664 -2.6477 0.0498 0 7
-39.8422 35.0288 -2.6477 0.0498 0 7
-40.4017 34.3820 -2.6477 0.0498 0 7
-40.9507 33.7263 -2.6477 0.0498 0 7
-41.4890 33.0618 -2.6477 0.0498 0 7
-42.0165 32.3887 -2.6477 0.0498 0 7
-42.5332 31.7073 -2.6477 0.0498 0 7
-43.0387 31.0175 -2.6477 0.0498 0 7
-43.5331 30.3198 -2.6477 0.0498 0 7
-44.0162 29.6141 -2.6477 0.0498 0 7
-44.4878 28.9008 -2.6477 0.0498 0 7
-44.9479 28.1800 -2.6477 0.0498 0 6
-45.3963 27.4517 -2.6477 0.0498 0 7
-45.8329 26.7164 -2.6477 0.0498 0 7
-46.2576 25.9741 -2.6477 0.0498 0 7
-46.6702 25.2251 -2.6477 0.0498 0 7
-47.0708 24.4696 -2.6477 0.0498 0 7
-47.4591 23.7076 -2.6477 0.0498 0 7
-47.8351 22.9396 -2.6477 0.0498 0 7
-48.1986 22.1655 -2.6477 0.0498 0 7
-48.5497 21.3857 -2.6477 0.0498 0 7
-48.8881 20.6004 -2.6477 0.0498 0 7
-49.2138 19.8097 -2.6477 0.0498 0 7
-49.5267 19.0138 -2.6477 0.0498 0 7
-49.8268 18.2130 -2.6477 0.0498 0 7
-50.1138 17.4075 -2.6477 0.0498 0 7
-50.3879 16.5974 -2.6477 0.0498 0 7
-50.6489 15.7831 -2.6477 0.0498 0 7
-50.8968 14.9646 -2.6477 0.0498 0 7
-51.1313 14.1423 -2.6477 0.0498 0 7
-51.3527 13.3162 -2.6477 0.0498 0 7
-51.5606 12.4868 -2.6477 0.0498 0 7
-51.7552 11.6540 -2.6477 0.0498 0 7
-51.9363 10.8183 -2.6477 0.0498 0 7
-52.1040 9.9797 -2.6477 0.0498 0 7
-52.2581 9.1385 -2.6477 0.0498 0 7
-52.3986 8.2950 -2.6477 0.0498 0 7
-52.5255 7.4492 -2.6477 0.0498 0 7
-52.6388 6.6016 -2.6477 0.0498 0 7
-52.7383 5.7523 -2.6477 0.0498 0 7
-52.8242 4.9014 -2.6477 0.0498 0 7
-52.8963 4.0493 -2.6477 0.0498 0 6
-52.9547 3.1962 -2.6477 0.0498 0 6
-52.9994 2.3421 -2.6477 0.0498 0 6
-53.0302 1.4875 -2.6477 0.0498 0 7
-53.0473 0.6325 -2.6477 0.0498 0 7
-53.0506 -0.2226 -2.6477 0.0498 0 6
-53.0401 -1.0777 -2.6477 0.0498 0 7
-53.0159 -1.9326 -2.6477 0.0498 0 7
-52.9779 -2.7869 -2.6477 0.0498 0 7
-52.9260 -3.6405 -2.6477 0.0498 0 7
-52.8605 -4.4931 -2.6477 0.0498 0 7
-52.7812 -5.3446 -2.6477 0.0498 0 7
-52.6882 -6.1947 -2.6477 0.0498 0 7
-52.5815 -7.0432 -2.6477 0.0498 0 7
-52.4611 -7.8898 -2.6477 0.0498 0 7
-52.3271 -8.7345 -2.6477 0.0498 0 7
-52.1795 -9.5768 -2.6477 0.0498 0 7
-52.0184 -10.4166 -2.6477 0.0498 0 7
-51.8437 -11.2538 -2.6477 0.0498 0 7
-51.6556 -12.0880 -2.6477 0.0498 0 7
-51.4540 -12.9190 -2.6477 0.0498 0 7
-51.2391 -13.7468 -2.6477 0.0498 0 7
-51.0109 -14.5709 -2.6477 0.0498 0 7
-50.7694 -15.3913 -2.6477 0.0498 0 7
-50.5147 -16.2076 -2.6477 0.0498 0 7
-50.2468 -17.0198 -2.6477 0.0498 0 7
-26.1372 33.9455 -2.4953 0.0581 0 8
-26.6810 33.5198 -2.4953 0.0581 0 8
-27.2178 33.0854 -2.4953 0.0581 0 8
-27.9073 32.8302 -2.5096 0.7603 0 8
-28.8238 32.8213 -2.5441 0.7499 0 8
-29.7742 32.8210 -2.5810 0.7170 0 8
-30.8475 32.9218 -2.6277 0.6076 0 8
-31.6055 32.6593 -2.6471 0.0673 0 8
-32.1353 32.1531 -2.6477 0.0581 0 7
-32.6494 31.6309 -2.6477 0.0581 0 7
-33.1551 31.1005 -2.6477 0.0581 0 7
-33.6521 30.5621 -2.6477 0.0581 0 7
-34.1403 30.0157 -2.6477 0.0581 0 7
-34.6197 29.4615 -2.6477 0.0581 0 7
-35.0901 28.8996 -2.6477 0.0581 0 7
-35.5514 28.3302 -2.6477 0.0581 0 7
-36.0034 27.7535 -2.6477 0.0581 0 7
-36.4461 27.1695 -2.6477 0.0581 0 7
-36.8793 26.5786 -2.6477 0.0581 0 6
-37.3030 25.9806 -2.6477 0.0581 0 7
-37.7169 25.3759 -2.6477 0.0581 0 7
-38.1210 24.7647 -2.6477 0.0581 0 7
-38.5153 24.1470 -2.6477 0.0581 0 7
-38.8995 23.5230 -2.6477 0.0581 0 7
-39.2736 22.8929 -2.6477 0.0581 0 7
-39.6375 22.2569 -2.6477 0.0581 0 7
-39.9911 21.6151 -2.6477 0.0581 0 7
-40.3343 20.9677 -2.6477 0.0581 0 7
-40.6671 20.3148 -2.6477 0.0581 0 7
-40.9893 19.6566 -2.6477 0.0581 0 6
-41.3008 18.9933 -2.6477 0.0581 0 7
-41.6016 18.3251 -2.6477 0.0581 0 7
-41.8916 17.6522 -2.6477 0.0581 0 7
-42.1707 16.9746 -2.6477 0.0581 0 7
-42.4388 16.2927 -2.6477 0.0581 0 7
-42.6959 15.6065 -2.6477 0.0581 0 7
-42.9419 14.9162 -2.6477 0.0581 0 6
-43.1768 14.2221 -2.6477 0.0581 0 7
-43.4004 13.5243 -2.6477 0.0581 0 7
-43.6128 12.8230 -2.6477 0.0581 0 7
-43.8138 12.1183 -2.6477 0.0581 0 7
-44.0034 11.4105 -2.6477 0.0581 0 7
-44.1816 10.6997 -2.6477 0.0581 0 7
-44.3484 9.9862 -2.6477 0.0581 0 7
-44.5036 9.2700 -2.6477 0.0581 0 7
-44.6472 8.5514 -2.6477 0.0581 0 7
-44.7793 7.8306 -2.6477 0.0581 0 7
-44.8997 7.1078 -2.6477 0.0581 0 7
-45.0084 6.3832 -2.6477 0.0581 0 7
-45.1054 5.6569 -2.6477 0.0581 0 7
-45.1908 4.9290 -2.6477 0.0581 0 7
-45.2644 4.2000 -2.6477 0.0581 0 7
-45.3262 3.4698 -2.6477 0.0581 0 7
-45.3762 2.7387 -2.6477 0.0581 0 7
-45.4145 2.0069 -2.6477 0.0581 0 7
-45.4409 1.2747 -2.6477 0.0581 0 7
-45.4556 0.5420 -2.6477 0.0581 0 7
-45.4584 -0.1908 -2.6477 0.0581 0 7
-45.4494 -0.9235 -2.6477 0.0581 0 7
-45.4286 -1.6560 -2.6477 0.0581 0 7
-45.3960 -2.3880 -2.6477 0.0581 0 7
-45.3516 -3.1195 -2.6477 0.0581 0 7
-45.2955 -3.8501 -2.6477 0.0581 0 7
-45.2275 -4.5797 -2.6477 0.0581 0 7
-45.1478 -5.3082 -2.6477 0.0581 0 7
-45.0564 -6.0352 -2.6477 0.0581 0 7
-44.9533 -6.7607 -2.6477 0.0581 0 7
-44.8384 -7.4845 -2.6477 0.0581 0 7
-44.7120 -8.2062 -2.6477 0.0581 0 7
-44.5739 -8.9259 -2.6477 0.0581 0 7
-44.4242 -9.6432 -2.6477 0.0581 0 7
-44.2630 -10.3580 -2.6477 0.0581 0 7
-44.0903 -11.0702 -2.6477 0.0581 0 7
-43.9061 -11.7794 -2.6477 0.0581 0 7
-43.7105 -12.4856 -2.6477 0.0581 0 7
-43.5036 -13.1886 -2.6477 0.0581 0 7
-43.2854 -13.8881 -2.6477 0.0581 0 7
-43.0559 -14.5840 -2.6477 0.0581 0 7
-24.2584 31.5055 -2.6477 0.0664 0 7
-24.7631 31.1104 -2.6477 0.0664 0 7
-25.2614 30.7072 -2.6477 0.0664 0 7
-25.7531 30.2960 -2.6477 0.0664 0 7
-26.2380 29.8769 -2.6477 0.0664 0 6
-26.7163 29.4501 -2.6477 0.0664 0 7
-27.1875 29.0157 -2.6477 0.0664 0 7
-27.6517 28.5737 -2.6477 0.0664 0 7
-28.1087 28.1242 -2.6477 0.0664 0 7
-28.5583 27.6675 -2.6477 0.0664 0 7
-29.0006 27.2035 -2.6477 0.0664 0 7
-29.4353 26.7326 -2.6477 0.0664 0 7
-29.8624 26.2546 -2.6477 0.0664 0 7
-30.2817 25.7698 -2.6477 0.0664 0 7
-30.6932 25.2784 -2.6477 0.0664 0 7
-31.0967 24.7803 -2.6477 0.0664 0 7
-31.4921 24.2759 -2.6477 0.0664 0 7
-31.8793 23.7651 -2.6477 0.0664 0 7
-30.4943 21.9769 -2.5029 0.0664 0 14
-30.8445 21.4825 -2.5029 0.0664 0 14
-31.1868 20.9825 -2.5029 0.0664 0 14
-31.5210 20.4771 -2.5029 0.0664 0 14
-31.8470 19.9663 -2.5029 0.0664 0 14
-32.1647 19.4504 -2.5029 0.0664 0 8
-34.3525 20.0244 -2.6477 0.0664 0 7
-34.6708 19.4680 -2.6477 0.0664 0 7
-34.9801 18.9066 -2.6477 0.0664 0 7
-35.2803 18.3403 -2.6477 0.0664 0 7
-35.5714 17.7693 -2.6477 0.0664 0 7
-35.8532 17.1936 -2.6477 0.0664 0 7
-36.1257 16.6134 -2.6477 0.0664 0 7
-36.3888 16.0289 -2.6477 0.0664 0 7
-36.6424 15.4403 -2.6477 0.0664 0 7
-36.8865 14.8477 -2.6477 0.0664 0 6
-37.1210 14.2512 -2.6477 0.0664 0 7
-37.3459 13.6509 -2.6477 0.0664 0 7
-37.5611 13.0472 -2.6477 0.0664 0 6
-37.7666 12.4400 -2.6477 0.0664 0 7
-37.9622 11.8297 -2.6477 0.0664 0 7
-38.1479 11.2162 -2.6477 0.0664 0 7
-38.3238 10.5999 -2.6477 0.0664 0 7
-38.4896 9.9807 -2.6477 0.0664 0 7
-38.6455 9.3590 -2.6477 0.0664 0 7
-38.7914 8.7349 -2.6477 0.0664 0 7
-38.9271 8.1085 -2.6477 0.0664 0 7
-39.0528 7.4799 -2.6477 0.0664 0 7
-39.1683 6.8494 -2.6477 0.0664 0 7
-39.2736 6.2172 -2.6477 0.0664 0 7
-39.3687 5.5833 -2.6477 0.0664 0 7
-39.4536 4.9480 -2.6477 0.0664 0 7
-39.5282 4.3114 -2.6477 0.0664 0 7
-39.5926 3.6737 -2.6477 0.0664 0 6
-39.6466 3.0350 -2.6477 0.0664 0 6
-39.6904 2.3956 -2.6477 0.0664 0 6
-37.4374 1.6544 -2.4953 0.0664 0 8
-37.4592 1.0508 -2.4953 0.0664 0 8
-37.4712 0.4468 -2.4953 0.0664 0 8
-37.4736 -0.1573 -2.4953 0.0664 0 8
-37.4662 -0.7613 -2.4953 0.0664 0 8
-37.4490 -1.3651 -2.4953 0.0664 0 8
-37.4222 -1.9686 -2.4953 0.0664 0 8
-37.3856 -2.5715 -2.4953 0.0664 0 8
-37.3393 -3.1738 -2.4953 0.0664 0 8
-37.2833 -3.7753 -2.4953 0.0664 0 8
-37.2176 -4.3758 -2.4953 0.0664 0 8
-37.1422 -4.9751 -2.4953 0.0664 0 8
-37.0572 -5.5732 -2.4953 0.0664 0 8
-36.9625 -6.1698 -2.4953 0.0664 0 8
-36.8583 -6.7648 -2.4953 0.0664 0 8
-36.7444 -7.3580 -2.4953 0.0664 0 8
-36.6210 -7.9494 -2.4953 0.0664 0 8
-36.4881 -8.5386 -2.4953 0.0664 0 8
-36.3458 -9.1257 -2.4953 0.0664 0 8
-36.1939 -9.7104 -2.4953 0.0664 0 8
-36.0327 -10.2925 -2.4953 0.0664 0 8
-35.8621 -10.8720 -2.4953 0.0664 0 8
-35.6822 -11.4486 -2.4953 0.0664 0 8
-35.4931 -12.0223 -2.4953 0.0664 0 8
-21.5546 27.9939 -2.6477 0.0747 0 7
-22.0030 27.6429 -2.6477 0.0747 0 7
-22.4458 27.2846 -2.6477 0.0747 0 7
-22.8827 26.9192 -2.6477 0.0747 0 7
-23.3136 26.5469 -2.6477 0.0747 0 7
-23.7385 26.1676 -2.6477 0.0747 0 7
-24.1572 25.7816 -2.6477 0.0747 0 7
-24.5696 25.3889 -2.6477 0.0747 0 7
-24.9757 24.9895 -2.6477 0.0747 0 7
-25.3753 24.5837 -2.6477 0.0747 0 7
-25.7682 24.1714 -2.6477 0.0747 0 7
-26.1545 23.7530 -2.6477 0.0747 0 7
-25.0830 22.0527 -2.5029 0.0747 0 14
-25.4353 21.6455 -2.5029 0.0747 0 14
-25.7808 21.2327 -2.5029 0.0747 0 14
-26.1198 20.8143 -2.5029 0.0747 0 14
-26.4519 20.3906 -2.5029 0.0747 0 14
-26.7771 19.9616 -2.5029 0.0747 0 14
-27.0954 19.5274 -2.5029 0.0747 0 14
-27.4066 19.0881 -2.5029 0.0747 0 14
-28.0574 18.8770 -2.5342 0.5632 0 8
-29.0365 18.8631 -2.5948 0.5501 0 8
-29.9342 18.7671 -2.6477 0.0747 0 7
-30.2328 18.2822 -2.6477 0.0747 0 7
-30.5236 17.7924 -2.6477 0.0747 0 7
-30.8064 17.2981 -2.6477 0.0747 0 6
-31.0812 16.7993 -2.6477 0.0747 0 7
-31.3480 16.2962 -2.6477 0.0747 0 7
-31.6066 15.7887 -2.6477 0.0747 0 7
-31.8570 15.2772 -2.6477 0.0747 0 7
-32.0991 14.7617 -2.6477 0.0747 0 7
-32.3329 14.2424 -2.6477 0.0747 0 7
-32.5583 13.7193 -2.6477 0.0747 0 7
-32.7752 13.1927 -2.6477 0.0747 0 7
-32.9836 12.6627 -2.6477 0.0747 0 7
-33.1834 12.1294 -2.6477 0.0747 0 7
-33.3746 11.5930 -2.6477 0.0747 0 7
-33.5571 11.0535 -2.6477 0.0747 0 7
-33.7309 10.5111 -2.6477 0.0747 0 6
-33.8960 9.9660 -2.6477 0.0747 0 7
-34.0522 9.4184 -2.6477 0.0747 0 7
-34.1996 8.8683 -2.6477 0.0747 0 7
-34.3381 8.3159 -2.6477 0.0747 0 7
-32.4837 7.3145 -2.4953 0.0747 0 8
-32.5974 6.7900 -2.4953 0.0747 0 8
-32.7027 6.2637 -2.4953 0.0747 0 8
-32.7994 5.7357 -2.4953 0.0747 0 8
-32.8876 5.2063 -2.4953 0.0747 0 8
-32.9672 4.6755 -2.4953 0.0747 0 8
-33.0383 4.1434 -2.4953 0.0747 0 8
-33.1008 3.6104 -2.4953 0.0747 0 8
-33.1547 3.0763 -2.4953 0.0747 0 8
-33.1999 2.5415 -2.4953 0.0747 0 8
-33.2366 2.0060 -2.4953 0.0747 0 8
-33.2646 1.4700 -2.4953 0.0747 0 8
-33.2840 0.9336 -2.4953 0.0747 0 8
-33.2948 0.3970 -2.4953 0.0747 0 8
-33.2968 -0.1397 -2.4953 0.0747 0 8
-33.2902 -0.6764 -2.4953 0.0747 0 8
-33.2750 -1.2129 -2.4953 0.0747 0 8
-33.2511 -1.7492 -2.4953 0.0747 0 8
-33.2187 -2.2849 -2.4953 0.0747 0 8
-33.1775 -2.8201 -2.4953 0.0747 0 8
-33.1277 -3.3545 -2.4953 0.0747 0 8
-33.0693 -3.8881 -2.4953 0.0747 0 8
-33.0023 -4.4206 -2.4953 0.0747 0 8
-32.9268 -4.9520 -2.4953 0.0747 0 8
-32.8427 -5.4821 -2.4953 0.0747 0 8
-32.7501 -6.0108 -2.4953 0.0747 0 8
-32.6489 -6.5379 -2.4953 0.0747 0 8
-32.5393 -7.0633 -2.4953 0.0747 0 8
-32.4212 -7.5869 -2.4953 0.0747 0 8
-32.2947 -8.1085 -2.4953 0.0747 0 8
-32.1598 -8.6281 -2.4953 0.0747 0 8
-32.0166 -9.1453 -2.4953 0.0747 0 8
-31.8650 -9.6602 -2.4953 0.0747 0 8
-31.7051 -10.1726 -2.4953 0.0747 0 8
-31.5370 -10.6823 -2.4953 0.0747 0 8
-19.3906 25.1835 -2.6477 0.0830 0 7
-19.7940 24.8676 -2.6477 0.0830 0 7
-20.1923 24.5453 -2.6477 0.0830 0 7
-20.5853 24.2167 -2.6477 0.0830 0 7
-20.9730 23.8817 -2.6477 0.0830 0 7
-20.1875 22.2533 -2.5029 0.0830 0 8
-20.5436 21.9250 -2.5029 0.0830 0 14
-20.8943 21.5910 -2.5029 0.0830 0 14
-21.2396 21.2514 -2.5029 0.0830 0 14
-21.5794 20.9063 -2.5029 0.0830 0 14
-21.9136 20.5557 -2.5029 0.0830 0 14
-22.2421 20.1998 -2.5029 0.0830 0 14
-22.5648 19.8387 -2.5029 0.0830 0 14
-22.8817 19.4724 -2.5029 0.0830 0 14
-23.1926 19.1010 -2.5029 0.0830 0 14
-23.7060 18.8908 -2.5251 0.6279 0 8
-24.4912 18.8792 -2.5760 0.6155 0 8
-25.3088 18.8670 -2.6297 0.6029 0 8
-25.7851 18.5831 -2.6477 0.0830 0 7
-26.0813 18.1650 -2.6477 0.0830 0 7
-26.3707 17.7422 -2.6477 0.0830 0 7
-26.6533 17.3149 -2.6477 0.0830 0 7
-26.9289 16.8830 -2.6477 0.0830 0 7
-27.1976 16.4467 -2.6477 0.0830 0 7
-27.4592 16.0062 -2.6477 0.0830 0 7
-27.7136 15.5615 -2.6477 0.0830 0 7
-27.9608 15.1127 -2.6477 0.0830 0 7
-28.2008 14.6601 -2.6477 0.0830 0 7
-28.4334 14.2036 -2.6477 0.0830 0 7
-28.6587 13.7434 -2.6477 0.0830 0 7
-28.8765 13.2797 -2.6477 0.0830 0 7
-29.0868 12.8125 -2.6477 0.0830 0 7
-29.2896 12.3420 -2.6477 0.0830 0 7
-29.4847 11.8683 -2.6477 0.0830 0 7
-29.6722 11.3915 -2.6477 0.0830 0 6
-29.8519 10.9117 -2.6477 0.0830 0 7
-30.0239 10.4290 -2.6477 0.0830 0 7
-30.1882 9.9438 -2.6477 0.0830 0 7
-30.3445 9.4559 -2.6477 0.0830 0 7
-30.4930 8.9655 -2.6477 0.0830 0 7
-28.8703 7.9851 -2.4953 0.0830 0 8
-28.9952 7.5187 -2.4953 0.0830 0 8
-29.1127 7.0504 -2.4953 0.0830 0 8
-29.2225 6.5801 -2.4953 0.0830 0 8
-29.3248 6.1083 -2.4953 0.0830 0 8
-29.4195 5.6348 -2.4953 0.0830 0 8
-29.5065 5.1599 -2.4953 0.0830 0 8
-29.5858 4.6836 -2.4953 0.0830 0 8
-29.6574 4.2061 -2.4953 0.0830 0 8
-29.7214 3.7275 -2.4953 0.0830 0 8
-29.7776 3.2479 -2.4953 0.0830 0 8
-29.8261 2.7675 -2.4953 0.0830 0 8
-29.8668 2.2864 -2.4953 0.0830 0 8
-29.8998 1.8046 -2.4953 0.0830 0 8
-29.9250 1.3224 -2.4953 0.0830 0 8
-29.9424 0.8399 -2.4953 0.0830 0 8
-29.9521 0.3572 -2.4953 0.0830 0 8
-29.9540 -0.1257 -2.4953 0.0830 0 8
-29.9480 -0.6085 -2.4953 0.0830 0 8
-29.9343 -1.0912 -2.4953 0.0830 0 8
-29.9129 -1.5736 -2.4953 0.0830 0 8
-29.8836 -2.0555 -2.4953 0.0830 0 8
-29.8466 -2.5369 -2.4953 0.0830 0 8
-29.8018 -3.0177 -2.4953 0.0830 0 8
-29.7493 -3.4977 -2.4953 0.0830 0 8
-29.6891 -3.9768 -2.4953 0.0830 0 8
-29.6211 -4.4548 -2.4953 0.0830 0 8
-29.5454 -4.9317 -2.4953 0.0830 0 8
-29.4621 -5.4073 -2.4953 0.0830 0 8
-29.3711 -5.8815 -2.4953 0.0830 0 8
-29.2725 -6.3542 -2.4953 0.0830 0 8
-29.1663 -6.8252 -2.4953 0.0830 0 8
-29.0525 -7.2945 -2.4953 0.0830 0 8
-28.9311 -7.7618 -2.4953 0.0830 0 8
-28.8022 -8.2272 -2.4953 0.0830 0 8
-28.6659 -8.6904 -2.4953 0.0830 0 8
-28.5221 -9.1513 -2.4953 0.0830 0 8
-28.3709 -9.6099 -2.4953 0.0830 0 8
-16.6558 21.6317 -2.5029 0.0913 0 14
-17.0023 21.3604 -2.5029 0.0913 0 14
-17.3445 21.0836 -2.5029 0.0913 0 14
-17.6821 20.8012 -2.5029 0.0913 0 14
-18.0151 20.5135 -2.5029 0.0913 0 14
-18.3434 20.2205 -2.5029 0.0913 0 14
-18.6669 19.9221 -2.5029 0.0913 0 14
-18.9856 19.6187 -2.5029 0.0913 0 14
-19.2994 19.3101 -2.5029 0.0913 0 14
-19.6082 18.9965 -2.5029 0.0913 0 8
-20.1478 18.8993 -2.5326 0.6885 0 8
-20.7993 18.8895 -2.5758 0.6769 0 8
-21.4735 18.8792 -2.6213 0.6652 0 8
-21.9941 18.7171 -2.6477 0.0913 0 7
-22.2930 18.3601 -2.6477 0.0913 0 6
-22.5860 17.9984 -2.6477 0.0913 0 7
-22.8732 17.6320 -2.6477 0.0913 0 7
-23.1544 17.2610 -2.6477 0.0913 0 7
-23.4297 16.8855 -2.6477 0.0913 0 7
-23.6988 16.5056 -2.6477 0.0913 0 7
-23.9618 16.1215 -2.6477 0.0913 0 7
-24.2185 15.7332 -2.6477 0.0913 0 7
-24.4690 15.3407 -2.6477 0.0913 0 7
-24.7131 14.9443 -2.6477 0.0913 0 7
-24.9508 14.5440 -2.6477 0.0913 0 7
-25.1820 14.1400 -2.6477 0.0913 0 7
-25.4066 13.7322 -2.6477 0.0913 0 7
-25.6247 13.3209 -2.6477 0.0913 0 7
-25.8361 12.9061 -2.6477 0.0913 0 7
-26.0407 12.4880 -2.6477 0.0913 0 7
-26.2387 12.0666 -2.6477 0.0913 0 7
-26.4298 11.6421 -2.6477 0.0913 0 7
-26.6140 11.2145 -2.6477 0.0913 0 7
-26.7913 10.7841 -2.6477 0.0913 0 7
-26.9616 10.3509 -2.6477 0.0913 0 7
-27.1250 9.9149 -2.6477 0.0913 0 7
-27.2813 9.4764 -2.6477 0.0913 0 7
-27.4305 9.0354 -2.6477 0.0913 0 7
-25.9855 8.0975 -2.4953 0.0913 0 8
-26.1126 7.6776 -2.4953 0.0913 0 8
-26.2330 7.2557 -2.4953 0.0913 0 8
-26.3465 6.8319 -2.4953 0.0913 0 8
-26.4532 6.4063 -2.4953 0.0913 0 8
-26.5531 5.9791 -2.4953 0.0913 0 8
-26.6460 5.5503 -2.4953 0.0913 0 8
-26.7320 5.1201 -2.4953 0.0913 0 8
-26.8111 4.6885 -2.4953 0.0913 0 8
-26.8831 4.2557 -2.4953 0.0913 0 8
-26.9483 3.8218 -2.4953 0.0913 0 8
-27.0064 3.3870 -2.4953 0.0913 0 8
-27.0574 2.9512 -2.4953 0.0913 0 8
-27.1015 2.5147 -2.4953 0.0913 0 8
-27.1385 2.0775 -2.4953 0.0913 0 8
-27.1685 1.6398 -2.4953 0.0913 0 8
-27.1914 1.2016 -2.4953 0.0913 0 8
-27.2072 0.7632 -2.4953 0.0913 0 8
-27.2160 0.3245 -2.4953 0.0913 0 8
-27.2177 -0.1142 -2.4953 0.0913 0 8
-27.2123 -0.5529 -2.4953 0.0913 0 8
-27.1998 -0.9915 -2.4953 0.0913 0 8
-27.1803 -1.4298 -2.4953 0.0913 0 8
-27.1538 -1.8677 -2.4953 0.0913 0 8
-27.1201 -2.3052 -2.4953 0.0913 0 8
-27.0794 -2.7421 -2.4953 0.0913 0 8
-27.0317 -3.1782 -2.4953 0.0913 0 8
-26.9770 -3.6135 -2.4953 0.0913 0 8
-26.9152 -4.0479 -2.4953 0.0913 0 8
-26.8465 -4.4812 -2.4953 0.0913 0 8
-26.7708 -4.9134 -2.4953 0.0913 0 8
-26.6881 -5.3443 -2.4953 0.0913 0 8
-26.5985 -5.7738 -2.4953 0.0913 0 8
-26.5019 -6.2017 -2.4953 0.0913 0 8
-26.3985 -6.6281 -2.4953 0.0913 0 8
-26.2883 -7.0528 -2.4953 0.0913 0 8
-26.1712 -7.4756 -2.4953 0.0913 0 8
-26.0473 -7.8965 -2.4953 0.0913 0 8
-25.9166 -8.3153 -2.4953 0.0913 0 8
-25.7792 -8.7320 -2.4953 0.0913 0 8
-15.2597 19.8185 -2.5029 0.0996 0 14
-15.5772 19.5700 -2.5029 0.0996 0 14
-15.8906 19.3163 -2.5029 0.0996 0 14
-16.1999 19.0577 -2.5029 0.0996 0 8
-16.6084 18.9118 -2.5186 0.7551 0 8
-17.1489 18.9037 -2.5540 0.7446 0 8
-17.7048 18.8953 -2.5911 0.7339 0 8
-18.2771 18.8865 -2.6299 0.7231 0 8
-18.7045 18.7149 -2.6477 0.0996 0 7
-19.0038 18.4109 -2.6477 0.0996 0 6
-19.2981 18.1022 -2.6477 0.0996 0 7
-19.5873 17.7888 -2.6477 0.0996 0 7
-19.8715 17.4708 -2.6477 0.0996 0 7
-20.1505 17.1482 -2.6477 0.0996 0 7
-20.4244 16.8212 -2.6477 0.0996 0 7
-20.6929 16.4897 -2.6477 0.0996 0 7
-20.9560 16.1540 -2.6477 0.0996 0 7
-21.2136 15.8142 -2.6477 0.0996 0 7
-21.4658 15.4702 -2.6477 0.0996 0 7
-21.7124 15.1221 -2.6477 0.0996 0 7
-21.9533 14.7702 -2.6477 0.0996 0 7
-22.1885 14.4144 -2.6477 0.0996 0 7
-22.4180 14.0548 -2.6477 0.0996 0 7
-22.6416 13.6917 -2.6477 0.0996 0 7
-22.8594 13.3249 -2.6477 0.0996 0 7
-23.0712 12.9547 -2.6477 0.0996 0 7
-23.2770 12.5812 -2.6477 0.0996 0 7
-23.4768 12.2043 -2.6477 0.0996 0 7
-23.6705 11.8243 -2.6477 0.0996 0 7
-23.8580 11.4412 -2.6477 0.0996 0 7
-24.0393 11.0552 -2.6477 0.0996 0 7
-24.2144 10.6662 -2.6477 0.0996 0 7
-24.3832 10.2745 -2.6477 0.0996 0 7
-24.5456 9.8802 -2.6477 0.0996 0 7
-24.7017 9.4832 -2.6477 0.0996 0 7
-24.8514 9.0838 -2.6477 0.0996 0 7
-23.5559 8.1823 -2.4953 0.0996 0 8
-23.6847 7.8016 -2.4953 0.0996 0 8
-23.8074 7.4188 -2.4953 0.0996 0 8
-23.9239 7.0341 -2.4953 0.0996 0 8
-24.0341 6.6475 -2.4953 0.0996 0 8
-24.1381 6.2592 -2.4953 0.0996 0 8
-24.2359 5.8694 -2.4953 0.0996 0 8
-24.3274 5.4779 -2.4953 0.0996 0 8
-24.4125 5.0851 -2.4953 0.0996 0 8
-24.4913 4.6909 -2.4953 0.0996 0 8
-24.5637 4.2955 -2.4953 0.0996 0 8
-24.6298 3.8990 -2.4953 0.0996 0 8
-24.6894 3.5015 -2.4953 0.0996 0 8
-24.7427 3.1031 -2.4953 0.0996 0 8
-24.7895 2.7038 -2.4953 0.0996 0 8
-24.8298 2.3039 -2.4953 0.0996 0 8
-24.8638 1.9034 -2.4953 0.0996 0 8
-24.8912 1.5023 -2.4953 0.0996 0 8
-24.9122 1.1009 -2.4953 0.0996 0 8
-24.9267 0.6992 -2.4953 0.0996 0 8
-24.9347 0.2973 -2.4953 0.0996 0 8
-24.9363 -0.1046 -2.4953 0.0996 0 8
-24.9313 -0.5066 -2.4953 0.0996 0 8
-24.9200 -0.9084 -2.4953 0.0996 0 8
-24.9021 -1.3100 -2.4953 0.0996 0 8
-24.8777 -1.7112 -2.4953 0.0996 0 8
-24.8469 -2.1120 -2.4953 0.0996 0 8
-24.8096 -2.5122 -2.4953 0.0996 0 8
-24.7659 -2.9118 -2.4953 0.0996 0 8
-24.7158 -3.3106 -2.4953 0.0996 0 8
-24.6592 -3.7086 -2.4953 0.0996 0 8
-24.5962 -4.1056 -2.4953 0.0996 0 8
-24.5268 -4.5015 -2.4953 0.0996 0 8
-24.4511 -4.8963 -2.4953 0.0996 0 8
-24.3690 -5.2898 -2.4953 0.0996 0 8
-24.2805 -5.6819 -2.4953 0.0996 0 8
-24.1858 -6.0726 -2.4953 0.0996 0 8
-24.0848 -6.4616 -2.4953 0.0996 0 8
-23.9775 -6.8490 -2.4953 0.0996 0 8
-23.8640 -7.2346 -2.4953 0.0996 0 8
-23.7443 -7.6183 -2.4953 0.0996 0 8
-23.6184 -8.0001 -2.4953 0.0996 0 8
-14.5561 18.9046 -2.5879 0.7958 0 8
-15.0418 18.8974 -2.6198 0.7862 0 8
-15.5078 18.8509 -2.6477 0.1078 0 7
-15.8096 18.5985 -2.6477 0.1078 0 7
-16.1074 18.3412 -2.6477 0.1078 0 6
-16.4009 18.0792 -2.6477 0.1078 0 7
-16.6902 17.8125 -2.6477 0.1078 0 7
-16.9751 17.5412 -2.6477 0.1078 0 7
-17.2557 17.2653 -2.6477 0.1078 0 7
-17.5318 16.9849 -2.6477 0.1078 0 7
-17.8033 16.7001 -2.6477 0.1078 0 7
-18.0701 16.4109 -2.6477 0.1078 0 7
-18.3323 16.1175 -2.6477 0.1078 0 7
-18.5897 15.8199 -2.6477 0.1078 0 7
-18.8423 15.5182 -2.6477 0.1078 0 7
-19.0900 15.2125 -2.6477 0.1078 0 7
-19.3328 14.9028 -2.6477 0.1078 0 7
-19.5705 14.5892 -2.6477 0.1078 0 7
-19.8031 14.2719 -2.6477 0.1078 0 7
-20.0306 13.9508 -2.6477 0.1078 0 7
-20.2528 13.6261 -2.6477 0.1078 0 7
-20.4698 13.2979 -2.6477 0.1078 0 7
-20.6815 12.9662 -2.6477 0.1078 0 7
-20.8878 12.6312 -2.6477 0.1078 0 7
-21.0887 12.2928 -2.6477 0.1078 0 7
-21.2841 11.9513 -2.6477 0.1078 0 7
-21.4740 11.6066 -2.6477 0.1078 0 7
-21.6583 11.2590 -2.6477 0.1078 0 7
-21.8370 10.9084 -2.6477 0.1078 0 7
-22.0100 10.5550 -2.6477 0.1078 0 7
-22.1773 10.1988 -2.6477 0.1078 0 7
-22.3388 9.8400 -2.6477 0.1078 0 7
-22.4945 9.4787 -2.6477 0.1078 0 7
-22.6444 9.1149 -2.6477 0.1078 0 7
-21.4954 8.2523 -2.4974 0.3300 0 8
-21.6068 7.8978 -2.4953 0.1078 0 8
-21.7313 7.5486 -2.4953 0.1078 0 8
-21.8501 7.1973 -2.4953 0.1078 0 8
-21.9633 6.8441 -2.4953 0.1078 0 8
-22.0708 6.4892 -2.4953 0.1078 0 8
-22.1725 6.1326 -2.4953 0.1078 0 8
-22.2685 5.7744 -2.4953 0.1078 0 8
-22.3586 5.4147 -2.4953 0.1078 0 8
-22.4430 5.0536 -2.4953 0.1078 0 8
-22.5216 4.6912 -2.4953 0.1078 0 8
-22.5942 4.3276 -2.4953 0.1078 0 8
-22.6611 3.9628 -2.4953 0.1078 0 8
-22.7220 3.5970 -2.4953 0.1078 0 8
-22.7770 3.2303 -2.4953 0.1078 0 8
-22.8261 2.8627 -2.4953 0.1078 0 8
-22.8693 2.4944 -2.4953 0.1078 0 8
-22.9066 2.1254 -2.4953 0.1078 0 8
-22.9378 1.7559 -2.4953 0.1078 0 8
-22.9632 1.3860 -2.4953 0.1078 0 8
-22.9825 1.0156 -2.4953 0.1078 0 8
-22.9959 0.6451 -2.4953 0.1078 0 8
-23.0033 0.2743 -2.4953 0.1078 0 8
-23.0048 -0.0965 -2.4953 0.1078 0 8
-23.0002 -0.4674 -2.4953 0.1078 0 8
-22.9897 -0.8380 -2.4953 0.1078 0 8
-22.9732 -1.2085 -2.4953 0.1078 0 8
-22.9507 -1.5786 -2.4953 0.1078 0 8
-22.9223 -1.9484 -2.4953 0.1078 0 8
-22.8879 -2.3176 -2.4953 0.1078 0 8
-22.8476 -2.6863 -2.4953 0.1078 0 8
-22.8013 -3.0542 -2.4953 0.1078 0 8
-22.7491 -3.4213 -2.4953 0.1078 0 8
-22.6910 -3.7876 -2.4953 0.1078 0 8
-22.6270 -4.1529 -2.4953 0.1078 0 8
-22.5571 -4.5170 -2.4953 0.1078 0 8
-22.4814 -4.8801 -2.4953 0.1078 0 8
-22.3998 -5.2418 -2.4953 0.1078 0 8
-22.3124 -5.6022 -2.4953 0.1078 0 8
-22.2192 -5.9611 -2.4953 0.1078 0 8
-22.1202 -6.3185 -2.4953 0.1078 0 8
-22.0155 -6.6742 -2.4953 0.1078 0 8
-21.9051 -7.0282 -2.4953 0.1078 0 8
-21.7889 -7.3804 -2.4953 0.1078 0 8
-13.8197 17.9483 -2.6477 0.1161 0 7
-14.1072 17.7232 -2.6477 0.1161 0 7
-14.3911 17.4935 -2.6477 0.1161 0 7
-14.6712 17.2592 -2.6477 0.1161 0 7
-14.9475 17.0205 -2.6477 0.1161 0 7
-15.2199 16.7774 -2.6477 0.1161 0 7
-15.4884 16.5298 -2.6477 0.1161 0 7
-15.7528 16.2780 -2.6477 0.1161 0 7
-16.0131 16.0220 -2.6477 0.1161 0 7
-16.2693 15.7618 -2.6477 0.1161 0 7
-16.5213 15.4975 -2.6477 0.1161 0 7
-16.7689 15.2292 -2.6477 0.1161 0 7
-17.0122 14.9569 -2.6477 0.1161 0 7
-17.2511 14.6807 -2.6477 0.1161 0 7
-17.4855 14.4008 -2.6477 0.1161 0 7
-17.7154 14.1170 -2.6477 0.1161 0 7
-17.9406 13.8296 -2.6477 0.1161 0 7
-18.1612 13.5387 -2.6477 0.1161 0 7
-18.3771 13.2442 -2.6477 0.1161 0 7
-18.5882 12.9462 -2.6477 0.1161 0 7
-18.7944 12.6449 -2.6477 0.1161 0 7
-18.9958 12.3403 -2.6477 0.1161 0 7
-19.1923 12.0325 -2.6477 0.1161 0 7
-19.3837 11.7216 -2.6477 0.1161 0 7
-19.5702 11.4076 -2.6477 0.1161 0 6
-19.7515 11.0907 -2.6477 0.1161 0 7
-19.9277 10.7709 -2.6477 0.1161 0 7
-20.0987 10.4483 -2.6477 0.1161 0 7
-20.2645 10.1229 -2.6477 0.1161 0 7
-20.4251 9.7950 -2.6477 0.1161 0 7
-20.5803 9.4644 -2.6477 0.1161 0 7
-20.7302 9.1315 -2.6477 0.1161 0 7
-19.6732 8.2898 -2.4953 0.1161 0 8
-19.8042 7.9716 -2.4953 0.1161 0 8
-19.9301 7.6514 -2.4953 0.1161 0 8
-20.0509 7.3291 -2.4953 0.1161 0 8
-20.1664 7.0050 -2.4953 0.1161 0 8
-20.2767 6.6790 -2.4953 0.1161 0 8
-20.3817 6.3513 -2.4953 0.1161 0 8
-20.4815 6.0219 -2.4953 0.1161 0 8
-20.5759 5.6910 -2.4953 0.1161 0 8
-20.6649 5.3586 -2.4953 0.1161 0 8
-20.7486 5.0248 -2.4953 0.1161 0 8
-20.8269 4.6897 -2.4953 0.1161 0 8
-20.8998 4.3534 -2.4953 0.1161 0 8
-20.9673 4.0159 -2.4953 0.1161 0 8
-21.0293 3.6774 -2.4953 0.1161 0 8
-21.0858 3.3380 -2.4953 0.1161 0 8
-21.1369 2.9977 -2.4953 0.1161 0 8
-21.1825 2.6566 -2.4953 0.1161 0 8
-21.2225 2.3148 -2.4953 0.1161 0 8
-21.2571 1.9724 -2.4953 0.1161 0 8
-21.2861 1.6295 -2.4953 0.1161 0 8
-21.3096 1.2862 -2.4953 0.1161 0 8
-21.3276 0.9425 -2.4953 0.1161 0 8
-21.3400 0.5986 -2.4953 0.1161 0 8
-21.3469 0.2545 -2.4953 0.1161 0 8
-21.3482 -0.0896 -2.4953 0.1161 0 8
-21.3440 -0.4337 -2.4953 0.1161 0 8
-21.3342 -0.7777 -2.4953 0.1161 0 8
-21.3189 -1.1215 -2.4953 0.1161 0 8
-21.2981 -1.4650 -2.4953 0.1161 0 8
-21.2717 -1.8081 -2.4953 0.1161 0 8
-21.2398 -2.1507 -2.4953 0.1161 0 8
-21.2024 -2.4928 -2.4953 0.1161 0 8
-21.1594 -2.8343 -2.4953 0.1161 0 8
-21.1110 -3.1750 -2.4953 0.1161 0 8
-21.0571 -3.5149 -2.4953 0.1161 0 8
-20.9977 -3.8538 -2.4953 0.1161 0 8
-20.9328 -4.1918 -2.4953 0.1161 0 8
-20.8625 -4.5286 -2.4953 0.1161 0 8
-20.7868 -4.8643 -2.4953 0.1161 0 8
-20.7057 -5.1988 -2.4953 0.1161 0 8
-20.6193 -5.5319 -2.4953 0.1161 0 8
-20.5274 -5.8635 -2.4953 0.1161 0 8
-20.4302 -6.1936 -2.4953 0.1161 0 8
-20.3277 -6.5221 -2.4953 0.1161 0 8
-20.2199 -6.8490 -2.4953 0.1161 0 8
-12.8897 16.7405 -2.6477 0.1243 0 7
-13.1579 16.5305 -2.6477 0.1243 0 7
-13.4226 16.3163 -2.6477 0.1243 0 7
-13.6839 16.0978 -2.6477 0.1243 0 7
-13.9416 15.8751 -2.6477 0.1243 0 7
-14.1957 15.6483 -2.6477 0.1243 0 7
-14.4461 15.4175 -2.6477 0.1243 0 7
-14.6927 15.1826 -2.6477 0.1243 0 7
-14.9356 14.9438 -2.6477 0.1243 0 6
-15.1745 14.7011 -2.6477 0.1243 0 7
-15.4095 14.4546 -2.6477 0.1243 0 7
-15.6405 14.2044 -2.6477 0.1243 0 7
-15.8674 13.9504 -2.6477 0.1243 0 7
-16.0902 13.6928 -2.6477 0.1243 0 7
-16.3089 13.4317 -2.6477 0.1243 0 7
-16.5232 13.1670 -2.6477 0.1243 0 7
-16.7333 12.8990 -2.6477 0.1243 0 7
-16.9391 12.6276 -2.6477 0.1243 0 7
-17.1404 12.3529 -2.6477 0.1243 0 7
-17.3373 12.0750 -2.6477 0.1243 0 7
-17.5297 11.7940 -2.6477 0.1243 0 7
-17.7175 11.5099 -2.6477 0.1243 0 7
-17.9008 11.2228 -2.6477 0.1243 0 7
-18.0793 10.9328 -2.6477 0.1243 0 7
-18.2532 10.6400 -2.6477 0.1243 0 7
-18.4223 10.3444 -2.6477 0.1243 0 7
-18.5867 10.0461 -2.6477 0.1243 0 7
-18.7462 9.7452 -2.6477 0.1243 0 7
-18.9009 9.4417 -2.6477 0.1243 0 7
-19.0506 9.1358 -2.6477 0.1243 0 7
-18.0905 8.3194 -2.4953 0.1243 0 8
-18.2222 8.0267 -2.4953 0.1243 0 8
-18.3493 7.7320 -2.4953 0.1243 0 8
-18.4715 7.4352 -2.4953 0.1243 0 8
-18.5890 7.1365 -2.4953 0.1243 0 8
-18.7016 6.8359 -2.4953 0.1243 0 8
-18.8094 6.5336 -2.4953 0.1243 0 8
-18.9122 6.2295 -2.4953 0.1243 0 8
-19.0102 5.9239 -2.4953 0.1243 0 8
-19.1032 5.6167 -2.4953 0.1243 0 8
-19.1912 5.3080 -2.4953 0.1243 0 8
-19.2743 4.9980 -2.4953 0.1243 0 8
-19.3524 4.6867 -2.4953 0.1243 0 8
-19.4254 4.3741 -2.4953 0.1243 0 8
-19.4934 4.0604 -2.4953 0.1243 0 8
-19.5563 3.7457 -2.4953 0.1243 0 8
-19.6142 3.4300 -2.4953 0.1243 0 8
-19.6669 3.1134 -2.4953 0.1243 0 8
-19.7145 2.7959 -2.4953 0.1243 0 8
-19.7570 2.4778 -2.4953 0.1243 0 8
-19.7944 2.1590 -2.4953 0.1243 0 8
-19.8266 1.8397 -2.4953 0.1243 0 8
-19.8537 1.5198 -2.4953 0.1243 0 8
-19.8756 1.1996 -2.4953 0.1243 0 8
-19.8924 0.8791 -2.4953 0.1243 0 8
-19.9040 0.5583 -2.4953 0.1243 0 8
-19.9104 0.2374 -2.4953 0.1243 0 8
-19.9116 -0.0836 -2.4953 0.1243 0 8
-19.9077 -0.4045 -2.4953 0.1243 0 8
-19.8986 -0.7254 -2.4953 0.1243 0 8
-19.8843 -1.0460 -2.4953 0.1243 0 8
-19.8649 -1.3664 -2.4953 0.1243 0 8
-19.8403 -1.6864 -2.4953 0.1243 0 8
-19.8105 -2.0060 -2.4953 0.1243 0 8
-19.7756 -2.3251 -2.4953 0.1243 0 8
-19.7355 -2.6435 -2.4953 0.1243 0 8
-19.6904 -2.9613 -2.4953 0.1243 0 8
-19.6401 -3.2783 -2.4953 0.1243 0 8
-19.5847 -3.5945 -2.4953 0.1243 0 8
-19.5242 -3.9097 -2.4953 0.1243 0 8
-19.4586 -4.2239 -2.4953 0.1243 0 8
-19.3880 -4.5370 -2.4953 0.1243 0 8
-19.3124 -4.8489 -2.4953 0.1243 0 8
-19.2317 -5.1596 -2.4953 0.1243 0 8
-19.1460 -5.4689 -2.4953 0.1243 0 8
-19.0554 -5.7768 -2.4953 0.1243 0 8
-18.9598 -6.0832 -2.4953 0.1243 0 8
-18.8593 -6.3881 -2.4953 0.1243 0 8
-12.0754 15.6829 -2.6477 0.1326 0 7
-12.3267 15.4862 -2.6477 0.1326 0 7
-12.5747 15.2855 -2.6477 0.1326 0 7
-12.8194 15.0808 -2.6477 0.1326 0 7
-13.0609 14.8722 -2.6477 0.1326 0 7
-13.2989 14.6598 -2.6477 0.1326 0 7
-13.5335 14.4435 -2.6477 0.1326 0 7
-13.7645 14.2235 -2.6477 0.1326 0 7
-13.9920 13.9998 -2.6477 0.1326 0 7
-14.2159 13.7724 -2.6477 0.1326 0 7
-14.4360 13.5415 -2.6477 0.1326 0 7
-14.6524 13.3070 -2.6477 0.1326 0 7
-14.8650 13.0691 -2.6477 0.1326 0 7
-15.0737 12.8278 -2.6477 0.1326 0 7
-15.2786 12.5832 -2.6477 0.1326 0 7
-15.4794 12.3352 -2.6477 0.1326 0 7
-15.6762 12.0841 -2.6477 0.1326 0 7
-15.8690 11.8299 -2.6477 0.1326 0 7
-16.0576 11.5725 -2.6477 0.1326 0 7
-16.2420 11.3122 -2.6477 0.1326 0 7
-16.4223 11.0489 -2.6477 0.1326 0 7
-16.5983 10.7828 -2.6477 0.1326 0 7
-16.7699 10.5138 -2.6477 0.1326 0 7
-16.9372 10.2421 -2.6477 0.1326 0 7
-17.1001 9.9678 -2.6477 0.1326 0 7
-17.2585 9.6909 -2.6477 0.1326 0 7
-17.4125 9.4114 -2.6477 0.1326 0 7
-17.5619 9.1295 -2.6477 0.1326 0 7
-16.6876 8.3361 -2.4953 0.1326 0 8
-16.8198 8.0660 -2.4953 0.1326 0 8
-16.9476 7.7938 -2.4953 0.1326 0 8
-17.0711 7.5197 -2.4953 0.1326 0 8
-17.1901 7.2435 -2.4953 0.1326 0 8
-17.3046 6.9655 -2.4953 0.1326 0 8
-17.4146 6.6857 -2.4953 0.1326 0 8
-17.5201 6.4041 -2.4953 0.1326 0 8
-17.6211 6.1208 -2.4953 0.1326 0 8
-17.7175 5.8360 -2.4953 0.1326 0 8
-17.8092 5.5497 -2.4953 0.1326 0 8
-17.8964 5.2619 -2.4953 0.1326 0 8
-17.9789 4.9727 -2.4953 0.1326 0 8
-18.0567 4.6823 -2.4953 0.1326 0 8
-18.1298 4.3906 -2.4953 0.1326 0 8
-18.1982 4.0978 -2.4953 0.1326 0 8
-18.2619 3.8039 -2.4953 0.1326 0 8
-18.3209 3.5091 -2.4953 0.1326 0 8
-18.3750 3.2133 -2.4953 0.1326 0 8
-18.4244 2.9167 -2.4953 0.1326 0 8
-18.4691 2.6193 -2.4953 0.1326 0 8
-18.5089 2.3213 -2.4953 0.1326 0 8
-18.5439 2.0226 -2.4953 0.1326 0 8
-18.5741 1.7234 -2.4953 0.1326 0 8
-18.5995 1.4238 -2.4953 0.1326 0 8
-18.6200 1.1238 -2.4953 0.1326 0 8
-18.6357 0.8235 -2.4953 0.1326 0 8
-18.6466 0.5231 -2.4953 0.1326 0 8
-18.6526 0.2224 -2.4953 0.1326 0 8
-18.6537 -0.0783 -2.4953 0.1326 0 8
-18.6500 -0.3790 -2.4953 0.1326 0 8
-18.6415 -0.6795 -2.4953 0.1326 0 8
-18.6281 -0.9799 -2.4953 0.1326 0 8
-18.6099 -1.2801 -2.4953 0.1326 0 8
-18.5869 -1.5799 -2.4953 0.1326 0 8
-18.5590 -1.8793 -2.4953 0.1326 0 8
-18.5263 -2.1782 -2.4953 0.1326 0 8
-18.4888 -2.4765 -2.4953 0.1326 0 8
-18.4464 -2.7742 -2.4953 0.1326 0 8
-18.3993 -3.0712 -2.4953 0.1326 0 8
-18.3474 -3.3674 -2.4953 0.1326 0 8
-18.2908 -3.6627 -2.4953 0.1326 0 8
-18.2293 -3.9571 -2.4953 0.1326 0 8
-18.1632 -4.2504 -2.4953 0.1326 0 8
-18.0923 -4.5426 -2.4953 0.1326 0 8
-18.0168 -4.8337 -2.4953 0.1326 0 8
-17.9365 -5.1234 -2.4953 0.1326 0 8
-17.8516 -5.4119 -2.4953 0.1326 0 8
-17.7620 -5.6989 -2.4953 0.1326 0 8
-17.6679 -5.9845 -2.4953 0.1326 0 8
-11.3564 14.7491 -2.6477 0.1408 0 7
-11.5927 14.5641 -2.6477 0.1408 0 7
-11.8259 14.3753 -2.6477 0.1408 0 7
-12.0561 14.1828 -2.6477 0.1408 0 7
-12.2832 13.9867 -2.6477 0.1408 0 7
-12.5070 13.7868 -2.6477 0.1408 0 7
-12.7276 13.5835 -2.6477 0.1408 0 7
-12.9449 13.3765 -2.6477 0.1408 0 7
-13.1589 13.1661 -2.6477 0.1408 0 7
-13.3694 12.9523 -2.6477 0.1408 0 7
-13.5764 12.7351 -2.6477 0.1408 0 7
-13.7799 12.5146 -2.6477 0.1408 0 7
-13.9799 12.2909 -2.6477 0.1408 0 7
-14.1762 12.0640 -2.6477 0.1408 0 7
-14.3688 11.8339 -2.6477 0.1408 0 7
-14.5577 11.6007 -2.6477 0.1408 0 7
-14.7428 11.3646 -2.6477 0.1408 0 6
-14.9240 11.1254 -2.6477 0.1408 0 7
-15.1014 10.8834 -2.6477 0.1408 0 7
-15.2749 10.6386 -2.6477 0.1408 0 7
-15.4444 10.3910 -2.6477 0.1408 0 7
-15.6099 10.1407 -2.6477 0.1408 0 7
-15.7713 9.8878 -2.6477 0.1408 0 7
-15.9287 9.6323 -2.6477 0.1408 0 7
-16.0819 9.3743 -2.6477 0.1408 0 7
-16.2309 9.1138 -2.6477 0.1408 0 7
-15.4331 8.3415 -2.4953 0.1408 0 8
-15.5655 8.0917 -2.4953 0.1408 0 8
-15.6939 7.8397 -2.4953 0.1408 0 8
-15.8183 7.5857 -2.4953 0.1408 0 8
-15.9385 7.3298 -2.4953 0.1408 0 8
-16.0546 7.0719 -2.4953 0.1408 0 8
-16.1665 6.8122 -2.4953 0.1408 0 8
-16.2742 6.5507 -2.4953 0.1408 0 8
-16.3777 6.2876 -2.4953 0.1408 0 8
-16.4769 6.0227 -2.4953 0.1408 0 8
-16.5718 5.7564 -2.4953 0.1408 0 8
-16.6625 5.4885 -2.4953 0.1408 0 8
-16.7488 5.2192 -2.4953 0.1408 0 8
-16.8307 4.9486 -2.4953 0.1408 0 8
-16.9083 4.6766 -2.4953 0.1408 0 8
-16.9815 4.4035 -2.4953 0.1408 0 8
-17.0503 4.1292 -2.4953 0.1408 0 8
-17.1146 3.8538 -2.4953 0.1408 0 8
-17.1745 3.5774 -2.4953 0.1408 0 8
-17.2299 3.3001 -2.4953 0.1408 0 8
-17.2809 3.0219 -2.4953 0.1408 0 8
-17.3274 2.7430 -2.4953 0.1408 0 8
-17.3693 2.4633 -2.4953 0.1408 0 8
-17.4068 2.1831 -2.4953 0.1408 0 8
-17.4397 1.9022 -2.4953 0.1408 0 8
-17.4681 1.6208 -2.4953 0.1408 0 8
-17.4919 1.3390 -2.4953 0.1408 0 8
-17.5113 1.0569 -2.4953 0.1408 0 8
-17.5260 0.7745 -2.4953 0.1408 0 8
-17.5362 0.4919 -2.4953 0.1408 0 8
-17.5419 0.2092 -2.4953 0.1408 0 8
-17.5430 -0.0736 -2.4953 0.1408 0 8
-17.5395 -0.3564 -2.4953 0.1408 0 8
-17.5315 -0.6391 -2.4953 0.1408 0 8
-17.5189 -0.9216 -2.4953 0.1408 0 8
-17.5018 -1.2038 -2.4953 0.1408 0 8
-17.4801 -1.4858 -2.4953 0.1408 0 8
-17.4539 -1.7674 -2.4953 0.1408 0 8
-17.4231 -2.0485 -2.4953 0.1408 0 8
-17.3878 -2.3291 -2.4953 0.1408 0 8
-17.3480 -2.6090 -2.4953 0.1408 0 8
-17.3037 -2.8883 -2.4953 0.1408 0 8
-17.2549 -3.1669 -2.4953 0.1408 0 8
-17.2016 -3.4446 -2.4953 0.1408 0 8
-17.1439 -3.7214 -2.4953 0.1408 0 8
-17.0817 -3.9973 -2.4953 0.1408 0 8
-17.0150 -4.2721 -2.4953 0.1408 0 8
-16.9439 -4.5458 -2.4953 0.1408 0 8
-16.8684 -4.8186 -2.4953 0.1408 0 8
-16.7886 -5.0896 -2.4953 0.1408 0 8
-16.7044 -5.3596 -2.4953 0.1408 0 8
-16.6158 -5.6282 -2.4953 0.1408 0 8
-10.7168 13.9183 -2.6477 0.1490 0 7
-10.9397 13.7438 -2.6477 0.1490 0 7
-11.1598 13.5657 -2.6477 0.1490 0 7
-11.3771 13.3840 -2.6477 0.1490 0 7
-11.5913 13.1989 -2.6477 0.1490 0 7
-11.8026 13.0103 -2.6477 0.1490 0 7
-12.0108 12.8184 -2.6477 0.1490 0 7
-12.2158 12.6231 -2.6477 0.1490 0 7
-12.4177 12.4246 -2.6477 0.1490 0 7
-12.6164 12.2228 -2.6477 0.1490 0 7
-12.8117 12.0178 -2.6477 0.1490 0 7
-13.0038 11.8098 -2.6477 0.1490 0 7
-13.1925 11.5986 -2.6477 0.1490 0 7
-13.3777 11.3845 -2.6477 0.1490 0 6
-13.5595 11.1674 -2.6477 0.1490 0 7
-13.7377 10.9473 -2.6477 0.1490 0 7
-13.9124 10.7245 -2.6477 0.1490 0 7
-14.0835 10.4988 -2.6477 0.1490 0 7
-14.2509 10.2704 -2.6477 0.1490 0 7
-14.4146 10.0394 -2.6477 0.1490 0 7
-14.5745 9.8057 -2.6477 0.1490 0 7
-14.7307 9.5695 -2.6477 0.1490 0 7
-14.8830 9.3309 -2.6477 0.1490 0 7
-15.0315 9.0897 -2.6477 0.1490 0 7
-14.3025 8.3371 -2.4953 0.1490 0 8
-14.4351 8.1054 -2.4953 0.1490 0 8
-14.5638 7.8717 -2.4953 0.1490 0 8
-14.6888 7.6359 -2.4953 0.1490 0 8
-14.8100 7.3982 -2.4953 0.1490 0 8
-14.9273 7.1585 -2.4953 0.1490 0 8
-15.0408 6.9169 -2.4953 0.1490 0 8
-15.1503 6.6736 -2.4953 0.1490 0 8
-15.2559 6.4285 -2.4953 0.1490 0 8
-15.3576 6.1818 -2.4953 0.1490 0 8
-15.4552 5.9334 -2.4953 0.1490 0 8
-15.5489 5.6835 -2.4953 0.1490 0 8
-15.6384 5.4322 -2.4953 0.1490 0 8
-15.7240 5.1794 -2.4953 0.1490 0 8
-15.8054 4.9252 -2.4953 0.1490 0 8
-15.8828 4.6698 -2.4953 0.1490 0 8
-15.9560 4.4132 -2.4953 0.1490 0 8
-16.0250 4.1554 -2.4953 0.1490 0 8
-16.0899 3.8966 -2.4953 0.1490 0 8
-16.1507 3.6367 -2.4953 0.1490 0 8
-16.2072 3.3759 -2.4953 0.1490 0 8
-16.2595 3.1142 -2.4953 0.1490 0 8
-16.3076 2.8517 -2.4953 0.1490 0 8
-16.3514 2.5885 -2.4953 0.1490 0 8
-16.3910 2.3246 -2.4953 0.1490 0 8
-16.4264 2.0601 -2.4953 0.1490 0 8
-16.4574 1.7950 -2.4953 0.1490 0 8
-16.4842 1.5295 -2.4953 0.1490 0 8
-16.5067 1.2636 -2.4953 0.1490 0 8
-16.5250 0.9974 -2.4953 0.1490 0 8
-16.5389 0.7309 -2.4953 0.1490 0 8
-16.5485 0.4642 -2.4953 0.1490 0 8
-16.5539 0.1974 -2.4953 0.1490 0 8
-16.5549 -0.0695 -2.4953 0.1490 0 8
-16.5516 -0.3363 -2.4953 0.1490 0 8
-16.5440 -0.6031 -2.4953 0.1490 0 8
-16.5322 -0.8697 -2.4953 0.1490 0 8
-16.5160 -1.1360 -2.4953 0.1490 0 8
-16.4956 -1.4021 -2.4953 0.1490 0 8
-16.4708 -1.6678 -2.4953 0.1490 0 8
-16.4418 -1.9331 -2.4953 0.1490 0 8
-16.4085 -2.1979 -2.4953 0.1490 0 8
-16.3709 -2.4621 -2.4953 0.1490 0 8
-16.3291 -2.7257 -2.4953 0.1490 0 8
-16.2831 -2.9885 -2.4953 0.1490 0 8
-16.2328 -3.2506 -2.4953 0.1490 0 8
-16.1783 -3.5118 -2.4953 0.1490 0 8
-16.1196 -3.7722 -2.4953 0.1490 0 8
-16.0567 -4.0315 -2.4953 0.1490 0 8
-15.9896 -4.2898 -2.4953 0.1490 0 8
-15.9184 -4.5470 -2.4953 0.1490 0 8
-15.8430 -4.8030 -2.4953 0.1490 0 8
-15.7635 -5.0577 -2.4953 0.1490 0 8
-15.6799 -5.3112 -2.4953 0.1490 0 8
-10.1440 13.1745 -2.6477 0.1573 0 7
-10.3550 13.0092 -2.6477 0.1573 0 7
-10.5634 12.8406 -2.6477 0.1573 0 7
-10.7690 12.6687 -2.6477 0.1573 0 7
-10.9718 12.4935 -2.6477 0.1573 0 7
-11.1718 12.3150 -2.6477 0.1573 0 7
-11.3688 12.1333 -2.6477 0.1573 0 7
-11.5629 11.9485 -2.6477 0.1573 0 7
-11.7540 11.7605 -2.6477 0.1573 0 7
-11.9421 11.5695 -2.6477 0.1573 0 7
-12.1270 11.3755 -2.6477 0.1573 0 6
-12.3088 11.1786 -2.6477 0.1573 0 7
-12.4874 10.9787 -2.6477 0.1573 0 7
-12.6627 10.7760 -2.6477 0.1573 0 7
-12.8348 10.5705 -2.6477 0.1573 0 7
-13.0035 10.3622 -2.6477 0.1573 0 7
-13.1688 10.1513 -2.6477 0.1573 0 7
-13.3308 9.9377 -2.6477 0.1573 0 7
-13.4892 9.7215 -2.6477 0.1573 0 7
-13.6442 9.5028 -2.6477 0.1573 0 7
-13.7956 9.2817 -2.6477 0.1573 0 7
-13.9434 9.0581 -2.6477 0.1573 0 7
-13.2767 8.3238 -2.4953 0.1573 0 8
-13.4091 8.1087 -2.4953 0.1573 0 8
-13.5381 7.8915 -2.4953 0.1573 0 8
-13.6635 7.6722 -2.4953 0.1573 0 8
-13.7854 7.4510 -2.4953 0.1573 0 8
-13.9038 7.2278 -2.4953 0.1573 0 8
-14.0185 7.0028 -2.4953 0.1573 0 8
-14.1295 6.7759 -2.4953 0.1573 0 8
-14.2369 6.5472 -2.4953 0.1573 0 8
-14.3406 6.3169 -2.4953 0.1573 0 8
-14.4405 6.0849 -2.4953 0.1573 0 8
-14.5368 5.8514 -2.4953 0.1573 0 8
-14.6292 5.6163 -2.4953 0.1573 0 8
-14.7178 5.3798 -2.4953 0.1573 0 8
-14.8026 5.1418 -2.4953 0.1573 0 8
-14.8836 4.9025 -2.4953 0.1573 0 8
-14.9607 4.6620 -2.4953 0.1573 0 8
-15.0339 4.4202 -2.4953 0.1573 0 8
-15.1032 4.1773 -2.4953 0.1573 0 8
-15.1685 3.9333 -2.4953 0.1573 0 8
-15.2300 3.6883 -2.4953 0.1573 0 8
-15.2874 3.4424 -2.4953 0.1573 0 8
-15.3409 3.1955 -2.4953 0.1573 0 8
-15.3905 2.9478 -2.4953 0.1573 0 8
-15.4360 2.6993 -2.4953 0.1573 0 8
-15.4775 2.4502 -2.4953 0.1573 0 8
-15.5150 2.2004 -2.4953 0.1573 0 8
-15.5484 1.9500 -2.4953 0.1573 0 8
-15.5778 1.6991 -2.4953 0.1573 0 8
-15.6032 1.4478 -2.4953 0.1573 0 8
-15.6245 1.1961 -2.4953 0.1573 0 8
-15.6418 0.9441 -2.4953 0.1573 0 8
-15.6549 0.6918 -2.4953 0.1573 0 8
-15.6641 0.4394 -2.4953 0.1573 0 8
-15.6691 0.1868 -2.4953 0.1573 0 8
-15.6701 -0.0658 -2.4953 0.1573 0 8
-15.6670 -0.3183 -2.4953 0.1573 0 8
-15.6598 -0.5708 -2.4953 0.1573 0 8
-15.6486 -0.8232 -2.4953 0.1573 0 8
-15.6333 -1.0753 -2.4953 0.1573 0 8
-15.6139 -1.3272 -2.4953 0.1573 0 8
-15.5905 -1.5787 -2.4953 0.1573 0 8
-15.5630 -1.8298 -2.4953 0.1573 0 8
-15.5315 -2.0804 -2.4953 0.1573 0 8
-15.4960 -2.3305 -2.4953 0.1573 0 8
-15.4564 -2.5800 -2.4953 0.1573 0 8
-15.4128 -2.8288 -2.4953 0.1573 0 8
-15.3652 -3.0769 -2.4953 0.1573 0 8
-15.3136 -3.3241 -2.4953 0.1573 0 8
-15.2580 -3.5705 -2.4953 0.1573 0 8
-15.1985 -3.8160 -2.4953 0.1573 0 8
-15.1350 -4.0605 -2.4953 0.1573 0 8
-15.0676 -4.3039 -2.4953 0.1573 0 8
-14.9962 -4.5463 -2.4953 0.1573 0 8
-14.9210 -4.7874 -2.4953 0.1573 0 8
-14.8419 -5.0273 -2.4953 0.1573 0 8
-9.6280 12.5044 -2.6477 0.1655 0 7
-9.8283 12.3475 -2.6477 0.1655 0 7
-10.0261 12.1875 -2.6477 0.1655 0 7
-10.2212 12.0243 -2.6477 0.1655 0 7
-10.4137 11.8580 -2.6477 0.1655 0 7
-10.6035 11.6886 -2.6477 0.1655 0 7
-10.7906 11.5162 -2.6477 0.1655 0 7
-10.9748 11.3407 -2.6477 0.1655 0 7
-11.1562 11.1623 -2.6477 0.1655 0 7
-11.3346 10.9811 -2.6477 0.1655 0 7
-11.5102 10.7969 -2.6477 0.1655 0 7
-11.6827 10.6100 -2.6477 0.1655 0 7
-11.8522 10.4203 -2.6477 0.1655 0 7
-12.0186 10.2279 -2.6477 0.1655 0 7
-12.1820 10.0328 -2.6477 0.1655 0 7
