ply
format ascii 1.0
element vertex 1384
property float32 x
property float32 y
property float32 z
property float32 CosAngle
property uint32 ObjIdx
property uint32 ObjTag
end_header
15.4315 5.9948 -2.4953 0.1490 0 8
15.3331 6.2423 -2.4953 0.1490 0 8
15.2307 6.4882 -2.4953 0.1490 0 8
15.1243 6.7324 -2.4953 0.1490 0 8
15.0140 6.9749 -2.4953 0.1490 0 8
14.8998 7.2155 -2.4953 0.1490 0 8
14.7818 7.4543 -2.4953 0.1490 0 8
14.6600 7.6912 -2.4953 0.1490 0 8
14.5343 7.9261 -2.4953 0.1490 0 8
14.4049 8.1589 -2.4953 0.1490 0 8
14.2718 8.3896 -2.4953 0.1490 0 8
14.9982 9.1445 -2.6477 0.1490 0 7
14.8492 9.3847 -2.6477 0.1490 0 7
14.6962 9.6224 -2.6477 0.1490 0 7
14.5395 9.8576 -2.6477 0.1490 0 7
14.3790 10.0902 -2.6477 0.1490 0 7
14.2148 10.3203 -2.6477 0.1490 0 7
14.0469 10.5476 -2.6477 0.1490 0 7
13.8754 10.7723 -2.6477 0.1490 0 7
13.7003 10.9941 -2.6477 0.1490 0 7
13.5216 11.2132 -2.6477 0.1490 0 7
13.3395 11.4293 -2.6477 0.1490 0 6
13.1538 11.6424 -2.6477 0.1490 0 7
12.9648 11.8525 -2.6477 0.1490 0 7
12.7724 12.0596 -2.6477 0.1490 0 7
12.5768 12.2635 -2.6477 0.1490 0 7
12.3778 12.4643 -2.6477 0.1490 0 7
12.1757 12.6619 -2.6477 0.1490 0 7
11.9704 12.8561 -2.6477 0.1490 0 7
11.7620 13.0471 -2.6477 0.1490 0 7
11.5505 13.2346 -2.6477 0.1490 0 7
11.3361 13.4187 -2.6477 0.1490 0 7
11.1187 13.5994 -2.6477 0.1490 0 7
10.8985 13.7765 -2.6477 0.1490 0 7
10.6754 13.9501 -2.6477 0.1490 0 7
10.4496 14.1201 -2.6477 0.1490 0 7
10.2210 14.2864 -2.6477 0.1490 0 7
9.9898 14.4490 -2.6477 0.1490 0 7
9.7561 14.6078 -2.6477 0.1490 0 7
9.5198 14.7629 -2.6477 0.1490 0 7
9.2810 14.9142 -2.6477 0.1490 0 7
9.0398 15.0616 -2.6477 0.1490 0 7
8.7963 15.2051 -2.6477 0.1490 0 7
8.5506 15.3446 -2.6477 0.1490 0 7
8.3026 15.4802 -2.6477 0.1490 0 7
8.0524 15.6118 -2.6477 0.1490 0 7
7.8002 15.7393 -2.6477 0.1490 0 7
7.5459 15.8628 -2.6477 0.1490 0 7
7.2897 15.9822 -2.6477 0.1490 0 7
7.0316 16.0974 -2.6477 0.1490 0 7
6.7717 16.2084 -2.6477 0.1490 0 7
6.5101 16.3153 -2.6477 0.1490 0 7
6.2467 16.4179 -2.6477 0.1490 0 7
5.9817 16.5163 -2.6477 0.1490 0 7
5.7152 16.6104 -2.6477 0.1490 0 7
5.4472 16.7002 -2.6477 0.1490 0 7
5.1778 16.7857 -2.6477 0.1490 0 7
4.9071 16.8668 -2.6477 0.1490 0 7
4.6351 16.9436 -2.6477 0.1490 0 7
4.3619 17.0160 -2.6477 0.1490 0 7
4.0875 17.0840 -2.6477 0.1490 0 7
3.8121 17.1475 -2.6477 0.1490 0 7
3.5357 17.2066 -2.6477 0.1490 0 7
3.2584 17.2613 -2.6477 0.1490 0 7
2.9803 17.3115 -2.6477 0.1490 0 7
2.7013 17.3572 -2.6477 0.1490 0 7
2.4217 17.3984 -2.6477 0.1490 0 7
2.1415 17.4351 -2.6477 0.1490 0 7
1.8607 17.4673 -2.6477 0.1490 0 7
1.5794 17.4950 -2.6477 0.1490 0 7
1.2977 17.5181 -2.6477 0.1490 0 7
1.0157 17.5368 -2.6477 0.1490 0 7
0.7334 17.5508 -2.6477 0.1490 0 7
0.4509 17.5604 -2.6477 0.1490 0 7
0.1683 17.5653 -2.6477 0.1490 0 7
-0.1143 17.5658 -2.6477 0.1490 0 7
-0.3970 17.5617 -2.6477 0.1490 0 7
-0.6795 17.5530 -2.6477 0.1490 0 7
-0.9618 17.5398 -2.6477 0.1490 0 7
-1.2439 17.5220 -2.6477 0.1490 0 7
-1.5256 17.4998 -2.6477 0.1490 0 7
-1.8070 17.4730 -2.6477 0.1490 0 7
-2.0879 17.4416 -2.6477 0.1490 0 7
-2.3683 17.4058 -2.6477 0.1490 0 7
-2.6480 17.3654 -2.6477 0.1490 0 7
-2.9271 17.3206 -2.6477 0.1490 0 7
-3.2054 17.2712 -2.6477 0.1490 0 7
-3.4829 17.2174 -2.6477 0.1490 0 7
-3.7594 17.1591 -2.6477 0.1490 0 7
-4.0350 17.0964 -2.6477 0.1490 0 7
-4.3096 17.0293 -2.6477 0.1490 0 7
-4.5830 16.9578 -2.6477 0.1490 0 7
-4.8553 16.8818 -2.6477 0.1490 0 7
-5.1263 16.8015 -2.6477 0.1490 0 7
-5.3959 16.7169 -2.6477 0.1490 0 7
-5.6642 16.6279 -2.6477 0.1490 0 7
-5.9310 16.5346 -2.6477 0.1490 0 7
-6.1963 16.4370 -2.6477 0.1490 0 7
-6.4599 16.3352 -2.6477 0.1490 0 7
-6.7219 16.2292 -2.6477 0.1490 0 7
-6.9822 16.1189 -2.6477 0.1490 0 7
-7.2406 16.0045 -2.6477 0.1490 0 7
-7.4972 15.8859 -2.6477 0.1490 0 7
-7.7518 15.7632 -2.6477 0.1490 0 7
-8.0044 15.6365 -2.6477 0.1490 0 7
-8.2550 15.5056 -2.6477 0.1490 0 7
-8.5034 15.3708 -2.6477 0.1490 0 7
-8.7496 15.2320 -2.6477 0.1490 0 7
-8.9935 15.0893 -2.6477 0.1490 0 7
-9.2351 14.9426 -2.6477 0.1490 0 7
-9.4744 14.7921 -2.6477 0.1490 0 7
-9.7112 14.6377 -2.6477 0.1490 0 7
-9.9454 14.4796 -2.6477 0.1490 0 7
-10.1771 14.3177 -2.6477 0.1490 0 7
-10.4061 14.1521 -2.6477 0.1490 0 7
-10.6325 13.9828 -2.6477 0.1490 0 7
-10.8561 13.8100 -2.6477 0.1490 0 7
-11.0769 13.6335 -2.6477 0.1490 0 7
-11.2948 13.4535 -2.6477 0.1490 0 7
-11.5098 13.2700 -2.6477 0.1490 0 7
-11.7218 13.0831 -2.6477 0.1490 0 7
-11.9308 12.8928 -2.6477 0.1490 0 7
-12.1367 12.6992 -2.6477 0.1490 0 7
-12.3395 12.5023 -2.6477 0.1490 0 7
-12.5390 12.3021 -2.6477 0.1490 0 7
-12.7353 12.0988 -2.6477 0.1490 0 7
-12.9284 11.8923 -2.6477 0.1490 0 7
13.3869 -8.1454 -2.4953 0.1573 0 8
13.5162 -7.9289 -2.4953 0.1573 0 8
13.6420 -7.7104 -2.4953 0.1573 0 8
13.7643 -7.4899 -2.4953 0.1573 0 8
13.8831 -7.2675 -2.4953 0.1573 0 8
13.9982 -7.0432 -2.4953 0.1573 0 8
14.1097 -6.8170 -2.4953 0.1573 0 8
14.2176 -6.5891 -2.4953 0.1573 0 8
14.3217 -6.3595 -2.4953 0.1573 0 8
14.4222 -6.1283 -2.4953 0.1573 0 8
14.5189 -5.8954 -2.4953 0.1573 0 8
14.6119 -5.6611 -2.4953 0.1573 0 8
14.7011 -5.4252 -2.4953 0.1573 0 8
14.7865 -5.1880 -2.4953 0.1573 0 8
14.8681 -4.9494 -2.4953 0.1573 0 8
14.9458 -4.7096 -2.4953 0.1573 0 8
15.0196 -4.4685 -2.4953 0.1573 0 8
15.0896 -4.2262 -2.4953 0.1573 0 8
15.1556 -3.9829 -2.4953 0.1573 0 8
15.2177 -3.7386 -2.4953 0.1573 0 8
15.2759 -3.4932 -2.4953 0.1573 0 8
15.3301 -3.2470 -2.4953 0.1573 0 8
15.3804 -2.9999 -2.4953 0.1573 0 8
15.4267 -2.7521 -2.4953 0.1573 0 8
15.4690 -2.5035 -2.4953 0.1573 0 8
15.5072 -2.2543 -2.4953 0.1573 0 8
15.5415 -2.0045 -2.4953 0.1573 0 8
15.5717 -1.7542 -2.4953 0.1573 0 8
15.5979 -1.5034 -2.4953 0.1573 0 8
8.3120 -0.6664 -1.3278 0.3409 25 10
8.2062 -0.5251 -1.3094 0.5183 25 10
8.1697 -0.3909 -1.3024 0.5129 25 10
8.1386 -0.2583 -1.2966 0.5273 25 10
8.1236 -0.1270 -1.2937 0.5285 25 10
8.1092 0.0037 -1.2913 0.5220 25 10
8.1245 0.1344 -1.2939 0.5284 25 10
8.1394 0.2657 -1.2968 0.5272 25 10
8.1718 0.3985 -1.3028 0.5127 25 10
8.2081 0.5328 -1.3098 0.5181 25 10
8.3265 0.6751 -1.3302 0.3403 25 10
15.5966 1.5176 -2.4953 0.1573 0 8
15.5701 1.7683 -2.4953 0.1573 0 8
15.5397 2.0186 -2.4953 0.1573 0 8
15.5052 2.2684 -2.4953 0.1573 0 8
15.4667 2.5176 -2.4953 0.1573 0 8
15.4242 2.7661 -2.4953 0.1573 0 8
15.3777 3.0139 -2.4953 0.1573 0 8
15.3272 3.2609 -2.4953 0.1573 0 8
15.2727 3.5071 -2.4953 0.1573 0 8
15.2143 3.7524 -2.4953 0.1573 0 8
15.1520 3.9967 -2.4953 0.1573 0 8
15.0857 4.2400 -2.4953 0.1573 0 8
15.0155 4.4821 -2.4953 0.1573 0 8
14.9415 4.7232 -2.4953 0.1573 0 8
14.8635 4.9630 -2.4953 0.1573 0 8
14.7818 5.2015 -2.4953 0.1573 0 8
14.6962 5.4386 -2.4953 0.1573 0 8
14.6068 5.6744 -2.4953 0.1573 0 8
14.5136 5.9086 -2.4953 0.1573 0 8
14.4166 6.1414 -2.4953 0.1573 0 8
14.3159 6.3726 -2.4953 0.1573 0 8
14.2116 6.6021 -2.4953 0.1573 0 8
14.1035 6.8299 -2.4953 0.1573 0 8
13.9918 7.0559 -2.4953 0.1573 0 8
13.8764 7.2801 -2.4953 0.1573 0 8
13.7575 7.5025 -2.4953 0.1573 0 8
13.6350 7.7228 -2.4953 0.1573 0 8
13.5090 7.9412 -2.4953 0.1573 0 8
13.3795 8.1575 -2.4953 0.1573 0 8
13.2465 8.3718 -2.4953 0.1573 0 8
13.9108 9.1081 -2.6477 0.1573 0 7
13.7624 9.3307 -2.6477 0.1573 0 7
13.6105 9.5509 -2.6477 0.1573 0 7
13.4551 9.7687 -2.6477 0.1573 0 7
13.2962 9.9839 -2.6477 0.1573 0 7
13.1338 10.1965 -2.6477 0.1573 0 7
12.9681 10.4065 -2.6477 0.1573 0 7
12.7990 10.6138 -2.6477 0.1573 0 7
12.6265 10.8184 -2.6477 0.1573 0 7
12.4508 11.0202 -2.6477 0.1573 0 7
12.2719 11.2191 -2.6477 0.1573 0 7
12.0898 11.4151 -2.6477 0.1573 0 6
11.9046 11.6081 -2.6477 0.1573 0 7
11.7163 11.7981 -2.6477 0.1573 0 7
11.5249 11.9851 -2.6477 0.1573 0 7
11.3306 12.1690 -2.6477 0.1573 0 7
11.1333 12.3497 -2.6477 0.1573 0 7
10.9332 12.5273 -2.6477 0.1573 0 7
10.7302 12.7016 -2.6477 0.1573 0 7
10.5244 12.8726 -2.6477 0.1573 0 7
10.3160 13.0402 -2.6477 0.1573 0 7
10.1048 13.2045 -2.6477 0.1573 0 7
9.8911 13.3654 -2.6477 0.1573 0 7
9.6747 13.5228 -2.6477 0.1573 0 7
9.4559 13.6767 -2.6477 0.1573 0 7
9.2346 13.8271 -2.6477 0.1573 0 7
9.0110 13.9739 -2.6477 0.1573 0 7
8.7850 14.1170 -2.6477 0.1573 0 7
8.5567 14.2566 -2.6477 0.1573 0 7
8.3262 14.3924 -2.6477 0.1573 0 7
8.0936 14.5245 -2.6477 0.1573 0 7
7.8588 14.6528 -2.6477 0.1573 0 7
7.6220 14.7774 -2.6477 0.1573 0 7
7.3833 14.8981 -2.6477 0.1573 0 6
7.1426 15.0150 -2.6477 0.1573 0 6
6.9001 15.1280 -2.6477 0.1573 0 7
6.6558 15.2370 -2.6477 0.1573 0 7
6.4098 15.3421 -2.6477 0.1573 0 7
6.1621 15.4433 -2.6477 0.1573 0 7
5.9128 15.5404 -2.6477 0.1573 0 7
5.6620 15.6336 -2.6477 0.1573 0 7
5.4098 15.7226 -2.6477 0.1573 0 7
5.1561 15.8076 -2.6477 0.1573 0 7
4.9011 15.8885 -2.6477 0.1573 0 7
4.6448 15.9653 -2.6477 0.1573 0 7
4.3874 16.0380 -2.6477 0.1573 0 7
4.1287 16.1065 -2.6477 0.1573 0 7
3.8690 16.1709 -2.6477 0.1573 0 7
3.6084 16.2310 -2.6477 0.1573 0 7
3.3467 16.2870 -2.6477 0.1573 0 7
3.0843 16.3387 -2.6477 0.1573 0 7
2.8210 16.3862 -2.6477 0.1573 0 7
2.5570 16.4295 -2.6477 0.1573 0 7
2.2923 16.4685 -2.6477 0.1573 0 7
2.0270 16.5033 -2.6477 0.1573 0 7
1.7612 16.5338 -2.6477 0.1573 0 7
1.4950 16.5599 -2.6477 0.1573 0 7
1.2283 16.5819 -2.6477 0.1573 0 7
0.9614 16.5995 -2.6477 0.1573 0 7
0.6942 16.6128 -2.6477 0.1573 0 7
0.4268 16.6218 -2.6477 0.1573 0 7
0.1593 16.6265 -2.6477 0.1573 0 7
-0.1082 16.6269 -2.6477 0.1573 0 7
-0.3757 16.6230 -2.6477 0.1573 0 7
-0.6431 16.6148 -2.6477 0.1573 0 7
-0.9104 16.6023 -2.6477 0.1573 0 7
-1.1774 16.5856 -2.6477 0.1573 0 7
-1.4441 16.5645 -2.6477 0.1573 0 7
-1.7104 16.5391 -2.6477 0.1573 0 7
-1.9763 16.5094 -2.6477 0.1573 0 7
-2.2417 16.4755 -2.6477 0.1573 0 7
-2.5065 16.4373 -2.6477 0.1573 0 7
-2.7706 16.3948 -2.6477 0.1573 0 7
-3.0341 16.3481 -2.6477 0.1573 0 7
-3.2967 16.2972 -2.6477 0.1573 0 7
-3.5585 16.2420 -2.6477 0.1573 0 7
-3.8194 16.1827 -2.6477 0.1573 0 7
-4.0792 16.1191 -2.6477 0.1573 0 7
-4.3381 16.0514 -2.6477 0.1573 0 7
-4.5958 15.9795 -2.6477 0.1573 0 7
-4.8523 15.9035 -2.6477 0.1573 0 7
-5.1075 15.8234 -2.6477 0.1573 0 7
-5.3615 15.7392 -2.6477 0.1573 0 7
-5.6140 15.6509 -2.6477 0.1573 0 7
-5.8651 15.5585 -2.6477 0.1573 0 7
-6.1147 15.4621 -2.6477 0.1573 0 7
-6.3626 15.3618 -2.6477 0.1573 0 7
-6.6090 15.2574 -2.6477 0.1573 0 7
-6.8536 15.1491 -2.6477 0.1573 0 7
-7.0965 15.0369 -2.6477 0.1573 0 7
-7.3375 14.9207 -2.6477 0.1573 0 6
-7.5766 14.8007 -2.6477 0.1573 0 7
-7.8138 14.6769 -2.6477 0.1573 0 7
-8.0489 14.5493 -2.6477 0.1573 0 7
-8.2820 14.4179 -2.6477 0.1573 0 7
-8.5129 14.2828 -2.6477 0.1573 0 7
-8.7416 14.1440 -2.6477 0.1573 0 7
-8.9680 14.0015 -2.6477 0.1573 0 7
-9.1921 13.8554 -2.6477 0.1573 0 7
-9.4139 13.7057 -2.6477 0.1573 0 7
-9.6332 13.5525 -2.6477 0.1573 0 7
-9.8500 13.3957 -2.6477 0.1573 0 7
-10.0642 13.2355 -2.6477 0.1573 0 7
-10.2759 13.0719 -2.6477 0.1573 0 7
-10.4849 12.9048 -2.6477 0.1573 0 7
-10.6911 12.7345 -2.6477 0.1573 0 7
-10.8946 12.5608 -2.6477 0.1573 0 7
-11.0953 12.3839 -2.6477 0.1573 0 7
-11.2932 12.2037 -2.6477 0.1573 0 7
-11.4880 12.0205 -2.6477 0.1573 0 7
-11.6800 11.8341 -2.6477 0.1573 0 7
-11.8689 11.6446 -2.6477 0.1573 0 7
-12.0547 11.4521 -2.6477 0.1573 0 6
-12.2374 11.2567 -2.6477 0.1573 0 7
12.7060 -7.7311 -2.4953 0.1655 0 8
12.8287 -7.5256 -2.4953 0.1655 0 8
12.9482 -7.3183 -2.4953 0.1655 0 8
13.0642 -7.1090 -2.4953 0.1655 0 8
13.1769 -6.8978 -2.4953 0.1655 0 8
13.2862 -6.6849 -2.4953 0.1655 0 8
13.3920 -6.4703 -2.4953 0.1655 0 8
13.4944 -6.2540 -2.4953 0.1655 0 8
13.5933 -6.0361 -2.4953 0.1655 0 8
13.6887 -5.8166 -2.4953 0.1655 0 8
13.7805 -5.5956 -2.4953 0.1655 0 8
13.8687 -5.3731 -2.4953 0.1655 0 8
13.9534 -5.1493 -2.4953 0.1655 0 8
14.0344 -4.9241 -2.4953 0.1655 0 8
14.1118 -4.6977 -2.4953 0.1655 0 8
14.1856 -4.4700 -2.4953 0.1655 0 8
14.2557 -4.2412 -2.4953 0.1655 0 8
14.3221 -4.0113 -2.4953 0.1655 0 8
14.3847 -3.7803 -2.4953 0.1655 0 8
14.4437 -3.5484 -2.4953 0.1655 0 8
14.4989 -3.3155 -2.4953 0.1655 0 8
14.5504 -3.0818 -2.4953 0.1655 0 8
14.5981 -2.8473 -2.4953 0.1655 0 8
14.6420 -2.6121 -2.4953 0.1655 0 8
14.6822 -2.3762 -2.4953 0.1655 0 8
14.7185 -2.1396 -2.4953 0.1655 0 8
14.7510 -1.9025 -2.4953 0.1655 0 8
14.7797 -1.6649 -2.4953 0.1655 0 8
14.8046 -1.4269 -2.4953 0.1655 0 8
8.1741 -0.6553 -1.3758 0.3462 25 10
8.0527 -0.5153 -1.3538 0.3502 25 10
8.0066 -0.3831 -1.3448 0.3525 25 10
7.9629 -0.2527 -1.3366 0.3446 25 10
7.9436 -0.1242 -1.3329 0.3456 25 10
7.9325 0.0036 -1.3308 0.3630 25 10
7.9447 0.1315 -1.3331 0.3455 25 10
7.9639 0.2600 -1.3368 0.3445 25 10
8.0092 0.3906 -1.3453 0.3524 25 10
8.0553 0.5228 -1.3543 0.3500 25 10
8.1882 0.6639 -1.3782 0.3456 25 10
14.8033 1.4404 -2.4953 0.1655 0 8
14.7782 1.6784 -2.4953 0.1655 0 8
14.7493 1.9159 -2.4953 0.1655 0 8
14.7165 2.1530 -2.4953 0.1655 0 8
14.6800 2.3895 -2.4953 0.1655 0 8
14.6396 2.6254 -2.4953 0.1655 0 8
14.5955 2.8606 -2.4953 0.1655 0 8
14.5476 3.0951 -2.4953 0.1655 0 8
14.4959 3.3287 -2.4953 0.1655 0 8
14.4405 3.5615 -2.4953 0.1655 0 8
14.3813 3.7934 -2.4953 0.1655 0 8
14.3184 4.0243 -2.4953 0.1655 0 8
14.2518 4.2542 -2.4953 0.1655 0 8
14.1815 4.4829 -2.4953 0.1655 0 8
14.1075 4.7105 -2.4953 0.1655 0 8
14.0299 4.9369 -2.4953 0.1655 0 8
13.9487 5.1620 -2.4953 0.1655 0 8
13.8638 5.3857 -2.4953 0.1655 0 8
13.7754 5.6081 -2.4953 0.1655 0 8
13.6834 5.8290 -2.4953 0.1655 0 8
13.5878 6.0484 -2.4953 0.1655 0 8
13.4887 6.2663 -2.4953 0.1655 0 8
13.3862 6.4825 -2.4953 0.1655 0 8
13.2801 6.6970 -2.4953 0.1655 0 8
13.1706 6.9098 -2.4953 0.1655 0 8
13.0578 7.1209 -2.4953 0.1655 0 8
12.9415 7.3300 -2.4953 0.1655 0 8
12.8219 7.5373 -2.4953 0.1655 0 8
12.6990 7.7426 -2.4953 0.1655 0 8
12.5727 7.9459 -2.4953 0.1655 0 8
12.4433 8.1472 -2.4953 0.1655 0 8
12.3129 8.3479 -2.4957 0.5067 0 8
12.9183 9.0651 -2.6477 0.1655 0 7
12.7707 9.2718 -2.6477 0.1655 0 7
12.6199 9.4761 -2.6477 0.1655 0 7
12.4658 9.6779 -2.6477 0.1655 0 7
12.3085 9.8772 -2.6477 0.1655 0 7
12.1480 10.0740 -2.6477 0.1655 0 7
11.9843 10.2681 -2.6477 0.1655 0 7
11.8175 10.4596 -2.6477 0.1655 0 7
11.6477 10.6484 -2.6477 0.1655 0 7
11.4749 10.8344 -2.6477 0.1655 0 7
11.2991 11.0177 -2.6477 0.1655 0 7
11.1203 11.1981 -2.6477 0.1655 0 7
10.9387 11.3755 -2.6477 0.1655 0 7
10.7543 11.5500 -2.6477 0.1655 0 7
10.5671 11.7216 -2.6477 0.1655 0 7
10.3771 11.8901 -2.6477 0.1655 0 7
10.1844 12.0555 -2.6477 0.1655 0 7
9.9891 12.2178 -2.6477 0.1655 0 7
9.7913 12.3770 -2.6477 0.1655 0 7
9.5909 12.5329 -2.6477 0.1655 0 7
9.3880 12.6856 -2.6477 0.1655 0 7
9.1827 12.8350 -2.6477 0.1655 0 7
8.9750 12.9811 -2.6477 0.1655 0 7
8.7649 13.1238 -2.6477 0.1655 0 7
8.5526 13.2631 -2.6477 0.1655 0 7
8.3381 13.3990 -2.6477 0.1655 0 7
8.1215 13.5314 -2.6477 0.1655 0 7
7.9027 13.6604 -2.6477 0.1655 0 7
7.6819 13.7857 -2.6477 0.1655 0 7
7.4591 13.9076 -2.6477 0.1655 0 7
7.2343 14.0258 -2.6477 0.1655 0 7
7.0077 14.1404 -2.6477 0.1655 0 7
6.7793 14.2513 -2.6477 0.1655 0 7
6.5492 14.3585 -2.6477 0.1655 0 7
6.3173 14.4620 -2.6477 0.1655 0 7
6.0838 14.5618 -2.6477 0.1655 0 7
5.8487 14.6578 -2.6477 0.1655 0 7
5.6121 14.7500 -2.6477 0.1655 0 7
5.3741 14.8384 -2.6477 0.1655 0 7
5.1347 14.9229 -2.6477 0.1655 0 7
4.8938 15.0036 -2.6477 0.1655 0 7
4.6518 15.0804 -2.6477 0.1655 0 7
4.4086 15.1533 -2.6477 0.1655 0 7
4.1642 15.2223 -2.6477 0.1655 0 7
3.9187 15.2873 -2.6477 0.1655 0 7
3.6723 15.3484 -2.6477 0.1655 0 7
3.4248 15.4055 -2.6477 0.1655 0 7
3.1765 15.4586 -2.6477 0.1655 0 7
2.9274 15.5077 -2.6477 0.1655 0 7
2.6775 15.5528 -2.6477 0.1655 0 7
2.4269 15.5939 -2.6477 0.1655 0 7
2.1757 15.6309 -2.6477 0.1655 0 7
1.9239 15.6639 -2.6477 0.1655 0 7
1.6716 15.6928 -2.6477 0.1655 0 7
1.4189 15.7177 -2.6477 0.1655 0 7
1.1659 15.7385 -2.6477 0.1655 0 7
0.9125 15.7552 -2.6477 0.1655 0 7
0.6589 15.7678 -2.6477 0.1655 0 7
0.4051 15.7764 -2.6477 0.1655 0 7
0.1512 15.7808 -2.6477 0.1655 0 7
-0.1027 15.7812 -2.6477 0.1655 0 7
-0.3566 15.7775 -2.6477 0.1655 0 7
-0.6104 15.7698 -2.6477 0.1655 0 7
-0.8641 15.7579 -2.6477 0.1655 0 7
-1.1175 15.7420 -2.6477 0.1655 0 7
-1.3706 15.7219 -2.6477 0.1655 0 7
-1.6234 15.6978 -2.6477 0.1655 0 7
-1.8758 15.6697 -2.6477 0.1655 0 7
-2.1277 15.6375 -2.6477 0.1655 0 7
-2.3790 15.6012 -2.6477 0.1655 0 7
-2.6297 15.5609 -2.6477 0.1655 0 7
-2.8797 15.5166 -2.6477 0.1655 0 7
-3.1290 15.4683 -2.6477 0.1655 0 7
-3.3775 15.4159 -2.6477 0.1655 0 7
-3.6251 15.3596 -2.6477 0.1655 0 7
-3.8718 15.2993 -2.6477 0.1655 0 7
-4.1174 15.2350 -2.6477 0.1655 0 7
-4.3620 15.1668 -2.6477 0.1655 0 7
-4.6055 15.0946 -2.6477 0.1655 0 7
-4.8477 15.0186 -2.6477 0.1655 0 7
-5.0888 14.9386 -2.6477 0.1655 0 7
-5.3285 14.8548 -2.6477 0.1655 0 7
-5.5668 14.7672 -2.6477 0.1655 0 7
-5.8036 14.6757 -2.6477 0.1655 0 7
-6.0390 14.5804 -2.6477 0.1655 0 7
-6.2728 14.4814 -2.6477 0.1655 0 7
-6.5050 14.3786 -2.6477 0.1655 0 7
-6.7355 14.2720 -2.6477 0.1655 0 7
-6.9643 14.1618 -2.6477 0.1655 0 7
-7.1912 14.0479 -2.6477 0.1655 0 7
-7.4163 13.9304 -2.6477 0.1655 0 7
-7.6395 13.8093 -2.6477 0.1655 0 7
-7.8607 13.6846 -2.6477 0.1655 0 7
-8.0799 13.5563 -2.6477 0.1655 0 7
-8.2969 13.4246 -2.6477 0.1655 0 7
-8.5119 13.2893 -2.6477 0.1655 0 7
-8.7246 13.1507 -2.6477 0.1655 0 7
-8.9350 13.0086 -2.6477 0.1655 0 7
-9.1432 12.8631 -2.6477 0.1655 0 7
-9.3490 12.7144 -2.6477 0.1655 0 7
-9.5523 12.5623 -2.6477 0.1655 0 7
-9.7532 12.4070 -2.6477 0.1655 0 7
-9.9516 12.2484 -2.6477 0.1655 0 7
-10.1473 12.0867 -2.6477 0.1655 0 7
-10.3405 11.9219 -2.6477 0.1655 0 7
-10.5310 11.7540 -2.6477 0.1655 0 7
-10.7188 11.5830 -2.6477 0.1655 0 7
-10.9037 11.4091 -2.6477 0.1655 0 6
-11.0859 11.2322 -2.6477 0.1655 0 7
-11.2652 11.0523 -2.6477 0.1655 0 7
-11.4415 10.8696 -2.6477 0.1655 0 7
-11.6149 10.6842 -2.6477 0.1655 0 7
12.0894 -7.3559 -2.4953 0.1736 0 8
12.2062 -7.1604 -2.4953 0.1736 0 8
12.3198 -6.9631 -2.4953 0.1736 0 8
12.4302 -6.7640 -2.4953 0.1736 0 8
12.5374 -6.5631 -2.4953 0.1736 0 8
12.6414 -6.3605 -2.4953 0.1736 0 8
12.7421 -6.1563 -2.4953 0.1736 0 8
12.8395 -5.9505 -2.4953 0.1736 0 8
12.9336 -5.7431 -2.4953 0.1736 0 8
13.0243 -5.5343 -2.4953 0.1736 0 8
13.1117 -5.3240 -2.4953 0.1736 0 8
13.1957 -5.1124 -2.4953 0.1736 0 8
13.2762 -4.8994 -2.4953 0.1736 0 8
13.3533 -4.6852 -2.4953 0.1736 0 8
13.4270 -4.4697 -2.4953 0.1736 0 8
13.4971 -4.2531 -2.4953 0.1736 0 8
13.5638 -4.0354 -2.4953 0.1736 0 8
13.6270 -3.8166 -2.4953 0.1736 0 8
13.6866 -3.5969 -2.4953 0.1736 0 8
13.7428 -3.3762 -2.4953 0.1736 0 8
13.7953 -3.1546 -2.4953 0.1736 0 8
13.8443 -2.9323 -2.4953 0.1736 0 8
13.8896 -2.7091 -2.4953 0.1736 0 8
13.9314 -2.4853 -2.4953 0.1736 0 8
13.9696 -2.2608 -2.4953 0.1736 0 8
14.0042 -2.0358 -2.4953 0.1736 0 8
14.0351 -1.8102 -2.4953 0.1736 0 8
14.0624 -1.5841 -2.4953 0.1736 0 8
8.2882 -0.7989 -1.4682 0.3405 25 10
8.0195 -0.6429 -1.4186 0.3644 25 10
7.8687 -0.5035 -1.3903 0.3578 25 10
7.8179 -0.3741 -1.3801 0.3421 25 10
7.7761 -0.2468 -1.3718 0.3524 25 10
7.7654 -0.1214 -1.3694 0.3702 25 10
7.7560 0.0035 -1.3676 0.3707 25 10
7.7660 0.1285 -1.3695 0.3702 25 10
7.7771 0.2539 -1.3720 0.3523 25 10
7.8212 0.3814 -1.3807 0.3419 25 10
7.8712 0.5109 -1.3908 0.3577 25 10
8.0306 0.6511 -1.4207 0.3639 25 10
8.3444 0.8119 -1.4783 0.0873 25 10
14.0610 1.5969 -2.4953 0.1736 0 8
14.0335 1.8230 -2.4953 0.1736 0 8
14.0023 2.0485 -2.4953 0.1736 0 8
13.9676 2.2736 -2.4953 0.1736 0 8
13.9292 2.4980 -2.4953 0.1736 0 8
13.8872 2.7218 -2.4953 0.1736 0 8
13.8416 2.9449 -2.4953 0.1736 0 8
13.7924 3.1672 -2.4953 0.1736 0 8
13.7397 3.3887 -2.4953 0.1736 0 8
13.6834 3.6093 -2.4953 0.1736 0 8
13.6235 3.8290 -2.4953 0.1736 0 8
13.5602 4.0477 -2.4953 0.1736 0 8
13.4933 4.2654 -2.4953 0.1736 0 8
13.4229 4.4819 -2.4953 0.1736 0 8
13.3490 4.6973 -2.4953 0.1736 0 8
13.2717 4.9115 -2.4953 0.1736 0 8
13.1910 5.1244 -2.4953 0.1736 0 8
13.1068 5.3360 -2.4953 0.1736 0 8
13.0193 5.5461 -2.4953 0.1736 0 8
12.9284 5.7549 -2.4953 0.1736 0 8
12.8341 5.9622 -2.4953 0.1736 0 8
12.7365 6.1679 -2.4953 0.1736 0 8
12.6356 6.3720 -2.4953 0.1736 0 8
12.5315 6.5745 -2.4953 0.1736 0 8
12.4241 6.7753 -2.4953 0.1736 0 8
12.3134 6.9743 -2.4953 0.1736 0 8
12.1996 7.1715 -2.4953 0.1736 0 8
12.0827 7.3669 -2.4953 0.1736 0 8
11.9626 7.5603 -2.4953 0.1736 0 8
11.8394 7.7518 -2.4953 0.1736 0 8
11.7131 7.9413 -2.4953 0.1736 0 8
11.5838 8.1287 -2.4953 0.1736 0 8
11.4516 8.3141 -2.4953 0.1736 0 8
12.0075 9.0162 -2.6477 0.1736 0 7
11.8608 9.2082 -2.6477 0.1736 0 7
11.7111 9.3979 -2.6477 0.1736 0 7
11.5584 9.5851 -2.6477 0.1736 0 7
11.4027 9.7698 -2.6477 0.1736 0 7
11.2440 9.9520 -2.6477 0.1736 0 7
11.0824 10.1317 -2.6477 0.1736 0 7
10.9180 10.3087 -2.6477 0.1736 0 7
10.7507 10.4830 -2.6477 0.1736 0 7
10.5807 10.6546 -2.6477 0.1736 0 7
10.4079 10.8235 -2.6477 0.1736 0 7
10.2324 10.9895 -2.6477 0.1736 0 7
10.0542 11.1527 -2.6477 0.1736 0 7
9.8735 11.3131 -2.6477 0.1736 0 7
9.6902 11.4705 -2.6477 0.1736 0 6
9.5044 11.6249 -2.6477 0.1736 0 7
9.3161 11.7763 -2.6477 0.1736 0 7
9.1254 11.9247 -2.6477 0.1736 0 7
8.9324 12.0699 -2.6477 0.1736 0 7
8.7370 12.2121 -2.6477 0.1736 0 7
8.5394 12.3511 -2.6477 0.1736 0 7
8.3396 12.4869 -2.6477 0.1736 0 7
8.1376 12.6195 -2.6477 0.1736 0 7
7.9335 12.7488 -2.6477 0.1736 0 7
7.7273 12.8748 -2.6477 0.1736 0 7
7.5192 12.9974 -2.6477 0.1736 0 7
7.3091 13.1167 -2.6477 0.1736 0 7
7.0971 13.2326 -2.6477 0.1736 0 7
6.8833 13.3451 -2.6477 0.1736 0 7
6.6677 13.4541 -2.6477 0.1736 0 7
6.4503 13.5597 -2.6477 0.1736 0 7
6.2313 13.6617 -2.6477 0.1736 0 7
6.0107 13.7602 -2.6477 0.1736 0 7
5.7885 13.8551 -2.6477 0.1736 0 7
5.5649 13.9464 -2.6477 0.1736 0 7
5.3397 14.0342 -2.6477 0.1736 0 7
5.1132 14.1183 -2.6477 0.1736 0 7
4.8854 14.1987 -2.6477 0.1736 0 7
4.6563 14.2755 -2.6477 0.1736 0 7
4.4261 14.3485 -2.6477 0.1736 0 7
4.1946 14.4179 -2.6477 0.1736 0 7
3.9621 14.4835 -2.6477 0.1736 0 7
3.7286 14.5454 -2.6477 0.1736 0 7
3.4940 14.6035 -2.6477 0.1736 0 7
3.2586 14.6578 -2.6477 0.1736 0 7
3.0224 14.7084 -2.6477 0.1736 0 7
2.7853 14.7551 -2.6477 0.1736 0 7
2.5476 14.7980 -2.6477 0.1736 0 7
2.3091 14.8371 -2.6477 0.1736 0 7
2.0701 14.8723 -2.6477 0.1736 0 7
1.8305 14.9037 -2.6477 0.1736 0 7
1.5905 14.9312 -2.6477 0.1736 0 7
1.3501 14.9549 -2.6477 0.1736 0 7
1.1093 14.9747 -2.6477 0.1736 0 7
0.8682 14.9906 -2.6477 0.1736 0 7
0.6269 15.0026 -2.6477 0.1736 0 7
0.3854 15.0107 -2.6477 0.1736 0 7
0.1439 15.0150 -2.6477 0.1736 0 7
-0.0977 15.0154 -2.6477 0.1736 0 7
-0.3393 15.0119 -2.6477 0.1736 0 7
-0.5808 15.0045 -2.6477 0.1736 0 7
-0.8222 14.9932 -2.6477 0.1736 0 6
-1.0633 14.9780 -2.6477 0.1736 0 6
-1.3041 14.9590 -2.6477 0.1736 0 6
-1.5447 14.9360 -2.6477 0.1736 0 6
-1.7848 14.9092 -2.6477 0.1736 0 7
-2.0244 14.8786 -2.6477 0.1736 0 7
-2.2635 14.8441 -2.6477 0.1736 0 7
-2.5021 14.8058 -2.6477 0.1736 0 7
-2.7400 14.7636 -2.6477 0.1736 0 7
-2.9772 14.7176 -2.6477 0.1736 0 7
-3.2136 14.6678 -2.6477 0.1736 0 7
-3.4492 14.6142 -2.6477 0.1736 0 7
-3.6839 14.5568 -2.6477 0.1736 0 7
-3.9176 14.4956 -2.6477 0.1736 0 7
-4.1503 14.4307 -2.6477 0.1736 0 7
-4.3820 14.3621 -2.6477 0.1736 0 7
-4.6125 14.2897 -2.6477 0.1736 0 7
-4.8418 14.2137 -2.6477 0.1736 0 7
-5.0699 14.1339 -2.6477 0.1736 0 7
-5.2966 14.0505 -2.6477 0.1736 0 7
-5.5220 13.9635 -2.6477 0.1736 0 7
-5.7459 13.8728 -2.6477 0.1736 0 7
-5.9684 13.7786 -2.6477 0.1736 0 7
-6.1893 13.6808 -2.6477 0.1736 0 7
-6.4087 13.5794 -2.6477 0.1736 0 7
-6.6263 13.4745 -2.6477 0.1736 0 7
-6.8422 13.3662 -2.6477 0.1736 0 7
-7.0564 13.2543 -2.6477 0.1736 0 7
-7.2688 13.1391 -2.6477 0.1736 0 7
-7.4792 13.0204 -2.6477 0.1736 0 7
-7.6878 12.8984 -2.6477 0.1736 0 7
-7.8943 12.7731 -2.6477 0.1736 0 7
-8.0988 12.6444 -2.6477 0.1736 0 7
-8.3012 12.5124 -2.6477 0.1736 0 7
-8.5014 12.3773 -2.6477 0.1736 0 7
-8.6995 12.2389 -2.6477 0.1736 0 7
-8.8953 12.0973 -2.6477 0.1736 0 7
-9.0887 11.9526 -2.6477 0.1736 0 7
-9.2799 11.8049 -2.6477 0.1736 0 7
-9.4686 11.6540 -2.6477 0.1736 0 7
-9.6549 11.5002 -2.6477 0.1736 0 7
-9.8387 11.3433 -2.6477 0.1736 0 7
-10.0199 11.1836 -2.6477 0.1736 0 7
-10.1986 11.0209 -2.6477 0.1736 0 7
-10.3746 10.8554 -2.6477 0.1736 0 7
-10.5479 10.6871 -2.6477 0.1736 0 7
-10.7185 10.5159 -2.6477 0.1736 0 7
-10.8863 10.3421 -2.6477 0.1736 0 7
-11.0513 10.1657 -2.6477 0.1736 0 7
11.5283 -7.0145 -2.4953 0.1818 0 8
11.6396 -6.8281 -2.4953 0.1818 0 8
11.7480 -6.6399 -2.4953 0.1818 0 8
11.8533 -6.4500 -2.4953 0.1818 0 8
11.9555 -6.2585 -2.4953 0.1818 0 8
12.0547 -6.0653 -2.4953 0.1818 0 8
12.1507 -5.8706 -2.4953 0.1818 0 8
12.2436 -5.6743 -2.4953 0.1818 0 8
12.3333 -5.4766 -2.4953 0.1818 0 8
12.4198 -5.2774 -2.4953 0.1818 0 8
12.5030 -5.0893 -2.4953 0.1818 0 8
12.5832 -4.8751 -2.4953 0.1818 0 8
12.6600 -4.6720 -2.4953 0.1818 0 8
12.7335 -4.4677 -2.4953 0.1818 0 8
12.8038 -4.2623 -2.4953 0.1818 0 8
12.8707 -4.0557 -2.4953 0.1818 0 8
12.9343 -3.8481 -2.4953 0.1818 0 8
12.9945 -3.6395 -2.4953 0.1818 0 8
13.0515 -3.4307 -2.4953 0.1818 0 8
13.1049 -3.2195 -2.4953 0.1818 0 8
13.1550 -3.0082 -2.4953 0.1818 0 8
13.2017 -2.7962 -2.4953 0.1818 0 8
13.2450 -2.5834 -2.4953 0.1818 0 8
13.2848 -2.3700 -2.4953 0.1818 0 8
13.3212 -2.1559 -2.4953 0.1818 0 8
13.3542 -1.9413 -2.4953 0.1818 0 8
13.3837 -1.7262 -2.4953 0.1818 0 8
13.4098 -1.5106 -2.4953 0.1818 0 8
8.1253 -0.7831 -1.5094 0.2665 25 10
7.8785 -0.6316 -1.4615 0.3704 25 10
7.7311 -0.4947 -1.4325 0.9129 25 10
7.6886 -0.3679 -1.4233 0.9188 25 10
7.6604 -0.2431 -1.4172 0.9859 25 10
7.6472 -0.1196 -1.4142 0.9879 25 10
7.6354 0.0035 -1.4119 0.9969 25 10
7.6480 0.1265 -1.4144 0.9878 25 10
7.6612 0.2501 -1.4174 0.9858 25 10
7.6910 0.3751 -1.4238 0.9184 25 10
7.7335 0.5020 -1.4330 0.9126 25 10
7.8892 0.6397 -1.4636 0.3698 25 10
8.1431 0.7923 -1.5128 0.2659 25 10
13.4084 1.5228 -2.4953 0.1818 0 8
13.3821 1.7384 -2.4953 0.1818 0 8
13.3524 1.9534 -2.4953 0.1818 0 8
13.3193 2.1680 -2.4953 0.1818 0 8
13.2827 2.3821 -2.4953 0.1818 0 8
13.2426 2.5955 -2.4953 0.1818 0 8
13.1992 2.8082 -2.4953 0.1818 0 8
13.1523 3.0202 -2.4953 0.1818 0 8
13.1020 3.2314 -2.4953 0.1818 0 8
13.0483 3.4418 -2.4953 0.1818 0 8
12.9912 3.6513 -2.4953 0.1818 0 8
12.9308 3.8598 -2.4953 0.1818 0 8
12.8670 4.0674 -2.4953 0.1818 0 8
12.7999 4.2739 -2.4953 0.1818 0 8
12.7295 4.4793 -2.4953 0.1818 0 8
12.6558 4.6835 -2.4953 0.1818 0 8
12.5788 4.8865 -2.4953 0.1818 0 8
12.4985 5.0883 -2.4953 0.1818 0 8
12.4150 5.2887 -2.4953 0.1818 0 8
12.3283 5.4878 -2.4953 0.1818 0 8
12.2384 5.6854 -2.4953 0.1818 0 8
12.1454 5.8816 -2.4953 0.1818 0 8
12.0492 6.0763 -2.4953 0.1818 0 8
11.9498 6.2694 -2.4953 0.1818 0 8
11.8474 6.4608 -2.4953 0.1818 0 8
11.7419 6.6506 -2.4953 0.1818 0 8
11.6334 6.8387 -2.4953 0.1818 0 8
11.5219 7.0250 -2.4953 0.1818 0 8
11.4074 7.2094 -2.4953 0.1818 0 8
11.2899 7.3920 -2.4953 0.1818 0 8
11.1695 7.5727 -2.4953 0.1818 0 8
11.0462 7.7515 -2.4953 0.1818 0 8
10.9200 7.9282 -2.4953 0.1818 0 8
10.7911 8.1029 -2.4953 0.1818 0 8
10.6593 8.2754 -2.4953 0.1818 0 8
10.5248 8.4459 -2.4953 0.1818 0 8
11.0219 9.1402 -2.6477 0.1818 0 7
10.8735 9.3164 -2.6477 0.1818 0 7
10.7222 9.4901 -2.6477 0.1818 0 7
10.5681 9.6614 -2.6477 0.1818 0 7
10.4113 9.8302 -2.6477 0.1818 0 7
10.2517 9.9964 -2.6477 0.1818 0 7
10.0896 10.1601 -2.6477 0.1818 0 7
9.9248 10.3211 -2.6477 0.1818 0 7
9.7575 10.4795 -2.6477 0.1818 0 7
9.5876 10.6351 -2.6477 0.1818 0 7
9.4152 10.7880 -2.6477 0.1818 0 7
9.2404 10.9381 -2.6477 0.1818 0 7
9.0632 11.0853 -2.6477 0.1818 0 7
8.8837 11.2297 -2.6477 0.1818 0 7
8.7019 11.3712 -2.6477 0.1818 0 7
8.5178 11.5097 -2.6477 0.1818 0 6
8.3315 11.6453 -2.6477 0.1818 0 7
8.1431 11.7778 -2.6477 0.1818 0 7
7.9525 11.9073 -2.6477 0.1818 0 7
7.7599 12.0337 -2.6477 0.1818 0 7
7.5653 12.1570 -2.6477 0.1818 0 7
7.3687 12.2772 -2.6477 0.1818 0 7
7.1702 12.3942 -2.6477 0.1818 0 7
6.9699 12.5079 -2.6477 0.1818 0 7
6.7677 12.6184 -2.6477 0.1818 0 7
6.5638 12.7257 -2.6477 0.1818 0 7
6.3582 12.8297 -2.6477 0.1818 0 7
6.1509 12.9303 -2.6477 0.1818 0 7
5.9421 13.0276 -2.6477 0.1818 0 7
5.7317 13.1215 -2.6477 0.1818 0 7
5.5199 13.2120 -2.6477 0.1818 0 7
5.3066 13.2991 -2.6477 0.1818 0 7
5.0919 13.3828 -2.6477 0.1818 0 7
4.8759 13.4630 -2.6477 0.1818 0 7
4.6587 13.5397 -2.6477 0.1818 0 7
4.4402 13.6129 -2.6477 0.1818 0 7
4.2206 13.6826 -2.6477 0.1818 0 7
3.9999 13.7487 -2.6477 0.1818 0 7
3.7782 13.8113 -2.6477 0.1818 0 7
3.5555 13.8703 -2.6477 0.1818 0 7
3.3319 13.9257 -2.6477 0.1818 0 7
3.1074 13.9775 -2.6477 0.1818 0 7
2.8821 14.0257 -2.6477 0.1818 0 7
2.6560 14.0703 -2.6477 0.1818 0 7
2.4293 14.1112 -2.6477 0.1818 0 7
2.2020 14.1484 -2.6477 0.1818 0 7
1.9740 14.1820 -2.6477 0.1818 0 7
1.7456 14.2120 -2.6477 0.1818 0 7
1.5167 14.2382 -2.6477 0.1818 0 7
1.2874 14.2608 -2.6477 0.1818 0 7
1.0578 14.2796 -2.6477 0.1818 0 7
0.8279 14.2948 -2.6477 0.1818 0 7
0.5978 14.3063 -2.6477 0.1818 0 7
0.3675 14.3140 -2.6477 0.1818 0 7
0.1372 14.3181 -2.6477 0.1818 0 7
-0.0932 14.3185 -2.6477 0.1818 0 7
-0.3236 14.3151 -2.6477 0.1818 0 7
-0.5538 14.3080 -2.6477 0.1818 0 7
-0.7840 14.2973 -2.6477 0.1818 0 7
-1.0139 14.2828 -2.6477 0.1818 0 7
-1.2436 14.2647 -2.6477 0.1818 0 7
-1.4730 14.2428 -2.6477 0.1818 0 7
-1.7019 14.2173 -2.6477 0.1818 0 7
-1.9305 14.1880 -2.6477 0.1818 0 7
-2.1585 14.1551 -2.6477 0.1818 0 7
-2.3860 14.1186 -2.6477 0.1818 0 7
-2.6128 14.0784 -2.6477 0.1818 0 7
-2.8390 14.0345 -2.6477 0.1818 0 7
-3.0644 13.9870 -2.6477 0.1818 0 7
-3.2891 13.9359 -2.6477 0.1818 0 7
-3.5129 13.8812 -2.6477 0.1818 0 7
-3.7358 13.8228 -2.6477 0.1818 0 7
-3.9577 13.7610 -2.6477 0.1818 0 7
-4.1786 13.6955 -2.6477 0.1818 0 7
-4.3984 13.6265 -2.6477 0.1818 0 7
-4.6171 13.5540 -2.6477 0.1818 0 7
-4.8346 13.4779 -2.6477 0.1818 0 7
-5.0508 13.3984 -2.6477 0.1818 0 7
-5.2657 13.3154 -2.6477 0.1818 0 7
-5.4793 13.2289 -2.6477 0.1818 0 7
-5.6914 13.1391 -2.6477 0.1818 0 7
-5.9021 13.0458 -2.6477 0.1818 0 7
-6.1112 12.9491 -2.6477 0.1818 0 7
-6.3187 12.8491 -2.6477 0.1818 0 7
-6.5247 12.7458 -2.6477 0.1818 0 7
-6.7289 12.6392 -2.6477 0.1818 0 7
-6.9314 12.5293 -2.6477 0.1818 0 7
-7.1321 12.4161 -2.6477 0.1818 0 7
-7.3309 12.2998 -2.6477 0.1818 0 7
-7.5279 12.1802 -2.6477 0.1818 0 7
-7.7229 12.0575 -2.6477 0.1818 0 7
-7.9159 11.9317 -2.6477 0.1818 0 7
-8.1068 11.8028 -2.6477 0.1818 0 7
-8.2957 11.6708 -2.6477 0.1818 0 7
-8.4824 11.5359 -2.6477 0.1818 0 7
-8.6669 11.3979 -2.6477 0.1818 0 6
-8.8492 11.2570 -2.6477 0.1818 0 7
-9.0292 11.1131 -2.6477 0.1818 0 7
-9.2068 10.9664 -2.6477 0.1818 0 7
-9.3820 10.8169 -2.6477 0.1818 0 7
-9.5549 10.6645 -2.6477 0.1818 0 7
-9.7252 10.5094 -2.6477 0.1818 0 7
-9.8930 10.3516 -2.6477 0.1818 0 7
-10.0583 10.1910 -2.6477 0.1818 0 7
-10.2210 10.0279 -2.6477 0.1818 0 7
-10.3810 9.8621 -2.6477 0.1818 0 7
-10.5383 9.6938 -2.6477 0.1818 0 7
11.0154 -6.7024 -2.4953 0.1900 0 8
11.1218 -6.5243 -2.4953 0.1900 0 8
11.2254 -6.3445 -2.4953 0.1900 0 8
11.3260 -6.1631 -2.4953 0.1900 0 8
11.4237 -5.9801 -2.4953 0.1900 0 8
11.5184 -5.7955 -2.4953 0.1900 0 8
11.6102 -5.6094 -2.4953 0.1900 0 8
11.6989 -5.4219 -2.4953 0.1900 0 8
11.7847 -5.2329 -2.4953 0.1900 0 8
11.8673 -5.0427 -2.4953 0.1900 0 8
11.9469 -4.8511 -2.4953 0.1900 0 8
12.0234 -4.6582 -2.4953 0.1900 0 8
12.0968 -4.4642 -2.4953 0.1900 0 8
12.1671 -4.2690 -2.4953 0.1900 0 8
12.2342 -4.0726 -2.4953 0.1900 0 8
12.2981 -3.8753 -2.4953 0.1900 0 8
12.3589 -3.6769 -2.4953 0.1900 0 8
12.4165 -3.4776 -2.4953 0.1900 0 8
12.4708 -3.2773 -2.4953 0.1900 0 8
12.5219 -3.0763 -2.4953 0.1900 0 8
12.5698 -2.8744 -2.4953 0.1900 0 8
12.6144 -2.6718 -2.4953 0.1900 0 8
12.6558 -2.4685 -2.4953 0.1900 0 8
12.6939 -2.2645 -2.4953 0.1900 0 8
12.7286 -2.0600 -2.4953 0.1900 0 8
12.7601 -1.8549 -2.4953 0.1900 0 8
12.7883 -1.6494 -2.4953 0.1900 0 8
12.8132 -1.4434 -2.4953 0.1900 0 8
7.9428 -0.7656 -1.5442 0.2722 25 10
7.7928 -0.6247 -1.5129 0.7058 25 10
7.7084 -0.4933 -1.4948 0.9142 25 10
7.6662 -0.3668 -1.4852 0.9200 25 10
7.6426 -0.2425 -1.4797 0.9866 25 10
7.6295 -0.1193 -1.4766 0.9887 25 10
7.6203 0.0035 -1.4747 0.9973 25 10
7.6302 0.1263 -1.4768 0.9886 25 10
7.6433 0.2495 -1.4799 0.9865 25 10
7.6686 0.3740 -1.4858 0.9197 25 10
7.7112 0.5005 -1.4954 0.8770 25 10
7.7988 0.6324 -1.5142 0.7052 25 10
7.9632 0.7748 -1.5483 0.1885 25 10
12.8119 1.4551 -2.4953 0.1900 0 8
12.7868 1.6610 -2.4953 0.1900 0 8
12.7584 1.8665 -2.4953 0.1900 0 8
12.7268 2.0716 -2.4953 0.1900 0 8
12.6918 2.2761 -2.4953 0.1900 0 8
12.6535 2.4800 -2.4953 0.1900 0 8
12.6120 2.6833 -2.4953 0.1900 0 8
12.5672 2.8858 -2.4953 0.1900 0 8
12.5191 3.0877 -2.4953 0.1900 0 8
12.4678 3.2887 -2.4953 0.1900 0 8
12.4133 3.4889 -2.4953 0.1900 0 8
12.3555 3.6881 -2.4953 0.1900 0 8
12.2946 3.8865 -2.4953 0.1900 0 8
12.2305 4.0838 -2.4953 0.1900 0 8
12.1632 4.2800 -2.4953 0.1900 0 8
12.0928 4.4752 -2.4953 0.1900 0 8
12.0192 4.6692 -2.4953 0.1900 0 8
11.9425 4.8619 -2.4953 0.1900 0 8
11.8627 5.0535 -2.4953 0.1900 0 8
11.7799 5.2437 -2.4953 0.1900 0 8
11.6940 5.4325 -2.4953 0.1900 0 8
11.6051 5.6200 -2.4953 0.1900 0 8
11.5132 5.8060 -2.4953 0.1900 0 8
11.4182 5.9905 -2.4953 0.1900 0 8
11.3204 6.1734 -2.4953 0.1900 0 8
11.2196 6.3547 -2.4953 0.1900 0 8
11.1159 6.5344 -2.4953 0.1900 0 8
11.0093 6.7125 -2.4953 0.1900 0 8
10.8999 6.8887 -2.4953 0.1900 0 8
10.7876 7.0632 -2.4953 0.1900 0 8
10.6726 7.2359 -2.4953 0.1900 0 8
10.5548 7.4066 -2.4953 0.1900 0 8
10.4343 7.5755 -2.4953 0.1900 0 8
10.3110 7.7424 -2.4953 0.1900 0 8
10.1851 7.9073 -2.4953 0.1900 0 8
10.0566 8.0701 -2.4953 0.1900 0 8
9.9254 8.2309 -2.4953 0.1900 0 8
9.7917 8.3895 -2.4953 0.1900 0 8
10.2452 9.0679 -2.6477 0.1900 0 7
10.0979 9.2316 -2.6477 0.1900 0 7
9.9481 9.3929 -2.6477 0.1900 0 7
9.7957 9.5517 -2.6477 0.1900 0 7
9.6407 9.7081 -2.6477 0.1900 0 7
9.4833 9.8620 -2.6477 0.1900 0 7
9.3234 10.0133 -2.6477 0.1900 0 7
9.1611 10.1620 -2.6477 0.1900 0 7
8.9964 10.3081 -2.6477 0.1900 0 7
8.8294 10.4515 -2.6477 0.1900 0 7
8.6601 10.5922 -2.6477 0.1900 0 7
8.4885 10.7302 -2.6477 0.1900 0 7
8.3148 10.8654 -2.6477 0.1900 0 7
8.1389 10.9977 -2.6477 0.1900 0 7
7.9609 11.1273 -2.6477 0.1900 0 7
7.7808 11.2539 -2.6477 0.1900 0 7
7.5987 11.3776 -2.6477 0.1900 0 7
7.4147 11.4984 -2.6477 0.1900 0 6
7.2287 11.6162 -2.6477 0.1900 0 7
7.0409 11.7310 -2.6477 0.1900 0 7
6.8512 11.8428 -2.6477 0.1900 0 7
6.6598 11.9515 -2.6477 0.1900 0 7
6.4666 12.0571 -2.6477 0.1900 0 7
6.2718 12.1596 -2.6477 0.1900 0 7
6.0753 12.2589 -2.6477 0.1900 0 7
5.8773 12.3551 -2.6477 0.1900 0 7
5.6778 12.4481 -2.6477 0.1900 0 7
5.4767 12.5378 -2.6477 0.1900 0 7
5.2743 12.6243 -2.6477 0.1900 0 7
5.0705 12.7075 -2.6477 0.1900 0 7
4.8654 12.7875 -2.6477 0.1900 0 7
4.6590 12.8641 -2.6477 0.1900 0 7
4.4514 12.9374 -2.6477 0.1900 0 7
4.2427 13.0073 -2.6477 0.1900 0 7
4.0329 13.0739 -2.6477 0.1900 0 7
3.8220 13.1371 -2.6477 0.1900 0 7
3.6101 13.1969 -2.6477 0.1900 0 7
3.3973 13.2533 -2.6477 0.1900 0 7
3.1837 13.3062 -2.6477 0.1900 0 7
2.9692 13.3557 -2.6477 0.1900 0 7
2.7539 13.4018 -2.6477 0.1900 0 7
2.5379 13.4443 -2.6477 0.1900 0 7
2.3212 13.4834 -2.6477 0.1900 0 7
2.1040 13.5190 -2.6477 0.1900 0 7
1.8862 13.5511 -2.6477 0.1900 0 7
1.6679 13.5797 -2.6477 0.1900 0 7
1.4492 13.6048 -2.6477 0.1900 0 7
1.2301 13.6264 -2.6477 0.1900 0 7
1.0107 13.6444 -2.6477 0.1900 0 7
0.7911 13.6589 -2.6477 0.1900 0 7
0.5712 13.6699 -2.6477 0.1900 0 7
0.3512 13.6773 -2.6477 0.1900 0 7
0.1311 13.6812 -2.6477 0.1900 0 7
-0.0891 13.6815 -2.6477 0.1900 0 7
-0.3092 13.6783 -2.6477 0.1900 0 7
-0.5292 13.6715 -2.6477 0.1900 0 7
-0.7491 13.6613 -2.6477 0.1900 0 7
-0.9688 13.6474 -2.6477 0.1900 0 7
-1.1883 13.6301 -2.6477 0.1900 0 7
-1.4074 13.6092 -2.6477 0.1900 0 7
-1.6262 13.5848 -2.6477 0.1900 0 7
-1.8446 13.5569 -2.6477 0.1900 0 7
-2.0625 13.5254 -2.6477 0.1900 0 7
-2.2798 13.4905 -2.6477 0.1900 0 7
-2.4966 13.4521 -2.6477 0.1900 0 7
-2.7127 13.4102 -2.6477 0.1900 0 7
-2.9281 13.3648 -2.6477 0.1900 0 7
-3.1428 13.3159 -2.6477 0.1900 0 7
-3.3566 13.2637 -2.6477 0.1900 0 7
-3.5696 13.2079 -2.6477 0.1900 0 7
-3.7816 13.1488 -2.6477 0.1900 0 7
-3.9927 13.0862 -2.6477 0.1900 0 7
-4.2027 13.0203 -2.6477 0.1900 0 7
-4.4117 12.9510 -2.6477 0.1900 0 7
-4.6195 12.8783 -2.6477 0.1900 0 7
-4.8261 12.8023 -2.6477 0.1900 0 7
-5.0315 12.7230 -2.6477 0.1900 0 7
-5.2355 12.6404 -2.6477 0.1900 0 7
-5.4382 12.5546 -2.6477 0.1900 0 7
-5.6395 12.4654 -2.6477 0.1900 0 7
-5.8393 12.3731 -2.6477 0.1900 0 7
-6.0377 12.2775 -2.6477 0.1900 0 7
-6.2344 12.1788 -2.6477 0.1900 0 7
-6.4296 12.0769 -2.6477 0.1900 0 7
-6.6230 11.9719 -2.6477 0.1900 0 7
-6.8148 11.8638 -2.6477 0.1900 0 7
-7.0048 11.7526 -2.6477 0.1900 0 7
-7.1930 11.6384 -2.6477 0.1900 0 7
-7.3793 11.5211 -2.6477 0.1900 0 7
-7.5638 11.4009 -2.6477 0.1900 0 6
-7.7462 11.2777 -2.6477 0.1900 0 7
-7.9267 11.1517 -2.6477 0.1900 0 7
-8.1050 11.0227 -2.6477 0.1900 0 7
-8.2814 10.8908 -2.6477 0.1900 0 7
-8.4555 10.7562 -2.6477 0.1900 0 7
-8.6275 10.6187 -2.6477 0.1900 0 7
-8.7972 10.4786 -2.6477 0.1900 0 7
-8.9647 10.3357 -2.6477 0.1900 0 7
-9.1298 10.1901 -2.6477 0.1900 0 7
-9.2926 10.0419 -2.6477 0.1900 0 7
-9.4529 9.8911 -2.6477 0.1900 0 7
-9.6109 9.7377 -2.6477 0.1900 0 7
-9.7663 9.5818 -2.6477 0.1900 0 7
-9.9192 9.4234 -2.6477 0.1900 0 7
-10.0695 9.2626 -2.6477 0.1900 0 7
10.5448 -6.4161 -2.4953 0.1981 0 8
10.6467 -6.2456 -2.4953 0.1981 0 8
10.7458 -6.0735 -2.4953 0.1981 0 8
10.8421 -5.8998 -2.4953 0.1981 0 8
10.9356 -5.7246 -2.4953 0.1981 0 8
11.0263 -5.5479 -2.4953 0.1981 0 8
11.1142 -5.3698 -2.4953 0.1981 0 8
11.1991 -5.1902 -2.4953 0.1981 0 8
11.2812 -5.0094 -2.4953 0.1981 0 8
11.3603 -4.8272 -2.4953 0.1981 0 8
11.4365 -4.6438 -2.4953 0.1981 0 8
11.5098 -4.4592 -2.4953 0.1981 0 8
11.5800 -4.2734 -2.4953 0.1981 0 8
11.6473 -4.0866 -2.4953 0.1981 0 8
11.7115 -3.8987 -2.4953 0.1981 0 8
11.7727 -3.7097 -2.4953 0.1981 0 8
11.8309 -3.5198 -2.4953 0.1981 0 8
11.8860 -3.3290 -2.4953 0.1981 0 8
11.9380 -3.1373 -2.4953 0.1981 0 8
11.9870 -2.9448 -2.4953 0.1981 0 8
12.0328 -2.7516 -2.4953 0.1981 0 8
12.0755 -2.5576 -2.4953 0.1981 0 8
12.1151 -2.3630 -2.4953 0.1981 0 8
12.1515 -2.1678 -2.4953 0.1981 0 8
12.1849 -1.9720 -2.4953 0.1981 0 8
12.2150 -1.7757 -2.4953 0.1981 0 8
12.2420 -1.5789 -2.4953 0.1981 0 8
12.2658 -1.3817 -2.4953 0.1981 0 8
7.8908 -0.7605 -1.6025 0.3036 25 10
7.7571 -0.6219 -1.5732 0.7079 25 10
7.6857 -0.4918 -1.5569 0.8785 25 10
7.6439 -0.3658 -1.5470 0.9665 25 10
7.6248 -0.2420 -1.5422 0.9873 25 10
7.6118 -0.1190 -1.5389 0.9894 25 10
7.6052 0.0035 -1.5374 0.9976 25 10
7.6125 0.1260 -1.5391 0.9893 25 10
7.6256 0.2490 -1.5424 0.9872 25 10
7.6462 0.3729 -1.5475 0.9209 25 10
7.6889 0.4991 -1.5576 0.8781 25 10
7.7630 0.6294 -1.5745 0.7073 25 10
7.9222 0.7709 -1.6091 0.1891 25 10
12.2645 1.3929 -2.4953 0.1981 0 8
12.2406 1.5901 -2.4953 0.1981 0 8
12.2134 1.7868 -2.4953 0.1981 0 8
12.1831 1.9831 -2.4953 0.1981 0 8
12.1496 2.1788 -2.4953 0.1981 0 8
12.1129 2.3740 -2.4953 0.1981 0 8
12.0732 2.5686 -2.4953 0.1981 0 8
12.0303 2.7625 -2.4953 0.1981 0 8
11.9843 2.9558 -2.4953 0.1981 0 8
11.9352 3.1482 -2.4953 0.1981 0 8
11.8830 3.3398 -2.4953 0.1981 0 8
11.8277 3.5306 -2.4953 0.1981 0 8
11.7694 3.7204 -2.4953 0.1981 0 8
11.7080 3.9093 -2.4953 0.1981 0 8
11.6436 4.0972 -2.4953 0.1981 0 8
11.5761 4.2840 -2.4953 0.1981 0 8
11.5057 4.4697 -2.4953 0.1981 0 8
11.4323 4.6542 -2.4953 0.1981 0 8
11.3559 4.8376 -2.4953 0.1981 0 8
11.2766 5.0196 -2.4953 0.1981 0 8
11.1944 5.2004 -2.4953 0.1981 0 8
11.1093 5.3799 -2.4953 0.1981 0 8
11.0213 5.5579 -2.4953 0.1981 0 8
10.9304 5.7345 -2.4953 0.1981 0 8
10.8368 5.9097 -2.4953 0.1981 0 8
10.7403 6.0833 -2.4953 0.1981 0 8
10.6410 6.2553 -2.4953 0.1981 0 8
10.5390 6.4257 -2.4953 0.1981 0 8
10.4342 6.5944 -2.4953 0.1981 0 8
10.3268 6.7614 -2.4953 0.1981 0 8
10.2166 6.9267 -2.4953 0.1981 0 8
10.1039 7.0902 -2.4953 0.1981 0 8
9.9885 7.2519 -2.4953 0.1981 0 8
9.8705 7.4116 -2.4953 0.1981 0 8
9.7500 7.5695 -2.4953 0.1981 0 8
9.6269 7.7254 -2.4953 0.1981 0 8
9.5014 7.8793 -2.4953 0.1981 0 8
9.3734 8.0311 -2.4953 0.1981 0 8
9.2430 8.1809 -2.4953 0.1981 0 8
9.1193 8.3370 -2.4978 0.6063 0 8
8.9750 8.4741 -2.4953 0.1981 0 8
9.3772 9.1437 -2.6477 0.1981 0 7
9.2289 9.2934 -2.6477 0.1981 0 7
9.0781 9.4406 -2.6477 0.1981 0 7
8.9251 9.5855 -2.6477 0.1981 0 7
8.7697 9.7278 -2.6477 0.1981 0 7
8.6120 9.8677 -2.6477 0.1981 0 7
8.4522 10.0050 -2.6477 0.1981 0 7
8.2901 10.1397 -2.6477 0.1981 0 7
8.1259 10.2718 -2.6477 0.1981 0 7
7.9595 10.4012 -2.6477 0.1981 0 7
7.7912 10.5279 -2.6477 0.1981 0 7
7.6208 10.6519 -2.6477 0.1981 0 7
7.4484 10.7731 -2.6477 0.1981 0 7
7.2741 10.8916 -2.6477 0.1981 0 7
7.0979 11.0072 -2.6477 0.1981 0 7
6.9199 11.1200 -2.6477 0.1981 0 7
6.7401 11.2299 -2.6477 0.1981 0 7
6.5585 11.3369 -2.6477 0.1981 0 7
6.3753 11.4409 -2.6477 0.1981 0 6
6.1904 11.5420 -2.6477 0.1981 0 7
6.0039 11.6401 -2.6477 0.1981 0 7
5.8158 11.7352 -2.6477 0.1981 0 7
5.6262 11.8273 -2.6477 0.1981 0 7
5.4352 11.9163 -2.6477 0.1981 0 7
5.2428 12.0022 -2.6477 0.1981 0 7
5.0490 12.0850 -2.6477 0.1981 0 7
4.8539 12.1646 -2.6477 0.1981 0 7
4.6575 12.2412 -2.6477 0.1981 0 7
4.4600 12.3145 -2.6477 0.1981 0 7
4.2613 12.3847 -2.6477 0.1981 0 7
4.0614 12.4516 -2.6477 0.1981 0 7
3.8606 12.5154 -2.6477 0.1981 0 7
3.6587 12.5759 -2.6477 0.1981 0 7
3.4559 12.6331 -2.6477 0.1981 0 7
3.2522 12.6871 -2.6477 0.1981 0 7
3.0476 12.7378 -2.6477 0.1981 0 7
2.8423 12.7851 -2.6477 0.1981 0 7
2.6362 12.8292 -2.6477 0.1981 0 7
2.4295 12.8700 -2.6477 0.1981 0 7
2.2221 12.9074 -2.6477 0.1981 0 7
2.0141 12.9415 -2.6477 0.1981 0 7
1.8056 12.9722 -2.6477 0.1981 0 7
1.5967 12.9996 -2.6477 0.1981 0 7
1.3873 13.0236 -2.6477 0.1981 0 7
1.1776 13.0442 -2.6477 0.1981 0 7
0.9676 13.0615 -2.6477 0.1981 0 7
0.7573 13.0754 -2.6477 0.1981 0 7
0.5468 13.0859 -2.6477 0.1981 0 7
0.3362 13.0930 -2.6477 0.1981 0 7
0.1255 13.0967 -2.6477 0.1981 0 7
-0.0852 13.0970 -2.6477 0.1981 0 7
-0.2960 13.0939 -2.6477 0.1981 0 7
-0.5066 13.0875 -2.6477 0.1981 0 7
-0.7171 13.0776 -2.6477 0.1981 0 7
-0.9274 13.0644 -2.6477 0.1981 0 7
-1.1375 13.0478 -2.6477 0.1981 0 7
-1.3473 13.0278 -2.6477 0.1981 0 7
-1.5567 13.0044 -2.6477 0.1981 0 7
-1.7658 12.9777 -2.6477 0.1981 0 7
-1.9743 12.9476 -2.6477 0.1981 0 7
-2.1824 12.9142 -2.6477 0.1981 0 7
-2.3899 12.8774 -2.6477 0.1981 0 7
-2.5968 12.8373 -2.6477 0.1981 0 7
-2.8030 12.7938 -2.6477 0.1981 0 7
-3.0085 12.7471 -2.6477 0.1981 0 7
-3.2132 12.6970 -2.6477 0.1981 0 7
-3.4171 12.6437 -2.6477 0.1981 0 7
-3.6201 12.5870 -2.6477 0.1981 0 7
-3.8221 12.5272 -2.6477 0.1981 0 7
-4.0232 12.4641 -2.6477 0.1981 0 7
-4.2232 12.3977 -2.6477 0.1981 0 7
-4.4221 12.3281 -2.6477 0.1981 0 7
-4.6199 12.2554 -2.6477 0.1981 0 7
-4.8165 12.1795 -2.6477 0.1981 0 7
-5.0118 12.1004 -2.6477 0.1981 0 7
-5.2059 12.0182 -2.6477 0.1981 0 7
-5.3986 11.9329 -2.6477 0.1981 0 7
-5.5899 11.8445 -2.6477 0.1981 0 7
-5.7797 11.7530 -2.6477 0.1981 0 7
-5.9681 11.6585 -2.6477 0.1981 0 7
-6.1549 11.5610 -2.6477 0.1981 0 7
-6.3401 11.4604 -2.6477 0.1981 0 6
-6.5237 11.3569 -2.6477 0.1981 0 6
-6.7056 11.2505 -2.6477 0.1981 0 7
-6.8857 11.1412 -2.6477 0.1981 0 7
-7.0641 11.0289 -2.6477 0.1981 0 7
-7.2406 10.9138 -2.6477 0.1981 0 7
-7.4153 10.7959 -2.6477 0.1981 0 7
-7.5880 10.6752 -2.6477 0.1981 0 7
-7.7588 10.5518 -2.6477 0.1981 0 7
-7.9276 10.4256 -2.6477 0.1981 0 7
-8.0943 10.2967 -2.6477 0.1981 0 7
-8.2589 10.1651 -2.6477 0.1981 0 7
-8.4214 10.0309 -2.6477 0.1981 0 7
-8.5817 9.8941 -2.6477 0.1981 0 7
-8.7398 9.7547 -2.6477 0.1981 0 7
-8.8956 9.6129 -2.6477 0.1981 0 7
-9.0491 9.4685 -2.6477 0.1981 0 7
-9.2003 9.3217 -2.6477 0.1981 0 7
-9.3491 9.1724 -2.6477 0.1981 0 7
-9.4954 9.0208 -2.6477 0.1981 0 7
-9.0845 8.3565 -2.4953 0.1981 0 8
10.1114 -6.1524 -2.4953 0.2063 0 8
10.2091 -5.9889 -2.4953 0.2063 0 8
10.3041 -5.8238 -2.4953 0.2063 0 8
10.3965 -5.6573 -2.4953 0.2063 0 8
10.4862 -5.4893 -2.4953 0.2063 0 8
10.5731 -5.3199 -2.4953 0.2063 0 8
10.6574 -5.1491 -2.4953 0.2063 0 8
10.7388 -4.9769 -2.4953 0.2063 0 8
10.8175 -4.8035 -2.4953 0.2063 0 8
10.8934 -4.6288 -2.4953 0.2063 0 8
10.9665 -4.4529 -2.4953 0.2063 0 8
11.0367 -4.2759 -2.4953 0.2063 0 8
11.1040 -4.0978 -2.4953 0.2063 0 8
11.1685 -3.9186 -2.4953 0.2063 0 8
11.2301 -3.7384 -2.4953 0.2063 0 8
11.2888 -3.5572 -2.4953 0.2063 0 8
11.3446 -3.3751 -2.4953 0.2063 0 8
11.3975 -3.1922 -2.4953 0.2063 0 8
11.4473 -3.0084 -2.4953 0.2063 0 8
11.4943 -2.8238 -2.4953 0.2063 0 8
11.5382 -2.6385 -2.4953 0.2063 0 8
11.5792 -2.4525 -2.4953 0.2063 0 8
11.6171 -2.2659 -2.4953 0.2063 0 8
11.6521 -2.0787 -2.4953 0.2063 0 8
11.6840 -1.8909 -2.4953 0.2063 0 8
11.7129 -1.7027 -2.4953 0.2063 0 8
11.7388 -1.5140 -2.4953 0.2063 0 8
11.7616 -1.3250 -2.4953 0.2063 0 8
7.8726 -0.7588 -1.6674 0.3038 25 10
7.7215 -0.6190 -1.6331 0.7099 25 10
7.6635 -0.4904 -1.6189 0.8795 25 10
7.6258 -0.3649 -1.6095 0.9671 25 10
7.6071 -0.2414 -1.6045 0.9879 25 10
7.5966 -0.1188 -1.6017 0.9969 25 10
7.5901 0.0035 -1.6001 0.9979 25 10
7.5970 0.1257 -1.6018 0.9968 25 10
7.6078 0.2484 -1.6047 0.9878 25 10
7.6272 0.3719 -1.6099 0.9669 25 10
7.6666 0.4976 -1.6197 0.8791 25 10
7.7274 0.6266 -1.6344 0.7093 25 10
7.8940 0.7681 -1.6721 0.3029 25 10
11.7604 1.3357 -2.4953 0.2063 0 8
11.7374 1.5247 -2.4953 0.2063 0 8
11.7114 1.7134 -2.4953 0.2063 0 8
11.6823 1.9016 -2.4953 0.2063 0 8
11.6502 2.0893 -2.4953 0.2063 0 8
11.6151 2.2765 -2.4953 0.2063 0 8
11.5769 2.4631 -2.4953 0.2063 0 8
11.5358 2.6490 -2.4953 0.2063 0 8
11.4917 2.8343 -2.4953 0.2063 0 8
11.4446 3.0188 -2.4953 0.2063 0 8
11.3945 3.2025 -2.4953 0.2063 0 8
11.3415 3.3855 -2.4953 0.2063 0 8
11.2856 3.5675 -2.4953 0.2063 0 8
11.2267 3.7486 -2.4953 0.2063 0 8
11.1650 3.9288 -2.4953 0.2063 0 8
11.1003 4.1079 -2.4953 0.2063 0 8
11.0328 4.2860 -2.4953 0.2063 0 8
10.9624 4.4629 -2.4953 0.2063 0 8
10.8892 4.6387 -2.4953 0.2063 0 8
10.8131 4.8133 -2.4953 0.2063 0 8
10.7343 4.9867 -2.4953 0.2063 0 8
10.6527 5.1587 -2.4953 0.2063 0 8
10.5683 5.3295 -2.4953 0.2063 0 8
10.4812 5.4988 -2.4953 0.2063 0 8
10.3913 5.6668 -2.4953 0.2063 0 8
10.2988 5.8332 -2.4953 0.2063 0 8
10.2036 5.9982 -2.4953 0.2063 0 8
10.1058 6.1616 -2.4953 0.2063 0 8
10.0053 6.3234 -2.4953 0.2063 0 8
9.9023 6.4835 -2.4953 0.2063 0 8
9.7967 6.6420 -2.4953 0.2063 0 8
9.6886 6.7988 -2.4953 0.2063 0 8
9.5779 6.9538 -2.4953 0.2063 0 8
9.4648 7.1070 -2.4953 0.2063 0 8
9.3492 7.2583 -2.4953 0.2063 0 8
9.2312 7.4078 -2.4953 0.2063 0 8
9.1109 7.5554 -2.4953 0.2063 0 8
8.9881 7.7010 -2.4953 0.2063 0 8
8.8630 7.8446 -2.4953 0.2063 0 8
8.7357 7.9862 -2.4953 0.2063 0 8
8.6061 8.1257 -2.4953 0.2063 0 8
8.4742 8.2632 -2.4953 0.2063 0 8
8.3401 8.3984 -2.4953 0.2063 0 8
8.7050 9.0526 -2.6477 0.2063 0 7
8.5582 9.1915 -2.6477 0.2063 0 7
8.4092 9.3280 -2.6477 0.2063 0 7
8.2581 9.4621 -2.6477 0.2063 0 7
8.1047 9.5937 -2.6477 0.2063 0 7
7.9493 9.7229 -2.6477 0.2063 0 7
7.7919 9.8496 -2.6477 0.2063 0 7
7.6324 9.9736 -2.6477 0.2063 0 7
7.4709 10.0951 -2.6477 0.2063 0 7
7.3075 10.2141 -2.6477 0.2063 0 7
7.1422 10.3303 -2.6477 0.2063 0 7
6.9751 10.4439 -2.6477 0.2063 0 7
6.8062 10.5548 -2.6477 0.2063 0 7
6.6355 10.6629 -2.6477 0.2063 0 7
6.4631 10.7683 -2.6477 0.2063 0 7
6.2890 10.8709 -2.6477 0.2063 0 7
6.1132 10.9707 -2.6477 0.2063 0 7
5.9359 11.0676 -2.6477 0.2063 0 7
5.7571 11.1617 -2.6477 0.2063 0 7
5.5767 11.2529 -2.6477 0.2063 0 7
5.3950 11.3411 -2.6477 0.2063 0 7
5.2117 11.4265 -2.6477 0.2063 0 6
5.0273 11.5088 -2.6477 0.2063 0 7
4.8415 11.5882 -2.6477 0.2063 0 7
4.6544 11.6646 -2.6477 0.2063 0 7
4.4661 11.7380 -2.6477 0.2063 0 7
4.2767 11.8083 -2.6477 0.2063 0 7
4.0861 11.8756 -2.6477 0.2063 0 7
3.8945 11.9398 -2.6477 0.2063 0 7
3.7019 12.0010 -2.6477 0.2063 0 7
3.5083 12.0590 -2.6477 0.2063 0 7
3.3139 12.1138 -2.6477 0.2063 0 7
3.1185 12.1656 -2.6477 0.2063 0 7
2.9224 12.2142 -2.6477 0.2063 0 7
2.7255 12.2596 -2.6477 0.2063 0 7
2.5279 12.3019 -2.6477 0.2063 0 7
2.3296 12.3410 -2.6477 0.2063 0 7
2.1307 12.3769 -2.6477 0.2063 0 7
1.9313 12.4095 -2.6477 0.2063 0 7
1.7314 12.4390 -2.6477 0.2063 0 7
1.5310 12.4653 -2.6477 0.2063 0 7
1.3303 12.4883 -2.6477 0.2063 0 7
1.1292 12.5081 -2.6477 0.2063 0 7
0.9278 12.5246 -2.6477 0.2063 0 7
0.7262 12.5379 -2.6477 0.2063 0 7
0.5243 12.5480 -2.6477 0.2063 0 7
0.3224 12.5548 -2.6477 0.2063 0 7
0.1203 12.5584 -2.6477 0.2063 0 7
-0.0817 12.5587 -2.6477 0.2063 0 7
-0.2838 12.5557 -2.6477 0.2063 0 7
-0.4858 12.5495 -2.6477 0.2063 0 7
-0.6876 12.5401 -2.6477 0.2063 0 7
-0.8893 12.5274 -2.6477 0.2063 0 7
-1.0908 12.5115 -2.6477 0.2063 0 7
-1.2919 12.4923 -2.6477 0.2063 0 7
-1.4927 12.4699 -2.6477 0.2063 0 7
-1.6932 12.4443 -2.6477 0.2063 0 7
-1.8932 12.4154 -2.6477 0.2063 0 7
-2.0927 12.3834 -2.6477 0.2063 0 7
-2.2917 12.3481 -2.6477 0.2063 0 7
-2.4901 12.3096 -2.6477 0.2063 0 7
-2.6878 12.2679 -2.6477 0.2063 0 7
-2.8848 12.2231 -2.6477 0.2063 0 7
-3.0811 12.1751 -2.6477 0.2063 0 7
-3.2766 12.1240 -2.6477 0.2063 0 7
-3.4713 12.0697 -2.6477 0.2063 0 7
-3.6650 12.0123 -2.6477 0.2063 0 7
-3.8578 11.9517 -2.6477 0.2063 0 7
-4.0496 11.8881 -2.6477 0.2063 0 7
