ply
format ascii 1.0
element vertex 1437
property float32 x
property float32 y
property float32 z
property float32 CosAngle
property uint32 ObjIdx
property uint32 ObjTag
end_header
6.1877 8.0479 -2.4953 0.2387 0 8
6.0576 8.1463 -2.4953 0.2387 0 8
5.9259 8.2425 -2.4953 0.2387 0 8
5.7927 8.3367 -2.4953 0.2387 0 8
5.6580 8.4287 -2.4953 0.2387 0 8
5.8591 9.0388 -2.6477 0.2387 0 7
5.7131 9.1318 -2.6477 0.2387 0 7
5.5657 9.2224 -2.6477 0.2387 0 7
5.4168 9.3106 -2.6477 0.2387 0 7
5.2665 9.3964 -2.6477 0.2387 0 7
5.1148 9.4798 -2.6477 0.2387 0 7
9.4761 -2.4969 -2.4953 0.2468 0 8
9.5150 -2.3443 -2.4953 0.2468 0 8
9.5514 -2.1911 -2.4953 0.2468 0 8
9.5854 -2.0374 -2.4953 0.2468 0 8
9.6169 -1.8831 -2.4953 0.2468 0 8
9.6459 -1.7283 -2.4953 0.2468 0 8
9.6724 -1.5731 -2.4953 0.2468 0 8
9.6965 -1.4175 -2.4953 0.2468 0 8
9.7180 -1.2615 -2.4953 0.2468 0 8
9.7370 -1.1052 -2.4953 0.2468 0 8
7.8611 -0.7646 -2.0111 0.3995 25 10
7.6863 -0.6231 -1.9636 0.7634 25 10
7.6160 -0.4944 -1.9434 0.8549 25 10
7.5829 -0.3700 -1.9331 0.9179 25 10
7.5642 -0.2473 -1.9271 0.9625 25 10
7.5664 -0.1257 -1.9269 0.9240 25 10
7.5700 -0.0041 -1.9276 0.9237 25 10
7.5667 0.1174 -1.9269 0.9240 25 10
7.5637 0.2390 -1.9269 0.9626 25 10
7.5808 0.3615 -1.9325 0.9182 25 10
7.6123 0.4857 -1.9423 0.8554 25 10
7.6812 0.6142 -1.9621 0.7640 25 10
7.8445 0.7543 -2.0067 0.4004 25 10
9.7382 1.0946 -2.4953 0.2468 0 8
9.7194 1.2509 -2.4953 0.2468 0 8
9.6980 1.4069 -2.4953 0.2468 0 8
9.6742 1.5625 -2.4953 0.2468 0 8
9.6478 1.7178 -2.4953 0.2468 0 8
9.6190 1.8726 -2.4953 0.2468 0 8
9.5876 2.0269 -2.4953 0.2468 0 8
9.5538 2.1807 -2.4953 0.2468 0 8
9.5176 2.3339 -2.4953 0.2468 0 8
9.4788 2.4865 -2.4953 0.2468 0 8
9.4377 2.6385 -2.4953 0.2468 0 8
9.3940 2.7898 -2.4953 0.2468 0 8
9.3480 2.9404 -2.4953 0.2468 0 8
9.2996 3.0902 -2.4953 0.2468 0 8
9.2487 3.2392 -2.4953 0.2468 0 8
9.1955 3.3874 -2.4953 0.2468 0 8
9.1399 3.5347 -2.4953 0.2468 0 8
9.0819 3.6811 -2.4953 0.2468 0 8
9.0216 3.8265 -2.4953 0.2468 0 8
8.9589 3.9710 -2.4953 0.2468 0 8
8.8940 4.1144 -2.4953 0.2468 0 8
8.8267 4.2568 -2.4953 0.2468 0 8
8.7572 4.3981 -2.4953 0.2468 0 8
8.6854 4.5382 -2.4953 0.2468 0 8
8.6113 4.6772 -2.4953 0.2468 0 8
8.5351 4.8149 -2.4953 0.2468 0 8
8.4566 4.9515 -2.4953 0.2468 0 8
8.3760 5.0867 -2.4953 0.2468 0 8
8.2931 5.2206 -2.4953 0.2468 0 8
8.2082 5.3532 -2.4953 0.2468 0 8
8.1211 5.4844 -2.4953 0.2468 0 8
8.0319 5.6142 -2.4953 0.2468 0 8
7.9407 5.7425 -2.4953 0.2468 0 8
7.8474 5.8693 -2.4953 0.2468 0 8
7.7521 5.9947 -2.4953 0.2468 0 8
7.6548 6.1184 -2.4953 0.2468 0 8
7.5555 6.2406 -2.4953 0.2468 0 8
7.4542 6.3612 -2.4953 0.2468 0 8
7.3511 6.4802 -2.4953 0.2468 0 8
7.2460 6.5975 -2.4953 0.2468 0 8
7.1391 6.7130 -2.4953 0.2468 0 8
7.0303 6.8269 -2.4953 0.2468 0 8
6.9197 6.9390 -2.4953 0.2468 0 8
6.8073 7.0492 -2.4953 0.2468 0 8
6.6932 7.1577 -2.4953 0.2468 0 8
6.5773 7.2643 -2.4953 0.2468 0 8
6.4597 7.3691 -2.4953 0.2468 0 8
6.3405 7.4719 -2.4953 0.2468 0 8
6.2196 7.5728 -2.4953 0.2468 0 8
6.0971 7.6718 -2.4953 0.2468 0 8
5.9731 7.7688 -2.4953 0.2468 0 8
5.8475 7.8637 -2.4953 0.2468 0 8
5.7204 7.9567 -2.4953 0.2468 0 8
5.5918 8.0475 -2.4953 0.2468 0 8
5.4618 8.1363 -2.4953 0.2468 0 8
5.3303 8.2231 -2.4953 0.2468 0 8
5.1975 8.3076 -2.4953 0.2468 0 8
5.0634 8.3901 -2.4953 0.2468 0 8
5.2289 8.9877 -2.6477 0.2468 0 7
5.0838 9.0705 -2.6477 0.2468 0 7
4.9374 9.1510 -2.6477 0.2468 0 7
9.1572 -2.4129 -2.4953 0.2548 0 8
9.1947 -2.2654 -2.4953 0.2548 0 8
9.2300 -2.1174 -2.4953 0.2548 0 8
9.2628 -1.9688 -2.4953 0.2548 0 8
9.2932 -1.8197 -2.4953 0.2548 0 8
9.3213 -1.6702 -2.4953 0.2548 0 8
9.3469 -1.5202 -2.4953 0.2548 0 8
9.3701 -1.3698 -2.4953 0.2548 0 8
9.3909 -1.2191 -2.4953 0.2548 0 8
9.4093 -1.0680 -2.4953 0.2548 0 8
7.8949 -0.7679 -2.0901 0.5438 25 10
7.7085 -0.6249 -2.0378 0.7216 25 10
7.6308 -0.4953 -2.0149 0.7240 25 10
7.5920 -0.3704 -2.0029 0.8453 25 10
7.5752 -0.2477 -1.9971 0.8886 25 10
7.5789 -0.1259 -1.9973 0.8885 25 10
7.5795 -0.0042 -1.9972 0.9289 25 10
7.5792 0.1176 -1.9974 0.8885 25 10
7.5755 0.2394 -1.9971 0.8886 25 10
7.5899 0.3620 -2.0022 0.8456 25 10
7.6256 0.4866 -2.0134 0.7245 25 10
7.7032 0.6160 -2.0363 0.7222 25 10
7.8835 0.7580 -2.0869 0.5446 25 10
9.4105 1.0577 -2.4953 0.2548 0 8
9.3922 1.2088 -2.4953 0.2548 0 8
9.3716 1.3595 -2.4953 0.2548 0 8
9.3486 1.5099 -2.4953 0.2548 0 8
9.3231 1.6600 -2.4953 0.2548 0 8
9.2952 1.8095 -2.4953 0.2548 0 8
9.2649 1.9587 -2.4953 0.2548 0 8
9.2323 2.1073 -2.4953 0.2548 0 8
9.1972 2.2553 -2.4953 0.2548 0 8
9.1598 2.4028 -2.4953 0.2548 0 8
9.1200 2.5497 -2.4953 0.2548 0 8
9.0779 2.6959 -2.4953 0.2548 0 8
9.0334 2.8414 -2.4953 0.2548 0 8
8.9866 2.9862 -2.4953 0.2548 0 8
8.9374 3.1302 -2.4953 0.2548 0 8
8.8860 3.2734 -2.4953 0.2548 0 8
8.8322 3.4157 -2.4953 0.2548 0 8
8.7762 3.5572 -2.4953 0.2548 0 8
8.7179 3.6977 -2.4953 0.2548 0 8
8.6574 3.8373 -2.4953 0.2548 0 8
8.5946 3.9759 -2.4953 0.2548 0 8
8.5296 4.1135 -2.4953 0.2548 0 8
8.4624 4.2500 -2.4953 0.2548 0 8
8.3930 4.3855 -2.4953 0.2548 0 8
8.3215 4.5198 -2.4953 0.2548 0 8
8.2478 4.6529 -2.4953 0.2548 0 8
8.1720 4.7848 -2.4953 0.2548 0 8
8.0940 4.9155 -2.4953 0.2548 0 8
8.0140 5.0449 -2.4953 0.2548 0 8
7.9319 5.1730 -2.4953 0.2548 0 8
7.8478 5.2998 -2.4953 0.2548 0 8
7.7616 5.4252 -2.4953 0.2548 0 8
7.6734 5.5492 -2.4953 0.2548 0 8
7.5833 5.6718 -2.4953 0.2548 0 8
7.4912 5.7929 -2.4953 0.2548 0 8
7.3971 5.9125 -2.4953 0.2548 0 8
7.3012 6.0306 -2.4953 0.2548 0 8
7.2033 6.1471 -2.4953 0.2548 0 8
7.1036 6.2621 -2.4953 0.2548 0 8
7.0021 6.3754 -2.4953 0.2548 0 8
6.8988 6.4871 -2.4953 0.2548 0 8
6.7936 6.5971 -2.4953 0.2548 0 8
6.6868 6.7054 -2.4953 0.2548 0 8
6.5782 6.8120 -2.4953 0.2548 0 8
6.4679 6.9168 -2.4953 0.2548 0 8
6.3559 7.0198 -2.4953 0.2548 0 8
6.2423 7.1210 -2.4953 0.2548 0 8
6.1271 7.2204 -2.4953 0.2548 0 8
6.0103 7.3179 -2.4953 0.2548 0 8
5.8919 7.4136 -2.4953 0.2548 0 8
5.7720 7.5073 -2.4953 0.2548 0 8
5.6507 7.5990 -2.4953 0.2548 0 8
5.5278 7.6889 -2.4953 0.2548 0 8
5.4036 7.7767 -2.4953 0.2548 0 8
5.2779 7.8625 -2.4953 0.2548 0 8
5.1509 7.9463 -2.4953 0.2548 0 8
5.0226 8.0280 -2.4953 0.2548 0 8
4.8929 8.1077 -2.4953 0.2548 0 8
4.7620 8.1853 -2.4953 0.2548 0 8
4.6299 8.2607 -2.4953 0.2548 0 8
4.4966 8.3340 -2.4953 0.2548 0 8
8.8577 -2.3340 -2.4953 0.2628 0 8
8.8941 -2.1913 -2.4953 0.2628 0 8
8.9281 -2.0481 -2.4953 0.2628 0 8
8.9599 -1.9044 -2.4953 0.2628 0 8
8.9893 -1.7602 -2.4953 0.2628 0 8
9.0165 -1.6156 -2.4953 0.2628 0 8
9.0412 -1.4705 -2.4953 0.2628 0 8
9.0637 -1.3250 -2.4953 0.2628 0 8
9.0838 -1.1792 -2.4953 0.2628 0 8
9.1016 -1.0331 -2.4953 0.2628 0 8
7.9078 -0.7691 -2.1643 0.5417 25 10
7.7316 -0.6268 -2.1131 0.7179 25 10
7.6541 -0.4968 -2.0894 0.7202 25 10
7.6099 -0.3713 -2.0755 0.8415 25 10
7.5912 -0.2482 -2.0690 0.8847 25 10
7.5927 -0.1262 -2.0686 0.9251 25 10
7.5879 -0.0042 -2.0670 0.9258 25 10
7.5924 0.1178 -2.0685 0.9251 25 10
7.5915 0.2399 -2.0690 0.8847 25 10
7.6078 0.3628 -2.0748 0.8418 25 10
7.6488 0.4881 -2.0878 0.7207 25 10
7.7263 0.6178 -2.1114 0.7184 25 10
7.8963 0.7593 -2.1609 0.5426 25 10
9.1027 1.0231 -2.4953 0.2628 0 8
9.0851 1.1693 -2.4953 0.2628 0 8
9.0652 1.3151 -2.4953 0.2628 0 8
9.0429 1.4606 -2.4953 0.2628 0 8
9.0182 1.6057 -2.4953 0.2628 0 8
8.9913 1.7504 -2.4953 0.2628 0 8
8.9620 1.8946 -2.4953 0.2628 0 8
8.9304 2.0384 -2.4953 0.2628 0 8
8.8965 2.1816 -2.4953 0.2628 0 8
8.8603 2.3242 -2.4953 0.2628 0 8
8.8218 2.4663 -2.4953 0.2628 0 8
8.7810 2.6077 -2.4953 0.2628 0 8
8.7380 2.7485 -2.4953 0.2628 0 8
8.6927 2.8885 -2.4953 0.2628 0 8
8.6452 3.0278 -2.4953 0.2628 0 8
8.5954 3.1663 -2.4953 0.2628 0 8
8.5434 3.3040 -2.4953 0.2628 0 8
8.4892 3.4409 -2.4953 0.2628 0 8
8.4328 3.5768 -2.4953 0.2628 0 8
8.3743 3.7119 -2.4953 0.2628 0 8
8.3136 3.8459 -2.4953 0.2628 0 8
8.2507 3.9790 -2.4953 0.2628 0 8
8.1857 4.1111 -2.4953 0.2628 0 8
8.1186 4.2421 -2.4953 0.2628 0 8
8.0494 4.3720 -2.4953 0.2628 0 8
7.9781 4.5007 -2.4953 0.2628 0 8
7.9047 4.6283 -2.4953 0.2628 0 8
7.8294 4.7548 -2.4953 0.2628 0 8
7.7519 4.8799 -2.4953 0.2628 0 8
7.6725 5.0039 -2.4953 0.2628 0 8
7.5911 5.1265 -2.4953 0.2628 0 8
7.5078 5.2478 -2.4953 0.2628 0 8
7.4225 5.3677 -2.4953 0.2628 0 8
7.3353 5.4863 -2.4953 0.2628 0 8
7.2462 5.6035 -2.4953 0.2628 0 8
7.1552 5.7192 -2.4953 0.2628 0 8
7.0624 5.8334 -2.4953 0.2628 0 8
6.9678 5.9461 -2.4953 0.2628 0 8
6.8713 6.0573 -2.4953 0.2628 0 8
6.7731 6.1669 -2.4953 0.2628 0 8
6.6732 6.2750 -2.4953 0.2628 0 8
6.5715 6.3814 -2.4953 0.2628 0 8
6.4681 6.4861 -2.4953 0.2628 0 8
6.3631 6.5892 -2.4953 0.2628 0 8
6.2564 6.6906 -2.4953 0.2628 0 8
6.1481 6.7903 -2.4953 0.2628 0 8
6.0382 6.8882 -2.4953 0.2628 0 8
5.9267 6.9843 -2.4953 0.2628 0 8
5.8137 7.0786 -2.4953 0.2628 0 8
5.6992 7.1711 -2.4953 0.2628 0 8
5.5833 7.2618 -2.4953 0.2628 0 8
5.4659 7.3505 -2.4953 0.2628 0 8
5.3471 7.4374 -2.4953 0.2628 0 8
5.2269 7.5224 -2.4953 0.2628 0 8
5.1053 7.6054 -2.4953 0.2628 0 8
4.9825 7.6864 -2.4953 0.2628 0 8
4.8583 7.7655 -2.4953 0.2628 0 8
4.7329 7.8426 -2.4953 0.2628 0 8
4.6063 7.9176 -2.4953 0.2628 0 8
4.4785 7.9906 -2.4953 0.2628 0 8
4.3495 8.0615 -2.4953 0.2628 0 8
8.5760 -2.2597 -2.4953 0.2708 0 8
8.6112 -2.1216 -2.4953 0.2708 0 8
8.6442 -1.9830 -2.4953 0.2708 0 8
8.6749 -1.8439 -2.4953 0.2708 0 8
8.7034 -1.7042 -2.4953 0.2708 0 8
8.7297 -1.5642 -2.4953 0.2708 0 8
8.7537 -1.4237 -2.4953 0.2708 0 8
8.7754 -1.2829 -2.4953 0.2708 0 8
8.7949 -1.1417 -2.4953 0.2708 0 8
8.8121 -1.0003 -2.4953 0.2708 0 8
8.3334 -0.8105 -2.3557 0.6462 25 10
7.7550 -0.6287 -2.1891 0.7141 25 10
7.6775 -0.4984 -2.1647 0.7221 25 10
7.6316 -0.3724 -2.1498 0.8083 25 10
7.6061 -0.2487 -2.1412 0.9209 25 10
7.6012 -0.1263 -2.1389 0.9219 25 10
7.5964 -0.0042 -2.1373 0.9226 25 10
7.6009 0.1180 -2.1388 0.9220 25 10
7.6058 0.2403 -2.1410 0.9210 25 10
7.6290 0.3638 -2.1489 0.8086 25 10
7.6723 0.4896 -2.1630 0.7226 25 10
7.7496 0.6197 -2.1874 0.7146 25 10
8.3332 0.8013 -2.3554 0.6462 25 10
8.8132 0.9906 -2.4953 0.2708 0 8
8.7962 1.1321 -2.4953 0.2708 0 8
8.7768 1.2733 -2.4953 0.2708 0 8
8.7553 1.4141 -2.4953 0.2708 0 8
8.7314 1.5546 -2.4953 0.2708 0 8
8.7053 1.6947 -2.4953 0.2708 0 8
8.6769 1.8344 -2.4953 0.2708 0 8
8.6464 1.9735 -2.4953 0.2708 0 8
8.6135 2.1122 -2.4953 0.2708 0 8
8.5785 2.2503 -2.4953 0.2708 0 8
8.5412 2.3879 -2.4953 0.2708 0 8
8.5017 2.5248 -2.4953 0.2708 0 8
8.4601 2.6611 -2.4953 0.2708 0 8
8.4162 2.7967 -2.4953 0.2708 0 8
8.3702 2.9315 -2.4953 0.2708 0 8
8.3220 3.0656 -2.4953 0.2708 0 8
8.2717 3.1990 -2.4953 0.2708 0 8
8.2192 3.3314 -2.4953 0.2708 0 8
8.1646 3.4631 -2.4953 0.2708 0 8
8.1079 3.5938 -2.4953 0.2708 0 8
8.0492 3.7236 -2.4953 0.2708 0 8
7.9883 3.8525 -2.4953 0.2708 0 8
7.9254 3.9803 -2.4953 0.2708 0 8
7.8604 4.1071 -2.4953 0.2708 0 8
7.7934 4.2329 -2.4953 0.2708 0 8
7.7244 4.3576 -2.4953 0.2708 0 8
7.6533 4.4811 -2.4953 0.2708 0 8
7.5804 4.6035 -2.4953 0.2708 0 8
7.5054 4.7247 -2.4953 0.2708 0 8
7.4285 4.8447 -2.4953 0.2708 0 8
7.3497 4.9634 -2.4953 0.2708 0 8
7.2690 5.0809 -2.4953 0.2708 0 8
7.1864 5.1970 -2.4953 0.2708 0 8
7.1020 5.3118 -2.4953 0.2708 0 8
7.0158 5.4253 -2.4953 0.2708 0 8
6.9277 5.5373 -2.4953 0.2708 0 8
6.8378 5.6479 -2.4953 0.2708 0 8
6.7462 5.7570 -2.4953 0.2708 0 8
6.6528 5.8647 -2.4953 0.2708 0 8
6.5577 5.9708 -2.4953 0.2708 0 8
6.4609 6.0754 -2.4953 0.2708 0 8
6.3625 6.1784 -2.4953 0.2708 0 8
6.2624 6.2799 -2.4953 0.2708 0 8
6.1607 6.3797 -2.4953 0.2708 0 8
6.0574 6.4778 -2.4953 0.2708 0 8
5.9525 6.5743 -2.4953 0.2708 0 8
5.8461 6.6691 -2.4953 0.2708 0 8
5.7382 6.7622 -2.4953 0.2708 0 8
5.6288 6.8535 -2.4953 0.2708 0 8
5.5180 6.9431 -2.4953 0.2708 0 8
5.4057 7.0308 -2.4953 0.2708 0 8
5.2920 7.1168 -2.4953 0.2708 0 8
5.1770 7.2009 -2.4953 0.2708 0 8
5.0606 7.2831 -2.4953 0.2708 0 8
4.9430 7.3635 -2.4953 0.2708 0 8
4.8240 7.4420 -2.4953 0.2708 0 8
4.7038 7.5185 -2.4953 0.2708 0 8
4.5824 7.5931 -2.4953 0.2708 0 8
4.4598 7.6658 -2.4953 0.2708 0 8
4.3361 7.7364 -2.4953 0.2708 0 8
4.2112 7.8051 -2.4953 0.2708 0 8
8.3105 -2.1898 -2.4953 0.2788 0 8
8.3446 -2.0559 -2.4953 0.2788 0 8
8.3765 -1.9216 -2.4953 0.2788 0 8
8.4063 -1.7868 -2.4953 0.2788 0 8
8.4339 -1.6515 -2.4953 0.2788 0 8
8.4594 -1.5157 -2.4953 0.2788 0 8
8.4826 -1.3796 -2.4953 0.2788 0 8
8.5037 -1.2432 -2.4953 0.2788 0 8
8.5226 -1.1064 -2.4953 0.2788 0 8
8.5393 -0.9693 -2.4953 0.2788 0 8
8.5537 -0.8320 -2.4953 0.2788 0 8
8.4729 -0.6869 -2.4681 0.0776 25 10
8.5761 -0.5567 -2.4953 0.2788 0 8
8.5839 -0.4188 -2.4953 0.2788 0 8
8.5895 -0.2808 -2.4953 0.2788 0 8
8.5929 -0.1428 -2.4953 0.2788 0 8
8.5941 -0.0047 -2.4953 0.2788 0 8
8.5931 0.1334 -2.4953 0.2788 0 8
8.5898 0.2714 -2.4953 0.2788 0 8
8.5844 0.4094 -2.4953 0.2788 0 8
8.5767 0.5473 -2.4953 0.2788 0 8
8.5668 0.6850 -2.4953 0.2788 0 8
8.5547 0.8226 -2.4953 0.2788 0 8
8.5403 0.9599 -2.4953 0.2788 0 8
8.5238 1.0970 -2.4953 0.2788 0 8
8.5051 1.2338 -2.4953 0.2788 0 8
8.4842 1.3703 -2.4953 0.2788 0 8
8.4610 1.5065 -2.4953 0.2788 0 8
8.4357 1.6422 -2.4953 0.2788 0 8
8.4083 1.7776 -2.4953 0.2788 0 8
8.3786 1.9124 -2.4953 0.2788 0 8
8.3468 2.0468 -2.4953 0.2788 0 8
8.3129 2.1806 -2.4953 0.2788 0 8
8.2767 2.3139 -2.4953 0.2788 0 8
8.2385 2.4466 -2.4953 0.2788 0 8
8.1981 2.5787 -2.4953 0.2788 0 8
8.1556 2.7101 -2.4953 0.2788 0 8
8.1110 2.8408 -2.4953 0.2788 0 8
8.0643 2.9707 -2.4953 0.2788 0 8
8.0156 3.0999 -2.4953 0.2788 0 8
7.9647 3.2283 -2.4953 0.2788 0 8
7.9118 3.3558 -2.4953 0.2788 0 8
7.8569 3.4825 -2.4953 0.2788 0 8
7.7999 3.6083 -2.4953 0.2788 0 8
7.7409 3.7332 -2.4953 0.2788 0 8
7.6800 3.8571 -2.4953 0.2788 0 8
7.6170 3.9800 -2.4953 0.2788 0 8
7.5521 4.1018 -2.4953 0.2788 0 8
7.4852 4.2227 -2.4953 0.2788 0 8
7.4164 4.3424 -2.4953 0.2788 0 8
7.3456 4.4610 -2.4953 0.2788 0 8
7.2730 4.5784 -2.4953 0.2788 0 8
7.1985 4.6947 -2.4953 0.2788 0 8
7.1221 4.8098 -2.4953 0.2788 0 8
7.0439 4.9236 -2.4953 0.2788 0 8
6.9639 5.0361 -2.4953 0.2788 0 8
6.8821 5.1474 -2.4953 0.2788 0 8
6.7985 5.2573 -2.4953 0.2788 0 8
6.7132 5.3658 -2.4953 0.2788 0 8
6.6261 5.4730 -2.4953 0.2788 0 8
6.5373 5.5788 -2.4953 0.2788 0 8
6.4468 5.6831 -2.4953 0.2788 0 8
6.3547 5.7859 -2.4953 0.2788 0 8
6.2609 5.8873 -2.4953 0.2788 0 8
6.1655 5.9871 -2.4953 0.2788 0 8
6.0685 6.0854 -2.4953 0.2788 0 8
5.9699 6.1821 -2.4953 0.2788 0 8
5.8698 6.2772 -2.4953 0.2788 0 8
5.7682 6.3707 -2.4953 0.2788 0 8
5.6651 6.4626 -2.4953 0.2788 0 8
5.5605 6.5528 -2.4953 0.2788 0 8
5.4545 6.6413 -2.4953 0.2788 0 8
5.3471 6.7281 -2.4953 0.2788 0 8
5.2383 6.8131 -2.4953 0.2788 0 8
5.1282 6.8964 -2.4953 0.2788 0 8
5.0167 6.9779 -2.4953 0.2788 0 8
4.9039 7.0576 -2.4953 0.2788 0 8
4.7899 7.1355 -2.4953 0.2788 0 8
4.6747 7.2115 -2.4953 0.2788 0 8
4.5582 7.2857 -2.4953 0.2788 0 8
4.4405 7.3580 -2.4953 0.2788 0 8
4.3217 7.4284 -2.4953 0.2788 0 8
4.2018 7.4969 -2.4953 0.2788 0 8
4.0808 7.5634 -2.4953 0.2788 0 8
8.0597 -2.1237 -2.4953 0.2868 0 8
8.0928 -1.9939 -2.4953 0.2868 0 8
8.1238 -1.8636 -2.4953 0.2868 0 8
8.1527 -1.7329 -2.4953 0.2868 0 8
8.1795 -1.6016 -2.4953 0.2868 0 8
8.2041 -1.4700 -2.4953 0.2868 0 8
8.2267 -1.3380 -2.4953 0.2868 0 8
8.2471 -1.2056 -2.4953 0.2868 0 8
8.2654 -1.0730 -2.4953 0.2868 0 8
8.2816 -0.9400 -2.4953 0.2868 0 8
8.2956 -0.8068 -2.4953 0.2868 0 8
8.3075 -0.6735 -2.4953 0.2868 0 8
8.3173 -0.5399 -2.4953 0.2868 0 8
8.3249 -0.4062 -2.4953 0.2868 0 8
8.3303 -0.2724 -2.4953 0.2868 0 8
8.3336 -0.1385 -2.4953 0.2868 0 8
8.3348 -0.0046 -2.4953 0.2868 0 8
8.3338 0.1294 -2.4953 0.2868 0 8
8.3306 0.2632 -2.4953 0.2868 0 8
8.3253 0.3971 -2.4953 0.2868 0 8
8.3179 0.5308 -2.4953 0.2868 0 8
8.3083 0.6643 -2.4953 0.2868 0 8
8.2965 0.7978 -2.4953 0.2868 0 8
8.2826 0.9310 -2.4953 0.2868 0 8
8.2666 1.0639 -2.4953 0.2868 0 8
8.2484 1.1966 -2.4953 0.2868 0 8
8.2281 1.3290 -2.4953 0.2868 0 8
8.2057 1.4610 -2.4953 0.2868 0 8
8.1812 1.5927 -2.4953 0.2868 0 8
8.1546 1.7239 -2.4953 0.2868 0 8
8.1258 1.8547 -2.4953 0.2868 0 8
8.0950 1.9850 -2.4953 0.2868 0 8
8.0620 2.1148 -2.4953 0.2868 0 8
8.0270 2.2441 -2.4953 0.2868 0 8
7.9899 2.3728 -2.4953 0.2868 0 8
7.9507 2.5009 -2.4953 0.2868 0 8
7.9095 2.6283 -2.4953 0.2868 0 8
7.8663 2.7550 -2.4953 0.2868 0 8
7.8210 2.8811 -2.4953 0.2868 0 8
7.7737 3.0064 -2.4953 0.2868 0 8
7.7244 3.1309 -2.4953 0.2868 0 8
7.6731 3.2546 -2.4953 0.2868 0 8
7.6198 3.3774 -2.4953 0.2868 0 8
7.5646 3.4994 -2.4953 0.2868 0 8
7.5074 3.6205 -2.4953 0.2868 0 8
7.4482 3.7407 -2.4953 0.2868 0 8
7.3871 3.8599 -2.4953 0.2868 0 8
7.3242 3.9781 -2.4953 0.2868 0 8
7.2593 4.0952 -2.4953 0.2868 0 8
7.1926 4.2114 -2.4953 0.2868 0 8
7.1240 4.3264 -2.4953 0.2868 0 8
7.0535 4.4403 -2.4953 0.2868 0 8
6.9813 4.5530 -2.4953 0.2868 0 8
6.9072 4.6646 -2.4953 0.2868 0 8
6.8314 4.7750 -2.4953 0.2868 0 8
6.7538 4.8841 -2.4953 0.2868 0 8
6.6744 4.9920 -2.4953 0.2868 0 8
6.5934 5.0986 -2.4953 0.2868 0 8
6.5106 5.2039 -2.4953 0.2868 0 8
6.4262 5.3078 -2.4953 0.2868 0 8
6.3400 5.4104 -2.4953 0.2868 0 8
6.2523 5.5116 -2.4953 0.2868 0 8
6.1629 5.6113 -2.4953 0.2868 0 8
6.0720 5.7096 -2.4953 0.2868 0 8
5.9794 5.8065 -2.4953 0.2868 0 8
5.8854 5.9018 -2.4953 0.2868 0 8
5.7898 5.9956 -2.4953 0.2868 0 8
5.6927 6.0878 -2.4953 0.2868 0 8
5.5942 6.1785 -2.4953 0.2868 0 8
5.4942 6.2676 -2.4953 0.2868 0 8
5.3928 6.3551 -2.4953 0.2868 0 8
5.2899 6.4409 -2.4953 0.2868 0 8
5.1858 6.5251 -2.4953 0.2868 0 8
5.0803 6.6075 -2.4953 0.2868 0 8
4.9734 6.6883 -2.4953 0.2868 0 8
4.8653 6.7674 -2.4953 0.2868 0 8
4.7560 6.8447 -2.4953 0.2868 0 8
4.6454 6.9202 -2.4953 0.2868 0 8
4.5336 6.9939 -2.4953 0.2868 0 8
4.4206 7.0659 -2.4953 0.2868 0 8
4.3065 7.1360 -2.4953 0.2868 0 8
4.1913 7.2043 -2.4953 0.2868 0 8
4.0750 7.2707 -2.4953 0.2868 0 8
3.9577 7.3352 -2.4953 0.2868 0 8
7.8225 -2.0612 -2.4953 0.2948 0 8
7.8546 -1.9352 -2.4953 0.2948 0 8
7.8847 -1.8088 -2.4953 0.2948 0 8
7.9127 -1.6819 -2.4953 0.2948 0 8
7.9387 -1.5545 -2.4953 0.2948 0 8
7.9627 -1.4267 -2.4953 0.2948 0 8
7.9846 -1.2986 -2.4953 0.2948 0 8
8.0044 -1.1702 -2.4953 0.2948 0 8
8.0222 -1.0414 -2.4953 0.2948 0 8
8.0379 -0.9124 -2.4953 0.2948 0 8
8.0515 -0.7831 -2.4953 0.2948 0 8
8.0630 -0.6536 -2.4953 0.2948 0 8
8.0725 -0.5240 -2.4953 0.2948 0 8
8.0799 -0.3942 -2.4953 0.2948 0 8
8.0852 -0.2644 -2.4953 0.2948 0 8
8.0884 -0.1344 -2.4953 0.2948 0 8
8.0895 -0.0044 -2.4953 0.2948 0 8
8.0885 0.1255 -2.4953 0.2948 0 8
8.0854 0.2555 -2.4953 0.2948 0 8
8.0803 0.3854 -2.4953 0.2948 0 8
8.0731 0.5151 -2.4953 0.2948 0 8
8.0637 0.6448 -2.4953 0.2948 0 8
8.0523 0.7743 -2.4953 0.2948 0 8
8.0389 0.9036 -2.4953 0.2948 0 8
8.0233 1.0326 -2.4953 0.2948 0 8
8.0057 1.1614 -2.4953 0.2948 0 8
7.9860 1.2899 -2.4953 0.2948 0 8
7.9642 1.4180 -2.4953 0.2948 0 8
7.9404 1.5458 -2.4953 0.2948 0 8
7.9145 1.6732 -2.4953 0.2948 0 8
7.8866 1.8001 -2.4953 0.2948 0 8
7.8567 1.9266 -2.4953 0.2948 0 8
7.8247 2.0526 -2.4953 0.2948 0 8
7.7907 2.1781 -2.4953 0.2948 0 8
7.7547 2.3030 -2.4953 0.2948 0 8
7.7167 2.4273 -2.4953 0.2948 0 8
7.6767 2.5509 -2.4953 0.2948 0 8
7.6348 2.6739 -2.4953 0.2948 0 8
7.5908 2.7963 -2.4953 0.2948 0 8
7.5449 2.9179 -2.4953 0.2948 0 8
7.4970 3.0387 -2.4953 0.2948 0 8
7.4473 3.1588 -2.4953 0.2948 0 8
7.3955 3.2780 -2.4953 0.2948 0 8
7.3419 3.3964 -2.4953 0.2948 0 8
7.2864 3.5140 -2.4953 0.2948 0 8
7.2290 3.6306 -2.4953 0.2948 0 8
7.1697 3.7463 -2.4953 0.2948 0 8
7.1086 3.8610 -2.4953 0.2948 0 8
7.0457 3.9747 -2.4953 0.2948 0 8
6.9809 4.0874 -2.4953 0.2948 0 8
6.9143 4.1990 -2.4953 0.2948 0 8
6.8459 4.3096 -2.4953 0.2948 0 8
6.7758 4.4190 -2.4953 0.2948 0 8
6.7039 4.5273 -2.4953 0.2948 0 8
6.6303 4.6345 -2.4953 0.2948 0 8
6.5550 4.7404 -2.4953 0.2948 0 8
6.4780 4.8451 -2.4953 0.2948 0 8
6.3993 4.9486 -2.4953 0.2948 0 8
6.3190 5.0507 -2.4953 0.2948 0 8
6.2370 5.1516 -2.4953 0.2948 0 8
6.1534 5.2512 -2.4953 0.2948 0 8
6.0683 5.3494 -2.4953 0.2948 0 8
5.9815 5.4462 -2.4953 0.2948 0 8
5.8933 5.5416 -2.4953 0.2948 0 8
5.8035 5.6356 -2.4953 0.2948 0 8
5.7122 5.7281 -2.4953 0.2948 0 8
5.6194 5.8191 -2.4953 0.2948 0 8
5.5252 5.9086 -2.4953 0.2948 0 8
5.4295 5.9967 -2.4953 0.2948 0 8
5.3325 6.0831 -2.4953 0.2948 0 8
5.2340 6.1680 -2.4953 0.2948 0 8
5.1342 6.2513 -2.4953 0.2948 0 8
5.0331 6.3330 -2.4953 0.2948 0 8
4.9307 6.4131 -2.4953 0.2948 0 8
4.8271 6.4915 -2.4953 0.2948 0 8
4.7221 6.5682 -2.4953 0.2948 0 8
4.6160 6.6432 -2.4953 0.2948 0 8
4.5087 6.7165 -2.4953 0.2948 0 8
4.4002 6.7881 -2.4953 0.2948 0 8
4.2905 6.8579 -2.4953 0.2948 0 8
4.1798 6.9260 -2.4953 0.2948 0 8
4.0680 6.9922 -2.4953 0.2948 0 8
3.9551 7.0567 -2.4953 0.2948 0 8
3.8412 7.1193 -2.4953 0.2948 0 8
7.5977 -2.0020 -2.4953 0.3027 0 8
7.6289 -1.8796 -2.4953 0.3027 0 8
7.6581 -1.7568 -2.4953 0.3027 0 8
7.6853 -1.6335 -2.4953 0.3027 0 8
7.7106 -1.5098 -2.4953 0.3027 0 8
7.7339 -1.3857 -2.4953 0.3027 0 8
7.7551 -1.2613 -2.4953 0.3027 0 8
7.7744 -1.1365 -2.4953 0.3027 0 8
7.7917 -1.0115 -2.4953 0.3027 0 8
7.8069 -0.8862 -2.4953 0.3027 0 8
7.8201 -0.7606 -2.4953 0.3027 0 8
7.8313 -0.6349 -2.4953 0.3027 0 8
7.8405 -0.5089 -2.4953 0.3027 0 8
7.8477 -0.3829 -2.4953 0.3027 0 8
7.8528 -0.2568 -2.4953 0.3027 0 8
7.8559 -0.1305 -2.4953 0.3027 0 8
7.8570 -0.0043 -2.4953 0.3027 0 8
7.8561 0.1219 -2.4953 0.3027 0 8
7.8531 0.2481 -2.4953 0.3027 0 8
7.8481 0.3743 -2.4953 0.3027 0 8
7.8411 0.5003 -2.4953 0.3027 0 8
7.8320 0.6263 -2.4953 0.3027 0 8
7.8210 0.7520 -2.4953 0.3027 0 8
7.8079 0.8776 -2.4953 0.3027 0 8
7.7928 1.0029 -2.4953 0.3027 0 8
7.7756 1.1280 -2.4953 0.3027 0 8
7.7565 1.2528 -2.4953 0.3027 0 8
7.7354 1.3773 -2.4953 0.3027 0 8
7.7122 1.5014 -2.4953 0.3027 0 8
7.6871 1.6251 -2.4953 0.3027 0 8
7.6600 1.7484 -2.4953 0.3027 0 8
7.6309 1.8713 -2.4953 0.3027 0 8
7.5999 1.9936 -2.4953 0.3027 0 8
7.5669 2.1155 -2.4953 0.3027 0 8
7.5319 2.2368 -2.4953 0.3027 0 8
7.4950 2.3575 -2.4953 0.3027 0 8
7.4562 2.4776 -2.4953 0.3027 0 8
7.4154 2.5971 -2.4953 0.3027 0 8
7.3727 2.7159 -2.4953 0.3027 0 8
7.3281 2.8340 -2.4953 0.3027 0 8
7.2816 2.9514 -2.4953 0.3027 0 8
7.2333 3.0680 -2.4953 0.3027 0 8
7.1830 3.1838 -2.4953 0.3027 0 8
7.1310 3.2989 -2.4953 0.3027 0 8
7.0770 3.4130 -2.4953 0.3027 0 8
7.0213 3.5263 -2.4953 0.3027 0 8
6.9637 3.6386 -2.4953 0.3027 0 8
6.9043 3.7500 -2.4953 0.3027 0 8
6.8432 3.8605 -2.4953 0.3027 0 8
6.7803 3.9700 -2.4953 0.3027 0 8
6.7156 4.0784 -2.4953 0.3027 0 8
6.6492 4.1858 -2.4953 0.3027 0 8
6.5811 4.2921 -2.4953 0.3027 0 8
6.5113 4.3972 -2.4953 0.3027 0 8
6.4398 4.5013 -2.4953 0.3027 0 8
6.3667 4.6042 -2.4953 0.3027 0 8
6.2919 4.7059 -2.4953 0.3027 0 8
6.2154 4.8064 -2.4953 0.3027 0 8
6.1374 4.9056 -2.4953 0.3027 0 8
6.0578 5.0036 -2.4953 0.3027 0 8
5.9766 5.1003 -2.4953 0.3027 0 8
5.8939 5.1957 -2.4953 0.3027 0 8
5.8097 5.2897 -2.4953 0.3027 0 8
5.7239 5.3823 -2.4953 0.3027 0 8
5.6367 5.4736 -2.4953 0.3027 0 8
5.5480 5.5635 -2.4953 0.3027 0 8
5.4579 5.6519 -2.4953 0.3027 0 8
5.3664 5.7389 -2.4953 0.3027 0 8
5.2735 5.8244 -2.4953 0.3027 0 8
5.1792 5.9083 -2.4953 0.3027 0 8
5.0836 5.9908 -2.4953 0.3027 0 8
4.9867 6.0717 -2.4953 0.3027 0 8
4.8885 6.1510 -2.4953 0.3027 0 8
4.7891 6.2288 -2.4953 0.3027 0 8
4.6884 6.3049 -2.4953 0.3027 0 8
4.5865 6.3794 -2.4953 0.3027 0 8
4.4834 6.4523 -2.4953 0.3027 0 8
4.3791 6.5235 -2.4953 0.3027 0 8
4.2737 6.5930 -2.4953 0.3027 0 8
4.1672 6.6609 -2.4953 0.3027 0 8
4.0597 6.7270 -2.4953 0.3027 0 8
3.9511 6.7913 -2.4953 0.3027 0 8
3.8414 6.8539 -2.4953 0.3027 0 8
3.7308 6.9148 -2.4953 0.3027 0 8
7.3844 -1.9457 -2.4953 0.3106 0 8
7.4147 -1.8268 -2.4953 0.3106 0 8
7.4431 -1.7075 -2.4953 0.3106 0 8
7.4696 -1.5877 -2.4953 0.3106 0 8
7.4941 -1.4674 -2.4953 0.3106 0 8
7.5167 -1.3468 -2.4953 0.3106 0 8
7.5374 -1.2259 -2.4953 0.3106 0 8
7.5561 -1.1046 -2.4953 0.3106 0 8
7.5729 -0.9831 -2.4953 0.3106 0 8
7.5877 -0.8613 -2.4953 0.3106 0 8
7.6006 -0.7392 -2.4953 0.3106 0 8
7.6115 -0.6170 -2.4953 0.3106 0 8
7.6204 -0.4947 -2.4953 0.3106 0 8
7.6274 -0.3721 -2.4953 0.3106 0 8
7.6324 -0.2495 -2.4953 0.3106 0 8
7.6354 -0.1269 -2.4953 0.3106 0 8
7.6364 -0.0042 -2.4953 0.3106 0 8
7.6355 0.1185 -2.4953 0.3106 0 8
7.6326 0.2412 -2.4953 0.3106 0 8
7.6278 0.3638 -2.4953 0.3106 0 8
7.6209 0.4863 -2.4953 0.3106 0 8
7.6121 0.6087 -2.4953 0.3106 0 8
7.6014 0.7309 -2.4953 0.3106 0 8
7.5887 0.8530 -2.4953 0.3106 0 8
7.5740 0.9748 -2.4953 0.3106 0 8
7.5573 1.0963 -2.4953 0.3106 0 8
7.5387 1.2176 -2.4953 0.3106 0 8
7.5182 1.3386 -2.4953 0.3106 0 8
7.4957 1.4592 -2.4953 0.3106 0 8
7.4713 1.5795 -2.4953 0.3106 0 8
7.4450 1.6993 -2.4953 0.3106 0 8
7.4167 1.8187 -2.4953 0.3106 0 8
7.3865 1.9377 -2.4953 0.3106 0 8
7.3544 2.0561 -2.4953 0.3106 0 8
7.3205 2.1740 -2.4953 0.3106 0 8
7.2846 2.2913 -2.4953 0.3106 0 8
7.2468 2.4081 -2.4953 0.3106 0 8
7.2072 2.5242 -2.4953 0.3106 0 8
7.1657 2.6397 -2.4953 0.3106 0 8
7.1224 2.7545 -2.4953 0.3106 0 8
7.0772 2.8685 -2.4953 0.3106 0 8
7.0302 2.9819 -2.4953 0.3106 0 8
6.9814 3.0945 -2.4953 0.3106 0 8
6.9307 3.2062 -2.4953 0.3106 0 8
6.8783 3.3172 -2.4953 0.3106 0 8
6.8242 3.4273 -2.4953 0.3106 0 8
6.7682 3.5365 -2.4953 0.3106 0 8
6.7105 3.6448 -2.4953 0.3106 0 8
6.6511 3.7521 -2.4953 0.3106 0 8
6.5899 3.8585 -2.4953 0.3106 0 8
6.5271 3.9639 -2.4953 0.3106 0 8
6.4626 4.0682 -2.4953 0.3106 0 8
6.3964 4.1716 -2.4953 0.3106 0 8
6.3285 4.2738 -2.4953 0.3106 0 8
6.2590 4.3749 -2.4953 0.3106 0 8
6.1879 4.4749 -2.4953 0.3106 0 8
6.1152 4.5738 -2.4953 0.3106 0 8
6.0409 4.6714 -2.4953 0.3106 0 8
5.9651 4.7679 -2.4953 0.3106 0 8
5.8877 4.8631 -2.4953 0.3106 0 8
5.8088 4.9571 -2.4953 0.3106 0 8
5.7284 5.0498 -2.4953 0.3106 0 8
5.6465 5.1412 -2.4953 0.3106 0 8
5.5632 5.2312 -2.4953 0.3106 0 8
5.4784 5.3199 -2.4953 0.3106 0 8
5.3923 5.4073 -2.4953 0.3106 0 8
5.3047 5.4932 -2.4953 0.3106 0 8
5.2157 5.5778 -2.4953 0.3106 0 8
5.1254 5.6608 -2.4953 0.3106 0 8
5.0338 5.7425 -2.4953 0.3106 0 8
4.9409 5.8226 -2.4953 0.3106 0 8
4.8467 5.9012 -2.4953 0.3106 0 8
4.7513 5.9783 -2.4953 0.3106 0 8
4.6546 6.0539 -2.4953 0.3106 0 8
4.5567 6.1279 -2.4953 0.3106 0 8
4.4577 6.2003 -2.4953 0.3106 0 8
4.3575 6.2712 -2.4953 0.3106 0 8
4.2562 6.3404 -2.4953 0.3106 0 8
4.1537 6.4079 -2.4953 0.3106 0 8
4.0502 6.4739 -2.4953 0.3106 0 8
3.9457 6.5381 -2.4953 0.3106 0 8
3.8401 6.6006 -2.4953 0.3106 0 8
3.7336 6.6615 -2.4953 0.3106 0 8
3.6261 6.7206 -2.4953 0.3106 0 8
7.1817 -1.8923 -2.4953 0.3185 0 8
7.2111 -1.7767 -2.4953 0.3185 0 8
7.2388 -1.6606 -2.4953 0.3185 0 8
7.2645 -1.5441 -2.4953 0.3185 0 8
7.2884 -1.4272 -2.4953 0.3185 0 8
7.3104 -1.3099 -2.4953 0.3185 0 8
7.3305 -1.1922 -2.4953 0.3185 0 8
7.3487 -1.0743 -2.4953 0.3185 0 8
7.3650 -0.9561 -2.4953 0.3185 0 8
7.3794 -0.8376 -2.4953 0.3185 0 8
7.3919 -0.7189 -2.4953 0.3185 0 8
7.4025 -0.6001 -2.4953 0.3185 0 8
7.4112 -0.4811 -2.4953 0.3185 0 8
7.4180 -0.3619 -2.4953 0.3185 0 8
7.4228 -0.2427 -2.4953 0.3185 0 8
7.4258 -0.1234 -2.4953 0.3185 0 8
7.4268 -0.0041 -2.4953 0.3185 0 8
7.4259 0.1153 -2.4953 0.3185 0 8
7.4231 0.2346 -2.4953 0.3185 0 8
7.4184 0.3538 -2.4953 0.3185 0 8
7.4117 0.4729 -2.4953 0.3185 0 8
7.4032 0.5920 -2.4953 0.3185 0 8
7.3927 0.7108 -2.4953 0.3185 0 8
7.3803 0.8295 -2.4953 0.3185 0 8
7.3660 0.9480 -2.4953 0.3185 0 8
7.3499 1.0662 -2.4953 0.3185 0 8
7.3318 1.1842 -2.4953 0.3185 0 8
7.3118 1.3019 -2.4953 0.3185 0 8
7.2899 1.4192 -2.4953 0.3185 0 8
7.2662 1.5361 -2.4953 0.3185 0 8
7.2406 1.6527 -2.4953 0.3185 0 8
7.2131 1.7688 -2.4953 0.3185 0 8
7.1837 1.8845 -2.4953 0.3185 0 8
7.1525 1.9996 -2.4953 0.3185 0 8
7.1195 2.1143 -2.4953 0.3185 0 8
7.0846 2.2284 -2.4953 0.3185 0 8
7.0479 2.3420 -2.4953 0.3185 0 8
7.0093 2.4549 -2.4953 0.3185 0 8
6.9690 2.5672 -2.4953 0.3185 0 8
6.9268 2.6788 -2.4953 0.3185 0 8
6.8829 2.7898 -2.4953 0.3185 0 8
6.8372 2.9000 -2.4953 0.3185 0 8
6.7897 3.0095 -2.4953 0.3185 0 8
6.7405 3.1182 -2.4953 0.3185 0 8
6.6895 3.2261 -2.4953 0.3185 0 8
6.6368 3.3332 -2.4953 0.3185 0 8
6.5824 3.4394 -2.4953 0.3185 0 8
6.5263 3.5447 -2.4953 0.3185 0 8
6.4685 3.6491 -2.4953 0.3185 0 8
6.4090 3.7526 -2.4953 0.3185 0 8
6.3479 3.8551 -2.4953 0.3185 0 8
6.2851 3.9566 -2.4953 0.3185 0 8
6.2208 4.0570 -2.4953 0.3185 0 8
6.1548 4.1565 -2.4953 0.3185 0 8
6.0872 4.2548 -2.4953 0.3185 0 8
6.0180 4.3521 -2.4953 0.3185 0 8
5.9473 4.4482 -2.4953 0.3185 0 8
5.8751 4.5432 -2.4953 0.3185 0 8
5.8013 4.6370 -2.4953 0.3185 0 8
5.7261 4.7296 -2.4953 0.3185 0 8
5.6494 4.8210 -2.4953 0.3185 0 8
5.5712 4.9112 -2.4953 0.3185 0 8
5.4915 5.0000 -2.4953 0.3185 0 8
5.4105 5.0876 -2.4953 0.3185 0 8
5.3280 5.1739 -2.4953 0.3185 0 8
5.2442 5.2588 -2.4953 0.3185 0 8
5.1591 5.3424 -2.4953 0.3185 0 8
5.0726 5.4246 -2.4953 0.3185 0 8
4.9847 5.5054 -2.4953 0.3185 0 8
4.8956 5.5848 -2.4953 0.3185 0 8
4.8053 5.6628 -2.4953 0.3185 0 8
4.7137 5.7392 -2.4953 0.3185 0 8
4.6208 5.8142 -2.4953 0.3185 0 8
4.5268 5.8877 -2.4953 0.3185 0 8
4.4316 5.9597 -2.4953 0.3185 0 8
4.3353 6.0301 -2.4953 0.3185 0 8
4.2379 6.0990 -2.4953 0.3185 0 8
4.1393 6.1663 -2.4953 0.3185 0 8
4.0397 6.2320 -2.4953 0.3185 0 8
3.9391 6.2961 -2.4953 0.3185 0 8
3.8374 6.3586 -2.4953 0.3185 0 8
3.7347 6.4194 -2.4953 0.3185 0 8
3.6311 6.4786 -2.4953 0.3185 0 8
3.5265 6.5361 -2.4953 0.3185 0 8
6.9887 -1.8415 -2.4953 0.3264 0 8
7.0174 -1.7290 -2.4953 0.3264 0 8
7.0443 -1.6160 -2.4953 0.3264 0 8
7.0694 -1.5026 -2.4953 0.3264 0 8
7.0926 -1.3888 -2.4953 0.3264 0 8
7.1140 -1.2747 -2.4953 0.3264 0 8
7.1335 -1.1602 -2.4953 0.3264 0 8
7.1513 -1.0454 -2.4953 0.3264 0 8
7.1671 -0.9304 -2.4953 0.3264 0 8
7.1812 -0.8151 -2.4953 0.3264 0 8
7.1933 -0.6996 -2.4953 0.3264 0 8
7.2036 -0.5840 -2.4953 0.3264 0 8
7.2121 -0.4681 -2.4953 0.3264 0 8
7.2187 -0.3522 -2.4953 0.3264 0 8
7.2234 -0.2362 -2.4953 0.3264 0 8
7.2263 -0.1201 -2.4953 0.3264 0 8
7.2273 -0.0040 -2.4953 0.3264 0 8
7.2264 0.1122 -2.4953 0.3264 0 8
7.2237 0.2283 -2.4953 0.3264 0 8
7.2191 0.3443 -2.4953 0.3264 0 8
7.2126 0.4602 -2.4953 0.3264 0 8
7.2043 0.5761 -2.4953 0.3264 0 8
7.1941 0.6917 -2.4953 0.3264 0 8
7.1821 0.8073 -2.4953 0.3264 0 8
7.1682 0.9225 -2.4953 0.3264 0 8
7.1524 1.0376 -2.4953 0.3264 0 8
7.1348 1.1524 -2.4953 0.3264 0 8
7.1154 1.2669 -2.4953 0.3264 0 8
7.0941 1.3810 -2.4953 0.3264 0 8
7.0710 1.4948 -2.4953 0.3264 0 8
7.0461 1.6083 -2.4953 0.3264 0 8
7.0193 1.7213 -2.4953 0.3264 0 8
6.9908 1.8338 -2.4953 0.3264 0 8
6.9604 1.9459 -2.4953 0.3264 0 8
6.9282 2.0575 -2.4953 0.3264 0 8
6.8943 2.1686 -2.4953 0.3264 0 8
6.8585 2.2790 -2.4953 0.3264 0 8
6.8210 2.3890 -2.4953 0.3264 0 8
6.7818 2.4982 -2.4953 0.3264 0 8
6.7407 2.6069 -2.4953 0.3264 0 8
6.6980 2.7148 -2.4953 0.3264 0 8
6.6535 2.8221 -2.4953 0.3264 0 8
6.6073 2.9287 -2.4953 0.3264 0 8
6.5594 3.0344 -2.4953 0.3264 0 8
6.5098 3.1394 -2.4953 0.3264 0 8
6.4585 3.2436 -2.4953 0.3264 0 8
6.4056 3.3470 -2.4953 0.3264 0 8
6.3510 3.4495 -2.4953 0.3264 0 8
6.2947 3.5511 -2.4953 0.3264 0 8
6.2368 3.6518 -2.4953 0.3264 0 8
6.1774 3.7515 -2.4953 0.3264 0 8
6.1163 3.8503 -2.4953 0.3264 0 8
6.0536 3.9480 -2.4953 0.3264 0 8
5.9894 4.0448 -2.4953 0.3264 0 8
5.9237 4.1405 -2.4953 0.3264 0 8
5.8564 4.2352 -2.4953 0.3264 0 8
5.7876 4.3287 -2.4953 0.3264 0 8
5.7173 4.4211 -2.4953 0.3264 0 8
5.6455 4.5124 -2.4953 0.3264 0 8
5.5723 4.6026 -2.4953 0.3264 0 8
5.4976 4.6915 -2.4953 0.3264 0 8
5.4215 4.7792 -2.4953 0.3264 0 8
5.3440 4.8657 -2.4953 0.3264 0 8
5.2651 4.9509 -2.4953 0.3264 0 8
5.1849 5.0349 -2.4953 0.3264 0 8
5.1033 5.1176 -2.4953 0.3264 0 8
5.0205 5.1989 -2.4953 0.3264 0 8
4.9363 5.2789 -2.4953 0.3264 0 8
4.8508 5.3575 -2.4953 0.3264 0 8
4.7641 5.4348 -2.4953 0.3264 0 8
4.6762 5.5106 -2.4953 0.3264 0 8
4.5870 5.5850 -2.4953 0.3264 0 8
4.4967 5.6580 -2.4953 0.3264 0 8
4.4052 5.7295 -2.4953 0.3264 0 8
4.3126 5.7996 -2.4953 0.3264 0 8
4.2188 5.8681 -2.4953 0.3264 0 8
4.1240 5.9352 -2.4953 0.3264 0 8
4.0281 6.0006 -2.4953 0.3264 0 8
3.9312 6.0646 -2.4953 0.3264 0 8
3.8332 6.1270 -2.4953 0.3264 0 8
3.7343 6.1878 -2.4953 0.3264 0 8
3.6344 6.2470 -2.4953 0.3264 0 8
3.5335 6.3046 -2.4953 0.3264 0 8
3.4318 6.3605 -2.4953 0.3264 0 8
6.8049 -1.7930 -2.4953 0.3342 0 8
6.8328 -1.6835 -2.4953 0.3342 0 8
6.8590 -1.5735 -2.4953 0.3342 0 8
6.8834 -1.4631 -2.4953 0.3342 0 8
6.9060 -1.3523 -2.4953 0.3342 0 8
6.9268 -1.2411 -2.4953 0.3342 0 8
6.9459 -1.1297 -2.4953 0.3342 0 8
6.9631 -1.0179 -2.4953 0.3342 0 8
6.9786 -0.9059 -2.4953 0.3342 0 8
6.9922 -0.7937 -2.4953 0.3342 0 8
7.0041 -0.6812 -2.4953 0.3342 0 8
7.0141 -0.5686 -2.4953 0.3342 0 8
7.0224 -0.4558 -2.4953 0.3342 0 8
7.0288 -0.3429 -2.4953 0.3342 0 8
7.0334 -0.2300 -2.4953 0.3342 0 8
7.0362 -0.1169 -2.4953 0.3342 0 8
7.0371 -0.0039 -2.4953 0.3342 0 8
7.0363 0.1092 -2.4953 0.3342 0 8
7.0336 0.2223 -2.4953 0.3342 0 8
7.0291 0.3352 -2.4953 0.3342 0 8
7.0229 0.4481 -2.4953 0.3342 0 8
7.0147 0.5609 -2.4953 0.3342 0 8
7.0048 0.6736 -2.4953 0.3342 0 8
6.9931 0.7860 -2.4953 0.3342 0 8
6.9796 0.8983 -2.4953 0.3342 0 8
6.9642 1.0103 -2.4953 0.3342 0 8
6.9471 1.1221 -2.4953 0.3342 0 8
6.9282 1.2335 -2.4953 0.3342 0 8
6.9075 1.3447 -2.4953 0.3342 0 8
6.8850 1.4555 -2.4953 0.3342 0 8
6.8607 1.5660 -2.4953 0.3342 0 8
6.8346 1.6760 -2.4953 0.3342 0 8
6.8068 1.7856 -2.4953 0.3342 0 8
6.7773 1.8947 -2.4953 0.3342 0 8
6.7459 2.0034 -2.4953 0.3342 0 8
6.7129 2.1115 -2.4953 0.3342 0 8
6.6781 2.2191 -2.4953 0.3342 0 8
6.6416 2.3261 -2.4953 0.3342 0 8
6.6033 2.4325 -2.4953 0.3342 0 8
6.5634 2.5383 -2.4953 0.3342 0 8
6.5218 2.6434 -2.4953 0.3342 0 8
6.4785 2.7479 -2.4953 0.3342 0 8
6.4335 2.8516 -2.4953 0.3342 0 8
6.3868 2.9546 -2.4953 0.3342 0 8
6.3385 3.0568 -2.4953 0.3342 0 8
6.2886 3.1583 -2.4953 0.3342 0 8
6.2370 3.2589 -2.4953 0.3342 0 8
6.1839 3.3587 -2.4953 0.3342 0 8
6.1291 3.4577 -2.4953 0.3342 0 8
6.0728 3.5557 -2.4953 0.3342 0 8
6.0148 3.6528 -2.4953 0.3342 0 8
5.9554 3.7490 -2.4953 0.3342 0 8
5.8944 3.8442 -2.4953 0.3342 0 8
5.8318 3.9384 -2.4953 0.3342 0 8
5.7678 4.0316 -2.4953 0.3342 0 8
5.7023 4.1237 -2.4953 0.3342 0 8
5.6353 4.2148 -2.4953 0.3342 0 8
5.5668 4.3048 -2.4953 0.3342 0 8
5.4970 4.3937 -2.4953 0.3342 0 8
5.4257 4.4815 -2.4953 0.3342 0 8
5.3529 4.5681 -2.4953 0.3342 0 8
5.2789 4.6535 -2.4953 0.3342 0 8
5.2034 4.7377 -2.4953 0.3342 0 8
5.1266 4.8207 -2.4953 0.3342 0 8
5.0485 4.9024 -2.4953 0.3342 0 8
4.9691 4.9829 -2.4953 0.3342 0 8
4.8884 5.0621 -2.4953 0.3342 0 8
4.8064 5.1400 -2.4953 0.3342 0 8
4.7232 5.2166 -2.4953 0.3342 0 8
4.6388 5.2918 -2.4953 0.3342 0 8
4.5531 5.3656 -2.4953 0.3342 0 8
4.4663 5.4381 -2.4953 0.3342 0 8
4.3784 5.5092 -2.4953 0.3342 0 8
4.2893 5.5788 -2.4953 0.3342 0 8
4.1991 5.6470 -2.4953 0.3342 0 8
4.1078 5.7137 -2.4953 0.3342 0 8
4.0155 5.7790 -2.4953 0.3342 0 8
3.9221 5.8428 -2.4953 0.3342 0 8
3.8278 5.9050 -2.4953 0.3342 0 8
3.7324 5.9658 -2.4953 0.3342 0 8
3.6360 6.0250 -2.4953 0.3342 0 8
3.5388 6.0826 -2.4953 0.3342 0 8
3.4406 6.1387 -2.4953 0.3342 0 8
3.3415 6.1932 -2.4953 0.3342 0 8
6.6294 -1.7468 -2.4953 0.3420 0 8
6.6566 -1.6401 -2.4953 0.3420 0 8
6.6821 -1.5329 -2.4953 0.3420 0 8
6.7059 -1.4253 -2.4953 0.3420 0 8
6.7279 -1.3174 -2.4953 0.3420 0 8
6.7482 -1.2091 -2.4953 0.3420 0 8
6.7668 -1.1006 -2.4953 0.3420 0 8
6.7836 -0.9917 -2.4953 0.3420 0 8
6.7987 -0.8826 -2.4953 0.3420 0 8
6.8120 -0.7732 -2.4953 0.3420 0 8
6.8235 -0.6637 -2.4953 0.3420 0 8
6.8333 -0.5539 -2.4953 0.3420 0 8
6.8413 -0.4441 -2.4953 0.3420 0 8
6.8476 -0.3341 -2.4953 0.3420 0 8
6.8520 -0.2240 -2.4953 0.3420 0 8
6.8548 -0.1139 -2.4953 0.3420 0 8
6.8557 -0.0038 -2.4953 0.3420 0 8
6.8549 0.1064 -2.4953 0.3420 0 8
6.8523 0.2165 -2.4953 0.3420 0 8
6.8479 0.3266 -2.4953 0.3420 0 8
6.8418 0.4366 -2.4953 0.3420 0 8
6.8339 0.5465 -2.4953 0.3420 0 8
6.8242 0.6562 -2.4953 0.3420 0 8
6.8128 0.7657 -2.4953 0.3420 0 8
6.7996 0.8751 -2.4953 0.3420 0 8
6.7847 0.9843 -2.4953 0.3420 0 8
6.7680 1.0931 -2.4953 0.3420 0 8
6.7496 1.2017 -2.4953 0.3420 0 8
6.7294 1.3100 -2.4953 0.3420 0 8
6.7075 1.4180 -2.4953 0.3420 0 8
6.6838 1.5256 -2.4953 0.3420 0 8
6.6584 1.6328 -2.4953 0.3420 0 8
6.6313 1.7395 -2.4953 0.3420 0 8
6.6025 1.8459 -2.4953 0.3420 0 8
6.5720 1.9517 -2.4953 0.3420 0 8
6.5398 2.0571 -2.4953 0.3420 0 8
6.5059 2.1619 -2.4953 0.3420 0 8
6.4703 2.2661 -2.4953 0.3420 0 8
6.4331 2.3698 -2.4953 0.3420 0 8
6.3942 2.4729 -2.4953 0.3420 0 8
6.3536 2.5753 -2.4953 0.3420 0 8
6.3114 2.6770 -2.4953 0.3420 0 8
6.2676 2.7781 -2.4953 0.3420 0 8
6.2222 2.8784 -2.4953 0.3420 0 8
6.1751 2.9780 -2.4953 0.3420 0 8
6.1265 3.0769 -2.4953 0.3420 0 8
6.0762 3.1749 -2.4953 0.3420 0 8
6.0244 3.2721 -2.4953 0.3420 0 8
5.9711 3.3685 -2.4953 0.3420 0 8
5.9162 3.4640 -2.4953 0.3420 0 8
5.8598 3.5586 -2.4953 0.3420 0 8
5.8018 3.6523 -2.4953 0.3420 0 8
5.7424 3.7451 -2.4953 0.3420 0 8
5.6815 3.8368 -2.4953 0.3420 0 8
5.6191 3.9276 -2.4953 0.3420 0 8
5.5553 4.0174 -2.4953 0.3420 0 8
5.4900 4.1062 -2.4953 0.3420 0 8
5.4233 4.1938 -2.4953 0.3420 0 8
5.3552 4.2804 -2.4953 0.3420 0 8
5.2858 4.3659 -2.4953 0.3420 0 8
5.2149 4.4503 -2.4953 0.3420 0 8
5.1428 4.5335 -2.4953 0.3420 0 8
5.0693 4.6156 -2.4953 0.3420 0 8
4.9944 4.6964 -2.4953 0.3420 0 8
4.9183 4.7760 -2.4953 0.3420 0 8
4.8410 4.8545 -2.4953 0.3420 0 8
4.7623 4.9316 -2.4953 0.3420 0 8
4.6825 5.0075 -2.4953 0.3420 0 8
4.6014 5.0821 -2.4953 0.3420 0 8
4.5192 5.1554 -2.4953 0.3420 0 8
4.4358 5.2273 -2.4953 0.3420 0 8
4.3512 5.2979 -2.4953 0.3420 0 8
4.2655 5.3671 -2.4953 0.3420 0 8
4.1787 5.4350 -2.4953 0.3420 0 8
4.0909 5.5014 -2.4953 0.3420 0 8
4.0019 5.5664 -2.4953 0.3420 0 8
3.9120 5.6300 -2.4953 0.3420 0 8
3.8210 5.6921 -2.4953 0.3420 0 8
3.7291 5.7528 -2.4953 0.3420 0 8
3.6362 5.8120 -2.4953 0.3420 0 8
3.5423 5.8696 -2.4953 0.3420 0 8
3.4475 5.9258 -2.4953 0.3420 0 8
3.3519 5.9804 -2.4953 0.3420 0 8
3.2554 6.0335 -2.4953 0.3420 0 8
6.4618 -1.7027 -2.4953 0.3498 0 8
6.4883 -1.5986 -2.4953 0.3498 0 8
6.5132 -1.4941 -2.4953 0.3498 0 8
6.5363 -1.3893 -2.4953 0.3498 0 8
6.5578 -1.2841 -2.4953 0.3498 0 8
6.5776 -1.1786 -2.4953 0.3498 0 8
6.5957 -1.0727 -2.4953 0.3498 0 8
6.6121 -0.9666 -2.4953 0.3498 0 8
6.6268 -0.8603 -2.4953 0.3498 0 8
6.6397 -0.7537 -2.4953 0.3498 0 8
6.6510 -0.6469 -2.4953 0.3498 0 8
6.6605 -0.5399 -2.4953 0.3498 0 8
6.6683 -0.4329 -2.4953 0.3498 0 8
6.6744 -0.3257 -2.4953 0.3498 0 8
6.6788 -0.2184 -2.4953 0.3498 0 8
6.6814 -0.1110 -2.4953 0.3498 0 8
6.6824 -0.0037 -2.4953 0.3498 0 8
6.6816 0.1037 -2.4953 0.3498 0 8
6.6790 0.2110 -2.4953 0.3498 0 8
6.6748 0.3183 -2.4953 0.3498 0 8
6.6688 0.4255 -2.4953 0.3498 0 8
6.6611 0.5326 -2.4953 0.3498 0 8
6.6517 0.6396 -2.4953 0.3498 0 8
6.6406 0.7464 -2.4953 0.3498 0 8
6.6277 0.8530 -2.4953 0.3498 0 8
6.6131 0.9594 -2.4953 0.3498 0 8
6.5969 1.0655 -2.4953 0.3498 0 8
6.5789 1.1714 -2.4953 0.3498 0 8
6.5592 1.2769 -2.4953 0.3498 0 8
6.5379 1.3821 -2.4953 0.3498 0 8
6.5148 1.4870 -2.4953 0.3498 0 8
6.4901 1.5915 -2.4953 0.3498 0 8
6.4637 1.6956 -2.4953 0.3498 0 8
6.4356 1.7992 -2.4953 0.3498 0 8
6.4059 1.9024 -2.4953 0.3498 0 8
6.3745 2.0051 -2.4953 0.3498 0 8
6.3414 2.1072 -2.4953 0.3498 0 8
6.3068 2.2088 -2.4953 0.3498 0 8
6.2704 2.3099 -2.4953 0.3498 0 8
6.2325 2.4103 -2.4953 0.3498 0 8
6.1930 2.5102 -2.4953 0.3498 0 8
6.1519 2.6093 -2.4953 0.3498 0 8
6.1091 2.7079 -2.4953 0.3498 0 8
6.0648 2.8057 -2.4953 0.3498 0 8
6.0190 2.9027 -2.4953 0.3498 0 8
5.9716 2.9991 -2.4953 0.3498 0 8
5.9226 3.0946 -2.4953 0.3498 0 8
5.8721 3.1894 -2.4953 0.3498 0 8
5.8201 3.2833 -2.4953 0.3498 0 8
5.7666 3.3764 -2.4953 0.3498 0 8
5.7116 3.4686 -2.4953 0.3498 0 8
5.6551 3.5600 -2.4953 0.3498 0 8
5.5972 3.6504 -2.4953 0.3498 0 8
5.5378 3.7398 -2.4953 0.3498 0 8
5.4770 3.8283 -2.4953 0.3498 0 8
5.4148 3.9158 -2.4953 0.3498 0 8
5.3512 4.0023 -2.4953 0.3498 0 8
5.2862 4.0878 -2.4953 0.3498 0 8
5.2198 4.1722 -2.4953 0.3498 0 8
5.1521 4.2555 -2.4953 0.3498 0 8
5.0831 4.3378 -2.4953 0.3498 0 8
5.0127 4.4189 -2.4953 0.3498 0 8
4.9411 4.4989 -2.4953 0.3498 0 8
4.8682 4.5777 -2.4953 0.3498 0 8
4.7940 4.6553 -2.4953 0.3498 0 8
4.7186 4.7317 -2.4953 0.3498 0 8
4.6419 4.8069 -2.4953 0.3498 0 8
4.5641 4.8809 -2.4953 0.3498 0 8
4.4851 4.9536 -2.4953 0.3498 0 8
4.4049 5.0250 -2.4953 0.3498 0 8
4.3236 5.0951 -2.4953 0.3498 0 8
4.2412 5.1640 -2.4953 0.3498 0 8
4.1577 5.2314 -2.4953 0.3498 0 8
4.0731 5.2976 -2.4953 0.3498 0 8
3.9874 5.3623 -2.4953 0.3498 0 8
3.9008 5.4257 -2.4953 0.3498 0 8
3.8131 5.4877 -2.4953 0.3498 0 8
3.7244 5.5482 -2.4953 0.3498 0 8
3.6348 5.6073 -2.4953 0.3498 0 8
3.5442 5.6650 -2.4953 0.3498 0 8
3.4527 5.7212 -2.4953 0.3498 0 8
3.3604 5.7760 -2.4953 0.3498 0 8
3.2671 5.8292 -2.4953 0.3498 0 8
3.1730 5.8810 -2.4953 0.3498 0 8
6.3015 -1.6604 -2.4953 0.3576 0 8
6.3274 -1.5589 -2.4953 0.3576 0 8
6.3516 -1.4571 -2.4953 0.3576 0 8
6.3742 -1.3548 -2.4953 0.3576 0 8
6.3951 -1.2522 -2.4953 0.3576 0 8
6.4144 -1.1493 -2.4953 0.3576 0 8
6.4321 -1.0461 -2.4953 0.3576 0 8
6.4480 -0.9426 -2.4953 0.3576 0 8
6.4624 -0.8389 -2.4953 0.3576 0 8
6.4750 -0.7350 -2.4953 0.3576 0 8
6.4860 -0.6308 -2.4953 0.3576 0 8
6.4953 -0.5265 -2.4953 0.3576 0 8
6.5029 -0.4221 -2.4953 0.3576 0 8
6.5088 -0.3176 -2.4953 0.3576 0 8
6.5131 -0.2130 -2.4953 0.3576 0 8
6.5157 -0.1083 -2.4953 0.3576 0 8
6.5166 -0.0036 -2.4953 0.3576 0 8
6.5158 0.1011 -2.4953 0.3576 0 8
6.5133 0.2058 -2.4953 0.3576 0 8
6.5092 0.3104 -2.4953 0.3576 0 8
6.5034 0.4150 -2.4953 0.3576 0 8
6.4959 0.5194 -2.4953 0.3576 0 8
6.4867 0.6237 -2.4953 0.3576 0 8
6.4758 0.7279 -2.4953 0.3576 0 8
6.4633 0.8318 -2.4953 0.3576 0 8
6.4491 0.9356 -2.4953 0.3576 0 8
6.4332 1.0391 -2.4953 0.3576 0 8
6.4157 1.1423 -2.4953 0.3576 0 8
6.3965 1.2452 -2.4953 0.3576 0 8
6.3757 1.3479 -2.4953 0.3576 0 8
6.3532 1.4501 -2.4953 0.3576 0 8
6.3291 1.5520 -2.4953 0.3576 0 8
6.3033 1.6535 -2.4953 0.3576 0 8
6.2759 1.7546 -2.4953 0.3576 0 8
6.2469 1.8552 -2.4953 0.3576 0 8
6.2163 1.9553 -2.4953 0.3576 0 8
6.1841 2.0549 -2.4953 0.3576 0 8
6.1503 2.1540 -2.4953 0.3576 0 8
6.1149 2.2526 -2.4953 0.3576 0 8
6.0779 2.3505 -2.4953 0.3576 0 8
6.0394 2.4479 -2.4953 0.3576 0 8
5.9992 2.5446 -2.4953 0.3576 0 8
5.9576 2.6407 -2.4953 0.3576 0 8
5.9144 2.7361 -2.4953 0.3576 0 8
5.8697 2.8307 -2.4953 0.3576 0 8
5.8234 2.9247 -2.4953 0.3576 0 8
5.7757 3.0179 -2.4953 0.3576 0 8
5.7264 3.1103 -2.4953 0.3576 0 8
5.6757 3.2019 -2.4953 0.3576 0 8
5.6235 3.2927 -2.4953 0.3576 0 8
5.5699 3.3826 -2.4953 0.3576 0 8
5.5148 3.4717 -2.4953 0.3576 0 8
5.4584 3.5598 -2.4953 0.3576 0 8
5.4005 3.6471 -2.4953 0.3576 0 8
5.3412 3.7334 -2.4953 0.3576 0 8
5.2805 3.8187 -2.4953 0.3576 0 8
5.2184 3.9030 -2.4953 0.3576 0 8
5.1551 3.9864 -2.4953 0.3576 0 8
5.0903 4.0687 -2.4953 0.3576 0 8
5.0243 4.1500 -2.4953 0.3576 0 8
4.9570 4.2302 -2.4953 0.3576 0 8
4.8884 4.3093 -2.4953 0.3576 0 8
4.8185 4.3872 -2.4953 0.3576 0 8
4.7474 4.4641 -2.4953 0.3576 0 8
4.6751 4.5398 -2.4953 0.3576 0 8
4.6015 4.6143 -2.4953 0.3576 0 8
4.5268 4.6877 -2.4953 0.3576 0 8
4.4509 4.7598 -2.4953 0.3576 0 8
4.3738 4.8307 -2.4953 0.3576 0 8
4.2956 4.9003 -2.4953 0.3576 0 8
4.2163 4.9687 -2.4953 0.3576 0 8
4.1360 5.0358 -2.4953 0.3576 0 8
4.0545 5.1016 -2.4953 0.3576 0 8
3.9720 5.1661 -2.4953 0.3576 0 8
3.8885 5.2293 -2.4953 0.3576 0 8
3.8040 5.2911 -2.4953 0.3576 0 8
3.7185 5.3515 -2.4953 0.3576 0 8
3.6320 5.4106 -2.4953 0.3576 0 8
3.5446 5.4682 -2.4953 0.3576 0 8
3.4563 5.5245 -2.4953 0.3576 0 8
3.3671 5.5793 -2.4953 0.3576 0 8
3.2770 5.6327 -2.4953 0.3576 0 8
3.1861 5.6846 -2.4953 0.3576 0 8
3.0943 5.7351 -2.4953 0.3576 0 8
6.1480 -1.6200 -2.4953 0.3653 0 8
6.1732 -1.5210 -2.4953 0.3653 0 8
6.1969 -1.4216 -2.4953 0.3653 0 8
6.2189 -1.3218 -2.4953 0.3653 0 8
6.2394 -1.2217 -2.4953 0.3653 0 8
6.2582 -1.1213 -2.4953 0.3653 0 8
6.2754 -1.0206 -2.4953 0.3653 0 8
6.2910 -0.9197 -2.4953 0.3653 0 8
6.3049 -0.8185 -2.4953 0.3653 0 8
6.3173 -0.7171 -2.4953 0.3653 0 8
6.3280 -0.6155 -2.4953 0.3653 0 8
6.3371 -0.5137 -2.4953 0.3653 0 8
6.3445 -0.4118 -2.4953 0.3653 0 8
6.3503 -0.3098 -2.4953 0.3653 0 8
6.3544 -0.2078 -2.4953 0.3653 0 8
6.3570 -0.1056 -2.4953 0.3653 0 8
6.3578 -0.0035 -2.4953 0.3653 0 8
6.3571 0.0987 -2.4953 0.3653 0 8
6.3547 0.2008 -2.4953 0.3653 0 8
6.3506 0.3029 -2.4953 0.3653 0 8
6.3449 0.4049 -2.4953 0.3653 0 8
6.3376 0.5068 -2.4953 0.3653 0 8
6.3287 0.6085 -2.4953 0.3653 0 8
6.3181 0.7101 -2.4953 0.3653 0 8
6.3058 0.8116 -2.4953 0.3653 0 8
6.2920 0.9128 -2.4953 0.3653 0 8
6.2765 1.0138 -2.4953 0.3653 0 8
6.2594 1.1145 -2.4953 0.3653 0 8
6.2407 1.2149 -2.4953 0.3653 0 8
6.2204 1.3150 -2.4953 0.3653 0 8
6.1984 1.4148 -2.4953 0.3653 0 8
6.1749 1.5142 -2.4953 0.3653 0 8
6.1498 1.6132 -2.4953 0.3653 0 8
6.1231 1.7118 -2.4953 0.3653 0 8
6.0948 1.8100 -2.4953 0.3653 0 8
6.0649 1.9077 -2.4953 0.3653 0 8
6.0335 2.0049 -2.4953 0.3653 0 8
6.0005 2.1016 -2.4953 0.3653 0 8
5.9659 2.1977 -2.4953 0.3653 0 8
5.9298 2.2933 -2.4953 0.3653 0 8
5.8922 2.3883 -2.4953 0.3653 0 8
5.8531 2.4826 -2.4953 0.3653 0 8
5.8125 2.5763 -2.4953 0.3653 0 8
5.7703 2.6694 -2.4953 0.3653 0 8
5.7267 2.7618 -2.4953 0.3653 0 8
5.6816 2.8534 -2.4953 0.3653 0 8
5.6350 2.9443 -2.4953 0.3653 0 8
5.5869 3.0345 -2.4953 0.3653 0 8
5.5375 3.1239 -2.4953 0.3653 0 8
5.4866 3.2125 -2.4953 0.3653 0 8
5.4342 3.3002 -2.4953 0.3653 0 8
5.3805 3.3871 -2.4953 0.3653 0 8
5.3254 3.4731 -2.4953 0.3653 0 8
5.2689 3.5582 -2.4953 0.3653 0 8
5.2110 3.6424 -2.4953 0.3653 0 8
5.1519 3.7257 -2.4953 0.3653 0 8
5.0913 3.8080 -2.4953 0.3653 0 8
5.0295 3.8893 -2.4953 0.3653 0 8
4.9663 3.9696 -2.4953 0.3653 0 8
4.9019 4.0489 -2.4953 0.3653 0 8
4.8362 4.1271 -2.4953 0.3653 0 8
4.7693 4.2043 -2.4953 0.3653 0 8
4.7011 4.2804 -2.4953 0.3653 0 8
4.6317 4.3554 -2.4953 0.3653 0 8
4.5612 4.4292 -2.4953 0.3653 0 8
4.4894 4.5019 -2.4953 0.3653 0 8
4.4165 4.5735 -2.4953 0.3653 0 8
4.3424 4.6438 -2.4953 0.3653 0 8
4.2673 4.7130 -2.4953 0.3653 0 8
4.1910 4.7810 -2.4953 0.3653 0 8
4.1136 4.8477 -2.4953 0.3653 0 8
4.0352 4.9132 -2.4953 0.3653 0 8
3.9558 4.9774 -2.4953 0.3653 0 8
3.8753 5.0403 -2.4953 0.3653 0 8
3.7938 5.1019 -2.4953 0.3653 0 8
3.7113 5.1622 -2.4953 0.3653 0 8
3.6279 5.2212 -2.4953 0.3653 0 8
3.5435 5.2788 -2.4953 0.3653 0 8
3.4583 5.3350 -2.4953 0.3653 0 8
3.3721 5.3899 -2.4953 0.3653 0 8
3.2851 5.4434 -2.4953 0.3653 0 8
3.1972 5.4955 -2.4953 0.3653 0 8
3.1085 5.5461 -2.4953 0.3653 0 8
3.0190 5.5954 -2.4953 0.3653 0 8
6.0009 -1.5812 -2.4953 0.3731 0 8
6.0255 -1.4846 -2.4953 0.3731 0 8
6.0486 -1.3876 -2.4953 0.3731 0 8
6.0701 -1.2902 -2.4953 0.3731 0 8
6.0900 -1.1925 -2.4953 0.3731 0 8
6.1084 -1.0945 -2.4953 0.3731 0 8
6.1252 -0.9962 -2.4953 0.3731 0 8
6.1404 -0.8977 -2.4953 0.3731 0 8
6.1541 -0.7989 -2.4953 0.3731 0 8
6.1661 -0.6999 -2.4953 0.3731 0 8
6.1765 -0.6007 -2.4953 0.3731 0 8
6.1854 -0.5014 -2.4953 0.3731 0 8
6.1927 -0.4020 -2.4953 0.3731 0 8
6.1983 -0.3024 -2.4953 0.3731 0 8
6.2024 -0.2028 -2.4953 0.3731 0 8
6.2048 -0.1031 -2.4953 0.3731 0 8
6.2057 -0.0034 -2.4953 0.3731 0 8
6.2049 0.0963 -2.4953 0.3731 0 8
6.2026 0.1960 -2.4953 0.3731 0 8
6.1986 0.2956 -2.4953 0.3731 0 8
6.1931 0.3952 -2.4953 0.3731 0 8
6.1859 0.4946 -2.4953 0.3731 0 8
6.1772 0.5940 -2.4953 0.3731 0 8
6.1669 0.6931 -2.4953 0.3731 0 8
6.1549 0.7921 -2.4953 0.3731 0 8
6.1414 0.8909 -2.4953 0.3731 0 8
6.1263 0.9895 -2.4953 0.3731 0 8
6.1096 1.0878 -2.4953 0.3731 0 8
6.0913 1.1858 -2.4953 0.3731 0 8
6.0715 1.2835 -2.4953 0.3731 0 8
6.0501 1.3809 -2.4953 0.3731 0 8
6.0271 1.4780 -2.4953 0.3731 0 8
6.0026 1.5746 -2.4953 0.3731 0 8
5.9765 1.6709 -2.4953 0.3731 0 8
5.9489 1.7667 -2.4953 0.3731 0 8
5.9198 1.8620 -2.4953 0.3731 0 8
5.8891 1.9569 -2.4953 0.3731 0 8
5.8569 2.0513 -2.4953 0.3731 0 8
5.8232 2.1451 -2.4953 0.3731 0 8
5.7879 2.2384 -2.4953 0.3731 0 8
5.7512 2.3311 -2.4953 0.3731 0 8
5.7130 2.4232 -2.4953 0.3731 0 8
5.6734 2.5147 -2.4953 0.3731 0 8
5.6322 2.6055 -2.4953 0.3731 0 8
5.5896 2.6957 -2.4953 0.3731 0 8
5.5456 2.7851 -2.4953 0.3731 0 8
5.5001 2.8739 -2.4953 0.3731 0 8
5.4532 2.9619 -2.4953 0.3731 0 8
5.4049 3.0491 -2.4953 0.3731 0 8
5.3553 3.1356 -2.4953 0.3731 0 8
5.3042 3.2212 -2.4953 0.3731 0 8
5.2517 3.3060 -2.4953 0.3731 0 8
5.1979 3.3900 -2.4953 0.3731 0 8
5.1428 3.4731 -2.4953 0.3731 0 8
5.0863 3.5552 -2.4953 0.3731 0 8
5.0286 3.6365 -2.4953 0.3731 0 8
4.9695 3.7168 -2.4953 0.3731 0 8
4.9091 3.7962 -2.4953 0.3731 0 8
4.8475 3.8746 -2.4953 0.3731 0 8
4.7846 3.9520 -2.4953 0.3731 0 8
4.7205 4.0283 -2.4953 0.3731 0 8
4.6552 4.1037 -2.4953 0.3731 0 8
4.5886 4.1779 -2.4953 0.3731 0 8
4.5209 4.2511 -2.4953 0.3731 0 8
4.4520 4.3232 -2.4953 0.3731 0 8
4.3820 4.3942 -2.4953 0.3731 0 8
4.3108 4.4640 -2.4953 0.3731 0 8
4.2385 4.5327 -2.4953 0.3731 0 8
4.1652 4.6002 -2.4953 0.3731 0 8
4.0907 4.6666 -2.4953 0.3731 0 8
4.0152 4.7317 -2.4953 0.3731 0 8
3.9386 4.7956 -2.4953 0.3731 0 8
3.8611 4.8583 -2.4953 0.3731 0 8
3.7825 4.9197 -2.4953 0.3731 0 8
3.7030 4.9798 -2.4953 0.3731 0 8
3.6225 5.0387 -2.4953 0.3731 0 8
3.5411 5.0962 -2.4953 0.3731 0 8
3.4587 5.1524 -2.4953 0.3731 0 8
3.3755 5.2074 -2.4953 0.3731 0 8
3.2914 5.2609 -2.4953 0.3731 0 8
3.2064 5.3131 -2.4953 0.3731 0 8
3.1207 5.3640 -2.4953 0.3731 0 8
