ply
format ascii 1.0
element vertex 1333
property float32 x
property float32 y
property float32 z
property float32 CosAngle
property uint32 ObjIdx
property uint32 ObjTag
end_header
-62.8035 77.8923 -2.4953 0.0249 0 14
-64.0421 76.8772 -2.4953 0.0249 0 14
-65.2644 75.8423 -2.4953 0.0249 0 14
-66.4699 74.7880 -2.4953 0.0249 0 14
-67.6584 73.7145 -2.4953 0.0249 0 14
-68.8296 72.6221 -2.4953 0.0249 0 14
-69.9835 71.5112 -2.4953 0.0249 0 14
-71.1188 70.3819 -2.4953 0.0249 0 14
-72.2361 69.2346 -2.4953 0.0249 0 14
-73.3349 68.0696 -2.4953 0.0249 0 14
-74.4150 66.8871 -2.4953 0.0249 0 14
-75.4761 65.6875 -2.4953 0.0249 0 14
-76.5178 64.4710 -2.4953 0.0249 0 14
-77.5398 63.2381 -2.4953 0.0249 0 14
-78.5415 61.9890 -2.4953 0.0249 0 14
-79.5242 60.7239 -2.4953 0.0249 0 14
-80.4859 59.4433 -2.4953 0.0249 0 14
-81.4267 58.1475 -2.4953 0.0249 0 14
-82.3472 56.8368 -2.4953 0.0249 0 14
-83.2464 55.5115 -2.4953 0.0249 0 14
-84.1242 54.1720 -2.4953 0.0249 0 14
-84.9805 52.8186 -2.4953 0.0249 0 14
-85.8151 51.4517 -2.4953 0.0249 0 14
-86.6275 50.0716 -2.4953 0.0249 0 14
-87.4179 48.6786 -2.4953 0.0249 0 14
-88.1857 47.2732 -2.4953 0.0249 0 14
-88.9311 45.8557 -2.4953 0.0249 0 14
-89.6536 44.4265 -2.4953 0.0249 0 14
-90.3532 42.9858 -2.4953 0.0249 0 14
-91.0297 41.5341 -2.4953 0.0249 0 14
-91.6828 40.0719 -2.4953 0.0249 0 14
-92.3124 38.5993 -2.4953 0.0249 0 8
-92.9184 37.1168 -2.4953 0.0249 0 8
-93.5006 35.6249 -2.4953 0.0249 0 8
-94.0587 34.1239 -2.4953 0.0249 0 8
-100.3702 34.6060 -2.6477 0.0249 0 7
-100.9112 32.9951 -2.6477 0.0249 0 7
-101.4264 31.3757 -2.6477 0.0249 0 7
-101.9156 29.7483 -2.6477 0.0249 0 7
-102.3786 28.1133 -2.6477 0.0249 0 7
-102.8155 26.4711 -2.6477 0.0249 0 7
-103.2265 24.8222 -2.6477 0.0249 0 7
-103.6101 23.1667 -2.6477 0.0249 0 7
-103.9676 21.5055 -2.6477 0.0249 0 7
-104.2985 19.8386 -2.6477 0.0249 0 7
-104.6027 18.1667 -2.6477 0.0249 0 7
-104.8800 16.4902 -2.6477 0.0249 0 7
-105.1305 14.8094 -2.6477 0.0249 0 7
-105.3541 13.1249 -2.6477 0.0249 0 7
-105.5507 11.4370 -2.6477 0.0249 0 7
-105.7202 9.7461 -2.6477 0.0249 0 7
-105.8626 8.0527 -2.6477 0.0249 0 7
-105.9780 6.3573 -2.6477 0.0249 0 7
-106.0661 4.6603 -2.6477 0.0249 0 6
-106.1272 2.9621 -2.6477 0.0249 0 6
-106.1610 1.2631 -2.6477 0.0249 0 7
-106.1676 -0.4363 -2.6477 0.0249 0 7
-106.1470 -2.1355 -2.6477 0.0249 0 7
-106.0992 -3.8341 -2.6477 0.0249 0 7
-106.0243 -5.5318 -2.6477 0.0249 0 7
-105.9221 -7.2281 -2.6477 0.0249 0 7
-105.7929 -8.9225 -2.6477 0.0249 0 7
-105.6365 -10.6146 -2.6477 0.0249 0 7
-105.4531 -12.3040 -2.6477 0.0249 0 7
-105.2427 -13.9903 -2.6477 0.0249 0 7
-105.0053 -15.6729 -2.6477 0.0249 0 7
-98.7121 -16.3528 -2.4953 0.0249 0 8
-98.4377 -17.9307 -2.4953 0.0249 0 8
-98.1381 -19.5039 -2.4953 0.0249 0 8
-97.8133 -21.0722 -2.4953 0.0249 0 8
-97.4636 -22.6350 -2.4953 0.0249 0 8
-25.1943 74.4209 -2.6130 0.9373 0 8
-26.5278 74.4166 -2.6274 0.9322 0 8
-27.8579 74.3628 -2.6409 0.0491 0 8
-29.1019 74.0533 -2.6461 0.0490 0 8
-30.3013 73.6215 -2.6477 0.0332 0 7
-31.4758 73.1270 -2.6477 0.0332 0 6
-32.6422 72.6139 -2.6477 0.0332 0 7
-33.8002 72.0821 -2.6477 0.0332 0 6
-34.9496 71.5319 -2.6477 0.0332 0 7
-36.0900 70.9633 -2.6477 0.0332 0 7
-37.2212 70.3766 -2.6477 0.0332 0 7
-38.3428 69.7718 -2.6477 0.0332 0 7
-39.4547 69.1492 -2.6477 0.0332 0 7
-40.5564 68.5088 -2.6477 0.0332 0 7
-41.6477 67.8509 -2.6477 0.0332 0 7
-42.7284 67.1757 -2.6477 0.0332 0 7
-43.7981 66.4832 -2.6477 0.0332 0 7
-44.8566 65.7736 -2.6477 0.0332 0 7
-45.9035 65.0473 -2.6477 0.0332 0 7
-46.9387 64.3044 -2.6477 0.0332 0 6
-47.9619 63.5448 -2.6477 0.0332 0 7
-48.9729 62.7690 -2.6477 0.0332 0 7
-49.9712 61.9771 -2.6477 0.0332 0 7
-50.9568 61.1694 -2.6477 0.0332 0 7
-51.9293 60.3459 -2.6477 0.0332 0 7
-52.8885 59.5070 -2.6477 0.0332 0 7
-53.8342 58.6529 -2.6477 0.0332 0 7
-54.7661 57.7837 -2.6477 0.0332 0 7
-55.6839 56.8998 -2.6477 0.0332 0 7
-56.3498 55.7660 -2.6365 0.7065 0 8
-56.3622 54.0203 -2.5963 0.7174 0 8
-56.3741 52.3265 -2.5580 0.7282 0 8
-56.3855 50.6815 -2.5214 0.7388 0 8
-56.5978 49.2576 -2.4953 0.0332 0 8
-57.3790 48.3454 -2.4953 0.0332 0 8
-58.1454 47.4208 -2.4953 0.0332 0 8
-58.8970 46.4841 -2.4953 0.0332 0 8
-59.6334 45.5354 -2.4953 0.0332 0 8
-60.3546 44.5752 -2.4953 0.0332 0 8
-61.0603 43.6035 -2.4953 0.0332 0 8
-61.7503 42.6206 -2.4953 0.0332 0 8
-62.4246 41.6268 -2.4953 0.0332 0 8
-63.0828 40.6224 -2.4953 0.0332 0 14
-63.7250 39.6075 -2.4953 0.0332 0 14
-64.3507 38.5824 -2.4953 0.0332 0 8
-64.9600 37.5475 -2.4953 0.0332 0 8
-65.5527 36.5030 -2.4953 0.0332 0 8
-66.1285 35.4491 -2.4953 0.0332 0 8
-66.6874 34.3859 -2.4953 0.0332 0 8
-67.2292 33.3144 -2.4953 0.0332 0 8
-68.7595 32.7125 -2.5323 0.4307 0 8
-71.6428 32.6885 -2.6189 0.4165 0 8
-72.9498 31.8842 -2.6477 0.0332 0 7
-73.4508 30.7126 -2.6477 0.0332 0 7
-73.9330 29.5330 -2.6477 0.0332 0 7
-74.3962 28.3459 -2.6477 0.0332 0 7
-74.8403 27.1516 -2.6477 0.0332 0 7
-75.2653 25.9502 -2.6477 0.0332 0 7
-75.6710 24.7423 -2.6477 0.0332 0 7
-76.0574 23.5279 -2.6477 0.0332 0 7
-72.2451 21.0878 -2.5029 0.0332 0 14
-72.5734 19.9288 -2.5029 0.0332 0 14
-72.8827 18.7645 -2.5029 0.2016 0 8
-77.4069 18.6135 -2.6477 0.0332 0 7
-77.6948 17.3722 -2.6477 0.0332 0 7
-77.9629 16.1265 -2.6477 0.0332 0 7
-78.2111 14.8766 -2.6477 0.0332 0 7
-78.4392 13.6228 -2.6477 0.0332 0 7
-78.6472 12.3656 -2.6477 0.0332 0 7
-78.8350 11.1053 -2.6477 0.0332 0 7
-79.0026 9.8421 -2.6477 0.0332 0 7
-74.5942 8.0827 -2.4953 0.0332 0 8
-74.7140 6.8877 -2.4953 0.0332 0 8
-74.8147 5.6910 -2.4953 0.0332 0 8
-74.8962 4.4928 -2.4953 0.0332 0 8
-74.9585 3.2935 -2.4953 0.0332 0 8
-75.0016 2.0933 -2.4953 0.0332 0 8
-75.0255 0.8926 -2.4953 0.0332 0 8
-75.0302 -0.3083 -2.4953 0.0332 0 8
-75.0156 -1.5092 -2.4953 0.0332 0 8
-74.9818 -2.7097 -2.4953 0.0332 0 8
-74.9289 -3.9094 -2.4953 0.0332 0 8
-74.8567 -5.1082 -2.4953 0.0332 0 8
-74.7654 -6.3057 -2.4953 0.0332 0 8
-74.6548 -7.5015 -2.4953 0.0332 0 8
-74.5252 -8.6954 -2.4953 0.0332 0 8
-74.3765 -9.8871 -2.4953 0.0332 0 8
-74.2087 -11.0763 -2.4953 0.0332 0 8
-74.0219 -12.2626 -2.4953 0.0332 0 8
-73.8162 -13.4458 -2.4953 0.0332 0 8
-73.5915 -14.6256 -2.4953 0.0332 0 8
-73.3480 -15.8015 -2.4953 0.0332 0 8
-73.0857 -16.9735 -2.4953 0.0332 0 8
-19.2436 56.8433 -2.4953 0.0415 0 8
-20.1509 56.5280 -2.4953 0.0415 0 8
-21.0531 56.1982 -2.4953 0.0415 0 8
-21.9499 55.8541 -2.4953 0.0415 0 8
-22.8410 55.4956 -2.4953 0.0415 0 8
-23.7263 55.1229 -2.4953 0.0415 0 8
-24.6056 54.7361 -2.4953 0.0415 0 8
-25.4785 54.3353 -2.4953 0.0415 0 8
-26.3449 53.9205 -2.4953 0.0415 0 8
-27.2045 53.4919 -2.4953 0.0415 0 8
-28.0572 53.0496 -2.4953 0.0415 0 8
-28.9027 52.5938 -2.4953 0.0415 0 8
-29.7408 52.1244 -2.4953 0.0415 0 8
-30.5713 51.6417 -2.4953 0.0415 0 8
-31.3939 51.1458 -2.4953 0.0415 0 8
-32.2085 50.6368 -2.4953 0.0415 0 8
-33.0148 50.1148 -2.4953 0.0415 0 8
-33.8127 49.5799 -2.4953 0.0415 0 8
-34.6019 49.0324 -2.4953 0.0415 0 8
-35.3823 48.4723 -2.4953 0.0415 0 8
-36.1535 47.8998 -2.4953 0.0415 0 8
-36.9156 47.3150 -2.4953 0.0415 0 8
-39.9688 49.5708 -2.6477 0.0415 0 6
-40.7570 48.9254 -2.6477 0.0415 0 7
-41.5349 48.2668 -2.6477 0.0415 0 7
-42.3021 47.5958 -2.6477 0.0415 0 7
-43.0585 46.9126 -2.6477 0.0415 0 7
-43.8039 46.2174 -2.6477 0.0415 0 7
-44.5379 45.5105 -2.6477 0.0415 0 7
-45.2607 44.7917 -2.6477 0.0415 0 7
-45.9718 44.0616 -2.6477 0.0415 0 7
-46.6711 43.3202 -2.6477 0.0415 0 7
-47.3585 42.5677 -2.6477 0.0415 0 7
-48.0337 41.8042 -2.6477 0.0415 0 7
-48.6967 41.0300 -2.6477 0.0415 0 7
-49.3472 40.2454 -2.6477 0.0415 0 7
-49.9850 39.4504 -2.6477 0.0415 0 7
-50.6100 38.6453 -2.6477 0.0415 0 7
-51.2220 37.8303 -2.6477 0.0415 0 7
-51.8210 37.0056 -2.6477 0.0415 0 6
-52.4066 36.1715 -2.6477 0.0415 0 7
-52.9789 35.3280 -2.6477 0.0415 0 6
-53.5375 34.4756 -2.6477 0.0415 0 7
-54.0825 33.6143 -2.6477 0.0415 0 7
-54.6135 32.7444 -2.6477 0.0415 0 7
-55.1306 31.8660 -2.6477 0.0415 0 7
-55.6336 30.9796 -2.6477 0.0415 0 7
-56.1223 30.0852 -2.6477 0.0415 0 7
-56.5967 29.1830 -2.6477 0.0415 0 7
-57.0565 28.2734 -2.6477 0.0415 0 6
-57.5017 27.3566 -2.6477 0.0415 0 7
-57.9322 26.4327 -2.6477 0.0415 0 7
-58.3478 25.5021 -2.6477 0.0415 0 7
-58.7485 24.5650 -2.6477 0.0415 0 7
-59.1342 23.6216 -2.6477 0.0415 0 7
-59.5047 22.6721 -2.6477 0.0415 0 7
-59.8599 21.7168 -2.6477 0.0415 0 7
-60.1999 20.7559 -2.6477 0.0415 0 7
-60.5243 19.7897 -2.6477 0.0415 0 7
-60.8333 18.8185 -2.6477 0.0415 0 7
-61.1267 17.8424 -2.6477 0.0415 0 7
-61.4045 16.8618 -2.6477 0.0415 0 7
-61.6665 15.8768 -2.6477 0.0415 0 7
-61.9127 14.8878 -2.6477 0.0415 0 7
-62.1431 13.8949 -2.6477 0.0415 0 7
-62.3575 12.8985 -2.6477 0.0415 0 7
-62.5560 11.8988 -2.6477 0.0415 0 7
-62.7384 10.8960 -2.6477 0.0415 0 7
-62.9048 9.8905 -2.6477 0.0415 0 7
-63.0550 8.8823 -2.6477 0.0415 0 7
-63.0222 7.8512 -2.6407 0.0445 0 8
-60.6192 6.5684 -2.5353 0.4707 0 8
-59.7589 5.5090 -2.4953 0.0415 0 8
-59.8394 4.5519 -2.4953 0.0415 0 8
-59.9046 3.5935 -2.4953 0.0415 0 8
-59.9544 2.6343 -2.4953 0.0415 0 8
-59.9889 1.6743 -2.4953 0.0415 0 8
-60.0080 0.7140 -2.4953 0.0415 0 8
-60.0118 -0.2466 -2.4953 0.0415 0 8
-60.0001 -1.2071 -2.4953 0.0415 0 8
-59.9731 -2.1673 -2.4953 0.0415 0 8
-59.9307 -3.1269 -2.4953 0.0415 0 8
-59.8730 -4.0857 -2.4953 0.0415 0 8
-59.8000 -5.0435 -2.4953 0.0415 0 8
-59.7116 -5.9999 -2.4953 0.0415 0 8
-59.6079 -6.9549 -2.4953 0.0415 0 8
-59.4889 -7.9081 -2.4953 0.0415 0 8
-59.3548 -8.8592 -2.4953 0.0415 0 8
-59.2053 -9.8081 -2.4953 0.0415 0 8
-59.0408 -10.7544 -2.4953 0.0415 0 8
-58.8611 -11.6980 -2.4953 0.0415 0 8
-58.6663 -12.6386 -2.4953 0.0415 0 8
-58.4565 -13.5760 -2.4953 0.0415 0 8
-16.0322 47.3573 -2.4953 0.0498 0 8
-16.7882 47.0946 -2.4953 0.0498 0 8
-17.5398 46.8199 -2.4953 0.0498 0 8
-18.2869 46.5332 -2.4953 0.0498 0 8
-19.0293 46.2346 -2.4953 0.0498 0 8
-19.7669 45.9240 -2.4953 0.0498 0 8
-20.4994 45.6018 -2.4953 0.0498 0 8
-21.2267 45.2678 -2.4953 0.0498 0 8
-21.9485 44.9223 -2.4953 0.0498 0 8
-22.6647 44.5652 -2.4953 0.0498 0 8
-23.3751 44.1968 -2.4953 0.0498 0 8
-24.0795 43.8170 -2.4953 0.0498 0 8
-24.7777 43.4260 -2.4953 0.0498 0 8
-25.4696 43.0238 -2.4953 0.0498 0 8
-26.1549 42.6106 -2.4953 0.0498 0 8
-26.8336 42.1866 -2.4953 0.0498 0 8
-27.5053 41.7517 -2.4953 0.0498 0 8
-28.1701 41.3061 -2.4953 0.0498 0 8
-28.8276 40.8500 -2.4953 0.0498 0 8
-29.4777 40.3833 -2.4953 0.0498 0 8
-30.1203 39.9065 -2.4953 0.0498 0 8
-30.7551 39.4191 -2.4953 0.0498 0 8
-31.3821 38.9219 -2.4953 0.0498 0 8
-32.0011 38.4146 -2.4953 0.0498 0 8
-32.6118 37.8975 -2.4953 0.0498 0 8
-33.2142 37.3707 -2.4953 0.0498 0 8
-33.8081 36.8342 -2.4953 0.0498 0 8
-34.3933 36.2884 -2.4953 0.0498 0 8
-34.9697 35.7333 -2.4953 0.0498 0 8
-37.7076 37.3169 -2.6477 0.0498 0 6
-38.3001 36.7087 -2.6477 0.0498 0 7
-38.8827 36.0910 -2.6477 0.0498 0 6
-39.4553 35.4640 -2.6477 0.0498 0 7
-40.0179 34.8279 -2.6477 0.0498 0 7
-40.5702 34.1830 -2.6477 0.0498 0 7
-41.1121 33.5293 -2.6477 0.0498 0 7
-41.6435 32.8669 -2.6477 0.0498 0 7
-42.1643 32.1962 -2.6477 0.0498 0 7
-42.6742 31.5172 -2.6477 0.0498 0 7
-43.1731 30.8302 -2.6477 0.0498 0 7
-43.6610 30.1352 -2.6477 0.0498 0 7
-44.1378 29.4325 -2.6477 0.0498 0 7
-44.6032 28.7223 -2.6477 0.0498 0 7
-45.0572 28.0048 -2.6477 0.0498 0 7
-45.4997 27.2800 -2.6477 0.0498 0 7
-45.9305 26.5483 -2.6477 0.0498 0 7
-46.3495 25.8097 -2.6477 0.0498 0 7
-46.7567 25.0646 -2.6477 0.0498 0 6
-47.1519 24.3130 -2.6477 0.0498 0 7
-47.5350 23.5552 -2.6477 0.0498 0 7
-47.9059 22.7913 -2.6477 0.0498 0 7
-48.2645 22.0217 -2.6477 0.0498 0 7
-48.6108 21.2464 -2.6477 0.0498 0 7
-48.9446 20.4656 -2.6477 0.0498 0 6
-49.2659 19.6796 -2.6477 0.0498 0 7
-49.5746 18.8886 -2.6477 0.0498 0 7
-49.8706 18.0927 -2.6477 0.0498 0 7
-50.1538 17.2922 -2.6477 0.0498 0 7
-50.4241 16.4872 -2.6477 0.0498 0 7
-50.6815 15.6781 -2.6477 0.0498 0 7
-50.9260 14.8649 -2.6477 0.0498 0 7
-51.1574 14.0479 -2.6477 0.0498 0 7
-51.3757 13.2273 -2.6477 0.0498 0 7
-51.5808 12.4033 -2.6477 0.0498 0 7
-51.7727 11.5761 -2.6477 0.0498 0 6
-51.9513 10.7460 -2.6477 0.0498 0 7
-52.1167 9.9131 -2.6477 0.0498 0 7
-52.2687 9.0777 -2.6477 0.0498 0 7
-52.4073 8.2400 -2.6477 0.0498 0 7
-52.5324 7.4001 -2.6477 0.0498 0 7
-52.6442 6.5583 -2.6477 0.0498 0 7
-52.7424 5.7149 -2.6477 0.0498 0 7
-52.8271 4.8700 -2.6477 0.0498 0 7
-52.8983 4.0239 -2.6477 0.0498 0 6
-52.9559 3.1767 -2.6477 0.0498 0 6
-53.0000 2.3287 -2.6477 0.0498 0 6
-53.0305 1.4801 -2.6477 0.0498 0 7
-53.0474 0.6311 -2.6477 0.0498 0 7
-53.0507 -0.2180 -2.6477 0.0498 0 6
-53.0404 -1.0671 -2.6477 0.0498 0 7
-53.0165 -1.9159 -2.6477 0.0498 0 7
-52.9790 -2.7642 -2.6477 0.0498 0 7
-52.9280 -3.6118 -2.6477 0.0498 0 7
-52.8634 -4.4585 -2.6477 0.0498 0 7
-52.7853 -5.3040 -2.6477 0.0498 0 7
-52.6936 -6.1482 -2.6477 0.0498 0 7
-52.5885 -6.9908 -2.6477 0.0498 0 7
-52.4699 -7.8316 -2.6477 0.0498 0 7
-52.3378 -8.6704 -2.6477 0.0498 0 7
-52.1923 -9.5070 -2.6477 0.0498 0 7
-52.0335 -10.3411 -2.6477 0.0498 0 7
-51.8613 -11.1726 -2.6477 0.0498 0 7
-51.6758 -12.0012 -2.6477 0.0498 0 7
-13.7378 40.5799 -2.4953 0.0581 0 8
-14.3856 40.3548 -2.4953 0.0581 0 8
-15.0296 40.1194 -2.4953 0.0581 0 8
-15.6698 39.8737 -2.4953 0.0581 0 8
-16.3060 39.6178 -2.4953 0.0581 0 8
-16.9380 39.3517 -2.4953 0.0581 0 8
-17.5657 39.0756 -2.4953 0.0581 0 8
-18.1888 38.7894 -2.4953 0.0581 0 8
-18.8073 38.4933 -2.4953 0.0581 0 8
-19.4210 38.1874 -2.4953 0.0581 0 8
-20.0298 37.8716 -2.4953 0.0581 0 8
-20.6334 37.5462 -2.4953 0.0581 0 8
-21.2317 37.2111 -2.4953 0.0581 0 8
-21.8245 36.8665 -2.4953 0.0581 0 8
-22.4118 36.5125 -2.4953 0.0581 0 8
-22.9933 36.1491 -2.4953 0.0581 0 8
-23.5690 35.7765 -2.4953 0.0581 0 8
-24.1386 35.3947 -2.4953 0.0581 0 8
-24.7020 35.0038 -2.4953 0.0581 0 8
-25.2591 34.6039 -2.4953 0.0581 0 8
-25.8097 34.1952 -2.4953 0.0581 0 8
-26.3537 33.7778 -2.4953 0.0581 0 8
-26.8909 33.3516 -2.4953 0.0581 0 8
-27.4213 32.9169 -2.4953 0.0581 0 8
-28.2485 32.8269 -2.5224 0.7564 0 8
-29.1679 32.8179 -2.5573 0.7461 0 8
-30.1397 32.8375 -2.5960 0.6658 0 8
-31.1953 32.9142 -2.6413 0.0674 0 8
-31.7952 32.4895 -2.6477 0.0581 0 7
-32.3112 31.9764 -2.6477 0.0581 0 7
-32.8188 31.4552 -2.6477 0.0581 0 7
-33.3181 30.9259 -2.6477 0.0581 0 7
-33.8088 30.3886 -2.6477 0.0581 0 7
-34.2908 29.8436 -2.6477 0.0581 0 7
-34.7641 29.2909 -2.6477 0.0581 0 7
-35.2285 28.7308 -2.6477 0.0581 0 7
-35.6838 28.1632 -2.6477 0.0581 0 7
-36.1300 27.5885 -2.6477 0.0581 0 7
-36.5669 27.0067 -2.6477 0.0581 0 7
-36.9945 26.4179 -2.6477 0.0581 0 6
-37.4126 25.8225 -2.6477 0.0581 0 7
-37.8211 25.2204 -2.6477 0.0581 0 7
-38.2199 24.6118 -2.6477 0.0581 0 7
-38.6089 23.9969 -2.6477 0.0581 0 7
-38.9881 23.3759 -2.6477 0.0581 0 6
-39.3572 22.7489 -2.6477 0.0581 0 7
-39.7163 22.1160 -2.6477 0.0581 0 7
-40.0652 21.4775 -2.6477 0.0581 0 7
-40.4038 20.8335 -2.6477 0.0581 0 7
-40.7321 20.1841 -2.6477 0.0581 0 7
-41.0499 19.5296 -2.6477 0.0581 0 6
-41.3573 18.8701 -2.6477 0.0581 0 7
-41.6540 18.2057 -2.6477 0.0581 0 7
-41.9400 17.5367 -2.6477 0.0581 0 7
-42.2153 16.8632 -2.6477 0.0581 0 7
-42.4798 16.1854 -2.6477 0.0581 0 7
-42.7334 15.5034 -2.6477 0.0581 0 7
-42.9761 14.8174 -2.6477 0.0581 0 6
-43.2078 14.1277 -2.6477 0.0581 0 7
-43.4283 13.4343 -2.6477 0.0581 0 7
-43.6378 12.7375 -2.6477 0.0581 0 7
-43.8361 12.0374 -2.6477 0.0581 0 7
-44.0231 11.3343 -2.6477 0.0581 0 7
-44.1989 10.6282 -2.6477 0.0581 0 7
-44.3633 9.9195 -2.6477 0.0581 0 7
-44.5164 9.2081 -2.6477 0.0581 0 7
-44.6581 8.4944 -2.6477 0.0581 0 7
-44.7883 7.7786 -2.6477 0.0581 0 7
-44.9071 7.0607 -2.6477 0.0581 0 7
-45.0144 6.3410 -2.6477 0.0581 0 7
-45.1101 5.6198 -2.6477 0.0581 0 7
-45.1943 4.8970 -2.6477 0.0581 0 7
-45.2669 4.1730 -2.6477 0.0581 0 7
-45.3279 3.4480 -2.6477 0.0581 0 7
-45.3772 2.7220 -2.6477 0.0581 0 7
-45.4150 1.9954 -2.6477 0.0581 0 7
-45.4411 1.2683 -2.6477 0.0581 0 7
-45.4556 0.5408 -2.6477 0.0581 0 7
-45.4584 -0.1868 -2.6477 0.0581 0 7
-45.4496 -0.9144 -2.6477 0.0581 0 7
-45.4292 -1.6417 -2.6477 0.0581 0 7
-45.3970 -2.3686 -2.6477 0.0581 0 7
-45.3533 -3.0949 -2.6477 0.0581 0 7
-45.2980 -3.8204 -2.6477 0.0581 0 7
-45.2310 -4.5449 -2.6477 0.0581 0 7
-45.1525 -5.2683 -2.6477 0.0581 0 7
-45.0624 -5.9903 -2.6477 0.0581 0 7
-44.9607 -6.7108 -2.6477 0.0581 0 7
-44.8476 -7.4295 -2.6477 0.0581 0 7
-44.7229 -8.1464 -2.6477 0.0581 0 7
-44.5868 -8.8612 -2.6477 0.0581 0 7
-44.4393 -9.5737 -2.6477 0.0581 0 7
-44.2803 -10.2837 -2.6477 0.0581 0 7
-12.0164 35.4951 -2.4953 0.0664 0 8
-12.5830 35.2982 -2.4953 0.0664 0 8
-13.1463 35.0923 -2.4953 0.0664 0 8
-13.7063 34.8774 -2.4953 0.0664 0 8
-14.2628 34.6535 -2.4953 0.0664 0 8
-14.8156 34.4208 -2.4953 0.0664 0 8
-15.3646 34.1793 -2.4953 0.0664 0 8
-15.9097 33.9290 -2.4953 0.0664 0 8
-16.4507 33.6700 -2.4953 0.0664 0 8
-16.9875 33.4024 -2.4953 0.0664 0 8
-17.5200 33.1262 -2.4953 0.0664 0 8
-18.0607 32.8647 -2.4970 0.6662 0 8
-18.7456 32.8540 -2.5187 0.8656 0 8
-19.4455 32.8478 -2.5418 0.8577 0 8
-20.1584 32.8414 -2.5659 0.8497 0 8
-20.8851 32.8347 -2.5912 0.8414 0 8
-21.6264 32.8277 -2.6176 0.8329 0 8
-22.3468 32.7673 -2.6410 0.0804 0 8
-22.9121 32.4675 -2.6460 0.0803 0 8
-23.4434 32.1166 -2.6477 0.0664 0 7
-23.9544 31.7372 -2.6477 0.0664 0 7
-24.4593 31.3498 -2.6477 0.0664 0 7
-24.9580 30.9543 -2.6477 0.0664 0 7
-25.4502 30.5508 -2.6477 0.0664 0 7
-25.9360 30.1396 -2.6477 0.0664 0 7
-26.4150 29.7206 -2.6477 0.0664 0 7
-26.8873 29.2940 -2.6477 0.0664 0 7
-27.3528 28.8599 -2.6477 0.0664 0 7
-27.8112 28.4184 -2.6477 0.0664 0 7
-28.2625 27.9696 -2.6477 0.0664 0 7
-28.7065 27.5137 -2.6477 0.0664 0 7
-29.1432 27.0507 -2.6477 0.0664 0 7
-29.5724 26.5808 -2.6477 0.0664 0 7
-29.9941 26.1041 -2.6477 0.0664 0 7
-30.4080 25.6207 -2.6477 0.0664 0 7
-30.8142 25.1307 -2.6477 0.0664 0 7
-31.2125 24.6343 -2.6477 0.0664 0 7
-31.6028 24.1316 -2.6477 0.0664 0 7
-31.9850 23.6227 -2.6477 0.0664 0 7
-30.5895 21.8441 -2.5029 0.0664 0 14
-30.9352 21.3517 -2.5029 0.0664 0 14
-31.2730 20.8539 -2.5029 0.0664 0 14
-31.6027 20.3507 -2.5029 0.0664 0 14
-31.9244 19.8422 -2.5029 0.0664 0 14
-34.1027 20.4468 -2.6477 0.0664 0 7
-34.4256 19.8984 -2.6477 0.0664 0 7
-34.7397 19.3448 -2.6477 0.0664 0 7
-35.0449 18.7863 -2.6477 0.0664 0 7
-35.3411 18.2230 -2.6477 0.0664 0 7
-35.6282 17.6550 -2.6477 0.0664 0 7
-35.9062 17.0825 -2.6477 0.0664 0 7
-36.1750 16.5056 -2.6477 0.0664 0 7
-36.4346 15.9245 -2.6477 0.0664 0 7
-36.6848 15.3393 -2.6477 0.0664 0 7
-36.9256 14.7501 -2.6477 0.0664 0 6
-37.1569 14.1573 -2.6477 0.0664 0 7
-37.3788 13.5608 -2.6477 0.0664 0 7
-37.5910 12.9608 -2.6477 0.0664 0 7
-37.7937 12.3575 -2.6477 0.0664 0 7
-37.9866 11.7510 -2.6477 0.0664 0 7
-38.1698 11.1415 -2.6477 0.0664 0 7
-38.3433 10.5291 -2.6477 0.0664 0 7
-38.5069 9.9141 -2.6477 0.0664 0 7
-38.6606 9.2965 -2.6477 0.0664 0 7
-38.8045 8.6765 -2.6477 0.0664 0 7
-38.9384 8.0543 -2.6477 0.0664 0 7
-39.0623 7.4301 -2.6477 0.0664 0 7
-39.1762 6.8039 -2.6477 0.0664 0 7
-39.2801 6.1760 -2.6477 0.0664 0 7
-39.3739 5.5465 -2.6477 0.0664 0 7
-39.4576 4.9156 -2.6477 0.0664 0 7
-39.5312 4.2834 -2.6477 0.0664 0 7
-39.5947 3.6501 -2.6477 0.0664 0 6
-39.6481 3.0159 -2.6477 0.0664 0 6
-39.6913 2.3810 -2.6477 0.0664 0 6
-37.4378 1.6449 -2.4953 0.0664 0 8
-37.4593 1.0455 -2.4953 0.0664 0 8
-37.4712 0.4458 -2.4953 0.0664 0 8
-37.4736 -0.1540 -2.4953 0.0664 0 8
-37.4663 -0.7538 -2.4953 0.0664 0 8
-37.4495 -1.3533 -2.4953 0.0664 0 8
-37.4230 -1.9525 -2.4953 0.0664 0 8
-37.3870 -2.5513 -2.4953 0.0664 0 8
-37.3413 -3.1493 -2.4953 0.0664 0 8
-37.2861 -3.7466 -2.4953 0.0664 0 8
-37.2214 -4.3429 -2.4953 0.0664 0 8
-37.1471 -4.9381 -2.4953 0.0664 0 8
-37.0633 -5.5320 -2.4953 0.0664 0 8
-36.9700 -6.1245 -2.4953 0.0664 0 8
-36.8673 -6.7155 -2.4953 0.0664 0 8
-36.7551 -7.3047 -2.4953 0.0664 0 8
-36.6334 -7.8920 -2.4953 0.0664 0 8
-36.5024 -8.4774 -2.4953 0.0664 0 8
-11.1244 32.8602 -2.5998 0.9432 0 8
-11.7124 32.8559 -2.6140 0.9381 0 8
-12.3069 32.8515 -2.6290 0.9328 0 8
-12.8893 32.7985 -2.6409 0.0905 0 8
-13.4275 32.6241 -2.6438 0.0904 0 8
-13.9641 32.4424 -2.6469 0.0903 0 8
-14.4859 32.2245 -2.6477 0.0747 0 7
-14.9998 31.9885 -2.6477 0.0747 0 7
-15.5099 31.7444 -2.6477 0.0747 0 7
-16.0160 31.4921 -2.6477 0.0747 0 7
-16.5180 31.2317 -2.6477 0.0747 0 7
-17.0158 30.9633 -2.6477 0.0747 0 7
-17.5092 30.6870 -2.6477 0.0747 0 7
-17.9981 30.4028 -2.6477 0.0747 0 7
-18.4824 30.1108 -2.6477 0.0747 0 7
-18.9620 29.8112 -2.6477 0.0747 0 7
-19.4367 29.5038 -2.6477 0.0747 0 7
-19.9064 29.1890 -2.6477 0.0747 0 7
-20.3710 28.8666 -2.6477 0.0747 0 7
-20.8304 28.5369 -2.6477 0.0747 0 7
-21.2845 28.1998 -2.6477 0.0747 0 7
-21.7331 27.8556 -2.6477 0.0747 0 7
-22.1762 27.5041 -2.6477 0.0747 0 7
-22.6136 27.1457 -2.6477 0.0747 0 7
-23.0452 26.7803 -2.6477 0.0747 0 7
-23.4708 26.4080 -2.6477 0.0747 0 6
-23.8905 26.0289 -2.6477 0.0747 0 7
-24.3040 25.6432 -2.6477 0.0747 0 7
-24.7113 25.2510 -2.6477 0.0747 0 7
-25.1124 24.8522 -2.6477 0.0747 0 7
-25.5069 24.4471 -2.6477 0.0747 0 7
-25.8949 24.0357 -2.6477 0.0747 0 7
-24.8394 22.3267 -2.5029 0.0747 0 8
-25.1936 21.9262 -2.5029 0.0747 0 14
-25.5413 21.5202 -2.5029 0.0747 0 14
-25.8825 21.1086 -2.5029 0.0747 0 14
-26.2170 20.6917 -2.5029 0.0747 0 14
-26.5449 20.2694 -2.5029 0.0747 0 14
-26.8659 19.8419 -2.5029 0.0747 0 14
-27.1800 19.4094 -2.5029 0.0747 0 14
-27.4872 18.9719 -2.5029 0.0747 0 8
-28.3033 18.8736 -2.5494 0.5599 0 8
-29.2871 18.8595 -2.6105 0.5468 0 8
-30.0070 18.6505 -2.6477 0.0747 0 7
-30.3017 18.1678 -2.6477 0.0747 0 7
-30.5886 17.6805 -2.6477 0.0747 0 7
-30.8676 17.1886 -2.6477 0.0747 0 6
-31.1388 16.6924 -2.6477 0.0747 0 7
-31.4020 16.1919 -2.6477 0.0747 0 7
-31.6571 15.6872 -2.6477 0.0747 0 7
-31.9041 15.1785 -2.6477 0.0747 0 7
-32.1430 14.6659 -2.6477 0.0747 0 7
-32.3737 14.1496 -2.6477 0.0747 0 7
-32.5959 13.6296 -2.6477 0.0747 0 7
-32.8099 13.1061 -2.6477 0.0747 0 7
-33.0155 12.5793 -2.6477 0.0747 0 7
-33.2126 12.0493 -2.6477 0.0747 0 7
-33.4012 11.5162 -2.6477 0.0747 0 7
-33.5812 10.9801 -2.6477 0.0747 0 7
-33.7527 10.4412 -2.6477 0.0747 0 6
-33.9154 9.8997 -2.6477 0.0747 0 7
-34.0696 9.3556 -2.6477 0.0747 0 7
-34.2149 8.8090 -2.6477 0.0747 0 7
-32.3743 7.7848 -2.4953 0.0747 0 8
-32.4947 7.2656 -2.4953 0.0747 0 8
-32.6068 6.7446 -2.4953 0.0747 0 8
-32.7106 6.2219 -2.4953 0.0747 0 8
-32.8060 5.6976 -2.4953 0.0747 0 8
-32.8930 5.1717 -2.4953 0.0747 0 8
-32.9716 4.6446 -2.4953 0.0747 0 8
-33.0417 4.1163 -2.4953 0.0747 0 8
-33.1033 3.5869 -2.4953 0.0747 0 8
-33.1565 3.0566 -2.4953 0.0747 0 8
-33.2012 2.5255 -2.4953 0.0747 0 8
-33.2374 1.9938 -2.4953 0.0747 0 8
-33.2650 1.4616 -2.4953 0.0747 0 8
-33.2842 0.9290 -2.4953 0.0747 0 8
-33.2947 0.3961 -2.4953 0.0747 0 8
-33.2968 -0.1368 -2.4953 0.0747 0 8
-33.2904 -0.6697 -2.4953 0.0747 0 8
-33.2754 -1.2025 -2.4953 0.0747 0 8
-33.2519 -1.7349 -2.4953 0.0747 0 8
-33.2198 -2.2669 -2.4953 0.0747 0 8
-33.1793 -2.7983 -2.4953 0.0747 0 8
-33.1303 -3.3290 -2.4953 0.0747 0 8
-33.0727 -3.8589 -2.4953 0.0747 0 8
-33.0067 -4.3877 -2.4953 0.0747 0 8
-32.9323 -4.9154 -2.4953 0.0747 0 8
-32.8494 -5.4419 -2.4953 0.0747 0 8
-32.7581 -5.9670 -2.4953 0.0747 0 8
-32.6584 -6.4905 -2.4953 0.0747 0 8
-32.5503 -7.0124 -2.4953 0.0747 0 8
-32.4339 -7.5325 -2.4953 0.0747 0 8
-10.1918 30.1053 -2.6477 0.0830 0 7
-10.6723 29.9383 -2.6477 0.0830 0 6
-11.1501 29.7637 -2.6477 0.0830 0 7
-11.6251 29.5814 -2.6477 0.0830 0 7
-12.0971 29.3916 -2.6477 0.0830 0 7
-12.5659 29.1942 -2.6477 0.0830 0 7
-13.0316 28.9893 -2.6477 0.0830 0 7
-13.4939 28.7770 -2.6477 0.0830 0 7
-13.9528 28.5574 -2.6477 0.0830 0 7
-14.4081 28.3304 -2.6477 0.0830 0 7
-14.8597 28.0961 -2.6477 0.0830 0 7
-15.3074 27.8547 -2.6477 0.0830 0 7
-15.7513 27.6061 -2.6477 0.0830 0 7
-16.1911 27.3505 -2.6477 0.0830 0 7
-16.6268 27.0878 -2.6477 0.0830 0 7
-17.0583 26.8182 -2.6477 0.0830 0 7
-17.4853 26.5418 -2.6477 0.0830 0 7
-17.9079 26.2585 -2.6477 0.0830 0 7
-18.3259 25.9685 -2.6477 0.0830 0 7
-18.7392 25.6719 -2.6477 0.0830 0 7
-19.1476 25.3687 -2.6477 0.0830 0 7
-19.5512 25.0590 -2.6477 0.0830 0 7
-19.9498 24.7428 -2.6477 0.0830 0 7
-20.3433 24.4204 -2.6477 0.0830 0 7
-20.7315 24.0916 -2.6477 0.0830 0 7
-21.1145 23.7567 -2.6477 0.0830 0 7
-20.3168 22.1353 -2.5029 0.0830 0 14
-20.6685 21.8073 -2.5029 0.0830 0 14
-21.0148 21.4737 -2.5029 0.0830 0 14
-21.3559 21.1346 -2.5029 0.0830 0 14
-21.6914 20.7901 -2.5029 0.0830 0 14
-22.0214 20.4402 -2.5029 0.0830 0 14
-22.3457 20.0852 -2.5029 0.0830 0 14
-22.6643 19.7249 -2.5029 0.0830 0 14
-22.9771 19.3596 -2.5029 0.0830 0 14
-23.2840 18.9894 -2.5029 0.0830 0 8
-23.9311 18.8875 -2.5396 0.6243 0 8
-24.7198 18.8758 -2.5909 0.6120 0 8
-25.5411 18.8635 -2.6450 0.5994 0 8
-25.8657 18.4708 -2.6477 0.0830 0 7
-26.1580 18.0545 -2.6477 0.0830 0 7
-26.4436 17.6335 -2.6477 0.0830 0 7
-26.7224 17.2080 -2.6477 0.0830 0 7
-26.9944 16.7781 -2.6477 0.0830 0 7
-27.2595 16.3439 -2.6477 0.0830 0 7
-27.5176 15.9055 -2.6477 0.0830 0 7
-27.7687 15.4630 -2.6477 0.0830 0 7
-28.0126 15.0166 -2.6477 0.0830 0 7
-28.2494 14.5663 -2.6477 0.0830 0 7
-28.4789 14.1123 -2.6477 0.0830 0 7
-28.7011 13.6546 -2.6477 0.0830 0 7
-28.9160 13.1935 -2.6477 0.0830 0 7
-29.1234 12.7290 -2.6477 0.0830 0 7
-29.3235 12.2612 -2.6477 0.0830 0 7
-29.5159 11.7903 -2.6477 0.0830 0 7
-29.7009 11.3164 -2.6477 0.0830 0 6
-29.8782 10.8396 -2.6477 0.0830 0 7
-30.0479 10.3600 -2.6477 0.0830 0 7
-30.2098 9.8778 -2.6477 0.0830 0 7
-30.3640 9.3930 -2.6477 0.0830 0 7
-30.5105 8.9058 -2.6477 0.0830 0 7
-28.8850 7.9318 -2.4953 0.0830 0 8
-29.0082 7.4685 -2.4953 0.0830 0 8
-29.1240 7.0033 -2.4953 0.0830 0 8
-29.2324 6.5362 -2.4953 0.0830 0 8
-29.3333 6.0675 -2.4953 0.0830 0 8
-29.4266 5.5973 -2.4953 0.0830 0 8
-29.5124 5.1255 -2.4953 0.0830 0 8
-29.5907 4.6525 -2.4953 0.0830 0 8
-29.6614 4.1783 -2.4953 0.0830 0 8
-29.7244 3.7030 -2.4953 0.0830 0 8
-29.7799 3.2268 -2.4953 0.0830 0 8
-29.8277 2.7497 -2.4953 0.0830 0 8
-29.8679 2.2720 -2.4953 0.0830 0 8
-29.9005 1.7936 -2.4953 0.0830 0 8
-29.9253 1.3149 -2.4953 0.0830 0 8
-29.9426 0.8357 -2.4953 0.0830 0 8
-29.9521 0.3564 -2.4953 0.0830 0 8
-29.9540 -0.1231 -2.4953 0.0830 0 8
-29.9482 -0.6025 -2.4953 0.0830 0 8
-29.9347 -1.0818 -2.4953 0.0830 0 8
-29.9135 -1.5607 -2.4953 0.0830 0 8
-29.8847 -2.0393 -2.4953 0.0830 0 8
-29.8483 -2.5174 -2.4953 0.0830 0 8
-29.8041 -2.9948 -2.4953 0.0830 0 8
-29.7524 -3.4714 -2.4953 0.0830 0 8
-29.6930 -3.9472 -2.4953 0.0830 0 8
-29.6260 -4.4219 -2.4953 0.0830 0 8
-29.5515 -4.8956 -2.4953 0.0830 0 8
-29.4693 -5.3679 -2.4953 0.0830 0 8
-29.3796 -5.8389 -2.4953 0.0830 0 8
-29.2824 -6.3084 -2.4953 0.0830 0 8
-29.1777 -6.7763 -2.4953 0.0830 0 8
-9.2608 27.3552 -2.6477 0.0913 0 7
-9.6974 27.2035 -2.6477 0.0913 0 7
-10.1316 27.0448 -2.6477 0.0913 0 7
-10.5631 26.8792 -2.6477 0.0913 0 7
-10.9920 26.7067 -2.6477 0.0913 0 7
-11.4180 26.5273 -2.6477 0.0913 0 7
-11.8412 26.3412 -2.6477 0.0913 0 7
-12.2612 26.1483 -2.6477 0.0913 0 7
-12.6782 25.9487 -2.6477 0.0913 0 7
-13.0919 25.7424 -2.6477 0.0913 0 7
-13.5022 25.5296 -2.6477 0.0913 0 7
-13.9091 25.3102 -2.6477 0.0913 0 7
-14.3124 25.0843 -2.6477 0.0913 0 7
-14.7121 24.8520 -2.6477 0.0913 0 7
-15.1080 24.6134 -2.6477 0.0913 0 7
-15.5000 24.3684 -2.6477 0.0913 0 7
-15.8880 24.1172 -2.6477 0.0913 0 7
-16.2720 23.8598 -2.6477 0.0913 0 7
-15.7413 22.3060 -2.5029 0.0913 0 8
-16.0963 22.0512 -2.5029 0.0913 0 14
-16.4471 21.7908 -2.5029 0.0913 0 14
-16.7938 21.5248 -2.5029 0.0913 0 14
-17.1362 21.2532 -2.5029 0.0913 0 14
-17.4741 20.9762 -2.5029 0.0913 0 14
-17.8076 20.6938 -2.5029 0.0913 0 14
-18.1366 20.4062 -2.5029 0.0913 0 14
-18.4608 20.1133 -2.5029 0.0913 0 14
-18.7804 19.8152 -2.5029 0.0913 0 14
-19.0951 19.5121 -2.5029 0.0913 0 14
-19.4050 19.2040 -2.5029 0.0913 0 14
-19.7295 18.9097 -2.5054 0.5532 0 8
-20.3578 18.8962 -2.5464 0.6848 0 8
-21.0119 18.8863 -2.5901 0.6732 0 8
-21.6887 18.8759 -2.6359 0.6615 0 8
-22.0859 18.6087 -2.6477 0.0913 0 7
-22.3809 18.2528 -2.6477 0.0913 0 7
-22.6702 17.8923 -2.6477 0.0913 0 7
-22.9536 17.5272 -2.6477 0.0913 0 7
-23.2312 17.1575 -2.6477 0.0913 0 7
-23.5028 16.7835 -2.6477 0.0913 0 7
-23.7685 16.4052 -2.6477 0.0913 0 7
-24.0280 16.0227 -2.6477 0.0913 0 7
-24.2813 15.6360 -2.6477 0.0913 0 7
-24.5285 15.2454 -2.6477 0.0913 0 7
-24.7694 14.8508 -2.6477 0.0913 0 7
-25.0039 14.4525 -2.6477 0.0913 0 7
-25.2320 14.0504 -2.6477 0.0913 0 7
-25.4537 13.6448 -2.6477 0.0913 0 7
-25.6688 13.2356 -2.6477 0.0913 0 7
-25.8774 12.8231 -2.6477 0.0913 0 7
-26.0793 12.4073 -2.6477 0.0913 0 7
-26.2745 11.9883 -2.6477 0.0913 0 7
-26.4630 11.5662 -2.6477 0.0913 0 7
-26.6448 11.1412 -2.6477 0.0913 0 7
-26.8197 10.7133 -2.6477 0.0913 0 7
-26.9877 10.2827 -2.6477 0.0913 0 7
-27.1488 9.8494 -2.6477 0.0913 0 7
-27.3030 9.4136 -2.6477 0.0913 0 7
-27.4502 8.9754 -2.6477 0.0913 0 7
-26.0022 8.0436 -2.4953 0.0913 0 8
-26.1276 7.6264 -2.4953 0.0913 0 8
-26.2463 7.2073 -2.4953 0.0913 0 8
-26.3583 6.7863 -2.4953 0.0913 0 8
-26.4636 6.3635 -2.4953 0.0913 0 8
-26.5620 5.9391 -2.4953 0.0913 0 8
-26.6537 5.5133 -2.4953 0.0913 0 8
-26.7385 5.0859 -2.4953 0.0913 0 8
-26.8165 4.6573 -2.4953 0.0913 0 8
-26.8876 4.2275 -2.4953 0.0913 0 8
-26.9518 3.7966 -2.4953 0.0913 0 8
-27.0091 3.3648 -2.4953 0.0913 0 8
-27.0595 2.9320 -2.4953 0.0913 0 8
-27.1030 2.4986 -2.4953 0.0913 0 8
-27.1395 2.0644 -2.4953 0.0913 0 8
-27.1691 1.6298 -2.4953 0.0913 0 8
-27.1917 1.1947 -2.4953 0.0913 0 8
-27.2073 0.7594 -2.4953 0.0913 0 8
-27.2160 0.3238 -2.4953 0.0913 0 8
-27.2177 -0.1119 -2.4953 0.0913 0 8
-27.2124 -0.5475 -2.4953 0.0913 0 8
-27.2002 -0.9829 -2.4953 0.0913 0 8
-27.1809 -1.4182 -2.4953 0.0913 0 8
-27.1548 -1.8530 -2.4953 0.0913 0 8
-27.1216 -2.2874 -2.4953 0.0913 0 8
-27.0815 -2.7212 -2.4953 0.0913 0 8
-27.0345 -3.1543 -2.4953 0.0913 0 8
-26.9806 -3.5866 -2.4953 0.0913 0 8
-26.9197 -4.0180 -2.4953 0.0913 0 8
-26.8519 -4.4483 -2.4953 0.0913 0 8
-26.7773 -4.8775 -2.4953 0.0913 0 8
-26.6958 -5.3055 -2.4953 0.0913 0 8
-26.6075 -5.7321 -2.4953 0.0913 0 8
-26.5123 -6.1572 -2.4953 0.0913 0 8
-8.4845 25.0623 -2.6477 0.0996 0 7
-8.8846 24.9232 -2.6477 0.0996 0 7
-9.2824 24.7779 -2.6477 0.0996 0 7
-9.6777 24.6261 -2.6477 0.0996 0 7
-10.0707 24.4681 -2.6477 0.0996 0 7
-10.4610 24.3038 -2.6477 0.0996 0 7
-10.8486 24.1332 -2.6477 0.0996 0 7
-11.2335 23.9565 -2.6477 0.0996 0 7
-11.6155 23.7736 -2.6477 0.0996 0 7
-11.3386 22.2950 -2.5029 0.0996 0 8
-11.6940 22.1107 -2.5029 0.0996 0 14
-12.0464 21.9207 -2.5029 0.0996 0 14
-12.3957 21.7251 -2.5029 0.0996 0 14
-12.7419 21.5239 -2.5029 0.0996 0 14
-13.0847 21.3172 -2.5029 0.0996 0 14
-13.4243 21.1050 -2.5029 0.0996 0 14
-13.7603 20.8875 -2.5029 0.0996 0 14
-14.0929 20.6645 -2.5029 0.0996 0 14
-14.4218 20.4363 -2.5029 0.0996 0 14
-14.7471 20.2029 -2.5029 0.0996 0 14
-15.0685 19.9643 -2.5029 0.0996 0 14
-15.3861 19.7205 -2.5029 0.0996 0 14
-15.6998 19.4718 -2.5029 0.0996 0 14
-16.0094 19.2180 -2.5029 0.0996 0 14
-16.3150 18.9593 -2.5029 0.0996 0 8
-16.8058 18.9088 -2.5314 0.7512 0 8
-17.3479 18.9007 -2.5672 0.7408 0 8
-17.9056 18.8922 -2.6046 0.7301 0 8
-18.4798 18.8834 -2.6438 0.7193 0 8
-18.8069 18.6120 -2.6477 0.0996 0 7
-19.1023 18.3086 -2.6477 0.0996 0 7
-19.3929 18.0005 -2.6477 0.0996 0 7
-19.6786 17.6879 -2.6477 0.0996 0 7
-19.9591 17.3706 -2.6477 0.0996 0 7
-20.2346 17.0489 -2.6477 0.0996 0 7
-20.5049 16.7229 -2.6477 0.0996 0 7
-20.7699 16.3926 -2.6477 0.0996 0 7
-21.0296 16.0580 -2.6477 0.0996 0 7
-21.2840 15.7194 -2.6477 0.0996 0 7
-21.5328 15.3767 -2.6477 0.0996 0 7
-21.7762 15.0301 -2.6477 0.0996 0 7
-22.0140 14.6796 -2.6477 0.0996 0 7
-22.2461 14.3254 -2.6477 0.0996 0 7
-22.4725 13.9675 -2.6477 0.0996 0 7
-22.6932 13.6060 -2.6477 0.0996 0 7
-22.9081 13.2411 -2.6477 0.0996 0 7
-23.1171 12.8727 -2.6477 0.0996 0 7
-23.3201 12.5011 -2.6477 0.0996 0 7
-23.5172 12.1262 -2.6477 0.0996 0 7
-23.7083 11.7483 -2.6477 0.0996 0 7
-23.8933 11.3673 -2.6477 0.0996 0 6
-24.0722 10.9834 -2.6477 0.0996 0 7
-24.2449 10.5967 -2.6477 0.0996 0 7
-24.4114 10.2073 -2.6477 0.0996 0 7
-24.5716 9.8153 -2.6477 0.0996 0 7
-24.7256 9.4208 -2.6477 0.0996 0 7
-24.8732 9.0238 -2.6477 0.0996 0 7
-23.5746 8.1281 -2.4953 0.0996 0 8
-23.7017 7.7498 -2.4953 0.0996 0 8
-23.8227 7.3694 -2.4953 0.0996 0 8
-23.9376 6.9872 -2.4953 0.0996 0 8
-24.0464 6.6032 -2.4953 0.0996 0 8
-24.1490 6.2174 -2.4953 0.0996 0 8
-24.2454 5.8301 -2.4953 0.0996 0 8
-24.3356 5.4413 -2.4953 0.0996 0 8
-24.4196 5.0511 -2.4953 0.0996 0 8
-24.4973 4.6596 -2.4953 0.0996 0 8
-24.5687 4.2669 -2.4953 0.0996 0 8
-24.6339 3.8732 -2.4953 0.0996 0 8
-24.6927 3.4784 -2.4953 0.0996 0 8
-24.7452 3.0827 -2.4953 0.0996 0 8
-24.7914 2.6863 -2.4953 0.0996 0 8
-24.8312 2.2891 -2.4953 0.0996 0 8
-24.8647 1.8914 -2.4953 0.0996 0 8
-24.8918 1.4932 -2.4953 0.0996 0 8
-24.9125 1.0946 -2.4953 0.0996 0 8
-24.9268 0.6957 -2.4953 0.0996 0 8
-24.9347 0.2967 -2.4953 0.0996 0 8
-24.9363 -0.1025 -2.4953 0.0996 0 8
-24.9315 -0.5016 -2.4953 0.0996 0 8
-24.9202 -0.9006 -2.4953 0.0996 0 8
-24.9026 -1.2993 -2.4953 0.0996 0 8
-24.8786 -1.6977 -2.4953 0.0996 0 8
-24.8483 -2.0957 -2.4953 0.0996 0 8
-24.8116 -2.4931 -2.4953 0.0996 0 8
-24.7685 -2.8899 -2.4953 0.0996 0 8
-24.7191 -3.2860 -2.4953 0.0996 0 8
-24.6633 -3.6812 -2.4953 0.0996 0 8
-24.6012 -4.0755 -2.4953 0.0996 0 8
-24.5328 -4.4687 -2.4953 0.0996 0 8
-24.4582 -4.8608 -2.4953 0.0996 0 8
-24.3772 -5.2516 -2.4953 0.0996 0 8
-24.2901 -5.6411 -2.4953 0.0996 0 8
-7.3993 21.8567 -2.5029 0.1078 0 14
-7.7482 21.7355 -2.5029 0.1078 0 14
-8.0951 21.6087 -2.5029 0.1078 0 14
-8.4399 21.4763 -2.5029 0.1078 0 14
-8.7826 21.3385 -2.5029 0.1078 0 14
-9.1230 21.1952 -2.5029 0.1078 0 14
-9.4610 21.0465 -2.5029 0.1078 0 14
-9.7967 20.8924 -2.5029 0.1078 0 14
-10.1298 20.7329 -2.5029 0.1078 0 14
-10.4604 20.5681 -2.5029 0.1078 0 14
-10.7882 20.3980 -2.5029 0.1078 0 14
-11.1133 20.2227 -2.5029 0.1078 0 14
-11.4356 20.0423 -2.5029 0.1078 0 14
-11.7549 19.8567 -2.5029 0.1078 0 14
-12.0712 19.6660 -2.5029 0.1078 0 14
-12.3844 19.4703 -2.5029 0.1078 0 14
-12.6945 19.2695 -2.5029 0.1078 0 14
-13.0013 19.0639 -2.5029 0.1078 0 8
-13.3532 18.9220 -2.5120 0.8199 0 8
-13.8074 18.9155 -2.5402 0.8108 0 8
-14.2719 18.9088 -2.5696 0.8015 0 8
-14.7473 18.9018 -2.6004 0.7920 0 8
-15.2343 18.8945 -2.6326 0.7823 0 8
-15.6237 18.7549 -2.6477 0.1078 0 7
-15.9219 18.5025 -2.6477 0.1078 0 7
-16.2160 18.2453 -2.6477 0.1078 0 7
-16.5059 17.9834 -2.6477 0.1078 0 7
-16.7917 17.7169 -2.6477 0.1078 0 7
-17.0731 17.4459 -2.6477 0.1078 0 7
-17.3501 17.1704 -2.6477 0.1078 0 7
-17.6227 16.8905 -2.6477 0.1078 0 7
-17.8908 16.6063 -2.6477 0.1078 0 7
-18.1543 16.3178 -2.6477 0.1078 0 7
-18.4131 16.0251 -2.6477 0.1078 0 7
-18.6673 15.7283 -2.6477 0.1078 0 7
-18.9166 15.4276 -2.6477 0.1078 0 7
-19.1611 15.1228 -2.6477 0.1078 0 7
-19.4007 14.8142 -2.6477 0.1078 0 7
-19.6353 14.5018 -2.6477 0.1078 0 7
-19.8649 14.1857 -2.6477 0.1078 0 7
-20.0894 13.8659 -2.6477 0.1078 0 7
-20.3088 13.5426 -2.6477 0.1078 0 7
-20.5229 13.2158 -2.6477 0.1078 0 7
-20.7318 12.8856 -2.6477 0.1078 0 7
-20.9354 12.5521 -2.6477 0.1078 0 7
-21.1336 12.2154 -2.6477 0.1078 0 7
-21.3265 11.8756 -2.6477 0.1078 0 7
-21.5138 11.5328 -2.6477 0.1078 0 7
-21.6956 11.1869 -2.6477 0.1078 0 7
-21.8719 10.8383 -2.6477 0.1078 0 7
-22.0426 10.4868 -2.6477 0.1078 0 7
-22.2076 10.1327 -2.6477 0.1078 0 7
-22.3669 9.7759 -2.6477 0.1078 0 7
-22.5205 9.4167 -2.6477 0.1078 0 7
-22.6684 9.0550 -2.6477 0.1078 0 7
-21.4974 8.1908 -2.4953 0.1078 0 8
-21.6258 7.8457 -2.4953 0.1078 0 8
-21.7486 7.4985 -2.4953 0.1078 0 8
-21.8658 7.1495 -2.4953 0.1078 0 8
-21.9774 6.7986 -2.4953 0.1078 0 8
-22.0834 6.4460 -2.4953 0.1078 0 8
-22.1838 6.0917 -2.4953 0.1078 0 8
-22.2784 5.7358 -2.4953 0.1078 0 8
-22.3674 5.3785 -2.4953 0.1078 0 8
-22.4506 5.0198 -2.4953 0.1078 0 8
-22.5281 4.6599 -2.4953 0.1078 0 8
-22.5998 4.2987 -2.4953 0.1078 0 8
-22.6657 3.9364 -2.4953 0.1078 0 8
-22.7258 3.5732 -2.4953 0.1078 0 8
-22.7800 3.2090 -2.4953 0.1078 0 8
-22.8285 2.8439 -2.4953 0.1078 0 8
-22.8711 2.4782 -2.4953 0.1078 0 8
-22.9078 2.1118 -2.4953 0.1078 0 8
-22.9387 1.7449 -2.4953 0.1078 0 8
-22.9637 1.3775 -2.4953 0.1078 0 8
-22.9828 1.0098 -2.4953 0.1078 0 8
-22.9960 0.6418 -2.4953 0.1078 0 8
-23.0033 0.2737 -2.4953 0.1078 0 8
-23.0048 -0.0945 -2.4953 0.1078 0 8
-23.0003 -0.4627 -2.4953 0.1078 0 8
-22.9900 -0.8308 -2.4953 0.1078 0 8
-22.9737 -1.1987 -2.4953 0.1078 0 8
-22.9516 -1.5662 -2.4953 0.1078 0 8
-22.9236 -1.9334 -2.4953 0.1078 0 8
-22.8897 -2.3000 -2.4953 0.1078 0 8
-22.8499 -2.6661 -2.4953 0.1078 0 8
-22.8043 -3.0315 -2.4953 0.1078 0 8
-22.7529 -3.3961 -2.4953 0.1078 0 8
-22.6956 -3.7598 -2.4953 0.1078 0 8
-22.6326 -4.1226 -2.4953 0.1078 0 8
-22.5637 -4.4843 -2.4953 0.1078 0 8
-22.4890 -4.8449 -2.4953 0.1078 0 8
-22.4086 -5.2042 -2.4953 0.1078 0 8
-6.8665 20.2828 -2.5029 0.1161 0 14
-7.1903 20.1703 -2.5029 0.1161 0 14
-7.5122 20.0527 -2.5029 0.1161 0 14
-7.8322 19.9299 -2.5029 0.1161 0 14
-8.1501 19.8020 -2.5029 0.1161 0 14
-8.4660 19.6690 -2.5029 0.1161 0 14
-8.7798 19.5309 -2.5029 0.1161 0 14
-9.0912 19.3879 -2.5029 0.1161 0 14
-9.4004 19.2399 -2.5029 0.1161 0 14
-9.7096 19.0918 -2.5035 0.7090 0 8
-10.0160 18.9380 -2.5041 0.7039 0 8
-10.4018 18.9279 -2.5244 0.8783 0 8
-10.7968 18.9227 -2.5464 0.8707 0 8
-11.1988 18.9174 -2.5695 0.8629 0 8
-11.6083 18.9117 -2.5937 0.8549 0 8
-12.0255 18.9059 -2.6189 0.8467 0 8
-12.4509 18.8998 -2.6454 0.8382 0 8
-12.7630 18.7145 -2.6477 0.1161 0 7
-13.0609 18.5078 -2.6477 0.1161 0 7
-13.3554 18.2964 -2.6477 0.1161 0 7
-13.6465 18.0803 -2.6477 0.1161 0 7
-13.9342 17.8596 -2.6477 0.1161 0 7
-14.2182 17.6342 -2.6477 0.1161 0 7
-14.4987 17.4044 -2.6477 0.1161 0 7
-14.7754 17.1701 -2.6477 0.1161 0 7
-15.0483 16.9314 -2.6477 0.1161 0 7
-15.3174 16.6884 -2.6477 0.1161 0 7
-15.5825 16.4411 -2.6477 0.1161 0 7
-15.8437 16.1896 -2.6477 0.1161 0 7
-16.1008 15.9339 -2.6477 0.1161 0 7
-16.3537 15.6742 -2.6477 0.1161 0 7
-16.6025 15.4105 -2.6477 0.1161 0 7
-16.8470 15.1428 -2.6477 0.1161 0 7
-17.0873 14.8712 -2.6477 0.1161 0 7
-17.3231 14.5958 -2.6477 0.1161 0 7
-17.5545 14.3166 -2.6477 0.1161 0 7
-17.7814 14.0338 -2.6477 0.1161 0 7
-18.0037 13.7474 -2.6477 0.1161 0 7
-18.2214 13.4575 -2.6477 0.1161 0 7
-18.4345 13.1642 -2.6477 0.1161 0 7
-18.6428 12.8674 -2.6477 0.1161 0 7
-18.8464 12.5674 -2.6477 0.1161 0 7
-19.0451 12.2641 -2.6477 0.1161 0 7
-19.2390 11.9577 -2.6477 0.1161 0 7
-19.4279 11.6483 -2.6477 0.1161 0 7
-19.6118 11.3358 -2.6477 0.1161 0 6
-19.7908 11.0205 -2.6477 0.1161 0 7
-19.9646 10.7023 -2.6477 0.1161 0 7
-20.1334 10.3814 -2.6477 0.1161 0 7
-20.2969 10.0578 -2.6477 0.1161 0 7
-20.4553 9.7317 -2.6477 0.1161 0 7
-20.6084 9.4030 -2.6477 0.1161 0 7
-20.7563 9.0720 -2.6477 0.1161 0 7
-19.6959 8.2356 -2.4953 0.1161 0 8
-19.8252 7.9193 -2.4953 0.1161 0 8
-19.9494 7.6010 -2.4953 0.1161 0 8
-20.0685 7.2807 -2.4953 0.1161 0 8
-20.1825 6.9586 -2.4953 0.1161 0 8
-20.2913 6.6347 -2.4953 0.1161 0 8
-20.3949 6.3090 -2.4953 0.1161 0 8
-20.4932 5.9818 -2.4953 0.1161 0 8
-20.5864 5.6530 -2.4953 0.1161 0 8
-20.6742 5.3228 -2.4953 0.1161 0 8
-20.7568 4.9912 -2.4953 0.1161 0 8
-20.8340 4.6584 -2.4953 0.1161 0 8
-20.9058 4.3243 -2.4953 0.1161 0 8
-20.9724 3.9892 -2.4953 0.1161 0 8
-21.0335 3.6530 -2.4953 0.1161 0 8
-21.0893 3.3159 -2.4953 0.1161 0 8
-21.1397 2.9779 -2.4953 0.1161 0 8
-21.1846 2.6392 -2.4953 0.1161 0 8
-21.2242 2.2997 -2.4953 0.1161 0 8
-21.2583 1.9597 -2.4953 0.1161 0 8
-21.2869 1.6192 -2.4953 0.1161 0 8
-21.3101 1.2783 -2.4953 0.1161 0 8
-21.3278 0.9371 -2.4953 0.1161 0 8
-21.3401 0.5956 -2.4953 0.1161 0 8
-21.3469 0.2540 -2.4953 0.1161 0 8
-21.3482 -0.0877 -2.4953 0.1161 0 8
-21.3441 -0.4294 -2.4953 0.1161 0 8
-21.3345 -0.7710 -2.4953 0.1161 0 8
-21.3194 -1.1123 -2.4953 0.1161 0 8
-21.2989 -1.4534 -2.4953 0.1161 0 8
-21.2729 -1.7941 -2.4953 0.1161 0 8
-21.2414 -2.1344 -2.4953 0.1161 0 8
-21.2046 -2.4741 -2.4953 0.1161 0 8
-21.1622 -2.8132 -2.4953 0.1161 0 8
-21.1145 -3.1515 -2.4953 0.1161 0 8
-21.0614 -3.4891 -2.4953 0.1161 0 8
-21.0028 -3.8257 -2.4953 0.1161 0 8
-20.9389 -4.1614 -2.4953 0.1161 0 8
-20.8696 -4.4960 -2.4953 0.1161 0 8
-20.7950 -4.8294 -2.4953 0.1161 0 8
-6.4138 18.9455 -2.5065 0.7531 0 8
-6.7513 18.9389 -2.5196 0.9426 0 8
-7.0936 18.9353 -2.5340 0.9372 0 8
-7.4398 18.9316 -2.5491 0.9317 0 8
-7.7903 18.9277 -2.5650 0.9259 0 8
-8.1452 18.9236 -2.5818 0.9199 0 8
-8.5048 18.9193 -2.5994 0.9136 0 8
-8.8694 18.9148 -2.6180 0.9071 0 8
-9.2393 18.9102 -2.6375 0.9004 0 8
-9.5776 18.8324 -2.6477 0.1243 0 7
-9.8778 18.6767 -2.6477 0.1243 0 7
-10.1755 18.5162 -2.6477 0.1243 0 7
-10.4703 18.3509 -2.6477 0.1243 0 6
-10.7629 18.1810 -2.6477 0.1243 0 7
-11.0525 18.0064 -2.6477 0.1243 0 7
-11.3393 17.8272 -2.6477 0.1243 0 7
-11.6232 17.6434 -2.6477 0.1243 0 7
-11.9041 17.4551 -2.6477 0.1243 0 7
-12.1820 17.2624 -2.6477 0.1243 0 7
-12.4567 17.0652 -2.6477 0.1243 0 7
-12.7282 16.8636 -2.6477 0.1243 0 7
-12.9965 16.6577 -2.6477 0.1243 0 7
-13.2615 16.4476 -2.6477 0.1243 0 7
-13.5230 16.2332 -2.6477 0.1243 0 7
-13.7811 16.0147 -2.6477 0.1243 0 7
-14.0356 15.7921 -2.6477 0.1243 0 7
-14.2866 15.5654 -2.6477 0.1243 0 7
-14.5339 15.3347 -2.6477 0.1243 0 7
-14.7775 15.1002 -2.6477 0.1243 0 7
-15.0173 14.8617 -2.6477 0.1243 0 6
-15.2532 14.6194 -2.6477 0.1243 0 7
-15.4853 14.3734 -2.6477 0.1243 0 7
-15.7133 14.1238 -2.6477 0.1243 0 7
-15.9374 13.8704 -2.6477 0.1243 0 7
-16.1573 13.6136 -2.6477 0.1243 0 7
-16.3732 13.3532 -2.6477 0.1243 0 7
-16.5848 13.0894 -2.6477 0.1243 0 7
-16.7922 12.8223 -2.6477 0.1243 0 7
-16.9952 12.5519 -2.6477 0.1243 0 7
-17.1940 12.2783 -2.6477 0.1243 0 7
-17.3883 12.0015 -2.6477 0.1243 0 7
-17.5781 11.7217 -2.6477 0.1243 0 7
-17.7635 11.4388 -2.6477 0.1243 0 6
-17.9443 11.1531 -2.6477 0.1243 0 7
-18.1205 10.8644 -2.6477 0.1243 0 7
-18.2921 10.5730 -2.6477 0.1243 0 7
-18.4590 10.2789 -2.6477 0.1243 0 7
-18.6211 9.9821 -2.6477 0.1243 0 7
-18.7785 9.6828 -2.6477 0.1243 0 7
-18.9311 9.3810 -2.6477 0.1243 0 7
-19.0788 9.0768 -2.6477 0.1243 0 7
-18.1152 8.2654 -2.4953 0.1243 0 8
-18.2452 7.9745 -2.4953 0.1243 0 8
-18.3705 7.6814 -2.4953 0.1243 0 8
-18.4911 7.3864 -2.4953 0.1243 0 8
-18.6070 7.0895 -2.4953 0.1243 0 8
-18.7180 6.7908 -2.4953 0.1243 0 8
-18.8243 6.4903 -2.4953 0.1243 0 8
-18.9258 6.1882 -2.4953 0.1243 0 8
-19.0224 5.8845 -2.4953 0.1243 0 8
-19.1142 5.5793 -2.4953 0.1243 0 8
-19.2010 5.2726 -2.4953 0.1243 0 8
-19.2829 4.9646 -2.4953 0.1243 0 8
-19.3599 4.6554 -2.4953 0.1243 0 8
-19.4320 4.3449 -2.4953 0.1243 0 8
-19.4990 4.0333 -2.4953 0.1243 0 8
-19.5611 3.7207 -2.4953 0.1243 0 8
-19.6181 3.4071 -2.4953 0.1243 0 8
-19.6701 3.0927 -2.4953 0.1243 0 8
-19.7171 2.7775 -2.4953 0.1243 0 8
-19.7591 2.4616 -2.4953 0.1243 0 8
-19.7959 2.1450 -2.4953 0.1243 0 8
-19.8277 1.8279 -2.4953 0.1243 0 8
-19.8544 1.5103 -2.4953 0.1243 0 8
-19.8761 1.1923 -2.4953 0.1243 0 8
-19.8926 0.8740 -2.4953 0.1243 0 8
-19.9040 0.5555 -2.4953 0.1243 0 8
-19.9104 0.2369 -2.4953 0.1243 0 8
-19.9116 -0.0818 -2.4953 0.1243 0 8
-19.9078 -0.4005 -2.4953 0.1243 0 8
-19.8988 -0.7191 -2.4953 0.1243 0 8
-19.8847 -1.0375 -2.4953 0.1243 0 8
-19.8656 -1.3556 -2.4953 0.1243 0 8
-19.8414 -1.6734 -2.4953 0.1243 0 8
-19.8120 -1.9908 -2.4953 0.1243 0 8
-19.7776 -2.3076 -2.4953 0.1243 0 8
-19.7382 -2.6239 -2.4953 0.1243 0 8
-19.6936 -2.9394 -2.4953 0.1243 0 8
-19.6441 -3.2543 -2.4953 0.1243 0 8
-19.5895 -3.5683 -2.4953 0.1243 0 8
-19.5298 -3.8814 -2.4953 0.1243 0 8
-19.4652 -4.1934 -2.4953 0.1243 0 8
-19.3956 -4.5045 -2.4953 0.1243 0 8
-6.3469 18.7480 -2.6477 0.1326 0 7
-6.6462 18.6440 -2.6477 0.1326 0 7
-6.9437 18.5352 -2.6477 0.1326 0 7
-7.2394 18.4217 -2.6477 0.1326 0 6
-7.5334 18.3035 -2.6477 0.1326 0 7
-7.8254 18.1806 -2.6477 0.1326 0 7
-8.1154 18.0530 -2.6477 0.1326 0 7
-8.4033 17.9208 -2.6477 0.1326 0 7
-8.6890 17.7840 -2.6477 0.1326 0 7
-8.9726 17.6426 -2.6477 0.1326 0 7
-9.2538 17.4968 -2.6477 0.1326 0 7
-9.5326 17.3464 -2.6477 0.1326 0 7
-9.8091 17.1916 -2.6477 0.1326 0 7
-10.0830 17.0324 -2.6477 0.1326 0 7
-10.3543 16.8689 -2.6477 0.1326 0 7
-10.6230 16.7010 -2.6477 0.1326 0 7
-10.8889 16.5288 -2.6477 0.1326 0 7
-11.1521 16.3524 -2.6477 0.1326 0 7
-11.4124 16.1718 -2.6477 0.1326 0 7
-11.6697 15.9871 -2.6477 0.1326 0 7
-11.9241 15.7983 -2.6477 0.1326 0 7
-12.1755 15.6054 -2.6477 0.1326 0 7
-12.4237 15.4085 -2.6477 0.1326 0 7
-12.6687 15.2077 -2.6477 0.1326 0 7
-12.9105 15.0030 -2.6477 0.1326 0 7
-13.1489 14.7944 -2.6477 0.1326 0 7
-13.3841 14.5821 -2.6477 0.1326 0 7
-13.6157 14.3660 -2.6477 0.1326 0 7
-13.8439 14.1462 -2.6477 0.1326 0 7
-14.0686 13.9228 -2.6477 0.1326 0 7
-14.2896 13.6959 -2.6477 0.1326 0 7
-14.5070 13.4654 -2.6477 0.1326 0 7
-14.7206 13.2315 -2.6477 0.1326 0 7
-14.9305 12.9942 -2.6477 0.1326 0 7
-15.1366 12.7535 -2.6477 0.1326 0 7
-15.3388 12.5097 -2.6477 0.1326 0 7
-15.5371 12.2625 -2.6477 0.1326 0 7
-15.7313 12.0123 -2.6477 0.1326 0 7
-15.9216 11.7590 -2.6477 0.1326 0 7
-16.1077 11.5026 -2.6477 0.1326 0 7
-16.2898 11.2434 -2.6477 0.1326 0 7
-16.4677 10.9812 -2.6477 0.1326 0 7
-16.6413 10.7162 -2.6477 0.1326 0 7
-16.8107 10.4485 -2.6477 0.1326 0 7
-16.9758 10.1781 -2.6477 0.1326 0 7
-17.1365 9.9051 -2.6477 0.1326 0 7
-17.2928 9.6295 -2.6477 0.1326 0 7
-17.4447 9.3515 -2.6477 0.1326 0 7
-17.5922 9.0711 -2.6477 0.1326 0 7
-16.7143 8.2825 -2.4953 0.1326 0 8
-16.8447 8.0139 -2.4953 0.1326 0 8
-16.9708 7.7433 -2.4953 0.1326 0 8
-17.0926 7.4707 -2.4953 0.1326 0 8
-17.2100 7.1961 -2.4953 0.1326 0 8
-17.3229 6.9198 -2.4953 0.1326 0 8
-17.4315 6.6416 -2.4953 0.1326 0 8
-17.5355 6.3618 -2.4953 0.1326 0 8
-17.6351 6.0803 -2.4953 0.1326 0 8
-17.7302 5.7973 -2.4953 0.1326 0 8
-17.8207 5.5127 -2.4953 0.1326 0 8
-17.9066 5.2268 -2.4953 0.1326 0 8
-17.9880 4.9395 -2.4953 0.1326 0 8
-18.0648 4.6510 -2.4953 0.1326 0 8
-18.1369 4.3613 -2.4953 0.1326 0 8
-18.2044 4.0704 -2.4953 0.1326 0 8
-18.2672 3.7785 -2.4953 0.1326 0 8
-18.3253 3.4857 -2.4953 0.1326 0 8
-18.3788 3.1919 -2.4953 0.1326 0 8
-18.4275 2.8974 -2.4953 0.1326 0 8
-18.4715 2.6020 -2.4953 0.1326 0 8
-18.5108 2.3060 -2.4953 0.1326 0 8
-18.5453 2.0095 -2.4953 0.1326 0 8
-18.5751 1.7124 -2.4953 0.1326 0 8
-18.6001 1.4149 -2.4953 0.1326 0 8
-18.6204 1.1170 -2.4953 0.1326 0 8
-18.6359 0.8188 -2.4953 0.1326 0 8
-18.6466 0.5204 -2.4953 0.1326 0 8
-18.6526 0.2219 -2.4953 0.1326 0 8
-18.6537 -0.0767 -2.4953 0.1326 0 8
-18.6501 -0.3752 -2.4953 0.1326 0 8
-18.6417 -0.6737 -2.4953 0.1326 0 8
-18.6286 -0.9719 -2.4953 0.1326 0 8
-18.6106 -1.2700 -2.4953 0.1326 0 8
-18.5879 -1.5677 -2.4953 0.1326 0 8
-18.5604 -1.8650 -2.4953 0.1326 0 8
-18.5282 -2.1618 -2.4953 0.1326 0 8
-18.4912 -2.4581 -2.4953 0.1326 0 8
-18.4495 -2.7537 -2.4953 0.1326 0 8
-18.4030 -3.0487 -2.4953 0.1326 0 8
-18.3519 -3.3428 -2.4953 0.1326 0 8
-18.2961 -3.6362 -2.4953 0.1326 0 8
-18.2355 -3.9285 -2.4953 0.1326 0 8
-18.1703 -4.2199 -2.4953 0.1326 0 8
-5.9690 17.6316 -2.6477 0.1408 0 7
-6.2504 17.5338 -2.6477 0.1408 0 7
-6.5302 17.4315 -2.6477 0.1408 0 7
-6.8084 17.3248 -2.6477 0.1408 0 7
-7.0848 17.2136 -2.6477 0.1408 0 7
-7.3594 17.0980 -2.6477 0.1408 0 7
-7.6321 16.9780 -2.6477 0.1408 0 7
-7.9029 16.8537 -2.6477 0.1408 0 7
-8.1716 16.7250 -2.6477 0.1408 0 7
-8.4383 16.5921 -2.6477 0.1408 0 7
-8.7028 16.4549 -2.6477 0.1408 0 7
-8.9650 16.3135 -2.6477 0.1408 0 7
-9.2250 16.1679 -2.6477 0.1408 0 7
-9.4826 16.0182 -2.6477 0.1408 0 7
-9.7378 15.8644 -2.6477 0.1408 0 7
-9.9904 15.7065 -2.6477 0.1408 0 7
-10.2405 15.5446 -2.6477 0.1408 0 7
-10.4880 15.3787 -2.6477 0.1408 0 7
-10.7328 15.2089 -2.6477 0.1408 0 7
-10.9749 15.0351 -2.6477 0.1408 0 7
-11.2141 14.8576 -2.6477 0.1408 0 7
-11.4505 14.6762 -2.6477 0.1408 0 7
-11.6839 14.4910 -2.6477 0.1408 0 7
-11.9143 14.3022 -2.6477 0.1408 0 7
-12.1417 14.1096 -2.6477 0.1408 0 7
-12.3660 13.9135 -2.6477 0.1408 0 7
-12.5871 13.7138 -2.6477 0.1408 0 7
-12.8050 13.5105 -2.6477 0.1408 0 7
-13.0196 13.3039 -2.6477 0.1408 0 7
-13.2309 13.0938 -2.6477 0.1408 0 7
-13.4387 12.8803 -2.6477 0.1408 0 7
-13.6432 12.6636 -2.6477 0.1408 0 7
-13.8441 12.4436 -2.6477 0.1408 0 7
-14.0415 12.2204 -2.6477 0.1408 0 7
-14.2353 11.9941 -2.6477 0.1408 0 7
-14.4254 11.7648 -2.6477 0.1408 0 7
-14.6119 11.5324 -2.6477 0.1408 0 7
-14.7946 11.2970 -2.6477 0.1408 0 7
-14.9735 11.0588 -2.6477 0.1408 0 7
-15.1486 10.8177 -2.6477 0.1408 0 7
-15.3198 10.5739 -2.6477 0.1408 0 7
-15.4871 10.3273 -2.6477 0.1408 0 7
-15.6504 10.0781 -2.6477 0.1408 0 7
-15.8097 9.8263 -2.6477 0.1408 0 7
-15.9649 9.5720 -2.6477 0.1408 0 7
-16.1161 9.3153 -2.6477 0.1408 0 7
-16.2631 9.0561 -2.6477 0.1408 0 7
-15.4617 8.2884 -2.4953 0.1408 0 8
-15.5923 8.0399 -2.4953 0.1408 0 8
-15.7190 7.7893 -2.4953 0.1408 0 8
-15.8417 7.5367 -2.4953 0.1408 0 8
-15.9603 7.2822 -2.4953 0.1408 0 8
-16.0748 7.0258 -2.4953 0.1408 0 8
