ply
format ascii 1.0
element vertex 1381
property float32 x
property float32 y
property float32 z
property float32 CosAngle
property uint32 ObjIdx
property uint32 ObjTag
end_header
15.6171 -5.4932 -2.4953 0.1490 0 8
15.7029 -5.2428 -2.4953 0.1490 0 8
15.7848 -4.9910 -2.4953 0.1490 0 8
15.8626 -4.7379 -2.4953 0.1490 0 8
15.9363 -4.4836 -2.4953 0.1490 0 8
16.0060 -4.2282 -2.4953 0.1490 0 8
16.0716 -3.9717 -2.4953 0.1490 0 8
16.1330 -3.7141 -2.4953 0.1490 0 8
16.1904 -3.4556 -2.4953 0.1490 0 8
16.2436 -3.1963 -2.4953 0.1490 0 8
16.2926 -2.9361 -2.4953 0.1490 0 8
16.3375 -2.6751 -2.4953 0.1490 0 8
16.3782 -2.4135 -2.4953 0.1490 0 8
16.4147 -2.1513 -2.4953 0.1490 0 8
16.4470 -1.8885 -2.4953 0.1490 0 8
16.4751 -1.6252 -2.4953 0.1490 0 8
8.6120 -0.7107 -1.3025 0.1659 25 10
8.3357 -0.5538 -1.2592 0.4897 25 10
8.2986 -0.4182 -1.2524 0.5136 25 10
8.2620 -0.2840 -1.2460 0.5200 25 10
8.2471 -0.1514 -1.2433 0.5139 25 10
8.2332 -0.0195 -1.2410 0.5148 25 10
8.2430 0.1123 -1.2425 0.5142 25 10
8.2575 0.2446 -1.2452 0.5204 25 10
3.7397 -15.2174 -2.4953 0.1573 0 8
3.9826 -15.1557 -2.4953 0.1573 0 8
4.2245 -15.0900 -2.4953 0.1573 0 8
4.4653 -15.0205 -2.4953 0.1573 0 8
4.7049 -14.9472 -2.4953 0.1573 0 8
4.9434 -14.8701 -2.4953 0.1573 0 8
5.1806 -14.7891 -2.4953 0.1573 0 8
5.4164 -14.7044 -2.4953 0.1573 0 8
5.6509 -14.6159 -2.4953 0.1573 0 8
5.8839 -14.5236 -2.4953 0.1573 0 8
6.1154 -14.4277 -2.4953 0.1573 0 8
6.3454 -14.3280 -2.4953 0.1573 0 8
6.5737 -14.2247 -2.4953 0.1573 0 8
6.8004 -14.1178 -2.4953 0.1573 0 8
7.0253 -14.0072 -2.4953 0.1573 0 8
7.2484 -13.8930 -2.4953 0.1573 0 8
7.4697 -13.7753 -2.4953 0.1573 0 8
7.6890 -13.6541 -2.4953 0.1573 0 8
7.9064 -13.5294 -2.4953 0.1573 0 8
8.1218 -13.4012 -2.4953 0.1573 0 8
8.3350 -13.2696 -2.4953 0.1573 0 8
8.5462 -13.1346 -2.4953 0.1573 0 8
8.7551 -12.9963 -2.4953 0.1573 0 8
8.9619 -12.8546 -2.4953 0.1573 0 8
9.1663 -12.7096 -2.4953 0.1573 0 8
9.3684 -12.5614 -2.4953 0.1573 0 8
9.5681 -12.4100 -2.4953 0.1573 0 8
9.7653 -12.2554 -2.4953 0.1573 0 8
9.9601 -12.0976 -2.4953 0.1573 0 8
10.1523 -11.9368 -2.4953 0.1573 0 8
10.3419 -11.7729 -2.4953 0.1573 0 8
10.5288 -11.6060 -2.4953 0.1573 0 8
10.7131 -11.4361 -2.4953 0.1573 0 8
10.8946 -11.2633 -2.4953 0.1573 0 8
11.0734 -11.0877 -2.4953 0.1573 0 8
11.2493 -10.9092 -2.4953 0.1573 0 8
11.4223 -10.7279 -2.4953 0.1573 0 8
11.5924 -10.5438 -2.4953 0.1573 0 8
11.7595 -10.3571 -2.4953 0.1573 0 8
11.9237 -10.1677 -2.4953 0.1573 0 8
12.0848 -9.9757 -2.4953 0.1573 0 8
12.2428 -9.7811 -2.4953 0.1573 0 8
12.3976 -9.5841 -2.4953 0.1573 0 8
12.5493 -9.3846 -2.4953 0.1573 0 8
12.6978 -9.1827 -2.4953 0.1573 0 8
12.8430 -8.9785 -2.4953 0.1573 0 8
12.9850 -8.7719 -2.4953 0.1573 0 8
13.1236 -8.5631 -2.4953 0.1573 0 8
13.2589 -8.3522 -2.4953 0.1573 0 8
13.3907 -8.1390 -2.4953 0.1573 0 8
13.5192 -7.9238 -2.4953 0.1573 0 8
13.6442 -7.7066 -2.4953 0.1573 0 8
13.7657 -7.4874 -2.4953 0.1573 0 8
13.8837 -7.2663 -2.4953 0.1573 0 8
13.9981 -7.0433 -2.4953 0.1573 0 8
14.1090 -6.8186 -2.4953 0.1573 0 8
14.2162 -6.5921 -2.4953 0.1573 0 8
14.3198 -6.3639 -2.4953 0.1573 0 8
14.4198 -6.1340 -2.4953 0.1573 0 8
14.5160 -5.9026 -2.4953 0.1573 0 8
14.6086 -5.6697 -2.4953 0.1573 0 8
14.6974 -5.4354 -2.4953 0.1573 0 8
14.7824 -5.1996 -2.4953 0.1573 0 8
14.8637 -4.9626 -2.4953 0.1573 0 8
14.9411 -4.7242 -2.4953 0.1573 0 8
15.0148 -4.4847 -2.4953 0.1573 0 8
15.0846 -4.2440 -2.4953 0.1573 0 8
15.1505 -4.0022 -2.4953 0.1573 0 8
15.2126 -3.7594 -2.4953 0.1573 0 8
15.2708 -3.5156 -2.4953 0.1573 0 8
15.3250 -3.2709 -2.4953 0.1573 0 8
15.3754 -3.0254 -2.4953 0.1573 0 8
15.4218 -2.7792 -2.4953 0.1573 0 8
15.4643 -2.5322 -2.4953 0.1573 0 8
15.5028 -2.2845 -2.4953 0.1573 0 8
15.5374 -2.0363 -2.4953 0.1573 0 8
15.5679 -1.7875 -2.4953 0.1573 0 8
15.5945 -1.5383 -2.4953 0.1573 0 8
8.3495 -0.6890 -1.3341 0.3393 25 10
8.2114 -0.5456 -1.3104 0.5179 25 10
8.1756 -0.4120 -1.3035 0.5125 25 10
8.1410 -0.2798 -1.2971 0.5271 25 10
8.1262 -0.1492 -1.2942 0.5283 25 10
8.1109 -0.0192 -1.2915 0.5294 25 10
8.1217 0.1107 -1.2934 0.5286 25 10
8.1366 0.2411 -1.2962 0.5275 25 10
3.5495 -14.4434 -2.4953 0.1655 0 8
3.7801 -14.3848 -2.4953 0.1655 0 8
4.0096 -14.3225 -2.4953 0.1655 0 8
4.2382 -14.2566 -2.4953 0.1655 0 8
4.4656 -14.1870 -2.4953 0.1655 0 8
4.6919 -14.1137 -2.4953 0.1655 0 8
4.9171 -14.0369 -2.4953 0.1655 0 8
5.1409 -13.9564 -2.4953 0.1655 0 8
5.3635 -13.8725 -2.4953 0.1655 0 8
5.5846 -13.7849 -2.4953 0.1655 0 8
5.8044 -13.6938 -2.4953 0.1655 0 8
6.0226 -13.5992 -2.4953 0.1655 0 8
6.2394 -13.5012 -2.4953 0.1655 0 8
6.4545 -13.3997 -2.4953 0.1655 0 8
6.6679 -13.2947 -2.4953 0.1655 0 8
6.8797 -13.1864 -2.4953 0.1655 0 8
7.0897 -13.0747 -2.4953 0.1655 0 8
7.2979 -12.9596 -2.4953 0.1655 0 8
7.5042 -12.8413 -2.4953 0.1655 0 8
7.7087 -12.7196 -2.4953 0.1655 0 8
7.9111 -12.5947 -2.4953 0.1655 0 8
8.1115 -12.4666 -2.4953 0.1655 0 8
8.3098 -12.3352 -2.4953 0.1655 0 8
8.5060 -12.2008 -2.4953 0.1655 0 8
8.7001 -12.0632 -2.4953 0.1655 0 8
8.8919 -11.9225 -2.4953 0.1655 0 8
9.0814 -11.7788 -2.4953 0.1655 0 8
9.2686 -11.6320 -2.4953 0.1655 0 8
9.4535 -11.4823 -2.4953 0.1655 0 8
9.6359 -11.3297 -2.4953 0.1655 0 8
9.8159 -11.1741 -2.4953 0.1655 0 8
9.9933 -11.0157 -2.4953 0.1655 0 8
10.1682 -10.8545 -2.4953 0.1655 0 8
10.3405 -10.6905 -2.4953 0.1655 0 8
10.5101 -10.5237 -2.4953 0.1655 0 8
10.6771 -10.3543 -2.4953 0.1655 0 8
10.8413 -10.1822 -2.4953 0.1655 0 8
11.0028 -10.0075 -2.4953 0.1655 0 8
11.1614 -9.8303 -2.4953 0.1655 0 8
11.3172 -9.6505 -2.4953 0.1655 0 8
11.4701 -9.4683 -2.4953 0.1655 0 8
11.6201 -9.2836 -2.4953 0.1655 0 8
11.7670 -9.0966 -2.4953 0.1655 0 8
11.9110 -8.9073 -2.4953 0.1655 0 8
12.0519 -8.7156 -2.4953 0.1655 0 8
12.1898 -8.5218 -2.4953 0.1655 0 8
12.3245 -8.3257 -2.4953 0.1655 0 8
12.4561 -8.1276 -2.4953 0.1655 0 8
12.5845 -7.9273 -2.4953 0.1655 0 8
12.7096 -7.7251 -2.4953 0.1655 0 8
12.8316 -7.5208 -2.4953 0.1655 0 8
12.9502 -7.3146 -2.4953 0.1655 0 8
13.0655 -7.1066 -2.4953 0.1655 0 8
13.1775 -6.8967 -2.4953 0.1655 0 8
13.2861 -6.6851 -2.4953 0.1655 0 8
13.3913 -6.4718 -2.4953 0.1655 0 8
13.4931 -6.2568 -2.4953 0.1655 0 8
13.5915 -6.0402 -2.4953 0.1655 0 8
13.6863 -5.8220 -2.4953 0.1655 0 8
13.7777 -5.6024 -2.4953 0.1655 0 8
13.8655 -5.3814 -2.4953 0.1655 0 8
13.9498 -5.1589 -2.4953 0.1655 0 8
14.0305 -4.9352 -2.4953 0.1655 0 8
14.1077 -4.7102 -2.4953 0.1655 0 8
14.1812 -4.4839 -2.4953 0.1655 0 8
14.2511 -4.2566 -2.4953 0.1655 0 8
14.3173 -4.0281 -2.4953 0.1655 0 8
14.3799 -3.7986 -2.4953 0.1655 0 8
14.4388 -3.5682 -2.4953 0.1655 0 8
14.4941 -3.3368 -2.4953 0.1655 0 8
14.5456 -3.1046 -2.4953 0.1655 0 8
14.5934 -2.8716 -2.4953 0.1655 0 8
14.6374 -2.6378 -2.4953 0.1655 0 8
14.6777 -2.4034 -2.4953 0.1655 0 8
14.7143 -2.1683 -2.4953 0.1655 0 8
14.7471 -1.9327 -2.4953 0.1655 0 8
14.7761 -1.6966 -2.4953 0.1655 0 8
14.8013 -1.4601 -2.4953 0.1655 0 8
8.2104 -0.6775 -1.3821 0.3446 25 10
8.0596 -0.5355 -1.3551 0.3498 25 10
8.0139 -0.4038 -1.3462 0.3521 25 10
7.9659 -0.2738 -1.3372 0.3444 25 10
7.9469 -0.1459 -1.3335 0.3454 25 10
7.9337 -0.0188 -1.3310 0.3630 25 10
7.9411 0.1082 -1.3324 0.3457 25 10
7.9604 0.2358 -1.3361 0.3447 25 10
3.3773 -13.7425 -2.4953 0.1736 0 8
3.5966 -13.6867 -2.4953 0.1736 0 8
3.8150 -13.6274 -2.4953 0.1736 0 8
4.0325 -13.5647 -2.4953 0.1736 0 8
4.2489 -13.4985 -2.4953 0.1736 0 8
4.4642 -13.4288 -2.4953 0.1736 0 8
4.6784 -13.3557 -2.4953 0.1736 0 8
4.8914 -13.2791 -2.4953 0.1736 0 8
5.1032 -13.1992 -2.4953 0.1736 0 8
5.3136 -13.1159 -2.4953 0.1736 0 8
5.5227 -13.0293 -2.4953 0.1736 0 8
5.7304 -12.9393 -2.4953 0.1736 0 8
5.9366 -12.8460 -2.4953 0.1736 0 8
6.1412 -12.7494 -2.4953 0.1736 0 8
6.3444 -12.6495 -2.4953 0.1736 0 8
6.5458 -12.5465 -2.4953 0.1736 0 8
6.7457 -12.4402 -2.4953 0.1736 0 8
6.9437 -12.3307 -2.4953 0.1736 0 8
7.1401 -12.2181 -2.4953 0.1736 0 8
7.3346 -12.1023 -2.4953 0.1736 0 8
7.5272 -11.9835 -2.4953 0.1736 0 8
7.7178 -11.8616 -2.4953 0.1736 0 8
7.9066 -11.7366 -2.4953 0.1736 0 8
8.0932 -11.6087 -2.4953 0.1736 0 8
8.2779 -11.4778 -2.4953 0.1736 0 8
8.4604 -11.3439 -2.4953 0.1736 0 8
8.6407 -11.2071 -2.4953 0.1736 0 8
8.8188 -11.0675 -2.4953 0.1736 0 8
8.9947 -10.9251 -2.4953 0.1736 0 8
9.1683 -10.7798 -2.4953 0.1736 0 8
9.3395 -10.6318 -2.4953 0.1736 0 8
9.5083 -10.4810 -2.4953 0.1736 0 8
9.6747 -10.3277 -2.4953 0.1736 0 8
9.8387 -10.1716 -2.4953 0.1736 0 8
10.0001 -10.0130 -2.4953 0.1736 0 8
10.1589 -9.8518 -2.4953 0.1736 0 8
10.3152 -9.6881 -2.4953 0.1736 0 8
10.4688 -9.5219 -2.4953 0.1736 0 8
10.6198 -9.3532 -2.4953 0.1736 0 8
10.7680 -9.1822 -2.4953 0.1736 0 8
10.9135 -9.0088 -2.4953 0.1736 0 8
11.0561 -8.8331 -2.4953 0.1736 0 8
11.1960 -8.6552 -2.4953 0.1736 0 8
11.3330 -8.4750 -2.4953 0.1736 0 8
11.4671 -8.2927 -2.4953 0.1736 0 8
11.5982 -8.1082 -2.4953 0.1736 0 8
11.7264 -7.9217 -2.4953 0.1736 0 8
11.8516 -7.7332 -2.4953 0.1736 0 8
11.9737 -7.5426 -2.4953 0.1736 0 8
12.0928 -7.3502 -2.4953 0.1736 0 8
12.2088 -7.1558 -2.4953 0.1736 0 8
12.3217 -6.9597 -2.4953 0.1736 0 8
12.4315 -6.7617 -2.4953 0.1736 0 8
12.5380 -6.5620 -2.4953 0.1736 0 8
12.6413 -6.3607 -2.4953 0.1736 0 8
12.7415 -6.1577 -2.4953 0.1736 0 8
12.8383 -5.9531 -2.4953 0.1736 0 8
12.9319 -5.7471 -2.4953 0.1736 0 8
13.0221 -5.5395 -2.4953 0.1736 0 8
13.1090 -5.3305 -2.4953 0.1736 0 8
13.1926 -5.1202 -2.4953 0.1736 0 8
13.2728 -4.9086 -2.4953 0.1736 0 8
13.3496 -4.6957 -2.4953 0.1736 0 8
13.4230 -4.4816 -2.4953 0.1736 0 8
13.4930 -4.2663 -2.4953 0.1736 0 8
13.5595 -4.0500 -2.4953 0.1736 0 8
13.6225 -3.8326 -2.4953 0.1736 0 8
13.6821 -3.6143 -2.4953 0.1736 0 8
13.7381 -3.3950 -2.4953 0.1736 0 8
13.7907 -3.1749 -2.4953 0.1736 0 8
13.8397 -2.9539 -2.4953 0.1736 0 8
13.8851 -2.7322 -2.4953 0.1736 0 8
13.9271 -2.5098 -2.4953 0.1736 0 8
13.9654 -2.2867 -2.4953 0.1736 0 8
14.0002 -2.0631 -2.4953 0.1736 0 8
14.0314 -1.8389 -2.4953 0.1736 0 8
14.0590 -1.6143 -2.4953 0.1736 0 8
8.4437 -0.8329 -1.4961 0.0862 25 10
8.0480 -0.6641 -1.4239 0.3630 25 10
7.8767 -0.5233 -1.3919 0.3527 25 10
7.8269 -0.3944 -1.3818 0.3416 25 10
7.7790 -0.2674 -1.3725 0.3522 25 10
7.7670 -0.1426 -1.3698 0.3702 25 10
7.7573 -0.0184 -1.3678 0.3707 25 10
7.7642 0.1058 -1.3692 0.3703 25 10
7.7737 0.2303 -1.3713 0.3525 25 10
3.2205 -13.1046 -2.4953 0.1818 0 8
3.4297 -13.0515 -2.4953 0.1818 0 8
3.6380 -12.9949 -2.4953 0.1818 0 8
3.8453 -12.9351 -2.4953 0.1818 0 8
4.0517 -12.8720 -2.4953 0.1818 0 8
4.2570 -12.8055 -2.4953 0.1818 0 8
4.4613 -12.7358 -2.4953 0.1818 0 8
4.6644 -12.6628 -2.4953 0.1818 0 8
4.8663 -12.5866 -2.4953 0.1818 0 8
5.0670 -12.5072 -2.4953 0.1818 0 8
5.2664 -12.4245 -2.4953 0.1818 0 8
5.4644 -12.3387 -2.4953 0.1818 0 8
5.6610 -12.2498 -2.4953 0.1818 0 8
5.8562 -12.1576 -2.4953 0.1818 0 8
6.0499 -12.0624 -2.4953 0.1818 0 8
6.2420 -11.9641 -2.4953 0.1818 0 8
6.4326 -11.8628 -2.4953 0.1818 0 8
6.6215 -11.7584 -2.4953 0.1818 0 8
6.8087 -11.6510 -2.4953 0.1818 0 8
6.9941 -11.5406 -2.4953 0.1818 0 8
7.1778 -11.4273 -2.4953 0.1818 0 8
7.3596 -11.3110 -2.4953 0.1818 0 8
7.5396 -11.1919 -2.4953 0.1818 0 8
7.7176 -11.0699 -2.4953 0.1818 0 8
7.8937 -10.9450 -2.4953 0.1818 0 8
8.0677 -10.8174 -2.4953 0.1818 0 8
8.2397 -10.6870 -2.4953 0.1818 0 8
8.4095 -10.5538 -2.4953 0.1818 0 8
8.5772 -10.4180 -2.4953 0.1818 0 8
8.7427 -10.2795 -2.4953 0.1818 0 8
8.9060 -10.1384 -2.4953 0.1818 0 8
9.0670 -9.9946 -2.4953 0.1818 0 8
9.2257 -9.8483 -2.4953 0.1818 0 8
9.3820 -9.6995 -2.4953 0.1818 0 8
9.5359 -9.5483 -2.4953 0.1818 0 8
9.6874 -9.3945 -2.4953 0.1818 0 8
9.8364 -9.2384 -2.4953 0.1818 0 8
9.9829 -9.0799 -2.4953 0.1818 0 8
10.1269 -8.9191 -2.4953 0.1818 0 8
10.2682 -8.7560 -2.4953 0.1818 0 8
10.4069 -8.5907 -2.4953 0.1818 0 8
10.5430 -8.4231 -2.4953 0.1818 0 8
10.6763 -8.2534 -2.4953 0.1818 0 8
10.8070 -8.0816 -2.4953 0.1818 0 8
10.9348 -7.9078 -2.4953 0.1818 0 8
11.0599 -7.7319 -2.4953 0.1818 0 8
11.1821 -7.5540 -2.4953 0.1818 0 8
11.3015 -7.3742 -2.4953 0.1818 0 8
11.4180 -7.1925 -2.4953 0.1818 0 8
11.5316 -7.0090 -2.4953 0.1818 0 8
11.6422 -6.8237 -2.4953 0.1818 0 8
11.7498 -6.6366 -2.4953 0.1818 0 8
11.8545 -6.4479 -2.4953 0.1818 0 8
11.9561 -6.2575 -2.4953 0.1818 0 8
12.0546 -6.0655 -2.4953 0.1818 0 8
12.1501 -5.8719 -2.4953 0.1818 0 8
12.2424 -5.6768 -2.4953 0.1818 0 8
12.3317 -5.4803 -2.4953 0.1818 0 8
12.4177 -5.2824 -2.4953 0.1818 0 8
12.5006 -5.0831 -2.4953 0.1818 0 8
12.5803 -4.8826 -2.4953 0.1818 0 8
12.6568 -4.6807 -2.4953 0.1818 0 8
12.7300 -4.4777 -2.4953 0.1818 0 8
12.8000 -4.2736 -2.4953 0.1818 0 8
12.8667 -4.0683 -2.4953 0.1818 0 8
12.9301 -3.8620 -2.4953 0.1818 0 8
12.9902 -3.6547 -2.4953 0.1818 0 8
13.0470 -3.4465 -2.4953 0.1818 0 8
13.1005 -3.2374 -2.4953 0.1818 0 8
13.1506 -3.0275 -2.4953 0.1818 0 8
13.1973 -2.8168 -2.4953 0.1818 0 8
13.2407 -2.6054 -2.4953 0.1818 0 8
13.2807 -2.3933 -2.4953 0.1818 0 8
13.3172 -2.1806 -2.4953 0.1818 0 8
13.3504 -1.9673 -2.4953 0.1818 0 8
13.3802 -1.7536 -2.4953 0.1818 0 8
13.4065 -1.5394 -2.4953 0.1818 0 8
8.1693 -0.8059 -1.5179 0.2650 25 10
7.9060 -0.6524 -1.4669 0.3690 25 10
7.7397 -0.5142 -1.4343 0.7125 25 10
7.6953 -0.3878 -1.4247 0.9179 25 10
7.6626 -0.2633 -1.4177 0.9855 25 10
7.6495 -0.1405 -1.4147 0.9876 25 10
7.6363 -0.0181 -1.4120 0.9895 25 10
7.6456 0.1042 -1.4139 0.9882 25 10
7.6587 0.2269 -1.4168 0.9862 25 10
3.0773 -12.5217 -2.4953 0.1900 0 8
3.2771 -12.4709 -2.4953 0.1900 0 8
3.4761 -12.4169 -2.4953 0.1900 0 8
3.6743 -12.3597 -2.4953 0.1900 0 8
3.8715 -12.2993 -2.4953 0.1900 0 8
4.0677 -12.2358 -2.4953 0.1900 0 8
4.2628 -12.1692 -2.4953 0.1900 0 8
4.4569 -12.0995 -2.4953 0.1900 0 8
4.6498 -12.0267 -2.4953 0.1900 0 8
4.8416 -11.9508 -2.4953 0.1900 0 8
5.0321 -11.8718 -2.4953 0.1900 0 8
5.2213 -11.7898 -2.4953 0.1900 0 8
5.4092 -11.7048 -2.4953 0.1900 0 8
5.5957 -11.6168 -2.4953 0.1900 0 8
5.7808 -11.5258 -2.4953 0.1900 0 8
5.9643 -11.4319 -2.4953 0.1900 0 8
6.1464 -11.3351 -2.4953 0.1900 0 8
6.3269 -11.2353 -2.4953 0.1900 0 8
6.5058 -11.1327 -2.4953 0.1900 0 8
6.6830 -11.0272 -2.4953 0.1900 0 8
6.8585 -10.9189 -2.4953 0.1900 0 8
7.0322 -10.8078 -2.4953 0.1900 0 8
7.2042 -10.6940 -2.4953 0.1900 0 8
7.3743 -10.5774 -2.4953 0.1900 0 8
7.5425 -10.4581 -2.4953 0.1900 0 8
7.7088 -10.3362 -2.4953 0.1900 0 8
7.8731 -10.2116 -2.4953 0.1900 0 8
8.0354 -10.0844 -2.4953 0.1900 0 8
8.1957 -9.9545 -2.4953 0.1900 0 8
8.3538 -9.8222 -2.4953 0.1900 0 8
8.5098 -9.6873 -2.4953 0.1900 0 8
8.6637 -9.5500 -2.4953 0.1900 0 8
8.8153 -9.4102 -2.4953 0.1900 0 8
8.9647 -9.2681 -2.4953 0.1900 0 8
9.1117 -9.1235 -2.4953 0.1900 0 8
9.2565 -8.9766 -2.4953 0.1900 0 8
9.3989 -8.8274 -2.4953 0.1900 0 8
9.5388 -8.6760 -2.4953 0.1900 0 8
9.6764 -8.5223 -2.4953 0.1900 0 8
9.8114 -8.3665 -2.4953 0.1900 0 8
9.9440 -8.2085 -2.4953 0.1900 0 8
10.0740 -8.0484 -2.4953 0.1900 0 8
10.2014 -7.8863 -2.4953 0.1900 0 8
10.3262 -7.7221 -2.4953 0.1900 0 8
10.4484 -7.5560 -2.4953 0.1900 0 8
10.5679 -7.3879 -2.4953 0.1900 0 8
10.6847 -7.2180 -2.4953 0.1900 0 8
10.7988 -7.0462 -2.4953 0.1900 0 8
10.9101 -6.8726 -2.4953 0.1900 0 8
11.0186 -6.6972 -2.4953 0.1900 0 8
11.1243 -6.5201 -2.4953 0.1900 0 8
11.2271 -6.3414 -2.4953 0.1900 0 8
11.3271 -6.1610 -2.4953 0.1900 0 8
11.4242 -5.9791 -2.4953 0.1900 0 8
11.5184 -5.7956 -2.4953 0.1900 0 8
11.6096 -5.6107 -2.4953 0.1900 0 8
11.6978 -5.4243 -2.4953 0.1900 0 8
11.7831 -5.2365 -2.4953 0.1900 0 8
11.8653 -5.0474 -2.4953 0.1900 0 8
11.9445 -4.8570 -2.4953 0.1900 0 8
12.0207 -4.6654 -2.4953 0.1900 0 8
12.0937 -4.4725 -2.4953 0.1900 0 8
12.1637 -4.2785 -2.4953 0.1900 0 8
12.2306 -4.0835 -2.4953 0.1900 0 8
12.2943 -3.8873 -2.4953 0.1900 0 8
12.3549 -3.6902 -2.4953 0.1900 0 8
12.4124 -3.4922 -2.4953 0.1900 0 8
12.4666 -3.2932 -2.4953 0.1900 0 8
12.5177 -3.0934 -2.4953 0.1900 0 8
12.5656 -2.8928 -2.4953 0.1900 0 8
12.6102 -2.6915 -2.4953 0.1900 0 8
12.6517 -2.4895 -2.4953 0.1900 0 8
12.6899 -2.2868 -2.4953 0.1900 0 8
12.7248 -2.0836 -2.4953 0.1900 0 8
12.7565 -1.8798 -2.4953 0.1900 0 8
12.7849 -1.6756 -2.4953 0.1900 0 8
12.8101 -1.4709 -2.4953 0.1900 0 8
8.0166 -0.7908 -1.5589 0.1872 25 10
7.8082 -0.6443 -1.5162 0.7043 25 10
7.7165 -0.5127 -1.4966 0.8763 25 10
7.6728 -0.3866 -1.4867 0.9191 25 10
7.6447 -0.2627 -1.4803 0.9863 25 10
7.6317 -0.1401 -1.4771 0.9884 25 10
7.6211 -0.0180 -1.4748 0.9972 25 10
7.6279 0.1039 -1.4763 0.9889 25 10
7.6409 0.2264 -1.4793 0.9869 25 10
2.9458 -11.9867 -2.4953 0.1981 0 8
3.1371 -11.9381 -2.4953 0.1981 0 8
3.3276 -11.8864 -2.4953 0.1981 0 8
3.5173 -11.8316 -2.4953 0.1981 0 8
3.7061 -11.7739 -2.4953 0.1981 0 8
3.8939 -11.7131 -2.4953 0.1981 0 8
4.0807 -11.6493 -2.4953 0.1981 0 8
4.2665 -11.5826 -2.4953 0.1981 0 8
4.4512 -11.5129 -2.4953 0.1981 0 8
4.6347 -11.4402 -2.4953 0.1981 0 8
4.8171 -11.3646 -2.4953 0.1981 0 8
4.9982 -11.2861 -2.4953 0.1981 0 8
5.1781 -11.2048 -2.4953 0.1981 0 8
5.3566 -11.1205 -2.4953 0.1981 0 8
5.5338 -11.0334 -2.4953 0.1981 0 8
5.7095 -10.9435 -2.4953 0.1981 0 8
5.8838 -10.8508 -2.4953 0.1981 0 8
6.0566 -10.7553 -2.4953 0.1981 0 8
6.2278 -10.6572 -2.4953 0.1981 0 8
6.3975 -10.5561 -2.4953 0.1981 0 8
6.5655 -10.4524 -2.4953 0.1981 0 8
6.7318 -10.3461 -2.4953 0.1981 0 8
6.8964 -10.2371 -2.4953 0.1981 0 8
7.0592 -10.1255 -2.4953 0.1981 0 8
7.2203 -10.0113 -2.4953 0.1981 0 8
7.3795 -9.8946 -2.4953 0.1981 0 8
7.5368 -9.7753 -2.4953 0.1981 0 8
7.6921 -9.6535 -2.4953 0.1981 0 8
7.8455 -9.5293 -2.4953 0.1981 0 8
7.9969 -9.4026 -2.4953 0.1981 0 8
8.1463 -9.2735 -2.4953 0.1981 0 8
8.2935 -9.1420 -2.4953 0.1981 0 8
8.4387 -9.0082 -2.4953 0.1981 0 8
8.5817 -8.8721 -2.4953 0.1981 0 8
8.7225 -8.7337 -2.4953 0.1981 0 8
8.8610 -8.5931 -2.4953 0.1981 0 8
8.9973 -8.4503 -2.4953 0.1981 0 8
9.1313 -8.3053 -2.4953 0.1981 0 8
9.2630 -8.1582 -2.4953 0.1981 0 8
9.3923 -8.0091 -2.4953 0.1981 0 8
9.5191 -7.8578 -2.4953 0.1981 0 8
9.6436 -7.7046 -2.4953 0.1981 0 8
9.7656 -7.5494 -2.4953 0.1981 0 8
9.8851 -7.3922 -2.4953 0.1981 0 8
10.0020 -7.2332 -2.4953 0.1981 0 8
10.1164 -7.0723 -2.4953 0.1981 0 8
10.2282 -6.9096 -2.4953 0.1981 0 8
10.3374 -6.7452 -2.4953 0.1981 0 8
10.4440 -6.5790 -2.4953 0.1981 0 8
10.5478 -6.4111 -2.4953 0.1981 0 8
10.6490 -6.2416 -2.4953 0.1981 0 8
10.7475 -6.0705 -2.4953 0.1981 0 8
10.8432 -5.8978 -2.4953 0.1981 0 8
10.9361 -5.7237 -2.4953 0.1981 0 8
11.0263 -5.5480 -2.4953 0.1981 0 8
11.1136 -5.3710 -2.4953 0.1981 0 8
11.1981 -5.1926 -2.4953 0.1981 0 8
11.2797 -5.0128 -2.4953 0.1981 0 8
11.3584 -4.8318 -2.4953 0.1981 0 8
11.4342 -4.6495 -2.4953 0.1981 0 8
11.5071 -4.4660 -2.4953 0.1981 0 8
11.5771 -4.2814 -2.4953 0.1981 0 8
11.6441 -4.0957 -2.4953 0.1981 0 8
11.7081 -3.9090 -2.4953 0.1981 0 8
11.7691 -3.7213 -2.4953 0.1981 0 8
11.8271 -3.5326 -2.4953 0.1981 0 8
11.8821 -3.3430 -2.4953 0.1981 0 8
11.9340 -3.1525 -2.4953 0.1981 0 8
11.9829 -2.9613 -2.4953 0.1981 0 8
12.0287 -2.7692 -2.4953 0.1981 0 8
12.0715 -2.5765 -2.4953 0.1981 0 8
12.1112 -2.3831 -2.4953 0.1981 0 8
12.1477 -2.1891 -2.4953 0.1981 0 8
12.1812 -1.9946 -2.4953 0.1981 0 8
12.2115 -1.7995 -2.4953 0.1981 0 8
12.2387 -1.6040 -2.4953 0.1981 0 8
12.2628 -1.4080 -2.4953 0.1981 0 8
7.9751 -0.7867 -1.6200 0.1878 25 10
7.7722 -0.6414 -1.5765 0.7064 25 10
7.6942 -0.5112 -1.5588 0.8774 25 10
7.6504 -0.3855 -1.5485 0.9203 25 10
7.6269 -0.2621 -1.5427 0.9869 25 10
7.6140 -0.1398 -1.5395 0.9890 25 10
7.6060 -0.0180 -1.5376 0.9975 25 10
7.6109 0.1037 -1.5387 0.9968 25 10
7.6231 0.2259 -1.5417 0.9876 25 10
2.8247 -11.4940 -2.4953 0.2063 0 8
3.0082 -11.4474 -2.4953 0.2063 0 8
3.1909 -11.3978 -2.4953 0.2063 0 8
3.3727 -11.3453 -2.4953 0.2063 0 8
3.5537 -11.2899 -2.4953 0.2063 0 8
3.7338 -11.2317 -2.4953 0.2063 0 8
3.9130 -11.1705 -2.4953 0.2063 0 8
4.0911 -11.1065 -2.4953 0.2063 0 8
4.2682 -11.0397 -2.4953 0.2063 0 8
4.4442 -10.9700 -2.4953 0.2063 0 8
4.6191 -10.8975 -2.4953 0.2063 0 8
4.7928 -10.8222 -2.4953 0.2063 0 8
4.9653 -10.7442 -2.4953 0.2063 0 8
5.1365 -10.6634 -2.4953 0.2063 0 8
5.3063 -10.5799 -2.4953 0.2063 0 8
5.4749 -10.4937 -2.4953 0.2063 0 8
5.6420 -10.4048 -2.4953 0.2063 0 8
5.8077 -10.3132 -2.4953 0.2063 0 8
5.9719 -10.2190 -2.4953 0.2063 0 8
6.1345 -10.1222 -2.4953 0.2063 0 8
6.2956 -10.0228 -2.4953 0.2063 0 8
6.4551 -9.9209 -2.4953 0.2063 0 8
6.6129 -9.8164 -2.4953 0.2063 0 8
6.7691 -9.7093 -2.4953 0.2063 0 8
6.9235 -9.5998 -2.4953 0.2063 0 8
7.0761 -9.4879 -2.4953 0.2063 0 8
7.2270 -9.3735 -2.4953 0.2063 0 8
7.3760 -9.2567 -2.4953 0.2063 0 8
7.5230 -9.1376 -2.4953 0.2063 0 8
7.6682 -9.0161 -2.4953 0.2063 0 8
7.8114 -8.8923 -2.4953 0.2063 0 8
7.9527 -8.7663 -2.4953 0.2063 0 8
8.0918 -8.6379 -2.4953 0.2063 0 8
8.2289 -8.5074 -2.4953 0.2063 0 8
8.3639 -8.3747 -2.4953 0.2063 0 8
8.4968 -8.2399 -2.4953 0.2063 0 8
8.6275 -8.1030 -2.4953 0.2063 0 8
8.7560 -7.9640 -2.4953 0.2063 0 8
8.8822 -7.8229 -2.4953 0.2063 0 8
9.0062 -7.6799 -2.4953 0.2063 0 8
9.1279 -7.5348 -2.4953 0.2063 0 8
9.2472 -7.3879 -2.4953 0.2063 0 8
9.3642 -7.2391 -2.4953 0.2063 0 8
9.4788 -7.0884 -2.4953 0.2063 0 8
9.5909 -6.9359 -2.4953 0.2063 0 8
9.7006 -6.7816 -2.4953 0.2063 0 8
9.8078 -6.6256 -2.4953 0.2063 0 8
9.9125 -6.4679 -2.4953 0.2063 0 8
10.0147 -6.3086 -2.4953 0.2063 0 8
10.1143 -6.1476 -2.4953 0.2063 0 8
10.2113 -5.9850 -2.4953 0.2063 0 8
10.3057 -5.8210 -2.4953 0.2063 0 8
10.3975 -5.6554 -2.4953 0.2063 0 8
10.4866 -5.4884 -2.4953 0.2063 0 8
10.5731 -5.3200 -2.4953 0.2063 0 8
10.6568 -5.1502 -2.4953 0.2063 0 8
10.7378 -4.9791 -2.4953 0.2063 0 8
10.8161 -4.8068 -2.4953 0.2063 0 8
10.8915 -4.6332 -2.4953 0.2063 0 8
10.9642 -4.4584 -2.4953 0.2063 0 8
11.0341 -4.2825 -2.4953 0.2063 0 8
11.1012 -4.1055 -2.4953 0.2063 0 8
11.1655 -3.9274 -2.4953 0.2063 0 8
11.2268 -3.7483 -2.4953 0.2063 0 8
11.2853 -3.5683 -2.4953 0.2063 0 8
11.3410 -3.3874 -2.4953 0.2063 0 8
11.3937 -3.2056 -2.4953 0.2063 0 8
11.4435 -3.0229 -2.4953 0.2063 0 8
11.4904 -2.8395 -2.4953 0.2063 0 8
11.5343 -2.6554 -2.4953 0.2063 0 8
11.5753 -2.4706 -2.4953 0.2063 0 8
11.6133 -2.2852 -2.4953 0.2063 0 8
11.6484 -2.0992 -2.4953 0.2063 0 8
11.6805 -1.9126 -2.4953 0.2063 0 8
11.7096 -1.7255 -2.4953 0.2063 0 8
11.7357 -1.5381 -2.4953 0.2063 0 8
11.7588 -1.3502 -2.4953 0.2063 0 8
7.9338 -0.7826 -1.6807 0.1885 25 10
7.7365 -0.6384 -1.6366 0.7084 25 10
7.6719 -0.5097 -1.6210 0.8784 25 10
7.6296 -0.3845 -1.6105 0.9665 25 10
7.6092 -0.2615 -1.6051 0.9875 25 10
7.5978 -0.1395 -1.6020 0.9967 25 10
7.5909 -0.0180 -1.6003 0.9978 25 10
7.5957 0.1035 -1.6015 0.9970 25 10
7.6054 0.2253 -1.6041 0.9882 25 10
2.7128 -11.0387 -2.4953 0.2144 0 8
2.8890 -10.9939 -2.4953 0.2144 0 8
3.0645 -10.9463 -2.4953 0.2144 0 8
3.2391 -10.8959 -2.4953 0.2144 0 8
3.4130 -10.8427 -2.4953 0.2144 0 8
3.5859 -10.7867 -2.4953 0.2144 0 8
3.7580 -10.7280 -2.4953 0.2144 0 8
3.9291 -10.6665 -2.4953 0.2144 0 8
4.0991 -10.6023 -2.4953 0.2144 0 8
4.2682 -10.5354 -2.4953 0.2144 0 8
4.4361 -10.4658 -2.4953 0.2144 0 8
4.6029 -10.3935 -2.4953 0.2144 0 8
4.7686 -10.3186 -2.4953 0.2144 0 8
4.9330 -10.2410 -2.4953 0.2144 0 8
5.0961 -10.1608 -2.4953 0.2144 0 8
5.2580 -10.0780 -2.4953 0.2144 0 8
5.4185 -9.9926 -2.4953 0.2144 0 8
5.5776 -9.9047 -2.4953 0.2144 0 8
5.7353 -9.8142 -2.4953 0.2144 0 8
5.8915 -9.7212 -2.4953 0.2144 0 8
6.0462 -9.6258 -2.4953 0.2144 0 8
6.1994 -9.5278 -2.4953 0.2144 0 8
6.3510 -9.4275 -2.4953 0.2144 0 8
6.5009 -9.3247 -2.4953 0.2144 0 8
6.6492 -9.2195 -2.4953 0.2144 0 8
6.7958 -9.1120 -2.4953 0.2144 0 8
6.9407 -9.0022 -2.4953 0.2144 0 8
7.0838 -8.8900 -2.4953 0.2144 0 8
7.2250 -8.7756 -2.4953 0.2144 0 8
7.3644 -8.6589 -2.4953 0.2144 0 8
7.5020 -8.5400 -2.4953 0.2144 0 8
7.6376 -8.4190 -2.4953 0.2144 0 8
7.7713 -8.2958 -2.4953 0.2144 0 8
7.9030 -8.1704 -2.4953 0.2144 0 8
8.0326 -8.0430 -2.4953 0.2144 0 8
8.1602 -7.9135 -2.4953 0.2144 0 8
8.2857 -7.7820 -2.4953 0.2144 0 8
8.4091 -7.6485 -2.4953 0.2144 0 8
8.5304 -7.5130 -2.4953 0.2144 0 8
8.6494 -7.3756 -2.4953 0.2144 0 8
8.7663 -7.2363 -2.4953 0.2144 0 8
8.8809 -7.0952 -2.4953 0.2144 0 8
8.9932 -6.9523 -2.4953 0.2144 0 8
9.1033 -6.8076 -2.4953 0.2144 0 8
9.2110 -6.6611 -2.4953 0.2144 0 8
9.3163 -6.5130 -2.4953 0.2144 0 8
9.4193 -6.3629 -2.4953 0.2144 0 8
9.5198 -6.2117 -2.4953 0.2144 0 8
9.6180 -6.0586 -2.4953 0.2144 0 8
9.7136 -5.9041 -2.4953 0.2144 0 8
9.8068 -5.7479 -2.4953 0.2144 0 8
9.8975 -5.5904 -2.4953 0.2144 0 8
9.9856 -5.4314 -2.4953 0.2144 0 8
10.0712 -5.2710 -2.4953 0.2144 0 8
10.1542 -5.1092 -2.4953 0.2144 0 8
10.2346 -4.9462 -2.4953 0.2144 0 8
10.3124 -4.7819 -2.4953 0.2144 0 8
10.3876 -4.6163 -2.4953 0.2144 0 8
10.4601 -4.4496 -2.4953 0.2144 0 8
10.5299 -4.2818 -2.4953 0.2144 0 8
10.5970 -4.1128 -2.4953 0.2144 0 8
10.6615 -3.9428 -2.4953 0.2144 0 8
10.7231 -3.7718 -2.4953 0.2144 0 8
10.7821 -3.5998 -2.4953 0.2144 0 8
10.8383 -3.4270 -2.4953 0.2144 0 8
10.8917 -3.2532 -2.4953 0.2144 0 8
10.9423 -3.0786 -2.4953 0.2144 0 8
10.9902 -2.9032 -2.4953 0.2144 0 8
11.0352 -2.7271 -2.4953 0.2144 0 8
11.0774 -2.5502 -2.4953 0.2144 0 8
11.1168 -2.3727 -2.4953 0.2144 0 8
11.1533 -2.1946 -2.4953 0.2144 0 8
11.1870 -2.0160 -2.4953 0.2144 0 8
11.2178 -1.8368 -2.4953 0.2144 0 8
11.2457 -1.6572 -2.4953 0.2144 0 8
11.2708 -1.4771 -2.4953 0.2144 0 8
11.2930 -1.2967 -2.4953 0.2144 0 8
7.9071 -0.7800 -1.7442 0.3018 25 10
7.7047 -0.6358 -1.6971 0.8721 25 10
7.6497 -0.5082 -1.6829 0.8794 25 10
7.6115 -0.3836 -1.6730 0.9671 25 10
7.5914 -0.2609 -1.6674 0.9881 25 10
7.5826 -0.1392 -1.6648 0.9969 25 10
7.5758 -0.0179 -1.6630 0.9980 25 10
7.5806 0.1033 -1.6642 0.9972 25 10
7.5876 0.2248 -1.6663 0.9887 25 10
2.6091 -10.6166 -2.4953 0.2225 0 8
2.7785 -10.5735 -2.4953 0.2225 0 8
2.9473 -10.5277 -2.4953 0.2225 0 8
3.1153 -10.4793 -2.4953 0.2225 0 8
3.2825 -10.4281 -2.4953 0.2225 0 8
3.4488 -10.3743 -2.4953 0.2225 0 8
3.6143 -10.3178 -2.4953 0.2225 0 8
3.7788 -10.2587 -2.4953 0.2225 0 8
3.9424 -10.1969 -2.4953 0.2225 0 8
4.1050 -10.1326 -2.4953 0.2225 0 8
4.2665 -10.0656 -2.4953 0.2225 0 8
4.4269 -9.9961 -2.4953 0.2225 0 8
4.5862 -9.9240 -2.4953 0.2225 0 8
4.7443 -9.8494 -2.4953 0.2225 0 8
4.9013 -9.7723 -2.4953 0.2225 0 8
5.0569 -9.6926 -2.4953 0.2225 0 8
5.2113 -9.6105 -2.4953 0.2225 0 8
5.3643 -9.5259 -2.4953 0.2225 0 8
5.5160 -9.4389 -2.4953 0.2225 0 8
5.6662 -9.3495 -2.4953 0.2225 0 8
5.8150 -9.2577 -2.4953 0.2225 0 8
5.9623 -9.1635 -2.4953 0.2225 0 8
6.1081 -9.0670 -2.4953 0.2225 0 8
6.2524 -8.9682 -2.4953 0.2225 0 8
6.3950 -8.8670 -2.4953 0.2225 0 8
6.5360 -8.7636 -2.4953 0.2225 0 8
6.6753 -8.6580 -2.4953 0.2225 0 8
6.8129 -8.5501 -2.4953 0.2225 0 8
6.9488 -8.4400 -2.4953 0.2225 0 8
7.0828 -8.3278 -2.4953 0.2225 0 8
7.2151 -8.2135 -2.4953 0.2225 0 8
7.3456 -8.0971 -2.4953 0.2225 0 8
7.4741 -7.9785 -2.4953 0.2225 0 8
7.6008 -7.8580 -2.4953 0.2225 0 8
7.7255 -7.7354 -2.4953 0.2225 0 8
7.8482 -7.6109 -2.4953 0.2225 0 8
7.9689 -7.4844 -2.4953 0.2225 0 8
8.0876 -7.3560 -2.4953 0.2225 0 8
8.2042 -7.2257 -2.4953 0.2225 0 8
8.3187 -7.0936 -2.4953 0.2225 0 8
8.4311 -6.9596 -2.4953 0.2225 0 8
8.5413 -6.8239 -2.4953 0.2225 0 8
8.6493 -6.6864 -2.4953 0.2225 0 8
8.7552 -6.5473 -2.4953 0.2225 0 8
8.8588 -6.4064 -2.4953 0.2225 0 8
8.9601 -6.2639 -2.4953 0.2225 0 8
9.0591 -6.1198 -2.4953 0.2225 0 8
9.1558 -5.9742 -2.4953 0.2225 0 8
9.2502 -5.8270 -2.4953 0.2225 0 8
9.3422 -5.6783 -2.4953 0.2225 0 8
9.4318 -5.5282 -2.4953 0.2225 0 8
9.5190 -5.3766 -2.4953 0.2225 0 8
9.6038 -5.2237 -2.4953 0.2225 0 8
9.6861 -5.0694 -2.4953 0.2225 0 8
9.7659 -4.9139 -2.4953 0.2225 0 8
9.8433 -4.7571 -2.4953 0.2225 0 8
9.9181 -4.5990 -2.4953 0.2225 0 8
9.9904 -4.4398 -2.4953 0.2225 0 8
10.0601 -4.2795 -2.4953 0.2225 0 8
10.1273 -4.1180 -2.4953 0.2225 0 8
10.1918 -3.9556 -2.4953 0.2225 0 8
10.2538 -3.7921 -2.4953 0.2225 0 8
10.3131 -3.6276 -2.4953 0.2225 0 8
10.3698 -3.4622 -2.4953 0.2225 0 8
10.4238 -3.2959 -2.4953 0.2225 0 8
10.4752 -3.1288 -2.4953 0.2225 0 8
10.5239 -2.9609 -2.4953 0.2225 0 8
10.5699 -2.7922 -2.4953 0.2225 0 8
10.6132 -2.6228 -2.4953 0.2225 0 8
10.6538 -2.4527 -2.4953 0.2225 0 8
10.6917 -2.2820 -2.4953 0.2225 0 8
10.7268 -2.1107 -2.4953 0.2225 0 8
10.7592 -1.9389 -2.4953 0.2225 0 8
10.7888 -1.7666 -2.4953 0.2225 0 8
10.8157 -1.5938 -2.4953 0.2225 0 8
10.8398 -1.4206 -2.4953 0.2225 0 8
10.8611 -1.2471 -2.4953 0.2225 0 8
7.8887 -0.7782 -1.8093 0.3020 25 10
7.6822 -0.6340 -1.7594 0.8730 25 10
7.6275 -0.5068 -1.7448 0.8803 25 10
7.5934 -0.3826 -1.7354 0.9676 25 10
7.5742 -0.2603 -1.7298 0.9957 25 10
7.5675 -0.1390 -1.7275 0.9970 25 10
7.5607 -0.0179 -1.7257 0.9981 25 10
7.5655 0.1031 -1.7269 0.9974 25 10
7.5723 0.2243 -1.7291 0.9961 25 10
2.5126 -10.2242 -2.4953 0.2306 0 8
2.6758 -10.1827 -2.4953 0.2306 0 8
2.8383 -10.1386 -2.4953 0.2306 0 8
3.0001 -10.0919 -2.4953 0.2306 0 8
3.1611 -10.0426 -2.4953 0.2306 0 8
3.3213 -9.9908 -2.4953 0.2306 0 8
3.4807 -9.9364 -2.4953 0.2306 0 8
3.6391 -9.8794 -2.4953 0.2306 0 8
3.7967 -9.8200 -2.4953 0.2306 0 8
3.9532 -9.7580 -2.4953 0.2306 0 8
4.1088 -9.6935 -2.4953 0.2306 0 8
4.2633 -9.6266 -2.4953 0.2306 0 8
4.4167 -9.5572 -2.4953 0.2306 0 8
4.5690 -9.4853 -2.4953 0.2306 0 8
4.7201 -9.4110 -2.4953 0.2306 0 8
4.8700 -9.3343 -2.4953 0.2306 0 8
5.0186 -9.2553 -2.4953 0.2306 0 8
5.1660 -9.1738 -2.4953 0.2306 0 8
5.3121 -9.0900 -2.4953 0.2306 0 8
5.4568 -9.0039 -2.4953 0.2306 0 8
5.6001 -8.9155 -2.4953 0.2306 0 8
5.7419 -8.8248 -2.4953 0.2306 0 8
5.8823 -8.7318 -2.4953 0.2306 0 8
6.0212 -8.6366 -2.4953 0.2306 0 8
6.1586 -8.5390 -2.4953 0.2306 0 8
6.2944 -8.4397 -2.4953 0.2306 0 8
6.4285 -8.3379 -2.4953 0.2306 0 8
6.5610 -8.2340 -2.4953 0.2306 0 8
6.6919 -8.1281 -2.4953 0.2306 0 8
6.8210 -8.0200 -2.4953 0.2306 0 8
6.9484 -7.9099 -2.4953 0.2306 0 8
7.0740 -7.7977 -2.4953 0.2306 0 8
7.1978 -7.6836 -2.4953 0.2306 0 8
7.3198 -7.5675 -2.4953 0.2306 0 8
7.4399 -7.4495 -2.4953 0.2306 0 8
7.5581 -7.3296 -2.4953 0.2306 0 8
7.6743 -7.2077 -2.4953 0.2306 0 8
7.7886 -7.0841 -2.4953 0.2306 0 8
7.9009 -6.9586 -2.4953 0.2306 0 8
8.0112 -6.8314 -2.4953 0.2306 0 8
8.1194 -6.7024 -2.4953 0.2306 0 8
8.2256 -6.5717 -2.4953 0.2306 0 8
8.3296 -6.4393 -2.4953 0.2306 0 8
8.4315 -6.3052 -2.4953 0.2306 0 8
8.5313 -6.1696 -2.4953 0.2306 0 8
8.6289 -6.0324 -2.4953 0.2306 0 8
8.7242 -5.8936 -2.4953 0.2306 0 8
8.8174 -5.7533 -2.4953 0.2306 0 8
8.9083 -5.6116 -2.4953 0.2306 0 8
8.9969 -5.4684 -2.4953 0.2306 0 8
9.0832 -5.3238 -2.4953 0.2306 0 8
9.1671 -5.1779 -2.4953 0.2306 0 8
9.2488 -5.0306 -2.4953 0.2306 0 8
9.3281 -4.8820 -2.4953 0.2306 0 8
9.4049 -4.7322 -2.4953 0.2306 0 8
9.4794 -4.5812 -2.4953 0.2306 0 8
9.5515 -4.4290 -2.4953 0.2306 0 8
9.6211 -4.2757 -2.4953 0.2306 0 8
9.6882 -4.1213 -2.4953 0.2306 0 8
9.7529 -3.9658 -2.4953 0.2306 0 8
9.8151 -3.8093 -2.4953 0.2306 0 8
9.8747 -3.6519 -2.4953 0.2306 0 8
9.9319 -3.4935 -2.4953 0.2306 0 8
9.9865 -3.3342 -2.4953 0.2306 0 8
10.0385 -3.1741 -2.4953 0.2306 0 8
10.0880 -3.0131 -2.4953 0.2306 0 8
10.1349 -2.8514 -2.4953 0.2306 0 8
10.1792 -2.6890 -2.4953 0.2306 0 8
10.2209 -2.5258 -2.4953 0.2306 0 8
10.2600 -2.3620 -2.4953 0.2306 0 8
10.2965 -2.1977 -2.4953 0.2306 0 8
10.3303 -2.0327 -2.4953 0.2306 0 8
10.3615 -1.8672 -2.4953 0.2306 0 8
10.3900 -1.7013 -2.4953 0.2306 0 8
10.4159 -1.5349 -2.4953 0.2306 0 8
10.4391 -1.3681 -2.4953 0.2306 0 8
10.4597 -1.2010 -2.4953 0.2306 0 8
7.8986 -0.7792 -1.8811 0.4546 25 10
7.6710 -0.6330 -1.8242 0.8511 25 10
7.6159 -0.5060 -1.8090 0.8583 25 10
7.5821 -0.3821 -1.7993 0.9382 25 10
7.5637 -0.2600 -1.7937 0.9665 25 10
7.5564 -0.1388 -1.7912 0.9678 25 10
7.5497 -0.0179 -1.7893 0.9299 25 10
7.5543 0.1029 -1.7906 0.9682 25 10
7.5615 0.2240 -1.7929 0.9669 25 10
2.4227 -9.8583 -2.4953 0.2387 0 8
2.5801 -9.8183 -2.4953 0.2387 0 8
2.7368 -9.7758 -2.4953 0.2387 0 8
2.8928 -9.7308 -2.4953 0.2387 0 8
3.0480 -9.6833 -2.4953 0.2387 0 8
3.2025 -9.6333 -2.4953 0.2387 0 8
3.3561 -9.5808 -2.4953 0.2387 0 8
3.5089 -9.5259 -2.4953 0.2387 0 8
3.6608 -9.4686 -2.4953 0.2387 0 8
3.8118 -9.4088 -2.4953 0.2387 0 8
3.9618 -9.3467 -2.4953 0.2387 0 8
4.1107 -9.2821 -2.4953 0.2387 0 8
4.2586 -9.2152 -2.4953 0.2387 0 8
4.4055 -9.1459 -2.4953 0.2387 0 8
4.5512 -9.0743 -2.4953 0.2387 0 8
4.6957 -9.0003 -2.4953 0.2387 0 8
4.8391 -8.9241 -2.4953 0.2387 0 8
4.9812 -8.8455 -2.4953 0.2387 0 8
5.1220 -8.7648 -2.4953 0.2387 0 8
5.2615 -8.6817 -2.4953 0.2387 0 8
5.3997 -8.5965 -2.4953 0.2387 0 8
5.5365 -8.5090 -2.4953 0.2387 0 8
5.6718 -8.4194 -2.4953 0.2387 0 8
5.8058 -8.3276 -2.4953 0.2387 0 8
5.9382 -8.2337 -2.4953 0.2387 0 8
6.0691 -8.1377 -2.4953 0.2387 0 8
6.1985 -8.0396 -2.4953 0.2387 0 8
6.3263 -7.9394 -2.4953 0.2387 0 8
6.4524 -7.8372 -2.4953 0.2387 0 8
6.5769 -7.7330 -2.4953 0.2387 0 8
6.6998 -7.6268 -2.4953 0.2387 0 8
6.8209 -7.5187 -2.4953 0.2387 0 8
6.9403 -7.4087 -2.4953 0.2387 0 8
7.0579 -7.2967 -2.4953 0.2387 0 8
7.1737 -7.1829 -2.4953 0.2387 0 8
7.2876 -7.0673 -2.4953 0.2387 0 8
7.3997 -6.9498 -2.4953 0.2387 0 8
7.5099 -6.8306 -2.4953 0.2387 0 8
7.6182 -6.7096 -2.4953 0.2387 0 8
7.7245 -6.5869 -2.4953 0.2387 0 8
7.8289 -6.4625 -2.4953 0.2387 0 8
7.9312 -6.3365 -2.4953 0.2387 0 8
8.0316 -6.2089 -2.4953 0.2387 0 8
8.1298 -6.0796 -2.4953 0.2387 0 8
8.2260 -5.9488 -2.4953 0.2387 0 8
8.3201 -5.8165 -2.4953 0.2387 0 8
8.4121 -5.6827 -2.4953 0.2387 0 8
8.5019 -5.5475 -2.4953 0.2387 0 8
8.5895 -5.4108 -2.4953 0.2387 0 8
8.6749 -5.2727 -2.4953 0.2387 0 8
8.7581 -5.1333 -2.4953 0.2387 0 8
8.8391 -4.9926 -2.4953 0.2387 0 8
8.9178 -4.8506 -2.4953 0.2387 0 8
8.9943 -4.7073 -2.4953 0.2387 0 8
9.0684 -4.5629 -2.4953 0.2387 0 8
9.1402 -4.4173 -2.4953 0.2387 0 8
9.2097 -4.2705 -2.4953 0.2387 0 8
9.2768 -4.1227 -2.4953 0.2387 0 8
9.3415 -3.9738 -2.4953 0.2387 0 8
9.4039 -3.8239 -2.4953 0.2387 0 8
9.4639 -3.6730 -2.4953 0.2387 0 8
9.5214 -3.5212 -2.4953 0.2387 0 8
9.5765 -3.3685 -2.4953 0.2387 0 8
9.6291 -3.2149 -2.4953 0.2387 0 8
9.6793 -3.0605 -2.4953 0.2387 0 8
9.7270 -2.9053 -2.4953 0.2387 0 8
9.7722 -2.7494 -2.4953 0.2387 0 8
9.8150 -2.5927 -2.4953 0.2387 0 8
9.8552 -2.4354 -2.4953 0.2387 0 8
9.8929 -2.2775 -2.4953 0.2387 0 8
9.9280 -2.1190 -2.4953 0.2387 0 8
9.9606 -1.9600 -2.4953 0.2387 0 8
9.9907 -1.8004 -2.4953 0.2387 0 8
10.0182 -1.6404 -2.4953 0.2387 0 8
10.0432 -1.4800 -2.4953 0.2387 0 8
10.0656 -1.3192 -2.4953 0.2387 0 8
10.0854 -1.1580 -2.4953 0.2387 0 8
7.8839 -0.7777 -1.9473 0.4545 25 10
7.6797 -0.6337 -1.8941 0.7655 25 10
7.6186 -0.5062 -1.8768 0.8563 25 10
7.5832 -0.3821 -1.8663 0.9362 25 10
7.5643 -0.2600 -1.8604 0.9645 25 10
7.5571 -0.1388 -1.8578 0.9658 25 10
7.5596 -0.0179 -1.8582 0.9269 25 10
7.5571 0.1030 -1.8577 0.9271 25 10
7.5622 0.2240 -1.8596 0.9649 25 10
2.3387 -9.5164 -2.4953 0.2468 0 8
2.4906 -9.4778 -2.4953 0.2468 0 8
2.6418 -9.4367 -2.4953 0.2468 0 8
2.7924 -9.3933 -2.4953 0.2468 0 8
2.9423 -9.3474 -2.4953 0.2468 0 8
3.0914 -9.2992 -2.4953 0.2468 0 8
3.2397 -9.2485 -2.4953 0.2468 0 8
3.3872 -9.1955 -2.4953 0.2468 0 8
3.5338 -9.1402 -2.4953 0.2468 0 8
3.6796 -9.0825 -2.4953 0.2468 0 8
3.8243 -9.0225 -2.4953 0.2468 0 8
3.9682 -8.9602 -2.4953 0.2468 0 8
4.1109 -8.8956 -2.4953 0.2468 0 8
4.2527 -8.8287 -2.4953 0.2468 0 8
4.3933 -8.7595 -2.4953 0.2468 0 8
4.5329 -8.6882 -2.4953 0.2468 0 8
4.6712 -8.6146 -2.4953 0.2468 0 8
4.8084 -8.5388 -2.4953 0.2468 0 8
4.9443 -8.4608 -2.4953 0.2468 0 8
5.0790 -8.3806 -2.4953 0.2468 0 8
5.2124 -8.2983 -2.4953 0.2468 0 8
5.3444 -8.2139 -2.4953 0.2468 0 8
5.4751 -8.1274 -2.4953 0.2468 0 8
5.6044 -8.0388 -2.4953 0.2468 0 8
5.7322 -7.9481 -2.4953 0.2468 0 8
5.8586 -7.8554 -2.4953 0.2468 0 8
5.9835 -7.7607 -2.4953 0.2468 0 8
6.1069 -7.6640 -2.4953 0.2468 0 8
6.2286 -7.5654 -2.4953 0.2468 0 8
6.3488 -7.4648 -2.4953 0.2468 0 8
6.4674 -7.3623 -2.4953 0.2468 0 8
6.5843 -7.2579 -2.4953 0.2468 0 8
6.6996 -7.1517 -2.4953 0.2468 0 8
6.8131 -7.0437 -2.4953 0.2468 0 8
6.9248 -6.9338 -2.4953 0.2468 0 8
7.0349 -6.8222 -2.4953 0.2468 0 8
7.1431 -6.7088 -2.4953 0.2468 0 8
7.2494 -6.5937 -2.4953 0.2468 0 8
7.3540 -6.4769 -2.4953 0.2468 0 8
7.4566 -6.3585 -2.4953 0.2468 0 8
7.5573 -6.2384 -2.4953 0.2468 0 8
7.6561 -6.1167 -2.4953 0.2468 0 8
7.7530 -5.9935 -2.4953 0.2468 0 8
7.8478 -5.8688 -2.4953 0.2468 0 8
7.9407 -5.7425 -2.4953 0.2468 0 8
8.0315 -5.6148 -2.4953 0.2468 0 8
8.1203 -5.4856 -2.4953 0.2468 0 8
8.2070 -5.3550 -2.4953 0.2468 0 8
8.2916 -5.2231 -2.4953 0.2468 0 8
8.3740 -5.0898 -2.4953 0.2468 0 8
8.4544 -4.9553 -2.4953 0.2468 0 8
8.5325 -4.8194 -2.4953 0.2468 0 8
8.6085 -4.6823 -2.4953 0.2468 0 8
8.6823 -4.5441 -2.4953 0.2468 0 8
8.7539 -4.4046 -2.4953 0.2468 0 8
8.8232 -4.2641 -2.4953 0.2468 0 8
8.8903 -4.1224 -2.4953 0.2468 0 8
8.9551 -3.9797 -2.4953 0.2468 0 8
9.0176 -3.8360 -2.4953 0.2468 0 8
9.0777 -3.6913 -2.4953 0.2468 0 8
9.1356 -3.5456 -2.4953 0.2468 0 8
9.1912 -3.3991 -2.4953 0.2468 0 8
9.2443 -3.2517 -2.4953 0.2468 0 8
9.2952 -3.1034 -2.4953 0.2468 0 8
9.3436 -2.9543 -2.4953 0.2468 0 8
9.3897 -2.8045 -2.4953 0.2468 0 8
9.4333 -2.6540 -2.4953 0.2468 0 8
9.4745 -2.5028 -2.4953 0.2468 0 8
9.5134 -2.3510 -2.4953 0.2468 0 8
9.5497 -2.1985 -2.4953 0.2468 0 8
9.5837 -2.0455 -2.4953 0.2468 0 8
9.6152 -1.8920 -2.4953 0.2468 0 8
9.6442 -1.7380 -2.4953 0.2468 0 8
9.6708 -1.5835 -2.4953 0.2468 0 8
9.6948 -1.4287 -2.4953 0.2468 0 8
9.7165 -1.2734 -2.4953 0.2468 0 8
9.7356 -1.1179 -2.4953 0.2468 0 8
7.8820 -0.7775 -2.0167 0.3984 25 10
7.6930 -0.6348 -1.9655 0.7626 25 10
7.6212 -0.5063 -1.9449 0.8542 25 10
7.5859 -0.3823 -1.9341 0.9175 25 10
7.5650 -0.2600 -1.9274 0.9624 25 10
7.5660 -0.1389 -1.9269 0.9240 25 10
7.5696 -0.0179 -1.9275 0.9237 25 10
7.5671 0.1031 -1.9270 0.9239 25 10
7.5636 0.2241 -1.9268 0.9240 25 10
2.2600 -9.1961 -2.4953 0.2548 0 8
2.4068 -9.1588 -2.4953 0.2548 0 8
2.5529 -9.1191 -2.4953 0.2548 0 8
2.6984 -9.0771 -2.4953 0.2548 0 8
2.8433 -9.0328 -2.4953 0.2548 0 8
2.9873 -8.9862 -2.4953 0.2548 0 8
3.1307 -8.9372 -2.4953 0.2548 0 8
3.2732 -8.8860 -2.4953 0.2548 0 8
3.4149 -8.8325 -2.4953 0.2548 0 8
3.5557 -8.7768 -2.4953 0.2548 0 8
3.6956 -8.7188 -2.4953 0.2548 0 8
3.8346 -8.6586 -2.4953 0.2548 0 8
3.9726 -8.5962 -2.4953 0.2548 0 8
4.1095 -8.5315 -2.4953 0.2548 0 8
4.2455 -8.4647 -2.4953 0.2548 0 8
4.3803 -8.3957 -2.4953 0.2548 0 8
4.5140 -8.3246 -2.4953 0.2548 0 8
4.6466 -8.2514 -2.4953 0.2548 0 8
4.7779 -8.1760 -2.4953 0.2548 0 8
4.9081 -8.0985 -2.4953 0.2548 0 8
5.0370 -8.0190 -2.4953 0.2548 0 8
5.1646 -7.9374 -2.4953 0.2548 0 8
5.2908 -7.8538 -2.4953 0.2548 0 8
5.4158 -7.7682 -2.4953 0.2548 0 8
5.5393 -7.6806 -2.4953 0.2548 0 8
5.6614 -7.5910 -2.4953 0.2548 0 8
5.7821 -7.4995 -2.4953 0.2548 0 8
5.9013 -7.4061 -2.4953 0.2548 0 8
6.0190 -7.3108 -2.4953 0.2548 0 8
6.1351 -7.2136 -2.4953 0.2548 0 8
6.2497 -7.1145 -2.4953 0.2548 0 8
6.3627 -7.0137 -2.4953 0.2548 0 8
6.4741 -6.9110 -2.4953 0.2548 0 8
6.5838 -6.8066 -2.4953 0.2548 0 8
6.6918 -6.7004 -2.4953 0.2548 0 8
6.7981 -6.5925 -2.4953 0.2548 0 8
6.9026 -6.4830 -2.4953 0.2548 0 8
7.0054 -6.3718 -2.4953 0.2548 0 8
7.1064 -6.2589 -2.4953 0.2548 0 8
7.2056 -6.1445 -2.4953 0.2548 0 8
7.3030 -6.0284 -2.4953 0.2548 0 8
7.3985 -5.9109 -2.4953 0.2548 0 8
7.4920 -5.7918 -2.4953 0.2548 0 8
7.5837 -5.6712 -2.4953 0.2548 0 8
7.6734 -5.5492 -2.4953 0.2548 0 8
7.7612 -5.4258 -2.4953 0.2548 0 8
7.8470 -5.3010 -2.4953 0.2548 0 8
7.9307 -5.1748 -2.4953 0.2548 0 8
8.0125 -5.0473 -2.4953 0.2548 0 8
8.0922 -4.9185 -2.4953 0.2548 0 8
8.1698 -4.7885 -2.4953 0.2548 0 8
8.2454 -4.6572 -2.4953 0.2548 0 8
8.3188 -4.5247 -2.4953 0.2548 0 8
8.3901 -4.3911 -2.4953 0.2548 0 8
8.4592 -4.2564 -2.4953 0.2548 0 8
8.5262 -4.1206 -2.4953 0.2548 0 8
8.5910 -3.9837 -2.4953 0.2548 0 8
8.6536 -3.8458 -2.4953 0.2548 0 8
8.7140 -3.7069 -2.4953 0.2548 0 8
8.7722 -3.5670 -2.4953 0.2548 0 8
8.8281 -3.4263 -2.4953 0.2548 0 8
8.8818 -3.2847 -2.4953 0.2548 0 8
8.9332 -3.1422 -2.4953 0.2548 0 8
8.9823 -2.9989 -2.4953 0.2548 0 8
9.0291 -2.8549 -2.4953 0.2548 0 8
9.0736 -2.7101 -2.4953 0.2548 0 8
9.1158 -2.5647 -2.4953 0.2548 0 8
9.1556 -2.4186 -2.4953 0.2548 0 8
9.1932 -2.2718 -2.4953 0.2548 0 8
9.2283 -2.1245 -2.4953 0.2548 0 8
9.2611 -1.9767 -2.4953 0.2548 0 8
9.2915 -1.8283 -2.4953 0.2548 0 8
9.3196 -1.6795 -2.4953 0.2548 0 8
9.3453 -1.5302 -2.4953 0.2548 0 8
9.3685 -1.3806 -2.4953 0.2548 0 8
9.3894 -1.2306 -2.4953 0.2548 0 8
9.4079 -1.0802 -2.4953 0.2548 0 8
7.9094 -0.7802 -2.0942 0.5427 25 10
7.7155 -0.6367 -2.0399 0.7209 25 10
7.6381 -0.5075 -2.0171 0.7232 25 10
7.5952 -0.3827 -2.0039 0.8449 25 10
7.5748 -0.2603 -1.9972 0.8886 25 10
7.5785 -0.1392 -1.9973 0.8885 25 10
7.5800 -0.0180 -1.9973 0.9288 25 10
7.5796 0.1033 -1.9974 0.8884 25 10
7.5759 0.2245 -1.9971 0.8886 25 10
2.1861 -8.8954 -2.4953 0.2628 0 8
2.3281 -8.8593 -2.4953 0.2628 0 8
2.4694 -8.8209 -2.4953 0.2628 0 8
2.6102 -8.7803 -2.4953 0.2628 0 8
2.7503 -8.7374 -2.4953 0.2628 0 8
2.8897 -8.6923 -2.4953 0.2628 0 8
3.0283 -8.6450 -2.4953 0.2628 0 8
3.1662 -8.5955 -2.4953 0.2628 0 8
3.3032 -8.5437 -2.4953 0.2628 0 8
3.4394 -8.4898 -2.4953 0.2628 0 8
3.5748 -8.4337 -2.4953 0.2628 0 8
3.7092 -8.3755 -2.4953 0.2628 0 8
3.8427 -8.3151 -2.4953 0.2628 0 8
3.9752 -8.2525 -2.4953 0.2628 0 8
4.1066 -8.1879 -2.4953 0.2628 0 8
4.2371 -8.1212 -2.4953 0.2628 0 8
4.3664 -8.0524 -2.4953 0.2628 0 8
4.4946 -7.9815 -2.4953 0.2628 0 8
4.6217 -7.9086 -2.4953 0.2628 0 8
4.7476 -7.8337 -2.4953 0.2628 0 8
4.8723 -7.7568 -2.4953 0.2628 0 8
4.9957 -7.6779 -2.4953 0.2628 0 8
5.1178 -7.5970 -2.4953 0.2628 0 8
5.2387 -7.5142 -2.4953 0.2628 0 8
5.3582 -7.4294 -2.4953 0.2628 0 8
5.4763 -7.3428 -2.4953 0.2628 0 8
5.5930 -7.2543 -2.4953 0.2628 0 8
5.7083 -7.1639 -2.4953 0.2628 0 8
5.8222 -7.0717 -2.4953 0.2628 0 8
5.9345 -6.9777 -2.4953 0.2628 0 8
6.0454 -6.8819 -2.4953 0.2628 0 8
6.1546 -6.7843 -2.4953 0.2628 0 8
6.2624 -6.6850 -2.4953 0.2628 0 8
6.3685 -6.5840 -2.4953 0.2628 0 8
6.4729 -6.4813 -2.4953 0.2628 0 8
6.5758 -6.3770 -2.4953 0.2628 0 8
6.6769 -6.2710 -2.4953 0.2628 0 8
6.7764 -6.1634 -2.4953 0.2628 0 8
6.8741 -6.0542 -2.4953 0.2628 0 8
6.9700 -5.9435 -2.4953 0.2628 0 8
7.0642 -5.8313 -2.4953 0.2628 0 8
7.1565 -5.7176 -2.4953 0.2628 0 8
7.2470 -5.6024 -2.4953 0.2628 0 8
7.3357 -5.4858 -2.4953 0.2628 0 8
7.4225 -5.3678 -2.4953 0.2628 0 8
7.5074 -5.2484 -2.4953 0.2628 0 8
7.5904 -5.1276 -2.4953 0.2628 0 8
7.6714 -5.0056 -2.4953 0.2628 0 8
7.7505 -4.8823 -2.4953 0.2628 0 8
7.8276 -4.7577 -2.4953 0.2628 0 8
7.9027 -4.6319 -2.4953 0.2628 0 8
7.9757 -4.5049 -2.4953 0.2628 0 8
8.0468 -4.3768 -2.4953 0.2628 0 8
8.1157 -4.2475 -2.4953 0.2628 0 8
8.1826 -4.1172 -2.4953 0.2628 0 8
8.2474 -3.9858 -2.4953 0.2628 0 8
8.3101 -3.8534 -2.4953 0.2628 0 8
8.3707 -3.7200 -2.4953 0.2628 0 8
8.4291 -3.5857 -2.4953 0.2628 0 8
8.4854 -3.4504 -2.4953 0.2628 0 8
8.5394 -3.3143 -2.4953 0.2628 0 8
8.5914 -3.1773 -2.4953 0.2628 0 8
8.6411 -3.0395 -2.4953 0.2628 0 8
8.6886 -2.9009 -2.4953 0.2628 0 8
8.7339 -2.7616 -2.4953 0.2628 0 8
8.7769 -2.6215 -2.4953 0.2628 0 8
8.8177 -2.4808 -2.4953 0.2628 0 8
8.8563 -2.3395 -2.4953 0.2628 0 8
8.8925 -2.1976 -2.4953 0.2628 0 8
8.9265 -2.0551 -2.4953 0.2628 0 8
8.9583 -1.9120 -2.4953 0.2628 0 8
8.9877 -1.7685 -2.4953 0.2628 0 8
9.0148 -1.6246 -2.4953 0.2628 0 8
9.0397 -1.4802 -2.4953 0.2628 0 8
9.0622 -1.3354 -2.4953 0.2628 0 8
9.0824 -1.1903 -2.4953 0.2628 0 8
9.1003 -1.0449 -2.4953 0.2628 0 8
7.9223 -0.7815 -2.1686 0.5406 25 10
7.7386 -0.6386 -2.1152 0.7171 25 10
7.6614 -0.5090 -2.0916 0.7194 25 10
7.6136 -0.3837 -2.0766 0.8120 25 10
7.5908 -0.2609 -2.0690 0.8847 25 10
7.5932 -0.1394 -2.0688 0.9250 25 10
7.5885 -0.0180 -2.0672 0.9257 25 10
7.5918 0.1034 -2.0683 0.9252 25 10
7.5919 0.2249 -2.0690 0.8847 25 10
2.1165 -8.6125 -2.4953 0.2708 0 8
2.2540 -8.5775 -2.4953 0.2708 0 8
2.3909 -8.5404 -2.4953 0.2708 0 8
2.5272 -8.5010 -2.4953 0.2708 0 8
2.6628 -8.4595 -2.4953 0.2708 0 8
2.7978 -8.4159 -2.4953 0.2708 0 8
2.9320 -8.3700 -2.4953 0.2708 0 8
3.0655 -8.3221 -2.4953 0.2708 0 8
3.1982 -8.2720 -2.4953 0.2708 0 8
3.3301 -8.2198 -2.4953 0.2708 0 8
3.4611 -8.1655 -2.4953 0.2708 0 8
3.5912 -8.1091 -2.4953 0.2708 0 8
3.7205 -8.0506 -2.4953 0.2708 0 8
3.8487 -7.9901 -2.4953 0.2708 0 8
3.9760 -7.9275 -2.4953 0.2708 0 8
4.1023 -7.8629 -2.4953 0.2708 0 8
4.2275 -7.7963 -2.4953 0.2708 0 8
4.3517 -7.7277 -2.4953 0.2708 0 8
4.4747 -7.6571 -2.4953 0.2708 0 8
4.5966 -7.5846 -2.4953 0.2708 0 8
4.7173 -7.5101 -2.4953 0.2708 0 8
4.8368 -7.4337 -2.4953 0.2708 0 8
4.9551 -7.3554 -2.4953 0.2708 0 8
5.0721 -7.2752 -2.4953 0.2708 0 8
5.1878 -7.1931 -2.4953 0.2708 0 8
5.3021 -7.1093 -2.4953 0.2708 0 8
5.4152 -7.0236 -2.4953 0.2708 0 8
5.5268 -6.9361 -2.4953 0.2708 0 8
5.6370 -6.8468 -2.4953 0.2708 0 8
5.7458 -6.7558 -2.4953 0.2708 0 8
5.8531 -6.6630 -2.4953 0.2708 0 8
5.9589 -6.5685 -2.4953 0.2708 0 8
6.0632 -6.4724 -2.4953 0.2708 0 8
6.1659 -6.3746 -2.4953 0.2708 0 8
6.2671 -6.2752 -2.4953 0.2708 0 8
6.3666 -6.1741 -2.4953 0.2708 0 8
6.4646 -6.0715 -2.4953 0.2708 0 8
6.5608 -5.9674 -2.4953 0.2708 0 8
6.6554 -5.8617 -2.4953 0.2708 0 8
6.7483 -5.7545 -2.4953 0.2708 0 8
6.8395 -5.6458 -2.4953 0.2708 0 8
6.9289 -5.5357 -2.4953 0.2708 0 8
7.0166 -5.4242 -2.4953 0.2708 0 8
7.1024 -5.3113 -2.4953 0.2708 0 8
7.1864 -5.1970 -2.4953 0.2708 0 8
7.2686 -5.0814 -2.4953 0.2708 0 8
7.3490 -4.9646 -2.4953 0.2708 0 8
7.4274 -4.8464 -2.4953 0.2708 0 8
7.5040 -4.7270 -2.4953 0.2708 0 8
7.5786 -4.6064 -2.4953 0.2708 0 8
7.6513 -4.4846 -2.4953 0.2708 0 8
7.7221 -4.3616 -2.4953 0.2708 0 8
7.7908 -4.2376 -2.4953 0.2708 0 8
7.8576 -4.1124 -2.4953 0.2708 0 8
7.9224 -3.9863 -2.4953 0.2708 0 8
7.9851 -3.8590 -2.4953 0.2708 0 8
8.0458 -3.7308 -2.4953 0.2708 0 8
8.1044 -3.6017 -2.4953 0.2708 0 8
8.1610 -3.4716 -2.4953 0.2708 0 8
8.2155 -3.3407 -2.4953 0.2708 0 8
8.2679 -3.2088 -2.4953 0.2708 0 8
8.3181 -3.0762 -2.4953 0.2708 0 8
8.3663 -2.9428 -2.4953 0.2708 0 8
8.4122 -2.8086 -2.4953 0.2708 0 8
8.4561 -2.6737 -2.4953 0.2708 0 8
8.4978 -2.5381 -2.4953 0.2708 0 8
8.5373 -2.4019 -2.4953 0.2708 0 8
8.5746 -2.2651 -2.4953 0.2708 0 8
8.6097 -2.1277 -2.4953 0.2708 0 8
8.6426 -1.9897 -2.4953 0.2708 0 8
8.6734 -1.8512 -2.4953 0.2708 0 8
8.7019 -1.7123 -2.4953 0.2708 0 8
8.7281 -1.5729 -2.4953 0.2708 0 8
8.7522 -1.4331 -2.4953 0.2708 0 8
8.7740 -1.2929 -2.4953 0.2708 0 8
8.7935 -1.1525 -2.4953 0.2708 0 8
8.8108 -1.0117 -2.4953 0.2708 0 8
8.3337 -0.8221 -2.3561 0.6461 25 10
8.3309 -0.6875 -2.3519 0.6472 25 10
7.6848 -0.5106 -2.1669 0.7213 25 10
7.6354 -0.3848 -2.1510 0.8079 25 10
7.6066 -0.2614 -2.1414 0.9208 25 10
7.6017 -0.1396 -2.1392 0.9218 25 10
7.5969 -0.0180 -2.1375 0.9225 25 10
7.6003 0.1036 -2.1386 0.9221 25 10
7.6051 0.2253 -2.1407 0.9212 25 10
2.0510 -8.3458 -2.4953 0.2788 0 8
2.1842 -8.3119 -2.4953 0.2788 0 8
2.3169 -8.2759 -2.4953 0.2788 0 8
2.4489 -8.2378 -2.4953 0.2788 0 8
2.5804 -8.1976 -2.4953 0.2788 0 8
2.7111 -8.1553 -2.4953 0.2788 0 8
2.8412 -8.1109 -2.4953 0.2788 0 8
2.9706 -8.0644 -2.4953 0.2788 0 8
3.0991 -8.0159 -2.4953 0.2788 0 8
3.2269 -7.9653 -2.4953 0.2788 0 8
3.3539 -7.9126 -2.4953 0.2788 0 8
3.4800 -7.8580 -2.4953 0.2788 0 8
3.6053 -7.8013 -2.4953 0.2788 0 8
3.7296 -7.7427 -2.4953 0.2788 0 8
3.8529 -7.6820 -2.4953 0.2788 0 8
3.9753 -7.6194 -2.4953 0.2788 0 8
4.0966 -7.5549 -2.4953 0.2788 0 8
4.2169 -7.4884 -2.4953 0.2788 0 8
4.3361 -7.4200 -2.4953 0.2788 0 8
4.4543 -7.3497 -2.4953 0.2788 0 8
4.5712 -7.2775 -2.4953 0.2788 0 8
4.6870 -7.2035 -2.4953 0.2788 0 8
4.8016 -7.1276 -2.4953 0.2788 0 8
4.9150 -7.0499 -2.4953 0.2788 0 8
5.0271 -6.9704 -2.4953 0.2788 0 8
5.1380 -6.8891 -2.4953 0.2788 0 8
5.2475 -6.8061 -2.4953 0.2788 0 8
5.3557 -6.7213 -2.4953 0.2788 0 8
5.4625 -6.6348 -2.4953 0.2788 0 8
5.5679 -6.5466 -2.4953 0.2788 0 8
5.6719 -6.4567 -2.4953 0.2788 0 8
5.7744 -6.3651 -2.4953 0.2788 0 8
5.8755 -6.2720 -2.4953 0.2788 0 8
5.9750 -6.1772 -2.4953 0.2788 0 8
6.0730 -6.0809 -2.4953 0.2788 0 8
6.1695 -5.9830 -2.4953 0.2788 0 8
6.2644 -5.8835 -2.4953 0.2788 0 8
6.3577 -5.7826 -2.4953 0.2788 0 8
6.4494 -5.6802 -2.4953 0.2788 0 8
6.5394 -5.5763 -2.4953 0.2788 0 8
6.6277 -5.4710 -2.4953 0.2788 0 8
6.7144 -5.3643 -2.4953 0.2788 0 8
6.7993 -5.2563 -2.4953 0.2788 0 8
6.8825 -5.1468 -2.4953 0.2788 0 8
6.9639 -5.0361 -2.4953 0.2788 0 8
7.0436 -4.9241 -2.4953 0.2788 0 8
7.1214 -4.8108 -2.4953 0.2788 0 8
7.1974 -4.6963 -2.4953 0.2788 0 8
7.2716 -4.5806 -2.4953 0.2788 0 8
7.3440 -4.4637 -2.4953 0.2788 0 8
7.4144 -4.3457 -2.4953 0.2788 0 8
7.4830 -4.2266 -2.4953 0.2788 0 8
7.5496 -4.1064 -2.4953 0.2788 0 8
7.6143 -3.9851 -2.4953 0.2788 0 8
7.6771 -3.8628 -2.4953 0.2788 0 8
7.7379 -3.7396 -2.4953 0.2788 0 8
7.7967 -3.6153 -2.4953 0.2788 0 8
7.8535 -3.4902 -2.4953 0.2788 0 8
7.9083 -3.3641 -2.4953 0.2788 0 8
7.9611 -3.2372 -2.4953 0.2788 0 8
8.0119 -3.1095 -2.4953 0.2788 0 8
8.0606 -2.9810 -2.4953 0.2788 0 8
8.1072 -2.8517 -2.4953 0.2788 0 8
8.1518 -2.7217 -2.4953 0.2788 0 8
8.1943 -2.5909 -2.4953 0.2788 0 8
8.2346 -2.4596 -2.4953 0.2788 0 8
8.2729 -2.3275 -2.4953 0.2788 0 8
