ply
format ascii 1.0
element vertex 1365
property float32 x
property float32 y
property float32 z
property float32 CosAngle
property uint32 ObjIdx
property uint32 ObjTag
end_header
-56.2968 83.2203 -2.5056 0.5576 0 8
-57.3842 81.9667 -2.4953 0.0249 0 8
-58.6901 81.0368 -2.4953 0.0249 0 8
-59.9808 80.0861 -2.4953 0.0249 0 8
-61.2563 79.1148 -2.4953 0.0249 0 8
-62.5159 78.1233 -2.4953 0.0249 0 14
36.6728 70.6639 -2.6477 0.0332 0 7
35.5360 71.2424 -2.6477 0.0332 0 7
34.3900 71.8026 -2.6477 0.0332 0 7
33.2353 72.3443 -2.6477 0.0332 0 7
32.0719 72.8675 -2.6477 0.0332 0 7
30.9004 73.3720 -2.6477 0.0332 0 7
29.7209 73.8576 -2.6477 0.0332 0 7
28.4980 74.2311 -2.6443 0.0490 0 8
27.2338 74.4834 -2.6375 0.9286 0 8
25.8891 74.4845 -2.6225 0.9339 0 8
24.5591 74.4854 -2.6083 0.9390 0 8
23.2431 74.4862 -2.5950 0.9438 0 8
21.9400 74.4869 -2.5824 0.9484 0 8
20.6492 74.4874 -2.5706 0.9527 0 8
19.3697 74.4878 -2.5596 0.9568 0 8
18.1008 74.4881 -2.5493 0.9607 0 8
16.8417 74.4882 -2.5398 0.9643 0 8
15.5917 74.4883 -2.5309 0.9677 0 8
14.3500 74.4882 -2.5228 0.9708 0 8
13.1158 74.4880 -2.5153 0.9737 0 8
11.8887 74.4877 -2.5086 0.9763 0 8
10.6679 74.4876 -2.5025 0.7229 0 8
9.4531 74.4913 -2.4972 0.7244 0 8
8.2520 74.5756 -2.4953 0.0332 0 8
7.0562 74.6983 -2.4953 0.0332 0 8
5.8585 74.8017 -2.4953 0.0332 0 8
4.6593 74.8860 -2.4953 0.0332 0 8
3.4590 74.9510 -2.4953 0.0332 0 8
2.2577 74.9968 -2.4953 0.0332 0 8
1.0559 75.0234 -2.4953 0.0332 0 8
-0.1462 75.0306 -2.4953 0.0332 0 8
-1.3483 75.0187 -2.4953 0.0332 0 8
-2.5501 74.9875 -2.4953 0.0332 0 8
-3.7511 74.9370 -2.4953 0.0332 0 8
-4.9513 74.8672 -2.4953 0.0332 0 8
-6.1501 74.7783 -2.4953 0.0332 0 8
-7.3473 74.6702 -2.4953 0.0332 0 8
-8.5430 74.5429 -2.4953 0.0332 0 8
-9.7450 74.4663 -2.4976 0.7247 0 8
-10.9602 74.4595 -2.5030 0.9785 0 8
-12.1816 74.4568 -2.5091 0.9761 0 8
-13.4094 74.4540 -2.5159 0.9735 0 8
-14.6440 74.4510 -2.5234 0.9706 0 8
-15.8864 74.4479 -2.5316 0.9674 0 8
-17.1372 74.4447 -2.5405 0.9640 0 8
-18.3971 74.4413 -2.5501 0.9604 0 8
-19.6668 74.4377 -2.5605 0.9565 0 8
-20.9472 74.4340 -2.5716 0.9524 0 8
-22.2390 74.4302 -2.5834 0.9480 0 8
-23.5431 74.4262 -2.5960 0.9434 0 8
-24.8603 74.4220 -2.6095 0.9386 0 8
-26.1914 74.4177 -2.6237 0.9335 0 8
-27.5375 74.4132 -2.6387 0.9281 0 8
-28.7919 74.1318 -2.6448 0.0490 0 8
-30.0086 73.7412 -2.6477 0.0332 0 7
-31.1862 73.2510 -2.6477 0.0332 0 6
-32.3557 72.7419 -2.6477 0.0332 0 7
-33.5170 72.2142 -2.6477 0.0332 0 7
-34.6697 71.6680 -2.6477 0.0332 0 7
-35.8135 71.1033 -2.6477 0.0332 0 7
-36.9481 70.5204 -2.6477 0.0332 0 7
-38.0732 69.9194 -2.6477 0.0332 0 7
-39.1885 69.3004 -2.6477 0.0332 0 7
-40.2937 68.6637 -2.6477 0.0332 0 7
-41.3886 68.0093 -2.6477 0.0332 0 7
-42.4730 67.3374 -2.6477 0.0332 0 7
-43.5463 66.6483 -2.6477 0.0332 0 7
-44.6085 65.9421 -2.6477 0.0332 0 7
-45.6593 65.2190 -2.6477 0.0332 0 7
-46.6983 64.4791 -2.6477 0.0332 0 6
-47.7254 63.7226 -2.6477 0.0332 0 7
-48.7402 62.9498 -2.6477 0.0332 0 7
-49.7424 62.1609 -2.6477 0.0332 0 7
27.6439 53.2662 -2.4953 0.0415 0 8
26.7869 53.7023 -2.4953 0.0415 0 8
25.9231 54.1245 -2.4953 0.0415 0 8
25.0526 54.5329 -2.4953 0.0415 0 8
24.1757 54.9273 -2.4953 0.0415 0 8
23.2926 55.3076 -2.4953 0.0415 0 8
22.4035 55.6737 -2.4953 0.0415 0 8
21.5087 56.0254 -2.4953 0.0415 0 8
20.6083 56.3629 -2.4953 0.0415 0 8
19.7026 56.6858 -2.4953 0.0415 0 8
18.7919 56.9942 -2.4953 0.0415 0 8
17.8764 57.2879 -2.4953 0.0415 0 8
16.9563 57.5670 -2.4953 0.0415 0 8
16.0318 57.8312 -2.4953 0.0415 0 8
15.1032 58.0807 -2.4953 0.0415 0 8
14.1707 58.3152 -2.4953 0.0415 0 8
13.2346 58.5347 -2.4953 0.0415 0 8
12.2951 58.7393 -2.4953 0.0415 0 8
11.3525 58.9287 -2.4953 0.0415 0 8
10.4069 59.1030 -2.4953 0.0415 0 8
9.4586 59.2622 -2.4953 0.0415 0 8
8.5079 59.4061 -2.4953 0.0415 0 8
7.5551 59.5348 -2.4953 0.0415 0 8
6.6003 59.6482 -2.4953 0.0415 0 8
5.6438 59.7463 -2.4953 0.0415 0 8
4.6858 59.8290 -2.4953 0.0415 0 8
3.7267 59.8964 -2.4953 0.0415 0 8
2.7666 59.9485 -2.4953 0.0415 0 8
1.8058 59.9851 -2.4953 0.0415 0 8
0.8445 60.0063 -2.4953 0.0415 0 8
-0.1170 60.0121 -2.4953 0.0415 0 8
-1.0785 60.0026 -2.4953 0.0415 0 8
-2.0396 59.9776 -2.4953 0.0415 0 8
-3.0003 59.9372 -2.4953 0.0415 0 8
-3.9602 59.8815 -2.4953 0.0415 0 8
-4.9190 59.8103 -2.4953 0.0415 0 8
-5.8767 59.7238 -2.4953 0.0415 0 8
-6.8328 59.6220 -2.4953 0.0415 0 8
-7.7871 59.5049 -2.4953 0.0415 0 8
-8.7395 59.3725 -2.4953 0.0415 0 8
-9.6896 59.2249 -2.4953 0.0415 0 8
-10.6372 59.0620 -2.4953 0.0415 0 8
-11.5821 58.8840 -2.4953 0.0415 0 8
-12.5240 58.6909 -2.4953 0.0415 0 8
-13.4627 58.4827 -2.4953 0.0415 0 8
-14.3980 58.2595 -2.4953 0.0415 0 8
-15.3295 58.0213 -2.4953 0.0415 0 8
-16.2571 57.7683 -2.4953 0.0415 0 8
-17.1806 57.5004 -2.4953 0.0415 0 8
-18.0996 57.2178 -2.4953 0.0415 0 8
-19.0140 56.9205 -2.4953 0.0415 0 8
-19.9235 56.6085 -2.4953 0.0415 0 8
-20.8279 56.2821 -2.4953 0.0415 0 8
-21.7269 55.9412 -2.4953 0.0415 0 8
-22.6204 55.5859 -2.4953 0.0415 0 8
-23.5080 55.2163 -2.4953 0.0415 0 8
-24.3896 54.8326 -2.4953 0.0415 0 8
-25.2650 54.4348 -2.4953 0.0415 0 8
-26.1339 54.0231 -2.4953 0.0415 0 8
-26.9961 53.5974 -2.4953 0.0415 0 8
-27.8513 53.1580 -2.4953 0.0415 0 8
-28.6994 52.7050 -2.4953 0.0415 0 8
-29.5401 52.2384 -2.4953 0.0415 0 8
-30.3733 51.7584 -2.4953 0.0415 0 8
-31.1986 51.2652 -2.4953 0.0415 0 8
-32.0160 50.7587 -2.4953 0.0415 0 8
-32.8251 50.2393 -2.4953 0.0415 0 8
-33.6258 49.7069 -2.4953 0.0415 0 8
-34.4178 49.1618 -2.4953 0.0415 0 8
-35.2010 48.6041 -2.4953 0.0415 0 8
-35.9752 48.0339 -2.4953 0.0415 0 8
-36.7402 47.4513 -2.4953 0.0415 0 8
-39.7858 49.7184 -2.6477 0.0415 0 7
23.0307 44.3772 -2.4953 0.0498 0 8
22.3167 44.7405 -2.4953 0.0498 0 8
21.5971 45.0923 -2.4953 0.0498 0 8
20.8719 45.4325 -2.4953 0.0498 0 8
20.1413 45.7611 -2.4953 0.0498 0 8
19.4055 46.0779 -2.4953 0.0498 0 8
18.6648 46.3829 -2.4953 0.0498 0 8
17.9193 46.6760 -2.4953 0.0498 0 8
17.1692 46.9571 -2.4953 0.0498 0 8
16.4147 47.2261 -2.4953 0.0498 0 8
15.6560 47.4830 -2.4953 0.0498 0 8
14.8932 47.7278 -2.4953 0.0498 0 8
14.1266 47.9603 -2.4953 0.0498 0 8
13.3564 48.1804 -2.4953 0.0498 0 8
12.5828 48.3882 -2.4953 0.0498 0 8
11.8059 48.5836 -2.4953 0.0498 0 8
11.0261 48.7665 -2.4953 0.0498 0 8
10.2433 48.9369 -2.4953 0.0498 0 8
9.4580 49.0947 -2.4953 0.0498 0 8
8.6702 49.2400 -2.4953 0.0498 0 8
7.8802 49.3726 -2.4953 0.0498 0 8
7.0881 49.4925 -2.4953 0.0498 0 8
6.2943 49.5997 -2.4953 0.0498 0 8
5.4989 49.6942 -2.4953 0.0498 0 8
4.7020 49.7759 -2.4953 0.0498 0 8
3.9039 49.8448 -2.4953 0.0498 0 8
3.1048 49.9010 -2.4953 0.0498 0 8
2.3049 49.9443 -2.4953 0.0498 0 8
1.5044 49.9748 -2.4953 0.0498 0 8
0.7036 49.9925 -2.4953 0.0498 0 8
-0.0975 49.9974 -2.4953 0.0498 0 8
-0.8985 49.9894 -2.4953 0.0498 0 8
-1.6993 49.9686 -2.4953 0.0498 0 8
-2.4996 49.9350 -2.4953 0.0498 0 8
-3.2993 49.8885 -2.4953 0.0498 0 8
-4.0981 49.8292 -2.4953 0.0498 0 8
-4.8960 49.7572 -2.4953 0.0498 0 8
-5.6925 49.6724 -2.4953 0.0498 0 8
-6.4876 49.5748 -2.4953 0.0498 0 8
-7.2810 49.4645 -2.4953 0.0498 0 8
-8.0726 49.3415 -2.4953 0.0498 0 8
-8.8621 49.2058 -2.4953 0.0498 0 8
-9.6493 49.0575 -2.4953 0.0498 0 8
-10.4340 48.8966 -2.4953 0.0498 0 8
-11.2161 48.7232 -2.4953 0.0498 0 8
-11.9953 48.5372 -2.4953 0.0498 0 8
-12.7713 48.3388 -2.4953 0.0498 0 8
-13.5442 48.1280 -2.4953 0.0498 0 8
-14.3135 47.9048 -2.4953 0.0498 0 8
-15.0792 47.6693 -2.4953 0.0498 0 8
-15.8409 47.4217 -2.4953 0.0498 0 8
-16.5987 47.1618 -2.4953 0.0498 0 8
-17.3521 46.8898 -2.4953 0.0498 0 8
-18.1011 46.6058 -2.4953 0.0498 0 8
-18.8455 46.3098 -2.4953 0.0498 0 8
-19.5850 46.0019 -2.4953 0.0498 0 8
-20.3195 45.6822 -2.4953 0.0498 0 8
-21.0488 45.3508 -2.4953 0.0498 0 8
-21.7727 45.0078 -2.4953 0.0498 0 8
-22.4910 44.6531 -2.4953 0.0498 0 8
-23.2035 44.2871 -2.4953 0.0498 0 8
-23.9101 43.9096 -2.4953 0.0498 0 8
-24.6105 43.5209 -2.4953 0.0498 0 8
-25.3046 43.1211 -2.4953 0.0498 0 8
-25.9922 42.7101 -2.4953 0.0498 0 8
-26.6732 42.2882 -2.4953 0.0498 0 8
-27.3473 41.8554 -2.4953 0.0498 0 8
-28.0143 41.4119 -2.4953 0.0498 0 8
-28.6742 40.9578 -2.4953 0.0498 0 8
-29.3267 40.4931 -2.4953 0.0498 0 8
-29.9717 40.0181 -2.4953 0.0498 0 8
-30.6090 39.5327 -2.4953 0.0498 0 8
-31.2384 39.0373 -2.4953 0.0498 0 8
19.7347 38.0262 -2.4953 0.0581 0 8
19.1229 38.3375 -2.4953 0.0581 0 8
18.5062 38.6390 -2.4953 0.0581 0 8
17.8848 38.9305 -2.4953 0.0581 0 8
17.2588 39.2121 -2.4953 0.0581 0 8
16.6284 39.4835 -2.4953 0.0581 0 8
15.9936 39.7449 -2.4953 0.0581 0 8
15.3548 39.9960 -2.4953 0.0581 0 8
14.7121 40.2369 -2.4953 0.0581 0 8
14.0655 40.4674 -2.4953 0.0581 0 8
13.4154 40.6876 -2.4953 0.0581 0 8
12.7618 40.8973 -2.4953 0.0581 0 8
12.1049 41.0965 -2.4953 0.0581 0 8
11.4450 41.2852 -2.4953 0.0581 0 8
10.7820 41.4632 -2.4953 0.0581 0 8
10.1164 41.6307 -2.4953 0.0581 0 8
9.4481 41.7874 -2.4953 0.0581 0 8
8.7774 41.9334 -2.4953 0.0581 0 8
8.1044 42.0686 -2.4953 0.0581 0 8
7.4294 42.1931 -2.4953 0.0581 0 8
6.7524 42.3067 -2.4953 0.0581 0 8
6.0737 42.4095 -2.4953 0.0581 0 8
5.3935 42.5013 -2.4953 0.0581 0 8
4.7119 42.5823 -2.4953 0.0581 0 8
4.0291 42.6523 -2.4953 0.0581 0 8
3.3452 42.7114 -2.4953 0.0581 0 8
2.6605 42.7595 -2.4953 0.0581 0 8
1.9751 42.7966 -2.4953 0.0581 0 8
1.2891 42.8228 -2.4953 0.0581 0 8
0.6029 42.8379 -2.4953 0.0581 0 8
-0.0835 42.8421 -2.4953 0.0581 0 8
-0.7699 42.8353 -2.4953 0.0581 0 8
-1.4561 42.8174 -2.4953 0.0581 0 8
-2.1419 42.7886 -2.4953 0.0581 0 8
-2.8271 42.7488 -2.4953 0.0581 0 8
-3.5116 42.6980 -2.4953 0.0581 0 8
-4.1953 42.6363 -2.4953 0.0581 0 8
-4.8778 42.5636 -2.4953 0.0581 0 8
-5.5591 42.4800 -2.4953 0.0581 0 8
-6.2390 42.3855 -2.4953 0.0581 0 8
-6.9173 42.2801 -2.4953 0.0581 0 8
-7.5938 42.1638 -2.4953 0.0581 0 8
-8.2683 42.0367 -2.4953 0.0581 0 8
-8.9408 41.8989 -2.4953 0.0581 0 8
-9.6109 41.7502 -2.4953 0.0581 0 8
-10.2786 41.5909 -2.4953 0.0581 0 8
-10.9436 41.4209 -2.4953 0.0581 0 8
-11.6058 41.2402 -2.4953 0.0581 0 8
-12.2650 41.0490 -2.4953 0.0581 0 8
-12.9211 40.8472 -2.4953 0.0581 0 8
-13.5739 40.6350 -2.4953 0.0581 0 8
-14.2232 40.4123 -2.4953 0.0581 0 8
-14.8688 40.1792 -2.4953 0.0581 0 8
-15.5106 39.9359 -2.4953 0.0581 0 8
-16.1485 39.6822 -2.4953 0.0581 0 8
-16.7821 39.4184 -2.4953 0.0581 0 8
-17.4115 39.1445 -2.4953 0.0581 0 8
-18.0364 38.8605 -2.4953 0.0581 0 8
-18.6567 38.5666 -2.4953 0.0581 0 8
-19.2722 38.2627 -2.4953 0.0581 0 8
-19.8828 37.9490 -2.4953 0.0581 0 8
-20.4883 37.6256 -2.4953 0.0581 0 8
-21.0884 37.2925 -2.4953 0.0581 0 8
-21.6832 36.9499 -2.4953 0.0581 0 8
-22.2724 36.5977 -2.4953 0.0581 0 8
-22.8559 36.2362 -2.4953 0.0581 0 8
-23.4335 35.8653 -2.4953 0.0581 0 8
-24.0051 35.4853 -2.4953 0.0581 0 8
-24.5705 35.0962 -2.4953 0.0581 0 8
-25.1297 34.6980 -2.4953 0.0581 0 8
-25.6824 34.2909 -2.4953 0.0581 0 8
-26.2285 33.8751 -2.4953 0.0581 0 8
-26.7678 33.4505 -2.4953 0.0581 0 8
17.2619 33.2614 -2.4953 0.0664 0 8
16.7267 33.5337 -2.4953 0.0664 0 8
16.1873 33.7974 -2.4953 0.0664 0 8
15.6438 34.0524 -2.4953 0.0664 0 8
15.0962 34.2987 -2.4953 0.0664 0 8
14.5448 34.5361 -2.4953 0.0664 0 8
13.9896 34.7647 -2.4953 0.0664 0 8
13.4308 34.9844 -2.4953 0.0664 0 8
12.8686 35.1951 -2.4953 0.0664 0 8
12.3031 35.3967 -2.4953 0.0664 0 8
11.7344 35.5893 -2.4953 0.0664 0 8
11.1627 35.7727 -2.4953 0.0664 0 8
10.5881 35.9470 -2.4953 0.0664 0 8
10.0109 36.1120 -2.4953 0.0664 0 8
9.4310 36.2678 -2.4953 0.0664 0 8
8.8487 36.4142 -2.4953 0.0664 0 8
8.2642 36.5513 -2.4953 0.0664 0 8
7.6775 36.6790 -2.4953 0.0664 0 8
7.0889 36.7973 -2.4953 0.0664 0 8
6.4984 36.9061 -2.4953 0.0664 0 8
5.9063 37.0055 -2.4953 0.0664 0 8
5.3127 37.0954 -2.4953 0.0664 0 8
4.7177 37.1758 -2.4953 0.0664 0 8
4.1215 37.2466 -2.4953 0.0664 0 8
3.5242 37.3078 -2.4953 0.0664 0 8
2.9260 37.3595 -2.4953 0.0664 0 8
2.3271 37.4016 -2.4953 0.0664 0 8
1.7276 37.4341 -2.4953 0.0664 0 8
1.1276 37.4569 -2.4953 0.0664 0 8
0.5273 37.4702 -2.4953 0.0664 0 8
-0.0731 37.4738 -2.4953 0.0664 0 8
-0.6734 37.4678 -2.4953 0.0664 0 8
-1.2736 37.4523 -2.4953 0.0664 0 8
-1.8735 37.4270 -2.4953 0.0664 0 8
-2.4729 37.3922 -2.4953 0.0664 0 8
-3.0716 37.3478 -2.4953 0.0664 0 8
-3.6696 37.2938 -2.4953 0.0664 0 8
-4.2666 37.2302 -2.4953 0.0664 0 8
-4.8626 37.1571 -2.4953 0.0664 0 8
-5.4573 37.0744 -2.4953 0.0664 0 8
-6.0505 36.9822 -2.4953 0.0664 0 8
-6.6423 36.8805 -2.4953 0.0664 0 8
-7.2323 36.7694 -2.4953 0.0664 0 8
-7.8205 36.6488 -2.4953 0.0664 0 8
-8.4066 36.5188 -2.4953 0.0664 0 8
-8.9906 36.3794 -2.4953 0.0664 0 8
-9.5723 36.2307 -2.4953 0.0664 0 8
-10.1516 36.0727 -2.4953 0.0664 0 8
-10.7282 35.9054 -2.4953 0.0664 0 8
-11.3021 35.7289 -2.4953 0.0664 0 8
-11.8730 35.5433 -2.4953 0.0664 0 8
-12.4410 35.3485 -2.4953 0.0664 0 8
-13.0057 35.1446 -2.4953 0.0664 0 8
-13.5671 34.9318 -2.4953 0.0664 0 8
-14.1250 34.7099 -2.4953 0.0664 0 8
-14.6793 34.4792 -2.4953 0.0664 0 8
-15.2298 34.2395 -2.4953 0.0664 0 8
-15.7764 33.9911 -2.4953 0.0664 0 8
-16.3190 33.7340 -2.4953 0.0664 0 8
-16.8573 33.4682 -2.4953 0.0664 0 8
-17.3914 33.1939 -2.4953 0.0664 0 8
-17.9210 32.9109 -2.4953 0.0664 0 8
-18.5794 32.8555 -2.5133 0.8675 0 8
-19.2769 32.8493 -2.5361 0.8596 0 8
-19.9873 32.8429 -2.5600 0.8516 0 8
-20.7114 32.8363 -2.5851 0.8434 0 8
-21.4499 32.8294 -2.6112 0.8349 0 8
-22.2036 32.8222 -2.6386 0.8263 0 8
-22.7799 32.5385 -2.6448 0.0803 0 8
-23.3233 32.2039 -2.6477 0.0664 0 7
-23.8363 31.8261 -2.6477 0.0664 0 7
-24.3431 31.4401 -2.6477 0.0664 0 7
-24.8437 31.0461 -2.6477 0.0664 0 7
16.2746 31.3592 -2.6477 0.0747 0 7
15.7701 31.6159 -2.6477 0.0747 0 7
15.2616 31.8645 -2.6477 0.0747 0 7
14.7491 32.1049 -2.6477 0.0747 0 7
14.2329 32.3371 -2.6477 0.0747 0 7
13.7065 32.5456 -2.6464 0.0903 0 8
13.1682 32.7234 -2.6434 0.0904 0 8
12.6283 32.8939 -2.6405 0.0905 0 8
12.0366 32.9195 -2.6267 0.9336 0 8
11.4424 32.9207 -2.6118 0.9389 0 8
10.8548 32.9216 -2.5978 0.9440 0 8
10.2733 32.9225 -2.5845 0.9488 0 8
9.6975 32.9232 -2.5721 0.9534 0 8
9.1270 32.9238 -2.5603 0.9578 0 8
8.5616 32.9242 -2.5494 0.9619 0 8
8.0007 32.9245 -2.5392 0.9658 0 8
7.4442 32.9248 -2.5296 0.9694 0 8
6.8917 32.9249 -2.5208 0.9728 0 8
6.3429 32.9248 -2.5127 0.9759 0 8
5.7974 32.9247 -2.5053 0.9788 0 8
5.2555 32.9277 -2.4988 0.7488 0 8
4.7205 32.9608 -2.4953 0.0747 0 8
4.1919 33.0322 -2.4953 0.0747 0 8
3.6621 33.0951 -2.4953 0.0747 0 8
3.1314 33.1495 -2.4953 0.0747 0 8
2.5999 33.1954 -2.4953 0.0747 0 8
2.0677 33.2328 -2.4953 0.0747 0 8
1.5350 33.2617 -2.4953 0.0747 0 8
1.0019 33.2820 -2.4953 0.0747 0 8
0.4686 33.2938 -2.4953 0.0747 0 8
-0.0649 33.2970 -2.4953 0.0747 0 8
-0.5984 33.2917 -2.4953 0.0747 0 8
-1.1317 33.2779 -2.4953 0.0747 0 8
-1.6647 33.2555 -2.4953 0.0747 0 8
-2.1973 33.2245 -2.4953 0.0747 0 8
-2.7293 33.1851 -2.4953 0.0747 0 8
-3.2606 33.1371 -2.4953 0.0747 0 8
-3.7911 33.0806 -2.4953 0.0747 0 8
-4.3206 33.0156 -2.4953 0.0747 0 8
-4.8489 32.9421 -2.4953 0.0747 0 8
-5.3825 32.8988 -2.4982 0.7492 0 8
-5.9240 32.8923 -2.5046 0.9791 0 8
-6.4691 32.8894 -2.5119 0.9762 0 8
-7.0176 32.8864 -2.5200 0.9731 0 8
-7.5697 32.8832 -2.5287 0.9698 0 8
-8.1258 32.8799 -2.5381 0.9662 0 8
-8.6861 32.8765 -2.5483 0.9623 0 8
-9.2511 32.8729 -2.5592 0.9582 0 8
-9.8210 32.8692 -2.5708 0.9539 0 8
-10.3962 32.8653 -2.5832 0.9493 0 8
-10.9771 32.8612 -2.5964 0.9445 0 8
-11.5641 32.8570 -2.6103 0.9394 0 8
-12.1575 32.8526 -2.6251 0.9341 0 8
-12.7550 32.8408 -2.6402 0.0905 0 8
-13.2941 32.6681 -2.6431 0.0904 0 8
-13.8316 32.4880 -2.6461 0.0903 0 8
-14.3588 32.2813 -2.6477 0.0747 0 7
-14.8741 32.0472 -2.6477 0.0747 0 7
-15.3857 31.8047 -2.6477 0.0747 0 7
-15.8933 31.5542 -2.6477 0.0747 0 7
-16.3968 31.2955 -2.6477 0.0747 0 7
-16.8961 31.0287 -2.6477 0.0747 0 7
-17.3910 30.7541 -2.6477 0.0747 0 7
-17.8815 30.4715 -2.6477 0.0747 0 7
-18.3674 30.1811 -2.6477 0.0747 0 7
-18.8486 29.8830 -2.6477 0.0747 0 6
-19.3249 29.5771 -2.6477 0.0747 0 7
-19.7963 29.2637 -2.6477 0.0747 0 7
-20.2626 28.9428 -2.6477 0.0747 0 7
-20.7237 28.6145 -2.6477 0.0747 0 7
-21.1795 28.2788 -2.6477 0.0747 0 7
-21.6299 27.9358 -2.6477 0.0747 0 7
-22.0746 27.5857 -2.6477 0.0747 0 7
14.6407 28.2108 -2.6477 0.0830 0 7
14.1869 28.4418 -2.6477 0.0830 0 7
13.7294 28.6654 -2.6477 0.0830 0 7
13.2684 28.8817 -2.6477 0.0830 0 7
12.8039 29.0906 -2.6477 0.0830 0 7
12.3362 29.2920 -2.6477 0.0830 0 7
11.8653 29.4859 -2.6477 0.0830 0 7
11.3914 29.6722 -2.6477 0.0830 0 7
10.9146 29.8509 -2.6477 0.0830 0 7
10.4349 30.0219 -2.6477 0.0830 0 6
9.9526 30.1852 -2.6477 0.0830 0 7
9.4677 30.3408 -2.6477 0.0830 0 7
8.9804 30.4886 -2.6477 0.0830 0 7
8.4908 30.6286 -2.6477 0.0830 0 7
7.9990 30.7607 -2.6477 0.0830 0 7
7.5051 30.8849 -2.6477 0.0830 0 7
7.0093 31.0012 -2.6477 0.0830 0 7
6.5117 31.1095 -2.6477 0.0830 0 7
6.0125 31.2098 -2.6477 0.0830 0 7
5.5117 31.3021 -2.6477 0.0830 0 7
5.0095 31.3864 -2.6477 0.0830 0 7
4.5060 31.4627 -2.6477 0.0830 0 7
4.0013 31.5308 -2.6477 0.0830 0 7
3.4956 31.5909 -2.6477 0.0830 0 7
2.9891 31.6428 -2.6477 0.0830 0 7
2.4817 31.6866 -2.6477 0.0830 0 7
1.9737 31.7223 -2.6477 0.0830 0 7
1.4652 31.7499 -2.6477 0.0830 0 7
0.9564 31.7693 -2.6477 0.0830 0 7
0.4473 31.7805 -2.6477 0.0830 0 7
-0.0620 31.7836 -2.6477 0.0830 0 7
-0.5712 31.7786 -2.6477 0.0830 0 7
-1.0802 31.7653 -2.6477 0.0830 0 7
-1.5890 31.7439 -2.6477 0.0830 0 7
-2.0974 31.7144 -2.6477 0.0830 0 7
-2.6052 31.6767 -2.6477 0.0830 0 7
-3.1124 31.6309 -2.6477 0.0830 0 7
-3.6188 31.5770 -2.6477 0.0830 0 7
-4.1242 31.5150 -2.6477 0.0830 0 7
-4.6286 31.4449 -2.6477 0.0830 0 7
-5.1318 31.3667 -2.6477 0.0830 0 7
-5.6337 31.2804 -2.6477 0.0830 0 7
-6.1341 31.1861 -2.6477 0.0830 0 7
-6.6330 31.0839 -2.6477 0.0830 0 7
-7.1301 30.9736 -2.6477 0.0830 0 7
-7.6255 30.8554 -2.6477 0.0830 0 7
-8.1188 30.7293 -2.6477 0.0830 0 7
-8.6101 30.5952 -2.6477 0.0830 0 7
-9.0992 30.4534 -2.6477 0.0830 0 7
-9.5859 30.3037 -2.6477 0.0830 0 7
-10.0702 30.1462 -2.6477 0.0830 0 7
-10.5519 29.9810 -2.6477 0.0830 0 7
-11.0309 29.8081 -2.6477 0.0830 0 7
-11.5070 29.6276 -2.6477 0.0830 0 7
-11.9802 29.4394 -2.6477 0.0830 0 7
-12.4503 29.2437 -2.6477 0.0830 0 7
-12.9172 29.0404 -2.6477 0.0830 0 7
-13.3808 28.8298 -2.6477 0.0830 0 7
-13.8410 28.6117 -2.6477 0.0830 0 7
-14.2977 28.3863 -2.6477 0.0830 0 7
-14.7506 28.1536 -2.6477 0.0830 0 7
-15.1998 27.9136 -2.6477 0.0830 0 7
-15.6450 27.6665 -2.6477 0.0830 0 7
-16.0863 27.4123 -2.6477 0.0830 0 7
-16.5234 27.1510 -2.6477 0.0830 0 7
-16.9563 26.8828 -2.6477 0.0830 0 7
-17.3848 26.6077 -2.6477 0.0830 0 7
-17.8089 26.3258 -2.6477 0.0830 0 7
-18.2284 26.0371 -2.6477 0.0830 0 7
-18.6432 25.7417 -2.6477 0.0830 0 7
-19.0532 25.4397 -2.6477 0.0830 0 7
-19.4583 25.1312 -2.6477 0.0830 0 7
-19.8585 24.8162 -2.6477 0.0830 0 7
13.3033 25.6338 -2.6477 0.0913 0 7
12.8909 25.8436 -2.6477 0.0913 0 7
12.4752 26.0469 -2.6477 0.0913 0 7
12.0563 26.2434 -2.6477 0.0913 0 7
11.6343 26.4332 -2.6477 0.0913 0 7
11.2093 26.6162 -2.6477 0.0913 0 7
10.7814 26.7924 -2.6477 0.0913 0 7
10.3508 26.9616 -2.6477 0.0913 0 7
9.9175 27.1240 -2.6477 0.0913 0 7
9.4817 27.2794 -2.6477 0.0913 0 7
9.0434 27.4278 -2.6477 0.0913 0 7
8.6028 27.5692 -2.6477 0.0913 0 7
8.1600 27.7035 -2.6477 0.0913 0 7
7.7151 27.8307 -2.6477 0.0913 0 7
7.2683 27.9507 -2.6477 0.0913 0 7
6.8195 28.0636 -2.6477 0.0913 0 7
6.3690 28.1692 -2.6477 0.0913 0 7
5.9169 28.2676 -2.6477 0.0913 0 7
5.4633 28.3588 -2.6477 0.0913 0 7
5.0082 28.4427 -2.6477 0.0913 0 7
4.5519 28.5193 -2.6477 0.0913 0 7
4.0944 28.5886 -2.6477 0.0913 0 7
3.6358 28.6505 -2.6477 0.0913 0 7
3.1763 28.7051 -2.6477 0.0913 0 7
2.7160 28.7523 -2.6477 0.0913 0 7
2.2550 28.7921 -2.6477 0.0913 0 7
1.7934 28.8245 -2.6477 0.0913 0 7
1.3314 28.8496 -2.6477 0.0913 0 7
0.8690 28.8672 -2.6477 0.0913 0 7
0.4064 28.8774 -2.6477 0.0913 0 7
-0.0563 28.8802 -2.6477 0.0913 0 7
-0.5190 28.8756 -2.6477 0.0913 0 7
-0.9815 28.8636 -2.6477 0.0913 0 7
-1.4439 28.8442 -2.6477 0.0913 0 7
-1.9058 28.8173 -2.6477 0.0913 0 7
-2.3672 28.7831 -2.6477 0.0913 0 7
-2.8281 28.7415 -2.6477 0.0913 0 7
-3.2882 28.6925 -2.6477 0.0913 0 7
-3.7475 28.6361 -2.6477 0.0913 0 7
-4.2058 28.5724 -2.6477 0.0913 0 7
-4.6630 28.5013 -2.6477 0.0913 0 7
-5.1190 28.4230 -2.6477 0.0913 0 7
-5.5738 28.3373 -2.6477 0.0913 0 7
-6.0271 28.2444 -2.6477 0.0913 0 7
-6.4788 28.1442 -2.6477 0.0913 0 7
-6.9289 28.0368 -2.6477 0.0913 0 7
-7.3772 27.9222 -2.6477 0.0913 0 7
-7.8236 27.8004 -2.6477 0.0913 0 7
-8.2680 27.6715 -2.6477 0.0913 0 7
-8.7102 27.5355 -2.6477 0.0913 0 7
-9.1503 27.3924 -2.6477 0.0913 0 7
-9.5880 27.2423 -2.6477 0.0913 0 7
-10.0232 27.0851 -2.6477 0.0913 0 7
-10.4558 26.9211 -2.6477 0.0913 0 7
-10.8858 26.7501 -2.6477 0.0913 0 7
-11.3130 26.5723 -2.6477 0.0913 0 7
-11.7373 26.3876 -2.6477 0.0913 0 7
-12.1585 26.1962 -2.6477 0.0913 0 7
-12.5767 25.9980 -2.6477 0.0913 0 7
-12.9916 25.7932 -2.6477 0.0913 0 7
-13.4031 25.5817 -2.6477 0.0913 0 7
-13.8113 25.3637 -2.6477 0.0913 0 7
-14.2159 25.1392 -2.6477 0.0913 0 7
-14.6168 24.9082 -2.6477 0.0913 0 7
-15.0140 24.6708 -2.6477 0.0913 0 7
-15.4073 24.4271 -2.6477 0.0913 0 7
-15.7967 24.1771 -2.6477 0.0913 0 7
-16.1820 23.9209 -2.6477 0.0913 0 7
-16.5632 23.6586 -2.6477 0.0913 0 7
-16.0138 22.1112 -2.5029 0.0913 0 14
-16.3660 21.8518 -2.5029 0.0913 0 14
-16.7140 21.5868 -2.5029 0.0913 0 14
-17.0577 21.3162 -2.5029 0.0913 0 14
11.5218 22.2009 -2.5029 0.0996 0 14
11.1646 22.3827 -2.5029 0.0996 0 8
11.4295 23.8636 -2.6477 0.0996 0 7
11.0457 24.0437 -2.6477 0.0996 0 7
10.6591 24.2175 -2.6477 0.0996 0 7
10.2697 24.3852 -2.6477 0.0996 0 7
9.8777 24.5466 -2.6477 0.0996 0 7
9.4832 24.7017 -2.6477 0.0996 0 7
9.0862 24.8504 -2.6477 0.0996 0 7
8.6869 24.9929 -2.6477 0.0996 0 7
8.2854 25.1288 -2.6477 0.0996 0 7
7.8817 25.2583 -2.6477 0.0996 0 7
7.4761 25.3814 -2.6477 0.0996 0 7
7.0684 25.4979 -2.6477 0.0996 0 7
6.6590 25.6079 -2.6477 0.0996 0 7
6.2479 25.7113 -2.6477 0.0996 0 7
5.8352 25.8081 -2.6477 0.0996 0 7
5.4209 25.8982 -2.6477 0.0996 0 7
5.0053 25.9818 -2.6477 0.0996 0 7
4.5884 26.0586 -2.6477 0.0996 0 7
4.1703 26.1288 -2.6477 0.0996 0 7
3.7512 26.1922 -2.6477 0.0996 0 7
3.3311 26.2490 -2.6477 0.0996 0 7
2.9101 26.2990 -2.6477 0.0996 0 7
2.4884 26.3422 -2.6477 0.0996 0 7
2.0660 26.3787 -2.6477 0.0996 0 7
1.6431 26.4084 -2.6477 0.0996 0 7
1.2198 26.4314 -2.6477 0.0996 0 7
0.7962 26.4475 -2.6477 0.0996 0 7
0.3723 26.4569 -2.6477 0.0996 0 6
-0.0516 26.4595 -2.6477 0.0996 0 6
-0.4755 26.4552 -2.6477 0.0996 0 6
-0.8993 26.4442 -2.6477 0.0996 0 6
-1.3228 26.4264 -2.6477 0.0996 0 6
-1.7461 26.4018 -2.6477 0.0996 0 7
-2.1688 26.3705 -2.6477 0.0996 0 7
-2.5910 26.3323 -2.6477 0.0996 0 7
-3.0126 26.2874 -2.6477 0.0996 0 7
-3.4334 26.2358 -2.6477 0.0996 0 7
-3.8532 26.1774 -2.6477 0.0996 0 7
-4.2722 26.1123 -2.6477 0.0996 0 7
-4.6900 26.0405 -2.6477 0.0996 0 7
-5.1066 25.9621 -2.6477 0.0996 0 7
-5.5219 25.8769 -2.6477 0.0996 0 7
-5.9357 25.7851 -2.6477 0.0996 0 7
-6.3481 25.6867 -2.6477 0.0996 0 7
-6.7588 25.5817 -2.6477 0.0996 0 7
-7.1678 25.4701 -2.6477 0.0996 0 7
-7.5749 25.3520 -2.6477 0.0996 0 7
-7.9802 25.2274 -2.6477 0.0996 0 7
-8.3833 25.0963 -2.6477 0.0996 0 7
-8.7843 24.9588 -2.6477 0.0996 0 7
-9.1830 24.8149 -2.6477 0.0996 0 7
-9.5794 24.6646 -2.6477 0.0996 0 7
-9.9734 24.5079 -2.6477 0.0996 0 7
-10.3647 24.3450 -2.6477 0.0996 0 7
-10.7534 24.1758 -2.6477 0.0996 0 7
-11.1394 24.0004 -2.6477 0.0996 0 7
-11.5225 23.8189 -2.6477 0.0996 0 7
-11.2518 22.3390 -2.5029 0.0996 0 8
-11.6082 22.1559 -2.5029 0.0996 0 14
-11.9617 21.9670 -2.5029 0.0996 0 14
-12.3121 21.7726 -2.5029 0.0996 0 14
-12.6593 21.5725 -2.5029 0.0996 0 14
-13.0033 21.3669 -2.5029 0.0996 0 14
-13.3440 21.1559 -2.5029 0.0996 0 14
-13.6812 20.9394 -2.5029 0.0996 0 14
-14.0150 20.7175 -2.5029 0.0996 0 14
-14.3451 20.4903 -2.5029 0.0996 0 14
-14.6715 20.2578 -2.5029 0.0996 0 14
-14.9942 20.0202 -2.5029 0.0996 0 14
-15.3130 19.7773 -2.5029 0.0996 0 14
-15.6279 19.5295 -2.5029 0.0996 0 14
10.6293 20.4813 -2.5029 0.1078 0 14
10.2998 20.6490 -2.5029 0.1078 0 14
9.9676 20.8113 -2.5029 0.1078 0 14
9.6329 20.9684 -2.5029 0.1078 0 14
9.2958 21.1200 -2.5029 0.1078 0 14
8.9562 21.2662 -2.5029 0.1078 0 14
8.6143 21.4070 -2.5029 0.1078 0 14
8.2703 21.5422 -2.5029 0.1078 0 14
7.9241 21.6720 -2.5029 0.1078 0 14
7.5758 21.7961 -2.5029 0.1078 0 14
7.2257 21.9147 -2.5029 0.1078 0 14
6.8736 22.0277 -2.5029 0.1078 0 14
6.5198 22.1350 -2.5029 0.1078 0 14
6.1644 22.2366 -2.5029 0.1078 0 14
5.8073 22.3325 -2.5029 0.1078 0 8
5.7639 23.7197 -2.6477 0.1078 0 7
5.3832 23.8090 -2.6477 0.1078 0 7
5.0010 23.8922 -2.6477 0.1078 0 7
4.6176 23.9693 -2.6477 0.1078 0 7
4.2330 24.0402 -2.6477 0.1078 0 7
3.8473 24.1049 -2.6477 0.1078 0 7
3.4606 24.1634 -2.6477 0.1078 0 7
3.0730 24.2158 -2.6477 0.1078 0 7
2.6847 24.2619 -2.6477 0.1078 0 7
2.2956 24.3018 -2.6477 0.1078 0 7
1.9060 24.3355 -2.6477 0.1078 0 7
1.5158 24.3629 -2.6477 0.1078 0 7
1.1253 24.3840 -2.6477 0.1078 0 7
0.7345 24.3989 -2.6477 0.1078 0 7
0.3435 24.4076 -2.6477 0.1078 0 7
-0.0476 24.4100 -2.6477 0.1078 0 7
-0.4387 24.4061 -2.6477 0.1078 0 7
-0.8296 24.3959 -2.6477 0.1078 0 7
-1.2204 24.3795 -2.6477 0.1078 0 7
-1.6108 24.3568 -2.6477 0.1078 0 7
-2.0008 24.3279 -2.6477 0.1078 0 7
-2.3903 24.2927 -2.6477 0.1078 0 7
-2.7792 24.2513 -2.6477 0.1078 0 7
-3.1674 24.2036 -2.6477 0.1078 0 7
-3.5548 24.1498 -2.6477 0.1078 0 7
-3.9412 24.0897 -2.6477 0.1078 0 7
-4.3267 24.0235 -2.6477 0.1078 0 7
-4.7110 23.9511 -2.6477 0.1078 0 7
-5.0942 23.8725 -2.6477 0.1078 0 7
-5.4760 23.7878 -2.6477 0.1078 0 7
-5.8564 23.6971 -2.6477 0.1078 0 7
-5.8943 22.3097 -2.5029 0.1078 0 8
-6.2510 22.2124 -2.5029 0.1078 0 14
-6.6061 22.1094 -2.5029 0.1078 0 14
-6.9595 22.0007 -2.5029 0.1078 0 14
-7.3110 21.8864 -2.5029 0.1078 0 14
-7.6607 21.7664 -2.5029 0.1078 0 14
-8.0085 21.6409 -2.5029 0.1078 0 14
-8.3542 21.5098 -2.5029 0.1078 0 14
-8.6977 21.3732 -2.5029 0.1078 0 14
-9.0390 21.2311 -2.5029 0.1078 0 14
-9.3780 21.0836 -2.5029 0.1078 0 14
-9.7146 20.9306 -2.5029 0.1078 0 14
-10.0487 20.7723 -2.5029 0.1078 0 14
-10.3802 20.6087 -2.5029 0.1078 0 14
-10.7091 20.4397 -2.5029 0.1078 0 14
-11.0352 20.2655 -2.5029 0.1078 0 14
-11.3584 20.0861 -2.5029 0.1078 0 14
-11.6788 19.9015 -2.5029 0.1078 0 14
-11.9961 19.7119 -2.5029 0.1078 0 14
-12.3104 19.5172 -2.5029 0.1078 0 14
-12.6215 19.3174 -2.5029 0.1078 0 14
-12.9294 19.1127 -2.5029 0.1078 0 14
-13.2507 18.9270 -2.5061 0.6532 0 8
-13.7005 18.9171 -2.5335 0.8129 0 8
-14.1630 18.9104 -2.5626 0.8037 0 8
-14.6364 18.9034 -2.5932 0.7942 0 8
-15.1211 18.8962 -2.6251 0.7846 0 8
9.8639 19.0065 -2.5029 0.1161 0 8
9.5581 19.1621 -2.5029 0.1161 0 14
9.2499 19.3127 -2.5029 0.1161 0 14
8.9393 19.4584 -2.5029 0.1161 0 14
8.6264 19.5992 -2.5029 0.1161 0 14
8.3113 19.7349 -2.5029 0.1161 0 14
7.9940 19.8655 -2.5029 0.1161 0 14
7.6747 19.9910 -2.5029 0.1161 0 14
7.3535 20.1114 -2.5029 0.1161 0 14
7.0303 20.2266 -2.5029 0.1161 0 14
6.7053 20.3367 -2.5029 0.1161 0 14
6.3787 20.4415 -2.5029 0.1161 0 14
6.0504 20.5411 -2.5029 0.1161 0 14
5.7205 20.6354 -2.5029 0.1161 0 14
5.3891 20.7244 -2.5029 0.1161 0 14
5.0564 20.8080 -2.5029 0.1161 0 14
4.7224 20.8864 -2.5029 0.1161 0 14
4.3871 20.9594 -2.5029 0.1161 0 14
4.0508 21.0270 -2.5029 0.1161 0 14
3.7134 21.0892 -2.5029 0.1161 0 14
3.3750 21.1459 -2.5029 0.1161 0 14
3.0358 21.1973 -2.5029 0.1161 0 14
2.6958 21.2432 -2.5029 0.1161 0 14
2.3551 21.2837 -2.5029 0.1161 0 14
2.0138 21.3187 -2.5029 0.1161 0 14
1.6720 21.3482 -2.5029 0.1161 0 14
1.3298 21.3723 -2.5029 0.1161 0 14
0.9872 21.3908 -2.5029 0.1161 0 14
0.6443 21.4039 -2.5029 0.1161 0 14
0.3013 21.4115 -2.5029 0.1161 0 14
-0.0417 21.4136 -2.5029 0.1161 0 14
-0.3848 21.4101 -2.5029 0.1161 0 14
-0.7278 21.4012 -2.5029 0.1161 0 14
-1.0706 21.3868 -2.5029 0.1161 0 14
-1.4131 21.3669 -2.5029 0.1161 0 14
-1.7552 21.3415 -2.5029 0.1161 0 14
-2.0969 21.3107 -2.5029 0.1161 0 14
-2.4381 21.2743 -2.5029 0.1161 0 14
-2.7786 21.2326 -2.5029 0.1161 0 14
-3.1184 21.1853 -2.5029 0.1161 0 14
-3.4574 21.1326 -2.5029 0.1161 0 14
-3.7956 21.0745 -2.5029 0.1161 0 14
-4.1327 21.0110 -2.5029 0.1161 0 14
-4.4688 20.9421 -2.5029 0.1161 0 14
-4.8038 20.8678 -2.5029 0.1161 0 14
-5.1375 20.7882 -2.5029 0.1161 0 14
-5.4699 20.7032 -2.5029 0.1161 0 14
-5.8009 20.6129 -2.5029 0.1161 0 14
-6.1304 20.5173 -2.5029 0.1161 0 14
-6.4583 20.4165 -2.5029 0.1161 0 14
-6.7846 20.3104 -2.5029 0.1161 0 14
-7.1091 20.1991 -2.5029 0.1161 0 14
-7.4318 20.0826 -2.5029 0.1161 0 14
-7.7526 19.9609 -2.5029 0.1161 0 14
-8.0714 19.8342 -2.5029 0.1161 0 14
-8.3881 19.7023 -2.5029 0.1161 0 14
-8.7027 19.5654 -2.5029 0.1161 0 14
-9.0151 19.4235 -2.5029 0.1161 0 14
-9.3251 19.2765 -2.5029 0.1161 0 14
-9.6328 19.1246 -2.5029 0.1161 0 14
-9.9379 18.9679 -2.5029 0.1161 0 8
-10.3075 18.9291 -2.5193 0.8801 0 8
-10.7013 18.9240 -2.5411 0.8726 0 8
-11.1020 18.9187 -2.5639 0.8648 0 8
-11.5100 18.9131 -2.5878 0.8568 0 8
-11.9258 18.9073 -2.6128 0.8486 0 8
-12.3496 18.9013 -2.6390 0.8402 0 8
-12.6924 18.7624 -2.6477 0.1161 0 7
-12.9914 18.5567 -2.6477 0.1161 0 7
-13.2870 18.3461 -2.6477 0.1161 0 6
-13.5792 18.1309 -2.6477 0.1161 0 7
-13.8680 17.9110 -2.6477 0.1161 0 7
-14.1531 17.6865 -2.6477 0.1161 0 7
9.7323 18.7529 -2.6477 0.1243 0 7
9.4306 18.9064 -2.6477 0.1243 0 7
9.0817 18.9616 -2.6347 0.9014 0 8
8.7122 18.9642 -2.6153 0.9081 0 8
8.3480 18.9666 -2.5969 0.9145 0 8
7.9887 18.9689 -2.5793 0.9208 0 8
7.6341 18.9710 -2.5626 0.9267 0 8
7.2839 18.9729 -2.5468 0.9325 0 8
6.9379 18.9747 -2.5318 0.9380 0 8
6.5958 18.9764 -2.5176 0.9433 0 8
6.2589 18.9825 -2.5048 0.7537 0 8
5.9494 19.0659 -2.5029 0.1243 0 8
5.6432 19.1588 -2.5029 0.1243 0 14
5.3355 19.2467 -2.5029 0.1243 0 14
5.0265 19.3298 -2.5029 0.1243 0 14
4.7161 19.4078 -2.5029 0.1243 0 14
4.4046 19.4809 -2.5029 0.1243 0 14
4.0919 19.5489 -2.5029 0.1243 0 14
3.7782 19.6120 -2.5029 0.1243 0 14
3.4635 19.6700 -2.5029 0.1243 0 14
3.1479 19.7230 -2.5029 0.1243 0 14
2.8315 19.7709 -2.5029 0.1243 0 14
2.5144 19.8137 -2.5029 0.1243 0 14
2.1966 19.8514 -2.5029 0.1243 0 14
1.8783 19.8841 -2.5029 0.1243 0 14
1.5595 19.9116 -2.5029 0.1243 0 14
1.2403 19.9341 -2.5029 0.1243 0 14
0.9207 19.9514 -2.5029 0.1243 0 14
0.6010 19.9636 -2.5029 0.1243 0 14
0.2811 19.9706 -2.5029 0.1243 0 14
-0.0389 19.9726 -2.5029 0.1243 0 14
-0.3589 19.9694 -2.5029 0.1243 0 14
-0.6788 19.9611 -2.5029 0.1243 0 14
-0.9985 19.9476 -2.5029 0.1243 0 14
-1.3180 19.9290 -2.5029 0.1243 0 14
-1.6371 19.9054 -2.5029 0.1243 0 14
-1.9558 19.8766 -2.5029 0.1243 0 14
-2.2740 19.8427 -2.5029 0.1243 0 14
-2.5916 19.8037 -2.5029 0.1243 0 14
-2.9086 19.7597 -2.5029 0.1243 0 14
-3.2248 19.7105 -2.5029 0.1243 0 14
-3.5402 19.6563 -2.5029 0.1243 0 14
-3.8546 19.5971 -2.5029 0.1243 0 14
-4.1681 19.5328 -2.5029 0.1243 0 14
-4.4805 19.4635 -2.5029 0.1243 0 14
-4.7918 19.3893 -2.5029 0.1243 0 14
-5.1018 19.3100 -2.5029 0.1243 0 14
-5.4105 19.2258 -2.5029 0.1243 0 14
-5.7178 19.1366 -2.5029 0.1243 0 14
-6.0237 19.0426 -2.5029 0.1243 0 8
-6.3297 18.9488 -2.5036 0.7540 0 8
-6.6659 18.9398 -2.5162 0.9439 0 8
-7.0076 18.9363 -2.5303 0.9386 0 8
-7.3532 18.9325 -2.5452 0.9331 0 8
-7.7029 18.9287 -2.5610 0.9273 0 8
-8.0570 18.9246 -2.5775 0.9214 0 8
-8.4158 18.9204 -2.5950 0.9152 0 8
-8.7795 18.9160 -2.6134 0.9088 0 8
-9.1484 18.9114 -2.6326 0.9021 0 8
-9.5042 18.8695 -2.6477 0.1243 0 7
-9.8053 18.7148 -2.6477 0.1243 0 7
-10.1039 18.5553 -2.6477 0.1243 0 7
-10.3999 18.3911 -2.6477 0.1243 0 6
-10.6932 18.2221 -2.6477 0.1243 0 7
-10.9838 18.0484 -2.6477 0.1243 0 7
-11.2715 17.8701 -2.6477 0.1243 0 7
-11.5564 17.6872 -2.6477 0.1243 0 7
-11.8383 17.4998 -2.6477 0.1243 0 7
-12.1171 17.3079 -2.6477 0.1243 0 7
-12.3929 17.1116 -2.6477 0.1243 0 7
-12.6654 16.9108 -2.6477 0.1243 0 7
-12.9347 16.7057 -2.6477 0.1243 0 7
-13.2007 16.4964 -2.6477 0.1243 0 7
9.1175 17.5682 -2.6477 0.1326 0 7
8.8348 17.7120 -2.6477 0.1326 0 7
8.5499 17.8513 -2.6477 0.1326 0 7
8.2628 17.9860 -2.6477 0.1326 0 7
7.9736 18.1160 -2.6477 0.1326 0 7
7.6823 18.2415 -2.6477 0.1326 0 7
7.3891 18.3622 -2.6477 0.1326 0 7
7.0939 18.4783 -2.6477 0.1326 0 6
6.7970 18.5895 -2.6477 0.1326 0 7
6.4983 18.6960 -2.6477 0.1326 0 7
6.1979 18.7977 -2.6477 0.1326 0 7
5.8960 18.8946 -2.6477 0.1326 0 7
5.5818 18.9504 -2.6426 0.9583 0 8
5.2537 18.9517 -2.6307 0.9626 0 8
4.9285 18.9529 -2.6196 0.9667 0 8
4.6059 18.9539 -2.6092 0.9705 0 8
4.2857 18.9548 -2.5995 0.9741 0 8
3.9677 18.9556 -2.5906 0.9775 0 8
3.6519 18.9562 -2.5823 0.9806 0 8
3.3379 18.9568 -2.5748 0.9835 0 8
3.0257 18.9572 -2.5679 0.9861 0 8
2.7150 18.9575 -2.5618 0.9885 0 8
2.4058 18.9576 -2.5562 0.9906 0 8
2.0977 18.9577 -2.5514 0.9925 0 8
1.7908 18.9576 -2.5472 0.9942 0 8
1.4848 18.9574 -2.5436 0.9956 0 8
1.1795 18.9571 -2.5407 0.9967 0 8
0.8748 18.9567 -2.5385 0.9976 0 8
0.5707 18.9561 -2.5368 0.9982 0 8
0.2668 18.9554 -2.5359 0.9986 0 8
-0.0370 18.9566 -2.5358 0.9970 0 8
-0.3407 18.9557 -2.5360 0.9987 0 8
-0.6446 18.9539 -2.5369 0.9983 0 8
-0.9487 18.9521 -2.5383 0.9978 0 8
-1.2533 18.9504 -2.5405 0.9968 0 8
-1.5584 18.9490 -2.5433 0.9957 0 8
-1.8644 18.9475 -2.5468 0.9943 0 8
-2.1712 18.9459 -2.5509 0.9927 0 8
-2.4791 18.9441 -2.5557 0.9909 0 8
-2.7883 18.9423 -2.5612 0.9887 0 8
-3.0988 18.9403 -2.5673 0.9864 0 8
-3.4108 18.9382 -2.5741 0.9838 0 8
-3.7246 18.9359 -2.5815 0.9809 0 8
-4.0402 18.9335 -2.5897 0.9778 0 8
-4.3579 18.9310 -2.5986 0.9745 0 8
-4.6779 18.9283 -2.6082 0.9709 0 8
-5.0002 18.9255 -2.6185 0.9671 0 8
-5.3252 18.9226 -2.6295 0.9630 0 8
-5.6529 18.9195 -2.6413 0.9587 0 8
-5.9696 18.8715 -2.6477 0.1326 0 7
-6.2712 18.7735 -2.6477 0.1326 0 7
-6.5711 18.6706 -2.6477 0.1326 0 7
-6.8694 18.5629 -2.6477 0.1326 0 7
-7.1659 18.4505 -2.6477 0.1326 0 6
-7.4606 18.3333 -2.6477 0.1326 0 7
-7.7534 18.2114 -2.6477 0.1326 0 7
-8.0442 18.0848 -2.6477 0.1326 0 7
-8.3329 17.9536 -2.6477 0.1326 0 7
-8.6194 17.8178 -2.6477 0.1326 0 7
-8.9038 17.6774 -2.6477 0.1326 0 7
-9.1859 17.5325 -2.6477 0.1326 0 7
-9.4656 17.3831 -2.6477 0.1326 0 7
-9.7429 17.2292 -2.6477 0.1326 0 7
-10.0177 17.0709 -2.6477 0.1326 0 7
-10.2899 16.9082 -2.6477 0.1326 0 7
-10.5595 16.7412 -2.6477 0.1326 0 7
-10.8263 16.5699 -2.6477 0.1326 0 7
-11.0904 16.3943 -2.6477 0.1326 0 7
-11.3517 16.2145 -2.6477 0.1326 0 7
-11.6100 16.0306 -2.6477 0.1326 0 7
-11.8653 15.8425 -2.6477 0.1326 0 7
-12.1176 15.6503 -2.6477 0.1326 0 7
-12.3668 15.4542 -2.6477 0.1326 0 7
8.5746 16.5221 -2.6477 0.1408 0 7
8.3087 16.6573 -2.6477 0.1408 0 7
8.0408 16.7883 -2.6477 0.1408 0 7
7.7708 16.9150 -2.6477 0.1408 0 7
7.4988 17.0373 -2.6477 0.1408 0 7
7.2249 17.1553 -2.6477 0.1408 0 7
6.9491 17.2688 -2.6477 0.1408 0 7
6.6715 17.3780 -2.6477 0.1408 0 7
6.3923 17.4826 -2.6477 0.1408 0 7
6.1114 17.5828 -2.6477 0.1408 0 7
5.8289 17.6784 -2.6477 0.1408 0 7
5.5449 17.7695 -2.6477 0.1408 0 7
5.2595 17.8561 -2.6477 0.1408 0 7
4.9727 17.9381 -2.6477 0.1408 0 7
4.6847 18.0154 -2.6477 0.1408 0 7
4.3955 18.0882 -2.6477 0.1408 0 7
4.1051 18.1563 -2.6477 0.1408 0 7
3.8137 18.2197 -2.6477 0.1408 0 7
3.5213 18.2785 -2.6477 0.1408 0 7
3.2280 18.3326 -2.6477 0.1408 0 7
2.9339 18.3819 -2.6477 0.1408 0 6
2.6390 18.4266 -2.6477 0.1408 0 6
2.3434 18.4665 -2.6477 0.1408 0 6
2.0474 18.5017 -2.6477 0.1408 0 6
1.7506 18.5321 -2.6477 0.1408 0 7
1.4535 18.5577 -2.6477 0.1408 0 7
1.1559 18.5787 -2.6477 0.1408 0 7
0.8581 18.5948 -2.6477 0.1408 0 7
0.5601 18.6061 -2.6477 0.1408 0 7
0.2619 18.6127 -2.6477 0.1408 0 7
-0.0363 18.6145 -2.6477 0.1408 0 7
-0.3345 18.6116 -2.6477 0.1408 0 7
-0.6327 18.6038 -2.6477 0.1408 0 7
-0.9306 18.5913 -2.6477 0.1408 0 7
-1.2284 18.5740 -2.6477 0.1408 0 7
-1.5258 18.5519 -2.6477 0.1408 0 7
-1.8228 18.5251 -2.6477 0.1408 0 7
-2.1194 18.4935 -2.6477 0.1408 0 7
-2.4154 18.4572 -2.6477 0.1408 0 6
-2.7108 18.4161 -2.6477 0.1408 0 6
-3.0055 18.3703 -2.6477 0.1408 0 6
-3.2994 18.3198 -2.6477 0.1408 0 7
-3.5925 18.2646 -2.6477 0.1408 0 7
-3.8847 18.2047 -2.6477 0.1408 0 7
-4.1759 18.1401 -2.6477 0.1408 0 7
-4.4660 18.0709 -2.6477 0.1408 0 7
-4.7549 17.9970 -2.6477 0.1408 0 7
-5.0426 17.9185 -2.6477 0.1408 0 7
-5.3291 17.8355 -2.6477 0.1408 0 7
-5.6141 17.7478 -2.6477 0.1408 0 7
-5.8977 17.6556 -2.6477 0.1408 0 7
-6.1799 17.5588 -2.6477 0.1408 0 7
-6.4604 17.4576 -2.6477 0.1408 0 7
-6.7392 17.3518 -2.6477 0.1408 0 7
-7.0164 17.2416 -2.6477 0.1408 0 7
-7.2917 17.1270 -2.6477 0.1408 0 7
-7.5652 17.0080 -2.6477 0.1408 0 7
-7.8367 16.8846 -2.6477 0.1408 0 7
-8.1062 16.7569 -2.6477 0.1408 0 7
-8.3736 16.6248 -2.6477 0.1408 0 7
-8.6389 16.4885 -2.6477 0.1408 0 7
-8.9020 16.3480 -2.6477 0.1408 0 7
-9.1627 16.2033 -2.6477 0.1408 0 7
-9.4212 16.0544 -2.6477 0.1408 0 7
-9.6772 15.9014 -2.6477 0.1408 0 7
-9.9307 15.7443 -2.6477 0.1408 0 7
-10.1817 15.5832 -2.6477 0.1408 0 7
-10.4300 15.4181 -2.6477 0.1408 0 7
-10.6757 15.2490 -2.6477 0.1408 0 7
-10.9186 15.0760 -2.6477 0.1408 0 7
-11.1588 14.8991 -2.6477 0.1408 0 7
-11.3961 14.7184 -2.6477 0.1408 0 7
-11.6304 14.5340 -2.6477 0.1408 0 7
8.0916 15.5915 -2.6477 0.1490 0 7
7.8408 15.7191 -2.6477 0.1490 0 7
7.5879 15.8427 -2.6477 0.1490 0 7
7.3331 15.9623 -2.6477 0.1490 0 7
7.0765 16.0777 -2.6477 0.1490 0 7
6.8180 16.1890 -2.6477 0.1490 0 7
6.5577 16.2962 -2.6477 0.1490 0 7
6.2958 16.3992 -2.6477 0.1490 0 7
6.0322 16.4979 -2.6477 0.1490 0 7
5.7671 16.5925 -2.6477 0.1490 0 7
5.5006 16.6827 -2.6477 0.1490 0 7
5.2326 16.7687 -2.6477 0.1490 0 7
4.9633 16.8504 -2.6477 0.1490 0 7
4.6927 16.9277 -2.6477 0.1490 0 7
4.4208 17.0007 -2.6477 0.1490 0 7
4.1479 17.0694 -2.6477 0.1490 0 7
3.8739 17.1337 -2.6477 0.1490 0 7
3.5989 17.1935 -2.6477 0.1490 0 7
3.3230 17.2490 -2.6477 0.1490 0 7
3.0462 17.3000 -2.6477 0.1490 0 7
2.7686 17.3466 -2.6477 0.1490 0 7
2.4904 17.3887 -2.6477 0.1490 0 7
2.2115 17.4264 -2.6477 0.1490 0 7
1.9320 17.4596 -2.6477 0.1490 0 7
1.6520 17.4883 -2.6477 0.1490 0 7
1.3716 17.5125 -2.6477 0.1490 0 7
1.0908 17.5322 -2.6477 0.1490 0 7
0.8098 17.5475 -2.6477 0.1490 0 7
0.5286 17.5582 -2.6477 0.1490 0 7
0.2472 17.5644 -2.6477 0.1490 0 7
-0.0342 17.5661 -2.6477 0.1490 0 7
-0.3157 17.5633 -2.6477 0.1490 0 7
-0.5970 17.5560 -2.6477 0.1490 0 7
-0.8782 17.5442 -2.6477 0.1490 0 7
-1.1592 17.5279 -2.6477 0.1490 0 7
-1.4398 17.5070 -2.6477 0.1490 0 7
-1.7202 17.4817 -2.6477 0.1490 0 7
-2.0000 17.4519 -2.6477 0.1490 0 7
-2.2794 17.4176 -2.6477 0.1490 0 7
-2.5581 17.3789 -2.6477 0.1490 0 7
-2.8362 17.3357 -2.6477 0.1490 0 7
-3.1136 17.2880 -2.6477 0.1490 0 7
-3.3902 17.2359 -2.6477 0.1490 0 7
-3.6659 17.1794 -2.6477 0.1490 0 7
-3.9407 17.1184 -2.6477 0.1490 0 7
-4.2144 17.0531 -2.6477 0.1490 0 7
-4.4871 16.9834 -2.6477 0.1490 0 7
-4.7586 16.9093 -2.6477 0.1490 0 7
-5.0289 16.8309 -2.6477 0.1490 0 7
-5.2979 16.7482 -2.6477 0.1490 0 7
-5.5656 16.6611 -2.6477 0.1490 0 7
-5.8318 16.5698 -2.6477 0.1490 0 7
-6.0965 16.4743 -2.6477 0.1490 0 7
-6.3597 16.3745 -2.6477 0.1490 0 7
-6.6212 16.2705 -2.6477 0.1490 0 7
-6.8810 16.1623 -2.6477 0.1490 0 7
-7.1391 16.0500 -2.6477 0.1490 0 7
-7.3953 15.9336 -2.6477 0.1490 0 7
-7.6496 15.8131 -2.6477 0.1490 0 7
-7.9020 15.6885 -2.6477 0.1490 0 7
-8.1523 15.5598 -2.6477 0.1490 0 7
-8.4006 15.4272 -2.6477 0.1490 0 7
-8.6467 15.2907 -2.6477 0.1490 0 7
-8.8905 15.1502 -2.6477 0.1490 0 7
-9.1321 15.0058 -2.6477 0.1490 0 7
-9.3714 14.8576 -2.6477 0.1490 0 7
-9.6082 14.7055 -2.6477 0.1490 0 7
-9.8426 14.5497 -2.6477 0.1490 0 7
-10.0744 14.3901 -2.6477 0.1490 0 7
-10.3037 14.2269 -2.6477 0.1490 0 7
-10.5303 14.0600 -2.6477 0.1490 0 7
-10.7542 13.8894 -2.6477 0.1490 0 7
-10.9753 13.7154 -2.6477 0.1490 0 7
7.6591 14.7582 -2.6477 0.1573 0 7
7.4217 14.8790 -2.6477 0.1573 0 7
7.1824 14.9960 -2.6477 0.1573 0 6
6.9412 15.1092 -2.6477 0.1573 0 7
6.6982 15.2184 -2.6477 0.1573 0 7
6.4536 15.3238 -2.6477 0.1573 0 7
6.2072 15.4252 -2.6477 0.1573 0 7
5.9593 15.5227 -2.6477 0.1573 0 7
5.7098 15.6162 -2.6477 0.1573 0 7
5.4589 15.7056 -2.6477 0.1573 0 7
5.2066 15.7911 -2.6477 0.1573 0 7
4.9529 15.8725 -2.6477 0.1573 0 7
4.6980 15.9498 -2.6477 0.1573 0 7
4.4418 16.0230 -2.6477 0.1573 0 7
4.1846 16.0921 -2.6477 0.1573 0 7
3.9262 16.1571 -2.6477 0.1573 0 7
3.6669 16.2179 -2.6477 0.1573 0 7
3.4065 16.2746 -2.6477 0.1573 0 7
3.1454 16.3271 -2.6477 0.1573 0 7
2.8834 16.3754 -2.6477 0.1573 0 7
2.6207 16.4195 -2.6477 0.1573 0 7
2.3572 16.4593 -2.6477 0.1573 0 7
2.0933 16.4950 -2.6477 0.1573 0 7
1.8287 16.5264 -2.6477 0.1573 0 7
1.5637 16.5536 -2.6477 0.1573 0 7
1.2983 16.5765 -2.6477 0.1573 0 7
1.0325 16.5952 -2.6477 0.1573 0 7
0.7665 16.6096 -2.6477 0.1573 0 7
0.5003 16.6198 -2.6477 0.1573 0 7
0.2340 16.6256 -2.6477 0.1573 0 7
-0.0324 16.6273 -2.6477 0.1573 0 7
-0.2988 16.6246 -2.6477 0.1573 0 7
-0.5651 16.6177 -2.6477 0.1573 0 7
-0.8313 16.6065 -2.6477 0.1573 0 7
-1.0972 16.5910 -2.6477 0.1573 0 7
-1.3629 16.5713 -2.6477 0.1573 0 7
-1.6282 16.5474 -2.6477 0.1573 0 7
-1.8931 16.5192 -2.6477 0.1573 0 7
-2.1575 16.4867 -2.6477 0.1573 0 7
-2.4214 16.4500 -2.6477 0.1573 0 7
-2.6846 16.4091 -2.6477 0.1573 0 7
-2.9472 16.3640 -2.6477 0.1573 0 7
-3.2090 16.3147 -2.6477 0.1573 0 7
-3.4700 16.2612 -2.6477 0.1573 0 7
-3.7301 16.2035 -2.6477 0.1573 0 7
-3.9892 16.1417 -2.6477 0.1573 0 7
-4.2473 16.0757 -2.6477 0.1573 0 7
-4.5043 16.0056 -2.6477 0.1573 0 7
-4.7601 15.9314 -2.6477 0.1573 0 7
-5.0148 15.8530 -2.6477 0.1573 0 7
-5.2681 15.7707 -2.6477 0.1573 0 7
-5.5201 15.6842 -2.6477 0.1573 0 7
-5.7707 15.5938 -2.6477 0.1573 0 7
-6.0198 15.4993 -2.6477 0.1573 0 7
-6.2673 15.4009 -2.6477 0.1573 0 7
-6.5132 15.2985 -2.6477 0.1573 0 7
-6.7575 15.1922 -2.6477 0.1573 0 7
-7.0000 15.0820 -2.6477 0.1573 0 7
-7.2408 14.9679 -2.6477 0.1573 0 6
-7.4797 14.8500 -2.6477 0.1573 0 7
-7.7166 14.7282 -2.6477 0.1573 0 7
-7.9516 14.6027 -2.6477 0.1573 0 7
-8.1845 14.4734 -2.6477 0.1573 0 7
-8.4154 14.3404 -2.6477 0.1573 0 7
-8.6440 14.2038 -2.6477 0.1573 0 7
-8.8705 14.0635 -2.6477 0.1573 0 7
-9.0947 13.9195 -2.6477 0.1573 0 7
-9.3165 13.7720 -2.6477 0.1573 0 7
-9.5360 13.6210 -2.6477 0.1573 0 7
-9.7530 13.4665 -2.6477 0.1573 0 7
-9.9675 13.3085 -2.6477 0.1573 0 7
-10.1794 13.1471 -2.6477 0.1573 0 7
-10.3887 12.9823 -2.6477 0.1573 0 7
7.2696 14.0075 -2.6477 0.1655 0 7
7.0442 14.1222 -2.6477 0.1655 0 7
6.8171 14.2333 -2.6477 0.1655 0 7
6.5881 14.3407 -2.6477 0.1655 0 7
6.3575 14.4444 -2.6477 0.1655 0 7
6.1253 14.5444 -2.6477 0.1655 0 7
5.8915 14.6406 -2.6477 0.1655 0 7
5.6562 14.7331 -2.6477 0.1655 0 7
5.4194 14.8219 -2.6477 0.1655 0 7
5.1813 14.9068 -2.6477 0.1655 0 7
4.9418 14.9879 -2.6477 0.1655 0 7
4.7010 15.0651 -2.6477 0.1655 0 7
4.4590 15.1385 -2.6477 0.1655 0 7
4.2159 15.2080 -2.6477 0.1655 0 7
3.9717 15.2736 -2.6477 0.1655 0 7
3.7265 15.3353 -2.6477 0.1655 0 7
3.4803 15.3930 -2.6477 0.1655 0 7
3.2333 15.4468 -2.6477 0.1655 0 7
2.9854 15.4966 -2.6477 0.1655 0 7
2.7367 15.5425 -2.6477 0.1655 0 7
2.4874 15.5843 -2.6477 0.1655 0 7
2.2374 15.6222 -2.6477 0.1655 0 7
1.9868 15.6560 -2.6477 0.1655 0 7
1.7357 15.6858 -2.6477 0.1655 0 7
1.4842 15.7116 -2.6477 0.1655 0 7
1.2322 15.7334 -2.6477 0.1655 0 7
0.9800 15.7511 -2.6477 0.1655 0 7
0.7275 15.7648 -2.6477 0.1655 0 7
0.4749 15.7744 -2.6477 0.1655 0 7
0.2221 15.7800 -2.6477 0.1655 0 7
-0.0308 15.7815 -2.6477 0.1655 0 7
-0.2836 15.7790 -2.6477 0.1655 0 7
-0.5364 15.7725 -2.6477 0.1655 0 7
-0.7890 15.7618 -2.6477 0.1655 0 7
-1.0414 15.7472 -2.6477 0.1655 0 7
-1.2936 15.7285 -2.6477 0.1655 0 7
-1.5454 15.7057 -2.6477 0.1655 0 7
-1.7968 15.6790 -2.6477 0.1655 0 7
-2.0478 15.6482 -2.6477 0.1655 0 7
-2.2982 15.6133 -2.6477 0.1655 0 7
-2.5481 15.5745 -2.6477 0.1655 0 7
-2.7973 15.5317 -2.6477 0.1655 0 7
-3.0458 15.4849 -2.6477 0.1655 0 7
-3.2935 15.4341 -2.6477 0.1655 0 7
-3.5403 15.3793 -2.6477 0.1655 0 7
-3.7863 15.3206 -2.6477 0.1655 0 7
-4.0312 15.2580 -2.6477 0.1655 0 7
-4.2752 15.1915 -2.6477 0.1655 0 7
-4.5180 15.1210 -2.6477 0.1655 0 7
-4.7597 15.0467 -2.6477 0.1655 0 7
-5.0002 14.9685 -2.6477 0.1655 0 7
-5.2393 14.8865 -2.6477 0.1655 0 7
-5.4772 14.8006 -2.6477 0.1655 0 7
-5.7136 14.7110 -2.6477 0.1655 0 7
-5.9485 14.6176 -2.6477 0.1655 0 7
-6.1820 14.5204 -2.6477 0.1655 0 7
-6.4138 14.4195 -2.6477 0.1655 0 7
-6.6440 14.3149 -2.6477 0.1655 0 7
-6.8725 14.2066 -2.6477 0.1655 0 7
-7.0992 14.0946 -2.6477 0.1655 0 7
-7.3241 13.9791 -2.6477 0.1655 0 7
-7.5472 13.8600 -2.6477 0.1655 0 7
-7.7682 13.7373 -2.6477 0.1655 0 7
-7.9873 13.6110 -2.6477 0.1655 0 7
-8.2044 13.4813 -2.6477 0.1655 0 7
-8.4193 13.3482 -2.6477 0.1655 0 7
-8.6321 13.2116 -2.6477 0.1655 0 7
-8.8427 13.0716 -2.6477 0.1655 0 7
-9.0509 12.9282 -2.6477 0.1655 0 7
-9.2569 12.7815 -2.6477 0.1655 0 7
-9.4605 12.6316 -2.6477 0.1655 0 7
-9.6617 12.4784 -2.6477 0.1655 0 7
-9.8603 12.3220 -2.6477 0.1655 0 7
6.9168 13.3278 -2.6477 0.1736 0 7
6.7024 13.4369 -2.6477 0.1736 0 7
6.4862 13.5425 -2.6477 0.1736 0 7
6.2684 13.6447 -2.6477 0.1736 0 7
6.0490 13.7434 -2.6477 0.1736 0 7
5.8281 13.8385 -2.6477 0.1736 0 7
5.6056 13.9301 -2.6477 0.1736 0 7
5.3817 14.0181 -2.6477 0.1736 0 7
5.1564 14.1026 -2.6477 0.1736 0 7
4.9298 14.1834 -2.6477 0.1736 0 7
4.7019 14.2605 -2.6477 0.1736 0 7
4.4729 14.3340 -2.6477 0.1736 0 7
4.2426 14.4039 -2.6477 0.1736 0 7
4.0113 14.4700 -2.6477 0.1736 0 7
3.7790 14.5324 -2.6477 0.1736 0 7
3.5457 14.5911 -2.6477 0.1736 0 7
3.3114 14.6460 -2.6477 0.1736 0 7
3.0764 14.6972 -2.6477 0.1736 0 7
2.8405 14.7446 -2.6477 0.1736 0 7
2.6039 14.7882 -2.6477 0.1736 0 7
2.3666 14.8280 -2.6477 0.1736 0 7
2.1288 14.8640 -2.6477 0.1736 0 7
1.8904 14.8962 -2.6477 0.1736 0 7
1.6515 14.9246 -2.6477 0.1736 0 7
1.4121 14.9491 -2.6477 0.1736 0 7
1.1724 14.9698 -2.6477 0.1736 0 7
0.9325 14.9867 -2.6477 0.1736 0 7
0.6922 14.9997 -2.6477 0.1736 0 7
0.4518 15.0089 -2.6477 0.1736 0 7
0.2113 15.0142 -2.6477 0.1736 0 7
-0.0293 15.0157 -2.6477 0.1736 0 7
-0.2698 15.0133 -2.6477 0.1736 0 7
-0.5103 15.0070 -2.6477 0.1736 0 7
-0.7507 14.9969 -2.6477 0.1736 0 7
-0.9909 14.9830 -2.6477 0.1736 0 6
-1.2308 14.9652 -2.6477 0.1736 0 6
-1.4704 14.9435 -2.6477 0.1736 0 6
-1.7095 14.9180 -2.6477 0.1736 0 7
-1.9483 14.8887 -2.6477 0.1736 0 7
-2.1867 14.8556 -2.6477 0.1736 0 7
-2.4244 14.8187 -2.6477 0.1736 0 7
-2.6615 14.7779 -2.6477 0.1736 0 7
-2.8980 14.7334 -2.6477 0.1736 0 7
-3.1336 14.6851 -2.6477 0.1736 0 7
-3.3685 14.6330 -2.6477 0.1736 0 7
-3.6025 14.5771 -2.6477 0.1736 0 7
-3.8356 14.5175 -2.6477 0.1736 0 7
-4.0677 14.4542 -2.6477 0.1736 0 7
-4.2988 14.3872 -2.6477 0.1736 0 7
-4.5287 14.3165 -2.6477 0.1736 0 7
-4.7575 14.2421 -2.6477 0.1736 0 7
-4.9851 14.1640 -2.6477 0.1736 0 7
-5.2114 14.0824 -2.6477 0.1736 0 7
-5.4363 13.9971 -2.6477 0.1736 0 7
-5.6599 13.9082 -2.6477 0.1736 0 7
-5.8820 13.8157 -2.6477 0.1736 0 7
-6.1025 13.7197 -2.6477 0.1736 0 7
-6.3216 13.6202 -2.6477 0.1736 0 7
-6.5390 13.5171 -2.6477 0.1736 0 7
-6.7547 13.4106 -2.6477 0.1736 0 7
-6.9687 13.3007 -2.6477 0.1736 0 7
-7.1809 13.1873 -2.6477 0.1736 0 7
-7.3913 13.0706 -2.6477 0.1736 0 7
-7.5997 12.9505 -2.6477 0.1736 0 7
-7.8062 12.8271 -2.6477 0.1736 0 7
-8.0107 12.7004 -2.6477 0.1736 0 7
-8.2132 12.5704 -2.6477 0.1736 0 7
-8.4135 12.4372 -2.6477 0.1736 0 7
-8.6117 12.3008 -2.6477 0.1736 0 7
-8.8077 12.1613 -2.6477 0.1736 0 7
-9.0014 12.0186 -2.6477 0.1736 0 7
-9.1928 11.8728 -2.6477 0.1736 0 7
-9.3818 11.7240 -2.6477 0.1736 0 7
6.5957 12.7092 -2.6477 0.1818 0 7
6.3913 12.8132 -2.6477 0.1818 0 7
6.1852 12.9140 -2.6477 0.1818 0 7
5.9775 13.0114 -2.6477 0.1818 0 7
5.7683 13.1055 -2.6477 0.1818 0 7
5.5576 13.1962 -2.6477 0.1818 0 7
5.3454 13.2836 -2.6477 0.1818 0 7
5.1319 13.3675 -2.6477 0.1818 0 7
4.9171 13.4480 -2.6477 0.1818 0 7
4.7010 13.5251 -2.6477 0.1818 0 7
4.4837 13.5987 -2.6477 0.1818 0 7
4.2653 13.6687 -2.6477 0.1818 0 7
4.0457 13.7353 -2.6477 0.1818 0 7
3.8251 13.7984 -2.6477 0.1818 0 7
3.6036 13.8579 -2.6477 0.1818 0 7
3.3811 13.9138 -2.6477 0.1818 0 7
3.1577 13.9662 -2.6477 0.1818 0 7
2.9336 14.0150 -2.6477 0.1818 0 7
2.7087 14.0602 -2.6477 0.1818 0 7
2.4830 14.1018 -2.6477 0.1818 0 7
2.2568 14.1398 -2.6477 0.1818 0 7
2.0300 14.1741 -2.6477 0.1818 0 7
1.8026 14.2048 -2.6477 0.1818 0 7
1.5748 14.2319 -2.6477 0.1818 0 7
1.3466 14.2553 -2.6477 0.1818 0 7
1.1180 14.2750 -2.6477 0.1818 0 7
0.8892 14.2911 -2.6477 0.1818 0 7
0.6601 14.3035 -2.6477 0.1818 0 7
0.4309 14.3123 -2.6477 0.1818 0 7
0.2015 14.3173 -2.6477 0.1818 0 7
-0.0279 14.3187 -2.6477 0.1818 0 7
-0.2573 14.3165 -2.6477 0.1818 0 7
-0.4866 14.3105 -2.6477 0.1818 0 7
-0.7159 14.3009 -2.6477 0.1818 0 7
-0.9449 14.2876 -2.6477 0.1818 0 7
-1.1737 14.2706 -2.6477 0.1818 0 7
-1.4022 14.2499 -2.6477 0.1818 0 7
-1.6303 14.2257 -2.6477 0.1818 0 7
-1.8580 14.1977 -2.6477 0.1818 0 7
-2.0852 14.1661 -2.6477 0.1818 0 7
-2.3119 14.1309 -2.6477 0.1818 0 7
-2.5380 14.0920 -2.6477 0.1818 0 7
-2.7635 14.0496 -2.6477 0.1818 0 7
-2.9882 14.0035 -2.6477 0.1818 0 7
-3.2122 13.9538 -2.6477 0.1818 0 7
