ply
format ascii 1.0
element vertex 1429
property float32 x
property float32 y
property float32 z
property float32 CosAngle
property uint32 ObjIdx
property uint32 ObjTag
end_header
10.6130 2.6237 -2.4953 0.2225 0 8
10.5695 2.7938 -2.4953 0.2225 0 8
10.5232 2.9632 -2.4953 0.2225 0 8
10.4743 3.1319 -2.4953 0.2225 0 8
10.4226 3.2997 -2.4953 0.2225 0 8
10.3683 3.4667 -2.4953 0.2225 0 8
10.3113 3.6328 -2.4953 0.2225 0 8
10.2516 3.7979 -2.4953 0.2225 0 8
10.1893 3.9621 -2.4953 0.2225 0 8
10.1243 4.1252 -2.4953 0.2225 0 8
10.0568 4.2873 -2.4953 0.2225 0 8
9.9866 4.4483 -2.4953 0.2225 0 8
9.9139 4.6081 -2.4953 0.2225 0 8
9.8386 4.7667 -2.4953 0.2225 0 8
9.7608 4.9242 -2.4953 0.2225 0 8
9.6804 5.0803 -2.4953 0.2225 0 8
9.5976 5.2351 -2.4953 0.2225 0 8
9.5122 5.3886 -2.4953 0.2225 0 8
9.4245 5.5407 -2.4953 0.2225 0 8
9.3342 5.6913 -2.4953 0.2225 0 8
9.2416 5.8405 -2.4953 0.2225 0 8
9.1466 5.9882 -2.4953 0.2225 0 8
9.0493 6.1343 -2.4953 0.2225 0 8
8.9496 6.2789 -2.4953 0.2225 0 8
8.8476 6.4218 -2.4953 0.2225 0 8
8.7433 6.5631 -2.4953 0.2225 0 8
8.6368 6.7027 -2.4953 0.2225 0 8
8.5280 6.8405 -2.4953 0.2225 0 8
8.4170 6.9766 -2.4953 0.2225 0 8
8.3039 7.1109 -2.4953 0.2225 0 8
8.1886 7.2434 -2.4953 0.2225 0 8
8.0712 7.3740 -2.4953 0.2225 0 8
7.9517 7.5027 -2.4953 0.2225 0 8
7.8302 7.6294 -2.4953 0.2225 0 8
7.7066 7.7542 -2.4953 0.2225 0 8
7.5811 7.8770 -2.4953 0.2225 0 8
7.4536 7.9977 -2.4953 0.2225 0 8
7.3242 8.1164 -2.4953 0.2225 0 8
7.1929 8.2330 -2.4953 0.2225 0 8
7.0597 8.3474 -2.4953 0.2225 0 8
6.9247 8.4598 -2.4953 0.2225 0 8
9.7614 -3.9449 -2.4953 0.2306 0 8
9.8235 -3.7876 -2.4953 0.2306 0 8
9.8830 -3.6294 -2.4953 0.2306 0 8
9.9401 -3.4702 -2.4953 0.2306 0 8
9.9945 -3.3101 -2.4953 0.2306 0 8
10.0464 -3.1491 -2.4953 0.2306 0 8
10.0957 -2.9873 -2.4953 0.2306 0 8
10.1424 -2.8248 -2.4953 0.2306 0 8
10.1864 -2.6615 -2.4953 0.2306 0 8
10.2278 -2.4976 -2.4953 0.2306 0 8
10.2666 -2.3330 -2.4953 0.2306 0 8
10.3028 -2.1678 -2.4953 0.2306 0 8
10.3363 -2.0020 -2.4953 0.2306 0 8
10.3671 -1.8358 -2.4953 0.2306 0 8
10.3952 -1.6690 -2.4953 0.2306 0 8
10.4207 -1.5018 -2.4953 0.2306 0 8
10.4435 -1.3343 -2.4953 0.2306 0 8
10.4636 -1.1663 -2.4953 0.2306 0 8
7.8250 -0.7452 -1.8630 0.2799 25 10
7.6590 -0.6054 -1.8209 0.8527 25 10
7.6039 -0.4783 -1.8057 0.8599 25 10
7.5764 -0.3545 -1.7976 0.9390 25 10
7.5620 -0.2322 -1.7931 0.9668 25 10
7.5547 -0.1106 -1.7907 0.9681 25 10
7.5499 0.0108 -1.7894 0.9299 25 10
7.5560 0.1322 -1.7911 0.9679 25 10
7.5633 0.2538 -1.7935 0.9666 25 10
7.5810 0.3764 -1.7989 0.9384 25 10
7.6137 0.5007 -1.8084 0.8586 25 10
7.6689 0.6282 -1.8237 0.8514 25 10
7.8910 0.7742 -1.8792 0.4550 25 10
10.4602 1.1962 -2.4953 0.2306 0 8
10.4396 1.3640 -2.4953 0.2306 0 8
10.4164 1.5315 -2.4953 0.2306 0 8
10.3904 1.6986 -2.4953 0.2306 0 8
10.3618 1.8653 -2.4953 0.2306 0 8
10.3305 2.0315 -2.4953 0.2306 0 8
10.2966 2.1972 -2.4953 0.2306 0 8
10.2599 2.3623 -2.4953 0.2306 0 8
10.2207 2.5267 -2.4953 0.2306 0 8
10.1788 2.6906 -2.4953 0.2306 0 8
10.1343 2.8537 -2.4953 0.2306 0 8
10.0871 3.0161 -2.4953 0.2306 0 8
10.0374 3.1777 -2.4953 0.2306 0 8
9.9850 3.3385 -2.4953 0.2306 0 8
9.9301 3.4985 -2.4953 0.2306 0 8
9.8727 3.6575 -2.4953 0.2306 0 8
9.8126 3.8156 -2.4953 0.2306 0 8
9.7501 3.9727 -2.4953 0.2306 0 8
9.6850 4.1288 -2.4953 0.2306 0 8
9.6175 4.2838 -2.4953 0.2306 0 8
9.5474 4.4378 -2.4953 0.2306 0 8
9.4749 4.5905 -2.4953 0.2306 0 8
9.3999 4.7421 -2.4953 0.2306 0 8
9.3226 4.8925 -2.4953 0.2306 0 8
9.2428 5.0416 -2.4953 0.2306 0 8
9.1606 5.1894 -2.4953 0.2306 0 8
9.0761 5.3359 -2.4953 0.2306 0 8
8.9892 5.4810 -2.4953 0.2306 0 8
8.9000 5.6246 -2.4953 0.2306 0 8
8.8085 5.7668 -2.4953 0.2306 0 8
8.7148 5.9076 -2.4953 0.2306 0 8
8.6188 6.0468 -2.4953 0.2306 0 8
8.5205 6.1844 -2.4953 0.2306 0 8
8.4201 6.3205 -2.4953 0.2306 0 8
8.3175 6.4549 -2.4953 0.2306 0 8
8.2128 6.5877 -2.4953 0.2306 0 8
8.1059 6.7187 -2.4953 0.2306 0 8
7.9969 6.8481 -2.4953 0.2306 0 8
7.8859 6.9756 -2.4953 0.2306 0 8
7.7728 7.1014 -2.4953 0.2306 0 8
7.6578 7.2253 -2.4953 0.2306 0 8
7.5408 7.3474 -2.4953 0.2306 0 8
7.4218 7.4675 -2.4953 0.2306 0 8
7.3009 7.5858 -2.4953 0.2306 0 8
7.1781 7.7021 -2.4953 0.2306 0 8
7.0535 7.8164 -2.4953 0.2306 0 8
6.9270 7.9286 -2.4953 0.2306 0 8
6.7988 8.0389 -2.4953 0.2306 0 8
6.6688 8.1470 -2.4953 0.2306 0 8
9.4121 -3.8038 -2.4953 0.2387 0 8
9.4720 -3.6521 -2.4953 0.2387 0 8
9.5294 -3.4995 -2.4953 0.2387 0 8
9.5844 -3.3460 -2.4953 0.2387 0 8
9.6369 -3.1916 -2.4953 0.2387 0 8
9.6869 -3.0364 -2.4953 0.2387 0 8
9.7344 -2.8804 -2.4953 0.2387 0 8
9.7794 -2.7237 -2.4953 0.2387 0 8
9.8219 -2.5663 -2.4953 0.2387 0 8
9.8619 -2.4082 -2.4953 0.2387 0 8
9.8993 -2.2495 -2.4953 0.2387 0 8
9.9341 -2.0902 -2.4953 0.2387 0 8
9.9664 -1.9304 -2.4953 0.2387 0 8
9.9961 -1.7701 -2.4953 0.2387 0 8
10.0233 -1.6093 -2.4953 0.2387 0 8
10.0478 -1.4481 -2.4953 0.2387 0 8
10.0698 -1.2865 -2.4953 0.2387 0 8
10.0892 -1.1246 -2.4953 0.2387 0 8
7.8361 -0.7463 -1.9348 0.4574 25 10
7.6637 -0.6058 -1.8896 0.7673 25 10
7.6066 -0.4785 -1.8734 0.8578 25 10
7.5774 -0.3546 -1.8646 0.9370 25 10
7.5627 -0.2322 -1.8598 0.9648 25 10
7.5569 -0.1106 -1.8577 0.9271 25 10
7.5598 0.0108 -1.8582 0.9268 25 10
7.5567 0.1322 -1.8577 0.9659 25 10
7.5639 0.2539 -1.8603 0.9645 25 10
7.5820 0.3765 -1.8659 0.9363 25 10
7.6163 0.5009 -1.8761 0.8566 25 10
7.6769 0.6289 -1.8933 0.7658 25 10
7.8764 0.7728 -1.9453 0.4550 25 10
10.0859 1.1534 -2.4953 0.2387 0 8
10.0661 1.3152 -2.4953 0.2387 0 8
10.0437 1.4767 -2.4953 0.2387 0 8
10.0186 1.6379 -2.4953 0.2387 0 8
9.9910 1.7986 -2.4953 0.2387 0 8
9.9609 1.9588 -2.4953 0.2387 0 8
9.9281 2.1185 -2.4953 0.2387 0 8
9.8928 2.2777 -2.4953 0.2387 0 8
9.8550 2.4363 -2.4953 0.2387 0 8
9.8146 2.5943 -2.4953 0.2387 0 8
9.7716 2.7516 -2.4953 0.2387 0 8
9.7262 2.9082 -2.4953 0.2387 0 8
9.6782 3.0640 -2.4953 0.2387 0 8
9.6277 3.2191 -2.4953 0.2387 0 8
9.5748 3.3733 -2.4953 0.2387 0 8
9.5194 3.5266 -2.4953 0.2387 0 8
9.4615 3.6791 -2.4953 0.2387 0 8
9.4012 3.8306 -2.4953 0.2387 0 8
9.3385 3.9811 -2.4953 0.2387 0 8
9.2733 4.1306 -2.4953 0.2387 0 8
9.2058 4.2790 -2.4953 0.2387 0 8
9.1359 4.4263 -2.4953 0.2387 0 8
9.0636 4.5724 -2.4953 0.2387 0 8
8.9890 4.7174 -2.4953 0.2387 0 8
8.9120 4.8612 -2.4953 0.2387 0 8
8.8328 5.0037 -2.4953 0.2387 0 8
8.7513 5.1449 -2.4953 0.2387 0 8
8.6675 5.2848 -2.4953 0.2387 0 8
8.5815 5.4234 -2.4953 0.2387 0 8
8.4933 5.5605 -2.4953 0.2387 0 8
8.4029 5.6962 -2.4953 0.2387 0 8
8.3104 5.8304 -2.4953 0.2387 0 8
8.2156 5.9631 -2.4953 0.2387 0 8
8.1188 6.0943 -2.4953 0.2387 0 8
8.0199 6.2239 -2.4953 0.2387 0 8
7.9189 6.3519 -2.4953 0.2387 0 8
7.8158 6.4783 -2.4953 0.2387 0 8
7.7108 6.6030 -2.4953 0.2387 0 8
7.6037 6.7260 -2.4953 0.2387 0 8
7.4947 6.8473 -2.4953 0.2387 0 8
7.3838 6.9668 -2.4953 0.2387 0 8
7.2709 7.0845 -2.4953 0.2387 0 8
7.1562 7.2003 -2.4953 0.2387 0 8
7.0396 7.3143 -2.4953 0.2387 0 8
6.9212 7.4265 -2.4953 0.2387 0 8
6.8011 7.5367 -2.4953 0.2387 0 8
6.6791 7.6449 -2.4953 0.2387 0 8
6.5555 7.7512 -2.4953 0.2387 0 8
6.4301 7.8555 -2.4953 0.2387 0 8
9.0856 -3.6718 -2.4953 0.2468 0 8
9.1434 -3.5254 -2.4953 0.2468 0 8
9.1989 -3.3781 -2.4953 0.2468 0 8
9.2520 -3.2299 -2.4953 0.2468 0 8
9.3026 -3.0809 -2.4953 0.2468 0 8
9.3509 -2.9308 -2.4953 0.2468 0 8
9.3968 -2.7805 -2.4953 0.2468 0 8
9.4402 -2.6292 -2.4953 0.2468 0 8
9.4813 -2.4773 -2.4953 0.2468 0 8
9.5198 -2.3247 -2.4953 0.2468 0 8
9.5559 -2.1715 -2.4953 0.2468 0 8
9.5896 -2.0177 -2.4953 0.2468 0 8
9.6207 -1.8634 -2.4953 0.2468 0 8
9.6494 -1.7087 -2.4953 0.2468 0 8
9.6756 -1.5535 -2.4953 0.2468 0 8
9.6993 -1.3979 -2.4953 0.2468 0 8
9.7205 -1.2419 -2.4953 0.2468 0 8
9.7392 -1.0856 -2.4953 0.2468 0 8
7.8307 -0.7457 -2.0030 0.4011 25 10
7.6770 -0.6069 -1.9609 0.7644 25 10
7.6095 -0.4787 -1.9414 0.9140 25 10
7.5791 -0.3547 -1.9320 0.9185 25 10
7.5634 -0.2323 -1.9268 0.9240 25 10
7.5669 -0.1108 -1.9270 0.9240 25 10
7.5698 0.0108 -1.9275 0.9237 25 10
7.5662 0.1323 -1.9269 0.9240 25 10
7.5646 0.2539 -1.9273 0.9624 25 10
7.5845 0.3766 -1.9336 0.9177 25 10
7.6189 0.5011 -1.9442 0.8545 25 10
7.6903 0.6300 -1.9647 0.7629 25 10
7.8739 0.7725 -2.0146 0.3988 25 10
9.7361 1.1134 -2.4953 0.2468 0 8
9.7170 1.2696 -2.4953 0.2468 0 8
9.6953 1.4255 -2.4953 0.2468 0 8
9.6712 1.5811 -2.4953 0.2468 0 8
9.6445 1.7362 -2.4953 0.2468 0 8
9.6154 1.8909 -2.4953 0.2468 0 8
9.5838 2.0451 -2.4953 0.2468 0 8
9.5497 2.1987 -2.4953 0.2468 0 8
9.5131 2.3518 -2.4953 0.2468 0 8
9.4741 2.5043 -2.4953 0.2468 0 8
9.4327 2.6562 -2.4953 0.2468 0 8
9.3888 2.8073 -2.4953 0.2468 0 8
9.3425 2.9578 -2.4953 0.2468 0 8
9.2938 3.1074 -2.4953 0.2468 0 8
9.2427 3.2563 -2.4953 0.2468 0 8
9.1892 3.4043 -2.4953 0.2468 0 8
9.1333 3.5515 -2.4953 0.2468 0 8
9.0751 3.6977 -2.4953 0.2468 0 8
9.0146 3.8430 -2.4953 0.2468 0 8
8.9517 3.9873 -2.4953 0.2468 0 8
8.8865 4.1306 -2.4953 0.2468 0 8
8.8190 4.2728 -2.4953 0.2468 0 8
8.7492 4.4139 -2.4953 0.2468 0 8
8.6772 4.5538 -2.4953 0.2468 0 8
8.6029 4.6926 -2.4953 0.2468 0 8
8.5265 4.8302 -2.4953 0.2468 0 8
8.4478 4.9665 -2.4953 0.2468 0 8
8.3669 5.1015 -2.4953 0.2468 0 8
8.2839 5.2353 -2.4953 0.2468 0 8
8.1988 5.3676 -2.4953 0.2468 0 8
8.1115 5.4986 -2.4953 0.2468 0 8
8.0221 5.6282 -2.4953 0.2468 0 8
7.9307 5.7563 -2.4953 0.2468 0 8
7.8372 5.8830 -2.4953 0.2468 0 8
7.7417 6.0081 -2.4953 0.2468 0 8
7.6442 6.1316 -2.4953 0.2468 0 8
7.5447 6.2536 -2.4953 0.2468 0 8
7.4433 6.3740 -2.4953 0.2468 0 8
7.3400 6.4927 -2.4953 0.2468 0 8
7.2348 6.6098 -2.4953 0.2468 0 8
7.1277 6.7251 -2.4953 0.2468 0 8
7.0187 6.8387 -2.4953 0.2468 0 8
6.9080 6.9506 -2.4953 0.2468 0 8
6.7955 7.0607 -2.4953 0.2468 0 8
6.6812 7.1689 -2.4953 0.2468 0 8
6.5652 7.2753 -2.4953 0.2468 0 8
6.4475 7.3798 -2.4953 0.2468 0 8
6.3281 7.4824 -2.4953 0.2468 0 8
6.2071 7.5831 -2.4953 0.2468 0 8
8.7798 -3.5482 -2.4953 0.2548 0 8
8.8357 -3.4068 -2.4953 0.2548 0 8
8.8893 -3.2644 -2.4953 0.2548 0 8
8.9405 -3.1212 -2.4953 0.2548 0 8
8.9895 -2.9772 -2.4953 0.2548 0 8
9.0362 -2.8324 -2.4953 0.2548 0 8
9.0805 -2.6869 -2.4953 0.2548 0 8
9.1225 -2.5408 -2.4953 0.2548 0 8
9.1621 -2.3939 -2.4953 0.2548 0 8
9.1994 -2.2464 -2.4953 0.2548 0 8
9.2343 -2.0984 -2.4953 0.2548 0 8
9.2668 -1.9498 -2.4953 0.2548 0 8
9.2969 -1.8007 -2.4953 0.2548 0 8
9.3246 -1.6511 -2.4953 0.2548 0 8
9.3500 -1.5012 -2.4953 0.2548 0 8
9.3729 -1.3508 -2.4953 0.2548 0 8
9.3934 -1.2001 -2.4953 0.2548 0 8
9.4114 -1.0491 -2.4953 0.2548 0 8
7.8739 -0.7499 -2.0842 0.5454 25 10
7.6988 -0.6086 -2.0350 0.7169 25 10
7.6215 -0.4794 -2.0122 0.8124 25 10
7.5881 -0.3551 -2.0017 0.8459 25 10
7.5757 -0.2326 -1.9971 0.8886 25 10
7.5794 -0.1109 -1.9974 0.8885 25 10
7.5798 0.0108 -1.9973 0.9288 25 10
7.5787 0.1326 -1.9973 0.8885 25 10
7.5750 0.2542 -1.9971 0.8886 25 10
7.5937 0.3771 -2.0034 0.8451 25 10
7.6349 0.5021 -2.0161 0.7236 25 10
7.7126 0.6318 -2.0391 0.7212 25 10
7.9038 0.7755 -2.0926 0.5431 25 10
9.4084 1.0759 -2.4953 0.2548 0 8
9.3899 1.2269 -2.4953 0.2548 0 8
9.3690 1.3775 -2.4953 0.2548 0 8
9.3456 1.5278 -2.4953 0.2548 0 8
9.3199 1.6778 -2.4953 0.2548 0 8
9.2918 1.8272 -2.4953 0.2548 0 8
9.2612 1.9762 -2.4953 0.2548 0 8
9.2283 2.1247 -2.4953 0.2548 0 8
9.1930 2.2727 -2.4953 0.2548 0 8
9.1553 2.4200 -2.4953 0.2548 0 8
9.1152 2.5668 -2.4953 0.2548 0 8
9.0728 2.7128 -2.4953 0.2548 0 8
9.0281 2.8582 -2.4953 0.2548 0 8
8.9810 3.0028 -2.4953 0.2548 0 8
8.9316 3.1467 -2.4953 0.2548 0 8
8.8799 3.2897 -2.4953 0.2548 0 8
8.8259 3.4319 -2.4953 0.2548 0 8
8.7697 3.5733 -2.4953 0.2548 0 8
8.7112 3.7137 -2.4953 0.2548 0 8
8.6504 3.8531 -2.4953 0.2548 0 8
8.5874 3.9915 -2.4953 0.2548 0 8
8.5222 4.1289 -2.4953 0.2548 0 8
8.4547 4.2653 -2.4953 0.2548 0 8
8.3851 4.4005 -2.4953 0.2548 0 8
8.3134 4.5346 -2.4953 0.2548 0 8
8.2395 4.6676 -2.4953 0.2548 0 8
8.1634 4.7993 -2.4953 0.2548 0 8
8.0853 4.9298 -2.4953 0.2548 0 8
8.0051 5.0590 -2.4953 0.2548 0 8
7.9228 5.1870 -2.4953 0.2548 0 8
7.8385 5.3136 -2.4953 0.2548 0 8
7.7521 5.4388 -2.4953 0.2548 0 8
7.6638 5.5626 -2.4953 0.2548 0 8
7.5734 5.6849 -2.4953 0.2548 0 8
7.4811 5.8059 -2.4953 0.2548 0 8
7.3869 5.9253 -2.4953 0.2548 0 8
7.2908 6.0431 -2.4953 0.2548 0 8
7.1928 6.1595 -2.4953 0.2548 0 8
7.0929 6.2742 -2.4953 0.2548 0 8
6.9913 6.3873 -2.4953 0.2548 0 8
6.8878 6.4988 -2.4953 0.2548 0 8
6.7825 6.6086 -2.4953 0.2548 0 8
6.6755 6.7167 -2.4953 0.2548 0 8
6.5667 6.8230 -2.4953 0.2548 0 8
6.4563 6.9276 -2.4953 0.2548 0 8
6.3442 7.0304 -2.4953 0.2548 0 8
6.2305 7.1314 -2.4953 0.2548 0 8
6.1151 7.2305 -2.4953 0.2548 0 8
5.9982 7.3278 -2.4953 0.2548 0 8
8.4927 -3.4322 -2.4953 0.2628 0 8
8.5468 -3.2954 -2.4953 0.2628 0 8
8.5986 -3.1577 -2.4953 0.2628 0 8
8.6482 -3.0191 -2.4953 0.2628 0 8
8.6956 -2.8799 -2.4953 0.2628 0 8
8.7407 -2.7398 -2.4953 0.2628 0 8
8.7836 -2.5991 -2.4953 0.2628 0 8
8.8242 -2.4577 -2.4953 0.2628 0 8
8.8625 -2.3156 -2.4953 0.2628 0 8
8.8986 -2.1730 -2.4953 0.2628 0 8
8.9323 -2.0298 -2.4953 0.2628 0 8
8.9638 -1.8860 -2.4953 0.2628 0 8
8.9929 -1.7418 -2.4953 0.2628 0 8
9.0197 -1.5972 -2.4953 0.2628 0 8
9.0442 -1.4521 -2.4953 0.2628 0 8
9.0664 -1.3066 -2.4953 0.2628 0 8
9.0862 -1.1609 -2.4953 0.2628 0 8
9.1037 -1.0148 -2.4953 0.2628 0 8
7.8867 -0.7511 -2.1581 0.5433 25 10
7.7219 -0.6104 -2.1101 0.7189 25 10
7.6445 -0.4809 -2.0865 0.7212 25 10
7.6060 -0.3559 -2.0742 0.8420 25 10
7.5917 -0.2331 -2.0690 0.8847 25 10
7.5921 -0.1111 -2.0684 0.9252 25 10
7.5882 0.0108 -2.0671 0.9257 25 10
7.5930 0.1328 -2.0687 0.9250 25 10
7.5910 0.2548 -2.0690 0.8847 25 10
7.6119 0.3780 -2.0761 0.8122 25 10
7.6582 0.5037 -2.0907 0.7198 25 10
7.7357 0.6337 -2.1143 0.7174 25 10
7.9167 0.7767 -2.1669 0.5411 25 10
9.1007 1.0407 -2.4953 0.2628 0 8
9.0828 1.1868 -2.4953 0.2628 0 8
9.0626 1.3325 -2.4953 0.2628 0 8
9.0400 1.4779 -2.4953 0.2628 0 8
9.0151 1.6229 -2.4953 0.2628 0 8
8.9879 1.7675 -2.4953 0.2628 0 8
8.9584 1.9116 -2.4953 0.2628 0 8
8.9265 2.0552 -2.4953 0.2628 0 8
8.8923 2.1983 -2.4953 0.2628 0 8
8.8559 2.3409 -2.4953 0.2628 0 8
8.8171 2.4828 -2.4953 0.2628 0 8
8.7761 2.6241 -2.4953 0.2628 0 8
8.7328 2.7647 -2.4953 0.2628 0 8
8.6873 2.9046 -2.4953 0.2628 0 8
8.6395 3.0438 -2.4953 0.2628 0 8
8.5895 3.1822 -2.4953 0.2628 0 8
8.5373 3.3197 -2.4953 0.2628 0 8
8.4829 3.4564 -2.4953 0.2628 0 8
8.4263 3.5922 -2.4953 0.2628 0 8
8.3675 3.7271 -2.4953 0.2628 0 8
8.3066 3.8610 -2.4953 0.2628 0 8
8.2435 3.9939 -2.4953 0.2628 0 8
8.1783 4.1258 -2.4953 0.2628 0 8
8.1109 4.2566 -2.4953 0.2628 0 8
8.0415 4.3864 -2.4953 0.2628 0 8
7.9700 4.5150 -2.4953 0.2628 0 8
7.8965 4.6424 -2.4953 0.2628 0 8
7.8209 4.7686 -2.4953 0.2628 0 8
7.7433 4.8936 -2.4953 0.2628 0 8
7.6637 5.0174 -2.4953 0.2628 0 8
7.5821 5.1398 -2.4953 0.2628 0 8
7.4986 5.2609 -2.4953 0.2628 0 8
7.4131 5.3807 -2.4953 0.2628 0 8
7.3258 5.4990 -2.4953 0.2628 0 8
7.2365 5.6160 -2.4953 0.2628 0 8
7.1454 5.7315 -2.4953 0.2628 0 8
7.0524 5.8455 -2.4953 0.2628 0 8
6.9576 5.9580 -2.4953 0.2628 0 8
6.8610 6.0690 -2.4953 0.2628 0 8
6.7626 6.1784 -2.4953 0.2628 0 8
6.6625 6.2863 -2.4953 0.2628 0 8
6.5607 6.3925 -2.4953 0.2628 0 8
6.4572 6.4970 -2.4953 0.2628 0 8
6.3520 6.5999 -2.4953 0.2628 0 8
6.2452 6.7011 -2.4953 0.2628 0 8
6.1367 6.8005 -2.4953 0.2628 0 8
6.0267 6.8982 -2.4953 0.2628 0 8
5.9152 6.9941 -2.4953 0.2628 0 8
5.8021 7.0882 -2.4953 0.2628 0 8
8.2226 -3.3231 -2.4953 0.2708 0 8
8.2749 -3.1906 -2.4953 0.2708 0 8
8.3251 -3.0572 -2.4953 0.2708 0 8
8.3731 -2.9231 -2.4953 0.2708 0 8
8.4190 -2.7883 -2.4953 0.2708 0 8
8.4627 -2.6527 -2.4953 0.2708 0 8
8.5042 -2.5164 -2.4953 0.2708 0 8
8.5435 -2.3795 -2.4953 0.2708 0 8
8.5807 -2.2420 -2.4953 0.2708 0 8
8.6156 -2.1039 -2.4953 0.2708 0 8
8.6482 -1.9652 -2.4953 0.2708 0 8
8.6787 -1.8261 -2.4953 0.2708 0 8
8.7069 -1.6864 -2.4953 0.2708 0 8
8.7329 -1.5464 -2.4953 0.2708 0 8
8.7566 -1.4059 -2.4953 0.2708 0 8
8.7780 -1.2651 -2.4953 0.2708 0 8
8.7972 -1.1239 -2.4953 0.2708 0 8
8.8141 -0.9825 -2.4953 0.2708 0 8
8.3330 -0.7936 -2.3552 0.6463 25 10
7.7452 -0.6123 -2.1860 0.7151 25 10
7.6680 -0.4824 -2.1617 0.7173 25 10
7.6269 -0.3569 -2.1482 0.8089 25 10
7.6055 -0.2335 -2.1409 0.9211 25 10
7.6006 -0.1113 -2.1387 0.9220 25 10
7.5967 0.0108 -2.1374 0.9226 25 10
7.6015 0.1329 -2.1390 0.9219 25 10
7.6064 0.2553 -2.1413 0.9209 25 10
7.6336 0.3790 -2.1504 0.8081 25 10
7.6816 0.5052 -2.1659 0.7217 25 10
7.7636 0.6360 -2.1917 0.5512 25 10
8.3336 0.8176 -2.3560 0.6461 25 10
8.8113 1.0076 -2.4953 0.2708 0 8
8.7940 1.1490 -2.4953 0.2708 0 8
8.7744 1.2901 -2.4953 0.2708 0 8
8.7525 1.4309 -2.4953 0.2708 0 8
8.7284 1.5713 -2.4953 0.2708 0 8
8.7021 1.7113 -2.4953 0.2708 0 8
8.6734 1.8508 -2.4953 0.2708 0 8
8.6426 1.9899 -2.4953 0.2708 0 8
8.6095 2.1284 -2.4953 0.2708 0 8
8.5742 2.2664 -2.4953 0.2708 0 8
8.5367 2.4039 -2.4953 0.2708 0 8
8.4970 2.5407 -2.4953 0.2708 0 8
8.4551 2.6768 -2.4953 0.2708 0 8
8.4110 2.8123 -2.4953 0.2708 0 8
8.3648 2.9470 -2.4953 0.2708 0 8
8.3164 3.0810 -2.4953 0.2708 0 8
8.2658 3.2141 -2.4953 0.2708 0 8
8.2131 3.3465 -2.4953 0.2708 0 8
8.1583 3.4780 -2.4953 0.2708 0 8
8.1014 3.6086 -2.4953 0.2708 0 8
8.0424 3.7382 -2.4953 0.2708 0 8
7.9813 3.8669 -2.4953 0.2708 0 8
7.9182 3.9946 -2.4953 0.2708 0 8
7.8530 4.1213 -2.4953 0.2708 0 8
7.7858 4.2469 -2.4953 0.2708 0 8
7.7166 4.3714 -2.4953 0.2708 0 8
7.6454 4.4947 -2.4953 0.2708 0 8
7.5722 4.6170 -2.4953 0.2708 0 8
7.4970 4.7380 -2.4953 0.2708 0 8
7.4200 4.8578 -2.4953 0.2708 0 8
7.3410 4.9763 -2.4953 0.2708 0 8
7.2601 5.0936 -2.4953 0.2708 0 8
7.1774 5.2095 -2.4953 0.2708 0 8
7.0928 5.3242 -2.4953 0.2708 0 8
7.0064 5.4374 -2.4953 0.2708 0 8
6.9181 5.5492 -2.4953 0.2708 0 8
6.8281 5.6596 -2.4953 0.2708 0 8
6.7363 5.7686 -2.4953 0.2708 0 8
6.6428 5.8760 -2.4953 0.2708 0 8
6.5476 5.9819 -2.4953 0.2708 0 8
6.4506 6.0863 -2.4953 0.2708 0 8
6.3521 6.1892 -2.4953 0.2708 0 8
6.2518 6.2904 -2.4953 0.2708 0 8
6.1500 6.3900 -2.4953 0.2708 0 8
6.0466 6.4879 -2.4953 0.2708 0 8
5.9416 6.5842 -2.4953 0.2708 0 8
5.8351 6.6788 -2.4953 0.2708 0 8
5.7270 6.7717 -2.4953 0.2708 0 8
5.6175 6.8628 -2.4953 0.2708 0 8
7.9680 -3.2202 -2.4953 0.2788 0 8
8.0187 -3.0918 -2.4953 0.2788 0 8
8.0673 -2.9626 -2.4953 0.2788 0 8
8.1139 -2.8326 -2.4953 0.2788 0 8
8.1583 -2.7019 -2.4953 0.2788 0 8
8.2007 -2.5705 -2.4953 0.2788 0 8
8.2409 -2.4385 -2.4953 0.2788 0 8
8.2790 -2.3058 -2.4953 0.2788 0 8
8.3150 -2.1726 -2.4953 0.2788 0 8
8.3488 -2.0387 -2.4953 0.2788 0 8
8.3805 -1.9044 -2.4953 0.2788 0 8
8.4100 -1.7695 -2.4953 0.2788 0 8
8.4373 -1.6342 -2.4953 0.2788 0 8
8.4625 -1.4985 -2.4953 0.2788 0 8
8.4854 -1.3624 -2.4953 0.2788 0 8
8.5062 -1.2259 -2.4953 0.2788 0 8
8.5248 -1.0891 -2.4953 0.2788 0 8
8.5412 -0.9521 -2.4953 0.2788 0 8
8.5554 -0.8148 -2.4953 0.2788 0 8
8.5674 -0.6772 -2.4953 0.2788 0 8
8.5772 -0.5395 -2.4953 0.2788 0 8
8.5847 -0.4017 -2.4953 0.2788 0 8
8.5901 -0.2638 -2.4953 0.2788 0 8
8.5932 -0.1258 -2.4953 0.2788 0 8
8.5941 0.0123 -2.4953 0.2788 0 8
8.5928 0.1503 -2.4953 0.2788 0 8
8.5893 0.2883 -2.4953 0.2788 0 8
8.5835 0.4262 -2.4953 0.2788 0 8
8.5756 0.5640 -2.4953 0.2788 0 8
8.4692 0.6938 -2.4672 0.2999 25 10
8.5530 0.8392 -2.4953 0.2788 0 8
8.5385 0.9764 -2.4953 0.2788 0 8
8.5217 1.1134 -2.4953 0.2788 0 8
8.5027 1.2502 -2.4953 0.2788 0 8
8.4815 1.3866 -2.4953 0.2788 0 8
8.4582 1.5226 -2.4953 0.2788 0 8
8.4326 1.6583 -2.4953 0.2788 0 8
8.4049 1.7935 -2.4953 0.2788 0 8
8.3750 1.9283 -2.4953 0.2788 0 8
8.3429 2.0625 -2.4953 0.2788 0 8
8.3087 2.1963 -2.4953 0.2788 0 8
8.2724 2.3294 -2.4953 0.2788 0 8
8.2339 2.4620 -2.4953 0.2788 0 8
8.1933 2.5939 -2.4953 0.2788 0 8
8.1506 2.7252 -2.4953 0.2788 0 8
8.1058 2.8557 -2.4953 0.2788 0 8
8.0589 2.9856 -2.4953 0.2788 0 8
8.0099 3.1146 -2.4953 0.2788 0 8
7.9588 3.2429 -2.4953 0.2788 0 8
7.9057 3.3703 -2.4953 0.2788 0 8
7.8505 3.4968 -2.4953 0.2788 0 8
7.7934 3.6225 -2.4953 0.2788 0 8
7.7342 3.7472 -2.4953 0.2788 0 8
7.6730 3.8709 -2.4953 0.2788 0 8
7.6098 3.9936 -2.4953 0.2788 0 8
7.5447 4.1154 -2.4953 0.2788 0 8
7.4776 4.2360 -2.4953 0.2788 0 8
7.4086 4.3556 -2.4953 0.2788 0 8
7.3377 4.4740 -2.4953 0.2788 0 8
7.2649 4.5913 -2.4953 0.2788 0 8
7.1902 4.7074 -2.4953 0.2788 0 8
7.1137 4.8222 -2.4953 0.2788 0 8
7.0353 4.9359 -2.4953 0.2788 0 8
6.9551 5.0482 -2.4953 0.2788 0 8
6.8732 5.1593 -2.4953 0.2788 0 8
6.7894 5.2690 -2.4953 0.2788 0 8
6.7039 5.3774 -2.4953 0.2788 0 8
6.6167 5.4844 -2.4953 0.2788 0 8
6.5277 5.5899 -2.4953 0.2788 0 8
6.4371 5.6941 -2.4953 0.2788 0 8
6.3448 5.7967 -2.4953 0.2788 0 8
6.2509 5.8979 -2.4953 0.2788 0 8
6.1554 5.9975 -2.4953 0.2788 0 8
6.0582 6.0956 -2.4953 0.2788 0 8
5.9596 6.1921 -2.4953 0.2788 0 8
5.8593 6.2870 -2.4953 0.2788 0 8
5.7576 6.3803 -2.4953 0.2788 0 8
5.6544 6.4720 -2.4953 0.2788 0 8
5.5497 6.5620 -2.4953 0.2788 0 8
5.4436 6.6503 -2.4953 0.2788 0 8
7.7276 -3.1230 -2.4953 0.2868 0 8
7.7767 -2.9985 -2.4953 0.2868 0 8
7.8239 -2.8732 -2.4953 0.2868 0 8
7.8690 -2.7471 -2.4953 0.2868 0 8
7.9122 -2.6204 -2.4953 0.2868 0 8
7.9532 -2.4930 -2.4953 0.2868 0 8
7.9922 -2.3649 -2.4953 0.2868 0 8
8.0292 -2.2362 -2.4953 0.2868 0 8
8.0641 -2.1070 -2.4953 0.2868 0 8
8.0969 -1.9772 -2.4953 0.2868 0 8
8.1276 -1.8469 -2.4953 0.2868 0 8
8.1562 -1.7161 -2.4953 0.2868 0 8
8.1827 -1.5849 -2.4953 0.2868 0 8
8.2071 -1.4533 -2.4953 0.2868 0 8
8.2294 -1.3213 -2.4953 0.2868 0 8
8.2496 -1.1889 -2.4953 0.2868 0 8
8.2676 -1.0563 -2.4953 0.2868 0 8
8.2835 -0.9233 -2.4953 0.2868 0 8
8.2972 -0.7902 -2.4953 0.2868 0 8
8.3089 -0.6568 -2.4953 0.2868 0 8
8.3183 -0.5233 -2.4953 0.2868 0 8
8.3257 -0.3896 -2.4953 0.2868 0 8
8.3309 -0.2558 -2.4953 0.2868 0 8
8.3339 -0.1220 -2.4953 0.2868 0 8
8.3348 0.0119 -2.4953 0.2868 0 8
8.3335 0.1458 -2.4953 0.2868 0 8
8.3301 0.2796 -2.4953 0.2868 0 8
8.3245 0.4133 -2.4953 0.2868 0 8
8.3168 0.5470 -2.4953 0.2868 0 8
8.3070 0.6805 -2.4953 0.2868 0 8
8.2950 0.8138 -2.4953 0.2868 0 8
8.2808 0.9470 -2.4953 0.2868 0 8
8.2645 1.0798 -2.4953 0.2868 0 8
8.2461 1.2124 -2.4953 0.2868 0 8
8.2256 1.3447 -2.4953 0.2868 0 8
8.2029 1.4767 -2.4953 0.2868 0 8
8.1782 1.6082 -2.4953 0.2868 0 8
8.1513 1.7394 -2.4953 0.2868 0 8
8.1223 1.8701 -2.4953 0.2868 0 8
8.0912 2.0003 -2.4953 0.2868 0 8
8.0580 2.1300 -2.4953 0.2868 0 8
8.0228 2.2591 -2.4953 0.2868 0 8
7.9855 2.3877 -2.4953 0.2868 0 8
7.9461 2.5157 -2.4953 0.2868 0 8
7.9046 2.6430 -2.4953 0.2868 0 8
7.8612 2.7696 -2.4953 0.2868 0 8
7.8157 2.8955 -2.4953 0.2868 0 8
7.7682 3.0206 -2.4953 0.2868 0 8
7.7186 3.1450 -2.4953 0.2868 0 8
7.6671 3.2686 -2.4953 0.2868 0 8
7.6137 3.3913 -2.4953 0.2868 0 8
7.5582 3.5132 -2.4953 0.2868 0 8
7.5008 3.6341 -2.4953 0.2868 0 8
7.4415 3.7541 -2.4953 0.2868 0 8
7.3802 3.8731 -2.4953 0.2868 0 8
7.3170 3.9912 -2.4953 0.2868 0 8
7.2520 4.1082 -2.4953 0.2868 0 8
7.1851 4.2241 -2.4953 0.2868 0 8
7.1163 4.3390 -2.4953 0.2868 0 8
7.0457 4.4527 -2.4953 0.2868 0 8
6.9733 4.5653 -2.4953 0.2868 0 8
6.8990 4.6767 -2.4953 0.2868 0 8
6.8230 4.7869 -2.4953 0.2868 0 8
6.7453 4.8959 -2.4953 0.2868 0 8
6.6658 5.0036 -2.4953 0.2868 0 8
6.5845 5.1100 -2.4953 0.2868 0 8
6.5016 5.2151 -2.4953 0.2868 0 8
6.4170 5.3189 -2.4953 0.2868 0 8
6.3308 5.4213 -2.4953 0.2868 0 8
6.2429 5.5223 -2.4953 0.2868 0 8
6.1534 5.6218 -2.4953 0.2868 0 8
6.0623 5.7199 -2.4953 0.2868 0 8
5.9696 5.8165 -2.4953 0.2868 0 8
5.8754 5.9117 -2.4953 0.2868 0 8
5.7797 6.0053 -2.4953 0.2868 0 8
5.6825 6.0973 -2.4953 0.2868 0 8
5.5839 6.1878 -2.4953 0.2868 0 8
5.4838 6.2767 -2.4953 0.2868 0 8
5.3822 6.3640 -2.4953 0.2868 0 8
5.2793 6.4496 -2.4953 0.2868 0 8
7.5001 -3.0311 -2.4953 0.2948 0 8
7.5479 -2.9102 -2.4953 0.2948 0 8
7.5936 -2.7886 -2.4953 0.2948 0 8
7.6374 -2.6663 -2.4953 0.2948 0 8
7.6793 -2.5433 -2.4953 0.2948 0 8
7.7191 -2.4196 -2.4953 0.2948 0 8
7.7570 -2.2953 -2.4953 0.2948 0 8
7.7929 -2.1704 -2.4953 0.2948 0 8
7.8267 -2.0450 -2.4953 0.2948 0 8
7.8586 -1.9190 -2.4953 0.2948 0 8
7.8884 -1.7925 -2.4953 0.2948 0 8
7.9161 -1.6656 -2.4953 0.2948 0 8
7.9419 -1.5383 -2.4953 0.2948 0 8
7.9656 -1.4105 -2.4953 0.2948 0 8
7.9872 -1.2824 -2.4953 0.2948 0 8
8.0067 -1.1539 -2.4953 0.2948 0 8
8.0242 -1.0252 -2.4953 0.2948 0 8
8.0397 -0.8962 -2.4953 0.2948 0 8
8.0530 -0.7669 -2.4953 0.2948 0 8
8.0643 -0.6375 -2.4953 0.2948 0 8
8.0735 -0.5079 -2.4953 0.2948 0 8
8.0806 -0.3781 -2.4953 0.2948 0 8
8.0857 -0.2483 -2.4953 0.2948 0 8
8.0886 -0.1184 -2.4953 0.2948 0 8
8.0895 0.0115 -2.4953 0.2948 0 8
8.0882 0.1415 -2.4953 0.2948 0 8
8.0849 0.2714 -2.4953 0.2948 0 8
8.0795 0.4012 -2.4953 0.2948 0 8
8.0720 0.5309 -2.4953 0.2948 0 8
8.0625 0.6605 -2.4953 0.2948 0 8
8.0508 0.7899 -2.4953 0.2948 0 8
8.0371 0.9191 -2.4953 0.2948 0 8
8.0213 1.0481 -2.4953 0.2948 0 8
8.0034 1.1768 -2.4953 0.2948 0 8
7.9835 1.3052 -2.4953 0.2948 0 8
7.9615 1.4332 -2.4953 0.2948 0 8
7.9375 1.5609 -2.4953 0.2948 0 8
7.9114 1.6882 -2.4953 0.2948 0 8
7.8832 1.8150 -2.4953 0.2948 0 8
7.8531 1.9414 -2.4953 0.2948 0 8
7.8209 2.0673 -2.4953 0.2948 0 8
7.7866 2.1926 -2.4953 0.2948 0 8
7.7504 2.3174 -2.4953 0.2948 0 8
7.7122 2.4416 -2.4953 0.2948 0 8
7.6720 2.5652 -2.4953 0.2948 0 8
7.6298 2.6881 -2.4953 0.2948 0 8
7.5856 2.8103 -2.4953 0.2948 0 8
7.5395 2.9317 -2.4953 0.2948 0 8
7.4915 3.0524 -2.4953 0.2948 0 8
7.4415 3.1724 -2.4953 0.2948 0 8
7.3896 3.2915 -2.4953 0.2948 0 8
7.3357 3.4098 -2.4953 0.2948 0 8
7.2800 3.5271 -2.4953 0.2948 0 8
7.2224 3.6436 -2.4953 0.2948 0 8
7.1630 3.7591 -2.4953 0.2948 0 8
7.1017 3.8737 -2.4953 0.2948 0 8
7.0385 3.9873 -2.4953 0.2948 0 8
6.9736 4.0998 -2.4953 0.2948 0 8
6.9069 4.2113 -2.4953 0.2948 0 8
6.8383 4.3217 -2.4953 0.2948 0 8
6.7680 4.4310 -2.4953 0.2948 0 8
6.6960 4.5391 -2.4953 0.2948 0 8
6.6222 4.6460 -2.4953 0.2948 0 8
6.5467 4.7518 -2.4953 0.2948 0 8
6.4696 4.8563 -2.4953 0.2948 0 8
6.3907 4.9596 -2.4953 0.2948 0 8
6.3103 5.0616 -2.4953 0.2948 0 8
6.2281 5.1623 -2.4953 0.2948 0 8
6.1444 5.2617 -2.4953 0.2948 0 8
6.0591 5.3597 -2.4953 0.2948 0 8
5.9723 5.4563 -2.4953 0.2948 0 8
5.8839 5.5516 -2.4953 0.2948 0 8
5.7939 5.6453 -2.4953 0.2948 0 8
5.7025 5.7377 -2.4953 0.2948 0 8
5.6096 5.8285 -2.4953 0.2948 0 8
5.5153 5.9179 -2.4953 0.2948 0 8
5.4195 6.0057 -2.4953 0.2948 0 8
5.3224 6.0920 -2.4953 0.2948 0 8
5.2238 6.1767 -2.4953 0.2948 0 8
5.1239 6.2598 -2.4953 0.2948 0 8
7.2846 -2.9440 -2.4953 0.3027 0 8
7.3310 -2.8266 -2.4953 0.3027 0 8
7.3754 -2.7085 -2.4953 0.3027 0 8
7.4180 -2.5897 -2.4953 0.3027 0 8
7.4586 -2.4702 -2.4953 0.3027 0 8
7.4973 -2.3501 -2.4953 0.3027 0 8
7.5341 -2.2294 -2.4953 0.3027 0 8
7.5689 -2.1081 -2.4953 0.3027 0 8
7.6018 -1.9862 -2.4953 0.3027 0 8
7.6328 -1.8639 -2.4953 0.3027 0 8
7.6617 -1.7410 -2.4953 0.3027 0 8
7.6887 -1.6178 -2.4953 0.3027 0 8
7.7137 -1.4941 -2.4953 0.3027 0 8
7.7367 -1.3700 -2.4953 0.3027 0 8
7.7577 -1.2455 -2.4953 0.3027 0 8
7.7767 -1.1208 -2.4953 0.3027 0 8
7.7937 -0.9957 -2.4953 0.3027 0 8
7.8087 -0.8704 -2.4953 0.3027 0 8
7.8216 -0.7449 -2.4953 0.3027 0 8
7.8326 -0.6192 -2.4953 0.3027 0 8
7.8415 -0.4933 -2.4953 0.3027 0 8
7.8484 -0.3673 -2.4953 0.3027 0 8
7.8533 -0.2412 -2.4953 0.3027 0 8
7.8562 -0.1150 -2.4953 0.3027 0 8
7.8570 0.0112 -2.4953 0.3027 0 8
7.8558 0.1374 -2.4953 0.3027 0 8
7.8526 0.2636 -2.4953 0.3027 0 8
7.8474 0.3896 -2.4953 0.3027 0 8
7.8401 0.5156 -2.4953 0.3027 0 8
7.8308 0.6415 -2.4953 0.3027 0 8
7.8195 0.7672 -2.4953 0.3027 0 8
7.8062 0.8927 -2.4953 0.3027 0 8
7.7908 1.0179 -2.4953 0.3027 0 8
7.7735 1.1429 -2.4953 0.3027 0 8
7.7541 1.2677 -2.4953 0.3027 0 8
7.7327 1.3920 -2.4953 0.3027 0 8
7.7094 1.5160 -2.4953 0.3027 0 8
7.6840 1.6397 -2.4953 0.3027 0 8
7.6567 1.7629 -2.4953 0.3027 0 8
7.6274 1.8856 -2.4953 0.3027 0 8
7.5961 2.0079 -2.4953 0.3027 0 8
7.5629 2.1296 -2.4953 0.3027 0 8
7.5277 2.2508 -2.4953 0.3027 0 8
7.4906 2.3715 -2.4953 0.3027 0 8
7.4515 2.4915 -2.4953 0.3027 0 8
7.4106 2.6108 -2.4953 0.3027 0 8
7.3677 2.7295 -2.4953 0.3027 0 8
7.3229 2.8475 -2.4953 0.3027 0 8
7.2762 2.9647 -2.4953 0.3027 0 8
7.2277 3.0812 -2.4953 0.3027 0 8
7.1772 3.1969 -2.4953 0.3027 0 8
7.1250 3.3118 -2.4953 0.3027 0 8
7.0708 3.4258 -2.4953 0.3027 0 8
7.0149 3.5389 -2.4953 0.3027 0 8
6.9572 3.6511 -2.4953 0.3027 0 8
6.8976 3.7624 -2.4953 0.3027 0 8
6.8363 3.8727 -2.4953 0.3027 0 8
6.7732 3.9820 -2.4953 0.3027 0 8
6.7084 4.0903 -2.4953 0.3027 0 8
6.6418 4.1975 -2.4953 0.3027 0 8
6.5736 4.3036 -2.4953 0.3027 0 8
6.5036 4.4087 -2.4953 0.3027 0 8
6.4319 4.5125 -2.4953 0.3027 0 8
6.3586 4.6153 -2.4953 0.3027 0 8
6.2837 4.7168 -2.4953 0.3027 0 8
6.2071 4.8171 -2.4953 0.3027 0 8
6.1289 4.9162 -2.4953 0.3027 0 8
6.0492 5.0140 -2.4953 0.3027 0 8
5.9679 5.1105 -2.4953 0.3027 0 8
5.8850 5.2057 -2.4953 0.3027 0 8
5.8007 5.2996 -2.4953 0.3027 0 8
5.7148 5.3920 -2.4953 0.3027 0 8
5.6274 5.4831 -2.4953 0.3027 0 8
5.5387 5.5728 -2.4953 0.3027 0 8
5.4484 5.6611 -2.4953 0.3027 0 8
5.3568 5.7478 -2.4953 0.3027 0 8
5.2638 5.8331 -2.4953 0.3027 0 8
5.1694 5.9169 -2.4953 0.3027 0 8
5.0737 5.9992 -2.4953 0.3027 0 8
4.9767 6.0799 -2.4953 0.3027 0 8
7.0801 -2.8613 -2.4953 0.3106 0 8
7.1252 -2.7472 -2.4953 0.3106 0 8
7.1684 -2.6324 -2.4953 0.3106 0 8
7.2097 -2.5170 -2.4953 0.3106 0 8
7.2492 -2.4008 -2.4953 0.3106 0 8
7.2868 -2.2841 -2.4953 0.3106 0 8
7.3226 -2.1668 -2.4953 0.3106 0 8
7.3564 -2.0489 -2.4953 0.3106 0 8
7.3884 -1.9305 -2.4953 0.3106 0 8
7.4185 -1.8115 -2.4953 0.3106 0 8
7.4466 -1.6922 -2.4953 0.3106 0 8
7.4728 -1.5723 -2.4953 0.3106 0 8
7.4971 -1.4521 -2.4953 0.3106 0 8
7.5195 -1.3315 -2.4953 0.3106 0 8
7.5399 -1.2106 -2.4953 0.3106 0 8
7.5583 -1.0893 -2.4953 0.3106 0 8
7.5749 -0.9678 -2.4953 0.3106 0 8
7.5894 -0.8460 -2.4953 0.3106 0 8
7.6020 -0.7240 -2.4953 0.3106 0 8
7.6127 -0.6018 -2.4953 0.3106 0 8
7.6214 -0.4794 -2.4953 0.3106 0 8
7.6281 -0.3570 -2.4953 0.3106 0 8
7.6328 -0.2344 -2.4953 0.3106 0 8
7.6356 -0.1118 -2.4953 0.3106 0 8
7.6364 0.0109 -2.4953 0.3106 0 8
7.6353 0.1335 -2.4953 0.3106 0 8
7.6321 0.2562 -2.4953 0.3106 0 8
7.6270 0.3787 -2.4953 0.3106 0 8
7.6200 0.5012 -2.4953 0.3106 0 8
7.6109 0.6235 -2.4953 0.3106 0 8
7.6000 0.7456 -2.4953 0.3106 0 8
7.5870 0.8676 -2.4953 0.3106 0 8
7.5721 0.9894 -2.4953 0.3106 0 8
7.5552 1.1109 -2.4953 0.3106 0 8
7.5364 1.2321 -2.4953 0.3106 0 8
7.5156 1.3529 -2.4953 0.3106 0 8
7.4929 1.4735 -2.4953 0.3106 0 8
7.4683 1.5936 -2.4953 0.3106 0 8
7.4417 1.7134 -2.4953 0.3106 0 8
7.4133 1.8327 -2.4953 0.3106 0 8
7.3829 1.9515 -2.4953 0.3106 0 8
7.3506 2.0699 -2.4953 0.3106 0 8
7.3164 2.1876 -2.4953 0.3106 0 8
7.2803 2.3049 -2.4953 0.3106 0 8
7.2423 2.4215 -2.4953 0.3106 0 8
7.2025 2.5375 -2.4953 0.3106 0 8
7.1608 2.6529 -2.4953 0.3106 0 8
7.1173 2.7675 -2.4953 0.3106 0 8
7.0719 2.8815 -2.4953 0.3106 0 8
7.0247 2.9947 -2.4953 0.3106 0 8
6.9757 3.1072 -2.4953 0.3106 0 8
6.9249 3.2188 -2.4953 0.3106 0 8
6.8723 3.3296 -2.4953 0.3106 0 8
6.8180 3.4396 -2.4953 0.3106 0 8
6.7618 3.5486 -2.4953 0.3106 0 8
6.7040 3.6568 -2.4953 0.3106 0 8
6.6444 3.7640 -2.4953 0.3106 0 8
6.5831 3.8702 -2.4953 0.3106 0 8
6.5201 3.9754 -2.4953 0.3106 0 8
6.4554 4.0797 -2.4953 0.3106 0 8
6.3890 4.1828 -2.4953 0.3106 0 8
6.3210 4.2849 -2.4953 0.3106 0 8
6.2514 4.3859 -2.4953 0.3106 0 8
6.1801 4.4857 -2.4953 0.3106 0 8
6.1073 4.5844 -2.4953 0.3106 0 8
6.0328 4.6819 -2.4953 0.3106 0 8
5.9569 4.7782 -2.4953 0.3106 0 8
5.8794 4.8732 -2.4953 0.3106 0 8
5.8003 4.9670 -2.4953 0.3106 0 8
5.7198 5.0596 -2.4953 0.3106 0 8
5.6378 5.1508 -2.4953 0.3106 0 8
5.5543 5.2407 -2.4953 0.3106 0 8
5.4695 5.3292 -2.4953 0.3106 0 8
5.3832 5.4164 -2.4953 0.3106 0 8
5.2955 5.5021 -2.4953 0.3106 0 8
5.2064 5.5865 -2.4953 0.3106 0 8
5.1160 5.6694 -2.4953 0.3106 0 8
5.0243 5.7508 -2.4953 0.3106 0 8
4.9313 5.8308 -2.4953 0.3106 0 8
4.8370 5.9092 -2.4953 0.3106 0 8
6.8857 -2.7828 -2.4953 0.3185 0 8
6.9296 -2.6718 -2.4953 0.3185 0 8
6.9716 -2.5602 -2.4953 0.3185 0 8
7.0118 -2.4479 -2.4953 0.3185 0 8
7.0502 -2.3349 -2.4953 0.3185 0 8
7.0868 -2.2214 -2.4953 0.3185 0 8
7.1216 -2.1073 -2.4953 0.3185 0 8
7.1545 -1.9926 -2.4953 0.3185 0 8
7.1856 -1.8775 -2.4953 0.3185 0 8
7.2148 -1.7618 -2.4953 0.3185 0 8
7.2422 -1.6457 -2.4953 0.3185 0 8
7.2677 -1.5292 -2.4953 0.3185 0 8
7.2913 -1.4122 -2.4953 0.3185 0 8
7.3130 -1.2950 -2.4953 0.3185 0 8
7.3329 -1.1773 -2.4953 0.3185 0 8
7.3508 -1.0594 -2.4953 0.3185 0 8
7.3669 -0.9412 -2.4953 0.3185 0 8
7.3811 -0.8228 -2.4953 0.3185 0 8
7.3933 -0.7041 -2.4953 0.3185 0 8
7.4037 -0.5853 -2.4953 0.3185 0 8
7.4121 -0.4663 -2.4953 0.3185 0 8
7.4187 -0.3472 -2.4953 0.3185 0 8
7.4233 -0.2280 -2.4953 0.3185 0 8
7.4260 -0.1087 -2.4953 0.3185 0 8
7.4268 0.0106 -2.4953 0.3185 0 8
7.4257 0.1299 -2.4953 0.3185 0 8
7.4226 0.2491 -2.4953 0.3185 0 8
7.4177 0.3683 -2.4953 0.3185 0 8
7.4108 0.4874 -2.4953 0.3185 0 8
7.4020 0.6064 -2.4953 0.3185 0 8
7.3913 0.7252 -2.4953 0.3185 0 8
7.3787 0.8438 -2.4953 0.3185 0 8
7.3642 0.9622 -2.4953 0.3185 0 8
7.3478 1.0804 -2.4953 0.3185 0 8
7.3295 1.1982 -2.4953 0.3185 0 8
7.3093 1.3158 -2.4953 0.3185 0 8
7.2872 1.4330 -2.4953 0.3185 0 8
7.2633 1.5499 -2.4953 0.3185 0 8
7.2374 1.6664 -2.4953 0.3185 0 8
7.2097 1.7824 -2.4953 0.3185 0 8
7.1802 1.8980 -2.4953 0.3185 0 8
7.1488 2.0130 -2.4953 0.3185 0 8
7.1155 2.1276 -2.4953 0.3185 0 8
7.0804 2.2416 -2.4953 0.3185 0 8
7.0435 2.3550 -2.4953 0.3185 0 8
7.0048 2.4679 -2.4953 0.3185 0 8
6.9642 2.5800 -2.4953 0.3185 0 8
6.9219 2.6916 -2.4953 0.3185 0 8
6.8778 2.8024 -2.4953 0.3185 0 8
6.8319 2.9125 -2.4953 0.3185 0 8
6.7842 3.0219 -2.4953 0.3185 0 8
6.7348 3.1304 -2.4953 0.3185 0 8
6.6837 3.2382 -2.4953 0.3185 0 8
6.6308 3.3451 -2.4953 0.3185 0 8
6.5762 3.4512 -2.4953 0.3185 0 8
6.5199 3.5564 -2.4953 0.3185 0 8
6.4620 3.6606 -2.4953 0.3185 0 8
6.4023 3.7640 -2.4953 0.3185 0 8
6.3411 3.8663 -2.4953 0.3185 0 8
6.2781 3.9677 -2.4953 0.3185 0 8
6.2136 4.0680 -2.4953 0.3185 0 8
6.1475 4.1673 -2.4953 0.3185 0 8
6.0797 4.2655 -2.4953 0.3185 0 8
6.0104 4.3626 -2.4953 0.3185 0 8
5.9396 4.4585 -2.4953 0.3185 0 8
5.8672 4.5533 -2.4953 0.3185 0 8
5.7933 4.6470 -2.4953 0.3185 0 8
5.7179 4.7394 -2.4953 0.3185 0 8
5.6411 4.8307 -2.4953 0.3185 0 8
5.5628 4.9207 -2.4953 0.3185 0 8
5.4830 5.0094 -2.4953 0.3185 0 8
5.4019 5.0968 -2.4953 0.3185 0 8
5.3193 5.1829 -2.4953 0.3185 0 8
5.2354 5.2677 -2.4953 0.3185 0 8
5.1501 5.3511 -2.4953 0.3185 0 8
5.0635 5.4331 -2.4953 0.3185 0 8
4.9756 5.5137 -2.4953 0.3185 0 8
4.8864 5.5929 -2.4953 0.3185 0 8
4.7959 5.6707 -2.4953 0.3185 0 8
4.7042 5.7470 -2.4953 0.3185 0 8
6.7008 -2.7080 -2.4953 0.3264 0 8
6.7434 -2.6000 -2.4953 0.3264 0 8
6.7843 -2.4914 -2.4953 0.3264 0 8
6.8234 -2.3821 -2.4953 0.3264 0 8
6.8608 -2.2722 -2.4953 0.3264 0 8
6.8964 -2.1617 -2.4953 0.3264 0 8
6.9302 -2.0507 -2.4953 0.3264 0 8
6.9623 -1.9391 -2.4953 0.3264 0 8
6.9925 -1.8270 -2.4953 0.3264 0 8
7.0210 -1.7145 -2.4953 0.3264 0 8
7.0476 -1.6015 -2.4953 0.3264 0 8
7.0724 -1.4881 -2.4953 0.3264 0 8
7.0954 -1.3743 -2.4953 0.3264 0 8
7.1166 -1.2602 -2.4953 0.3264 0 8
7.1359 -1.1457 -2.4953 0.3264 0 8
7.1534 -1.0309 -2.4953 0.3264 0 8
7.1690 -0.9159 -2.4953 0.3264 0 8
7.1828 -0.8006 -2.4953 0.3264 0 8
7.1947 -0.6852 -2.4953 0.3264 0 8
7.2048 -0.5695 -2.4953 0.3264 0 8
7.2130 -0.4537 -2.4953 0.3264 0 8
7.2194 -0.3378 -2.4953 0.3264 0 8
7.2239 -0.2218 -2.4953 0.3264 0 8
7.2265 -0.1058 -2.4953 0.3264 0 8
7.2273 0.0103 -2.4953 0.3264 0 8
7.2262 0.1264 -2.4953 0.3264 0 8
7.2232 0.2424 -2.4953 0.3264 0 8
7.2184 0.3584 -2.4953 0.3264 0 8
7.2117 0.4743 -2.4953 0.3264 0 8
7.2031 0.5901 -2.4953 0.3264 0 8
7.1927 0.7057 -2.4953 0.3264 0 8
7.1805 0.8211 -2.4953 0.3264 0 8
7.1664 0.9364 -2.4953 0.3264 0 8
7.1504 1.0513 -2.4953 0.3264 0 8
7.1326 1.1660 -2.4953 0.3264 0 8
7.1129 1.2805 -2.4953 0.3264 0 8
7.0915 1.3945 -2.4953 0.3264 0 8
7.0681 1.5083 -2.4953 0.3264 0 8
7.0430 1.6216 -2.4953 0.3264 0 8
7.0161 1.7345 -2.4953 0.3264 0 8
6.9873 1.8470 -2.4953 0.3264 0 8
6.9567 1.9590 -2.4953 0.3264 0 8
6.9244 2.0704 -2.4953 0.3264 0 8
6.8902 2.1814 -2.4953 0.3264 0 8
6.8543 2.2918 -2.4953 0.3264 0 8
6.8166 2.4016 -2.4953 0.3264 0 8
6.7771 2.5107 -2.4953 0.3264 0 8
6.7359 2.6193 -2.4953 0.3264 0 8
6.6930 2.7271 -2.4953 0.3264 0 8
6.6483 2.8343 -2.4953 0.3264 0 8
6.6020 2.9407 -2.4953 0.3264 0 8
6.5539 3.0463 -2.4953 0.3264 0 8
6.5041 3.1512 -2.4953 0.3264 0 8
6.4527 3.2553 -2.4953 0.3264 0 8
6.3995 3.3585 -2.4953 0.3264 0 8
6.3448 3.4608 -2.4953 0.3264 0 8
6.2884 3.5623 -2.4953 0.3264 0 8
6.2303 3.6628 -2.4953 0.3264 0 8
6.1707 3.7624 -2.4953 0.3264 0 8
6.1095 3.8611 -2.4953 0.3264 0 8
6.0467 3.9587 -2.4953 0.3264 0 8
5.9823 4.0553 -2.4953 0.3264 0 8
5.9164 4.1509 -2.4953 0.3264 0 8
5.8490 4.2454 -2.4953 0.3264 0 8
5.7800 4.3387 -2.4953 0.3264 0 8
5.7096 4.4310 -2.4953 0.3264 0 8
5.6377 4.5222 -2.4953 0.3264 0 8
5.5643 4.6121 -2.4953 0.3264 0 8
5.4895 4.7009 -2.4953 0.3264 0 8
5.4133 4.7885 -2.4953 0.3264 0 8
5.3357 4.8748 -2.4953 0.3264 0 8
5.2567 4.9599 -2.4953 0.3264 0 8
5.1764 5.0437 -2.4953 0.3264 0 8
5.0947 5.1261 -2.4953 0.3264 0 8
5.0117 5.2073 -2.4953 0.3264 0 8
4.9274 5.2871 -2.4953 0.3264 0 8
4.8419 5.3656 -2.4953 0.3264 0 8
4.7551 5.4427 -2.4953 0.3264 0 8
4.6671 5.5183 -2.4953 0.3264 0 8
4.5778 5.5926 -2.4953 0.3264 0 8
6.5245 -2.6368 -2.4953 0.3342 0 8
6.5660 -2.5316 -2.4953 0.3342 0 8
6.6058 -2.4258 -2.4953 0.3342 0 8
6.6439 -2.3194 -2.4953 0.3342 0 8
6.6803 -2.2124 -2.4953 0.3342 0 8
6.7150 -2.1048 -2.4953 0.3342 0 8
6.7479 -1.9967 -2.4953 0.3342 0 8
6.7791 -1.8881 -2.4953 0.3342 0 8
6.8086 -1.7790 -2.4953 0.3342 0 8
6.8363 -1.6694 -2.4953 0.3342 0 8
6.8622 -1.5594 -2.4953 0.3342 0 8
6.8864 -1.4489 -2.4953 0.3342 0 8
6.9087 -1.3381 -2.4953 0.3342 0 8
6.9293 -1.2270 -2.4953 0.3342 0 8
6.9482 -1.1156 -2.4953 0.3342 0 8
6.9652 -1.0038 -2.4953 0.3342 0 8
6.9804 -0.8918 -2.4953 0.3342 0 8
6.9938 -0.7796 -2.4953 0.3342 0 8
7.0054 -0.6672 -2.4953 0.3342 0 8
7.0153 -0.5545 -2.4953 0.3342 0 8
7.0233 -0.4418 -2.4953 0.3342 0 8
7.0294 -0.3289 -2.4953 0.3342 0 8
7.0338 -0.2160 -2.4953 0.3342 0 8
7.0364 -0.1030 -2.4953 0.3342 0 8
7.0371 0.0100 -2.4953 0.3342 0 8
7.0361 0.1231 -2.4953 0.3342 0 8
7.0332 0.2361 -2.4953 0.3342 0 8
7.0285 0.3490 -2.4953 0.3342 0 8
7.0220 0.4618 -2.4953 0.3342 0 8
7.0136 0.5746 -2.4953 0.3342 0 8
7.0035 0.6871 -2.4953 0.3342 0 8
6.9916 0.7995 -2.4953 0.3342 0 8
6.9778 0.9117 -2.4953 0.3342 0 8
6.9623 1.0237 -2.4953 0.3342 0 8
6.9449 1.1354 -2.4953 0.3342 0 8
6.9258 1.2468 -2.4953 0.3342 0 8
6.9049 1.3578 -2.4953 0.3342 0 8
6.8822 1.4686 -2.4953 0.3342 0 8
6.8577 1.5789 -2.4953 0.3342 0 8
6.8315 1.6889 -2.4953 0.3342 0 8
6.8035 1.7984 -2.4953 0.3342 0 8
6.7737 1.9074 -2.4953 0.3342 0 8
6.7422 2.0160 -2.4953 0.3342 0 8
6.7089 2.1240 -2.4953 0.3342 0 8
6.6740 2.2315 -2.4953 0.3342 0 8
6.6373 2.3384 -2.4953 0.3342 0 8
6.5988 2.4447 -2.4953 0.3342 0 8
6.5587 2.5504 -2.4953 0.3342 0 8
6.5169 2.6554 -2.4953 0.3342 0 8
6.4734 2.7597 -2.4953 0.3342 0 8
6.4283 2.8633 -2.4953 0.3342 0 8
6.3815 2.9662 -2.4953 0.3342 0 8
6.3330 3.0683 -2.4953 0.3342 0 8
6.2829 3.1696 -2.4953 0.3342 0 8
6.2312 3.2701 -2.4953 0.3342 0 8
6.1778 3.3698 -2.4953 0.3342 0 8
6.1229 3.4686 -2.4953 0.3342 0 8
6.0664 3.5665 -2.4953 0.3342 0 8
6.0084 3.6635 -2.4953 0.3342 0 8
5.9487 3.7595 -2.4953 0.3342 0 8
5.8876 3.8545 -2.4953 0.3342 0 8
5.8249 3.9486 -2.4953 0.3342 0 8
5.7608 4.0417 -2.4953 0.3342 0 8
5.6951 4.1337 -2.4953 0.3342 0 8
5.6280 4.2246 -2.4953 0.3342 0 8
5.5594 4.3144 -2.4953 0.3342 0 8
5.4894 4.4032 -2.4953 0.3342 0 8
5.4179 4.4908 -2.4953 0.3342 0 8
5.3451 4.5772 -2.4953 0.3342 0 8
5.2709 4.6625 -2.4953 0.3342 0 8
5.1953 4.7465 -2.4953 0.3342 0 8
5.1184 4.8294 -2.4953 0.3342 0 8
5.0402 4.9110 -2.4953 0.3342 0 8
4.9607 4.9913 -2.4953 0.3342 0 8
4.8799 5.0703 -2.4953 0.3342 0 8
4.7978 5.1480 -2.4953 0.3342 0 8
4.7145 5.2244 -2.4953 0.3342 0 8
4.6300 5.2995 -2.4953 0.3342 0 8
4.5443 5.3732 -2.4953 0.3342 0 8
4.4574 5.4455 -2.4953 0.3342 0 8
6.3563 -2.5688 -2.4953 0.3420 0 8
6.3967 -2.4664 -2.4953 0.3420 0 8
6.4355 -2.3633 -2.4953 0.3420 0 8
6.4726 -2.2596 -2.4953 0.3420 0 8
6.5081 -2.1554 -2.4953 0.3420 0 8
6.5418 -2.0506 -2.4953 0.3420 0 8
6.5739 -1.9452 -2.4953 0.3420 0 8
6.6043 -1.8394 -2.4953 0.3420 0 8
6.6330 -1.7331 -2.4953 0.3420 0 8
6.6600 -1.6263 -2.4953 0.3420 0 8
6.6853 -1.5192 -2.4953 0.3420 0 8
6.7088 -1.4116 -2.4953 0.3420 0 8
6.7306 -1.3036 -2.4953 0.3420 0 8
6.7507 -1.1954 -2.4953 0.3420 0 8
6.7690 -1.0868 -2.4953 0.3420 0 8
6.7856 -0.9779 -2.4953 0.3420 0 8
6.8004 -0.8688 -2.4953 0.3420 0 8
6.8135 -0.7595 -2.4953 0.3420 0 8
6.8248 -0.6500 -2.4953 0.3420 0 8
6.8344 -0.5403 -2.4953 0.3420 0 8
6.8422 -0.4304 -2.4953 0.3420 0 8
6.8482 -0.3205 -2.4953 0.3420 0 8
6.8525 -0.2104 -2.4953 0.3420 0 8
6.8550 -0.1003 -2.4953 0.3420 0 8
6.8557 0.0098 -2.4953 0.3420 0 8
6.8547 0.1199 -2.4953 0.3420 0 8
6.8518 0.2300 -2.4953 0.3420 0 8
6.8473 0.3400 -2.4953 0.3420 0 8
6.8409 0.4499 -2.4953 0.3420 0 8
6.8328 0.5597 -2.4953 0.3420 0 8
6.8229 0.6694 -2.4953 0.3420 0 8
6.8113 0.7789 -2.4953 0.3420 0 8
6.7979 0.8882 -2.4953 0.3420 0 8
6.7828 0.9973 -2.4953 0.3420 0 8
6.7659 1.1061 -2.4953 0.3420 0 8
6.7472 1.2146 -2.4953 0.3420 0 8
6.7269 1.3228 -2.4953 0.3420 0 8
6.7048 1.4307 -2.4953 0.3420 0 8
6.6809 1.5382 -2.4953 0.3420 0 8
6.6553 1.6453 -2.4953 0.3420 0 8
6.6281 1.7520 -2.4953 0.3420 0 8
6.5991 1.8582 -2.4953 0.3420 0 8
6.5684 1.9640 -2.4953 0.3420 0 8
6.5360 2.0692 -2.4953 0.3420 0 8
6.5019 2.1739 -2.4953 0.3420 0 8
6.4661 2.2781 -2.4953 0.3420 0 8
6.4287 2.3817 -2.4953 0.3420 0 8
6.3896 2.4846 -2.4953 0.3420 0 8
6.3489 2.5869 -2.4953 0.3420 0 8
6.3065 2.6885 -2.4953 0.3420 0 8
6.2625 2.7895 -2.4953 0.3420 0 8
6.2169 2.8897 -2.4953 0.3420 0 8
6.1697 2.9892 -2.4953 0.3420 0 8
6.1209 3.0879 -2.4953 0.3420 0 8
6.0705 3.1858 -2.4953 0.3420 0 8
6.0186 3.2829 -2.4953 0.3420 0 8
5.9651 3.3792 -2.4953 0.3420 0 8
5.9100 3.4745 -2.4953 0.3420 0 8
5.8534 3.5690 -2.4953 0.3420 0 8
5.7954 3.6626 -2.4953 0.3420 0 8
5.7358 3.7552 -2.4953 0.3420 0 8
5.6747 3.8468 -2.4953 0.3420 0 8
5.6122 3.9375 -2.4953 0.3420 0 8
5.5483 4.0271 -2.4953 0.3420 0 8
5.4829 4.1157 -2.4953 0.3420 0 8
5.4161 4.2032 -2.4953 0.3420 0 8
5.3478 4.2897 -2.4953 0.3420 0 8
5.2783 4.3750 -2.4953 0.3420 0 8
5.2073 4.4592 -2.4953 0.3420 0 8
5.1350 4.5423 -2.4953 0.3420 0 8
5.0614 4.6242 -2.4953 0.3420 0 8
4.9865 4.7049 -2.4953 0.3420 0 8
4.9103 4.7843 -2.4953 0.3420 0 8
4.8328 4.8626 -2.4953 0.3420 0 8
4.7541 4.9396 -2.4953 0.3420 0 8
4.6741 5.0153 -2.4953 0.3420 0 8
4.5930 5.0897 -2.4953 0.3420 0 8
4.5106 5.1628 -2.4953 0.3420 0 8
4.4271 5.2346 -2.4953 0.3420 0 8
4.3425 5.3051 -2.4953 0.3420 0 8
6.1956 -2.5038 -2.4953 0.3498 0 8
6.2350 -2.4040 -2.4953 0.3498 0 8
6.2728 -2.3036 -2.4953 0.3498 0 8
6.3090 -2.2025 -2.4953 0.3498 0 8
6.3435 -2.1009 -2.4953 0.3498 0 8
6.3764 -1.9987 -2.4953 0.3498 0 8
6.4077 -1.8961 -2.4953 0.3498 0 8
6.4374 -1.7929 -2.4953 0.3498 0 8
6.4653 -1.6893 -2.4953 0.3498 0 8
6.4916 -1.5852 -2.4953 0.3498 0 8
6.5162 -1.4807 -2.4953 0.3498 0 8
6.5392 -1.3759 -2.4953 0.3498 0 8
6.5604 -1.2707 -2.4953 0.3498 0 8
6.5800 -1.1652 -2.4953 0.3498 0 8
6.5979 -1.0593 -2.4953 0.3498 0 8
6.6140 -0.9532 -2.4953 0.3498 0 8
6.6285 -0.8469 -2.4953 0.3498 0 8
6.6412 -0.7403 -2.4953 0.3498 0 8
6.6523 -0.6335 -2.4953 0.3498 0 8
6.6616 -0.5266 -2.4953 0.3498 0 8
6.6692 -0.4195 -2.4953 0.3498 0 8
6.6751 -0.3124 -2.4953 0.3498 0 8
6.6792 -0.2051 -2.4953 0.3498 0 8
6.6817 -0.0978 -2.4953 0.3498 0 8
6.6824 0.0095 -2.4953 0.3498 0 8
6.6813 0.1169 -2.4953 0.3498 0 8
6.6786 0.2242 -2.4953 0.3498 0 8
6.6741 0.3314 -2.4953 0.3498 0 8
6.6680 0.4385 -2.4953 0.3498 0 8
6.6601 0.5456 -2.4953 0.3498 0 8
6.6504 0.6525 -2.4953 0.3498 0 8
6.6391 0.7592 -2.4953 0.3498 0 8
6.6260 0.8658 -2.4953 0.3498 0 8
6.6113 0.9721 -2.4953 0.3498 0 8
6.5948 1.0781 -2.4953 0.3498 0 8
6.5767 1.1839 -2.4953 0.3498 0 8
6.5568 1.2894 -2.4953 0.3498 0 8
6.5352 1.3945 -2.4953 0.3498 0 8
6.5120 1.4993 -2.4953 0.3498 0 8
6.4871 1.6037 -2.4953 0.3498 0 8
6.4605 1.7077 -2.4953 0.3498 0 8
6.4322 1.8113 -2.4953 0.3498 0 8
6.4023 1.9143 -2.4953 0.3498 0 8
6.3707 2.0169 -2.4953 0.3498 0 8
6.3375 2.1190 -2.4953 0.3498 0 8
6.3027 2.2205 -2.4953 0.3498 0 8
6.2662 2.3214 -2.4953 0.3498 0 8
6.2281 2.4218 -2.4953 0.3498 0 8
6.1884 2.5215 -2.4953 0.3498 0 8
6.1471 2.6206 -2.4953 0.3498 0 8
6.1042 2.7190 -2.4953 0.3498 0 8
6.0597 2.8167 -2.4953 0.3498 0 8
6.0137 2.9136 -2.4953 0.3498 0 8
5.9662 3.0098 -2.4953 0.3498 0 8
5.9170 3.1053 -2.4953 0.3498 0 8
5.8664 3.1999 -2.4953 0.3498 0 8
5.8142 3.2937 -2.4953 0.3498 0 8
5.7606 3.3867 -2.4953 0.3498 0 8
5.7055 3.4788 -2.4953 0.3498 0 8
5.6488 3.5700 -2.4953 0.3498 0 8
5.5908 3.6602 -2.4953 0.3498 0 8
5.5313 3.7495 -2.4953 0.3498 0 8
5.4703 3.8379 -2.4953 0.3498 0 8
5.4080 3.9253 -2.4953 0.3498 0 8
5.3442 4.0116 -2.4953 0.3498 0 8
5.2791 4.0969 -2.4953 0.3498 0 8
5.2126 4.1812 -2.4953 0.3498 0 8
5.1448 4.2644 -2.4953 0.3498 0 8
5.0757 4.3465 -2.4953 0.3498 0 8
5.0052 4.4274 -2.4953 0.3498 0 8
4.9334 4.5073 -2.4953 0.3498 0 8
4.8604 4.5859 -2.4953 0.3498 0 8
4.7861 4.6634 -2.4953 0.3498 0 8
4.7106 4.7397 -2.4953 0.3498 0 8
4.6339 4.8147 -2.4953 0.3498 0 8
4.5559 4.8885 -2.4953 0.3498 0 8
4.4768 4.9610 -2.4953 0.3498 0 8
4.3966 5.0323 -2.4953 0.3498 0 8
4.3152 5.1023 -2.4953 0.3498 0 8
4.2327 5.1709 -2.4953 0.3498 0 8
6.0418 -2.4417 -2.4953 0.3576 0 8
6.0803 -2.3444 -2.4953 0.3576 0 8
6.1172 -2.2464 -2.4953 0.3576 0 8
6.1524 -2.1479 -2.4953 0.3576 0 8
6.1861 -2.0488 -2.4953 0.3576 0 8
6.2183 -1.9491 -2.4953 0.3576 0 8
6.2488 -1.8490 -2.4953 0.3576 0 8
6.2777 -1.7484 -2.4953 0.3576 0 8
6.3049 -1.6474 -2.4953 0.3576 0 8
6.3306 -1.5459 -2.4953 0.3576 0 8
6.3546 -1.4440 -2.4953 0.3576 0 8
6.3770 -1.3418 -2.4953 0.3576 0 8
6.3977 -1.2392 -2.4953 0.3576 0 8
6.4168 -1.1362 -2.4953 0.3576 0 8
6.4342 -1.0330 -2.4953 0.3576 0 8
6.4499 -0.9296 -2.4953 0.3576 0 8
6.4640 -0.8258 -2.4953 0.3576 0 8
6.4765 -0.7219 -2.4953 0.3576 0 8
6.4872 -0.6178 -2.4953 0.3576 0 8
6.4963 -0.5135 -2.4953 0.3576 0 8
6.5037 -0.4091 -2.4953 0.3576 0 8
6.5095 -0.3046 -2.4953 0.3576 0 8
6.5135 -0.2000 -2.4953 0.3576 0 8
6.5159 -0.0954 -2.4953 0.3576 0 8
6.5166 0.0093 -2.4953 0.3576 0 8
6.5156 0.1140 -2.4953 0.3576 0 8
6.5129 0.2186 -2.4953 0.3576 0 8
6.5086 0.3232 -2.4953 0.3576 0 8
6.5025 0.4277 -2.4953 0.3576 0 8
6.4948 0.5321 -2.4953 0.3576 0 8
6.4854 0.6363 -2.4953 0.3576 0 8
6.4744 0.7404 -2.4953 0.3576 0 8
6.4617 0.8443 -2.4953 0.3576 0 8
6.4473 0.9480 -2.4953 0.3576 0 8
6.4312 1.0514 -2.4953 0.3576 0 8
6.4135 1.1545 -2.4953 0.3576 0 8
6.3941 1.2574 -2.4953 0.3576 0 8
6.3731 1.3599 -2.4953 0.3576 0 8
6.3504 1.4621 -2.4953 0.3576 0 8
6.3261 1.5639 -2.4953 0.3576 0 8
6.3002 1.6653 -2.4953 0.3576 0 8
6.2726 1.7663 -2.4953 0.3576 0 8
6.2435 1.8668 -2.4953 0.3576 0 8
6.2127 1.9669 -2.4953 0.3576 0 8
6.1803 2.0664 -2.4953 0.3576 0 8
6.1463 2.1654 -2.4953 0.3576 0 8
6.1107 2.2638 -2.4953 0.3576 0 8
6.0736 2.3617 -2.4953 0.3576 0 8
6.0349 2.4589 -2.4953 0.3576 0 8
5.9946 2.5556 -2.4953 0.3576 0 8
5.9528 2.6515 -2.4953 0.3576 0 8
5.9094 2.7468 -2.4953 0.3576 0 8
5.8645 2.8413 -2.4953 0.3576 0 8
5.8181 2.9352 -2.4953 0.3576 0 8
5.7702 3.0282 -2.4953 0.3576 0 8
5.7209 3.1205 -2.4953 0.3576 0 8
5.6700 3.2120 -2.4953 0.3576 0 8
5.6177 3.3027 -2.4953 0.3576 0 8
5.5639 3.3925 -2.4953 0.3576 0 8
5.5087 3.4814 -2.4953 0.3576 0 8
5.4521 3.5694 -2.4953 0.3576 0 8
5.3940 3.6565 -2.4953 0.3576 0 8
5.3346 3.7427 -2.4953 0.3576 0 8
5.2738 3.8279 -2.4953 0.3576 0 8
5.2117 3.9121 -2.4953 0.3576 0 8
5.1482 3.9953 -2.4953 0.3576 0 8
5.0833 4.0775 -2.4953 0.3576 0 8
5.0172 4.1586 -2.4953 0.3576 0 8
4.9497 4.2386 -2.4953 0.3576 0 8
4.8810 4.3176 -2.4953 0.3576 0 8
4.8110 4.3954 -2.4953 0.3576 0 8
4.7398 4.4721 -2.4953 0.3576 0 8
4.6674 4.5477 -2.4953 0.3576 0 8
4.5937 4.6221 -2.4953 0.3576 0 8
4.5189 4.6953 -2.4953 0.3576 0 8
4.4429 4.7672 -2.4953 0.3576 0 8
4.3658 4.8380 -2.4953 0.3576 0 8
4.2875 4.9075 -2.4953 0.3576 0 8
4.2081 4.9757 -2.4953 0.3576 0 8
4.1277 5.0426 -2.4953 0.3576 0 8
5.8947 -2.3822 -2.4953 0.3653 0 8
5.9322 -2.2873 -2.4953 0.3653 0 8
5.9681 -2.1917 -2.4953 0.3653 0 8
6.0026 -2.0955 -2.4953 0.3653 0 8
6.0355 -1.9989 -2.4953 0.3653 0 8
6.0668 -1.9017 -2.4953 0.3653 0 8
6.0965 -1.8040 -2.4953 0.3653 0 8
6.1247 -1.7058 -2.4953 0.3653 0 8
6.1513 -1.6072 -2.4953 0.3653 0 8
6.1764 -1.5082 -2.4953 0.3653 0 8
6.1998 -1.4088 -2.4953 0.3653 0 8
6.2216 -1.3091 -2.4953 0.3653 0 8
6.2418 -1.2090 -2.4953 0.3653 0 8
6.2605 -1.1086 -2.4953 0.3653 0 8
6.2775 -1.0079 -2.4953 0.3653 0 8
6.2928 -0.9069 -2.4953 0.3653 0 8
6.3066 -0.8057 -2.4953 0.3653 0 8
6.3187 -0.7043 -2.4953 0.3653 0 8
6.3292 -0.6028 -2.4953 0.3653 0 8
6.3381 -0.5010 -2.4953 0.3653 0 8
6.3453 -0.3992 -2.4953 0.3653 0 8
6.3509 -0.2972 -2.4953 0.3653 0 8
6.3548 -0.1951 -2.4953 0.3653 0 8
6.3572 -0.0931 -2.4953 0.3653 0 8
6.3578 0.0091 -2.4953 0.3653 0 8
6.3569 0.1112 -2.4953 0.3653 0 8
6.3543 0.2133 -2.4953 0.3653 0 8
6.3500 0.3153 -2.4953 0.3653 0 8
