ply
format ascii 1.0
element vertex 1400
property float32 x
property float32 y
property float32 z
property float32 CosAngle
property uint32 ObjIdx
property uint32 ObjTag
end_header
8.2373 0.0583 -1.2416 0.5146 25 10
8.2514 0.1918 -1.2440 0.5209 25 10
8.2734 0.3262 -1.2480 0.5073 25 10
8.3103 0.4623 -1.2545 0.5127 25 10
8.3581 0.6006 -1.2630 0.4882 25 10
16.4911 1.4533 -2.4953 0.1490 0 8
16.4655 1.7197 -2.4953 0.1490 0 8
16.4355 1.9856 -2.4953 0.1490 0 8
16.4013 2.2510 -2.4953 0.1490 0 8
16.3628 2.5158 -2.4953 0.1490 0 8
16.3200 2.7800 -2.4953 0.1490 0 8
16.2729 3.0434 -2.4953 0.1490 0 8
16.2216 3.3060 -2.4953 0.1490 0 8
16.1660 3.5678 -2.4953 0.1490 0 8
16.1062 3.8286 -2.4953 0.1490 0 8
16.0422 4.0885 -2.4953 0.1490 0 8
15.9741 4.3472 -2.4953 0.1490 0 8
15.9017 4.6049 -2.4953 0.1490 0 8
15.8252 4.8613 -2.4953 0.1490 0 8
15.7446 5.1164 -2.4953 0.1490 0 8
15.6598 5.3703 -2.4953 0.1490 0 8
15.5710 5.6227 -2.4953 0.1490 0 8
15.4780 5.8736 -2.4953 0.1490 0 8
15.3811 6.1230 -2.4953 0.1490 0 8
15.2801 6.3708 -2.4953 0.1490 0 8
15.1751 6.6170 -2.4953 0.1490 0 8
15.0662 6.8614 -2.4953 0.1490 0 8
14.9533 7.1040 -2.4953 0.1490 0 8
14.8366 7.3448 -2.4953 0.1490 0 8
14.7159 7.5836 -2.4953 0.1490 0 8
14.5914 7.8205 -2.4953 0.1490 0 8
14.4631 8.0553 -2.4953 0.1490 0 8
14.3310 8.2881 -2.4953 0.1490 0 8
15.0621 9.0389 -2.6477 0.1490 0 7
14.9141 9.2812 -2.6477 0.1490 0 7
14.7621 9.5210 -2.6477 0.1490 0 7
14.6063 9.7584 -2.6477 0.1490 0 7
14.4466 9.9932 -2.6477 0.1490 0 7
14.2832 10.2254 -2.6477 0.1490 0 7
14.1161 10.4549 -2.6477 0.1490 0 7
13.9453 10.6817 -2.6477 0.1490 0 7
13.7708 10.9057 -2.6477 0.1490 0 7
13.5927 11.1269 -2.6477 0.1490 0 7
13.4111 11.3451 -2.6477 0.1490 0 7
13.6748 -7.6522 -2.4953 0.1573 0 8
13.7967 -7.4302 -2.4953 0.1573 0 8
13.9150 -7.2062 -2.4953 0.1573 0 8
14.0296 -6.9803 -2.4953 0.1573 0 8
14.1406 -6.7527 -2.4953 0.1573 0 8
14.2479 -6.5232 -2.4953 0.1573 0 8
14.3515 -6.2921 -2.4953 0.1573 0 8
14.4513 -6.0593 -2.4953 0.1573 0 8
14.5474 -5.8249 -2.4953 0.1573 0 8
14.6396 -5.5890 -2.4953 0.1573 0 8
14.7281 -5.3517 -2.4953 0.1573 0 8
14.8126 -5.1129 -2.4953 0.1573 0 8
14.8933 -4.8728 -2.4953 0.1573 0 8
14.9702 -4.6314 -2.4953 0.1573 0 8
15.0431 -4.3889 -2.4953 0.1573 0 8
15.1120 -4.1451 -2.4953 0.1573 0 8
15.1771 -3.9003 -2.4953 0.1573 0 8
15.2381 -3.6545 -2.4953 0.1573 0 8
15.2952 -3.4077 -2.4953 0.1573 0 8
15.3483 -3.1601 -2.4953 0.1573 0 8
15.3974 -2.9116 -2.4953 0.1573 0 8
15.4424 -2.6623 -2.4953 0.1573 0 8
15.4834 -2.4124 -2.4953 0.1573 0 8
15.5204 -2.1618 -2.4953 0.1573 0 8
15.5533 -1.9106 -2.4953 0.1573 0 8
15.5822 -1.6590 -2.4953 0.1573 0 8
9.0057 -0.8118 -1.4399 0.0972 25 10
8.2401 -0.6087 -1.3157 0.4945 25 10
8.1923 -0.4722 -1.3067 0.5112 25 10
8.1548 -0.3379 -1.2997 0.5140 25 10
8.1326 -0.2054 -1.2954 0.5278 25 10
8.1173 -0.0737 -1.2926 0.5289 25 10
8.1154 0.0575 -1.2923 0.5291 25 10
8.1307 0.1890 -1.2951 0.5279 25 10
8.1502 0.3214 -1.2988 0.5143 25 10
8.1876 0.4555 -1.3058 0.5116 25 10
8.2320 0.5916 -1.3142 0.4951 25 10
8.5794 0.7561 -1.3714 0.1662 25 10
15.5854 1.6278 -2.4953 0.1573 0 8
15.5571 1.8795 -2.4953 0.1573 0 8
15.5247 2.1307 -2.4953 0.1573 0 8
15.4882 2.3814 -2.4953 0.1573 0 8
15.4477 2.6314 -2.4953 0.1573 0 8
15.4032 2.8807 -2.4953 0.1573 0 8
15.3546 3.1293 -2.4953 0.1573 0 8
15.3020 3.3771 -2.4953 0.1573 0 8
15.2454 3.6240 -2.4953 0.1573 0 8
15.1848 3.8700 -2.4953 0.1573 0 8
15.1203 4.1149 -2.4953 0.1573 0 8
15.0518 4.3587 -2.4953 0.1573 0 8
14.9794 4.6015 -2.4953 0.1573 0 8
14.9031 4.8430 -2.4953 0.1573 0 8
14.8228 5.0832 -2.4953 0.1573 0 8
14.7387 5.3221 -2.4953 0.1573 0 8
14.6508 5.5597 -2.4953 0.1573 0 8
14.5590 5.7958 -2.4953 0.1573 0 8
14.4634 6.0303 -2.4953 0.1573 0 8
14.3641 6.2633 -2.4953 0.1573 0 8
14.2610 6.4947 -2.4953 0.1573 0 8
14.1541 6.7243 -2.4953 0.1573 0 8
14.0436 6.9522 -2.4953 0.1573 0 8
13.9294 7.1783 -2.4953 0.1573 0 8
13.8115 7.4025 -2.4953 0.1573 0 8
13.6901 7.6248 -2.4953 0.1573 0 8
13.5650 7.8451 -2.4953 0.1573 0 8
13.4365 8.0633 -2.4953 0.1573 0 8
13.3044 8.2795 -2.4953 0.1573 0 8
13.9731 9.0122 -2.6477 0.1573 0 7
13.8256 9.2368 -2.6477 0.1573 0 7
13.6745 9.4591 -2.6477 0.1573 0 7
13.5198 9.6789 -2.6477 0.1573 0 7
13.3616 9.8961 -2.6477 0.1573 0 7
13.1999 10.1108 -2.6477 0.1573 0 7
13.0348 10.3229 -2.6477 0.1573 0 7
12.8662 10.5322 -2.6477 0.1573 0 7
12.6943 10.7388 -2.6477 0.1573 0 7
12.9792 -7.2630 -2.4953 0.1655 0 8
13.0949 -7.0522 -2.4953 0.1655 0 8
13.2072 -6.8397 -2.4953 0.1655 0 8
13.3160 -6.6253 -2.4953 0.1655 0 8
13.4214 -6.4092 -2.4953 0.1655 0 8
13.5232 -6.1914 -2.4953 0.1655 0 8
13.6215 -5.9720 -2.4953 0.1655 0 8
13.7163 -5.7511 -2.4953 0.1655 0 8
13.8075 -5.5286 -2.4953 0.1655 0 8
13.8950 -5.3047 -2.4953 0.1655 0 8
13.9789 -5.0795 -2.4953 0.1655 0 8
14.0592 -4.8528 -2.4953 0.1655 0 8
14.1358 -4.6250 -2.4953 0.1655 0 8
14.2087 -4.3959 -2.4953 0.1655 0 8
14.2779 -4.1656 -2.4953 0.1655 0 8
14.3434 -3.9343 -2.4953 0.1655 0 8
14.4051 -3.7020 -2.4953 0.1655 0 8
14.4631 -3.4686 -2.4953 0.1655 0 8
14.5172 -3.2344 -2.4953 0.1655 0 8
14.5676 -2.9993 -2.4953 0.1655 0 8
14.6142 -2.7635 -2.4953 0.1655 0 8
14.6570 -2.5269 -2.4953 0.1655 0 8
14.6959 -2.2897 -2.4953 0.1655 0 8
14.7310 -2.0518 -2.4953 0.1655 0 8
14.7622 -1.8135 -2.4953 0.1655 0 8
14.7896 -1.5746 -2.4953 0.1655 0 8
8.3302 -0.7509 -1.4032 0.3394 25 10
8.1041 -0.5987 -1.3633 0.3431 25 10
8.0346 -0.4631 -1.3502 0.3511 25 10
7.9852 -0.3309 -1.3408 0.3355 25 10
7.9552 -0.2009 -1.3351 0.3450 25 10
7.9382 -0.0721 -1.3318 0.3627 25 10
7.9369 0.0562 -1.3316 0.3628 25 10
7.9528 0.1849 -1.3346 0.3451 25 10
7.9778 0.3146 -1.3395 0.3358 25 10
8.0288 0.4467 -1.3491 0.3514 25 10
8.0911 0.5814 -1.3609 0.3437 25 10
8.2981 0.7313 -1.3976 0.3408 25 10
14.7927 1.5450 -2.4953 0.1655 0 8
14.7658 1.7839 -2.4953 0.1655 0 8
14.7351 2.0223 -2.4953 0.1655 0 8
14.7004 2.2602 -2.4953 0.1655 0 8
14.6620 2.4976 -2.4953 0.1655 0 8
14.6197 2.7342 -2.4953 0.1655 0 8
14.5736 2.9702 -2.4953 0.1655 0 8
14.5237 3.2053 -2.4953 0.1655 0 8
14.4700 3.4397 -2.4953 0.1655 0 8
14.4125 3.6731 -2.4953 0.1655 0 8
14.3512 3.9056 -2.4953 0.1655 0 8
14.2862 4.1370 -2.4953 0.1655 0 8
14.2175 4.3674 -2.4953 0.1655 0 8
14.1451 4.5966 -2.4953 0.1655 0 8
14.0689 4.8247 -2.4953 0.1655 0 8
13.9891 5.0514 -2.4953 0.1655 0 8
13.9056 5.2769 -2.4953 0.1655 0 8
13.8185 5.5010 -2.4953 0.1655 0 8
13.7278 5.7236 -2.4953 0.1655 0 8
13.6335 5.9447 -2.4953 0.1655 0 8
13.5356 6.1643 -2.4953 0.1655 0 8
13.4342 6.3823 -2.4953 0.1655 0 8
13.3293 6.5986 -2.4953 0.1655 0 8
13.2209 6.8132 -2.4953 0.1655 0 8
13.1090 7.0260 -2.4953 0.1655 0 8
12.9938 7.2370 -2.4953 0.1655 0 8
12.8751 7.4461 -2.4953 0.1655 0 8
12.7530 7.6532 -2.4953 0.1655 0 8
12.6277 7.8583 -2.4953 0.1655 0 8
12.4990 8.0614 -2.4953 0.1655 0 8
12.3671 8.2624 -2.4953 0.1655 0 8
12.2319 8.4612 -2.4953 0.1655 0 8
12.8322 9.1866 -2.6477 0.1655 0 7
12.6820 9.3928 -2.6477 0.1655 0 7
12.5285 9.5966 -2.6477 0.1655 0 7
12.3718 9.7978 -2.6477 0.1655 0 7
12.2118 9.9965 -2.6477 0.1655 0 7
12.0486 10.1926 -2.6477 0.1655 0 7
12.3494 -6.9105 -2.4953 0.1736 0 8
12.4594 -6.7100 -2.4953 0.1736 0 8
12.5663 -6.5077 -2.4953 0.1736 0 8
12.6698 -6.3038 -2.4953 0.1736 0 8
12.7701 -6.0982 -2.4953 0.1736 0 8
12.8670 -5.8910 -2.4953 0.1736 0 8
12.9605 -5.6822 -2.4953 0.1736 0 8
13.0506 -5.4720 -2.4953 0.1736 0 8
13.1374 -5.2603 -2.4953 0.1736 0 8
13.2207 -5.0473 -2.4953 0.1736 0 8
13.3005 -4.8329 -2.4953 0.1736 0 8
13.3769 -4.6173 -2.4953 0.1736 0 8
13.4498 -4.4005 -2.4953 0.1736 0 8
13.5192 -4.1825 -2.4953 0.1736 0 8
13.5850 -3.9635 -2.4953 0.1736 0 8
13.6473 -3.7434 -2.4953 0.1736 0 8
13.7060 -3.5223 -2.4953 0.1736 0 8
13.7612 -3.3003 -2.4953 0.1736 0 8
13.8127 -3.0774 -2.4953 0.1736 0 8
13.8607 -2.8538 -2.4953 0.1736 0 8
13.9050 -2.6294 -2.4953 0.1736 0 8
13.9457 -2.4043 -2.4953 0.1736 0 8
13.9827 -2.1786 -2.4953 0.1736 0 8
14.0161 -1.9523 -2.4953 0.1736 0 8
14.0458 -1.7255 -2.4953 0.1736 0 8
14.0719 -1.4982 -2.4953 0.1736 0 8
8.1912 -0.7384 -1.4502 0.3447 25 10
7.9440 -0.5869 -1.4046 0.3680 25 10
7.8515 -0.4526 -1.3867 0.3588 25 10
7.7952 -0.3230 -1.3757 0.3432 25 10
7.7710 -0.1962 -1.3707 0.3699 25 10
7.7615 -0.0705 -1.3686 0.3705 25 10
7.7602 0.0550 -1.3684 0.3705 25 10
7.7698 0.1806 -1.3704 0.3700 25 10
7.7881 0.3071 -1.3743 0.3435 25 10
7.8454 0.4364 -1.3855 0.3407 25 10
7.9201 0.5691 -1.4001 0.3692 25 10
8.1517 0.7184 -1.4429 0.2662 25 10
14.0748 1.4700 -2.4953 0.1736 0 8
14.0492 1.6973 -2.4953 0.1736 0 8
14.0200 1.9242 -2.4953 0.1736 0 8
13.9870 2.1506 -2.4953 0.1736 0 8
13.9504 2.3763 -2.4953 0.1736 0 8
13.9102 2.6015 -2.4953 0.1736 0 8
13.8663 2.8260 -2.4953 0.1736 0 8
13.8189 3.0498 -2.4953 0.1736 0 8
13.7677 3.2727 -2.4953 0.1736 0 8
13.7130 3.4949 -2.4953 0.1736 0 8
13.6548 3.7160 -2.4953 0.1736 0 8
13.5929 3.9363 -2.4953 0.1736 0 8
13.5275 4.1555 -2.4953 0.1736 0 8
13.4586 4.3736 -2.4953 0.1736 0 8
13.3861 4.5905 -2.4953 0.1736 0 8
13.3102 4.8063 -2.4953 0.1736 0 8
13.2308 5.0208 -2.4953 0.1736 0 8
13.1479 5.2340 -2.4953 0.1736 0 8
13.0616 5.4458 -2.4953 0.1736 0 8
12.9718 5.6562 -2.4953 0.1736 0 8
12.8787 5.8652 -2.4953 0.1736 0 8
12.7822 6.0726 -2.4953 0.1736 0 8
12.6824 6.2784 -2.4953 0.1736 0 8
12.5793 6.4826 -2.4953 0.1736 0 8
12.4728 6.6850 -2.4953 0.1736 0 8
12.3632 6.8858 -2.4953 0.1736 0 8
12.2503 7.0847 -2.4953 0.1736 0 8
12.1341 7.2818 -2.4953 0.1736 0 8
12.0149 7.4770 -2.4953 0.1736 0 8
11.8924 7.6702 -2.4953 0.1736 0 8
11.7669 7.8614 -2.4953 0.1736 0 8
11.6383 8.0506 -2.4953 0.1736 0 8
11.5066 8.2376 -2.4953 0.1736 0 8
11.3720 8.4226 -2.4953 0.1736 0 8
11.9205 9.1308 -2.6477 0.1736 0 7
11.7714 9.3223 -2.6477 0.1736 0 7
11.6192 9.5114 -2.6477 0.1736 0 7
11.4639 9.6979 -2.6477 0.1736 0 7
11.7762 -6.5898 -2.4953 0.1818 0 8
11.8812 -6.3986 -2.4953 0.1818 0 8
11.9830 -6.2057 -2.4953 0.1818 0 8
12.0818 -6.0112 -2.4953 0.1818 0 8
12.1774 -5.8151 -2.4953 0.1818 0 8
12.2698 -5.6175 -2.4953 0.1818 0 8
12.3589 -5.4185 -2.4953 0.1818 0 8
12.4449 -5.2180 -2.4953 0.1818 0 8
12.5276 -5.0162 -2.4953 0.1818 0 8
12.6071 -4.8130 -2.4953 0.1818 0 8
12.6832 -4.6086 -2.4953 0.1818 0 8
12.7561 -4.4030 -2.4953 0.1818 0 8
12.8256 -4.1963 -2.4953 0.1818 0 8
12.8917 -3.9884 -2.4953 0.1818 0 8
12.9545 -3.7795 -2.4953 0.1818 0 8
13.0139 -3.5696 -2.4953 0.1818 0 8
13.0699 -3.3588 -2.4953 0.1818 0 8
13.1225 -3.1471 -2.4953 0.1818 0 8
13.1716 -2.9346 -2.4953 0.1818 0 8
13.2173 -2.7213 -2.4953 0.1818 0 8
13.2596 -2.5073 -2.4953 0.1818 0 8
13.2984 -2.2927 -2.4953 0.1818 0 8
13.3337 -2.0774 -2.4953 0.1818 0 8
13.3655 -1.8616 -2.4953 0.1818 0 8
13.3939 -1.6454 -2.4953 0.1818 0 8
13.4187 -1.4287 -2.4953 0.1818 0 8
8.0064 -0.7218 -1.4865 0.2706 25 10
7.8057 -0.5766 -1.4473 0.3740 25 10
7.7143 -0.4447 -1.4288 0.9152 25 10
7.6719 -0.3179 -1.4198 0.9210 25 10
7.6551 -0.1933 -1.4160 0.9867 25 10
7.6419 -0.0694 -1.4131 0.9887 25 10
7.6402 0.0541 -1.4128 0.9890 25 10
7.6535 0.1779 -1.4156 0.9870 25 10
7.6673 0.3023 -1.4188 0.9670 25 10
7.7091 0.4289 -1.4277 0.9160 25 10
7.7826 0.5593 -1.4428 0.3752 25 10
7.9724 0.7026 -1.4799 0.3658 25 10
13.4216 1.4018 -2.4953 0.1818 0 8
13.3972 1.6185 -2.4953 0.1818 0 8
13.3692 1.8349 -2.4953 0.1818 0 8
13.3378 2.0507 -2.4953 0.1818 0 8
13.3030 2.2661 -2.4953 0.1818 0 8
13.2646 2.4808 -2.4953 0.1818 0 8
13.2228 2.6949 -2.4953 0.1818 0 8
13.1775 2.9082 -2.4953 0.1818 0 8
13.1287 3.1209 -2.4953 0.1818 0 8
13.0766 3.3326 -2.4953 0.1818 0 8
13.0210 3.5436 -2.4953 0.1818 0 8
12.9620 3.7536 -2.4953 0.1818 0 8
12.8997 3.9626 -2.4953 0.1818 0 8
12.8339 4.1706 -2.4953 0.1818 0 8
12.7648 4.3775 -2.4953 0.1818 0 8
12.6924 4.5832 -2.4953 0.1818 0 8
12.6167 4.7878 -2.4953 0.1818 0 8
12.5377 4.9911 -2.4953 0.1818 0 8
12.4553 5.1931 -2.4953 0.1818 0 8
12.3698 5.3937 -2.4953 0.1818 0 8
12.2810 5.5930 -2.4953 0.1818 0 8
12.1890 5.7907 -2.4953 0.1818 0 8
12.0938 5.9870 -2.4953 0.1818 0 8
11.9954 6.1817 -2.4953 0.1818 0 8
11.8939 6.3748 -2.4953 0.1818 0 8
11.7894 6.5662 -2.4953 0.1818 0 8
11.6817 6.7559 -2.4953 0.1818 0 8
11.5710 6.9438 -2.4953 0.1818 0 8
11.4572 7.1299 -2.4953 0.1818 0 8
11.3405 7.3142 -2.4953 0.1818 0 8
11.2208 7.4965 -2.4953 0.1818 0 8
11.0981 7.6769 -2.4953 0.1818 0 8
10.9726 7.8553 -2.4953 0.1818 0 8
10.8442 8.0316 -2.4953 0.1818 0 8
10.7130 8.2059 -2.4953 0.1818 0 8
10.5789 8.3779 -2.4953 0.1818 0 8
11.0799 9.0699 -2.6477 0.1818 0 7
10.9318 9.2478 -2.6477 0.1818 0 7
11.2523 -6.2966 -2.4953 0.1900 0 8
11.3526 -6.1139 -2.4953 0.1900 0 8
11.4500 -5.9296 -2.4953 0.1900 0 8
11.5443 -5.7438 -2.4953 0.1900 0 8
11.6356 -5.5564 -2.4953 0.1900 0 8
11.7239 -5.3676 -2.4953 0.1900 0 8
11.8092 -5.1774 -2.4953 0.1900 0 8
11.8913 -4.9859 -2.4953 0.1900 0 8
11.9703 -4.7930 -2.4953 0.1900 0 8
12.0462 -4.5989 -2.4953 0.1900 0 8
12.1190 -4.4036 -2.4953 0.1900 0 8
12.1886 -4.2071 -2.4953 0.1900 0 8
12.2550 -4.0096 -2.4953 0.1900 0 8
12.3182 -3.8110 -2.4953 0.1900 0 8
12.3782 -3.6114 -2.4953 0.1900 0 8
12.4350 -3.4108 -2.4953 0.1900 0 8
12.4885 -3.2094 -2.4953 0.1900 0 8
12.5387 -3.0071 -2.4953 0.1900 0 8
12.5857 -2.8041 -2.4953 0.1900 0 8
12.6294 -2.6003 -2.4953 0.1900 0 8
12.6697 -2.3958 -2.4953 0.1900 0 8
12.7068 -2.1907 -2.4953 0.1900 0 8
12.7406 -1.9850 -2.4953 0.1900 0 8
12.7710 -1.7788 -2.4953 0.1900 0 8
12.7981 -1.5722 -2.4953 0.1900 0 8
12.8218 -1.3651 -2.4953 0.1900 0 8
7.8582 -0.7084 -1.5269 0.6993 25 10
7.7521 -0.5727 -1.5043 0.7099 25 10
7.6917 -0.4433 -1.4910 0.9165 25 10
7.6522 -0.3171 -1.4821 0.9673 25 10
7.6373 -0.1929 -1.4784 0.9875 25 10
7.6241 -0.0693 -1.4755 0.9895 25 10
7.6232 0.0540 -1.4753 0.9969 25 10
7.6357 0.1775 -1.4780 0.9877 25 10
7.6492 0.3016 -1.4814 0.9677 25 10
7.6865 0.4276 -1.4898 0.9172 25 10
7.7392 0.5561 -1.5015 0.7111 25 10
7.8449 0.6914 -1.5240 0.7007 25 10
8.2532 0.8620 -1.6058 0.1874 25 10
12.8012 1.5465 -2.4953 0.1900 0 8
12.7745 1.7533 -2.4953 0.1900 0 8
12.7445 1.9595 -2.4953 0.1900 0 8
12.7112 2.1652 -2.4953 0.1900 0 8
12.6745 2.3704 -2.4953 0.1900 0 8
12.6345 2.5750 -2.4953 0.1900 0 8
12.5913 2.7789 -2.4953 0.1900 0 8
12.5447 2.9820 -2.4953 0.1900 0 8
12.4949 3.1844 -2.4953 0.1900 0 8
12.4418 3.3859 -2.4953 0.1900 0 8
12.3854 3.5866 -2.4953 0.1900 0 8
12.3258 3.7863 -2.4953 0.1900 0 8
12.2630 3.9851 -2.4953 0.1900 0 8
12.1970 4.1827 -2.4953 0.1900 0 8
12.1278 4.3793 -2.4953 0.1900 0 8
12.0554 4.5748 -2.4953 0.1900 0 8
11.9799 4.7691 -2.4953 0.1900 0 8
11.9013 4.9621 -2.4953 0.1900 0 8
11.8195 5.1538 -2.4953 0.1900 0 8
11.7346 5.3441 -2.4953 0.1900 0 8
11.6467 5.5331 -2.4953 0.1900 0 8
11.5558 5.7206 -2.4953 0.1900 0 8
11.4618 5.9067 -2.4953 0.1900 0 8
11.3648 6.0912 -2.4953 0.1900 0 8
11.2649 6.2741 -2.4953 0.1900 0 8
11.1620 6.4553 -2.4953 0.1900 0 8
11.0562 6.6349 -2.4953 0.1900 0 8
10.9475 6.8128 -2.4953 0.1900 0 8
10.8360 6.9888 -2.4953 0.1900 0 8
10.7216 7.1631 -2.4953 0.1900 0 8
10.6044 7.3354 -2.4953 0.1900 0 8
10.4845 7.5059 -2.4953 0.1900 0 8
10.3618 7.6743 -2.4953 0.1900 0 8
10.2364 7.8408 -2.4953 0.1900 0 8
10.1083 8.0052 -2.4953 0.1900 0 8
9.9776 8.1676 -2.4953 0.1900 0 8
9.8443 8.3278 -2.4953 0.1900 0 8
10.7716 -6.0276 -2.4953 0.1981 0 8
10.8676 -5.8527 -2.4953 0.1981 0 8
10.9608 -5.6763 -2.4953 0.1981 0 8
11.0511 -5.4984 -2.4953 0.1981 0 8
11.1385 -5.3191 -2.4953 0.1981 0 8
11.2231 -5.1383 -2.4953 0.1981 0 8
11.3046 -4.9562 -2.4953 0.1981 0 8
11.3833 -4.7729 -2.4953 0.1981 0 8
11.4589 -4.5883 -2.4953 0.1981 0 8
11.5316 -4.4024 -2.4953 0.1981 0 8
11.6013 -4.2155 -2.4953 0.1981 0 8
11.6679 -4.0274 -2.4953 0.1981 0 8
11.7314 -3.8383 -2.4953 0.1981 0 8
11.7920 -3.6482 -2.4953 0.1981 0 8
11.8494 -3.4571 -2.4953 0.1981 0 8
11.9037 -3.2651 -2.4953 0.1981 0 8
11.9549 -3.0723 -2.4953 0.1981 0 8
12.0030 -2.8787 -2.4953 0.1981 0 8
12.0480 -2.6843 -2.4953 0.1981 0 8
12.0898 -2.4892 -2.4953 0.1981 0 8
12.1285 -2.2934 -2.4953 0.1981 0 8
12.1639 -2.0971 -2.4953 0.1981 0 8
12.1962 -1.9002 -2.4953 0.1981 0 8
12.2254 -1.7028 -2.4953 0.1981 0 8
12.2513 -1.5050 -2.4953 0.1981 0 8
8.4261 -0.8971 -1.7130 0.0219 25 10
7.8218 -0.7051 -1.5876 0.7014 25 10
7.7199 -0.5703 -1.5649 0.8740 25 10
7.6692 -0.4420 -1.5529 0.9177 25 10
7.6341 -0.3163 -1.5446 0.9680 25 10
7.6196 -0.1924 -1.5408 0.9882 25 10
7.6089 -0.0691 -1.5382 0.9971 25 10
7.6080 0.0539 -1.5380 0.9972 25 10
7.6179 0.1771 -1.5404 0.9884 25 10
7.6311 0.3009 -1.5439 0.9684 25 10
7.6640 0.4264 -1.5517 0.9184 25 10
7.7129 0.5543 -1.5632 0.8750 25 10
7.8086 0.6882 -1.5847 0.7028 25 10
8.2086 0.8573 -1.6684 0.1881 25 10
12.2543 1.4805 -2.4953 0.1981 0 8
12.2288 1.6784 -2.4953 0.1981 0 8
12.2000 1.8758 -2.4953 0.1981 0 8
12.1681 2.0727 -2.4953 0.1981 0 8
12.1330 2.2692 -2.4953 0.1981 0 8
12.0948 2.4650 -2.4953 0.1981 0 8
12.0533 2.6601 -2.4953 0.1981 0 8
12.0088 2.8546 -2.4953 0.1981 0 8
11.9611 3.0483 -2.4953 0.1981 0 8
11.9102 3.2413 -2.4953 0.1981 0 8
11.8563 3.4334 -2.4953 0.1981 0 8
11.7992 3.6246 -2.4953 0.1981 0 8
11.7391 3.8148 -2.4953 0.1981 0 8
11.6759 4.0040 -2.4953 0.1981 0 8
11.6097 4.1922 -2.4953 0.1981 0 8
11.5404 4.3793 -2.4953 0.1981 0 8
11.4681 4.5653 -2.4953 0.1981 0 8
11.3928 4.7501 -2.4953 0.1981 0 8
11.3145 4.9336 -2.4953 0.1981 0 8
11.2333 5.1158 -2.4953 0.1981 0 8
11.1492 5.2967 -2.4953 0.1981 0 8
11.0621 5.4763 -2.4953 0.1981 0 8
10.9721 5.6543 -2.4953 0.1981 0 8
10.8793 5.8310 -2.4953 0.1981 0 8
10.7836 6.0060 -2.4953 0.1981 0 8
10.6851 6.1796 -2.4953 0.1981 0 8
10.5839 6.3515 -2.4953 0.1981 0 8
10.4798 6.5217 -2.4953 0.1981 0 8
10.3730 6.6902 -2.4953 0.1981 0 8
10.2635 6.8570 -2.4953 0.1981 0 8
10.1514 7.0220 -2.4953 0.1981 0 8
10.0365 7.1852 -2.4953 0.1981 0 8
9.9191 7.3465 -2.4953 0.1981 0 8
9.7991 7.5058 -2.4953 0.1981 0 8
9.6765 7.6632 -2.4953 0.1981 0 8
9.5513 7.8187 -2.4953 0.1981 0 8
9.4237 7.9720 -2.4953 0.1981 0 8
10.3288 -5.7799 -2.4953 0.2063 0 8
10.4209 -5.6122 -2.4953 0.2063 0 8
10.5103 -5.4430 -2.4953 0.2063 0 8
10.5969 -5.2724 -2.4953 0.2063 0 8
10.6807 -5.1004 -2.4953 0.2063 0 8
10.7618 -4.9271 -2.4953 0.2063 0 8
10.8400 -4.7525 -2.4953 0.2063 0 8
10.9154 -4.5767 -2.4953 0.2063 0 8
10.9879 -4.3997 -2.4953 0.2063 0 8
11.0576 -4.2215 -2.4953 0.2063 0 8
11.1244 -4.0422 -2.4953 0.2063 0 8
11.1883 -3.8619 -2.4953 0.2063 0 8
11.2492 -3.6805 -2.4953 0.2063 0 8
11.3073 -3.4982 -2.4953 0.2063 0 8
11.3623 -3.3150 -2.4953 0.2063 0 8
11.4144 -3.1309 -2.4953 0.2063 0 8
11.4635 -2.9460 -2.4953 0.2063 0 8
11.5097 -2.7603 -2.4953 0.2063 0 8
11.5528 -2.5739 -2.4953 0.2063 0 8
11.5929 -2.3869 -2.4953 0.2063 0 8
11.6299 -2.1992 -2.4953 0.2063 0 8
11.6640 -2.0109 -2.4953 0.2063 0 8
11.6949 -1.8221 -2.4953 0.2063 0 8
11.7229 -1.6328 -2.4953 0.2063 0 8
11.7477 -1.4431 -2.4953 0.2063 0 8
8.2464 -0.8780 -1.7483 0.1869 25 10
7.7856 -0.7019 -1.6480 0.7035 25 10
7.6974 -0.5686 -1.6272 0.8751 25 10
7.6467 -0.4408 -1.6147 0.9188 25 10
7.6161 -0.3156 -1.6070 0.9686 25 10
7.6018 -0.1920 -1.6031 0.9888 25 10
7.5938 -0.0690 -1.6010 0.9973 25 10
7.5929 0.0538 -1.6008 0.9975 25 10
7.6002 0.1767 -1.6027 0.9890 25 10
7.6132 0.3002 -1.6063 0.9868 25 10
7.6415 0.4251 -1.6135 0.9195 25 10
7.6905 0.5526 -1.6255 0.8760 25 10
7.7726 0.6850 -1.6450 0.7048 25 10
8.1644 0.8527 -1.7306 0.1888 25 10
11.7506 1.4196 -2.4953 0.2063 0 8
11.7261 1.6094 -2.4953 0.2063 0 8
11.6986 1.7987 -2.4953 0.2063 0 8
11.6680 1.9875 -2.4953 0.2063 0 8
11.6343 2.1759 -2.4953 0.2063 0 8
11.5976 2.3637 -2.4953 0.2063 0 8
11.5579 2.5508 -2.4953 0.2063 0 8
11.5152 2.7373 -2.4953 0.2063 0 8
11.4694 2.9231 -2.4953 0.2063 0 8
11.4207 3.1081 -2.4953 0.2063 0 8
11.3689 3.2922 -2.4953 0.2063 0 8
11.3142 3.4756 -2.4953 0.2063 0 8
11.2566 3.6580 -2.4953 0.2063 0 8
11.1960 3.8395 -2.4953 0.2063 0 8
11.1325 4.0199 -2.4953 0.2063 0 8
11.0660 4.1993 -2.4953 0.2063 0 8
10.9967 4.3777 -2.4953 0.2063 0 8
10.9245 4.5548 -2.4953 0.2063 0 8
10.8495 4.7308 -2.4953 0.2063 0 8
10.7716 4.9056 -2.4953 0.2063 0 8
10.6909 5.0790 -2.4953 0.2063 0 8
10.6074 5.2512 -2.4953 0.2063 0 8
10.5211 5.4219 -2.4953 0.2063 0 8
10.4321 5.5913 -2.4953 0.2063 0 8
10.3404 5.7592 -2.4953 0.2063 0 8
10.2460 5.9256 -2.4953 0.2063 0 8
10.1488 6.0904 -2.4953 0.2063 0 8
10.0491 6.2536 -2.4953 0.2063 0 8
9.9467 6.4153 -2.4953 0.2063 0 8
9.8417 6.5752 -2.4953 0.2063 0 8
9.7341 6.7334 -2.4953 0.2063 0 8
9.6240 6.8899 -2.4953 0.2063 0 8
9.5114 7.0445 -2.4953 0.2063 0 8
9.3963 7.1973 -2.4953 0.2063 0 8
9.2787 7.3483 -2.4953 0.2063 0 8
9.1587 7.4973 -2.4953 0.2063 0 8
9.0364 7.6443 -2.4953 0.2063 0 8
9.9197 -5.5509 -2.4953 0.2144 0 8
10.0081 -5.3898 -2.4953 0.2144 0 8
10.0939 -5.2274 -2.4953 0.2144 0 8
10.1771 -5.0635 -2.4953 0.2144 0 8
10.2576 -4.8984 -2.4953 0.2144 0 8
10.3354 -4.7319 -2.4953 0.2144 0 8
10.4106 -4.5643 -2.4953 0.2144 0 8
10.4830 -4.3954 -2.4953 0.2144 0 8
10.5527 -4.2254 -2.4953 0.2144 0 8
10.6196 -4.0543 -2.4953 0.2144 0 8
10.6837 -3.8821 -2.4953 0.2144 0 8
10.7451 -3.7089 -2.4953 0.2144 0 8
10.8036 -3.5347 -2.4953 0.2144 0 8
10.8593 -3.3596 -2.4953 0.2144 0 8
10.9122 -3.1837 -2.4953 0.2144 0 8
10.9623 -3.0069 -2.4953 0.2144 0 8
11.0094 -2.8293 -2.4953 0.2144 0 8
11.0537 -2.6510 -2.4953 0.2144 0 8
11.0951 -2.4720 -2.4953 0.2144 0 8
11.1336 -2.2923 -2.4953 0.2144 0 8
11.1692 -2.1121 -2.4953 0.2144 0 8
11.2019 -1.9312 -2.4953 0.2144 0 8
11.2317 -1.7499 -2.4953 0.2144 0 8
11.2585 -1.5682 -2.4953 0.2144 0 8
11.2824 -1.3860 -2.4953 0.2144 0 8
8.2017 -0.8732 -1.8106 0.1876 25 10
7.7496 -0.6986 -1.7081 0.7055 25 10
7.6751 -0.5670 -1.6894 0.8761 25 10
7.6243 -0.4395 -1.6764 0.9198 25 10
7.5980 -0.3148 -1.6693 0.9692 25 10
7.5856 -0.1916 -1.6657 0.9964 25 10
7.5787 -0.0688 -1.6637 0.9975 25 10
7.5778 0.0537 -1.6635 0.9977 25 10
7.5847 0.1763 -1.6654 0.9965 25 10
7.5955 0.2995 -1.6686 0.9874 25 10
7.6194 0.4239 -1.6752 0.9658 25 10
7.6682 0.5510 -1.6876 0.8770 25 10
7.7367 0.6818 -1.7049 0.7068 25 10
8.1206 0.8481 -1.7923 0.1895 25 10
11.2851 1.3634 -2.4953 0.2144 0 8
11.2616 1.5456 -2.4953 0.2144 0 8
11.2351 1.7274 -2.4953 0.2144 0 8
11.2058 1.9088 -2.4953 0.2144 0 8
11.1734 2.0897 -2.4953 0.2144 0 8
11.1382 2.2700 -2.4953 0.2144 0 8
11.1001 2.4498 -2.4953 0.2144 0 8
11.0590 2.6288 -2.4953 0.2144 0 8
11.0151 2.8073 -2.4953 0.2144 0 8
10.9683 2.9849 -2.4953 0.2144 0 8
10.9186 3.1618 -2.4953 0.2144 0 8
10.8660 3.3379 -2.4953 0.2144 0 8
10.8107 3.5131 -2.4953 0.2144 0 8
10.7525 3.6874 -2.4953 0.2144 0 8
10.6915 3.8607 -2.4953 0.2144 0 8
10.6277 4.0330 -2.4953 0.2144 0 8
10.5611 4.2042 -2.4953 0.2144 0 8
10.4918 4.3744 -2.4953 0.2144 0 8
10.4197 4.5434 -2.4953 0.2144 0 8
10.3449 4.7112 -2.4953 0.2144 0 8
10.2674 4.8778 -2.4953 0.2144 0 8
10.1872 5.0431 -2.4953 0.2144 0 8
10.1044 5.2071 -2.4953 0.2144 0 8
10.0189 5.3698 -2.4953 0.2144 0 8
9.9308 5.5310 -2.4953 0.2144 0 8
9.8401 5.6908 -2.4953 0.2144 0 8
9.7468 5.8491 -2.4953 0.2144 0 8
9.6510 6.0059 -2.4953 0.2144 0 8
9.5526 6.1611 -2.4953 0.2144 0 8
9.4518 6.3147 -2.4953 0.2144 0 8
9.3485 6.4667 -2.4953 0.2144 0 8
9.2428 6.6169 -2.4953 0.2144 0 8
9.1346 6.7655 -2.4953 0.2144 0 8
9.0241 6.9122 -2.4953 0.2144 0 8
8.9112 7.0572 -2.4953 0.2144 0 8
8.7959 7.2003 -2.4953 0.2144 0 8
8.6784 7.3415 -2.4953 0.2144 0 8
9.5404 -5.3386 -2.4953 0.2225 0 8
9.6254 -5.1837 -2.4953 0.2225 0 8
9.7079 -5.0275 -2.4953 0.2225 0 8
9.7879 -4.8699 -2.4953 0.2225 0 8
9.8654 -4.7111 -2.4953 0.2225 0 8
9.9402 -4.5510 -2.4953 0.2225 0 8
10.0125 -4.3897 -2.4953 0.2225 0 8
10.0821 -4.2273 -2.4953 0.2225 0 8
10.1491 -4.0638 -2.4953 0.2225 0 8
10.2135 -3.8992 -2.4953 0.2225 0 8
10.2752 -3.7336 -2.4953 0.2225 0 8
10.3342 -3.5671 -2.4953 0.2225 0 8
10.3905 -3.3996 -2.4953 0.2225 0 8
10.4441 -3.2312 -2.4953 0.2225 0 8
10.4950 -3.0619 -2.4953 0.2225 0 8
10.5431 -2.8919 -2.4953 0.2225 0 8
10.5884 -2.7211 -2.4953 0.2225 0 8
10.6310 -2.5496 -2.4953 0.2225 0 8
10.6709 -2.3774 -2.4953 0.2225 0 8
10.7079 -2.2047 -2.4953 0.2225 0 8
10.7421 -2.0313 -2.4953 0.2225 0 8
10.7736 -1.8574 -2.4953 0.2225 0 8
10.8022 -1.6830 -2.4953 0.2225 0 8
10.8280 -1.5082 -2.4953 0.2225 0 8
10.8509 -1.3330 -2.4953 0.2225 0 8
8.1584 -0.8686 -1.8726 0.1865 25 10
7.7139 -0.6954 -1.7678 0.7075 25 10
7.6527 -0.5653 -1.7514 0.8770 25 10
7.6043 -0.4383 -1.7385 0.9658 25 10
7.5800 -0.3141 -1.7316 0.9697 25 10
7.5704 -0.1912 -1.7285 0.9965 25 10
7.5636 -0.0687 -1.7264 0.9977 25 10
7.5627 0.0536 -1.7262 0.9978 25 10
7.5696 0.1760 -1.7282 0.9967 25 10
7.5777 0.2988 -1.7309 0.9878 25 10
7.6013 0.4229 -1.7376 0.9663 25 10
7.6459 0.5494 -1.7496 0.8779 25 10
7.7015 0.6787 -1.7646 0.8704 25 10
8.0772 0.8436 -1.8536 0.1884 25 10
10.8536 1.3113 -2.4953 0.2225 0 8
10.8310 1.4865 -2.4953 0.2225 0 8
10.8055 1.6614 -2.4953 0.2225 0 8
10.7773 1.8358 -2.4953 0.2225 0 8
10.7462 2.0098 -2.4953 0.2225 0 8
10.7123 2.1832 -2.4953 0.2225 0 8
10.6756 2.3561 -2.4953 0.2225 0 8
10.6361 2.5283 -2.4953 0.2225 0 8
10.5939 2.6999 -2.4953 0.2225 0 8
10.5488 2.8708 -2.4953 0.2225 0 8
10.5011 3.0409 -2.4953 0.2225 0 8
10.4505 3.2103 -2.4953 0.2225 0 8
10.3973 3.3788 -2.4953 0.2225 0 8
10.3413 3.5464 -2.4953 0.2225 0 8
10.2826 3.7131 -2.4953 0.2225 0 8
10.2213 3.8788 -2.4953 0.2225 0 8
10.1573 4.0435 -2.4953 0.2225 0 8
10.0906 4.2071 -2.4953 0.2225 0 8
10.0212 4.3697 -2.4953 0.2225 0 8
9.9493 4.5311 -2.4953 0.2225 0 8
9.8748 4.6913 -2.4953 0.2225 0 8
9.7977 4.8503 -2.4953 0.2225 0 8
9.7180 5.0080 -2.4953 0.2225 0 8
9.6358 5.1645 -2.4953 0.2225 0 8
9.5510 5.3195 -2.4953 0.2225 0 8
9.4638 5.4732 -2.4953 0.2225 0 8
9.3741 5.6255 -2.4953 0.2225 0 8
9.2819 5.7763 -2.4953 0.2225 0 8
9.1874 5.9255 -2.4953 0.2225 0 8
9.0904 6.0732 -2.4953 0.2225 0 8
8.9910 6.2194 -2.4953 0.2225 0 8
8.8893 6.3639 -2.4953 0.2225 0 8
8.7853 6.5067 -2.4953 0.2225 0 8
8.6790 6.6479 -2.4953 0.2225 0 8
8.5704 6.7873 -2.4953 0.2225 0 8
8.4596 6.9250 -2.4953 0.2225 0 8
8.3465 7.0608 -2.4953 0.2225 0 8
9.1877 -5.1413 -2.4953 0.2306 0 8
9.2696 -4.9921 -2.4953 0.2306 0 8
9.3491 -4.8416 -2.4953 0.2306 0 8
9.4261 -4.6899 -2.4953 0.2306 0 8
9.5007 -4.5369 -2.4953 0.2306 0 8
9.5728 -4.3828 -2.4953 0.2306 0 8
9.6424 -4.2275 -2.4953 0.2306 0 8
9.7094 -4.0711 -2.4953 0.2306 0 8
9.7740 -3.9136 -2.4953 0.2306 0 8
9.8360 -3.7551 -2.4953 0.2306 0 8
9.8954 -3.5956 -2.4953 0.2306 0 8
9.9522 -3.4352 -2.4953 0.2306 0 8
10.0064 -3.2739 -2.4953 0.2306 0 8
10.0580 -3.1117 -2.4953 0.2306 0 8
10.1070 -2.9488 -2.4953 0.2306 0 8
10.1533 -2.7850 -2.4953 0.2306 0 8
10.1970 -2.6205 -2.4953 0.2306 0 8
10.2381 -2.4554 -2.4953 0.2306 0 8
10.2764 -2.2896 -2.4953 0.2306 0 8
10.3121 -2.1232 -2.4953 0.2306 0 8
10.3450 -1.9562 -2.4953 0.2306 0 8
10.3753 -1.7887 -2.4953 0.2306 0 8
10.4029 -1.6208 -2.4953 0.2306 0 8
10.4277 -1.4524 -2.4953 0.2306 0 8
10.4498 -1.2837 -2.4953 0.2306 0 8
8.1182 -0.8643 -1.9349 0.1870 25 10
7.7031 -0.6944 -1.8331 0.2845 25 10
7.6413 -0.5645 -1.8160 0.8550 25 10
7.5937 -0.4377 -1.8027 0.9364 25 10
7.5679 -0.3136 -1.7952 0.9403 25 10
7.5595 -0.1909 -1.7922 0.9673 25 10
7.5522 -0.0686 -1.7900 0.9685 25 10
7.5513 0.0535 -1.7897 0.9686 25 10
7.5586 0.1757 -1.7919 0.9674 25 10
7.5660 0.2983 -1.7946 0.9660 25 10
7.5905 0.4223 -1.8018 0.9369 25 10
7.6344 0.5486 -1.8141 0.8559 25 10
7.6923 0.6779 -1.8302 0.7654 25 10
8.0379 0.8395 -1.9154 0.1899 25 10
10.4524 1.2628 -2.4953 0.2306 0 8
10.4306 1.4316 -2.4953 0.2306 0 8
10.4061 1.6000 -2.4953 0.2306 0 8
10.3789 1.7680 -2.4953 0.2306 0 8
10.3489 1.9355 -2.4953 0.2306 0 8
10.3163 2.1025 -2.4953 0.2306 0 8
10.2810 2.2690 -2.4953 0.2306 0 8
10.2430 2.4349 -2.4953 0.2306 0 8
10.2023 2.6001 -2.4953 0.2306 0 8
10.1589 2.7647 -2.4953 0.2306 0 8
10.1129 2.9285 -2.4953 0.2306 0 8
10.0642 3.0916 -2.4953 0.2306 0 8
10.0129 3.2539 -2.4953 0.2306 0 8
9.9590 3.4153 -2.4953 0.2306 0 8
9.9025 3.5758 -2.4953 0.2306 0 8
9.8435 3.7354 -2.4953 0.2306 0 8
9.7818 3.8940 -2.4953 0.2306 0 8
9.7176 4.0516 -2.4953 0.2306 0 8
9.6508 4.2081 -2.4953 0.2306 0 8
9.5815 4.3636 -2.4953 0.2306 0 8
9.5098 4.5179 -2.4953 0.2306 0 8
9.4355 4.6710 -2.4953 0.2306 0 8
9.3588 4.8229 -2.4953 0.2306 0 8
9.2796 4.9736 -2.4953 0.2306 0 8
9.1980 5.1229 -2.4953 0.2306 0 8
9.1140 5.2709 -2.4953 0.2306 0 8
9.0276 5.4175 -2.4953 0.2306 0 8
8.9388 5.5627 -2.4953 0.2306 0 8
8.8478 5.7065 -2.4953 0.2306 0 8
8.7544 5.8488 -2.4953 0.2306 0 8
8.6587 5.9895 -2.4953 0.2306 0 8
8.5607 6.1287 -2.4953 0.2306 0 8
8.4606 6.2662 -2.4953 0.2306 0 8
8.3582 6.4022 -2.4953 0.2306 0 8
8.2536 6.5364 -2.4953 0.2306 0 8
8.1469 6.6690 -2.4953 0.2306 0 8
8.0380 6.7998 -2.4953 0.2306 0 8
8.8589 -4.9573 -2.4953 0.2387 0 8
8.9379 -4.8135 -2.4953 0.2387 0 8
9.0145 -4.6684 -2.4953 0.2387 0 8
9.0888 -4.5221 -2.4953 0.2387 0 8
9.1607 -4.3746 -2.4953 0.2387 0 8
9.2302 -4.2259 -2.4953 0.2387 0 8
9.2973 -4.0762 -2.4953 0.2387 0 8
9.3620 -3.9254 -2.4953 0.2387 0 8
9.4242 -3.7735 -2.4953 0.2387 0 8
9.4840 -3.6207 -2.4953 0.2387 0 8
9.5413 -3.4670 -2.4953 0.2387 0 8
9.5961 -3.3123 -2.4953 0.2387 0 8
9.6484 -3.1568 -2.4953 0.2387 0 8
9.6981 -3.0004 -2.4953 0.2387 0 8
9.7453 -2.8432 -2.4953 0.2387 0 8
9.7900 -2.6854 -2.4953 0.2387 0 8
9.8322 -2.5268 -2.4953 0.2387 0 8
9.8717 -2.3675 -2.4953 0.2387 0 8
9.9087 -2.2076 -2.4953 0.2387 0 8
9.9431 -2.0472 -2.4953 0.2387 0 8
9.9749 -1.8862 -2.4953 0.2387 0 8
10.0041 -1.7247 -2.4953 0.2387 0 8
10.0306 -1.5628 -2.4953 0.2387 0 8
10.0546 -1.4005 -2.4953 0.2387 0 8
10.0759 -1.2378 -2.4953 0.2387 0 8
8.0788 -0.8601 -1.9970 0.1885 25 10
7.7414 -0.6979 -1.9106 0.2825 25 10
7.6439 -0.5647 -1.8840 0.8530 25 10
7.5964 -0.4379 -1.8703 0.9178 25 10
7.5689 -0.3136 -1.8620 0.9383 25 10
7.5602 -0.1909 -1.8589 0.9652 25 10
7.5581 -0.0687 -1.8579 0.9270 25 10
7.5585 0.0535 -1.8579 0.9270 25 10
7.5593 0.1757 -1.8586 0.9654 25 10
7.5666 0.2984 -1.8613 0.9640 25 10
7.5926 0.4224 -1.8691 0.9183 25 10
7.6370 0.5488 -1.8820 0.8539 25 10
7.7057 0.6791 -1.9014 0.7626 25 10
7.9997 0.8355 -1.9770 0.1904 25 10
10.0784 1.2176 -2.4953 0.2387 0 8
10.0574 1.3803 -2.4953 0.2387 0 8
10.0337 1.5427 -2.4953 0.2387 0 8
10.0075 1.7047 -2.4953 0.2387 0 8
9.9786 1.8662 -2.4953 0.2387 0 8
9.9472 2.0273 -2.4953 0.2387 0 8
9.9131 2.1878 -2.4953 0.2387 0 8
9.8764 2.3477 -2.4953 0.2387 0 8
9.8372 2.5071 -2.4953 0.2387 0 8
9.7954 2.6657 -2.4953 0.2387 0 8
9.7510 2.8237 -2.4953 0.2387 0 8
9.7041 2.9810 -2.4953 0.2387 0 8
9.6547 3.1374 -2.4953 0.2387 0 8
9.6027 3.2931 -2.4953 0.2387 0 8
9.5482 3.4478 -2.4953 0.2387 0 8
9.4912 3.6017 -2.4953 0.2387 0 8
9.4318 3.7547 -2.4953 0.2387 0 8
9.3698 3.9066 -2.4953 0.2387 0 8
9.3055 4.0576 -2.4953 0.2387 0 8
9.2387 4.2074 -2.4953 0.2387 0 8
9.1695 4.3562 -2.4953 0.2387 0 8
9.0979 4.5039 -2.4953 0.2387 0 8
9.0239 4.6503 -2.4953 0.2387 0 8
8.9475 4.7956 -2.4953 0.2387 0 8
8.8688 4.9396 -2.4953 0.2387 0 8
8.7878 5.0823 -2.4953 0.2387 0 8
8.7045 5.2237 -2.4953 0.2387 0 8
8.6190 5.3637 -2.4953 0.2387 0 8
8.5312 5.5023 -2.4953 0.2387 0 8
8.4411 5.6395 -2.4953 0.2387 0 8
8.3488 5.7752 -2.4953 0.2387 0 8
8.2544 5.9094 -2.4953 0.2387 0 8
8.1578 6.0420 -2.4953 0.2387 0 8
8.0591 6.1731 -2.4953 0.2387 0 8
7.9583 6.3025 -2.4953 0.2387 0 8
7.8554 6.4303 -2.4953 0.2387 0 8
7.7504 6.5565 -2.4953 0.2387 0 8
8.5517 -4.7854 -2.4953 0.2468 0 8
8.6279 -4.6465 -2.4953 0.2468 0 8
8.7019 -4.5065 -2.4953 0.2468 0 8
8.7736 -4.3652 -2.4953 0.2468 0 8
8.8430 -4.2228 -2.4953 0.2468 0 8
8.9101 -4.0794 -2.4953 0.2468 0 8
8.9749 -3.9348 -2.4953 0.2468 0 8
9.0373 -3.7892 -2.4953 0.2468 0 8
9.0974 -3.6427 -2.4953 0.2468 0 8
9.1551 -3.4951 -2.4953 0.2468 0 8
9.2104 -3.3467 -2.4953 0.2468 0 8
9.2632 -3.1974 -2.4953 0.2468 0 8
9.3137 -3.0473 -2.4953 0.2468 0 8
9.3618 -2.8963 -2.4953 0.2468 0 8
9.4073 -2.7446 -2.4953 0.2468 0 8
9.4505 -2.5922 -2.4953 0.2468 0 8
9.4911 -2.4391 -2.4953 0.2468 0 8
9.5293 -2.2854 -2.4953 0.2468 0 8
9.5650 -2.1311 -2.4953 0.2468 0 8
9.5982 -1.9762 -2.4953 0.2468 0 8
9.6289 -1.8208 -2.4953 0.2468 0 8
9.6571 -1.6649 -2.4953 0.2468 0 8
9.6827 -1.5086 -2.4953 0.2468 0 8
9.7058 -1.3519 -2.4953 0.2468 0 8
9.7264 -1.1948 -2.4953 0.2468 0 8
8.0955 -0.8619 -2.0730 0.1514 25 10
7.7555 -0.6991 -1.9828 0.4052 25 10
7.6532 -0.5654 -1.9541 0.7671 25 10
7.5995 -0.4380 -1.9383 0.9155 25 10
7.5699 -0.3137 -1.9292 0.9362 25 10
7.5646 -0.1910 -1.9268 0.9240 25 10
7.5681 -0.0687 -1.9271 0.9239 25 10
7.5685 0.0536 -1.9272 0.9238 25 10
7.5650 0.1759 -1.9268 0.9240 25 10
7.5673 0.2984 -1.9284 0.9619 25 10
7.5957 0.4226 -1.9371 0.9161 25 10
7.6440 0.5493 -1.9514 0.7681 25 10
7.7261 0.6809 -1.9749 0.4068 25 10
7.9975 0.8353 -2.0475 0.1533 25 10
9.7288 1.1754 -2.4953 0.2468 0 8
9.7085 1.3325 -2.4953 0.2468 0 8
9.6857 1.4892 -2.4953 0.2468 0 8
9.6604 1.6456 -2.4953 0.2468 0 8
9.6325 1.8015 -2.4953 0.2468 0 8
9.6022 1.9570 -2.4953 0.2468 0 8
9.5693 2.1119 -2.4953 0.2468 0 8
9.5339 2.2663 -2.4953 0.2468 0 8
9.4960 2.4201 -2.4953 0.2468 0 8
9.4556 2.5733 -2.4953 0.2468 0 8
9.4128 2.7258 -2.4953 0.2468 0 8
9.3675 2.8776 -2.4953 0.2468 0 8
9.3198 3.0286 -2.4953 0.2468 0 8
9.2696 3.1789 -2.4953 0.2468 0 8
9.2170 3.3283 -2.4953 0.2468 0 8
9.1620 3.4768 -2.4953 0.2468 0 8
9.1046 3.6244 -2.4953 0.2468 0 8
9.0449 3.7711 -2.4953 0.2468 0 8
8.9827 3.9168 -2.4953 0.2468 0 8
8.9182 4.0615 -2.4953 0.2468 0 8
8.8514 4.2051 -2.4953 0.2468 0 8
8.7823 4.3477 -2.4953 0.2468 0 8
8.7109 4.4890 -2.4953 0.2468 0 8
8.6372 4.6293 -2.4953 0.2468 0 8
8.5612 4.7683 -2.4953 0.2468 0 8
8.4830 4.9060 -2.4953 0.2468 0 8
8.4026 5.0425 -2.4953 0.2468 0 8
8.3200 5.1776 -2.4953 0.2468 0 8
8.2353 5.3115 -2.4953 0.2468 0 8
8.1483 5.4439 -2.4953 0.2468 0 8
8.0593 5.5749 -2.4953 0.2468 0 8
7.9681 5.7044 -2.4953 0.2468 0 8
7.8749 5.8324 -2.4953 0.2468 0 8
7.7796 5.9590 -2.4953 0.2468 0 8
7.6822 6.0839 -2.4953 0.2468 0 8
7.5829 6.2073 -2.4953 0.2468 0 8
7.4816 6.3291 -2.4953 0.2468 0 8
8.2638 -4.6243 -2.4953 0.2548 0 8
8.3375 -4.4901 -2.4953 0.2548 0 8
8.4090 -4.3548 -2.4953 0.2548 0 8
8.4783 -4.2183 -2.4953 0.2548 0 8
8.5454 -4.0807 -2.4953 0.2548 0 8
8.6102 -3.9421 -2.4953 0.2548 0 8
8.6728 -3.8024 -2.4953 0.2548 0 8
8.7331 -3.6617 -2.4953 0.2548 0 8
8.7912 -3.5201 -2.4953 0.2548 0 8
8.8469 -3.3775 -2.4953 0.2548 0 8
8.9003 -3.2341 -2.4953 0.2548 0 8
8.9515 -3.0898 -2.4953 0.2548 0 8
9.0002 -2.9447 -2.4953 0.2548 0 8
9.0467 -2.7988 -2.4953 0.2548 0 8
9.0907 -2.6522 -2.4953 0.2548 0 8
9.1324 -2.5050 -2.4953 0.2548 0 8
9.1717 -2.3570 -2.4953 0.2548 0 8
9.2086 -2.2085 -2.4953 0.2548 0 8
9.2431 -2.0593 -2.4953 0.2548 0 8
9.2752 -1.9097 -2.4953 0.2548 0 8
9.3048 -1.7595 -2.4953 0.2548 0 8
9.3320 -1.6089 -2.4953 0.2548 0 8
9.3568 -1.4578 -2.4953 0.2548 0 8
9.3792 -1.3064 -2.4953 0.2548 0 8
9.3991 -1.1546 -2.4953 0.2548 0 8
8.1321 -0.8658 -2.1549 0.1935 25 10
7.7992 -0.7031 -2.0634 0.4021 25 10
7.6738 -0.5669 -2.0275 0.7195 25 10
7.6094 -0.4386 -2.0084 0.8430 25 10
7.5777 -0.3140 -1.9984 0.8472 25 10
7.5769 -0.1913 -1.9972 0.8886 25 10
7.5807 -0.0689 -1.9976 0.8884 25 10
7.5812 0.0537 -1.9977 0.8883 25 10
7.5774 0.1762 -1.9972 0.8885 25 10
7.5738 0.2986 -1.9972 0.8477 25 10
7.6055 0.4231 -2.0071 0.8435 25 10
7.6641 0.5507 -2.0247 0.7205 25 10
7.7694 0.6847 -2.0552 0.4037 25 10
8.0555 0.8413 -2.1342 0.1954 25 10
9.4013 1.1358 -2.4953 0.2548 0 8
9.3818 1.2876 -2.4953 0.2548 0 8
9.3597 1.4391 -2.4953 0.2548 0 8
9.3352 1.5902 -2.4953 0.2548 0 8
9.3083 1.7409 -2.4953 0.2548 0 8
9.2790 1.8911 -2.4953 0.2548 0 8
9.2472 2.0408 -2.4953 0.2548 0 8
9.2130 2.1900 -2.4953 0.2548 0 8
9.1764 2.3387 -2.4953 0.2548 0 8
9.1374 2.4867 -2.4953 0.2548 0 8
9.0960 2.6340 -2.4953 0.2548 0 8
9.0522 2.7807 -2.4953 0.2548 0 8
9.0061 2.9267 -2.4953 0.2548 0 8
8.9576 3.0719 -2.4953 0.2548 0 8
8.9068 3.2162 -2.4953 0.2548 0 8
8.8537 3.3598 -2.4953 0.2548 0 8
8.7982 3.5025 -2.4953 0.2548 0 8
8.7404 3.6442 -2.4953 0.2548 0 8
8.6804 3.7850 -2.4953 0.2548 0 8
8.6181 3.9248 -2.4953 0.2548 0 8
8.5535 4.0636 -2.4953 0.2548 0 8
8.4867 4.2013 -2.4953 0.2548 0 8
8.4177 4.3379 -2.4953 0.2548 0 8
8.3465 4.4734 -2.4953 0.2548 0 8
8.2731 4.6078 -2.4953 0.2548 0 8
8.1975 4.7409 -2.4953 0.2548 0 8
8.1198 4.8728 -2.4953 0.2548 0 8
8.0400 5.0034 -2.4953 0.2548 0 8
7.9581 5.1327 -2.4953 0.2548 0 8
7.8741 5.2606 -2.4953 0.2548 0 8
7.7880 5.3872 -2.4953 0.2548 0 8
7.6999 5.5124 -2.4953 0.2548 0 8
7.6098 5.6361 -2.4953 0.2548 0 8
7.5177 5.7584 -2.4953 0.2548 0 8
7.4237 5.8792 -2.4953 0.2548 0 8
7.3277 5.9984 -2.4953 0.2548 0 8
7.2298 6.1160 -2.4953 0.2548 0 8
7.9936 -4.4731 -2.4953 0.2628 0 8
8.0649 -4.3433 -2.4953 0.2628 0 8
8.1340 -4.2124 -2.4953 0.2628 0 8
8.2010 -4.0804 -2.4953 0.2628 0 8
8.2659 -3.9473 -2.4953 0.2628 0 8
8.3286 -3.8132 -2.4953 0.2628 0 8
8.3892 -3.6780 -2.4953 0.2628 0 8
8.4475 -3.5420 -2.4953 0.2628 0 8
8.5037 -3.4050 -2.4953 0.2628 0 8
8.5576 -3.2671 -2.4953 0.2628 0 8
8.6093 -3.1283 -2.4953 0.2628 0 8
8.6587 -2.9887 -2.4953 0.2628 0 8
8.7059 -2.8484 -2.4953 0.2628 0 8
8.7508 -2.7073 -2.4953 0.2628 0 8
8.7934 -2.5655 -2.4953 0.2628 0 8
8.8338 -2.4231 -2.4953 0.2628 0 8
8.8718 -2.2799 -2.4953 0.2628 0 8
8.9075 -2.1363 -2.4953 0.2628 0 8
8.9408 -1.9920 -2.4953 0.2628 0 8
8.9719 -1.8472 -2.4953 0.2628 0 8
9.0005 -1.7020 -2.4953 0.2628 0 8
9.0269 -1.5563 -2.4953 0.2628 0 8
9.0509 -1.4102 -2.4953 0.2628 0 8
9.0725 -1.2637 -2.4953 0.2628 0 8
9.0917 -1.1169 -2.4953 0.2628 0 8
8.1615 -0.8689 -2.2358 0.1924 25 10
7.8344 -0.7062 -2.1428 0.5471 25 10
7.6971 -0.5686 -2.1025 0.7215 25 10
7.6307 -0.4398 -2.0821 0.8099 25 10
7.5955 -0.3147 -2.0709 0.8434 25 10
7.5929 -0.1917 -2.0690 0.8847 25 10
7.5905 -0.0689 -2.0678 0.9254 25 10
7.5899 0.0537 -2.0676 0.9255 25 10
7.5934 0.1765 -2.0691 0.8847 25 10
7.5916 0.2993 -2.0696 0.8439 25 10
7.6260 0.4242 -2.0806 0.8105 25 10
7.6876 0.5524 -2.0996 0.7225 25 10
7.8135 0.6886 -2.1367 0.4005 25 10
8.0843 0.8444 -2.2142 0.1943 25 10
9.0939 1.0987 -2.4953 0.2628 0 8
9.0750 1.2455 -2.4953 0.2628 0 8
9.0537 1.3920 -2.4953 0.2628 0 8
9.0300 1.5382 -2.4953 0.2628 0 8
9.0039 1.6839 -2.4953 0.2628 0 8
8.9755 1.8293 -2.4953 0.2628 0 8
8.9448 1.9741 -2.4953 0.2628 0 8
8.9117 2.1184 -2.4953 0.2628 0 8
8.8763 2.2622 -2.4953 0.2628 0 8
8.8386 2.4054 -2.4953 0.2628 0 8
8.7986 2.5479 -2.4953 0.2628 0 8
8.7562 2.6898 -2.4953 0.2628 0 8
8.7116 2.8310 -2.4953 0.2628 0 8
8.6647 2.9714 -2.4953 0.2628 0 8
8.6155 3.1111 -2.4953 0.2628 0 8
8.5641 3.2499 -2.4953 0.2628 0 8
8.5105 3.3879 -2.4953 0.2628 0 8
8.4546 3.5250 -2.4953 0.2628 0 8
8.3965 3.6612 -2.4953 0.2628 0 8
8.3363 3.7965 -2.4953 0.2628 0 8
8.2738 3.9307 -2.4953 0.2628 0 8
8.2092 4.0639 -2.4953 0.2628 0 8
8.1424 4.1961 -2.4953 0.2628 0 8
8.0735 4.3272 -2.4953 0.2628 0 8
8.0025 4.4571 -2.4953 0.2628 0 8
7.9295 4.5859 -2.4953 0.2628 0 8
7.8543 4.7134 -2.4953 0.2628 0 8
7.7771 4.8398 -2.4953 0.2628 0 8
7.6978 4.9648 -2.4953 0.2628 0 8
7.6166 5.0886 -2.4953 0.2628 0 8
7.5333 5.2111 -2.4953 0.2628 0 8
7.4481 5.3321 -2.4953 0.2628 0 8
7.3610 5.4518 -2.4953 0.2628 0 8
7.2719 5.5701 -2.4953 0.2628 0 8
7.1809 5.6869 -2.4953 0.2628 0 8
7.0881 5.8022 -2.4953 0.2628 0 8
6.9933 5.9160 -2.4953 0.2628 0 8
7.7394 -4.3308 -2.4953 0.2708 0 8
7.8084 -4.2052 -2.4953 0.2708 0 8
7.8753 -4.0784 -2.4953 0.2708 0 8
7.9402 -3.9506 -2.4953 0.2708 0 8
8.0030 -3.8217 -2.4953 0.2708 0 8
8.0638 -3.6919 -2.4953 0.2708 0 8
8.1224 -3.5611 -2.4953 0.2708 0 8
8.1789 -3.4293 -2.4953 0.2708 0 8
8.2332 -3.2967 -2.4953 0.2708 0 8
8.2854 -3.1632 -2.4953 0.2708 0 8
8.3355 -3.0288 -2.4953 0.2708 0 8
8.3834 -2.8937 -2.4953 0.2708 0 8
8.4290 -2.7578 -2.4953 0.2708 0 8
8.4725 -2.6212 -2.4953 0.2708 0 8
8.5138 -2.4839 -2.4953 0.2708 0 8
8.5528 -2.3460 -2.4953 0.2708 0 8
8.5896 -2.2074 -2.4953 0.2708 0 8
8.6242 -2.0683 -2.4953 0.2708 0 8
8.6565 -1.9286 -2.4953 0.2708 0 8
8.6865 -1.7885 -2.4953 0.2708 0 8
8.7143 -1.6478 -2.4953 0.2708 0 8
8.7398 -1.5068 -2.4953 0.2708 0 8
8.7630 -1.3653 -2.4953 0.2708 0 8
8.7839 -1.2235 -2.4953 0.2708 0 8
8.8025 -1.0813 -2.4953 0.2708 0 8
8.3352 -0.8874 -2.3584 0.6454 25 10
8.3321 -0.7511 -2.3538 0.6467 25 10
7.7203 -0.5703 -2.1781 0.7177 25 10
7.6526 -0.4411 -2.1567 0.8057 25 10
7.6143 -0.3155 -2.1442 0.8104 25 10
7.6038 -0.1920 -2.1401 0.9214 25 10
7.5989 -0.0690 -2.1381 0.9223 25 10
7.5983 0.0538 -2.1379 0.9224 25 10
7.6032 0.1768 -2.1398 0.9215 25 10
7.6096 0.3000 -2.1427 0.8110 25 10
7.6478 0.4255 -2.1551 0.8063 25 10
7.7106 0.5541 -2.1750 0.7187 25 10
8.3318 0.7343 -2.3533 0.6468 25 10
8.3348 0.8705 -2.3578 0.6456 25 10
8.8047 1.0637 -2.4953 0.2708 0 8
8.7864 1.2059 -2.4953 0.2708 0 8
8.7657 1.3478 -2.4953 0.2708 0 8
8.7428 1.4893 -2.4953 0.2708 0 8
8.7176 1.6304 -2.4953 0.2708 0 8
8.6901 1.7711 -2.4953 0.2708 0 8
8.6603 1.9113 -2.4953 0.2708 0 8
8.6283 2.0510 -2.4953 0.2708 0 8
8.5940 2.1902 -2.4953 0.2708 0 8
8.5575 2.3289 -2.4953 0.2708 0 8
8.5187 2.4669 -2.4953 0.2708 0 8
8.4777 2.6042 -2.4953 0.2708 0 8
8.4345 2.7409 -2.4953 0.2708 0 8
8.3891 2.8769 -2.4953 0.2708 0 8
8.3415 3.0121 -2.4953 0.2708 0 8
8.2918 3.1466 -2.4953 0.2708 0 8
8.2398 3.2802 -2.4953 0.2708 0 8
8.1857 3.4129 -2.4953 0.2708 0 8
8.1295 3.5448 -2.4953 0.2708 0 8
8.0711 3.6757 -2.4953 0.2708 0 8
8.0107 3.8057 -2.4953 0.2708 0 8
7.9481 3.9347 -2.4953 0.2708 0 8
7.8835 4.0626 -2.4953 0.2708 0 8
7.8168 4.1895 -2.4953 0.2708 0 8
7.7480 4.3153 -2.4953 0.2708 0 8
7.6773 4.4400 -2.4953 0.2708 0 8
7.6045 4.5635 -2.4953 0.2708 0 8
7.5297 4.6858 -2.4953 0.2708 0 8
7.4530 4.8069 -2.4953 0.2708 0 8
7.3744 4.9268 -2.4953 0.2708 0 8
7.2938 5.0453 -2.4953 0.2708 0 8
7.2113 5.1626 -2.4953 0.2708 0 8
7.1269 5.2784 -2.4953 0.2708 0 8
7.0406 5.3929 -2.4953 0.2708 0 8
6.9525 5.5060 -2.4953 0.2708 0 8
6.8626 5.6177 -2.4953 0.2708 0 8
6.7709 5.7279 -2.4953 0.2708 0 8
7.4997 -4.1967 -2.4953 0.2788 0 8
7.5666 -4.0750 -2.4953 0.2788 0 8
7.6315 -3.9521 -2.4953 0.2788 0 8
7.6944 -3.8283 -2.4953 0.2788 0 8
7.7552 -3.7034 -2.4953 0.2788 0 8
7.8141 -3.5776 -2.4953 0.2788 0 8
7.8709 -3.4508 -2.4953 0.2788 0 8
7.9256 -3.3231 -2.4953 0.2788 0 8
7.9783 -3.1946 -2.4953 0.2788 0 8
8.0289 -3.0652 -2.4953 0.2788 0 8
8.0774 -2.9350 -2.4953 0.2788 0 8
8.1238 -2.8041 -2.4953 0.2788 0 8
8.1680 -2.6724 -2.4953 0.2788 0 8
8.2102 -2.5400 -2.4953 0.2788 0 8
8.2502 -2.4070 -2.4953 0.2788 0 8
8.2880 -2.2733 -2.4953 0.2788 0 8
8.3236 -2.1391 -2.4953 0.2788 0 8
8.3571 -2.0043 -2.4953 0.2788 0 8
8.3884 -1.8689 -2.4953 0.2788 0 8
8.4175 -1.7331 -2.4953 0.2788 0 8
8.4445 -1.5968 -2.4953 0.2788 0 8
8.4692 -1.4601 -2.4953 0.2788 0 8
8.4917 -1.3230 -2.4953 0.2788 0 8
8.5119 -1.1856 -2.4953 0.2788 0 8
8.5300 -1.0479 -2.4953 0.2788 0 8
8.5458 -0.9099 -2.4953 0.2788 0 8
8.4738 -0.7639 -2.4703 0.2995 25 10
8.5708 -0.6332 -2.4953 0.2788 0 8
8.5799 -0.4945 -2.4953 0.2788 0 8
8.5867 -0.3558 -2.4953 0.2788 0 8
8.5914 -0.2170 -2.4953 0.2788 0 8
8.5938 -0.0781 -2.4953 0.2788 0 8
8.5939 0.0609 -2.4953 0.2788 0 8
8.5918 0.1998 -2.4953 0.2788 0 8
8.5874 0.3386 -2.4953 0.2788 0 8
8.5808 0.4774 -2.4953 0.2788 0 8
8.5720 0.6160 -2.4953 0.2788 0 8
8.4726 0.7467 -2.4695 0.2996 25 10
8.5476 0.8927 -2.4953 0.2788 0 8
8.5321 1.0308 -2.4953 0.2788 0 8
8.5143 1.1686 -2.4953 0.2788 0 8
8.4943 1.3060 -2.4953 0.2788 0 8
8.4721 1.4432 -2.4953 0.2788 0 8
8.4476 1.5799 -2.4953 0.2788 0 8
8.4210 1.7162 -2.4953 0.2788 0 8
8.3922 1.8521 -2.4953 0.2788 0 8
8.3611 1.9875 -2.4953 0.2788 0 8
8.3279 2.1224 -2.4953 0.2788 0 8
8.2925 2.2567 -2.4953 0.2788 0 8
8.2550 2.3905 -2.4953 0.2788 0 8
8.2152 2.5236 -2.4953 0.2788 0 8
8.1734 2.6561 -2.4953 0.2788 0 8
8.1294 2.7878 -2.4953 0.2788 0 8
8.0833 2.9189 -2.4953 0.2788 0 8
8.0350 3.0491 -2.4953 0.2788 0 8
7.9847 3.1786 -2.4953 0.2788 0 8
7.9323 3.3072 -2.4953 0.2788 0 8
7.8778 3.4350 -2.4953 0.2788 0 8
7.8212 3.5619 -2.4953 0.2788 0 8
7.7626 3.6879 -2.4953 0.2788 0 8
7.7020 3.8129 -2.4953 0.2788 0 8
7.6394 3.9368 -2.4953 0.2788 0 8
7.5747 4.0598 -2.4953 0.2788 0 8
7.5081 4.1817 -2.4953 0.2788 0 8
7.4396 4.3025 -2.4953 0.2788 0 8
7.3690 4.4222 -2.4953 0.2788 0 8
7.2966 4.5407 -2.4953 0.2788 0 8
7.2222 4.6581 -2.4953 0.2788 0 8
7.1460 4.7742 -2.4953 0.2788 0 8
7.0679 4.8891 -2.4953 0.2788 0 8
6.9880 5.0027 -2.4953 0.2788 0 8
6.9062 5.1150 -2.4953 0.2788 0 8
6.8226 5.2260 -2.4953 0.2788 0 8
6.7373 5.3356 -2.4953 0.2788 0 8
6.6501 5.4437 -2.4953 0.2788 0 8
6.5613 5.5505 -2.4953 0.2788 0 8
7.2734 -4.0701 -2.4953 0.2868 0 8
7.3383 -3.9520 -2.4953 0.2868 0 8
7.4012 -3.8329 -2.4953 0.2868 0 8
7.4622 -3.7128 -2.4953 0.2868 0 8
7.5212 -3.5917 -2.4953 0.2868 0 8
7.5783 -3.4696 -2.4953 0.2868 0 8
7.6334 -3.3467 -2.4953 0.2868 0 8
7.6865 -3.2228 -2.4953 0.2868 0 8
7.7376 -3.0982 -2.4953 0.2868 0 8
7.7866 -2.9727 -2.4953 0.2868 0 8
7.8337 -2.8465 -2.4953 0.2868 0 8
7.8786 -2.7195 -2.4953 0.2868 0 8
7.9216 -2.5918 -2.4953 0.2868 0 8
7.9624 -2.4634 -2.4953 0.2868 0 8
8.0012 -2.3344 -2.4953 0.2868 0 8
8.0379 -2.2048 -2.4953 0.2868 0 8
8.0725 -2.0745 -2.4953 0.2868 0 8
8.1050 -1.9438 -2.4953 0.2868 0 8
8.1353 -1.8125 -2.4953 0.2868 0 8
8.1635 -1.6808 -2.4953 0.2868 0 8
8.1897 -1.5486 -2.4953 0.2868 0 8
8.2136 -1.4161 -2.4953 0.2868 0 8
8.2354 -1.2831 -2.4953 0.2868 0 8
8.2551 -1.1498 -2.4953 0.2868 0 8
8.2726 -1.0162 -2.4953 0.2868 0 8
8.2879 -0.8824 -2.4953 0.2868 0 8
8.3011 -0.7483 -2.4953 0.2868 0 8
8.3121 -0.6140 -2.4953 0.2868 0 8
8.3210 -0.4796 -2.4953 0.2868 0 8
8.3276 -0.3451 -2.4953 0.2868 0 8
8.3321 -0.2104 -2.4953 0.2868 0 8
8.3344 -0.0757 -2.4953 0.2868 0 8
8.3346 0.0590 -2.4953 0.2868 0 8
8.3325 0.1937 -2.4953 0.2868 0 8
8.3283 0.3284 -2.4953 0.2868 0 8
8.3219 0.4630 -2.4953 0.2868 0 8
8.3133 0.5974 -2.4953 0.2868 0 8
8.3026 0.7317 -2.4953 0.2868 0 8
8.2897 0.8658 -2.4953 0.2868 0 8
8.2746 0.9997 -2.4953 0.2868 0 8
8.2574 1.1333 -2.4953 0.2868 0 8
8.2380 1.2666 -2.4953 0.2868 0 8
8.2164 1.3996 -2.4953 0.2868 0 8
8.1927 1.5322 -2.4953 0.2868 0 8
8.1669 1.6645 -2.4953 0.2868 0 8
8.1389 1.7962 -2.4953 0.2868 0 8
8.1088 1.9276 -2.4953 0.2868 0 8
8.0766 2.0584 -2.4953 0.2868 0 8
8.0423 2.1887 -2.4953 0.2868 0 8
8.0059 2.3184 -2.4953 0.2868 0 8
7.9673 2.4475 -2.4953 0.2868 0 8
7.9267 2.5759 -2.4953 0.2868 0 8
7.8841 2.7037 -2.4953 0.2868 0 8
7.8393 2.8308 -2.4953 0.2868 0 8
7.7926 2.9571 -2.4953 0.2868 0 8
7.7437 3.0827 -2.4953 0.2868 0 8
7.6929 3.2075 -2.4953 0.2868 0 8
7.6401 3.3314 -2.4953 0.2868 0 8
7.5852 3.4544 -2.4953 0.2868 0 8
7.5284 3.5766 -2.4953 0.2868 0 8
7.4696 3.6978 -2.4953 0.2868 0 8
7.4089 3.8181 -2.4953 0.2868 0 8
7.3462 3.9373 -2.4953 0.2868 0 8
7.2816 4.0555 -2.4953 0.2868 0 8
7.2151 4.1727 -2.4953 0.2868 0 8
7.1467 4.2888 -2.4953 0.2868 0 8
7.0764 4.4037 -2.4953 0.2868 0 8
7.0043 4.5175 -2.4953 0.2868 0 8
6.9304 4.6302 -2.4953 0.2868 0 8
6.8546 4.7416 -2.4953 0.2868 0 8
6.7771 4.8517 -2.4953 0.2868 0 8
6.6978 4.9607 -2.4953 0.2868 0 8
6.6167 5.0683 -2.4953 0.2868 0 8
6.5340 5.1746 -2.4953 0.2868 0 8
6.4495 5.2795 -2.4953 0.2868 0 8
6.3633 5.3830 -2.4953 0.2868 0 8
7.0594 -3.9503 -2.4953 0.2948 0 8
7.1223 -3.8357 -2.4953 0.2948 0 8
7.1834 -3.7201 -2.4953 0.2948 0 8
7.2425 -3.6035 -2.4953 0.2948 0 8
7.2998 -3.4859 -2.4953 0.2948 0 8
7.3552 -3.3675 -2.4953 0.2948 0 8
7.4087 -3.2482 -2.4953 0.2948 0 8
7.4602 -3.1280 -2.4953 0.2948 0 8
7.5098 -3.0070 -2.4953 0.2948 0 8
7.5574 -2.8852 -2.4953 0.2948 0 8
7.6031 -2.7627 -2.4953 0.2948 0 8
7.6468 -2.6394 -2.4953 0.2948 0 8
7.6884 -2.5155 -2.4953 0.2948 0 8
7.7281 -2.3909 -2.4953 0.2948 0 8
7.7657 -2.2657 -2.4953 0.2948 0 8
7.8013 -2.1399 -2.4953 0.2948 0 8
7.8349 -2.0135 -2.4953 0.2948 0 8
7.8664 -1.8866 -2.4953 0.2948 0 8
7.8959 -1.7592 -2.4953 0.2948 0 8
7.9233 -1.6313 -2.4953 0.2948 0 8
7.9486 -1.5030 -2.4953 0.2948 0 8
7.9719 -1.3744 -2.4953 0.2948 0 8
7.9930 -1.2453 -2.4953 0.2948 0 8
8.0121 -1.1160 -2.4953 0.2948 0 8
8.0291 -0.9863 -2.4953 0.2948 0 8
8.0440 -0.8564 -2.4953 0.2948 0 8
8.0568 -0.7263 -2.4953 0.2948 0 8
8.0675 -0.5960 -2.4953 0.2948 0 8
8.0761 -0.4655 -2.4953 0.2948 0 8
8.0825 -0.3349 -2.4953 0.2948 0 8
8.0869 -0.2042 -2.4953 0.2948 0 8
8.0891 -0.0735 -2.4953 0.2948 0 8
8.0893 0.0573 -2.4953 0.2948 0 8
8.0873 0.1880 -2.4953 0.2948 0 8
8.0832 0.3187 -2.4953 0.2948 0 8
8.0770 0.4493 -2.4953 0.2948 0 8
8.0687 0.5798 -2.4953 0.2948 0 8
8.0582 0.7102 -2.4953 0.2948 0 8
8.0457 0.8403 -2.4953 0.2948 0 8
8.0311 0.9703 -2.4953 0.2948 0 8
8.0143 1.0999 -2.4953 0.2948 0 8
7.9955 1.2293 -2.4953 0.2948 0 8
7.9746 1.3584 -2.4953 0.2948 0 8
7.9516 1.4871 -2.4953 0.2948 0 8
7.9265 1.6155 -2.4953 0.2948 0 8
7.8994 1.7434 -2.4953 0.2948 0 8
7.8702 1.8708 -2.4953 0.2948 0 8
7.8389 1.9978 -2.4953 0.2948 0 8
7.8056 2.1242 -2.4953 0.2948 0 8
7.7702 2.2501 -2.4953 0.2948 0 8
7.7328 2.3754 -2.4953 0.2948 0 8
7.6934 2.5001 -2.4953 0.2948 0 8
7.6520 2.6241 -2.4953 0.2948 0 8
7.6086 2.7475 -2.4953 0.2948 0 8
7.5632 2.8701 -2.4953 0.2948 0 8
7.5158 2.9920 -2.4953 0.2948 0 8
7.4665 3.1131 -2.4953 0.2948 0 8
7.4152 3.2333 -2.4953 0.2948 0 8
7.3620 3.3528 -2.4953 0.2948 0 8
7.3068 3.4713 -2.4953 0.2948 0 8
7.2498 3.5890 -2.4953 0.2948 0 8
7.1908 3.7057 -2.4953 0.2948 0 8
7.1300 3.8214 -2.4953 0.2948 0 8
7.0673 3.9362 -2.4953 0.2948 0 8
