ply
format ascii 1.0
element vertex 1369
property float32 x
property float32 y
property float32 z
property float32 CosAngle
property uint32 ObjIdx
property uint32 ObjTag
end_header
20.7073 12.9250 -2.6477 0.1078 0 7
20.4962 13.2573 -2.6477 0.1078 0 7
20.2797 13.5861 -2.6477 0.1078 0 7
20.0580 13.9114 -2.6477 0.1078 0 7
19.8310 14.2330 -2.6477 0.1078 0 7
19.5989 14.5510 -2.6477 0.1078 0 7
19.3617 14.8652 -2.6477 0.1078 0 7
19.1195 15.1755 -2.6477 0.1078 0 7
18.8722 15.4818 -2.6477 0.1078 0 7
18.6201 15.7842 -2.6477 0.1078 0 7
18.3631 16.0824 -2.6477 0.1078 0 7
18.1014 16.3764 -2.6477 0.1078 0 7
17.8349 16.6662 -2.6477 0.1078 0 7
17.5639 16.9517 -2.6477 0.1078 0 7
17.2882 17.2327 -2.6477 0.1078 0 7
17.0080 17.5093 -2.6477 0.1078 0 7
16.7235 17.7813 -2.6477 0.1078 0 7
16.4345 18.0486 -2.6477 0.1078 0 7
16.1413 18.3113 -2.6477 0.1078 0 7
15.8439 18.5693 -2.6477 0.1078 0 7
15.5424 18.8224 -2.6477 0.1078 0 7
15.1633 18.9785 -2.6349 0.7817 0 8
14.6718 18.9832 -2.6023 0.7914 0 8
14.1920 18.9876 -2.5712 0.8010 0 8
13.7234 18.9918 -2.5415 0.8104 0 8
13.2653 18.9958 -2.5131 0.8195 0 8
12.9048 19.1294 -2.5029 0.1078 0 8
12.5946 19.3350 -2.5029 0.1078 0 14
12.2811 19.5356 -2.5029 0.1078 0 14
11.9645 19.7311 -2.5029 0.1078 0 14
11.6447 19.9215 -2.5029 0.1078 0 14
11.3220 20.1067 -2.5029 0.1078 0 14
10.9962 20.2867 -2.5029 0.1078 0 14
10.6676 20.4613 -2.5029 0.1078 0 14
10.3363 20.6307 -2.5029 0.1078 0 14
10.0022 20.7947 -2.5029 0.1078 0 14
9.6656 20.9533 -2.5029 0.1078 0 14
9.3264 21.1065 -2.5029 0.1078 0 14
8.9848 21.2541 -2.5029 0.1078 0 14
8.6409 21.3963 -2.5029 0.1078 0 14
8.2947 21.5328 -2.5029 0.1078 0 14
7.9464 21.6638 -2.5029 0.1078 0 14
7.5960 21.7891 -2.5029 0.1078 0 14
7.2436 21.9088 -2.5029 0.1078 0 14
6.8894 22.0228 -2.5029 0.1078 0 14
6.5333 22.1310 -2.5029 0.1078 0 14
6.1756 22.2335 -2.5029 0.1078 0 14
5.8162 22.3302 -2.5029 0.1078 0 8
5.7709 23.7180 -2.6477 0.1078 0 7
5.3877 23.8080 -2.6477 0.1078 0 7
5.0030 23.8918 -2.6477 0.1078 0 7
4.6171 23.9694 -2.6477 0.1078 0 7
4.2299 24.0407 -2.6477 0.1078 0 7
3.8417 24.1058 -2.6477 0.1078 0 7
3.4524 24.1646 -2.6477 0.1078 0 7
3.0623 24.2171 -2.6477 0.1078 0 7
2.6713 24.2634 -2.6477 0.1078 0 7
2.2797 24.3033 -2.6477 0.1078 0 7
1.8875 24.3369 -2.6477 0.1078 0 7
1.4948 24.3642 -2.6477 0.1078 0 7
1.1017 24.3851 -2.6477 0.1078 0 7
0.7083 24.3997 -2.6477 0.1078 0 7
0.3147 24.4080 -2.6477 0.1078 0 7
-0.0790 24.4099 -2.6477 0.1078 0 7
-0.4726 24.4054 -2.6477 0.1078 0 7
-0.8661 24.3946 -2.6477 0.1078 0 7
-1.2594 24.3775 -2.6477 0.1078 0 7
-1.6524 24.3540 -2.6477 0.1078 0 7
-2.0449 24.3242 -2.6477 0.1078 0 7
-2.4369 24.2881 -2.6477 0.1078 0 7
-2.8283 24.2456 -2.6477 0.1078 0 7
-3.2189 24.1968 -2.6477 0.1078 0 7
-3.6087 24.1418 -2.6477 0.1078 0 7
-3.9976 24.0804 -2.6477 0.1078 0 7
-4.3854 24.0128 -2.6477 0.1078 0 7
-4.7721 23.9390 -2.6477 0.1078 0 7
-5.1575 23.8589 -2.6477 0.1078 0 7
-5.5416 23.7726 -2.6477 0.1078 0 7
-5.6003 22.3853 -2.5029 0.1078 0 8
-5.9606 22.2921 -2.5029 0.1078 0 8
-6.3193 22.1931 -2.5029 0.1078 0 14
-6.6764 22.0883 -2.5029 0.1078 0 14
-7.0317 21.9777 -2.5029 0.1078 0 14
-7.3852 21.8615 -2.5029 0.1078 0 14
-7.7368 21.7395 -2.5029 0.1078 0 14
-8.0864 21.6119 -2.5029 0.1078 0 14
-8.4339 21.4787 -2.5029 0.1078 0 14
-8.7792 21.3399 -2.5029 0.1078 0 14
-9.1222 21.1956 -2.5029 0.1078 0 14
-9.4628 21.0457 -2.5029 0.1078 0 14
-9.8009 20.8903 -2.5029 0.1078 0 14
-10.1366 20.7296 -2.5029 0.1078 0 14
-10.4695 20.5634 -2.5029 0.1078 0 14
-10.7998 20.3919 -2.5029 0.1078 0 14
-11.1273 20.2151 -2.5029 0.1078 0 14
-11.4518 20.0330 -2.5029 0.1078 0 14
-11.7734 19.8457 -2.5029 0.1078 0 14
-12.0919 19.6533 -2.5029 0.1078 0 14
-12.4073 19.4557 -2.5029 0.1078 0 14
-12.7194 19.2531 -2.5029 0.1078 0 14
-13.0283 19.0455 -2.5029 0.1078 0 8
-13.3964 18.9214 -2.5147 0.8190 0 8
-13.8550 18.9149 -2.5432 0.8099 0 8
-14.3242 18.9080 -2.5730 0.8005 0 8
-14.8046 18.9009 -2.6041 0.7909 0 8
-15.2967 18.8935 -2.6368 0.7811 0 8
-15.6639 18.7214 -2.6477 0.1078 0 7
-15.9638 18.4664 -2.6477 0.1078 0 7
-16.2595 18.2065 -2.6477 0.1078 0 7
-16.5510 17.9419 -2.6477 0.1078 0 7
-16.8382 17.6727 -2.6477 0.1078 0 7
-17.1210 17.3989 -2.6477 0.1078 0 7
-17.3993 17.1205 -2.6477 0.1078 0 7
-17.6732 16.8377 -2.6477 0.1078 0 7
-17.9424 16.5505 -2.6477 0.1078 0 7
-18.2070 16.2590 -2.6477 0.1078 0 7
-18.4668 15.9632 -2.6477 0.1078 0 7
-18.7219 15.6633 -2.6477 0.1078 0 7
-18.9720 15.3594 -2.6477 0.1078 0 7
-19.2173 15.0514 -2.6477 0.1078 0 7
-19.4575 14.7396 -2.6477 0.1078 0 7
-19.6926 14.4239 -2.6477 0.1078 0 7
-19.9227 14.1044 -2.6477 0.1078 0 7
-20.1476 13.7813 -2.6477 0.1078 0 7
-20.3672 13.4546 -2.6477 0.1078 0 7
-20.5815 13.1244 -2.6477 0.1078 0 7
-20.7905 12.7908 -2.6477 0.1078 0 7
-20.9941 12.4538 -2.6477 0.1078 0 7
-21.1922 12.1136 -2.6477 0.1078 0 7
-21.3848 11.7703 -2.6477 0.1078 0 7
-21.5718 11.4239 -2.6477 0.1078 0 6
-21.7532 11.0745 -2.6477 0.1078 0 7
-21.9290 10.7223 -2.6477 0.1078 0 7
-22.0991 10.3672 -2.6477 0.1078 0 7
-22.2634 10.0095 -2.6477 0.1078 0 7
-22.4219 9.6492 -2.6477 0.1078 0 7
-22.5746 9.2863 -2.6477 0.1078 0 7
-22.7214 8.9211 -2.6477 0.1078 0 7
-21.5464 8.0612 -2.4953 0.1078 0 8
-21.6736 7.7126 -2.4953 0.1078 0 8
-21.7951 7.3621 -2.4953 0.1078 0 8
-21.9110 7.0097 -2.4953 0.1078 0 8
-22.0212 6.6554 -2.4953 0.1078 0 8
-22.1257 6.2994 -2.4953 0.1078 0 8
-22.2244 5.9418 -2.4953 0.1078 0 8
-22.3173 5.5826 -2.4953 0.1078 0 8
-22.4044 5.2220 -2.4953 0.1078 0 8
-22.4857 4.8600 -2.4953 0.1078 0 8
-22.5612 4.4967 -2.4953 0.1078 0 8
-22.6308 4.1323 -2.4953 0.1078 0 8
-22.6945 3.7668 -2.4953 0.1078 0 8
-22.7523 3.4003 -2.4953 0.1078 0 8
-22.8041 3.0330 -2.4953 0.1078 0 8
-22.8501 2.6648 -2.4953 0.1078 0 8
-22.8901 2.2960 -2.4953 0.1078 0 8
-22.9242 1.9265 -2.4953 0.1078 0 8
-22.9522 1.5566 -2.4953 0.1078 0 8
21.2276 2.2681 -2.4953 0.1161 0 8
21.1882 2.6101 -2.4953 0.1161 0 8
21.1434 2.9515 -2.4953 0.1161 0 8
21.0931 3.2920 -2.4953 0.1161 0 8
21.0372 3.6318 -2.4953 0.1161 0 8
20.9759 3.9706 -2.4953 0.1161 0 8
20.9092 4.3083 -2.4953 0.1161 0 8
20.8370 4.6450 -2.4953 0.1161 0 8
20.7593 4.9804 -2.4953 0.1161 0 8
20.6763 5.3145 -2.4953 0.1161 0 8
20.5879 5.6473 -2.4953 0.1161 0 8
20.4942 5.9785 -2.4953 0.1161 0 8
20.3951 6.3083 -2.4953 0.1161 0 8
20.2907 6.6364 -2.4953 0.1161 0 8
20.1811 6.9627 -2.4953 0.1161 0 8
20.0661 7.2873 -2.4953 0.1161 0 8
19.9460 7.6099 -2.4953 0.1161 0 8
19.8207 7.9306 -2.4953 0.1161 0 8
19.6902 8.2492 -2.4953 0.1161 0 8
20.7490 9.0888 -2.6477 0.1161 0 7
20.5997 9.4222 -2.6477 0.1161 0 7
20.4451 9.7532 -2.6477 0.1161 0 7
20.2851 10.0816 -2.6477 0.1161 0 7
20.1199 10.4075 -2.6477 0.1161 0 7
19.9494 10.7306 -2.6477 0.1161 0 7
19.7738 11.0509 -2.6477 0.1161 0 7
19.5930 11.3684 -2.6477 0.1161 0 7
19.4071 11.6829 -2.6477 0.1161 0 7
19.2162 11.9943 -2.6477 0.1161 0 7
19.0203 12.3026 -2.6477 0.1161 0 7
18.8194 12.6078 -2.6477 0.1161 0 7
18.6136 12.9096 -2.6477 0.1161 0 7
18.4030 13.2081 -2.6477 0.1161 0 7
18.1876 13.5032 -2.6477 0.1161 0 7
17.9675 13.7947 -2.6477 0.1161 0 7
17.7427 14.0827 -2.6477 0.1161 0 7
17.5133 14.3670 -2.6477 0.1161 0 7
17.2793 14.6475 -2.6477 0.1161 0 7
17.0408 14.9243 -2.6477 0.1161 0 7
16.7979 15.1972 -2.6477 0.1161 0 7
16.5507 15.4661 -2.6477 0.1161 0 7
16.2991 15.7310 -2.6477 0.1161 0 7
16.0433 15.9918 -2.6477 0.1161 0 7
15.7833 16.2485 -2.6477 0.1161 0 7
15.5192 16.5009 -2.6477 0.1161 0 7
15.2511 16.7490 -2.6477 0.1161 0 7
14.9790 16.9928 -2.6477 0.1161 0 7
14.7030 17.2321 -2.6477 0.1161 0 7
14.4232 17.4670 -2.6477 0.1161 0 7
14.1397 17.6973 -2.6477 0.1161 0 7
13.8524 17.9230 -2.6477 0.1161 0 7
13.5616 18.1441 -2.6477 0.1161 0 7
13.2672 18.3604 -2.6477 0.1161 0 7
12.9694 18.5720 -2.6477 0.1161 0 7
12.6682 18.7787 -2.6477 0.1161 0 7
12.3559 18.9686 -2.6460 0.8380 0 8
11.9271 18.9724 -2.6193 0.8465 0 8
11.5066 18.9759 -2.5939 0.8548 0 8
11.0940 18.9793 -2.5695 0.8629 0 8
10.6889 18.9825 -2.5463 0.8708 0 8
10.2909 18.9855 -2.5241 0.8785 0 8
9.9025 18.9938 -2.5037 0.7039 0 8
9.5920 19.1451 -2.5029 0.1161 0 14
9.2820 19.2973 -2.5029 0.1161 0 14
8.9696 19.4445 -2.5029 0.1161 0 14
8.6548 19.5866 -2.5029 0.1161 0 14
8.3378 19.7237 -2.5029 0.1161 0 14
8.0187 19.8556 -2.5029 0.1161 0 14
7.6974 19.9823 -2.5029 0.1161 0 14
7.3742 20.1038 -2.5029 0.1161 0 14
7.0490 20.2201 -2.5029 0.1161 0 14
6.7220 20.3312 -2.5029 0.1161 0 14
6.3933 20.4369 -2.5029 0.1161 0 14
6.0629 20.5374 -2.5029 0.1161 0 14
5.7309 20.6325 -2.5029 0.1161 0 14
5.3974 20.7222 -2.5029 0.1161 0 14
5.0625 20.8066 -2.5029 0.1161 0 14
4.7263 20.8855 -2.5029 0.1161 0 14
4.3889 20.9590 -2.5029 0.1161 0 14
4.0503 21.0271 -2.5029 0.1161 0 14
3.7107 21.0896 -2.5029 0.1161 0 14
3.3701 21.1467 -2.5029 0.1161 0 14
3.0286 21.1983 -2.5029 0.1161 0 14
2.6864 21.2444 -2.5029 0.1161 0 14
2.3434 21.2850 -2.5029 0.1161 0 14
1.9999 21.3200 -2.5029 0.1161 0 14
1.6558 21.3495 -2.5029 0.1161 0 14
1.3113 21.3734 -2.5029 0.1161 0 14
0.9664 21.3918 -2.5029 0.1161 0 14
0.6213 21.4046 -2.5029 0.1161 0 14
0.2761 21.4118 -2.5029 0.1161 0 14
-0.0693 21.4135 -2.5029 0.1161 0 14
-0.4146 21.4096 -2.5029 0.1161 0 14
-0.7598 21.4001 -2.5029 0.1161 0 14
-1.1048 21.3851 -2.5029 0.1161 0 14
-1.4496 21.3645 -2.5029 0.1161 0 14
-1.7939 21.3383 -2.5029 0.1161 0 14
-2.1378 21.3066 -2.5029 0.1161 0 14
-2.4811 21.2694 -2.5029 0.1161 0 14
-2.8238 21.2266 -2.5029 0.1161 0 14
-3.1657 21.1783 -2.5029 0.1161 0 14
-3.5069 21.1245 -2.5029 0.1161 0 14
-3.8471 21.0652 -2.5029 0.1161 0 14
-4.1863 21.0004 -2.5029 0.1161 0 14
-4.5244 20.9302 -2.5029 0.1161 0 14
-4.8614 20.8545 -2.5029 0.1161 0 14
-5.1970 20.7734 -2.5029 0.1161 0 14
-5.5314 20.6869 -2.5029 0.1161 0 14
-5.8643 20.5950 -2.5029 0.1161 0 14
-6.1956 20.4977 -2.5029 0.1161 0 14
-6.5254 20.3951 -2.5029 0.1161 0 14
-6.8534 20.2872 -2.5029 0.1161 0 14
-7.1797 20.1741 -2.5029 0.1161 0 14
-7.5041 20.0557 -2.5029 0.1161 0 14
-7.8266 19.9321 -2.5029 0.1161 0 14
-8.1470 19.8032 -2.5029 0.1161 0 14
-8.4653 19.6693 -2.5029 0.1161 0 14
-8.7814 19.5302 -2.5029 0.1161 0 14
-9.0952 19.3861 -2.5029 0.1161 0 14
-9.4066 19.2369 -2.5029 0.1161 0 14
-9.7200 19.0913 -2.5040 0.7088 0 8
-10.0294 18.9373 -2.5047 0.7037 0 8
-10.4186 18.9277 -2.5253 0.8780 0 8
-10.8170 18.9225 -2.5476 0.8704 0 8
-11.2225 18.9170 -2.5709 0.8625 0 8
-11.6355 18.9114 -2.5953 0.8544 0 8
-12.0564 18.9055 -2.6208 0.8460 0 8
-12.4857 18.8993 -2.6475 0.8375 0 8
-12.7895 18.6964 -2.6477 0.1161 0 7
-13.0893 18.4877 -2.6477 0.1161 0 7
-13.3857 18.2742 -2.6477 0.1161 0 7
-13.6787 18.0560 -2.6477 0.1161 0 7
-13.9681 17.8330 -2.6477 0.1161 0 7
-14.2539 17.6055 -2.6477 0.1161 0 7
-14.5359 17.3733 -2.6477 0.1161 0 7
-14.8142 17.1366 -2.6477 0.1161 0 7
-15.0887 16.8955 -2.6477 0.1161 0 7
-15.3592 16.6500 -2.6477 0.1161 0 7
-15.6257 16.4001 -2.6477 0.1161 0 7
-15.8881 16.1460 -2.6477 0.1161 0 7
-16.1464 15.8877 -2.6477 0.1161 0 7
-16.4006 15.6252 -2.6477 0.1161 0 7
-16.6504 15.3587 -2.6477 0.1161 0 7
-16.8959 15.0882 -2.6477 0.1161 0 7
-17.1371 14.8137 -2.6477 0.1161 0 7
-17.3737 14.5354 -2.6477 0.1161 0 7
-17.6059 14.2534 -2.6477 0.1161 0 7
-17.8334 13.9676 -2.6477 0.1161 0 7
-18.0564 13.6782 -2.6477 0.1161 0 7
-18.2746 13.3852 -2.6477 0.1161 0 7
-18.4881 13.0888 -2.6477 0.1161 0 7
-18.6968 12.7889 -2.6477 0.1161 0 7
-18.9006 12.4857 -2.6477 0.1161 0 7
-19.0995 12.1793 -2.6477 0.1161 0 7
-19.2934 11.8697 -2.6477 0.1161 0 7
-19.4823 11.5570 -2.6477 0.1161 0 7
-19.6661 11.2413 -2.6477 0.1161 0 7
-19.8449 10.9227 -2.6477 0.1161 0 7
-20.0185 10.6013 -2.6477 0.1161 0 7
-20.1868 10.2771 -2.6477 0.1161 0 7
-20.3499 9.9502 -2.6477 0.1161 0 7
-20.5077 9.6207 -2.6477 0.1161 0 7
-20.6602 9.2887 -2.6477 0.1161 0 7
-20.8073 8.9543 -2.6477 0.1161 0 7
-19.7432 8.1216 -2.4953 0.1161 0 8
-19.8716 7.8022 -2.4953 0.1161 0 8
-19.9948 7.4807 -2.4953 0.1161 0 8
-20.1129 7.1573 -2.4953 0.1161 0 8
-20.2257 6.8320 -2.4953 0.1161 0 8
-20.3332 6.5049 -2.4953 0.1161 0 8
-20.4355 6.1762 -2.4953 0.1161 0 8
-20.5324 5.8458 -2.4953 0.1161 0 8
-20.6240 5.5139 -2.4953 0.1161 0 8
-20.7103 5.1806 -2.4953 0.1161 0 8
-20.7911 4.8460 -2.4953 0.1161 0 8
-20.8666 4.5100 -2.4953 0.1161 0 8
-20.9366 4.1729 -2.4953 0.1161 0 8
-21.0012 3.8348 -2.4953 0.1161 0 8
-21.0603 3.4956 -2.4953 0.1161 0 8
-21.1139 3.1555 -2.4953 0.1161 0 8
-21.1620 2.8146 -2.4953 0.1161 0 8
-21.2047 2.4729 -2.4953 0.1161 0 8
-21.2418 2.1306 -2.4953 0.1161 0 8
-21.2734 1.7878 -2.4953 0.1161 0 8
-21.2995 1.4445 -2.4953 0.1161 0 8
19.7991 2.1154 -2.4953 0.1243 0 8
19.7624 2.4345 -2.4953 0.1243 0 8
19.7206 2.7528 -2.4953 0.1243 0 8
19.6736 3.0705 -2.4953 0.1243 0 8
19.6216 3.3874 -2.4953 0.1243 0 8
19.5644 3.7034 -2.4953 0.1243 0 8
19.5021 4.0184 -2.4953 0.1243 0 8
19.4348 4.3324 -2.4953 0.1243 0 8
19.3624 4.6452 -2.4953 0.1243 0 8
19.2849 4.9569 -2.4953 0.1243 0 8
19.2025 5.2672 -2.4953 0.1243 0 8
19.1151 5.5762 -2.4953 0.1243 0 8
19.0226 5.8838 -2.4953 0.1243 0 8
18.9253 6.1898 -2.4953 0.1243 0 8
18.8230 6.4942 -2.4953 0.1243 0 8
18.7158 6.7969 -2.4953 0.1243 0 8
18.6038 7.0978 -2.4953 0.1243 0 8
18.4869 7.3969 -2.4953 0.1243 0 8
18.3652 7.6941 -2.4953 0.1243 0 8
18.2387 7.9892 -2.4953 0.1243 0 8
18.1075 8.2823 -2.4953 0.1243 0 8
19.0692 9.0969 -2.6477 0.1243 0 7
18.9201 9.4032 -2.6477 0.1243 0 7
18.7659 9.7071 -2.6477 0.1243 0 7
18.6070 10.0085 -2.6477 0.1243 0 7
18.4431 10.3073 -2.6477 0.1243 0 7
18.2745 10.6033 -2.6477 0.1243 0 7
18.1011 10.8967 -2.6477 0.1243 0 7
17.9231 11.1872 -2.6477 0.1243 0 7
17.7403 11.4748 -2.6477 0.1243 0 6
17.5530 11.7594 -2.6477 0.1243 0 7
17.3610 12.0409 -2.6477 0.1243 0 7
17.1646 12.3193 -2.6477 0.1243 0 7
16.9637 12.5945 -2.6477 0.1243 0 7
16.7584 12.8664 -2.6477 0.1243 0 7
16.5487 13.1350 -2.6477 0.1243 0 7
16.3347 13.4002 -2.6477 0.1243 0 7
16.1165 13.6619 -2.6477 0.1243 0 7
15.8941 13.9200 -2.6477 0.1243 0 7
15.6675 14.1745 -2.6477 0.1243 0 7
15.4369 14.4253 -2.6477 0.1243 0 7
15.2023 14.6724 -2.6477 0.1243 0 7
14.9637 14.9157 -2.6477 0.1243 0 6
14.7212 15.1550 -2.6477 0.1243 0 7
14.4749 15.3905 -2.6477 0.1243 0 7
14.2248 15.6219 -2.6477 0.1243 0 7
13.9710 15.8493 -2.6477 0.1243 0 7
13.7136 16.0725 -2.6477 0.1243 0 7
13.4526 16.2916 -2.6477 0.1243 0 7
13.1882 16.5064 -2.6477 0.1243 0 7
12.9202 16.7169 -2.6477 0.1243 0 7
12.6490 16.9231 -2.6477 0.1243 0 7
12.3744 17.1249 -2.6477 0.1243 0 7
12.0967 17.3222 -2.6477 0.1243 0 7
11.8157 17.5151 -2.6477 0.1243 0 7
11.5317 17.7033 -2.6477 0.1243 0 7
11.2447 17.8870 -2.6477 0.1243 0 7
10.9548 18.0660 -2.6477 0.1243 0 7
10.6620 18.2403 -2.6477 0.1243 0 7
10.3665 18.4099 -2.6477 0.1243 0 6
10.0683 18.5747 -2.6477 0.1243 0 7
9.7674 18.7346 -2.6477 0.1243 0 7
9.4640 18.8897 -2.6477 0.1243 0 7
9.1204 18.9614 -2.6368 0.9007 0 8
8.7479 18.9640 -2.6172 0.9074 0 8
8.3808 18.9664 -2.5985 0.9140 0 8
8.0187 18.9687 -2.5808 0.9202 0 8
7.6614 18.9708 -2.5639 0.9263 0 8
7.3086 18.9728 -2.5479 0.9321 0 8
6.9600 18.9746 -2.5327 0.9377 0 8
6.6154 18.9763 -2.5184 0.9430 0 8
6.2759 18.9820 -2.5054 0.7535 0 8
5.9630 19.0617 -2.5029 0.1243 0 8
5.6549 19.1553 -2.5029 0.1243 0 14
5.3452 19.2440 -2.5029 0.1243 0 14
5.0342 19.3277 -2.5029 0.1243 0 14
4.7218 19.4064 -2.5029 0.1243 0 14
4.4083 19.4800 -2.5029 0.1243 0 14
4.0935 19.5486 -2.5029 0.1243 0 14
3.7778 19.6121 -2.5029 0.1243 0 14
3.4610 19.6704 -2.5029 0.1243 0 14
3.1433 19.7237 -2.5029 0.1243 0 14
2.8248 19.7718 -2.5029 0.1243 0 14
2.5056 19.8148 -2.5029 0.1243 0 14
2.1857 19.8526 -2.5029 0.1243 0 14
1.8653 19.8853 -2.5029 0.1243 0 14
1.5444 19.9128 -2.5029 0.1243 0 14
1.2230 19.9351 -2.5029 0.1243 0 14
0.9014 19.9523 -2.5029 0.1243 0 14
0.5795 19.9642 -2.5029 0.1243 0 14
0.2575 19.9709 -2.5029 0.1243 0 14
-0.0646 19.9725 -2.5029 0.1243 0 14
-0.3867 19.9689 -2.5029 0.1243 0 14
-0.7087 19.9600 -2.5029 0.1243 0 14
-1.0305 19.9460 -2.5029 0.1243 0 14
-1.3520 19.9268 -2.5029 0.1243 0 14
-1.6732 19.9024 -2.5029 0.1243 0 14
-1.9939 19.8728 -2.5029 0.1243 0 14
-2.3141 19.8381 -2.5029 0.1243 0 14
-2.6338 19.7982 -2.5029 0.1243 0 14
-2.9527 19.7531 -2.5029 0.1243 0 14
-3.2709 19.7029 -2.5029 0.1243 0 14
-3.5882 19.6476 -2.5029 0.1243 0 14
-3.9046 19.5872 -2.5029 0.1243 0 14
-4.2199 19.5217 -2.5029 0.1243 0 14
-4.5342 19.4511 -2.5029 0.1243 0 14
-4.8473 19.3755 -2.5029 0.1243 0 14
-5.1591 19.2948 -2.5029 0.1243 0 14
-5.4696 19.2091 -2.5029 0.1243 0 14
-5.7787 19.1183 -2.5029 0.1243 0 14
-6.0863 19.0227 -2.5029 0.1243 0 8
-6.4004 18.9461 -2.5061 0.7533 0 8
-6.7402 18.9391 -2.5192 0.9427 0 8
-7.0850 18.9354 -2.5336 0.9374 0 8
-7.4337 18.9317 -2.5488 0.9318 0 8
-7.7868 18.9277 -2.5648 0.9259 0 8
-8.1443 18.9236 -2.5817 0.9199 0 8
-8.5067 18.9193 -2.5995 0.9136 0 8
-8.8741 18.9148 -2.6182 0.9071 0 8
-9.2469 18.9101 -2.6379 0.9003 0 8
-9.5860 18.8281 -2.6477 0.1243 0 7
-9.8884 18.6710 -2.6477 0.1243 0 7
-10.1883 18.5091 -2.6477 0.1243 0 7
-10.4853 18.3424 -2.6477 0.1243 0 6
-10.7799 18.1710 -2.6477 0.1243 0 7
-11.0715 17.9947 -2.6477 0.1243 0 7
-11.3602 17.8139 -2.6477 0.1243 0 7
-11.6460 17.6283 -2.6477 0.1243 0 7
-11.9288 17.4382 -2.6477 0.1243 0 7
-12.2085 17.2436 -2.6477 0.1243 0 7
-12.4850 17.0445 -2.6477 0.1243 0 7
-12.7582 16.8409 -2.6477 0.1243 0 7
-13.0281 16.6330 -2.6477 0.1243 0 7
-13.2947 16.4207 -2.6477 0.1243 0 7
-13.5578 16.2042 -2.6477 0.1243 0 7
-13.8173 15.9834 -2.6477 0.1243 0 7
-14.0733 15.7585 -2.6477 0.1243 0 7
-14.3256 15.5295 -2.6477 0.1243 0 7
-14.5742 15.2965 -2.6477 0.1243 0 7
-14.8189 15.0595 -2.6477 0.1243 0 7
-15.0599 14.8185 -2.6477 0.1243 0 7
-15.2969 14.5737 -2.6477 0.1243 0 7
-15.5299 14.3251 -2.6477 0.1243 0 7
-15.7589 14.0728 -2.6477 0.1243 0 7
-15.9838 13.8169 -2.6477 0.1243 0 7
-16.2046 13.5573 -2.6477 0.1243 0 7
-16.4211 13.2942 -2.6477 0.1243 0 7
-16.6334 13.0277 -2.6477 0.1243 0 7
-16.8413 12.7577 -2.6477 0.1243 0 7
-17.0448 12.4845 -2.6477 0.1243 0 7
-17.2440 12.2080 -2.6477 0.1243 0 7
-17.4386 11.9283 -2.6477 0.1243 0 7
-17.6287 11.6455 -2.6477 0.1243 0 7
-17.8142 11.3597 -2.6477 0.1243 0 6
-17.9951 11.0710 -2.6477 0.1243 0 7
-18.1713 10.7793 -2.6477 0.1243 0 7
-18.3427 10.4849 -2.6477 0.1243 0 7
-18.5094 10.1877 -2.6477 0.1243 0 7
-18.6713 9.8879 -2.6477 0.1243 0 7
-18.8284 9.5855 -2.6477 0.1243 0 7
-18.9805 9.2806 -2.6477 0.1243 0 7
-19.1277 8.9733 -2.6477 0.1243 0 7
-18.1607 8.1650 -2.4953 0.1243 0 8
-18.2901 7.8710 -2.4953 0.1243 0 8
-18.4146 7.5751 -2.4953 0.1243 0 8
-18.5344 7.2771 -2.4953 0.1243 0 8
-18.6493 6.9773 -2.4953 0.1243 0 8
-18.7594 6.6756 -2.4953 0.1243 0 8
-18.8646 6.3722 -2.4953 0.1243 0 8
-18.9649 6.0672 -2.4953 0.1243 0 8
-19.0603 5.7605 -2.4953 0.1243 0 8
-19.1507 5.4524 -2.4953 0.1243 0 8
-19.2362 5.1429 -2.4953 0.1243 0 8
-19.3166 4.8320 -2.4953 0.1243 0 8
-19.3920 4.5199 -2.4953 0.1243 0 8
-19.4624 4.2065 -2.4953 0.1243 0 8
-19.5277 3.8921 -2.4953 0.1243 0 8
-19.5879 3.5767 -2.4953 0.1243 0 8
-19.6431 3.2604 -2.4953 0.1243 0 8
-19.6931 2.9431 -2.4953 0.1243 0 8
-19.7380 2.6252 -2.4953 0.1243 0 8
-19.7778 2.3065 -2.4953 0.1243 0 8
-19.8124 1.9873 -2.4953 0.1243 0 8
-19.8419 1.6675 -2.4953 0.1243 0 8
-19.8662 1.3473 -2.4953 0.1243 0 8
18.5483 1.9818 -2.4953 0.1326 0 8
18.5139 2.2807 -2.4953 0.1326 0 8
18.4747 2.5789 -2.4953 0.1326 0 8
18.4308 2.8765 -2.4953 0.1326 0 8
18.3820 3.1734 -2.4953 0.1326 0 8
18.3284 3.4694 -2.4953 0.1326 0 8
18.2701 3.7645 -2.4953 0.1326 0 8
18.2070 4.0587 -2.4953 0.1326 0 8
18.1392 4.3518 -2.4953 0.1326 0 8
18.0666 4.6437 -2.4953 0.1326 0 8
17.9894 4.9345 -2.4953 0.1326 0 8
17.9074 5.2239 -2.4953 0.1326 0 8
17.8209 5.5121 -2.4953 0.1326 0 8
17.7297 5.7987 -2.4953 0.1326 0 8
17.6339 6.0839 -2.4953 0.1326 0 8
17.5335 6.3675 -2.4953 0.1326 0 8
17.4285 6.6494 -2.4953 0.1326 0 8
17.3190 6.9296 -2.4953 0.1326 0 8
17.2050 7.2080 -2.4953 0.1326 0 8
17.0865 7.4845 -2.4953 0.1326 0 8
16.9636 7.7591 -2.4953 0.1326 0 8
16.8363 8.0316 -2.4953 0.1326 0 8
16.7046 8.3021 -2.4953 0.1326 0 8
17.5804 9.0939 -2.6477 0.1326 0 7
17.4315 9.3762 -2.6477 0.1326 0 7
17.2780 9.6561 -2.6477 0.1326 0 7
17.1200 9.9335 -2.6477 0.1326 0 7
16.9576 10.2083 -2.6477 0.1326 0 7
16.7908 10.4804 -2.6477 0.1326 0 7
16.6196 10.7498 -2.6477 0.1326 0 7
16.4441 11.0165 -2.6477 0.1326 0 7
16.2643 11.2802 -2.6477 0.1326 0 7
16.0802 11.5410 -2.6477 0.1326 0 6
15.8920 11.7989 -2.6477 0.1326 0 7
15.6997 12.0536 -2.6477 0.1326 0 7
15.5033 12.3052 -2.6477 0.1326 0 7
15.3028 12.5536 -2.6477 0.1326 0 7
15.0984 12.7988 -2.6477 0.1326 0 7
14.8900 13.0406 -2.6477 0.1326 0 7
14.6778 13.2790 -2.6477 0.1326 0 7
14.4617 13.5140 -2.6477 0.1326 0 7
14.2419 13.7455 -2.6477 0.1326 0 7
14.0184 13.9734 -2.6477 0.1326 0 7
13.7912 14.1976 -2.6477 0.1326 0 7
13.5604 14.4182 -2.6477 0.1326 0 7
13.3262 14.6350 -2.6477 0.1326 0 7
13.0884 14.8480 -2.6477 0.1326 0 7
12.8473 15.0571 -2.6477 0.1326 0 7
12.6028 15.2624 -2.6477 0.1326 0 7
12.3550 15.4636 -2.6477 0.1326 0 7
12.1040 15.6609 -2.6477 0.1326 0 7
11.8499 15.8540 -2.6477 0.1326 0 7
11.5927 16.0431 -2.6477 0.1326 0 7
11.3325 16.2279 -2.6477 0.1326 0 7
11.0693 16.4086 -2.6477 0.1326 0 7
10.8032 16.5849 -2.6477 0.1326 0 7
10.5344 16.7570 -2.6477 0.1326 0 7
10.2628 16.9247 -2.6477 0.1326 0 7
9.9885 17.0880 -2.6477 0.1326 0 7
9.7116 17.2469 -2.6477 0.1326 0 7
9.4322 17.4012 -2.6477 0.1326 0 7
9.1504 17.5511 -2.6477 0.1326 0 7
8.8661 17.6964 -2.6477 0.1326 0 7
8.5796 17.8370 -2.6477 0.1326 0 7
8.2908 17.9731 -2.6477 0.1326 0 7
7.9999 18.1045 -2.6477 0.1326 0 7
7.7069 18.2311 -2.6477 0.1326 0 7
7.4119 18.3530 -2.6477 0.1326 0 7
7.1149 18.4702 -2.6477 0.1326 0 6
6.8162 18.5825 -2.6477 0.1326 0 7
6.5156 18.6900 -2.6477 0.1326 0 7
6.2133 18.7927 -2.6477 0.1326 0 7
5.9095 18.8904 -2.6477 0.1326 0 7
5.5944 18.9504 -2.6431 0.9581 0 8
5.2640 18.9517 -2.6311 0.9625 0 8
4.9365 18.9529 -2.6199 0.9666 0 8
4.6117 18.9539 -2.6094 0.9705 0 8
4.2894 18.9548 -2.5996 0.9741 0 8
3.9694 18.9556 -2.5906 0.9775 0 8
3.6514 18.9562 -2.5823 0.9806 0 8
3.3354 18.9568 -2.5747 0.9835 0 8
3.0212 18.9572 -2.5678 0.9862 0 8
2.7085 18.9575 -2.5616 0.9886 0 8
2.3972 18.9576 -2.5561 0.9907 0 8
2.0872 18.9577 -2.5512 0.9926 0 8
1.7783 18.9576 -2.5470 0.9942 0 8
1.4703 18.9574 -2.5435 0.9956 0 8
1.1630 18.9571 -2.5406 0.9967 0 8
0.8564 18.9566 -2.5384 0.9976 0 8
0.5503 18.9561 -2.5368 0.9983 0 8
0.2444 18.9554 -2.5358 0.9986 0 8
-0.0613 18.9565 -2.5358 0.9970 0 8
-0.3671 18.9555 -2.5361 0.9986 0 8
-0.6730 18.9537 -2.5370 0.9983 0 8
-0.9791 18.9519 -2.5385 0.9977 0 8
-1.2858 18.9502 -2.5407 0.9967 0 8
-1.5930 18.9488 -2.5437 0.9955 0 8
-1.9011 18.9473 -2.5472 0.9941 0 8
-2.2101 18.9457 -2.5515 0.9925 0 8
-2.5201 18.9439 -2.5564 0.9906 0 8
-2.8315 18.9420 -2.5620 0.9884 0 8
-3.1442 18.9400 -2.5682 0.9860 0 8
-3.4586 18.9378 -2.5751 0.9834 0 8
-3.7747 18.9355 -2.5828 0.9805 0 8
-4.0927 18.9331 -2.5911 0.9773 0 8
-4.4129 18.9305 -2.6002 0.9739 0 8
-4.7353 18.9278 -2.6099 0.9703 0 8
-5.0603 18.9250 -2.6205 0.9664 0 8
-5.3879 18.9220 -2.6317 0.9622 0 8
-5.7184 18.9188 -2.6438 0.9578 0 8
-6.0316 18.8518 -2.6477 0.1326 0 7
-6.3348 18.7521 -2.6477 0.1326 0 7
-6.6364 18.6475 -2.6477 0.1326 0 7
-6.9363 18.5380 -2.6477 0.1326 0 7
-7.2343 18.4237 -2.6477 0.1326 0 6
-7.5305 18.3047 -2.6477 0.1326 0 7
-7.8247 18.1809 -2.6477 0.1326 0 7
-8.1169 18.0523 -2.6477 0.1326 0 7
-8.4069 17.9191 -2.6477 0.1326 0 7
-8.6948 17.7811 -2.6477 0.1326 0 7
-8.9804 17.6386 -2.6477 0.1326 0 7
-9.2637 17.4915 -2.6477 0.1326 0 7
-9.5446 17.3399 -2.6477 0.1326 0 7
-9.8230 17.1837 -2.6477 0.1326 0 7
-10.0988 17.0230 -2.6477 0.1326 0 7
-10.3721 16.8580 -2.6477 0.1326 0 7
-10.6426 16.6885 -2.6477 0.1326 0 7
-10.9103 16.5147 -2.6477 0.1326 0 7
-11.1752 16.3366 -2.6477 0.1326 0 7
-11.4372 16.1543 -2.6477 0.1326 0 7
-11.6962 15.9677 -2.6477 0.1326 0 7
-11.9522 15.7770 -2.6477 0.1326 0 7
-12.2051 15.5822 -2.6477 0.1326 0 7
-12.4548 15.3834 -2.6477 0.1326 0 7
-12.7013 15.1805 -2.6477 0.1326 0 7
-12.9444 14.9737 -2.6477 0.1326 0 7
-13.1842 14.7630 -2.6477 0.1326 0 7
-13.4206 14.5485 -2.6477 0.1326 0 7
-13.6535 14.3301 -2.6477 0.1326 0 7
-13.8828 14.1081 -2.6477 0.1326 0 7
-14.1085 13.8824 -2.6477 0.1326 0 7
-14.3305 13.6530 -2.6477 0.1326 0 7
-14.5488 13.4202 -2.6477 0.1326 0 7
-14.7634 13.1838 -2.6477 0.1326 0 7
-14.9741 12.9440 -2.6477 0.1326 0 7
-15.1809 12.7008 -2.6477 0.1326 0 7
-15.3837 12.4544 -2.6477 0.1326 0 7
-15.5826 12.2047 -2.6477 0.1326 0 7
-15.7774 11.9518 -2.6477 0.1326 0 7
-15.9680 11.6958 -2.6477 0.1326 0 7
-16.1546 11.4367 -2.6477 0.1326 0 6
-16.3369 11.1747 -2.6477 0.1326 0 7
-16.5150 10.9098 -2.6477 0.1326 0 7
-16.6888 10.6421 -2.6477 0.1326 0 7
-16.8583 10.3716 -2.6477 0.1326 0 7
-17.0233 10.0984 -2.6477 0.1326 0 7
-17.1840 9.8225 -2.6477 0.1326 0 7
-17.3401 9.5441 -2.6477 0.1326 0 7
-17.4918 9.2632 -2.6477 0.1326 0 7
-17.6389 8.9799 -2.6477 0.1326 0 7
-16.7579 8.1939 -2.4953 0.1326 0 8
-16.8879 7.9226 -2.4953 0.1326 0 8
-17.0135 7.6492 -2.4953 0.1326 0 8
-17.1346 7.3738 -2.4953 0.1326 0 8
-17.2513 7.0965 -2.4953 0.1326 0 8
-17.3635 6.8174 -2.4953 0.1326 0 8
-17.4712 6.5365 -2.4953 0.1326 0 8
-17.5743 6.2539 -2.4953 0.1326 0 8
-17.6729 5.9697 -2.4953 0.1326 0 8
-17.7669 5.6839 -2.4953 0.1326 0 8
-17.8562 5.3966 -2.4953 0.1326 0 8
-17.9409 5.1080 -2.4953 0.1326 0 8
-18.0210 4.8180 -2.4953 0.1326 0 8
-18.0963 4.5267 -2.4953 0.1326 0 8
-18.1669 4.2343 -2.4953 0.1326 0 8
-18.2329 3.9408 -2.4953 0.1326 0 8
-18.2941 3.6462 -2.4953 0.1326 0 8
-18.3505 3.3507 -2.4953 0.1326 0 8
-18.4021 3.0544 -2.4953 0.1326 0 8
-18.4490 2.7572 -2.4953 0.1326 0 8
-18.4911 2.4593 -2.4953 0.1326 0 8
-18.5283 2.1608 -2.4953 0.1326 0 8
-18.5608 1.8617 -2.4953 0.1326 0 8
-18.5884 1.5622 -2.4953 0.1326 0 8
-18.6111 1.2622 -2.4953 0.1326 0 8
17.4438 1.8638 -2.4953 0.1408 0 8
17.4115 2.1449 -2.4953 0.1408 0 8
17.3747 2.4254 -2.4953 0.1408 0 8
17.3333 2.7052 -2.4953 0.1408 0 8
17.2874 2.9844 -2.4953 0.1408 0 8
17.2370 3.2628 -2.4953 0.1408 0 8
17.1822 3.5404 -2.4953 0.1408 0 8
17.1228 3.8170 -2.4953 0.1408 0 8
17.0591 4.0926 -2.4953 0.1408 0 8
16.9908 4.3672 -2.4953 0.1408 0 8
16.9182 4.6407 -2.4953 0.1408 0 8
16.8412 4.9129 -2.4953 0.1408 0 8
16.7597 5.1838 -2.4953 0.1408 0 8
16.6740 5.4534 -2.4953 0.1408 0 8
16.5839 5.7216 -2.4953 0.1408 0 8
16.4894 5.9883 -2.4953 0.1408 0 8
16.3907 6.2535 -2.4953 0.1408 0 8
16.2877 6.5170 -2.4953 0.1408 0 8
16.1805 6.7788 -2.4953 0.1408 0 8
16.0691 7.0389 -2.4953 0.1408 0 8
15.9535 7.2971 -2.4953 0.1408 0 8
15.8337 7.5534 -2.4953 0.1408 0 8
15.7099 7.8078 -2.4953 0.1408 0 8
15.5819 8.0601 -2.4953 0.1408 0 8
15.4499 8.3103 -2.4953 0.1408 0 8
16.2492 9.0811 -2.6477 0.1408 0 7
16.1006 9.3420 -2.6477 0.1408 0 7
15.9479 9.6004 -2.6477 0.1408 0 7
15.7910 9.8564 -2.6477 0.1408 0 7
15.6300 10.1097 -2.6477 0.1408 0 7
15.4649 10.3605 -2.6477 0.1408 0 7
15.2958 10.6085 -2.6477 0.1408 0 7
15.1227 10.8538 -2.6477 0.1408 0 7
14.9457 11.0963 -2.6477 0.1408 0 7
14.7649 11.3359 -2.6477 0.1408 0 7
14.5801 11.5725 -2.6477 0.1408 0 7
14.3916 11.8061 -2.6477 0.1408 0 7
14.1993 12.0367 -2.6477 0.1408 0 7
14.0034 12.2641 -2.6477 0.1408 0 7
13.8038 12.4883 -2.6477 0.1408 0 7
13.6006 12.7093 -2.6477 0.1408 0 7
13.3939 12.9270 -2.6477 0.1408 0 7
13.1836 13.1413 -2.6477 0.1408 0 7
12.9700 13.3522 -2.6477 0.1408 0 7
12.7530 13.5596 -2.6477 0.1408 0 7
12.5327 13.7635 -2.6477 0.1408 0 7
12.3091 13.9639 -2.6477 0.1408 0 7
12.0823 14.1606 -2.6477 0.1408 0 7
11.8523 14.3536 -2.6477 0.1408 0 7
11.6193 14.5428 -2.6477 0.1408 0 7
11.3833 14.7283 -2.6477 0.1408 0 7
11.1443 14.9100 -2.6477 0.1408 0 7
10.9024 15.0878 -2.6477 0.1408 0 7
10.6577 15.2616 -2.6477 0.1408 0 7
10.4102 15.4315 -2.6477 0.1408 0 7
10.1599 15.5974 -2.6477 0.1408 0 7
9.9071 15.7592 -2.6477 0.1408 0 7
9.6517 15.9169 -2.6477 0.1408 0 7
9.3937 16.0705 -2.6477 0.1408 0 7
9.1333 16.2199 -2.6477 0.1408 0 7
8.8706 16.3651 -2.6477 0.1408 0 7
8.6055 16.5060 -2.6477 0.1408 0 7
8.3382 16.6426 -2.6477 0.1408 0 7
8.0687 16.7749 -2.6477 0.1408 0 7
7.7971 16.9029 -2.6477 0.1408 0 7
7.5235 17.0264 -2.6477 0.1408 0 7
7.2480 17.1455 -2.6477 0.1408 0 7
6.9705 17.2602 -2.6477 0.1408 0 7
6.6913 17.3704 -2.6477 0.1408 0 7
6.4103 17.4760 -2.6477 0.1408 0 7
6.1276 17.5771 -2.6477 0.1408 0 7
5.8434 17.6736 -2.6477 0.1408 0 7
5.5576 17.7656 -2.6477 0.1408 0 7
5.2704 17.8529 -2.6477 0.1408 0 7
4.9818 17.9356 -2.6477 0.1408 0 7
4.6919 18.0136 -2.6477 0.1408 0 7
4.4008 18.0869 -2.6477 0.1408 0 7
4.1085 18.1555 -2.6477 0.1408 0 7
3.8152 18.2194 -2.6477 0.1408 0 7
3.5209 18.2786 -2.6477 0.1408 0 7
3.2257 18.3330 -2.6477 0.1408 0 7
2.9296 18.3826 -2.6477 0.1408 0 7
2.6328 18.4275 -2.6477 0.1408 0 6
2.3352 18.4675 -2.6477 0.1408 0 6
2.0371 18.5028 -2.6477 0.1408 0 7
1.7385 18.5332 -2.6477 0.1408 0 7
1.4394 18.5588 -2.6477 0.1408 0 7
1.1399 18.5796 -2.6477 0.1408 0 7
0.8401 18.5956 -2.6477 0.1408 0 7
0.5400 18.6067 -2.6477 0.1408 0 7
0.2399 18.6130 -2.6477 0.1408 0 7
-0.0602 18.6145 -2.6477 0.1408 0 7
-0.3604 18.6111 -2.6477 0.1408 0 7
-0.6605 18.6029 -2.6477 0.1408 0 7
-0.9604 18.5898 -2.6477 0.1408 0 7
-1.2601 18.5719 -2.6477 0.1408 0 7
-1.5594 18.5491 -2.6477 0.1408 0 7
-1.8583 18.5216 -2.6477 0.1408 0 7
-2.1568 18.4892 -2.6477 0.1408 0 6
-2.4547 18.4520 -2.6477 0.1408 0 6
-2.7519 18.4100 -2.6477 0.1408 0 6
-3.0485 18.3633 -2.6477 0.1408 0 7
-3.3442 18.3117 -2.6477 0.1408 0 7
-3.6391 18.2554 -2.6477 0.1408 0 7
-3.9330 18.1943 -2.6477 0.1408 0 7
-4.2259 18.1286 -2.6477 0.1408 0 7
-4.5177 18.0580 -2.6477 0.1408 0 7
-4.8083 17.9828 -2.6477 0.1408 0 7
-5.0977 17.9030 -2.6477 0.1408 0 7
-5.3858 17.8184 -2.6477 0.1408 0 7
-5.6724 17.7292 -2.6477 0.1408 0 7
-5.9576 17.6355 -2.6477 0.1408 0 7
-6.2412 17.5371 -2.6477 0.1408 0 7
-6.5232 17.4342 -2.6477 0.1408 0 7
-6.8035 17.3267 -2.6477 0.1408 0 7
-7.0821 17.2147 -2.6477 0.1408 0 7
-7.3588 17.0983 -2.6477 0.1408 0 7
-7.6335 16.9774 -2.6477 0.1408 0 7
-7.9063 16.8521 -2.6477 0.1408 0 7
-8.1771 16.7224 -2.6477 0.1408 0 7
-8.4457 16.5883 -2.6477 0.1408 0 7
-8.7121 16.4500 -2.6477 0.1408 0 7
-8.9763 16.3073 -2.6477 0.1408 0 7
-9.2381 16.1605 -2.6477 0.1408 0 7
-9.4975 16.0094 -2.6477 0.1408 0 7
-9.7544 15.8541 -2.6477 0.1408 0 7
-10.0088 15.6948 -2.6477 0.1408 0 7
-10.2607 15.5313 -2.6477 0.1408 0 7
-10.5098 15.3638 -2.6477 0.1408 0 7
-10.7562 15.1923 -2.6477 0.1408 0 7
-10.9998 15.0169 -2.6477 0.1408 0 7
-11.2405 14.8376 -2.6477 0.1408 0 7
-11.4783 14.6544 -2.6477 0.1408 0 7
-11.7132 14.4674 -2.6477 0.1408 0 7
-11.9450 14.2766 -2.6477 0.1408 0 7
-12.1737 14.0821 -2.6477 0.1408 0 7
-12.3992 13.8839 -2.6477 0.1408 0 7
-12.6215 13.6822 -2.6477 0.1408 0 7
-12.8405 13.4768 -2.6477 0.1408 0 7
-13.0561 13.2680 -2.6477 0.1408 0 7
-13.2684 13.0557 -2.6477 0.1408 0 7
-13.4772 12.8401 -2.6477 0.1408 0 7
-13.6825 12.6211 -2.6477 0.1408 0 7
-13.8843 12.3988 -2.6477 0.1408 0 7
-14.0824 12.1732 -2.6477 0.1408 0 7
-14.2769 11.9445 -2.6477 0.1408 0 7
-14.4677 11.7128 -2.6477 0.1408 0 7
-14.6547 11.4779 -2.6477 0.1408 0 7
-14.8379 11.2401 -2.6477 0.1408 0 7
-15.0172 10.9994 -2.6477 0.1408 0 7
-15.1927 10.7557 -2.6477 0.1408 0 7
-15.3641 10.5093 -2.6477 0.1408 0 7
-15.5316 10.2602 -2.6477 0.1408 0 7
-15.6951 10.0084 -2.6477 0.1408 0 7
-15.8544 9.7540 -2.6477 0.1408 0 7
-16.0097 9.4970 -2.6477 0.1408 0 7
-16.1607 9.2376 -2.6477 0.1408 0 7
-16.3076 8.9758 -2.6477 0.1408 0 7
-15.5034 8.2102 -2.4953 0.1408 0 8
-15.6337 7.9591 -2.4953 0.1408 0 8
-15.7601 7.7059 -2.4953 0.1408 0 8
-15.8823 7.4508 -2.4953 0.1408 0 8
-16.0004 7.1937 -2.4953 0.1408 0 8
-16.1143 6.9347 -2.4953 0.1408 0 8
-16.2240 6.6740 -2.4953 0.1408 0 8
-16.3296 6.4115 -2.4953 0.1408 0 8
-16.4308 6.1473 -2.4953 0.1408 0 8
-16.5278 5.8815 -2.4953 0.1408 0 8
-16.6205 5.6142 -2.4953 0.1408 0 8
-16.7089 5.3454 -2.4953 0.1408 0 8
-16.7929 5.0753 -2.4953 0.1408 0 8
-16.8726 4.8038 -2.4953 0.1408 0 8
-16.9479 4.5311 -2.4953 0.1408 0 8
-17.0187 4.2572 -2.4953 0.1408 0 8
-17.0852 3.9822 -2.4953 0.1408 0 8
-17.1472 3.7061 -2.4953 0.1408 0 8
-17.2047 3.4291 -2.4953 0.1408 0 8
-17.2578 3.1512 -2.4953 0.1408 0 8
-17.3064 2.8725 -2.4953 0.1408 0 8
-17.3504 2.5930 -2.4953 0.1408 0 8
-17.3900 2.3129 -2.4953 0.1408 0 8
-17.4250 2.0322 -2.4953 0.1408 0 8
-17.4555 1.7509 -2.4953 0.1408 0 8
-17.4815 1.4691 -2.4953 0.1408 0 8
-17.5029 1.1870 -2.4953 0.1408 0 8
16.4613 1.7588 -2.4953 0.1490 0 8
16.4308 2.0240 -2.4953 0.1490 0 8
16.3961 2.2888 -2.4953 0.1490 0 8
16.3570 2.5529 -2.4953 0.1490 0 8
16.3137 2.8163 -2.4953 0.1490 0 8
16.2662 3.0790 -2.4953 0.1490 0 8
16.2144 3.3410 -2.4953 0.1490 0 8
16.1584 3.6020 -2.4953 0.1490 0 8
16.0982 3.8621 -2.4953 0.1490 0 8
16.0339 4.1212 -2.4953 0.1490 0 8
15.9653 4.3793 -2.4953 0.1490 0 8
15.8926 4.6362 -2.4953 0.1490 0 8
15.8158 4.8919 -2.4953 0.1490 0 8
15.7348 5.1463 -2.4953 0.1490 0 8
15.6498 5.3994 -2.4953 0.1490 0 8
15.5607 5.6510 -2.4953 0.1490 0 8
15.4675 5.9012 -2.4953 0.1490 0 8
15.3704 6.1499 -2.4953 0.1490 0 8
15.2692 6.3970 -2.4953 0.1490 0 8
15.1640 6.6424 -2.4953 0.1490 0 8
15.0549 6.8861 -2.4953 0.1490 0 8
14.9419 7.1280 -2.4953 0.1490 0 8
14.8250 7.3680 -2.4953 0.1490 0 8
14.7043 7.6061 -2.4953 0.1490 0 8
14.5797 7.8423 -2.4953 0.1490 0 8
14.4513 8.0764 -2.4953 0.1490 0 8
14.3192 8.3084 -2.4953 0.1490 0 8
15.0496 9.0597 -2.6477 0.1490 0 7
14.9016 9.3012 -2.6477 0.1490 0 7
14.7496 9.5403 -2.6477 0.1490 0 7
14.5939 9.7769 -2.6477 0.1490 0 7
14.4343 10.0110 -2.6477 0.1490 0 7
14.2710 10.2425 -2.6477 0.1490 0 7
14.1039 10.4713 -2.6477 0.1490 0 7
13.9332 10.6974 -2.6477 0.1490 0 7
13.7589 10.9207 -2.6477 0.1490 0 7
13.5810 11.1412 -2.6477 0.1490 0 7
13.3996 11.3587 -2.6477 0.1490 0 7
13.2147 11.5734 -2.6477 0.1490 0 7
13.0263 11.7850 -2.6477 0.1490 0 7
12.8345 11.9935 -2.6477 0.1490 0 7
12.6395 12.1989 -2.6477 0.1490 0 7
12.4411 12.4012 -2.6477 0.1490 0 7
12.2395 12.6002 -2.6477 0.1490 0 7
12.0347 12.7959 -2.6477 0.1490 0 7
11.8268 12.9883 -2.6477 0.1490 0 7
11.6158 13.1774 -2.6477 0.1490 0 7
11.4018 13.3630 -2.6477 0.1490 0 7
11.1848 13.5451 -2.6477 0.1490 0 7
10.9649 13.7237 -2.6477 0.1490 0 7
10.7421 13.8988 -2.6477 0.1490 0 7
10.5166 14.0702 -2.6477 0.1490 0 7
10.2883 14.2380 -2.6477 0.1490 0 7
10.0574 14.4020 -2.6477 0.1490 0 7
9.8238 14.5623 -2.6477 0.1490 0 7
9.5877 14.7189 -2.6477 0.1490 0 7
9.3491 14.8716 -2.6477 0.1490 0 7
9.1080 15.0204 -2.6477 0.1490 0 7
8.8646 15.1653 -2.6477 0.1490 0 7
8.6189 15.3063 -2.6477 0.1490 0 7
8.3709 15.4433 -2.6477 0.1490 0 7
8.1208 15.5763 -2.6477 0.1490 0 7
7.8686 15.7053 -2.6477 0.1490 0 7
7.6143 15.8301 -2.6477 0.1490 0 7
7.3580 15.9508 -2.6477 0.1490 0 7
7.0998 16.0674 -2.6477 0.1490 0 7
6.8397 16.1798 -2.6477 0.1490 0 7
6.5779 16.2880 -2.6477 0.1490 0 7
6.3144 16.3920 -2.6477 0.1490 0 7
6.0492 16.4917 -2.6477 0.1490 0 7
5.7825 16.5871 -2.6477 0.1490 0 7
5.5142 16.6782 -2.6477 0.1490 0 7
5.2446 16.7650 -2.6477 0.1490 0 7
4.9735 16.8474 -2.6477 0.1490 0 7
4.7012 16.9254 -2.6477 0.1490 0 7
4.4276 16.9990 -2.6477 0.1490 0 7
4.1529 17.0682 -2.6477 0.1490 0 7
3.8771 17.1329 -2.6477 0.1490 0 7
3.6003 17.1932 -2.6477 0.1490 0 7
3.3226 17.2491 -2.6477 0.1490 0 7
3.0440 17.3004 -2.6477 0.1490 0 7
2.7646 17.3472 -2.6477 0.1490 0 7
2.4845 17.3896 -2.6477 0.1490 0 7
2.2037 17.4274 -2.6477 0.1490 0 7
1.9224 17.4606 -2.6477 0.1490 0 7
1.6406 17.4894 -2.6477 0.1490 0 7
1.3583 17.5135 -2.6477 0.1490 0 7
1.0757 17.5332 -2.6477 0.1490 0 7
0.7928 17.5482 -2.6477 0.1490 0 7
0.5097 17.5587 -2.6477 0.1490 0 7
0.2264 17.5647 -2.6477 0.1490 0 7
-0.0568 17.5661 -2.6477 0.1490 0 7
-0.3401 17.5628 -2.6477 0.1490 0 7
-0.6233 17.5551 -2.6477 0.1490 0 7
-0.9063 17.5427 -2.6477 0.1490 0 7
-1.1891 17.5259 -2.6477 0.1490 0 7
-1.4716 17.5044 -2.6477 0.1490 0 7
-1.7537 17.4784 -2.6477 0.1490 0 7
-2.0353 17.4478 -2.6477 0.1490 0 7
-2.3164 17.4127 -2.6477 0.1490 0 7
-2.5969 17.3731 -2.6477 0.1490 0 7
-2.8768 17.3290 -2.6477 0.1490 0 7
-3.1559 17.2803 -2.6477 0.1490 0 7
-3.4341 17.2272 -2.6477 0.1490 0 7
-3.7115 17.1696 -2.6477 0.1490 0 7
-3.9879 17.1075 -2.6477 0.1490 0 7
-4.2633 17.0409 -2.6477 0.1490 0 7
-4.5375 16.9700 -2.6477 0.1490 0 7
-4.8106 16.8946 -2.6477 0.1490 0 7
-5.0824 16.8148 -2.6477 0.1490 0 7
-5.3529 16.7307 -2.6477 0.1490 0 7
-5.6221 16.6422 -2.6477 0.1490 0 7
-5.8897 16.5493 -2.6477 0.1490 0 7
-6.1558 16.4522 -2.6477 0.1490 0 7
-6.4203 16.3508 -2.6477 0.1490 0 7
-6.6832 16.2451 -2.6477 0.1490 0 7
-6.9443 16.1352 -2.6477 0.1490 0 7
-7.2036 16.0212 -2.6477 0.1490 0 7
-7.4610 15.9029 -2.6477 0.1490 0 7
-7.7165 15.7805 -2.6477 0.1490 0 7
-7.9700 15.6540 -2.6477 0.1490 0 7
-8.2214 15.5235 -2.6477 0.1490 0 7
-8.4707 15.3888 -2.6477 0.1490 0 7
-8.7178 15.2502 -2.6477 0.1490 0 7
-8.9626 15.1077 -2.6477 0.1490 0 7
-9.2050 14.9612 -2.6477 0.1490 0 7
-9.4451 14.8108 -2.6477 0.1490 0 7
-9.6827 14.6565 -2.6477 0.1490 0 7
-9.9178 14.4985 -2.6477 0.1490 0 7
-10.1504 14.3366 -2.6477 0.1490 0 7
-10.3802 14.1711 -2.6477 0.1490 0 7
-10.6074 14.0019 -2.6477 0.1490 0 7
-10.8319 13.8290 -2.6477 0.1490 0 7
-11.0534 13.6525 -2.6477 0.1490 0 7
-11.2722 13.4725 -2.6477 0.1490 0 7
-11.4880 13.2889 -2.6477 0.1490 0 7
-11.7008 13.1019 -2.6477 0.1490 0 7
-11.9106 12.9115 -2.6477 0.1490 0 7
-12.1172 12.7178 -2.6477 0.1490 0 7
-12.3208 12.5207 -2.6477 0.1490 0 7
-12.5211 12.3204 -2.6477 0.1490 0 7
-12.7181 12.1169 -2.6477 0.1490 0 7
-12.9119 11.9102 -2.6477 0.1490 0 7
-13.1023 11.7004 -2.6477 0.1490 0 7
-13.2893 11.4876 -2.6477 0.1490 0 7
-13.4728 11.2718 -2.6477 0.1490 0 7
-13.6528 11.0531 -2.6477 0.1490 0 7
-13.8293 10.8314 -2.6477 0.1490 0 7
-14.0022 10.6070 -2.6477 0.1490 0 7
-14.1714 10.3798 -2.6477 0.1490 0 7
-14.3370 10.1499 -2.6477 0.1490 0 7
-14.4988 9.9174 -2.6477 0.1490 0 7
-14.6568 9.6823 -2.6477 0.1490 0 7
-14.8111 9.4447 -2.6477 0.1490 0 7
-14.9614 9.2046 -2.6477 0.1490 0 7
-15.1079 8.9621 -2.6477 0.1490 0 7
-14.3727 8.2155 -2.4953 0.1490 0 8
-14.5033 7.9827 -2.4953 0.1490 0 8
-14.6301 7.7478 -2.4953 0.1490 0 8
-14.7532 7.5108 -2.4953 0.1490 0 8
-14.8724 7.2719 -2.4953 0.1490 0 8
-14.9877 7.0311 -2.4953 0.1490 0 8
-15.0992 6.7885 -2.4953 0.1490 0 8
-15.2067 6.5441 -2.4953 0.1490 0 8
-15.3102 6.2981 -2.4953 0.1490 0 8
-15.4098 6.0503 -2.4953 0.1490 0 8
-15.5054 5.8010 -2.4953 0.1490 0 8
-15.5969 5.5502 -2.4953 0.1490 0 8
-15.6844 5.2980 -2.4953 0.1490 0 8
-15.7678 5.0444 -2.4953 0.1490 0 8
-15.8471 4.7894 -2.4953 0.1490 0 8
-15.9223 4.5333 -2.4953 0.1490 0 8
-15.9933 4.2759 -2.4953 0.1490 0 8
-16.0602 4.0174 -2.4953 0.1490 0 8
-16.1229 3.7579 -2.4953 0.1490 0 8
-16.1814 3.4974 -2.4953 0.1490 0 8
-16.2357 3.2360 -2.4953 0.1490 0 8
-16.2858 2.9737 -2.4953 0.1490 0 8
-16.3316 2.7107 -2.4953 0.1490 0 8
-16.3732 2.4470 -2.4953 0.1490 0 8
-16.4105 2.1826 -2.4953 0.1490 0 8
-16.4436 1.9177 -2.4953 0.1490 0 8
-16.4724 1.6523 -2.4953 0.1490 0 8
-16.4969 1.3864 -2.4953 0.1490 0 8
-16.5171 1.1202 -2.4953 0.1490 0 8
15.5815 1.6648 -2.4953 0.1573 0 8
15.5527 1.9159 -2.4953 0.1573 0 8
15.5197 2.1664 -2.4953 0.1573 0 8
15.4828 2.4164 -2.4953 0.1573 0 8
15.4418 2.6658 -2.4953 0.1573 0 8
15.3968 2.9145 -2.4953 0.1573 0 8
15.3478 3.1624 -2.4953 0.1573 0 8
15.2948 3.4095 -2.4953 0.1573 0 8
15.2378 3.6557 -2.4953 0.1573 0 8
15.1769 3.9010 -2.4953 0.1573 0 8
15.1120 4.1452 -2.4953 0.1573 0 8
15.0432 4.3884 -2.4953 0.1573 0 8
14.9705 4.6304 -2.4953 0.1573 0 8
14.8939 4.8712 -2.4953 0.1573 0 8
14.8134 5.1108 -2.4953 0.1573 0 8
14.7290 5.3490 -2.4953 0.1573 0 8
14.6408 5.5858 -2.4953 0.1573 0 8
14.5489 5.8212 -2.4953 0.1573 0 8
14.4531 6.0551 -2.4953 0.1573 0 8
14.3536 6.2874 -2.4953 0.1573 0 8
14.2503 6.5180 -2.4953 0.1573 0 8
14.1433 6.7470 -2.4953 0.1573 0 8
14.0327 6.9742 -2.4953 0.1573 0 8
13.9184 7.1996 -2.4953 0.1573 0 8
13.8005 7.4231 -2.4953 0.1573 0 8
13.6790 7.6447 -2.4953 0.1573 0 8
13.5539 7.8643 -2.4953 0.1573 0 8
13.4253 8.0819 -2.4953 0.1573 0 8
13.2932 8.2973 -2.4953 0.1573 0 8
13.9613 9.0304 -2.6477 0.1573 0 7
13.8139 9.2544 -2.6477 0.1573 0 7
13.6628 9.4760 -2.6477 0.1573 0 7
13.5082 9.6951 -2.6477 0.1573 0 7
13.3501 9.9116 -2.6477 0.1573 0 7
13.1886 10.1257 -2.6477 0.1573 0 7
13.0235 10.3370 -2.6477 0.1573 0 7
12.8552 10.5457 -2.6477 0.1573 0 7
12.6834 10.7517 -2.6477 0.1573 0 7
12.5084 10.9548 -2.6477 0.1573 0 7
12.3301 11.1551 -2.6477 0.1573 0 7
12.1486 11.3525 -2.6477 0.1573 0 7
11.9639 11.5469 -2.6477 0.1573 0 7
11.7762 11.7384 -2.6477 0.1573 0 7
11.5853 11.9267 -2.6477 0.1573 0 7
11.3915 12.1120 -2.6477 0.1573 0 7
11.1947 12.2941 -2.6477 0.1573 0 7
10.9950 12.4731 -2.6477 0.1573 0 7
10.7924 12.6488 -2.6477 0.1573 0 7
10.5870 12.8212 -2.6477 0.1573 0 7
10.3788 12.9902 -2.6477 0.1573 0 7
10.1680 13.1559 -2.6477 0.1573 0 7
9.9545 13.3182 -2.6477 0.1573 0 7
9.7385 13.4770 -2.6477 0.1573 0 7
9.5198 13.6323 -2.6477 0.1573 0 7
9.2988 13.7840 -2.6477 0.1573 0 7
9.0753 13.9322 -2.6477 0.1573 0 7
8.8494 14.0767 -2.6477 0.1573 0 7
8.6212 14.2176 -2.6477 0.1573 0 7
8.3908 14.3548 -2.6477 0.1573 0 7
8.1583 14.4883 -2.6477 0.1573 0 7
7.9235 14.6179 -2.6477 0.1573 0 7
7.6868 14.7438 -2.6477 0.1573 0 7
7.4480 14.8659 -2.6477 0.1573 0 7
7.2073 14.9840 -2.6477 0.1573 0 6
6.9647 15.0983 -2.6477 0.1573 0 7
6.7203 15.2087 -2.6477 0.1573 0 7
6.4742 15.3151 -2.6477 0.1573 0 7
6.2264 15.4175 -2.6477 0.1573 0 7
5.9769 15.5159 -2.6477 0.1573 0 7
5.7259 15.6103 -2.6477 0.1573 0 7
5.4734 15.7006 -2.6477 0.1573 0 7
5.2195 15.7868 -2.6477 0.1573 0 7
4.9643 15.8689 -2.6477 0.1573 0 7
4.7077 15.9469 -2.6477 0.1573 0 7
4.4499 16.0208 -2.6477 0.1573 0 7
4.1910 16.0904 -2.6477 0.1573 0 7
3.9310 16.1559 -2.6477 0.1573 0 7
3.6699 16.2172 -2.6477 0.1573 0 7
3.4079 16.2743 -2.6477 0.1573 0 7
3.1450 16.3271 -2.6477 0.1573 0 7
2.8813 16.3757 -2.6477 0.1573 0 7
2.6168 16.4201 -2.6477 0.1573 0 7
2.3517 16.4601 -2.6477 0.1573 0 7
2.0859 16.4959 -2.6477 0.1573 0 7
1.8196 16.5274 -2.6477 0.1573 0 7
1.5529 16.5546 -2.6477 0.1573 0 7
1.2857 16.5775 -2.6477 0.1573 0 7
1.0182 16.5961 -2.6477 0.1573 0 7
0.7504 16.6103 -2.6477 0.1573 0 7
0.4824 16.6203 -2.6477 0.1573 0 7
0.2143 16.6259 -2.6477 0.1573 0 7
-0.0538 16.6272 -2.6477 0.1573 0 7
-0.3219 16.6242 -2.6477 0.1573 0 7
-0.5900 16.6168 -2.6477 0.1573 0 7
-0.8579 16.6051 -2.6477 0.1573 0 7
-1.1256 16.5891 -2.6477 0.1573 0 7
-1.3929 16.5688 -2.6477 0.1573 0 7
-1.6600 16.5442 -2.6477 0.1573 0 7
-1.9265 16.5153 -2.6477 0.1573 0 7
-2.1926 16.4821 -2.6477 0.1573 0 7
-2.4581 16.4446 -2.6477 0.1573 0 7
-2.7230 16.4028 -2.6477 0.1573 0 7
-2.9872 16.3568 -2.6477 0.1573 0 7
-3.2506 16.3065 -2.6477 0.1573 0 7
-3.5131 16.2519 -2.6477 0.1573 0 7
-3.7748 16.1931 -2.6477 0.1573 0 7
-4.0354 16.1302 -2.6477 0.1573 0 7
-4.2950 16.0630 -2.6477 0.1573 0 7
-4.5535 15.9916 -2.6477 0.1573 0 7
-4.8108 15.9161 -2.6477 0.1573 0 7
-5.0668 15.8365 -2.6477 0.1573 0 7
-5.3216 15.7527 -2.6477 0.1573 0 7
-5.5749 15.6648 -2.6477 0.1573 0 7
-5.8268 15.5729 -2.6477 0.1573 0 7
-6.0772 15.4769 -2.6477 0.1573 0 7
-6.3260 15.3769 -2.6477 0.1573 0 7
-6.5731 15.2729 -2.6477 0.1573 0 7
-6.8186 15.1649 -2.6477 0.1573 0 7
-7.0623 15.0529 -2.6477 0.1573 0 7
-7.3041 14.9371 -2.6477 0.1573 0 6
-7.5440 14.8174 -2.6477 0.1573 0 7
-7.7820 14.6938 -2.6477 0.1573 0 7
-8.0180 14.5664 -2.6477 0.1573 0 7
-8.2518 14.4352 -2.6477 0.1573 0 7
-8.4836 14.3002 -2.6477 0.1573 0 7
-8.7131 14.1615 -2.6477 0.1573 0 7
-8.9403 14.0192 -2.6477 0.1573 0 7
-9.1652 13.8732 -2.6477 0.1573 0 7
-9.3878 13.7236 -2.6477 0.1573 0 7
-9.6079 13.5704 -2.6477 0.1573 0 7
-9.8255 13.4137 -2.6477 0.1573 0 7
-10.0405 13.2535 -2.6477 0.1573 0 7
-10.2529 13.0899 -2.6477 0.1573 0 7
-10.4627 12.9228 -2.6477 0.1573 0 7
-10.6697 12.7524 -2.6477 0.1573 0 7
-10.8740 12.5787 -2.6477 0.1573 0 7
-11.0754 12.4017 -2.6477 0.1573 0 7
-11.2740 12.2215 -2.6477 0.1573 0 7
-11.4696 12.0381 -2.6477 0.1573 0 7
-11.6622 11.8515 -2.6477 0.1573 0 7
-11.8519 11.6619 -2.6477 0.1573 0 7
-12.0384 11.4693 -2.6477 0.1573 0 7
-12.2218 11.2736 -2.6477 0.1573 0 7
-12.4020 11.0751 -2.6477 0.1573 0 7
-12.5790 10.8736 -2.6477 0.1573 0 7
-12.7527 10.6693 -2.6477 0.1573 0 7
-12.9231 10.4623 -2.6477 0.1573 0 7
-13.0902 10.2525 -2.6477 0.1573 0 7
-13.2538 10.0401 -2.6477 0.1573 0 7
-13.4140 9.8251 -2.6477 0.1573 0 7
-13.5707 9.6075 -2.6477 0.1573 0 7
-13.7239 9.3874 -2.6477 0.1573 0 7
-13.8735 9.1648 -2.6477 0.1573 0 7
-14.0194 8.9399 -2.6477 0.1573 0 7
-13.3466 8.2111 -2.4953 0.1573 0 8
-13.4773 7.9948 -2.4953 0.1573 0 8
-13.6045 7.7765 -2.4953 0.1573 0 8
-13.7281 7.5560 -2.4953 0.1573 0 8
-13.8482 7.3337 -2.4953 0.1573 0 8
-13.9647 7.1094 -2.4953 0.1573 0 8
-14.0775 6.8833 -2.4953 0.1573 0 8
-14.1867 6.6553 -2.4953 0.1573 0 8
-14.2922 6.4257 -2.4953 0.1573 0 8
-14.3939 6.1944 -2.4953 0.1573 0 8
-14.4920 5.9614 -2.4953 0.1573 0 8
-14.5862 5.7270 -2.4953 0.1573 0 8
-14.6767 5.4910 -2.4953 0.1573 0 8
-14.7633 5.2536 -2.4953 0.1573 0 8
-14.8461 5.0148 -2.4953 0.1573 0 8
-14.9251 4.7748 -2.4953 0.1573 0 8
-15.0001 4.5334 -2.4953 0.1573 0 8
-15.0713 4.2910 -2.4953 0.1573 0 8
-15.1385 4.0474 -2.4953 0.1573 0 8
-15.2018 3.8027 -2.4953 0.1573 0 8
-15.2612 3.5570 -2.4953 0.1573 0 8
-15.3165 3.3105 -2.4953 0.1573 0 8
-15.3679 3.0630 -2.4953 0.1573 0 8
-15.4153 2.8148 -2.4953 0.1573 0 8
-15.4587 2.5658 -2.4953 0.1573 0 8
-15.4981 2.3162 -2.4953 0.1573 0 8
-15.5334 2.0660 -2.4953 0.1573 0 8
-15.5647 1.8152 -2.4953 0.1573 0 8
-15.5920 1.5639 -2.4953 0.1573 0 8
-15.6152 1.3123 -2.4953 0.1573 0 8
-15.6343 1.0603 -2.4953 0.1573 0 8
14.7890 1.5801 -2.4953 0.1655 0 8
14.7616 1.8184 -2.4953 0.1655 0 8
14.7304 2.0562 -2.4953 0.1655 0 8
14.6953 2.2935 -2.4953 0.1655 0 8
14.6564 2.5302 -2.4953 0.1655 0 8
14.6137 2.7662 -2.4953 0.1655 0 8
14.5672 3.0016 -2.4953 0.1655 0 8
14.5169 3.2361 -2.4953 0.1655 0 8
14.4628 3.4698 -2.4953 0.1655 0 8
14.4050 3.7026 -2.4953 0.1655 0 8
14.3434 3.9344 -2.4953 0.1655 0 8
14.2780 4.1652 -2.4953 0.1655 0 8
14.2090 4.3949 -2.4953 0.1655 0 8
14.1363 4.6235 -2.4953 0.1655 0 8
14.0599 4.8508 -2.4953 0.1655 0 8
13.9799 5.0769 -2.4953 0.1655 0 8
13.8962 5.3017 -2.4953 0.1655 0 8
13.8089 5.5251 -2.4953 0.1655 0 8
13.7180 5.7471 -2.4953 0.1655 0 8
13.6235 5.9676 -2.4953 0.1655 0 8
13.5255 6.1865 -2.4953 0.1655 0 8
13.4240 6.4038 -2.4953 0.1655 0 8
13.3189 6.6195 -2.4953 0.1655 0 8
13.2105 6.8334 -2.4953 0.1655 0 8
13.0985 7.0456 -2.4953 0.1655 0 8
12.9832 7.2559 -2.4953 0.1655 0 8
12.8645 7.4643 -2.4953 0.1655 0 8
12.7425 7.6708 -2.4953 0.1655 0 8
12.6171 7.8753 -2.4953 0.1655 0 8
12.4885 8.0778 -2.4953 0.1655 0 8
12.3566 8.2781 -2.4953 0.1655 0 8
12.2215 8.4763 -2.4953 0.1655 0 8
12.8212 9.2019 -2.6477 0.1655 0 7
12.6711 9.4075 -2.6477 0.1655 0 7
12.5177 9.6106 -2.6477 0.1655 0 7
12.3611 9.8113 -2.6477 0.1655 0 7
12.2013 10.0093 -2.6477 0.1655 0 7
12.0383 10.2048 -2.6477 0.1655 0 7
11.8722 10.3976 -2.6477 0.1655 0 7
11.7029 10.5877 -2.6477 0.1655 0 7
11.5307 10.7751 -2.6477 0.1655 0 7
11.3554 10.9596 -2.6477 0.1655 0 7
11.1772 11.1413 -2.6477 0.1655 0 7
10.9961 11.3201 -2.6477 0.1655 0 7
10.8121 11.4960 -2.6477 0.1655 0 6
10.6253 11.6688 -2.6477 0.1655 0 7
10.4357 11.8387 -2.6477 0.1655 0 7
10.2434 12.0054 -2.6477 0.1655 0 7
10.0485 12.1691 -2.6477 0.1655 0 7
9.8509 12.3295 -2.6477 0.1655 0 7
9.6508 12.4868 -2.6477 0.1655 0 7
9.4482 12.6408 -2.6477 0.1655 0 7
9.2431 12.7915 -2.6477 0.1655 0 7
9.0356 12.9389 -2.6477 0.1655 0 7
8.8258 13.0829 -2.6477 0.1655 0 7
8.6137 13.2236 -2.6477 0.1655 0 7
8.3993 13.3608 -2.6477 0.1655 0 7
8.1827 13.4945 -2.6477 0.1655 0 7
7.9641 13.6247 -2.6477 0.1655 0 7
7.7433 13.7513 -2.6477 0.1655 0 7
7.5205 13.8744 -2.6477 0.1655 0 7
7.2958 13.9939 -2.6477 0.1655 0 7
7.0692 14.1097 -2.6477 0.1655 0 7
6.8407 14.2219 -2.6477 0.1655 0 7
6.6105 14.3304 -2.6477 0.1655 0 7
6.3785 14.4351 -2.6477 0.1655 0 7
6.1449 14.5361 -2.6477 0.1655 0 7
5.9097 14.6333 -2.6477 0.1655 0 7
5.6729 14.7267 -2.6477 0.1655 0 7
5.4347 14.8163 -2.6477 0.1655 0 7
5.1949 14.9020 -2.6477 0.1655 0 7
4.9540 14.9838 -2.6477 0.1655 0 7
4.7118 15.0618 -2.6477 0.1655 0 7
4.4683 15.1358 -2.6477 0.1655 0 7
4.2236 15.2059 -2.6477 0.1655 0 7
3.9778 15.2720 -2.6477 0.1655 0 7
3.7310 15.3342 -2.6477 0.1655 0 7
3.4832 15.3924 -2.6477 0.1655 0 7
3.2346 15.4465 -2.6477 0.1655 0 7
2.9850 15.4967 -2.6477 0.1655 0 7
2.7347 15.5428 -2.6477 0.1655 0 7
2.4837 15.5849 -2.6477 0.1655 0 7
2.2321 15.6229 -2.6477 0.1655 0 7
1.9798 15.6569 -2.6477 0.1655 0 7
1.7271 15.6868 -2.6477 0.1655 0 7
1.4739 15.7126 -2.6477 0.1655 0 7
1.2203 15.7343 -2.6477 0.1655 0 7
0.9664 15.7520 -2.6477 0.1655 0 7
0.7122 15.7655 -2.6477 0.1655 0 7
0.4579 15.7749 -2.6477 0.1655 0 7
0.2034 15.7803 -2.6477 0.1655 0 7
-0.0511 15.7815 -2.6477 0.1655 0 7
-0.3056 15.7786 -2.6477 0.1655 0 7
-0.5600 15.7716 -2.6477 0.1655 0 7
-0.8142 15.7606 -2.6477 0.1655 0 7
-1.0683 15.7454 -2.6477 0.1655 0 7
-1.3221 15.7261 -2.6477 0.1655 0 7
-1.5755 15.7027 -2.6477 0.1655 0 7
-1.8286 15.6753 -2.6477 0.1655 0 7
-2.0811 15.6438 -2.6477 0.1655 0 7
-2.3331 15.6082 -2.6477 0.1655 0 7
-2.5845 15.5685 -2.6477 0.1655 0 7
