ply
format ascii 1.0
element vertex 1316
property float32 x
property float32 y
property float32 z
property float32 CosAngle
property uint32 ObjIdx
property uint32 ObjTag
end_header
-93.8862 34.5957 -2.4953 0.0249 0 8
-100.1962 35.1065 -2.6477 0.0249 0 7
-100.7462 33.4954 -2.6477 0.0249 0 7
-101.2704 31.8756 -2.6477 0.0249 0 7
-101.7685 30.2477 -2.6477 0.0249 0 7
-102.2404 28.6119 -2.6477 0.0249 0 7
-102.6861 26.9688 -2.6477 0.0249 0 7
-103.1053 25.3187 -2.6477 0.0249 0 7
-103.4981 23.6622 -2.6477 0.0249 0 7
-103.8642 21.9996 -2.6477 0.0249 0 7
-104.2036 20.3313 -2.6477 0.0249 0 7
-104.5162 18.6577 -2.6477 0.0249 0 7
-104.8024 16.9795 -2.6477 0.0249 0 7
-105.0607 15.2967 -2.6477 0.0249 0 7
-105.2925 13.6101 -2.6477 0.0249 0 7
-105.4972 11.9200 -2.6477 0.0249 0 7
-105.6748 10.2268 -2.6477 0.0249 0 7
-105.8252 8.5310 -2.6477 0.0249 0 7
-105.9484 6.8329 -2.6477 0.0249 0 7
-106.0443 5.1332 -2.6477 0.0249 0 7
-106.1130 3.4321 -2.6477 0.0249 0 6
-106.1544 1.7302 -2.6477 0.0249 0 7
-106.1685 0.0277 -2.6477 0.0249 0 7
-106.1553 -1.6747 -2.6477 0.0249 0 7
-106.1148 -3.3767 -2.6477 0.0249 0 7
-106.0470 -5.0779 -2.6477 0.0249 0 7
-105.9519 -6.7776 -2.6477 0.0249 0 7
-105.8296 -8.4758 -2.6477 0.0249 0 7
-105.6801 -10.1716 -2.6477 0.0249 0 7
-105.5034 -11.8649 -2.6477 0.0249 0 7
-105.2996 -13.5551 -2.6477 0.0249 0 7
-105.0687 -15.2419 -2.6477 0.0249 0 7
-98.7779 -15.9501 -2.4953 0.0249 0 8
-98.5094 -17.5324 -2.4953 0.0249 0 8
-98.2156 -19.1097 -2.4953 0.0249 0 8
-97.8966 -20.6821 -2.4953 0.0249 0 8
-97.5523 -22.2493 -2.4953 0.0249 0 8
-97.1830 -23.8106 -2.4953 0.0249 0 8
-96.7887 -25.3659 -2.4953 0.0249 0 8
-96.3695 -26.9147 -2.4953 0.0249 0 8
-95.9256 -28.4565 -2.4953 0.0249 0 8
-95.4569 -29.9910 -2.4953 0.0249 0 8
-94.9638 -31.5178 -2.4953 0.0249 0 8
-94.4462 -33.0365 -2.4953 0.0249 0 8
-93.9043 -34.5466 -2.4953 0.0249 0 8
-93.3383 -36.0480 -2.4953 0.0249 0 8
-92.7482 -37.5400 -2.4953 0.0249 0 8
-92.1343 -39.0224 -2.4953 0.0249 0 8
-91.4968 -40.4948 -2.4953 0.0249 0 8
-90.8361 -41.9569 -2.4953 0.0249 0 8
-90.1512 -43.4079 -2.4953 0.0249 0 8
-89.4436 -44.8479 -2.4953 0.0249 0 8
-88.7130 -46.2763 -2.4953 0.0249 0 8
-93.3317 -50.6059 -2.6477 0.0249 0 7
-92.5082 -52.0958 -2.6477 0.0249 0 7
-91.6609 -53.5726 -2.6477 0.0249 0 7
-90.7902 -55.0354 -2.6477 0.0249 0 7
-89.8959 -56.4842 -2.6477 0.0249 0 7
-88.9787 -57.9184 -2.6477 0.0249 0 7
-88.0385 -59.3377 -2.6477 0.0249 0 7
-87.0757 -60.7418 -2.6477 0.0249 0 7
-86.0905 -62.1302 -2.6477 0.0249 0 7
-85.0832 -63.5027 -2.6477 0.0249 0 7
-84.0540 -64.8588 -2.6477 0.0249 0 7
-83.0032 -66.1983 -2.6477 0.0249 0 7
-81.9311 -67.5207 -2.6477 0.0249 0 7
-80.8378 -68.8259 -2.6477 0.0249 0 7
-79.7238 -70.1133 -2.6477 0.0249 0 7
-78.5892 -71.3826 -2.6477 0.0249 0 7
-77.2254 -72.4375 -2.6405 0.0381 0 8
-75.0886 -72.7314 -2.6070 0.7467 0 8
-72.8829 -72.8962 -2.5707 0.7392 0 8
-70.6314 -72.9471 -2.5322 0.7130 0 8
-68.4396 -72.9898 -2.4953 0.0249 0 8
-67.2604 -74.0779 -2.4953 0.0249 0 8
-66.0639 -75.1468 -2.4953 0.0249 0 8
-64.8504 -76.1966 -2.4953 0.0249 0 8
-63.6202 -77.2266 -2.4953 0.0249 0 8
-62.3737 -78.2368 -2.4953 0.0249 0 8
-61.1333 -79.2557 -2.4962 0.0220 0 8
-59.9563 -80.3620 -2.5004 0.0219 0 8
-58.7577 -81.4485 -2.5046 0.0219 0 8
-57.5379 -82.5147 -2.5087 0.0218 0 8
-56.2972 -83.5602 -2.5127 0.0218 0 8
-55.0353 -84.5830 -2.5166 0.0218 0 8
-53.7539 -85.5851 -2.5204 0.0217 0 8
-52.4527 -86.5649 -2.5242 0.0217 0 8
-51.1316 -87.5210 -2.5278 0.0217 0 8
-49.7914 -88.4539 -2.5314 0.0217 0 8
-48.4335 -89.3640 -2.5349 0.0216 0 8
-47.0570 -90.2496 -2.5383 0.0216 0 8
-45.6621 -91.1088 -2.5415 0.0216 0 8
-44.2511 -91.9453 -2.5447 0.0215 0 8
-42.8234 -92.7563 -2.5478 0.0215 0 8
-41.3781 -93.5389 -2.5508 0.0215 0 8
-39.9183 -94.2974 -2.5537 0.0215 0 8
-38.4435 -95.0302 -2.5565 0.0215 0 8
-36.9528 -95.7329 -2.5591 0.0214 0 8
-35.4487 -96.4102 -2.5617 0.0214 0 8
-33.9313 -97.0611 -2.5642 0.0214 0 8
-32.3999 -97.6812 -2.5665 0.0214 0 8
-30.8564 -98.2739 -2.5688 0.0214 0 8
-29.3016 -98.8402 -2.5709 0.0213 0 8
-27.7346 -99.3753 -2.5730 0.0213 0 8
-26.1568 -99.8803 -2.5749 0.0213 0 8
-24.5695 -100.3593 -2.5767 0.0213 0 8
-22.9724 -100.8073 -2.5784 0.0213 0 8
-21.3657 -101.2233 -2.5800 0.0213 0 8
-19.7513 -101.6116 -2.5815 0.0213 0 8
-18.1292 -101.9702 -2.5828 0.0212 0 8
-16.4994 -102.2954 -2.5841 0.0212 0 8
-14.8634 -102.5915 -2.5852 0.0212 0 8
-13.2216 -102.8563 -2.5862 0.0212 0 8
-11.5744 -103.0892 -2.5870 0.0212 0 8
-9.9230 -103.2943 -2.5879 0.0212 0 8
-8.2675 -103.4667 -2.5885 0.0212 0 8
-6.6087 -103.6062 -2.5890 0.0212 0 8
-4.9473 -103.7171 -2.5895 0.0212 0 8
-3.2840 -103.7960 -2.5898 0.0212 0 8
-1.6193 -103.8416 -2.5900 0.0212 0 8
0.0460 -103.8590 -2.5901 0.0212 0 8
1.7114 -103.8443 -2.5901 0.0212 0 8
3.3760 -103.7957 -2.5899 0.0212 0 8
5.0394 -103.7181 -2.5896 0.0212 0 8
6.7009 -103.6084 -2.5892 0.0212 0 8
8.3597 -103.4659 -2.5887 0.0212 0 8
10.0151 -103.2926 -2.5880 0.0212 0 8
11.6667 -103.0883 -2.5873 0.0212 0 8
13.3137 -102.8527 -2.5864 0.0213 0 8
14.9555 -102.5864 -2.5854 0.0213 0 8
16.5915 -102.2898 -2.5843 0.0213 0 8
18.2209 -101.9621 -2.5831 0.0213 0 8
19.8433 -101.6042 -2.5817 0.0213 0 8
21.4579 -101.2161 -2.5803 0.0213 0 8
23.0641 -100.7980 -2.5787 0.0213 0 8
-56.3814 51.2651 -2.5343 0.7350 0 8
-56.3959 49.6497 -2.4988 0.5552 0 8
-57.1038 48.6701 -2.4953 0.0332 0 8
-57.8769 47.7481 -2.4953 0.0332 0 8
-58.6351 46.8139 -2.4953 0.0332 0 8
-59.3782 45.8677 -2.4953 0.0332 0 8
-60.1061 44.9097 -2.4953 0.0332 0 8
-60.8185 43.9401 -2.4953 0.0332 0 8
-61.5152 42.9592 -2.4953 0.0332 0 8
-62.1962 41.9673 -2.4953 0.0332 0 8
-62.8611 40.9647 -2.4953 0.0332 0 14
-63.5099 39.9513 -2.4953 0.0332 0 14
-64.1424 38.9278 -2.4953 0.0332 0 14
-64.7583 37.8943 -2.4953 0.0332 0 8
-65.3577 36.8510 -2.4953 0.0332 0 8
-65.9402 35.7983 -2.4953 0.0332 0 8
-66.5057 34.7364 -2.4953 0.0332 0 8
-67.0542 33.6654 -2.4953 0.0332 0 8
-67.8635 32.7200 -2.5055 0.4353 0 8
-70.6903 32.6964 -2.5902 0.4211 0 8
-72.7746 32.2541 -2.6473 0.0401 0 8
-73.2929 31.0875 -2.6477 0.0332 0 7
-73.7820 29.9082 -2.6477 0.0332 0 7
-74.2521 28.7213 -2.6477 0.0332 0 7
-74.7031 27.5270 -2.6477 0.0332 0 7
-75.1349 26.3256 -2.6477 0.0332 0 7
-75.5473 25.1174 -2.6477 0.0332 0 7
-75.9404 23.9028 -2.6477 0.0332 0 7
-72.1409 21.4417 -2.5029 0.0332 0 14
-72.4754 20.2822 -2.5029 0.0332 0 14
-72.7913 19.1174 -2.5029 0.0332 0 14
-76.2976 18.7358 -2.6128 0.1561 0 8
-77.6109 17.7437 -2.6477 0.0332 0 7
-77.8854 16.4970 -2.6477 0.0332 0 7
-78.1399 15.2459 -2.6477 0.0332 0 7
-78.3743 13.9910 -2.6477 0.0332 0 7
-78.5886 12.7325 -2.6477 0.0332 0 7
-78.7827 11.4706 -2.6477 0.0332 0 7
-78.9565 10.2059 -2.6477 0.0332 0 7
-79.1100 8.9385 -2.6477 0.0332 0 7
-74.6819 7.2274 -2.4953 0.0332 0 8
-74.7882 6.0290 -2.4953 0.0332 0 8
-74.8752 4.8289 -2.4953 0.0332 0 8
-74.9430 3.6277 -2.4953 0.0332 0 8
-74.9916 2.4255 -2.4953 0.0332 0 8
-75.0208 1.2227 -2.4953 0.0332 0 8
-75.0308 0.0196 -2.4953 0.0332 0 8
-75.0216 -1.1835 -2.4953 0.0332 0 8
-74.9928 -2.3864 -2.4953 0.0332 0 8
-74.9449 -3.5886 -2.4953 0.0332 0 8
-74.8777 -4.7898 -2.4953 0.0332 0 8
-74.7913 -5.9899 -2.4953 0.0332 0 8
-74.6857 -7.1884 -2.4953 0.0332 0 8
-74.5608 -8.3851 -2.4953 0.0332 0 8
-74.4167 -9.5796 -2.4953 0.0332 0 8
-74.2536 -10.7717 -2.4953 0.0332 0 8
-74.0713 -11.9609 -2.4953 0.0332 0 8
-73.8700 -13.1471 -2.4953 0.0332 0 8
-73.6497 -14.3299 -2.4953 0.0332 0 8
-73.4104 -15.5091 -2.4953 0.0332 0 8
-73.1523 -16.6842 -2.4953 0.0332 0 8
-72.8753 -17.8551 -2.4953 0.0332 0 8
-72.5797 -19.0213 -2.4953 0.0332 0 8
-72.2653 -20.1827 -2.4953 0.0332 0 8
-71.9324 -21.3389 -2.4953 0.0332 0 8
-71.5810 -22.4896 -2.4953 0.0332 0 8
-71.2112 -23.6345 -2.4953 0.0332 0 8
-70.8230 -24.7733 -2.4953 0.0332 0 8
-70.4167 -25.9057 -2.4953 0.0332 0 8
-69.9923 -27.0316 -2.4953 0.0332 0 8
-69.5498 -28.1504 -2.4953 0.0332 0 8
-69.0895 -29.2620 -2.4953 0.0332 0 8
-68.6113 -30.3661 -2.4953 0.0332 0 8
-68.1156 -31.4624 -2.4953 0.0332 0 8
-67.6023 -32.5506 -2.4953 0.0332 0 8
-67.0717 -33.6304 -2.4953 0.0332 0 8
-66.5238 -34.7016 -2.4953 0.0332 0 8
-65.9588 -35.7639 -2.4953 0.0332 0 8
-65.3769 -36.8169 -2.4953 0.0332 0 8
-64.7781 -37.8605 -2.4953 0.0332 0 8
-64.1627 -38.8943 -2.4953 0.0332 0 8
-63.5308 -39.9182 -2.4953 0.0332 0 8
-62.8825 -40.9318 -2.4953 0.0332 0 8
-62.2181 -41.9348 -2.4953 0.0332 0 8
-61.5376 -42.9271 -2.4953 0.0332 0 8
-60.8414 -43.9083 -2.4953 0.0332 0 8
-60.1296 -44.8783 -2.4953 0.0332 0 8
-59.4022 -45.8367 -2.4953 0.0332 0 8
-58.6595 -46.7833 -2.4953 0.0332 0 8
-57.9019 -47.7179 -2.4953 0.0332 0 8
-57.1292 -48.6402 -2.4953 0.0332 0 8
-57.9616 -50.9745 -2.5670 0.2393 0 8
-58.9323 -53.5282 -2.6477 0.0332 0 7
-58.0664 -54.4663 -2.6477 0.0332 0 7
-57.1856 -55.3904 -2.6477 0.0332 0 7
-56.2900 -56.3003 -2.6477 0.0332 0 7
-55.3800 -57.1956 -2.6477 0.0332 0 7
-54.4557 -58.0763 -2.6477 0.0332 0 7
-53.5175 -58.9420 -2.6477 0.0332 0 7
-52.5655 -59.7926 -2.6477 0.0332 0 7
-51.5999 -60.6278 -2.6477 0.0332 0 7
-50.6211 -61.4474 -2.6477 0.0332 0 7
-49.6293 -62.2512 -2.6477 0.0332 0 7
-48.6247 -63.0390 -2.6477 0.0332 0 7
-47.6076 -63.8106 -2.6477 0.0332 0 7
-46.5783 -64.5658 -2.6477 0.0332 0 7
-45.5370 -65.3044 -2.6477 0.0332 0 7
-44.4840 -66.0262 -2.6477 0.0332 0 7
-43.4196 -66.7310 -2.6477 0.0332 0 7
-42.3440 -67.4186 -2.6477 0.0332 0 7
-41.2575 -68.0889 -2.6477 0.0332 0 7
-40.1603 -68.7418 -2.6477 0.0332 0 7
-39.0529 -69.3769 -2.6477 0.0332 0 7
-37.9354 -69.9942 -2.6477 0.0332 0 7
-36.8081 -70.5935 -2.6477 0.0332 0 7
-35.6715 -71.1747 -2.6477 0.0332 0 7
-34.5256 -71.7375 -2.6477 0.0332 0 7
-33.3432 -72.2219 -2.6455 0.0485 0 8
-32.0843 -72.5293 -2.6375 0.9006 0 8
-30.6987 -72.5183 -2.6189 0.9070 0 8
-29.3321 -72.5074 -2.6012 0.9132 0 8
-27.9836 -72.4965 -2.5844 0.9191 0 8
-26.6519 -72.4855 -2.5684 0.9248 0 8
-25.3362 -72.4746 -2.5533 0.9303 0 8
-24.0356 -72.4637 -2.5390 0.9355 0 8
-22.7490 -72.4528 -2.5255 0.9405 0 8
-21.4757 -72.4419 -2.5128 0.9453 0 8
-20.2152 -72.4326 -2.5009 0.7021 0 8
-19.0081 -72.5831 -2.4953 0.0332 0 8
-17.8418 -72.8786 -2.4953 0.0332 0 8
-16.6709 -73.1553 -2.4953 0.0332 0 8
-15.4957 -73.4132 -2.4953 0.0332 0 8
-14.3165 -73.6523 -2.4953 0.0332 0 8
-13.1337 -73.8724 -2.4953 0.0332 0 8
-11.9474 -74.0735 -2.4953 0.0332 0 8
-10.7581 -74.2555 -2.4953 0.0332 0 8
-9.5661 -74.4185 -2.4953 0.0332 0 8
-8.3715 -74.5623 -2.4953 0.0332 0 8
-7.1748 -74.6870 -2.4953 0.0332 0 8
-5.9763 -74.7924 -2.4953 0.0332 0 8
-4.7763 -74.8786 -2.4953 0.0332 0 8
-3.5749 -74.9456 -2.4953 0.0332 0 8
-2.3727 -74.9932 -2.4953 0.0332 0 8
-1.1699 -75.0217 -2.4953 0.0332 0 8
0.0332 -75.0308 -2.4953 0.0332 0 8
1.2364 -75.0206 -2.4953 0.0332 0 8
2.4391 -74.9911 -2.4953 0.0332 0 8
3.6413 -74.9424 -2.4953 0.0332 0 8
4.8425 -74.8744 -2.4953 0.0332 0 8
6.0425 -74.7871 -2.4953 0.0332 0 8
7.2410 -74.6806 -2.4953 0.0332 0 8
8.4375 -74.5549 -2.4953 0.0332 0 8
9.6319 -74.4100 -2.4953 0.0332 0 8
10.8239 -74.2460 -2.4953 0.0332 0 8
12.0130 -74.0628 -2.4953 0.0332 0 8
13.1991 -73.8607 -2.4953 0.0332 0 8
14.3818 -73.6396 -2.4953 0.0332 0 8
15.5607 -73.3995 -2.4953 0.0332 0 8
16.7357 -73.1405 -2.4953 0.0332 0 8
-47.1137 42.8384 -2.6477 0.0415 0 6
-47.7946 42.0774 -2.6477 0.0415 0 7
-48.4632 41.3056 -2.6477 0.0415 0 7
-49.1193 40.5231 -2.6477 0.0415 0 7
-49.7628 39.7303 -2.6477 0.0415 0 7
-50.3935 38.9272 -2.6477 0.0415 0 7
-51.0112 38.1142 -2.6477 0.0415 0 7
-51.6158 37.2913 -2.6477 0.0415 0 7
-52.2071 36.4589 -2.6477 0.0415 0 6
-52.7850 35.6170 -2.6477 0.0415 0 7
-53.3493 34.7661 -2.6477 0.0415 0 7
-53.9000 33.9061 -2.6477 0.0415 0 7
-54.4367 33.0375 -2.6477 0.0415 0 7
-54.9595 32.1603 -2.6477 0.0415 0 7
-55.4681 31.2749 -2.6477 0.0415 0 7
-55.9624 30.3815 -2.6477 0.0415 0 7
-56.4424 29.4802 -2.6477 0.0415 0 7
-56.9079 28.5714 -2.6477 0.0415 0 7
-57.3587 27.6551 -2.6477 0.0415 0 7
-57.7948 26.7319 -2.6477 0.0415 0 7
-58.2160 25.8017 -2.6477 0.0415 0 7
-58.6222 24.8649 -2.6477 0.0415 0 7
-59.0134 23.9216 -2.6477 0.0415 0 7
-59.3894 22.9723 -2.6477 0.0415 0 7
-59.7501 22.0170 -2.6477 0.0415 0 7
-60.0955 21.0561 -2.6477 0.0415 0 7
-60.4254 20.0898 -2.6477 0.0415 0 7
-60.7398 19.1183 -2.6477 0.0415 0 7
-61.0385 18.1419 -2.6477 0.0415 0 7
-61.3216 17.1608 -2.6477 0.0415 0 7
-61.5889 16.1753 -2.6477 0.0415 0 7
-61.8403 15.1856 -2.6477 0.0415 0 7
-62.0759 14.1921 -2.6477 0.0415 0 7
-62.2955 13.1949 -2.6477 0.0415 0 7
-62.4990 12.1942 -2.6477 0.0415 0 7
-62.6865 11.1905 -2.6477 0.0415 0 7
-62.8579 10.1839 -2.6477 0.0415 0 7
-63.0131 9.1746 -2.6477 0.0415 0 7
-63.0942 8.1555 -2.6452 0.0445 0 8
-61.1315 6.9072 -2.5580 0.4163 0 8
-59.7332 5.7807 -2.4953 0.0415 0 8
-59.8182 4.8222 -2.4953 0.0415 0 8
-59.8878 3.8623 -2.4953 0.0415 0 8
-59.9421 2.9016 -2.4953 0.0415 0 8
-59.9809 1.9400 -2.4953 0.0415 0 8
-60.0043 0.9780 -2.4953 0.0415 0 8
-60.0123 0.0157 -2.4953 0.0415 0 8
-60.0048 -0.9466 -2.4953 0.0415 0 8
-59.9819 -1.9087 -2.4953 0.0415 0 8
-59.9436 -2.8703 -2.4953 0.0415 0 8
-59.8899 -3.8311 -2.4953 0.0415 0 8
-59.8207 -4.7910 -2.4953 0.0415 0 8
-59.7362 -5.7496 -2.4953 0.0415 0 8
-59.6363 -6.7067 -2.4953 0.0415 0 8
-59.5211 -7.6621 -2.4953 0.0415 0 8
-59.3906 -8.6156 -2.4953 0.0415 0 8
-59.2448 -9.5667 -2.4953 0.0415 0 8
-59.0838 -10.5155 -2.4953 0.0415 0 8
-58.9076 -11.4616 -2.4953 0.0415 0 8
-58.7162 -12.4047 -2.4953 0.0415 0 8
-58.5098 -13.3446 -2.4953 0.0415 0 8
-58.2883 -14.2811 -2.4953 0.0415 0 8
-58.0518 -15.2139 -2.4953 0.0415 0 8
-57.8003 -16.1428 -2.4953 0.0415 0 8
-57.5341 -17.0676 -2.4953 0.0415 0 8
-57.2530 -17.9880 -2.4953 0.0415 0 8
-56.9572 -18.9037 -2.4953 0.0415 0 8
-56.6468 -19.8146 -2.4953 0.0415 0 8
-56.5377 -20.7998 -2.5048 0.9321 0 8
-56.5272 -21.8313 -2.5196 0.9267 0 8
-56.5164 -22.8752 -2.5351 0.9210 0 8
-56.5054 -23.9322 -2.5515 0.9151 0 8
-56.4942 -25.0033 -2.5688 0.9089 0 8
-56.4826 -26.0891 -2.5869 0.9025 0 8
-56.4708 -27.1907 -2.6060 0.8959 0 8
-56.4586 -28.3089 -2.6261 0.8891 0 8
-56.3358 -29.3871 -2.6419 0.0566 0 8
-55.9783 -30.3523 -2.6477 0.0415 0 7
-55.4844 -31.2460 -2.6477 0.0415 0 7
-54.9762 -32.1317 -2.6477 0.0415 0 7
-54.4540 -33.0090 -2.6477 0.0415 0 7
-53.9176 -33.8780 -2.6477 0.0415 0 6
-53.3675 -34.7382 -2.6477 0.0415 0 7
-52.8036 -35.5895 -2.6477 0.0415 0 7
-52.2261 -36.4316 -2.6477 0.0415 0 7
-51.6352 -37.2644 -2.6477 0.0415 0 7
-51.0310 -38.0876 -2.6477 0.0415 0 7
-50.4138 -38.9007 -2.6477 0.0415 0 6
-49.7835 -39.7043 -2.6477 0.0415 0 7
-49.1405 -40.4975 -2.6477 0.0415 0 7
-48.4847 -41.2803 -2.6477 0.0415 0 7
-47.8166 -42.0524 -2.6477 0.0415 0 7
-47.1361 -42.8138 -2.6477 0.0415 0 7
-46.4435 -43.5641 -2.6477 0.0415 0 7
-45.7390 -44.3032 -2.6477 0.0415 0 7
-45.0228 -45.0309 -2.6477 0.0415 0 6
-44.2949 -45.7471 -2.6477 0.0415 0 7
-43.5556 -46.4515 -2.6477 0.0415 0 7
-42.8052 -47.1439 -2.6477 0.0415 0 6
-42.0437 -47.8242 -2.6477 0.0415 0 7
-41.2714 -48.4922 -2.6477 0.0415 0 7
-40.4886 -49.1478 -2.6477 0.0415 0 7
-39.6953 -49.7907 -2.6477 0.0415 0 7
-36.6531 -47.5186 -2.4953 0.0415 0 8
-35.8864 -48.1002 -2.4953 0.0415 0 8
-35.1106 -48.6695 -2.4953 0.0415 0 8
-34.3257 -49.2262 -2.4953 0.0415 0 8
-33.5319 -49.7703 -2.4953 0.0415 0 8
-32.7295 -50.3016 -2.4953 0.0415 0 8
-31.9187 -50.8199 -2.4953 0.0415 0 8
-31.0997 -51.3252 -2.4953 0.0415 0 8
-30.2727 -51.8173 -2.4953 0.0415 0 8
-29.4379 -52.2961 -2.4953 0.0415 0 8
-28.5956 -52.7614 -2.4953 0.0415 0 8
-27.7459 -53.2132 -2.4953 0.0415 0 8
-28.5313 -56.9280 -2.6477 0.0415 0 7
-27.6148 -57.3782 -2.6477 0.0415 0 7
-26.6912 -57.8136 -2.6477 0.0415 0 7
-25.7607 -58.2342 -2.6477 0.0415 0 7
-24.8235 -58.6398 -2.6477 0.0415 0 7
-23.8801 -59.0303 -2.6477 0.0415 0 7
-22.9305 -59.4056 -2.6477 0.0415 0 7
-21.9750 -59.7656 -2.6477 0.0415 0 7
-21.0138 -60.1103 -2.6477 0.0415 0 7
-20.0472 -60.4395 -2.6477 0.0415 0 7
-19.0755 -60.7532 -2.6477 0.0415 0 7
-18.0989 -61.0513 -2.6477 0.0415 0 7
-17.1176 -61.3337 -2.6477 0.0415 0 7
-16.1319 -61.6002 -2.6477 0.0415 0 7
-15.1421 -61.8510 -2.6477 0.0415 0 7
-14.1484 -62.0858 -2.6477 0.0415 0 7
-13.1510 -62.3047 -2.6477 0.0415 0 7
-12.1503 -62.5076 -2.6477 0.0415 0 7
-11.1463 -62.6944 -2.6477 0.0415 0 6
-10.1396 -62.8651 -2.6477 0.0415 0 7
-9.1303 -63.0196 -2.6477 0.0415 0 6
-8.1186 -63.1578 -2.6477 0.0415 0 7
-7.1048 -63.2799 -2.6477 0.0415 0 7
-6.0892 -63.3857 -2.6477 0.0415 0 7
-5.0720 -63.4752 -2.6477 0.0415 0 7
-4.0535 -63.5484 -2.6477 0.0415 0 7
-3.0340 -63.6052 -2.6477 0.0415 0 7
-2.0137 -63.6457 -2.6477 0.0415 0 7
-0.9929 -63.6698 -2.6477 0.0415 0 7
0.0282 -63.6775 -2.6477 0.0415 0 7
1.0493 -63.6689 -2.6477 0.0415 0 7
2.0701 -63.6439 -2.6477 0.0415 0 7
3.0903 -63.6025 -2.6477 0.0415 0 7
4.1098 -63.5448 -2.6477 0.0415 0 7
5.1282 -63.4707 -2.6477 0.0415 0 7
6.1453 -63.3803 -2.6477 0.0415 0 7
7.1608 -63.2736 -2.6477 0.0415 0 7
8.1745 -63.1507 -2.6477 0.0415 0 7
9.1861 -63.0115 -2.6477 0.0415 0 7
10.1953 -62.8561 -2.6477 0.0415 0 7
11.2021 -62.6845 -2.6477 0.0415 0 7
12.2056 -62.4968 -2.6477 0.0415 0 6
13.2062 -62.2931 -2.6477 0.0415 0 7
14.2033 -62.0733 -2.6477 0.0415 0 7
-39.2514 35.6895 -2.6477 0.0498 0 7
-39.8187 35.0555 -2.6477 0.0498 0 7
-40.3757 34.4126 -2.6477 0.0498 0 7
-40.9223 33.7607 -2.6477 0.0498 0 7
-41.4584 33.1001 -2.6477 0.0498 0 7
-41.9838 32.4311 -2.6477 0.0498 0 7
-42.4985 31.7537 -2.6477 0.0498 0 7
-43.0022 31.0682 -2.6477 0.0498 0 7
-43.4948 30.3747 -2.6477 0.0498 0 7
-43.9763 29.6733 -2.6477 0.0498 0 7
-44.4464 28.9644 -2.6477 0.0498 0 7
-44.9052 28.2479 -2.6477 0.0498 0 7
-45.3524 27.5242 -2.6477 0.0498 0 7
-45.7879 26.7934 -2.6477 0.0498 0 7
-46.2116 26.0558 -2.6477 0.0498 0 7
-46.6235 25.3114 -2.6477 0.0498 0 7
-47.0234 24.5605 -2.6477 0.0498 0 6
-47.4112 23.8034 -2.6477 0.0498 0 7
-47.7867 23.0401 -2.6477 0.0498 0 6
-48.1501 22.2709 -2.6477 0.0498 0 7
-48.5010 21.4959 -2.6477 0.0498 0 7
-48.8394 20.7154 -2.6477 0.0498 0 7
-49.1653 19.9296 -2.6477 0.0498 0 7
-49.4785 19.1387 -2.6477 0.0498 0 6
-49.7791 18.3429 -2.6477 0.0498 0 7
-50.0668 17.5423 -2.6477 0.0498 0 7
-50.3417 16.7372 -2.6477 0.0498 0 7
-50.6036 15.9278 -2.6477 0.0498 0 7
-50.8525 15.1144 -2.6477 0.0498 0 6
-51.0883 14.2970 -2.6477 0.0498 0 7
-51.3110 13.4760 -2.6477 0.0498 0 7
-51.5205 12.6515 -2.6477 0.0498 0 7
-51.7167 11.8237 -2.6477 0.0498 0 7
-51.8997 10.9929 -2.6477 0.0498 0 7
-52.0693 10.1593 -2.6477 0.0498 0 7
-52.2255 9.3230 -2.6477 0.0498 0 7
-52.3683 8.4844 -2.6477 0.0498 0 7
-52.4976 7.6436 -2.6477 0.0498 0 7
-52.6134 6.8008 -2.6477 0.0498 0 7
-52.7157 5.9563 -2.6477 0.0498 0 7
-52.8044 5.1102 -2.6477 0.0498 0 7
-52.8796 4.2628 -2.6477 0.0498 0 7
-52.9411 3.4143 -2.6477 0.0498 0 6
-52.9891 2.5650 -2.6477 0.0498 0 6
-53.0234 1.7150 -2.6477 0.0498 0 6
-53.0441 0.8645 -2.6477 0.0498 0 7
-53.0511 0.0139 -2.6477 0.0498 0 7
-53.0445 -0.8368 -2.6477 0.0498 0 7
-53.0243 -1.6873 -2.6477 0.0498 0 7
-52.9904 -2.5373 -2.6477 0.0498 0 7
-52.9429 -3.3867 -2.6477 0.0498 0 7
-52.8818 -4.2352 -2.6477 0.0498 0 7
-52.8071 -5.0826 -2.6477 0.0498 0 7
-52.7188 -5.9288 -2.6477 0.0498 0 7
-52.6169 -6.7733 -2.6477 0.0498 0 7
-52.5016 -7.6162 -2.6477 0.0498 0 7
-52.3727 -8.4570 -2.6477 0.0498 0 7
-52.2303 -9.2958 -2.6477 0.0498 0 7
-52.0746 -10.1321 -2.6477 0.0498 0 7
-51.9054 -10.9658 -2.6477 0.0498 0 7
-51.7229 -11.7967 -2.6477 0.0498 0 7
-51.5271 -12.6246 -2.6477 0.0498 0 7
-51.3180 -13.4492 -2.6477 0.0498 0 7
-51.0958 -14.2703 -2.6477 0.0498 0 7
-50.8604 -15.0878 -2.6477 0.0498 0 7
-50.6119 -15.9014 -2.6477 0.0498 0 7
-50.3504 -16.7109 -2.6477 0.0498 0 7
-50.0760 -17.5162 -2.6477 0.0498 0 7
-49.7887 -18.3169 -2.6477 0.0498 0 7
-49.4886 -19.1129 -2.6477 0.0498 0 7
-49.1757 -19.9040 -2.6477 0.0498 0 7
-48.8502 -20.6899 -2.6477 0.0498 0 7
-48.5122 -21.4706 -2.6477 0.0498 0 7
-48.1617 -22.2457 -2.6477 0.0498 0 7
-47.7988 -23.0152 -2.6477 0.0498 0 7
-47.4236 -23.7787 -2.6477 0.0498 0 7
-47.0362 -24.5360 -2.6477 0.0498 0 7
-46.6367 -25.2871 -2.6477 0.0498 0 7
-46.2252 -26.0317 -2.6477 0.0498 0 7
-45.8019 -26.7696 -2.6477 0.0498 0 7
-45.3667 -27.5005 -2.6477 0.0498 0 7
-44.9199 -28.2245 -2.6477 0.0498 0 7
-44.4616 -28.9411 -2.6477 0.0498 0 7
-43.9918 -29.6503 -2.6477 0.0498 0 7
-43.5107 -30.3519 -2.6477 0.0498 0 6
-43.0184 -31.0457 -2.6477 0.0498 0 7
-42.5150 -31.7316 -2.6477 0.0498 0 7
-42.0008 -32.4092 -2.6477 0.0498 0 7
-41.4757 -33.0785 -2.6477 0.0498 0 7
-40.9400 -33.7393 -2.6477 0.0498 0 7
-40.3937 -34.3915 -2.6477 0.0498 0 7
-39.8370 -35.0348 -2.6477 0.0498 0 7
-37.0097 -33.6159 -2.4953 0.0498 0 8
-36.4659 -34.2051 -2.4953 0.0498 0 8
-35.9128 -34.7854 -2.4953 0.0498 0 8
-35.3503 -35.3568 -2.4953 0.0498 0 8
-34.7788 -35.9191 -2.4953 0.0498 0 8
-34.1984 -36.4721 -2.4953 0.0498 0 8
-33.6092 -37.0158 -2.4953 0.0498 0 8
-33.0113 -37.5500 -2.4953 0.0498 0 8
-32.4049 -38.0745 -2.4953 0.0498 0 8
-31.7903 -38.5892 -2.4953 0.0498 0 8
-31.1674 -39.0940 -2.4953 0.0498 0 8
-30.5365 -39.5888 -2.4953 0.0498 0 8
-29.8978 -40.0733 -2.4953 0.0498 0 8
-29.2514 -40.5476 -2.4953 0.0498 0 8
-28.5974 -41.0114 -2.4953 0.0498 0 8
-27.9361 -41.4647 -2.4953 0.0498 0 8
-27.2677 -41.9073 -2.4953 0.0498 0 8
-26.5922 -42.3391 -2.4953 0.0498 0 8
-25.9099 -42.7601 -2.4953 0.0498 0 8
-25.2208 -43.1701 -2.4953 0.0498 0 8
-24.5253 -43.5690 -2.4953 0.0498 0 8
-23.8236 -43.9566 -2.4953 0.0498 0 8
-23.1156 -44.3330 -2.4953 0.0498 0 8
-22.4018 -44.6979 -2.4953 0.0498 0 8
-21.6822 -45.0514 -2.4953 0.0498 0 22
-20.9570 -45.3933 -2.4953 0.0498 0 22
-20.2264 -45.7235 -2.4953 0.0498 0 22
-19.4906 -46.0420 -2.4953 0.0498 0 22
-18.7499 -46.3486 -2.4953 0.0498 0 22
-18.0043 -46.6433 -2.4953 0.0498 0 22
-17.2540 -46.9260 -2.4953 0.0498 0 22
-16.4993 -47.1966 -2.4953 0.0498 0 22
-15.7404 -47.4551 -2.4953 0.0498 0 8
-14.9774 -47.7014 -2.4953 0.0498 0 8
-14.2107 -47.9354 -2.4953 0.0498 0 8
-13.4402 -48.1571 -2.4953 0.0498 0 8
-12.6663 -48.3665 -2.4953 0.0498 0 8
-11.8891 -48.5633 -2.4953 0.0498 0 8
-11.1088 -48.7477 -2.4953 0.0498 0 8
-10.3257 -48.9196 -2.4953 0.0498 0 8
-9.5400 -49.0789 -2.4953 0.0498 0 8
-8.7517 -49.2256 -2.4953 0.0498 0 8
-7.9613 -49.3596 -2.4953 0.0498 0 8
-7.1688 -49.4809 -2.4953 0.0498 0 8
-6.3744 -49.5895 -2.4953 0.0498 0 8
-5.5784 -49.6853 -2.4953 0.0498 0 8
-4.7810 -49.7684 -2.4953 0.0498 0 8
-3.9824 -49.8386 -2.4953 0.0498 0 8
-3.1827 -49.8961 -2.4953 0.0498 0 8
-2.3822 -49.9407 -2.4953 0.0498 0 8
-1.5811 -49.9725 -2.4953 0.0498 0 8
-0.7796 -49.9914 -2.4953 0.0498 0 8
0.0221 -49.9975 -2.4953 0.0498 0 8
0.8239 -49.9907 -2.4953 0.0498 0 8
1.6253 -49.9710 -2.4953 0.0498 0 8
2.4264 -49.9386 -2.4953 0.0498 0 8
3.2269 -49.8932 -2.4953 0.0498 0 8
4.0265 -49.8351 -2.4953 0.0498 0 8
4.8251 -49.7641 -2.4953 0.0498 0 8
5.6224 -49.6803 -2.4953 0.0498 0 8
6.4183 -49.5838 -2.4953 0.0498 0 8
7.2126 -49.4745 -2.4953 0.0498 0 8
8.0050 -49.3525 -2.4953 0.0498 0 8
8.7953 -49.2178 -2.4953 0.0498 0 8
9.5834 -49.0704 -2.4953 0.0498 0 8
10.3690 -48.9104 -2.4953 0.0498 0 8
11.1520 -48.7379 -2.4953 0.0498 0 8
-33.6340 30.5819 -2.6477 0.0581 0 7
-34.1201 30.0386 -2.6477 0.0581 0 7
-34.5974 29.4877 -2.6477 0.0581 0 7
-35.0658 28.9291 -2.6477 0.0581 0 7
-35.5252 28.3631 -2.6477 0.0581 0 7
-35.9754 27.7898 -2.6477 0.0581 0 7
-36.4164 27.2094 -2.6477 0.0581 0 7
-36.8480 26.6219 -2.6477 0.0581 0 6
-37.2701 26.0276 -2.6477 0.0581 0 7
-37.6827 25.4267 -2.6477 0.0581 0 7
-38.0856 24.8192 -2.6477 0.0581 0 7
-38.4787 24.2053 -2.6477 0.0581 0 7
-38.8618 23.5851 -2.6477 0.0581 0 7
-39.2350 22.9590 -2.6477 0.0581 0 7
-39.5982 22.3269 -2.6477 0.0581 0 7
-39.9511 21.6890 -2.6477 0.0581 0 7
-40.2937 21.0456 -2.6477 0.0581 0 6
-40.6260 20.3968 -2.6477 0.0581 0 7
-40.9478 19.7427 -2.6477 0.0581 0 6
-41.2591 19.0836 -2.6477 0.0581 0 6
-41.5599 18.4196 -2.6477 0.0581 0 7
-41.8499 17.7508 -2.6477 0.0581 0 7
-42.1291 17.0774 -2.6477 0.0581 0 6
-42.3975 16.3997 -2.6477 0.0581 0 7
-42.6551 15.7178 -2.6477 0.0581 0 7
-42.9016 15.0318 -2.6477 0.0581 0 6
-43.1371 14.3419 -2.6477 0.0581 0 7
-43.3616 13.6484 -2.6477 0.0581 0 7
-43.5748 12.9513 -2.6477 0.0581 0 7
-43.7769 12.2509 -2.6477 0.0581 0 7
-43.9677 11.5474 -2.6477 0.0581 0 7
-44.1472 10.8409 -2.6477 0.0581 0 7
-44.3154 10.1316 -2.6477 0.0581 0 7
-44.4721 9.4197 -2.6477 0.0581 0 7
-44.6175 8.7054 -2.6477 0.0581 0 7
-44.7513 7.9888 -2.6477 0.0581 0 7
-44.8737 7.2702 -2.6477 0.0581 0 7
-44.9845 6.5497 -2.6477 0.0581 0 7
-45.0837 5.8275 -2.6477 0.0581 0 7
-45.1714 5.1038 -2.6477 0.0581 0 7
-45.2474 4.3789 -2.6477 0.0581 0 7
-45.3118 3.6528 -2.6477 0.0581 0 7
-45.3646 2.9257 -2.6477 0.0581 0 7
-45.4056 2.1979 -2.6477 0.0581 0 7
-45.4350 1.4696 -2.6477 0.0581 0 7
-45.4528 0.7408 -2.6477 0.0581 0 7
-45.4588 0.0119 -2.6477 0.0581 0 7
-45.4531 -0.7171 -2.6477 0.0581 0 7
-45.4358 -1.4458 -2.6477 0.0581 0 7
-45.4068 -2.1742 -2.6477 0.0581 0 7
-45.3661 -2.9020 -2.6477 0.0581 0 7
-45.3137 -3.6291 -2.6477 0.0581 0 7
-45.2497 -4.3552 -2.6477 0.0581 0 7
-45.1740 -5.0803 -2.6477 0.0581 0 7
-45.0868 -5.8040 -2.6477 0.0581 0 7
-44.9879 -6.5262 -2.6477 0.0581 0 7
-44.8775 -7.2467 -2.6477 0.0581 0 7
-44.7555 -7.9654 -2.6477 0.0581 0 7
-44.6220 -8.6820 -2.6477 0.0581 0 7
-44.4771 -9.3964 -2.6477 0.0581 0 7
-44.3207 -10.1085 -2.6477 0.0581 0 7
-44.1529 -10.8178 -2.6477 0.0581 0 7
-43.9737 -11.5244 -2.6477 0.0581 0 7
-43.7833 -12.2281 -2.6477 0.0581 0 7
-43.5816 -12.9285 -2.6477 0.0581 0 6
-43.3687 -13.6257 -2.6477 0.0581 0 7
-43.1446 -14.3194 -2.6477 0.0581 0 7
-42.9095 -15.0094 -2.6477 0.0581 0 7
-42.6633 -15.6955 -2.6477 0.0581 0 7
-42.4061 -16.3776 -2.6477 0.0581 0 7
-42.1380 -17.0555 -2.6477 0.0581 0 7
-41.8591 -17.7289 -2.6477 0.0581 0 7
-41.5695 -18.3979 -2.6477 0.0581 0 7
-41.2691 -19.0621 -2.6477 0.0581 0 7
-40.9581 -19.7214 -2.6477 0.0581 0 7
-40.6366 -20.3756 -2.6477 0.0581 0 7
-40.3047 -21.0246 -2.6477 0.0581 0 7
-39.9624 -21.6682 -2.6477 0.0581 0 7
-37.3299 -21.0222 -2.4953 0.0581 0 8
-36.9880 -21.6181 -2.4953 0.0581 0 8
-36.6366 -22.2085 -2.4953 0.0581 0 8
-36.2757 -22.7931 -2.4953 0.0581 0 8
-35.9056 -23.3718 -2.4953 0.0581 0 8
-35.5262 -23.9446 -2.4953 0.0581 0 8
-35.1377 -24.5112 -2.4953 0.0581 0 8
-34.7401 -25.0714 -2.4953 0.0581 0 8
-34.3336 -25.6253 -2.4953 0.0581 0 8
-33.9183 -26.1725 -2.4953 0.0581 0 8
-33.4943 -26.7130 -2.4953 0.0581 0 8
-33.0616 -27.2467 -2.4953 0.0581 0 8
-32.6205 -27.7733 -2.4953 0.0581 0 8
-32.1709 -28.2928 -2.4953 0.0581 0 8
-31.7131 -28.8050 -2.4953 0.0581 0 8
-31.2472 -29.3101 -2.4953 0.0581 0 8
-30.7732 -29.8071 -2.4953 0.0581 0 8
-30.2912 -30.2968 -2.4953 0.0581 0 8
-29.8015 -30.7786 -2.4953 0.0581 0 8
-29.3042 -31.2525 -2.4953 0.0581 0 8
-28.7993 -31.7184 -2.4953 0.0581 0 8
-28.2870 -32.1761 -2.4953 0.0581 0 8
-27.7674 -32.6255 -2.4953 0.0581 0 8
-27.2406 -33.0666 -2.4953 0.0581 0 8
-26.7069 -33.4991 -2.4953 0.0581 0 8
-26.1663 -33.9231 -2.4953 0.0581 0 8
-25.6190 -34.3383 -2.4953 0.0581 0 8
-25.0651 -34.7447 -2.4953 0.0581 0 8
-24.5048 -35.1421 -2.4953 0.0581 0 8
-23.9381 -35.5305 -2.4953 0.0581 0 8
-23.3653 -35.9098 -2.4953 0.0581 0 8
-22.7865 -36.2799 -2.4953 0.0581 0 8
-22.2018 -36.6406 -2.4953 0.0581 0 8
-21.6114 -36.9919 -2.4953 0.0581 0 8
-21.0154 -37.3337 -2.4953 0.0581 0 8
-20.4141 -37.6658 -2.4953 0.0581 0 8
-19.8075 -37.9884 -2.4953 0.0581 0 8
-19.1958 -38.3011 -2.4953 0.0581 0 8
-18.5792 -38.6040 -2.4953 0.0581 0 8
-17.9578 -38.8969 -2.4953 0.0581 0 8
-17.3317 -39.1799 -2.4953 0.0581 0 8
-16.7013 -39.4528 -2.4953 0.0581 0 8
-16.0665 -39.7155 -2.4953 0.0581 0 8
-15.4276 -39.9680 -2.4953 0.0581 0 8
-14.7847 -40.2103 -2.4953 0.0581 0 8
-14.1381 -40.4422 -2.4953 0.0581 0 8
-13.4878 -40.6637 -2.4953 0.0581 0 8
-12.8340 -40.8747 -2.4953 0.0581 0 8
-12.1769 -41.0752 -2.4953 0.0581 0 8
-11.5167 -41.2652 -2.4953 0.0581 0 8
-10.8535 -41.4446 -2.4953 0.0581 0 8
-10.1878 -41.6128 -2.4953 0.0581 0 8
-9.5190 -41.7713 -2.4953 0.0581 0 8
-8.8480 -41.9186 -2.4953 0.0581 0 8
-8.1747 -42.0550 -2.4953 0.0581 0 8
-7.4993 -42.1807 -2.4953 0.0581 0 8
-6.8219 -42.2955 -2.4953 0.0581 0 8
-6.1428 -42.3995 -2.4953 0.0581 0 8
-5.4622 -42.4926 -2.4953 0.0581 0 8
-4.7801 -42.5747 -2.4953 0.0581 0 8
-4.0968 -42.6459 -2.4953 0.0581 0 8
-3.4124 -42.7061 -2.4953 0.0581 0 8
-2.7272 -42.7553 -2.4953 0.0581 0 8
-2.0413 -42.7935 -2.4953 0.0581 0 8
-1.3548 -42.8208 -2.4953 0.0581 0 8
-0.6680 -42.8370 -2.4953 0.0581 0 8
0.0190 -42.8422 -2.4953 0.0581 0 8
0.7060 -42.8364 -2.4953 0.0581 0 8
1.3927 -42.8195 -2.4953 0.0581 0 8
2.0792 -42.7917 -2.4953 0.0581 0 8
2.7651 -42.7529 -2.4953 0.0581 0 8
3.4503 -42.7030 -2.4953 0.0581 0 8
4.1345 -42.6422 -2.4953 0.0581 0 8
4.8178 -42.5704 -2.4953 0.0581 0 8
5.4998 -42.4877 -2.4953 0.0581 0 8
6.1804 -42.3941 -2.4953 0.0581 0 8
6.8594 -42.2895 -2.4953 0.0581 0 8
7.5366 -42.1741 -2.4953 0.0581 0 8
8.2119 -42.0478 -2.4953 0.0581 0 8
8.8851 -41.9107 -2.4953 0.0581 0 8
9.5560 -41.7629 -2.4953 0.0581 0 8
-29.4196 26.7499 -2.6477 0.0664 0 7
-29.8447 26.2747 -2.6477 0.0664 0 7
-30.2622 25.7928 -2.6477 0.0664 0 7
-30.6719 25.3042 -2.6477 0.0664 0 7
-31.0737 24.8091 -2.6477 0.0664 0 7
-31.4676 24.3076 -2.6477 0.0664 0 7
-31.8533 23.7999 -2.6477 0.0664 0 7
-30.4684 22.0128 -2.5029 0.0664 0 14
-30.8174 21.5214 -2.5029 0.0664 0 14
-31.1586 21.0244 -2.5029 0.0664 0 14
-31.4917 20.5221 -2.5029 0.0664 0 14
-31.8167 20.0145 -2.5029 0.0664 0 14
-32.1335 19.5018 -2.5029 0.0664 0 14
-34.3187 20.0821 -2.6477 0.0664 0 7
-34.6364 19.5292 -2.6477 0.0664 0 7
-34.9450 18.9713 -2.6477 0.0664 0 7
-35.2448 18.4085 -2.6477 0.0664 0 7
-35.5354 17.8410 -2.6477 0.0664 0 7
-35.8169 17.2689 -2.6477 0.0664 0 7
-36.0892 16.6924 -2.6477 0.0664 0 7
-36.3523 16.1115 -2.6477 0.0664 0 7
-36.6059 15.5266 -2.6477 0.0664 0 7
-36.8502 14.9376 -2.6477 0.0664 0 6
-37.0850 14.3448 -2.6477 0.0664 0 7
-37.3102 13.7483 -2.6477 0.0664 0 7
-37.5259 13.1482 -2.6477 0.0664 0 6
-37.7319 12.5448 -2.6477 0.0664 0 7
-37.9282 11.9382 -2.6477 0.0664 0 7
-38.1147 11.3285 -2.6477 0.0664 0 7
-38.2915 10.7158 -2.6477 0.0664 0 7
-38.4584 10.1005 -2.6477 0.0664 0 7
-38.6154 9.4825 -2.6477 0.0664 0 7
-38.7625 8.8621 -2.6477 0.0664 0 7
-38.8996 8.2394 -2.6477 0.0664 0 7
-39.0267 7.6145 -2.6477 0.0664 0 7
-39.1438 6.9878 -2.6477 0.0664 0 7
-39.2508 6.3592 -2.6477 0.0664 0 7
-39.3478 5.7290 -2.6477 0.0664 0 7
-39.4346 5.0973 -2.6477 0.0664 0 7
-39.5112 4.4643 -2.6477 0.0664 0 7
-39.5777 3.8302 -2.6477 0.0664 0 6
-39.6341 3.1951 -2.6477 0.0664 0 6
-39.6802 2.5591 -2.6477 0.0664 0 6
-37.4301 1.8118 -2.4953 0.0664 0 8
-37.4543 1.2114 -2.4953 0.0664 0 8
-37.4689 0.6107 -2.4953 0.0664 0 8
-37.4740 0.0098 -2.4953 0.0660 0 8
-37.4692 -0.5911 -2.4953 0.0664 0 8
-37.4549 -1.1919 -2.4953 0.0664 0 8
-37.4310 -1.7923 -2.4953 0.0664 0 8
-37.3975 -2.3923 -2.4953 0.0664 0 8
-37.3543 -2.9917 -2.4953 0.0664 0 8
-37.3015 -3.5902 -2.4953 0.0664 0 8
-37.2392 -4.1879 -2.4953 0.0664 0 8
-37.1672 -4.7845 -2.4953 0.0664 0 8
-37.0857 -5.3799 -2.4953 0.0664 0 8
-36.9947 -5.9738 -2.4953 0.0664 0 8
-36.8941 -6.5663 -2.4953 0.0664 0 8
-36.7841 -7.1570 -2.4953 0.0664 0 8
-36.6646 -7.7460 -2.4953 0.0664 0 8
-36.5357 -8.3329 -2.4953 0.0664 0 8
-36.3974 -8.9177 -2.4953 0.0664 0 8
-36.2497 -9.5001 -2.4953 0.0664 0 8
-36.0927 -10.0802 -2.4953 0.0664 0 8
-35.9264 -10.6576 -2.4953 0.0664 0 8
-35.7509 -11.2324 -2.4953 0.0664 0 8
-35.5662 -11.8042 -2.4953 0.0664 0 8
-35.3723 -12.3730 -2.4953 0.0664 0 8
-35.1694 -12.9385 -2.4953 0.0664 0 8
-34.9574 -13.5008 -2.4953 0.0664 0 8
-34.7364 -14.0596 -2.4953 0.0664 0 8
-34.5065 -14.6148 -2.4953 0.0664 0 8
-34.2677 -15.1663 -2.4953 0.0664 0 8
-34.0201 -15.7138 -2.4953 0.0664 0 8
-33.7638 -16.2573 -2.4953 0.0664 0 8
-33.4988 -16.7966 -2.4953 0.0664 0 8
-33.2251 -17.3316 -2.4953 0.0664 0 8
-32.9429 -17.8622 -2.4953 0.0664 0 8
-32.6523 -18.3881 -2.4953 0.0664 0 8
-32.3532 -18.9093 -2.4953 0.0664 0 8
-32.0459 -19.4257 -2.4953 0.0664 0 8
-31.7303 -19.9370 -2.4953 0.0664 0 8
-31.4065 -20.4436 -2.4953 0.0664 0 8
-31.0746 -20.9441 -2.4953 0.0664 0 8
-30.7348 -21.4398 -2.4953 0.0664 0 8
-30.3871 -21.9299 -2.4953 0.0664 0 8
-30.0315 -22.4143 -2.4953 0.0664 0 8
-29.6682 -22.8930 -2.4953 0.0664 0 8
-29.2973 -23.3658 -2.4953 0.0664 0 8
-28.9189 -23.8326 -2.4953 0.0664 0 8
-28.5330 -24.2932 -2.4953 0.0664 0 8
-28.1398 -24.7476 -2.4953 0.0664 0 8
-27.7393 -25.1957 -2.4953 0.0664 0 8
-27.3318 -25.6372 -2.4953 0.0664 0 8
-26.9172 -26.0722 -2.4953 0.0664 0 8
-26.4956 -26.5005 -2.4953 0.0664 0 8
-26.0673 -26.9219 -2.4953 0.0664 0 8
-25.6323 -27.3364 -2.4953 0.0664 0 8
-25.1906 -27.7439 -2.4953 0.0664 0 8
-24.7425 -28.1443 -2.4953 0.0664 0 8
-24.2880 -28.5374 -2.4953 0.0664 0 8
-23.8273 -28.9232 -2.4953 0.0664 0 8
-23.3605 -29.3016 -2.4953 0.0664 0 8
-22.8876 -29.6724 -2.4953 0.0664 0 8
-22.4089 -30.0356 -2.4953 0.0664 0 8
-21.9244 -30.3911 -2.4953 0.0664 0 8
-21.4342 -30.7387 -2.4953 0.0664 0 8
-20.9386 -31.0784 -2.4953 0.0664 0 8
-20.4375 -31.4102 -2.4953 0.0664 0 8
-19.9313 -31.7339 -2.4953 0.0664 0 8
-19.4198 -32.0494 -2.4953 0.0664 0 8
-18.9034 -32.3567 -2.4953 0.0664 0 8
-18.3821 -32.6556 -2.4953 0.0664 0 8
-17.8562 -32.9462 -2.4953 0.0664 0 8
-17.3255 -33.2283 -2.4953 0.0664 0 8
-16.7905 -33.5018 -2.4953 0.0664 0 8
-16.2511 -33.7668 -2.4953 0.0664 0 8
-15.7076 -34.0230 -2.4953 0.0664 0 8
-15.1600 -34.2705 -2.4953 0.0664 0 8
-14.6085 -34.5092 -2.4953 0.0664 0 8
-14.0533 -34.7390 -2.4953 0.0664 0 8
-13.4945 -34.9599 -2.4953 0.0664 0 8
-12.9322 -35.1718 -2.4953 0.0664 0 8
-12.3665 -35.3746 -2.4953 0.0664 0 8
-11.7977 -35.5684 -2.4953 0.0664 0 8
-11.2258 -35.7530 -2.4953 0.0664 0 8
-10.6511 -35.9284 -2.4953 0.0664 0 8
-10.0736 -36.0945 -2.4953 0.0664 0 8
-9.4936 -36.2514 -2.4953 0.0664 0 8
-8.9111 -36.3985 -2.4953 0.0664 0 8
-8.3262 -36.5372 -2.4953 0.0664 0 8
-7.7393 -36.6660 -2.4953 0.0664 0 8
-7.1504 -36.7854 -2.4953 0.0664 0 8
-6.5596 -36.8953 -2.4953 0.0664 0 8
-5.9671 -36.9958 -2.4953 0.0664 0 8
-5.3731 -37.0867 -2.4953 0.0664 0 8
-4.7778 -37.1681 -2.4953 0.0664 0 8
-4.1811 -37.2399 -2.4953 0.0664 0 8
-3.5834 -37.3022 -2.4953 0.0664 0 8
-2.9848 -37.3548 -2.4953 0.0664 0 8
-2.3855 -37.3979 -2.4953 0.0664 0 8
-1.7855 -37.4313 -2.4953 0.0664 0 8
-1.1851 -37.4552 -2.4953 0.0664 0 8
-0.5843 -37.4693 -2.4953 0.0664 0 8
0.0166 -37.4739 -2.4953 0.0664 0 8
0.6175 -37.4688 -2.4953 0.0664 0 8
1.2182 -37.4541 -2.4953 0.0664 0 8
1.8186 -37.4298 -2.4953 0.0664 0 8
2.4186 -37.3958 -2.4953 0.0664 0 8
3.0179 -37.3522 -2.4953 0.0664 0 8
3.6165 -37.2990 -2.4953 0.0664 0 8
4.2141 -37.2362 -2.4953 0.0664 0 8
4.8106 -37.1638 -2.4953 0.0664 0 8
5.4060 -37.0819 -2.4953 0.0664 0 8
5.9999 -36.9905 -2.4953 0.0664 0 8
6.5922 -36.8895 -2.4953 0.0664 0 8
7.1829 -36.7790 -2.4953 0.0664 0 8
7.7718 -36.6592 -2.4953 0.0664 0 8
8.3586 -36.5298 -2.4953 0.0664 0 8
-26.1405 23.7684 -2.6477 0.0747 0 7
-25.0682 22.0695 -2.5029 0.0747 0 14
-25.4189 21.6647 -2.5029 0.0747 0 14
-25.7630 21.2543 -2.5029 0.0747 0 14
-26.1005 20.8385 -2.5029 0.0747 0 14
-26.4313 20.4173 -2.5029 0.0747 0 14
-26.7553 19.9908 -2.5029 0.0747 0 14
-27.0724 19.5592 -2.5029 0.0747 0 14
-27.3825 19.1226 -2.5029 0.0747 0 14
-27.9778 18.8782 -2.5293 0.5643 0 8
-28.9478 18.8644 -2.5893 0.5512 0 8
-29.9058 18.8124 -2.6477 0.0747 0 7
-30.2036 18.3305 -2.6477 0.0747 0 6
-30.4936 17.8438 -2.6477 0.0747 0 7
-30.7758 17.3525 -2.6477 0.0747 0 6
-31.0501 16.8568 -2.6477 0.0747 0 7
-31.3164 16.3567 -2.6477 0.0747 0 7
-31.5747 15.8525 -2.6477 0.0747 0 7
-31.8248 15.3441 -2.6477 0.0747 0 7
-32.0668 14.8319 -2.6477 0.0747 0 7
-32.3005 14.3157 -2.6477 0.0747 0 7
-32.5259 13.7960 -2.6477 0.0747 0 7
-32.7429 13.2726 -2.6477 0.0747 0 7
-32.9515 12.7459 -2.6477 0.0747 0 7
-33.1517 12.2159 -2.6477 0.0747 0 7
-33.3433 11.6827 -2.6477 0.0747 0 7
-33.5263 11.1466 -2.6477 0.0747 0 7
-33.7008 10.6075 -2.6477 0.0747 0 7
-33.8665 10.0659 -2.6477 0.0747 0 7
-34.0236 9.5215 -2.6477 0.0747 0 7
-34.1719 8.9747 -2.6477 0.0747 0 7
-34.3114 8.4256 -2.6477 0.0747 0 7
-32.4596 7.4210 -2.4953 0.0747 0 8
-32.5744 6.8996 -2.4953 0.0747 0 8
-32.6809 6.3764 -2.4953 0.0747 0 8
-32.7789 5.8515 -2.4953 0.0747 0 8
-32.8686 5.3252 -2.4953 0.0747 0 8
-32.9497 4.7974 -2.4953 0.0747 0 8
-33.0223 4.2684 -2.4953 0.0747 0 8
-33.0866 3.7384 -2.4953 0.0747 0 8
-33.1423 3.2074 -2.4953 0.0747 0 8
-33.1894 2.6755 -2.4953 0.0747 0 8
-33.2281 2.1430 -2.4953 0.0747 0 8
-33.2582 1.6099 -2.4953 0.0747 0 8
-33.2797 1.0764 -2.4953 0.0747 0 8
-33.2927 0.5426 -2.4953 0.0747 0 8
-33.2971 0.0087 -2.4953 0.0747 0 8
-33.2929 -0.5252 -2.4953 0.0747 0 8
-33.2803 -1.0590 -2.4953 0.0747 0 8
-33.2590 -1.5926 -2.4953 0.0747 0 8
-33.2292 -2.1256 -2.4953 0.0747 0 8
-33.1908 -2.6582 -2.4953 0.0747 0 8
-33.1439 -3.1901 -2.4953 0.0747 0 8
-33.0885 -3.7211 -2.4953 0.0747 0 8
-33.0246 -4.2512 -2.4953 0.0747 0 8
-32.9522 -4.7802 -2.4953 0.0747 0 8
-32.8713 -5.3080 -2.4953 0.0747 0 8
-32.7820 -5.8344 -2.4953 0.0747 0 8
-32.6842 -6.3593 -2.4953 0.0747 0 8
-32.5780 -6.8826 -2.4953 0.0747 0 8
-32.4635 -7.4041 -2.4953 0.0747 0 8
-32.3406 -7.9237 -2.4953 0.0747 0 8
-32.2093 -8.4413 -2.4953 0.0747 0 8
-32.0698 -8.9567 -2.4953 0.0747 0 8
-31.9221 -9.4697 -2.4953 0.0747 0 8
-31.7661 -9.9804 -2.4953 0.0747 0 8
-31.6020 -10.4885 -2.4953 0.0747 0 8
-31.4298 -10.9936 -2.4953 0.0747 0 8
-31.2495 -11.4974 -2.4953 0.0747 0 8
-31.0611 -11.9959 -2.4953 0.0747 0 8
-30.8647 -12.4926 -2.4953 0.0747 0 8
-30.6605 -12.9859 -2.4953 0.0747 0 8
-30.4483 -13.4758 -2.4953 0.0747 0 8
-30.2283 -13.9624 -2.4953 0.0747 0 8
-30.0005 -14.4453 -2.4953 0.0747 0 8
-29.7650 -14.9245 -2.4953 0.0747 0 8
-29.5219 -15.3998 -2.4953 0.0747 0 8
-29.2711 -15.8713 -2.4953 0.0747 0 8
-29.0129 -16.3386 -2.4953 0.0747 0 8
-28.7472 -16.8017 -2.4953 0.0747 0 8
-28.4741 -17.2605 -2.4953 0.0747 0 8
-28.1936 -17.7149 -2.4953 0.0747 0 8
-27.9059 -18.1647 -2.4953 0.0747 0 8
-27.6111 -18.6098 -2.4953 0.0747 0 8
-27.3091 -19.0502 -2.4953 0.0747 0 8
-27.0001 -19.4856 -2.4953 0.0747 0 8
-26.6842 -19.9160 -2.4953 0.0747 0 8
-26.3614 -20.3414 -2.4953 0.0747 0 8
-26.0319 -20.7614 -2.4953 0.0747 0 8
-25.6956 -21.1762 -2.4953 0.0747 0 8
-25.3527 -21.5855 -2.4953 0.0747 0 8
-25.0034 -21.9893 -2.4953 0.0747 0 8
-24.6475 -22.3874 -2.4953 0.0747 0 8
-24.2854 -22.7797 -2.4953 0.0747 0 8
-23.9170 -23.1662 -2.4953 0.0747 0 8
-23.5425 -23.5467 -2.4953 0.0747 0 8
-23.1618 -23.9212 -2.4953 0.0747 0 8
-22.7753 -24.2895 -2.4953 0.0747 0 8
-22.3829 -24.6516 -2.4953 0.0747 0 8
-21.9847 -25.0073 -2.4953 0.0747 0 8
-21.5809 -25.3567 -2.4953 0.0747 0 8
-21.1715 -25.6995 -2.4953 0.0747 0 8
-20.7567 -26.0357 -2.4953 0.0747 0 8
-20.3366 -26.3651 -2.4953 0.0747 0 8
-19.9112 -26.6879 -2.4953 0.0747 0 8
-19.4807 -27.0037 -2.4953 0.0747 0 8
-19.0452 -27.3126 -2.4953 0.0747 0 8
-18.6048 -27.6145 -2.4953 0.0747 0 8
-18.1596 -27.9092 -2.4953 0.0747 0 8
-17.7097 -28.1968 -2.4953 0.0747 0 8
-17.2553 -28.4772 -2.4953 0.0747 0 8
-16.7965 -28.7502 -2.4953 0.0747 0 8
-16.3333 -29.0159 -2.4953 0.0747 0 8
-15.8659 -29.2740 -2.4953 0.0747 0 8
-15.3945 -29.5247 -2.4953 0.0747 0 8
-14.9191 -29.7677 -2.4953 0.0747 0 8
-14.4398 -30.0031 -2.4953 0.0747 0 8
-13.9569 -30.2308 -2.4953 0.0747 0 8
-13.4703 -30.4507 -2.4953 0.0747 0 8
-12.9803 -30.6628 -2.4953 0.0747 0 8
-12.4869 -30.8670 -2.4953 0.0747 0 8
-11.9904 -31.0633 -2.4953 0.0747 0 8
-11.4909 -31.2510 -2.4953 0.0747 0 8
-10.9882 -31.4318 -2.4953 0.0747 0 8
-10.4827 -31.6039 -2.4953 0.0747 0 8
-9.9746 -31.7680 -2.4953 0.0747 0 8
-9.4640 -31.9238 -2.4953 0.0747 0 8
-8.9508 -32.0715 -2.4953 0.0747 0 8
-8.4354 -32.2109 -2.4953 0.0747 0 8
-7.9178 -32.3420 -2.4953 0.0747 0 8
-7.3982 -32.4648 -2.4953 0.0747 0 8
-6.8767 -32.5793 -2.4953 0.0747 0 8
-6.3534 -32.6853 -2.4953 0.0747 0 8
-5.8284 -32.7830 -2.4953 0.0747 0 8
-5.3020 -32.8723 -2.4953 0.0747 0 8
-4.7742 -32.9530 -2.4953 0.0747 0 8
-4.2452 -33.0254 -2.4953 0.0747 0 8
-3.7151 -33.0892 -2.4953 0.0747 0 8
-3.1840 -33.1445 -2.4953 0.0747 0 8
-2.6522 -33.1913 -2.4953 0.0747 0 8
-2.1196 -33.2296 -2.4953 0.0747 0 8
-1.5865 -33.2593 -2.4953 0.0747 0 8
-1.0530 -33.2804 -2.4953 0.0747 0 8
-0.5192 -33.2931 -2.4953 0.0747 0 8
0.0147 -33.2971 -2.4953 0.0747 0 8
0.5487 -33.2926 -2.4953 0.0747 0 8
1.0824 -33.2795 -2.4953 0.0747 0 8
1.6159 -33.2579 -2.4953 0.0747 0 8
2.1490 -33.2277 -2.4953 0.0747 0 8
2.6815 -33.1889 -2.4953 0.0747 0 8
3.2134 -33.1417 -2.4953 0.0747 0 8
3.7444 -33.0859 -2.4953 0.0747 0 8
4.2744 -33.0216 -2.4953 0.0747 0 8
4.8034 -32.9488 -2.4953 0.0747 0 8
5.3311 -32.8675 -2.4953 0.0747 0 8
5.8575 -32.7778 -2.4953 0.0747 0 8
6.3823 -32.6797 -2.4953 0.0747 0 8
6.9055 -32.5732 -2.4953 0.0747 0 8
7.4269 -32.4582 -2.4953 0.0747 0 8
-22.2302 20.2129 -2.5029 0.0830 0 14
-22.5515 19.8538 -2.5029 0.0830 0 14
-22.8669 19.4897 -2.5029 0.0830 0 14
-23.1765 19.1205 -2.5029 0.0830 0 14
-23.6619 18.8915 -2.5223 0.6286 0 8
-24.4411 18.8800 -2.5727 0.6163 0 8
-25.2523 18.8679 -2.6259 0.6038 0 8
-25.7632 18.6134 -2.6477 0.0830 0 7
-26.0584 18.1979 -2.6477 0.0830 0 7
-26.3468 17.7777 -2.6477 0.0830 0 7
-26.6285 17.3530 -2.6477 0.0830 0 7
-26.9033 16.9237 -2.6477 0.0830 0 7
-27.1713 16.4902 -2.6477 0.0830 0 7
-27.4322 16.0523 -2.6477 0.0830 0 7
-27.6861 15.6104 -2.6477 0.0830 0 7
-27.9328 15.1645 -2.6477 0.0830 0 7
-28.1724 14.7146 -2.6477 0.0830 0 7
-28.4047 14.2610 -2.6477 0.0830 0 7
-28.6297 13.8036 -2.6477 0.0830 0 7
-28.8474 13.3426 -2.6477 0.0830 0 7
-29.0576 12.8785 -2.6477 0.0830 0 7
-29.2604 12.4109 -2.6477 0.0830 0 7
-29.4557 11.9401 -2.6477 0.0830 0 7
-29.6433 11.4663 -2.6477 0.0830 0 7
-29.8233 10.9892 -2.6477 0.0830 0 7
-29.9958 10.5100 -2.6477 0.0830 0 7
-30.1604 10.0275 -2.6477 0.0830 0 7
-30.3173 9.5426 -2.6477 0.0830 0 7
-30.4665 9.0553 -2.6477 0.0830 0 7
-28.8460 8.0725 -2.4953 0.0830 0 8
-28.9717 7.6089 -2.4953 0.0830 0 8
-29.0900 7.1433 -2.4953 0.0830 0 8
-29.2008 6.6759 -2.4953 0.0830 0 8
-29.3041 6.2069 -2.4953 0.0830 0 8
-29.3998 5.7363 -2.4953 0.0830 0 8
-29.4880 5.2641 -2.4953 0.0830 0 8
-29.5687 4.7905 -2.4953 0.0830 0 8
-29.6417 4.3158 -2.4953 0.0830 0 8
-29.7071 3.8399 -2.4953 0.0830 0 8
-29.7648 3.3631 -2.4953 0.0830 0 8
-29.8149 2.8854 -2.4953 0.0830 0 8
-29.8574 2.4069 -2.4953 0.0830 0 8
-29.8921 1.9278 -2.4953 0.0830 0 8
-29.9192 1.4483 -2.4953 0.0830 0 8
-29.9386 0.9683 -2.4953 0.0830 0 8
-29.9502 0.4881 -2.4953 0.0830 0 8
-29.9542 0.0078 -2.4953 0.0830 0 8
-29.9505 -0.4725 -2.4953 0.0830 0 8
-29.9391 -0.9527 -2.4953 0.0830 0 8
-29.9199 -1.4327 -2.4953 0.0830 0 8
-29.8931 -1.9122 -2.4953 0.0830 0 8
-29.8586 -2.3913 -2.4953 0.0830 0 8
-29.8164 -2.8698 -2.4953 0.0830 0 8
-29.7666 -3.3476 -2.4953 0.0830 0 8
-29.7091 -3.8244 -2.4953 0.0830 0 8
-29.6439 -4.3003 -2.4953 0.0830 0 8
-29.5712 -4.7751 -2.4953 0.0830 0 8
-29.4908 -5.2487 -2.4953 0.0830 0 8
-29.4028 -5.7209 -2.4953 0.0830 0 8
-29.3073 -6.1916 -2.4953 0.0830 0 8
-29.2043 -6.6608 -2.4953 0.0830 0 8
-29.0937 -7.1282 -2.4953 0.0830 0 8
-28.9757 -7.5938 -2.4953 0.0830 0 8
-28.8502 -8.0575 -2.4953 0.0830 0 8
-28.7173 -8.5190 -2.4953 0.0830 0 8
-28.5770 -8.9784 -2.4953 0.0830 0 8
-28.4293 -9.4355 -2.4953 0.0830 0 8
-28.2744 -9.8901 -2.4953 0.0830 0 8
-28.1121 -10.3422 -2.4953 0.0830 0 8
-27.9427 -10.7917 -2.4953 0.0830 0 8
-27.7661 -11.2384 -2.4953 0.0830 0 8
-27.5823 -11.6822 -2.4953 0.0830 0 8
-27.3914 -12.1229 -2.4953 0.0830 0 8
-27.1935 -12.5606 -2.4953 0.0830 0 8
-26.9886 -12.9950 -2.4953 0.0830 0 8
-26.7768 -13.4261 -2.4953 0.0830 0 8
-26.5580 -13.8538 -2.4953 0.0830 0 8
-26.3325 -14.2779 -2.4953 0.0830 0 8
-26.1001 -14.6982 -2.4953 0.0830 0 8
-25.8611 -15.1149 -2.4953 0.0830 0 8
-25.6154 -15.5276 -2.4953 0.0830 0 8
-25.3631 -15.9364 -2.4953 0.0830 0 8
-25.1043 -16.3410 -2.4953 0.0830 0 8
-24.8391 -16.7415 -2.4953 0.0830 0 8
-24.5674 -17.1376 -2.4953 0.0830 0 8
-24.2895 -17.5293 -2.4953 0.0830 0 8
-24.0052 -17.9166 -2.4953 0.0830 0 8
-23.7149 -18.2992 -2.4953 0.0830 0 8
-23.4184 -18.6771 -2.4953 0.0830 0 8
-23.1159 -19.0502 -2.4953 0.0830 0 8
-22.8074 -19.4184 -2.4953 0.0830 0 8
-22.4931 -19.7817 -2.4953 0.0830 0 8
-22.1730 -20.1398 -2.4953 0.0830 0 8
-21.8473 -20.4927 -2.4953 0.0830 0 8
-21.5159 -20.8404 -2.4953 0.0830 0 8
-21.1789 -21.1828 -2.4953 0.0830 0 8
-20.8365 -21.5196 -2.4953 0.0830 0 8
-20.4888 -21.8510 -2.4953 0.0830 0 8
-20.1358 -22.1767 -2.4953 0.0830 0 8
-19.7776 -22.4967 -2.4953 0.0830 0 8
-19.4143 -22.8110 -2.4953 0.0830 0 8
-19.0460 -23.1194 -2.4953 0.0830 0 8
-18.6728 -23.4218 -2.4953 0.0830 0 8
-18.2949 -23.7182 -2.4953 0.0830 0 8
-17.9122 -24.0085 -2.4953 0.0830 0 8
-17.5249 -24.2926 -2.4953 0.0830 0 8
-17.1331 -24.5705 -2.4953 0.0830 0 8
-16.7369 -24.8421 -2.4953 0.0830 0 8
-16.3364 -25.1073 -2.4953 0.0830 0 8
-15.9318 -25.3660 -2.4953 0.0830 0 8
-15.5230 -25.6182 -2.4953 0.0830 0 8
-15.1102 -25.8638 -2.4953 0.0830 0 8
-14.6935 -26.1028 -2.4953 0.0830 0 8
-14.2731 -26.3351 -2.4953 0.0830 0 8
-13.8488 -26.5610 -2.4953 0.0830 0 8
-13.4212 -26.7792 -2.4953 0.0830 0 8
-12.9901 -26.9910 -2.4953 0.0830 0 8
-12.5556 -27.1958 -2.4953 0.0830 0 8
-12.1179 -27.3936 -2.4953 0.0830 0 8
-11.6771 -27.5844 -2.4953 0.0830 0 8
-11.2333 -27.7681 -2.4953 0.0830 0 8
-10.7866 -27.9448 -2.4953 0.0830 0 8
-10.3371 -28.1140 -2.4953 0.0830 0 8
-9.8850 -28.2762 -2.4953 0.0830 0 8
-9.4303 -28.4309 -2.4953 0.0830 0 8
-8.9732 -28.5786 -2.4953 0.0830 0 8
-8.5138 -28.7188 -2.4953 0.0830 0 8
-8.0522 -28.8516 -2.4953 0.0830 0 8
-7.5885 -28.9770 -2.4953 0.0830 0 8
-7.1229 -29.0950 -2.4953 0.0830 0 8
-6.6555 -29.2055 -2.4953 0.0830 0 8
-6.1863 -29.3084 -2.4953 0.0830 0 8
-5.7155 -29.4039 -2.4953 0.0830 0 8
-5.2433 -29.4917 -2.4953 0.0830 0 8
-4.7697 -29.5720 -2.4953 0.0830 0 8
-4.2949 -29.6447 -2.4953 0.0830 0 8
-3.8190 -29.7098 -2.4953 0.0830 0 8
-3.3421 -29.7672 -2.4953 0.0830 0 8
-2.8644 -29.8169 -2.4953 0.0830 0 8
-2.3859 -29.8590 -2.4953 0.0830 0 8
-1.9068 -29.8935 -2.4953 0.0830 0 8
-1.4272 -29.9202 -2.4953 0.0830 0 8
-0.9473 -29.9392 -2.4953 0.0830 0 8
-0.4671 -29.9506 -2.4953 0.0830 0 8
0.0133 -29.9542 -2.4953 0.0830 0 8
0.4936 -29.9502 -2.4953 0.0830 0 8
0.9738 -29.9384 -2.4953 0.0830 0 8
1.4537 -29.9189 -2.4953 0.0830 0 8
1.9333 -29.8918 -2.4953 0.0830 0 8
2.4123 -29.8569 -2.4953 0.0830 0 8
2.8908 -29.8144 -2.4953 0.0830 0 8
3.3685 -29.7642 -2.4953 0.0830 0 8
3.8453 -29.7064 -2.4953 0.0830 0 8
4.3212 -29.6409 -2.4953 0.0830 0 8
4.7959 -29.5678 -2.4953 0.0830 0 8
5.2694 -29.4871 -2.4953 0.0830 0 8
5.7416 -29.3988 -2.4953 0.0830 0 8
6.2122 -29.3030 -2.4953 0.0830 0 8
6.6813 -29.1996 -2.4953 0.0830 0 8
-20.7751 18.8899 -2.5742 0.6774 0 8
-21.4449 18.8797 -2.6194 0.6657 0 8
-21.9799 18.7337 -2.6477 0.0913 0 7
-22.2774 18.3788 -2.6477 0.0913 0 6
-22.5694 18.0192 -2.6477 0.0913 0 7
-22.8554 17.6550 -2.6477 0.0913 0 7
-23.1356 17.2863 -2.6477 0.0913 0 7
-23.4098 16.9131 -2.6477 0.0913 0 7
-23.6780 16.5355 -2.6477 0.0913 0 7
-23.9401 16.1537 -2.6477 0.0913 0 7
-24.1960 15.7678 -2.6477 0.0913 0 7
-24.4457 15.3778 -2.6477 0.0913 0 7
-24.6892 14.9838 -2.6477 0.0913 0 7
-24.9263 14.5860 -2.6477 0.0913 0 7
-25.1570 14.1844 -2.6477 0.0913 0 7
-25.3812 13.7792 -2.6477 0.0913 0 7
-25.5989 13.3704 -2.6477 0.0913 0 7
-25.8100 12.9582 -2.6477 0.0913 0 7
-26.0144 12.5427 -2.6477 0.0913 0 7
-26.2122 12.1239 -2.6477 0.0913 0 7
-26.4032 11.7021 -2.6477 0.0913 0 7
-26.5875 11.2772 -2.6477 0.0913 0 7
-26.7649 10.8494 -2.6477 0.0913 0 7
-26.9354 10.4189 -2.6477 0.0913 0 7
-27.0990 9.9856 -2.6477 0.0913 0 7
-27.2557 9.5498 -2.6477 0.0913 0 7
-27.4053 9.1115 -2.6477 0.0913 0 7
-25.9622 8.1718 -2.4953 0.0913 0 8
-26.0899 7.7545 -2.4953 0.0913 0 8
-26.2109 7.3351 -2.4953 0.0913 0 8
-26.3251 6.9139 -2.4953 0.0913 0 8
-26.4326 6.4908 -2.4953 0.0913 0 8
-26.5333 6.0662 -2.4953 0.0913 0 8
-26.6272 5.6399 -2.4953 0.0913 0 8
-26.7142 5.2122 -2.4953 0.0913 0 8
-26.7943 4.7832 -2.4953 0.0913 0 8
-26.8676 4.3529 -2.4953 0.0913 0 8
-26.9339 3.9215 -2.4953 0.0913 0 8
-26.9933 3.4892 -2.4953 0.0913 0 8
-27.0458 3.0559 -2.4953 0.0913 0 8
-27.0913 2.6218 -2.4953 0.0913 0 8
-27.1299 2.1870 -2.4953 0.0913 0 8
-27.1615 1.7517 -2.4953 0.0913 0 8
-27.1861 1.3160 -2.4953 0.0913 0 8
-27.2037 0.8799 -2.4953 0.0913 0 8
-27.2143 0.4436 -2.4953 0.0913 0 8
-27.2179 0.0071 -2.4953 0.0913 0 8
-27.2145 -0.4293 -2.4953 0.0913 0 8
-27.2041 -0.8657 -2.4953 0.0913 0 8
-27.1868 -1.3018 -2.4953 0.0913 0 8
-27.1624 -1.7375 -2.4953 0.0913 0 8
-27.1310 -2.1729 -2.4953 0.0913 0 8
-27.0927 -2.6077 -2.4953 0.0913 0 8
-27.0474 -3.0418 -2.4953 0.0913 0 8
-26.9952 -3.4751 -2.4953 0.0913 0 8
-26.9360 -3.9075 -2.4953 0.0913 0 8
-26.8699 -4.3389 -2.4953 0.0913 0 8
-26.7968 -4.7692 -2.4953 0.0913 0 8
-26.7169 -5.1983 -2.4953 0.0913 0 8
-26.6301 -5.6260 -2.4953 0.0913 0 8
-26.5365 -6.0523 -2.4953 0.0913 0 8
-26.4360 -6.4770 -2.4953 0.0913 0 8
-26.3288 -6.9001 -2.4953 0.0913 0 8
-26.2147 -7.3214 -2.4953 0.0913 0 8
-26.0940 -7.7408 -2.4953 0.0913 0 8
-25.9665 -8.1582 -2.4953 0.0913 0 8
-25.8323 -8.5736 -2.4953 0.0913 0 8
-25.6915 -8.9867 -2.4953 0.0913 0 8
